x, y, z, i
-0.15000000596, 0.5, 2.0, 0.0
-0.15000000596, 0.5, 2.0, 0.0
-0.15000000596, 0.5, 2.0, 0.0
-0.15000000596, 0.5, 2.0, 0.0
20.6115055084, 8.33454704285, -0.305635333061, 13.0
20.2420368195, 8.27028751373, -0.269585549831, 12.0
-0.15000000596, 0.5, 2.0, 0.0
-0.15000000596, 0.5, 2.0, 0.0
-0.15000000596, 0.5, 2.0, 0.0
-0.15000000596, 0.5, 2.0, 0.0
20.2508163452, 8.65581703186, -0.29290702939, 12.0
20.1502838135, 8.69141483307, -0.288943618536, 13.0
-0.15000000596, 0.5, 2.0, 0.0
20.0961303711, 8.82310676575, -0.293528169394, 12.0
19.8663406372, 8.80598163605, -0.271759986877, 13.0
19.7190895081, 8.82217788696, -0.261901676655, 12.0
-0.15000000596, 0.5, 2.0, 0.0
19.5898456573, 8.92104625702, -0.262941688299, 13.0
19.3701496124, 8.90283584595, -0.243432715535, 13.0
19.4152450562, 8.99818134308, -0.254900127649, 13.0
19.3870735168, 9.06150436401, -0.259627997875, 12.0
19.149810791, 9.03214454651, -0.237893685699, 12.0
19.0033779144, 9.04227828979, -0.228377267718, 13.0
18.9932384491, 9.11223697662, -0.235612034798, 12.0
18.8467197418, 9.12126350403, -0.226849794388, 12.0
18.8542442322, 9.2000951767, -0.233239814639, 13.0
-0.15000000596, 0.5, 2.0, 0.0
18.020565033, 8.96312236786, -0.152143567801, 12.0
18.4784450531, 9.25009536743, -0.215144574642, 14.0
18.3139686584, 9.24801921844, -0.203745856881, 12.0
18.3201065063, 9.32679080963, -0.211561262608, 12.0
18.5586700439, 9.51765918732, -0.249358460307, 12.0
17.9202728271, 9.28360462189, -0.181196659803, 12.0
18.3466930389, 9.56452655792, -0.241680204868, 13.0
18.1657772064, 9.54831314087, -0.22774592042, 13.0
17.868680954, 9.47454738617, -0.201628312469, 12.0
17.8029613495, 9.51585197449, -0.202195182443, 12.0
17.5769443512, 9.47695636749, -0.183994084597, 12.0
17.5726261139, 9.54955291748, -0.194198846817, 13.0
17.61195755, 9.64541530609, -0.210044518113, 12.0
-0.15000000596, 0.5, 2.0, 0.0
17.3824462891, 9.67535305023, -0.198708474636, 12.0
17.2281703949, 9.66849803925, -0.188780650496, 12.0
-0.15000000596, 0.5, 2.0, 0.0
-0.15000000596, 0.5, 2.0, 0.0
16.8382015228, 9.67719650269, -0.16909827292, 12.0
17.2266979218, 9.96030139923, -0.227361872792, 12.0
16.8200836182, 9.81179523468, -0.185655027628, 13.0
16.7891330719, 9.86648464203, -0.192056521773, 13.0
16.8270950317, 9.96098613739, -0.204890519381, 12.0
16.6396121979, 9.92859363556, -0.189734637737, 12.0
16.5385932922, 9.94442653656, -0.187160402536, 12.0
16.1875648499, 9.81705093384, -0.149753287435, 12.0
16.0531368256, 9.81032085419, -0.142986506224, 12.0
16.1849727631, 9.95836830139, -0.169777452946, 12.0
16.1360912323, 10.0017614365, -0.172600716352, 12.0
15.8218889236, 9.88877677917, -0.13825827837, 12.0
15.6705570221, 9.87036895752, -0.127493396401, 12.0
15.579791069, 9.88589191437, -0.12422054261, 13.0
15.292927742, 9.78384494781, -0.0942309051752, 12.0
15.6270971298, 10.0551986694, -0.150868356228, 12.0
15.3069505692, 9.93092250824, -0.115020774305, 12.0
15.1484012604, 9.90360546112, -0.101784788072, 12.0
14.8808202744, 9.80629730225, -0.0753985196352, 12.0
14.9599838257, 9.92280483246, -0.0938044190407, 12.0
14.7776041031, 9.87619400024, -0.0775324031711, 13.0
14.713350296, 9.90262794495, -0.0773791000247, 12.0
14.4309215546, 9.79060459137, -0.0468203425407, 12.0
14.4338722229, 9.85893535614, -0.0551236234605, 12.0
14.4278106689, 9.92233276367, -0.0633603259921, 12.0
14.48021698, 10.0232591629, -0.078632876277, 12.0
14.4905910492, 10.0973405838, -0.0883200466633, 12.0
14.3513402939, 10.0731630325, -0.0774159878492, 12.0
14.3861150742, 10.1637153625, -0.0905450135469, 12.0
14.2882184982, 10.1665773392, -0.0844949185848, 13.0
14.2154684067, 10.1850624084, -0.0821617022157, 12.0
14.1673707962, 10.2199726105, -0.0832487270236, 13.0
-0.15000000596, 0.5, 2.0, 0.0
-0.15000000596, 0.5, 2.0, 0.0
13.8117141724, 10.1748723984, -0.054136518389, 12.0
13.8860425949, 10.2931175232, -0.0741170272231, 12.0
13.78125, 10.2866773605, -0.0648809298873, 12.0
13.8228549957, 10.3822517395, -0.0779941305518, 12.0
13.6214847565, 10.3052101135, -0.055473819375, 12.0
13.4291973114, 10.2325201035, -0.0328190848231, 12.0
13.6965055466, 10.4897003174, -0.0785050019622, 12.0
13.6247253418, 10.503704071, -0.0749298632145, 13.0
13.6172838211, 10.5645313263, -0.0783395320177, 13.0
13.4977054596, 10.5426893234, -0.0662604793906, 12.0
24.6609573364, 8.43063545227, -0.422185897827, 13.0
24.2848987579, 8.39526844025, -0.39258736372, 13.0
-0.15000000596, 0.5, 2.0, 0.0
-0.15000000596, 0.5, 2.0, 0.0
-0.15000000596, 0.5, 2.0, 0.0
-0.15000000596, 0.5, 2.0, 0.0
-0.15000000596, 0.5, 2.0, 0.0
23.6820888519, 8.7178850174, -0.36648902297, 13.0
23.532459259, 8.75420093536, -0.354858577251, 13.0
23.1387577057, 8.70295333862, -0.320633292198, 13.0
22.6712741852, 8.62072086334, -0.278631955385, 13.0
22.5232429504, 8.64949512482, -0.269309282303, 12.0
22.5626583099, 8.7454624176, -0.276050239801, 12.0
22.2271614075, 8.70581531525, -0.24741768837, 12.0
22.4430904388, 8.86878395081, -0.270616680384, 12.0
22.2011871338, 8.86163902283, -0.251289606094, 13.0
22.2855510712, 8.97644233704, -0.263644874096, 13.0
21.8392734528, 8.88907241821, -0.223726481199, 13.0
21.6911697388, 8.91382884979, -0.211545720696, 14.0
21.8677139282, 9.06409263611, -0.233700618148, 13.0
21.7558383942, 9.10330677032, -0.228693604469, 13.0
21.1998958588, 8.96551799774, -0.177579790354, 13.0
21.5880584717, 9.20145511627, -0.220791816711, 13.0
21.3564414978, 9.18921852112, -0.204624772072, 13.0
20.9775352478, 9.11640453339, -0.170548573136, 12.0
20.9675197601, 9.19262504578, -0.175358593464, 13.0
20.4788970947, 9.0714006424, -0.129144862294, 13.0
20.1745815277, 9.02421474457, -0.104467883706, 13.0
20.1459960938, 9.09076881409, -0.109700359404, 13.0
20.0072803497, 9.11064815521, -0.10267072916, 13.0
19.9330368042, 9.15681552887, -0.100488573313, 13.0
20.0594673157, 9.2899389267, -0.119919903576, 12.0
19.9573955536, 9.3234910965, -0.117134109139, 14.0
19.8465099335, 9.35233211517, -0.111089631915, 14.0
19.8170547485, 9.41753196716, -0.115470081568, 14.0
19.5969543457, 9.39624214172, -0.100540727377, 13.0
19.603433609, 9.47727298737, -0.109615571797, 13.0
19.4740467072, 9.49654865265, -0.101193629205, 13.0
19.3081951141, 9.49816989899, -0.0936073586345, 13.0
19.3232917786, 9.58286190033, -0.102534227073, 12.0
19.1310482025, 9.56966781616, -0.0905550047755, 13.0
18.7855491638, 9.48443889618, -0.0611609444022, 13.0
18.9614372253, 9.64659023285, -0.0873291790485, 13.0
18.8406066895, 9.66696739197, -0.0831923931837, 13.0
18.6933822632, 9.67289733887, -0.0756961628795, 13.0
18.6989707947, 9.75085163116, -0.0851923376322, 13.0
18.6511135101, 9.80191516876, -0.0878011137247, 13.0
18.2639484406, 9.68514823914, -0.0547386556864, 13.0
18.2063713074, 9.73231983185, -0.0567937269807, 13.0
18.1569499969, 9.78470134735, -0.0607721991837, 13.0
18.0098628998, 9.78691482544, -0.0548936575651, 12.0
17.9069385529, 9.81150245667, -0.0540800951421, 13.0
17.7957935333, 9.83014583588, -0.0507971420884, 13.0
17.914068222, 9.96817016602, -0.0719922333956, 13.0
17.7587032318, 9.9630689621, -0.063554212451, 13.0
17.7445907593, 10.0303945541, -0.0735560283065, 13.0
17.5023365021, 9.97601890564, -0.0541879534721, 13.0
17.4530410767, 10.024312973, -0.0578697398305, 12.0
17.4563732147, 10.1005153656, -0.0667110159993, 12.0
17.4674682617, 10.1823978424, -0.0784893631935, 12.0
17.2438545227, 10.1332864761, -0.062447682023, 13.0
17.3417301178, 10.2634382248, -0.081882327795, 14.0
17.1791305542, 10.2472791672, -0.0716871246696, 13.0
17.0683364868, 10.260017395, -0.0690410733223, 13.0
17.0355548859, 10.3166189194, -0.0738098844886, 12.0
17.0459346771, 10.3969516754, -0.0863126963377, 12.0
16.6769123077, 10.2592372894, -0.0508381389081, 13.0
16.6098194122, 10.2943086624, -0.0519111081958, 12.0
16.4315452576, 10.2633476257, -0.0376156531274, 13.0
16.6551628113, 10.4701595306, -0.0748331472278, 13.0
16.5452804565, 10.4787082672, -0.07040720433, 12.0
16.1710700989, 10.3283033371, -0.0329080745578, 13.0
16.2996101379, 10.4793634415, -0.0603719167411, 13.0
16.1050987244, 10.4347858429, -0.0438679978251, 13.0
15.8685588837, 10.3631162643, -0.0226411670446, 13.0
15.6162137985, 10.2783842087, -0.00132215709891, 13.0
15.6011104584, 10.3395853043, -0.00686487648636, 13.0
15.3162746429, 10.2313947678, 0.0204344168305, 13.0
15.1584482193, 10.2010803223, 0.0319144837558, 13.0
15.0340824127, 10.1918697357, 0.0389559306204, 12.0
15.0022516251, 10.2408027649, 0.0352029390633, 13.0
14.7696208954, 10.1603183746, 0.0564012341201, 13.0
14.7962789536, 10.2462892532, 0.0452371425927, 13.0
14.8557653427, 10.354300499, 0.029376886785, 14.0
14.8316631317, 10.4080085754, 0.0236299261451, 13.0
14.7164287567, 10.401143074, 0.0308402813971, 13.0
14.5598936081, 10.3663291931, 0.0437370911241, 13.0
14.4370136261, 10.3523540497, 0.052121900022, 14.0
14.5116014481, 10.4719057083, 0.0342546030879, 13.0
14.4216098785, 10.4795942307, 0.0381738767028, 13.0
14.3568639755, 10.5027484894, 0.0381604544818, 13.0
14.2022266388, 10.4639873505, 0.0534766986966, 13.0
14.1697463989, 10.5097389221, 0.0490023270249, 13.0
14.2917156219, 10.6643533707, 0.0262535978109, 13.0
14.056397438, 10.5664186478, 0.0516944304109, 13.0
14.0080318451, 10.5995855331, 0.0510355047882, 13.0
13.9357671738, 10.6148815155, 0.0550519488752, 13.0
13.8234109879, 10.6006317139, 0.0651807710528, 13.0
13.8396024704, 10.6793842316, 0.0559717975557, 13.0
13.855588913, 10.7586479187, 0.0494826808572, 13.0
13.7033042908, 10.7139120102, 0.0649710670114, 13.0
25.1454296112, 8.50387573242, -0.168780133128, 13.0
24.8341636658, 8.49188041687, -0.159597784281, 13.0
-0.15000000596, 0.5, 2.0, 0.0
-0.15000000596, 0.5, 2.0, 0.0
-0.15000000596, 0.5, 2.0, 0.0
24.3754749298, 8.69620704651, -0.173866525292, 13.0
-0.15000000596, 0.5, 2.0, 0.0
-0.15000000596, 0.5, 2.0, 0.0
-0.15000000596, 0.5, 2.0, 0.0
-0.15000000596, 0.5, 2.0, 0.0
-0.15000000596, 0.5, 2.0, 0.0
23.6074943542, 8.95307445526, -0.173286423087, 13.0
-0.15000000596, 0.5, 2.0, 0.0
-0.15000000596, 0.5, 2.0, 0.0
-0.15000000596, 0.5, 2.0, 0.0
-0.15000000596, 0.5, 2.0, 0.0
-0.15000000596, 0.5, 2.0, 0.0
-0.15000000596, 0.5, 2.0, 0.0
21.8866519928, 8.91404056549, -0.0814090073109, 13.0
21.7745094299, 8.95442485809, -0.0800716504455, 12.0
-0.15000000596, 0.5, 2.0, 0.0
-0.15000000596, 0.5, 2.0, 0.0
22.068403244, 9.31939315796, -0.135620936751, 12.0
21.6600284576, 9.23948669434, -0.105276808143, 13.0
-0.15000000596, 0.5, 2.0, 0.0
-0.15000000596, 0.5, 2.0, 0.0
-0.15000000596, 0.5, 2.0, 0.0
-0.15000000596, 0.5, 2.0, 0.0
-0.15000000596, 0.5, 2.0, 0.0
-0.15000000596, 0.5, 2.0, 0.0
19.966173172, 9.10377120972, 0.00109648006037, 12.0
20.0103225708, 9.20182800293, -0.0105044916272, 13.0
20.1358032227, 9.33622264862, -0.0336562916636, 13.0
19.7957382202, 9.26741695404, -0.00857151020318, 13.0
19.7115516663, 9.30969429016, -0.00510848639533, 12.0
19.8913822174, 9.46717166901, -0.0335410386324, 12.0
19.625825882, 9.42531108856, -0.0148665318266, 13.0
19.5961685181, 9.48991584778, -0.0185073465109, 12.0
-0.15000000596, 0.5, 2.0, 0.0
-0.15000000596, 0.5, 2.0, 0.0
19.3508167267, 9.61433887482, -0.0177729688585, 12.0
-0.15000000596, 0.5, 2.0, 0.0
18.5967063904, 9.41349506378, 0.0421482101083, 12.0
-0.15000000596, 0.5, 2.0, 0.0
18.8412094116, 9.68462276459, 0.00182404054794, 12.0
18.8908691406, 9.78623008728, -0.0123798251152, 12.0
18.9315052032, 9.88366031647, -0.0230334121734, 12.0
18.5792217255, 9.78646087646, 0.00552430655807, 12.0
18.3348884583, 9.74026584625, 0.0241410583258, 13.0
18.2684688568, 9.78270149231, 0.0226665493101, 13.0
-0.15000000596, 0.5, 2.0, 0.0
17.7891330719, 9.69119548798, 0.0578738600016, 12.0
17.872423172, 9.81062984467, 0.0381500460207, 13.0
-0.15000000596, 0.5, 2.0, 0.0
17.8085250854, 9.93095970154, 0.0269956402481, 12.0
17.7771015167, 9.98981380463, 0.02341886051, 13.0
17.824420929, 10.0906744003, 0.0100219808519, 12.0
17.7140483856, 10.1056022644, 0.011899003759, 12.0
17.5683174133, 10.1016921997, 0.0172612834722, 12.0
17.6853179932, 10.2402324677, -0.00143697508611, 12.0
17.7666034698, 10.3595314026, -0.0217508617789, 12.0
17.37657547, 10.2208251953, 0.0139652369544, 13.0
17.4744510651, 10.3502721786, -0.00872269459069, 12.0
17.2940750122, 10.3247423172, 0.001728757401, 12.0
16.9324455261, 10.1953544617, 0.0358822345734, 12.0
17.1420192719, 10.3887691498, 0.00032588254544, 12.0
17.1607589722, 10.4750461578, -0.0105923814699, 12.0
-0.15000000596, 0.5, 2.0, 0.0
16.8273048401, 10.4321308136, 0.00581744685769, 12.0
16.7169799805, 10.442232132, 0.0101652760059, 12.0
16.7352371216, 10.5270280838, -0.00375488656573, 12.0
16.522485733, 10.4745893478, 0.0108636682853, 12.0
16.5828723907, 10.5853099823, -0.00676990998909, 12.0
16.3287849426, 10.5043058395, 0.0130563611165, 12.0
16.2103843689, 10.5058031082, 0.0150274215266, 12.0
16.008518219, 10.4532346725, 0.0297771710902, 12.0
15.797794342, 10.3952074051, 0.043051790446, 12.0
15.6893444061, 10.3987188339, 0.0457957163453, 13.0
15.4038896561, 10.2907123566, 0.0689661428332, 12.0
15.228468895, 10.2509298325, 0.0821361020207, 12.0
15.4141693115, 10.4389801025, 0.0459742248058, 12.0
14.9876832962, 10.2367773056, 0.0880052521825, 12.0
14.9553146362, 10.2852058411, 0.0792718306184, 12.0
14.9892101288, 10.3775682449, 0.0634161159396, 12.0
14.8315181732, 10.3445186615, 0.0711579844356, 12.0
14.6084508896, 10.2658824921, 0.0880148336291, 12.0
14.6418828964, 10.3575353622, 0.0703397393227, 12.0
14.386220932, 10.2553501129, 0.0911980867386, 12.0
14.468667984, 10.3804759979, 0.0678380206227, 12.0
14.5668172836, 10.517449379, 0.041912060231, 13.0
14.4269599915, 10.4913511276, 0.0471737198532, 12.0
14.1488933563, 10.3678655624, 0.0719765871763, 12.0
14.1331624985, 10.4237098694, 0.0606065280735, 12.0
14.0272245407, 10.4173526764, 0.0607977360487, 13.0
14.0671453476, 10.5142354965, 0.0409513600171, 12.0
14.0007066727, 10.5373220444, 0.0349801778793, 12.0
13.7156238556, 10.4043664932, 0.058224786073, 12.0
13.9245500565, 10.6228723526, 0.0158212222159, 12.0
13.7538709641, 10.5683364868, 0.0227836854756, 12.0
13.7201452255, 10.6128740311, 0.0132368262857, 12.0
13.6861867905, 10.6565608978, -0.000657832657453, 12.0
25.8454532623, 8.73585319519, 0.0295172184706, 12.0
25.9417762756, 8.85685539246, 0.00420469697565, 13.0
25.9521636963, 8.95219612122, -0.0093714306131, 12.0
-0.15000000596, 0.5, 2.0, 0.0
24.8819713593, 8.78541660309, 0.0440098680556, 13.0
-0.15000000596, 0.5, 2.0, 0.0
24.9868354797, 9.00167560577, 0.0117844352499, 13.0
24.9023113251, 9.0622253418, 0.00689641665667, 14.0
24.7705287933, 9.10616207123, 0.0062824706547, 13.0
24.5818996429, 9.13063240051, 0.010456841439, 13.0
24.2709846497, 9.11083126068, 0.0226309485734, 13.0
24.0259799957, 9.11363983154, 0.0315596200526, 13.0
24.1939907074, 9.26361370087, 0.0070714703761, 13.0
24.1360836029, 9.33386135101, 0.00114187540021, 12.0
23.7789783478, 9.29289913177, 0.0216820221394, 14.0
23.8335723877, 9.40221786499, 0.00639811949804, 13.0
23.4026565552, 9.32914352417, 0.0323718227446, 13.0
23.4104728699, 9.42009544373, 0.022900974378, 13.0
23.4271354675, 9.51496696472, 0.0121711650863, 13.0
22.913028717, 9.40611457825, 0.0460716672242, 13.0
22.3911132812, 9.28931522369, 0.0819189324975, 13.0
22.6399383545, 9.47240638733, 0.050742354244, 14.0
22.5819454193, 9.53630924225, 0.0466835275292, 13.0
22.3761405945, 9.5395898819, 0.0554563440382, 13.0
22.2902908325, 9.59111213684, 0.0534394681454, 14.0
22.3977851868, 9.72223472595, 0.0349668301642, 13.0
21.9059371948, 9.6063451767, 0.0677121803164, 14.0
21.7551307678, 9.63030147552, 0.0715387538075, 14.0
21.6511516571, 9.67125892639, 0.0736768171191, 13.0
21.4463787079, 9.66811466217, 0.0833036080003, 13.0
21.1963500977, 9.64376068115, 0.0987017452717, 13.0
21.1289196014, 9.69865322113, 0.0973938256502, 13.0
20.4672203064, 9.49433708191, 0.146048039198, 13.0
20.4183082581, 9.55499649048, 0.141458585858, 13.0
20.3695030212, 9.61563968658, 0.140983581543, 13.0
20.3756599426, 9.69815254211, 0.130200088024, 13.0
20.3271350861, 9.75629138947, 0.126354694366, 13.0
20.3144798279, 9.83160877228, 0.120909355581, 13.0
20.0566482544, 9.79480361938, 0.134423911572, 13.0
20.0431690216, 9.87063407898, 0.128451123834, 13.0
19.7947502136, 9.83673381805, 0.144651889801, 14.0
19.7270336151, 9.88576889038, 0.141371056437, 13.0
19.6954612732, 9.95115375519, 0.135346755385, 13.0
18.0379371643, 9.23598957062, 0.28421112895, 12.0
17.8560638428, 9.22239112854, 0.294726461172, 12.0
18.1311225891, 9.4303188324, 0.260353058577, 12.0
17.9316158295, 9.40660667419, 0.273602426052, 13.0
17.9019775391, 9.46549320221, 0.268254071474, 13.0
18.2287254333, 9.7024936676, 0.229848861694, 13.0
18.2780208588, 9.80305194855, 0.216830834746, 13.0
18.9036540985, 10.198548317, 0.148503556848, 13.0
18.3300971985, 9.98435497284, 0.195683971047, 12.0
17.6515350342, 9.7121181488, 0.251678258181, 12.0
17.9558792114, 9.94679927826, 0.215298980474, 13.0
18.0026493073, 10.0492286682, 0.199538707733, 13.0
17.9707946777, 10.1088571548, 0.195911675692, 14.0
18.0528717041, 10.2293691635, 0.179781869054, 14.0
17.9858570099, 10.2686872482, 0.176307171583, 14.0
17.9358272552, 10.3179292679, 0.170586913824, 13.0
17.973487854, 10.4149560928, 0.161404803395, 13.0
17.8710842133, 10.4344730377, 0.160868167877, 13.0
17.8114528656, 10.4796333313, 0.158791020513, 12.0
17.7781829834, 10.5378017426, 0.150745809078, 13.0
17.7445583344, 10.596414566, 0.144189462066, 13.0
17.598274231, 10.5912895203, 0.152143746614, 13.0
17.6424674988, 10.6932401657, 0.136099055409, 12.0
17.3841953278, 10.6220340729, 0.154633462429, 12.0
17.3157920837, 10.6592159271, 0.150516420603, 14.0
17.3589172363, 10.7617673874, 0.134979829192, 12.0
17.1702594757, 10.7280721664, 0.146581336856, 12.0
16.8795261383, 10.6312541962, 0.166173487902, 12.0
16.7261276245, 10.6150064468, 0.172281816602, 13.0
16.7434577942, 10.700917244, 0.160226389766, 12.0
16.7440910339, 10.7754678726, 0.149590760469, 14.0
16.6417369843, 10.788731575, 0.148530870676, 13.0
16.6930408478, 10.8942747116, 0.133067876101, 13.0
16.1003131866, 10.6018199921, 0.186465501785, 12.0
16.1767787933, 10.7225427628, 0.167393147945, 13.0
15.9575138092, 10.6583490372, 0.179882079363, 13.0
15.7807807922, 10.6202936172, 0.191283717752, 12.0
15.8060626984, 10.7086219788, 0.175439015031, 13.0
15.7717514038, 10.7606563568, 0.167615488172, 12.0
15.6124334335, 10.7304430008, 0.172932043672, 13.0
15.3616256714, 10.6400051117, 0.190531209111, 13.0
15.1448335648, 10.5697851181, 0.203487977386, 13.0
14.9707298279, 10.5249652863, 0.212133929133, 13.0
14.8129940033, 10.4909172058, 0.217643663287, 13.0
14.5898504257, 10.4112644196, 0.231906786561, 14.0
14.6965436935, 10.5540904999, 0.206741198897, 13.0
14.5804481506, 10.546374321, 0.208161473274, 13.0
14.4076709747, 10.4977397919, 0.216206476092, 12.0
14.3422698975, 10.5210323334, 0.211955055594, 13.0
14.3750610352, 10.6117277145, 0.194544732571, 13.0
14.3418254852, 10.6575183868, 0.184530287981, 13.0
14.3484916687, 10.7327041626, 0.169397354126, 13.0
14.2407979965, 10.7279605865, 0.167990848422, 13.0
14.2057466507, 10.7749414444, 0.155919969082, 13.0
14.1876173019, 10.8327379227, 0.145232722163, 14.0
14.1369838715, 10.8665266037, 0.134597435594, 13.0
14.1344051361, 10.9358768463, 0.12054657191, 13.0
14.0834197998, 10.9692077637, 0.108349911869, 13.0
-0.15000000596, 0.5, 2.0, 0.0
-0.15000000596, 0.5, 2.0, 0.0
-0.15000000596, 0.5, 2.0, 0.0
25.5795917511, 8.92147541046, -0.0467937774956, 13.0
24.8612194061, 8.77744102478, 0.0152366217226, 13.0
-0.15000000596, 0.5, 2.0, 0.0
24.7698402405, 8.92489814758, 0.0183025393635, 13.0
-0.15000000596, 0.5, 2.0, 0.0
-0.15000000596, 0.5, 2.0, 0.0
24.7442989349, 9.18445205688, 0.0181597862393, 13.0
24.4150314331, 9.15946292877, 0.0436529889703, 13.0
-0.15000000596, 0.5, 2.0, 0.0
-0.15000000596, 0.5, 2.0, 0.0
-0.15000000596, 0.5, 2.0, 0.0
23.896780014, 9.33266544342, 0.0732371881604, 13.0
-0.15000000596, 0.5, 2.0, 0.0
-0.15000000596, 0.5, 2.0, 0.0
23.5574512482, 9.47105312347, 0.0886375457048, 13.0
23.341583252, 9.47673892975, 0.0994436219335, 13.0
23.1167125702, 9.4780960083, 0.114809341729, 12.0
-0.15000000596, 0.5, 2.0, 0.0
-0.15000000596, 0.5, 2.0, 0.0
22.6839923859, 9.56998825073, 0.136229470372, 13.0
-0.15000000596, 0.5, 2.0, 0.0
-0.15000000596, 0.5, 2.0, 0.0
-0.15000000596, 0.5, 2.0, 0.0
22.5072212219, 9.84388542175, 0.124207176268, 13.0
-0.15000000596, 0.5, 2.0, 0.0
22.2062549591, 9.89067173004, 0.135717332363, 13.0
-0.15000000596, 0.5, 2.0, 0.0
-0.15000000596, 0.5, 2.0, 0.0
-0.15000000596, 0.5, 2.0, 0.0
-0.15000000596, 0.5, 2.0, 0.0
20.1286182404, 9.41790390015, 0.274601906538, 12.0
20.1353645325, 9.50040721893, 0.266723066568, 12.0
20.7339496613, 9.84614467621, 0.207586184144, 12.0
-0.15000000596, 0.5, 2.0, 0.0
-0.15000000596, 0.5, 2.0, 0.0
-0.15000000596, 0.5, 2.0, 0.0
-0.15000000596, 0.5, 2.0, 0.0
-0.15000000596, 0.5, 2.0, 0.0
19.8855018616, 9.94368648529, 0.232551544905, 12.0
-0.15000000596, 0.5, 2.0, 0.0
-0.15000000596, 0.5, 2.0, 0.0
-0.15000000596, 0.5, 2.0, 0.0
-0.15000000596, 0.5, 2.0, 0.0
-0.15000000596, 0.5, 2.0, 0.0
17.8971729279, 9.44703578949, 0.358580887318, 13.0
18.0993099213, 9.6215467453, 0.33237683773, 12.0
-0.15000000596, 0.5, 2.0, 0.0
-0.15000000596, 0.5, 2.0, 0.0
-0.15000000596, 0.5, 2.0, 0.0
17.4428405762, 9.58882331848, 0.356168270111, 12.0
17.6332111359, 9.76200866699, 0.330554872751, 13.0
18.1309661865, 10.0991659164, 0.273530840874, 12.0
18.1337223053, 10.1782560349, 0.263779520988, 13.0
18.0308551788, 10.2007017136, 0.263531327248, 13.0
18.3140735626, 10.4305362701, 0.226859658957, 12.0
17.8866004944, 10.2773237228, 0.258426725864, 12.0
18.0289402008, 10.4315061569, 0.234954252839, 13.0
18.1617717743, 10.5819683075, 0.213010191917, 12.0
18.0152206421, 10.5782194138, 0.217672303319, 12.0
17.9030170441, 10.5943470001, 0.219476133585, 12.0
-0.15000000596, 0.5, 2.0, 0.0
17.6877002716, 10.6290931702, 0.220670774579, 12.0
-0.15000000596, 0.5, 2.0, 0.0
17.7318611145, 10.8104743958, 0.196787968278, 12.0
17.4988670349, 10.7549171448, 0.212724983692, 12.0
17.2579860687, 10.6921253204, 0.226550653577, 13.0
17.4811248779, 10.9012804031, 0.194640994072, 12.0
16.9670753479, 10.6735458374, 0.237957760692, 12.0
-0.15000000596, 0.5, 2.0, 0.0
16.9764823914, 10.8303108215, 0.218230351806, 12.0
16.8318042755, 10.818022728, 0.222579464316, 12.0
16.9421100616, 10.9616203308, 0.203159332275, 12.0
16.6951255798, 10.8867635727, 0.218484297395, 12.0
-0.15000000596, 0.5, 2.0, 0.0
16.1779384613, 10.717417717, 0.25689470768, 12.0
16.0685348511, 10.722196579, 0.259787082672, 12.0
-0.15000000596, 0.5, 2.0, 0.0
-0.15000000596, 0.5, 2.0, 0.0
15.9512729645, 10.8662109375, 0.243972405791, 12.0
15.9760904312, 10.9555196762, 0.23327665031, 12.0
15.3832397461, 10.6423282623, 0.288703769445, 12.0
15.1919116974, 10.5886259079, 0.303240031004, 12.0
15.1090564728, 10.6048765182, 0.303803563118, 13.0
14.7693843842, 10.4496116638, 0.333477407694, 12.0
14.7033634186, 10.4761171341, 0.333999067545, 12.0
14.7618455887, 10.5846138, 0.31957757473, 13.0
14.5311279297, 10.4983940125, 0.33802524209, 12.0
14.5558252335, 10.5851211548, 0.327541232109, 12.0
14.6622838974, 10.7280626297, 0.306075006723, 12.0
14.3999643326, 10.6166210175, 0.328923106194, 13.0
14.5796060562, 10.811000824, 0.301295012236, 13.0
14.52227211, 10.8402471542, 0.301581442356, 12.0
14.4735403061, 10.8743457794, 0.301429063082, 13.0
14.4731702805, 10.9432239532, 0.295745790005, 13.0
14.3262662888, 10.9084806442, 0.30608651042, 13.0
14.4301118851, 11.0533828735, 0.287431687117, 12.0
14.6539459229, 11.287191391, 0.256531447172, 13.0
14.3800106049, 11.1557130814, 0.284029006958, 12.0
-0.15000000596, 0.5, 2.0, 0.0
-0.15000000596, 0.5, 2.0, 13.0
-0.15000000596, 0.5, 2.0, 0.0
-0.15000000596, 0.5, 2.0, 0.0
26.0678138733, 9.18902015686, 0.180792227387, 13.0
26.1059494019, 9.29544448853, 0.175772145391, 14.0
25.8129463196, 9.29016685486, 0.194639533758, 13.0
25.8603649139, 9.39934158325, 0.193042010069, 13.0
25.5770893097, 9.394490242, 0.210207179189, 14.0
25.397403717, 9.42544174194, 0.222092807293, 14.0
25.3305778503, 9.49557304382, 0.226268187165, 14.0
25.0190105438, 9.478556633, 0.246489569545, 13.0
25.3082447052, 9.67658424377, 0.221636846662, 14.0
25.2030944824, 9.73234558105, 0.226313635707, 14.0
24.8073883057, 9.68120765686, 0.251670747995, 12.0
24.9177780151, 9.81424427032, 0.2417781353, 14.0
24.7469539642, 9.84302997589, 0.247309997678, 14.0
24.4643268585, 9.82880878448, 0.264316290617, 13.0
24.2471637726, 9.83747386932, 0.273069292307, 13.0
24.3001708984, 9.94973468781, 0.266638964415, 13.0
23.7763824463, 9.83710575104, 0.29872611165, 13.0
24.0148239136, 10.0211715698, 0.276794493198, 14.0
23.8902416229, 10.0645675659, 0.282227277756, 13.0
23.7195568085, 10.0873832703, 0.286899507046, 13.0
23.7060337067, 10.1736135483, 0.282228380442, 14.0
23.1661567688, 10.0433979034, 0.313888400793, 12.0
22.978181839, 10.0538740158, 0.321586161852, 13.0
23.0845394135, 10.1875696182, 0.308823496103, 13.0
22.9975376129, 10.2392892838, 0.306913167238, 14.0
22.7814598083, 10.237030983, 0.314964145422, 13.0
22.5930976868, 10.2457513809, 0.323143303394, 13.0
22.0107326508, 10.0836849213, 0.35839676857, 12.0
21.6209697723, 10.0036725998, 0.380975693464, 13.0
21.2416820526, 9.92351341248, 0.400590479374, 13.0
21.2285041809, 10.0017518997, 0.394182860851, 13.0
21.2521820068, 10.0946302414, 0.384517908096, 13.0
21.3390922546, 10.2169752121, 0.372462779284, 12.0
21.1888866425, 10.2329053879, 0.374419182539, 13.0
21.0841388702, 10.2693481445, 0.376365512609, 12.0
21.1324634552, 10.3775873184, 0.362805455923, 14.0
21.017742157, 10.4096736908, 0.359899759293, 13.0
20.8312950134, 10.4070510864, 0.36805960536, 13.0
20.6987876892, 10.4294252396, 0.369986444712, 13.0
20.6474895477, 10.489490509, 0.36555776, 14.0
17.911775589, 9.2493057251, 0.573000252247, 12.0
18.0705413818, 9.40055370331, 0.550569117069, 12.0
18.2736968994, 9.5743932724, 0.526595115662, 12.0
18.5111637115, 9.76827430725, 0.499262779951, 13.0
18.4447517395, 9.81120491028, 0.496940672398, 12.0
18.7964076996, 10.0655431747, 0.459735393524, 12.0
18.7549686432, 10.1242303848, 0.454295009375, 14.0
18.6601638794, 10.1551246643, 0.451989501715, 13.0
18.5648880005, 10.1864566803, 0.450013488531, 12.0
19.3898944855, 10.6959257126, 0.373426914215, 12.0
18.2871608734, 10.1993112564, 0.455168545246, 13.0
17.9900379181, 10.1202478409, 0.47097235918, 14.0
17.9225158691, 10.1610908508, 0.467031538486, 14.0
18.1093978882, 10.339056015, 0.44199693203, 13.0
18.0413646698, 10.3799686432, 0.438568025827, 12.0
18.3845882416, 10.6451292038, 0.399527698755, 12.0
18.3159313202, 10.6863269806, 0.39667224884, 13.0
18.0208358765, 10.600725174, 0.412988007069, 14.0
18.2042694092, 10.7826128006, 0.387955605984, 13.0
17.874671936, 10.6759595871, 0.406681984663, 13.0
18.1782665253, 10.9279127121, 0.370351999998, 13.0
18.3855800629, 11.1269445419, 0.343127429485, 12.0
18.5570983887, 11.3074483871, 0.31702119112, 12.0
18.2964744568, 11.239484787, 0.332934111357, 13.0
18.1914806366, 11.2599067688, 0.331657648087, 13.0
18.0351524353, 11.2494211197, 0.336778491735, 12.0
17.7767543793, 11.1760139465, 0.351011991501, 12.0
17.7671298981, 11.2492570877, 0.341239392757, 12.0
17.4159679413, 11.1166791916, 0.365670740604, 12.0
17.2532863617, 11.0954236984, 0.370196998119, 13.0
17.090763092, 11.07396698, 0.377830415964, 13.0
17.1655673981, 11.1985340118, 0.360223591328, 14.0
16.9858551025, 11.1660461426, 0.368926852942, 13.0
17.0430049896, 11.28079319, 0.35541793704, 13.0
16.8390083313, 11.2298440933, 0.366089552641, 13.0
16.8205127716, 11.295548439, 0.359811782837, 13.0
16.5755023956, 11.2151269913, 0.372577488422, 13.0
16.3398284912, 11.1384630203, 0.386085927486, 12.0
16.4138793945, 11.2618122101, 0.370994001627, 12.0
16.5537662506, 11.4294967651, 0.347367674112, 12.0
14.8702306747, 10.3979139328, 0.507862389088, 12.0
14.8294820786, 10.4407291412, 0.503807544708, 13.0
14.8216791153, 10.5057058334, 0.496816515923, 12.0
14.8215551376, 10.5769701004, 0.490268498659, 14.0
14.7642049789, 10.6078367233, 0.488529831171, 14.0
14.6238765717, 10.5832300186, 0.495498627424, 13.0
14.6154155731, 10.647892952, 0.488989621401, 13.0
14.6479244232, 10.7403364182, 0.476664185524, 14.0
14.6716222763, 10.8279848099, 0.467295318842, 13.0
14.597697258, 10.8462896347, 0.468282908201, 13.0
14.605301857, 10.9216575623, 0.461481511593, 14.0
14.6536960602, 11.0253887177, 0.450917512178, 13.0
14.7257099152, 11.1471939087, 0.437910884619, 13.0
14.7640018463, 11.2471656799, 0.42727175355, 13.0
14.7618741989, 11.3177404404, 0.421210199594, 13.0
15.3146934509, 11.7940816879, 0.35824495554, 12.0
15.3120641708, 11.8649568558, 0.353823065758, 13.0
-0.15000000596, 0.5, 2.0, 0.0
-0.15000000596, 0.5, 2.0, 0.0
-0.15000000596, 0.5, 2.0, 0.0
-0.15000000596, 0.5, 2.0, 0.0
-0.15000000596, 0.5, 2.0, 0.0
-0.15000000596, 0.5, 2.0, 0.0
-0.15000000596, 0.5, 2.0, 0.0
-0.15000000596, 0.5, 2.0, 0.0
-0.15000000596, 0.5, 2.0, 0.0
-0.15000000596, 0.5, 2.0, 0.0
26.0006580353, 9.64923477173, 0.419784992933, 13.0
-0.15000000596, 0.5, 2.0, 0.0
-0.15000000596, 0.5, 2.0, 0.0
25.8520278931, 9.88377952576, 0.395230829716, 13.0
-0.15000000596, 0.5, 2.0, 0.0
-0.15000000596, 0.5, 2.0, 0.0
25.1291236877, 9.90763378143, 0.405414938927, 13.0
24.537065506, 9.77938938141, 0.432141214609, 13.0
25.0478534698, 10.0645065308, 0.391142398119, 13.0
-0.15000000596, 0.5, 2.0, 0.0
24.5650730133, 10.0661725998, 0.401245802641, 13.0
-0.15000000596, 0.5, 2.0, 0.0
24.0648841858, 10.0549049377, 0.415836393833, 12.0
24.0702896118, 10.1482534409, 0.40521171689, 12.0
24.2414131165, 10.3103427887, 0.38389608264, 13.0
-0.15000000596, 0.5, 2.0, 0.0
-0.15000000596, 0.5, 2.0, 0.0
-0.15000000596, 0.5, 2.0, 0.0
-0.15000000596, 0.5, 2.0, 0.0
23.2450828552, 10.3644361496, 0.401048481464, 13.0
-0.15000000596, 0.5, 2.0, 0.0
-0.15000000596, 0.5, 2.0, 0.0
21.6535072327, 9.94654273987, 0.488054096699, 13.0
-0.15000000596, 0.5, 2.0, 0.0
-0.15000000596, 0.5, 2.0, 0.0
-0.15000000596, 0.5, 2.0, 0.0
-0.15000000596, 0.5, 2.0, 0.0
-0.15000000596, 0.5, 2.0, 0.0
-0.15000000596, 0.5, 2.0, 0.0
-0.15000000596, 0.5, 2.0, 0.0
21.193151474, 10.4277467728, 0.451512038708, 12.0
-0.15000000596, 0.5, 2.0, 0.0
-0.15000000596, 0.5, 2.0, 0.0
-0.15000000596, 0.5, 2.0, 0.0
-0.15000000596, 0.5, 2.0, 0.0
-0.15000000596, 0.5, 2.0, 0.0
-0.15000000596, 0.5, 2.0, 0.0
-0.15000000596, 0.5, 2.0, 0.0
18.7760391235, 9.92119693756, 0.563955545425, 13.0
-0.15000000596, 0.5, 2.0, 0.0
18.8628139496, 10.124464035, 0.539810717106, 13.0
18.4929294586, 10.0145530701, 0.559554278851, 12.0
-0.15000000596, 0.5, 2.0, 0.0
-0.15000000596, 0.5, 2.0, 0.0
-0.15000000596, 0.5, 2.0, 0.0
18.0461769104, 10.0922899246, 0.560739040375, 13.0
18.1638145447, 10.231877327, 0.544367313385, 14.0
18.06939888, 10.259516716, 0.54268682003, 13.0
18.4498100281, 10.541009903, 0.502906739712, 12.0
-0.15000000596, 0.5, 2.0, 0.0
-0.15000000596, 0.5, 2.0, 0.0
18.3147754669, 10.7021007538, 0.486174792051, 12.0
18.2806072235, 10.7626523972, 0.479060769081, 12.0
18.194196701, 10.7939357758, 0.478992253542, 12.0
18.0114860535, 10.7716808319, 0.48364764452, 12.0
18.7306728363, 11.2615318298, 0.41451561451, 13.0
18.8675861359, 11.4224367142, 0.390078127384, 12.0
18.7365512848, 11.429017067, 0.390917122364, 12.0
18.6231327057, 11.4445009232, 0.390192806721, 12.0
18.5004520416, 11.4555854797, 0.390058815479, 12.0
18.1804847717, 11.3490371704, 0.405868291855, 13.0
18.2551937103, 11.4759759903, 0.388501882553, 13.0
17.7821407318, 11.2748985291, 0.418752849102, 12.0
17.6014938354, 11.2450447083, 0.42372867465, 13.0
17.3444824219, 11.167681694, 0.435972243547, 12.0
17.1651496887, 11.1348876953, 0.441409021616, 13.0
17.2406806946, 11.258055687, 0.4224614501, 12.0
17.2389278412, 11.3354072571, 0.412031888962, 12.0
-0.15000000596, 0.5, 2.0, 0.0
-0.15000000596, 0.5, 2.0, 0.0
16.78657341, 11.2829246521, 0.418656200171, 12.0
16.7930526733, 11.3640861511, 0.406033575535, 12.0
-0.15000000596, 0.5, 2.0, 0.0
16.169260025, 11.1145744324, 0.44004163146, 12.0
-0.15000000596, 0.5, 2.0, 0.0
14.8668718338, 10.407913208, 0.540791034698, 13.0
15.0167942047, 10.577337265, 0.513882398605, 12.0
14.7347812653, 10.4597854614, 0.527968287468, 13.0
14.7678499222, 10.5524358749, 0.513807892799, 13.0
14.7009906769, 10.578830719, 0.508248150349, 12.0
14.7005844116, 10.6487989426, 0.495172768831, 13.0
14.5683774948, 10.628704071, 0.495461851358, 13.0
14.6576929092, 10.761007309, 0.473441660404, 13.0
14.8118782043, 10.9390716553, 0.443068027496, 12.0
14.6711378098, 10.9127225876, 0.443885624409, 12.0
14.7426042557, 11.0344371796, 0.421371757984, 13.0
14.5375442505, 10.9602842331, 0.428861111403, 13.0
14.6897506714, 11.1394729614, 0.396159350872, 13.0
14.5743494034, 11.1275815964, 0.393478125334, 12.0
14.7075471878, 11.2984876633, 0.363069444895, 12.0
15.1047172546, 11.6642284393, 0.298818618059, 12.0
29.7839317322, 9.9168844223, 0.632503867149, 13.0
29.9520359039, 10.0786323547, 0.606595337391, 14.0
29.7871417999, 10.1326494217, 0.596407115459, 14.0
-0.15000000596, 0.5, 2.0, 0.0
-0.15000000596, 0.5, 2.0, 0.0
25.7112751007, 9.09280776978, 0.752383947372, 12.0
26.061422348, 9.30363464355, 0.719470918179, 12.0
26.4007434845, 9.51500606537, 0.691316306591, 13.0
25.8984222412, 9.43940067291, 0.707080006599, 13.0
26.0573482513, 9.58986854553, 0.687738955021, 13.0
25.9615192413, 9.65119934082, 0.683165073395, 13.0
25.9124622345, 9.7284450531, 0.670974254608, 12.0
-0.15000000596, 0.5, 2.0, 0.0
-0.15000000596, 0.5, 2.0, 0.0
-0.15000000596, 0.5, 2.0, 0.0
-0.15000000596, 0.5, 2.0, 0.0
24.9962997437, 9.87461185455, 0.666904330254, 14.0
25.0678272247, 9.99557590485, 0.652564585209, 14.0
25.6527404785, 10.3114204407, 0.612852871418, 13.0
-0.15000000596, 0.5, 2.0, 0.0
-0.15000000596, 0.5, 2.0, 0.0
24.8751678467, 10.2977695465, 0.624207615852, 12.0
-0.15000000596, 0.5, 2.0, 0.0
25.0510845184, 10.5570516586, 0.596451878548, 12.0
25.0912094116, 10.6705036163, 0.584147274494, 14.0
25.1770744324, 10.803191185, 0.568948984146, 13.0
24.652513504, 10.68653965, 0.588515639305, 13.0
24.5531864166, 10.7431573868, 0.586240708828, 12.0
-0.15000000596, 0.5, 2.0, 0.0
-0.15000000596, 0.5, 2.0, 0.0
23.8799762726, 10.7438049316, 0.596346855164, 12.0
-0.15000000596, 0.5, 2.0, 0.0
-0.15000000596, 0.5, 2.0, 0.0
23.6756916046, 10.9369955063, 0.582948982716, 12.0
23.5484447479, 10.9774513245, 0.58253467083, 12.0
23.3212947845, 10.9711637497, 0.585583150387, 13.0
23.131570816, 10.978272438, 0.586092531681, 13.0
23.2785873413, 11.1372690201, 0.570766568184, 12.0
23.143415451, 11.1679468155, 0.569141447544, 13.0
22.7903766632, 11.0982999802, 0.581791222095, 13.0
23.0713653564, 11.3222064972, 0.556512415409, 13.0
-0.15000000596, 0.5, 2.0, 0.0
-0.15000000596, 0.5, 2.0, 12.0
-0.15000000596, 0.5, 2.0, 14.0
-0.15000000596, 0.5, 2.0, 12.0
-0.15000000596, 0.5, 2.0, 12.0
18.6906299591, 9.74080657959, 0.784052789211, 12.0
18.2746524811, 9.61306095123, 0.80317145586, 12.0
18.4582138062, 9.7813835144, 0.783770918846, 12.0
18.3996067047, 9.83069419861, 0.779249846935, 12.0
18.6794929504, 10.0507364273, 0.752554297447, 12.0
-0.15000000596, 0.5, 2.0, 0.0
20.7357139587, 11.2683095932, 0.599286258221, 12.0
20.7531890869, 11.3640260696, 0.5894510746, 12.0
18.2670993805, 10.1504640579, 0.747837722301, 12.0
18.084569931, 10.1321163177, 0.751659691334, 15.0
17.9906158447, 10.1595621109, 0.751410543919, 14.0
17.9579868317, 10.2197494507, 0.744853615761, 13.0
18.1893405914, 10.4207897186, 0.719921588898, 12.0
18.7435970306, 10.8008775711, 0.67429548502, 12.0
18.0886096954, 10.5207471848, 0.711473226547, 12.0
18.0205345154, 10.560423851, 0.705530047417, 14.0
18.0216903687, 10.6396131516, 0.696011245251, 13.0
18.7185764313, 11.1103954315, 0.638951301575, 13.0
18.3611125946, 10.9914464951, 0.654399991035, 12.0
18.6463279724, 11.2360839844, 0.624985396862, 12.0
18.6709251404, 11.3323774338, 0.610747337341, 12.0
19.2998542786, 11.7788972855, 0.55413967371, 13.0
19.4696121216, 11.9623689651, 0.531045019627, 14.0
19.2763767242, 11.9357862473, 0.53480386734, 13.0
18.7831230164, 11.7297544479, 0.560190975666, 13.0
18.4111461639, 11.5928077698, 0.577897310257, 13.0
18.8010044098, 11.9116983414, 0.536618292332, 12.0
18.8315105438, 12.0144729614, 0.522938728333, 13.0
18.2654190063, 11.7536563873, 0.556236147881, 13.0
18.0841522217, 11.7237586975, 0.55966514349, 13.0
17.9797039032, 11.7397508621, 0.555627763271, 12.0
17.6886310577, 11.6400156021, 0.568333029747, 13.0
17.6773490906, 11.7132768631, 0.557738423347, 13.0
17.6149501801, 11.7549543381, 0.551221489906, 13.0
17.6200942993, 11.8386468887, 0.538589596748, 13.0
-0.15000000596, 0.5, 2.0, 0.0
17.4863834381, 11.9150867462, 0.524392783642, 12.0
14.9666490555, 10.3543119431, 0.724237859249, 12.0
14.9752836227, 10.4311466217, 0.712476193905, 12.0
14.8673973083, 10.4305095673, 0.709558427334, 13.0
14.8180246353, 10.4676599503, 0.70196723938, 12.0
14.7766170502, 10.5103187561, 0.692323982716, 14.0
14.8673734665, 10.6424102783, 0.673763632774, 13.0
14.9074211121, 10.7421293259, 0.658199965954, 13.0
14.8159942627, 10.7509498596, 0.653487861156, 13.0
14.7491416931, 10.7764978409, 0.646596312523, 14.0
14.715133667, 10.8243808746, 0.637108027935, 14.0
14.6240034103, 10.8316259384, 0.631530046463, 14.0
14.3939676285, 10.741484642, 0.639632165432, 13.0
13.9048194885, 10.4647245407, 0.671571016312, 13.0
14.1155090332, 10.6831769943, 0.638178825378, 12.0
14.1391324997, 10.7684020996, 0.620473563671, 11.0
14.2592096329, 10.9242315292, 0.59441870451, 13.0
15.5050172806, 11.9045248032, 0.456582963467, 12.0
15.6108646393, 12.0614852905, 0.425407201052, 13.0
-0.15000000596, 0.5, 2.0, 0.0
29.6264038086, 9.96690654755, 0.522888898849, 14.0
-0.15000000596, 0.5, 2.0, 0.0
-0.15000000596, 0.5, 2.0, 0.0
-0.15000000596, 0.5, 2.0, 0.0
-0.15000000596, 0.5, 2.0, 0.0
-0.15000000596, 0.5, 2.0, 0.0
-0.15000000596, 0.5, 2.0, 0.0
-0.15000000596, 0.5, 2.0, 0.0
26.0224514008, 9.57127952576, 0.708639979362, 13.0
-0.15000000596, 0.5, 2.0, 0.0
26.2266578674, 9.83407020569, 0.693422019482, 13.0
-0.15000000596, 0.5, 2.0, 0.0
-0.15000000596, 0.5, 2.0, 0.0
-0.15000000596, 0.5, 2.0, 0.0
-0.15000000596, 0.5, 2.0, 0.0
-0.15000000596, 0.5, 2.0, 0.0
24.9330215454, 9.93907642365, 0.737169504166, 13.0
-0.15000000596, 0.5, 2.0, 0.0
-0.15000000596, 0.5, 2.0, 0.0
-0.15000000596, 0.5, 2.0, 0.0
-0.15000000596, 0.5, 2.0, 0.0
-0.15000000596, 0.5, 2.0, 0.0
-0.15000000596, 0.5, 2.0, 0.0
-0.15000000596, 0.5, 2.0, 0.0
-0.15000000596, 0.5, 2.0, 0.0
-0.15000000596, 0.5, 2.0, 0.0
-0.15000000596, 0.5, 2.0, 0.0
-0.15000000596, 0.5, 2.0, 0.0
-0.15000000596, 0.5, 2.0, 0.0
-0.15000000596, 0.5, 2.0, 0.0
-0.15000000596, 0.5, 2.0, 0.0
-0.15000000596, 0.5, 2.0, 0.0
21.6734256744, 10.0473861694, 0.813431620598, 12.0
-0.15000000596, 0.5, 2.0, 0.0
-0.15000000596, 0.5, 2.0, 0.0
23.608669281, 11.1749200821, 0.681619465351, 12.0
-0.15000000596, 0.5, 2.0, 0.0
-0.15000000596, 0.5, 2.0, 0.0
-0.15000000596, 0.5, 2.0, 0.0
23.3467674255, 11.4321460724, 0.661131978035, 13.0
-0.15000000596, 0.5, 2.0, 0.0
-0.15000000596, 0.5, 2.0, 0.0
-0.15000000596, 0.5, 2.0, 0.0
-0.15000000596, 0.5, 2.0, 0.0
-0.15000000596, 0.5, 2.0, 0.0
-0.15000000596, 0.5, 2.0, 0.0
-0.15000000596, 0.5, 2.0, 0.0
18.6828594208, 9.87939167023, 0.861865162849, 12.0
18.8383808136, 10.0362653732, 0.842664062977, 12.0
19.1711959839, 10.2846918106, 0.813721477985, 12.0
19.9920253754, 10.7841215134, 0.751736700535, 12.0
-0.15000000596, 0.5, 2.0, 0.0
-0.15000000596, 0.5, 2.0, 0.0
-0.15000000596, 0.5, 2.0, 0.0
18.1835269928, 10.169175148, 0.831049501896, 14.0
18.1512088776, 10.2291908264, 0.822635769844, 14.0
17.968744278, 10.2098226547, 0.825894236565, 12.0
-0.15000000596, 0.5, 2.0, 0.0
-0.15000000596, 0.5, 2.0, 0.0
18.3258857727, 10.6379613876, 0.77711969614, 12.0
18.1001720428, 10.5915460587, 0.781798303127, 12.0
17.9965343475, 10.6127901077, 0.779004096985, 12.0
18.7289047241, 11.1021699905, 0.720509946346, 12.0
-0.15000000596, 0.5, 2.0, 0.0
19.6547927856, 11.7950839996, 0.637332081795, 12.0
-0.15000000596, 0.5, 2.0, 0.0
-0.15000000596, 0.5, 2.0, 0.0
-0.15000000596, 0.5, 2.0, 0.0
-0.15000000596, 0.5, 2.0, 0.0
19.4117565155, 12.0896606445, 0.605062782764, 12.0
-0.15000000596, 0.5, 2.0, 0.0
-0.15000000596, 0.5, 2.0, 0.0
-0.15000000596, 0.5, 2.0, 0.0
18.923948288, 12.1420183182, 0.600002527237, 13.0
-0.15000000596, 0.5, 2.0, 0.0
18.0840988159, 11.7914142609, 0.642894864082, 12.0
18.1570072174, 11.9191665649, 0.628660142422, 12.0
-0.15000000596, 0.5, 2.0, 0.0
-0.15000000596, 0.5, 2.0, 0.0
17.9343605042, 12.0267896652, 0.618279635906, 12.0
-0.15000000596, 0.5, 2.0, 0.0
17.7164878845, 12.0507278442, 0.6173620224, 12.0
-0.15000000596, 0.5, 2.0, 0.0
15.0949001312, 10.4978895187, 0.804967939854, 12.0
14.9866724014, 10.4983587265, 0.805693984032, 12.0
14.8873939514, 10.5031442642, 0.806715667248, 12.0
14.8381242752, 10.5403709412, 0.802717506886, 13.0
14.8878469467, 10.6445169449, 0.789899349213, 12.0
14.9622526169, 10.765581131, 0.777795314789, 13.0
14.8628921509, 10.7689962387, 0.777847290039, 13.0
14.7560892105, 10.7654371262, 0.779814958572, 12.0
14.8297462463, 10.8865966797, 0.767643153667, 13.0
14.7234096527, 10.8819007874, 0.771088242531, 13.0
14.6087818146, 10.8709602356, 0.772028326988, 13.0
14.4117984772, 10.8037939072, 0.783329904079, 12.0
-0.15000000596, 0.5, 2.0, 0.0
13.9637651443, 10.6238031387, 0.809052705765, 12.0
14.6282024384, 11.1691055298, 0.747873783112, 12.0
14.0626277924, 10.8272857666, 0.791495978832, 12.0
-0.15000000596, 0.5, 2.0, 0.0
29.9881629944, 9.99058437347, 0.798208475113, 15.0
-0.15000000596, 0.5, 2.0, 0.0
29.8493537903, 10.1645889282, 0.814227223396, 14.0
-0.15000000596, 0.5, 2.0, 0.0
25.677154541, 9.00320911407, 0.981377720833, 13.0
25.7163772583, 9.10796642303, 0.984158158302, 13.0
25.4991397858, 9.12749195099, 0.992867946625, 15.0
25.5939617157, 9.25281238556, 0.989597499371, 15.0
25.5276870728, 9.32289791107, 0.989122450352, 14.0
25.7821674347, 9.50452613831, 0.979187726974, 12.0
-0.15000000596, 0.5, 2.0, 0.0
27.3524417877, 10.2505502701, 0.912599265575, 13.0
27.4611167908, 10.3919506073, 0.905476093292, 14.0
27.2872619629, 10.4322099686, 0.910116612911, 13.0
-0.15000000596, 0.5, 2.0, 0.0
-0.15000000596, 0.5, 2.0, 0.0
25.0803852081, 9.91839313507, 0.988043963909, 13.0
25.0773239136, 10.0115709305, 0.983826458454, 14.0
25.4853153229, 10.2599744797, 0.962683558464, 13.0
-0.15000000596, 0.5, 2.0, 0.0
-0.15000000596, 0.5, 2.0, 0.0
-0.15000000596, 0.5, 2.0, 13.0
-0.15000000596, 0.5, 2.0, 12.0
-0.15000000596, 0.5, 2.0, 0.0
-0.15000000596, 0.5, 2.0, 13.0
-0.15000000596, 0.5, 2.0, 0.0
-0.15000000596, 0.5, 2.0, 12.0
-0.15000000596, 0.5, 2.0, 13.0
-0.15000000596, 0.5, 2.0, 12.0
-0.15000000596, 0.5, 2.0, 0.0
-0.15000000596, 0.5, 2.0, 0.0
-0.15000000596, 0.5, 2.0, 0.0
-0.15000000596, 0.5, 2.0, 0.0
21.7212638855, 10.0878858566, 1.03546190262, 12.0
21.7533073425, 10.1880474091, 1.0264737606, 12.0
21.5018348694, 10.1627941132, 1.02979290485, 13.0
-0.15000000596, 0.5, 2.0, 0.0
21.2186012268, 10.2064638138, 1.0265737772, 14.0
21.1316680908, 10.2522802353, 1.02608585358, 14.0
20.9810009003, 10.268029213, 1.02204227448, 12.0
21.2566108704, 10.4805393219, 1.00227367878, 13.0
21.3050327301, 10.5884799957, 0.991505563259, 12.0
21.4606609344, 10.7496681213, 0.976678907871, 13.0
21.4443302155, 10.8295202255, 0.966755926609, 14.0
21.2386665344, 10.8187465668, 0.969792962074, 12.0
21.1136741638, 10.8466234207, 0.96440076828, 12.0
20.6662597656, 10.7148122787, 0.977712631226, 12.0
20.676153183, 10.8068990707, 0.967119276524, 12.0
-0.15000000596, 0.5, 2.0, 0.0
19.4547214508, 10.3670253754, 1.01126658916, 13.0
19.9200325012, 10.6858987808, 0.979145288467, 14.0
20.1526145935, 10.8885908127, 0.955978095531, 12.0
20.5967769623, 11.2038555145, 0.925038933754, 12.0
18.1591682434, 10.0232400894, 1.0419563055, 12.0
18.1275997162, 10.0831413269, 1.03654885292, 12.0
18.210149765, 10.2044868469, 1.02431762218, 15.0
18.2217998505, 10.288228035, 1.01350808144, 15.0
18.2679138184, 10.391957283, 1.00274181366, 13.0
18.7706928253, 10.7424936295, 0.965471863747, 13.0
-0.15000000596, 0.5, 2.0, 0.0
-0.15000000596, 0.5, 2.0, 0.0
17.9512882233, 10.5316171646, 0.985908508301, 13.0
18.3623218536, 10.8397922516, 0.95331966877, 12.0
19.5551948547, 11.5911216736, 0.876622617245, 12.0
19.1617507935, 11.4542417526, 0.889249563217, 12.0
20.3129825592, 12.1969070435, 0.813096761703, 12.0
20.5681209564, 12.4338083267, 0.788700997829, 12.0
20.1996383667, 12.3123807907, 0.802724719048, 12.0
-0.15000000596, 0.5, 2.0, 0.0
20.3613243103, 12.5881080627, 0.771691679955, 12.0
-0.15000000596, 0.5, 2.0, 12.0
19.5601596832, 12.2928237915, 0.800444066525, 12.0
19.7427005768, 12.492474556, 0.779900491238, 13.0
19.5150909424, 12.4434680939, 0.783724606037, 13.0
18.5303840637, 11.9284162521, 0.834046304226, 12.0
17.8638191223, 11.601140976, 0.867276012897, 12.0
17.8955802917, 11.7009296417, 0.855851829052, 13.0
17.9433403015, 11.8125019073, 0.844496846199, 13.0
17.8977851868, 11.8657827377, 0.839796304703, 13.0
17.9193344116, 11.9617204666, 0.828240215778, 12.0
18.0666542053, 12.1387767792, 0.810529649258, 12.0
18.3311748505, 12.3914604187, 0.78368729353, 12.0
18.5434551239, 12.614361763, 0.761827886105, 12.0
15.1088724136, 10.4596071243, 0.982398509979, 12.0
14.9923906326, 10.4546613693, 0.982540905476, 13.0
15.3005180359, 10.7304229736, 0.954269528389, 12.0
14.9927835464, 10.5977811813, 0.968580365181, 13.0
14.8602952957, 10.5797967911, 0.970026016235, 14.0
14.8933134079, 10.6730880737, 0.959258377552, 14.0
14.9675540924, 10.794462204, 0.948348939419, 13.0
14.8845500946, 10.8092212677, 0.946477770805, 14.0
14.8433160782, 10.8511161804, 0.942945480347, 14.0
14.7280826569, 10.8417959213, 0.945313870907, 15.0
14.6954622269, 10.8883018494, 0.942674160004, 14.0
14.6950645447, 10.9577636719, 0.934470593929, 14.0
14.660610199, 11.0062637329, 0.932129085064, 13.0
14.0414133072, 10.63630867, 0.970463514328, 12.0
14.1707277298, 10.798365593, 0.956265807152, 12.0
14.341094017, 10.988530159, 0.93917542696, 12.0
14.0908288956, 10.8743038177, 0.953525841236, 12.0
14.2106142044, 11.0317230225, 0.94115293026, 12.0
-0.15000000596, 0.5, 2.0, 0.0
-0.15000000596, 0.5, 2.0, 0.0
-0.15000000596, 0.5, 2.0, 0.0
-0.15000000596, 0.5, 2.0, 0.0
-0.15000000596, 0.5, 2.0, 0.0
-0.15000000596, 0.5, 2.0, 0.0
-0.15000000596, 0.5, 2.0, 0.0
-0.15000000596, 0.5, 2.0, 0.0
25.6066074371, 9.27202224731, 1.24025595188, 13.0
-0.15000000596, 0.5, 2.0, 0.0
-0.15000000596, 0.5, 2.0, 0.0
-0.15000000596, 0.5, 2.0, 0.0
-0.15000000596, 0.5, 2.0, 0.0
-0.15000000596, 0.5, 2.0, 0.0
-0.15000000596, 0.5, 2.0, 0.0
-0.15000000596, 0.5, 2.0, 0.0
-0.15000000596, 0.5, 2.0, 0.0
-0.15000000596, 0.5, 2.0, 0.0
25.0768318176, 10.0295209885, 1.15404760838, 12.0
-0.15000000596, 0.5, 2.0, 0.0
-0.15000000596, 0.5, 2.0, 0.0
-0.15000000596, 0.5, 2.0, 0.0
-0.15000000596, 0.5, 2.0, 0.0
-0.15000000596, 0.5, 2.0, 0.0
-0.15000000596, 0.5, 2.0, 0.0
-0.15000000596, 0.5, 2.0, 0.0
-0.15000000596, 0.5, 2.0, 0.0
-0.15000000596, 0.5, 2.0, 0.0
-0.15000000596, 0.5, 2.0, 0.0
-0.15000000596, 0.5, 2.0, 0.0
-0.15000000596, 0.5, 2.0, 0.0
-0.15000000596, 0.5, 2.0, 0.0
-0.15000000596, 0.5, 2.0, 0.0
-0.15000000596, 0.5, 2.0, 0.0
-0.15000000596, 0.5, 2.0, 0.0
21.2635211945, 9.99537467957, 1.14408683777, 13.0
21.2495880127, 10.0750703812, 1.13557553291, 13.0
-0.15000000596, 0.5, 2.0, 0.0
21.1112785339, 10.1861028671, 1.12719285488, 13.0
21.1333312988, 10.2813434601, 1.11759018898, 12.0
-0.15000000596, 0.5, 2.0, 0.0
-0.15000000596, 0.5, 2.0, 0.0
-0.15000000596, 0.5, 2.0, 0.0
21.5431900024, 10.8180999756, 1.07055747509, 12.0
-0.15000000596, 0.5, 2.0, 0.0
-0.15000000596, 0.5, 2.0, 0.0
-0.15000000596, 0.5, 2.0, 0.0
-0.15000000596, 0.5, 2.0, 0.0
-0.15000000596, 0.5, 2.0, 0.0
19.8208389282, 10.4933624268, 1.09405207634, 12.0
19.8672523499, 10.6005344391, 1.08219051361, 13.0
20.1891479492, 10.8486642838, 1.05668914318, 13.0
-0.15000000596, 0.5, 2.0, 0.0
-0.15000000596, 0.5, 2.0, 0.0
-0.15000000596, 0.5, 2.0, 0.0
18.2098312378, 10.1497087479, 1.11831843853, 13.0
18.1860675812, 10.2155590057, 1.11149811745, 14.0
18.1884326935, 10.2957582474, 1.10492956638, 12.0
-0.15000000596, 0.5, 2.0, 0.0
-0.15000000596, 0.5, 2.0, 0.0
-0.15000000596, 0.5, 2.0, 0.0
-0.15000000596, 0.5, 2.0, 0.0
