x, y, z, intensity, ring
-6.11888,11.0478,-1.55067,9,4
-6.00663,10.8452,1.96357,49,12
-5.28443,9.54515,-0.95453,58,5
-9.22848,16.6761,3.70475,22,13
-5.23214,9.45848,-0.566484,74,6
-9.94187,17.98,4.74332,16,14
-6.64091,12.0102,-0.239552,36,7
-9.30497,16.8351,5.15412,13,15
-5.72855,10.3987,0.20723,13,8
-0.293282,0.532596,-0.140369,13,1
-5.83448,10.5997,0.634102,108,9
-4.65726,8.46453,-1.87794,14,2
-8.34175,15.1673,1.51442,32,10
-5.90723,10.7452,1.50557,31,11
-6.08221,11.0681,-1.55067,3,4
-5.95542,10.8418,1.95919,39,12
-5.22711,9.51988,-0.950172,24,5
-9.27235,16.8873,3.74482,19,13
-5.34777,9.74366,-0.582499,77,6
-10.7117,19.5249,5.14148,21,14
-6.6403,12.1087,-0.241053,31,7
-9.23315,16.8437,5.14688,6,15
-5.27228,9.64999,0.191942,7,8
-0.27274,0.49941,-0.131371,14,1
-5.80983,10.6383,0.635254,70,9
-4.67808,8.56953,-1.89779,26,2
-8.23606,15.0934,1.50431,39,10
-4.68882,8.59634,-1.55089,20,3
-5.84212,10.7152,1.49851,45,11
-7.05559,12.9409,-1.80976,60,4
-5.21553,9.5739,-0.953832,8,5
-9.26122,17.0075,3.76428,6,13
-5.20774,9.56755,-0.570881,67,6
-10.5724,19.4234,5.10549,20,14
-9.33046,17.156,5.2328,10,15
-0.298933,0.551714,-0.144868,12,1
-4.6674,8.6178,-1.90504,26,2
-8.18501,15.1189,1.50413,32,10
-5.88495,10.8794,1.51874,63,11
-7.04664,13.027,-1.81853,44,4
-5.2008,9.62269,-0.95697,22,5
-9.9989,18.508,4.08904,10,13
-5.1143,9.47054,-0.564077,70,6
-9.4949,17.5824,4.6133,14,14
-5.83414,10.808,-0.214385,66,7
-8.88456,16.466,5.01333,6,15
-5.09167,9.46812,0.187648,71,8
-0.269422,0.501208,-0.131371,14,1
-8.45892,15.7428,0.936604,4,9
-4.68805,8.72489,-1.92526,26,2
-8.13671,15.1495,1.50448,45,10
-5.83569,10.8744,1.51532,28,11
-6.91292,12.8871,-1.79562,32,4
-6.3177,11.7825,2.1175,17,12
-5.87782,10.9621,-1.08823,19,5
-6.17208,11.5157,2.53967,3,13
-5.08098,9.48392,-0.563868,54,6
-9.40955,17.5708,4.6016,39,14
-6.48623,12.1171,-0.239901,32,7
-8.79148,16.4305,4.99314,16,15
-5.79347,10.8639,0.214909,23,8
-0.295171,0.553736,-0.144868,12,1
-4.66311,8.75159,-1.92755,23,2
-8.06598,15.1444,1.50117,74,10
-5.48623,10.3051,-1.84906,60,3
-5.7977,10.8947,1.51532,28,11
-6.46516,12.1541,-1.69033,8,4
-6.00852,11.3004,2.02708,6,12
-10.3251,19.4268,4.27641,19,13
-7.89457,14.86,-0.881861,47,6
-9.35456,17.6156,4.60475,39,14
-6.56672,12.371,-0.244473,100,7
-10.9959,20.7239,6.2862,3,15
-5.05723,9.56354,0.188835,47,8
-0.293236,0.554763,-0.144868,12,1
-5.2446,9.92626,0.588361,105,9
-4.5986,8.70359,-1.91343,30,2
-8.04564,15.2341,1.50727,26,10
-5.46222,10.3469,-1.85312,53,3
-5.72073,10.8411,1.50509,28,11
-6.42269,12.1766,-1.69033,8,4
-6.0538,11.482,2.05586,10,12
-5.15534,9.77796,-0.96708,2,5
-9.3785,17.7954,3.91006,20,13
-7.91898,15.0324,-0.890444,43,6
-6.47228,12.2966,-0.242554,29,7
-10.3307,19.6355,5.94507,16,15
-4.99781,9.53154,0.187858,86,8
-0.300344,0.573043,-0.149367,12,1
-4.55816,8.70046,-1.90923,28,2
-5.16406,9.86115,0.973878,40,10
-5.34087,10.2031,-1.82403,68,3
-8.36,15.9776,2.21412,19,11
-6.68099,12.7741,-1.77003,54,4
-8.5222,16.3015,2.91344,11,12
-5.01779,9.59814,-0.947557,22,5
-8.67074,16.5927,3.63911,12,13
-5.82471,11.1511,-0.659328,35,6
-6.02405,11.5377,3.0049,2,14
-5.85938,11.227,-0.221052,93,7
-14.3429,27.4938,8.30913,6,15
-4.94255,9.51076,0.18709,68,8
-0.282072,0.543012,-0.141269,13,1
-4.56243,8.7868,-1.9245,42,2
-5.22976,10.0763,0.993227,25,10
-5.45262,10.5102,-1.87534,58,3
-5.92264,11.4211,1.57967,7,11
-6.63727,12.7991,-1.77027,76,4
-16.6023,32.0291,5.71393,5,12
-5.01099,9.67131,-0.952961,38,5
-8.59904,16.6034,3.63453,25,13
-9.12658,17.6295,4.58315,3,14
-5.82107,11.2492,-0.221087,65,7
-8.78399,16.9823,5.12306,8,15
-0.28027,0.543945,-0.141269,13,1
-5.1412,9.97796,0.588256,23,9
-4.48473,8.70764,-1.90389,28,2
-5.18902,10.0794,0.991832,8,10
-5.26138,10.2243,-1.82121,61,3
-5.59327,10.874,1.50143,17,11
-6.77276,13.1671,-1.81805,52,4
-9.25919,18.0087,3.20722,17,12
-5.00257,9.73394,-0.957493,32,5
-8.53765,16.6196,3.63186,18,13
-5.50404,10.7189,-0.631486,100,6
-10.6739,20.787,5.39478,5,14
-5.76365,11.2293,-0.220319,22,7
-8.76114,17.0766,5.14273,13,15
-5.07145,9.91901,0.194455,13,8
-0.273144,0.534459,-0.13857,13,1
-5.11451,10.0119,0.589198,65,9
-4.48709,8.78365,-1.91725,28,2
-5.45913,10.6957,-1.90193,61,3
-7.48595,14.673,2.02254,8,11
-6.58607,12.9147,-1.78002,33,4
-9.15142,17.9529,3.19158,34,12
-5.59641,10.9788,-1.07812,57,5
-8.45041,16.5849,3.61812,30,13
-5.44762,10.6962,-0.629078,100,6
-13.6541,26.8208,6.94829,20,14
-8.12047,15.958,-0.312538,100,7
-8.64192,16.99,5.10754,13,15
-5.45901,10.7696,0.210755,37,8
-0.276561,0.54584,-0.141269,13,1
-5.11562,10.1009,0.593385,11,9
-4.41293,8.71344,-1.89855,28,2
-5.1113,10.0967,0.990089,68,10
-5.18452,10.2458,-1.81871,53,3
-5.49851,10.8711,1.49582,10,11
-6.47556,12.8083,-1.76223,73,4
-7.34954,14.5433,2.58086,23,12
-5.53289,10.9485,-1.07324,45,5
-8.39157,16.6125,3.61774,19,13
-8.77597,17.3885,4.49677,13,14
-4.53404,8.98756,-0.175711,8,7
-8.58256,17.0201,5.10754,3,15
-4.97514,9.90057,0.193408,70,8
-0.265907,0.529388,-0.13677,13,1
-7.11103,14.1633,0.830572,11,9
-4.53136,9.0253,-1.96304,23,2
-5.14518,10.2568,-1.81746,20,3
-5.46943,10.9079,1.49826,38,11
-6.55712,13.0829,-1.79684,32,4
-8.20653,16.3809,2.90186,9,12
-13.8685,27.7189,7.15569,10,14
-4.49906,8.99618,-0.175571,8,7
-10.0572,20.1188,6.02686,5,15
-4.97354,9.9841,0.194699,52,8
-0.265795,0.533802,-0.13767,13,1
-4.39749,8.83543,-1.91839,19,2
-9.08033,18.2522,1.78356,26,10
-5.10671,10.2694,-1.81652,45,3
-7.17727,14.4395,1.97989,42,11
-6.50434,13.0914,-1.79489,68,4
-8.1616,16.4342,2.90624,22,12
-5.24629,10.564,-1.03192,42,5
-16.2575,32.7505,7.10725,6,13
-4.86925,9.81334,-0.574125,70,6
-13.9422,28.1111,7.24432,21,14
-4.74031,9.56185,-0.186287,50,7
-10.053,20.2871,6.06672,3,15
-0.26393,0.534726,-0.13767,13,1
-5.44184,11.0253,0.64436,44,9
-4.35967,8.83664,-1.91534,30,2
-4.76295,9.6583,0.942154,48,10
-5.10053,10.3474,-1.82715,35,3
-9.04034,18.3481,2.51148,39,11
-5.61401,11.3991,-1.56017,22,4
-8.11055,16.4683,2.90749,8,12
-5.44698,11.0648,-1.07899,52,5
-8.31944,16.9073,3.66277,3,13
-6.24888,12.705,-0.742019,29,6
-13.7408,27.9497,7.19034,21,14
-4.88767,9.94182,-0.193373,74,7
-9.96433,20.277,6.05378,6,15
-0.262155,0.535598,-0.13767,13,1
-5.40772,11.0532,0.644884,44,9
-4.38745,8.97173,-1.94129,26,2
-5.79754,11.8604,1.15499,27,10
-4.92652,10.0785,-1.77678,63,3
-7.98861,16.3501,2.23435,19,11
-5.17893,10.6043,-1.44903,57,4
-8.02182,16.4326,2.89623,6,12
-5.15319,10.5609,-1.02809,63,5
-8.34512,17.1024,3.69902,17,13
-4.81109,9.86421,-0.575172,13,6
-10.3279,21.1846,5.44112,6,14
-4.65935,9.56154,-0.185659,100,7
-12.3188,25.291,7.53785,10,15
-4.90627,10.1085,0.19613,50,8
-0.260284,0.53651,-0.13767,13,1
-5.43011,11.1978,0.652211,38,9
-4.25145,8.76719,-1.89397,19,2
-5.78164,11.928,1.15969,90,10
-4.89303,10.0992,-1.77741,42,3
-7.88303,16.2778,2.2207,38,11
-5.1194,10.5759,-1.44269,56,4
-7.9885,16.5103,2.90499,6,12
-5.21447,10.777,-1.04744,26,5
-8.19305,16.9406,3.65781,10,13
-8.41318,17.4112,4.46438,3,14
-4.62072,9.56694,-0.185449,50,7
-11.9693,24.7928,7.37686,14,15
-5.09287,10.5869,0.205066,36,8
-0.265166,0.551466,-0.141269,13,1
-5.39271,11.2203,0.65242,46,9
-5.78829,12.0487,1.16946,92,10
-4.53453,9.44312,-1.65914,33,3
-5.79554,12.0746,1.64451,37,11
-5.10135,10.633,-1.44805,39,4
-7.9462,16.5701,2.91062,15,12
-5.10531,10.6461,-1.03297,45,5
-7.96839,16.6239,3.58339,25,13
-4.73867,9.89035,-0.574754,67,6
-8.20337,17.1294,4.38475,29,14
-11.8176,24.6985,7.33648,19,15
-5.90613,12.388,0.239552,17,8
-0.258209,0.541833,-0.13857,13,1
-4.681,9.82273,0.570253,39,9
-4.2467,8.91541,-1.91954,28,2
-4.69014,9.85078,0.95453,19,10
-4.46588,9.38398,-1.646,15,3
-5.74738,12.0822,1.6428,41,11
-5.14024,10.8058,-1.46926,85,4
-7.9175,16.6517,2.92032,30,12
-4.9997,10.5199,-1.01902,45,5
-7.90188,16.6338,3.57958,27,13
-4.7221,9.94472,-0.576952,43,6
-8.17912,17.2252,4.40229,13,14
-4.78443,10.0805,-0.194769,33,7
-12.3699,26.0745,7.733,16,15
-5.80606,12.2828,0.237143,17,8
-0.248086,0.525066,-0.134071,14,1
-5.37193,11.3695,0.659014,31,9
-4.20705,8.90814,-1.91496,30,2
-5.724,12.1256,1.17312,37,10
-4.49206,9.52022,-1.66728,37,3
-5.73523,12.1604,1.65084,37,11
-4.91809,10.4278,-1.41563,53,4
-7.63734,16.2008,2.83678,28,12
-4.95629,10.5184,-1.01728,40,5
-7.93954,16.8571,3.62194,18,13
-6.96899,14.8032,-0.857472,22,6
-8.04476,17.0882,4.36045,34,14
-4.73395,10.0601,-0.194071,35,7
-13.4017,28.4929,8.43698,6,15
-4.69522,10.0187,0.193128,36,8
-0.266183,0.568239,-0.144868,12,1
-5.3373,11.3991,0.659642,7,9
-4.44556,9.49456,-2.03784,47,2
-5.6922,12.1626,1.17486,60,10
-4.2035,8.98575,-1.57123,68,3
-5.60827,11.9942,1.62574,22,11
-4.89427,10.4719,-1.41929,56,4
-7.64094,16.3562,2.85931,8,12
-4.90958,10.5095,-1.01484,42,5
-7.77145,16.6432,3.57042,27,13
-5.20679,11.1558,-0.645198,65,6
-7.95541,17.0526,4.34425,15,14
-4.62189,9.91169,-0.190894,100,7
-12.1922,26.1581,7.733,5,15
-0.244197,0.525597,-0.155291,12,0
-0.257634,0.555024,-0.141269,13,1
-4.1802,9.00959,-1.93061,19,2
-5.28843,11.4034,1.09973,45,10
-4.16795,8.99141,-1.56966,42,3
-5.56053,12.0011,1.62403,52,11
-4.85601,10.4853,-1.4188,39,4
-7.5116,16.2268,2.83209,19,12
-4.88626,10.5555,-1.01763,33,5
-7.71909,16.6827,3.57309,22,13
-6.53272,14.1251,-0.815604,26,6
-7.8713,17.0272,4.33076,34,14
-4.69547,10.1619,-0.195397,33,7
-10.4435,22.6122,6.67391,15,15
-0.242361,0.526446,-0.155291,12,0
-7.57431,16.4602,0.316273,1,8
-0.247552,0.538216,-0.13677,13,1
-4.66368,10.1396,0.584907,128,9
-4.14873,9.02412,-1.93061,33,2
-4.44496,9.67293,0.931346,25,10
-4.13819,9.0095,-1.57029,60,3
-5.48879,11.9554,1.61526,97,11
-4.33422,9.44496,-1.27597,26,4
-7.43551,16.2032,2.82364,16,12
-4.78791,10.4384,-1.00473,17,5
-7.63217,16.6471,3.55973,18,13
-6.51499,14.2168,-0.819581,13,6
-4.32781,9.44841,-0.1814,100,7
-8.29284,18.1131,5.33788,11,15
-5.01838,11.0016,0.211069,13,8
-0.255467,0.560311,-0.142169,13,1
-4.60507,10.1049,0.581976,52,9
-4.10743,9.01711,-1.92603,38,2
-4.44089,9.75366,0.937621,29,10
-4.19588,9.21554,-1.60377,57,3
-5.43431,11.9411,1.61087,58,11
-4.26588,9.37797,-1.265,53,4
-7.39116,16.256,2.82834,22,12
-4.51239,9.92908,-0.954181,2,5
-7.39903,16.2809,3.47616,39,13
-7.63275,16.8107,4.26237,15,14
-4.25927,9.38515,-0.179899,33,7
-8.1713,18.0135,5.3001,7,15
-4.62418,10.2319,0.195991,13,8
-0.240673,0.532784,-0.134971,14,1
-6.70589,14.8519,0.854018,12,9
-4.17446,9.2454,-1.97182,23,2
-5.59118,12.3888,1.18915,37,10
-4.05565,8.99064,-1.56215,25,3
-4.86957,10.8,1.45463,37,11
-4.40767,9.7801,-1.31716,67,4
-9.85354,21.874,3.79979,14,12
-4.43771,9.85134,-0.945291,22,5
-7.3607,16.3478,3.48494,23,13
-4.08691,9.08106,-0.521894,100,6
-7.85544,17.4628,4.42074,16,14
-6.56032,14.5906,-0.279238,56,7
-11.0575,24.6039,7.22778,4,15
-6.41073,14.3179,0.273828,7,8
-0.251549,0.562081,-0.142169,13,1
-4.54827,10.1678,0.583755,17,9
-4.12051,9.21153,-1.96152,85,2
-5.52513,12.3574,1.18427,55,10
-4.11451,9.20673,-1.5972,31,3
-4.8707,10.9039,1.46633,21,11
-4.27558,9.5761,-1.28767,17,4
-7.23966,16.2224,2.81363,2,12
-4.42278,9.91044,-0.949475,38,5
-4.07551,9.14087,-0.524511,56,6
-7.24392,16.2548,4.10851,14,14
-4.18144,9.38726,-0.179376,40,7
-9.56578,21.4851,6.30173,6,15
-4.21615,9.50532,0.181505,11,8
-0.233789,0.527326,-0.133171,14,1
-6.85396,15.4596,0.886257,46,9
-4.04141,9.11995,-1.939,42,2
-5.52391,12.4713,1.19334,27,10
-3.99759,9.02957,-1.56403,72,3
-4.83824,10.9335,1.46804,14,11
-4.36739,9.87418,-1.32569,15,4
-7.16185,16.1921,2.80424,15,12
-4.32613,9.7855,-0.936053,40,5
-8.08355,18.2933,3.88754,8,13
-4.0452,9.1587,-0.52472,100,6
-10.7177,24.2774,6.12677,8,14
-4.84241,10.9688,-0.209289,36,7
-9.45081,21.4177,6.27274,6,15
-6.25518,14.2294,0.271315,16,8
-0.236742,0.538803,-0.13587,13,1
-6.45462,14.6971,0.841248,35,9
-4.00876,9.13221,-1.93862,52,2
-6.6531,15.1634,1.4487,34,10
-4.06445,9.26347,-1.6022,42,3
-5.47724,12.4893,1.67448,52,11
-4.35375,9.93224,-1.33154,16,4
-5.43341,12.4012,2.1444,35,12
-4.19684,9.58336,-0.91531,58,5
-8.35598,19.0807,4.04897,8,13
-4.72438,10.7931,-0.61746,67,6
-7.21825,16.4984,4.15755,48,14
-4.8049,10.9875,-0.209324,25,7
-8.30128,18.9919,5.55374,2,15
-4.88023,11.2077,0.213373,22,8
-0.237971,0.546773,-0.13767,13,1
-3.9761,9.14005,-1.93747,54,2
-6.59881,15.1762,1.44783,34,10
-4.07067,9.36637,-1.61753,20,3
-5.47236,12.5976,1.68643,26,11
-4.357,10.0348,-1.34324,24,4
-4.56593,10.521,1.81652,66,12
-4.10395,9.45649,-0.901888,65,5
-7.05647,16.2676,3.44677,17,13
-3.94781,9.10539,-0.520115,100,6
-7.13737,16.4698,4.14405,31,14
-4.44143,10.2537,-0.195048,46,7
-8.21499,18.9746,5.54028,9,15
-4.83633,11.2137,0.213164,13,8
-0.236061,0.547601,-0.13767,13,1
-3.93019,9.12142,-1.93061,35,2
-5.35501,12.4342,1.18445,30,10
-4.02546,9.35149,-1.61253,53,3
-4.59358,10.6764,1.42709,20,11
-4.1102,9.55755,-1.27743,50,4
-4.66491,10.8526,1.87096,119,12
-4.08115,9.49456,-0.904154,48,5
-6.97174,16.2272,3.43304,19,13
-3.94437,9.18518,-0.523883,77,6
-7.01374,16.3406,4.10536,34,14
-6.37899,14.869,-0.282415,63,7
-8.18373,19.0849,5.56409,9,15
-4.78852,11.2103,0.21278,41,8
-0.246391,0.577097,-0.144868,12,1
-4.39073,10.289,0.586267,55,9
-3.96229,9.28496,-1.96228,59,2
-6.38405,14.9672,1.4236,100,10
-3.97342,9.32006,-1.6047,76,3
-4.57419,10.7344,1.4327,57,11
-4.19972,9.8604,-1.31595,55,4
-4.66336,10.9543,1.88566,28,12
-4.04018,9.49041,-0.902411,67,5
-7.76676,18.253,3.85587,12,13
-3.88258,9.12905,-0.519905,100,6
-7.06872,16.6286,4.17149,24,14
-4.74822,11.1753,-0.211942,35,7
-9.34417,22.0028,6.40525,10,15
-4.76572,11.2656,0.213513,52,8
-0.230714,0.545645,-0.13677,13,1
-4.38589,10.3778,0.590454,63,9
-3.83967,9.08534,-1.91725,40,2
-3.98005,9.42668,-1.62066,66,3
-4.46723,10.5857,1.41076,87,11
-4.01406,9.51651,-1.26817,27,4
-4.40792,10.4554,1.79712,9,12
-6.78282,16.0963,3.39526,25,13
-3.84836,9.13703,-0.519591,100,6
-6.92519,16.4503,4.12065,34,14
-4.81001,11.4314,-0.21648,35,7
-9.14299,21.7397,6.31933,13,15
-4.72328,11.2748,0.213373,18,8
-0.242356,0.578803,-0.144868,12,1
-4.37459,10.4476,0.593594,38,9
-3.75639,8.97554,-1.8913,47,2
-11.0257,26.3577,2.49963,57,10
-3.94178,9.42776,-1.61847,47,3
-4.43331,10.6086,1.41173,70,11
-4.0887,9.78873,-1.30254,61,4
-6.75683,16.1924,3.41052,25,13
-3.86257,9.26101,-0.525872,100,6
-6.81599,16.3502,4.08961,31,14
-5.80697,13.9298,-0.263427,100,7
-9.0478,21.7146,6.30328,13,15
-5.87093,14.1457,0.267336,16,8
-0.231475,0.558003,-0.13947,13,1
-4.35263,10.4978,0.595583,112,9
-3.71902,8.97409,-1.88825,47,2
-4.56482,11.0204,1.0436,33,10
-3.91579,9.45355,-1.62066,100,3
-4.36166,10.5352,1.40004,48,11
-3.99473,9.65366,-1.2828,44,4
-4.34798,10.5125,1.80181,20,12
-6.63559,16.0514,3.37617,25,13
-3.76091,9.1021,-0.516137,100,6
-6.68288,16.1818,4.04192,41,14
-8.03695,19.4798,5.6464,7,15
-4.5803,11.1457,0.210336,43,8
-0.229526,0.558808,-0.13947,13,1
-4.31217,10.5037,0.59506,73,9
-3.73622,9.10079,-1.91229,49,2
-4.46623,10.8844,1.02931,23,10
-3.87677,9.45254,-1.61816,53,3
-4.31733,10.532,1.3976,55,11
-3.8135,9.30752,-1.23502,81,4
-6.40213,15.6333,2.67566,37,12
-3.89535,9.51203,-0.899273,13,5
-6.46648,15.7983,3.31817,20,13
-3.92423,9.5921,-0.543143,100,6
-6.64922,16.261,4.05587,31,14
-8.76157,21.4482,6.20803,12,15
-4.54136,11.1617,0.210336,28,8
-0.227574,0.559606,-0.13947,13,1
-4.36498,10.7389,0.607516,43,9
-3.70664,9.11923,-1.91343,47,2
-4.41396,10.8648,1.026,70,10
-3.90469,9.6161,-1.64381,66,3
-4.33653,10.6849,1.41588,33,11
-3.76606,9.28398,-1.23015,68,4
-4.39992,10.852,1.85469,30,12
-3.88758,9.58835,-0.9052,30,5
-6.49167,16.0191,3.35977,17,13
-3.83824,9.47615,-0.535816,98,6
-6.59827,16.2985,4.05947,31,14
-4.10738,10.1508,-0.191139,100,7
-6.26963,15.5023,4.48068,11,15
-4.38656,10.8899,0.204926,10,8
-0.224163,0.556781,-0.13857,13,1
-4.22979,10.5113,0.593804,105,9
-3.64547,9.05926,-1.89817,38,2
-4.36634,10.8561,1.02373,23,10
-3.83795,9.54719,-1.62973,67,3
-4.25776,10.5969,1.40223,91,11
-3.78763,9.43155,-1.24794,48,4
-4.36054,10.8636,1.85406,21,12
-6.46056,16.1036,3.37274,21,13
-3.73006,9.30226,-0.525244,100,6
-6.479,16.1659,4.02077,41,14
-5.5435,13.8387,-0.260215,100,7
-6.21116,15.5133,4.47757,6,15
-4.34185,10.8885,0.204612,60,8
-0.225104,0.564801,-0.140369,13,1
-4.22264,10.6002,0.597991,66,9
-3.53972,8.88589,-1.85924,71,2
-5.93656,14.9103,1.40408,34,10
-3.78269,9.50547,-1.62035,53,3
-5.99987,15.0847,1.9933,25,11
-3.80529,9.57199,-1.26476,42,4
-6.36791,16.0263,2.73135,16,12
-4.18546,10.5336,-0.991658,25,5
-6.27243,15.794,3.30329,20,13
-3.67988,9.27067,-0.522732,98,6
-6.41821,16.1775,4.01808,30,14
-4.03642,10.1792,-0.191139,35,7
-6.32852,15.9677,4.60232,12,15
-4.30015,10.8943,0.204437,81,8
-0.220271,0.558333,-0.13857,13,1
-4.0438,10.25,0.577475,39,9
-3.50148,8.87993,-1.85543,97,2
-4.03549,10.2394,0.962897,27,10
-3.756,9.53516,-1.62316,57,3
-5.95009,15.1129,1.99427,8,11
-4.0506,10.2883,-1.35762,78,4
-6.33281,16.0932,2.73917,16,12
-6.18135,15.7244,3.2842,11,13
-3.67599,9.35596,-0.526814,100,6
-6.3738,16.2223,4.02392,33,14
-6.20919,15.8196,4.55366,16,15
-4.28074,10.9513,0.20524,37,8
-0.215582,0.551799,-0.13677,13,1
-3.98944,10.2113,0.574544,16,9
-3.46202,8.86589,-1.85008,47,2
-3.99788,10.2435,0.962025,55,10
-3.6777,9.42794,-1.60283,51,3
-4.47867,11.4872,1.51386,7,11
-3.86575,9.91513,-1.30668,22,4
-4.25611,10.9276,-1.026,29,5
-6.16762,15.8436,3.30481,4,13
-6.35529,16.3342,4.04642,31,14
-4.00361,10.2953,-0.192814,55,7
-6.16439,15.8599,4.55936,27,15
-4.21048,10.8778,0.2036,72,8
-0.220782,0.570686,-0.141269,13,1
-3.98006,10.2878,0.578103,44,9
-3.34763,8.65759,-1.80429,73,2
-3.9718,10.2771,0.963942,17,10
-3.44712,8.92413,-1.51522,56,3
-4.39623,11.3872,1.49875,31,11
-3.68462,9.54891,-1.25672,61,4
-6.24159,16.1754,2.74605,15,12
-7.63817,19.8154,4.12796,12,13
-6.28564,16.3235,4.03832,30,14
-3.62165,9.40527,-0.17592,35,7
-6.08956,15.8225,4.54279,17,15
-4.2166,11.0018,0.205659,51,8
-0.224465,0.585973,-0.144868,12,1
-3.97197,10.3744,0.582185,60,9
-3.42755,8.9571,-1.8642,54,2
-3.99996,10.4584,0.979631,23,10
-3.65037,9.54437,-1.61847,93,3
-4.38112,11.461,1.50655,7,11
-3.57712,9.36266,-1.23064,66,4
-6.78477,17.7676,3.0123,6,12
-4.04096,10.5878,-0.991484,31,5
-6.25912,16.3996,3.41205,13,13
-3.68167,9.65145,-0.541363,100,6
-6.25785,16.4135,4.05542,31,14
-3.58595,9.41038,-0.175781,29,7
-6.25569,16.425,4.70947,13,15
-4.07252,10.7379,0.200458,81,8
-0.216892,0.572176,-0.141269,13,1
-4.11476,10.8607,0.608667,72,9
-3.38113,8.92435,-1.85505,76,2
-3.7176,9.81761,0.918447,40,10
-3.63591,9.60694,-1.62692,60,3
-4.38042,11.5802,1.5202,28,11
-3.52196,9.31567,-1.22284,66,4
-6.07335,16.0726,2.72133,5,12
-4.16851,11.0316,-1.03175,96,5
-6.17687,16.3552,3.39831,30,13
-3.73401,9.89221,-0.554133,100,6
-6.24661,16.5574,4.08556,31,14
-6.18197,16.4034,4.69705,18,15
-3.77856,10.0687,0.187718,51,8
-0.209419,0.558332,-0.13767,13,1
-3.91767,10.4505,0.584907,53,9
-3.38097,9.01882,-1.87222,64,2
-3.70498,9.88836,0.923851,80,10
-3.53377,9.43643,-1.59594,61,3
-5.77758,15.4364,2.02376,17,11
-3.47968,9.30187,-1.21942,78,4
-5.87746,15.72,2.65813,22,12
-4.18929,11.2048,-1.04657,57,5
-6.14791,16.4521,3.41395,21,13
-4.09568,10.9661,-0.613482,47,6
-6.18331,16.5645,4.08196,34,14
-3.55721,9.53448,-0.177631,46,7
-6.178,16.5679,4.73794,10,15
-3.73365,10.0556,0.187229,75,8
-0.206112,0.555406,-0.13677,13,1
-3.87562,10.4491,0.584069,51,9
-3.29212,8.87595,-1.84016,68,2
-3.49052,9.42093,-1.59125,66,3
-5.48929,14.8236,1.94089,16,11
-3.43341,9.27673,-1.21455,60,4
-5.30787,14.349,2.42317,5,12
-4.01139,10.85,-1.01205,72,5
-7.16748,19.3866,4.01767,18,13
-6.20107,16.7907,4.13235,23,14
-3.49552,9.46993,-0.176199,42,7
-6.14219,16.6491,4.75502,16,15
-3.69645,10.0629,0.187125,86,8
-0.210889,0.574415,-0.141269,13,1
-3.83706,10.457,0.583755,23,9
-3.24469,8.84741,-1.83177,54,2
-3.458,9.43922,-1.59219,50,3
-4.89806,13.3701,1.74834,11,11
-3.4283,9.36322,-1.2243,70,4
-5.45666,14.911,2.51484,5,12
-3.9386,10.7685,-1.00316,76,5
-6.09609,16.6764,3.45135,5,13
-6.11944,16.7584,4.11885,31,14
-3.46725,9.49522,-0.176444,38,7
-6.14166,16.8284,4.80006,6,15
-0.197934,0.544708,-0.155291,12,0
-3.69504,10.1741,0.18894,86,8
-0.214101,0.589839,-0.144868,12,1
-5.39653,14.8672,0.828897,13,9
-3.22049,8.87713,-1.83558,66,2
-3.52954,9.73432,0.905897,54,10
-3.4533,9.52923,-1.60533,72,3
-4.84429,13.3749,1.74663,23,11
-3.42467,9.45539,-1.23478,11,4
-5.27615,14.5752,2.45508,5,12
-3.57087,9.8698,-0.918273,56,5
-6.22944,17.2274,3.56088,16,13
-3.89113,10.7667,-0.599979,94,6
-6.04264,16.7199,4.10446,17,14
-3.42321,9.47717,-0.175885,32,7
-6.08222,16.8479,4.79954,12,15
-0.196127,0.545361,-0.155291,12,0
-3.67008,10.2108,0.189394,73,8
-0.206873,0.575874,-0.141269,13,1
-3.29254,9.17047,-1.89397,49,2
-3.50801,9.77597,0.908686,66,10
-3.39567,9.46812,-1.59313,66,3
-4.80393,13.4021,1.74809,31,11
-3.40334,9.49472,-1.23844,17,4
-3.54215,9.89284,-0.919319,60,5
-5.34808,14.9448,3.08538,2,13
-4.03701,11.2873,-0.628241,81,6
-6.07838,16.9949,4.16699,33,14
-3.49071,9.76528,-0.181016,35,7
-6.83876,19.142,5.44659,17,15
-0.194318,0.546008,-0.155291,12,0
-3.68512,10.3605,0.191942,86,8
-0.19974,0.561867,-0.13767,13,1
-3.71982,10.4696,0.58229,23,9
-3.26868,9.19984,-1.89779,52,2
-3.55224,10.0035,0.928732,44,10
-3.392,9.55751,-1.60627,58,3
-3.51651,9.91381,1.29157,45,11
-3.32972,9.39242,-1.22357,41,4
-5.53636,15.6255,2.6256,21,12
-5.79786,16.3727,3.37617,13,13
-3.92225,11.0823,-0.616099,87,6
-5.8481,16.5329,4.04867,23,14
-3.43594,9.71896,-0.179934,45,7
-10.0568,28.4627,8.08861,18,15
-0.19241,0.546683,-0.155291,12,0
-3.68145,10.4657,0.193652,68,8
-0.200363,0.569915,-0.13947,13,1
-3.66735,10.4373,0.579778,52,9
-3.24371,9.23157,-1.90198,66,2
-3.4942,9.95001,0.922631,88,10
-3.26573,9.30462,-1.56184,82,3
-4.70997,13.427,1.74712,46,11
-3.41513,9.74117,-1.26744,56,4
-5.65228,16.1313,2.70726,36,12
-3.75672,10.7215,-0.993924,25,5
-5.74392,16.4021,3.37808,8,13
-3.3478,9.56515,-0.531105,42,6
-5.80001,16.5808,4.05542,37,14
-3.38879,9.69314,-0.179236,44,7
-9.99116,28.5942,8.11605,6,15
-0.190501,0.547352,-0.155291,12,0
-0.198373,0.570611,-0.13947,13,1
-3.60926,10.3877,0.576324,69,9
-3.16764,9.11673,-1.87603,68,2
-3.51892,10.1334,0.938493,51,10
-3.24294,9.34396,-1.56653,78,3
-4.66242,13.4415,1.74688,31,11
-3.45017,9.95787,1.66916,11,12
-3.76753,10.8739,-1.00682,13,5
-6.65731,19.2252,3.95471,20,13
-4.87295,14.0802,-0.780853,39,6
-5.75738,16.6451,4.06622,31,14
-3.5137,10.1642,-0.187718,48,7
-7.4549,21.5772,6.11693,12,15
-0.188589,0.548013,-0.155291,12,0
-0.200814,0.5842,-0.142619,26,1
-3.57558,10.4078,0.576742,60,9
-3.26784,9.51208,-1.95503,30,2
-3.40524,9.91763,0.917401,42,10
-3.25968,9.49909,-1.59063,57,3
-4.61869,13.4671,1.74809,50,11
-3.73278,10.8964,-1.00769,69,5
-6.54693,19.122,3.92876,37,13
-3.28805,9.60908,-0.532257,42,6
-5.69673,16.6577,4.06442,43,14
-3.49372,10.2218,-0.188556,40,7
-7.31396,21.4111,6.06258,3,15
-0.170497,0.501117,-0.141833,14,0
-3.88452,11.4238,0.210616,38,8
-0.191876,0.564601,-0.13767,13,1
-3.54501,10.4373,0.577684,58,9
-3.23652,9.529,-1.95617,28,2
-3.66583,10.7992,0.997759,42,10
-3.24681,9.57027,-1.60064,33,3
-4.69978,13.861,1.79709,28,11
-4.96345,14.6554,2.4507,5,12
-3.28761,9.70724,-0.896658,13,5
-6.22836,18.4009,3.77611,8,13
-4.08331,12.0706,-0.667807,9,6
-5.65291,16.72,4.07476,34,14
-3.44521,10.196,-0.187858,42,7
-7.33251,21.7129,6.14074,18,15
-0.162588,0.483399,-0.136656,14,0
-3.82742,11.3861,0.209673,36,8
-0.194869,0.580046,-0.141269,13,1
-3.50347,10.4344,0.576847,40,9
-3.61164,10.7628,0.993227,85,10
-4.65137,13.8773,1.79709,8,11
-3.36138,10.0403,1.67698,11,12
-3.24169,9.68276,-0.893346,58,5
-6.17281,18.4486,3.78145,14,13
-4.05192,12.1169,-0.669586,52,6
-5.59018,16.7267,4.07161,31,14
-4.26866,12.7799,-0.235189,26,7
-7.10375,21.2802,6.01133,8,15
-0.164556,0.494962,-0.139762,14,0
-3.7763,11.3652,0.209045,37,8
-0.189772,0.571475,-0.13902,26,1
-3.47206,10.4618,0.577684,105,9
-3.22619,9.72093,-1.9909,30,2
-3.17805,9.58708,-1.5997,46,3
-4.58854,13.8501,1.79148,4,11
-3.25209,9.82191,-1.27037,26,4
-6.39385,19.3219,3.22349,6,12
-3.1966,9.65997,-0.890209,58,5
-5.65467,17.0981,3.50058,6,13
-3.19477,9.66574,-0.533513,49,6
-5.53359,16.7516,4.07296,31,14
-6.94832,21.0591,5.94197,5,15
-0.16524,0.502875,-0.141833,14,0
-3.78153,11.5151,0.211558,17,8
-0.191422,0.583244,-0.141719,13,1
-3.41746,10.4188,0.574649,83,9
-3.22895,9.84406,-2.0138,33,2
-3.47869,10.6117,0.977016,46,10
-3.22083,9.83089,-1.63849,93,3
-3.40173,10.3892,1.34227,46,11
-3.28817,10.0483,-1.29815,100,4
-6.03531,18.4541,3.07519,1,12
-3.19569,9.77144,-0.899447,58,5
-5.57604,17.0599,3.48875,15,13
-5.47085,16.7579,4.06981,34,14
-3.49394,10.7087,-0.196619,27,7
-5.38949,16.5282,4.65823,18,15
-3.65624,11.2594,0.206636,66,8
-0.188284,0.580168,-0.140819,26,1
-3.39029,10.4529,0.575905,27,9
-2.82741,8.71741,-1.78139,11,2
-4.45349,13.7391,1.26358,41,10
-3.17421,9.79829,-1.6313,58,3
-3.38193,10.4457,1.34812,15,11
-3.11855,9.63795,-1.2438,50,4
-5.96071,18.4327,3.06831,3,12
-3.17798,9.82748,-0.903631,65,5
-5.98191,18.5093,3.78107,14,13
-3.08777,9.55992,-0.5265,100,6
-5.41584,16.7778,4.07026,31,14
-3.44368,10.6746,-0.195781,30,7
-5.33228,16.5387,4.65616,27,15
-0.147639,0.459843,-0.12941,15,0
-3.61692,11.2721,0.206636,67,8
-0.192209,0.599378,-0.145318,12,1
-3.32879,10.3867,0.571613,30,9
-3.01507,9.40776,-1.9203,54,2
-4.4049,13.7526,1.26341,22,10
-3.12493,9.76228,-1.62348,56,3
-3.34303,10.4499,1.34714,34,11
-5.19529,16.2594,2.7035,13,12
-3.15275,9.86698,-0.906245,67,5
-6.8107,21.3279,4.35197,19,13
-4.046,12.6778,-0.697429,61,6
-5.3454,16.7595,4.06127,40,14
-3.40822,10.6922,-0.195886,47,7
-5.26396,16.524,4.64684,11,15
-0.161221,0.508233,-0.142868,14,0
-0.181875,0.574037,-0.13902,13,1
-3.29916,10.4129,0.572451,69,9
-3.36984,10.6489,0.97719,70,10
-3.04914,9.64128,-1.60158,70,3
-3.31491,10.488,1.35056,50,11
-3.03146,9.59702,-1.23576,1,4
-5.13777,16.2652,2.70162,26,12
-3.12129,9.88743,-0.907117,73,5
-6.69841,21.2317,4.32755,19,13
-4.00352,12.6975,-0.697743,42,6
-5.30561,16.8375,4.07566,23,14
-3.35231,10.6386,-0.194699,40,7
-5.22539,16.593,4.66133,7,15
-0.161757,0.516166,-0.144939,14,0
-3.38822,10.8118,0.197771,17,8
-0.17997,0.574638,-0.13902,13,1
-3.0419,9.73053,-1.61472,47,3
-5.04004,16.1321,2.07519,45,11
-2.97891,9.5407,-1.22722,45,4
-5.12097,16.4113,2.7229,38,12
-4.54591,14.5773,-1.33592,36,5
-5.84477,18.7423,3.81618,14,13
-4.55566,14.6175,-0.802415,13,6
-5.22483,16.775,4.05632,40,14
-3.34428,10.7438,-0.196409,31,7
-6.40233,20.5808,5.77529,15,15
-0.156615,0.505628,-0.141833,14,0
-3.91103,12.6345,0.23086,30,8
-0.179115,0.578986,-0.13992,13,1
-5.54484,17.9346,0.983811,13,9
-5.45762,17.6635,1.61744,6,10
-2.97528,9.63539,-1.5972,88,3
-4.97725,16.1287,2.07251,9,11
-2.94149,9.53776,-1.22552,8,4
-5.01595,16.2743,2.69724,10,12
-4.50517,14.617,-1.33819,31,5
-5.04765,16.3873,3.33305,18,13
-4.50989,14.6505,-0.803357,6,6
-5.19088,16.8732,4.07566,28,14
-3.2709,10.6388,-0.19428,41,7
-6.24081,20.3113,5.6935,16,15
-0.149197,0.487698,-0.136656,14,0
-3.20683,10.4891,0.191453,52,8
-0.183926,0.601972,-0.145318,12,1
-5.32181,17.4286,0.955027,12,9
-2.69759,8.83444,-1.79551,11,2
-5.33488,17.4823,1.59913,37,10
-2.9376,9.63249,-1.59501,56,3
-4.92324,16.1536,2.07349,45,11
-3.36049,11.033,-1.41612,42,4
-5.26802,17.3065,2.86525,15,12
-3.907,12.8353,-1.17381,20,5
-5.08012,16.6997,3.39297,25,13
-3.09758,10.1889,-0.558111,20,6
-5.12176,16.8577,4.06756,31,14
-3.23258,10.6464,-0.19421,24,7
-6.13004,20.2017,5.65675,21,15
-0.167607,0.55479,-0.155291,12,0
-3.16615,10.4868,0.191209,31,8
-0.181824,0.60261,-0.145318,12,1
-5.28533,17.5169,0.958899,13,9
-5.24794,17.415,1.59129,43,10
-2.97801,9.88858,-1.63568,62,3
-4.87254,16.1897,2.07592,40,11
-3.31816,11.025,-1.41368,37,4
-5.07973,16.8888,2.79329,20,12
-4.40531,14.6558,-1.33889,26,5
-5.03931,16.7756,3.4048,27,13
-3.0373,10.1174,-0.55361,94,6
-5.05686,16.8447,4.06037,37,14
-3.77822,12.5934,-0.229499,32,7
-6.03694,20.1349,5.63242,19,15
-3.13765,10.5183,0.191593,72,8
-0.174257,0.584534,-0.140819,13,1
-6.41975,21.5346,1.17766,19,9
-2.8689,9.62966,-1.95312,40,2
-3.23781,10.8749,0.992704,31,10
-2.94464,9.89651,-1.63537,67,3
-4.83241,16.2514,2.08177,9,11
-3.39361,11.4127,-1.46194,43,4
-5.00794,16.8525,2.78453,33,12
-4.38108,14.7524,-1.34638,28,5
-5.01158,16.8863,3.42388,16,13
-3.00828,10.1428,-0.554447,49,6
-5.02536,16.9436,4.08016,43,14
-3.16532,10.6791,-0.19442,34,7
-5.90484,19.9344,5.57082,20,15
-0.163924,0.55589,-0.155291,12,0
-3.75563,12.7441,0.231908,16,8
-0.173419,0.588848,-0.141719,13,1
-6.34342,21.5531,1.17745,32,9
-2.84194,9.65607,-1.95656,49,2
-5.15257,17.5182,1.59756,30,10
-2.98143,10.1431,-1.67447,66,3
-4.80927,16.3721,2.09518,27,11
-3.15413,10.7445,-1.37493,33,4
-4.94352,16.8509,2.78141,24,12
-4.94783,16.8765,3.41853,12,13
-2.94486,10.0511,-0.5489,77,6
-4.96946,16.9722,4.08286,23,14
-3.12802,10.6901,-0.19442,100,7
-5.54243,18.9536,5.2913,3,15
-0.161885,0.556487,-0.155291,12,0
-3.73291,12.832,0.233269,38,8
-0.173539,0.596934,-0.143519,12,1
-6.27761,21.6077,1.17923,27,9
-2.8328,9.75693,-1.97487,52,2
-5.09555,17.5619,1.59983,27,10
-2.89968,10.0003,-1.64913,12,3
-5.30215,18.2858,2.3377,20,11
-3.02434,10.437,-1.33423,39,4
-4.90391,16.9345,2.79236,15,12
-3.77009,13.0276,-1.18654,20,5
-2.852,9.86803,-0.538328,77,6
-4.90452,16.981,4.08061,2,14
-3.08902,10.6951,-0.194315,28,7
-5.62571,19.4907,5.43572,12,15
-3.69854,12.8898,0.234072,11,8
-0.176721,0.616299,-0.148018,12,1
-3.73307,13.0188,0.70978,3,9
-2.81387,9.8196,-1.98556,61,2
-4.65575,16.2579,1.47956,3,10
-4.64886,16.2553,2.07592,27,11
-3.0308,10.6046,-1.35421,64,4
-4.83663,16.923,2.78766,16,12
-3.75578,13.1499,-1.19647,25,5
-4.80106,16.8208,3.40022,21,13
-2.80493,9.83376,-0.53592,100,6
-5.10217,17.8994,4.29702,34,14
-3.0407,10.6674,-0.193617,100,7
-5.95352,20.9,5.82291,7,15
-3.66722,12.9424,0.234805,68,8
-0.1768,0.624382,-0.149817,12,1
-3.65063,12.901,0.702663,28,9
-2.76569,9.78024,-1.97564,54,2
-4.9609,17.5548,1.596,13,10
-2.64997,9.37729,-1.54338,73,3
-4.62029,16.3604,2.08738,9,11
-2.96273,10.498,-1.33934,57,4
-4.76304,16.8885,2.77922,24,12
-3.65365,12.9635,-1.17835,35,5
-4.68615,16.6269,3.35786,30,13
-2.76906,9.83147,-0.535292,100,6
-4.99527,17.7474,4.25652,30,14
-3.01753,10.728,-0.194525,28,7
-5.28563,18.8042,5.23384,7,15
-3.6371,13.0091,0.235782,79,8
-0.162034,0.57995,-0.13902,13,1
-2.73746,9.80449,-1.97869,61,2
-4.9139,17.6115,1.59966,27,10
-2.60343,9.33701,-1.53525,78,3
-4.55783,16.3573,2.08494,36,11
-2.92394,10.5007,-1.33837,34,4
-4.68794,16.8357,2.76795,28,12
-4.64334,16.698,3.36892,23,13
-2.73793,9.85262,-0.53592,100,6
-4.95205,17.8324,4.27272,25,14
-3.02474,10.8921,-0.197317,32,7
-5.13336,18.4977,5.14377,19,15
-0.154197,0.558666,-0.155291,12,0
-3.64501,13.2061,0.239133,26,8
-0.167364,0.606785,-0.145318,12,1
-4.79453,17.3946,0.945606,11,9
-2.66151,9.66256,-1.94816,42,2
-6.68189,24.275,2.20277,40,10
-2.5714,9.34178,-1.53462,16,3
-4.48039,16.2882,2.07422,100,11
-2.89646,10.5371,-1.34178,15,4
-4.61501,16.8005,2.7595,16,12
-3.56058,12.9708,-1.17678,25,5
-4.5817,16.6906,3.36434,32,13
-2.76072,10.0639,-0.546911,100,6
-4.86559,17.7491,4.24888,12,14
-3.00942,10.9855,-0.198818,21,7
-5.08814,18.5863,5.16344,14,15
-0.152344,0.559174,-0.155291,12,0
-3.54269,13.0123,0.235398,52,8
-0.158083,0.58104,-0.13902,13,1
-3.69418,13.5874,0.737937,12,9
-2.63873,9.70544,-1.95503,54,2
-6.50315,23.9356,2.17,67,10
-4.37777,16.1351,2.05277,21,11
-3.00927,11.0989,-1.41198,38,4
-4.56822,16.8603,2.7667,13,12
-2.93033,10.8152,-0.980328,23,5
-4.53162,16.7368,3.37045,36,13
-2.74174,10.1332,-0.550156,100,6
-5.30716,19.6283,4.69428,15,14
-2.91055,10.772,-0.194769,38,7
-5.0338,18.6432,5.17431,15,15
-3.55013,13.2216,0.238958,24,8
-0.163124,0.607938,-0.145318,12,1
-3.66793,13.6793,0.742229,11,9
-2.6328,9.81888,-1.97602,45,2
-2.81064,10.4968,-1.72109,38,3
-4.37888,16.3651,2.08007,49,11
-2.77258,10.3691,-1.3179,28,4
-4.70668,17.6148,2.88778,24,12
-3.0268,11.3278,-1.02582,27,5
-4.4838,16.7924,3.37846,30,13
-3.0601,11.4685,-0.622065,40,6
-5.22505,19.5959,4.68213,19,14
-2.87859,10.8034,-0.195153,22,7
-4.9672,18.655,5.17276,7,15
-0.148436,0.560224,-0.155291,12,0
-3.56743,13.4736,0.243287,33,8
-0.161001,0.608504,-0.145318,12,1
-3.62561,13.703,0.742857,28,9
-2.60353,9.84699,-1.97983,49,2
-6.37661,24.1345,2.18395,11,10
-2.70591,10.2487,-1.67885,68,3
-4.32933,16.409,2.08372,9,11
-2.93728,11.1408,-1.41466,57,4
-4.65933,17.6723,2.89466,24,12
-2.70248,10.2575,-0.928034,10,5
-4.47665,17.0035,3.41777,10,13
-2.67704,10.1753,-0.551412,91,6
-5.1041,19.4142,4.63444,30,14
-2.84479,10.8206,-0.195292,36,7
-4.89206,18.6209,5.15878,1,15
-3.61269,13.8297,0.2495,20,8
-0.158982,0.609035,-0.145318,12,1
-3.94728,15.1322,0.819581,18,9
-2.57657,9.88452,-1.98556,45,2
-3.80482,14.6069,1.32058,5,10
-2.66941,10.248,-1.67729,55,3
-4.3494,16.7095,2.12004,22,11
-2.70843,10.4127,-1.32106,45,4
-4.5817,17.6273,2.88465,17,12
-2.65113,10.207,-0.922631,15,5
-4.42024,17.0182,3.41777,33,13
-2.64227,10.1803,-0.551202,94,6
-5.05534,19.4914,4.64884,30,14
-2.82155,10.8866,-0.196305,24,7
-5.67464,21.9107,6.06465,12,15
-5.2324,20.3199,0.366256,16,8
-0.156855,0.609586,-0.145318,12,1
-3.66315,14.2361,0.770385,10,9
-2.51004,9.76181,-1.95923,68,2
-3.73356,14.5307,1.31257,94,10
-2.64247,10.2917,-1.68292,42,3
-3.74443,14.5942,1.84998,16,11
-2.80321,10.9336,-1.3859,39,4
-4.16755,16.2551,2.65782,41,12
-2.62221,10.2351,-0.924374,20,5
-4.33013,16.9137,3.39373,31,13
-2.59088,10.1275,-0.547853,73,6
-5.05099,19.7582,4.70823,15,14
-2.78741,10.9036,-0.196444,38,7
-5.42265,21.2275,5.87053,5,15
-3.76557,14.827,0.267022,52,8
-0.157709,0.621436,-0.148018,12,1
-2.44315,9.6411,-1.93328,71,2
-3.69064,14.5746,1.31535,14,10
-2.56759,10.1396,-1.65664,76,3
-3.69017,14.5834,1.84705,44,11
-2.6881,10.6311,-1.34641,81,4
-4.58163,18.133,2.96224,19,12
-2.88837,11.4399,-1.03227,24,5
-4.31967,17.1088,3.42998,25,13
-2.56705,10.1748,-0.549946,21,6
-4.85634,19.2627,4.5863,25,14
-2.74347,10.89,-0.196025,30,7
-5.47019,21.7296,6.00408,11,15
-0.140796,0.562193,-0.155291,12,0
-3.46669,13.8526,0.249255,8,8
-0.152702,0.61064,-0.145318,12,1
-2.43497,9.74439,-1.95236,52,2
-3.63553,14.5596,1.31291,23,10
-2.55801,10.252,-1.67354,56,3
-3.62483,14.5384,1.83974,68,11
-2.72105,10.9216,-1.382,27,4
-4.59215,18.4318,3.00855,57,12
-2.82251,11.3373,-1.02216,24,5
-4.21632,16.9485,3.39487,37,13
-3.78183,15.2247,3.62171,2,14
-2.69915,10.8661,-0.195432,44,7
-4.22113,17.0058,4.69498,13,15
-3.3623,13.6272,0.244997,38,8
-0.150677,0.611142,-0.145318,12,1
-3.60332,14.626,0.789436,49,9
-2.39672,9.73567,-1.94892,54,2
-3.5647,14.491,1.30559,5,10
-2.524,10.2604,-1.67354,51,3
-4.07366,16.5725,2.09542,31,11
-2.70517,11.0135,-1.39248,57,4
-4.33944,17.6803,2.8834,12,12
-2.76725,11.2832,-1.01641,38,5
-4.18674,17.0711,3.41663,13,13
-2.51486,10.2618,-0.553715,35,6
-3.53989,14.4554,3.4359,40,14
-2.67498,10.9318,-0.196444,100,7
-4.7922,19.5989,5.40621,8,15
-3.38082,13.9109,0.249884,30,8
-0.148542,0.611665,-0.145318,12,1
-3.60617,14.8494,0.800845,51,9
-3.51333,14.4892,1.30437,66,10
-2.38815,9.85639,-1.60627,85,3
-3.58091,14.7904,1.8685,20,11
-2.6541,10.9708,-1.3859,49,4
-2.65398,10.9786,-0.988172,34,5
-4.12299,17.0684,3.41319,33,13
-2.79346,11.5733,-0.623949,54,6
-3.60912,14.964,3.55378,11,14
-2.64997,10.9872,-0.197282,31,7
-4.94806,20.5312,5.65882,9,15
-0.135,0.563613,-0.155291,12,0
-3.3412,13.9492,0.250372,53,8
-0.153771,0.642477,-0.152517,11,1
-3.42564,14.3239,0.771851,30,9
-2.11091,8.83329,-1.76537,4,2
-3.48355,14.5886,1.31222,77,10
-2.41739,10.1236,-1.64851,61,3
-3.45997,14.501,1.83048,68,11
-2.62001,10.9891,-1.38712,45,4
-2.62026,11.0072,-0.989915,55,5
-4.24731,17.8422,3.56508,15,13
-2.73242,11.4873,-0.61882,100,6
-3.58381,15.0783,3.57807,18,14
-2.60745,10.9789,-0.196968,100,7
-3.52434,14.8511,4.08986,6,15
-0.13313,0.564058,-0.155291,12,0
-3.23878,13.7331,0.246288,22,8
-0.144376,0.612662,-0.145318,12,1
-3.44016,14.6098,0.786609,85,9
-2.26474,9.61802,-1.92068,54,2
-3.39775,14.441,1.29792,57,10
-2.37572,10.1051,-1.64413,48,3
-3.36075,14.3062,1.8044,60,11
-2.58889,11.0291,-1.39102,45,4
-3.37137,14.3739,2.33838,27,12
-4.24055,18.0939,3.6124,15,13
-3.39796,14.5215,3.4431,11,14
-3.41364,14.6,-0.261716,23,7
-3.34766,14.3291,3.94285,5,15
-0.13116,0.564519,-0.155291,12,0
-3.18992,13.7404,0.246219,52,8
-0.142236,0.613162,-0.145318,12,1
-3.36254,14.507,0.780434,56,9
-2.22451,9.59717,-1.91496,64,2
-3.38193,14.6022,1.31135,34,10
-2.31593,10.0075,-1.62692,41,3
-3.3515,14.4938,1.82658,44,11
-2.55396,11.0536,-1.39297,81,4
-3.76865,16.3238,2.65344,26,12
-2.57441,11.151,-1.00125,31,5
-3.8817,16.8269,3.35671,5,13
-3.27079,14.1899,-0.763163,29,6
-3.33544,14.482,3.43095,40,14
-3.85059,16.732,-0.299693,26,7
-4.02408,17.4999,4.81145,7,15
-0.129189,0.564973,-0.155291,12,0
-3.15707,13.8178,0.247405,35,8
-0.142697,0.625054,-0.148018,12,1
-3.26702,14.3219,0.769862,48,9
-2.18925,9.59723,-1.91343,61,2
-2.26826,9.95965,-1.61785,100,3
-3.29648,14.4861,1.82414,52,11
-2.51315,11.0528,-1.39175,31,4
-3.67095,16.1577,2.62434,17,12
-2.51163,11.055,-0.991832,17,5
-3.89118,17.1409,3.41663,13,13
-3.35864,14.807,-0.795716,48,6
-3.29607,14.5429,3.44265,15,14
-3.89596,17.2037,-0.307895,30,7
-3.23305,14.288,3.92525,27,15
-0.127216,0.565421,-0.155291,12,0
-3.07988,13.6999,0.245102,53,8
-0.136244,0.606534,-0.143519,12,1
-3.13652,13.9747,0.750602,36,9
-2.16691,9.65462,-1.92335,49,2
-2.20411,9.83643,-1.59657,42,3
-3.2125,14.3483,1.80537,72,11
-2.42472,10.8387,-1.36372,81,4
-3.44431,15.4089,2.50076,10,12
-2.61124,11.682,-1.04726,49,5
-3.23178,14.47,2.88198,17,13
-2.76361,12.384,-0.664981,68,6
-3.25122,14.581,3.44895,24,14
-3.80718,17.0884,-0.305592,83,7
-0.114387,0.51682,-0.141833,14,0
-3.07004,13.8824,0.248173,61,8
-0.134125,0.607006,-0.143519,12,1
-3.16867,14.3522,0.770281,123,9
-2.12812,9.63912,-1.91878,33,2
-3.20695,14.5376,1.30246,28,10
-2.16763,9.83442,-1.59501,97,3
-3.16111,14.3537,1.80464,32,11
-2.38559,10.8413,-1.36299,27,4
-3.40067,15.4672,2.50827,6,12
-2.4776,11.2688,-1.00944,56,5
-3.17956,14.4735,2.88045,30,13
-2.72465,12.413,-0.666027,87,6
-3.18777,14.5351,3.43545,54,14
-3.36099,15.3377,-0.274073,8,7
-3.34395,15.2727,4.18925,5,15
-0.115048,0.528542,-0.144939,14,0
-3.00966,13.8383,0.247196,27,8
-0.134075,0.616992,-0.145768,25,1
-3.02871,13.9494,0.74809,45,9
-2.1107,9.72131,-1.93366,52,2
-2.18393,10.0755,-1.63286,40,3
-3.08788,14.2579,1.79124,56,11
-2.36873,10.9465,-1.37517,82,4
-2.38562,11.0339,-0.987649,51,5
-3.11617,14.425,2.86862,45,13
-2.67708,12.403,-0.664981,61,6
-3.31416,15.3806,-0.274631,56,7
-3.31013,15.3749,4.21409,15,15
-0.113202,0.528941,-0.144939,14,0
-2.96343,13.8585,0.24737,45,8
-0.132735,0.621268,-0.146668,12,1
-2.967,13.8871,0.744217,48,9
-2.11283,9.89758,-1.96724,68,2
-3.17104,14.8675,1.33,34,10
-2.13845,10.0348,-1.62504,68,3
-3.08357,14.4822,1.81805,64,11
-2.27433,10.6907,-1.34203,46,4
-3.46138,16.2705,2.63467,10,12
-2.33839,11.0013,-0.983988,17,5
-3.02053,14.2227,2.82626,30,13
-3.40986,16.0697,-0.860927,29,6
-3.42006,16.1317,3.80707,25,14
-2.97034,14.0104,-0.249988,30,7
-3.67908,17.3683,4.75709,10,15
-0.111355,0.529333,-0.144939,14,0
-2.91992,13.88,0.24758,64,8
-0.132277,0.629333,-0.148468,12,1
-2.91523,13.8817,0.74338,41,9
-2.08955,9.95869,-1.97793,64,2
-3.13302,14.9448,1.33592,77,10
-2.13718,10.1946,-1.64976,61,3
-2.33726,11.1684,-1.40101,46,4
-3.32532,15.9035,2.57335,6,12
-2.32117,11.1108,-0.993053,23,5
-2.96693,14.2018,2.82016,9,13
-2.27878,10.9174,-0.584488,16,6
-5.08365,24.3766,5.74885,28,14
-2.87125,13.7799,-0.245695,31,7
-3.19398,15.3422,4.19908,16,15
-0.0978562,0.472945,-0.12941,15,0
-2.86943,13.8804,0.247405,50,8
-0.123773,0.599256,-0.141269,13,1
-2.88168,13.9642,0.747253,36,9
-2.0466,9.9175,-1.96839,59,2
-3.08667,14.9707,1.33732,80,10
-2.11195,10.2523,-1.65789,40,3
-2.9381,14.2753,1.78953,44,11
-2.23389,10.8634,-1.36177,44,4
-3.25548,15.8454,2.56208,21,12
-2.73459,13.3101,-1.1888,22,5
-2.93154,14.2814,2.8339,10,13
-2.24868,10.9644,-0.586581,13,6
-4.96411,24.2262,5.70926,34,14
-2.8512,13.927,-0.248138,31,7
-3.14737,15.3874,4.2084,31,15
-0.103901,0.511147,-0.139762,14,0
-2.85042,14.0353,0.249988,15,8
-0.12478,0.614963,-0.144868,25,1
-2.85673,14.0916,0.753533,85,9
-2.02406,9.98423,-1.98022,35,2
-3.03835,15.0009,1.33906,100,10
-2.0781,10.2692,-1.65946,53,3
-2.89533,14.3205,1.79392,12,11
-2.06822,10.2388,-1.28255,16,4
-3.19037,15.8083,2.55426,10,12
-2.83239,14.0471,2.78543,11,13
-2.92847,14.5498,3.42645,9,14
-2.77734,13.8114,-0.245904,100,7
-3.51109,17.476,4.77625,18,15
-0.102116,0.511506,-0.139762,14,0
-2.70127,13.5431,0.241053,37,8
-0.122252,0.613483,-0.144419,25,1
-2.87205,14.4125,0.770176,53,9
-1.97808,9.9354,-1.96915,26,2
-2.89967,14.5776,1.30036,66,10
-2.16662,10.9022,-1.76051,63,3
-2.84068,14.3072,1.79099,8,11
-2.03942,10.281,-1.28694,19,4
-3.14024,15.8304,2.55614,33,12
-2.09972,10.5947,-0.944943,18,5
-3.04649,15.4,-0.822721,29,6
-2.86557,14.4988,3.41206,33,14
-2.87381,14.5405,-0.258714,100,7
-3.38163,17.1255,4.67738,16,15
-0.0988436,0.504277,-0.137692,14,0
-2.67557,13.6501,0.242798,74,8
-0.120217,0.613885,-0.144419,25,1
-2.78568,14.2381,0.760337,30,9
-1.80441,9.23125,-1.82833,19,2
-2.85488,14.619,1.30315,100,10
-1.96841,10.0796,-1.62661,22,3
-2.93008,15.0179,1.87874,8,11
-2.94073,15.1006,2.43662,27,12
-2.11562,10.8738,-0.969172,44,5
-2.90813,14.975,3.52183,22,14
-2.85847,14.733,-0.261961,100,7
-2.84098,14.6565,4.00031,30,15
-0.102285,0.53116,-0.144939,14,0
-2.59996,13.5141,0.240215,28,8
-0.118073,0.614301,-0.144419,25,1
-2.68812,13.9987,0.747044,120,9
-2.74671,14.3172,1.27544,27,10
-2.01204,10.4977,-1.69293,100,3
-2.84142,14.8389,1.8551,40,11
-2.04586,10.6943,-1.33691,37,4
-2.90357,15.1922,2.44976,11,12
-2.06571,10.8083,-0.962722,28,5
-2.88717,15.1207,2.99227,18,13
-3.04677,15.9717,-0.852134,48,6
-2.96674,15.567,3.6586,11,14
-3.27342,17.1925,-0.305487,83,7
-2.78115,14.6208,3.98788,25,15
-0.0954091,0.504938,-0.137692,14,0
-2.59431,13.7431,0.244124,74,8
-0.117012,0.620455,-0.145768,25,1
-2.66993,14.1709,0.755731,40,9
-1.88366,9.99768,-1.97754,28,2
-2.83123,15.0414,1.33906,63,10
-2.017,10.726,-1.7286,36,3
-2.79181,14.8605,1.85656,44,11
-2.01364,10.7287,-1.34032,49,4
-2.84833,15.1906,2.44789,4,12
-2.03017,10.8272,-0.963768,22,5
-3.00092,16.0352,-0.85496,61,6
-2.90486,15.537,3.64916,26,14
-3.22294,17.2549,-0.306394,99,7
-2.72407,14.5982,3.97908,24,15
-0.0971663,0.524263,-0.142868,14,0
-2.56708,13.8642,0.246114,39,8
-0.11201,0.605529,-0.142169,26,1
-2.65493,14.3667,0.765675,71,9
-1.87301,10.1355,-2.00349,71,2
-2.77039,15.0061,1.33505,86,10
-1.96558,10.6572,-1.7164,70,3
-2.74962,14.9228,1.86314,12,11
-1.97545,10.7318,-1.33983,37,4
-2.75457,14.979,2.41222,11,12
-2.07381,11.2771,-1.00316,23,5
-3.04672,16.6166,3.9002,28,14
-3.24267,17.7027,-0.314143,67,7
-2.68213,14.657,3.99254,15,15
-0.0932633,0.513194,-0.139762,14,0
-2.4983,13.7609,0.244124,42,8
-0.110591,0.609752,-0.143069,25,1
-2.62578,14.4918,0.771851,37,9
-1.83622,10.1342,-2.00197,52,2
-2.67718,14.7902,1.31501,31,10
-2.87997,15.9423,1.98915,8,11
-1.92,10.639,-1.3274,38,4
-1.94605,10.7941,-0.959585,44,5
-2.76485,15.3511,3.03196,19,13
-2.6498,14.727,-0.784202,22,6
-2.98284,16.5946,3.89255,26,14
-2.47117,13.7618,-0.244054,88,7
-2.68928,14.9914,4.08106,7,15
-0.0880836,0.494498,-0.134586,15,0
-2.42923,13.6514,0.24203,22,8
-0.110167,0.619727,-0.145318,25,1
-2.46587,13.8854,0.739088,17,9
-1.82143,10.2566,-2.02487,49,2
-2.60952,14.7093,1.30699,25,10
-2.67514,15.1098,1.8841,8,11
-1.88838,10.6769,-1.3313,41,4
-1.90629,10.789,-0.958539,32,5
-2.57714,14.6008,2.88198,20,13
-1.98659,11.2665,-0.599561,23,6
-2.98677,16.9561,3.97488,27,14
-2.42208,13.7644,-0.24395,44,7
-2.65265,15.0901,4.10539,5,15
-0.0883497,0.506221,-0.137692,14,0
-2.38775,13.6953,0.242658,13,8
-0.109341,0.627787,-0.147118,24,1
-2.41841,13.8998,0.739402,28,9
-1.7412,10.0075,-1.97449,28,2
-2.38519,13.7231,1.21861,39,10
-1.83325,10.5584,-1.69731,55,3
-2.62951,15.1601,1.88922,45,11
-1.88635,10.8868,-1.35665,59,4
-1.96444,11.3492,-1.00769,38,5
-2.52784,14.6194,2.88389,10,13
-1.93059,11.1769,-0.594432,27,6
-2.92093,16.928,3.96589,22,14
-2.3798,13.8063,-0.244543,8,7
-2.57898,14.9775,4.07226,5,15
-0.0898372,0.525568,-0.142868,14,0
-0.100595,0.589745,-0.13812,27,1
-2.37834,13.9432,0.741287,40,9
-1.70197,9.98839,-1.96953,64,2
-2.65621,15.6051,1.3849,93,10
-1.79108,10.5336,-1.69231,56,3
-2.56826,15.1203,1.88313,70,11
-1.84658,10.8715,-1.35397,52,4
-2.59932,15.3194,2.46103,39,12
-1.93246,11.4012,-1.0117,42,5
-2.81175,16.6064,3.2739,19,13
-2.67693,15.827,3.70584,4,14
-2.58019,15.2712,-0.270338,28,7
-2.53992,15.0488,4.08934,36,15
-0.0823485,0.491568,-0.133551,15,0
-0.102174,0.611218,-0.143069,25,1
-2.3186,13.8702,0.736995,16,9
-1.70537,10.2128,-2.01265,61,2
-2.57561,15.4409,1.36957,45,10
-1.72822,10.3719,-1.6654,55,3
-2.47834,14.8898,1.85339,68,11
-1.83464,11.0224,-1.37201,28,4
-2.71018,16.3003,2.61715,7,12
-1.9015,11.4488,-1.01536,24,5
-2.7573,16.6195,3.27466,13,13
-2.72002,16.4125,3.84081,21,14
-2.43578,14.7293,4.00031,10,15
-0.080718,0.491838,-0.133551,15,0
-0.101406,0.619246,-0.144868,25,1
-2.2821,13.9512,0.740868,41,9
-1.60494,9.81152,-1.93251,33,2
-2.32968,14.2577,1.26393,8,10
-1.69987,10.4146,-1.67135,51,3
-2.41618,14.8196,1.84364,20,11
-1.82933,11.2325,-1.39735,55,4
-2.73891,16.836,2.70162,20,12
-1.7394,10.6921,-0.947732,38,5
-2.54819,15.681,3.08805,14,13
-1.73126,10.6656,-0.566275,6,6
-2.57912,15.9064,3.72024,42,14
-2.23033,13.7704,-0.243496,100,7
-2.46919,15.2622,4.14266,15,15
-0.0790005,0.492117,-0.133551,15,0
-2.1973,13.7028,0.242239,22,8
-0.0998597,0.623445,-0.145768,25,1
-2.24064,14.0044,0.743275,34,9
-1.56293,9.7686,-1.92297,52,2
-2.28116,14.2737,1.26463,44,10
-1.5215,9.53101,-1.52868,68,3
-2.36505,14.8318,1.84413,44,11
-1.70457,10.7017,-1.33057,44,4
-2.41816,15.199,2.43756,19,12
-1.70269,10.702,-0.94808,20,5
-1.79423,11.3028,-0.59977,20,6
-2.51962,15.8903,3.71439,20,14
-2.19069,13.8315,-0.244438,100,7
-2.33863,14.7822,4.01014,15,15
-0.0778814,0.496207,-0.134586,15,0
-2.17577,13.8783,0.245206,66,8
-0.0991901,0.633416,-0.148018,24,1
-2.2044,14.0931,0.747567,36,9
-1.5355,9.81667,-1.93137,45,2
-2.47675,15.8524,1.40373,46,10
-1.6195,10.3775,-1.66352,46,3
-2.60128,16.6876,2.07373,36,11
-1.71484,11.0136,-1.36859,61,4
-2.38968,15.3655,2.4629,25,12
-1.67665,10.7807,-0.95453,30,5
-2.35578,15.1649,2.98311,10,13
-1.75415,11.305,-0.599561,3,6
-2.5474,16.4363,3.83991,36,14
-2.46729,15.9377,-0.281507,31,7
-2.29263,14.8266,4.01998,7,15
-0.075563,0.492657,-0.133551,15,0
-2.14094,13.9748,0.246777,35,8
-0.0937365,0.612569,-0.143069,25,1
-2.15609,14.1066,0.747881,10,9
-1.54096,10.082,-1.98251,45,2
-1.5526,10.1819,-1.6313,66,3
-2.55796,16.7947,2.08592,27,11
-1.6516,10.8566,-1.34836,31,4
-2.29924,15.1315,2.42411,9,12
-1.66924,10.9855,-0.972135,27,5
-1.69013,11.1491,-0.590978,3,6
-2.38908,15.7784,3.68425,28,14
-2.08391,13.7792,-0.243252,21,7
-2.23912,14.823,4.01687,11,15
-0.0762213,0.508188,-0.137692,14,0
-2.10704,14.0649,0.248243,42,8
-0.0914161,0.610949,-0.142619,26,1
-1.45036,9.70457,-1.90733,38,2
-2.28438,15.3033,1.3537,24,10
-1.51213,10.1421,-1.6241,47,3
-2.26717,15.2245,1.88995,4,11
-1.62084,10.8974,-1.35275,59,4
-2.25253,15.1625,2.42786,30,12
-1.64803,11.0934,-0.981199,40,5
-2.44355,16.4681,3.23612,28,13
-1.65344,11.1567,-0.591082,30,6
-2.34901,15.8691,3.70359,45,14
-2.35495,15.9284,-0.281054,78,7
-2.28731,15.4897,4.19546,51,15
-0.069969,0.477868,-0.12941,15,0
-2.01192,13.7575,0.242693,24,8
-0.0895644,0.613193,-0.143069,25,1
-2.04849,14.0419,0.743694,27,9
-1.42413,9.76202,-1.91763,64,2
-2.24301,15.394,1.36102,6,10
-1.47842,10.159,-1.62598,33,3
-2.21516,15.2402,1.89092,4,11
-1.59221,10.9678,-1.36079,41,4
-2.19845,15.1625,2.42661,29,12
-1.601,11.0419,-0.976144,59,5
-2.39281,16.5232,3.24528,20,13
-1.6225,11.2177,-0.594013,6,6
-2.30363,15.9467,3.71979,35,14
-2.00349,13.8861,-0.244892,87,7
-2.24399,15.5721,4.21564,8,15
-0.0683004,0.478109,-0.12941,15,0
-2.01811,14.1446,0.249395,8,8
-0.0904479,0.634724,-0.148018,24,1
-1.99974,14.0509,0.743799,45,9
-1.36431,9.58617,-1.88214,30,2
-2.18168,15.3485,1.35632,24,10
-1.4635,10.3088,-1.64913,60,3
-2.14634,15.1378,1.87728,24,11
-1.56867,11.0775,-1.37371,55,4
-2.17013,15.3441,2.45446,5,12
-1.52646,10.793,-0.953658,10,5
-2.33511,16.5314,3.24528,9,13
-2.01717,14.2986,-0.756778,13,6
-2.23218,15.8427,3.6937,42,14
-2.14672,15.2554,-0.268907,100,7
-3.11423,22.1589,5.9958,14,15
-0.066631,0.478345,-0.12941,15,0
-2.10539,15.1339,0.266708,60,8
-0.087427,0.629245,-0.146668,24,1
-1.94107,13.9886,0.740135,36,9
-1.3384,9.64533,-1.89283,52,2
-1.40205,10.13,-1.61972,42,3
-2.09892,15.1845,1.88215,45,11
-1.50176,10.8784,-1.34836,31,4
-1.44932,10.512,-0.928383,42,5
-2.08323,15.1294,2.96861,11,13
-1.9444,14.1393,-0.747986,13,6
-2.18801,15.9315,3.71259,25,14
-1.82008,13.2697,-0.233792,36,7
-3.02481,22.0816,5.97199,23,15
-0.0670397,0.493889,-0.133551,15,0
-1.90024,14.0176,0.246917,15,8
