x, y, z, intensity, ring
6.47397,-5.48062,1.0415,23,11
5.23234,-4.43107,-0.841874,46,4
5.90361,-5.00308,-0.677026,15,5
7.75273,-6.57247,1.97564,30,13
5.50654,-4.66988,-0.378389,31,6
6.73614,-5.71468,2.03941,66,14
7.07391,-6.00124,-0.161923,93,7
6.45436,-5.47757,2.26829,32,15
11.578,-9.85713,0.265416,9,8
0.42876,-0.365162,-0.130022,14,1
9.00632,-7.67312,0.620076,28,9
0.478217,-0.407426,-0.122118,15,2
6.92985,-5.90611,0.796603,24,10
5.07633,-4.32794,-1.05656,30,3
6.48404,-5.53007,1.04637,38,11
5.13602,-4.38193,-0.828955,49,4
7.82371,-6.67735,1.62911,16,12
10.9174,-9.32103,-1.25591,20,5
6.87719,-5.8716,1.75773,24,13
5.3277,-4.55028,-0.367189,52,6
6.86431,-5.86475,2.0844,35,14
8.67536,-7.4147,-0.199202,57,7
6.40047,-5.47232,2.25638,35,15
8.69862,-7.45826,0.200005,6,8
0.403816,-0.346357,-0.122823,15,1
8.92795,-7.66029,0.616518,43,9
0.461823,-0.396389,-0.118302,15,2
6.89909,-5.92369,0.795558,15,10
5.06343,-4.34909,-1.05718,13,3
6.51439,-5.59536,1.05441,26,11
5.08306,-4.36749,-0.822862,34,4
6.26635,-5.3861,1.30873,20,12
5.54134,-4.76462,-0.639375,11,5
8.16096,-7.01953,2.09241,49,13
5.34278,-4.59714,-0.369387,77,6
6.86493,-5.90894,2.09115,20,14
8.58729,-7.39145,-0.197771,100,7
6.61263,-5.69379,2.33817,8,15
8.68636,-7.50316,0.200354,40,8
0.402544,-0.347835,-0.122823,15,1
8.85297,-7.65247,0.613273,53,9
0.493112,-0.426244,-0.126697,14,2
7.84743,-6.78568,0.90764,22,10
7.87935,-6.81568,-1.65007,6,3
6.47433,-5.60231,1.05125,33,11
5.05351,-4.3744,-0.820668,64,4
6.27494,-5.4336,1.31468,42,12
7.22064,-6.25251,-0.835649,17,5
5.42028,-4.69685,-0.375877,66,6
6.75002,-5.85117,2.06235,34,14
5.32252,-4.61539,-0.12297,86,7
10.807,-9.40104,0.250023,22,8
0.401327,-0.349238,-0.122823,15,1
8.71624,-7.5876,0.605632,69,9
0.462006,-0.402182,-0.119065,15,2
6.83353,-5.95077,0.792769,1,10
11.7579,-10.2427,-2.46979,15,3
6.40983,-5.58575,1.04393,28,11
5.09806,-4.44419,-0.830418,22,4
7.56817,-6.59981,-0.87853,15,5
6.94448,-6.05805,1.79131,9,13
5.34065,-4.66059,-0.371481,52,6
7.08188,-6.18228,2.17033,19,14
5.30035,-4.62868,-0.12283,100,7
7.13621,-6.2341,2.53901,21,15
8.63227,-7.5623,0.200319,36,8
0.400106,-0.350636,-0.122823,15,1
8.61911,-7.5561,0.600712,20,9
0.472409,-0.414146,-0.122118,15,2
6.83518,-5.99429,0.795383,24,10
7.88354,-6.91612,-1.66102,27,3
6.40671,-5.62249,1.04661,59,11
5.10638,-4.48291,-0.834318,43,4
7.67832,-6.74319,-0.894044,11,5
5.34385,-4.69634,-0.372841,63,6
6.53484,-5.74504,2.00881,47,14
5.31269,-4.67224,-0.123493,100,7
10.8101,-9.53712,0.251629,15,8
0.398879,-0.352031,-0.122823,15,1
0.473904,-0.418391,-0.122881,15,2
6.38114,-5.63564,0.744833,16,10
7.25684,-6.41128,-1.53368,67,3
6.51496,-5.75787,1.06758,19,11
5.05947,-4.4731,-0.829199,34,4
6.25173,-5.52911,1.32187,40,12
5.7265,-5.0646,-0.668833,23,5
6.77262,-5.99191,1.75773,15,13
5.33191,-4.71894,-0.373155,70,6
6.54101,-5.79107,2.01691,20,14
5.4191,-4.79948,-0.126355,61,7
6.79609,-6.02114,2.4329,28,15
10.9218,-9.70363,0.255015,30,8
0.397648,-0.353421,-0.122823,15,1
0.47831,-0.425261,-0.124407,14,2
6.67704,-5.93859,0.781787,13,10
7.23441,-6.43657,-1.53368,100,3
6.49038,-5.77662,1.06684,23,11
5.02604,-4.47489,-0.826274,16,4
6.15863,-5.48521,1.30623,27,12
7.33498,-6.53293,-0.859356,14,5
5.34225,-4.76144,-0.375039,63,6
6.6473,-5.92669,2.05605,16,14
5.41575,-4.83034,-0.12667,55,7
6.96819,-6.21717,2.50226,38,15
10.7388,-9.60835,0.251524,15,8
0.396412,-0.354807,-0.122823,15,1
0.456345,-0.408593,-0.119065,15,2
6.8225,-6.11074,0.80131,43,10
7.3399,-6.57647,-1.5609,38,3
7.10433,-6.36764,1.17141,16,11
4.99561,-4.47915,-0.823837,16,4
7.37763,-6.61724,1.56966,42,12
7.51825,-6.74574,1.96342,40,13
5.39099,-4.83876,-0.379645,73,6
6.58017,-5.9082,2.04166,38,14
5.40034,-4.85055,-0.126704,48,7
6.79269,-6.1033,2.44688,11,15
5.53236,-4.98486,0.129986,26,8
0.412541,-0.371845,-0.128222,14,1
6.9538,-6.27003,0.490702,21,9
0.484078,-0.436478,-0.126697,14,2
6.96387,-6.2813,0.820484,20,10
5.00553,-4.5165,-1.06782,28,3
6.48673,-5.85504,1.07294,27,11
4.9711,-4.48858,-0.822374,51,4
7.21083,-6.5132,1.539,52,12
7.17569,-6.48374,-0.846108,29,5
7.18875,-6.49554,1.88328,104,13
5.38,-4.86291,-0.380064,63,6
6.52771,-5.90238,2.03176,56,14
5.40117,-4.88547,-0.127123,61,7
5.35943,-4.86304,0.126321,39,8
0.393925,-0.357566,-0.122823,15,1
11.1756,-10.1476,0.79111,40,9
0.473755,-0.430329,-0.124407,14,2
11.1994,-10.1763,1.3239,28,10
7.35112,-6.68197,-1.57342,35,3
7.19338,-6.53859,1.19359,63,11
7.70188,-7.00325,-1.27817,45,4
7.2012,-6.55029,1.54182,44,12
5.4404,-4.95386,-0.385611,56,6
6.39654,-5.82653,1.99757,73,14
5.38409,-4.9043,-0.127123,61,7
7.09977,-6.46936,2.5737,49,15
5.35633,-4.89615,0.12667,82,8
0.392612,-0.359007,-0.122823,15,1
7.14422,-6.53272,0.507345,129,9
0.457764,-0.418729,-0.120591,15,2
7.34961,-6.7276,-1.57811,15,3
6.33194,-5.79809,1.05417,26,11
7.65566,-7.01266,-1.27475,30,4
5.01204,-4.59268,-0.594751,21,5
12.2754,-11.2523,3.23688,11,13
5.3009,-4.86078,-0.376924,70,6
6.33452,-5.81062,1.98452,20,14
5.47009,-5.01768,-0.129567,100,7
5.30916,-4.88545,0.125937,82,8
0.39142,-0.360307,-0.122823,15,1
10.7004,-9.85334,0.762326,21,9
0.456299,-0.420324,-0.120591,15,2
7.13835,-6.57786,0.849246,48,10
13.0508,-12.026,-2.81081,9,3
6.34916,-5.85269,1.06026,19,11
7.57983,-6.98957,-1.26598,45,4
6.64856,-6.13296,1.43263,42,12
5.01354,-4.62637,-0.596843,15,5
8.0423,-7.42122,2.12714,10,13
5.30089,-4.89324,-0.378075,70,6
6.3281,-5.84349,1.98857,76,14
5.38791,-4.97704,-0.128031,84,7
7.12821,-6.58694,2.60061,28,15
5.31115,-4.92162,0.12639,45,8
0.37301,-0.345774,-0.117424,16,1
0.472178,-0.437854,-0.125171,14,2
10.4425,-9.6868,1.24615,44,10
7.36446,-6.8339,-1.59125,18,3
6.34034,-5.88562,1.06221,11,11
10.0181,-9.30286,-1.67863,35,4
6.67487,-6.2005,1.44295,9,12
4.95438,-4.60229,-0.591613,32,5
5.19162,-4.82604,-0.371481,87,6
6.52315,-6.06593,2.0565,63,14
5.41296,-5.03532,-0.129043,78,7
7.07547,-6.58415,2.58974,45,15
5.29978,-4.94559,0.12653,44,8
0.388895,-0.363031,-0.122823,15,1
10.338,-9.65381,0.741287,43,9
0.453428,-0.423421,-0.120591,15,2
10.429,-9.74223,1.24859,22,10
4.9678,-4.64228,-1.07689,27,3
6.3386,-5.92534,1.06538,28,11
10.0464,-9.39472,-1.68887,42,4
4.94702,-4.62772,-0.592659,33,5
12.0227,-11.2507,3.20063,12,13
5.21703,-4.88372,-0.374516,84,6
6.455,-6.0447,2.04166,44,14
10.763,-10.0824,-0.257423,42,7
7.10319,-6.65636,2.60838,38,15
6.13351,-5.76378,0.146914,15,8
0.387625,-0.364386,-0.122823,15,1
8.1581,-7.67169,0.586895,29,9
0.457593,-0.43046,-0.122118,15,2
10.3659,-9.75128,1.24511,52,10
7.34966,-6.91629,-1.59845,62,3
5.87414,-5.52971,0.990554,49,11
12.8664,-12.1162,-2.17001,14,4
6.51783,-6.13994,1.41823,74,12
4.91697,-4.63352,-0.59109,13,5
12.1171,-11.4226,3.23688,15,13
5.15114,-4.85759,-0.371062,56,6
6.43953,-6.07255,2.04346,13,14
10.4833,-9.88937,-0.251559,100,7
7.0757,-6.67713,2.60683,7,15
5.4545,-5.16347,0.131102,15,8
0.386287,-0.365804,-0.122823,15,1
10.3324,-9.78797,0.745892,20,9
0.478813,-0.453741,-0.128224,14,2
10.278,-9.73987,1.23883,23,10
7.28412,-6.90513,-1.58969,25,3
6.45449,-6.1208,1.09219,27,11
5.05213,-4.79262,-0.855035,4,4
5.96368,-5.65932,1.30216,42,12
4.92163,-4.67209,-0.593705,6,5
11.221,-10.6558,3.00791,21,13
5.11303,-4.85718,-0.369597,73,6
11.9076,-11.3118,3.79177,22,14
10.2325,-9.72386,-0.246393,70,7
12.2612,-11.6558,4.53296,9,15
5.26477,-5.02058,0.126984,16,8
0.384944,-0.367218,-0.122823,15,1
8.19412,-7.81953,0.593594,22,9
0.445979,-0.425591,-0.119828,15,2
6.11049,-5.83319,0.739081,20,10
7.26591,-6.9386,-1.59125,57,3
6.43201,-6.14441,1.09219,35,11
10.0203,-9.57557,-1.70178,14,4
6.46836,-6.18346,1.4173,54,12
4.87505,-4.66033,-0.590044,23,5
5.1047,-4.88328,-0.370225,80,6
7.10022,-6.7946,2.26886,56,14
5.40968,-5.17864,-0.130719,36,7
5.07125,-4.86995,0.122725,38,8
0.406145,-0.39016,-0.130022,14,1
8.15093,-7.83286,0.592443,39,9
0.452984,-0.435308,-0.122118,15,2
11.011,-10.585,1.33627,11,10
6.24638,-6.00682,-1.37256,28,3
5.84257,-5.62047,0.995429,24,11
7.13607,-6.86719,-1.21601,39,4
5.89172,-5.67171,1.29528,67,12
5.28793,-5.09047,-0.642164,27,5
12.2989,-11.8437,3.31893,15,13
5.12503,-4.93709,-0.372946,66,6
12.3399,-11.8916,3.95644,22,14
5.32103,-5.12949,-0.129008,42,7
11.8381,-11.416,4.40665,13,15
5.12897,-4.95991,0.12454,93,8
0.382371,-0.369896,-0.122823,15,1
10.1702,-9.84186,0.741705,40,9
0.457105,-0.442347,-0.123644,14,2
11.3548,-10.992,1.38264,15,10
5.44064,-5.26866,-1.19954,33,3
5.82292,-5.64083,0.995429,24,11
5.07352,-4.91658,-0.867466,42,4
6.50588,-6.30684,1.43513,31,12
5.07766,-4.92575,-0.370748,38,6
12.0005,-11.6455,3.86061,15,14
5.34327,-5.18703,-0.129986,49,7
7.36193,-7.14917,2.74969,41,15
5.16176,-5.02661,0.125762,92,8
0.381077,-0.371229,-0.122823,15,1
8.14468,-7.93697,0.596002,40,9
0.449934,-0.438459,-0.122118,15,2
11.3577,-11.0719,1.38769,21,10
7.13203,-6.955,-1.5778,52,3
5.78898,-5.64726,0.992992,31,11
4.9512,-4.83167,-0.849429,57,4
5.97072,-5.82861,1.32156,79,12
11.9939,-11.7126,3.25864,2,13
5.3876,-5.26305,-0.394718,14,6
6.96177,-6.80321,2.24726,14,14
5.26364,-5.14555,-0.128485,56,7
12.109,-11.8414,4.53813,15,15
5.26269,-5.16081,0.128659,37,8
0.379779,-0.372557,-0.122823,15,1
8.06989,-7.91919,0.592548,39,9
0.448401,-0.440027,-0.122118,15,2
11.3488,-11.1408,1.39135,24,10
7.10067,-6.97293,-1.57623,41,3
5.72817,-5.62709,0.985923,36,11
4.94138,-4.85588,-0.850648,33,4
6.4786,-6.36872,1.43888,20,12
5.35084,-5.26009,-0.656457,18,5
15.99,-15.7244,4.35922,11,13
5.35211,-5.26502,-0.393462,39,6
6.95326,-6.8425,2.25221,43,14
5.2428,-5.16108,-0.128415,35,7
12.1061,-11.9216,4.55263,11,15
5.192,-5.12716,0.127368,82,8
0.378476,-0.37388,-0.122823,15,1
9.94442,-9.82709,0.732703,38,9
0.43569,-0.43055,-0.119065,15,2
10.4172,-10.2979,1.28154,22,10
7.10859,-7.02962,-1.58343,38,3
5.69156,-5.6303,0.982998,54,11
4.90747,-4.85634,-0.847723,21,4
7.0305,-6.95969,1.56685,27,12
14.0434,-13.9069,3.84175,12,13
5.26701,-5.2176,-0.388542,21,6
6.95425,-6.89142,2.26031,13,14
10.5219,-10.4305,-0.25861,42,7
12.0918,-11.991,4.56298,5,15
4.95712,-4.92951,0.122027,46,8
0.377169,-0.375199,-0.122823,15,1
8.10076,-8.06127,0.598933,34,9
0.420269,-0.41822,-0.115249,16,2
10.4264,-10.3792,1.28712,16,10
7.21838,-7.18821,-1.61347,45,3
10.4409,-10.4008,1.80952,24,11
4.89752,-4.88045,-0.848942,43,4
6.97958,-6.95769,1.5609,48,12
10.7432,-10.7133,2.94914,14,13
4.97445,-4.96231,-0.368236,21,6
6.93015,-6.91565,2.26031,52,14
8.83671,-8.8213,-0.217946,100,7
12.0472,-12.0304,4.56194,6,15
5.0388,-5.04584,0.124471,77,8
0.375857,-0.376513,-0.122823,15,1
0.460329,-0.461455,-0.126697,14,2
10.4685,-10.4977,1.29705,28,10
10.0872,-10.1189,-2.26298,19,3
5.79226,-5.81048,1.00737,18,11
4.8244,-4.84127,-0.839192,38,4
5.0232,-5.04429,-0.622815,16,5
4.87734,-4.90123,-0.362374,47,6
8.76919,-8.81523,-0.217038,28,7
13.6016,-13.6778,5.16862,17,15
0.374474,-0.377888,-0.122823,15,1
0.450425,-0.454691,-0.124407,14,2
10.4752,-10.5781,1.30246,11,10
7.17788,-7.25091,-1.61597,37,3
10.3689,-10.4781,1.81,48,11
4.76195,-4.81376,-0.831393,64,4
5.16107,-5.21904,-0.642164,6,5
4.86441,-4.92249,-0.362688,67,6
11.4698,-11.6108,3.76793,30,14
4.8349,-4.89604,-0.120107,70,7
6.85509,-6.94421,2.61459,8,15
4.97591,-5.05469,0.123807,72,8
0.356751,-0.362525,-0.117424,16,1
0.435068,-0.442265,-0.120591,15,2
10.1323,-10.3035,1.26428,22,10
7.13729,-7.26042,-1.61253,35,3
10.2906,-10.4718,1.80269,60,11
4.7173,-4.80203,-0.826518,48,4
10.1992,-10.386,2.30553,22,12
4.87479,-4.96409,-0.608696,5,5
10.4814,-10.6771,2.90831,39,13
4.86259,-4.95512,-0.36384,57,6
7.0199,-7.15598,2.3143,42,14
4.80798,-4.9029,-0.119863,68,7
6.78889,-6.92533,2.59854,8,15
0.452728,-0.463442,-0.125934,14,2
10.138,-10.3816,1.26951,71,10
7.12708,-7.30084,-1.61597,33,3
4.73932,-4.85826,-0.833343,38,4
9.88154,-10.1331,2.24171,45,12
4.88664,-5.01103,-0.612356,16,5
10.3303,-10.597,2.87664,21,13
4.8592,-4.98636,-0.364886,43,6
7.00167,-7.18742,2.31655,13,14
10.3643,-10.643,-0.259308,41,7
0.341997,-0.352421,-0.113375,16,1
10.4481,-10.7703,0.7864,24,9
0.431969,-0.445291,-0.120591,15,2
10.1919,-10.5099,1.28084,11,10
10.4452,-10.7786,1.84291,36,11
4.58697,-4.73504,-0.809456,20,4
10.3793,-10.7181,2.3631,47,12
4.72359,-4.87777,-0.594054,32,5
10.2632,-10.6019,2.86824,28,13
4.83898,-5.00043,-0.364677,40,6
6.08364,-6.2888,2.02006,11,14
4.77364,-4.93634,-0.119863,62,7
6.63162,-6.86005,2.55661,37,15
13.2623,-13.7575,0.33355,38,8
0.348878,-0.362032,-0.116075,16,1
6.39181,-6.63279,0.482747,13,9
0.438585,-0.45528,-0.122881,15,2
10.0584,-10.4449,1.26864,63,10
5.22647,-5.42921,-1.1936,22,3
10.3909,-10.7978,1.83998,44,11
4.60895,-4.79108,-0.816281,50,4
10.3861,-10.7966,2.3728,49,12
4.8215,-5.01729,-0.364677,50,6
4.7891,-4.98531,-0.120666,70,7
6.63158,-6.90569,2.56541,42,15
13.2097,-13.7942,0.333376,38,8
0.366542,-0.382894,-0.122373,15,1
6.35895,-6.64496,0.482014,17,9
0.415279,-0.434109,-0.116775,16,2
14.0594,-14.702,-3.22192,13,3
10.4634,-10.9455,1.85924,48,11
4.59304,-4.80634,-0.816281,55,4
10.3211,-10.8042,2.36654,57,12
5.95259,-6.23339,-0.754071,15,5
10.3467,-10.8348,2.91213,16,13
4.81035,-5.03903,-0.365096,60,6
6.13218,-6.42594,2.05065,57,14
4.80618,-5.03817,-0.121539,45,7
6.5821,-6.90223,2.55558,42,15
0.332877,-0.349922,-0.12941,15,0
0.349091,-0.367223,-0.116975,16,1
6.27243,-6.60052,0.477199,9,9
0.424656,-0.446869,-0.119828,15,2
10.3013,-10.8439,1.30856,54,10
9.52998,-10.0355,-2.19196,12,3
10.2038,-10.7488,1.81975,60,11
4.61586,-4.8641,-0.823349,51,4
10.1719,-10.7226,2.34089,45,12
6.54925,-6.9063,1.85008,3,13
4.768,-5.0297,-0.363212,67,6
6.11507,-6.45296,2.05245,56,14
4.75693,-5.02153,-0.120736,25,7
6.73065,-7.10752,2.62287,48,15
12.8289,-13.5851,0.326151,10,8
0.36386,-0.385444,-0.122373,15,1
6.24798,-6.62092,0.477095,13,9
0.42571,-0.451279,-0.120591,15,2
10.0701,-10.6787,1.28415,57,10
4.94711,-5.24791,-1.14228,36,3
10.109,-10.7237,1.80952,44,11
4.79762,-5.09111,-0.858935,31,4
10.0761,-10.6963,2.32743,42,12
4.74108,-5.03463,-0.605035,36,5
6.41086,-6.81018,1.81803,6,13
4.69205,-4.98605,-0.358815,77,6
6.14079,-6.52785,2.0691,49,14
4.75171,-5.05121,-0.12105,19,7
6.65154,-7.07327,2.60165,63,15
12.8692,-13.7283,0.328454,10,8
0.362444,-0.386775,-0.122373,15,1
6.22913,-6.64961,0.477513,19,9
0.421448,-0.449897,-0.119828,15,2
10.0546,-10.737,1.28694,68,10
9.74003,-10.4084,1.75029,31,11
4.86572,-5.20144,-0.874534,50,4
10.0072,-10.7014,2.32055,43,12
4.6949,-5.02059,-0.601375,8,5
9.96803,-10.6633,2.83733,11,13
4.72916,-5.06077,-0.363002,84,6
6.10599,-6.53643,2.06505,28,14
4.73862,-5.07444,-0.12119,44,7
6.50429,-6.96768,2.55403,43,15
8.03474,-8.63129,0.205834,16,8
0.361092,-0.388038,-0.122373,15,1
10.1413,-10.9019,0.780329,10,9
0.422549,-0.45424,-0.120591,15,2
10.1174,-10.88,1.29984,28,10
5.01525,-5.39517,-1.16669,18,3
9.66445,-10.4002,1.74322,42,11
4.76782,-5.13258,-0.860154,27,4
10.2023,-10.9867,2.37468,22,12
4.67328,-5.03257,-0.600852,25,5
9.93342,-10.7009,2.83809,15,13
4.79434,-5.16655,-0.369387,52,6
6.08314,-6.5577,2.06505,50,14
4.73176,-5.10268,-0.121469,45,7
6.52852,-7.04276,2.57318,41,15
8.02628,-8.68278,0.206392,20,8
0.359735,-0.389296,-0.122373,15,1
10.0626,-10.8933,0.777189,30,9
0.420961,-0.455712,-0.120591,15,2
7.79508,-8.44153,1.00525,65,10
8.62611,-9.34475,-2.01425,20,3
9.63078,-10.4368,1.74371,42,11
4.81852,-5.22361,-0.872585,60,4
10.6928,-11.5958,2.49826,13,12
4.69126,-5.08921,-0.605558,18,5
6.11564,-6.63442,1.75392,6,13
6.37576,-6.92146,2.17258,30,14
12.588,-13.6702,-0.32437,60,7
6.09961,-6.62631,2.41323,54,15
7.99592,-8.71074,0.206392,37,8
0.379455,-0.413523,-0.129572,14,1
10.042,-10.9474,0.77855,30,9
0.429903,-0.468828,-0.123644,14,2
7.69004,-8.38926,0.995667,23,10
9.71149,-10.5982,-2.27675,13,3
9.60502,-10.482,1.74566,19,11
4.83244,-5.27553,-0.878434,9,4
7.51596,-8.20798,1.7627,14,12
4.72593,-5.16287,-0.612356,47,5
7.12903,-7.79088,2.05272,5,13
4.8233,-5.27294,-0.374516,7,6
10.7202,-11.7237,3.6676,21,14
13.2258,-14.4638,-0.342102,36,7
5.98781,-6.5506,2.37803,42,15
7.09522,-7.78662,0.183879,7,8
0.356941,-0.39186,-0.122373,15,1
8.48907,-9.32282,0.660794,9,9
0.417689,-0.458713,-0.120591,15,2
7.62316,-8.3748,0.990786,68,10
9.68108,-10.6394,-2.27831,8,3
5.94002,-6.53028,1.08391,10,11
4.84779,-5.33139,-0.884771,39,4
6.69659,-7.3672,1.57686,9,12
4.71324,-5.18524,-0.613054,12,5
5.94095,-6.54047,-0.463069,76,6
13.1525,-14.4899,-0.341578,72,7
7.16594,-7.91958,0.186427,2,8
0.35557,-0.393104,-0.122373,15,1
9.97818,-11.0353,0.779701,14,9
0.413452,-0.457256,-0.119828,15,2
7.58586,-8.39249,0.989741,59,10
7.14484,-7.90735,-1.68793,22,3
10.4532,-11.5729,1.91481,12,11
4.85044,-5.37185,-0.888671,40,4
4.62436,-5.12327,-0.603815,32,5
5.91541,-6.55821,-0.462859,79,6
6.43612,-7.13801,2.21892,36,14
8.44136,-9.36521,-0.220075,100,7
7.15162,-7.95942,0.186776,5,8
0.335965,-0.374045,-0.116075,16,1
10.0397,-11.1815,0.787552,45,9
0.419723,-0.467461,-0.122118,15,2
9.44631,-10.5244,1.23726,21,10
9.52082,-10.6111,-2.25798,8,3
7.28468,-8.12176,1.33959,12,11
4.62507,-5.16015,-0.606255,30,5
6.30458,-7.04139,2.18203,19,14
8.3646,-9.34545,-0.218923,100,7
6.06201,-6.77523,2.43601,59,15
7.15308,-8.01716,0.187544,6,8
0.352817,-0.395576,-0.122373,15,1
5.62898,-6.31339,0.443286,13,9
0.418089,-0.468923,-0.122118,15,2
7.62253,-8.55234,1.00229,17,10
9.34706,-10.4909,-2.22544,28,3
11.4125,-12.8137,2.10688,31,11
9.41443,-10.5739,-1.73834,15,4
7.31644,-8.22045,1.74299,26,12
4.59775,-5.16585,-0.605035,21,5
6.28484,-7.06388,1.83787,14,13
5.88142,-6.61277,-0.463801,79,6
6.35247,-7.14491,2.20722,12,14
8.29341,-9.33124,-0.217911,47,7
6.11146,-6.87866,2.46551,15,15
7.14096,-8.06004,0.187962,5,8
0.351434,-0.396806,-0.122373,15,1
9.97196,-11.2633,0.788389,16,9
0.432066,-0.488019,-0.126697,14,2
7.59131,-8.5774,1.00212,17,10
9.2109,-10.411,-2.20166,13,3
11.5624,-13.0735,2.14295,13,11
9.42611,-10.6618,-1.74736,13,4
5.939,-6.7199,1.42043,40,12
4.6483,-5.2595,-0.614099,17,5
6.19126,-7.00779,1.81765,11,13
5.86756,-6.64374,-0.464534,54,6
6.00634,-6.80328,2.09519,16,14
13.412,-15.1969,-0.353795,14,7
6.04651,-6.8536,2.44895,24,15
7.1392,-8.11495,0.188661,6,8
0.350047,-0.39803,-0.122373,15,1
5.59136,-6.36004,0.443809,24,9
0.40962,-0.465933,-0.120591,15,2
7.55343,-8.59487,1.00107,23,10
9.32052,-10.6093,-2.2367,13,3
11.5586,-13.1615,2.15075,4,11
9.47789,-10.7961,-1.76394,15,4
7.33705,-8.36041,1.76177,39,12
4.58917,-5.22927,-0.608696,13,5
5.86277,-6.68521,-0.465999,25,6
6.01082,-6.85644,2.10509,53,14
8.19511,-9.35132,-0.217038,23,7
6.03019,-6.88338,2.45205,55,15
7.53051,-8.62023,0.199795,33,8
0.348656,-0.399249,-0.122373,15,1
5.94084,-6.80532,0.473431,21,9
0.41832,-0.479191,-0.123644,14,2
7.52207,-8.61968,1.0009,25,10
7.14859,-8.19459,-1.72234,60,3
12.2615,-14.0605,2.29066,29,11
9.21709,-10.5732,-1.72226,1,4
5.90102,-6.77163,1.42262,7,12
7.60506,-8.72707,-1.01275,58,5
5.81579,-6.67852,-0.464115,39,6
5.96254,-6.84945,2.09654,48,14
8.14404,-9.35875,-0.216549,66,7
6.0188,-6.91896,2.45723,30,15
7.44534,-8.58302,0.198329,51,8
0.34726,-0.400464,-0.122373,15,1
5.96153,-6.87733,0.47699,47,9
0.411501,-0.474715,-0.122118,15,2
7.5089,-8.66546,1.00316,25,10
14.1251,-16.3122,2.64944,25,11
7.17287,-8.28643,-1.34568,31,4
9.00994,-10.4124,-1.20467,22,5
5.87221,-6.78864,1.74476,46,13
5.8055,-6.71389,-0.465162,54,6
6.20876,-7.18278,2.19192,51,14
8.09041,-9.36291,-0.215991,28,7
6.4265,-7.43992,2.63426,11,15
7.37207,-8.56176,0.197212,56,8
0.34579,-0.401734,-0.122373,15,1
5.92706,-6.88599,0.476153,53,9
0.4136,-0.480684,-0.123263,15,2
7.4602,-8.67328,1.0009,44,10
8.79879,-10.2331,-2.13752,12,3
10.0061,-11.6414,1.88483,8,11
5.00786,-5.82835,-0.943513,11,4
7.27613,-8.46825,1.76834,65,12
7.16984,-8.34749,-0.962722,98,5
5.70277,-6.6418,1.70163,47,13
5.80687,-6.76543,-0.467255,72,6
6.13037,-7.14485,2.17348,49,14
18.8551,-21.9753,-0.505422,10,7
7.25136,-8.47826,0.194734,30,8
0.329259,-0.385104,-0.116975,16,1
5.99902,-7.01898,0.483898,56,9
0.388964,-0.455258,-0.116393,16,2
9.70465,-11.3627,1.30734,31,10
8.78277,-10.2833,-2.1419,18,3
7.36249,-8.62341,1.39224,19,11
10.3211,-12.093,-1.9521,18,4
5.83492,-6.83906,1.42387,52,12
8.97657,-10.5251,-1.21024,22,5
5.68964,-6.67113,1.70431,57,13
9.6342,-11.3002,-0.778236,29,6
6.10285,-7.16069,2.17213,33,14
16.9173,-19.8567,-0.455333,38,7
9.05336,-10.6603,0.244124,16,8
6.00808,-7.07947,0.48662,40,9
0.420481,-0.495464,-0.126316,14,2
5.51659,-6.50264,0.746053,31,10
5.16683,-6.09252,-1.26524,13,3
7.11412,-8.39165,1.3508,34,11
10.2519,-12.0971,-1.94698,18,4
5.77526,-6.81718,1.41511,63,12
7.69339,-9.08458,-1.04151,29,5
5.82745,-6.88122,1.75277,28,13
5.80844,-6.8612,-0.471128,50,6
6.1118,-7.22211,2.18427,9,14
9.11812,-10.7784,-0.246428,100,7
9.65022,-11.4114,4.00445,11,15
9.23782,-10.9547,0.250128,28,8
0.341635,-0.405273,-0.122373,15,1
6.00006,-7.12026,0.48798,43,9
0.400954,-0.47598,-0.120973,15,2
4.98672,-5.92402,-1.22645,15,3
7.0362,-8.35872,1.34154,34,11
10.17,-12.0858,-1.93943,19,4
5.68276,-6.75567,1.39821,93,12
7.67702,-9.12968,-1.0436,28,5
4.70441,-5.59657,1.42115,21,13
5.80509,-6.90844,-0.472908,47,6
9.24013,-11.0042,3.85019,11,15
9.222,-11.0177,0.250791,48,8
0.340147,-0.406523,-0.122373,15,1
5.9893,-7.16059,0.489237,33,9
0.399291,-0.477377,-0.120973,15,2
4.93443,-5.90151,0.673017,37,10
5.51962,-6.60374,-1.36317,12,3
5.35596,-6.41021,1.02565,33,11
9.54023,-11.4221,-1.82731,8,4
5.62125,-6.73248,1.38914,92,12
4.71126,-5.64461,1.42916,6,13
5.79886,-6.95013,-0.474373,14,6
7.12248,-8.5426,-0.194141,31,7
6.07544,-7.28938,2.54264,10,15
6.82147,-8.20775,0.186287,36,8
0.338726,-0.407708,-0.122373,15,1
5.96172,-7.17838,0.489027,50,9
0.417603,-0.503006,-0.127079,14,2
4.91785,-5.92569,0.673714,65,10
9.45075,-11.3916,-2.34433,16,3
5.33356,-6.42886,1.02565,19,11
9.42933,-11.3698,-1.81366,16,4
5.63553,-6.79768,1.39852,103,12
4.82218,-5.81867,-0.661163,10,5
8.43326,-10.1832,-0.692928,16,6
6.02087,-7.27281,2.17978,13,14
6.03025,-7.28673,2.53436,9,15
6.82188,-8.26972,0.187125,17,8
0.337229,-0.408946,-0.122373,15,1
5.96712,-7.23612,0.491539,51,9
0.370889,-0.449924,-0.113341,16,2
4.9871,-6.05198,0.68609,41,10
4.93719,-5.99355,-1.22989,36,3
5.2721,-6.4024,1.01834,11,11
9.30559,-11.3047,-1.79782,6,4
5.62433,-6.83256,1.40165,46,12
5.46268,-6.63855,-0.752154,24,5
8.41669,-10.2357,-0.694498,35,6
5.70093,-6.93549,2.0727,15,14
17.0586,-20.7527,-0.468911,39,7
6.66216,-8.10776,2.81181,21,15
6.96045,-8.49492,0.191697,66,8
0.335871,-0.410062,-0.122373,15,1
5.96587,-7.28627,0.493528,39,9
0.39916,-0.487678,-0.122499,15,2
4.92305,-6.01693,0.680163,50,10
4.98233,-6.08939,-1.24616,31,3
5.22948,-6.39372,1.0142,60,11
9.68145,-11.8411,-1.87801,14,4
7.23307,-8.84968,1.81026,50,12
5.39157,-6.59895,-0.74553,31,5
6.03815,-7.39032,1.85505,12,13
8.43829,-10.3316,-0.699104,29,6
6.61826,-8.10612,2.41597,8,14
8.33876,-10.2171,-0.230197,45,7
6.13799,-7.52324,2.60165,8,15
9.22123,-11.3346,0.255049,41,8
0.334438,-0.411232,-0.122373,15,1
5.65188,-6.95216,0.469558,36,9
0.402494,-0.495092,-0.124026,14,2
4.95207,-6.09352,0.686962,48,10
8.61052,-10.599,-2.16286,9,3
5.01816,-6.17925,0.977392,51,11
7.27289,-8.95887,-1.41685,38,4
7.17848,-8.84573,1.80432,32,12
5.33701,-6.57657,-0.740998,35,5
8.38079,-10.3347,-0.697324,16,6
8.3169,-10.2632,-0.230581,100,7
9.18287,-11.3683,0.255084,15,8
0.333,-0.412397,-0.122373,15,1
5.44192,-6.74183,0.454067,33,9
0.408162,-0.50566,-0.126316,14,2
4.95579,-6.14178,0.690448,45,10
6.2233,-7.71537,-1.56998,2,3
5.00155,-6.20291,0.978367,31,11
7.22787,-8.96721,-1.41417,30,4
6.24033,-7.74478,1.5753,20,12
8.37668,-10.3962,-1.16806,27,5
5.66868,-7.03782,1.75659,26,13
8.37848,-10.4058,-0.70015,29,6
5.61455,-6.97561,2.0673,48,14
8.27475,-10.2844,-0.230407,36,7
6.0938,-7.57645,2.60527,22,15
9.22945,-11.5079,0.257493,27,8
0.331559,-0.413557,-0.122373,15,1
0.376846,-0.47038,-0.117157,16,2
4.91315,-6.13261,0.687485,41,10
5.22178,-6.52252,1.0259,38,11
7.20149,-8.99858,-1.41515,19,4
6.19721,-7.74647,1.57123,15,12
8.41692,-10.5248,-1.17904,27,5
4.94285,-6.18294,1.53868,58,13
8.3166,-10.4068,-0.698162,39,6
5.6145,-7.02562,2.0763,26,14
8.34989,-10.4522,-0.233513,100,7
5.7804,-7.23839,2.48207,9,15
9.16106,-11.5088,0.25676,28,8
0.330041,-0.41477,-0.122373,15,1
5.09141,-6.40078,0.428632,68,9
0.384894,-0.484052,-0.12021,15,2
4.93652,-6.20828,0.693934,61,10
6.16916,-7.76126,-1.57029,100,3
5.25342,-6.61155,1.03686,26,11
4.83495,-6.08708,-0.954481,27,4
7.30869,-9.20476,1.86157,30,12
4.96775,-6.261,1.55357,63,13
8.28833,-10.4498,-0.698999,48,6
5.76552,-7.26906,2.14198,16,14
8.1351,-10.2603,-0.228557,9,7
8.9775,-11.3634,0.252781,41,8
0.328518,-0.415976,-0.122373,15,1
5.07522,-6.42635,0.429155,51,9
0.385635,-0.488474,-0.120973,15,2
4.93348,-6.25135,0.696723,45,10
6.13945,-7.78226,-1.56998,100,3
5.30536,-6.7274,1.05198,30,11
6.56843,-8.33202,1.68042,8,12
6.09079,-7.72891,-0.860924,102,5
4.87904,-6.19348,1.53258,48,13
6.09556,-7.74051,-0.516347,53,6
5.14579,-6.53678,1.92063,7,14
8.1079,-10.2996,-0.228801,100,7
5.6293,-7.15356,2.43911,31,15
8.92619,-11.3758,0.252397,45,8
0.327137,-0.417064,-0.122373,15,1
5.06878,-6.46446,0.430516,75,9
0.379083,-0.483637,-0.119446,15,2
4.94849,-6.31559,0.701952,43,10
5.3075,-6.77621,1.05685,26,11
6.09933,-7.78996,-1.21479,55,4
6.0736,-7.76267,-0.862319,100,5
4.82339,-6.16478,1.52151,21,13
6.05509,-7.7418,-0.515091,93,6
13.0785,-16.7276,4.90213,22,14
5.63403,-7.21123,2.45205,42,15
8.89748,-11.4211,0.252711,56,8
0.325679,-0.418203,-0.122373,15,1
8.40663,-10.7988,0.717212,26,9
0.379889,-0.487989,-0.12021,15,2
4.90427,-6.30209,0.69864,41,10
12.0914,-15.5433,-3.11899,8,3
5.26066,-6.76493,1.05222,49,11
6.46041,-8.31372,1.66759,56,12
6.07961,-7.82367,-0.866851,100,5
4.57181,-5.88545,1.44862,9,13
6.02926,-7.76447,-0.515195,69,6
5.17645,-6.66864,1.94898,13,14
6.03022,-7.77131,-0.171697,68,7
8.94442,-11.5644,0.255189,22,8
0.30753,-0.397754,-0.116075,16,1
7.11208,-9.20196,0.609505,14,9
0.363777,-0.470672,-0.11563,16,2
4.92366,-6.37277,0.704567,45,10
4.6511,-6.02216,-1.20517,2,3
6.89864,-8.93869,-1.38639,15,4
6.3686,-8.25489,1.65132,38,12
4.53565,-5.88116,1.44366,11,13
6.00549,-7.79548,-0.171767,50,7
0.322752,-0.420466,-0.122373,15,1
7.01183,-9.138,0.603643,57,9
0.371693,-0.484399,-0.118683,15,2
4.87713,-6.3583,0.701081,60,10
6.7804,-8.84278,-1.76489,28,3
6.99455,-9.12537,1.41173,6,11
8.71464,-11.3736,-1.75931,15,4
8.71806,-11.3821,2.2708,19,12
4.33963,-5.66575,-0.624384,55,5
4.54135,-5.93125,1.45206,20,13
6.00404,-7.84444,-0.517707,21,6
5.20319,-6.80057,1.97687,16,14
8.36663,-10.9391,-0.240389,100,7
5.94293,-7.79556,0.171103,131,8
0.321282,-0.421591,-0.122373,15,1
5.9366,-7.7929,0.513416,129,9
0.386656,-0.507558,-0.124026,14,2
4.79093,-6.29128,0.691842,50,10
6.95905,-9.14499,1.411,27,11
7.01274,-9.21888,-1.42222,15,4
6.22951,-8.19222,1.63005,23,12
4.35721,-5.73002,-0.629787,31,5
4.98278,-6.55506,1.60051,44,13
8.09611,-10.6546,-0.701302,45,6
8.31509,-10.9508,-0.240005,23,7
6.29783,-8.29709,2.7911,10,15
5.91568,-7.81626,0.171103,62,8
0.319809,-0.422709,-0.122373,15,1
5.90213,-7.80402,0.512788,72,9
0.373039,-0.493246,-0.12021,15,2
4.7365,-6.26505,0.687136,67,10
4.58421,-6.06581,-1.20423,51,3
6.8852,-9.11379,1.40247,13,11
6.96137,-9.21795,-1.41832,11,4
6.54365,-8.66797,1.72015,36,12
4.34198,-5.75156,-0.630485,46,5
4.77656,-6.32951,1.54136,28,13
8.07089,-10.6988,-0.702349,35,6
4.9221,-6.5271,1.88734,30,14
8.28765,-10.9941,-0.24032,23,7
0.301946,-0.402009,-0.116075,16,1
5.88325,-7.83575,0.51352,148,9
0.383103,-0.510245,-0.124026,14,2
5.8508,-7.79536,0.852732,72,10
4.60924,-6.1434,-1.21643,10,3
5.83619,-7.78155,1.19432,13,11
6.93749,-9.25332,-1.42002,15,4
6.57259,-8.7698,1.7358,17,12
4.38879,-5.85596,-0.640246,30,5
4.57552,-6.10732,1.48335,18,13
8.01314,-10.6997,-0.700569,55,6
4.88877,-6.5302,1.88329,28,14
8.28157,-11.0662,-0.241262,44,7
9.01623,-12.0874,0.263217,12,8
0.31685,-0.424932,-0.122373,15,1
4.89262,-6.56395,0.42905,69,9
0.364808,-0.489606,-0.118683,15,2
4.7355,-6.35548,0.693411,20,10
4.52877,-6.08024,-1.20079,37,3
8.36891,-11.2441,-1.72104,7,4
7.03129,-9.45039,1.86564,29,12
4.41724,-5.93915,-0.647567,21,5
4.56364,-6.13823,1.48678,32,13
8.01081,-10.7787,-0.703814,26,6
4.84851,-6.52376,1.87654,9,14
8.29179,-11.1608,-0.242693,71,7
8.04625,-10.8699,0.236061,12,8
0.299062,-0.404159,-0.116075,16,1
4.84952,-6.55615,0.427375,58,9
0.36768,-0.497254,-0.12021,15,2
4.78917,-6.47692,0.704741,28,10
4.22113,-5.71078,-1.12476,28,3
5.77917,-7.82152,1.19408,100,11
4.48284,-6.06928,-0.926451,8,4
5.76695,-7.81067,1.53775,128,12
4.41792,-5.98576,-0.650879,16,5
4.89312,-6.63202,1.60203,17,13
7.99496,-10.8401,-0.705907,39,6
8.98982,-12.189,3.49664,18,14
8.26507,-11.2105,-0.243112,97,7
6.81143,-9.24217,3.07632,21,15
7.97557,-10.8574,0.235154,34,8
4.42127,-6.02324,0.391578,9,9
0.365855,-0.498598,-0.12021,15,2
4.77483,-6.50729,0.706136,39,10
4.19083,-5.71347,-1.12226,13,3
4.40893,-6.01523,-0.915726,35,4
5.67173,-7.74093,1.51992,71,12
4.3159,-5.89261,-0.639026,37,5
4.56376,-6.2333,1.50167,9,13
7.96815,-10.8871,-0.707059,13,6
5.40135,-7.38001,2.11139,11,14
8.20739,-11.2181,-0.242623,71,7
5.87658,-8.03521,2.66739,7,15
7.91805,-10.8623,0.23463,37,8
0.312158,-0.42839,-0.122373,15,1
7.82113,-10.7372,0.696173,9,9
0.35478,-0.487239,-0.117157,16,2
4.70756,-6.46515,0.699686,15,10
4.18265,-5.74636,-1.1257,11,3
9.7814,-13.4432,2.04131,26,11
4.4394,-6.10359,-0.926695,10,4
5.71186,-7.85593,1.53838,58,12
4.28607,-5.89711,-0.637806,11,5
4.54088,-6.24998,1.50167,25,13
7.94814,-10.9437,-0.708838,35,6
8.1298,-11.1979,-0.241541,100,7
6.54946,-9.02449,2.98781,3,15
7.90031,-10.9098,0.235119,56,8
0.294813,-0.407269,-0.116075,16,1
4.65298,-6.4302,0.415966,25,9
0.353333,-0.488289,-0.117157,16,2
4.70707,-6.50735,0.70265,28,10
4.12522,-5.70505,-1.11506,12,3
6.58655,-9.11235,1.38054,13,11
4.42718,-6.12716,-0.928157,38,4
6.26547,-8.67451,1.69481,25,12
4.24056,-5.87104,-0.633622,40,5
4.6269,-6.40828,1.53639,25,13
8.08055,-11.204,-0.241122,100,7
9.74433,-13.5158,4.46463,2,15
7.84701,-10.9162,0.234665,38,8
0.30931,-0.430451,-0.122373,15,1
7.73809,-10.7727,0.695126,21,9
0.360789,-0.502276,-0.12021,15,2
12.275,-17.0951,1.84125,36,10
4.10067,-5.713,-1.11381,5,3
8.69679,-12.1207,1.8317,12,11
4.41271,-6.15225,-0.929619,16,4
4.7929,-6.68479,1.30279,15,12
4.23049,-5.90038,-0.635191,15,5
7.69475,-10.736,2.56753,19,13
6.65826,-9.2933,-0.599142,13,6
4.02812,-5.62435,1.59715,16,14
7.92265,-11.0662,-0.237562,90,7
9.70159,-13.556,4.4667,5,15
7.80305,-10.9354,0.234491,42,8
0.307806,-0.431528,-0.122373,15,1
4.57783,-6.42025,0.413245,51,9
0.338517,-0.474759,-0.113341,16,2
4.08414,-5.7321,-1.11475,8,3
5.22721,-7.3391,1.10633,7,11
4.3843,-6.15792,-0.928157,30,4
4.75694,-6.68378,1.29934,38,12
4.23193,-5.94831,-0.638677,13,5
7.67772,-10.7916,2.5744,17,13
8.20003,-11.53,-0.741496,6,6
8.06121,-11.3432,-0.242903,97,7
5.70593,-8.032,2.63995,11,15
7.729,-10.912,0.233408,41,8
0.306298,-0.4326,-0.122373,15,1
4.55193,-6.43129,0.412931,50,9
0.350382,-0.495229,-0.11792,16,2
5.7926,-8.19027,0.877658,94,10
8.89025,-12.5748,-2.43913,3,3
3.77368,-5.33765,0.802632,10,11
4.7427,-6.71325,1.30185,77,12
4.18701,-5.92887,-0.635017,23,5
4.38405,-6.21018,1.47762,9,13
8.01723,-11.3609,-0.728726,42,6
4.03383,-5.71832,1.6156,12,14
8.29129,-11.7537,-0.25107,94,7
7.6832,-10.9321,0.233234,53,8
0.30471,-0.433719,-0.122373,15,1
4.52947,-6.44957,0.413035,27,9
0.346395,-0.493235,-0.117157,16,2
0.422117,-0.601504,-0.116387,10,3
3.76777,-5.37095,0.805556,100,11
8.57082,-12.2222,-1.83292,18,4
4.16639,-5.94581,-0.635191,25,5
5.68952,-8.11944,1.92717,43,13
7.97294,-11.3823,-0.728307,35,6
7.89842,-11.2843,-0.240424,100,7
5.53202,-7.90642,2.5856,117,15
7.65186,-10.9687,0.233443,42,8
0.325488,-0.46675,-0.131371,14,1
4.51721,-6.48009,0.413977,68,9
0.355809,-0.510609,-0.120973,15,2
4.62579,-6.64079,0.708053,7,10
6.44313,-9.25321,-1.78586,16,3
3.73879,-5.36941,0.803363,40,11
8.13119,-11.6818,-1.74761,9,4
4.56818,-6.56541,1.26681,29,12
9.64504,-13.8671,-1.47781,21,5
4.96711,-7.14407,1.69133,15,13
7.92433,-11.4016,-0.727679,19,6
4.03951,-5.81426,1.63449,61,14
7.92401,-11.4054,-0.242414,97,7
5.60908,-8.07642,2.63478,36,15
7.6264,-11.018,0.233897,60,8
0.280531,-0.405441,-0.113825,16,1
4.67976,-6.76599,0.431144,21,9
0.369659,-0.534453,-0.126316,14,2
4.59918,-6.65198,0.70753,67,10
6.40293,-9.26427,-1.78367,10,3
3.72698,-5.39451,0.805069,10,11
8.11652,-11.7524,-1.7537,7,4
4.49807,-6.51546,1.25398,32,12
8.16014,-11.82,-1.25661,5,5
7.9117,-11.4687,-0.730191,3,6
3.97272,-5.76094,1.6156,45,14
7.9548,-11.5397,-0.244648,100,7
7.79172,-11.3413,0.24018,23,8
0.301178,-0.438545,-0.122823,15,1
4.36899,-6.36405,0.404557,64,9
0.338901,-0.493658,-0.116393,16,2
4.58495,-6.68114,0.708925,39,10
8.76859,-12.7823,-2.45508,7,3
3.7216,-5.42713,0.807994,27,11
7.9127,-11.5432,-1.71836,20,4
4.15571,-6.06472,-0.643209,1,5
5.84573,-8.53427,2.01075,17,13
7.83664,-11.4451,-0.726946,39,6
7.95624,-11.6285,-0.245939,22,7
7.66421,-11.2395,0.237457,24,8
0.299646,-0.439594,-0.122823,15,1
4.34787,-6.38092,0.404662,47,9
0.340493,-0.499705,-0.117538,16,2
4.54478,-6.6724,0.70631,54,10
9.16195,-13.4561,-2.57835,7,3
3.70599,-5.44501,0.808725,32,11
7.91814,-11.6381,-1.72835,15,4
4.48691,-6.59734,1.26368,71,12
4.10874,-6.04129,-0.6392,32,5
7.74724,-11.3997,-0.722341,26,6
7.96953,-11.7356,-0.247615,100,7
5.05079,-7.44039,2.40961,67,15
7.70002,-11.3772,0.239796,15,8
0.29811,-0.440637,-0.122823,15,1
4.32781,-6.39936,0.404871,39,9
0.343146,-0.507396,-0.119065,15,2
4.44335,-6.57268,0.694108,31,10
8.67361,-12.835,-2.45352,3,3
3.67362,-5.43817,0.8058,27,11
7.68528,-11.381,-1.68618,14,4
4.46386,-6.61296,1.26368,34,12
11.8047,-17.4881,-1.84596,27,5
6.4677,-9.58875,-0.606155,30,6
4.21286,-6.24818,1.73977,14,14
7.99446,-11.8612,-0.249674,94,7
4.9978,-7.41792,2.39666,40,15
9.31831,-13.8723,0.2917,17,8
0.29657,-0.441675,-0.122823,15,1
4.29543,-6.39951,0.403929,18,9
0.358879,-0.534672,-0.125171,14,2
4.35378,-6.48888,0.68365,15,10
9.01277,-13.4377,-2.56271,7,3
5.66875,-8.4551,1.24989,31,11
7.74166,-11.5513,-1.70739,41,4
6.07675,-9.07049,1.72923,25,12
9.10658,-13.593,-1.43145,14,5
4.84713,-7.23783,1.69324,30,13
6.47752,-9.676,-0.610237,50,6
7.94744,-11.8807,-0.2495,69,7
5.01698,-7.50277,2.41841,43,15
8.72187,-13.0828,0.274457,30,8
0.295026,-0.442708,-0.122823,15,1
7.36464,-11.0553,0.696173,25,9
0.339595,-0.509779,-0.119065,15,2
4.35319,-6.53721,0.687136,18,10
8.99317,-13.5102,-2.57053,22,3
3.65756,-5.49674,0.810675,2,11
7.78265,-11.7005,-1.72543,31,4
6.20036,-9.32523,1.77365,20,12
9.01054,-13.5517,-1.42378,38,5
4.89682,-7.36752,1.71957,18,13
7.67607,-11.5534,-0.726946,29,6
8.07183,-12.1583,-0.254735,76,7
4.97901,-7.50253,2.41271,38,15
7.51315,-11.3554,0.237667,27,8
0.293479,-0.443735,-0.122823,15,1
4.18235,-6.32604,0.397439,48,9
0.333483,-0.504411,-0.117538,16,2
8.66286,-13.113,-2.48919,14,3
3.6843,-5.57905,0.820912,40,11
7.77456,-11.7773,-1.73274,7,4
6.2831,-9.52159,1.80682,24,12
8.94342,-13.5531,-1.42064,35,5
7.56973,-11.4801,-0.720666,26,6
8.13496,-12.3467,-0.258086,8,7
5.90488,-8.96544,2.87651,38,15
7.42188,-11.303,0.236026,8,8
0.291928,-0.444757,-0.122823,15,1
4.21832,-6.42911,0.402987,63,9
0.35326,-0.538401,-0.125171,14,2
4.29324,-6.54578,0.68487,78,10
8.33326,-12.7103,-2.40721,1,3
3.66045,-5.58523,0.819937,28,11
7.65399,-11.6832,-1.71495,20,4
6.02256,-9.19642,1.74112,37,12
4.29795,-6.56545,1.52533,15,13
7.43665,-11.3644,-0.711769,65,6
4.0228,-6.14983,1.69658,24,14
7.98456,-12.211,-0.254666,8,7
5.89575,-9.01995,2.88739,18,15
7.38456,-11.3322,0.236096,12,8
0.269101,-0.413116,-0.113825,16,1
4.19585,-6.44379,0.402987,80,9
0.317098,-0.486984,-0.112959,16,2
4.32253,-6.64088,0.693237,48,10
6.13314,-9.42619,-1.78116,2,3
3.67989,-5.65788,0.828712,26,11
3.77304,-5.80332,-0.849917,12,4
8.80171,-13.5483,-1.41349,35,5
4.32206,-6.65285,1.54212,55,13
7.39476,-11.3869,-0.71156,42,6
4.01829,-6.18999,1.70378,64,14
7.97564,-12.2908,-0.255748,100,7
4.4098,-6.81912,0.141748,33,8
0.288816,-0.446784,-0.122823,15,1
4.11696,-6.37117,0.397544,80,9
0.336615,-0.521126,-0.120591,15,2
4.37598,-6.77719,0.705787,46,10
7.37118,-11.4203,-2.15285,4,3
3.89587,-6.03595,0.88209,14,11
3.77106,-5.84481,-0.85406,34,4
5.85971,-9.08552,1.71233,20,12
8.74897,-13.5705,-1.41262,24,5
4.29446,-6.66369,1.54097,59,13
7.32053,-11.3636,-0.70842,52,6
3.93333,-6.10801,1.67724,34,14
7.93377,-12.3202,-0.255782,17,7
5.80858,-9.02353,2.87548,11,15
4.36534,-6.80494,0.14112,11,8
0.287177,-0.447839,-0.122823,15,1
4.09682,-6.39126,0.397858,32,9
0.347508,-0.542131,-0.125171,14,2
4.27705,-6.67499,0.693585,54,10
7.33447,-11.451,-2.15379,3,3
3.665,-5.72419,0.834561,61,11
6.183,-9.66066,-1.40832,19,4
7.60533,-11.8921,-1.235,27,5
5.87577,-9.18768,2.11989,31,13
7.34429,-11.4884,-0.714595,29,6
3.91408,-6.12499,1.67813,68,14
8.69808,-13.6165,-0.282031,26,7
5.80874,-9.09686,2.89204,8,15
4.31042,-6.77122,0.140108,40,8
0.285612,-0.448839,-0.122823,15,1
4.09378,-6.43585,0.399742,128,9
0.332878,-0.523521,-0.120591,15,2
4.24401,-6.67717,0.692191,16,10
0.395131,-0.621907,-0.1167,21,3
5.88211,-9.26158,-1.34714,35,4
7.97266,-12.5629,-1.30176,13,5
5.72006,-9.01685,2.07562,12,13
7.39947,-11.6687,-0.72412,32,6
3.90621,-6.16233,1.68443,34,14
8.70082,-13.7262,-0.283671,30,7
4.72124,-7.45097,2.36354,10,15
4.29091,-6.79543,0.140282,45,8
0.283965,-0.449883,-0.122823,15,1
5.35015,-8.47947,0.525453,47,9
0.310096,-0.491472,-0.112959,16,2
7.3008,-11.58,-2.16818,4,3
6.09467,-9.67442,-1.40393,12,4
11.0501,-17.5473,-1.81423,21,5
5.7147,-9.0783,2.08516,6,13
7.38635,-11.7384,-0.726842,61,6
6.94241,-11.0372,3.0103,38,14
8.68025,-13.8054,-0.284649,32,7
4.69595,-7.4715,2.36457,8,15
8.63307,-13.7783,0.283811,60,8
0.282393,-0.450871,-0.122823,15,1
4.04126,-6.45483,0.399114,27,9
0.308378,-0.492552,-0.112959,16,2
4.23745,-6.77082,0.698815,30,10
0.379256,-0.606229,-0.113259,23,3
3.58596,-5.73428,0.830418,26,11
6.23027,-9.96664,-1.44318,31,4
5.86517,-9.38623,1.753,22,12
10.9466,-17.5182,-1.80726,17,5
6.91932,-11.0861,3.01704,38,14
7.64761,-12.2578,-0.252187,94,7
5.96859,-9.60014,0.197317,43,8
0.266416,-0.428682,-0.116525,16,1
5.32077,-8.56149,0.528279,16,9
0.327377,-0.526978,-0.120591,15,2
4.03931,-6.5046,0.669879,16,10
6.24256,-10.0565,-1.87471,2,3
3.53138,-5.6911,0.822374,14,11
7.60801,-12.2657,-1.77222,11,4
5.81631,-9.37709,1.74769,40,12
7.9614,-12.8404,-1.3218,28,5
4.39146,-7.08545,1.62035,19,13
6.66047,-10.7506,-0.662783,16,6
6.94624,-11.2162,3.04584,19,14
9.64631,-15.5761,-0.319798,52,7
4.43145,-7.15835,2.25587,35,15
6.089,-9.86663,0.202378,70,8
0.279317,-0.452783,-0.122823,15,1
7.27112,-11.7914,0.726004,7,9
0.321415,-0.521433,-0.119065,15,2
4.03017,-6.54071,0.672145,39,10
0.377193,-0.61216,-0.113884,23,3
3.67073,-5.95969,0.859423,26,11
6.13835,-9.96994,-1.43757,13,4
5.75559,-9.35191,1.73924,37,12
7.90296,-12.8461,-1.31954,23,5
4.40086,-7.15349,1.63256,5,13
6.61432,-10.7556,-0.661736,19,6
4.23725,-6.89295,1.86799,18,14
7.95659,-12.9484,-0.265277,24,7
6.12866,-10.0089,0.204856,25,8
0.257388,-0.420513,-0.113825,16,1
0.30329,-0.495701,-0.112959,16,2
4.51367,-7.38009,0.75686,22,10
0.367841,-0.601676,-0.111694,24,3
3.5143,-5.75057,0.827493,26,11
6.11075,-10.0032,-1.43928,5,4
5.70292,-9.33555,1.73267,85,12
7.70457,-12.6172,-1.29339,13,5
6.57258,-10.7718,-0.661317,13,6
4.20302,-6.89106,1.86349,9,14
5.78527,-9.48523,-0.193931,37,7
5.89499,-9.69937,0.19812,11,8
0.276229,-0.454674,-0.122823,15,1
7.40115,-12.1871,0.747253,31,9
0.301558,-0.496757,-0.112959,16,2
7.67757,-12.6522,1.29479,11,10
0.369943,-0.609647,-0.112946,23,3
3.76494,-6.20687,0.891352,38,11
7.48758,-12.3489,-1.7732,7,4
5.6877,-9.38411,1.73799,33,12
7.66048,-12.644,-1.29339,13,5
4.12215,-6.80379,1.54632,30,13
6.57407,-10.8551,-0.665085,42,6
4.1751,-6.89662,1.86124,19,14
7.38272,-12.1999,-0.248906,100,7
4.28451,-7.08294,2.21808,38,15
6.97026,-11.573,0.235817,15,8
0.254299,-0.422389,-0.113825,16,1
7.21417,-11.9874,0.733227,7,9
0.319895,-0.531553,-0.120591,15,2
3.9295,-6.53203,0.666916,26,10
0.369529,-0.614513,-0.113571,23,3
3.75431,-6.24576,0.894765,11,11
7.19257,-11.9704,-1.7147,20,4
6.80643,-11.3323,2.09372,41,12
7.60161,-12.6562,-1.29165,7,5
5.39338,-8.98319,2.0367,35,13
6.45952,-10.7632,-0.657863,65,6
4.17746,-6.96346,1.87474,43,14
7.3234,-12.2123,-0.248557,100,7
6.9093,-11.5629,0.235119,12,8
0.272809,-0.456734,-0.122823,15,1
5.40404,-9.05098,0.552458,8,9
0.318037,-0.532667,-0.120591,15,2
3.86481,-6.47556,0.659769,26,10
0.360297,-0.603924,-0.111381,24,3
4.2612,-7.14539,1.02151,20,11
7.1792,-12.0432,-1.72153,11,4
6.93266,-11.6343,2.14503,31,12
7.57472,-12.7118,-1.29461,26,5
5.68248,-9.54002,2.15843,8,13
4.28332,-7.19389,-0.438785,29,6
4.15611,-6.98302,1.87609,22,14
7.28686,-12.2481,-0.248767,21,7
4.22066,-7.11972,0.144471,13,8
0.271213,-0.457684,-0.122823,15,1
0.296165,-0.499991,-0.112959,16,2
3.83609,-6.47873,0.658723,9,10
0.361205,-0.610278,-0.11232,23,3
5.71401,-9.65802,1.37785,9,11
6.93523,-11.7315,2.15848,33,12
6.0287,-10.198,-1.03646,11,5
8.25898,-13.9763,3.1556,22,13
4.25412,-7.20192,-0.438366,21,6
5.46337,-9.25279,2.48076,52,14
7.23695,-12.2614,-0.248522,100,7
4.14747,-7.02979,2.18702,41,15
9.47827,-16.1166,0.32636,14,8
0.269613,-0.458627,-0.122823,15,1
7.34728,-12.5031,0.760023,18,9
0.314311,-0.534874,-0.120591,15,2
3.83363,-6.52644,0.662209,28,10
0.352071,-0.599611,-0.11013,12,3
3.59124,-6.11867,0.871122,4,11
5.38626,-9.18065,-1.30693,15,4
5.57515,-9.50642,1.7455,37,12
9.71027,-16.5574,-1.67932,7,5
8.08504,-13.7916,3.10752,35,13
5.77593,-9.85666,-0.598723,43,6
7.13853,-12.1917,-0.246603,21,7
3.74819,-6.40399,1.98825,17,15
5.84363,-10.0162,0.202413,26,8
0.268011,-0.459566,-0.122823,15,1
5.93562,-10.1821,0.617669,44,9
0.292667,-0.502046,-0.112959,16,2
3.81384,-6.54494,0.662732,60,10
5.84221,-10.0299,-1.83842,2,3
3.90547,-6.70757,0.953018,4,11
6.94086,-11.9256,-1.69423,21,4
5.18234,-8.90772,1.63224,7,12
5.34459,-9.19031,-0.930126,22,5
5.62076,-9.66519,2.17331,12,13
5.82581,-10.0218,-0.607516,37,6
6.64109,-11.4289,3.05169,21,14
5.76915,-9.93232,-0.200493,95,7
3.75394,-6.46548,2.00326,7,15
5.81865,-10.0539,0.202762,37,8
0.266405,-0.460498,-0.122823,15,1
5.89404,-10.1923,0.617041,53,9
0.290825,-0.503115,-0.112959,16,2
3.78583,-6.55198,0.662035,41,10
0.355675,-0.615799,-0.112633,23,3
3.80955,-6.59568,0.935225,47,11
6.89919,-11.9497,-1.69423,14,4
5.1443,-8.91378,1.63005,10,12
5.31148,-9.20718,-0.929952,24,5
5.59118,-9.69593,2.1756,10,13
4.17122,-7.23642,-0.437738,18,6
6.56997,-11.4025,3.03819,27,14
5.75241,-9.98358,-0.201122,57,7
3.73424,-6.48357,2.00481,3,15
5.73896,-10.0005,0.201261,47,8
0.264715,-0.461472,-0.122823,15,1
5.56128,-9.69484,0.585744,35,9
0.289067,-0.504127,-0.112959,16,2
3.75303,-6.54786,0.660292,16,10
0.345668,-0.603325,-0.11013,24,3
3.69952,-6.45973,0.91402,18,11
6.87421,-12.003,-1.69837,14,4
6.84927,-11.9643,2.18351,16,12
5.29119,-9.24642,-0.932043,24,5
5.52416,-9.65745,2.16263,10,13
5.66075,-9.90026,-0.597677,16,6
4.3296,-7.57216,2.01376,13,14
6.86858,-12.0175,-0.241611,23,7
5.68103,-9.97608,0.200389,25,8
0.263184,-0.462347,-0.122823,15,1
5.51823,-9.69414,0.584593,55,9
0.306812,-0.53921,-0.120591,15,2
7.49609,-13.1794,1.32651,2,10
0.353428,-0.621641,-0.113259,23,3
3.65846,-6.43744,0.909145,29,11
5.80744,-10.2188,-1.44318,13,4
5.44257,-9.58066,1.74518,22,12
5.25853,-9.26045,-0.931695,34,5
5.40003,-9.51351,2.12638,5,13
5.66337,-9.98151,-0.601445,50,6
6.51344,-11.4797,3.04719,21,14
4.04572,-7.13334,-0.143145,72,7
5.14584,-9.07674,2.79576,9,15
5.68136,-10.0541,0.201575,33,8
0.261649,-0.463217,-0.122823,15,1
5.48043,-9.70638,0.584174,39,9
0.285629,-0.506083,-0.112959,16,2
7.46997,-13.2354,1.32965,28,10
0.350394,-0.621089,-0.112946,23,3
3.65562,-6.48239,0.913776,27,11
6.81476,-12.0893,-1.70398,14,4
5.40037,-9.58411,1.74237,12,12
5.65397,-10.0465,-0.604166,43,6
4.27414,-7.59466,2.01196,10,14
5.82382,-10.3525,-0.207335,100,7
6.60917,-11.7967,0.236026,39,8
0.25995,-0.464173,-0.122823,15,1
5.45262,-9.74035,0.585011,39,9
0.283772,-0.507127,-0.112959,16,2
8.85938,-15.8325,1.58728,20,10
0.358723,-0.641333,-0.116387,21,3
3.63765,-6.50615,0.915239,15,11
5.01752,-8.9778,-1.26281,17,4
6.78141,-12.1389,2.20228,12,12
4.95414,-8.87165,-0.888989,29,5
3.97686,-7.1245,1.586,23,13
5.60738,-10.0497,-0.60312,60,6
5.14167,-9.21504,2.43622,29,14
5.68259,-10.1887,-0.203635,100,7
4.02622,-7.22182,2.21549,35,15
6.61929,-11.917,0.237946,42,8
0.258246,-0.465123,-0.122823,15,1
5.39266,-9.71661,0.582395,34,9
0.282,-0.508114,-0.112959,16,2
5.29759,-9.54925,0.955401,8,10
0.35158,-0.634006,-0.114823,33,3
5.34031,-9.63418,1.35251,34,11
4.98939,-9.00481,-1.26403,42,4
6.69859,-12.0945,2.18977,12,12
4.88742,-8.8244,-0.882539,56,5
3.98239,-7.19331,1.59822,6,13
5.5916,-10.1041,-0.605213,60,6
4.41832,-7.9873,2.10734,24,14
5.59973,-10.1272,-0.201994,100,7
3.99786,-7.23315,2.21446,89,15
0.233112,-0.42298,-0.12941,15,0
0.256621,-0.466021,-0.122823,15,1
5.75647,-10.458,0.625624,20,9
0.280225,-0.509096,-0.112959,16,2
4.09536,-7.44328,0.743264,7,10
0.348413,-0.633498,-0.11451,45,3
5.32291,-9.68233,1.35665,12,11
5.47323,-9.95988,-1.3954,35,4
6.65824,-12.1213,2.1904,29,12
4.85467,-8.83792,-0.88219,42,5
5.51402,-10.0466,-0.600608,37,6
4.40541,-8.03001,2.11454,41,14
5.52011,-10.066,-0.200389,24,7
3.94101,-7.18947,2.19686,33,15
6.49183,-11.8822,0.23634,5,8
0.254993,-0.466914,-0.122823,15,1
0.316074,-0.578999,-0.128224,14,2
4.07317,-7.46452,0.743961,16,10
0.342416,-0.627774,-0.113259,34,3
3.20614,-5.88047,0.822374,11,11
6.63951,-12.1878,2.19822,16,12
4.84953,-8.90205,-0.886897,40,5
4.0147,-7.37266,1.6318,33,13
5.41398,-9.94646,-0.59349,50,6
4.19202,-7.7047,2.02501,19,14
5.51552,-10.1414,-0.201505,20,7
5.00097,-9.19916,2.8056,23,15
6.55796,-12.1034,0.240285,35,8
0.253362,-0.467802,-0.122823,15,1
5.43894,-10.0465,0.598723,1,9
0.276664,-0.511039,-0.112959,16,2
5.20963,-9.62698,0.957667,25,10
0.343982,-0.635915,-0.11451,45,3
3.17992,-5.88115,0.820912,61,11
4.85612,-8.98496,-1.25404,60,4
6.57345,-12.1675,2.1904,32,12
4.826,-8.93295,-0.888291,57,5
4.04398,-7.48855,1.65431,10,13
5.39536,-9.99518,-0.595269,87,6
4.2382,-7.85477,2.06055,56,14
5.53989,-10.2715,-0.203704,24,7
3.67712,-6.82059,2.07625,8,15
6.45415,-12.0118,0.238016,42,8
0.250805,-0.466966,-0.122373,15,1
5.40384,-10.0655,0.598723,8,9
0.274878,-0.512002,-0.112959,16,2
7.20532,-13.4266,1.33313,20,10
0.348296,-0.649297,-0.1167,43,3
3.17063,-5.9132,0.823837,76,11
4.82942,-9.01061,-1.25525,61,4
6.51508,-12.1608,2.18508,25,12
5.36265,-10.0139,2.20804,24,13
5.35384,-10.0016,-0.594537,40,6
3.70786,-6.92964,1.81446,45,14
4.98126,-9.31733,2.83096,20,15
6.36893,-11.953,0.23641,42,8
0.249174,-0.467839,-0.122373,15,1
5.38182,-10.1089,0.600189,9,9
0.291446,-0.547669,-0.120591,15,2
3.64072,-6.84432,0.678246,9,10
0.334785,-0.62964,-0.112946,47,3
3.06051,-5.75597,0.800438,65,11
4.80632,-9.04319,-1.25745,48,4
7.82939,-14.7373,2.64312,21,12
5.22281,-9.83925,2.1653,37,13
4.8753,-9.18844,-0.545131,91,6
3.67422,-6.92769,1.81041,13,14
5.40808,-10.1969,-0.201471,19,7
3.62489,-6.83756,2.07366,5,15
6.88259,-13.0319,0.257248,52,8
0.247457,-0.468749,-0.122373,15,1
0.272124,-0.515692,-0.113341,16,2
4.9953,-9.47043,0.93675,44,10
0.339035,-0.643036,-0.115136,56,3
3.04864,-5.78471,0.802875,30,11
4.84877,-9.2004,-1.27695,41,4
4.94037,-9.37817,1.67885,10,12
4.76497,-9.04905,-0.894741,46,5
5.18752,-9.85568,2.16492,33,13
4.84133,-9.20186,-0.544922,100,6
5.37804,-10.2263,-0.20168,23,7
3.56954,-6.79033,2.05554,6,15
6.9442,-13.2548,0.261193,37,8
0.245901,-0.469567,-0.122373,15,1
5.26933,-10.0622,0.595269,40,9
0.270412,-0.516592,-0.113341,16,2
3.41485,-6.52646,0.64443,22,10
0.324999,-0.621401,-0.111068,48,3
3.08646,-5.90386,0.817987,33,11
4.78696,-9.15662,-1.26866,55,4
7.78928,-14.9058,2.66377,11,12
4.67867,-8.95707,-0.884108,40,5
4.90311,-9.39076,2.05921,6,13
3.66065,-7.0141,1.8266,36,14
5.38849,-10.3292,-0.203355,100,7
6.35708,-12.2327,0.240634,11,8
0.244343,-0.47038,-0.122373,15,1
5.23786,-10.0876,0.595688,105,9
0.268607,-0.517533,-0.113341,16,2
3.40421,-6.55897,0.646521,41,10
0.328395,-0.632996,-0.112946,58,3
3.05499,-5.89116,0.814819,52,11
3.87249,-7.47079,-1.03321,33,4
7.74629,-14.9505,2.66689,13,12
4.69868,-9.07243,-0.893869,61,5
6.06261,-11.711,2.56333,10,13
3.96257,-7.65766,-0.451869,32,6
5.99247,-11.5804,3.0103,23,14
5.28534,-10.2183,-0.200807,47,7
4.50275,-8.70899,2.62701,21,15
6.3122,-12.2559,0.240634,1,8
0.242617,-0.471272,-0.122373,15,1
5.23466,-10.1725,0.599561,60,9
0.266709,-0.518514,-0.113341,16,2
3.14502,-6.11429,0.601549,7,10
0.326976,-0.635952,-0.113259,58,3
5.02599,-9.77951,1.35007,21,11
3.84781,-7.49023,-1.03394,17,4
4.77003,-9.29343,-0.913915,50,5
3.81965,-7.44821,-0.43868,79,6
4.31376,-8.41172,2.18248,19,14
5.61911,-10.9618,-0.215014,27,7
3.48238,-6.79639,2.04622,16,15
5.79815,-11.3599,0.222623,13,8
0.240888,-0.472159,-0.122373,15,1
5.1665,-10.1311,0.596002,33,9
0.309493,-0.60689,-0.132421,13,2
