x, y, z, intensity, ring
5.76961,-37.8814,10.2674,38,15
1.51942,-10.0705,0.17777,71,8
1.46322,-9.721,0.515195,46,9
0.0867896,-0.576591,-0.113341,16,2
1.37206,-9.12618,0.807411,11,10
0.0962166,-0.64074,-0.102621,14,3
1.34737,-8.9833,1.11535,22,11
1.27963,-8.54182,-1.06051,41,4
1.39758,-9.3403,1.49583,52,12
1.28844,-8.61088,-0.761741,15,5
1.18272,-7.92322,-0.419839,72,6
1.47708,-9.90702,2.3125,27,14
1.46562,-9.84196,-0.173686,87,7
5.62796,-37.8383,10.2503,19,15
1.49067,-10.1192,0.178538,57,8
1.45512,-9.90192,0.524511,55,9
1.33904,-9.12303,0.806714,7,10
0.0939794,-0.641072,-0.102621,14,3
1.29041,-8.81314,1.09366,2,11
1.26158,-8.62677,-1.0705,23,4
1.37753,-9.43112,1.50959,41,12
1.25953,-8.62321,-0.762438,22,5
1.42072,-9.73871,1.91305,53,13
1.17061,-8.03402,-0.425491,76,6
1.43744,-9.8774,2.3044,17,14
1.43903,-9.90044,-0.174629,97,7
1.45875,-10.1481,0.178957,35,8
1.98724,-13.859,0.73375,18,9
0.0827621,-0.577183,-0.113341,16,2
1.30351,-9.10201,0.804447,3,10
0.0939786,-0.65704,-0.105124,13,3
1.2675,-8.87261,1.10048,47,11
1.43811,-10.0795,-1.25014,15,4
1.31311,-9.21489,1.47424,71,12
1.35537,-9.52329,-0.841576,21,5
1.3881,-9.75333,1.91496,45,13
1.18443,-8.33269,-0.441087,43,6
3.3874,-23.8608,5.56394,38,14
1.36459,-9.62426,-0.169672,100,7
1.80698,-12.89,0.227195,43,8
1.86639,-13.3476,0.706326,35,9
0.0926599,-0.665206,-0.106375,13,3
1.29157,-9.27217,1.14947,44,11
1.43,-10.2791,-1.27427,15,4
1.81175,-13.0565,-1.15324,19,5
1.3545,-9.77391,1.91801,38,13
1.32141,-9.55964,-0.168451,22,7
5.00554,-36.2589,9.80769,8,15
1.79244,-13.1363,0.231419,38,8
1.40556,-10.3144,0.54555,57,9
0.0786298,-0.577761,-0.113341,16,2
1.44013,-10.5957,0.93553,55,10
0.087149,-0.642036,-0.102621,14,3
1.24584,-9.19029,1.13875,52,11
1.39418,-10.298,-1.27597,11,4
1.33103,-9.84448,-0.869117,7,5
1.32695,-9.82722,1.92755,48,13
1.12584,-8.34887,-0.441506,79,6
1.32491,-9.83807,2.2918,74,14
1.28056,-9.5087,-0.167473,21,7
1.40015,-10.5216,0.185275,56,8
1.77526,-13.3762,0.707164,32,9
1.83582,-13.8696,1.22402,21,10
0.0787985,-0.595322,-0.0951122,15,3
1.21588,-9.19831,1.13923,52,11
1.36522,-10.3419,-1.28085,15,4
1.29581,-9.82937,1.57029,55,12
1.70079,-12.9188,-1.14,9,5
1.09451,-8.32483,-0.440041,65,6
1.29888,-9.89264,2.3035,55,14
1.2224,-9.32277,-0.164122,100,7
1.29599,-9.89739,2.67464,30,15
1.71505,-13.2414,0.233059,24,8
1.73803,-13.4556,0.711036,13,9
0.0746953,-0.578282,-0.113341,16,2
1.34962,-10.463,0.922979,44,10
0.0797484,-0.619104,-0.0988666,15,3
1.18452,-9.2084,1.13997,60,11
1.3286,-10.3427,-1.28036,5,4
1.26048,-9.826,1.56904,61,12
3.14719,-24.5677,4.81449,27,13
1.06341,-8.31276,-0.439203,72,6
1.2105,-9.47572,2.20542,12,14
1.16885,-9.16234,-0.161225,100,7
1.20094,-9.53319,0.167718,47,8
2.30692,-18.3643,0.969995,13,9
0.0725753,-0.578552,-0.113341,16,2
1.22533,-9.7819,0.862493,72,10
0.0784595,-0.627232,-0.100118,14,3
1.14819,-9.179,1.13582,52,11
1.79763,-14.3912,-1.78075,7,4
1.22251,-9.80093,1.56434,37,12
1.18132,-9.48421,-0.836172,16,5
1.12824,-9.09691,-0.160004,100,7
3.06109,-24.7166,6.67339,11,15
1.16721,-9.54745,0.167892,68,8
1.26605,-10.4012,0.916704,34,10
0.0810364,-0.666721,-0.106375,13,3
1.1131,-9.17132,1.13436,49,11
0.0993519,-0.8198,-0.101395,6,4
1.18753,-9.81319,1.5656,13,12
1.12504,-9.31045,-0.820484,45,5
1.60106,-13.2498,2.59424,43,13
1.13047,-9.3691,-0.494575,52,6
1.13941,-9.45705,2.19912,52,14
1.11878,-9.29952,-0.163494,85,7
4.45895,-37.1183,10.0173,18,15
1.12963,-9.51573,0.167264,86,8
1.13949,-9.6275,0.508078,69,9
1.241,-10.5166,0.926466,66,10
0.0758184,-0.643472,-0.102621,14,3
1.07992,-9.16529,1.13314,39,11
0.924305,-7.85641,-0.971299,8,4
1.58102,-13.4585,2.14628,28,12
1.08882,-9.28266,-0.817695,27,5
1.61643,-13.8016,2.70109,26,13
1.08893,-9.31168,-0.49133,84,6
1.12033,-9.59472,2.23016,18,14
1.12272,-9.6152,-0.168974,94,7
4.33674,-37.197,10.0344,9,15
1.08584,-9.44232,0.165903,83,8
1.10724,-9.64332,0.508706,56,9
0.0664117,-0.579292,-0.113341,16,2
1.20405,-10.5189,0.926291,42,10
0.0735718,-0.643733,-0.102621,14,3
1.04632,-9.16919,1.13314,21,11
1.19506,-10.4889,-1.2962,5,4
1.52821,-13.4129,2.13815,21,12
1.05483,-9.27255,-0.816475,19,5
1.56581,-13.7857,2.69689,31,13
1.02761,-9.0614,-0.477932,90,6
1.0967,-9.68571,2.25041,43,14
1.4759,-13.0347,-0.228976,83,7
4.19298,-37.089,10.0013,9,15
1.0543,-9.44389,0.165868,70,8
1.07159,-9.62926,0.507764,72,9
0.0643892,-0.57952,-0.113341,16,2
1.16162,-10.4715,0.921759,24,10
0.0692588,-0.62434,-0.0994923,14,3
1.02312,-9.23772,1.14118,21,11
0.0920708,-0.832634,-0.102858,5,4
1.086,-9.83687,1.56747,22,12
1.0205,-9.25835,-0.814906,35,5
1.51944,-13.7849,2.69575,36,13
1.05502,-9.58689,-0.505461,28,6
1.51407,-13.7804,3.2006,24,14
1.11095,-10.1277,-0.17784,71,7
3.97789,-36.3219,9.79061,26,15
1.05636,-9.77157,0.171557,60,8
1.05081,-9.75209,0.514044,66,9
0.0624671,-0.579731,-0.113341,16,2
1.12667,-10.4733,0.921585,50,10
0.0712978,-0.66386,-0.10575,13,3
0.974994,-9.0932,1.1229,7,11
1.13229,-10.5777,-1.3062,6,4
1.04851,-9.81114,1.56278,16,12
1.42341,-13.3412,2.60798,32,13
1.45586,-13.6907,3.17856,54,14
0.980385,-9.23469,-0.162098,8,7
3.94087,-37.1827,10.0189,18,15
1.02016,-9.75531,0.171208,61,8
1.01552,-9.74378,0.513416,60,9
0.0603419,-0.579956,-0.113341,16,2
1.08828,-10.4774,0.921585,66,10
0.0647892,-0.62482,-0.0994923,14,3
0.944883,-9.11234,1.12485,5,11
1.09046,-10.5342,-1.30035,5,4
1.86201,-18.0182,2.86901,16,12
0.979757,-9.49713,-0.835301,6,5
1.41533,-13.7427,2.68545,37,13
0.932053,-9.06571,-0.477618,87,6
1.42537,-13.8878,3.2231,24,14
0.944059,-9.19827,-0.1614,100,7
2.81335,-27.4586,7.39601,19,15
0.982995,-9.74506,0.170964,77,8
0.982794,-9.77724,0.514986,49,9
0.0583171,-0.580163,-0.113341,16,2
1.0521,-10.4851,0.921933,66,10
0.0626079,-0.625042,-0.0994923,14,3
1.36515,-13.6529,1.68472,30,11
1.06348,-10.6546,-1.31473,6,4
0.942773,-9.47884,-0.833383,17,5
1.37784,-13.8531,2.70605,11,13
0.908491,-9.15039,-0.48191,100,6
1.41705,-14.298,3.31713,31,14
0.944201,-9.54395,-0.167403,100,7
2.72465,-27.5898,7.42862,9,15
0.938316,-9.63896,0.169044,55,8
0.0514527,-0.529512,-0.122823,15,1
0.948272,-9.77664,0.514777,78,9
1.01328,-10.4849,0.921585,48,10
0.0599372,-0.621335,-0.0988666,15,3
1.27974,-13.2663,1.63646,22,11
0.082574,-0.857564,-0.105783,5,4
1.29211,-13.4437,2.13909,29,12
1.18196,-12.3202,-1.08282,11,5
0.918657,-9.61095,-0.505984,31,6
1.35316,-14.1828,3.28923,20,14
1.4892,-15.6087,-0.273689,40,7
2.62485,-27.5626,7.41879,14,15
1.30927,-13.9285,0.244194,16,8
0.0496964,-0.52968,-0.122823,15,1
0.909142,-9.70814,0.511008,63,9
0.0543666,-0.580546,-0.113341,16,2
0.979406,-10.4781,0.920713,16,10
0.0601869,-0.645122,-0.102621,14,3
0.939228,-10.0863,1.2438,54,11
0.745309,-8.01896,-0.988848,4,4
1.22107,-13.1627,2.09372,38,12
1.1422,-12.3359,-1.08387,9,5
1.28387,-13.8661,2.70682,29,13
1.19834,-12.9669,-0.682461,26,6
2.55939,-27.7472,6.43315,36,14
0.956579,-10.3905,-0.182133,27,7
3.36972,-36.6724,9.86774,9,15
0.883135,-9.76064,0.171068,66,8
0.885469,-9.82464,0.516975,61,9
0.0522385,-0.580742,-0.113341,16,2
1.073,-11.9521,1.04988,22,10
0.0567643,-0.633533,-0.100744,14,3
1.18728,-13.251,1.63354,45,11
0.935317,-10.4594,-1.28938,1,4
1.23464,-13.8339,2.19978,50,12
1.36552,-15.3305,-1.34656,21,5
1.23513,-13.8941,2.7114,33,13
1.15257,-12.9911,-0.683508,22,6
1.21672,-13.7414,3.18486,29,14
0.914837,-10.332,-0.181051,24,7
1.22114,-13.8188,3.71716,38,15
0.849429,-9.78771,0.171487,67,8
0.852204,-9.83961,0.517603,75,9
1.02426,-11.8744,1.04273,36,10
0.055569,-0.645536,-0.102621,14,3
1.15706,-13.4689,1.65986,30,11
0.0727197,-0.846502,-0.10432,5,4
1.18803,-13.8578,2.20291,45,12
1.31131,-15.3272,-1.34586,26,5
1.18211,-13.8455,2.70109,16,13
1.2025,-14.1134,-0.742333,3,6
1.17908,-13.8385,3.20645,11,14
0.890794,-10.4766,-0.18353,29,7
1.1711,-13.8018,3.71147,22,15
0.812145,-9.73269,0.170475,28,8
0.817249,-9.81452,0.516137,68,9
0.0482843,-0.581084,-0.113341,16,2
0.986522,-11.8976,1.04447,60,10
0.0514734,-0.622093,-0.0988666,15,3
1.10814,-13.4212,1.65352,37,11
0.0699121,-0.846738,-0.10432,5,4
1.12991,-13.714,2.17945,42,12
1.26293,-15.3613,-1.34847,13,5
1.11629,-13.6068,2.65377,23,13
1.1526,-14.0795,-0.740345,29,6
1.14813,-14.0249,3.24874,24,14
0.857186,-10.4934,-0.183774,26,7
1.05659,-13.1897,0.230965,13,8
0.0423887,-0.530315,-0.122823,15,1
0.782985,-9.81731,0.516137,65,9
0.939476,-11.8054,1.03611,44,10
0.0512865,-0.645891,-0.102621,14,3
1.09012,-13.7592,1.69472,22,11
0.0657046,-0.831146,-0.10237,5,4
1.07442,-13.6214,2.16411,35,12
1.29809,-16.4938,-1.44748,5,5
1.08462,-13.8122,2.69308,17,13
1.10345,-14.0835,-0.740345,32,6
1.09978,-14.0366,3.25054,9,14
0.745745,-9.53944,-0.16702,51,7
1.09065,-13.9828,3.75805,28,15
0.75134,-9.83183,0.172116,43,8
0.748966,-9.846,0.517498,46,9
0.044125,-0.581415,-0.113341,16,2
0.91761,-12.0909,1.06086,42,10
0.0471291,-0.622437,-0.0988666,15,3
1.41635,-18.7494,2.30869,39,11
0.061166,-0.811586,-0.0999329,6,4
1.00968,-13.4282,2.13283,19,12
0.968015,-12.9043,-1.13215,23,5
0.974497,-13.0212,2.53814,23,13
1.13837,-15.2466,-0.801264,29,6
1.0447,-13.992,3.2393,24,14
0.704983,-9.46433,-0.165658,22,7
1.03381,-13.9115,3.73786,9,15
0.710949,-9.77469,0.171068,13,8
0.715315,-9.85852,0.518021,60,9
0.0420952,-0.581565,-0.113341,16,2
0.987509,-13.676,1.19961,13,10
0.045699,-0.634428,-0.100744,14,3
1.34506,-18.7188,2.30431,19,11
0.0581908,-0.811805,-0.0999329,6,4
0.902787,-12.6254,-1.1074,14,5
0.928062,-13.0108,2.53547,40,13
1.08897,-15.3043,-0.80409,16,6
0.98568,-13.8869,3.2141,47,14
0.988788,-13.9652,3.75132,6,15
0.944765,-13.6132,0.23819,44,8
0.0367403,-0.530736,-0.122823,15,1
0.682137,-9.87889,0.518963,69,9
0.930204,-13.5402,1.18741,30,10
0.0444072,-0.6464,-0.102621,14,3
1.2861,-18.7687,2.30991,29,11
0.0559046,-0.817935,-0.100664,12,4
0.947612,-13.9001,2.20666,27,12
0.849654,-12.4953,-1.09572,28,5
0.88944,-13.0804,2.54845,43,13
0.868871,-12.8109,-0.672936,42,6
0.933179,-13.7948,3.19206,49,14
0.900858,-13.3516,-0.233583,91,7
0.940033,-13.9685,3.75132,2,15
0.891454,-13.5286,0.236655,17,8
0.648301,-9.89117,0.519487,72,9
0.0380072,-0.579879,-0.112959,16,2
0.889458,-13.6069,1.19299,25,10
0.0403515,-0.618954,-0.0982409,15,3
0.897694,-13.8069,1.69886,7,11
0.0530492,-0.818125,-0.100664,12,4
0.87117,-13.4716,2.13815,21,12
0.812586,-12.5657,-1.10165,26,5
0.879659,-13.6398,2.65682,22,13
0.820044,-12.7501,-0.669586,39,6
0.876538,-13.6657,3.16146,47,14
0.993897,-15.5379,-0.271769,100,7
0.616732,-9.88527,0.172884,60,8
0.0330343,-0.530979,-0.122823,15,1
0.611051,-9.84952,0.517184,78,9
0.0359829,-0.580008,-0.112959,16,2
0.836419,-13.5204,1.18514,47,10
0.0386771,-0.626978,-0.0994923,14,3
0.831213,-13.5128,1.6623,41,11
0.0494639,-0.806417,-0.0992016,13,4
0.829685,-13.5652,2.15254,10,12
0.805328,-13.167,-1.15412,28,5
0.804794,-13.196,2.56982,37,13
0.767412,-12.6193,-0.662573,35,6
0.823286,-13.5773,3.14032,38,14
0.945809,-15.643,-0.273549,40,7
0.841912,-13.9651,3.74874,28,15
0.579873,-9.84744,0.172185,13,8
0.0311806,-0.531092,-0.122823,15,1
0.575498,-9.83166,0.516137,66,9
0.77378,-13.2587,1.16196,27,10
0.0371768,-0.638941,-0.10137,14,3
0.785534,-13.5414,1.66547,41,11
0.0468779,-0.810548,-0.0996891,12,4
0.782216,-13.5661,2.15223,20,12
0.721961,-12.5592,-1.1006,14,5
0.757824,-13.1831,2.56676,12,13
0.762666,-13.3079,-0.69858,39,6
0.777111,-13.6015,3.14527,53,14
0.551071,-9.67484,-0.169149,77,7
0.786368,-13.8484,3.71664,13,15
0.549032,-9.9133,0.173302,18,8
0.0293266,-0.531197,-0.122823,15,1
0.545785,-9.91736,0.520533,56,9
0.727139,-13.2973,1.1651,45,10
0.0352648,-0.646963,-0.102621,14,3
0.743446,-13.6392,1.67717,22,11
0.0431867,-0.79485,-0.0977392,13,4
0.734109,-13.5549,2.15004,23,12
0.674787,-12.5,-1.0952,19,5
0.706125,-13.123,2.55455,23,13
0.699337,-13.0393,-0.684345,39,6
0.723821,-13.54,3.13042,57,14
0.514949,-9.63278,-0.168381,94,7
0.511868,-9.89927,0.173023,60,8
0.510959,-9.91522,0.520324,52,9
0.029806,-0.580358,-0.112959,16,2
0.688456,-13.4509,1.17835,20,10
0.0326037,-0.639191,-0.10137,14,3
0.687809,-13.5308,1.66352,45,11
0.0414783,-0.818793,-0.100664,18,4
0.686988,-13.5614,2.15066,15,12
0.360126,-7.13363,-0.624907,13,5
0.659821,-13.1156,2.55264,37,13
0.653219,-13.0297,-0.683717,39,6
0.670233,-13.4159,3.10118,46,14
0.670696,-13.4252,-0.23463,100,7
0.688901,-13.8381,3.7125,13,15
0.479329,-9.9069,0.173128,43,8
0.47577,-9.90497,0.519696,58,9
0.636756,-13.3538,1.16963,35,10
0.0304839,-0.639296,-0.10137,14,3
0.587544,-12.3671,1.5202,17,11
0.0383874,-0.810995,-0.0996891,25,4
0.639834,-13.5676,2.15129,27,12
0.578995,-12.3233,-1.07934,26,5
0.615309,-13.0962,2.54845,35,13
0.612901,-13.0937,-0.686962,42,6
0.63164,-13.5446,3.13042,48,14
0.756168,-16.276,-0.284404,78,7
0.638629,-13.798,3.70111,34,15
0.444924,-9.91251,0.173198,65,8
0.0237624,-0.531475,-0.122823,15,1
0.0258549,-0.580548,-0.112959,16,2
0.561124,-12.6492,1.10775,26,10
0.0263338,-0.595982,-0.0944864,16,3
0.545244,-12.3889,1.52264,38,11
0.0352955,-0.805174,-0.0989579,26,4
0.571127,-13.1335,2.55531,40,13
0.566848,-13.0878,-0.686543,35,6
0.690937,-16.0827,-0.280984,94,7
0.587159,-13.7229,3.68041,24,15
0.409328,-9.89003,0.172779,30,8
0.021907,-0.531555,-0.122823,15,1
0.525766,-12.8116,0.671994,12,9
0.0266127,-0.651257,-0.126697,14,2
0.515244,-12.6631,1.1088,59,10
0.024629,-0.607917,-0.0963636,15,3
0.501352,-12.3748,1.52069,7,11
0.0320847,-0.795375,-0.0977392,34,4
0.53793,-13.4518,-1.17782,27,5
0.551571,-13.8535,2.69499,16,13
0.51571,-13.0099,-0.682356,35,6
0.556143,-14.0921,3.25594,56,14
0.377644,-9.56909,-0.167159,94,7
0.497963,-13.2026,0.230616,33,8
0.464375,-12.4856,1.09311,51,10
0.0230914,-0.623792,-0.0988666,15,3
0.458258,-12.4381,1.52824,28,11
0.0295329,-0.805406,-0.0989579,39,4
0.434909,-11.9174,1.88879,47,12
0.285277,-7.8548,-0.687659,22,5
0.501358,-13.8044,2.68506,37,13
0.465244,-12.8719,-0.675029,35,6
0.511782,-14.2283,3.28698,51,14
0.342712,-9.57441,-0.167229,100,7
0.490871,-13.7808,3.6949,14,15
0.429509,-12.5507,0.219202,32,8
0.432657,-12.7731,0.669796,42,9
0.416672,-12.4295,1.08805,49,10
0.0210684,-0.631769,-0.100118,14,3
0.414905,-12.4416,1.52849,17,11
0.026129,-0.787648,-0.0967643,28,4
0.394154,-11.9445,1.89286,45,12
0.258315,-7.86968,-0.688879,8,5
0.451272,-13.8218,2.68812,24,13
0.409311,-12.604,-0.660899,48,6
0.459439,-14.2242,3.28564,58,14
0.309159,-9.57155,-0.167159,69,7
0.442825,-13.7844,3.69542,4,15
0.42265,-13.8334,0.241576,49,8
0.38427,-12.7227,0.667074,42,9
0.0175439,-0.580858,-0.112959,16,2
0.377291,-12.5643,1.09973,49,10
0.0180376,-0.604196,-0.0957379,15,3
0.367594,-12.3855,1.52142,35,11
0.023886,-0.809565,-0.0994454,25,4
0.350604,-11.9538,1.89411,10,12
0.231134,-7.8805,-0.689751,16,5
0.402964,-13.8213,2.68774,32,13
0.376306,-12.9847,-0.680786,26,6
0.408327,-14.1751,3.27394,27,14
0.390139,-13.6263,-0.237946,54,7
0.341148,-12.6075,0.220145,18,8
0.0142976,-0.531814,-0.122823,15,1
0.359588,-13.4627,0.705803,28,9
0.330735,-12.464,1.09084,65,10
0.0159285,-0.604255,-0.0957379,15,3
0.323682,-12.3609,1.51825,38,11
0.0215761,-0.829488,-0.101883,5,4
0.2045,-7.91511,-0.692714,11,5
0.354919,-13.8305,2.68926,15,13
0.330621,-12.972,-0.680053,71,6
0.330441,-13.0543,3.01479,40,14
0.345788,-13.7556,-0.24018,100,7
0.297797,-12.6366,0.220633,7,8
0.0124412,-0.531861,-0.122823,15,1
0.316857,-13.6476,0.715433,21,9
0.291494,-12.6503,1.10705,33,10
0.0142709,-0.624056,-0.0988666,15,3
0.280487,-12.36,1.518,35,11
0.0175185,-0.777959,-0.0955456,7,4
0.284748,-12.7439,2.01894,41,12
0.285153,-12.7621,-1.11681,26,5
0.307509,-13.8709,2.69689,41,13
0.299174,-13.602,-0.713025,35,6
0.20577,-9.50632,-0.165972,94,7
0.251037,-12.5056,0.21833,13,8
0.0105845,-0.531901,-0.122823,15,1
0.263427,-13.3551,0.700046,42,9
0.0114603,-0.58101,-0.112959,16,2
0.246712,-12.6194,1.10426,21,10
0.0119393,-0.616202,-0.0976151,15,3
0.237493,-12.3688,1.51898,28,11
0.0147274,-0.774046,-0.0950581,7,4
0.242907,-12.8851,2.04116,45,12
0.233545,-12.3885,-1.08404,19,5
0.257402,-13.7816,2.67934,15,13
0.252763,-13.6609,-0.716061,35,6
0.171859,-9.467,-0.165274,100,7
0.210831,-12.7143,0.22196,38,8
0.00872777,-0.531934,-0.122823,15,1
0.219822,-13.5416,0.70978,27,9
0.00943215,-0.581047,-0.112959,16,2
0.214337,-13.3473,1.16789,37,10
0.0100393,-0.632041,-0.100118,14,3
0.194318,-12.3696,1.51898,28,11
0.0116553,-0.750274,-0.0921332,8,4
0.197444,-12.8542,2.03615,15,12
0.198593,-12.9291,-1.13128,26,5
0.208995,-13.7628,2.67552,19,13
0.233764,-15.5729,-0.816232,16,6
0.196535,-13.4045,-0.234002,100,7
0.201487,-13.9079,3.72699,11,15
0.169746,-12.9669,0.226358,13,8
0.00687097,-0.531962,-0.122823,15,1
0.171991,-13.4984,0.707478,38,9
0.00740385,-0.581076,-0.112959,16,2
0.16469,-13.1049,1.14662,60,10
0.00744132,-0.600469,-0.0951122,15,3
0.162513,-13.3011,1.63329,41,11
0.00889287,-0.738401,-0.0906708,8,4
0.152407,-12.841,2.03396,30,12
0.156912,-13.2206,-1.15673,9,5
0.153103,-13.092,2.54501,23,13
0.16024,-13.91,-0.72904,26,6
0.156608,-13.804,3.18711,2,14
0.150636,-13.4851,-0.235398,99,7
0.152536,-13.8718,3.71716,13,15
0.125387,-12.6035,0.220005,60,8
0.00519971,-0.531981,-0.122823,15,1
0.131119,-13.6586,0.715851,35,9
0.00549537,-0.583061,-0.113341,16,2
0.122692,-13.0177,1.13895,47,10
0.00555482,-0.600489,-0.0951122,15,3
0.124293,-13.6946,1.68155,7,11
0.00669673,-0.75232,-0.092377,16,4
0.120288,-13.7837,2.1832,20,12
0.110822,-12.958,-1.13372,26,5
0.109275,-13.0434,2.53547,16,13
0.11421,-13.9224,-0.729668,35,6
0.11265,-13.7323,3.17046,31,14
0.102828,-12.8076,-0.223565,100,7
0.104419,-13.2946,3.56239,29,15
0.0848856,-13.5097,0.235817,41,8
0.00324979,-0.531996,-0.122823,15,1
0.0815777,-13.7469,0.720457,13,9
0.00335837,-0.583077,-0.113341,16,2
0.0757838,-13.1575,1.15115,50,10
0.00353039,-0.632111,-0.100118,14,3
0.0725846,-13.4151,1.64719,37,11
0.00414715,-0.792041,-0.0972517,28,4
0.0693279,-13.6971,2.16943,32,12
0.0644566,-13.1895,-1.15394,9,5
0.0617825,-13.1105,2.54845,21,13
0.0621744,-13.7011,-0.718049,32,6
0.0553888,-12.6939,-0.221576,20,7
0.0579079,-13.8242,3.70422,32,15
0.0332387,-12.696,0.221611,35,8
0.00129996,-0.532004,-0.122823,15,1
0.0314277,-13.851,0.7259,28,9
0.00132301,-0.583085,-0.113341,16,2
0.0271995,-12.9864,1.13616,40,10
0.0012439,-0.647922,-0.102621,14,3
0.0236665,-13.5601,1.66498,15,11
0.00127853,-0.813887,-0.0999329,19,4
0.0191662,-13.7269,2.17413,29,12
0.0186275,-13.341,-1.16719,12,5
0.0160344,-13.1243,2.55112,23,13
0.0142576,-13.6133,-0.713444,45,6
0.0117905,-13.5106,3.11917,17,14
0.014944,-21.4047,-0.373621,77,7
0.0072404,-13.8301,3.70577,22,15
-0.0110028,-12.6101,0.22011,52,8
-0.0261159,-21.3766,1.1203,15,9
-0.018058,-12.9346,1.13163,47,10
-0.000980489,-0.624218,-0.0988666,15,3
-0.0261883,-15.0053,1.84242,8,11
-0.00160832,-0.837707,-0.102858,22,4
-0.0290297,-13.8612,2.1954,20,12
-0.0281155,-13.4247,-1.17451,10,5
-0.0329027,-13.4655,-0.705698,55,6
-0.0351616,-13.4307,3.10073,29,14
-0.0818271,-29.3034,-0.511495,10,7
-0.0409256,-13.7934,3.69594,24,15
-0.0554495,-12.7079,0.22182,28,8
-0.0024141,-0.532001,-0.122823,15,1
-0.0611663,-13.4794,0.706431,22,9
-0.00274772,-0.58308,-0.113341,16,2
-0.0633657,-12.9663,1.13442,61,10
-0.00327941,-0.647915,-0.102621,14,3
-0.0709689,-13.554,1.66425,7,11
-0.00474997,-0.907175,-0.111389,14,4
-0.0753909,-13.9341,2.20698,23,12
-0.0749767,-13.4245,-1.17451,10,5
-0.18881,-32.7819,6.37226,11,13
-0.0799519,-13.4733,-0.706117,26,6
-0.130033,-21.2864,-0.371562,100,7
-0.0860109,-13.6888,3.66798,25,15
-0.104266,-13.2754,0.695754,35,9
-0.00468129,-0.583068,-0.113341,16,2
-0.107099,-13.0557,1.14226,14,10
-0.0054279,-0.647901,-0.102621,14,3
-0.184331,-21.5533,2.64651,25,11
-0.00769037,-0.899214,-0.110414,15,4
-0.121053,-13.5995,-1.18985,10,5
-0.29563,-32.573,6.33181,21,13
-0.133462,-14.4276,-0.75615,45,6
-0.126831,-13.7107,3.16551,18,14
-0.200433,-21.2658,-0.371213,61,7
-0.1317,-13.7194,3.67627,9,15
-0.129835,-11.8075,0.206113,25,8
-0.00594242,-0.531973,-0.122823,15,1
-0.15038,-13.255,0.694708,34,9
-0.00661481,-0.583049,-0.113341,16,2
-0.1517,-13.1688,1.1522,22,10
-0.00757641,-0.647879,-0.102621,14,3
-0.390303,-32.8847,4.03802,13,11
-0.0113311,-0.940866,-0.115532,10,4
-0.343919,-28.149,4.4587,15,12
-0.165445,-13.5413,-1.1848,20,5
-0.173902,-13.8379,-0.725272,29,6
-0.533351,-41.8594,9.6648,15,14
-0.279853,-21.6669,-0.378229,69,7
-0.180044,-13.7536,3.68558,12,15
-0.170933,-11.799,0.205973,47,8
-0.00864994,-0.583022,-0.113341,16,2
-0.198146,-13.2001,1.15499,37,10
-0.0098379,-0.647849,-0.102621,14,3
-0.208443,-13.5705,1.66644,22,11
-0.0147078,-0.946775,-0.116263,10,4
-0.440256,-28.0252,4.4393,31,12
-0.136009,-8.65786,-0.757558,2,5
-0.217168,-13.5237,-0.708838,42,6
-0.668558,-41.1851,9.50958,14,14
-0.354627,-21.6138,-0.377321,100,7
-0.225842,-13.6196,3.64987,29,15
-0.00965615,-0.531918,-0.122823,15,1
-0.010685,-0.582989,-0.113341,16,2
-0.247428,-13.3726,1.17015,32,10
-0.254239,-13.4863,1.6562,7,11
-0.0183147,-0.962596,-0.118213,8,4
-0.537622,-27.9998,4.43554,34,12
-0.166191,-8.65534,-0.757383,2,5
-0.278358,-14.3664,2.79306,10,13
-0.278584,-14.2497,-0.746939,13,6
-0.267325,-13.5528,3.12952,31,14
-0.429558,-21.5864,-0.376867,100,7
-0.275011,-13.6999,3.67161,10,15
-0.277211,-12.9111,0.225415,36,8
-0.01272,-0.582948,-0.113341,16,2
-0.293798,-13.3577,1.16893,27,10
-0.32974,-14.7575,1.81244,40,11
-0.0222557,-0.988325,-0.121382,1,4
-0.636653,-28.055,4.44462,12,12
-0.355286,-15.6562,-1.37009,13,5
-0.328727,-14.3751,2.79497,11,13
-0.318753,-13.8333,-0.725167,16,6
-0.504436,-21.5648,-0.376518,100,7
-0.760354,-32.2646,8.64766,13,15
-0.321878,-12.894,0.225136,28,8
-0.350038,-13.8286,0.724958,22,9
-0.0147547,-0.5829,-0.113341,16,2
-0.340779,-13.3706,1.17015,35,10
-0.378225,-14.6391,1.79806,44,11
-0.370653,-14.1546,2.24264,10,12
-0.361954,-13.8224,-1.20972,10,5
-0.378954,-14.3758,2.79535,11,13
-0.352629,-13.2891,-0.696696,42,6
-0.878041,-32.8733,7.5921,44,14
-0.579601,-21.5589,-0.376448,100,7
-0.872505,-32.2443,8.643,27,15
-0.367738,-12.9228,0.22566,21,8
-0.0152257,-0.531788,-0.122823,15,1
-0.0167894,-0.582845,-0.113341,16,2
-0.386872,-13.3494,1.16841,27,10
-0.411283,-14.0226,1.7225,23,11
-0.0304428,-1.0318,-0.126744,1,4
-0.409963,-13.8131,-1.20902,5,5
-0.427026,-14.3038,2.78161,20,13
-0.401772,-13.3796,-0.701511,52,6
-0.414056,-13.709,3.16641,18,14
-0.653882,-21.5248,-0.37589,100,7
-1.00659,-32.9459,8.83194,21,15
-0.683731,-21.3998,0.373726,23,8
-0.481324,-14.9018,0.781376,16,9
-0.0189255,-0.582779,-0.113341,16,2
-0.432822,-13.328,1.16667,30,10
-0.463288,-14.1143,1.73396,54,11
-0.0344371,-1.04359,-0.128207,9,4
-0.428331,-12.9119,2.04616,45,12
-0.480368,-14.3296,2.78696,41,13
-0.46823,-13.895,-0.728621,29,6
-0.458496,-13.6062,3.14302,70,14
-0.502232,-14.8272,-0.258959,100,7
-1.10107,-32.3398,8.67044,14,15
-0.762234,-21.3992,0.373761,16,8
-0.0190307,-0.531666,-0.122823,15,1
-0.530194,-14.7402,0.773002,26,9
-0.0210614,-0.582706,-0.113341,16,2
-0.480517,-13.2945,1.16388,30,10
-0.51328,-14.0649,1.72811,46,11
-0.0383346,-1.04544,-0.12845,25,4
-0.476379,-12.9299,2.04929,31,12
-0.541277,-14.5534,2.83084,12,13
-0.526387,-14.0868,-0.738774,3,6
-0.513527,-13.7427,3.17496,45,14
-0.804742,-21.4356,-0.374424,85,7
-1.25003,-33.1425,8.88681,14,15
-0.506374,-12.8881,0.225136,6,8
-0.0209024,-0.529645,-0.122373,15,1
-0.573853,-14.4767,0.75929,75,9
-0.0230952,-0.582629,-0.113341,16,2
-1.05373,-26.4659,2.3173,56,10
-0.56387,-14.0392,1.72518,31,11
-0.0422461,-1.04728,-0.128694,45,4
-0.524966,-12.9577,2.05398,24,12
-0.0667807,-1.64835,-0.14433,2,5
-0.597421,-14.6828,2.85641,10,13
-0.560937,-13.6687,3.15831,18,14
-0.883549,-21.4385,-0.374529,23,7
-1.37517,-33.2264,8.91062,14,15
-0.661289,-15.4555,0.270024,22,8
-0.607514,-14.0836,0.738774,37,9
-0.0251289,-0.582545,-0.113341,16,2
-1.17834,-27.2065,2.38249,66,10
-0.575641,-13.1843,1.62037,36,11
-0.0462491,-1.05506,-0.129669,72,4
-0.627689,-14.2622,2.2611,8,12
-0.072096,-1.63815,-0.143458,12,5
-0.638706,-14.4551,2.81252,11,13
-0.0780678,-1.75985,-0.0923206,1,6
-0.609512,-13.6861,3.16281,38,14
-1.47235,-32.8027,8.7983,28,15
-0.715327,-15.4551,0.270059,3,8
-0.0245995,-0.529486,-0.122373,15,1
-0.664206,-14.243,0.747253,60,9
-0.0271622,-0.582454,-0.113341,16,2
-1.28672,-27.4888,2.40759,26,10
-1.2997,-27.5602,3.38772,10,11
-0.0488993,-1.03308,-0.126988,58,4
-0.615509,-12.9557,2.0543,25,12
-0.0777194,-1.6359,-0.143284,33,5
-1.31941,-27.6701,5.38463,31,13
-0.0788637,-1.64785,-0.086459,6,6
-0.655694,-13.6508,3.15516,49,14
-0.0851204,-1.76568,-0.0308559,1,7
-1.59282,-32.9208,8.83142,7,15
-0.746702,-14.9991,0.262135,1,8
-0.0264476,-0.529397,-0.122373,15,1
-0.740819,-14.7771,0.77541,15,9
-0.0291951,-0.582355,-0.113341,16,2
-1.38597,-27.5498,2.41334,33,10
-1.55036,-30.6046,3.76259,24,11
-0.0519005,-1.021,-0.125525,46,4
-0.658816,-12.916,2.04835,41,12
-0.0829217,-1.62567,-0.142412,40,5
-1.42081,-27.7594,5.40295,42,13
-0.0842054,-1.63959,-0.0860403,28,6
-0.0864302,-1.67151,-0.0292153,6,7
-1.69181,-32.6083,8.74912,28,15
-0.0282953,-0.529302,-0.122373,15,1
-0.779455,-14.5331,0.762744,4,9
-0.0312278,-0.58225,-0.113341,16,2
-1.49165,-27.7219,2.42886,13,10
-1.48725,-27.4612,3.37676,31,11
-0.056218,-1.03469,-0.127232,23,4
-0.703681,-12.9097,2.04773,46,12
-0.0874028,-1.60349,-0.140495,50,5
-1.51533,-27.7112,5.39455,31,13
-0.0893811,-1.62931,-0.085517,45,6
-1.82685,-33.1953,7.67533,11,14
-0.0911618,-1.65123,-0.0288663,27,7
-1.80412,-32.5752,8.74187,28,15
-0.0940956,-1.65708,0.028971,1,8
-0.03326,-0.582137,-0.113341,16,2
-0.831369,-14.5067,1.27125,11,10
-1.63954,-28.4349,3.49716,11,11
-0.0602879,-1.04242,-0.128207,12,4
-0.749886,-12.9269,2.05086,35,12
-0.0933459,-1.60914,-0.141018,51,5
-1.59894,-27.4803,5.35067,37,13
-0.0949516,-1.627,-0.0854123,56,6
-2.42007,-41.3439,9.56132,14,14
-0.0959876,-1.63494,-0.028587,40,7
-1.92009,-32.6073,8.75222,28,15
-0.0992777,-1.64676,0.0287965,12,8
-0.101011,-1.67065,0.0877151,2,9
-0.907762,-14.9273,1.30838,2,10
-1.68862,-27.6087,3.39626,21,11
-0.0642292,-1.05014,-0.129182,12,4
-0.79432,-12.9499,2.05492,48,12
-0.0985951,-1.60284,-0.140495,52,5
-1.72,-27.8821,5.43004,11,13
-0.0997671,-1.6127,-0.0846796,57,6
-2.57232,-41.5807,9.61801,15,14
-0.102152,-1.64658,-0.0287965,50,7
-2.68905,-43.2228,11.6039,13,15
-0.104103,-1.63644,0.0286219,32,8
-0.105279,-1.65038,0.0866684,11,9
-0.0674555,-1.04596,-0.128694,10,4
-0.961038,-14.8613,2.35872,27,12
-0.104297,-1.60847,-0.141018,51,5
-1.82035,-27.9978,5.4537,19,13
-0.104335,-1.6004,-0.0840516,60,6
-2.76851,-42.4664,9.82496,15,14
-0.106829,-1.63426,-0.028587,50,7
-2.66028,-40.588,10.8989,11,15
-0.10993,-1.64207,0.0287267,49,8
-0.110617,-1.64803,0.0865637,31,9
-0.11186,-1.65788,0.145376,3,10
-0.0437302,-0.646446,-0.102621,14,3
-0.0707893,-1.04375,-0.12845,10,4
-1.00978,-14.8502,2.35747,48,12
-0.109494,-1.60612,-0.140844,54,5
-2.76368,-40.4351,7.87812,16,13
-0.109914,-1.60403,-0.0842609,63,6
-2.44357,-35.6602,8.2521,12,14
-0.111425,-1.62193,-0.0283776,55,7
-2.80256,-40.6908,10.9289,11,15
-0.114954,-1.63572,0.0286219,61,8
-0.115941,-1.64566,0.086459,49,9
-0.116795,-1.64955,0.144679,15,10
-0.0458737,-0.646298,-0.102621,14,3
-0.124267,-1.74644,0.214978,1,11
-0.074673,-1.04945,-0.129182,11,4
-1.06014,-14.8625,2.35997,30,12
-0.113541,-1.58786,-0.139275,65,5
-2.91965,-40.7312,7.93765,16,13
-0.115806,-1.61163,-0.0846796,66,6
-2.99646,-41.7008,9.6522,15,14
-0.116516,-1.61756,-0.0283078,55,7
-2.93831,-40.6928,10.932,11,15
-0.11946,-1.61133,0.0282031,69,8
-0.122111,-1.64321,0.0863543,58,9
-0.121644,-1.62922,0.142935,36,10
-0.0483549,-0.646117,-0.102621,14,3
-0.123547,-1.64697,0.202791,6,11
-0.0787361,-1.04716,-0.128938,12,4
-1.11735,-14.8603,2.36028,27,12
-0.119936,-1.59139,-0.139624,82,5
-2.54955,-33.7503,6.57909,11,13
-0.121239,-1.60121,-0.0841562,78,6
-3.15528,-41.5757,9.62611,15,14
-0.121364,-1.59916,-0.0279937,66,7
-3.16956,-41.6675,11.197,12,15
-0.124957,-1.61292,0.028238,88,8
-0.126762,-1.62883,0.0856216,63,9
-0.0453426,-0.581321,-0.113341,16,2
-0.128107,-1.63872,0.143807,65,10
-0.0504973,-0.645953,-0.102621,14,3
-0.129473,-1.65249,0.203522,31,11
-0.0828299,-1.05481,-0.129913,11,4
-0.125491,-1.59096,-0.139624,77,5
-2.26872,-28.7627,5.60826,16,13
-0.125289,-1.58487,-0.0833189,100,6
-0.12837,-1.61666,-0.0283078,84,7
-3.32602,-41.7948,11.2343,12,15
-0.130586,-1.61247,0.028238,100,8
-0.13099,-1.61046,0.0846796,69,9
-0.0472701,-0.581167,-0.113341,16,2
-0.132569,-1.62637,0.142761,69,10
-0.0527518,-0.645773,-0.102621,14,3
-0.134917,-1.64807,0.203034,67,11
-0.0844012,-1.02879,-0.126744,9,4
-3.07387,-37.3882,5.94169,5,12
-0.132072,-1.60642,-0.141018,24,5
-1.22308,-14.8449,2.89534,4,13
-0.131478,-1.59239,-0.0837375,100,6
-3.58925,-43.3788,10.049,16,14
-0.133351,-1.60824,-0.0281682,100,7
-3.47446,-41.8138,11.2426,12,15
-0.136046,-1.61002,0.0282031,100,8
-0.136779,-1.61199,0.0847843,85,9
-0.0469746,-0.553612,-0.107998,17,2
-0.138583,-1.62987,0.14311,81,10
-0.0610428,-0.716441,-0.113884,11,3
-0.139487,-1.63374,0.201328,75,11
-0.0857922,-1.00278,-0.123576,4,4
-1.25637,-14.6549,2.32962,2,12
-0.136487,-1.59206,-0.139798,20,5
-1.2717,-14.8034,2.88809,7,13
-0.137378,-1.5959,-0.0839469,100,6
-3.73262,-43.2728,10.0274,16,14
-0.138964,-1.60776,-0.0281682,100,7
-3.61923,-41.7879,11.239,25,15
-0.14149,-1.60754,0.0281682,100,8
-0.142757,-1.61548,0.0849936,97,9
-0.0513262,-0.580823,-0.113341,16,2
-0.142338,-1.60755,0.141192,86,10
-0.145892,-1.64115,0.202303,97,11
-0.0891158,-1.0005,-0.123332,5,4
-0.146099,-1.63701,0.260307,9,12
-0.140015,-1.56575,-0.137532,45,5
-0.142948,-1.59541,-0.0839469,100,6
-3.88434,-43.2673,10.0292,16,14
-0.144397,-1.60527,-0.0281333,100,7
-3.75415,-41.6538,11.2063,12,15
-0.146189,-1.59708,0.0279937,100,8
-0.148943,-1.62094,0.0853076,99,9
-0.0534546,-0.580631,-0.113341,16,2
-0.148778,-1.61297,0.141715,100,10
-0.0723485,-0.782864,-0.124522,9,3
-0.14961,-1.61889,0.199622,100,11
-0.0926077,-1.00018,-0.123332,9,4
-0.151447,-1.63255,0.259681,18,12
-0.146401,-1.57517,-0.138403,56,5
-1.37723,-14.79,2.88732,24,13
-0.148794,-1.59488,-0.0839469,100,6
-3.95149,-42.2749,9.80247,15,14
-0.149627,-1.60078,-0.0280635,100,7
-3.89466,-41.5885,11.1924,24,15
-0.15261,-1.6025,0.0280984,100,8
-0.154313,-1.61442,0.0849936,100,9
-0.0554812,-0.580441,-0.113341,16,2
-0.153078,-1.59855,0.140495,100,10
-0.0758352,-0.790472,-0.125773,8,3
-0.154973,-1.61241,0.198891,100,11
-0.0943703,-0.980073,-0.120894,6,4
-0.158188,-1.63985,0.260933,37,12
-0.150942,-1.56473,-0.137532,100,5
-1.43225,-14.8203,2.89419,4,13
-0.153976,-1.59037,-0.0837375,100,6
-4.09998,-42.2705,9.80472,15,14
-0.156653,-1.61216,-0.0282729,100,7
-4.05249,-41.6297,11.2074,12,15
-0.158596,-1.60594,0.0281682,100,8
-0.0523768,-0.529422,-0.122823,15,1
-0.15916,-1.60592,0.0845749,100,9
-0.0575069,-0.580244,-0.113341,16,2
-0.159051,-1.60197,0.140844,100,10
-0.0813313,-0.817722,-0.130153,15,3
-0.1606,-1.61185,0.198891,100,11
-0.0952277,-0.954059,-0.117726,8,4
-0.163322,-1.63339,0.259994,49,12
-0.157196,-1.57213,-0.138229,81,5
-0.159925,-1.5938,-0.0839469,38,6
-1.54947,-15.4148,3.57672,27,14
-0.161479,-1.60365,-0.0281333,100,7
-0.164404,-1.60737,0.0282031,100,8
-0.0542244,-0.529235,-0.122823,15,1
-0.165095,-1.61134,0.0848889,100,9
-0.059532,-0.58004,-0.113341,16,2
-0.164846,-1.60339,0.141018,100,10
-0.0793282,-0.770274,-0.122645,9,3
-0.166226,-1.61128,0.198891,100,11
-0.0979453,-0.947797,-0.116995,9,4
-0.167317,-1.61909,0.257804,56,12
-0.124525,-1.20295,-0.105807,45,5
-1.5288,-14.7435,2.88122,30,13
-0.166107,-1.59919,-0.0842609,13,6
-1.595,-15.3298,3.55828,11,14
-0.165761,-1.59316,-0.0279588,100,7
-4.33055,-41.5512,11.1939,12,15
-0.169103,-1.60085,0.0280984,100,8
-0.0559791,-0.529053,-0.122823,15,1
-0.169666,-1.60082,0.0843656,100,9
-0.0615564,-0.579828,-0.113341,16,2
-0.17002,-1.59884,0.140669,100,10
-0.0881486,-0.828935,-0.132031,7,3
-0.171147,-1.60678,0.198403,100,11
-0.0979287,-0.917859,-0.113339,13,4
-0.172547,-1.61457,0.257178,65,12
-0.118332,-1.10544,-0.0972658,56,5
-0.169066,-1.57679,-0.0831095,39,6
-1.64333,-15.3012,3.55288,40,14
-0.171535,-1.59456,-0.0279937,100,7
-0.174039,-1.59428,0.0279937,100,8
-0.17634,-1.61015,0.0848889,100,9
-0.17804,-1.62567,-0.317888,1,2
-0.174887,-1.59431,0.140321,100,10
-0.0927676,-0.844331,-0.134534,13,3
-0.177189,-1.61012,0.198891,100,11
-0.100915,-0.915538,-0.113095,13,4
-0.178399,-1.61592,0.257491,72,12
-0.120876,-1.09314,-0.0962199,46,5
-0.175669,-1.58611,-0.0836329,82,6
-1.692,-15.2528,3.54298,40,14
-0.177983,-1.6019,-0.0281333,100,7
-0.180051,-1.59764,0.0280635,100,8
-0.0596712,-0.528649,-0.122823,15,1
-0.181959,-1.60952,0.0848889,100,9
-0.181347,-1.6016,-0.313308,2,2
-0.181627,-1.60158,0.141018,100,10
-0.0925175,-0.814544,-0.129841,15,3
-0.18124,-1.59568,0.197185,100,11
-0.102315,-0.899401,-0.111145,15,4
-0.184486,-1.61921,0.258117,72,12
-0.125821,-1.10261,-0.0970915,10,5
-0.180118,-1.57355,-0.0830048,100,6
-1.7479,-15.2465,3.54298,20,14
-0.184029,-1.60524,-0.0282031,100,7
-0.186368,-1.60094,0.0281333,100,8
-0.0616085,-0.528427,-0.122823,15,1
-0.185958,-1.59499,0.0841562,100,9
-0.186936,-1.60096,-0.313308,2,2
-0.187448,-1.60291,0.141192,100,10
-0.0976582,-0.833836,-0.132969,14,3
-0.188938,-1.61078,0.199135,100,11
-0.104066,-0.887209,-0.109682,16,4
-0.190367,-1.62052,0.25843,75,12
-0.127574,-1.08435,-0.0955227,3,5
-0.185844,-1.5749,-0.0831095,100,6
-0.189162,-1.60062,-0.0281333,100,7
-0.190725,-1.59237,0.0279937,100,8
-0.0633603,-0.52822,-0.122823,15,1
-0.191483,-1.59635,0.0842609,100,9
-0.191776,-1.59643,-0.312545,2,2
-0.193952,-1.61217,0.142064,100,10
-0.100423,-0.833507,-0.132969,14,3
-0.194278,-1.61014,0.199135,100,11
-0.102727,-0.851385,-0.105295,15,4
-0.194792,-1.61203,0.257178,77,12
-0.130212,-1.07601,-0.0948254,6,5
-0.192028,-1.5822,-0.0835282,100,6
-1.83841,-15.1475,3.52273,45,14
-0.193986,-1.59601,-0.0280635,100,7
-1.82935,-15.029,4.05673,14,15
-0.196493,-1.5957,0.0280635,100,8
-0.0651117,-0.528007,-0.122823,15,1
-0.198034,-1.6036,0.0846796,100,9
-0.195625,-1.58409,-0.310255,3,2
-0.197341,-1.5957,0.140669,100,10
-0.101729,-0.821407,-0.131092,15,3
-0.198884,-1.60358,0.198403,100,11
-0.10839,-0.87269,-0.107976,9,4
-0.199443,-1.6035,0.255927,77,12
-0.129598,-1.04196,-0.0918621,7,5
-0.20024,-1.60534,-0.0847843,93,6
-0.19906,-1.59135,-0.0279937,100,7
-1.88349,-15.0359,4.06035,5,15
-0.201057,-1.58707,0.0279239,100,8
-0.0669544,-0.527776,-0.122823,15,1
-0.20363,-1.6029,0.0846796,100,9
-0.202638,-1.59509,-0.312545,2,2
-0.202407,-1.59105,0.140321,100,10
-0.103847,-0.815169,-0.130153,15,3
-0.205233,-1.60878,0.199135,100,11
-0.109172,-0.854585,-0.105783,10,4
-0.206041,-1.61063,0.257178,80,12
-0.131971,-1.03162,-0.0909906,5,5
-3.79379,-29.6152,5.80365,40,13
-0.205124,-1.59462,-0.0280635,75,7
-0.205562,-1.57843,0.0277842,100,8
-0.0687963,-0.527539,-0.122823,15,1
-0.209483,-1.60416,0.0847843,100,9
-0.208713,-1.59826,-0.313308,2,2
-0.209251,-1.60021,0.141192,100,10
-0.10541,-0.805008,-0.128589,16,3
-0.209558,-1.59821,0.197916,100,11
-0.111637,-0.850262,-0.105295,10,4
-0.213465,-1.62361,0.259368,82,12
-0.133493,-1.01535,-0.0895961,5,5
-3.8933,-29.5725,5.79792,22,13
-0.214882,-1.62561,-0.0286219,15,7
-0.211866,-1.58365,0.0278889,91,8
-0.0706373,-0.527296,-0.122823,15,1
-0.214019,-1.5955,0.0843656,100,9
-0.213768,-1.59363,-0.312545,2,2
-0.216693,-1.61329,0.142412,100,10
-0.108482,-0.806593,-0.128902,32,3
-0.21434,-1.59157,0.197185,100,11
-0.112482,-0.834129,-0.103345,11,4
-0.217809,-1.61307,0.257804,75,12
-0.13437,-0.995133,-0.087853,3,5
-3.99571,-29.5529,5.79678,36,13
-0.147373,-1.08856,-0.0575696,8,6
-0.217058,-1.59909,-0.0281682,9,7
-2.05853,-15.1456,4.09555,2,15
-0.0724774,-0.527046,-0.122823,15,1
-0.220677,-1.60266,0.0847843,67,9
-0.217187,-1.57732,-0.309492,3,2
-0.220418,-1.59871,0.141192,100,10
-0.109676,-0.794468,-0.127025,34,3
-0.221254,-1.60065,0.198403,100,11
-0.115393,-0.833731,-0.103345,11,4
-0.222896,-1.60839,0.257178,77,12
-0.136749,-0.986764,-0.0871557,2,5
-4.2281,-30.4703,5.97957,47,13
-0.151172,-1.08804,-0.0575696,19,6
-0.223742,-1.60624,-0.0283078,5,7
-0.222638,-1.58015,0.027854,6,8
-0.227667,-1.61177,0.0853076,16,9
-0.218848,-1.54933,-0.30415,1,2
-0.222928,-1.57623,0.139275,90,10
-0.109402,-0.772566,-0.123583,37,3
-0.228233,-1.60969,0.199622,100,11
-0.117187,-0.825462,-0.10237,5,4
-0.227953,-1.60369,0.256553,77,12
-0.135426,-0.952747,-0.0841924,4,5
-4.31784,-30.3387,5.95668,28,13
-0.151588,-1.06378,-0.0563135,12,6
-4.3168,-30.2557,7.05581,41,14
-0.227934,-1.59556,-0.0281333,4,7
-0.226723,-1.56947,0.0276795,5,8
-0.23415,-1.61689,0.0856216,8,9
-0.229572,-1.58333,0.139972,20,10
-0.112098,-0.77218,-0.123583,37,3
-0.233279,-1.60496,0.199135,100,11
-0.118352,-0.813262,-0.100908,6,4
-0.234974,-1.61266,0.258117,72,12
-0.13863,-0.950273,-0.0840181,4,5
-2.15985,-14.8052,2.90831,20,13
-0.150681,-1.03162,-0.0546387,8,6
-4.36909,-29.876,6.97078,10,14
-0.233502,-1.59475,-0.0281333,6,7
-0.233957,-1.58053,0.0278889,6,8
-0.0779926,-0.526258,-0.122823,15,1
-0.239206,-1.61211,0.0854123,5,9
-0.238305,-1.60219,0.141715,5,10
-0.114346,-0.767856,-0.122957,37,3
-0.236541,-1.58842,0.197185,48,11
-0.122947,-0.824624,-0.10237,5,4
-0.240601,-1.61183,0.258117,53,12
-0.140768,-0.941901,-0.0833209,2,5
-2.16151,-14.4458,2.83924,37,13
-0.147951,-0.987609,-0.052336,9,6
-2.27772,-15.1862,3.54523,33,14
-0.195762,-1.3052,-0.0230372,4,7
-0.241248,-1.58955,0.0280635,10,8
-0.0799209,-0.525969,-0.122823,15,1
-0.243311,-1.59938,0.0847843,8,9
-0.242096,-1.58953,0.140669,5,10
-0.116132,-0.761594,-0.122019,19,3
-0.123569,-0.808469,-0.10042,6,4
-0.248898,-1.62656,0.26062,10,12
-0.142409,-0.929563,-0.082275,2,5
-2.14652,-14.0112,2.75528,42,13
-0.152004,-0.991035,-0.0525453,8,6
-2.31208,-15.0568,3.51688,31,14
-0.173198,-1.12659,-0.0198957,15,7
-2.14995,-13.8399,0.244473,15,8
-0.0817564,-0.525687,-0.122823,15,1
-2.25232,-14.4656,0.767245,15,9
-0.249764,-1.60044,0.141715,9,10
-0.117398,-0.751404,-0.120455,20,3
-0.250966,-1.6063,0.199622,6,11
-0.123322,-0.788421,-0.097983,6,4
-0.253352,-1.61787,0.259368,4,12
-0.145036,-0.925123,-0.0819264,2,5
-2.19999,-14.0168,2.75795,45,13
-0.153775,-0.978633,-0.0519173,7,6
-2.3509,-14.9443,3.49259,27,14
-0.174332,-1.1082,-0.0195816,27,7
-2.3815,-15.1216,4.10176,3,15
-1.96662,-12.3748,0.218714,1,8
-0.0835909,-0.525398,-0.122823,15,1
-2.29903,-14.4502,0.766827,31,9
-0.252246,-1.5819,0.140146,6,10
-0.118332,-0.741258,-0.11889,20,3
-0.257198,-1.60934,0.200109,6,11
-0.129069,-0.807609,-0.10042,6,4
-2.4308,-15.193,2.43694,5,12
-0.14117,-0.881356,-0.0780915,3,5
-2.22128,-13.8525,2.72704,42,13
-0.15512,-0.966285,-0.0512892,5,6
-2.40371,-14.9734,3.50114,33,14
-0.176737,-1.09972,-0.019442,25,7
-2.4255,-15.0755,4.09141,6,15
-2.32675,-14.3183,0.760232,47,9
-2.41509,-14.8292,1.31448,20,10
-0.117611,-0.721365,-0.115762,22,3
-2.3967,-14.684,1.82682,20,11
-0.128549,-0.787585,-0.097983,6,4
-2.48595,-15.2141,2.44163,13,12
-0.153741,-0.939871,-0.0833209,2,5
-2.26657,-13.8411,2.72628,21,13
-0.1538,-0.938172,-0.0498238,7,6
-2.43191,-14.8346,3.47054,47,14
-0.17844,-1.08729,-0.0192326,12,7
-2.46451,-15.0006,4.07329,13,15
-0.0870736,-0.524832,-0.122823,15,1
-2.38877,-14.3671,1.27422,16,10
-0.120975,-0.726816,-0.1167,21,3
-2.00231,-12.0168,1.49582,38,11
-0.127378,-0.763635,-0.0950581,7,4
-0.157021,-0.939329,-0.0833209,2,5
-0.152625,-0.912049,-0.0484631,9,6
-2.52135,-15.0509,3.52318,47,14
-0.176281,-1.05116,-0.0186043,9,7
-2.51142,-14.9596,4.06449,15,15
-0.200299,-1.18298,0.0209429,1,8
-0.0889051,-0.524525,-0.122823,15,1
-2.79751,-16.4874,0.876418,12,9
-2.44843,-14.3995,1.27788,60,10
-0.120655,-0.708842,-0.113884,11,3
-2.05856,-12.0939,1.50631,14,11
-0.126041,-0.739703,-0.0921332,8,4
-0.160299,-0.938775,-0.0833209,2,5
-0.155293,-0.907546,-0.0482538,9,6
-0.175898,-1.02689,-0.0181854,7,7
-0.19065,-1.10145,0.0195118,3,8
-0.0908269,-0.524196,-0.122823,15,1
-2.58704,-14.9307,0.794146,9,9
-2.50208,-14.4105,1.27962,22,10
-0.124482,-0.716201,-0.115136,11,3
-2.61226,-15.014,1.87118,45,11
-0.132839,-0.762704,-0.0950581,7,4
-0.163575,-0.938209,-0.0833209,2,5
-0.157085,-0.899129,-0.0478351,10,6
-0.176381,-1.00854,-0.0178713,6,7
-0.196039,-1.11066,0.0196863,11,8
-0.0925648,-0.523891,-0.122823,15,1
-3.86183,-21.8347,1.16207,1,9
-2.39834,-13.5326,1.2024,47,10
-0.124098,-0.700224,-0.112633,11,3
-2.56668,-14.4677,1.80415,40,11
-0.136062,-0.766169,-0.0955456,7,4
-2.34271,-13.1785,2.12,48,12
-0.157614,-0.884839,-0.0471024,11,6
-0.176386,-0.988229,-0.0175222,3,7
-2.70396,-15.134,4.11936,2,15
-0.198143,-1.10013,0.0195118,16,8
-2.43435,-13.4756,1.19804,31,10
-0.127245,-0.703674,-0.113259,11,3
-2.60231,-14.3767,1.79392,36,11
-0.142982,-0.789128,-0.0984704,6,4
-2.39046,-13.18,2.12156,43,12
-0.163558,-0.900004,-0.0479397,10,6
-0.178402,-0.979738,-0.0173826,1,7
-2.75642,-15.1226,4.11885,4,15
-0.201259,-1.0955,0.019442,13,8
-0.0962199,-0.523232,-0.122823,15,1
-2.32906,-12.628,1.12344,61,10
-0.130541,-0.707088,-0.113884,11,3
-2.65104,-14.3597,1.79294,32,11
-0.138521,-0.749584,-0.0935957,7,4
-0.173391,-0.936445,-0.0833209,2,5
-0.157384,-0.848341,-0.0452183,6,6
-0.184011,-0.990906,-0.017592,1,7
-0.199745,-1.06527,0.0189184,8,8
-0.098137,-0.522876,-0.122823,15,1
-0.211477,-1.12675,0.0600817,1,9
-2.38454,-12.6805,1.12884,49,10
-0.135931,-0.722158,-0.116387,10,3
-7.54825,-40.063,5.00566,33,11
-0.142003,-0.752972,-0.0940831,7,4
-0.176658,-0.935834,-0.0833209,2,5
-0.164056,-0.867411,-0.046265,12,6
-0.185237,-0.978469,-0.0173826,1,7
-0.199526,-1.04496,0.0185694,6,8
-0.0998704,-0.522548,-0.122823,15,1
-0.222163,-1.16132,0.0619658,4,9
-2.52855,-13.1926,1.17521,17,10
-0.133863,-0.698423,-0.112633,11,3
-2.49204,-12.9898,1.62403,22,11
-0.141879,-0.738851,-0.092377,16,4
-0.161104,-0.837386,-0.0746053,4,5
-0.166176,-0.862939,-0.0460556,6,6
-0.183348,-0.950327,-0.0168939,2,7
-0.197825,-1.01678,0.0180807,6,8
-0.22163,-1.13701,0.0607097,11,9
-2.46622,-12.6405,1.12675,14,10
-0.1363,-0.697951,-0.112633,11,3
-2.53774,-12.983,1.62427,41,11
-0.144457,-0.738351,-0.092377,16,4
-0.169956,-0.866274,-0.046265,6,6
-0.193598,-0.976849,0.0173826,5,8
-0.103516,-0.521838,-0.122823,15,1
-0.22482,-1.13231,0.0605004,13,9
-2.5344,-12.7529,1.13756,2,10
-0.134111,-0.674222,-0.108878,12,3
-2.61405,-13.1298,1.64377,41,11
-0.147034,-0.737843,-0.092377,16,4
-2.97985,-14.9398,2.41285,50,12
-0.1675,-0.838256,-0.0447996,7,6
-0.198589,-0.984008,0.0175222,3,8
-0.105337,-0.521474,-0.122823,15,1
-0.229167,-1.13348,0.060605,12,9
-0.154457,-0.763954,-0.151502,9,2
-0.138817,-0.685366,-0.110756,12,3
-2.64686,-13.0564,1.63573,56,11
-0.148819,-0.733434,-0.0918895,16,4
-0.166443,-0.818094,-0.0437529,7,6
-0.197999,-0.963721,0.0171732,1,8
-0.107157,-0.521103,-0.122823,15,1
-0.224667,-1.09159,0.0584069,10,9
-0.157122,-0.763411,-0.151502,9,2
-0.142006,-0.688747,-0.111381,12,3
-2.69964,-13.082,1.64012,30,11
-0.150575,-0.729022,-0.091402,25,4
-10.146,-49.0361,9.73355,12,13
-0.171728,-0.829243,-0.0443809,7,6
-0.167353,-0.806698,-0.0143808,4,7
-0.204636,-0.978683,0.0174524,1,8
-0.108975,-0.520725,-0.122823,15,1
-0.221106,-1.05561,0.0565228,7,9
-0.150126,-0.71674,-0.142344,11,2
-0.237102,-1.131,0.101101,2,10
-0.149277,-0.711447,-0.115136,11,3
-2.74732,-13.0822,1.64134,22,11
-0.153936,-0.732377,-0.0918895,33,4
-3.15158,-14.9813,2.42473,13,12
-10.3062,-48.9485,9.72325,24,13
-0.174622,-0.828638,-0.0443809,7,6
-0.161081,-0.763065,-0.0136129,5,7
-0.208051,-0.977962,0.0174524,1,8
-0.110792,-0.520342,-0.122823,15,1
-0.221459,-1.03921,0.0556855,5,9
-0.141989,-0.666288,-0.132421,13,2
-0.241049,-1.13017,0.101101,8,10
-0.14846,-0.695466,-0.112633,11,3
-2.76933,-12.9619,1.62744,3,11
-0.152755,-0.714364,-0.0896958,35,4
-6.96664,-32.5519,5.27247,21,12
-10.4572,-48.8201,9.70493,23,13
-0.175838,-0.820212,-0.0439622,7,6
-0.164583,-0.766408,-0.0136827,15,7
-0.211463,-0.97723,0.0174524,1,8
-0.223393,-1.03062,0.0552668,5,9
-0.148888,-0.686894,-0.136619,12,2
-0.245415,-1.13126,0.101275,15,10
-2.81709,-12.9638,1.62891,3,11
-0.153139,-0.704128,-0.0884771,18,4
-3.24307,-14.8991,2.41504,11,12
-2.85592,-13.1094,2.60798,19,13
-0.179551,-0.823496,-0.0441716,7,6
-0.159577,-0.730663,-0.0130544,5,7
-0.114422,-0.519556,-0.122823,15,1
-0.225269,-1.02203,0.0548481,4,9
-0.146214,-0.663363,-0.13204,13,2
-0.245929,-1.11484,0.0998805,15,10
-0.150757,-0.682839,-0.110756,12,3
-0.156024,-0.705528,-0.0887209,18,4
-7.15957,-32.3482,5.24744,17,12
-2.89784,-13.0821,2.60454,35,13
-0.177237,-0.799466,-0.0429155,8,6
-0.16993,-0.76524,-0.0136827,10,7
-0.221412,-0.988108,0.0530687,4,9
-0.148529,-0.662849,-0.13204,13,2
-0.243279,-1.08481,0.0972658,11,10
-0.153139,-0.682309,-0.110756,12,3
-0.150649,-0.670117,-0.0843336,10,4
-2.98581,-13.2707,2.15442,14,12
-2.94823,-13.093,2.60874,21,13
-0.176514,-0.783255,-0.0420781,8,6
-2.98028,-13.2138,3.12727,27,14
-0.1726,-0.764642,-0.0136827,15,7
-0.223085,-0.979539,0.05265,2,9
-0.152585,-0.669983,-0.133566,26,2
-0.243965,-1.07036,0.0960456,9,10
-0.158156,-0.693326,-0.112633,11,3
-0.160061,-0.700551,-0.0882334,9,4
-3.0308,-13.2544,2.15348,4,12
-2.99917,-13.1056,2.61332,33,13
-0.181922,-0.794315,-0.0427061,8,6
-0.163643,-0.71336,-0.0127752,11,7
-0.220199,-0.951513,0.0511846,3,9
-0.152267,-0.65797,-0.131277,27,2
-0.23736,-1.02485,0.0920365,5,10
-0.162359,-0.700467,-0.113884,11,3
-0.269144,-1.16025,0.146243,4,11
-0.158915,-0.684518,-0.0862835,9,4
-3.47939,-14.9755,2.43506,2,12
-0.184694,-0.793675,-0.0427061,8,6
-3.05433,-13.1148,3.10882,61,14
-0.172487,-0.740049,-0.0132638,5,7
-0.226719,-0.964348,0.0519173,1,9
-0.151867,-0.645968,-0.128987,27,2
-0.239567,-1.0182,0.0915135,5,10
-0.148504,-0.630675,-0.102621,14,3
-0.275014,-1.16703,0.147218,12,11
-0.172239,-0.73033,-0.0921332,8,4
-0.184706,-0.781364,-0.0420781,8,6
-0.181519,-0.766685,-0.0137525,20,7
-0.123472,-0.51748,-0.122823,15,1
-0.234722,-0.982977,0.052964,1,9
-0.152297,-0.637796,-0.12746,14,2
-0.238952,-0.999918,0.0899447,4,10
-0.273541,-1.1429,0.144293,20,11
-3.11426,-12.9818,2.595,30,13
-0.1865,-0.77683,-0.0418688,8,6
-0.176714,-0.734938,-0.013194,22,7
-0.245682,-1.01321,0.0546387,1,9
-0.156373,-0.644892,-0.128987,13,2
-0.238212,-0.981652,0.0883759,2,10
-0.176212,-0.725602,-0.118264,10,3
-0.276591,-1.13808,0.143806,17,11
-3.16374,-12.988,2.59844,35,13
-0.182588,-0.749008,-0.0404034,9,6
-0.184022,-0.753743,-0.0135431,21,7
-0.126991,-0.516627,-0.122823,15,1
-0.25572,-1.03954,0.0561041,1,9
-0.160387,-0.651996,-0.130513,13,2
-0.236703,-0.96151,0.0866328,3,10
-0.271335,-1.10053,0.139175,10,11
-0.305431,-1.23697,0.2018,1,12
-3.20491,-12.9698,2.59691,40,13
-0.18603,-0.752276,-0.0406127,9,6
-0.177867,-0.71819,-0.0129148,11,7
-0.271928,-1.08902,0.0588256,1,9
-0.156954,-0.628575,-0.125934,14,2
-0.233296,-0.933617,0.0841924,4,10
-0.274211,-1.09573,0.138687,10,11
-0.29534,-1.17841,0.192414,2,12
-0.183793,-0.73225,-0.039566,10,6
-0.175498,-0.698171,-0.0125657,6,7
-0.130595,-0.515728,-0.122823,15,1
-0.275727,-1.08807,0.0588256,1,9
-0.160112,-0.631829,-0.126697,28,2
-0.241941,-0.954041,0.0861099,1,10
-0.159379,-0.628015,-0.102621,14,3
-0.272171,-1.07168,0.135762,8,11
-0.29653,-1.16589,0.190537,5,12
-0.186348,-0.731604,-0.039566,20,6
-0.156642,-0.609641,-0.145318,12,1
-0.279524,-1.0871,0.0588256,1,9
-0.166228,-0.646478,-0.12975,27,2
-0.239312,-0.930036,0.0840181,2,10
-0.16157,-0.627455,-0.102621,14,3
-0.263031,-1.02074,0.129425,4,11
-0.303066,-1.17441,0.192102,11,12
-0.188401,-0.729016,-0.0394613,20,6
-0.192392,-0.743391,-0.0134034,5,7
-0.144023,-0.552518,-0.131821,14,1
-0.163528,-0.626897,-0.125934,29,2
-0.247589,-0.948473,0.0857612,1,10
-0.163759,-0.626887,-0.102621,14,3
-0.26358,-1.00829,0.127963,4,11
-0.304959,-1.16575,0.19085,11,12
-0.190944,-0.728354,-0.0394613,20,6
-0.160789,-0.60856,-0.145318,12,1
-0.160694,-0.607342,-0.122118,30,2
-0.261097,-0.986123,0.0892475,1,10
-0.165837,-0.626341,-0.102621,14,3
-0.262855,-0.992061,0.126013,4,11
-0.297375,-1.12077,0.183654,8,12
-0.19541,-0.735438,-0.03988,20,6
-0.18813,-0.702112,-0.167813,9,1
-0.26484,-0.987706,0.053592,1,9
-0.170842,-0.637147,-0.128224,14,2
-0.264366,-0.985252,0.0892475,1,10
-0.168023,-0.625758,-0.102621,14,3
-0.266831,-0.993054,0.126257,4,11
-0.29102,-1.08157,0.177397,7,12
-0.198495,-0.73668,-0.0399847,10,6
-0.139486,-0.513395,-0.122823,15,1
-0.268286,-0.986776,0.053592,1,9
-0.173176,-0.636516,-0.128224,14,2
-0.267975,-0.984276,0.0892475,1,10
-0.170315,-0.625138,-0.102621,14,3
-0.262469,-0.963387,0.122601,2,11
-0.292714,-1.07292,0.176145,6,12
-0.323885,-1.18555,0.238893,1,13
-0.196981,-0.720535,-0.0391473,10,6
-0.171743,-0.62266,-0.125552,14,2
-0.172496,-0.62454,-0.102621,14,3
-0.261768,-0.947112,0.120651,2,11
-0.291376,-1.05281,0.173017,5,12
-0.32907,-1.1882,0.239656,5,13
-0.192027,-0.692897,-0.0376819,11,6
-0.171801,-0.614493,-0.124026,14,2
-0.174675,-0.623934,-0.102621,14,3
-0.272569,-0.972953,0.124063,2,11
-0.290247,-1.03467,0.170201,5,12
-0.332685,-1.18515,0.239275,12,13
-0.179321,-0.638383,-0.0347511,13,6
