x, y, z, intensity, ring
-0.227755,-0.606575,-0.102621,14,3
-0.228702,-0.607485,-0.0340184,27,6
-0.331096,-0.879003,0.216853,1,14
-0.359884,-0.954421,0.273313,2,15
-0.188485,-0.497498,-0.122823,15,1
-0.206677,-0.545229,-0.113341,16,2
-0.239343,-0.629084,-0.0352744,26,6
-0.339709,-0.892412,0.220452,1,14
-0.361672,-0.949612,0.272278,2,15
-0.190134,-0.49687,-0.122823,15,1
-0.228244,-0.595838,-0.124026,14,2
-0.23713,-0.617101,-0.0346464,26,6
-0.376233,-0.97859,0.242047,1,14
-0.356658,-0.926708,0.266066,2,15
-0.191867,-0.496203,-0.122823,15,1
-0.234945,-0.605098,-0.0340184,27,6
-0.352889,-0.907453,0.26089,2,15
-0.193598,-0.49553,-0.122823,15,1
-0.239244,-0.609852,-0.0343324,13,6
-0.353935,-0.900821,0.259337,1,15
-0.23622,-0.596016,-0.0335997,28,6
-0.354939,-0.894193,0.257784,2,15
-0.243602,-0.608125,-0.0343324,27,6
-0.351587,-0.876811,0.253125,2,15
-0.232987,-0.575796,-0.032553,29,6
-0.351896,-0.868355,0.251054,2,15
-0.244819,-0.599014,-0.0339137,13,6
-0.351266,-0.858182,0.248466,2,15
-0.235477,-0.570463,-0.0323436,29,6
-0.357799,-0.86594,0.251054,1,15
-0.247354,-0.593646,-0.0337044,28,6
-0.363643,-0.87188,0.253125,1,15
-0.253193,-0.602028,-0.0342277,27,6
-0.386181,-0.916896,0.266584,1,15
-0.252852,-0.596549,-0.102621,14,3
-0.253836,-0.59742,-0.0340184,27,6
-0.407525,-0.958208,0.279007,1,15
-0.234724,-0.548446,-0.0944864,16,3
-0.247258,-0.57634,-0.032867,14,6
-0.559561,-1.30367,0.327529,1,14
-0.241241,-0.558545,-0.0963636,15,3
-0.249167,-0.575517,-0.032867,29,6
-0.587118,-1.35545,0.341026,1,14
-0.235294,-0.539593,-0.0932349,16,3
-0.243976,-0.558173,-0.0319249,30,6
-0.592627,-1.35518,0.341476,1,14
-0.260949,-0.593052,-0.102621,14,3
-0.253079,-0.573807,-0.032867,14,6
-0.602625,-1.36569,0.344625,1,14
-0.263018,-0.592137,-0.102621,14,3
-0.263204,-0.591166,-0.0339137,13,6
-0.605802,-1.36002,0.343725,1,14
-0.254524,-0.566606,-0.032553,29,6
-0.608711,-1.35444,0.342825,1,14
-0.314895,-0.700347,-0.0134034,5,7
-0.256599,-0.565669,-0.032553,29,6
-0.61045,-1.34511,0.341026,1,14
-0.31746,-0.699188,-0.0134034,5,7
-0.260235,-0.568402,-0.0327623,29,6
-0.319899,-0.698075,-0.0134034,5,7
-0.262217,-0.56749,-0.0327623,29,6
-0.322333,-0.696954,-0.0134034,5,7
-0.251535,-0.539419,-0.0311922,31,6
-0.252566,-0.536731,-0.0310876,31,6
-0.344232,-0.730869,-0.0141015,4,7
-0.253582,-0.534042,-0.0309829,31,6
-0.329614,-0.693541,-0.0134034,5,7
-0.251301,-0.526154,-0.113341,16,2
-0.253718,-0.529551,-0.0307735,31,6
-0.319928,-0.667143,-0.0129148,5,7
-0.253136,-0.525273,-0.113341,16,2
-0.254696,-0.526864,-0.0306689,31,6
-0.334448,-0.691223,-0.0134034,5,7
-0.254968,-0.524387,-0.113341,16,2
-0.267915,-0.549308,-0.0320296,30,6
-0.329723,-0.675733,-0.0131242,5,7
-0.270617,-0.550209,-0.0321343,29,6
-0.339145,-0.68893,-0.0134034,5,7
-0.260108,-0.524213,-0.0306689,31,6
-0.260057,-0.519775,-0.0304595,32,6
-0.343827,-0.686606,-0.0134034,5,7
-0.269969,-0.534912,-0.0314016,30,6
-0.346221,-0.685402,-0.0134034,5,7
-0.758606,-1.49078,0.325139,1,13
-0.273647,-0.537526,-0.0316109,15,6
-0.242353,-0.473599,-0.122823,15,1
-0.753944,-1.46891,0.320941,2,13
-0.275521,-0.536568,-0.0316109,15,6
-0.244004,-0.47275,-0.122823,15,1
-0.760872,-1.46975,0.321704,3,13
-0.270045,-0.521414,-0.0307735,15,6
-0.245653,-0.471895,-0.122823,15,1
-0.778719,-1.49145,0.327047,3,13
-0.277411,-0.53109,-0.0314016,15,6
-0.247217,-0.471078,-0.122823,15,1
-0.788232,-1.49755,0.328955,2,13
-0.281032,-0.533702,-0.0316109,15,6
-0.248859,-0.470212,-0.122823,15,1
-0.813706,-1.53294,0.33735,1,13
-0.290387,-0.546829,-0.0324483,14,6
-0.250499,-0.469341,-0.122823,15,1
-0.313038,-0.584548,-0.0347511,13,6
-0.252136,-0.468463,-0.122823,15,1
-0.315076,-0.583451,-0.0347511,13,6
-0.25377,-0.46758,-0.122823,15,1
-0.27805,-0.508501,-0.155291,12,0
-0.279823,-0.507527,-0.155291,12,0
-0.281593,-0.506547,-0.155291,12,0
-0.28336,-0.505561,-0.155291,12,0
-0.288895,-0.506487,-0.113341,16,2
-0.28855,-0.502616,-0.155291,12,0
-0.290573,-0.505527,-0.113341,16,2
-0.927728,-1.61077,0.29441,1,12
-0.292336,-0.504509,-0.113341,16,2
-0.931362,-1.6041,0.293784,2,12
-0.292052,-0.50059,-0.155291,12,0
-0.294095,-0.503486,-0.113341,16,2
-0.939949,-1.60595,0.294723,3,12
-0.295851,-0.502456,-0.113341,16,2
-0.947556,-1.60607,0.295348,2,12
-0.277562,-0.467655,-0.105708,18,2
-0.964264,-1.62143,0.29879,1,12
-0.299352,-0.500378,-0.113341,16,2
-0.299013,-0.496463,-0.155291,12,0
-0.301096,-0.49933,-0.113341,16,2
-0.302838,-0.498276,-0.113341,16,2
-0.304488,-0.497269,-0.113341,16,2
-1.0349,-1.67827,0.0344161,4,8
-1.03003,-1.66906,0.102788,1,9
-0.306222,-0.496203,-0.113341,16,2
-1.04709,-1.68483,0.0346256,7,8
-1.06327,-1.70955,0.105509,2,9
-0.307952,-0.495131,-0.113341,16,2
-1.04978,-1.67609,0.0345209,5,8
-1.06924,-1.70583,0.105509,5,9
-0.295081,-0.470765,-0.107998,17,2
-1.07116,-1.70824,0.176403,1,10
-1.08893,-1.73524,0.251538,1,11
-1.08871,-1.72483,0.0356029,1,8
-1.08158,-1.71222,0.106137,3,9
-0.286238,-0.453134,-0.104182,18,2
-1.05796,-1.67417,0.173266,4,10
-1.05254,-1.66432,0.241789,1,11
-0.31312,-0.49188,-0.113341,16,2
-1.08199,-1.69904,0.176229,2,10
-0.289394,-0.451124,-0.104182,18,2
-0.295151,-0.456758,-0.105708,18,2
-0.318084,-0.488685,-0.113341,16,2
-0.319873,-0.487516,-0.113341,16,2
-1.16978,-1.76936,0.111162,1,9
-0.321572,-0.486396,-0.113341,16,2
-0.321142,-0.482444,-0.155291,12,0
-1.12059,-1.68215,0.105928,1,9
-0.323353,-0.485214,-0.113341,16,2
-1.11329,-1.66113,0.0349048,1,8
-1.11474,-1.66204,0.104881,1,9
-0.324791,-0.484253,-0.113341,16,2
-1.12341,-1.67434,0.176403,1,10
-1.04206,-1.549,0.431006,1,14
-1.11908,-1.65724,0.0349048,1,8
-1.14066,-1.68792,0.106765,1,9
-0.31117,-0.460288,-0.107998,17,2
-1.12954,-1.67021,0.176403,1,10
-1.04773,-1.54517,0.431006,1,14
-1.16708,-1.71345,0.108649,1,9
-0.328248,-0.481916,-0.113341,16,2
-1.13536,-1.66626,0.176403,1,10
-1.05312,-1.5415,0.431006,1,14
-1.20018,-1.74888,0.111162,1,9
-0.330012,-0.48071,-0.113341,16,2
-1.14146,-1.66208,0.176403,1,10
-1.05876,-1.53763,0.431006,1,14
-0.291484,-0.421427,-0.0996023,19,2
-1.0372,-1.49568,0.420209,1,14
-0.306345,-0.43979,-0.104182,18,2
-1.06894,-1.53058,0.431006,1,14
-0.292017,-0.41627,-0.0988391,19,2
-1.07427,-1.52684,0.431006,1,14
-0.313864,-0.444107,-0.105708,18,2
-0.335891,-0.472295,-0.155291,12,0
-0.315412,-0.443009,-0.105708,18,2
-1.19754,-1.67085,0.0358821,3,8
-0.307803,-0.429143,-0.102655,18,2
-1.2241,-1.70101,-0.0365802,1,7
-1.21507,-1.68288,0.0362312,6,8
-1.24225,-1.71926,0.111162,1,9
-0.295501,-0.40897,-0.0980758,19,2
-1.2136,-1.67406,-0.0360916,1,7
-1.22682,-1.68671,0.0364057,7,8
-0.343223,-0.471368,-0.113341,16,2
-1.04254,-1.42758,-0.0308559,1,7
-1.23535,-1.68543,0.0364755,4,8
-0.321643,-0.438506,-0.105708,18,2
-1.00249,-1.36272,-0.0295295,1,7
-0.346424,-0.469021,-0.113341,16,2
-0.989144,-1.33529,-0.0290059,4,7
-1.32543,-1.78209,0.116395,1,9
-0.347977,-0.467869,-0.113341,16,2
-0.985428,-1.32061,-0.0287616,6,7
-1.32206,-1.76467,0.115558,1,9
-0.319077,-0.425744,-0.103418,18,2
-1.32902,-1.77266,0.193834,1,10
-0.990032,-1.31716,-0.0287616,6,7
-1.33093,-1.763,0.115767,1,9
-0.351317,-0.465367,-0.113341,16,2
-1.3352,-1.76801,0.193834,1,10
-0.998475,-1.31831,-0.0288663,5,7
-1.33708,-1.75834,0.115767,1,9
-0.352939,-0.464138,-0.113341,16,2
-1.32206,-1.73797,0.191045,1,10
-1.36111,-1.788,0.275912,1,11
-1.01035,-1.32435,-0.0290757,5,7
-1.3429,-1.7539,0.115767,1,9
-0.354557,-0.462903,-0.113341,16,2
-1.33539,-1.74283,0.192091,1,10
-1.36734,-1.78324,0.275912,1,11
-1.00742,-1.31148,-0.0288663,5,7
-1.33682,-1.73339,0.11472,1,9
-0.35617,-0.461663,-0.113341,16,2
-1.33903,-1.735,0.191743,1,10
-1.34898,-1.74727,0.271037,1,11
-1.37077,-1.7742,0.355106,1,12
-0.99976,-1.29214,-0.0285172,5,7
-1.42372,-1.83281,0.121629,1,9
-0.357699,-0.460479,-0.113341,16,2
-1.35945,-1.74943,0.193834,1,10
-1.36482,-1.75509,0.272987,1,11
-1.35269,-1.73823,0.348849,1,12
-1.01656,-1.30441,-0.0288663,6,7
-0.359305,-0.459228,-0.113341,16,2
-1.36554,-1.74468,0.193834,1,10
-1.36115,-1.73781,0.271037,1,11
-1.37824,-1.75837,0.353855,1,12
-1.01616,-1.29457,-0.0287267,5,7
-1.43648,-1.82283,0.121629,1,9
-0.360905,-0.457971,-0.113341,16,2
-1.37163,-1.7399,0.193834,1,10
-1.36721,-1.73305,0.271037,1,11
-1.38193,-1.75045,0.353229,1,12
-1.02316,-1.29415,-0.0287965,5,7
-1.44284,-1.8178,0.121629,1,9
-0.338091,-0.425953,-0.105708,18,2
-1.37769,-1.7351,0.193834,1,10
-1.39795,-1.75935,0.275912,1,11
-1.38311,-1.73943,0.351978,1,12
-1.38837,-1.74542,0.433518,1,13
-1.02269,-1.28431,-0.0286569,5,7
-1.31079,-1.64553,0.563708,1,15
-1.07439,-1.34539,0.030053,1,8
-1.44886,-1.81301,0.121629,1,9
-0.364014,-0.455504,-0.113341,16,2
-1.38887,-1.73483,0.351978,1,12
-1.37451,-1.71629,0.427412,1,13
-1.02444,-1.27779,-0.028587,5,7
-1.05652,-1.31358,0.0294248,1,8
-1.45518,-1.80794,0.121629,1,9
-1.38977,-1.72544,0.193834,1,10
-1.40732,-1.74535,0.355106,1,12
-1.38819,-1.7204,0.429702,1,13
-1.4177,-1.75572,0.520987,1,14
-1.02889,-1.27421,-0.028587,5,7
-1.02734,-1.26775,0.0284823,2,8
-1.46179,-1.80259,0.121629,1,9
-0.367264,-0.452887,-0.113341,16,2
-1.40125,-1.72485,0.351978,1,12
-1.39666,-1.71859,0.430465,1,13
-1.41152,-1.73564,0.516488,1,14
-1.03482,-1.27198,-0.0286219,7,7
-1.03176,-1.26416,0.0284823,4,8
-1.48829,-1.82223,0.123304,1,9
-0.368843,-0.451602,-0.113341,16,2
-1.46481,-1.79284,0.20255,1,10
-1.43228,-1.75053,0.358235,1,12
-1.42504,-1.74106,0.437334,1,13
-1.4077,-1.71864,0.512888,1,14
-1.04432,-1.27455,-0.0287616,7,7
-1.03997,-1.26518,0.028587,5,8
-1.48672,-1.80803,0.122675,1,9
-1.47106,-1.78772,0.20255,1,10
-1.42552,-1.73052,0.355106,1,12
-1.42361,-1.72698,0.435045,1,13
-1.41121,-1.71071,0.511989,1,14
-1.04727,-1.26954,-0.0287267,9,7
-1.04544,-1.26327,0.0286219,5,8
-1.50066,-1.81206,0.123304,1,9
-0.371987,-0.449016,-0.113341,16,2
-1.44932,-1.74882,0.198715,1,10
-1.40927,-1.69808,0.428939,1,13
-1.41189,-1.70003,0.510189,1,14
-1.04403,-1.25664,-0.0285172,10,7
-1.04728,-1.25654,0.0285521,6,8
-1.48651,-1.78227,0.121629,1,9
-1.47554,-1.76848,0.201504,1,10
-1.4911,-1.78587,0.285662,1,11
-1.46796,-1.75691,0.362615,1,12
-1.41015,-1.68712,0.427412,1,13
-1.42282,-1.70107,0.511989,1,14
-1.05354,-1.25913,-0.0286569,9,7
-1.41232,-1.68732,0.58959,1,15
-1.0478,-1.24828,0.0284474,7,8
-1.49272,-1.77707,0.121629,1,9
-0.375113,-0.446408,-0.113341,16,2
-1.45893,-1.73561,0.198366,1,10
-1.52033,-1.808,0.290049,1,11
-1.44162,-1.71198,0.435045,1,13
-1.42402,-1.68988,0.510189,1,14
-1.06437,-1.26309,-0.0288314,11,7
-1.4182,-1.68237,0.58959,1,15
-1.05754,-1.25054,0.028587,5,8
-1.48086,-1.7505,0.120163,1,9
-1.47271,-1.73963,0.199412,1,10
-1.49101,-1.76001,0.283224,1,11
-1.54405,-1.82197,0.378259,1,12
-1.4679,-1.73089,0.44115,1,13
-1.42991,-1.6849,0.510189,1,14
-1.06489,-1.25479,-0.0287267,12,7
-1.42406,-1.67741,0.58959,1,15
-0.375699,-0.441288,-0.155291,12,0
-1.06168,-1.24702,0.028587,5,8
-1.47141,-1.72707,0.118907,1,9
-1.4736,-1.72841,0.198715,1,10
-1.50199,-1.7611,0.284199,1,11
-1.5504,-1.81657,0.378259,1,12
-1.47363,-1.72602,0.44115,1,13
-1.44055,-1.68608,0.511989,1,14
-1.06927,-1.25106,-0.0287267,12,7
-1.42991,-1.67243,0.58959,1,15
-1.07774,-1.25697,0.0289012,5,8
-1.48004,-1.72496,0.119117,1,9
-0.379689,-0.442522,-0.113341,16,2
-1.47932,-1.72352,0.198715,1,10
-1.48485,-1.72874,0.279812,1,11
-1.55673,-1.81114,0.378259,1,12
-1.47965,-1.72086,0.44115,1,13
-1.43372,-1.66627,0.50749,1,14
-1.0658,-1.23823,-0.0285172,15,7
-1.43574,-1.66743,0.58959,1,15
-1.08081,-1.25169,0.0288663,5,8
-1.48866,-1.7228,0.119326,1,9
-0.381232,-0.441194,-0.113341,16,2
-1.4723,-1.70327,0.196972,1,10
-1.52205,-1.75958,0.285662,1,11
-1.53718,-1.77583,0.372001,1,12
-1.43698,-1.6583,0.50659,1,14
-1.0688,-1.23299,-0.0284823,14,7
-1.44155,-1.66241,0.58959,1,15
-1.07861,-1.24037,0.0286918,9,8
-0.349168,-0.401388,-0.122823,15,1
-1.50747,-1.73293,0.120373,2,9
-1.48347,-1.70413,0.197669,1,10
-1.50731,-1.73031,0.281762,1,11
-1.55604,-1.78561,0.37513,1,12
-1.49163,-1.71049,0.44115,1,13
-1.45557,-1.66796,0.511089,1,14
-1.43943,-1.64889,0.586484,1,15
-1.09589,-1.25183,0.0290408,12,8
-0.350497,-0.400228,-0.122823,15,1
-1.50298,-1.71564,0.119535,1,9
-0.384303,-0.438522,-0.113341,16,2
-1.50254,-1.71393,0.199412,1,10
-1.51304,-1.7253,0.281762,1,11
-1.56227,-1.78017,0.37513,1,12
-1.45595,-1.65727,0.509289,1,14
-1.44518,-1.64385,0.586484,1,15
-1.11083,-1.25999,0.02932,33,8
-0.333846,-0.378541,-0.116525,16,1
-1.46111,-1.65672,0.115767,1,9
-1.49504,-1.694,0.197669,1,10
-1.5138,-1.71405,0.280787,1,11
-1.54985,-1.75425,0.37075,1,12
-1.45398,-1.64342,0.50659,1,14
-1.45062,-1.63905,0.586484,1,15
-0.384706,-0.433458,-0.155291,12,0
-1.11501,-1.2563,0.02932,100,8
-1.40852,-1.5859,0.111162,1,9
-1.51153,-1.70068,0.199064,1,10
-1.51156,-1.70012,0.279325,1,11
-1.55334,-1.74588,0.370124,1,12
-1.50089,-1.68516,0.520987,1,14
-1.44862,-1.62533,0.583378,1,15
-0.328621,-0.367543,-0.113825,16,1
-1.34881,-1.50803,0.106033,2,9
-1.50653,-1.68378,0.197669,1,10
-1.54397,-1.72441,0.284199,1,11
-1.52779,-1.70514,0.362615,1,12
-1.50677,-1.67991,0.520987,1,14
-1.10176,-1.22793,-0.0287965,5,7
-1.45429,-1.62026,0.583378,1,15
-1.11974,-1.24403,0.0292153,182,8
-1.36208,-1.51222,0.106661,2,9
-1.51002,-1.67529,0.197321,1,10
-1.53935,-1.70722,0.282249,1,11
-1.54961,-1.7174,0.36637,1,12
-1.57359,-1.74275,0.456415,1,13
-1.10201,-1.21962,-0.0286918,6,7
-1.46771,-1.62377,0.586484,1,15
-0.389224,-0.429405,-0.155291,12,0
-1.12832,-1.24436,0.02932,184,8
-1.37004,-1.51041,0.10687,4,9
-1.48908,-1.6405,0.193834,1,10
-1.53759,-1.69275,0.280787,1,11
-1.55825,-1.7149,0.366995,2,12
-1.5823,-1.74015,0.457178,1,13
-1.11299,-1.22316,-0.0288663,9,7
-1.46296,-1.60721,0.582343,1,15
-0.343834,-0.376679,-0.136656,14,0
-1.14053,-1.24948,0.0295295,188,8
-1.36857,-1.49825,0.106347,3,9
-1.4948,-1.63529,0.193834,1,10
-1.54319,-1.68764,0.280787,1,11
-1.55356,-1.69779,0.364492,2,12
-1.56686,-1.71172,0.451072,1,13
-1.11591,-1.2178,-0.0288314,11,7
-1.47901,-1.61349,0.586484,1,15
-1.15165,-1.25285,0.029704,190,8
-0.333721,-0.362919,-0.113825,16,1
-1.38055,-1.50081,0.10687,4,9
-1.48942,-1.6186,0.19244,1,10
-1.55714,-1.69101,0.282249,1,11
-1.56751,-1.70107,0.36637,1,12
-1.58347,-1.71779,0.454125,1,13
-0.668564,-0.724515,-0.0172081,21,7
-1.50035,-1.62535,0.592696,1,15
-1.15466,-1.24735,0.0296691,191,8
-1.38714,-1.49745,0.106975,4,9
-1.48451,-1.60144,0.191045,1,10
-1.57383,-1.69721,0.284199,1,11
-1.56269,-1.68401,0.363867,1,12
-1.58975,-1.71198,0.454125,1,13
-1.11893,-1.20412,-0.0286918,13,7
-1.49813,-1.61161,0.58959,1,15
-1.15377,-1.23726,0.0295295,191,8
-1.39125,-1.49089,0.10687,4,9
-1.49281,-1.59916,0.191394,1,10
-1.53397,-1.6421,0.275912,1,11
-1.57964,-1.68981,0.36637,2,12
-1.5689,-1.67774,0.446493,1,13
-1.47761,-1.57791,0.579237,1,15
-0.330611,-0.352065,-0.12941,15,0
-1.15534,-1.23031,0.0294597,189,8
-1.40055,-1.49039,0.107184,4,9
-1.51777,-1.614,0.193834,1,10
-1.52609,-1.62228,0.273475,1,11
-1.60178,-1.70155,0.370124,1,12
-1.59119,-1.68912,0.451072,1,13
-1.50167,-1.59242,0.586484,1,15
-1.16469,-1.23249,0.0295993,185,8
-0.338693,-0.358283,-0.113825,16,1
-1.39562,-1.47583,0.106451,4,9
-0.400631,-0.423656,-0.113341,16,2
-1.50064,-1.58633,0.191045,1,10
-1.50934,-1.59441,0.269575,1,11
-1.59625,-1.68504,0.367621,1,12
-1.58809,-1.67584,0.448783,1,13
-1.61984,-1.70815,0.543482,1,14
-1.504,-1.58489,0.585449,1,15
-1.39388,-1.46372,0.105928,4,9
-1.51469,-1.58947,0.192091,1,10
-1.51764,-1.59201,0.270062,1,11
-1.55849,-1.63372,0.357609,1,12
-1.60236,-1.67853,0.451072,1,13
-1.59917,-1.67402,0.534484,1,14
-1.5202,-1.5908,0.58959,1,15
-1.402,-1.46148,0.106137,4,9
-1.50644,-1.5698,0.190348,1,10
-1.55646,-1.6208,0.275912,1,11
-1.55625,-1.61945,0.355732,1,12
-1.60005,-1.66444,0.448783,1,13
-1.60501,-1.66843,0.534484,1,14
-1.50191,-1.56017,0.580272,1,15
-1.16942,-1.21139,0.0293899,6,8
-0.342488,-0.354657,-0.113825,16,1
-1.41125,-1.46089,0.106451,4,9
-1.52852,-1.58172,0.19244,1,10
-1.54003,-1.59252,0.272012,1,11
-1.55091,-1.60265,0.353229,1,12
-1.57854,-1.63063,0.44115,1,13
-1.63794,-1.69081,0.543482,1,14
-1.50869,-1.5563,0.58079,1,15
-1.17085,-1.20443,0.02932,5,8
-1.40634,-1.44617,0.105719,3,9
-1.53403,-1.57638,0.19244,1,10
-1.52065,-1.56154,0.267625,1,11
-1.55897,-1.60033,0.353855,2,12
-1.58422,-1.62511,0.44115,1,13
-1.6275,-1.66834,0.538083,1,14
-1.53543,-1.57341,0.589072,1,15
-1.18323,-1.20912,0.0295295,6,8
-1.40999,-1.43983,0.105614,4,9
-1.55626,-1.58809,0.194532,1,10
-1.57307,-1.60469,0.275912,1,11
-1.56455,-1.59488,0.353855,1,12
-1.5896,-1.61985,0.44115,1,13
-1.61664,-1.64625,0.532684,1,14
-1.54091,-1.56804,0.589072,1,15
-1.19025,-1.20783,0.0295993,5,8
-0.373484,-0.378867,-0.122823,15,1
-1.42201,-1.44201,0.106137,4,9
-1.56711,-1.5886,0.195229,1,10
-1.58982,-1.61049,0.277862,1,11
-1.56177,-1.58097,0.351978,1,12
-1.59524,-1.61429,0.44115,1,13
-1.61964,-1.63783,0.531784,1,14
-1.18601,-1.19515,0.0293899,5,8
-0.347346,-0.349901,-0.113825,16,1
-1.42563,-1.43562,0.106033,4,9
-1.57827,-1.58877,0.195926,1,10
-1.55904,-1.56832,0.271525,1,11
-1.5645,-1.57271,0.351352,1,12
-1.58425,-1.59201,0.436571,1,13
-1.60884,-1.6156,0.526385,1,14
-1.193,-1.19383,0.0294597,3,8
-1.43745,-1.43795,0.106556,4,9
-1.60071,-1.60015,0.198018,1,10
-1.57294,-1.57129,0.272987,1,11
-1.58089,-1.57868,0.353855,1,12
-1.58424,-1.58092,0.435045,1,13
-1.62247,-1.61851,0.529085,1,14
-1.19837,-1.19128,0.0294946,3,8
-0.349719,-0.347529,-0.113825,16,1
-1.42804,-1.41909,0.105509,3,9
-1.5947,-1.58361,0.196623,1,10
-1.59505,-1.58284,0.275912,1,11
-1.58892,-1.57621,0.354481,1,12
-1.59784,-1.58396,0.437334,1,13
-1.63059,-1.61586,0.529985,1,14
-1.21085,-1.19573,0.029704,2,8
-0.359191,-0.354581,-0.116525,16,1
-1.42445,-1.40568,0.104881,4,9
-1.62831,-1.60629,0.20011,1,10
-1.57767,-1.55525,0.272012,1,11
-1.60285,-1.57897,0.356358,1,12
-1.61707,-1.59242,0.44115,1,13
-1.62511,-1.59923,0.526385,1,14
-1.21359,-1.19009,0.0296691,1,8
-0.352077,-0.34514,-0.113825,16,1
-1.43648,-1.40769,0.105405,4,9
-1.61114,-1.57829,0.197321,1,10
-1.60578,-1.57195,0.275912,1,11
-1.59988,-1.56508,0.354481,1,12
-1.61139,-1.57579,0.438097,1,13
-1.63069,-1.59354,0.526385,1,14
-1.20054,-1.16911,0.0292502,2,8
-0.381207,-0.371096,-0.122823,15,1
-1.44115,-1.40292,0.105405,4,9
-1.61663,-1.57266,0.197321,1,10
-1.63403,-1.58847,0.279812,1,11
-1.5909,-1.546,0.351352,1,12
-1.62815,-1.5811,0.44115,1,13
-1.65022,-1.60141,0.530885,1,14
-1.1886,-1.14983,0.0288663,4,8
-0.382435,-0.36983,-0.122823,15,1
-1.44747,-1.39927,0.105509,2,9
-1.61645,-1.56098,0.275912,1,11
-1.60481,-1.54867,0.353229,1,12
-1.60512,-1.54843,0.433518,1,13
-1.64711,-1.58782,0.528185,1,14
-1.18684,-1.14013,0.0287267,4,8
-0.383724,-0.368492,-0.122823,15,1
-1.3988,-1.34328,0.101636,2,9
-1.62189,-1.55533,0.275912,1,11
-1.6185,-1.55154,0.355106,1,12
-1.6247,-1.5564,0.437334,1,13
-1.64982,-1.57936,0.527285,1,14
-1.1964,-1.14171,0.0288663,4,8
-0.384943,-0.367218,-0.122823,15,1
-1.2257,-1.16885,0.0887618,1,9
-1.18273,-1.12709,0.142935,2,10
-1.64428,-1.56638,0.278837,1,11
-1.64107,-1.56222,0.358861,1,12
-1.60994,-1.53205,0.431992,1,13
-1.63811,-1.55777,0.521886,1,14
-1.73368,-1.6475,0.640836,1,15
-1.21344,-1.14991,0.0291804,1,8
-0.386223,-0.365872,-0.122823,15,1
-1.20657,-1.14259,0.087087,3,9
-1.19804,-1.13411,0.14433,4,10
-1.66128,-1.57154,0.280787,1,11
-1.66374,-1.57277,0.362615,1,12
-1.61528,-1.52642,0.431992,1,13
-1.64637,-1.55472,0.522786,1,14
-1.23784,-1.16485,0.0296691,1,8
-0.387498,-0.364521,-0.122823,15,1
-1.21346,-1.14111,0.0872964,3,9
-1.19183,-1.12037,0.14311,4,10
-1.66096,-1.56029,0.279812,1,11
-1.66922,-1.56695,0.362615,1,12
-1.63777,-1.5369,0.436571,1,13
-1.65747,-1.55429,0.524586,1,14
-1.74514,-1.63536,0.640836,1,15
-1.16884,-1.09226,0.0279239,1,8
-0.388768,-0.363167,-0.122823,15,1
-1.1895,-1.11117,0.0853076,2,9
-1.19136,-1.11213,0.142587,4,10
-1.64318,-1.53282,0.275912,1,11
-1.69463,-1.58027,0.366995,1,12
-1.646,-1.53385,0.437334,1,13
-1.66003,-1.54584,0.523686,1,14
-1.66288,-1.54795,0.608742,1,15
-1.18125,-1.09654,0.0281333,1,8
-0.38997,-0.361876,-0.122823,15,1
-1.18898,-1.10294,0.0849936,2,9
-1.19523,-1.10796,0.142587,4,10
-1.71463,-1.58777,0.370124,1,12
-1.65396,-1.53105,0.438097,1,13
-1.65657,-1.53239,0.520987,1,14
-1.70658,-1.57754,0.622719,1,15
-1.17037,-1.07885,0.0277842,1,8
-0.391231,-0.360512,-0.122823,15,1
-1.19136,-1.09743,0.0848889,2,9
-1.19304,-1.09859,0.14189,2,10
-1.75797,-1.61654,0.378259,1,12
-1.65617,-1.52132,0.519187,1,14
-1.69215,-1.55329,0.615472,1,15
-1.1756,-1.07611,0.0278191,2,8
-0.392487,-0.359144,-0.122823,15,1
-1.1996,-1.09731,0.0852029,3,9
-1.21176,-1.10766,0.143633,1,10
-1.21924,-1.1141,0.202791,1,11
-1.7636,-1.61039,0.378259,1,12
-1.74899,-1.59593,0.460231,1,13
-1.68189,-1.53363,0.525486,1,14
-1.71469,-1.56299,0.621683,1,15
-1.17806,-1.07045,0.0277842,3,8
-0.393801,-0.357703,-0.122823,15,1
-1.1977,-1.08753,0.0847843,3,9
-1.18907,-1.07932,0.140495,1,10
-1.25272,-1.1363,0.207665,1,11
-1.76949,-1.60391,0.378259,1,12
-1.75455,-1.58981,0.460231,1,13
-1.69012,-1.53036,0.526385,1,14
-1.71182,-1.54892,0.618578,1,15
-1.16546,-1.0516,0.0274003,4,8
-0.395047,-0.356326,-0.122823,15,1
-1.21039,-1.09137,0.0854123,4,9
-1.2019,-1.08295,0.141541,1,10
-1.26553,-1.13989,0.209128,1,11
-1.72181,-1.5476,0.534484,1,14
-1.68847,-1.51711,0.608225,1,15
-1.16727,-1.04659,0.0273654,4,8
-0.396164,-0.355084,-0.122823,15,1
-1.20489,-1.07957,0.0847843,4,9
-1.17542,-1.0528,0.138055,1,10
-1.71341,-1.52981,0.615472,1,15
-1.18734,-1.05714,0.0277493,3,8
-0.397401,-0.353699,-0.122823,15,1
-1.20268,-1.07004,0.0843656,4,9
-1.20905,-1.07496,0.141541,1,10
-1.71006,-1.51613,0.612366,1,15
-1.1987,-1.0594,0.0279239,2,8
-0.398695,-0.35224,-0.122823,15,1
-1.2036,-1.06298,0.0841562,5,9
-1.19487,-1.05491,0.139449,1,10
-1.2385,-1.09265,0.202791,1,11
-1.70691,-1.5022,0.60926,1,15
-1.19337,-1.0473,0.0277144,1,8
-1.2103,-1.06141,0.0843656,5,9
-1.17907,-1.03366,0.137183,2,10
-1.24231,-1.08832,0.202791,1,11
-1.71505,-1.49877,0.610295,1,15
-1.21511,-1.05889,0.0281333,1,8
-1.21683,-1.06001,0.0845749,5,9
-1.17666,-1.0243,0.136486,2,10
-1.2461,-1.08398,0.202791,1,11
-1.71417,-1.48801,0.608225,1,15
-1.21862,-1.05486,0.0281333,1,8
-1.22656,-1.06099,0.0849936,5,9
-1.18928,-1.028,0.137532,4,10
-1.24969,-1.07984,0.202791,1,11
-1.81301,-1.56274,0.641354,1,15
-1.21319,-1.04278,0.0279239,1,8
-1.21796,-1.0465,0.0841562,5,9
-1.17907,-1.01237,0.135963,3,10
-1.25345,-1.07547,0.202791,1,11
-1.27139,-1.08549,0.0291804,1,8
-1.23376,-1.05261,0.0849936,5,9
-1.17957,-1.00567,0.135614,4,10
-1.25701,-1.07131,0.202791,1,11
-2.87391,-2.44762,0.597893,2,12
-1.23743,-1.0483,0.0849936,4,9
-1.19202,-1.00948,0.13666,4,10
-1.23649,-1.0464,0.198891,1,11
-2.87037,-2.42737,0.59539,7,12
-2.5788,-2.18003,0.656383,1,13
-2.31933,-1.95929,0.700947,1,14
-1.24413,-1.04655,0.0852029,4,9
-1.19553,-1.00531,0.13666,4,10
-1.26445,-1.06251,0.202791,1,11
-2.87278,-2.41225,0.594138,7,12
-2.57136,-2.15839,0.652567,2,13
-2.35452,-1.97498,0.709496,1,14
-2.10976,-1.76842,0.737634,1,15
-1.2476,-1.04241,0.0852029,4,9
-1.20362,-1.00496,0.137183,5,10
-1.24377,-1.03774,0.198891,1,11
-2.89138,-2.41157,0.596328,8,12
-2.58491,-2.15443,0.654093,2,13
-2.37304,-1.97714,0.713095,1,14
-2.1171,-1.76265,0.738152,2,15
-1.23085,-1.02187,0.0279239,1,8
-1.24183,-1.03062,0.0845749,4,9
-1.20542,-0.999691,0.137009,4,10
-1.23498,-1.02348,0.196941,1,11
-2.9024,-2.40449,0.596954,10,12
-2.5996,-2.15211,0.656001,2,13
-2.35106,-1.94565,0.704547,1,14
-2.13484,-1.76547,0.742293,2,15
-1.23423,-1.01779,0.0279239,1,8
-1.24542,-1.02628,0.0845749,4,9
-1.20873,-0.995688,0.137009,4,10
-1.24449,-1.02442,0.197916,1,11
-2.9062,-2.39058,0.596015,11,12
-2.63554,-2.16717,0.663252,1,13
-2.36386,-1.94238,0.706346,1,14
-2.13801,-1.75555,0.741258,2,15
-1.23623,-1.0122,0.0278889,1,8
-1.24744,-1.02066,0.0844702,4,9
-1.20603,-0.986417,0.136312,4,10
-1.26036,-1.03012,0.199866,1,11
-2.90841,-2.37542,0.594764,11,12
-2.62788,-2.14554,0.659436,1,13
-2.37364,-1.93659,0.707246,1,14
-2.13514,-1.74076,0.738152,2,15
-1.27079,-1.03311,0.028587,1,8
-1.25565,-1.02008,0.0847843,4,9
-1.20637,-0.979689,0.135963,4,10
-1.28244,-1.04073,0.202791,1,11
-2.91975,-2.36774,0.59539,11,12
-2.38644,-1.93319,0.709046,1,14
-2.13219,-1.726,0.735046,2,15
-1.28684,-1.03872,0.0288663,1,8
-1.26231,-1.01819,0.0849936,4,9
-1.22856,-0.990266,0.138055,4,10
-1.28607,-1.03624,0.202791,1,11
-2.93107,-2.36002,0.596015,11,12
-2.68599,-2.16114,0.670121,1,13
-2.39655,-1.92688,0.709945,1,14
-2.14724,-1.72581,0.738152,2,15
-1.30312,-1.044,0.0291455,1,8
-1.26586,-1.01378,0.0849936,4,9
-1.22579,-0.980991,0.137357,4,10
-1.28986,-1.03152,0.202791,1,11
-2.93467,-2.34607,0.595077,10,12
-2.6245,-2.09661,0.652948,2,13
-2.3877,-1.90676,0.705446,1,14
-2.15929,-1.72312,0.740223,2,15
-1.26296,-1.0046,0.0845749,3,9
-1.2384,-0.984359,0.138403,4,10
-2.93779,-2.33264,0.594138,10,12
-2.6299,-2.08667,0.652567,2,13
-2.3879,-1.89399,0.703647,1,14
-2.16802,-1.71835,0.741258,2,15
-1.2743,-1.00638,0.0850983,2,9
-1.2354,-0.975309,0.137706,4,10
-2.93661,-2.31503,0.592261,10,12
-2.63526,-2.07673,0.652185,2,13
-2.39297,-1.88443,0.703197,1,14
-2.15579,-1.69644,0.735046,2,15
-1.27623,-1.00069,0.0849936,2,9
-1.24036,-0.97222,0.13788,4,10
-2.94778,-2.3072,0.592887,11,12
-2.62703,-2.05542,0.648369,2,13
-2.41488,-1.88807,0.707696,1,14
-2.16169,-1.6889,0.735046,2,15
-0.41974,-0.326877,-0.122823,15,1
-1.27499,-0.992551,0.0846796,2,9
-1.24847,-0.971555,0.138403,4,10
-2.96361,-2.30296,0.594451,11,12
-2.64349,-2.05346,0.650659,2,13
-2.41222,-1.87246,0.704997,1,14
-2.17674,-1.68845,0.738152,2,15
-1.27054,-0.981988,0.0841562,2,9
-1.25027,-0.965973,0.138229,3,10
-2.96694,-2.28898,0.593512,10,12
-2.65842,-2.05021,0.652567,2,13
-2.40948,-1.85689,0.702297,1,14
-2.18262,-1.68084,0.738152,2,15
-1.26446,-0.970252,0.0835282,2,9
-1.25996,-0.966453,0.138926,2,10
-2.96864,-2.27381,0.592261,11,12
-2.664,-2.03973,0.652185,2,13
-2.44071,-1.86742,0.709496,1,14
-2.19461,-1.67791,0.740223,2,15
-0.42314,-0.322463,-0.122823,15,1
-1.30279,-0.992459,0.085831,1,9
-1.23955,-0.943943,0.136312,1,10
-2.97027,-2.25865,0.591009,11,12
-2.65547,-2.01854,0.648369,2,13
-2.44567,-1.85771,0.709046,1,14
-2.19122,-1.66323,0.737117,2,15
-0.39313,-0.297538,-0.113825,16,1
-2.99441,-2.26548,0.196783,0,9
-1.25221,-0.947039,0.137357,1,10
-2.97617,-2.24759,0.590697,11,12
-2.66372,-2.0109,0.648751,2,13
-2.44559,-1.84489,0.707246,1,14
-2.19055,-1.6513,0.735046,2,15
-2.99272,-2.24781,0.196155,0,9
-1.29375,-0.971372,0.141541,1,10
-2.9919,-2.24312,0.592261,10,12
-2.66601,-1.99806,0.647606,2,13
-2.44266,-1.82934,0.704547,1,14
-2.17774,-1.62975,0.728835,2,15
-0.395198,-0.294786,-0.113825,16,1
-2.97813,-2.22064,0.19469,0,9
-3.00605,-2.23738,0.593512,11,12
-2.68714,-1.99929,0.65104,2,13
-2.44746,-1.81964,0.704097,1,14
-2.20203,-1.63597,0.735046,2,15
-0.402489,-0.298043,-0.115625,16,1
-2.9666,-2.19597,0.193434,0,9
-3.08055,-2.27783,0.470416,1,11
-3.00431,-2.21983,0.591635,11,12
-2.68182,-1.9801,0.647987,2,13
-2.44941,-1.80718,0.702747,1,14
-2.19529,-1.6191,0.730905,2,15
-3.00322,-2.20689,0.195318,0,9
-3.08888,-2.26652,0.470416,1,11
-3.00567,-2.20465,0.590384,10,12
-2.69821,-1.97769,0.650277,2,13
-2.46357,-1.80438,0.704997,1,14
-2.21963,-1.62512,0.737117,2,15
-2.98831,-2.17991,0.193852,0,9
-3.09638,-2.25627,0.470416,1,11
-3.01494,-2.19531,0.590697,11,12
-2.69682,-1.96295,0.648369,2,13
-2.47111,-1.79734,0.705446,1,14
-2.21904,-1.61282,0.735046,2,15
-3.00847,-2.17937,0.19469,0,9
-3.08258,-2.23142,0.332935,1,10
-3.10424,-2.24544,0.470416,1,11
-3.02701,-2.18877,0.591635,11,12
-2.70047,-1.95123,0.647606,2,13
-2.48369,-1.79327,0.707246,1,14
-2.21654,-1.5998,0.732458,1,15
-3.00957,-2.16419,0.194271,0,9
-3.09035,-2.22065,0.332935,1,10
-3.02981,-2.17474,0.590697,11,12
-2.71809,-1.95027,0.650277,2,13
-2.47379,-1.77367,0.702747,1,14
-2.22368,-1.59318,0.732976,2,15
-0.41075,-0.29331,-0.116525,16,1
-3.02361,-2.15831,0.19469,0,9
-3.0977,-2.21039,0.332935,1,10
-3.03095,-2.15956,0.589445,11,12
-2.71529,-1.93394,0.647987,2,13
-2.47837,-1.76389,0.702297,1,14
-2.2434,-1.59548,0.737634,2,15
-3.01808,-2.13851,0.193852,1,9
-3.06313,-2.16962,0.328403,1,10
-3.1272,-2.21336,0.470416,1,11
-3.03686,-2.14783,0.589132,11,12
-2.73485,-1.93352,0.65104,2,13
-2.48452,-1.75523,0.702297,1,14
-2.22055,-1.56758,0.728317,1,15
-3.03533,-2.13485,0.19448,0,9
-3.05438,-2.14745,0.32666,1,10
-3.1349,-2.20243,0.470416,1,11
-3.04434,-2.13722,0.589132,10,12
-2.72873,-1.91494,0.647987,2,13
-2.49861,-1.75214,0.704547,1,14
-2.24024,-1.5698,0.732976,2,15
-3.05751,-2.13453,0.195422,1,9
-3.12068,-2.17783,0.332935,1,10
-3.14257,-2.19147,0.470416,1,11
-3.05826,-2.13109,0.590384,10,12
-2.73539,-1.9054,0.647987,2,13
-2.49351,-1.73562,0.701397,1,14
-2.23778,-1.55646,0.730387,2,15
-3.03174,-2.10162,0.193329,1,9
-3.12826,-2.16692,0.332935,1,10
-3.1502,-2.18049,0.470416,1,11
-3.06206,-2.11869,0.589758,11,12
-2.74203,-1.89584,0.647987,2,13
-2.50116,-1.72801,0.701847,1,14
-2.25088,-1.55452,0.732976,2,15
-3.04728,-2.09669,0.193852,0,9
-3.09312,-2.12664,0.328403,1,10
-3.15742,-2.17003,0.470416,1,11
-3.05641,-2.09904,0.587255,10,12
-2.75963,-1.89451,0.650659,2,13
-2.50045,-1.7153,0.700048,1,14
-2.24036,-1.53573,0.727799,2,15
-3.04762,-2.08207,0.193434,1,9
-3.10016,-2.11637,0.328403,1,10
-3.12233,-2.12991,0.464078,1,11
-3.06009,-2.08667,0.586629,11,12
-2.75487,-1.87713,0.647987,2,13
-2.52253,-1.71753,0.704547,1,14
-2.25023,-1.53155,0.729352,2,15
-3.05818,-2.07366,0.193643,1,9
-3.10752,-2.10553,0.328403,1,10
-3.17211,-2.14849,0.470416,1,11
-3.08535,-2.08816,0.590071,11,12
-2.75132,-1.86139,0.645698,2,13
-2.52014,-1.7037,0.702297,1,14
-2.23475,-1.50963,0.722623,2,15
-3.07368,-2.06854,0.194166,1,9
-3.09796,-2.0841,0.32666,1,10
-3.17959,-2.1374,0.470416,1,11
-3.08606,-2.07297,0.588819,11,12
-2.7578,-1.85177,0.645698,2,13
-2.54387,-1.70683,0.707246,1,14
-2.27691,-1.52656,0.734528,2,15
-3.07258,-2.05226,0.193643,0,9
-3.16487,-2.1131,0.332935,1,10
-3.09493,-2.06328,0.589132,11,12
-2.76098,-1.83996,0.644934,2,13
-2.52386,-1.68066,0.700048,1,14
-2.2774,-1.51539,0.732976,2,15
-3.07604,-2.03985,0.193434,1,9
-3.13901,-2.08003,0.329449,1,10
-3.19444,-2.11515,0.470416,1,11
-3.09351,-2.04755,0.587568,11,12
-2.78213,-1.84005,0.648369,2,13
-2.52971,-1.67184,0.700048,1,14
-2.28241,-1.50783,0.732976,2,15
-3.10316,-2.04228,0.19469,1,9
-3.11628,-2.04935,0.326311,1,10
-3.20143,-2.10455,0.470416,1,11
-3.09074,-2.03023,0.585691,11,12
-2.79806,-1.83728,0.650659,2,13
-2.54013,-1.66665,0.701397,1,14
-2.26828,-1.48715,0.726764,2,15
-3.0902,-2.01832,0.193434,0,9
-3.10304,-2.02594,0.324219,1,10
-3.14891,-2.05431,0.461641,1,11
-3.10773,-2.02591,0.587568,10,12
-2.77814,-1.81035,0.644553,2,13
-2.55246,-1.66203,0.703197,1,14
-2.27183,-1.47817,0.726246,2,15
-3.09723,-2.00753,0.193434,0,9
-3.16026,-2.04759,0.329449,1,10
-3.21605,-2.08215,0.470416,1,11
-3.11976,-2.01826,0.588507,11,12
-2.79103,-1.80491,0.646079,2,13
-2.55661,-1.65205,0.702747,1,14
-2.27698,-1.47023,0.726246,2,15
-3.1059,-1.99778,0.193538,1,9
-3.15733,-2.03008,0.328403,1,10
-3.2233,-2.07091,0.470416,1,11
-3.12346,-2.00523,0.587881,11,12
-2.79071,-1.79092,0.644553,2,13
-2.5476,-1.63365,0.698698,1,14
-2.28047,-1.46123,0.725729,2,15
-3.10444,-1.98156,0.193015,1,9
-3.1476,-2.00833,0.32666,1,10
-3.23051,-2.05965,0.470416,1,11
-3.12378,-1.99007,0.586629,10,12
-2.81185,-1.79065,0.647987,2,13
-2.54342,-1.61847,0.695999,1,14
-2.29534,-1.45948,0.728835,2,15
-3.09784,-1.96216,0.192178,0,9
-3.15459,-1.99733,0.32666,1,10
-3.23768,-2.04836,0.470416,1,11
-3.13238,-1.98021,0.586942,11,12
-2.81808,-1.78083,0.647987,2,13
-2.56224,-1.6179,0.699598,1,14
-2.28408,-1.44115,0.723658,2,15
-3.12496,-1.96409,0.193434,1,9
-3.22228,-2.02447,0.332935,1,10
-3.24481,-2.03704,0.470416,1,11
-3.14094,-1.97031,0.587255,11,12
-2.82095,-1.76889,0.647224,2,13
-2.55961,-1.60377,0.697348,1,14
-2.29892,-1.43932,0.726764,2,15
-3.13654,-1.95688,0.193748,1,9
-3.14479,-1.96051,0.324219,1,10
-3.2519,-2.0257,0.470416,1,11
-3.16087,-1.96824,0.589758,11,12
-2.80877,-1.74763,0.643026,2,13
-0.478268,-0.297464,-0.0295175,16,6
-2.57678,-1.60203,0.700498,1,14
-2.32337,-1.44392,0.732976,2,15
-3.13656,-1.94172,0.193329,1,9
-3.17534,-1.96419,0.32666,1,10
-3.2586,-2.01491,0.470416,1,11
-3.15764,-1.95096,0.587881,11,12
-0.471251,-0.29105,-0.0484586,11,5
-2.81957,-1.7414,0.644171,2,13
-2.57047,-1.58632,0.697348,1,14
-2.32511,-1.43378,0.73194,2,15
-3.12289,-1.91821,0.192073,1,9
-3.18183,-1.95365,0.32666,1,10
-3.26561,-2.00352,0.470416,1,11
-3.15601,-1.93477,0.586316,11,12
-0.472264,-0.289404,-0.0484586,11,5
-2.83232,-1.73565,0.645698,2,13
-2.5843,-1.58242,0.699598,1,14
-2.31033,-1.41355,0.725729,2,15
-0.420962,-0.256654,-0.113825,16,1
-3.15856,-1.92497,0.193852,0,9
-3.20599,-1.95234,0.328403,1,10
-3.27258,-1.99211,0.470416,1,11
-3.16275,-1.92374,0.586316,11,12
-2.84873,-1.73138,0.647987,2,13
-2.57343,-1.56282,0.695099,1,14
-2.31525,-1.40548,0.725729,2,15
-3.1397,-1.89923,0.0640503,1,8
-3.14305,-1.9005,0.192492,1,9
-3.19573,-1.93083,0.32666,1,10
-3.21868,-1.94317,0.461641,1,11
-3.17114,-1.91371,0.586629,11,12
-0.429916,-0.259342,-0.0439265,12,5
-2.83458,-1.70925,0.643408,2,13
-0.482374,-0.290757,-0.0295175,16,6
-2.60891,-1.57193,0.703197,1,14
-2.30855,-1.39041,0.722105,2,15
-0.432769,-0.259725,-0.116525,16,1
-3.16336,-1.89774,0.193329,1,9
-3.21954,-1.92991,0.328403,1,10
-3.28641,-1.96921,0.470416,1,11
-3.18288,-1.90567,0.587568,11,12
-2.8554,-1.70892,0.646843,2,13
-2.60073,-1.55527,0.699598,1,14
-2.33661,-1.39622,0.729352,2,15
-3.15256,-1.87781,0.0640503,1,8
-0.423626,-0.252231,-0.113825,16,1
-3.14904,-1.87497,0.192073,1,9
-3.20537,-1.907,0.326311,1,10
-3.29327,-1.95773,0.470416,1,11
-3.19088,-1.89611,0.587881,11,12
-2.85628,-1.69594,0.645698,2,13
-0.484342,-0.287467,-0.0295175,16,6
-2.60447,-1.54519,0.699148,1,14
-2.31796,-1.37467,0.722105,2,15
-3.15877,-1.86735,0.0640503,1,8
-0.42446,-0.250825,-0.113825,16,1
-3.15557,-1.86397,0.192073,1,9
-3.19142,-1.88364,0.324219,1,10
-3.21425,-1.89636,0.458229,1,11
-3.18727,-1.87894,0.586004,11,12
-2.85681,-1.68346,0.644553,2,13
-0.485293,-0.285859,-0.0295175,16,6
-2.5995,-1.53061,0.696449,1,14
-2.35105,-1.38322,0.730905,2,15
-3.27566,-1.92105,0.0662842,1,8
-3.1669,-1.85653,0.192387,1,9
-3.18046,-1.86298,0.322476,1,10
-3.30652,-1.93527,0.470416,1,11
-3.19689,-1.87036,0.586629,11,12
-2.86776,-1.67645,0.645698,2,13
-0.486288,-0.284164,-0.0295175,16,6
-2.58463,-1.50973,0.69105,1,14
-2.32894,-1.35983,0.722623,2,15
-3.28202,-1.91018,0.0662842,1,8
-3.17854,-1.84847,0.192701,1,9
-3.23862,-1.8819,0.327706,1,10
-3.31291,-1.92429,0.470416,1,11
-3.2034,-1.85919,0.586629,11,12
-2.85802,-1.65807,0.642263,2,13
-2.61154,-1.51386,0.696898,1,14
-2.3437,-1.3575,0.725729,1,15
-3.17255,-1.83093,0.191968,1,9
-3.21033,-1.85124,0.324219,1,10
-3.31961,-1.91272,0.470416,1,11
-3.21468,-1.85151,0.587568,11,12
-0.480016,-0.276356,-0.0484586,11,5
-2.87059,-1.652,0.64379,2,13
-0.488211,-0.280847,-0.0295175,16,6
-2.62188,-1.50765,0.698248,1,14
-2.34149,-1.34587,0.723658,2,15
-3.29494,-1.88779,0.0662842,1,8
-3.18759,-1.82481,0.192492,1,9
-3.23752,-1.8519,0.326311,1,10
-3.32594,-1.9017,0.470416,1,11
-3.21941,-1.8393,0.587255,10,12
-0.480978,-0.274679,-0.0484586,11,5
-2.86753,-1.6376,0.641881,2,13
-0.489139,-0.279227,-0.0295175,16,6
-2.62687,-1.49895,0.698248,1,14
-2.35792,-1.34439,0.727282,2,15
-3.21458,-1.82688,0.064539,1,8
-3.1832,-1.80831,0.191864,1,9
-3.24364,-1.84115,0.326311,1,10
-3.33255,-1.89008,0.470416,1,11
-3.21862,-1.82472,0.586004,11,12
-0.481886,-0.273082,-0.0484586,11,5
-2.88519,-1.63436,0.644553,2,13
-0.490111,-0.277517,-0.0295175,16,6
-2.62699,-1.48689,0.696898,1,14
-2.34387,-1.3261,0.721588,2,15
-3.22062,-1.81621,0.064539,1,8
-3.19993,-1.80307,0.192492,1,9
-3.22922,-1.81809,0.324219,1,10
-3.3388,-1.87902,0.470416,1,11
-3.21981,-1.81057,0.585065,11,12
-2.88375,-1.62093,0.643026,2,13
-0.491029,-0.275891,-0.0295175,16,6
-2.62851,-1.47626,0.695999,1,14
-2.34511,-1.31602,0.720552,1,15
-3.18506,-1.78153,0.0637013,1,8
-3.20621,-1.79189,0.192492,1,9
-3.23523,-1.80737,0.324219,1,10
-3.34534,-1.86735,0.470416,1,11
-3.22783,-1.80028,0.585378,10,12
-2.89625,-1.61468,0.644553,2,13
-0.491989,-0.274175,-0.0295175,16,6
-2.65067,-1.47656,0.700498,1,14
-2.35476,-1.31064,0.722105,2,15
-3.21574,-1.78398,0.06419,1,8
-3.21419,-1.78165,0.192596,1,9
-3.27637,-1.81538,0.327706,1,10
-3.35184,-1.85566,0.470416,1,11
-3.23928,-1.79187,0.586316,11,12
-0.484672,-0.268106,-0.0484586,11,5
-2.88125,-1.59316,0.639973,2,13
-2.64046,-1.45882,0.696449,1,14
-2.35086,-1.29775,0.719517,2,15
-3.22545,-1.77467,0.0642598,1,8
-3.20814,-1.76369,0.191864,1,9
-3.27221,-1.79817,0.32666,1,10
-3.24725,-1.7815,0.586629,10,12
-0.485652,-0.266327,-0.0484586,11,5
-2.91089,-1.59631,0.645316,2,13
-0.493891,-0.270734,-0.0295175,16,6
-2.6575,-1.45614,0.699598,1,14
-2.37063,-1.29788,0.724176,2,15
-3.23163,-1.7634,0.0642598,1,8
-3.21077,-1.75057,0.191654,1,9
-3.27528,-1.78426,0.326311,1,10
-3.31939,-1.80753,0.464078,1,11
-3.2413,-1.76355,0.584439,10,12
-0.486578,-0.264631,-0.0484586,11,5
-2.91155,-1.58282,0.644171,2,13
-2.64569,-1.43709,0.695099,1,14
-3.31056,-1.79824,-0.0657607,2,7
-2.38703,-1.29605,0.727799,2,15
-3.23455,-1.74964,0.06419,1,8
-3.23618,-1.7498,0.192806,1,9
-3.24293,-1.75198,0.322476,1,10
-3.37141,-1.81987,0.470416,1,11
-3.25265,-1.75504,0.585378,10,12
-0.487499,-0.26293,-0.0484586,11,5
-2.92742,-1.57823,0.646461,2,13
-0.460651,-0.248243,-0.027424,17,6
-2.65241,-1.42877,0.695549,1,14
-3.31682,-1.78667,-0.0657607,2,7
-2.37283,-1.27764,0.722105,2,15
-3.21919,-1.72756,0.0637711,1,8
-3.25283,-1.74415,0.193434,1,9
-3.30171,-1.76888,0.327706,1,10
-3.37742,-1.80868,0.470416,1,11
-3.26224,-1.74554,0.586004,10,12
-0.488414,-0.261227,-0.0484586,11,5
-2.91187,-1.55741,0.641881,2,13
-0.496699,-0.265547,-0.0295175,16,6
-2.6451,-1.41354,0.692399,1,14
-3.32304,-1.77508,-0.0657607,2,7
-2.37216,-1.26662,0.720552,2,15
-3.23932,-1.72383,0.0640503,1,8
-3.25331,-1.73054,0.19312,1,9
-3.2583,-1.73174,0.322825,1,10
-3.27325,-1.73749,0.586942,10,12
-0.489278,-0.259606,-0.0484586,11,5
-2.92769,-1.55275,0.644171,2,13
-2.65519,-1.40704,0.693749,1,14
-3.32891,-1.76405,-0.0657607,2,7
-2.3883,-1.26507,0.724176,2,15
-3.23087,-1.70561,0.0637711,1,8
-3.23813,-1.708,0.191864,1,9
-3.31367,-1.74636,0.327706,1,10
-3.30184,-1.73939,0.458229,1,11
-3.28104,-1.72697,0.587255,10,12
-2.91719,-1.53481,0.640737,2,13
-2.67191,-1.40457,0.696898,1,14
-3.33504,-1.75242,-0.0657607,2,7
-2.39783,-1.25942,0.725729,2,15
-3.26191,-1.70674,0.0642598,1,8
-3.25115,-1.70038,0.192282,1,9
-3.29856,-1.72371,0.325614,1,10
-3.39618,-1.77322,0.470416,1,11
-3.27654,-1.71002,0.585378,10,12
-0.491078,-0.256184,-0.0484586,11,5
-2.93498,-1.53046,0.643408,2,13
-2.67162,-1.39253,0.695549,1,14
-3.34114,-1.74077,-0.0657607,2,7
-2.39536,-1.24748,0.723658,2,15
-3.2498,-1.6867,0.0639107,1,8
-3.26741,-1.69511,0.19291,1,9
-3.27949,-1.69993,0.323173,1,10
-3.40204,-1.76194,0.470416,1,11
-3.28219,-1.69915,0.585378,10,12
-2.94527,-1.52342,0.644553,2,13
-0.500313,-0.258673,-0.0295175,16,6
-2.66583,-1.3783,0.692849,1,14
-3.34689,-1.72968,-0.0657607,2,7
-2.39433,-1.23687,0.722105,2,15
-3.23404,-1.66493,0.0634919,1,8
-3.28041,-1.68735,0.193329,1,9
-3.29574,-1.69451,0.324219,1,10
-3.3443,-1.718,0.461641,1,11
-3.28811,-1.68768,0.585378,10,12
-2.93982,-1.50827,0.642263,2,13
-0.501168,-0.257013,-0.0295175,16,6
-2.68103,-1.37432,0.695549,1,14
-3.35291,-1.71799,-0.0657607,2,7
-2.3866,-1.22234,0.718482,1,15
-3.25408,-1.6609,0.0637711,1,8
-0.439177,-0.224062,-0.113825,16,1
-3.28806,-1.6768,0.193434,1,9
-3.36554,-1.71557,0.330495,1,10
-3.41395,-1.73875,0.470416,1,11
-3.29398,-1.67619,0.585378,9,12
-0.493646,-0.2512,-0.0484586,11,5
-2.94857,-1.49978,0.643026,2,13
-0.502062,-0.255262,-0.0295175,16,6
-2.69276,-1.36848,0.697348,1,14
-3.35889,-1.70627,-0.0657607,2,7
-2.41152,-1.22449,0.724693,2,15
-3.27414,-1.65675,0.0640503,1,8
-3.27756,-1.65777,0.192492,1,9
-3.34306,-1.68943,0.327706,1,10
-3.42,-1.72682,0.470416,1,11
-3.31186,-1.67149,0.587568,10,12
-0.44827,-0.226143,-0.0439265,12,5
-2.94502,-1.48506,0.641118,2,13
-2.69056,-1.35557,0.695549,1,14
-3.36453,-1.69513,-0.0657607,2,7
-2.40177,-1.20954,0.720552,2,15
-3.26889,-1.64051,0.0638409,1,8
-3.28155,-1.64543,0.192387,1,9
-3.31331,-1.6599,0.324219,1,10
-3.42571,-1.71547,0.470416,1,11
-3.30531,-1.65373,0.585378,8,12
-0.495388,-0.247747,-0.0484586,11,5
-2.96925,-1.48494,0.645316,2,13
-2.6811,-1.33967,0.691949,1,14
-3.37042,-1.68337,-0.0657607,2,7
-2.43017,-1.21323,0.727799,2,15
-3.29608,-1.63977,0.0642598,1,8
-3.30158,-1.64107,0.193224,1,9
-3.31879,-1.64891,0.324219,1,10
-3.43168,-1.7035,0.470416,1,11
-3.30752,-1.64043,0.584752,9,12
-2.97089,-1.47283,0.644553,2,13
-0.450976,-0.223474,-0.0263773,18,6
-2.69099,-1.3329,0.693299,1,14
-3.37628,-1.67159,-0.0657607,2,7
-2.42747,-1.20131,0.725729,2,15
-3.29102,-1.62295,0.0640503,1,8
-0.449216,-0.221431,-0.115625,16,1
-3.31803,-1.63483,0.193852,1,9
-3.32453,-1.63731,0.324219,1,10
-3.4376,-1.69151,0.470416,1,11
-3.32209,-1.63323,0.586316,9,12
-2.96368,-1.45639,0.641881,2,13
-0.505534,-0.248315,-0.0295175,16,6
-2.72537,-1.33809,0.700947,1,14
-3.38209,-1.6598,-0.0657607,2,7
-2.42644,-1.19028,0.724176,2,15
-3.27152,-1.59916,0.0635617,1,8
-3.32344,-1.62382,0.193852,1,9
-3.33022,-1.6257,0.324219,1,10
-3.44349,-1.6795,0.470416,1,11
-3.33637,-1.62654,0.587881,8,12
-2.96345,-1.44345,0.640737,2,13
-0.506397,-0.246549,-0.0295175,16,6
-3.38758,-1.64858,-0.0657607,2,7
-2.41995,-1.17715,0.72107,1,15
-3.2876,-1.59354,0.0637711,1,8
-0.443698,-0.21497,-0.113825,16,1
-3.29853,-1.59741,0.192073,1,9
-3.37175,-1.63142,0.327706,1,10
-3.44904,-1.66807,0.470416,1,11
-3.33135,-1.60972,0.586004,9,12
-0.498757,-0.240894,-0.0484586,11,5
-2.97353,-1.43618,0.641881,2,13
-3.30326,-1.5933,-0.0640154,2,7
-2.42405,-1.1687,0.72107,1,15
-3.30035,-1.58551,0.0639107,1,8
-3.32389,-1.5954,0.193224,1,9
-3.35558,-1.60989,0.325614,1,10
-3.33339,-1.59638,0.585378,9,12
-2.97852,-1.42579,0.641881,2,13
-0.508064,-0.243096,-0.0295175,16,6
-3.39901,-1.62489,-0.0657607,2,7
-2.50829,-1.19854,0.744881,1,15
-3.32031,-1.58086,0.06419,1,8
-3.34928,-1.59322,0.194376,1,9
-3.36866,-1.601,0.326311,1,10
-3.33537,-1.58304,0.584752,8,12
-3.01566,-1.43001,0.648751,1,13
-0.472856,-0.224124,-0.027424,17,6
-3.40466,-1.61301,-0.0657607,2,7
-3.3297,-1.57039,0.0642598,1,8
-3.33495,-1.57215,0.193224,1,9
-3.37062,-1.58753,0.325962,1,10
-3.35518,-1.57811,0.587255,8,12
-0.50979,-0.239455,-0.0295175,16,6
-3.35958,-1.57732,-0.0647833,2,7
-2.5166,-1.181,0.744881,1,15
-3.34938,-1.56611,0.064539,1,8
-0.457249,-0.213705,-0.116525,16,1
-3.36728,-1.57377,0.194794,1,9
-3.34337,-1.56117,0.322825,1,10
-3.36755,-1.57032,0.588507,8,12
-0.510582,-0.237763,-0.0295175,16,6
-3.41556,-1.5898,-0.0657607,2,7
-2.43292,-1.13191,0.718999,1,15
-3.35455,-1.555,0.064539,1,8
-3.34195,-1.54774,0.193015,1,9
-3.39554,-1.57184,0.327357,1,10
-3.35688,-1.55109,0.585691,8,12
-0.502804,-0.232328,-0.0484586,11,5
-0.511367,-0.236068,-0.0295175,16,6
-2.7568,-1.27207,0.700947,1,14
-3.42109,-1.57787,-0.0657607,2,7
-2.44388,-1.12664,0.72107,1,15
-3.34542,-1.5366,0.0642598,1,8
-0.458693,-0.210587,-0.116525,16,1
-3.37093,-1.54689,0.194376,1,9
-3.40463,-1.56164,0.327706,1,10
-3.35868,-1.53772,0.585065,8,12
-0.512188,-0.234282,-0.0295175,16,6
-2.73641,-1.2511,0.694649,1,14
-2.47064,-1.12854,0.727799,2,15
-3.37989,-1.53817,0.0648182,1,8
-3.37058,-1.53322,0.194062,1,9
-3.41006,-1.54974,0.327706,1,10
-3.36376,-1.52658,0.585065,8,12
-0.513003,-0.232493,-0.0295175,16,6
-2.72479,-1.2343,0.6906,1,14
-2.44973,-1.10918,0.720552,2,15
-3.35216,-1.51215,0.06419,1,8
-3.37774,-1.52227,0.194166,1,9
-3.37911,-1.52147,0.324219,1,10
-3.37627,-1.51807,0.586316,8,12
-0.505209,-0.22705,-0.0484586,11,5
-2.72887,-1.22526,0.6906,1,14
-2.91538,-1.30839,-0.0557779,1,7
-2.4483,-1.09825,0.718999,1,15
-3.39028,-1.51513,0.0648182,1,8
-0.464395,-0.207442,-0.117424,16,1
-3.3885,-1.51291,0.19448,1,9
-3.43145,-1.53137,0.328751,1,10
-3.39238,-1.51109,0.588194,8,12
-2.74025,-1.21889,0.692399,1,14
-2.8578,-1.27058,-0.0545911,4,7
-2.44505,-1.08656,0.716929,2,15
-0.461553,-0.204243,-0.116525,16,1
-3.37732,-1.4938,0.193538,1,9
-3.42584,-1.51455,0.327706,1,10
-3.50461,-1.54791,0.470416,1,11
-3.39582,-1.49844,0.587881,8,12
-2.71952,-1.19832,0.686101,1,14
-2.88052,-1.26866,-0.0549402,4,7
-2.47005,-1.08736,0.72314,1,15
-0.451554,-0.197936,-0.113825,16,1
-3.40264,-1.49082,0.19469,1,9
-3.44205,-1.50737,0.328751,1,10
-3.50999,-1.53567,0.470416,1,11
-3.39198,-1.48263,0.586316,8,12
-0.51616,-0.225397,-0.0295175,16,6
-2.73976,-1.19583,0.69015,1,14
-2.85194,-1.2442,-0.0543119,1,7
-2.49154,-1.08646,0.728317,1,15
-2.93276,-1.27398,0.0558128,1,8
-0.452242,-0.196359,-0.113825,16,1
-3.41149,-1.48053,0.194899,1,9
-3.43633,-1.49059,0.327706,1,10
-3.39351,-1.46921,0.585691,8,12
-0.460753,-0.199481,-0.0439265,12,5
-2.74213,-1.18549,0.6897,2,14
-2.88196,-1.24535,-0.0548006,1,7
-2.45807,-1.06167,0.717446,2,15
-2.93719,-1.26374,0.0558128,1,8
-0.460086,-0.197859,-0.115625,16,1
-3.4148,-1.46782,0.194794,1,9
-3.4232,-1.47072,0.325962,1,10
-3.40407,-1.45969,0.586629,7,12
-2.76775,-1.18512,0.695099,3,14
-2.8532,-1.22112,-0.0541723,3,7
-2.4742,-1.0584,0.72107,1,15
-0.48946,-0.20847,-0.122823,15,1
-3.42541,-1.45824,0.195108,1,9
-3.50165,-1.48997,0.332935,1,10
-3.41641,-1.45089,0.587881,7,12
-2.74855,-1.16556,0.68925,3,14
-2.86481,-1.21427,-0.0543119,3,7
-2.47788,-1.04976,0.72107,1,15
-2.88677,-1.21882,0.0546958,1,8
-3.43366,-1.44902,0.195318,0,9
-3.44782,-1.45358,0.327357,1,10
-3.53083,-1.48713,0.470416,1,11
-3.42278,-1.44091,0.588194,6,12
-2.75399,-1.15767,0.6897,3,14
-2.87599,-1.20836,-0.0544515,3,7
-2.49541,-1.04795,0.725211,1,15
-2.90186,-1.21388,0.0549053,1,8
-0.490832,-0.205219,-0.122823,15,1
-3.43844,-1.43763,0.195318,0,9
-3.46733,-1.44828,0.328751,1,10
-3.41113,-1.42271,0.585378,5,12
-0.519939,-0.216536,-0.0295175,16,6
-2.75422,-1.14703,0.6888,1,14
-2.86521,-1.19267,-0.0541723,4,7
-2.4632,-1.02483,0.714858,2,15
-2.9539,-1.22415,0.0558128,1,8
-0.455501,-0.188675,-0.113825,16,1
-3.43766,-1.42392,0.195004,1,9
-3.47948,-1.43982,0.329449,1,10
-3.40852,-1.40837,0.584126,5,12
-0.520654,-0.214811,-0.0295175,16,6
-2.86915,-1.18316,-0.0541723,1,7
-2.49516,-1.02843,0.72314,1,15
-3.46109,-1.41949,0.196051,1,9
-3.52136,-1.44278,0.332935,1,10
-3.41708,-1.39796,0.584752,5,12
-2.92139,-1.19279,-0.0550798,1,7
-0.463997,-0.188504,-0.115625,16,1
-3.45492,-1.4029,0.195422,1,9
-3.52612,-1.43109,0.332935,1,10
-3.43292,-1.39048,0.586629,5,12
-0.522104,-0.211262,-0.0295175,16,6
-2.94779,-1.19158,-0.0554987,1,7
-3.44126,-1.38338,0.194376,1,9
-3.49412,-1.40392,0.329449,1,10
-3.5555,-1.42714,0.470416,1,11
-3.42675,-1.37407,0.584752,5,12
-0.514094,-0.206144,-0.0484586,11,5
-2.92965,-1.17237,-0.0550798,1,7
-3.4572,-1.37579,0.195004,1,9
-3.499,-1.39171,0.329449,1,10
-3.56046,-1.41472,0.470416,1,11
-3.42235,-1.35846,0.583188,4,12
-0.51481,-0.204348,-0.0484586,11,5
-3.09135,-1.22645,0.646461,1,13
-0.523567,-0.207612,-0.0295175,16,6
-2.95975,-1.17245,-0.0555685,1,7
-3.5327,-1.39299,0.0662842,1,8
-0.473198,-0.186493,-0.117424,16,1
-3.46384,-1.36444,0.195108,1,9
-3.51867,-1.38533,0.330843,1,10
-3.42339,-1.34506,0.582562,4,12
-3.06272,-1.20273,0.639592,2,13
-3.04202,-1.19277,-0.0570345,1,7
-3.46303,-1.35157,0.064888,1,8
-3.48323,-1.35876,0.195946,1,9
-3.5012,-1.36436,0.328751,1,10
-3.41679,-1.3294,0.580685,4,12
-3.05043,-1.18564,0.636157,2,13
-2.8103,-1.09117,0.695999,1,14
-3.46749,-1.34008,0.064888,1,8
-0.47082,-0.181863,-0.116525,16,1
-3.50286,-1.35234,0.196783,1,9
-3.55056,-1.36933,0.332935,1,10
-3.42878,-1.32031,0.581936,3,12
-0.516922,-0.198946,-0.0484586,11,5
-3.05984,-1.17763,0.637302,2,13
-2.80844,-1.07975,0.694649,4,14
-2.49052,-0.95652,0.714858,1,15
-3.45347,-1.32082,0.064539,1,8
-0.460531,-0.176044,-0.113825,16,1
-3.4889,-1.33298,0.195736,1,9
-3.55508,-1.35755,0.332935,1,10
-3.41306,-1.30059,0.578495,2,12
-3.07127,-1.16974,0.638829,2,13
-2.79945,-1.06509,0.6915,5,14
-2.52274,-0.958802,0.72314,1,15
-3.49172,-1.3215,0.0651673,1,8
-3.46925,-1.31161,0.194376,1,9
-3.5598,-1.34514,0.332935,1,10
-3.58437,-1.35299,0.470416,1,11
-3.41019,-1.28588,0.577243,2,12
-0.518264,-0.195422,-0.0484586,11,5
-3.07901,-1.16039,0.639592,2,13
-2.7995,-1.05394,0.6906,5,14
-2.51884,-0.94727,0.72107,1,15
-3.50381,-1.31211,0.0653069,1,8
-3.50725,-1.3127,0.19626,1,9
-3.52715,-1.31875,0.329449,1,10
-3.40333,-1.27042,0.575366,2,12
-3.07937,-1.14827,0.638829,2,13
-2.81777,-1.0496,0.694199,5,14
-2.50024,-0.930823,0.714858,1,15
-3.51189,-1.30187,0.0653767,1,8
-3.51556,-1.30184,0.196469,1,9
-3.5691,-1.32025,0.332935,1,10
-3.41516,-1.26127,0.576617,2,12
-3.07763,-1.13601,0.637684,2,13
-2.83586,-1.04564,0.697798,5,14
-2.51072,-0.924762,0.716929,1,15
