x, y, z, intensity, ring
-13.0753,7.97806,2.42599,49,12
-1.32477,0.808644,-0.135789,100,5
-11.8894,7.25729,2.70758,37,13
-1.31082,0.800443,-0.0804927,125,6
-26.0358,15.9048,7.04367,31,14
-1.3292,0.812305,-0.0271908,100,7
-12.7672,7.80537,4.00962,23,15
-1.3176,0.807741,-0.41411,1,0
-1.33475,0.818574,0.0273305,100,8
-1.31554,0.807114,-0.356322,2,1
-1.33979,0.821987,0.0823768,91,9
-0.56388,0.346087,-0.128605,14,2
-1.32944,0.816279,0.136486,88,10
-0.86685,0.532456,-0.161128,16,3
-1.34628,0.827263,0.194016,85,11
-1.29709,0.79735,-0.186948,100,4
-12.9949,7.98827,2.41597,52,12
-1.30851,0.804683,-0.134394,100,5
-11.869,7.30184,2.70872,28,13
-1.31823,0.811295,-0.0811207,128,6
-25.7611,15.8607,6.98428,51,14
-1.31799,0.811467,-0.0270163,100,7
-12.9995,8.00672,4.09089,5,15
-1.31477,0.812336,-0.41411,1,0
-1.32692,0.819842,0.0272258,100,8
-1.31783,0.814546,-0.357672,2,1
-1.3437,0.83086,0.0827955,80,9
-0.559329,0.345988,-0.127842,14,2
-1.32658,0.820915,0.136486,84,10
-0.853321,0.528051,-0.158937,13,3
-1.35365,0.837992,0.195478,69,11
-1.2995,0.804783,-0.187679,100,4
-12.9871,8.04607,2.41973,45,12
-1.29892,0.805047,-0.133697,100,5
-11.9081,7.38046,2.72323,42,13
-1.31553,0.815662,-0.0811207,100,6
-25.7779,15.9892,7.00318,51,14
-1.31345,0.815008,-0.0269814,100,7
-12.9649,8.04797,4.08882,28,15
-1.35471,0.843234,-0.427569,1,0
-1.31047,0.816013,0.0269465,100,8
-1.31002,0.81605,-0.356322,1,1
-1.33741,0.833433,0.0825861,65,9
-0.561511,0.349918,-0.128605,14,2
-1.32385,0.82531,0.136486,63,10
-0.80957,0.504893,-0.151116,20,3
-1.34735,0.84061,0.194991,31,11
-1.31016,0.817722,-0.189629,100,4
-12.9204,8.06729,2.41253,42,12
-1.303,0.813571,-0.134394,100,5
-11.8573,7.40638,2.7175,15,13
-1.31945,0.824483,-0.0815394,100,6
-25.9632,16.2299,7.06886,51,14
-1.31399,0.821708,-0.0270512,100,7
-12.9531,8.10343,4.094,25,15
-1.39104,0.872596,-0.439992,1,0
-1.3127,0.823771,0.0270512,88,8
-1.33956,0.841283,0.0829002,60,9
-0.560286,0.351876,-0.128605,14,2
-1.34458,0.844765,0.138926,58,10
-0.755956,0.47513,-0.141417,41,3
-11.7821,7.40807,1.70885,27,11
-1.29889,0.817006,-0.18841,100,4
-11.986,7.54213,2.24296,9,12
-1.30015,0.818114,-0.134394,100,5
-12.5059,7.87235,2.87244,32,13
-1.30135,0.819505,-0.0805974,100,6
-25.9328,16.3371,7.07606,41,14
-1.32295,0.833754,-0.0272956,100,7
-12.9215,8.14653,4.09296,19,15
-1.32671,0.839037,0.0274003,83,8
-1.32735,0.839762,-0.362621,1,1
-1.3317,0.842517,0.0825861,52,9
-0.575643,0.364329,-0.132421,13,2
-1.34331,0.850519,0.139101,40,10
-0.740942,0.46931,-0.138914,51,3
-11.7897,7.47041,1.71373,38,11
-1.29938,0.82366,-0.188898,100,4
-12.0343,7.62837,2.25672,11,12
-1.31075,0.831184,-0.135789,100,5
-12.4568,7.90229,2.86748,28,13
-1.29511,0.821902,-0.080388,100,6
-25.9612,16.4818,7.09946,31,14
-1.32693,0.842423,-0.0274352,90,7
-12.5976,8.00084,3.99875,30,15
-1.32561,0.844506,0.0274352,64,8
-1.32784,0.846254,-0.363521,1,1
-1.34728,0.858971,0.0837375,43,9
-0.58761,0.374781,-0.135474,12,2
-1.33026,0.848773,0.138055,9,10
-0.72939,0.465389,-0.137037,49,3
-11.6745,7.45178,1.70056,41,11
-1.29163,0.82476,-0.188166,93,4
-11.9294,7.62035,2.24202,18,12
-1.30784,0.835754,-0.135789,94,5
-12.4653,7.96575,2.87549,21,13
-1.31257,0.839101,-0.0816441,100,6
-12.0371,7.69804,3.29868,2,14
-1.31051,0.838429,-0.0271559,77,7
-12.4947,7.99686,3.97494,20,15
-1.31929,0.846968,0.0273654,57,8
-1.35282,0.868831,0.0842609,18,9
-0.583061,0.374606,-0.134711,12,2
-11.5078,7.39638,1.19682,57,10
-0.7261,0.466864,-0.136724,43,3
-11.7769,7.57518,1.71933,46,11
-1.28874,0.829264,-0.188166,81,4
-11.8858,7.64811,2.23858,51,12
-1.29501,0.833616,-0.134743,79,5
-12.3945,7.98158,2.86557,33,13
-1.31971,0.850168,-0.0822721,88,6
-12.1084,7.80335,3.32568,72,14
-1.31613,0.848186,-0.0273305,66,7
-12.4844,8.04872,3.98012,30,15
-1.32655,0.857854,0.0275748,46,8
-10.9609,7.09364,0.68424,44,9
-0.571861,0.370237,-0.132421,13,2
-11.5839,7.50257,1.20746,65,10
-0.7146,0.462826,-0.134847,26,3
-11.6884,7.57317,1.71007,54,11
-1.29598,0.840011,-0.189629,69,4
-11.8888,7.7089,2.24421,60,12
-1.29878,0.842469,-0.13544,73,5
-12.363,8.01943,2.86442,25,13
-1.32191,0.857801,-0.0825861,81,6
-12.0678,7.83391,3.32163,42,14
-1.32657,0.861488,-0.0276097,60,7
-12.4983,8.11961,3.99358,23,15
-1.32522,0.86357,0.0276097,12,8
-10.9842,7.16049,0.687171,59,9
-0.593653,0.387145,-0.137764,12,2
-11.6341,7.58993,1.2153,49,10
-0.694783,0.453442,-0.131405,22,3
-11.4558,7.47936,1.67985,45,11
-1.30633,0.853214,-0.191579,70,4
-11.9542,7.80769,2.26142,40,12
-1.30598,0.853309,-0.136486,63,5
-12.3284,8.05824,2.8629,33,13
-1.31556,0.860224,-0.0823768,73,6
-12.0795,7.90159,3.33243,65,14
-1.3304,0.870261,-0.0277493,33,7
-12.5651,8.22236,4.0236,24,15
-10.4867,6.88847,0.657549,30,9
-0.569328,0.374121,-0.132421,13,2
-11.5242,7.57577,1.20658,68,10
-0.719686,0.473105,-0.136411,12,3
-11.3729,7.47913,1.67132,48,11
-1.28525,0.84554,-0.188898,58,4
-12.0341,7.91996,2.28175,53,12
-1.31464,0.865532,-0.137706,54,5
-12.4951,8.22647,2.90793,22,13
-1.31771,0.867878,-0.0826908,57,6
-12.0793,7.95876,3.33962,29,14
-11.5322,7.60117,-0.241088,97,7
-12.5089,8.2481,4.0148,27,15
-11.9172,7.88182,0.249395,26,8
-10.5437,6.97611,0.662573,48,9
-0.551713,0.365171,-0.128605,14,2
-11.5107,7.62165,1.2078,39,10
-0.716383,0.474523,-0.136098,12,3
-11.4708,7.60103,1.6896,63,11
-1.28726,0.853311,-0.189629,52,4
-12.128,8.03949,2.30459,45,12
-1.31343,0.870988,-0.13788,47,5
-11.5223,7.64381,2.68774,11,13
-1.33297,0.88462,-0.0838422,15,6
-12.0904,8.02675,3.35042,58,14
-11.6168,7.71237,-0.243391,100,7
-12.533,8.32373,4.03137,27,15
-10.5559,7.03724,0.664876,46,9
-0.560235,0.37363,-0.130895,13,2
-11.4061,7.60981,1.19961,73,10
-0.721379,0.481282,-0.137349,24,3
-11.5612,7.71616,1.70666,46,11
-1.29598,0.865291,-0.191335,46,4
-12.1097,8.08836,2.30647,24,12
-1.31204,0.876675,-0.138055,13,5
-11.4757,7.6678,2.68277,8,13
-12.4751,8.33873,-0.7864,35,6
-12.0621,8.06571,3.34997,31,14
-11.5483,7.72508,-0.242519,22,7
-12.6275,8.45016,4.07122,20,15
-10.9716,7.36429,0.230651,37,8
-10.4567,7.02393,0.660166,59,9
-0.565512,0.379865,-0.132421,13,2
-11.3494,7.62648,1.1963,63,10
-0.708219,0.476082,-0.135159,33,3
-11.6495,7.83401,1.72372,46,11
-1.31272,0.883106,-0.19426,27,4
-12.1076,8.14823,2.31148,37,12
-10.9589,7.37521,-1.15569,28,5
-12.2488,8.24946,-0.773944,52,6
-12.092,8.14697,3.36617,63,14
-11.7435,7.9151,-0.247196,100,7
-12.5979,8.49418,4.07122,28,15
-0.480134,0.324586,-0.155291,12,0
-11.0933,7.50225,0.233758,48,8
-0.439023,0.297018,-0.122373,15,1
-10.5379,7.13203,0.666865,64,9
-0.577189,0.39064,-0.135474,12,2
-11.7137,7.93078,1.23761,13,10
-0.709823,0.480767,-0.135785,52,3
-11.6796,7.9136,1.73225,54,11
-10.2798,6.96781,-1.52483,18,4
-12.0954,8.20153,2.3146,25,12
-10.5819,7.17525,-1.11856,19,5
-11.56,7.84141,2.71521,47,13
-12.3207,8.36058,-0.780329,42,6
-12.2006,8.28216,3.40441,54,14
-12.0681,8.19533,-0.254631,93,7
-12.4211,8.43824,4.0236,29,15
-11.8041,8.04313,0.249325,39,8
-10.4899,7.15302,0.665399,60,9
-0.54987,0.374955,-0.129368,13,2
-12.6603,8.63629,1.3408,60,10
-0.703246,0.479902,-0.134847,46,3
-11.6748,7.96999,1.73566,46,11
-10.2817,7.02156,-1.52873,48,4
-12.0635,8.24148,2.31398,30,12
-10.3857,7.09526,-1.10043,23,5
-11.659,7.96812,2.74498,40,13
-12.4695,8.52528,-0.791634,45,6
-12.2343,8.3676,3.42196,58,14
-11.7803,8.06013,-0.249151,100,7
-12.4203,8.50118,4.03292,23,15
-11.3687,7.80474,0.240704,33,8
-10.4714,7.19412,0.665818,58,9
-0.561503,0.385766,-0.132421,13,2
-12.8288,8.81699,1.3619,18,10
-0.709705,0.487949,-0.136411,31,3
-11.3836,7.82958,1.69642,41,11
-10.2064,7.02253,-1.52117,46,4
-12.033,8.28242,2.31367,43,12
-10.31,7.09645,-1.09502,33,5
-11.6925,8.05107,2.75948,46,13
-12.0022,8.26738,-0.763791,29,6
-12.2195,8.42021,3.426,49,14
-11.6566,8.03537,-0.247126,100,7
-12.424,8.56752,4.04379,23,15
-11.4763,7.93765,0.243566,49,8
-10.6003,7.33449,0.675553,53,9
-0.534324,0.369846,-0.126316,14,2
-12.2852,8.5067,1.30734,40,10
-0.712869,0.493798,-0.137349,24,3
-11.379,7.8851,1.69983,56,11
-10.1525,7.03776,-1.51679,46,4
-12.4633,8.63963,2.4019,11,12
-10.4489,7.24593,-1.11246,19,5
-11.8079,8.19144,2.79344,43,13
-12.3375,8.56202,-0.787028,52,6
-12.5582,8.71842,3.52948,24,14
-10.2862,7.14114,-0.218574,23,7
-12.4939,8.67699,4.07588,18,15
-11.5844,8.06939,0.246428,33,8
-10.6581,7.4297,0.680891,42,9
-0.558796,0.389676,-0.132421,13,2
-12.2832,8.56891,1.3103,43,10
-0.716088,0.49955,-0.138288,11,3
-11.4082,7.96141,1.70812,42,11
-10.2316,7.14297,-1.53214,39,4
-10.9415,7.64138,2.11374,4,12
-10.7093,7.48205,-1.14296,23,5
-11.6922,8.16871,2.77245,37,13
-11.89,8.30998,-0.760232,32,6
-12.4717,8.71981,3.51329,40,14
-10.4464,7.30652,-0.222518,25,7
-12.8671,9.00297,4.20788,25,15
-11.0733,7.77091,0.236131,39,8
-10.8885,7.64402,0.69722,57,9
-0.557501,0.391527,-0.132421,13,2
-12.3346,8.66572,1.31884,23,10
-0.704643,0.495231,-0.136411,12,3
-11.507,8.09024,1.72713,42,11
-10.4875,7.37621,-1.57431,35,4
-10.6698,7.5072,-1.14139,9,5
-11.7278,8.25467,2.78772,45,13
-12.3312,8.68259,-0.790378,13,6
-12.4332,8.75768,3.51104,29,14
-10.275,7.23748,-0.219377,26,7
-12.1724,8.57712,3.98995,9,15
-11.8117,8.34771,0.252466,19,8
-10.8454,7.67045,0.696173,58,9
-0.572157,0.40481,-0.136238,12,2
-11.3513,8.03421,1.21669,39,10
-0.704609,0.498707,-0.136724,12,3
-11.2792,7.98611,1.69691,45,11
-10.4614,7.4098,-1.57406,37,4
-11.7644,8.33582,2.28363,46,12
-10.6663,7.56053,-1.14383,21,5
-11.7772,8.34801,2.80604,35,13
-12.2095,8.65759,-0.784411,16,6
-12.3469,8.75828,3.49484,40,14
-10.491,7.44457,-0.224543,31,7
-12.1392,8.61731,3.98892,30,15
-11.3897,8.10623,0.24402,9,8
-0.512758,0.365072,-0.145318,12,1
-10.8248,7.70985,0.696487,53,9
-0.542099,0.386105,-0.129368,13,2
-11.9816,8.53691,1.28712,46,10
-0.707778,0.50448,-0.137662,12,3
-11.4207,8.14333,1.72226,23,11
-10.3753,7.40065,-1.5648,42,4
-12.2014,8.70638,2.37405,28,12
-10.753,7.67573,-1.15586,14,5
-11.9956,8.56267,2.86481,22,13
-13.8467,9.88771,-0.8917,27,6
-12.3083,8.79238,3.49214,20,14
-10.3784,7.41654,-0.222658,21,7
-12.0728,8.63056,3.9765,18,15
-11.2086,8.03641,0.240738,22,8
-0.476643,0.341872,-0.135421,13,1
-10.7345,7.70218,0.692405,60,9
-0.527921,0.37893,-0.126316,14,2
-0.720363,0.517443,-0.140478,10,3
-10.6119,7.62263,1.60429,54,11
-10.7379,7.71599,-1.62354,27,4
-11.701,8.41109,2.28238,33,12
-10.5968,7.62016,-1.14191,26,5
-12.1585,8.74645,2.91136,33,13
-12.1293,8.72861,-0.783155,32,6
-13.4985,9.71753,3.83991,28,14
-10.4239,7.50413,-0.224194,26,7
-11.8294,8.51911,3.9061,31,15
-11.1645,8.06689,0.240424,45,8
-0.475387,0.343617,-0.135421,13,1
-10.771,7.78828,0.696592,64,9
-0.583868,0.422184,-0.140054,11,2
-11.691,8.45662,1.26236,41,10
-12.0106,8.69099,-2.34808,6,3
-10.6595,7.71618,1.61574,43,11
-10.5279,7.62373,-1.596,48,4
-11.7276,8.49564,2.29364,49,12
-10.5346,7.63139,-1.13808,26,5
-12.2313,8.86702,-0.791738,13,6
-13.7264,9.9545,3.9146,18,14
-10.4206,7.5599,-0.224717,27,7
-11.8091,8.57036,3.90972,28,15
-10.863,7.90694,0.234525,48,8
-0.430074,0.313156,-0.122823,15,1
-10.6323,7.74469,0.689369,55,9
-0.591912,0.431155,-0.142344,11,2
-11.3989,8.30612,1.23395,55,10
-0.692789,0.505005,-0.135785,13,3
-10.4448,7.61649,1.58723,39,11
-10.4547,7.62651,-1.58893,19,4
-11.7554,8.57844,2.30491,45,12
-10.5015,7.66342,-1.13738,19,5
-11.3971,8.32307,-0.739612,32,6
-13.7923,10.0759,3.94339,33,14
-10.3393,7.55611,-0.22353,26,7
-11.7666,8.6024,3.90558,28,15
-10.8273,7.9389,0.234351,56,8
-0.428979,0.314655,-0.122823,15,1
-10.5695,7.75274,0.686962,56,9
-0.580906,0.42625,-0.140054,11,2
-11.3184,8.30813,1.22837,39,10
-0.710128,0.52145,-0.13954,5,3
-10.6885,7.85151,1.62842,86,11
-10.3862,7.6294,-1.58235,21,4
-12.5769,9.24201,2.47198,30,12
-10.9803,8.07175,-1.19229,27,5
-10.8864,8.00562,2.62668,45,13
-11.2827,8.30008,-0.734064,39,6
-23.2714,17.1196,6.6698,67,14
-10.319,7.59391,-0.223635,25,7
-11.8034,8.68948,3.92732,37,15
-11.3479,8.3786,0.246219,16,8
-0.471823,0.348494,-0.135421,13,1
-10.4602,7.72604,0.681519,66,9
-0.573174,0.423507,-0.138527,12,2
-11.2187,8.29233,1.22053,52,10
-10.8642,8.0332,-2.14002,4,3
-10.6385,7.86921,1.62476,45,11
-10.4406,7.72283,-1.59454,22,4
-11.5283,8.53049,2.27143,12,12
-10.7541,7.9634,2.60111,58,13
-11.1893,8.2887,-0.729773,48,6
-23.238,17.214,6.67655,77,14
-10.6424,7.88644,-0.231209,22,7
-11.7869,8.73777,3.93146,29,15
-11.1708,8.30523,0.242972,15,8
-0.458156,0.340753,-0.131821,14,1
-10.5422,7.84358,0.688637,56,9
-0.562315,0.418374,-0.136238,12,2
-11.0681,8.23789,1.20711,60,10
-10.7218,7.98307,-2.11718,9,3
-10.6983,7.96848,1.63792,56,11
-10.3213,7.69044,-1.5804,43,4
-11.5333,8.59665,2.27831,17,12
-10.1214,7.54429,-1.10444,26,5
-10.5954,7.90044,2.56905,49,13
-11.2786,8.41294,-0.737414,29,6
-23.2933,17.3813,6.70984,78,14
-10.0715,7.51804,-0.219377,25,7
-11.5876,8.65288,3.87504,40,15
-11.0681,8.28903,0.241367,44,8
-0.425771,0.318981,-0.122823,15,1
-10.4012,7.79529,0.681205,53,9
-0.582846,0.436818,-0.14158,11,2
-11.0154,8.25854,1.20449,52,10
-10.0792,7.55939,-1.99548,15,3
-10.7022,8.0296,1.6428,30,11
-10.2547,7.69662,-1.57431,21,4
-12.8096,9.61773,2.53705,48,12
-10.0823,7.57,-1.10304,19,5
-10.5772,7.94445,2.57134,48,13
-11.1901,8.40786,-0.733541,68,6
-23.2216,17.4543,6.70669,58,14
-10.0085,7.52551,-0.218574,20,7
-11.5095,8.65727,3.85899,28,15
-11.0503,8.33605,0.241611,44,8
-0.474432,0.35803,-0.13722,13,1
-10.1968,7.69499,0.669482,46,9
-0.57505,0.434118,-0.140054,11,2
-11.1455,8.41702,1.22192,31,10
-10.0984,7.62906,-2.00455,17,3
-10.6868,8.07648,1.64475,22,11
-10.2198,7.72639,-1.57309,19,4
-12.9084,9.75903,2.56302,30,12
-10.0256,7.58231,-1.09973,26,5
-10.54,7.97422,2.56905,54,13
-11.2164,8.48906,-0.737204,29,6
-22.9881,17.4047,6.65675,77,14
-9.73157,7.36794,-0.213059,100,7
-11.5361,8.73738,3.87763,23,15
-10.9796,8.33999,0.240669,52,8
-0.448416,0.340737,-0.130022,14,1
-10.0856,7.66647,0.663934,57,9
-0.576656,0.4385,-0.140817,11,2
-10.8877,8.28217,1.19682,18,10
-10.051,7.64576,-2.00017,7,3
-11.5019,8.7526,1.77466,42,11
-10.1657,7.73859,-1.5687,17,4
-11.8245,9.00458,2.35403,11,12
-9.97849,7.60157,-1.09747,28,5
-10.4057,7.92703,2.54272,12,13
-11.1072,8.46447,-0.731866,19,6
-22.9752,17.5151,6.6698,48,14
-9.72169,7.41399,-0.213408,26,7
-11.5332,8.79869,3.88694,13,15
-11.0981,8.49127,0.243915,37,8
-0.422464,0.323349,-0.122823,15,1
-10.1172,7.74358,0.667702,56,9
-0.581434,0.445184,-0.142344,11,2
-10.887,8.33882,1.19979,31,10
-9.81261,7.5186,-1.95793,20,3
-11.4477,8.77459,1.77101,27,11
-10.2316,7.8453,-1.58308,3,4
-12.5642,9.63392,2.50764,18,12
-10.3073,7.90624,-1.13651,35,5
-12.6209,9.68433,3.09225,21,13
-10.9698,8.42049,-0.724748,13,6
-22.7022,17.4326,6.60816,28,14
-9.79063,7.51804,-0.215467,100,7
-11.1253,8.57074,0.245136,34,8
-0.452261,0.348539,-0.131821,14,1
-10.1565,7.83006,0.672098,58,9
-0.561221,0.432823,-0.137764,12,2
-10.8105,8.34026,1.19456,49,10
-9.82203,7.57765,-1.96482,23,3
-11.2079,8.64998,1.73834,42,11
-11.8538,9.15174,-1.83876,54,4
-12.4836,9.64149,2.49826,18,12
-10.2292,7.90319,-1.13093,28,5
-22.9961,17.767,5.64871,34,13
-11.3069,8.73896,-0.748928,29,6
-22.6735,17.5304,6.61671,9,14
-10.223,7.90696,-0.22559,100,7
-10.9136,8.46854,0.241122,53,8
-0.420253,0.326217,-0.122823,15,1
-10.1008,7.84342,0.670214,56,9
-0.562884,0.43709,-0.138527,12,2
-11.8968,9.24142,1.31797,25,10
-9.62083,7.47613,-1.92978,18,3
-11.0586,8.59646,1.71982,42,11
-10.6434,8.27668,-1.65547,17,4
-11.661,9.07128,2.33995,13,12
-10.2045,7.93829,-1.13111,28,5
-22.2197,17.2913,5.47278,44,13
-11.2448,8.75384,-0.746834,35,6
-25.8287,20.1143,7.55791,44,14
-9.55807,7.44611,-0.211488,19,7
-10.8415,8.47333,0.24018,49,8
-0.419112,0.327682,-0.122823,15,1
-10.0749,7.87986,0.670319,27,9
-0.558262,0.436633,-0.137764,12,2
-11.5946,9.07172,1.28799,41,10
-9.56512,7.48654,-1.92383,18,3
-10.7128,8.3878,1.67059,41,11
-11.7662,9.21591,-1.83511,66,4
-10.2662,8.04391,-1.14104,23,5
-11.615,9.10405,2.86862,20,13
-11.6456,9.13459,3.41701,18,14
-10.0795,7.90901,-0.223635,29,7
-10.7411,8.45547,0.238609,56,8
-0.417966,0.329143,-0.122823,15,1
-10.5759,8.32841,0.705489,60,9
-0.575241,0.453158,-0.142344,11,2
-12.6629,9.97908,1.41053,40,10
-9.65993,7.61527,-1.94824,6,3
-10.4668,8.25428,1.63671,78,11
-11.6373,9.17744,-1.81975,42,4
-11.5199,9.08805,2.32399,17,12
-9.96901,7.8674,-1.11106,26,5
-11.5431,9.11291,2.8587,4,13
-10.5079,8.29861,-0.701721,13,6
-11.6428,9.19489,3.4251,40,14
-10.1583,8.02545,-0.225974,24,7
-10.7021,8.48234,0.238365,60,8
-0.416872,0.330527,-0.122823,15,1
-10.6077,8.41059,0.709466,31,9
-0.546048,0.433103,-0.135474,12,2
-12.6173,10.0111,1.40913,21,10
-9.64235,7.6534,-1.9498,20,3
-10.4751,8.31734,1.64231,48,11
-12.4904,9.92112,2.52642,55,12
-10.0177,7.95991,-1.11943,38,5
-11.5482,9.17924,2.86748,10,13
-10.5522,8.39059,-0.706536,3,6
-11.5969,9.22132,3.42061,27,14
-10.116,8.04665,-0.225625,28,7
-10.8083,8.62506,0.241367,57,8
-0.415774,0.331908,-0.122823,15,1
-10.5877,8.45505,0.710094,42,9
-0.532336,0.42511,-0.132421,13,2
-10.7861,8.61659,1.2078,28,10
-9.57372,7.6508,-1.94104,6,3
-10.4381,8.34459,1.64085,63,11
-10.539,8.42824,-1.65694,36,4
-12.5128,10.0103,2.53799,55,12
-10.1283,8.10563,-1.13494,26,5
-10.4651,8.3781,-0.702558,16,6
-11.5769,9.27149,3.42421,49,14
-10.1456,8.12817,-0.226916,100,7
-10.867,8.73413,0.243356,56,8
-0.414613,0.333357,-0.122823,15,1
-10.6343,8.55329,0.715223,27,9
-0.570544,0.459057,-0.142344,11,2
-10.8336,8.71978,1.21669,47,10
-10.2395,8.24457,-2.08214,37,3
-10.3811,8.35857,1.63646,52,11
-10.5327,8.48365,-1.66059,36,4
-12.4701,10.0477,2.53643,53,12
-9.96037,8.0284,-1.11925,47,5
-11.3875,9.182,2.84344,46,13
-10.3286,8.33113,-0.69544,48,6
-11.561,9.32855,3.4296,27,14
-10.0534,8.11205,-0.225485,26,7
-10.8862,8.81544,0.244508,60,8
-0.413388,0.334874,-0.122823,15,1
-11.2143,9.08443,0.756359,18,9
-0.568938,0.461046,-0.142344,11,2
-12.1914,9.88297,1.37305,15,10
-10.1846,8.25911,-2.07682,33,3
-10.3735,8.41532,1.64012,45,11
-10.483,8.50411,-1.65742,19,4
-12.4564,10.1086,2.54081,48,12
-10.0715,8.17614,-1.13494,26,5
-11.3569,9.22293,2.84382,44,13
-10.3273,8.38981,-0.697324,71,6
-11.9293,9.69123,3.54838,54,14
-9.91947,8.06133,-0.223112,24,7
-24.579,19.9819,8.48771,26,15
-10.9127,8.89698,0.245765,16,8
-0.430397,0.351023,-0.128222,14,1
-11.1238,9.07234,0.752277,51,9
-0.561322,0.457966,-0.140817,11,2
-17.3495,14.16,1.95926,50,10
-10.1633,8.29783,-2.07808,37,3
-10.3902,8.48609,1.64719,45,11
-10.1073,8.25504,-1.60234,29,4
-11.2021,9.15252,2.29114,8,12
-10.393,8.49445,-1.17434,27,5
-11.3019,9.24066,2.83771,29,13
-11.9107,9.74183,3.55243,51,14
-10.0165,8.19549,-0.225904,27,7
-24.3482,19.9287,8.43077,52,15
-10.9156,8.95976,0.246498,2,8
-0.465377,0.382129,-0.13902,13,1
-11.0612,9.08576,0.750184,51,9
-0.544629,0.447363,-0.137001,12,2
-11.8454,9.7334,1.34133,57,10
-10.1555,8.3478,-2.08214,31,3
-10.3405,8.50284,1.64377,41,11
-10.294,8.47063,-1.16632,32,5
-11.2652,9.27309,2.83618,36,13
-9.55915,7.87156,-0.648966,3,6
-11.8555,9.766,3.54613,49,14
-10.0125,8.25074,-0.226462,100,7
-24.4096,20.1217,8.47632,39,15
-10.8703,8.98634,0.246184,5,8
-0.452026,0.373815,-0.135421,13,1
-10.9925,9.09376,0.747672,51,9
-0.543064,0.449262,-0.137001,12,2
-11.7822,9.75056,1.33801,31,10
-10.2343,8.47558,1.63159,30,11
-10.0234,8.30387,-1.59819,11,4
-11.1258,9.22041,2.28864,49,12
-10.0435,8.32344,-1.14122,28,5
-11.1934,9.27978,2.82626,35,13
-9.47012,7.85388,-0.644779,13,6
-11.8229,9.80857,3.54658,47,14
-10.5453,8.75178,-0.239203,25,7
-24.2768,20.155,8.45458,33,15
-0.445457,0.370746,-0.155291,12,0
-10.8466,9.03063,0.246358,33,8
-0.408791,0.340471,-0.122823,15,1
-10.8793,9.06431,0.742124,39,9
-0.556576,0.463721,-0.140817,11,2
-17.1615,14.3035,1.95455,58,10
-10.0955,8.41723,-2.08183,15,3
-12.3191,10.2748,1.96965,25,11
-11.0613,9.22902,-1.76881,43,4
-11.0784,9.24653,2.28551,43,12
-9.91338,8.27418,-1.12971,28,5
-11.1866,9.34019,2.83275,64,13
-10.2214,8.5373,-0.697952,35,6
-11.7706,9.83479,3.54118,47,14
-10.4349,8.72185,-0.237388,25,7
-24.1263,20.1727,8.42663,39,15
-0.44416,0.372299,-0.155291,12,0
-10.8319,9.08257,0.246742,16,8
-0.4076,0.341896,-0.122823,15,1
-10.8078,9.06886,0.739402,51,9
-0.542922,0.455566,-0.137764,12,2
-11.1919,9.39448,1.2784,49,10
-10.0207,8.41431,-2.07244,16,3
-12.1114,10.1735,1.94211,16,11
-11.0457,9.28163,-1.77149,9,4
-10.978,9.22795,2.27143,58,12
-9.93019,8.3472,-1.13494,30,5
-11.1224,9.35265,2.82474,19,13
-10.8396,9.11805,-0.742333,35,6
-11.7213,9.86327,3.53668,56,14
-10.4855,8.82647,-0.239238,26,7
-24.0941,20.2891,8.44009,33,15
-10.7725,9.10027,0.246149,48,8
-0.406344,0.343387,-0.122823,15,1
-10.7136,9.05367,0.735111,54,9
-0.529255,0.447413,-0.134711,12,2
-11.1879,9.46117,1.28189,55,10
-8.44847,7.1471,-1.75269,13,3
-10.0435,8.49942,1.6155,61,11
-11.042,9.3477,-1.77637,5,4
-10.9472,9.26749,2.27174,46,12
-9.9345,8.41315,-1.13895,16,5
-11.0626,9.37178,2.81825,32,13
-10.7771,9.13319,-0.740345,35,6
-11.8233,10.0234,3.57852,40,14
-10.5004,8.90181,-0.240285,24,7
-23.9171,20.2832,8.40282,52,15
-11.0104,9.36395,0.252292,42,8
-0.405203,0.344733,-0.122823,15,1
-10.6424,9.05736,0.732389,44,9
-0.539649,0.459439,-0.137764,12,2
-11.2336,9.56734,1.29095,55,10
-9.92409,8.45204,-2.06462,39,3
-11.8602,10.1046,1.91311,33,11
-12.0745,10.2908,-1.94796,9,4
-10.8667,9.26464,2.26173,54,12
-11.8379,10.0962,-1.3612,28,5
-11.0792,9.44918,2.83046,46,13
-10.572,9.0198,-0.728307,61,6
-11.7678,10.0435,3.57177,20,14
-10.3613,8.84622,-0.237806,22,7
-24.09,20.5748,8.48875,39,15
-10.5668,9.05362,0.729249,50,9
-0.53216,0.456116,-0.136238,12,2
-11.1716,9.57861,1.28746,46,10
-9.88703,8.4802,-2.06306,24,3
-11.8234,10.1446,1.91286,45,11
-11.0656,9.49441,-1.79026,8,4
-10.8344,9.29934,2.26142,36,12
-9.76212,8.38194,-1.1257,11,5
-10.1466,8.71823,-0.701093,68,6
-11.8704,10.1993,3.61316,42,14
-9.98611,8.58334,-0.229848,22,7
-24.2252,20.8296,8.5607,6,15
-0.497288,0.428944,-0.151617,11,1
-10.5594,9.10818,0.730819,46,9
-0.533617,0.460443,-0.137001,12,2
-11.1609,9.63382,1.2899,30,10
-8.29047,7.15867,-1.73486,21,3
-11.7852,10.1799,1.91213,49,11
-11.1422,9.62448,-1.80781,24,4
-10.7901,9.32359,2.2586,53,12
-9.68905,8.37518,-1.12047,21,5
-11.0978,9.59628,2.85183,15,13
-9.96508,8.61986,-0.690521,71,6
-11.9043,10.2973,3.63386,11,14
-10.1436,8.77736,-0.234141,21,7
-11.3137,9.82099,0.261507,30,8
-0.401693,0.348817,-0.122823,15,1
-10.5471,9.162,0.73218,51,9
-0.529123,0.459635,-0.136238,12,2
-11.159,9.69692,1.29339,51,10
-8.27563,7.1939,-1.73674,13,3
-11.7543,10.2215,1.91262,49,11
-10.9034,9.48482,-1.77442,7,4
-10.7768,9.37805,2.26267,44,12
-11.815,10.2815,-1.37026,21,5
-11.0689,9.63561,2.85259,26,13
-9.86565,8.59121,-0.685601,71,6
-11.8874,10.3554,3.63971,16,14
-9.65156,8.4107,-0.223461,24,7
-11.2959,9.8749,0.261891,51,8
-0.400473,0.350217,-0.122823,15,1
-10.3542,9.05806,0.72098,47,9
-0.527515,0.461479,-0.136238,12,2
-11.0471,9.66759,1.28433,52,10
-10.5334,9.22132,-2.2173,40,3
-11.741,10.2821,1.91627,45,11
-11.3062,9.90479,-1.84559,4,4
-10.8391,9.49894,2.28269,44,12
-11.8854,10.4159,-1.38264,13,5
-11.0514,9.68842,2.85679,20,13
-9.8371,8.62691,-0.685706,55,6
-9.6973,8.51029,-0.225206,100,7
-11.2389,9.89445,0.261367,75,8
-0.428497,0.377372,-0.131821,14,1
-10.369,9.13507,0.724225,45,9
-0.517062,0.455531,-0.133948,13,2
-11.088,9.77195,1.29304,55,10
-10.4508,9.21362,-2.20666,42,3
-11.8494,10.4504,1.93992,45,11
-11.276,9.94813,-1.84632,6,4
-10.7081,9.45045,2.26204,33,12
-11.9745,10.5681,-1.39728,27,5
-11.0146,9.72435,2.85603,33,13
-9.73358,8.59641,-0.680577,74,6
-9.66303,8.54011,-0.225101,21,7
-0.433726,0.384404,-0.155291,12,0
-11.2207,9.94822,0.261751,28,8
-0.427177,0.378866,-0.131821,14,1
-10.3296,9.16458,0.723702,52,9
-0.530155,0.470363,-0.137764,12,2
-10.9361,9.70612,1.27927,57,10
-10.4333,9.26316,-2.20979,34,3
-11.801,10.4811,1.93797,45,11
-12.5753,11.1727,-2.06544,11,4
-10.7459,9.55076,2.27706,56,12
-12.079,10.7356,-1.41384,16,5
-10.9776,9.76012,2.85527,41,13
-9.70053,8.62768,-0.680368,65,6
-9.73325,8.66287,-0.22744,28,7
-11.2426,10.0379,0.263078,40,8
-0.420038,0.375162,-0.130022,14,1
-10.3498,9.24402,0.727261,46,9
-0.529974,0.473518,-0.138146,12,2
-10.8947,9.73759,1.2784,33,10
-10.6852,9.55363,-2.27018,32,3
-10.7834,9.64484,1.77637,23,11
-11.2036,10.0207,-1.84559,8,4
-11.7876,10.5504,-1.38403,10,5
-9.69118,8.68014,-0.681833,13,6
-9.68957,8.68175,-0.227091,24,7
-0.4311,0.387347,-0.155291,12,0
-11.1453,10.0177,0.261577,70,8
-0.441977,0.3974,-0.13722,13,1
-10.4899,9.43186,0.739298,54,9
-0.528401,0.475273,-0.138146,12,2
-10.855,9.76701,1.27753,44,10
-12.5313,11.2792,-2.67034,39,3
-21.1486,19.0423,3.49424,11,11
-11.0611,9.95949,-1.82755,22,4
-21.1724,19.0704,4.51313,13,12
-10.2546,9.23977,-1.20763,12,5
-11.1151,10.0186,2.90869,17,13
-9.60004,8.65606,-0.677437,48,6
-9.72755,8.7741,-0.228661,100,7
-11.4356,10.3184,4.12713,2,15
-9.51803,8.61227,0.224054,47,8
-0.466663,0.422403,-0.145318,12,1
-10.5176,9.52339,0.743589,36,9
-0.521,0.471752,-0.136619,12,2
-10.8358,9.81499,1.2791,60,10
-10.4884,9.50358,-2.24171,42,3
-11.684,10.5907,1.93626,16,11
-10.9984,9.9727,-1.82292,16,4
-10.2195,9.26971,-1.20711,32,5
-11.3086,10.2613,2.96823,37,13
-10.0105,9.08653,-0.708524,68,6
-10.3437,9.39557,-0.243915,88,7
-11.4839,10.4349,4.15767,1,15
-9.58103,8.7303,0.226253,58,8
-0.439262,0.400399,-0.13722,13,1
-10.4164,9.49814,0.738774,51,9
-0.496139,0.452403,-0.130513,13,2
-10.7485,9.80441,1.27282,60,10
-10.4682,9.55212,-2.24452,37,3
-11.6367,10.6221,1.93455,24,11
-10.943,9.99229,-1.81951,22,4
-10.8891,9.94662,2.33588,48,12
-10.2091,9.32548,-1.20972,20,5
-11.2293,10.2609,2.95678,41,13
-9.96842,9.11199,-0.707792,68,6
-10.3374,9.45591,-0.244543,22,7
-0.427088,0.391766,-0.155291,12,0
-9.47535,8.69473,0.224473,56,8
-0.443604,0.407201,-0.13902,13,1
-10.3686,9.51777,0.737623,63,9
-0.520586,0.478033,-0.137382,12,2
-10.7083,9.83648,1.27213,66,10
-10.4712,9.62202,-2.25234,34,3
-20.171,18.5417,3.36408,20,11
-10.9241,10.0452,-1.82219,46,4
-11.128,10.2327,2.39439,55,12
-10.263,9.44065,-1.22001,20,5
-11.1587,10.2682,2.94762,43,13
-9.97916,9.18596,-0.710827,74,6
-11.3336,10.4364,3.55693,78,14
-10.2045,9.39667,-0.242135,22,7
-9.38477,8.66912,0.223007,66,8
-0.419352,0.387509,-0.131821,14,1
-10.3647,9.58102,0.739716,45,9
-0.492969,0.455855,-0.130513,13,2
-11.3102,10.4623,1.34795,69,10
-10.4102,9.62986,-2.24609,42,3
-10.926,10.1105,1.8278,44,11
-10.8791,10.0706,-1.82024,42,4
-10.7487,9.9534,2.32024,64,12
-10.0795,9.33695,-1.20205,35,5
-10.4318,9.66337,2.76406,7,13
-9.98088,9.24886,-0.71313,58,6
-11.3346,10.507,3.56817,45,14
-9.76841,9.05832,-0.232536,100,7
-9.20072,8.55882,0.219342,63,8
-0.429409,0.399591,-0.135421,13,1
-10.913,10.1588,0.781376,45,9
-0.508698,0.47354,-0.135093,12,2
-10.7345,9.99604,1.28328,33,10
-10.5341,9.81291,-2.28019,24,3
-10.9284,10.1838,1.83413,44,11
-10.7219,9.99481,-1.79977,34,4
-10.7775,10.0501,2.334,50,12
-10.404,9.70188,-1.24458,20,5
-9.95875,9.29318,-0.713862,58,6
-10.8192,10.0997,3.41701,27,14
-9.81273,9.16333,-0.234351,100,7
-9.17954,8.59908,0.219551,63,8
-0.410948,0.385097,-0.130022,14,1
-10.9533,10.2678,0.786819,7,9
-0.515636,0.483369,-0.137382,24,2
-10.7823,10.1111,1.29322,71,10
-10.5603,9.90638,-2.29333,50,3
-10.9637,10.2884,1.84608,52,11
-10.6826,10.0281,-1.79904,46,4
-10.8949,10.231,2.36717,81,12
-10.5952,9.94954,-1.2716,15,5
-11.0624,10.3919,2.95029,41,13
-9.87967,9.28413,-0.710513,71,6
-10.9912,10.3323,3.48269,9,14
-10.024,9.4263,-0.24018,25,7
-0.421646,0.397617,-0.155291,12,0
-9.34584,8.81632,0.224263,60,8
-0.426609,0.402579,-0.135421,13,1
-0.49967,0.471689,-0.133566,26,2
-10.731,10.1337,1.2913,60,10
-10.8085,10.2104,-2.35496,50,3
-10.7142,10.1248,1.81,32,11
-10.8422,10.2494,-1.83194,32,4
-10.7802,10.1944,2.34996,67,12
-10.4431,9.87558,-1.25748,10,5
-9.87622,9.34601,-0.712606,68,6
-10.0883,9.55336,-0.242519,100,7
-9.18453,8.72494,0.221122,23,8
-0.422376,0.401381,-0.134521,14,1
-10.9117,10.3729,0.789017,56,9
-0.512249,0.486957,-0.137382,12,2
-10.8588,10.3262,1.311,54,10
-10.7843,10.259,-2.35747,43,3
-10.6342,10.1197,1.80245,52,11
-10.7532,10.2366,-1.82292,40,4
-10.7045,10.1938,2.3412,39,12
-10.2542,9.76495,-1.23883,5,5
-9.90571,9.43968,-0.717107,81,6
-10.5078,10.0205,-0.253444,36,7
-0.41886,0.400551,-0.155291,12,0
-9.36643,8.96014,0.226253,52,8
-0.42942,0.410937,-0.13722,13,1
-10.9941,10.5209,0.797495,44,9
-0.502037,0.480596,-0.135093,25,2
-10.9176,10.455,1.3225,80,10
-10.7769,10.3239,-2.36372,29,3
-10.9571,10.5002,1.86338,28,11
-10.6357,10.1957,-1.80903,32,4
-10.7163,10.273,2.35121,28,12
-10.1971,9.77862,-1.23604,20,5
-11.0904,10.639,2.98731,24,13
-9.80209,9.40643,-0.711978,71,6
-10.6015,10.1771,-0.256515,30,7
-9.84081,9.47663,0.23847,70,8
-0.422441,0.406951,-0.135421,13,1
-10.9458,10.5481,0.796658,51,9
-0.500357,0.482345,-0.135093,25,2
-10.5254,10.15,1.27927,30,10
-10.7085,10.3267,-2.35622,26,3
-10.9351,10.5488,1.86558,44,11
-10.5262,10.1579,-1.79611,62,4
-10.9874,10.6067,2.41879,56,12
-10.0339,9.6896,-1.22035,27,5
-9.75217,9.42085,-0.710618,74,6
-10.6378,10.2836,-0.258261,93,7
-0.416124,0.403393,-0.155291,12,0
-9.80049,9.50397,0.238295,55,8
-0.381854,0.37043,-0.122823,15,1
-10.919,10.596,0.797391,56,9
-0.515661,0.500409,-0.139672,23,2
-10.8576,10.5402,1.3239,89,10
-10.4471,10.1452,-2.30647,39,3
-10.8811,10.5703,1.86265,44,11
-10.549,10.2513,-1.8061,12,4
-10.9276,10.6229,2.41378,54,12
-10.0417,9.7617,-1.22524,20,5
-9.61758,9.35595,-0.703186,65,6
-10.3797,10.1044,-0.25285,26,7
-9.80159,9.57165,0.239133,61,8
-0.380558,0.37176,-0.122823,15,1
-10.8648,10.6173,0.796135,50,9
-0.49987,0.488484,-0.135856,25,2
-10.8493,10.6059,1.32738,74,10
-10.3509,10.1222,-2.29302,40,3
-10.7661,10.5319,1.84925,72,11
-10.8863,10.6532,-1.87021,6,4
-10.8594,10.6306,2.4069,47,12
-9.91785,9.70889,-1.21425,10,5
-10.5973,10.3777,2.88312,41,13
-9.60341,9.40763,-0.704547,45,6
-10.4644,10.2582,-0.255782,85,7
-9.73675,9.57496,0.238365,61,8
-0.44872,0.441417,-0.145318,12,1
-10.8234,10.651,0.795821,61,9
-0.498162,0.490226,-0.135856,25,2
-10.8704,10.701,1.33453,57,10
-10.1747,10.0196,-2.26173,43,3
-10.5299,10.373,1.81488,44,11
-10.4121,10.2606,-1.79489,16,4
-10.8307,10.6768,2.40878,31,12
-9.8541,9.71407,-1.21059,27,5
-10.561,10.4146,2.88312,35,13
-9.59042,9.46074,-0.706012,29,6
-10.7586,10.6206,-0.26388,23,7
-0.411877,0.407728,-0.155291,12,0
-9.62654,9.53291,0.23648,60,8
-0.377954,0.374408,-0.122823,15,1
-10.6088,10.513,0.782737,52,9
-0.504815,0.500254,-0.138146,12,2
-10.6632,10.5705,1.31361,63,10
-10.221,10.1358,-2.27988,35,3
-10.4217,10.3384,1.80245,48,11
-9.56746,9.49427,-1.65499,17,4
-10.6756,10.5976,-1.31605,10,5
-10.4968,10.4237,2.87549,30,13
-9.55308,9.48993,-0.705698,9,6
-10.3967,10.3352,-0.255887,26,7
-9.58213,9.55207,0.236166,70,8
-0.398788,0.397676,-0.130022,14,1
-10.5333,10.5039,0.779597,53,9
-0.501763,0.500538,-0.137764,24,2
-10.676,10.6537,1.31954,17,10
-10.3873,10.3692,-2.32462,43,3
-13.1293,13.111,-2.27823,12,4
-10.9504,10.9428,-1.3544,10,5
-10.8223,10.8223,-0.802101,19,6
-18.0403,18.0403,5.89012,59,14
-10.3303,10.3339,-0.255049,93,7
-0.409163,0.410451,-0.155291,12,0
-9.54475,9.57813,0.236026,70,8
-0.419472,0.421086,-0.13722,13,1
-10.3405,10.3803,0.767873,59,9
-0.505642,0.507764,-0.139291,24,2
-10.5704,10.6184,1.31082,66,10
-12.9167,12.98,-2.9003,12,3
-10.5993,10.655,1.84535,44,11
-10.1681,10.2215,-1.77027,7,4
-10.7146,10.7784,-1.32965,26,5
-17.939,18.0521,4.94691,32,13
-17.6673,17.7849,5.78754,78,14
-10.2833,10.3553,-0.254735,30,7
-17.7789,17.9097,6.76191,32,15
-9.55796,9.6552,0.237143,70,8
-0.423557,0.428016,-0.13902,13,1
-10.4887,10.5991,0.781481,30,9
-0.503955,0.509438,-0.139291,24,2
-10.4804,10.5982,1.30402,86,10
-7.58249,7.67034,-1.70826,12,3
-10.61,10.7367,1.85339,44,11
-9.88408,10.0056,-1.72689,24,4
-17.7903,18.009,4.00942,5,12
-10.7516,10.8876,-1.33871,13,5
-17.8528,18.0849,4.93966,3,13
-10.603,10.7445,-0.79111,29,6
-17.5818,17.8228,5.77989,77,14
-10.7292,10.8762,-0.266673,28,7
-17.8035,18.0538,6.794,48,15
-9.53009,9.69112,0.237248,72,8
-0.416671,0.423859,-0.13722,13,1
-10.1885,10.3678,0.761802,75,9
-0.496671,0.505592,-0.137764,24,2
-10.4546,10.6461,1.30542,74,10
-7.66359,7.80397,-1.73236,53,3
-11.0124,11.218,1.93017,45,11
-9.7132,9.89804,-1.70276,33,4
-17.6375,17.9794,3.98908,39,12
-10.6759,10.8867,-1.33401,47,5
-17.6031,17.9506,4.887,12,13
-12.6086,12.862,-0.943931,42,6
-17.4872,17.8449,5.7682,77,14
-9.83192,10.0365,-0.245241,34,7
-17.7295,18.1048,6.78986,20,15
-9.36907,9.59414,0.234072,78,8
-0.398853,0.408577,-0.131821,14,1
-10.42,10.6778,0.781899,53,9
-0.503218,0.515667,-0.140054,23,2
-10.5124,10.7762,1.3171,60,10
-7.64595,7.84057,-1.73455,43,3
-10.9759,11.2592,1.93065,24,11
-10.0388,10.3015,-1.76613,28,4
-17.4574,17.9206,3.96249,32,12
-10.0072,10.2726,-1.25469,30,5
-17.2102,17.6729,4.79503,48,13
-12.5998,12.9431,-0.946653,42,6
-17.7102,18.1991,5.86267,43,14
-9.84145,10.1167,-0.246358,37,7
-17.6891,18.1901,6.79866,4,15
-9.43437,9.72871,0.23655,61,8
-0.391999,0.40437,-0.130022,14,1
-10.1019,10.4244,0.760756,49,9
-0.49595,0.511781,-0.138527,24,2
-10.4914,10.83,1.31919,57,10
-10.2226,10.5563,-2.32743,14,3
-10.3166,10.6571,1.82122,16,11
-10.5812,10.9342,-1.86826,70,4
-17.3151,17.899,3.94434,32,12
-9.98787,10.3247,-1.25679,12,5
-17.5879,18.1874,4.91791,35,13
-12.5129,12.9439,-0.943513,56,6
-17.5518,18.1627,5.83118,58,14
-9.86443,10.2113,-0.247824,34,7
-17.6416,18.2684,6.80487,4,15
-9.3726,9.73277,0.235852,72,8
-0.393288,0.408544,-0.130922,14,1
-10.0558,10.4495,0.760023,54,9
-0.499606,0.519167,-0.140054,23,2
-10.4687,10.8824,1.32111,86,10
-10.376,10.7898,-2.37092,34,3
-10.2574,10.6701,1.81732,44,11
-9.99828,10.4043,-1.77174,37,4
-17.2183,17.9237,3.93652,32,12
-9.75577,10.1555,-1.23203,5,5
-17.576,18.3024,4.93241,35,13
-11.2228,11.6908,-0.849308,52,6
-17.4721,18.207,5.82578,87,14
-9.85226,10.2703,-0.248418,33,7
-0.400624,0.41879,-0.155291,12,0
-9.30402,9.7293,0.234979,63,8
-0.421485,0.440904,-0.140819,13,1
-10.0482,10.5149,0.762221,52,9
-0.492365,0.515231,-0.138527,24,2
-9.80582,10.2648,1.24197,21,10
-10.5607,11.0589,-2.42192,77,3
-10.2269,10.7131,1.81853,44,11
-9.92352,10.3989,-1.76491,46,4
-17.1597,17.988,3.93746,37,12
-9.74089,10.2111,-1.23465,27,5
-17.4889,18.3395,4.92593,32,13
-11.1806,11.7285,-0.849203,42,6
-17.6692,18.5415,5.91306,67,14
-9.82876,10.3176,-0.248732,35,7
-9.27964,9.77187,0.235224,61,8
-0.40921,0.431066,-0.13722,13,1
-9.59115,10.1034,0.730087,42,9
-0.487861,0.514098,-0.137764,24,2
-9.76719,10.2961,1.24162,49,10
-10.5383,11.1129,-2.42567,36,3
-16.066,16.9478,2.86734,30,11
-9.59496,10.1251,-1.71275,41,4
-10.7858,11.3818,2.48355,9,12
-9.66134,10.1987,-1.22907,30,5
-17.3438,18.3149,4.90303,37,13
-11.1711,11.8008,-0.851611,74,6
-9.74501,10.2979,-0.247475,29,7
-0.399756,0.423914,-0.134521,14,1
-9.56404,10.1456,0.730715,57,9
-0.499528,0.530086,-0.14158,23,2
-11.0933,11.776,1.41541,21,10
-12.9504,13.7474,-2.99134,10,3
-15.8587,16.8406,2.84029,29,11
-9.58446,10.1815,-1.7169,48,4
-10.7095,11.3805,2.47511,7,12
-9.56971,10.1729,-1.22192,32,5
-17.3987,18.4953,4.93585,13,13
-10.8952,11.586,-0.833503,52,6
-9.72544,10.3493,-0.247894,37,7
-0.39629,0.422893,-0.155291,12,0
-10.2054,10.8943,0.260564,72,8
-0.379626,0.405393,-0.128222,14,1
-9.62138,10.278,0.737832,44,9
-0.495084,0.528873,-0.140817,23,2
-10.756,11.4941,1.37724,78,10
-7.4194,7.93131,-1.72015,6,3
-15.793,16.8886,2.83907,44,11
-9.50955,10.1728,-1.70983,41,4
-15.8083,16.9168,3.66714,24,12
-9.48967,10.1551,-1.216,35,5
-15.8102,16.9247,4.50195,10,13
-10.8929,11.6649,-0.836433,65,6
-9.67834,10.3715,-0.247615,23,7
-0.394812,0.424274,-0.155291,12,0
-10.1537,10.9152,0.260215,66,8
-0.388825,0.418132,-0.131821,14,1
-9.88326,10.6319,0.760756,46,9
-0.490561,0.527722,-0.140054,23,2
-10.625,11.4338,1.36556,66,10
-7.39435,7.96006,-1.72078,37,3
-15.7421,16.9523,2.84053,44,11
-9.22279,9.93532,-1.66449,47,4
-15.729,16.9501,3.66244,27,12
-9.47449,10.2101,-1.21861,40,5
-16.8619,18.1773,4.81945,15,13
-11.1781,12.0543,-0.861555,35,6
-9.6149,10.3759,-0.246917,61,7
-0.393328,0.425649,-0.155291,12,0
-10.0708,10.9021,0.259064,66,8
-0.408516,0.442394,-0.13902,13,1
-9.85065,10.6676,0.760965,44,9
-0.490048,0.530874,-0.140435,23,2
-10.5823,11.4679,1.36521,66,10
-7.38527,8.00615,-1.72516,50,3
-9.91647,10.7539,1.79611,36,11
-9.26877,10.055,-1.67912,22,4
-15.6687,16.9978,3.66151,18,12
-9.21603,10.0013,-1.18985,30,5
-16.9553,18.4065,4.86448,68,13
-10.8291,11.7642,-0.279099,31,7
-10.0305,10.9311,0.258959,66,8
-0.412316,0.449491,-0.140819,13,1
-10.5787,11.5366,0.820314,54,9
-0.488192,0.532581,-0.140435,23,2
-10.7185,11.6972,1.38804,72,10
-12.6608,13.8169,-2.96819,24,3
-10.7684,11.7558,1.95747,63,11
-9.28498,10.1399,-1.68813,49,4
-16.8977,18.46,3.96374,32,12
-9.21603,10.0716,-1.19438,32,5
-17.0068,18.5857,4.89692,31,13
-10.6886,11.6851,-0.829944,39,6
-0.390422,0.428317,-0.155291,12,0
-9.89129,10.8551,0.256341,60,8
-0.40287,0.442283,-0.13812,13,1
-10.4933,11.5199,0.81665,49,9
-0.482458,0.529842,-0.139291,24,2
-10.8969,11.9714,1.41628,78,10
-12.6604,13.9136,-2.97945,26,3
-10.6792,11.7404,1.94869,51,11
-9.35015,10.2793,-1.70617,63,4
-16.7753,18.4487,3.94934,30,12
-9.31525,10.2481,-1.21164,12,5
-16.8573,18.552,4.8725,12,13
-10.8653,11.9618,-0.846901,55,6
-9.74193,10.7288,-0.252955,28,7
-9.81498,10.8434,0.255294,30,8
-0.388326,0.429167,-0.133621,14,1
-10.4604,11.5606,0.817069,69,9
-0.497819,0.550367,-0.144252,22,2
-10.5846,11.706,1.38072,30,10
-10.361,11.4628,-2.44726,15,3
-10.7467,11.8936,1.96819,38,11
-10.6735,11.8167,2.52204,5,12
-9.26653,10.2627,-1.20972,30,5
-16.3971,18.1662,4.75687,33,13
-9.16249,10.1546,-0.716793,26,6
-9.68487,10.7373,-0.252397,38,7
-9.74554,10.8387,0.254421,60,8
-0.386901,0.430452,-0.133621,14,1
-10.4147,11.5911,0.81665,38,9
-0.493367,0.549094,-0.143488,33,2
-10.5337,11.7277,1.37915,84,10
-10.3705,11.55,-2.45852,7,3
-10.8093,12.0429,1.98696,46,11
-9.26406,10.325,-1.70325,50,4
-10.6902,11.9186,2.5358,31,12
-9.22846,10.2889,-1.2092,30,5
-9.83678,10.9825,-0.257353,100,7
-9.67035,10.8309,0.253444,63,8
-0.387991,0.434708,-0.134521,14,1
-10.4819,11.748,0.825129,80,9
-0.49014,0.549348,-0.143107,45,2
-10.4993,11.7718,1.38002,81,10
-12.6504,14.1885,-3.01074,8,3
-10.6047,11.8983,1.95698,55,11
-9.24381,10.375,-1.70617,52,4
-9.20309,10.3329,-1.21059,30,5
-8.96834,10.0765,-0.706954,91,6
-15.5092,17.4316,5.38668,5,14
-9.86218,11.0885,-0.259029,40,7
-9.64973,10.8841,0.253898,50,8
-0.394227,0.44481,-0.13722,13,1
-10.3282,11.6575,0.816232,54,9
-0.490823,0.553995,-0.14387,55,2
-10.4608,11.8113,1.38037,72,10
-10.2149,11.5378,-2.44069,7,3
-10.546,11.9159,1.95381,38,11
-10.9307,12.3549,-2.02547,13,4
-10.7127,12.1128,2.56115,52,12
-10.3206,11.6776,-0.816755,26,6
-15.4702,17.5104,5.39433,5,14
-9.61426,10.8861,-0.253514,39,7
-15.1881,17.2033,6.14902,12,15
-9.78346,11.1128,0.258435,33,8
-0.397822,0.452035,-0.13902,13,1
-10.2149,11.611,0.810475,45,9
-0.492679,0.560213,-0.145015,54,2
-10.4977,11.9409,1.39101,33,10
-9.79312,11.1434,-2.34965,8,3
-10.3445,11.7707,1.92407,53,11
-9.86685,11.2312,-1.8356,34,4
-10.5844,12.0522,2.5405,65,12
-9.92153,11.3014,-1.3157,28,5
-10.2382,11.6703,-0.813615,45,6
-9.72387,11.0879,-0.257423,30,7
-15.1127,17.2388,6.14281,34,15
-9.86635,11.2901,0.261716,51,8
-0.375649,0.430008,-0.131821,14,1
-10.259,11.7477,0.817383,26,9
-0.497177,0.569323,-0.146923,63,2
-10.3865,11.8979,1.38177,39,10
-11.0283,12.6375,-2.65657,22,3
-10.2008,11.6934,1.90531,49,11
-9.77474,11.2089,-1.82609,14,4
-10.5778,12.1341,2.54957,56,12
-9.88595,11.3405,-1.31623,34,5
-12.4053,14.2405,-0.989778,18,6
-9.98515,11.4704,-0.265451,90,7
-15.0557,17.3013,6.1454,37,15
-9.7168,11.1976,0.258784,81,8
-0.381807,0.440149,-0.134521,14,1
-10.0609,11.6023,0.804822,39,9
-0.497759,0.574021,-0.147686,51,2
-10.2666,11.8438,1.37131,66,10
-10.944,12.6297,-2.64687,31,3
-10.1599,11.7289,1.90531,66,11
-9.78753,11.303,-1.83584,38,4
-10.5263,12.1605,2.54738,70,12
-9.75763,11.2725,-1.30437,31,5
-14.9276,17.2511,4.4344,27,13
-9.41168,10.8805,-0.753952,35,6
-14.9272,17.2629,5.2688,5,14
-9.90451,11.4583,-0.264369,22,7
-14.9801,17.3363,6.13919,34,15
-9.78338,11.3542,0.261612,54,8
-0.377725,0.438526,-0.133621,14,1
-10.0568,11.6797,0.807753,63,9
-0.482942,0.560878,-0.14387,44,2
-10.3487,12.023,1.38787,72,10
-10.9256,12.6977,-2.65313,20,3
-10.2743,11.9449,1.93455,49,11
-9.72213,11.307,-1.83097,42,4
-10.4915,12.2061,2.54926,53,12
-9.76108,11.3563,-1.31013,42,5
-14.8903,17.3299,4.44127,30,13
-9.29035,10.8163,-0.747253,81,6
-14.7983,17.2351,5.24451,38,14
-9.79933,11.4169,-0.262624,34,7
-14.9761,17.4544,6.16248,34,15
-0.376852,0.440303,-0.155291,12,0
-9.69689,11.3335,0.260355,43,8
-0.366059,0.427994,-0.130022,14,1
-10.1419,11.862,0.817906,53,9
-0.477154,0.558084,-0.142725,45,2
-10.2924,12.0424,1.38595,78,10
-10.3244,12.084,-2.51734,9,3
-10.2067,11.9505,1.92968,49,11
-9.69549,11.356,-1.8334,12,4
-10.3834,12.166,2.5333,52,12
-9.7175,11.3858,-1.3096,44,5
-14.5634,17.0696,4.36151,28,13
-9.33031,10.9398,-0.753533,74,6
-14.3993,16.8892,5.12394,56,14
-9.79314,11.4906,-0.263531,100,7
-14.7234,17.2816,6.08328,24,15
-9.61849,11.3137,0.259203,24,8
-0.387428,0.455871,-0.13812,13,1
-10.1278,11.9212,0.81979,31,9
-0.475399,0.55958,-0.142725,22,2
-10.359,12.1977,1.40007,62,10
-9.49883,11.1887,-2.32462,27,3
-10.1396,11.9477,1.92407,61,11
-9.79974,11.5514,-1.85997,22,4
-10.6339,12.5391,2.60401,36,12
-9.59792,11.3175,-1.29827,18,5
-14.6481,17.2785,4.40311,25,13
-9.30622,10.9813,-0.754371,26,6
-14.3537,16.9433,5.12663,56,14
-10.0723,11.8937,-0.272048,35,7
-14.6041,17.2511,6.05637,27,15
-10.2703,12.1662,0.277912,67,8
-0.37578,0.445306,-0.134521,14,1
-9.70884,11.5092,0.789122,42,9
-0.472177,0.559735,-0.142344,22,2
-10.3485,12.2718,1.40443,75,10
-8.55958,10.154,-2.10342,6,3
-10.1055,11.9921,1.92554,57,11
-9.60462,11.4018,-1.83048,52,4
-14.5128,17.2346,3.56858,19,12
-9.75086,11.5795,-1.32442,28,5
-14.4347,17.1478,4.35693,38,13
-9.20739,10.9419,-0.749451,48,6
-14.243,16.9321,5.10819,56,14
-9.94838,11.8308,-0.269814,29,7
-14.4891,17.2369,6.03359,31,15
-10.2162,12.1882,0.277598,37,8
-0.374223,0.446615,-0.134521,14,1
-10.0452,11.9884,0.819686,46,9
-0.485348,0.579441,-0.146923,21,2
-10.3887,12.4072,1.41576,84,10
-9.39259,11.2215,-2.31773,42,3
-10.2572,12.2588,1.96258,46,11
-9.52655,11.3896,-1.82317,68,4
-14.4873,17.3205,3.57641,23,12
-9.71932,11.6242,-1.32564,31,5
-14.3685,17.1906,4.35502,11,13
-14.3899,17.2285,5.18242,42,14
-10.3257,12.3626,-0.281158,70,7
-14.4467,17.3026,6.0398,28,15
-10.1937,12.2435,0.278087,18,8
-0.417619,0.501776,-0.150717,11,1
-9.61494,11.5566,0.787866,21,9
-0.463236,0.55698,-0.140817,23,2
-10.2409,12.3177,1.40146,59,10
-8.489,10.2105,-2.10311,6,3
-10.1518,12.2148,1.95015,55,11
-9.45955,11.386,-1.81756,54,4
-14.3876,17.3238,3.56671,40,12
-9.64051,11.612,-1.32041,31,5
-14.3227,17.2517,4.35846,33,13
-14.3987,17.3556,5.20627,59,14
-10.5314,12.6987,-0.287965,94,7
-14.3937,17.3619,6.04291,23,15
-10.1904,12.3268,0.279169,17,8
-0.415865,0.50323,-0.150717,11,1
-9.58038,11.593,0.78818,49,9
-0.472639,0.572136,-0.144252,33,2
-9.87903,11.9629,1.35736,48,10
-9.75991,11.8229,-2.42818,19,3
-9.92839,12.0313,1.9153,49,11
-9.52838,11.5506,-1.83852,54,4
-14.2672,17.2953,3.55106,29,12
-9.60069,11.6424,-1.32024,42,5
-14.2087,17.2365,4.34205,28,13
-9.73311,11.8114,-0.802101,45,6
-14.3355,17.4028,5.20537,21,14
-10.1155,12.2797,-0.277703,100,7
-14.2611,17.3186,6.01133,28,15
-0.386993,0.471468,-0.140819,13,1
-9.51452,11.5955,0.786086,90,9
-0.465659,0.56771,-0.142725,45,2
-9.87006,12.0374,1.3619,69,10
-9.28728,11.3267,-2.31992,37,3
-9.91361,12.0948,1.92017,49,11
-9.28621,11.3334,-1.79904,66,4
-13.9414,17.021,3.48473,46,12
-9.69883,11.8454,-1.33941,31,5
-14.2186,17.3655,4.36266,33,13
-9.6648,11.8081,-0.799693,78,6
-14.0556,17.1787,5.12438,46,14
-10.2979,12.5905,-0.283916,33,7
-14.2116,17.3817,6.01599,31,15
-10.0886,12.3742,0.27868,46,8
-0.370571,0.454689,-0.135421,13,1
-9.59256,11.7742,0.795925,54,9
-0.472454,0.579906,-0.145396,43,2
-9.8477,12.0917,1.36434,90,10
-9.33499,11.4662,-2.34182,35,3
-9.89138,12.154,1.92407,45,11
-9.21403,11.3257,-1.7927,58,4
-13.9343,17.1339,3.49787,36,12
-9.63605,11.8529,-1.33645,31,5
-13.9919,17.2109,4.31152,30,13
-9.55928,11.7627,-0.794355,58,6
-13.8948,17.1037,5.08749,65,14
-10.1518,12.5006,-0.281088,25,7
-14.0826,17.3472,5.987,31,15
-10.083,12.456,0.279727,17,8
-0.359175,0.443861,-0.131821,14,1
-9.53885,11.7921,0.794879,41,9
-0.475263,0.58774,-0.146923,42,2
-9.84214,12.1757,1.36974,75,10
-8.92541,11.0456,-2.24921,66,3
-9.92625,12.2842,1.93919,53,11
-9.13202,11.3053,-1.78441,54,4
-13.8595,17.164,3.49412,46,12
-13.9066,17.2346,4.30465,45,13
-9.33303,11.5707,-0.779073,32,6
-13.9042,17.244,5.11404,56,14
-9.82188,12.1811,-0.27313,32,7
-14.0511,17.4323,5.99943,20,15
-13.0908,16.2934,0.364825,18,8
-0.367308,0.457329,-0.135421,13,1
-9.96288,12.4046,0.833817,46,9
-0.468293,0.583272,-0.145396,54,2
-9.73723,12.1323,1.36102,96,10
-8.95355,11.1599,-2.26611,56,3
-9.8911,12.3329,1.94114,49,11
-9.06321,11.3046,-1.77905,61,4
-13.6315,17.0027,3.45157,36,12
-8.86902,11.0664,-1.24075,25,5
-13.8021,17.2279,4.29091,33,13
-9.54853,11.9228,-0.800531,84,6
-13.8074,17.2468,5.10054,56,14
-9.81804,12.2637,-0.274212,23,7
-14.0324,17.5341,6.01754,25,15
-9.94595,12.4635,0.278331,45,8
-0.382803,0.479873,-0.141719,13,1
-9.77756,12.2613,0.821884,46,9
-0.451568,0.566481,-0.140817,58,2
-9.93197,12.4639,1.39432,84,10
-8.90418,11.1741,-2.26298,68,3
-9.89096,12.4168,1.94918,55,11
-8.97497,11.271,-1.76906,43,4
-9.92927,12.4739,2.52517,41,12
-9.0189,11.3342,-1.26724,52,5
-13.7229,17.2459,4.28404,30,13
-9.46915,11.9044,-0.797181,39,6
-13.721,17.2559,5.08974,55,14
-9.80006,12.3292,-0.27491,28,7
-14.03,17.6571,6.04291,28,15
-10.0129,12.6377,0.281438,35,8
-0.381126,0.481206,-0.141719,13,1
-9.88937,12.4862,0.834759,46,9
-0.461874,0.583367,-0.144633,44,2
-9.97962,12.6092,1.40687,71,10
-8.96073,11.3259,-2.28738,68,3
-10.0249,12.6755,1.98428,51,11
-9.39848,11.8877,-1.8607,46,4
-9.99199,12.6384,2.55176,21,12
-9.18634,11.6236,-1.29618,31,5
-14.1178,17.8698,4.42677,32,13
-9.61817,12.1787,-0.813301,100,6
-13.9131,17.6233,5.18377,59,14
-9.76284,12.3663,-0.275015,31,7
-13.9582,17.6868,6.03721,31,15
-9.83615,12.4995,0.277633,45,8
-0.367479,0.467151,-0.13722,13,1
-9.78647,12.4453,0.829734,31,9
-0.458622,0.583433,-0.144252,44,2
-9.98108,12.7019,1.41332,75,10
-9.04395,11.5093,-2.31836,63,3
-9.87856,12.576,1.96356,46,11
-9.39333,11.9626,-1.86753,27,4
-9.8978,12.6095,2.53893,63,12
-9.23304,11.7669,-1.30856,47,5
-14.0294,17.8795,4.41761,27,13
-9.5617,12.1901,-0.81194,61,6
-13.8654,17.6832,5.18782,59,14
-9.70974,12.3877,-0.274736,38,7
-13.9166,17.7613,6.04601,31,15
-9.81215,12.559,0.278191,66,8
-0.365846,0.46843,-0.13722,13,1
-9.87571,12.6494,0.841039,112,9
-0.459101,0.588045,-0.145015,43,2
-9.76485,12.5119,1.38857,87,10
-8.97941,11.5097,-2.3121,63,3
-9.9054,12.7012,1.9777,46,11
-9.37105,12.0203,-1.87143,63,4
-9.9363,12.75,2.56021,47,12
-9.11436,11.6953,-1.29723,31,5
-13.5157,17.3491,4.27489,19,13
-9.53628,12.2455,-0.813406,71,6
-13.8107,17.7407,5.19052,59,14
-9.81873,12.6172,-0.279064,33,7
-13.9743,17.9638,6.09829,27,15
-0.355294,0.457877,-0.155291,12,0
-9.75477,12.5758,0.277807,66,8
-0.357044,0.460465,-0.134521,14,1
-9.84495,12.7012,0.84219,54,9
-0.453437,0.584989,-0.14387,22,2
-9.70525,12.5255,1.3863,69,10
-8.9162,11.5113,-2.30616,58,3
-9.78201,12.6336,1.96185,55,11
-9.31688,12.0373,-1.86899,65,4
-9.82646,12.7002,2.54331,66,12
-9.04788,11.6939,-1.29357,52,5
-13.4514,17.3915,4.27374,36,13
-9.51058,12.3008,-0.814871,58,6
-13.7726,17.8196,5.19952,59,14
-8.84178,11.4441,-0.252432,24,7
-13.523,17.5094,5.92799,33,15
-0.353693,0.459114,-0.155291,12,0
-9.70959,12.6082,0.277772,57,8
-0.374455,0.486415,-0.141719,13,1
-9.84055,12.7828,0.845435,23,9
-0.446603,0.580345,-0.142344,22,2
-9.59222,12.4693,1.37636,66,10
-8.88078,11.5486,-2.30741,34,3
-9.7439,12.6756,1.96307,51,11
-9.3495,12.1625,-1.88361,23,4
-9.76864,12.7123,2.53924,61,12
-9.05433,11.7871,-1.30036,57,5
-13.5341,17.6252,4.31953,28,13
-9.39096,12.2341,-0.808277,58,6
-13.7015,17.8497,5.19502,59,14
-8.78796,11.4527,-0.251978,26,7
-13.8118,18.0063,6.0807,33,15
-9.6896,12.6689,0.278401,60,8
-0.356269,0.46598,-0.135421,13,1
-9.80781,12.8281,0.846272,80,9
-0.456598,0.597421,-0.14616,21,2
-9.36092,12.2524,1.349,36,10
-8.882,11.6298,-2.31773,78,3
-9.68857,12.6905,1.96039,68,11
-8.99713,11.7848,-1.82048,64,4
-13.2702,17.3881,3.4644,18,12
-9.05387,11.8677,-1.30594,15,5
-13.7649,18.0494,4.41227,17,13
-9.32128,12.2271,-0.805764,74,6
-13.6281,17.8765,5.18962,59,14
-9.48203,12.4424,-0.27306,36,7
-13.471,17.6832,5.95646,33,15
-0.350641,0.46145,-0.155291,12,0
-9.59794,12.6357,0.27697,66,8
-0.34058,0.448535,-0.130022,14,1
-9.78954,12.8972,0.848575,58,9
-0.45224,0.595804,-0.145396,21,2
-9.33709,12.3056,1.35144,75,10
-8.9747,11.8323,-2.35215,42,3
-9.60445,12.6672,1.95186,100,11
-9.01949,11.9,-1.8334,30,4
