x, y, z, intensity, ring
5.91345,-6.43533,2.34179,42,15
0.359418,-0.392236,-0.122823,15,1
6.41618,-7.00449,0.49782,57,9
0.437614,-0.477739,-0.125934,14,2
6.16924,-6.73726,0.799218,61,10
4.28278,-4.67875,-1.00462,62,3
5.64847,-6.17287,1.02736,30,11
6.4955,-7.10103,-1.18165,56,4
4.66138,-5.09771,-0.604338,31,5
5.8295,-6.37741,1.6795,55,13
4.72757,-5.17373,-0.367294,38,6
5.775,-6.32221,1.97687,12,14
4.98638,-5.46078,-0.129078,71,7
6.10176,-6.68462,2.42513,24,15
6.36426,-6.99178,0.16503,52,8
0.358047,-0.393488,-0.122823,15,1
6.38632,-7.02094,0.497401,121,9
0.398955,-0.438599,-0.115249,16,2
6.20332,-6.82214,0.806714,37,10
4.41789,-4.86031,-1.04029,50,3
5.56948,-6.12937,1.01688,27,11
6.41061,-7.05753,-1.17068,22,4
5.32895,-5.86878,1.25554,21,12
4.76276,-5.24523,-0.619852,17,5
5.84283,-6.43697,1.6898,57,13
4.65983,-5.13547,-0.363421,37,6
5.83799,-6.43615,2.00611,35,14
4.98475,-5.49742,-0.129532,35,7
5.86691,-6.47257,2.34076,47,15
9.92138,-10.9764,0.258261,75,8
0.356671,-0.394736,-0.122823,15,1
7.17172,-7.93989,0.560727,40,9
0.42629,-0.472115,-0.123644,14,2
5.94981,-6.5894,0.776732,60,10
4.42075,-4.89769,-1.04498,66,3
5.52411,-6.12225,1.01249,54,11
6.38727,-7.08134,-1.17092,55,4
5.31108,-5.89028,1.25617,33,12
4.52474,-5.01994,-0.591265,38,5
5.84154,-6.48314,1.69629,18,13
4.58884,-5.09464,-0.359339,70,6
5.51291,-6.12056,1.90174,12,14
4.90933,-5.45237,-0.128066,84,7
5.84816,-6.49732,2.34231,17,15
9.85304,-10.9814,0.257528,28,8
0.355222,-0.39604,-0.122823,15,1
7.17591,-8.00329,0.563344,37,9
0.43504,-0.48537,-0.126697,14,2
5.45885,-6.0904,0.715549,58,10
4.36586,-4.87267,-1.03622,58,3
5.55197,-6.19864,1.02175,31,11
6.40894,-7.15795,-1.1797,44,4
6.72281,-7.51114,1.59657,40,12
4.54085,-5.0751,-0.595797,51,5
6.37399,-7.12642,1.85848,45,13
4.63404,-5.18289,-0.364363,60,6
5.6658,-6.33685,1.96247,8,14
4.98793,-5.58065,-0.130649,36,7
9.5946,-10.7725,0.251803,46,8
0.353768,-0.39734,-0.122823,15,1
9.11573,-10.2421,0.718573,31,9
0.422901,-0.475154,-0.123644,14,2
4.28233,-4.81484,-1.02058,62,3
5.50019,-6.18631,1.01639,27,11
6.47234,-7.28228,-1.19627,37,4
7.07048,-7.95807,1.68605,34,12
4.52972,-5.09836,-0.596668,55,5
6.3908,-7.1956,1.87069,37,13
4.62255,-5.2065,-0.364886,50,6
5.43168,-6.12,1.88914,36,14
4.95152,-5.58095,-0.13023,28,7
9.55694,-10.806,0.251803,34,8
0.352379,-0.398572,-0.122823,15,1
9.07596,-10.2693,0.718259,34,9
0.42644,-0.482511,-0.125171,14,2
5.49032,-6.21442,0.725484,33,10
4.30342,-4.87269,-1.02965,43,3
5.4628,-6.18761,1.01347,56,11
6.54014,-7.41051,-1.21358,16,4
9.67989,-10.972,2.31742,49,12
4.69775,-5.32481,-0.621246,42,5
6.52277,-7.39603,1.91687,48,13
4.55812,-5.17017,-0.361223,30,6
5.4644,-6.20033,1.90803,10,14
4.81964,-5.47066,-0.127263,6,7
9.53236,-10.8543,0.252152,45,8
0.350985,-0.3998,-0.122823,15,1
7.21545,-8.22185,0.573288,39,9
0.416983,-0.475143,-0.122881,15,2
5.45414,-6.21707,0.723567,28,10
4.2942,-4.8966,-1.03153,45,3
5.56287,-6.34547,1.03613,26,11
8.96476,-10.2295,-1.6701,47,4
5.99814,-6.84679,1.4417,10,12
4.60693,-5.25875,-0.611659,45,5
6.57581,-7.50884,1.94015,42,13
4.48479,-5.12293,-0.356827,47,6
5.51203,-6.29855,1.93233,13,14
4.78077,-5.46487,-0.126739,75,7
5.97458,-6.83193,2.43186,42,15
12.2584,-14.057,0.325557,30,8
0.334221,-0.383395,-0.117424,16,1
7.1867,-8.24698,0.573288,8,9
0.405003,-0.464755,-0.119828,15,2
9.34149,-10.7235,1.24424,49,10
4.29524,-4.93241,-1.03591,50,3
5.69057,-6.53703,1.06416,80,11
6.63159,-7.62071,-1.24039,46,4
4.58854,-5.2748,-0.611659,52,5
4.54943,-5.23352,-0.363421,67,6
4.75379,-5.47247,-0.12653,96,7
6.19516,-7.13426,2.53177,41,15
12.2485,-14.145,0.326604,10,8
0.348186,-0.40224,-0.122823,15,1
0.405948,-0.469135,-0.120591,15,2
5.43537,-6.28363,0.726879,24,10
4.23924,-4.90255,-1.02652,38,3
5.69109,-6.58389,1.06855,76,11
6.61793,-7.65883,-1.24282,11,4
5.89725,-6.82721,1.42887,93,12
4.56788,-5.29007,-0.611485,46,5
4.58856,-5.31589,-0.368026,77,6
5.62578,-6.51983,1.98812,71,14
4.75817,-5.51629,-0.127158,75,7
6.04911,-7.01539,2.48207,24,15
11.7831,-13.704,0.31547,13,8
0.331536,-0.385719,-0.117424,16,1
9.35992,-10.8934,0.752696,45,9
0.409343,-0.476577,-0.122118,15,2
5.43307,-6.32769,0.729668,13,10
4.18907,-4.88058,-1.0187,42,3
6.22275,-7.25252,-1.17336,17,4
5.77821,-6.7368,1.40572,57,12
6.48017,-7.56054,1.93557,45,13
4.57164,-5.33571,-0.368236,42,6
4.70767,-5.49641,-0.126321,75,7
5.99695,-7.00418,2.47069,66,15
12.2378,-14.3388,0.329048,22,8
0.320002,-0.375072,-0.113825,16,1
9.36332,-10.9747,0.756045,30,9
0.412773,-0.483978,-0.123644,14,2
6.81087,-7.98861,0.918447,16,10
4.18739,-4.91321,-1.02246,12,3
5.55242,-6.51716,1.05125,66,11
4.80605,-5.6431,-0.91012,25,4
5.83791,-6.85468,1.42606,18,12
4.67678,-5.49326,-0.631182,40,5
9.94272,-11.6827,2.98196,31,13
4.56464,-5.36533,-0.369178,56,6
6.11176,-7.18637,2.17798,42,14
4.65866,-5.47778,-0.125518,60,7
5.98998,-7.04567,2.47793,17,15
7.49232,-8.83776,0.202238,36,8
0.343954,-0.405864,-0.122823,15,1
9.2036,-10.864,0.746206,37,9
0.406006,-0.479423,-0.122118,15,2
9.26492,-10.9442,1.25452,38,10
4.30381,-5.08387,-1.05499,43,3
5.55899,-6.56887,1.05661,57,11
6.19761,-7.32609,-1.17823,26,4
4.66144,-5.51411,-0.631705,27,5
9.66438,-11.4322,2.90984,35,13
4.52361,-5.35297,-0.367294,70,6
6.14323,-7.2721,2.19777,22,14
4.53113,-5.36567,-0.122586,84,7
11.1157,-13.1676,4.61733,17,15
7.51036,-8.922,0.203565,62,8
0.342536,-0.407062,-0.122823,15,1
9.17462,-10.9068,0.746939,48,9
0.396831,-0.471753,-0.119828,15,2
9.46323,-11.2539,1.28642,22,10
4.25935,-5.06711,-1.04842,28,3
5.49644,-6.54112,1.04905,61,11
8.91071,-10.6081,-1.70105,21,4
5.54857,-6.60784,1.36661,42,12
4.26556,-5.0817,-0.580457,35,5
9.74685,-11.6117,2.94685,34,13
4.52416,-5.39168,-0.368864,42,6
6.18042,-7.36815,2.22027,27,14
4.61902,-5.50863,-0.125483,74,7
11.0523,-13.1856,4.61009,31,15
0.341113,-0.408256,-0.122823,15,1
0.397616,-0.476218,-0.120591,15,2
9.58023,-11.4782,1.30803,51,10
5.49265,-6.58313,1.05271,9,11
8.85455,-10.6163,-1.6974,7,4
4.24907,-5.09809,-0.580632,8,5
9.62379,-11.5508,2.92243,32,13
4.51076,-5.4159,-0.369387,49,6
9.49503,-11.4044,3.426,13,14
4.47565,-5.37566,-0.122097,84,7
10.9951,-13.2108,4.60543,22,15
13.9848,-16.8568,0.382312,20,8
0.339614,-0.409503,-0.122823,15,1
0.388433,-0.468535,-0.118302,15,2
9.4384,-11.3888,1.29409,23,10
5.42396,-6.54714,-1.34659,13,3
6.4181,-7.74988,1.23551,8,11
8.80039,-10.6303,-1.69447,14,4
4.67966,-5.65472,-0.642164,13,5
9.66726,-11.6857,2.948,33,13
4.57201,-5.52858,-0.375982,24,6
9.46385,-11.448,3.42915,18,14
4.38678,-5.30648,-0.120177,95,7
10.9181,-13.2118,4.59249,13,15
4.6048,-5.58806,0.12639,33,8
0.338254,-0.410627,-0.122823,15,1
5.44788,-6.61586,0.449147,18,9
0.391786,-0.475951,-0.119828,15,2
9.40618,-11.4309,1.29513,43,10
8.65686,-10.5203,-2.15786,6,3
6.7442,-8.19884,1.30351,21,11
8.99456,-10.9385,-1.73883,1,4
10.055,-12.2324,2.50796,18,12
5.23542,-6.37143,-0.721475,11,5
9.64217,-11.7344,2.9522,30,13
17.0154,-20.7148,-1.40491,13,6
6.20186,-7.55296,2.25626,48,14
4.35935,-5.31094,-0.119933,57,7
10.6832,-13.0199,4.51277,15,15
4.63339,-5.66291,0.127717,46,8
0.336819,-0.411805,-0.122823,15,1
9.17947,-11.2271,0.760023,11,9
0.38772,-0.474208,-0.119065,15,2
9.34175,-11.4297,1.29147,24,10
4.70312,-5.75633,-1.17733,23,3
10.0206,-12.2689,1.94503,24,11
4.22456,-5.17429,-0.820181,49,4
10.0047,-12.2583,2.50608,37,12
4.30503,-5.27661,-0.595797,42,5
9.66941,-11.8516,2.97319,24,13
12.7318,-15.6108,-1.05572,23,6
6.17176,-7.57003,2.25491,19,14
4.35974,-5.34937,-0.120457,82,7
10.5474,-12.9463,4.47446,16,15
4.58333,-5.6418,0.126879,15,8
0.335379,-0.412979,-0.122823,15,1
5.39904,-6.65063,0.448938,14,9
0.395876,-0.487821,-0.122118,15,2
9.31737,-11.4855,1.29391,43,10
8.64233,-10.6572,-2.17319,6,3
9.99769,-12.3285,1.94893,25,11
8.08418,-9.97245,-1.57626,19,4
9.83503,-12.1366,2.47417,39,12
4.26652,-5.26684,-0.593008,48,5
5.75009,-7.10077,1.77605,6,13
12.6594,-15.6387,-1.05446,19,6
6.15746,-7.60926,2.25986,63,14
4.31588,-5.33347,-0.119758,68,7
10.5204,-13.0055,4.48223,12,15
4.51116,-5.59473,0.125448,6,8
0.333863,-0.414205,-0.122823,15,1
5.37839,-6.67504,0.449252,16,9
0.376844,-0.467863,-0.116775,16,2
9.30346,-11.5505,1.29757,37,10
8.59268,-10.6719,-2.17006,7,3
12.972,-16.1166,2.54024,5,11
6.56673,-8.16153,-1.28621,11,4
9.70381,-12.0648,2.45227,19,12
4.26716,-5.30728,-0.595797,48,5
12.0224,-14.9582,3.73032,8,13
4.4271,-5.51014,-0.370434,52,6
6.115,-7.61096,2.25401,19,14
4.30381,-5.35861,-0.119968,70,7
10.5827,-13.1811,4.52933,5,15
4.56684,-5.70647,0.127577,2,8
0.332343,-0.415426,-0.122823,15,1
5.31023,-6.64011,0.445588,34,9
0.39229,-0.49071,-0.122118,15,2
9.29092,-11.6219,1.30176,23,10
8.42403,-10.5413,-2.13721,15,3
9.11656,-11.4119,1.79343,8,11
7.97989,-9.99266,-1.57016,14,4
9.11974,-11.4241,2.31523,22,12
4.23401,-5.30576,-0.593879,47,5
10.5926,-13.2787,3.30176,14,13
4.5177,-5.66531,-0.37975,77,6
5.72864,-7.18385,2.12129,15,14
8.52217,-10.6908,-0.238644,72,7
9.30323,-11.7125,0.261088,6,8
0.330818,-0.416641,-0.122823,15,1
5.35291,-6.74401,0.451241,15,9
0.385692,-0.485925,-0.120591,15,2
9.27922,-11.6949,1.30612,20,10
7.81576,-9.85396,-1.99204,28,3
9.06111,-11.4282,1.79075,32,11
7.78292,-9.8196,-1.53848,31,4
6.36919,-8.03879,1.62442,17,12
4.35652,-5.49853,-0.613751,32,5
5.70461,-7.20259,1.78597,14,13
4.37268,-5.52289,-0.369178,21,6
9.71744,-12.278,3.61496,19,14
4.4071,-5.57036,-0.123982,66,7
5.97272,-7.55193,2.57991,59,15
6.96034,-8.82597,0.1962,40,8
0.312471,-0.396368,-0.116525,16,1
9.29512,-11.795,0.787028,17,9
0.383994,-0.487269,-0.120591,15,2
12.7818,-16.2253,1.80709,50,10
9.05309,-11.5003,1.79709,40,11
4.17138,-5.30087,-0.828224,13,4
9.01089,-11.4549,2.30835,35,12
4.23136,-5.37903,-0.59876,12,5
5.44522,-6.92461,1.71232,30,13
9.27453,-11.7985,-0.786505,16,6
9.66369,-12.298,3.61091,11,14
7.708,-9.81273,-0.217806,47,7
5.93439,-7.55754,2.57473,43,15
6.98619,-8.92264,0.197806,62,8
0.327901,-0.418941,-0.122823,15,1
5.29954,-6.77335,0.450717,19,9
0.367773,-0.470051,-0.116012,16,2
12.6981,-16.2353,1.80325,19,10
8.34661,-10.6755,-2.14628,6,3
9.01533,-11.5349,1.79757,32,11
7.72151,-9.88308,-1.53994,13,4
9.01462,-11.5423,2.31961,20,12
5.38356,-6.8956,1.70049,48,13
7.63092,-9.77768,-0.650013,22,6
5.62906,-7.21524,2.11274,17,14
4.28325,-5.49219,-0.121573,32,7
5.75357,-7.38015,2.50744,42,15
6.93046,-8.9154,0.197107,57,8
0.326437,-0.420083,-0.122823,15,1
9.25298,-11.9117,0.790482,19,9
0.378174,-0.486837,-0.119828,15,2
7.07156,-9.10675,1.00874,29,10
8.83256,-11.3787,-2.28144,6,3
12.6952,-16.3607,2.54268,63,11
4.12697,-5.32046,-0.826762,4,4
4.14609,-5.34703,-0.591962,25,5
5.34262,-6.89263,1.69515,10,13
5.45106,-7.03507,-0.466418,54,6
11.2936,-14.5806,4.25787,15,14
4.21264,-5.4407,-0.120107,31,7
5.83301,-7.53615,2.55351,27,15
6.8743,-8.90073,0.196305,51,8
0.325116,-0.421106,-0.122823,15,1
9.21673,-11.9423,0.790587,27,9
0.378956,-0.491197,-0.120591,15,2
7.01371,-9.09106,1.00456,65,10
6.41783,-8.3217,-1.66446,13,3
12.6426,-16.3989,2.54244,63,11
4.22293,-5.47962,-0.849429,37,4
5.5925,-7.25939,1.4514,27,12
4.12834,-5.36075,-0.591962,15,5
5.42283,-7.04677,-0.465999,25,6
11.224,-14.5851,4.24888,24,14
4.14797,-5.39209,-0.118746,75,7
5.68918,-7.39824,2.50071,49,15
6.86596,-8.9576,0.197003,23,8
0.32357,-0.422295,-0.122823,15,1
5.39832,-7.04796,0.465267,28,9
0.377153,-0.492582,-0.120591,15,2
6.99609,-9.13727,1.00682,40,10
8.1642,-10.6667,-2.12751,7,3
12.9527,-16.9292,2.61727,12,11
4.09548,-5.35473,-0.827737,58,4
5.47947,-7.16685,1.42887,16,12
4.13044,-5.40434,-0.595099,6,5
5.80569,-7.59902,1.85886,28,13
5.42848,-7.10787,-0.468721,29,6
11.1539,-14.6045,4.24258,30,14
4.13182,-5.41203,-0.118851,31,7
5.65031,-7.40368,2.49553,56,15
4.26039,-5.60067,0.12283,19,8
0.32202,-0.423478,-0.122823,15,1
9.20872,-12.1145,0.797495,7,9
0.342165,-0.450133,-0.109906,17,2
6.93844,-9.13113,1.00334,10,10
4.23578,-5.57639,-1.10912,2,3
12.2783,-16.1702,2.49296,16,11
4.09743,-5.39817,-0.832124,37,4
5.53317,-7.29232,1.44983,10,12
5.64506,-7.44249,1.81574,39,13
7.82429,-10.3193,-0.678693,19,6
11.0497,-14.5785,4.22323,27,14
4.1192,-5.4367,-0.11906,50,7
5.60331,-7.39816,2.48673,41,15
4.25286,-5.63146,0.123179,34,8
0.32054,-0.424599,-0.122823,15,1
9.14592,-12.1194,0.795716,11,9
0.373705,-0.495203,-0.120591,15,2
5.1595,-6.83943,0.749539,15,10
8.13999,-10.7943,-2.14128,7,3
6.15631,-8.16673,1.25574,2,11
4.18847,-5.55829,-0.854548,50,4
5.5362,-7.34945,1.45734,7,12
4.14535,-5.50307,-0.602769,18,5
5.45962,-7.25042,1.76422,49,13
4.11873,-5.47169,-0.35892,43,6
5.45424,-7.24854,2.09429,15,14
15.694,-20.8645,-0.455717,28,7
5.75973,-7.66009,2.568,35,15
4.20679,-5.61107,0.122411,9,8
0.319056,-0.425716,-0.122823,15,1
0.362557,-0.483935,-0.117538,16,2
5.14634,-6.87175,0.751108,18,10
8.10582,-10.8274,-2.14221,6,3
6.14679,-8.2136,1.25964,2,11
4.18569,-5.59513,-0.85796,23,4
5.45145,-7.2871,1.44139,21,12
4.11777,-5.50634,-0.601549,30,5
5.64586,-7.55248,1.83291,43,13
4.1008,-5.48764,-0.359025,16,6
8.41911,-11.2705,-0.245555,96,7
5.67072,-7.59401,2.53953,41,15
6.69843,-8.99646,0.195781,1,8
0.317642,-0.426771,-0.122823,15,1
5.16944,-6.94798,0.453857,17,9
0.379612,-0.510403,-0.123644,14,2
5.12589,-6.89447,0.751631,31,10
4.11095,-5.52935,-1.09129,32,3
6.08873,-8.19251,1.2533,40,11
4.18132,-5.6281,-0.860885,22,4
4.12346,-5.55427,-0.605209,30,5
5.60323,-7.54751,1.82719,46,13
5.34782,-7.2061,-0.470291,29,6
5.21552,-7.03039,2.02096,42,14
5.85925,-7.90101,-0.171697,43,7
5.66143,-7.63704,2.5473,20,15
8.86594,-11.9948,0.260355,16,8
0.316151,-0.427878,-0.122823,15,1
5.16177,-6.98848,0.455323,54,9
0.373251,-0.505342,-0.122118,15,2
5.12193,-6.93707,0.75442,43,10
4.09984,-5.55479,-1.09348,13,3
5.96699,-8.08752,1.23405,20,11
3.85294,-5.2241,-0.797026,13,4
5.38169,-7.29955,1.43638,51,12
4.17005,-5.65612,-0.614797,13,5
5.31789,-7.21829,-0.469872,29,6
5.23139,-7.10347,2.03671,45,14
5.82808,-7.91658,-0.171592,87,7
6.57158,-8.95594,0.193896,5,8
0.314655,-0.428979,-0.122823,15,1
8.74766,-11.9303,0.775305,22,9
0.36452,-0.497142,-0.119828,15,2
8.51931,-11.6231,1.26079,13,10
6.38858,-8.7193,-1.71202,13,3
5.92348,-8.08748,1.23088,31,11
3.82648,-5.2263,-0.795319,65,4
6.45751,-8.82307,1.73173,42,12
12.6206,-17.2501,4.15468,10,13
6.55069,-8.95694,-0.581557,16,6
5.15366,-7.04932,2.01601,43,14
8.30653,-11.3661,-0.24573,87,7
6.55558,-8.99984,0.19435,26,8
0.313156,-0.430074,-0.122823,15,1
8.69068,-11.9398,0.773944,45,9
0.360385,-0.4953,-0.119065,15,2
5.05345,-6.94528,0.751457,41,10
4.10279,-5.64079,-1.10474,11,3
5.98276,-8.22853,1.24916,31,11
3.80004,-5.22839,-0.793613,38,4
5.26093,-7.24105,1.41761,25,12
4.06624,-5.59876,-0.605384,41,5
12.1374,-16.718,4.01577,12,13
3.9921,-5.50071,-0.356199,37,6
6.1008,-8.40628,2.39798,21,14
8.28324,-11.4177,-0.246219,96,7
5.83407,-8.04466,2.66273,28,15
7.31093,-10.1145,0.217841,31,8
0.311577,-0.431219,-0.122823,15,1
8.67376,-12.0088,0.776352,27,9
0.356269,-0.493434,-0.118302,15,2
5.03496,-6.97344,0.752503,16,10
4.12024,-5.70865,-1.11506,11,3
5.96418,-8.2665,1.2516,43,11
3.81917,-5.29541,-0.801657,34,4
3.90707,-5.42128,-0.584641,56,5
9.45382,-13.1225,3.14377,8,13
3.92406,-5.44886,-0.351907,37,6
5.18394,-7.1983,2.04795,35,14
5.71543,-7.93923,-0.170754,78,7
5.78874,-8.04403,2.65548,13,15
7.24817,-10.1055,0.217073,25,8
0.309995,-0.432358,-0.122823,15,1
8.36062,-11.6608,0.751963,51,9
0.361406,-0.504249,-0.120591,15,2
5.02677,-7.01614,0.755117,1,10
8.20547,-11.4571,-2.23201,7,3
5.90726,-8.25118,1.24599,66,11
3.96725,-5.54344,-0.836999,19,4
5.20208,-7.26887,1.41573,57,12
3.8974,-5.44785,-0.586035,41,5
9.40682,-13.1538,3.14339,10,13
3.92012,-5.48365,-0.353268,27,6
5.15866,-7.21883,2.0484,60,14
8.21063,-11.4897,-0.246498,26,7
5.39905,-7.55802,2.4888,19,15
8.60325,-12.0791,0.258854,9,8
0.308559,-0.433384,-0.122823,15,1
8.40673,-11.8119,0.759813,30,9
0.348263,-0.489511,-0.116775,16,2
4.99186,-7.01903,0.753549,50,10
8.23727,-11.5824,-2.25109,3,3
5.84421,-8.22057,1.23844,20,11
3.81776,-5.37211,-0.809213,11,4
5.1927,-7.30953,1.42011,30,12
4.02833,-5.6726,-0.608696,40,5
6.36561,-8.96722,-0.576324,20,6
5.13694,-7.23908,2.0493,61,14
6.47552,-9.1288,-0.195362,75,7
5.77714,-8.14728,2.67619,37,15
6.35728,-8.99201,0.192221,27,8
0.307045,-0.434458,-0.122823,15,1
8.00474,-11.3306,0.727051,18,9
0.348903,-0.49387,-0.117538,16,2
4.93982,-6.99486,0.749191,24,10
8.06236,-11.4207,-2.21417,6,3
5.99632,-8.49718,1.27695,24,11
6.61847,-9.38227,-1.40978,2,4
5.16487,-7.32439,1.41949,58,12
8.39124,-11.9086,-0.763477,39,6
8.12907,-11.5451,-0.246463,78,7
5.76424,-8.18952,2.68344,44,15
6.36031,-9.06325,0.193268,48,8
0.305526,-0.435527,-0.122823,15,1
6.43885,-9.18198,0.587733,22,9
0.347091,-0.495145,-0.117538,16,2
4.905,-6.99987,0.747796,45,10
8.07712,-11.531,-2.22982,4,3
5.91765,-8.44814,1.26647,21,11
3.9407,-5.62791,-0.84358,51,4
5.18458,-7.4071,1.432,21,12
7.98867,-11.4175,-1.21913,27,5
8.77784,-12.5547,-0.802834,32,6
5.38754,-7.70852,2.17123,7,14
8.09788,-11.5865,-0.246742,100,7
6.32362,-9.08158,0.193163,41,8
0.303928,-0.436644,-0.122823,15,1
7.94398,-11.4171,0.728935,104,9
0.354331,-0.509246,-0.120591,15,2
4.60523,-6.62112,0.705613,37,10
6.40848,-9.21716,-1.77803,16,3
5.9297,-8.53172,1.27573,21,11
3.92798,-5.65372,-0.845286,15,4
5.21149,-7.50393,1.44702,18,12
4.69266,-6.75689,-0.719732,35,5
5.36518,-7.72811,1.82871,26,13
8.7203,-12.5656,-0.801578,42,6
5.04403,-7.27094,2.04301,2,14
6.5318,-9.41907,-0.200074,95,7
5.26084,-7.58913,2.47431,1,15
6.31576,-9.13814,0.193896,62,8
0.302402,-0.437703,-0.122823,15,1
8.05163,-11.6584,0.742543,29,9
0.359245,-0.520172,-0.122881,15,2
4.85488,-7.0323,0.747622,15,10
6.36729,-9.22646,-1.77553,6,3
5.96751,-8.6504,1.29035,12,11
3.89469,-5.64779,-0.842361,51,4
4.67244,-6.77815,-0.720255,41,5
5.29918,-7.69021,1.81536,36,13
6.18609,-8.98065,-0.571509,20,6
5.10483,-7.4137,2.0781,11,14
7.99209,-11.6112,-0.246044,96,7
4.79302,-6.96607,2.2657,7,15
8.34374,-12.1629,0.257458,28,8
0.300872,-0.438755,-0.122823,15,1
7.83247,-11.4262,0.726004,42,9
0.351877,-0.513327,-0.120973,15,2
6.33951,-9.25515,-1.77678,5,3
5.18587,-7.57377,1.12705,2,11
3.8559,-5.6335,-0.838217,57,4
5.86617,-8.57375,1.64538,30,12
4.67463,-6.83223,-0.724264,13,5
5.30999,-7.76376,1.82833,30,13
14.3429,-20.9787,-1.33185,6,6
5.53854,-8.10399,2.26616,32,14
6.13876,-8.9856,-0.189952,30,7
4.79918,-7.02742,2.2802,10,15
5.23779,-7.69273,0.162447,13,8
0.286181,-0.420471,-0.117424,16,1
7.75546,-11.399,0.72255,23,9
0.350083,-0.514552,-0.120973,15,2
4.50315,-6.6212,0.700558,28,10
7.78983,-11.4581,-2.19446,6,3
5.16163,-7.59511,1.12754,5,11
3.84736,-5.66335,-0.840655,55,4
5.80513,-8.54841,1.63662,48,12
4.63732,-6.82873,-0.722172,15,5
5.25198,-7.73677,1.81765,29,13
5.21597,-7.6866,-0.486829,39,6
5.53866,-8.1652,2.27785,30,14
6.48107,-9.55812,-0.201575,100,7
8.48144,-12.5506,0.264404,7,8
0.297802,-0.440845,-0.122823,15,1
0.357074,-0.528787,-0.124026,14,2
4.49004,-6.65175,0.702127,50,10
7.72769,-11.4525,-2.18821,3,3
5.15507,-7.64271,1.13192,2,11
3.86419,-5.73106,-0.848698,9,4
5.09848,-7.5645,1.44483,10,12
4.60112,-6.82916,-0.720429,35,5
8.16267,-12.1153,2.83962,10,13
5.217,-7.74618,-0.489446,52,6
5.78764,-8.5967,2.39258,14,14
6.62295,-9.84114,-0.207055,23,7
4.74569,-7.05435,2.27813,48,15
8.33176,-12.4224,0.261088,12,8
0.296261,-0.441882,-0.122823,15,1
7.3788,-11.0098,0.694603,38,9
0.355134,-0.530092,-0.124026,14,2
4.47782,-6.68637,0.704044,13,10
4.24283,-6.33786,-1.20799,3,3
5.84615,-8.73288,1.29035,21,11
3.81104,-5.69502,-0.841386,56,4
4.56286,-6.82365,-0.718163,52,5
7.511,-11.241,-0.708524,29,6
5.52879,-8.27755,2.2981,26,14
6.4475,-9.65302,-0.202622,100,7
4.74142,-7.1014,2.28796,45,15
6.43065,-9.66426,0.202622,11,8
0.29464,-0.442965,-0.122823,15,1
7.35278,-11.0584,0.695964,28,9
0.344585,-0.51825,-0.120973,15,2
4.47762,-6.7368,0.707705,61,10
0.395723,-0.595611,-0.113259,11,3
6.07769,-9.15112,1.34885,21,11
3.75281,-5.65272,-0.833099,40,4
5.88092,-8.86156,1.68449,38,12
4.55884,-6.86941,-0.721301,22,5
3.95269,-5.95829,1.38985,6,13
7.49931,-11.3088,-0.711141,22,6
4.70956,-7.10458,1.96787,27,14
5.38372,-8.12466,-0.170126,100,7
4.72922,-7.13966,2.29469,35,15
6.37373,-9.6516,0.201889,16,8
0.293092,-0.443991,-0.122823,15,1
7.29873,-11.0607,0.694498,63,9
0.321148,-0.486676,-0.113341,16,2
4.48918,-6.80561,0.713283,35,10
5.41529,-8.21271,-1.55809,47,3
6.23907,-9.46564,1.39199,13,11
5.40737,-8.20693,-1.20675,11,4
5.81301,-8.82594,1.67385,15,12
4.80662,-7.29794,-0.76453,23,5
3.9351,-5.97697,1.391,14,13
5.3736,-8.16498,-0.512264,17,6
4.69865,-7.14214,1.97372,45,14
5.35313,-8.14007,-0.170056,100,7
4.75627,-7.23523,2.32005,5,15
6.37289,-9.72397,0.202937,38,8
0.29154,-0.445011,-0.122823,15,1
7.26664,-11.0961,0.695126,44,9
0.332354,-0.507503,-0.11792,16,2
4.47522,-6.83624,0.714851,18,10
8.15114,-12.461,1.82828,16,11
4.79856,-7.34135,-0.767319,24,5
4.47692,-6.85188,1.59097,55,13
8.8815,-13.5982,-0.851192,19,6
4.68541,-7.17645,1.97867,52,14
6.33781,-9.71107,-0.202413,76,7
9.67203,-14.8256,4.74312,12,15
6.32909,-9.73107,0.202622,47,8
0.289985,-0.446026,-0.122823,15,1
6.28643,-9.67285,0.604585,8,9
0.317742,-0.488907,-0.113341,16,2
4.47412,-6.88691,0.718512,97,10
5.36427,-8.26026,-1.55996,32,3
5.62376,-8.66314,1.26817,12,11
5.34021,-8.2295,-1.20456,100,4
5.38145,-8.29621,1.56622,42,12
4.76206,-7.34134,-0.765576,26,5
4.74243,-7.31388,1.69438,34,13
4.68152,-7.22547,1.98767,37,14
7.33767,-11.3293,-0.235607,90,7
6.09571,-9.41533,3.00541,12,15
8.15917,-12.646,0.262694,13,8
6.24335,-9.68408,0.603852,8,9
0.328714,-0.509869,-0.11792,16,2
4.56541,-7.08413,0.737338,22,10
6.13257,-9.52319,1.39077,3,11
5.33258,-8.28407,-1.20968,35,4
4.90847,-7.62815,1.43669,20,12
5.30006,-8.2367,-0.856915,100,5
4.58496,-7.12812,1.64745,141,13
5.28205,-8.21501,-0.511846,100,6
4.72139,-7.34586,2.01601,35,14
5.2867,-8.22856,-0.170719,40,7
4.80634,-7.48376,2.38321,6,15
8.11929,-12.6812,0.262833,7,8
0.286786,-0.44809,-0.122823,15,1
7.07706,-11.0618,0.688218,26,9
0.326932,-0.511013,-0.11792,16,2
4.6523,-7.27459,0.755466,45,10
8.35441,-13.0684,-2.45665,5,3
5.08916,-7.96382,1.16044,7,11
7.73477,-12.1085,-1.76418,13,4
5.16886,-8.09476,1.52117,7,12
7.21852,-11.3047,-1.17346,32,5
4.38048,-6.86275,1.58257,15,13
5.24797,-8.22498,-0.511322,100,6
4.71668,-7.39515,2.02501,33,14
5.24289,-8.22336,-0.170231,62,7
7.41869,-11.6765,0.241471,11,8
0.28522,-0.449088,-0.122823,15,1
4.6523,-7.32803,0.454904,31,9
0.333564,-0.525411,-0.120973,15,2
4.57136,-7.20331,0.746402,33,10
4.12686,-6.5054,-1.22019,3,3
4.97947,-7.85244,1.14167,7,11
7.69352,-12.1371,-1.76442,30,4
7.16941,-11.3146,-1.1719,30,5
4.64394,-7.33747,2.00476,15,14
5.22806,-8.26358,-0.170685,58,7
5.26406,-8.32371,2.63892,10,15
0.283651,-0.450081,-0.122823,15,1
5.11641,-8.12157,0.503053,44,9
0.3401,-0.539861,-0.124026,14,2
4.52389,-7.18382,0.742741,39,10
4.10939,-6.52812,-1.22175,2,3
6.04731,-9.6104,1.39419,13,11
6.17352,-9.81478,-1.42368,27,4
5.56645,-8.85308,1.65633,39,12
7.12881,-11.3379,-1.17172,32,5
4.35231,-6.92475,1.58982,66,13
5.26054,-8.37304,-0.518231,45,6
4.63799,-7.38499,2.01331,40,14
7.48193,-11.918,-0.245625,96,7
5.22882,-8.33222,2.63581,17,15
5.17132,-8.2662,0.170196,129,8
0.282078,-0.451068,-0.122823,15,1
0.309075,-0.494431,-0.113341,16,2
0.376739,-0.603143,-0.112633,23,3
7.91036,-12.6691,1.83389,24,11
6.13502,-9.82953,-1.4227,23,4
5.10263,-8.17861,1.5268,17,12
7.15047,-11.4654,-1.18218,22,5
3.83982,-6.15695,1.41046,21,13
7.10255,-11.393,-0.703605,61,6
4.59878,-7.37964,2.00746,43,14
5.20936,-8.36267,-0.171976,100,7
5.14032,-8.2808,0.170126,88,8
0.280501,-0.45205,-0.122823,15,1
0.307261,-0.495561,-0.113341,16,2
4.37581,-7.0602,0.726705,28,10
0.368284,-0.594444,-0.110756,24,3
7.84937,-12.6696,1.82999,20,11
7.3507,-11.8693,-1.71421,13,4
5.29968,-8.56084,1.59469,34,12
7.2446,-11.7071,-1.20449,10,5
3.86577,-6.24946,1.4284,36,13
7.09855,-11.4801,-0.707373,26,6
4.46105,-7.21742,1.95887,13,14
5.18119,-8.38251,-0.172011,34,7
4.58665,-7.42353,2.33817,10,15
0.278843,-0.453075,-0.122823,15,1
4.44045,-7.21785,0.444123,12,9
0.326104,-0.530074,-0.120973,15,2
4.38349,-7.12805,0.732108,20,10
0.368276,-0.599092,-0.111381,24,3
4.42004,-7.1931,1.03662,9,11
6.07076,-9.88333,-1.42417,45,4
4.52924,-7.37659,1.37099,41,12
6.98373,-11.3741,-1.16771,15,5
3.84496,-6.26458,1.42878,25,13
6.98533,-11.3856,-0.700046,45,6
7.07243,-11.5366,-0.236201,81,7
4.56042,-7.44193,2.33869,31,15
0.27726,-0.454046,-0.122823,15,1
0.332434,-0.544615,-0.124026,14,2
0.371325,-0.608806,-0.112946,23,3
4.39903,-7.21527,1.0376,35,11
5.99387,-9.83496,-1.41417,8,4
4.46646,-7.33162,1.35973,71,12
6.90355,-11.3321,-1.16091,4,5
3.7812,-6.20922,1.41313,12,13
7.02277,-11.5459,-0.235887,99,7
4.18415,-6.88172,2.15803,25,15
5.10162,-8.41714,0.171801,20,8
0.275673,-0.455011,-0.122823,15,1
4.36098,-7.20084,0.441192,20,9
0.302055,-0.498751,-0.113341,16,2
0.374311,-0.618549,-0.11451,22,3
4.38923,-7.25606,1.04125,23,11
3.99971,-6.61472,-0.949119,13,4
4.36319,-7.21869,1.33595,61,12
3.84003,-6.35565,-0.649659,2,5
4.11789,-6.81555,1.54784,41,13
4.06204,-6.72575,-0.411779,7,6
4.35904,-7.22036,1.94718,30,14
6.94316,-11.5053,-0.23456,23,7
4.1611,-6.89793,2.15855,28,15
4.11073,-6.83601,0.139235,8,8
0.274083,-0.45597,-0.122823,15,1
4.32245,-7.19376,0.439831,4,9
0.316398,-0.526783,-0.119446,15,2
7.81785,-13.0214,1.32878,25,10
8.38009,-13.9634,-2.57929,5,3
4.35571,-7.25772,1.0393,26,11
5.96182,-9.93785,-1.42295,17,4
4.29936,-7.1695,1.32406,70,12
4.05454,-6.7666,1.53334,33,13
7.15312,-11.9425,-0.729563,48,6
4.78702,-7.99536,2.15143,100,14
6.91734,-11.5535,-0.235049,100,7
4.11715,-6.87926,2.1482,34,15
4.07439,-6.83213,0.138851,48,8
0.27241,-0.456972,-0.122823,15,1
0.324607,-0.54475,-0.123263,15,2
4.22927,-7.10029,0.723044,20,10
0.369876,-0.621211,-0.11451,22,3
4.30674,-7.23611,1.03394,11,11
5.83401,-9.80609,-1.40101,15,4
4.30031,-7.23105,1.33251,111,12
3.65197,-6.14085,-0.625081,21,5
3.86035,-6.49382,1.46847,144,13
6.82673,-11.4884,-0.70036,45,6
8.19909,-13.8088,-0.280321,63,7
4.51097,-7.60035,2.36819,9,15
4.10855,-6.94441,0.140841,21,8
0.270813,-0.45792,-0.122823,15,1
4.23325,-7.16089,0.435959,17,9
0.316709,-0.53574,-0.120973,15,2
0.35163,-0.595286,-0.109504,25,3
5.47041,-9.26472,1.32106,9,11
5.80883,-9.84178,-1.4032,38,4
4.25698,-7.21539,1.32688,68,12
3.64468,-6.17758,-0.627521,10,5
3.77483,-6.40072,1.44442,30,13
6.75616,-11.4605,-0.69722,71,6
7.15995,-12.1503,3.25594,40,14
6.87305,-11.6681,-0.236375,99,7
4.91079,-8.3402,2.59337,41,15
0.269213,-0.458863,-0.122823,15,1
6.56949,-11.2019,0.680577,30,9
0.294974,-0.502972,-0.113341,16,2
4.18463,-7.13824,0.723916,50,10
0.361535,-0.616961,-0.113259,23,3
7.38048,-12.5999,1.79294,24,11
7.20175,-12.2997,-1.75004,35,4
4.70473,-8.0383,1.47518,41,12
3.95372,-6.75785,1.52189,27,13
6.6899,-11.4392,-0.694498,52,6
4.87023,-8.33106,2.22792,30,14
6.82724,-11.6834,-0.236201,21,7
4.86314,-8.3256,2.58353,67,15
3.97847,-6.83295,0.138014,16,8
0.26761,-0.459799,-0.122823,15,1
4.16809,-7.16438,0.434388,18,9
0.293216,-0.503998,-0.113341,16,2
4.1687,-7.1683,0.725484,33,10
0.366328,-0.630174,-0.115449,22,3
4.52694,-7.79057,1.10633,15,11
8.15582,-14.0413,-1.99378,56,4
4.63201,-7.9778,1.4611,29,12
3.59647,-6.19426,-0.62665,11,5
3.95474,-6.81406,1.53143,41,13
6.65394,-11.4694,-0.694917,29,6
6.79744,-11.7262,-0.236585,22,7
4.91637,-8.4846,2.62753,35,15
3.95059,-6.83987,0.137874,11,8
0.266003,-0.460731,-0.122823,15,1
0.307156,-0.532225,-0.119446,15,2
3.81691,-6.61909,-1.21018,5,3
8.25196,-14.3159,2.02888,17,11
8.10775,-14.0714,-1.99403,13,4
3.72965,-6.47559,1.18358,39,12
3.54201,-6.1498,-0.620898,15,5
3.78106,-6.56751,1.47305,19,13
5.69336,-9.89306,-0.5982,27,6
4.81778,-8.37499,2.23061,100,14
6.76245,-11.7603,-0.236794,100,7
4.36205,-7.5889,2.34542,21,15
3.91476,-6.8328,0.137455,48,8
0.264393,-0.461656,-0.122823,15,1
3.95127,-6.9021,0.416804,33,9
0.289691,-0.506033,-0.113341,16,2
4.10965,-7.18167,0.723916,3,10
0.35015,-0.61214,-0.111694,24,3
8.08863,-14.1464,2.00085,34,11
8.06252,-14.1065,-1.995,13,4
3.54918,-6.2123,-0.625953,27,5
3.6997,-6.47837,1.45015,24,13
5.67463,-9.94063,-0.599875,37,6
4.81459,-8.43745,2.24276,46,14
8.07376,-14.1548,-0.284439,100,7
4.29917,-7.54031,2.32575,40,15
3.90769,-6.87598,0.138049,48,8
0.26278,-0.462577,-0.122823,15,1
3.99521,-7.03569,0.424026,55,9
0.307311,-0.541185,-0.120973,15,2
3.8908,-6.85462,0.689576,15,10
0.354835,-0.625385,-0.113884,34,3
8.15769,-14.3835,2.03034,13,11
3.52739,-6.22196,-0.878191,37,4
3.67461,-6.48428,1.18045,7,12
3.62577,-6.40071,1.42992,11,13
5.55822,-9.81612,-0.591187,74,6
4.79279,-8.46778,2.24636,27,14
7.61466,-13.4589,-0.269919,25,7
4.26427,-7.54013,2.32109,42,15
5.09638,-9.04093,0.181156,11,8
0.261164,-0.463491,-0.122823,15,1
3.80595,-6.75724,0.406441,50,9
0.301566,-0.535412,-0.119446,15,2
8.00153,-14.212,1.42691,12,10
0.367182,-0.652442,-0.118577,31,3
7.88553,-14.0174,1.97477,21,11
3.48911,-6.20482,-0.874047,78,4
3.68145,-6.54955,-0.657329,10,5
3.75536,-6.68376,1.49022,8,13
5.54348,-9.87029,-0.59328,81,6
4.77274,-8.50145,2.25086,19,14
7.33962,-13.079,-0.261786,83,7
4.2417,-7.56171,2.32316,44,15
3.83031,-6.85073,0.137001,39,8
0.259544,-0.4644,-0.122823,15,1
6.68036,-11.9531,0.717631,26,9
0.318845,-0.57074,-0.127079,14,2
4.95997,-8.88209,0.890034,20,10
0.353349,-0.633022,-0.114823,33,3
8.04644,-14.421,2.02766,17,11
3.47419,-6.2291,-0.875753,57,4
5.25843,-9.42816,1.70983,18,12
7.31131,-13.1143,-1.31361,2,5
5.52357,-9.91576,-0.594851,97,6
4.74778,-8.52657,2.25311,19,14
7.27675,-13.0684,-0.261088,16,7
4.23633,-7.61118,2.33403,40,15
3.80757,-6.86339,0.137001,30,8
0.258003,-0.465258,-0.122823,15,1
3.75116,-6.76727,0.405499,60,9
0.282597,-0.510028,-0.113341,16,2
3.80047,-6.86188,0.686264,3,10
0.345505,-0.623822,-0.112946,47,3
5.0074,-9.04476,1.26939,12,11
3.44295,-6.22148,-0.873072,55,4
5.47696,-9.90107,1.79211,9,12
6.83646,-12.3638,-1.23604,27,5
3.70977,-6.70917,1.49022,30,13
5.4897,-9.93227,-0.594746,40,6
4.72513,-8.5525,2.25581,9,14
7.24076,-13.1112,-0.261437,8,7
4.54024,-8.22463,2.51727,8,15
3.76624,-6.8451,0.136373,89,8
0.256377,-0.466156,-0.122823,15,1
3.71693,-6.76107,0.404348,75,9
0.314853,-0.572952,-0.127079,14,2
3.72684,-6.7819,0.677026,26,10
0.342375,-0.623292,-0.112633,47,3
11.5834,-21.0964,2.95509,8,11
3.41166,-6.21605,-0.870635,30,4
5.3255,-9.70711,1.75363,0,12
9.00723,-16.4248,-1.63888,39,5
3.52473,-6.43005,1.42534,18,13
5.4379,-9.9243,-0.593071,50,6
7.82895,-14.2939,-0.284474,100,7
3.74113,-6.85886,0.136373,63,8
0.254667,-0.467092,-0.122823,15,1
3.67779,-6.74834,0.402778,77,9
0.27894,-0.512037,-0.113341,16,2
3.70196,-6.79551,0.677026,16,10
0.344811,-0.633217,-0.114197,45,3
4.90174,-9.00539,1.25891,25,11
9.00026,-16.5557,-1.64864,32,5
3.51989,-6.47743,1.43298,24,13
5.39768,-9.93715,-0.592652,81,6
4.88984,-9.00221,2.36514,33,14
7.19446,-13.2505,-0.263182,58,7
3.7093,-6.86021,0.136129,35,8
0.252953,-0.468023,-0.122823,15,1
3.63499,-6.72839,0.400789,60,9
0.277061,-0.513056,-0.113341,16,2
3.69312,-6.83884,0.679989,24,10
0.345303,-0.639692,-0.115136,56,3
4.87342,-9.03203,1.26013,31,11
4.10667,-7.61417,-1.06221,6,4
5.15577,-9.56331,1.72078,38,12
8.82043,-16.3676,-1.62667,21,5
3.47471,-6.45053,1.4242,13,13
5.36311,-9.96038,-0.592862,40,6
4.64894,-8.63401,2.26391,21,14
8.81194,-16.3724,-0.324545,30,7
4.33199,-8.05212,2.44998,9,15
3.72287,-6.94603,0.13756,71,8
0.251236,-0.468947,-0.122823,15,1
3.66876,-6.85083,0.407278,50,9
0.301122,-0.562533,-0.124026,14,2
3.68401,-6.88219,0.682952,16,10
0.341092,-0.63747,-0.11451,56,3
3.78235,-7.07182,0.984704,24,11
5.18873,-9.7054,-1.35129,42,4
5.11045,-9.56298,1.71734,23,12
10.0577,-18.8285,-1.86757,9,5
3.52317,-6.59831,1.45396,21,13
5.37171,-10.0645,-0.597886,40,6
4.60533,-8.62865,2.25806,14,14
5.51581,-10.3389,-0.204542,48,7
4.20428,-7.88384,2.39408,8,15
5.33896,-10.0411,0.198504,65,8
0.24968,-0.469777,-0.122823,15,1
3.83437,-7.21748,0.428317,35,9
0.272642,-0.513197,-0.112959,16,2
3.94057,-7.42051,0.735071,11,10
0.336198,-0.633363,-0.113571,46,3
4.83536,-9.11317,1.26671,45,11
5.13327,-9.67871,-1.34519,46,4
5.05095,-9.52752,1.70795,44,12
3.42865,-6.4674,-0.64042,5,5
3.50886,-6.62149,1.45664,16,13
5.3008,-10.0072,-0.59349,87,6
4.60679,-8.7007,2.27291,19,14
5.47775,-10.35,-0.204403,27,7
4.16727,-7.87725,2.38786,7,15
0.248038,-0.470646,-0.122823,15,1
3.67976,-6.9852,0.413768,18,9
0.270849,-0.514145,-0.112959,16,2
3.94992,-7.50121,0.741695,43,10
0.333985,-0.634533,-0.113571,57,3
4.80999,-9.1423,1.26842,42,11
3.69132,-7.022,1.25648,56,12
3.39493,-6.45817,-0.638329,13,5
3.56791,-6.79011,1.49098,20,13
5.30948,-10.1088,-0.598409,23,6
4.59632,-8.75469,2.2828,11,14
5.45646,-10.3974,-0.204961,100,7
4.13526,-7.88319,2.38528,28,15
8.75589,-16.7485,0.329885,22,8
0.246394,-0.471509,-0.122823,15,1
3.63623,-6.95842,0.411465,53,9
0.301775,-0.577733,-0.126697,14,2
3.74297,-7.16879,0.70753,18,10
0.327198,-0.626938,-0.112007,59,3
4.77346,-9.15023,1.2672,39,11
5.05364,-9.69143,-1.34203,41,4
3.65249,-7.00442,1.25116,24,12
3.36408,-6.45408,-0.63676,23,5
3.67844,-7.06021,1.54746,28,13
5.14224,-9.87395,-0.583441,20,6
6.40768,-12.309,3.20375,29,14
5.36378,-10.3037,-0.202762,24,7
5.29419,-10.2092,0.200738,52,8
0.244829,-0.472323,-0.122823,15,1
3.5816,-6.91255,0.408011,35,9
0.267253,-0.516024,-0.112959,16,2
3.87914,-7.49321,0.738209,13,10
0.32875,-0.635037,-0.113259,58,3
4.75313,-9.1854,1.26988,39,11
5.05978,-9.78219,-1.35226,26,4
4.76478,-9.21579,1.64319,36,12
3.35068,-6.48348,-0.638503,32,5
3.41705,-6.61192,1.44671,18,13
5.1058,-9.88385,-0.583023,37,6
6.3999,-12.3943,3.2204,24,14
5.26541,-10.2015,-0.200389,26,7
7.57931,-14.6909,4.42943,8,15
5.23932,-10.1902,0.200005,55,8
0.243179,-0.473175,-0.122823,15,1
3.52824,-6.86816,0.404662,60,9
0.26554,-0.516907,-0.112959,16,2
3.61673,-7.04345,0.692714,84,10
0.329238,-0.641453,-0.114197,45,3
4.72194,-9.2037,1.27012,24,11
5.06274,-9.87221,-1.36226,24,4
3.6008,-7.02448,1.25022,43,12
3.33893,-6.51642,-0.640595,10,5
3.35635,-6.55042,1.43069,16,13
5.07582,-9.9105,-0.583546,43,6
4.46685,-8.72523,2.26301,13,14
5.26985,-10.2982,-0.201924,100,7
0.241526,-0.474021,-0.122823,15,1
3.50787,-6.88755,0.40508,45,9
0.263644,-0.517877,-0.112959,16,2
3.60264,-7.07974,0.69498,58,10
0.318824,-0.626809,-0.111381,48,3
4.70599,-9.25198,1.27451,33,11
5.04175,-9.91637,-1.36591,6,4
3.57178,-7.0282,1.24866,19,12
3.29631,-6.48895,-0.63676,13,5
3.34032,-6.57844,1.43412,8,13
5.2989,-10.4402,-0.613587,77,6
6.51736,-12.8464,3.32568,15,14
5.07826,-10.0098,-0.195921,100,7
4.05326,-7.99287,2.40132,29,15
5.20324,-10.3007,0.201436,7,8
0.239787,-0.474903,-0.122823,15,1
3.71567,-7.36217,0.43219,75,9
0.261834,-0.518794,-0.112959,16,2
3.63623,-7.20789,0.70631,20,10
0.313966,-0.622627,-0.110443,49,3
3.91705,-7.77128,1.06855,16,11
4.92409,-9.77345,-1.34373,19,4
4.62641,-9.18661,1.62911,35,12
3.26892,-6.49387,-0.636063,10,5
3.21935,-6.39541,1.39176,21,13
5.41593,-10.7637,-0.631486,35,6
4.79219,-9.52821,2.46231,24,14
5.25351,-10.45,-0.204158,32,7
4.05256,-8.06464,2.41841,63,15
6.02682,-12.0353,0.234944,24,8
0.238128,-0.475737,-0.122823,15,1
3.43168,-6.85889,0.40194,33,9
0.259931,-0.51975,-0.112959,16,2
3.59286,-7.18731,0.702998,9,10
0.316097,-0.632608,-0.112007,47,3
3.10287,-6.20981,0.852354,9,11
4.88817,-9.78703,-1.34324,38,4
4.60049,-9.21507,1.6313,49,12
3.24267,-6.49811,-0.635365,13,5
3.6875,-7.39274,1.60585,17,13
5.37199,-10.7745,-0.630962,71,6
6.44265,-12.9276,3.33467,13,14
5.30798,-10.6508,-0.207719,96,7
3.99252,-8.01476,2.39925,16,15
3.47618,-7.0058,0.136513,17,8
0.236382,-0.476607,-0.122823,15,1
3.60524,-7.27226,0.425387,42,9
0.258115,-0.520654,-0.112959,16,2
3.04759,-6.1501,0.600503,3,10
0.310379,-0.626627,-0.110756,24,3
2.87574,-5.80841,0.795807,27,11
4.55355,-9.20531,1.62661,22,12
5.18656,-10.4942,-0.613482,37,6
6.40094,-12.957,3.33647,15,14
4.95106,-10.0265,-0.195188,23,7
6.5043,-13.1778,3.93767,9,15
5.15417,-10.4793,0.203844,33,8
3.63797,-7.4031,0.432295,7,9
0.287467,-0.584984,-0.126697,14,2
3.02698,-6.16249,0.600677,31,10
0.312543,-0.636573,-0.11232,35,3
2.85633,-5.8202,0.796051,100,11
4.75157,-9.68631,-1.32472,45,4
3.73956,-7.62665,1.34534,45,12
7.36459,-15.0197,-1.46352,11,5
3.32216,-6.77837,1.46732,8,13
5.03567,-10.2791,-0.599875,37,6
9.44267,-19.2834,4.95702,9,14
4.91866,-10.0491,-0.195292,22,7
6.39798,-13.0772,3.90092,13,15
5.03957,-10.3372,0.200738,47,8
0.233049,-0.478245,-0.122823,15,1
0.254474,-0.522443,-0.112959,16,2
4.74453,-9.74498,0.948254,42,10
0.310319,-0.63766,-0.11232,23,3
2.84381,-5.8462,0.798244,75,11
4.73075,-9.72962,-1.32838,30,4
6.17466,-12.7049,2.23733,12,12
13.8735,-28.546,-2.77678,8,5
3.25387,-6.6981,1.44748,9,13
7.47522,-15.4015,3.95239,13,14
5.1812,-10.6797,-0.207195,100,7
6.34808,-13.0908,3.89833,4,15
4.99041,-10.3278,0.200214,26,8
0.231378,-0.479056,-0.122823,15,1
3.27099,-6.77542,0.394299,78,9
4.67758,-9.6933,0.941631,23,10
0.30895,-0.640519,-0.112633,35,3
2.82769,-5.86503,0.799463,50,11
4.89152,-10.1502,-1.38346,15,4
7.52932,-15.6308,-1.5179,9,5
3.2739,-6.79963,1.46694,33,13
7.19754,-14.9554,-0.869824,6,6
7.11898,-14.7988,3.79132,15,14
4.98444,-10.3662,-0.200772,100,7
3.96417,-8.248,2.45205,6,15
4.95087,-10.3379,0.200074,25,8
0.229705,-0.479861,-0.122823,15,1
0.274547,-0.573794,-0.123644,14,2
4.68584,-9.79764,0.950172,8,10
0.298192,-0.623771,-0.109504,25,3
2.80121,-5.86233,0.797757,30,11
4.88857,-10.2353,-1.39272,68,4
4.70798,-9.86161,1.73079,11,12
7.40519,-15.5114,-1.50379,34,5
3.22732,-6.76318,1.45664,33,13
5.46688,-11.4615,-0.665504,19,6
3.57515,-7.49883,1.91793,10,14
4.81488,-10.1037,-0.195362,21,7
4.08324,-8.57223,2.54419,15,15
4.96449,-10.4599,0.202099,13,8
0.228028,-0.480659,-0.122823,15,1
3.35967,-7.08503,0.410942,30,9
0.248989,-0.52508,-0.112959,16,2
6.60748,-13.9404,1.34969,21,10
0.310391,-0.655156,-0.114823,22,3
2.93961,-6.20757,0.843336,26,11
4.93349,-10.4228,-1.41588,27,4
7.35526,-15.5461,-1.50466,53,5
3.20873,-6.78505,1.45893,15,13
4.92324,-10.4152,-0.603748,67,6
4.77702,-10.115,-0.195258,21,7
4.06071,-8.60216,2.54885,20,15
4.91943,-10.4591,0.20175,55,8
0.226349,-0.481453,-0.122823,15,1
3.38589,-7.20517,0.417222,127,9
0.247155,-0.525946,-0.112959,16,2
3.74909,-7.98167,0.771503,15,10
0.297188,-0.63299,-0.110756,24,3
2.79142,-5.94823,0.806775,27,11
4.87095,-10.3842,-1.40832,5,4
7.28488,-15.5374,-1.50134,31,5
3.41247,-7.28153,1.56311,18,13
5.22236,-11.1486,-0.645198,94,6
3.50454,-7.48478,1.90803,13,14
4.75864,-10.1678,-0.195956,23,7
3.85794,-8.24706,2.43963,42,15
4.89388,-10.4997,0.202204,48,8
0.224667,-0.48224,-0.122823,15,1
0.245318,-0.526805,-0.112959,16,2
2.83924,-6.09989,0.58865,20,10
0.305809,-0.657307,-0.114823,22,3
3.00836,-6.46914,0.875997,2,11
7.06374,-15.1967,-2.05764,11,4
7.11892,-15.3224,2.67597,22,12
4.84222,-10.4222,-1.00543,24,5
3.38868,-7.29695,1.56387,38,13
5.59892,-12.0729,-0.232292,25,7
4.49535,-9.69769,2.86409,11,15
4.84127,-10.4823,0.20154,55,8
0.222982,-0.483021,-0.122823,15,1
3.22588,-6.99106,0.40351,54,9
0.284605,-0.61679,-0.13204,13,2
2.80125,-6.07358,0.585164,16,10
0.286973,-0.622492,-0.108566,38,3
5.7763,-12.5355,1.69472,30,11
4.72609,-10.2611,-1.38712,45,4
7.02822,-15.2664,2.66189,16,12
4.80082,-10.4281,-1.00438,17,5
3.35827,-7.29804,1.56158,25,13
4.87483,-10.5986,-0.611389,30,6
3.37568,-7.34263,1.86574,36,14
3.4117,-7.42439,-0.142621,48,7
3.77286,-8.2141,2.42203,25,15
4.77968,-10.4445,0.200493,38,8
0.221295,-0.483796,-0.122823,15,1
3.22056,-7.04406,0.405918,33,9
0.241634,-0.528505,-0.112959,16,2
2.78997,-6.10507,0.587255,9,10
0.291364,-0.637864,-0.111068,48,3
5.73828,-12.5682,1.69642,22,11
4.71744,-10.3371,-1.39516,27,4
4.11377,-9.0185,1.56998,46,12
3.16499,-6.94173,1.48297,4,13
4.81379,-10.5629,-0.608353,37,6
3.15696,-6.93052,1.75822,18,14
5.56505,-12.2227,-0.234421,100,7
3.75136,-8.24305,2.42669,14,15
4.6986,-10.3628,0.198608,31,8
0.219605,-0.484566,-0.122823,15,1
3.177,-7.01341,0.40351,66,9
0.239787,-0.529345,-0.112959,16,2
2.74398,-6.06032,0.582026,24,10
0.292394,-0.646076,-0.11232,47,3
2.99855,-6.6287,0.893302,21,11
4.68623,-10.3644,-1.39662,15,4
4.0904,-9.05081,1.57311,45,12
5.87166,-13.0043,-0.747776,16,6
3.18004,-7.0463,1.78476,41,14
5.43272,-12.0433,-0.230616,25,7
4.35305,-9.65442,2.83769,33,15
4.69846,-10.4594,0.200144,100,8
0.217912,-0.48533,-0.122823,15,1
6.95349,-15.4939,0.890025,12,9
0.237846,-0.53022,-0.112959,16,2
0.292447,-0.652551,-0.113259,46,3
2.98351,-6.65724,0.89574,40,11
4.24913,-9.48572,-1.27622,5,4
4.05233,-9.05061,1.5706,49,12
4.65046,-10.3914,-0.996016,2,5
3.26435,-7.29754,1.55395,38,13
4.75928,-10.6445,-0.611075,84,6
3.1049,-6.9476,1.75687,44,14
4.37133,-9.78597,2.87186,25,15
3.10321,-6.98304,0.400475,25,9
0.235993,-0.531047,-0.112959,16,2
2.75959,-6.21272,0.594751,15,10
0.285358,-0.642736,-0.111381,48,3
2.71753,-6.12379,0.822618,19,11
4.1918,-9.45043,-1.26939,42,4
4.02713,-9.08346,1.57373,35,12
4.31045,-9.72708,-0.930823,28,5
3.37646,-7.61941,1.61997,22,13
4.70915,-10.6318,-0.6094,91,6
3.56343,-8.04893,2.03221,56,14
4.78077,-10.8037,-0.206218,100,7
4.19868,-9.49274,2.78127,8,15
4.7017,-10.6703,0.20353,38,8
0.214434,-0.486876,-0.122823,15,1
3.08525,-7.00845,0.401312,60,9
0.249859,-0.567849,-0.120591,15,2
2.72156,-6.18814,0.591439,3,10
0.282206,-0.641969,-0.111068,48,3
2.94378,-6.69659,0.898177,4,11
5.85488,-13.3251,-1.78709,26,4
3.79126,-8.63264,1.49332,7,12
4.22121,-9.61618,-0.918796,33,5
3.34299,-7.61915,1.6173,8,13
4.67576,-10.6618,-0.610133,40,6
3.63718,-8.29753,2.09159,34,14
4.75266,-10.8423,-0.206636,28,7
4.13528,-9.43833,2.76108,11,15
4.65937,-10.6801,0.20339,15,8
0.212648,-0.487659,-0.122823,15,1
0.232187,-0.532723,-0.112959,16,2
2.69755,-6.19213,0.590916,5,10
0.276808,-0.635705,-0.109817,49,3
6.30741,-14.4922,1.94065,28,11
4.15812,-9.55845,-1.27987,39,4
6.74884,-15.5213,2.68066,22,12
4.17958,-9.61697,-0.917401,46,5
4.20721,-9.68517,-0.5534,84,6
3.65787,-8.42457,2.12039,28,14
5.28289,-12.1731,-0.231628,100,7
4.1268,-9.51368,2.77868,8,15
4.53163,-10.487,0.199411,10,8
0.210944,-0.488398,-0.122823,15,1
6.64633,-15.3956,0.878825,4,9
0.230233,-0.53357,-0.112959,16,2
3.38892,-7.85766,0.748668,7,10
0.275259,-0.63853,-0.11013,49,3
6.23557,-14.4649,1.93407,41,11
4.08938,-9.49087,-1.2689,15,4
6.69149,-15.5375,2.67941,50,12
4.17435,-9.69738,-0.923677,31,5
4.17879,-9.71704,-0.554343,94,6
3.49922,-8.14073,2.04571,17,14
4.69075,-10.9128,-0.207335,57,7
2.77277,-6.45378,1.88213,0,15
5.46276,-12.764,0.242344,15,8
5.42731,-12.6935,0.723492,10,9
0.228463,-0.534331,-0.112959,16,2
2.7075,-6.33539,0.602769,15,10
0.279347,-0.653972,-0.112633,47,3
2.92454,-6.84987,0.914508,18,11
3.99233,-9.35537,-1.24892,16,4
4.11715,-9.65253,-0.918099,18,5
3.58177,-8.40141,1.77529,9,13
5.0239,-11.8012,-0.223879,100,7
2.74417,-6.4492,1.87799,15,15
5.43456,-12.8217,0.243077,60,8
0.207529,-0.489859,-0.122823,15,1
6.46549,-15.2688,0.868986,4,9
0.226596,-0.535125,-0.112959,16,2
2.7506,-6.49893,0.617411,20,10
0.271676,-0.642208,-0.110443,36,3
2.89675,-6.8509,0.913289,33,11
3.95424,-9.35645,-1.24721,44,4
4.20903,-9.96417,-0.946337,32,5
5.32634,-12.6154,2.66179,22,13
3.46341,-8.21104,2.0574,34,14
4.41169,-10.4643,-0.198224,75,7
2.73589,-6.49257,1.88783,21,15
6.45937,-15.3888,0.291316,19,8
0.205818,-0.490581,-0.122823,15,1
6.40983,-15.2857,0.868672,36,9
0.224727,-0.535912,-0.112959,16,2
6.11352,-14.5862,1.38368,24,10
0.262563,-0.626755,-0.107627,38,3
3.91926,-9.3647,-1.24648,56,4
3.64537,-8.71453,1.49614,32,12
4.72166,-11.2875,-1.07045,26,5
3.36097,-8.03859,1.69362,18,13
3.41746,-8.18172,2.04705,56,14
4.25264,-10.1862,-0.192675,100,7
2.69164,-6.45038,1.87281,34,15
6.41482,-15.4334,0.291734,8,8
0.204105,-0.491296,-0.122823,15,1
6.38018,-15.3652,0.871917,30,9
0.222855,-0.536694,-0.112959,16,2
2.7487,-6.62286,0.627347,20,10
0.266429,-0.642264,-0.11013,37,3
4.1809,-10.0836,1.34032,6,11
3.87667,-9.35449,-1.24331,46,4
4.70587,-11.361,-1.07585,23,5
3.5732,-8.63073,1.81574,16,13
4.92111,-11.8924,-0.674506,39,6
3.39186,-8.2008,2.04885,59,14
4.21019,-10.1844,-0.19236,28,7
5.46515,-13.2792,0.250651,6,8
0.202388,-0.492006,-0.122823,15,1
6.33831,-15.4084,0.873173,23,9
0.22098,-0.537468,-0.112959,16,2
6.04107,-14.7004,1.39048,15,10
0.269439,-0.655981,-0.11232,23,3
6.33122,-15.4218,2.04692,48,11
3.93819,-9.59752,-1.27378,71,4
3.58147,-8.72817,1.49426,46,12
5.59685,-13.6465,-1.29043,49,5
3.54678,-8.65224,1.81765,42,13
5.12794,-12.5157,-0.708838,48,6
3.37503,-8.24145,2.05605,30,14
4.19837,-10.252,-0.193373,64,7
6.60857,-16.21,0.305557,24,8
0.200756,-0.492674,-0.122823,15,1
6.30407,-15.4785,0.875895,15,9
0.233907,-0.574604,-0.120591,15,2
4.04571,-9.94346,0.93919,6,10
0.269495,-0.66236,-0.113259,23,3
6.47747,-15.9282,2.11126,9,11
3.52272,-8.67108,1.48237,67,12
5.57392,-13.7269,-1.29618,15,5
3.04091,-7.48887,1.57112,11,13
3.15159,-7.76532,-0.439203,68,6
3.33376,-8.21828,2.0475,44,14
4.13851,-10.2073,-0.192256,100,7
2.64902,-6.53683,1.8899,23,15
5.39634,-13.3698,0.251664,30,8
6.28287,-15.582,0.8805,16,9
0.217316,-0.53896,-0.112959,16,2
4.00378,-9.93464,0.937099,17,10
0.256849,-0.637644,-0.108878,25,3
5.23933,-13.0135,1.7225,7,11
3.98689,-9.90771,-1.31131,11,4
4.0868,-10.1611,-0.95819,16,5
5.46484,-13.6011,-0.768187,71,6
2.95211,-7.35101,1.82885,14,14
4.10435,-10.2253,-0.192326,23,7
2.78227,-6.93511,2.00222,59,15
4.80725,-12.0312,0.226148,7,8
0.197311,-0.494063,-0.122823,15,1
6.54164,-16.3884,0.924776,19,9
0.22999,-0.576183,-0.120591,15,2
0.255353,-0.640372,-0.109191,25,3
5.22915,-13.1203,1.7342,38,11
4.04338,-10.1502,-1.34154,20,4
4.04246,-10.1531,-0.956098,62,5
3.72121,-9.36049,2.32554,13,14
4.09226,-10.2991,-0.193442,21,7
2.81723,-7.0938,2.04519,13,15
4.75861,-12.0311,0.225834,31,8
0.195585,-0.494749,-0.122823,15,1
3.13761,-7.94089,0.447472,15,9
0.213454,-0.540501,-0.112959,16,2
2.46188,-6.23388,0.586384,65,10
0.248765,-0.630235,-0.107314,26,3
3.24549,-8.22653,1.08586,15,11
3.44766,-8.74792,1.48926,39,12
3.96725,-10.0714,-0.947034,46,5
4.37786,-11.1252,-0.626566,42,6
2.90286,-7.37688,1.8302,12,14
4.02627,-10.237,-0.192011,100,7
4.71594,-12.0522,0.225904,13,8
0.193771,-0.495463,-0.122823,15,1
3.08158,-7.88351,0.4436,28,9
0.211472,-0.54128,-0.112959,16,2
2.43829,-6.24101,0.58621,13,10
0.248608,-0.636663,-0.108253,38,3
5.19215,-13.3034,1.75346,15,11
3.70372,-9.49465,-1.25135,37,4
3.43782,-8.81755,1.49896,33,12
3.8992,-10.0061,-0.939539,44,5
3.51342,-9.02075,1.88176,15,13
4.33778,-11.1431,-0.626671,29,6
4.08324,-10.4892,2.59863,70,14
4.01773,-10.3262,-0.193408,24,7
4.65152,-12.0172,0.224927,2,8
0.191954,-0.49617,-0.122823,15,1
2.90487,-7.50863,0.421933,20,9
0.209581,-0.542015,-0.112959,16,2
2.42689,-6.27964,0.588998,16,10
0.251256,-0.650468,-0.110443,36,3
5.17767,-13.4113,1.76516,19,11
3.6739,-9.52113,-1.25306,55,4
3.77538,-9.78414,1.66102,39,12
3.98756,-10.3394,-0.96952,25,5
3.25595,-8.44676,1.75964,21,13
2.98773,-7.75497,-0.43554,58,6
3.80387,-9.87849,2.44387,8,14
3.97376,-10.3197,-0.193024,100,7
2.7249,-7.08012,2.03276,39,15
4.63025,-12.0811,0.225834,31,8
2.88436,-7.53365,0.42277,33,9
0.207688,-0.542743,-0.112959,16,2
5.11097,-13.3633,1.25173,27,10
0.249803,-0.653143,-0.110756,49,3
5.01409,-13.1169,1.72421,23,11
3.558,-9.31259,-1.22406,17,4
3.81646,-9.99957,-0.936401,26,5
2.97196,-7.79096,-0.437005,94,6
2.80749,-7.36366,1.8194,12,14
3.95765,-10.3858,-0.194001,64,7
3.38363,-8.8841,2.5473,11,15
4.5377,-11.9645,0.223356,15,8
0.188572,-0.497465,-0.122823,15,1
5.09622,-13.4512,0.753847,46,9
0.205887,-0.543429,-0.112959,16,2
0.248221,-0.655858,-0.111068,48,3
5.02375,-13.281,1.74346,42,11
3.51845,-9.30638,-1.22162,15,4
3.80582,-10.0718,-0.941979,20,5
3.67899,-9.74646,-0.545969,42,6
3.53981,-9.38269,2.3152,45,14
3.94395,-10.4594,-0.195118,37,7
5.07204,-13.5154,0.251978,37,8
5.06676,-13.5157,0.756464,10,9
2.36979,-6.32482,0.590916,16,10
0.241081,-0.643772,-0.108878,50,3
3.70815,-9.90735,1.29888,33,11
3.47968,-9.30188,-1.21942,45,4
2.98439,-7.98211,1.34972,12,12
2.96264,-7.92395,-0.740127,28,5
3.15368,-8.43938,1.75125,38,13
3.64565,-9.76112,-0.546073,38,6
3.67332,-9.84046,2.42497,15,14
4.17862,-11.2001,-0.208661,20,7
3.35797,-9.00525,2.57525,21,15
5.08817,-13.7036,0.255154,16,8
5.50087,-14.831,0.829002,15,9
0.202088,-0.544853,-0.112959,16,2
2.37124,-6.39657,0.596843,15,10
0.242263,-0.653871,-0.110443,49,3
4.87301,-13.1593,1.72299,38,11
3.44374,-9.30466,-1.21821,81,4
2.98118,-8.05918,1.36098,7,12
3.63242,-9.8197,-0.916007,30,5
3.22564,-8.72471,1.80811,33,13
2.91444,-7.88722,-0.440669,36,6
3.08602,-8.35604,2.0565,5,14
3.77666,-10.2316,-0.190371,100,7
3.36797,-9.12929,2.60734,17,15
3.95916,-10.7781,0.200423,27,8
5.45733,-14.8726,0.830258,7,9
3.66604,-9.99629,0.931521,29,10
0.242019,-0.660276,-0.111381,48,3
4.90216,-13.3813,1.7498,23,11
3.36688,-9.19546,-1.20236,59,4
2.92588,-7.99533,1.34847,15,12
3.70288,-10.1186,-0.942677,36,5
2.66106,-7.27563,1.50586,26,13
3.92233,-10.7299,-0.598723,13,6
3.01604,-8.25511,2.02906,6,14
