x, y, z, intensity, ring
-12.9331,21.0554,0.431319,11,8
-0.314057,0.511491,-0.13857,13,1
-11.2447,18.3139,1.12627,21,9
-5.32893,8.68241,-1.98022,19,2
-10.7629,17.5429,1.80064,15,10
-5.16979,8.42973,-1.56622,21,3
-9.99531,16.3045,2.34818,30,11
-10.7257,17.4959,-2.51977,8,4
-13.1246,21.4174,3.97844,10,12
-6.23186,10.1734,-1.04378,4,5
-6.64913,10.8632,-0.667493,68,6
-9.12558,14.9091,4.03562,11,14
-7.91816,12.9415,-0.264823,100,7
-8.06261,13.1828,4.14059,22,15
-0.301781,0.494785,-0.155291,12,0
-14.382,23.5893,0.482245,6,8
-0.318443,0.522514,-0.141269,13,1
-11.1797,18.3513,1.12617,18,9
-5.23984,8.60111,-1.9577,14,2
-6.36272,10.4484,1.07027,47,10
-5.12435,8.41814,-1.5609,65,3
-9.84212,16.1747,2.32478,10,11
-5.19612,8.54275,-1.22771,15,4
-11.1307,18.3067,3.39338,11,12
-6.2457,10.2724,-1.0518,35,5
-6.9306,11.4033,2.59386,46,13
-6.6141,10.8868,-0.667598,26,6
-9.06336,14.9242,4.03112,35,14
-6.74808,11.1161,-0.226986,28,7
-8.88544,14.6428,4.58938,16,15
-0.300052,0.495836,-0.155291,12,0
-13.0182,21.5211,0.439033,5,8
-0.298468,0.493606,-0.133171,14,1
-11.1228,18.4022,1.1269,7,9
-5.20268,8.60758,-1.95503,23,2
-11.0904,18.3558,1.87629,21,10
-5.098,8.44105,-1.56184,72,3
-8.72271,14.4484,2.07227,13,11
-5.17755,8.57953,-1.23039,45,4
-8.32502,13.8005,2.5527,17,12
-6.10895,10.1269,-1.03471,63,5
-6.92928,11.4913,2.60836,35,13
-7.68754,12.7538,-0.780434,35,6
-9.6066,15.9439,4.29746,31,14
-6.71233,11.1447,-0.227091,28,7
-6.83745,11.357,3.55203,11,15
-12.801,21.3298,0.434216,11,8
-0.308773,0.514698,-0.13857,13,1
-10.7,17.8431,1.09037,24,9
-5.16856,8.61896,-1.9535,26,2
-6.25683,10.4379,1.06469,22,10
-5.09287,8.49946,-1.56935,67,3
-9.7259,16.2379,2.32405,10,11
-5.12003,8.55157,-1.22381,61,4
-10.4497,17.4602,3.22286,8,12
-5.872,9.81139,-1.00037,44,5
-6.86694,11.4784,2.59996,10,13
-6.55844,10.967,-0.669691,29,6
-14.0354,23.4793,6.31528,8,14
-8.49098,14.2099,-0.288942,70,7
-6.77696,11.3459,3.54116,5,15
-0.296583,0.497918,-0.155291,12,0
-8.29678,13.9346,0.283078,9,8
-0.304981,0.512423,-0.13767,13,1
-6.22923,10.4704,0.638499,35,9
-5.14246,8.6437,-1.95503,26,2
-6.15417,10.3483,1.05336,58,10
-5.11566,8.60548,-1.58562,67,3
-9.70871,16.3383,2.33355,10,11
-5.03541,8.47722,-1.21065,53,4
-10.3645,17.4558,3.21535,26,12
-5.90485,9.9449,-1.01188,56,5
-7.59933,12.8089,-0.780538,32,6
-9.53581,16.0793,4.31591,6,14
-6.48548,10.9402,-0.221995,22,7
-6.72747,11.3529,3.53599,37,15
-0.294844,0.498951,-0.155291,12,0
-8.25012,13.9669,0.283148,8,8
-0.311117,0.526909,-0.141269,13,1
-6.15182,10.4188,0.634102,62,9
-5.20905,8.82559,-1.99205,26,2
-6.21115,10.5276,1.0694,67,10
-5.11971,8.68114,-1.59626,67,3
-9.5619,16.2199,2.31186,43,11
-5.07331,8.60933,-1.22698,30,4
-10.2995,17.4782,3.21316,35,12
-5.80133,9.84871,-1.00003,53,5
-7.66602,13.0247,-0.792052,52,6
-9.42823,16.0252,4.29252,18,14
-6.46945,10.9961,-0.222693,29,7
-6.64865,11.3052,3.51425,23,15
-8.18555,13.9631,0.28252,32,8
-0.31725,0.541389,-0.144868,12,1
-6.1356,10.4746,0.636196,30,9
-5.24368,8.95554,-2.01723,26,2
-5.18369,8.85662,-1.62535,68,3
-10.2098,17.4509,2.48248,43,11
-5.5468,9.48461,-1.34909,30,4
-7.93899,13.5859,3.05867,11,13
-9.96492,17.0597,-1.03541,26,6
-10.1002,17.2983,4.62454,14,14
-6.36853,10.9115,-0.220529,24,7
-6.61304,11.335,3.51632,48,15
-8.14079,13.9985,0.282659,48,8
-0.307523,0.529015,-0.141269,13,1
-6.10904,10.5133,0.637243,48,9
-5.18733,8.92705,-2.00693,26,2
-10.2723,17.685,1.78931,48,10
-5.26879,9.07453,-1.66196,41,3
-9.47519,16.3258,2.31771,30,11
-5.51466,9.50563,-1.34934,27,4
-11.9472,20.6016,3.77195,14,12
-5.53027,9.53637,-0.964465,26,5
-6.80748,11.7435,2.63851,26,13
-6.07116,10.4775,-0.634626,78,6
-10.1286,17.4869,4.66548,11,14
-8.17502,14.1197,-0.284788,31,7
-6.54247,11.3045,3.49975,41,15
-0.28969,0.50196,-0.155291,12,0
-6.08539,10.5487,0.21257,60,8
-0.290099,0.503074,-0.134071,14,1
-6.08327,10.5536,0.638394,59,9
-5.18849,9.00123,-2.01952,26,2
-10.2065,17.7139,1.78861,60,10
-5.1168,8.88403,-1.62379,72,3
-10.2234,17.7575,2.51587,5,11
-5.47847,9.51966,-1.34861,19,4
-11.8092,20.5285,3.75099,20,12
-5.49496,9.55216,-0.964117,38,5
-6.8095,11.8421,2.6553,15,13
-5.97184,10.3895,-0.628032,94,6
-7.23368,12.5899,3.35222,24,14
-6.18962,10.7771,-0.216933,100,7
-6.47796,11.2837,3.48629,43,15
-5.88267,10.28,0.206741,35,8
-0.288341,0.504084,-0.134071,14,1
-6.078,10.6257,0.641534,23,9
-5.24669,9.17609,-2.05463,19,2
-10.1594,17.7753,1.79122,41,10
-4.91624,8.60511,-1.56966,62,3
-11.8349,20.7235,2.93023,15,11
-5.35762,9.38529,-1.32691,41,4
-11.8497,20.7579,3.78571,9,12
-5.46652,9.57994,-0.964988,16,5
-6.69226,11.7328,2.62553,9,13
-6.06513,10.6376,-0.641744,39,6
-7.1289,12.5084,3.32388,85,14
-6.12612,10.7489,-0.215956,100,7
-6.45389,11.3287,3.49354,9,15
-5.86534,10.329,0.207335,38,8
-0.261657,0.460974,-0.122373,15,1
-6.00835,10.5895,0.63808,108,9
-5.2156,9.19605,-2.05501,23,2
-7.97783,14.0721,1.41523,21,10
-4.87988,8.60762,-1.56716,57,3
-11.6937,20.6348,2.91219,31,11
-5.32255,9.3961,-1.32594,59,4
-11.7451,20.7425,3.77539,23,12
-5.91393,10.4486,-1.0504,11,5
-8.16204,14.4264,-0.868672,35,6
-7.11424,12.5795,3.33647,40,14
-7.94652,14.0569,-0.281856,100,7
-6.48749,11.4806,3.5334,9,15
-5.842,10.3721,0.207788,58,8
-0.307849,0.546789,-0.144868,12,1
-6.49344,11.5381,0.69387,88,9
-5.11189,9.08327,-2.02601,28,2
-7.80706,13.8779,1.3931,68,10
-4.98923,8.87254,-1.61221,62,3
-11.6439,20.7153,2.9178,15,11
-4.94648,8.80371,-1.2399,11,4
-10.2371,18.2274,3.31109,19,12
-5.86071,10.4351,-1.04709,61,5
-6.54689,11.6616,2.59958,27,13
-6.05123,10.7832,-0.648024,52,6
-7.32675,13.0614,3.4575,63,14
-7.26855,12.963,-0.259413,30,7
-6.45777,11.5217,3.53909,15,15
-7.95818,14.2453,0.284823,27,8
-0.31924,0.57168,-0.151167,11,1
-7.85103,14.0651,0.844179,21,9
-5.08685,9.11306,-2.02868,26,2
-6.53343,11.7094,1.17312,20,10
-4.82544,8.65183,-1.56904,66,3
-11.2864,20.2444,2.84589,14,11
-4.90605,8.80358,-1.23746,68,4
-16.542,29.6957,5.38385,18,12
-5.80486,10.4207,-1.0436,59,5
-6.44883,11.5815,2.57668,16,13
-5.91447,10.6262,-0.637347,29,6
-6.23229,11.2018,2.95946,57,14
-7.93567,14.2693,-0.284998,33,7
-6.38465,11.4851,3.52097,38,15
-7.73007,13.9512,0.278401,40,8
-0.287973,0.519945,-0.13722,13,1
-6.4108,11.5797,0.693661,44,9
-5.06167,9.14278,-2.03135,33,2
-7.58071,13.6985,1.36974,33,10
-4.80955,8.69455,-1.57373,63,3
-11.2224,20.2958,2.8476,15,11
-4.8388,8.75463,-1.2282,81,4
-10.4678,18.9468,3.42842,7,12
-6.36967,11.5291,-1.15237,26,5
-6.35142,11.5008,2.55379,55,13
-5.8204,10.5436,-0.631172,35,6
-6.21292,11.2593,2.9689,25,14
-5.30904,9.62524,-0.191872,100,7
-7.66399,13.9465,0.277772,48,8
-0.286156,0.520947,-0.13722,13,1
-5.04957,9.19653,-2.03937,28,2
-6.43523,11.725,1.17015,50,10
-4.77917,8.71129,-1.57373,67,3
-16.3573,29.8278,4.17695,27,11
-4.83493,8.82021,-1.23502,22,4
-11.3869,20.7814,3.75318,9,12
-6.30545,11.5076,-1.14802,47,5
-6.28389,11.473,2.54272,56,13
-5.79507,10.5849,-0.632428,58,6
-6.14177,11.2228,2.95361,76,14
-5.25814,9.61214,-0.191243,28,7
-6.34603,11.6057,3.54427,10,15
-7.62579,13.9925,0.278156,37,8
-0.310439,0.569858,-0.149817,12,1
-4.82308,8.85719,-1.96037,23,2
-6.43522,11.8227,1.17765,60,10
-4.81766,8.85458,-1.59657,57,3
-16.3755,30.1097,4.20839,13,11
-5.09966,9.3768,-1.31058,15,4
-10.4216,19.1703,3.45595,18,12
-5.03807,9.27125,-0.923154,15,5
-7.44795,13.7117,3.0331,11,13
-7.17712,13.2186,-0.788284,74,6
-6.12219,11.2757,2.96216,76,14
-8.47891,15.6227,-0.310269,83,7
-6.27066,11.5587,3.52356,18,15
-8.656,16.0089,0.317669,13,8
-0.299282,0.553741,-0.145318,12,1
-6.27426,11.6088,0.691567,41,9
-4.76103,8.81268,-1.94702,26,2
-6.37326,11.8019,1.17346,27,10
-4.70851,8.72275,-1.56998,63,3
-17.072,31.64,4.41435,28,11
-5.49838,10.1903,-1.42173,20,4
-10.3937,19.2709,3.46784,22,12
-6.40284,11.8765,-1.18044,10,5
-6.22241,11.5466,2.54959,12,13
-6.16901,11.4523,-0.681728,39,6
-6.10787,11.3388,2.9734,53,14
-6.15084,11.4233,-0.226462,92,7
-6.22406,11.5642,3.5189,19,15
-5.81433,10.8391,0.2147,12,8
-0.308495,0.575339,-0.150717,11,1
-6.22332,11.6113,0.690416,39,9
-4.56855,8.52388,-1.87985,52,2
-7.5836,14.1552,1.40495,31,10
-4.75136,8.87241,-1.59407,100,3
-16.0695,30.0199,4.18085,27,11
-10.3953,19.4359,3.49099,24,12
-5.85224,10.9419,-1.08561,33,5
-6.18316,11.5655,2.54921,40,13
-6.11594,11.4445,-0.680053,45,6
-6.1261,11.4683,3.00175,40,14
-6.94825,13.0129,-0.257493,29,7
-6.17637,11.5722,3.51476,27,15
-5.77927,10.8647,0.214804,13,8
-0.295506,0.555765,-0.145318,12,1
-7.58784,14.2767,0.847319,21,9
-4.51205,8.4895,-1.86878,54,2
-6.48721,12.2109,1.20972,47,10
-4.52673,8.52431,-1.52868,65,3
-15.2638,28.7555,3.99731,13,11
-4.88561,9.20786,-1.27987,60,4
-10.382,19.5751,3.50945,8,12
-6.14827,11.5974,2.5515,41,13
-6.95597,13.1265,-0.77855,29,6
-6.06505,11.45,2.9914,59,14
-5.76496,10.8881,-0.215049,26,7
-6.07359,11.4759,3.47905,28,15
-5.70493,10.8158,0.213443,27,8
-0.30447,0.577479,-0.150717,11,1
-4.6444,8.81261,-1.93633,35,2
-6.3814,12.1136,1.19787,84,10
-4.56229,8.66416,-1.55089,100,3
-11.2801,21.4308,2.97361,56,11
-4.84512,9.20905,-1.27768,72,4
-10.3237,19.6304,3.51289,22,12
-5.61527,10.6774,-1.05546,38,5
-7.5237,14.3123,3.14301,12,13
-6.07398,11.5594,-0.684345,9,6
-6.24252,11.8852,3.09938,23,14
-5.72227,10.8993,-0.214874,23,7
-8.93398,17.024,5.15153,8,15
-5.65416,10.8108,0.212954,41,8
-0.275367,0.526729,-0.13722,13,1
-6.09399,11.6617,0.689579,68,9
-4.47267,8.55907,-1.87718,49,2
-6.16934,11.8109,1.1658,95,10
-4.50734,8.63275,-1.54244,90,3
-11.1721,21.4067,2.96484,16,11
-4.93781,9.46527,-1.31083,23,4
-12.8773,24.695,4.41114,28,12
-5.56415,10.6704,-1.05284,19,5
-7.48004,14.3507,3.14568,12,13
-6.00037,11.5168,-0.680577,16,6
-5.93276,11.3919,2.9653,59,14
-5.71189,10.9724,-0.215921,21,7
-7.11423,13.6721,4.12972,14,15
-5.61455,10.8269,0.212884,17,8
-0.282495,0.544988,-0.141719,13,1
-6.07529,11.7254,0.692091,35,9
-5.08493,9.81402,-2.14851,40,2
-6.06486,11.7103,1.15377,17,10
-4.51714,8.72562,-1.55621,17,3
-12.8435,24.82,3.43135,10,11
-4.871,9.41721,-1.30181,59,4
-12.7965,24.7503,4.41302,21,12
-5.54883,10.7323,-1.05702,45,5
-5.91614,11.4525,-0.675553,45,6
-6.56532,12.7146,3.30363,20,14
-4.97467,9.63825,-0.189324,28,7
-6.05229,11.7311,3.53702,8,15
-5.58587,10.8643,0.213234,40,8
-0.27881,0.542504,-0.140819,13,1
-6.05988,11.7963,0.695022,18,9
-4.54199,8.84155,-1.93213,23,2
-6.33247,12.3322,1.21286,10,10
-12.7015,24.7569,3.41649,53,11
-4.84353,9.44475,-1.30327,35,4
-10.9808,21.4215,3.81262,19,12
-5.46771,10.6665,-1.04866,33,5
-6.17823,12.0577,2.63355,12,13
-5.87885,11.4784,-0.675867,100,6
-9.0376,17.6534,4.57865,17,14
-4.97106,9.7143,-0.190476,83,7
-6.03417,11.7969,3.55048,5,15
-5.51696,10.8276,0.212117,58,8
-0.278588,0.546996,-0.141719,13,1
-5.91896,11.6216,0.683508,26,9
-4.48907,8.8179,-1.92335,54,2
-6.03964,11.8688,1.1651,5,10
-4.40085,8.65208,-1.53744,25,3
-10.6998,21.0449,2.89878,15,11
-6.73711,13.2566,-1.82585,12,4
-10.9122,21.472,3.81481,26,12
-5.12809,10.0949,-0.990612,51,5
-7.02285,13.8308,3.01516,11,13
-6.72893,13.2577,-0.779178,32,6
-6.20172,12.2243,3.16461,27,14
-5.5641,10.9674,-0.214665,27,7
-6.03926,11.9092,3.57791,19,15
-5.48644,10.8566,0.212326,30,8
-0.275015,0.544438,-0.140819,13,1
-5.83965,11.5656,0.679007,56,9
-4.48126,8.87909,-1.93328,66,2
-6.14983,12.1904,1.19456,13,10
-4.39171,8.70542,-1.54432,62,3
-10.7077,21.2344,2.91999,39,11
-4.27087,8.47325,-1.16507,27,4
-4.20205,8.34396,-0.817347,8,5
-7.10852,14.1153,3.07202,12,13
-5.38099,10.6896,-0.627194,35,6
-5.13493,10.2097,-0.199481,30,7
-0.276604,0.552364,-0.142619,13,1
-5.78875,11.5599,0.677541,68,9
-4.45794,8.90619,-1.93595,52,2
-4.34804,8.6942,-1.53963,28,3
-10.7436,21.4918,2.95021,40,11
-10.7411,21.4963,3.80605,4,12
-4.45033,8.9104,-0.871383,35,5
-6.93293,13.8871,3.01707,19,13
-5.25982,10.5403,-0.617355,100,6
-6.1897,12.4092,3.2015,27,14
-4.86274,9.74887,-0.190161,47,7
-5.93738,11.9085,3.56549,25,15
-0.279971,0.563751,-0.145318,12,1
-5.81408,11.7124,0.685287,70,9
-4.34829,8.76342,-1.9016,21,2
-5.88346,11.8626,1.15847,75,10
-4.34727,8.7652,-1.54964,40,3
-10.7198,21.6234,2.96338,8,11
-18.5728,37.4967,6.6275,14,12
-4.42274,8.93302,-0.87208,17,5
-7.07413,14.2883,3.09912,20,13
-5.13182,10.3698,-0.606364,33,6
-6.06988,12.2707,3.16056,63,14
-5.08482,10.2838,-0.200249,100,7
-5.89063,11.9188,3.56239,45,15
-5.15789,10.473,0.203774,70,8
-0.271116,0.550738,-0.141719,13,1
-4.25593,8.64919,-1.87374,45,2
-5.73505,11.6603,1.13686,57,10
-4.28004,8.70587,-1.5365,85,3
-18.2051,37.0466,5.0683,17,11
-17.9751,36.6109,6.45981,6,12
-4.12966,8.4111,-0.819787,16,5
-6.53551,13.3171,2.88351,10,13
-4.30482,8.77559,-0.512264,63,6
-6.03989,12.318,3.16731,60,14
-0.254333,0.520768,-0.155291,12,0
-5.15727,10.5646,0.205205,68,8
-0.255519,0.523659,-0.134521,14,1
-4.24981,8.7134,-1.88443,45,2
-5.69345,11.6785,1.13669,33,10
-4.28078,8.78468,-1.54776,60,3
-18.1017,37.1634,5.07561,17,11
-10.378,21.3252,3.7563,6,12
-4.94489,10.17,-0.592652,94,6
-6.50368,13.3819,3.435,67,14
-5.02688,10.3479,-0.200807,26,7
-5.44106,11.2054,3.33773,25,15
-4.64482,9.59972,0.186147,13,8
-0.274052,0.566652,-0.145318,12,1
-5.64968,11.6817,0.680053,66,9
-4.23304,8.75647,-1.89054,52,2
-5.71505,11.8274,1.14924,27,10
-4.23978,8.77822,-1.54401,77,3
-17.637,36.5328,4.98104,16,11
-4.0436,8.37951,-1.1424,67,4
-17.6852,36.6488,6.4451,20,12
-4.04228,8.38051,-0.814035,47,5
-6.48246,13.4455,2.90144,112,13
-6.08905,12.6408,3.2393,22,14
-5.50021,11.4184,-0.221227,29,7
-0.250691,0.522531,-0.155291,12,0
-4.62507,9.64031,0.186636,13,8
-0.265431,0.5535,-0.141719,13,1
-5.6624,11.813,0.686543,68,9
-4.17531,8.71453,-1.87832,49,2
-5.67632,11.8527,1.14976,20,10
-4.26696,8.90982,-1.56466,58,3
-10.2236,21.3573,2.90732,31,11
-4.02007,8.40182,-1.14362,63,4
-4.27337,8.93923,-0.866851,15,5
-6.4463,13.4846,2.90526,72,13
-4.27451,8.9456,-0.519591,21,6
-6.24111,13.0672,3.34322,58,14
-5.37934,11.2679,-0.217946,27,7
-6.65508,13.9464,4.14059,13,15
-0.270189,0.568504,-0.145318,12,1
-5.59541,11.7786,0.683403,21,9
-4.15986,8.7567,-1.88443,49,2
-4.32223,9.10669,-1.59657,52,3
-6.50305,13.7077,1.86289,52,11
-3.96775,8.36738,-1.13704,67,4
-6.43092,13.5679,2.37812,74,12
-6.64043,14.0163,3.01478,18,13
-6.18045,13.0572,3.33512,31,14
-4.43002,9.36332,-0.180807,23,7
-5.35842,11.3307,3.35844,22,15
-0.247129,0.524225,-0.155291,12,0
-4.95146,10.5081,0.202762,28,8
-0.268203,0.569444,-0.145318,12,1
-5.62403,11.9462,0.691986,32,9
-4.11924,8.74986,-1.87985,52,2
-5.62944,11.9632,1.15673,60,10
-4.23829,9.01089,-1.57717,58,3
-6.43996,13.698,1.85851,100,11
-3.95963,8.42609,-1.14313,88,4
-6.38436,13.5921,2.37843,100,12
-4.28528,9.1232,-0.881842,19,5
-6.60815,14.0749,3.02241,20,13
-4.50213,9.59359,-0.555389,100,6
-5.54809,11.8278,3.01614,25,14
-4.47966,9.55435,-0.184193,33,7
-6.77069,14.4473,4.27517,5,15
-0.245298,0.525084,-0.155291,12,0
-4.54078,9.72445,0.187334,6,8
-0.261268,0.559781,-0.142619,13,1
-5.59536,11.9884,0.693347,27,9
-4.25882,9.12891,-1.95808,68,2
-5.58512,11.9773,1.15621,75,10
-4.12919,8.85912,-1.54808,62,3
-6.38959,13.715,1.85778,100,11
-4.02405,8.64141,-1.17043,39,4
-4.26601,9.16519,-0.884456,8,5
-7.60163,16.3389,3.50287,66,13
-5.47227,11.7728,2.99725,61,14
-4.34259,9.34249,-0.17983,48,7
-5.1843,11.1584,3.29684,36,15
-0.243463,0.525938,-0.155291,12,0
-0.256137,0.55357,-0.140819,13,1
-5.55767,12.0169,0.69387,7,9
-4.13302,8.94057,-1.91458,40,2
-5.64691,12.221,1.17782,97,10
-4.12548,8.92835,-1.55777,63,3
-6.35989,13.7704,1.86241,44,11
-4.23167,9.16656,-1.23966,64,4
-7.59109,16.4512,2.86963,55,12
-4.47932,9.71194,-0.935704,8,5
-7.55316,16.3765,3.50554,46,13
-5.47234,11.8759,3.01884,27,14
-4.39528,9.54285,-0.18339,35,7
-5.15906,11.2063,3.30564,5,15
-0.241718,0.526742,-0.155291,12,0
-4.40612,9.60609,0.184472,23,8
-0.259076,0.565089,-0.143519,12,1
-4.11234,8.97386,-1.91878,64,2
-5.66194,12.361,1.1895,22,10
-4.20777,9.19056,-1.60095,56,3
-4.25577,9.29968,-1.25574,63,4
-7.53813,16.4799,2.87026,64,12
-5.27965,11.553,2.46907,26,13
-4.52426,9.90468,-0.570671,100,6
-5.41674,11.8585,3.00985,70,14
-4.23156,9.26814,-0.17784,24,7
-5.07856,11.1284,3.27768,32,15
-0.23997,0.527541,-0.155291,12,0
-4.66145,10.2523,0.196584,42,8
-0.252363,0.555301,-0.140819,13,1
-4.98452,10.968,0.631381,7,9
-4.05577,8.92846,-1.90618,40,2
-4.1291,9.09834,-1.58249,57,3
-7.55513,16.6552,2.24556,71,11
-4.17898,9.2125,-1.24209,41,4
-4.39919,9.70696,-0.932392,22,5
-5.26722,11.6277,2.48128,49,13
-4.43949,9.805,-0.564077,100,6
-5.47464,12.0912,3.06428,25,14
-4.21564,9.31492,-0.178468,25,7
-5.04959,11.1628,3.28286,6,15
-0.238219,0.528334,-0.155291,12,0
-4.37436,9.7062,0.185833,45,8
-0.242517,0.538366,-0.13632,13,1
-5.9589,13.2344,0.760651,16,9
-4.02135,8.9354,-1.90466,28,2
-7.56925,16.8188,1.6136,43,10
-4.00896,8.91201,-1.54776,63,3
-5.3589,11.9185,1.60453,43,11
-4.82057,10.7262,-1.44391,30,4
-9.67117,21.5294,3.73816,9,12
-4.3816,9.75861,-0.935878,36,5
-5.21615,11.6227,2.47632,10,13
-4.40524,9.82044,-0.564077,100,6
-4.30418,9.59963,-0.183634,61,7
-4.34039,9.72582,0.185903,10,8
-0.238954,0.535692,-0.135421,13,1
-4.32764,9.70636,0.556959,22,9
-4.03013,9.04333,-1.9245,100,2
-5.84497,13.1157,1.25626,30,10
-4.19971,9.42828,-1.63474,70,3
-5.41772,12.1684,1.63549,33,11
-4.18478,9.40358,-1.26379,8,4
-15.9779,35.9207,6.22672,24,12
-4.21144,9.47239,-0.906943,67,5
-4.50543,10.1432,-0.581662,30,6
-5.45443,12.2797,3.10208,29,14
-4.20648,9.47461,-0.180947,45,7
-5.29948,11.9421,3.50079,25,15
-0.23434,0.530066,-0.155291,12,0
-0.249586,0.565086,-0.142619,13,1
-4.29454,9.72324,0.557064,56,9
-3.98268,9.02142,-1.91687,57,2
-5.51856,12.5063,1.19595,49,10
-4.1468,9.40204,-1.62754,58,3
-5.30422,12.032,1.61453,39,11
-15.8572,35.9871,6.2286,12,12
-5.49056,12.4664,-1.19177,20,5
-5.11545,11.6202,2.46792,39,13
-5.58184,12.6857,3.1997,54,14
-4.20559,9.56245,-0.182343,25,7
-5.28963,12.033,3.52201,9,15
-4.36464,9.96653,0.189917,70,8
-0.244585,0.55877,-0.140819,13,1
-4.81408,10.9981,0.629183,23,9
-4.06606,9.29358,-1.97182,45,2
-5.44992,12.4625,1.19002,77,10
-3.85372,8.81663,-1.52398,20,3
-5.29608,12.1222,1.62427,48,11
-4.10637,9.39911,-1.2594,27,4
-7.86493,18.0107,3.11273,24,12
-4.18831,9.59579,-0.916007,48,5
-5.08866,11.6641,2.47365,21,13
-4.21514,9.66647,-0.552668,94,6
-5.48133,12.5702,3.16596,29,14
-5.21652,11.9743,3.49975,11,15
-4.30768,9.92592,0.18887,92,8
-0.245833,0.566729,-0.142619,13,1
-4.76804,10.992,0.627927,63,9
-3.96259,9.1395,-1.93633,54,2
-5.40301,12.4677,1.1888,90,10
-5.21326,12.0414,1.61111,47,11
-4.07511,9.41703,-1.25989,20,4
-5.43435,12.558,2.16724,6,12
-4.21816,9.75226,-0.929603,18,5
-5.03437,11.6449,2.46602,40,13
-4.16802,9.64556,-0.550679,100,6
-5.79131,13.4086,3.37202,9,14
-4.9111,11.3761,3.32013,19,15
-4.27,9.92913,0.188661,77,8
-0.24857,0.578283,-0.145318,12,1
-4.30785,10.0268,0.571927,10,9
-3.80827,8.86825,-1.87603,71,2
-4.77401,11.1225,1.05894,58,10
-4.09357,9.53722,-1.64381,56,3
-5.22887,12.1881,1.62842,60,11
-4.5782,10.6766,-1.42636,15,4
-7.69624,17.9567,3.09427,16,12
-4.99109,11.6507,2.46373,31,13
-4.16195,9.71992,-0.554133,94,6
-12.5977,29.4353,7.39189,10,14
-4.93045,11.5258,-0.218818,33,7
-4.85388,11.3523,3.30823,11,15
-4.2502,9.97893,0.189324,68,8
-0.24655,0.579148,-0.145318,12,1
-3.71811,8.73811,-1.84589,83,2
-4.74333,11.1529,1.06034,100,10
-3.71636,8.74247,-1.50459,25,3
-5.1141,12.0364,1.60575,39,11
-4.12809,9.72045,-1.29669,12,4
-7.65821,18.0416,3.10429,13,12
-4.06282,9.57605,-0.91008,46,5
-5.14132,12.1181,2.55875,54,13
-4.88981,11.5309,-0.656398,32,6
-5.74173,13.5464,3.39676,18,14
-4.57582,10.8009,-0.204752,67,7
-4.80444,11.3461,3.3015,11,15
-4.2612,10.1024,0.191383,53,8
-0.236956,0.562048,-0.140819,13,1
-4.09659,9.72164,0.552877,51,9
-3.67997,8.73721,-1.84283,95,2
-4.68078,11.1188,1.05546,29,10
-4.06123,9.65185,-1.65852,65,3
-5.03972,11.9773,1.59551,68,11
-3.98101,9.46581,-1.26086,72,4
-6.34208,15.0872,2.59212,17,12
-4.02165,9.5718,-0.908337,48,5
-4.17809,9.95387,-0.565752,81,6
-5.68149,13.5422,3.39046,22,14
-4.61236,10.9938,-0.208102,100,7
-4.35126,10.4224,0.197142,57,8
-0.239397,0.573703,-0.143519,12,1
-4.07246,9.76425,0.554447,41,9
-3.64718,8.74456,-1.84169,59,2
-4.65114,11.1572,1.05755,58,10
-4.01688,9.64044,-1.65414,46,3
-3.92035,9.41803,-1.25257,67,4
-3.95976,9.52209,-0.902236,58,5
-5.895,14.1758,2.98425,7,13
-4.21845,10.1491,-0.57601,30,6
-5.65736,13.6177,3.40441,24,14
-4.309,10.3772,-0.19613,46,7
-4.68314,11.2838,3.27354,37,15
-0.237393,0.574535,-0.143519,12,1
-4.12832,9.99623,0.566799,144,9
-3.60087,8.72339,-1.83444,64,2
-4.58665,11.117,1.05214,49,10
-3.6705,8.90088,-1.52492,68,3
-4.65344,11.2845,1.49875,31,11
-4.09396,9.93269,-1.31911,11,4
-5.41906,13.1542,2.25328,41,12
-3.9265,9.53585,-0.902236,56,5
-5.18324,12.5942,2.64728,11,13
-5.54507,13.4801,-0.763896,16,6
-6.28768,15.2929,3.81742,10,14
-4.24994,10.3367,-0.195083,43,7
-4.65547,11.3287,3.28183,42,15
-0.245822,0.600568,-0.149817,12,1
-4.03616,9.86568,0.558634,33,9
-3.58013,8.75102,-1.83787,71,2
-4.48987,10.9802,1.03785,36,10
-3.9407,9.64196,-1.64976,47,3
-4.48087,10.9691,1.45488,27,11
-3.79312,9.29012,-1.2321,63,4
-5.38885,13.205,2.25891,51,12
-3.89878,9.55367,-0.902759,71,5
-7.03961,17.2587,3.62308,22,13
-4.42674,10.8582,-0.614529,81,6
-6.25652,15.3541,3.82777,31,14
-3.96899,9.74515,-0.183669,30,7
-4.60112,11.3029,3.26992,42,15
-3.98523,9.82921,0.185135,80,8
-0.230549,0.568914,-0.141719,13,1
-3.99195,9.85564,0.557273,34,9
-3.7353,9.22201,-1.93404,28,2
-4.46872,11.0383,1.04186,53,10
-3.9537,9.77102,-1.66947,57,3
-4.38227,10.8356,1.43513,37,11
-3.76588,9.31618,-1.23381,81,4
-5.28279,13.0753,2.23357,69,12
-3.91691,9.69469,-0.914787,50,5
-5.08857,12.601,2.64156,30,13
-4.32004,10.7032,-0.604899,100,6
-6.19705,15.3614,3.82417,21,14
-4.09872,10.1651,-0.191313,45,7
-4.53492,11.2526,3.25077,50,15
-3.96506,9.87832,0.185798,55,8
-0.224208,0.558863,-0.13902,13,1
-3.95255,9.85215,0.556331,38,9
-3.51822,8.77397,-1.83749,28,2
-4.32713,10.7967,1.01763,53,10
-4.46616,11.1549,1.47535,45,11
-3.81741,9.53937,-1.26159,61,4
-5.2761,13.1845,2.24921,40,12
-3.84087,9.60286,-0.904851,75,5
-5.57802,13.9531,2.9209,21,13
-3.87506,9.69815,-0.547329,45,6
-6.10942,15.2979,3.80302,27,14
-3.93297,9.84808,-0.1851,100,7
-4.5119,11.3034,3.26112,19,15
-4.24476,10.6774,0.200563,77,8
-0.218036,0.548738,-0.13632,13,1
-3.92035,9.87145,0.556645,60,9
-3.59985,9.06904,-1.89664,57,2
-3.5724,9.00448,-1.53431,1,3
-6.66458,16.8071,2.21997,38,11
-3.85158,9.71807,-1.28353,56,4
-5.21258,13.1588,2.24171,14,12
-3.87994,9.7996,-0.922108,43,5
-5.40813,13.6594,2.85565,11,13
-3.84435,9.71466,-0.547539,56,6
-5.95617,15.0589,3.73869,20,14
-4.01767,10.163,-0.190755,100,7
-4.4852,11.3515,3.27044,12,15
-0.221826,0.564004,-0.13992,13,1
-3.88221,9.87578,0.556122,40,9
-3.36289,8.55471,-1.78674,26,2
-3.8276,9.74686,-1.65852,33,3
-6.64214,16.9226,2.23216,9,11
-3.85896,9.83679,-1.29742,57,4
-3.80451,9.70298,-0.911823,75,5
-4.24674,10.842,-0.610237,37,6
-5.84602,14.9326,3.70224,42,14
-5.03941,12.8855,3.70732,12,15
-3.7666,9.6708,0.181156,36,8
-0.22127,0.568406,-0.140819,13,1
-3.92303,10.0829,0.567008,40,9
-3.50671,9.01283,-1.87985,61,2
-3.73988,9.62207,-1.63505,60,3
-4.29787,11.0634,1.45731,13,11
-3.72544,9.59483,-1.26379,70,4
-3.80161,9.79607,-0.919319,52,5
-5.32684,13.7334,2.86328,28,13
-3.77066,9.72637,-0.546701,87,6
-5.80653,14.9856,3.71034,47,14
-3.8123,9.84397,-0.184263,36,7
-5.01532,12.9571,3.72285,10,15
-3.75655,9.74546,0.182308,40,8
-0.210877,0.547354,-0.135421,13,1
-4.03247,10.4667,0.587838,42,9
-3.57117,9.27418,-1.93175,61,2
-4.43835,11.5322,1.08108,40,10
-3.7077,9.63875,-1.63568,58,3
-5.37621,13.9836,1.8395,8,11
-3.69407,9.61334,-1.26452,72,4
-6.37984,16.6027,2.81707,37,12
-3.80954,9.91901,-0.929603,64,5
-5.29716,13.7996,2.8732,31,13
-4.04933,10.5544,-0.592443,40,6
-4.86807,12.695,3.13897,21,14
-3.79396,9.8939,-0.184961,39,7
-4.97647,12.9845,3.72596,14,15
-3.78625,9.9204,0.185345,10,8
-0.214617,0.562616,-0.13902,13,1
-3.48075,9.13432,-1.90008,38,2
-4.48103,11.7655,1.10147,23,10
-4.37668,11.4915,-1.94761,47,3
-4.56921,12.0033,1.57699,21,11
-3.68123,9.67563,-1.2711,46,4
-6.32465,16.6323,2.81832,41,12
-3.80108,10.0012,-0.936053,38,5
-5.28206,13.8978,2.88999,29,13
-5.04554,13.2825,-0.744636,13,6
-4.77891,12.5872,3.10837,46,14
-3.83743,10.1127,-0.1888,44,7
-6.48554,17.1003,4.90048,13,15
-3.76785,9.97658,0.186147,5,8
-0.218158,0.577947,-0.142619,26,1
-3.68152,9.75832,0.546597,8,9
-3.52875,9.35338,-1.9432,57,2
-3.64757,9.67855,-1.63818,31,3
-4.52309,12.008,1.57553,18,11
-3.65792,9.71629,-1.27475,8,4
-6.27003,16.6635,2.81989,35,12
-3.70335,9.84215,-0.920016,37,5
-5.22937,13.9051,2.8877,21,13
-4.75413,12.6549,3.12097,42,14
-3.78102,10.0699,-0.187753,44,7
-6.4231,17.1156,4.89841,18,15
-3.7638,10.0721,0.187683,37,8
-0.217503,0.582356,-0.143519,12,1
-3.61074,9.6728,-2.00693,28,2
-4.19121,11.2338,1.04901,47,10
-4.23286,11.3515,-1.91883,38,3
-4.48669,12.0386,1.57748,100,11
-3.62745,9.7383,-1.27597,4,4
-6.22768,16.7278,2.82708,37,12
-3.58624,9.63282,-0.899273,46,5
-5.19586,13.9638,2.8961,41,13
-3.62923,9.75871,-0.545655,100,6
-4.71332,12.6805,3.12322,40,14
-3.74097,10.0699,-0.187509,47,7
-6.53344,17.5961,5.02937,17,15
-3.69533,9.99514,0.186008,88,8
-0.214793,0.581284,-0.143069,25,1
-3.56863,9.65763,0.539584,20,9
-3.44296,9.32254,-1.93175,61,2
-4.16716,11.2895,1.05284,24,10
-3.57171,9.68154,-1.63443,68,3
-4.40825,11.9555,1.56456,97,11
-3.79593,10.3004,-1.34787,20,4
-6.06767,16.4648,2.77922,27,12
-3.48374,9.45832,-0.881842,66,5
-5.16269,14.0242,2.90488,25,13
-3.59032,9.7582,-0.544922,42,6
-4.68854,12.7499,3.13627,25,14
-3.69514,10.0485,-0.18688,30,7
-5.64935,15.371,4.38802,13,15
-3.65255,9.98105,0.185519,71,8
-0.209517,0.572842,-0.140819,26,1
-3.52873,9.65315,0.538642,35,9
-3.39558,9.29393,-1.92335,23,2
-3.53078,9.66921,-1.63036,98,3
-4.34884,11.916,1.55749,72,11
-3.72434,10.2103,-1.33447,57,4
-5.96753,16.369,2.7595,35,12
-3.46229,9.50225,-0.884805,33,5
-5.0812,13.9453,2.88503,25,13
-5.40472,14.8493,3.64826,9,14
-3.67234,10.0952,-0.187509,24,7
-5.61876,15.4542,4.40614,5,15
-3.60203,9.95049,0.184716,70,8
-0.208842,0.577235,-0.141719,13,1
-3.47088,9.59342,0.534664,33,9
-3.41481,9.44361,-1.95198,28,2
-3.49566,9.67776,-1.62973,47,3
-4.33351,12.0039,1.567,87,11
-3.69002,10.227,-1.33496,46,4
-3.98438,11.0428,1.85938,16,12
-3.43685,9.53055,-0.886374,8,5
-5.05047,14.0129,2.89534,24,13
-3.5096,9.74295,-0.542724,94,6
-5.59709,15.5465,3.81472,62,14
-3.78313,10.508,-0.194943,75,7
-5.65644,15.72,4.47653,22,15
-0.195461,0.5456,-0.155291,12,0
-3.7329,10.4198,0.193198,66,8
-0.206927,0.577925,-0.141719,13,1
-3.47909,9.72207,0.541154,34,9
-3.97758,11.1273,1.03384,48,10
-3.48549,9.75068,-1.64006,35,3
-4.33175,12.1248,1.58089,43,11
-3.70081,10.3644,-1.35129,59,4
-3.92522,10.999,1.84968,12,12
-3.69137,10.3494,-0.961328,62,5
-4.96242,13.913,2.87129,45,13
-3.50611,9.83543,-0.547225,100,6
-5.53504,15.5356,3.80752,50,14
-3.58141,10.0578,-0.186357,21,7
-5.51538,15.4975,4.40769,19,15
-3.71386,10.4818,0.194106,82,8
-0.20751,0.585991,-0.143519,12,1
-4.2022,11.8667,0.659747,25,9
-3.60133,10.1755,-2.09814,59,2
-4.13799,11.6983,1.08561,45,10
-3.62723,10.2601,-1.7236,72,3
-3.87606,10.97,1.42855,23,11
-3.66725,10.3848,-1.35226,41,4
-5.19506,14.7112,2.47104,45,12
-3.43356,9.72845,-0.902585,35,5
-4.90403,13.9025,2.86557,38,13
-3.51691,9.9757,-0.554343,100,6
-5.47107,15.5273,3.80077,47,14
-3.66433,10.3996,-0.192465,35,7
-4.5348,12.8772,3.65815,12,15
-0.191742,0.546918,-0.155291,12,0
-3.53486,10.0827,0.186496,26,8
-0.201055,0.573802,-0.140369,26,1
-4.17871,11.9459,1.10723,47,10
-3.73081,10.6655,-1.78961,66,3
-3.75646,10.7448,1.3976,45,11
-3.4357,9.83282,-1.2789,52,4
-5.1541,14.7591,2.47605,13,12
-3.59327,10.2953,-0.954007,22,5
-4.83332,13.8482,2.85107,15,13
-4.14361,11.8788,-0.659328,16,6
-5.3586,15.3705,3.75803,30,14
-3.63327,10.4275,-0.192744,27,7
-5.47521,15.7226,4.46101,12,15
-0.189928,0.547551,-0.155291,12,0
-0.200965,0.580025,-0.141719,13,1
-4.0075,11.573,0.641848,7,9
-3.16838,9.14972,-1.88214,4,2
-4.09151,11.8222,1.0945,13,10
-3.68258,10.6467,-1.78429,56,3
-3.90313,11.2907,1.46682,38,11
-3.61075,10.4508,-1.35762,24,4
-4.28744,12.4164,-1.14924,26,5
-5.17755,15.0027,3.085,36,13
-3.49451,10.1316,-0.56167,16,6
-5.29793,15.3689,3.75308,52,14
-3.60792,10.4722,-0.193338,32,7
-4.38315,12.7296,3.60742,41,15
-0.171721,0.500699,-0.141833,14,0
-0.198939,0.580723,-0.141719,13,1
-3.57013,10.4275,-2.1424,38,2
-4.05537,11.8515,1.0959,54,10
-3.53673,10.3417,-1.7311,38,3
-3.79628,11.107,1.44123,30,11
-3.58964,10.5084,-1.36347,68,4
-4.99988,14.6451,2.45102,46,12
-3.59005,10.5156,-0.972135,17,5
-5.12959,15.0337,3.08767,22,13
-5.3028,15.5502,-0.861031,13,6
-5.21533,15.3024,3.73239,45,14
-4.34118,12.7521,3.60949,18,15
-0.186101,0.548864,-0.155291,12,0
-0.196911,0.581414,-0.141719,13,1
-3.83376,11.3264,0.626671,91,9
-5.10063,15.0778,1.39257,40,10
-3.5082,10.3765,-1.73486,45,3
-3.58718,10.6162,1.37591,39,11
-3.57644,10.5905,-1.37249,48,4
-4.998,14.8085,2.47542,47,12
-4.01763,11.9106,-1.09973,19,5
-5.18616,15.3926,3.74993,32,14
-4.2954,12.7635,3.60846,8,15
-0.16077,0.479933,-0.135621,15,0
-3.45344,10.3093,0.189777,38,8
-0.199829,0.596881,-0.145318,12,1
-3.82525,11.4325,0.6318,54,9
-3.01039,9.00233,-1.84512,26,2
-3.65027,10.9222,1.00752,59,10
-3.47703,10.4099,-1.7383,35,3
-3.65764,10.9506,1.41758,20,11
-3.50613,10.5031,-1.35957,61,4
-4.93878,14.8034,2.47166,27,12
-3.51912,10.5543,-0.973355,72,5
-5.00512,15.0197,3.07737,8,13
-3.40097,10.2118,-0.564077,57,6
-5.15124,15.4762,3.76568,30,14
-3.47659,10.4449,-0.192151,20,7
-4.84232,14.5565,4.11056,13,15
-0.170024,0.513502,-0.144939,14,0
-3.52432,10.6503,0.195816,58,8
-0.200088,0.60501,-0.147118,12,1
-3.77079,11.4085,0.629706,84,9
-2.9999,9.07616,-1.8581,26,2
-3.54963,10.7457,0.990089,38,10
-3.52419,10.6812,1.38102,35,11
-3.45083,10.465,-1.35299,56,4
-4.33977,13.1685,2.19603,6,12
-3.36689,10.2164,-0.941108,48,5
-3.35531,10.1932,-0.562402,70,6
-5.07282,15.42,3.74768,52,14
-3.39832,10.336,-0.189917,42,7
-4.7829,14.5558,4.10539,13,15
-0.164625,0.503077,-0.141833,14,0
-3.48712,10.6626,0.195816,80,8
-0.188288,0.576068,-0.13992,13,1
-3.71544,11.3741,0.62709,71,9
-3.3433,10.2409,0.942502,21,10
-3.58473,10.9935,1.41978,16,11
-3.45303,10.5959,-1.36835,64,4
-3.3127,10.1713,-0.935878,50,5
-4.91006,15.0937,-0.831828,55,6
-4.97318,15.2968,3.71349,40,14
-3.34491,10.2946,-0.18894,100,7
-0.162868,0.503648,-0.141833,14,0
-3.4136,10.5624,0.193757,73,8
-0.185078,0.573013,-0.13902,13,1
-3.63767,11.2692,0.6206,85,9
-2.90088,8.98666,-1.83558,23,2
-3.32099,10.2943,0.946337,4,10
-3.38844,10.5096,-1.74894,66,3
-3.65287,11.3366,1.46243,38,11
-3.17141,9.84825,-1.27037,46,4
-4.24229,13.1815,2.19321,34,12
-4.89204,15.2096,3.10561,11,13
-4.8494,15.086,-0.830467,55,6
-4.90366,15.264,3.70134,38,14
-4.99577,15.5693,4.38129,20,15
-0.152877,0.478451,-0.134586,15,0
-3.54947,11.1152,0.20367,60,8
-0.189002,0.59222,-0.143519,12,1
-2.87188,9.00421,-1.83711,2,2
-3.33888,10.4747,0.961851,8,10
-3.37212,10.5854,-1.75958,68,3
-3.34469,10.5056,1.35372,6,11
-3.1328,9.84602,-1.26866,26,4
-3.62757,11.4079,1.89599,30,12
-3.70953,11.6656,-1.07097,11,5
-6.20831,19.5356,3.98447,20,13
-4.82089,15.179,-0.834654,61,6
-4.84917,15.2773,3.70044,21,14
-3.34733,10.5521,-0.193233,100,7
-4.95307,15.6235,4.39164,18,15
-0.152538,0.482613,-0.135621,15,0
-0.18714,0.592811,-0.143519,12,1
-4.86625,15.4244,0.847633,8,9
-3.30845,10.4867,-2.13744,30,2
-3.29907,10.4697,-1.73861,61,3
-3.26099,10.3551,1.33301,71,11
-3.11139,9.88611,-1.27256,49,4
-3.57275,11.3589,1.88597,28,12
-3.98013,12.6542,-1.16057,2,5
-4.85642,15.4496,3.14797,5,13
-4.68818,14.9235,-0.81979,29,6
-5.0469,16.0752,3.88985,39,14
-4.61684,14.7144,-0.269186,73,7
-4.87622,15.5505,4.3668,26,15
-0.150852,0.483142,-0.135621,15,0
-0.18623,0.597181,-0.144419,25,1
-3.50633,11.2575,1.03158,38,10
-3.25253,10.4491,-1.73329,77,3
-3.17293,10.1997,1.31156,30,11
-3.44931,11.0949,-1.4266,61,4
-3.61907,11.6481,-1.06713,2,5
-4.96189,15.9996,3.86736,23,14
-4.6211,14.9099,-0.272467,32,7
-4.82876,15.5896,4.37301,15,15
-0.150303,0.487358,-0.136656,14,0
-3.12048,10.1244,0.184926,77,8
-0.182997,0.594103,-0.143519,12,1
-3.38537,10.9906,0.602701,41,9
-2.98621,9.7008,-1.97297,38,2
-3.52326,11.4525,1.04831,60,10
-3.25144,10.5755,-1.75238,70,3
-3.18512,10.3663,1.33154,46,11
-3.33132,10.8488,-1.39345,82,4
-3.92092,12.7769,-1.16928,2,5
-4.65001,15.1621,3.08271,27,13
-4.60085,15.0112,-0.822826,39,6
-4.6041,15.0312,3.62936,9,14
-4.11365,13.43,-0.245171,96,7
-5.05355,16.5088,4.62613,16,15
-0.168865,0.554409,-0.155291,12,0
-2.97211,9.75785,0.178049,40,8
-0.176486,0.579792,-0.13992,13,1
-3.1726,10.4292,0.571299,78,9
-2.94034,9.67172,-1.96495,38,2
-3.46357,11.3999,1.04238,23,10
-3.2221,10.6052,-1.75551,61,3
-3.13861,10.3369,1.32643,75,11
-3.32068,10.9434,-1.40418,60,4
-3.08928,10.1872,1.68605,7,12
-3.80117,12.5426,-1.14662,26,5
-4.74148,15.6453,3.17773,22,13
-4.5522,15.0302,-0.823035,45,6
-4.58528,15.1489,3.6541,64,14
-3.10969,10.2803,-0.187474,42,7
-4.98415,16.4875,4.61526,20,15
-0.167026,0.554966,-0.155291,12,0
-2.95991,9.84094,0.179376,51,8
-0.176705,0.58787,-0.141719,13,1
-3.98026,13.2501,0.725062,21,9
-2.89695,9.64381,-1.95732,45,2
-3.34211,11.1328,1.01693,48,10
-3.25715,10.8566,-1.79524,57,3
-3.1105,10.3744,1.32984,50,11
-3.27791,10.9397,-1.40223,37,4
-4.8993,16.3613,2.70507,2,12
-3.4715,11.5932,-1.05877,9,5
-4.68403,15.6524,3.17583,7,13
-3.72429,12.4532,-0.681205,35,6
-4.53851,15.1854,3.65905,57,14
-3.1127,10.4214,-0.189847,100,7
-4.92491,16.4992,4.61371,22,15
-0.165088,0.555545,-0.155291,12,0
-2.91302,9.80904,0.178608,48,8
-0.17687,0.595956,-0.143519,12,1
-3.32234,11.2017,0.612331,16,9
-2.88505,9.72727,-1.9722,54,2
-3.24774,10.9572,0.999851,51,10
-3.08907,10.4285,-1.72266,32,3
-3.07652,10.3928,1.33081,46,11
-3.25603,11.0063,-1.4093,55,4
-3.09705,10.4756,1.73017,7,12
-2.92376,9.88946,-0.902236,31,5
-5.86042,19.8353,4.02035,10,13
-4.89624,16.5825,-0.906145,70,6
-4.66416,15.8067,3.80482,27,14
-3.44225,11.6732,-0.212431,33,7
-4.86401,16.5052,4.6106,24,15
-0.163147,0.556118,-0.155291,12,0
-2.88889,9.85368,0.179236,68,8
-0.17424,0.5947,-0.143069,12,1
-3.30314,11.2739,0.61568,6,9
-2.80914,9.59409,-1.9432,49,2
-3.1205,10.6644,0.972135,78,10
-3.06374,10.4772,-1.72891,67,3
-3.04857,10.4321,1.33447,9,11
-3.11261,10.6512,-1.3625,75,4
-4.7413,16.235,2.67878,12,12
-4.25848,14.5912,-1.32982,13,5
-4.54881,15.5961,3.15789,5,13
-4.57355,15.6911,3.77333,35,14
-3.40352,11.6845,-0.212431,41,7
-4.81195,16.5305,4.61319,16,15
-0.161302,0.556656,-0.155291,12,0
-0.169017,0.584043,-0.140369,13,1
-4.78812,16.5455,0.902691,10,9
-2.77622,9.59958,-1.94244,61,2
-3.07019,10.623,0.967429,65,10
-3.01857,10.4512,-1.72297,36,3
-3.10424,10.7549,1.37444,19,11
-2.96992,10.2895,-1.31497,24,4
-3.0505,10.5756,1.74331,15,12
-3.41132,11.8498,-0.646244,45,6
-4.25464,14.7792,3.55063,45,14
-4.75391,16.5353,4.61009,9,15
-2.84437,9.94569,0.180563,55,8
-0.16708,0.5846,-0.140369,13,1
-2.73629,9.58042,-1.93671,71,2
-3.05189,10.6925,0.972832,14,10
-2.99527,10.5011,-1.72954,57,3
-3.05441,10.7155,1.36811,29,11
-2.99653,10.5194,-1.343,53,4
-3.11579,10.9453,1.80244,10,12
-2.95442,10.3785,-0.944071,30,5
-3.36981,11.8455,2.39389,38,13
-4.14919,14.5948,-0.795193,45,6
-4.2142,14.8334,3.56008,38,14
-2.87934,10.1416,-0.184018,22,7
-5.08953,17.9382,4.99624,17,15
-2.80909,9.95363,0.180528,60,8
-0.168212,0.596433,-0.143069,12,1
-3.06443,10.8729,0.592024,43,9
-2.80721,9.96028,-2.01151,35,2
-3.05669,10.8527,0.986429,55,10
-3.0487,10.8388,1.38249,35,11
-2.82496,10.0501,-1.28182,17,4
-2.91764,10.3868,-0.943897,80,5
-2.97719,10.6059,2.14126,14,13
-2.84014,10.1381,-0.183774,100,7
-5.04615,18.0247,5.0154,19,15
-2.78774,10.0115,0.1814,13,8
-0.168218,0.604526,-0.144868,12,1
-3.03074,10.8989,0.592862,40,9
-2.6504,9.53119,-1.92297,68,2
-3.03532,10.9228,0.991832,46,10
-2.85957,10.3043,1.31302,27,11
-2.80843,10.1269,-1.29035,59,4
-3.02136,10.9021,1.7918,28,12
-2.7147,9.80218,-0.88986,15,5
-2.937,10.6049,2.13897,18,13
-3.22625,11.6572,-0.633893,35,6
-6.40139,23.1454,5.54414,25,14
-5.00171,18.1092,5.03403,8,15
-3.11137,11.3266,0.205031,38,8
-0.171266,0.623902,-0.149367,12,1
-2.97894,10.8594,0.59014,78,9
-2.62635,9.5806,-1.93099,45,2
-2.98158,10.8839,0.9873,27,10
-2.70596,9.88456,-1.62316,62,3
-3.13597,11.4553,1.45829,37,11
-2.86787,10.4832,-1.33447,23,4
-4.03866,14.773,2.42567,5,12
-2.7083,9.91346,-0.899099,1,5
-4.21661,15.4451,3.11209,23,13
-3.47263,12.7287,-0.691463,74,6
-6.32831,23.212,5.55449,25,14
-5.06695,18.5981,5.16499,17,15
-0.151563,0.559387,-0.155291,12,0
-0.160834,0.594428,-0.142169,13,1
-2.92869,10.8317,0.588047,45,9
-2.58828,9.57266,-1.92755,64,2
-2.90304,10.7442,0.973704,70,10
-2.66732,9.87869,-1.62066,82,3
-2.88091,10.6771,1.35787,56,11
-2.74003,10.162,-1.2923,63,4
-2.67834,9.94016,-0.900667,18,5
-4.15349,15.4256,3.10523,40,13
-3.19465,11.8728,-0.64436,78,6
-5.40625,20.1062,4.80675,4,14
-3.17053,11.7996,-0.213268,48,7
-4.98221,18.555,5.14791,16,15
-3.41457,12.788,0.231035,12,8
-0.161773,0.606283,-0.144868,12,1
-2.79412,10.479,0.568369,28,9
-2.57407,9.65372,-1.94205,61,2
-2.82447,10.6003,0.959759,25,10
-2.63791,9.90703,-1.62379,56,3
-2.82014,10.5989,1.34666,68,11
-2.7331,10.279,-1.30595,24,4
-2.9244,11.0062,1.80369,47,12
-2.62879,9.89361,-0.895612,35,5
-3.17359,11.9524,2.40381,15,13
-2.86481,10.7971,-0.58543,74,6
-8.39062,31.6454,7.55836,11,14
-3.26299,12.3151,-0.222379,40,7
-4.90852,18.5387,5.13859,9,15
-2.76405,10.4986,0.189498,13,8
-0.159656,0.606844,-0.144868,12,1
-2.49155,9.47029,0.513206,73,9
-2.55783,9.7291,-1.95541,64,2
-2.65197,10.1015,-1.65414,67,3
-2.77557,10.5798,1.343,50,11
-2.67002,10.1848,-1.29279,50,4
-2.80573,10.7024,1.75238,26,12
-3.09915,11.8301,-1.06992,35,5
-4.11132,15.7049,3.1556,12,13
-2.83064,10.8205,-0.586163,84,6
-5.31406,20.3282,4.85084,4,14
-3.53368,13.5176,-0.24388,100,7
-4.77084,18.2633,5.05784,6,15
-2.73174,10.5174,0.189673,66,8
-0.157642,0.60737,-0.144868,12,1
-2.43892,9.40353,0.509124,45,9
-2.50563,9.66765,-1.94129,61,2
-2.63751,10.1838,0.920365,52,10
-2.49662,9.63982,-1.57717,51,3
-2.78623,10.7658,1.36542,39,11
-2.65562,10.2685,-1.3023,35,4
-2.76045,10.6816,1.74737,46,12
-2.59453,10.0468,-0.907814,13,5
-2.79973,10.8492,-0.587209,40,6
-5.13177,19.9004,4.74467,4,14
-3.28687,12.7553,-0.229918,45,7
-4.73212,18.3771,5.08476,14,15
-2.56457,10.0174,0.180493,100,8
-0.161317,0.630572,-0.150267,12,1
-2.41911,9.45607,0.511532,82,9
-2.47842,9.69493,-1.94511,61,2
-2.53222,9.9126,0.895089,60,10
-2.53624,9.93558,-1.6241,93,3
-2.782,10.9062,1.382,13,11
-2.49251,9.77138,-1.23819,85,4
-2.77673,10.8935,1.78054,21,12
-3.00579,11.8094,2.3687,30,13
-3.34819,13.1642,-0.711874,26,6
-5.12388,20.1458,4.79911,4,14
-3.16526,12.4541,-0.224298,18,7
-4.64642,18.2953,5.05784,8,15
-2.56168,10.146,0.182657,42,8
-0.153504,0.608429,-0.144868,12,1
-2.41559,9.57443,0.517498,105,9
-2.45106,9.72213,-1.94892,26,2
-2.51442,9.98083,0.900493,50,10
-2.3996,9.53208,-1.55684,56,3
-2.71482,10.7922,1.3664,16,11
-2.56228,10.1858,-1.28962,46,4
-2.76756,11.01,1.79806,43,12
-2.539,10.1082,-0.911823,18,5
-3.92681,15.6448,3.13537,15,13
-2.81231,11.2128,-0.605841,6,6
-4.96364,19.7903,4.71047,11,14
-2.63974,10.5326,-0.189533,35,7
-4.58479,18.3069,5.05681,11,15
-2.48165,9.96817,0.179306,85,8
-0.155249,0.624063,-0.148468,12,1
-2.37348,9.54791,0.515614,47,9
-2.44674,9.84262,-1.97144,64,2
-2.51974,10.1438,0.914438,64,10
-2.35941,9.50547,-1.5512,60,3
-2.67615,10.7896,1.36494,6,11
-2.51477,10.1465,-1.28353,42,4
-2.61229,10.5479,1.72109,63,12
-2.34288,9.46715,-0.853255,75,5
-4.98322,20.1363,4.03218,8,13
-4.53832,18.366,4.36765,3,14
-2.58714,10.4777,-0.188381,26,7
-4.52873,18.3547,5.06561,17,15
-2.44779,9.98065,0.179376,41,8
-0.154926,0.632172,-0.150267,12,1
-2.58147,10.5416,0.568787,78,9
-2.39992,9.80766,-1.96266,54,2
-2.41014,9.85686,0.887768,24,10
-2.36394,9.67525,-1.57749,18,3
-2.45802,10.0603,1.27158,69,11
-2.42566,9.93538,-1.25574,100,4
-2.86011,11.7237,1.91132,46,12
-2.42874,9.96307,-0.897181,22,5
-4.90428,20.1334,4.02798,12,13
-2.46897,10.1435,-0.54712,100,6
-4.48019,18.4203,4.37665,12,14
-2.53732,10.4322,-0.187404,33,7
-4.50158,18.5224,5.10754,9,15
-0.136082,0.563353,-0.155291,12,0
-2.36943,9.81655,0.176269,31,8
-0.15809,0.655469,-0.155666,11,1
-2.72682,11.3059,0.609505,23,9
-2.46503,10.2282,-2.04509,52,2
-2.37851,9.87684,0.888814,70,10
-2.34587,9.74874,-1.58812,45,3
-2.43134,10.1117,1.27695,30,11
-2.3441,9.74884,-1.23112,53,4
-2.83763,11.8105,1.92383,74,12
-2.84045,11.8313,-1.06452,28,5
-4.83032,20.1352,4.02493,22,13
-4.01796,16.7618,3.97938,2,14
-2.51207,10.4877,-0.188242,25,7
-4.48725,18.7484,5.16551,13,15
-2.32947,9.79323,0.175711,88,8
-0.146903,0.618071,-0.146668,12,1
-2.4002,10.0984,0.54398,123,9
-2.34536,9.87534,-1.97297,28,2
-2.35173,9.90987,0.89108,80,10
-2.30258,9.71033,-1.58061,53,3
-2.41107,10.1757,1.28402,57,11
-2.33692,9.8628,-1.24453,52,4
-2.70015,11.4046,1.85625,19,12
-4.72693,19.9963,3.99401,16,13
-2.37784,10.0668,-0.542096,94,6
-3.95653,16.7503,3.97354,44,14
-2.51218,10.6439,-0.190894,32,7
-4.40822,18.6918,5.14584,6,15
-0.132342,0.564243,-0.155291,12,0
-2.33941,9.98197,0.178957,48,8
-0.146186,0.624247,-0.148018,12,1
-2.37945,10.1608,0.546911,42,9
-2.40368,10.2804,0.923677,32,10
-2.28161,9.76601,-1.58844,26,3
-2.40078,10.2842,1.29669,15,11
-2.36829,10.145,-1.27914,45,4
-3.71234,15.9151,2.58837,7,12
-2.4865,10.6682,-0.958364,10,5
-4.62587,19.8627,3.96425,20,13
-2.34308,10.0688,-0.541782,80,6
-3.87578,16.6552,3.94789,33,14
-2.44744,10.5256,-0.188626,26,7
-4.27976,18.4203,5.06716,19,15
-0.13047,0.564679,-0.155291,12,0
-2.31889,10.0442,0.179934,58,8
-0.145867,0.632324,-0.149817,12,1
-2.35203,10.1959,0.548376,40,9
-2.27496,9.86963,-1.96877,40,2
-2.27433,9.87477,0.886548,40,10
-2.25319,9.79084,-1.59125,30,3
-2.3849,10.3714,1.30668,12,11
-2.24388,9.75814,-1.22942,85,4
-2.59393,11.2894,1.83466,23,12
-2.44531,10.6512,-0.956098,22,5
-5.33123,23.2401,4.63475,5,13
-3.29004,14.3536,-0.771746,26,6
-2.44957,10.6954,-0.191523,31,7
-4.23114,18.489,5.08217,1,15
-0.128301,0.565176,-0.155291,12,0
-2.28208,10.0609,0.180074,17,8
-0.134824,0.594869,-0.140819,13,1
-2.30006,10.1483,0.545341,38,9
-2.23054,9.84957,-1.96304,38,2
-2.23287,9.86788,0.885154,54,10
-2.22125,9.82447,-1.59532,62,3
-2.34769,10.3921,1.30815,81,11
-2.199,9.7419,-1.22625,59,4
-2.59144,11.4804,1.86407,30,12
-2.39519,10.6197,-0.952438,32,5
-3.46673,15.3831,3.06516,13,13
-5.75379,25.5732,6.05163,7,14
-3.03179,13.475,-0.241088,71,7
-4.14529,18.4391,5.06405,3,15
-0.111168,0.497746,-0.136656,14,0
-0.138792,0.62194,-0.147118,24,1
-2.25375,10.1076,0.542724,39,9
-2.17224,9.74999,-1.94167,52,2
-2.1908,9.84142,-1.59688,51,3
-2.302,10.3495,1.30181,33,11
-2.2188,9.98361,-1.25574,37,4
-2.54322,11.4528,1.85813,7,12
-2.26014,10.1864,-0.912869,50,5
-3.41867,15.4079,3.06783,13,13
-2.26129,10.2,-0.547539,42,6
-3.58909,16.2027,3.83137,13,14
-2.30586,10.4183,-0.186252,31,7
-4.11844,18.6232,5.11064,8,15
-0.109517,0.498111,-0.136656,14,0
-2.2217,10.1133,0.180737,58,8
-0.134949,0.614807,-0.145318,12,1
-2.20909,10.0643,0.540002,105,9
-2.1605,9.8511,-1.96037,54,2
-2.21086,10.0892,0.903631,20,10
-2.21475,10.1153,-1.64006,56,3
-3.41003,15.5875,1.95917,4,11
-2.12374,9.70779,-1.22016,42,4
-2.46684,11.2855,1.82966,12,12
-2.23995,10.2561,-0.918447,48,5
-3.75622,17.2132,3.42464,6,13
-2.21844,10.1747,-0.545759,91,6
-3.55154,16.2888,3.84891,18,14
-2.26874,10.4141,-0.186043,37,7
-4.06652,18.6821,5.12306,13,15
-0.107865,0.498472,-0.136656,14,0
-2.19153,10.1362,0.181016,43,8
-0.133733,0.619061,-0.146218,25,1
-2.16094,10.0032,0.536339,56,9
-2.1477,9.95033,-1.97869,61,2
-2.17445,10.0828,0.902411,16,10
-2.14623,9.96039,-1.61378,27,3
-2.19306,10.1863,1.27938,36,11
-2.08109,9.66626,-1.21406,33,4
-2.44228,11.3535,1.83936,9,12
-2.20551,10.2616,-0.918273,52,5
-3.33103,15.5114,3.08386,11,13
-2.13566,9.95349,-0.533513,100,6
-3.49014,16.2662,3.84081,2,14
-2.34444,10.9358,-0.195223,100,7
-3.98836,18.6199,5.10236,4,15
-0.120694,0.566849,-0.155291,12,0
-2.16248,10.1649,0.1814,58,8
-0.127222,0.598533,-0.141269,26,1
-2.13307,10.0439,0.538118,65,9
-2.11143,9.94203,-1.97564,33,2
-2.14101,10.0899,0.902411,10,10
-2.11893,9.9945,-1.61816,72,3
-2.17326,10.2596,1.28767,39,11
-2.0346,9.61326,-1.20651,39,4
-2.17668,10.3023,-0.921236,37,5
-3.25319,15.3975,3.05905,28,13
-2.10842,9.98787,-0.534978,80,6
-3.49084,16.5509,3.90515,10,14
-2.23161,10.5898,-0.188905,31,7
-3.82663,18.1743,4.97657,1,15
-0.110708,0.529468,-0.144939,14,0
-2.10898,10.0863,0.179865,57,8
-0.12832,0.614234,-0.144868,25,1
-2.09065,10.0161,0.536234,61,9
-2.07698,9.95932,-1.97754,59,2
-2.11621,10.1562,0.90764,44,10
-2.131,10.2362,-1.65602,68,3
-2.13541,10.2574,1.28645,24,11
-2.00911,9.65917,-1.21138,19,4
-4.11298,19.7912,3.20159,14,12
-2.18891,10.542,-0.941979,10,5
-3.19992,15.4247,3.0621,20,13
-2.16381,10.4395,-0.558739,91,6
-3.43016,16.5636,3.90515,23,14
-3.76355,18.1895,4.97709,3,15
-0.102639,0.499574,-0.136656,14,0
-2.49822,12.1703,0.216864,36,8
-0.128417,0.626154,-0.147568,24,1
-2.32455,11.3444,0.606888,33,9
-2.03945,9.95304,-1.97487,54,2
-2.43918,11.9144,1.064,27,10
-2.11148,10.3229,-1.66884,40,3
-2.08866,10.2204,1.28085,69,11
-2.15399,10.5495,-1.32204,31,4
-2.28217,11.1873,1.80838,3,12
-2.14213,10.5008,-0.937621,26,5
-3.15704,15.4897,3.07279,25,13
-3.36999,16.564,3.90245,21,14
-2.11157,10.3879,-0.18503,32,7
-3.71916,18.313,5.00711,4,15
-0.107009,0.530228,-0.144939,14,0
-2.02884,10.0619,0.179166,65,8
-0.123922,0.615136,-0.144868,25,1
-1.99578,9.91583,-1.9661,47,2
-2.11863,10.5452,-1.70357,66,3
-2.04047,10.1654,1.27305,60,11
-2.1031,10.4869,-1.31326,50,4
-2.19394,10.9497,-0.977016,44,5
-3.10681,15.5198,3.0766,11,13
-2.62202,13.11,-0.700674,22,6
-3.30758,16.5528,3.89705,21,14
-2.08351,10.4364,-0.185763,35,7
-3.63556,18.2273,4.9802,6,15
-0.112669,0.568498,-0.155291,12,0
-0.120639,0.60983,-0.143519,25,1
-1.95392,9.88615,-1.95885,40,2
-2.07875,10.537,-1.70107,60,3
-1.99691,10.1315,1.26793,27,11
-2.073,10.5273,-1.31741,33,4
-2.2841,11.61,1.87409,31,12
-3.05109,15.5229,3.07508,11,13
-1.94623,9.91085,-0.529326,52,6
-3.2584,16.6082,3.9074,21,14
-2.0563,10.4907,-0.186601,36,7
-3.35399,17.127,4.67634,1,15
-0.0966639,0.496829,-0.135621,15,0
-2.24204,11.5343,0.205101,41,8
-0.11851,0.610247,-0.143519,25,1
-2.08313,10.7368,0.573183,56,9
-1.90819,9.83509,-1.9474,40,2
-2.04608,10.5656,-1.70451,46,3
-2.25,11.6294,1.45439,27,11
-2.01627,10.4311,-1.30449,15,4
-2.90089,15.0218,2.42317,6,12
-2.14048,11.0841,-0.987649,10,5
-2.96789,15.3831,3.04531,23,13
-1.91578,9.93916,-0.530477,59,6
-3.02979,15.7335,3.6991,16,14
-2.01363,10.4664,-0.186043,27,7
-3.66939,19.0908,5.20899,8,15
-0.0978275,0.512344,-0.139762,14,0
-2.20515,11.5598,0.205415,58,8
-0.118568,0.622143,-0.146218,25,1
-2.19394,11.5229,0.614738,125,9
-1.85255,9.72983,-1.92526,47,2
-2.12405,11.1664,0.994447,89,10
-2.05824,10.8307,-1.74612,66,3
-1.91947,10.1101,1.26354,17,11
-1.98503,10.4654,-1.3079,48,4
-2.05912,10.8664,-0.967603,25,5
-2.90979,15.3702,3.04073,19,13
-1.8666,9.86925,-0.526395,100,6
-2.97268,15.7325,3.6964,19,14
-2.00416,10.6168,-0.188591,100,7
-3.59127,19.0427,5.19243,3,15
-0.0960386,0.512682,-0.139762,14,0
-2.16037,11.5438,0.204996,55,8
-0.116037,0.620638,-0.145768,25,1
-2.38731,12.7811,0.681414,35,9
-1.77676,9.51237,-1.881,33,2
-2.07591,11.1247,0.990089,85,10
-1.93172,10.3621,-1.66947,46,3
-2.19129,11.7658,1.4695,35,11
-1.9405,10.4293,-1.30254,42,4
-2.78584,14.9873,2.41441,10,12
-1.92068,10.3329,-0.919493,33,5
-2.88623,15.5424,3.07279,23,13
-1.82995,9.86392,-0.525767,77,6
-2.92059,15.7581,3.69999,2,14
-1.94634,10.5117,-0.186601,35,7
-2.73135,14.7658,4.0236,5,15
-0.092852,0.505414,-0.137692,14,0
-2.1677,11.8109,0.209603,77,8
-0.113518,0.619122,-0.145318,25,1
-1.99803,10.8971,0.580615,85,9
-1.72373,9.41037,-1.85962,45,2
-2.05069,11.2064,0.996713,42,10
-1.88631,10.3182,-1.66133,72,3
-2.06282,11.295,1.40978,16,11
-1.89948,10.4006,-1.29815,34,4
-2.10572,11.5412,1.85813,12,12
-1.79873,9.88793,-0.526709,45,6
-2.84251,15.6258,3.6667,2,14
-2.71308,14.9439,4.06967,4,15
-0.0946033,0.524731,-0.142868,14,0
-2.14483,11.9085,0.211209,18,8
-0.109049,0.60607,-0.142169,26,1
-1.68974,9.40058,-1.85657,30,2
-2.08359,11.6034,1.0314,19,10
-1.86708,10.4081,-1.67479,60,3
-2.19519,12.2494,1.528,28,11
-1.89825,10.5924,-1.32131,35,4
-1.91134,10.687,-0.949823,16,5
-2.7783,15.5501,3.0705,17,13
-2.20179,12.3358,-0.656712,22,6
-2.7869,15.614,3.66175,11,14
-1.86991,10.487,-0.185938,24,7
-5.55435,31.1819,8.48668,13,15
-0.0908438,0.513628,-0.139762,14,0
-2.09281,11.8447,0.209952,42,8
-0.109071,0.617942,-0.144868,25,1
-2.08958,11.8385,0.63002,32,9
-1.65037,9.35973,-1.84741,28,2
-2.0662,11.7299,1.04203,25,10
-1.8329,10.4161,-1.6751,93,3
-2.01846,11.4824,1.43148,27,11
-1.82899,10.4152,-1.2984,38,4
-2.02845,11.5511,1.8575,9,12
-1.86969,10.6579,-0.946686,38,5
