x, y, z, intensity, ring
9.75931,10.0849,0.244962,20,8
0.412048,0.425646,-0.13677,13,1
12.6826,13.0966,0.955445,15,9
3.95525,4.08435,-1.10517,28,2
17.9135,18.4918,2.25245,24,10
4.42788,4.56921,-1.00775,31,3
29.4827,30.4132,5.2009,18,11
4.99298,5.14876,-0.880628,16,4
46.1829,47.6071,10.5052,20,12
5.70413,5.87799,-0.716594,15,5
6.63309,6.83288,-0.499076,38,6
7.91154,8.14414,-0.19819,100,7
0.337067,0.345889,-0.12941,15,0
9.7777,10.0336,0.244543,17,8
0.394487,0.40467,-0.130472,14,1
12.7045,13.0279,0.953666,13,9
3.9647,4.06421,-1.10364,28,2
17.9171,18.3604,2.24443,23,10
4.43356,4.54165,-1.00525,38,3
29.3779,30.0942,5.16385,17,11
5.0137,5.13414,-0.881115,19,4
5.69955,5.83239,-0.713457,15,5
6.6567,6.8071,-0.498971,38,6
7.93293,8.10933,-0.198015,100,7
0.338273,0.34471,-0.12941,15,0
9.77379,9.9563,0.243531,22,8
0.409621,0.417125,-0.134971,14,1
12.706,12.9342,0.950212,13,9
3.97199,4.04334,-1.10173,23,2
17.9183,18.2338,2.23659,23,10
4.4383,4.51488,-1.00275,28,3
29.2959,29.791,5.13021,17,11
5.0283,5.11148,-0.880384,18,4
5.71707,5.80962,-0.713108,15,5
6.67061,6.77386,-0.498238,38,6
7.94294,8.06026,-0.197526,100,7
0.339474,0.343527,-0.12941,15,0
9.76771,9.88088,0.242519,28,8
0.405594,0.41015,-0.133171,14,1
12.7188,12.8572,0.947804,13,9
3.98746,4.03084,-1.10211,26,2
17.9244,18.1131,2.22944,23,10
4.44431,4.48953,-1.00055,33,3
5.04053,5.08826,-0.879409,16,4
48.8201,49.2652,10.9851,23,12
5.73451,5.7868,-0.71276,15,5
6.67171,6.72784,-0.496564,38,6
7.95695,8.01829,-0.197177,100,7
0.359748,0.361511,-0.136656,14,0
9.81343,9.85806,0.242798,20,8
0.396023,0.397685,-0.129572,14,1
12.705,12.7583,0.943617,13,9
3.97241,3.98769,-1.0941,24,2
17.8159,17.8782,2.20818,40,10
4.45158,4.46559,-0.998678,30,3
5.03583,5.04815,-0.875509,19,4
5.75468,5.76675,-0.71276,15,5
6.68104,6.69038,-0.495517,38,6
7.96371,7.97205,-0.196689,100,7
0.369213,0.368441,-0.139762,14,0
9.83616,9.81558,0.242554,22,8
0.402858,0.401875,-0.131371,14,1
12.6957,12.6603,0.93964,12,9
3.97796,3.96548,-1.09181,29,2
17.9008,17.8384,2.21097,28,10
4.46497,4.44941,-0.998365,35,3
5.04551,5.02442,-0.874291,19,4
5.77053,5.74241,-0.712237,13,5
6.68903,6.6541,-0.49447,38,6
7.97446,7.92729,-0.19627,100,7
0.342993,0.340013,-0.12941,15,0
9.83485,9.746,0.241681,26,8
0.412565,0.408695,-0.134071,14,1
12.7327,12.6089,0.939116,12,9
3.99527,3.95641,-1.09295,27,2
17.8791,17.6991,2.20103,28,10
4.47205,4.42546,-0.996488,30,3
29.2805,28.9654,5.05709,17,11
5.05172,4.99561,-0.872341,21,4
5.76546,5.69943,-0.709273,15,5
6.70085,6.61948,-0.493633,38,6
7.97078,7.8685,-0.195502,100,7
0.363452,0.357787,-0.136656,14,0
9.84315,9.68636,0.241053,28,8
0.413989,0.407252,-0.134071,14,1
12.7539,12.5419,0.937442,12,9
4.01746,3.9507,-1.09524,27,2
17.8882,17.5849,2.19458,22,10
4.4762,4.39875,-0.993985,35,3
29.2399,28.7239,5.03272,17,11
5.06913,4.97794,-0.872341,22,4
5.79243,5.68625,-0.710145,13,5
6.70538,6.57787,-0.492272,38,6
7.98249,7.82522,-0.195118,100,7
0.386802,0.378123,-0.144939,14,0
9.84687,9.62259,0.24032,30,8
0.420984,0.411252,-0.13587,13,1
12.7561,12.4569,0.934406,11,9
4.03825,3.94351,-1.09715,27,2
17.8611,17.436,2.18377,22,10
4.48587,4.37758,-0.992733,28,3
29.1467,28.4331,4.99957,16,11
5.07937,4.95329,-0.871122,24,4
5.80653,5.66043,-0.709448,13,5
6.7283,6.55442,-0.492272,38,6
8.00259,7.79034,-0.194943,100,7
0.379802,0.368697,-0.141833,14,0
9.83017,9.53942,0.239098,26,8
0.414024,0.401638,-0.133171,14,1
12.768,12.3817,0.932104,11,9
4.04494,3.92256,-1.09524,24,2
17.8403,17.2945,2.17384,28,10
4.48694,4.34815,-0.989605,31,3
29.1032,28.1931,4.97519,16,11
5.06811,4.90791,-0.866247,21,4
5.82196,5.63597,-0.708925,15,5
6.73248,6.51284,-0.490911,38,6
8.02399,7.7568,-0.194804,100,7
0.381087,0.367369,-0.141833,14,0
9.85046,9.49256,0.238784,34,8
0.40981,0.394783,-0.131371,14,1
12.7579,12.2858,0.928231,12,9
4.06002,3.90978,-1.09563,24,2
17.8618,17.1948,2.16913,22,10
4.48643,4.31739,-0.986163,27,3
29.0212,27.9179,4.94448,16,11
5.07376,4.87918,-0.864297,25,4
5.82437,5.59904,-0.706833,15,5
6.75085,6.48515,-0.490597,38,6
8.03514,7.71351,-0.19442,100,7
0.376785,0.360693,-0.139762,14,0
9.88353,9.45812,0.238784,23,8
0.419635,0.401432,-0.134071,14,1
12.779,12.2205,0.926661,12,9
4.07648,3.8983,-1.09639,24,2
17.8483,17.0622,2.16024,27,10
4.49862,4.29897,-0.985537,30,3
28.9433,27.6492,4.91475,16,11
5.08933,4.86007,-0.864054,29,4
5.82946,5.56492,-0.70509,15,5
6.76767,6.45603,-0.490179,38,6
8.049,7.673,-0.194106,100,7
0.366901,0.348664,-0.135621,15,0
9.90218,9.40668,0.2384,26,8
0.435234,0.413311,-0.13857,13,1
12.7832,12.135,0.92373,12,9
4.10071,3.89279,-1.09906,26,2
17.8399,16.9294,2.1517,22,10
4.50574,4.2743,-0.98366,30,3
28.9148,27.42,4.89281,16,11
5.10278,4.83728,-0.863322,28,4
5.83536,5.52981,-0.703347,15,5
6.79854,6.43805,-0.490702,38,6
8.06109,7.62833,-0.193722,100,7
0.368116,0.347381,-0.135621,15,0
9.9175,9.35559,0.237981,27,8
0.405483,0.382375,-0.128672,14,1
12.8022,12.0684,0.922055,12,9
4.10999,3.87441,-1.09792,28,2
17.851,16.822,2.14595,22,10
4.52064,4.25854,-0.98366,33,3
28.8601,27.1773,4.86746,15,11
5.11241,4.81264,-0.862104,25,4
5.85172,5.50668,-0.702998,15,5
6.80059,6.39513,-0.489237,38,6
8.07309,7.58645,-0.193373,100,7
0.386242,0.361945,-0.141833,14,0
9.93112,9.30314,0.237527,30,8
0.418195,0.391614,-0.132271,28,1
12.8218,12.0068,0.92059,11,9
4.12636,3.86273,-1.09868,26,2
17.8471,16.701,2.13845,21,10
4.5398,4.24679,-0.984599,30,3
28.8272,26.9571,4.84601,15,11
5.11613,4.78257,-0.85991,23,4
5.868,5.4835,-0.70265,15,5
6.8112,6.36045,-0.488399,38,6
8.09967,7.561,-0.193408,100,7
0.395989,0.368491,-0.144939,14,0
9.94582,9.25517,0.237143,31,8
0.43376,0.403498,-0.13677,13,1
12.8358,11.9361,0.918601,12,9
4.13406,3.84295,-1.09715,24,2
17.8148,16.5545,2.12765,21,10
4.56399,4.24112,-0.986789,27,3
28.8902,26.8371,4.84163,15,11
5.11305,4.74801,-0.856742,23,4
5.86227,5.43994,-0.699686,16,5
6.82347,6.32967,-0.487771,39,6
8.09228,7.50142,-0.192605,100,7
0.35465,0.327836,-0.12941,15,0
9.9296,9.17561,0.235991,30,8
0.42944,0.396692,-0.134971,14,1
12.8495,11.8655,0.916612,13,9
4.1439,3.82656,-1.09639,24,2
17.814,16.444,2.12102,21,10
4.57731,4.22383,-0.986476,31,3
28.8203,26.5853,4.81433,15,11
5.10916,4.7113,-0.853329,33,4
5.85538,5.39752,-0.696723,15,5
6.83671,6.29769,-0.487143,39,6
8.11695,7.47177,-0.19257,100,7
0.355793,0.326596,-0.12941,15,0
9.94094,9.12197,0.235503,30,8
0.433694,0.397825,-0.13587,13,1
12.8585,11.7909,0.914309,12,9
4.16591,3.82003,-1.09868,26,2
17.7802,16.2983,2.11021,21,10
4.58766,4.20382,-0.985537,33,3
28.8192,26.3987,4.79873,15,11
5.12557,4.69344,-0.853329,25,4
5.86243,5.36628,-0.695328,16,5
6.84538,6.26166,-0.486201,39,6
8.09575,7.40021,-0.191453,100,7
0.374063,0.340969,-0.135621,15,0
9.95646,9.0724,0.235119,28,8
0.412029,0.375312,-0.128672,14,1
12.8405,11.6921,0.910122,12,9
4.19229,3.81736,-1.10211,23,2
17.8001,16.2026,2.10586,21,10
4.61253,4.19708,-0.987727,26,3
28.8613,26.2526,4.79044,15,11
5.14046,4.67418,-0.853086,24,4
5.86878,5.3327,-0.69376,16,5
6.84207,6.2149,-0.484422,39,6
8.14522,7.39341,-0.192011,100,7
0.378175,0.342188,-0.136656,14,0
9.99548,9.0443,0.235293,22,8
0.424899,0.38433,-0.132271,14,1
12.8486,11.6178,0.90782,15,9
4.20625,3.80197,-1.10211,23,2
17.8032,16.0865,2.09923,21,10
4.62789,4.18015,-0.987727,28,3
28.8202,26.0319,4.7685,15,11
5.15527,4.65488,-0.852842,31,4
5.89032,5.31485,-0.694108,18,5
6.84404,6.17105,-0.482956,39,6
8.16504,7.35958,-0.191872,100,7
0.4311,0.387347,-0.155291,12,0
10.0226,9.00226,0.235154,27,8
0.423405,0.380166,-0.131371,14,1
12.8941,11.5733,0.908029,12,9
4.20635,3.77546,-1.09868,23,2
17.7688,15.943,2.0886,20,10
4.64245,4.16397,-0.987727,27,3
28.7824,25.8068,4.74657,15,11
5.1723,4.63595,-0.852842,25,4
5.89548,5.28229,-0.69254,17,5
6.85363,6.13647,-0.482119,39,6
8.17258,7.31227,-0.191418,100,7
0.380555,0.339539,-0.136656,14,0
10.0316,8.94725,0.23463,26,8
0.448002,0.399436,-0.13857,13,1
12.8941,11.4923,0.905203,16,9
4.21217,3.75423,-1.09677,22,2
17.7678,15.8306,2.08198,20,10
4.65991,4.15037,-0.988353,26,3
28.7359,25.5847,4.72414,15,11
5.19289,4.62183,-0.853573,28,4
5.86179,5.21533,-0.686439,17,5
6.85262,6.0926,-0.480549,39,6
8.18161,7.26909,-0.191034,100,7
0.433793,0.384328,-0.155291,12,0
10.0403,8.89229,0.234107,26,8
0.443557,0.392702,-0.13677,13,1
12.8933,11.4151,0.902481,16,9
4.22819,3.7421,-1.09753,23,2
17.7454,15.6998,2.07291,20,10
4.66993,4.13015,-0.987414,27,3
28.6317,25.3134,4.69246,15,11
5.21941,4.61287,-0.855279,27,4
5.87547,5.19088,-0.685916,20,5
6.87235,6.06732,-0.480444,39,6
8.19668,7.23398,-0.190825,100,7
0.382916,0.336874,-0.136656,14,0
10.0352,8.82856,0.233304,27,8
0.418517,0.368064,-0.128672,14,1
12.8926,11.3344,0.899655,12,9
4.2368,3.72343,-1.09639,22,2
17.8135,15.6496,2.07448,20,10
4.6836,4.11464,-0.987414,26,3
28.7065,25.2104,4.691,15,11
5.23468,4.59554,-0.855279,25,4
5.89955,5.17559,-0.686613,28,5
6.86841,6.02343,-0.478769,43,6
8.22037,7.204,-0.19079,100,7
0.436399,0.381366,-0.155291,12,0
10.0404,8.77112,0.23271,26,8
0.434477,0.379419,-0.133171,14,1
12.8644,11.2302,0.894945,16,9
4.24321,3.7042,-1.09486,22,2
17.8158,15.5472,2.06873,20,10
4.69049,4.09177,-0.98585,31,3
28.7195,25.0448,4.67881,15,11
5.24021,4.56811,-0.853573,20,4
5.93621,5.17301,-0.688879,21,5
6.87734,5.98893,-0.477932,43,6
8.21078,7.14507,-0.189987,100,7
0.437728,0.379841,-0.155291,12,0
10.0498,8.71767,0.232222,21,8
0.424021,0.367687,-0.129572,14,1
12.9035,11.1852,0.894945,16,9
4.25315,3.68679,-1.0941,22,2
17.8067,15.4301,2.06141,20,10
4.71072,4.08055,-0.987102,26,3
28.6237,24.7859,4.64907,15,11
5.26813,4.56018,-0.855523,25,4
5.96177,5.15878,-0.689751,21,5
6.8846,5.95313,-0.47699,43,6
8.21448,7.09806,-0.189498,100,7
0.386365,0.332913,-0.136656,14,0
10.068,8.6721,0.231942,23,8
0.437115,0.376377,-0.133171,14,1
12.9334,11.1323,0.894317,14,9
4.26004,3.6668,-1.09257,20,2
17.797,15.3133,2.05409,20,10
4.72044,4.06022,-0.986163,30,3
28.695,24.6729,4.64663,15,11
5.30208,4.55729,-0.858448,24,4
5.9616,5.12236,-0.687659,20,5
6.83109,5.8653,-0.471861,61,6
8.21493,7.04851,-0.18894,100,7
0.440369,0.376776,-0.155291,12,0
10.0785,8.62001,0.231489,20,8
0.432502,0.369783,-0.131371,14,1
12.9478,11.0663,0.892642,16,9
4.28027,3.65829,-1.09448,22,2
17.8171,15.2226,2.05025,20,10
4.72257,4.03345,-0.98366,27,3
28.6028,24.4205,4.61787,15,11
5.324,4.54391,-0.859423,24,4
5.98551,5.10669,-0.688356,16,5
6.84544,5.83624,-0.471442,47,6
8.20295,6.98867,-0.188102,100,7
0.403402,0.342716,-0.141833,14,0
10.0948,8.57312,0.231175,20,8
0.430819,0.365749,-0.130472,14,1
12.9514,10.9913,0.890235,12,9
4.29601,3.64586,-1.09524,22,2
17.8519,15.1448,2.04816,20,10
4.73963,4.0195,-0.984286,30,3
28.6394,24.2794,4.61007,15,11
5.32468,4.51247,-0.856985,24,4
6.00634,5.08834,-0.688705,16,5
6.88559,5.82908,-0.472803,47,6
8.22577,6.9587,-0.188067,100,7
0.38983,0.328849,-0.136656,14,0
10.1201,8.53397,0.23107,20,8
0.444013,0.374291,-0.134071,14,1
12.9606,10.9216,0.888246,12,9
4.30571,3.62831,-1.09448,22,2
17.8574,15.0426,2.04276,25,10
4.76119,4.00929,-0.98585,28,3
28.6481,24.1154,4.59789,15,11
5.32673,4.48235,-0.854792,23,4
33.7647,28.4024,6.98824,100,12
6.03016,5.07247,-0.689402,15,5
6.91354,5.81144,-0.473326,43,6
8.21632,6.90165,-0.187299,100,7
0.44429,0.372144,-0.155291,12,0
10.1268,8.47933,0.230546,23,8
0.433362,0.362732,-0.130472,14,1
12.9665,10.8494,0.886048,12,9
4.30931,3.6057,-1.09219,22,2
17.8257,14.9099,2.03317,19,10
4.77364,3.99138,-0.985537,27,3
28.6011,23.9057,4.57693,14,11
5.33473,4.45736,-0.853573,25,4
33.894,28.3096,6.9945,69,12
6.04565,5.04779,-0.689053,15,5
6.94299,5.79495,-0.473954,43,6
8.21733,6.85372,-0.186776,100,7
0.392173,0.326051,-0.136656,14,0
10.1179,8.41197,0.229674,28,8
0.446615,0.371182,-0.134071,14,1
12.9797,10.7836,0.884373,12,9
4.31193,3.58111,-1.08952,20,2
17.8465,14.8165,2.02933,19,10
4.79735,3.98143,-0.987414,26,3
28.5866,23.7246,4.56133,14,11
5.35331,4.44125,-0.85406,28,4
6.0663,5.02919,-0.689402,15,5
6.9611,5.76692,-0.473745,39,6
8.19654,6.788,-0.185763,100,7
0.393309,0.32468,-0.136656,14,0
10.107,8.34047,0.228731,25,8
0.456992,0.376983,-0.13677,13,1
12.9883,10.7106,0.88228,15,9
4.33804,3.57727,-1.09295,20,2
17.8597,14.7224,2.02498,19,10
4.78988,3.94707,-0.983034,28,3
28.6733,23.6197,4.56133,14,11
5.36649,4.41908,-0.853573,23,4
34.0988,28.0689,6.99512,101,12
6.06844,4.99533,-0.687659,16,5
45.907,37.7756,11.5562,81,13
6.99661,5.75527,-0.474792,39,6
8.19356,6.73506,-0.185135,100,7
0.409381,0.335552,-0.141833,14,0
10.085,8.26332,0.227579,30,8
0.446244,0.365507,-0.133171,14,1
13.0148,10.6563,0.881547,11,9
4.34746,3.55962,-1.09219,18,2
17.8524,14.612,2.01835,19,10
4.80057,3.92782,-0.982409,28,3
28.562,23.3611,4.53062,14,11
5.3742,4.39404,-0.852354,23,4
6.08275,4.97159,-0.68731,16,5
46.0447,37.6201,11.5577,81,13
6.9981,5.71565,-0.473536,39,6
8.248,6.7317,-0.185833,100,7
0.449507,0.365826,-0.155291,12,0
10.1014,8.21796,0.2273,30,8
0.447518,0.363947,-0.133171,14,1
13.0225,10.5869,0.879558,12,9
4.35072,3.53699,-1.0899,20,2
17.8368,14.4956,2.01086,19,10
4.81272,3.9098,-0.982096,35,3
28.7389,23.3388,4.54573,14,11
5.37871,4.36649,-0.850648,22,4
6.09853,4.94907,-0.687136,16,5
46.1818,37.4641,11.5592,81,13
7.0149,5.68867,-0.473326,39,6
8.26679,6.6991,-0.185729,100,7
0.450781,0.364254,-0.155291,12,0
10.0989,8.15752,0.226602,30,8
0.463947,0.374626,-0.13767,13,1
13.033,10.52,0.877779,12,9
4.34776,3.50945,-1.08608,24,2
17.8532,14.4057,2.00702,19,10
4.82019,3.88801,-0.980844,26,3
28.6657,23.1138,4.52135,14,11
5.39702,4.35018,-0.851136,25,4
34.3985,27.7165,6.99669,17,12
6.11731,4.92901,-0.68731,16,5
46.3261,37.3137,11.5626,60,13
7.05494,5.68043,-0.474687,39,6
8.31349,6.689,-0.186252,100,7
0.376655,0.302298,-0.12941,15,0
10.0557,8.06768,0.225031,35,8
0.462146,0.370646,-0.13677,13,1
13.0226,10.4405,0.874743,12,9
4.3655,3.49993,-1.08761,18,2
17.8356,14.2941,1.9997,19,10
4.83305,3.87201,-0.980844,28,3
28.7422,23.0186,4.52135,14,11
5.41761,4.33722,-0.852111,25,4
34.4918,27.6035,6.997,17,12
6.12274,4.89998,-0.68609,16,5
46.4526,37.1624,11.5634,60,13
7.07374,5.65701,-0.474687,39,6
8.32469,6.65266,-0.186008,100,7
0.413968,0.329876,-0.141833,14,0
10.0525,8.00761,0.224333,27,8
0.457339,0.364175,-0.134971,14,1
13.0386,10.3788,0.873383,16,9
4.37769,3.48467,-1.08761,18,2
17.8479,14.202,1.99552,19,10
4.83881,3.84896,-0.97928,27,3
28.6887,22.8119,4.50039,14,11
5.43116,4.31705,-0.851867,23,4
34.5895,27.4841,6.99731,17,12
6.14136,4.87981,-0.686264,15,5
46.5821,37,11.5634,60,13
7.0778,5.61986,-0.47364,39,6
8.3463,6.62231,-0.185973,100,7
0.378757,0.299661,-0.12941,15,0
10.0569,7.95386,0.22381,33,8
0.45555,0.36016,-0.134071,14,1
13.0215,10.2912,0.869824,16,9
4.38829,3.46815,-1.08723,20,2
17.8833,14.1285,1.99395,19,10
4.84601,3.82716,-0.978028,25,3
28.6342,22.6058,4.47943,14,11
5.43529,4.28945,-0.850161,22,4
34.71,27.3828,7.00232,17,12
6.15366,4.85465,-0.685741,16,5
46.7048,36.8323,11.5619,60,13
7.08954,5.58894,-0.473117,39,6
8.37408,6.59685,-0.186078,100,7
0.3798,0.298337,-0.12941,15,0
10.1255,7.95082,0.224717,30,8
0.459871,0.360974,-0.134971,14,1
12.9977,10.1988,0.865846,18,9
4.39882,3.4516,-1.08685,18,2
17.8839,14.0278,1.98855,19,10
4.86867,3.81753,-0.979906,33,3
28.691,22.4886,4.47602,14,11
5.44242,4.26434,-0.848942,23,4
34.8023,27.2591,7.00169,17,12
6.16744,4.83068,-0.685393,17,5
7.09799,5.55554,-0.472384,39,6
8.3939,6.56512,-0.186008,100,7
0.457007,0.356412,-0.155291,12,0
10.1469,7.9105,0.224578,27,8
0.461128,0.359366,-0.134971,14,1
12.9796,10.1116,0.862287,16,9
4.40465,3.4314,-1.08532,20,2
17.8872,13.9298,1.98349,19,10
4.87573,3.79566,-0.978654,30,3
28.691,22.3273,4.46383,14,11
5.451,4.24043,-0.847967,22,4
34.8692,27.1156,6.99606,17,12
6.18112,4.80667,-0.685044,15,5
7.11892,5.53196,-0.472489,39,6
8.40097,6.52351,-0.185659,100,7
10.1792,7.87871,0.224682,27,8
0.468545,0.362525,-0.13677,13,1
12.9342,10.0039,0.856949,12,9
4.41349,3.4136,-1.08456,18,2
17.8774,13.8222,1.97704,18,10
4.88895,3.77861,-0.978654,28,3
28.7279,22.1955,4.45749,14,11
5.46263,4.21895,-0.84748,20,4
34.9792,27.0058,6.99919,17,12
6.18051,4.77168,-0.683127,15,5
45.7995,35.3468,11.2455,18,13
7.1366,5.50585,-0.472384,39,6
8.42211,6.49293,-0.185624,100,7
10.1923,7.83217,0.224368,26,8
0.457444,0.35139,-0.133171,14,1
12.9358,9.93319,0.854751,19,9
4.43161,3.40296,-1.08608,18,2
17.8497,13.7015,1.96867,18,10
4.89271,3.75431,-0.976777,27,3
28.7674,22.0661,4.45164,14,11
5.48993,4.20952,-0.849429,23,4
35.0733,26.8835,6.99919,17,12
6.19713,4.75007,-0.683127,15,5
7.14309,5.47119,-0.471547,39,6
8.4352,6.4562,-0.185414,100,7
10.253,7.82201,0.225101,27,8
0.458668,0.349791,-0.133171,14,1
13.0054,9.91461,0.857054,20,9
4.45127,3.39342,-1.08799,15,2
17.7849,13.5534,1.9563,23,10
4.90893,3.7396,-0.977403,28,3
28.6674,21.8308,4.42435,14,11
5.48721,4.17711,-0.846748,19,4
35.1936,26.7813,7.00451,25,12
6.21367,4.72841,-0.683127,15,5
38.9574,29.6347,9.5145,11,13
7.15579,5.44139,-0.471128,39,6
8.44654,6.41825,-0.18517,100,7
0.461939,0.349996,-0.155291,12,0
10.2643,7.7741,0.224752,25,8
0.459886,0.348188,-0.133171,14,1
13.0272,9.8595,0.856216,17,9
4.45213,3.36956,-1.08532,18,2
17.7129,13.401,1.94322,27,10
4.92038,3.72125,-0.97709,28,3
28.6294,21.6444,4.4068,14,11
5.49225,4.15075,-0.845286,19,4
35.3011,26.669,7.00733,17,12
6.23096,4.7056,-0.683127,15,5
7.16199,5.40675,-0.470291,39,6
8.47208,6.39113,-0.18524,100,7
0.463219,0.3483,-0.155291,12,0
10.2866,7.73462,0.224647,22,8
0.461098,0.34658,-0.133171,14,1
13.0647,9.81637,0.856426,18,9
4.4566,3.34733,-1.08341,15,2
17.7348,13.3157,1.94026,22,10
4.94188,3.70912,-0.978654,26,3
28.6032,21.4681,4.3912,14,11
5.50512,4.13036,-0.845042,23,4
35.3371,26.5029,6.99606,17,12
6.23778,4.67666,-0.682081,15,5
35.1435,26.3386,8.53679,9,13
7.18495,5.38286,-0.4705,39,6
8.47033,6.34354,-0.184716,100,7
10.3052,7.68969,0.224438,23,8
0.477986,0.356539,-0.13767,13,1
13.1181,9.78504,0.857682,13,9
4.46826,3.33175,-1.08341,15,2
17.8132,13.2775,1.94375,27,10
4.95163,3.68949,-0.978028,26,3
28.5798,21.2872,4.3756,14,11
5.52341,4.11253,-0.84553,16,4
6.24928,4.65128,-0.681558,13,5
7.19248,5.34941,-0.469768,39,6
8.50205,6.32109,-0.184926,100,7
10.3146,7.64356,0.224089,25,8
0.482298,0.357272,-0.13857,13,1
13.1538,9.74038,0.857786,12,9
4.47986,3.31613,-1.08341,18,2
17.9299,13.2674,1.95142,22,10
4.94796,3.6613,-0.9749,23,3
28.6247,21.1735,4.3717,14,11
5.54021,4.09655,-0.846017,16,4
6.26227,4.62708,-0.681209,13,5
7.21821,5.33146,-0.470291,39,6
8.50958,6.28069,-0.184612,100,7
10.3348,7.60277,0.223949,25,8
0.458423,0.337115,-0.131371,14,1
13.1651,9.67784,0.856321,15,9
4.49083,3.30126,-1.08341,15,2
17.9288,13.1748,1.94654,22,10
4.95912,3.64284,-0.974587,25,3
28.8008,21.1486,4.3873,14,11
5.54487,4.07013,-0.844555,19,4
6.27838,4.60519,-0.681209,13,5
7.21745,5.29205,-0.469035,39,6
8.53145,6.25095,-0.184612,100,7
10.3516,7.55958,0.22374,26,8
0.459597,0.335512,-0.131371,14,1
13.1682,9.60946,0.854332,17,9
4.51083,3.29056,-1.08532,18,2
17.9561,13.0938,1.94427,18,10
4.96924,3.62231,-0.973961,25,3
28.8488,21.0292,4.3834,14,11
5.54782,4.04258,-0.842848,21,4
6.29442,4.58324,-0.681209,13,5
7.23196,5.26204,-0.468721,39,6
8.53543,6.20819,-0.184228,91,7
10.3744,7.51806,0.223635,23,8
0.452932,0.328109,-0.129122,14,1
13.1823,9.54938,0.853076,16,9
4.5048,3.26213,-1.08112,18,2
17.9339,12.9819,1.93695,27,10
4.98666,3.60841,-0.9749,26,3
28.8163,20.8442,4.36682,14,11
5.56099,4.02105,-0.842605,19,4
6.30069,4.55424,-0.680163,13,5
7.24866,5.23559,-0.468616,39,6
8.53273,6.1608,-0.183704,99,7
10.383,7.47194,0.223286,20,8
0.46351,0.333434,-0.131821,14,1
13.1912,9.48581,0.851506,19,9
4.51138,3.24295,-1.07998,13,2
17.9516,12.8995,1.93399,22,10
5.0002,3.59301,-0.975213,26,3
28.8434,20.7184,4.36049,14,11
5.5759,4.00374,-0.842848,19,4
6.29551,4.51712,-0.677897,15,5
7.26111,5.20804,-0.468302,39,6
8.54281,6.12282,-0.18346,99,7
10.3846,7.41822,0.222763,25,8
0.455155,0.325019,-0.129122,14,1
13.2096,9.42926,0.850564,17,9
4.51572,3.22341,-1.07845,20,2
17.9586,12.8144,1.93015,22,10
4.99985,3.56636,-0.97271,26,3
28.8606,20.5785,4.3522,14,11
5.58823,3.9831,-0.842605,20,4
6.31123,4.49512,-0.677897,15,5
7.27111,5.17687,-0.467779,39,6
8.54621,6.08021,-0.183076,99,7
10.3811,7.3611,0.222134,30,8
0.478545,0.339205,-0.135421,13,1
13.2229,9.36924,0.849308,16,9
4.53711,3.21364,-1.08074,13,2
17.9534,12.7117,1.92457,21,10
5.00966,3.54573,-0.972084,28,3
28.8933,20.4501,4.34635,14,11
5.59724,3.96013,-0.841874,21,4
6.31387,4.46386,-0.676503,15,5
7.27535,5.13981,-0.466837,43,6
8.57718,6.05727,-0.183285,99,7
10.3998,7.31725,0.22196,27,8
0.473409,0.332964,-0.133621,14,1
13.213,9.29315,0.846587,18,9
4.5483,3.19779,-1.08074,11,2
17.9813,12.6375,1.92283,21,10
5.01716,3.52481,-0.971145,27,3
28.9421,20.3258,4.34245,14,11
5.60522,3.93503,-0.840899,21,4
6.3392,4.44866,-0.677549,15,5
7.28835,5.11094,-0.466523,39,6
8.59008,6.02155,-0.183111,100,7
0.475092,0.331922,-0.155291,12,0
10.4191,7.27929,0.221855,28,8
0.480901,0.335856,-0.135421,13,1
13.2192,9.22868,0.844912,21,9
4.55139,3.17627,-1.07883,11,2
17.9927,12.5518,1.91934,26,10
5.03368,3.51154,-0.972084,27,3
29.0093,20.2297,4.34245,14,11
5.6166,3.91529,-0.840655,22,4
6.35469,4.4265,-0.677549,15,5
7.30689,5.08789,-0.466627,39,6
8.6012,5.98467,-0.182901,100,7
10.428,7.23148,0.221506,28,8
0.469258,0.325293,-0.131821,14,1
13.2382,9.17338,0.844074,17,9
4.56512,3.1634,-1.0796,9,2
17.9932,12.4638,1.91499,17,10
5.04266,3.4917,-0.971458,26,3
28.946,20.0357,4.32246,14,11
5.62861,3.89453,-0.840411,21,4
6.34716,4.38843,-0.675108,16,5
7.32297,5.06122,-0.466523,39,6
8.61381,5.94893,-0.182727,99,7
10.445,7.18937,0.221331,25,8
0.470391,0.323654,-0.131821,14,1
13.2668,9.12485,0.843865,18,9
4.57507,3.14553,-1.07922,9,2
17.9534,12.339,1.90592,17,10
5.03751,3.46089,-0.968017,26,3
28.9863,19.9143,4.31808,14,11
5.64544,3.8771,-0.840899,22,4
6.36901,4.37076,-0.675806,15,5
7.32006,5.01966,-0.465162,43,6
8.62628,5.91317,-0.182552,99,7
10.4465,7.13412,0.220808,25,8
0.461917,0.315335,-0.129122,14,1
13.2639,9.05139,0.841562,21,9
4.59413,3.13508,-1.08112,4,2
17.9881,12.2707,1.90505,21,10
5.04793,3.44217,-0.967704,27,3
29.0263,19.7855,4.3132,14,11
5.65797,3.85527,-0.840655,22,4
6.38499,4.34738,-0.675806,15,5
7.33588,4.99295,-0.465057,39,6
8.64128,5.87702,-0.182413,99,7
10.468,7.09537,0.220738,25,8
0.482375,0.326838,-0.134521,14,1
13.2623,8.98264,0.839469,21,9
0.684417,0.463385,-0.160661,16,2
17.9901,12.1756,1.90052,21,10
5.06378,3.42586,-0.968329,28,3
28.9998,19.6196,4.29906,14,11
5.6533,3.82326,-0.837974,25,4
6.39682,4.32284,-0.675457,15,5
7.3442,4.95932,-0.464429,39,6
8.64185,5.8334,-0.181994,99,7
10.4695,7.04315,0.220249,30,8
0.480278,0.322977,-0.133621,14,1
13.2605,8.91744,0.83748,20,9
0.669656,0.45016,-0.156845,17,2
18.0072,12.1004,1.89808,25,10
5.07676,3.41015,-0.968642,28,3
29.0977,19.5381,4.30345,14,11
5.66827,3.80461,-0.838217,27,4
48.1568,32.3235,9.18615,14,12
6.40119,4.29494,-0.674411,15,5
7.36061,4.93494,-0.464429,39,6
8.64454,5.79357,-0.181645,100,7
10.4828,7.00174,0.22004,32,8
0.461898,0.308398,-0.128222,14,1
13.26,8.85003,0.835491,18,9
0.679389,0.453268,-0.158753,16,2
18.0328,12.0264,1.89633,21,10
5.08639,3.3922,-0.968329,27,3
29.1492,19.4327,4.3015,14,11
5.67755,3.78359,-0.83773,23,4
6.39956,4.26153,-0.672668,15,5
7.36031,4.89944,-0.463383,39,6
8.66138,5.76115,-0.181575,100,7
10.4838,6.94963,0.219551,28,8
0.46947,0.311089,-0.130022,14,1
13.2709,8.79045,0.834235,19,9
0.690709,0.457517,-0.161043,15,2
18.046,11.9489,1.89355,21,10
5.08667,3.36679,-0.966139,26,3
29.1969,19.3177,4.29858,14,11
5.69237,3.76485,-0.837974,22,4
47.7552,31.5725,9.06726,14,12
6.40369,4.23369,-0.671622,15,5
7.37569,4.87262,-0.463278,39,6
8.68144,5.73088,-0.181575,100,7
10.4913,6.902,0.219202,30,8
0.486835,0.320156,-0.134521,14,1
13.2864,8.7342,0.833293,21,9
0.726753,0.477751,-0.169057,12,2
17.976,11.8125,1.88187,34,10
5.08849,3.34251,-0.964262,27,3
29.1912,19.1677,4.28785,14,11
5.69718,3.7395,-0.836755,23,4
6.41509,4.20913,-0.671273,15,5
7.37262,4.8337,-0.462022,39,6
8.66626,5.67753,-0.180842,100,7
10.5036,6.85769,0.218958,27,8
0.47163,0.307804,-0.130022,14,1
13.3068,8.68122,0.832665,20,9
0.733349,0.478429,-0.170202,24,2
18.0188,11.7508,1.88204,21,10
5.09847,3.32365,-0.963949,28,3
29.248,19.0592,4.28639,14,11
5.69523,3.70985,-0.834561,22,4
6.42881,4.1845,-0.671099,18,5
7.37438,4.79813,-0.46108,43,6
8.69608,5.65378,-0.181051,100,7
10.5325,6.82424,0.219063,32,8
0.446532,0.289206,-0.122823,15,1
13.3119,8.61844,0.831095,19,9
0.786192,0.508805,-0.182032,16,2
18.0517,11.6782,1.881,21,10
5.11227,3.30602,-0.964262,28,3
29.2976,18.9462,4.28395,14,11
5.70815,3.68994,-0.834561,25,4
45.266,29.2503,8.536,13,12
6.44338,4.16203,-0.671099,18,5
7.37681,4.76132,-0.460138,68,6
8.70401,5.6158,-0.180807,99,7
10.5407,6.77478,0.218714,31,8
0.472181,0.303368,-0.129572,14,1
13.3383,8.56635,0.830781,18,9
0.81935,0.526215,-0.189283,18,2
18.0672,11.599,1.87838,25,10
5.12212,3.28708,-0.963949,35,3
29.1965,18.7294,4.25909,13,11
5.7233,3.67007,-0.834805,29,4
6.44109,4.12876,-0.669356,21,5
7.4287,4.75817,-0.462336,39,6
8.72285,5.58278,-0.180772,99,7
10.5322,6.71751,0.21805,27,8
0.489669,0.312194,-0.134071,14,1
13.3682,8.51974,0.830781,17,9
0.822837,0.524407,-0.189664,27,2
18.0001,11.4673,1.86722,33,10
5.12357,3.26282,-0.962072,32,3
29.3822,18.7041,4.27664,14,11
5.72436,3.64261,-0.833099,24,4
6.46387,4.1116,-0.670228,20,5
7.43853,4.72792,-0.461917,39,6
8.72709,5.54265,-0.180458,100,7
10.5573,6.68178,0.218085,28,8
0.447938,0.283394,-0.122373,15,1
13.3235,8.42605,0.826176,18,9
0.842915,0.533075,-0.193862,27,2
18.0164,11.3895,1.86478,33,10
5.12992,3.24175,-0.961133,31,3
29.3735,18.5548,4.26591,13,11
5.73872,3.62366,-0.833343,25,4
6.47987,4.09008,-0.670402,25,5
48.6956,30.7246,11.1921,18,13
7.44147,4.6934,-0.46108,39,6
8.74807,5.51322,-0.180493,100,7
10.5958,6.65446,0.218399,27,8
0.448925,0.281828,-0.122373,15,1
13.3241,8.36145,0.824396,18,9
0.853085,0.535347,-0.19577,29,2
18.0459,11.3202,1.86374,33,10
5.1479,3.22802,-0.962385,30,3
29.4381,18.4522,4.26591,13,11
5.7446,3.59939,-0.832368,25,4
6.50086,4.07166,-0.671099,17,5
48.8025,30.5545,11.1921,18,13
7.44765,4.66104,-0.460452,39,6
8.74183,5.46675,-0.179969,100,7
10.5867,6.59734,0.217736,28,8
0.49622,0.30911,-0.134971,14,1
13.3905,8.33811,0.826699,13,9
0.864948,0.538592,-0.19806,27,2
18.0295,11.2224,1.85799,33,10
5.17087,3.21733,-0.964575,37,3
29.4922,18.343,4.26445,13,11
5.7487,3.57408,-0.831149,28,4
47.2845,29.3862,8.81759,14,12
6.51066,4.04465,-0.670576,17,5
42.4117,26.3477,9.70531,11,13
7.45878,4.63186,-0.460138,39,6
8.77955,5.4478,-0.180353,99,7
10.5944,6.55088,0.217422,27,8
0.450881,0.278687,-0.122373,15,1
13.4161,8.28922,0.82649,15,9
0.84019,0.518912,-0.191954,24,2
18.0451,11.1405,1.85537,33,10
5.17086,3.1911,-0.962385,46,3
29.7419,18.3546,4.29126,14,11
5.77128,3.56024,-0.832611,24,4
6.5027,4.00831,-0.66831,15,5
7.48762,4.61182,-0.460871,39,6
8.7866,5.40978,-0.180109,99,7
10.5842,6.4911,0.216724,35,8
0.498419,0.305551,-0.134971,14,1
13.4246,8.22981,0.825233,15,9
0.840323,0.51495,-0.191572,24,2
18.111,11.0941,1.85816,33,10
5.17523,3.1689,-0.961133,30,3
29.8699,18.2828,4.30004,14,11
5.78429,3.53907,-0.832611,22,4
6.50815,3.98039,-0.667439,16,5
50.8001,31.0572,11.5737,20,13
7.49344,4.5794,-0.460242,39,6
8.80031,5.37595,-0.180004,100,7
10.6176,6.46324,0.216968,31,8
0.452816,0.275533,-0.122373,15,1
13.4379,8.17355,0.824291,18,9
0.827017,0.502835,-0.188138,31,2
18.0969,10.9988,1.85276,33,10
5.18402,3.1507,-0.960821,28,3
29.8964,18.163,4.29516,14,11
5.80108,3.52296,-0.833343,25,4
42.5644,25.8389,7.88649,11,12
6.5203,3.95661,-0.667264,17,5
49.2781,29.9027,11.2043,18,13
7.49151,4.54417,-0.459196,39,6
8.7985,5.33276,-0.179585,100,7
10.6624,6.43958,0.217422,27,8
0.453775,0.273951,-0.122373,15,1
13.3962,8.0843,0.82,25,9
0.818595,0.494003,-0.185848,39,2
18.1316,10.9377,1.85258,33,10
5.19499,3.13258,-0.960821,26,3
29.6332,17.8618,4.24837,13,11
5.79974,3.49449,-0.831393,24,4
34.6132,20.8471,6.39973,6,12
6.54874,3.94422,-0.668833,17,5
49.4124,29.7487,11.2112,18,13
7.50219,4.5149,-0.458882,43,6
8.82048,5.30408,-0.179655,100,7
10.6882,6.40437,0.217492,23,8
0.481477,0.288387,-0.129572,14,1
13.4278,8.03954,0.820209,20,9
0.801786,0.480049,-0.18165,44,2
18.1594,10.8682,1.85154,33,10
5.20759,3.11544,-0.961133,40,3
29.5625,17.6788,4.22935,13,11
5.79998,3.46709,-0.829687,29,4
34.6586,20.7099,6.39473,6,12
6.55905,3.9193,-0.668485,15,5
7.5059,4.48152,-0.458149,47,6
8.80975,5.25584,-0.179062,97,7
10.7071,6.36499,0.217422,27,8
0.482481,0.286704,-0.129572,14,1
13.43,7.97732,0.818639,21,9
0.708932,0.421101,-0.16028,64,2
18.1818,10.7956,1.84997,33,10
5.21164,3.09321,-0.959882,31,3
28.3607,16.8259,4.04899,13,11
5.8018,3.44075,-0.828224,23,4
35.0399,20.7721,6.45167,6,12
6.52813,3.86996,-0.663952,27,5
7.52322,4.45632,-0.458254,43,6
8.82977,5.22607,-0.179097,97,7
10.6999,6.3103,0.216829,30,8
0.456619,0.269184,-0.122373,15,1
13.4595,7.9314,0.818744,25,9
0.679952,0.400682,-0.15341,93,2
18.1833,10.7108,1.84631,36,10
5.2241,3.07601,-0.960195,26,3
28.4312,16.7339,4.05069,39,11
5.82575,3.42752,-0.82993,21,4
34.9283,20.5415,6.41788,13,12
6.55191,3.85321,-0.664998,21,5
55.3403,32.5329,12.4781,25,13
7.53356,4.42699,-0.45794,47,6
8.8583,5.20129,-0.179306,100,7
10.7046,6.26282,0.21648,32,8
0.4912,0.287264,-0.131371,14,1
13.4785,7.87933,0.81822,21,9
0.681347,0.398306,-0.15341,93,2
18.2034,10.6372,1.84456,40,10
5.22799,3.05377,-0.958943,20,3
28.3986,16.5815,4.03778,13,11
5.83082,3.40317,-0.828955,28,4
35.1909,20.531,6.45292,13,12
6.55566,3.82315,-0.663952,15,5
7.55414,4.40368,-0.458254,43,6
8.87468,5.16933,-0.179271,99,7
10.7005,6.21035,0.215956,43,8
0.492199,0.285548,-0.131371,14,1
13.5232,7.84225,0.819267,21,9
0.689596,0.399745,-0.154937,99,2
18.2181,10.5564,1.84212,32,10
5.23231,3.03062,-0.957692,15,3
26.8588,15.557,3.8111,25,11
5.81862,3.36887,-0.825543,24,4
35.4265,20.503,6.48296,6,12
6.56896,3.80024,-0.663952,15,5
7.57542,4.37896,-0.458568,43,6
8.90652,5.14633,-0.17955,99,7
10.7336,6.17708,0.216166,36,8
0.493243,0.283742,-0.131371,14,1
13.4777,7.75317,0.814871,24,9
0.689285,0.396356,-0.154555,100,2
18.2203,10.4729,1.83864,36,10
5.2223,3.00053,-0.953938,11,3
26.8743,15.4347,3.80525,24,11
5.83437,3.3495,-0.82603,24,4
35.6829,20.4854,6.51675,7,12
6.58565,3.77927,-0.664301,15,5
51.6134,29.6071,11.5661,20,13
7.5768,4.34455,-0.45773,50,6
8.91402,5.10924,-0.179341,100,7
10.7037,6.11269,0.215153,35,8
0.494181,0.282104,-0.131371,14,1
13.5203,7.71499,0.815813,20,9
0.685548,0.39103,-0.15341,100,2
18.2394,10.3994,1.83689,40,10
5.25796,2.99787,-0.958631,5,3
26.9667,15.3691,3.8111,12,11
5.83337,3.32325,-0.824324,27,4
35.7542,20.3608,6.51675,7,12
6.5988,3.75626,-0.664301,16,5
48.1044,27.3827,10.7593,16,13
7.60332,4.32631,-0.458463,43,6
8.92658,5.07513,-0.179236,99,7
46.1663,26.2368,14.2283,19,15
10.7249,6.07529,0.215153,33,8
0.495163,0.280378,-0.131371,14,1
13.5476,7.6711,0.815918,23,9
0.695384,0.39359,-0.155319,99,2
18.2513,10.3261,1.83463,44,10
27.3486,15.4605,3.85741,12,11
5.85703,3.3097,-0.82603,23,4
37.6651,21.2839,6.85214,8,12
6.61815,3.73828,-0.664998,15,5
48.1928,27.2107,10.7578,16,13
7.61142,4.29582,-0.458044,43,6
37.2058,20.9901,9.8623,15,14
8.92943,5.03764,-0.178957,100,7
10.7485,6.04165,0.215223,40,8
0.502885,0.282553,-0.133171,14,1
13.5569,7.61397,0.814871,22,9
0.696754,0.39116,-0.155319,99,2
18.275,10.2555,1.83341,40,10
27.2335,15.2765,3.83401,12,11
5.88875,3.30191,-0.828955,24,4
36.8569,20.6578,6.69195,7,12
6.63116,3.71515,-0.664998,15,5
48.2417,27.0277,10.7487,16,13
7.61516,4.2647,-0.457416,39,6
37.3024,20.8818,9.8695,15,14
8.96441,5.0162,-0.179306,100,7
46.1651,25.822,14.1734,19,15
10.7741,6.00416,0.215293,38,8
0.493703,0.275017,-0.130472,14,1
13.5777,7.56035,0.814452,23,9
0.698115,0.388726,-0.155319,99,2
18.3107,10.1916,1.83341,40,10
0.728455,0.405286,-0.132031,7,3
27.376,15.2248,3.8462,12,11
5.89735,3.27838,-0.828468,24,4
31.1203,17.2929,5.63884,5,12
6.64061,3.69004,-0.66465,15,5
47.0498,26.1339,10.4617,15,13
7.6255,4.23385,-0.457102,43,6
37.147,20.6163,9.80832,15,14
8.94077,4.96003,-0.178468,97,7
46.3135,25.6826,14.19,19,15
10.8055,5.97232,0.215502,31,8
0.481014,0.265753,-0.126872,15,1
13.6075,7.51484,0.814662,24,9
0.689156,0.380592,-0.153029,100,2
18.3322,10.1199,1.83201,40,10
0.747161,0.412285,-0.135159,33,3
27.356,15.0889,3.83596,12,11
5.90354,3.2549,-0.827737,22,4
31.1805,17.1842,5.63884,5,12
6.6517,3.66588,-0.664475,17,5
47.1889,25.996,10.4724,15,13
7.64899,4.21202,-0.457626,43,6
46.7449,25.7301,12.3188,23,14
8.92299,4.90951,-0.17777,100,7
46.2674,25.4463,14.1486,19,15
10.8105,5.92592,0.215188,30,8
0.499029,0.273437,-0.131371,14,1
13.6652,7.48457,0.816546,24,9
0.690546,0.378063,-0.153029,100,2
18.4146,10.0817,1.83672,44,10
0.74513,0.407778,-0.134534,100,3
25.9804,14.2121,3.63609,11,11
5.93576,3.2457,-0.830662,29,4
31.1501,17.026,5.62257,5,12
6.66685,3.64243,-0.66465,16,5
7.65035,4.1763,-0.456788,54,6
36.7717,20.0736,9.672,15,14
8.95938,4.88887,-0.178154,100,7
10.811,5.8748,0.214769,32,8
0.513727,0.279047,-0.134971,14,1
13.6715,7.42299,0.81529,23,9
0.695378,0.377403,-0.153792,100,2
18.5022,10.0417,1.84178,36,10
0.736201,0.399392,-0.132656,35,3
24.8806,13.4922,3.47523,10,11
5.93191,3.21541,-0.828468,24,4
31.2002,16.9051,5.62038,20,12
6.66613,3.61038,-0.663255,16,5
42.9273,23.2398,9.48855,33,13
7.65858,4.14444,-0.45637,47,6
45.8618,24.8181,12.0389,22,14
8.99307,4.86456,-0.178468,100,7
45.5987,24.6551,13.8898,19,15
10.8342,5.83608,0.214804,35,8
0.514746,0.277163,-0.134971,14,1
13.6581,7.35106,0.812882,26,9
0.703607,0.378695,-0.155319,99,2
18.6442,10.0305,1.85223,45,10
0.73766,0.396691,-0.132656,43,3
24.8879,13.3784,3.46938,43,11
5.9524,3.19834,-0.829687,28,4
31.1384,16.7243,5.59816,10,12
6.69098,3.59369,-0.664475,17,5
29.9763,16.0934,6.61344,5,13
7.63428,4.0969,-0.454067,58,6
37.0707,19.8855,9.71204,15,14
8.99321,4.82212,-0.178119,100,7
45.8249,24.5608,13.9312,19,15
10.8404,5.79069,0.214525,35,8
0.49852,0.266185,-0.130472,14,1
13.6731,7.2977,0.812254,26,9
0.699728,0.373463,-0.154174,100,2
18.7354,9.99535,1.85781,33,10
0.728582,0.388537,-0.130779,48,3
25.0291,13.3418,3.48254,21,11
5.9355,3.16261,-0.825787,28,4
6.707,3.57219,-0.664824,17,5
30.1658,16.0597,6.64283,12,13
7.65911,4.07586,-0.454695,65,6
37.3395,19.8621,9.76423,15,14
8.97468,4.77192,-0.177421,100,7
38.3056,20.3589,11.6236,13,15
10.8747,5.7603,0.214804,35,8
0.499447,0.264443,-0.130472,14,1
13.6809,7.24059,0.811207,27,9
0.697557,0.369182,-0.15341,100,2
18.756,9.92243,1.85642,33,10
0.729934,0.385991,-0.130779,48,3
21.8305,11.5392,3.03187,25,11
5.94826,3.1428,-0.82603,25,4
30.5155,16.1162,5.46582,19,12
6.71943,3.54875,-0.664824,17,5
30.3501,16.0221,6.67106,24,13
7.70332,4.06494,-0.456474,50,6
37.4672,19.7626,9.77952,15,14
9.01781,4.75456,-0.177945,100,7
38.3696,20.2214,11.6215,13,15
10.8895,5.71952,0.2147,36,8
0.541776,0.284439,-0.141269,13,1
13.7043,7.19186,0.811103,25,9
0.695365,0.36492,-0.152647,100,2
18.7747,9.84857,1.85485,33,10
0.747022,0.391697,-0.133595,50,3
21.5594,11.2998,2.98872,8,11
5.93809,3.11096,-0.823106,38,4
21.3861,11.1994,3.82357,2,12
6.71589,3.51696,-0.663255,17,5
30.8251,16.1355,6.76303,18,13
7.72278,4.0408,-0.456788,43,6
42.0222,21.978,10.9484,19,14
9.02549,4.71842,-0.17777,100,7
38.6146,20.1786,11.6743,13,15
10.904,5.6787,0.214595,40,8
0.483995,0.251952,-0.125973,15,1
13.7157,7.13992,0.81037,27,9
0.701859,0.365209,-0.153792,100,2
18.7754,9.76551,1.85154,37,10
0.729106,0.379063,-0.130153,46,3
21.486,11.1659,2.97312,16,11
5.97358,3.10303,-0.826518,27,4
21.3705,11.1011,3.81419,11,12
6.71398,3.48615,-0.661861,21,5
30.7488,15.9591,6.73403,24,13
7.73861,4.01474,-0.456893,43,6
37.6112,19.5041,9.78132,15,14
9.03754,4.68662,-0.1777,100,7
38.5544,19.9847,11.636,13,15
10.9299,5.64618,0.214734,31,8
0.502143,0.259286,-0.130472,14,1
13.7245,7.08376,0.809428,24,9
0.706619,0.364557,-0.154555,100,2
18.82,9.70539,1.85258,33,10
0.730359,0.376644,-0.130153,36,3
21.6429,11.1564,2.9897,41,11
5.9556,3.06865,-0.822618,25,4
31.3717,16.1575,5.58909,19,12
6.71371,3.45631,-0.660641,23,5
31.4561,16.194,6.87714,25,13
7.72879,3.97718,-0.455532,43,6
38.3428,19.7224,9.95453,16,14
9.0414,4.64864,-0.177456,100,7
38.2149,19.6398,11.5128,13,15
10.9371,5.60161,0.21449,41,8
0.506514,0.259308,-0.131371,14,1
13.7332,7.02761,0.808486,26,9
0.706077,0.361318,-0.154174,100,2
18.8272,9.63022,1.85014,37,10
0.731669,0.374092,-0.130153,100,3
21.6039,11.041,2.97897,16,11
5.9539,3.04152,-0.820912,30,4
30.2475,15.4451,5.37916,4,12
6.74643,3.4449,-0.662732,23,5
37.7429,19.2641,8.23684,17,13
7.71772,3.93747,-0.454067,47,6
37.592,19.1706,9.74218,15,14
9.05935,4.61796,-0.177491,100,7
10.9477,5.55888,0.214316,35,8
0.514367,0.261066,-0.133171,14,1
13.7505,6.97602,0.808067,26,9
0.707333,0.358851,-0.154174,91,2
18.8234,9.54553,1.84648,44,10
5.40213,2.73829,-0.959256,7,3
21.7167,11.0032,2.98921,24,11
5.95917,3.01803,-0.820181,27,4
30.2695,15.3234,5.37352,9,12
6.76908,3.42673,-0.663778,18,5
38.0201,19.2386,8.28264,18,13
7.74389,3.91681,-0.4548,50,6
37.697,19.0586,9.75208,15,14
9.07185,4.5845,-0.177421,100,7
44.107,22.28,13.2407,18,15
10.9652,5.51972,0.214281,36,8
0.504831,0.254014,-0.130472,14,1
13.7623,6.9217,0.807335,30,9
0.70332,0.353733,-0.153029,93,2
18.8851,9.49407,1.84927,44,10
5.37989,2.70345,-0.953625,13,3
5.97676,3.00077,-0.821156,29,4
30.2151,15.1636,5.35444,18,12
6.76853,3.39682,-0.662558,16,5
37.7641,18.9439,8.21242,8,13
7.77358,3.89781,-0.455742,47,6
38.8643,19.4788,10.0364,16,14
9.10746,4.56267,-0.177805,100,7
43.0997,21.5827,12.9156,17,15
10.9701,5.47428,0.214001,36,8
0.523153,0.260948,-0.134971,14,1
13.7756,6.86827,0.806706,37,9
0.713335,0.355656,-0.154937,90,2
18.9823,9.4601,1.85555,33,10
5.37868,2.67937,-0.951747,30,3
21.5194,10.7151,2.95168,8,11
6.0103,2.99139,-0.824324,28,4
28.3631,14.1104,5.01748,20,12
6.78035,3.37317,-0.662558,15,5
30.5453,15.1894,6.63099,6,13
7.78536,3.86976,-0.455637,50,6
38.6354,19.1956,9.95993,16,14
9.10721,4.52284,-0.177491,100,7
10.9891,5.43595,0.214001,37,8
0.494364,0.244437,-0.127322,15,1
13.8174,6.82899,0.807753,30,9
0.714634,0.353039,-0.154937,72,2
19.1081,9.43967,1.86461,33,10
5.39686,2.66495,-0.953312,35,3
21.5121,10.618,2.94558,16,11
6.03495,2.97742,-0.826274,24,4
30.3167,14.9505,5.35381,18,12
6.79267,3.3483,-0.662558,16,5
25.5094,12.5688,5.52774,16,13
7.76186,3.82267,-0.453439,54,6
43.3035,21.3267,11.1441,19,14
9.12474,4.49191,-0.177526,100,7
39.2366,19.3068,11.7173,27,15
11.0216,5.4018,0.214246,38,8
0.491756,0.240909,-0.126422,15,1
13.8101,6.76249,0.805869,37,9
0.715923,0.350418,-0.154937,90,2
19.1229,9.35994,1.86269,33,10
5.41369,2.64862,-0.954563,33,3
21.7221,10.6227,2.96898,16,11
6.04226,2.95354,-0.825787,22,4
30.3517,14.8298,5.35037,4,12
6.79594,3.31901,-0.661686,18,5
30.684,14.9789,6.6371,12,13
7.78479,3.79858,-0.453962,50,6
30.493,14.879,7.83325,23,14
9.12676,4.45142,-0.177247,100,7
38.7566,18.8945,11.5532,13,15
11.0269,5.35437,0.213967,38,8
0.527699,0.256123,-0.135421,13,1
13.8623,6.7282,0.807544,28,9
0.713609,0.346203,-0.154174,91,2
18.9975,9.2124,1.84718,36,10
5.42336,2.62877,-0.954563,33,3
21.5608,10.4461,2.94168,16,11
6.05789,2.93502,-0.826518,22,4
30.398,14.7211,5.34943,9,12
6.78596,3.28485,-0.659595,25,5
25.5828,12.3782,5.5243,32,13
7.79621,3.77051,-0.453857,47,6
30.3343,14.6707,7.77926,34,14
9.13684,4.41693,-0.177142,100,7
39.2067,18.9448,11.6676,27,15
11.0194,5.30564,0.213478,40,8
0.507474,0.244231,-0.130022,14,1
13.8792,6.6796,0.80723,30,9
0.714754,0.343834,-0.154174,82,2
19.2021,9.2331,1.86409,33,10
5.44629,2.61761,-0.957066,30,3
21.8655,10.5044,2.97849,8,11
6.06401,2.9132,-0.82603,23,4
25.8934,12.4338,4.54943,26,12
6.8076,3.2675,-0.660641,23,5
27.9567,13.4126,6.02727,39,13
7.81227,3.74637,-0.454067,58,6
30.4232,14.5894,7.78961,11,14
9.15324,4.38747,-0.177177,100,7
38.7101,18.5468,11.5014,13,15
11.0279,5.26476,0.213303,37,8
0.536421,0.255975,-0.13722,13,1
13.9078,6.63368,0.807544,32,9
0.726582,0.346406,-0.156463,78,2
19.4125,9.25512,1.88152,17,10
5.44067,2.59274,-0.954563,27,3
21.9486,10.4549,2.98507,24,11
6.06339,2.8869,-0.824568,31,4
26.1168,12.4291,4.58103,35,12
6.83516,3.25142,-0.662209,17,5
31.1363,14.8046,6.70159,12,13
7.81447,3.71393,-0.453439,68,6
30.6218,14.5534,7.8274,46,14
9.1667,4.35463,-0.177142,100,7
38.6088,18.3328,11.4522,26,15
11.0543,5.22772,0.213443,36,8
0.530308,0.250676,-0.135421,13,1
13.988,6.60912,0.810789,36,9
0.734948,0.347094,-0.15799,42,2
5.45193,2.57362,-0.954876,27,3
21.7911,10.282,2.9585,16,11
6.08111,2.86804,-0.825543,25,4
25.3366,11.9441,4.43648,12,12
6.83081,3.2187,-0.660641,17,5
28.5297,13.4372,6.12993,10,13
7.83165,3.68697,-0.453648,58,6
39.4482,18.5714,10.0661,16,14
9.19345,4.32611,-0.177351,100,7
39.2159,18.4453,11.6122,13,15
11.0861,5.19311,0.213687,40,8
0.510045,0.238814,-0.130022,14,1
14.0725,6.58904,0.814348,27,9
0.725486,0.339534,-0.1557,35,2
18.6821,8.73943,1.80447,3,10
5.44522,2.54609,-0.95206,31,3
21.7405,10.1609,2.94656,16,11
6.07719,2.83901,-0.823593,23,4
24.4905,11.4409,4.2813,11,12
6.85464,3.20074,-0.661861,20,5
28.5088,13.306,6.11543,45,13
7.83361,3.65454,-0.45302,54,6
39.3182,18.3344,10.0157,16,14
9.194,4.28723,-0.177072,100,7
11.0942,5.1521,0.213513,37,8
0.532046,0.246967,-0.135421,13,1
14.1389,6.56006,0.81686,26,9
0.715981,0.332043,-0.15341,28,2
18.9837,8.79984,1.83062,4,10
5.44288,2.52304,-0.950183,35,3
21.7561,10.0804,2.94412,40,11
6.08838,2.81967,-0.823837,34,4
24.5052,11.3437,4.27692,8,12
6.86034,3.17429,-0.661338,25,5
28.5279,13.1999,6.11009,25,13
7.84931,3.63022,-0.453229,58,6
9.19802,4.25008,-0.176863,100,7
38.2809,17.6802,11.2985,12,15
11.1103,5.11252,0.213478,38,8
0.543527,0.249995,-0.13812,13,1
14.1569,6.51146,0.81665,30,9
0.69924,0.321467,-0.149594,30,2
18.1257,8.32921,1.74521,10,10
5.45524,2.50567,-0.950809,45,3
21.8398,10.0267,2.9507,40,11
6.11081,2.8042,-0.825543,23,4
28.83,13.2298,5.02405,8,12
6.86721,3.14986,-0.660989,23,5
25.9325,11.8893,5.54529,16,13
7.86557,3.60446,-0.453439,47,6
38.2745,17.5315,9.71924,15,14
9.21388,4.22039,-0.176898,100,7
38.3709,17.5676,11.3078,25,15
11.1126,5.069,0.213199,40,8
0.505344,0.230405,-0.128222,14,1
14.1687,6.45703,0.816022,30,9
0.725371,0.330418,-0.154937,27,2
17.3912,7.91831,1.67182,45,10
5.46532,2.48839,-0.951122,42,3
22.0247,10.0233,2.97117,32,11
6.12188,2.78475,-0.825787,21,4
25.6877,11.6795,4.46933,25,12
6.87454,3.12422,-0.660641,25,5
26.0183,11.8243,5.55521,20,13
7.88293,3.58083,-0.453753,54,6
36.8331,16.7238,9.33907,14,14
9.2322,4.18985,-0.176967,100,7
38.3212,17.3833,11.2752,25,15
11.1265,5.02383,0.213094,41,8
0.516882,0.233273,-0.130922,14,1
14.2097,6.40998,0.816964,23,9
0.726577,0.327757,-0.154937,36,2
17.4546,7.87008,1.67513,24,10
5.47663,2.46819,-0.951435,38,3
16.6731,7.51068,2.24532,9,11
6.14339,2.76611,-0.827249,28,4
25.8819,11.6481,4.4953,34,12
6.88776,3.09982,-0.660815,20,5
28.1332,12.6554,5.99636,19,13
7.92395,3.56283,-0.455323,58,6
36.9184,16.5918,9.34447,14,14
9.24639,4.15355,-0.176932,100,7
35.6719,16.0166,10.4775,10,15
11.1422,4.98414,0.213059,45,8
0.510577,0.228285,-0.129122,14,1
14.2029,6.3473,0.81529,23,9
0.720547,0.322015,-0.15341,28,2
16.929,7.56207,1.62214,37,10
5.48882,2.45067,-0.95206,32,3
24.3926,10.8858,3.27975,9,11
6.12219,2.7309,-0.823106,27,4
29.1645,13.0032,5.05753,4,12
6.91855,3.08468,-0.662732,18,5
28.2669,12.5971,6.01544,9,13
7.92904,3.5319,-0.454904,54,6
22.5577,10.0433,5.70071,27,14
9.25718,4.11963,-0.176863,100,7
35.9429,15.9878,10.5407,10,15
11.1723,4.95089,0.213303,41,8
0.522062,0.231237,-0.131821,14,1
14.2129,6.29532,0.814662,25,9
0.703715,0.31155,-0.149594,30,2
15.9186,7.04417,1.52296,13,10
5.52264,2.44269,-0.95644,28,3
16.6071,7.34193,2.22948,47,11
6.13169,2.70951,-0.823106,31,4
26.3003,11.6217,4.55412,13,12
6.91652,3.05488,-0.661512,21,5
26.0926,11.5191,5.54415,16,13
7.93036,3.49936,-0.454276,65,6
22.5766,9.95747,5.69666,27,14
9.25066,4.08003,-0.176479,100,7
27.1537,11.9705,7.95144,5,15
11.1795,4.9098,0.213129,40,8
0.519257,0.227938,-0.130922,14,1
14.2128,6.23603,0.813406,30,9
0.679627,0.298052,-0.144252,33,2
16.9522,7.4309,1.61935,27,10
5.52166,2.42039,-0.954876,27,3
16.7132,7.32267,2.24045,28,11
6.14973,2.69314,-0.824324,32,4
25.4431,11.137,4.39894,18,12
6.90889,3.02273,-0.659769,20,5
26.1433,11.438,5.54682,20,13
7.94192,3.47304,-0.454276,65,6
22.6291,9.89113,5.70161,34,14
9.24836,4.04051,-0.176165,100,7
27.2095,11.8819,7.95558,11,15
11.1911,4.86835,0.213024,43,8
0.498604,0.216799,-0.125523,15,1
14.2088,6.17524,0.81194,30,9
0.70942,0.308318,-0.150357,39,2
15.7871,6.85786,1.50588,6,10
5.52645,2.39953,-0.95425,28,3
16.6294,7.21687,2.22582,14,11
6.15909,2.67166,-0.824324,30,4
25.5344,11.0709,4.40801,15,12
6.91391,2.99622,-0.659246,22,5
26.1452,11.3303,5.5388,44,13
7.95399,3.4453,-0.454276,58,6
22.7333,9.84227,5.71916,48,14
9.26608,4.00979,-0.176234,100,7
27.1905,11.7608,7.93798,11,15
11.2245,4.83637,0.213338,40,8
0.506517,0.218141,-0.127322,15,1
14.2193,6.12086,0.811312,35,9
0.710545,0.305715,-0.150357,39,2
15.964,6.86528,1.52034,71,10
5.53521,2.37926,-0.95425,28,3
16.7055,7.18072,2.23265,23,11
6.15561,2.64466,-0.822618,27,4
26.5076,11.3831,4.56914,26,12
6.93531,2.97678,-0.660292,25,5
26.2876,11.2777,5.56017,16,13
7.93352,3.40195,-0.452392,72,6
22.9053,9.81723,5.75335,28,14
9.30391,3.98766,-0.176688,100,7
27.3024,11.6962,7.95869,11,15
11.2587,4.80226,0.213652,41,8
0.539581,0.230039,-0.135421,13,1
14.2637,6.0781,0.812568,33,9
0.718833,0.306312,-0.151884,38,2
16.008,6.81811,1.52226,29,10
5.53985,2.35837,-0.953625,27,3
16.7153,7.11245,2.23045,42,11
6.15796,2.61898,-0.821643,29,4
21.5299,9.15219,3.70531,18,12
6.97368,2.96303,-0.662907,21,5
26.4009,11.2174,5.57582,8,13
7.94535,3.37424,-0.452392,65,6
22.839,9.69457,5.72815,48,14
9.30005,3.94573,-0.176339,100,7
27.37,11.6066,7.96593,11,15
11.2533,4.75359,0.213234,47,8
0.508065,0.214511,-0.127322,15,1
14.3768,6.0671,0.817802,30,9
0.709097,0.299097,-0.149594,40,2
15.3353,6.46526,1.45602,6,10
5.54117,2.33499,-0.952373,27,3
17.2175,7.25525,2.29407,34,11
6.17621,2.60132,-0.822862,24,4
21.5052,9.05322,3.69561,9,12
6.98949,2.94098,-0.663429,25,5
26.659,11.2119,5.62161,20,13
7.96871,3.34974,-0.45302,65,6
23.4708,9.86141,5.87752,29,14
9.31008,3.91169,-0.176269,100,7
27.079,11.3719,7.86965,11,15
11.2522,4.7046,0.212884,48,8
0.512444,0.21415,-0.128222,14,1
14.4708,6.04439,0.821884,30,9
0.717383,0.299647,-0.151121,39,2
16.1796,6.75481,1.53394,55,10
5.54929,2.31563,-0.952373,28,3
24.2298,10.1058,3.22344,19,11
6.19303,2.58171,-0.823837,32,4
25.1851,10.4939,4.32135,12,12
6.98868,2.91197,-0.662384,25,5
31.6892,13.1974,6.67259,12,13
7.98036,3.3219,-0.45302,68,6
22.5335,9.37519,5.63457,26,14
9.31882,3.87524,-0.176165,100,7
21.5923,8.97472,6.26549,13,15
11.2593,4.66148,0.21271,42,8
0.51679,0.21385,-0.129122,14,1
14.4882,5.99231,0.821675,30,9
0.718425,0.297141,-0.151121,39,2
15.1554,6.26519,1.43476,9,10
5.54821,2.29247,-0.950809,41,3
19.9991,8.25938,2.65675,44,11
6.21302,2.56463,-0.825299,32,4
21.9365,9.05054,3.75849,18,12
6.9988,2.88756,-0.662384,23,5
31.7932,13.1107,6.6848,30,13
8.00298,3.29859,-0.453648,58,6
22.6634,9.33656,5.65887,54,14
9.34523,3.84801,-0.176409,100,7
21.6717,8.91915,6.27947,6,15
11.3237,4.64186,0.213617,40,8
0.524746,0.215,-0.130922,14,1
0.71219,0.291655,-0.149594,40,2
16.4974,6.75264,1.55956,45,10
5.55801,2.27384,-0.951122,41,3
20.0793,8.21056,2.66358,38,11
6.22193,2.54293,-0.825299,32,4
21.9277,8.95747,3.75161,4,12
7.01253,2.86462,-0.662732,23,5
31.6788,12.9343,6.65122,30,13
7.99965,3.2646,-0.452811,61,6
22.6327,9.23163,5.64312,33,14
9.35491,3.81386,-0.176339,100,7
21.7993,8.88282,6.30742,6,15
11.3898,4.62261,0.21456,36,8
0.521882,0.211702,-0.130022,14,1
13.9337,5.64937,0.78797,0,9
0.713204,0.289167,-0.149594,40,2
5.56774,2.25517,-0.951435,33,3
16.7939,6.79883,2.2246,23,11
6.21237,2.51374,-0.822862,37,4
25.0189,10.1185,4.27442,11,12
7.00402,2.83265,-0.660989,26,5
25.3804,10.2595,5.32128,3,13
8.00359,3.23366,-0.452392,65,6
22.9846,9.28174,5.72275,48,14
9.36631,3.78043,-0.176304,100,7
21.7209,8.76258,6.27584,13,15
11.4486,4.59997,0.215363,45,8
0.540701,0.217141,-0.134521,14,1
0.699633,0.280825,-0.146541,42,2
14.8615,5.96222,1.40094,6,10
5.57924,2.23719,-0.95206,33,3
16.8433,6.7505,2.22802,23,11
6.22295,2.49278,-0.823106,33,4
25.894,10.3674,4.41771,12,12
7.01386,2.80819,-0.660989,25,5
32.2331,12.8988,6.74853,24,13
8.00741,3.20274,-0.451973,65,6
22.9626,9.17974,5.70926,48,14
9.3683,3.74326,-0.176095,100,7
21.8751,8.73615,6.31156,6,15
11.4831,4.56737,0.215712,48,8
0.541456,0.215253,-0.134521,14,1
14.9546,5.94211,0.843342,37,9
0.704258,0.279832,-0.147305,42,2
15.2581,6.05959,1.43633,3,10
5.58335,2.21624,-0.951435,33,3
16.6694,6.61334,2.20194,47,11
6.24268,2.47543,-0.824568,31,4
25.5462,10.1248,4.35232,15,12
6.99954,2.77414,-0.658723,28,5
