x, y, z, intensity, ring
6.0055,-2.52078,-0.799707,51,4
7.27607,-3.05559,1.24991,26,12
6.99921,-2.94076,1.47572,4,13
10.9165,-4.58886,-0.6206,13,6
7.71528,-3.24479,1.93233,32,14
11.0775,-4.6611,-0.209778,100,7
16.1457,-6.79697,4.69394,16,15
0.533878,-0.225519,-0.155291,12,0
8.09355,-3.42051,0.153372,10,8
0.488209,-0.206428,-0.122373,15,1
13.6597,-5.7785,0.777294,21,9
0.623802,-0.263889,-0.131658,26,2
6.6292,-2.80574,0.629787,20,10
5.74264,-2.43169,-0.987727,47,3
7.04445,-2.98439,0.939369,33,11
6.03321,-2.55722,-0.804581,15,4
6.8489,-2.90436,1.17826,43,12
6.26222,-2.65557,-0.595099,37,5
10.0234,-4.25469,-0.570671,16,6
7.66265,-3.25418,1.92198,31,14
11.0593,-4.69895,-0.209743,100,7
16.0881,-6.83892,4.68411,16,15
9.43155,-4.02484,0.178992,33,8
0.465979,-0.198949,-0.116975,16,1
13.6762,-5.84184,0.779387,22,9
0.597601,-0.255268,-0.126316,28,2
6.74395,-2.8821,0.641641,20,10
5.29456,-2.26379,-0.912013,45,3
6.99384,-2.99178,0.934007,24,11
5.98775,-2.56264,-0.799707,60,4
6.81148,-2.91659,1.17357,22,12
6.33302,-2.71303,-0.602769,53,5
6.98753,-2.99342,1.47762,9,13
9.9718,-4.27392,-0.568578,16,6
13.0601,-5.60028,3.28069,20,14
14.0953,-6.04707,-0.26772,90,7
13.0693,-5.6096,3.81085,28,15
10.5359,-4.53964,0.200249,28,8
0.486756,-0.209832,-0.122373,15,1
30.6492,-13.2186,1.74928,29,9
0.611082,-0.263679,-0.129368,27,2
6.737,-2.90838,0.641989,22,10
5.21188,-2.25106,-0.899185,36,3
6.86307,-2.96423,0.91792,29,11
6.00064,-2.59298,-0.802632,34,4
5.29813,-2.29051,0.914203,23,12
6.393,-2.76518,-0.609393,36,5
6.96931,-3.01589,1.4761,3,13
9.94507,-4.30568,-0.56795,37,6
10.9914,-4.76094,-0.20908,100,7
11.4969,-4.98228,3.3574,12,15
10.5485,-4.59099,0.200807,17,8
0.485984,-0.211614,-0.122373,15,1
13.5937,-5.922,0.777084,24,9
0.61731,-0.269055,-0.130895,27,2
10.3213,-4.49852,0.985034,10,10
5.81963,-2.5377,-1.00556,62,3
6.83761,-2.98301,0.91597,33,11
6.25672,-2.73089,-0.838217,45,4
5.34944,-2.336,0.924528,44,12
6.35362,-2.77583,-0.606604,53,5
13.0961,-5.72427,2.77818,10,13
9.94752,-4.3501,-0.568997,13,6
7.80076,-3.41131,1.96562,13,14
10.6917,-4.67776,-0.203704,100,7
12.9616,-5.67354,3.79118,28,15
10.8355,-4.76321,0.206602,13,8
0.485205,-0.213394,-0.122373,15,1
23.0196,-10.1289,1.31803,10,9
0.61632,-0.271316,-0.130895,27,2
30.4454,-13.4027,2.9103,36,10
5.24806,-2.31139,-0.908259,26,3
6.91201,-3.04568,0.927426,18,11
6.30661,-2.78023,-0.846261,14,4
5.283,-2.33008,0.914516,69,12
6.38715,-2.8184,-0.610787,42,5
5.2821,-2.33189,1.12234,6,13
10.6623,-4.70931,-0.610865,13,6
10.6141,-4.69025,-0.202553,100,7
12.9495,-5.72492,3.79377,27,15
10.9203,-4.84833,0.208556,20,8
0.484419,-0.215171,-0.122373,15,1
10.626,-4.72213,0.6094,31,9
0.622497,-0.276763,-0.132421,26,2
14.1257,-6.28033,1.35248,24,10
5.29551,-2.3555,-0.917958,57,3
6.85183,-3.0492,0.920845,38,11
7.20519,-3.20947,1.24929,19,12
9.1284,-4.06804,-0.874346,22,5
13.9468,-6.21825,2.96823,7,13
12.77,-5.69624,-0.732808,52,6
7.61537,-3.39696,1.92513,18,14
10.5549,-4.71037,-0.20175,100,7
5.64555,-2.53129,0.107995,33,8
0.483628,-0.216945,-0.122373,15,1
10.738,-4.81911,0.616832,59,9
0.607151,-0.27261,-0.129368,13,2
30.29,-13.6002,2.9049,18,10
5.45081,-2.44855,-0.946429,47,3
6.81888,-3.06453,0.91792,20,11
7.22761,-3.25125,1.25523,28,12
10.149,-4.56755,-0.973704,21,5
15.6424,-7.04312,3.33458,13,13
11.574,-5.2137,2.93066,46,14
10.2422,-4.61592,-0.196095,100,7
10.9524,-4.93828,3.21919,10,15
5.66628,-2.56319,0.108554,35,8
0.482906,-0.218548,-0.122373,15,1
10.5809,-4.78859,0.608667,47,9
0.606291,-0.274516,-0.129368,27,2
13.9854,-6.33522,1.34324,3,10
5.44446,-2.46743,-0.946742,66,3
6.86473,-3.11253,0.925476,24,11
5.95486,-2.70125,-0.802875,46,4
5.25471,-2.38364,0.91389,21,12
10.0802,-4.57471,-0.968475,23,5
11.2561,-5.11312,-0.647919,19,6
11.4804,-5.21739,2.91132,48,14
9.96731,-4.52976,-0.191104,100,7
8.07548,-3.68531,0.154942,36,8
0.510541,-0.233098,-0.129572,14,1
10.5823,-4.83379,0.609714,38,9
0.594615,-0.271734,-0.127079,28,2
15.1591,-6.93077,1.45829,12,10
5.49554,-2.51257,-0.957066,47,3
6.84534,-3.13115,0.924257,24,11
5.90797,-2.70363,-0.797757,62,4
7.28132,-3.33365,1.26837,30,12
5.3038,-2.42939,-0.510384,10,5
5.25837,-2.40858,1.12425,9,13
11.2609,-5.1604,-0.649175,6,6
11.8155,-5.41705,3.00085,44,14
9.93326,-4.55619,-0.190755,100,7
10.1872,-4.67482,3.00334,34,15
5.61601,-2.58664,0.107926,66,8
0.481407,-0.22183,-0.122373,15,1
10.5654,-4.8707,0.609714,53,9
0.593663,-0.273808,-0.127079,28,2
14.8357,-6.84248,1.42935,6,10
5.83111,-2.69065,-1.01714,88,3
7.10111,-3.27817,0.960331,11,11
6.00843,-2.77501,-0.812625,50,4
5.71305,-2.64101,-0.55065,20,5
5.43661,-2.51437,1.16432,11,13
6.3297,-2.92875,-0.365514,27,6
11.8443,-5.48035,3.01299,40,14
9.89733,-4.5816,-0.190371,100,7
10.155,-4.70304,2.99868,35,15
5.59923,-2.60383,0.107786,23,8
0.48059,-0.223593,-0.122373,15,1
10.4804,-4.87821,0.605841,43,9
0.606894,-0.282612,-0.130132,27,2
7.04944,-3.28271,0.680338,20,10
5.99311,-2.79209,-1.04717,50,3
5.56328,-2.59302,0.75364,2,11
5.28037,-2.46228,-0.715373,47,4
7.28593,-3.39903,1.27338,9,12
11.7028,-5.46206,-1.12989,11,5
11.5396,-5.38835,2.47556,15,13
10.4664,-4.88946,-0.605422,20,6
11.7764,-5.50146,3.00085,42,14
10.7301,-5.01494,-0.206741,77,7
10.2147,-4.77624,3.02145,37,15
5.63672,-2.64643,0.108694,46,8
0.479768,-0.225353,-0.122373,15,1
10.4806,-4.92508,0.606888,42,9
0.598796,-0.281389,-0.128605,28,2
7.00851,-3.29497,0.677549,35,10
5.43406,-2.55592,-0.951122,18,3
5.4801,-2.57874,0.743647,27,11
5.26233,-2.47739,-0.714154,53,4
5.33351,-2.51204,-0.515788,15,5
11.3431,-5.34492,2.43739,14,13
10.4204,-4.91233,-0.603748,20,6
11.8144,-5.57201,3.01569,23,14
10.3644,-4.8904,-0.200039,47,7
10.1465,-4.78973,3.00644,34,15
10.1327,-4.80051,0.195711,22,8
0.457847,-0.21701,-0.116975,16,1
10.5247,-4.99073,0.610447,48,9
0.59781,-0.283478,-0.128605,28,2
6.95556,-3.29977,0.67354,11,10
5.17527,-2.45629,-0.90732,65,3
11.2703,-5.35153,1.5319,28,11
4.9242,-2.34029,0.863518,64,12
5.31931,-2.52807,-0.515265,32,5
10.3905,-4.94267,-0.603015,33,6
9.48444,-4.51369,2.42497,19,14
10.7138,-5.10105,-0.207125,67,7
10.1663,-4.84256,3.01731,33,15
10.087,-4.82205,0.195153,38,8
0.492247,-0.235423,-0.125973,15,1
10.4774,-5.01096,0.608667,41,9
0.589733,-0.282173,-0.127079,28,2
12.3119,-5.89361,1.19421,55,10
5.04551,-2.41632,-0.886045,57,3
11.0081,-5.27418,1.49875,10,11
5.35052,-2.56469,-0.728535,8,4
7.03618,-3.37268,1.23583,15,12
5.33202,-2.55696,-0.517356,30,5
10.375,-4.97978,-0.60312,13,6
9.48268,-4.55352,2.42857,61,14
10.1993,-4.89764,-0.197491,56,7
10.1676,-4.88461,3.02249,35,15
9.87999,-4.76341,0.191453,37,8
0.477422,-0.230281,-0.122373,15,1
10.5031,-5.06833,0.611179,47,9
0.592281,-0.285937,-0.127842,28,2
5.17622,-2.50005,-0.910449,51,3
5.01535,-2.42344,0.683931,14,11
5.33663,-2.57983,-0.727804,11,4
5.34418,-2.58578,1.15401,15,13
9.57822,-4.63648,-0.557692,3,6
9.47103,-4.58664,2.42947,24,14
10.1588,-4.92188,-0.197038,84,7
10.1905,-4.93946,3.03439,30,15
9.87409,-4.80312,0.191662,36,8
0.476615,-0.231946,-0.122373,15,1
10.5481,-5.13556,0.614843,43,9
0.591279,-0.288003,-0.127842,28,2
10.4176,-5.07428,1.0138,31,10
5.21363,-2.5406,-0.918583,46,3
5.01221,-2.44354,0.684662,42,11
5.48817,-2.67676,-0.74974,48,4
5.30994,-2.59098,0.935791,29,12
5.35937,-2.61741,1.15936,12,13
9.53963,-4.66104,-0.556436,7,6
5.49439,-2.68454,1.41179,37,14
10.3643,-5.0662,-0.201366,38,7
10.2235,-4.99961,3.04941,27,15
5.52864,-2.71444,0.107507,15,8
0.475762,-0.233691,-0.122373,15,1
10.6637,-5.24025,0.622693,20,9
0.593743,-0.2919,-0.128605,28,2
10.3489,-5.08781,1.00891,36,10
5.07311,-2.49518,-0.895431,57,3
9.81943,-4.83176,1.34373,12,11
5.41242,-2.66441,-0.740722,67,4
5.19762,-2.5598,0.917645,53,12
5.81921,-2.86719,-0.567558,35,5
10.9865,-5.41556,2.38091,17,13
9.41501,-4.64297,-0.550156,45,6
9.43797,-4.65429,2.42947,45,14
9.58349,-4.72813,-0.186531,63,7
10.3143,-5.09091,3.08202,23,15
9.83682,-4.87448,0.191627,41,8
0.474902,-0.235434,-0.122373,15,1
5.66664,-2.81048,0.331496,26,9
0.57865,-0.286993,-0.125552,29,2
4.98127,-2.47164,0.486503,22,10
4.96839,-2.46633,-0.878536,52,3
5.16129,-2.56321,0.707573,45,11
5.02218,-2.49522,-0.688562,38,4
5.28019,-2.62456,0.933914,57,12
5.73423,-2.85024,-0.560237,28,5
9.38622,-4.66958,-0.549423,49,6
9.47144,-4.71403,2.44252,47,14
9.584,-4.77214,-0.18688,54,7
10.3682,-5.16486,3.10376,21,15
9.89308,-4.94545,0.193059,36,8
0.46362,-0.23186,-0.119674,16,1
10.408,-5.2074,0.609923,7,9
0.588179,-0.294281,-0.127842,28,2
10.2249,-5.11804,1.00037,10,10
4.95092,-2.47923,-0.876972,51,3
5.05292,-2.53142,0.693924,55,11
5.00989,-2.51095,-0.688074,49,4
5.17034,-2.5925,0.91608,97,12
4.99581,-2.50499,-0.488944,30,5
4.90477,-2.46041,1.06662,20,13
9.37701,-4.70589,-0.549842,31,6
5.45805,-2.74034,1.40999,21,14
9.59051,-4.81723,-0.187334,45,7
10.3622,-5.20709,3.10738,28,15
9.75792,-4.92053,0.190755,43,8
0.473247,-0.238743,-0.122373,15,1
0.597665,-0.30164,-0.130132,27,2
4.90342,-2.47582,0.480577,20,10
5.23668,-2.64524,-0.929221,35,3
10.5505,-5.33177,1.45146,27,11
4.99578,-2.52574,-0.687343,38,4
5.28818,-2.67473,0.938607,51,12
4.97592,-2.51788,-0.487898,6,5
4.989,-2.5245,1.08685,26,13
9.31954,-4.71785,-0.547434,14,6
5.43976,-2.75497,1.40774,19,14
9.57185,-4.84978,-0.187299,63,7
10.5007,-5.32271,3.15449,15,15
9.84941,-5.00986,0.192884,28,8
0.451569,-0.229788,-0.116975,16,1
5.58885,-2.8452,0.32867,37,9
0.600054,-0.305611,-0.130895,27,2
5.28664,-2.69368,0.5191,33,10
5.0052,-2.55138,-0.889799,46,3
10.5354,-5.37037,1.45195,37,11
5.25043,-2.67753,-0.72366,47,4
5.34744,-2.72818,0.950809,77,12
4.86956,-2.48652,1.06281,27,13
9.25416,-4.72744,-0.544608,35,6
9.33222,-4.76937,2.41957,21,14
9.8184,-5.01784,-0.192465,27,7
10.6231,-5.43145,3.19693,27,15
9.61749,-4.93636,0.188695,45,8
0.485395,-0.249245,-0.125973,15,1
10.3395,-5.31152,0.609191,40,9
0.574535,-0.295144,-0.125552,29,2
5.42606,-2.78862,0.533742,48,10
5.00856,-2.57516,-0.891989,52,3
5.06982,-2.60777,0.700018,10,11
5.56359,-2.86298,-0.768264,38,4
5.17933,-2.66639,0.922651,59,12
5.99274,-3.08514,-0.589696,33,5
4.91844,-2.53316,1.0754,27,13
9.19499,-4.73776,-0.542096,38,6
5.44242,-2.80544,1.41359,41,14
10.7241,-5.5304,-0.210616,96,7
10.3199,-5.3242,3.11152,24,15
9.55936,-4.94875,0.187893,26,8
0.453374,-0.234806,-0.117874,16,1
10.2234,-5.29705,0.603434,26,9
0.576988,-0.298954,-0.126316,28,2
5.03637,-2.61172,-0.89856,10,3
5.12059,-2.65653,0.708305,27,11
5.59937,-2.90616,-0.774602,53,4
5.26291,-2.7327,0.939233,65,12
5.69902,-2.95914,-0.561806,31,5
9.18194,-4.77167,-0.542305,28,6
5.36862,-2.79116,1.39695,13,14
9.49662,-4.93941,-0.186845,45,7
10.4726,-5.44937,3.16329,8,15
9.70688,-5.06816,0.191139,20,8
0.494007,-0.258041,-0.128672,14,1
10.3164,-5.39098,0.610028,56,9
0.581161,-0.303694,-0.12746,28,2
5.65213,-2.95612,-1.01025,65,3
5.06556,-2.65046,0.701967,2,11
5.6015,-2.93213,-0.776308,47,4
4.9891,-2.61267,0.891989,38,12
5.79808,-3.03632,-0.572613,13,5
5.41192,-2.8353,1.1876,12,13
5.97748,-3.13293,-0.353686,20,6
5.36575,-2.8135,1.39875,33,14
9.49348,-4.97996,-0.187125,100,7
10.4056,-5.46075,3.14879,15,15
9.72982,-5.12345,0.191942,48,8
0.482758,-0.254314,-0.125973,15,1
10.2692,-5.41206,0.608353,33,9
0.583571,-0.307552,-0.128224,28,2
4.94289,-2.60719,-0.885106,47,3
5.07734,-2.67925,0.704892,15,11
5.63512,-2.97483,-0.782401,41,4
4.98519,-2.63284,0.892928,10,12
4.70244,-2.48456,1.0338,6,13
5.95591,-3.14817,-0.353058,40,6
9.50934,-5.02856,2.48346,46,14
9.42655,-4.98689,-0.186147,36,7
10.4309,-5.52054,3.16225,9,15
9.48052,-5.03452,0.187369,46,8
0.4681,-0.248683,-0.122373,15,1
10.3226,-5.4863,0.612645,47,9
0.59983,-0.318801,-0.13204,26,2
5.41298,-2.87813,0.536356,43,10
5.2965,-2.81739,-0.950183,22,3
5.0627,-2.69415,0.704161,27,11
5.65625,-3.01128,-0.786789,41,4
5.98014,-3.18773,-0.355152,40,6
9.60006,-5.1195,2.5118,45,14
9.47084,-5.05271,-0.187369,63,7
10.3519,-5.52508,3.14413,34,15
9.57395,-5.12705,0.189568,48,8
0.467229,-0.250316,-0.122373,15,1
4.79697,-2.57104,0.285231,9,9
0.567566,-0.304199,-0.125171,29,2
4.80239,-2.57502,0.476742,28,10
4.67738,-2.50904,-0.840679,28,3
5.06027,-2.71556,0.705136,57,11
5.72615,-3.0742,-0.798001,14,4
5.39653,-2.89845,0.970207,71,12
5.88708,-3.16192,-0.584641,43,5
4.75589,-2.55543,1.04945,9,13
6.00592,-3.22845,-0.35735,20,6
9.59414,-5.15944,2.51495,45,14
9.33163,-5.02036,-0.184961,100,7
10.2832,-5.53463,3.12912,18,15
9.41523,-5.08443,0.186776,52,8
0.466352,-0.251945,-0.122373,15,1
5.56107,-3.0056,0.331287,16,9
0.566447,-0.306277,-0.125171,29,2
4.73728,-2.56144,0.471164,22,10
4.66164,-2.52159,-0.839427,62,3
4.92331,-2.66424,0.687343,35,11
8.81922,-4.7745,-1.23137,12,4
5.30821,-2.87493,0.956128,47,12
5.8194,-3.1531,-0.579063,37,5
9.38251,-5.08581,2.07448,10,13
12.564,-6.81316,-0.749032,19,6
9.71826,-5.27,2.55229,43,14
9.29823,-5.04433,-0.184646,100,7
10.2435,-5.55943,3.12291,8,15
9.40707,-5.12464,0.186985,45,8
0.465426,-0.253653,-0.122373,15,1
4.76793,-2.59956,0.284603,14,9
0.582556,-0.317752,-0.128987,13,2
4.71562,-2.57211,0.469944,20,10
4.64543,-2.53488,-0.838176,36,3
4.89783,-2.67371,0.685149,11,11
5.94269,-3.24544,-0.831393,3,4
5.28724,-2.88869,0.95425,48,12
5.71864,-3.12568,-0.570173,10,5
5.35542,-2.92836,1.18645,21,13
6.08021,-3.32606,-0.363212,40,6
9.8083,-5.36544,2.58109,52,14
9.27793,-5.07741,-0.184612,100,7
10.2501,-5.61178,3.13119,44,15
9.38822,-5.15908,0.186985,41,8
0.464493,-0.255357,-0.122373,15,1
4.78287,-2.63049,0.286068,32,9
0.591708,-0.325563,-0.131277,27,2
5.32585,-2.93033,0.531824,9,10
4.95972,-2.73001,-0.896683,22,3
4.84278,-2.66675,0.678812,30,11
8.21021,-4.52294,-1.15093,11,4
5.14167,-2.83367,0.929847,75,12
5.66178,-3.1216,-0.565641,16,5
5.36012,-2.95651,1.18988,16,13
6.05224,-3.33964,-0.36227,67,6
9.64695,-5.32321,2.54375,39,14
9.26451,-5.11428,-0.184716,100,7
10.2802,-5.67733,3.14672,26,15
9.39373,-5.20703,0.187474,58,8
0.453328,-0.251387,-0.119674,16,1
4.78542,-2.65479,0.286801,22,9
0.573345,-0.318203,-0.12746,28,2
4.98931,-2.76903,0.499228,31,10
5.01704,-2.78557,-0.908884,55,3
4.89198,-2.71725,0.687099,28,11
4.91927,-2.73353,-0.690999,25,4
5.15543,-2.86594,0.934227,62,12
5.63115,-3.13168,-0.563723,13,5
5.45734,-3.03627,1.21393,22,13
6.01204,-3.34626,-0.360595,20,6
9.66995,-5.38222,2.55499,45,14
9.25443,-5.15307,-0.184891,100,7
9.59947,-5.34739,2.94433,4,15
9.38689,-5.24401,0.187683,55,8
0.483112,-0.270002,-0.127772,14,1
4.76834,-2.66494,0.286278,9,9
0.582624,-0.325751,-0.12975,27,2
5.39047,-3.0151,0.540366,15,10
4.95606,-2.77325,-0.899498,22,3
4.97648,-2.78582,0.700261,20,11
7.86841,-4.40652,-1.1073,17,4
5.13778,-2.87729,0.932662,82,12
11.6997,-6.55483,-1.17329,30,5
5.37927,-3.015,1.19866,15,13
9.19475,-5.15563,-0.552458,21,6
9.58406,-5.37612,2.537,52,14
9.22425,-5.17429,-0.184612,100,7
9.58936,-5.3813,2.9464,0,15
9.43566,-5.31239,0.18901,30,8
0.482214,-0.271603,-0.127772,14,1
5.51767,-3.10904,0.331915,18,9
0.560961,-0.316214,-0.125171,14,2
5.20493,-2.93522,-0.946429,62,3
4.90324,-2.76622,0.691243,10,11
7.18127,-4.05304,-1.01249,41,4
5.0417,-2.84665,0.917019,39,12
5.6623,-3.19836,-0.568953,16,5
5.37779,-3.03765,1.20057,7,13
5.6408,-3.18751,-0.339556,26,6
9.46779,-5.35225,2.5109,50,14
9.2392,-5.22516,-0.185275,100,7
9.64114,-5.45469,2.96814,0,15
5.95284,-3.37893,0.119479,17,8
0.460928,-0.261737,-0.122373,15,1
10.015,-5.68932,0.603643,15,9
0.563323,-0.320012,-0.125934,29,2
5.0459,-2.86764,0.507769,18,10
5.14657,-2.92603,-0.937668,43,3
4.87458,-2.77252,0.688562,4,11
7.11704,-4.04962,-1.00542,16,4
5.66864,-3.22678,1.03309,66,12
5.66551,-3.225,-0.570347,28,5
5.33303,-3.03697,1.19294,22,13
5.61575,-3.19927,-0.338718,48,6
9.61835,-5.48176,2.55589,37,14
9.6274,-5.48915,-0.193442,64,7
9.61533,-5.48448,2.96607,0,15
5.94621,-3.40267,0.119584,15,8
0.460011,-0.263344,-0.122373,15,1
5.01054,-2.86957,0.302607,35,9
0.558795,-0.320025,-0.125171,29,2
4.81285,-2.75746,0.485283,28,10
4.92209,-2.82119,-0.89856,53,3
6.00833,-3.44518,0.850404,23,11
8.06713,-4.62757,-1.14192,16,4
5.15534,-2.95847,0.941423,61,12
5.3275,-3.0585,1.19408,34,13
9.15329,-5.257,-0.553191,31,6
9.46399,-5.43764,2.5199,54,14
9.73648,-5.59646,-0.196025,37,7
9.58942,-5.51416,2.964,11,15
5.49953,-3.1726,0.110823,15,8
0.459089,-0.264949,-0.122373,15,1
5.06622,-2.92499,0.306584,16,9
0.550818,-0.318143,-0.123644,29,2
4.79284,-2.76827,0.484237,67,10
4.94984,-2.8601,-0.905443,57,3
6.00314,-3.47011,0.851379,33,11
5.06426,-2.92857,-0.718298,29,4
5.64255,-3.2643,1.03247,65,12
5.71816,-3.30937,-0.578017,6,5
5.37742,-3.11342,1.20782,19,13
9.14433,-5.29652,-0.553819,45,6
9.43314,-5.4638,2.51675,43,14
9.58193,-5.55221,-0.193303,74,7
9.50494,-5.50982,2.94381,11,15
9.44259,-5.49351,0.190685,28,8
0.458115,-0.266629,-0.122373,15,1
5.04166,-2.9355,0.305747,22,9
0.549649,-0.32016,-0.123644,29,2
4.8016,-2.79684,0.486155,50,10
4.97176,-2.89712,-0.911387,22,3
5.75886,-3.35712,0.818475,28,11
7.98751,-4.65818,-1.13533,26,4
5.12039,-2.98732,0.93892,28,12
5.68535,-3.31826,-0.575925,5,5
5.34902,-3.12321,1.204,20,13
9.17832,-5.36123,-0.557064,17,6
9.38445,-5.48163,2.5091,60,14
9.54425,-5.57721,-0.192954,27,7
9.53137,-5.57192,2.9583,27,15
9.39652,-5.5129,0.190161,33,8
0.473941,-0.278171,-0.126872,15,1
5.02742,-2.95193,0.305537,7,9
0.548528,-0.322077,-0.123644,29,2
4.86863,-2.85983,0.493999,33,10
8.14418,-4.78581,-1.49614,22,3
5.90738,-3.47277,0.841386,26,11
8.05594,-4.73774,-1.14752,42,4
5.64571,-3.3216,1.03747,35,12
10.1712,-5.9841,-1.03245,15,5
9.95879,-5.86149,2.2462,32,13
9.1716,-5.40033,-0.557797,27,6
9.36261,-5.515,2.50865,63,14
9.56509,-5.63652,-0.193792,18,7
9.46595,-5.58033,2.94433,4,15
9.33935,-5.52328,0.189394,40,8
0.476322,-0.281808,-0.127772,14,1
0.557537,-0.329989,-0.125934,29,2
4.76432,-2.82098,0.484412,35,10
8.10193,-4.79911,-1.49145,7,3
5.79617,-3.43468,0.827249,61,11
8.11448,-4.81037,-1.15825,26,4
5.62049,-3.33322,1.03497,54,12
8.08178,-4.79289,-0.822053,17,5
9.95009,-5.90323,2.24887,9,13
5.49608,-3.26204,-0.33495,13,6
9.37179,-5.56456,2.5163,50,14
9.52129,-5.65557,-0.193303,92,7
9.46303,-5.6232,2.9495,0,15
9.3183,-5.55482,0.189359,16,8
0.455251,-0.271492,-0.122373,15,1
4.9621,-2.96035,0.302816,32,9
0.564812,-0.336963,-0.127842,14,2
4.74418,-2.83147,0.483366,9,10
8.0139,-4.78483,-1.47831,13,3
5.70575,-3.40806,0.816037,54,11
8.21863,-4.91096,-1.17555,53,4
5.6936,-3.4035,1.05061,11,12
8.05389,-4.81634,-0.821007,8,5
9.93616,-5.94196,2.2504,9,13
9.59473,-5.74005,-0.585953,13,6
9.40582,-5.62927,2.5307,50,14
19.3358,-11.5768,-0.393377,16,7
9.43174,-5.64925,2.94588,3,15
9.57482,-5.75313,0.194978,21,8
0.434258,-0.261031,-0.116975,16,1
9.9377,-5.97589,0.607725,10,9
0.560208,-0.337007,-0.127079,28,2
4.77304,-2.87247,0.487375,20,10
7.99461,-4.81315,-1.47799,47,3
5.70573,-3.43513,0.817743,26,11
8.64867,-5.20898,-1.23966,35,4
5.66138,-3.41112,1.04686,26,12
8.0558,-4.85574,-0.822924,16,5
9.90255,-5.97124,2.24773,28,13
9.13411,-5.51005,-0.559053,37,6
9.37845,-5.65968,2.5289,52,14
9.49013,-5.72707,-0.193477,55,7
9.40204,-5.67615,2.94277,1,15
9.28173,-5.62343,0.189428,7,8
0.453296,-0.274742,-0.122373,15,1
4.96128,-3.00821,0.304072,6,9
0.538884,-0.326745,-0.122499,30,2
8.64184,-5.24194,0.884282,30,10
7.99972,-4.85435,-1.48206,18,3
4.6495,-2.8225,0.667844,2,11
8.02039,-4.87073,-1.15215,31,4
5.67754,-3.44928,1.05218,24,12
10.1009,-6.1366,-1.03402,4,5
9.85144,-5.98742,2.24086,11,13
9.47933,-5.76805,-0.193687,46,7
4.5619,-2.78569,0.0933006,38,8
0.435705,-0.266164,-0.117874,16,1
10.7672,-6.58009,0.661317,21,9
0.54109,-0.330672,-0.123263,30,2
4.69677,-2.87142,0.481623,48,10
8.10911,-4.95954,-1.50553,11,3
4.66502,-2.85425,0.6715,38,11
8.00165,-4.89766,-1.15191,30,4
9.12067,-5.58478,1.69387,45,12
5.03969,-3.08591,-0.517008,5,5
9.81207,-6.01049,2.23666,19,13
9.11245,-5.58412,-0.560099,30,6
14.8169,-9.0869,-0.303393,7,7
4.8609,-2.98226,1.52807,5,15
4.55726,-2.80474,0.0934053,66,8
0.431454,-0.26564,-0.116975,16,1
5.87377,-3.61781,0.361537,29,9
0.546619,-0.336677,-0.124789,29,2
4.68502,-2.88676,0.481448,15,10
6.73472,-4.15133,-1.25304,2,3
4.67362,-2.88198,0.674181,23,11
7.99802,-4.93389,-1.15386,35,4
9.19022,-5.67156,1.71045,31,12
5.04754,-3.11499,-0.518925,13,5
9.78936,-6.04367,2.23628,15,13
9.1031,-5.62219,-0.560727,30,6
9.6121,-5.93887,2.60853,40,14
5.22206,-3.22773,-0.107158,10,7
4.53555,-2.81325,0.0931609,70,8
0.450394,-0.279474,-0.122373,15,1
5.74402,-3.56561,0.354314,8,9
0.542104,-0.336512,-0.124026,14,2
4.70708,-2.92306,0.48476,24,10
6.72858,-4.18003,-1.2546,15,3
4.69388,-2.91714,0.678569,26,11
7.92343,-4.92615,-1.14557,52,4
9.19888,-5.72134,1.71577,40,12
10.0462,-6.24835,-1.03506,4,5
9.75153,-6.06743,2.23247,5,13
9.06137,-5.64021,-0.559367,23,6
9.6244,-5.99299,2.61753,44,14
5.187,-3.23113,-0.106669,31,7
4.87439,-3.03758,1.53894,106,15
4.55622,-2.84815,0.0937892,88,8
0.429589,-0.268645,-0.116975,16,1
0.564228,-0.35298,-0.129368,13,2
4.68502,-2.93208,0.48354,61,10
4.47541,-2.80198,-0.836299,5,3
4.6904,-2.93772,0.679543,26,11
7.85404,-4.9211,-1.13802,55,4
9.09851,-5.70306,1.70076,44,12
10.0604,-6.30841,-1.0389,9,5
4.78814,-3.00359,-0.296222,24,6
9.55886,-5.99858,2.60538,46,14
5.17399,-3.24816,-0.106634,42,7
4.54625,-2.86403,0.0937892,24,8
0.448432,-0.282612,-0.122373,15,1
0.539683,-0.340383,-0.124026,29,2
5.23199,-3.30114,0.541237,26,10
4.46343,-2.81731,-0.835986,47,3
4.71369,-2.97526,0.684418,26,11
7.91738,-4.99936,-1.14972,55,4
9.09859,-5.74745,1.70451,42,12
10.0534,-6.35307,-1.04047,22,5
5.14932,-3.25526,1.18416,8,13
4.85475,-3.07023,-0.301036,15,6
5.14635,-3.2559,1.40594,11,14
5.25557,-3.325,-0.108554,10,7
4.86776,-3.08084,1.5436,33,15
18.3269,-11.6396,0.378962,9,8
0.447393,-0.284253,-0.122373,15,1
4.59324,-2.91946,0.285231,15,9
0.548433,-0.348583,-0.126316,28,2
4.67233,-2.97087,0.484412,65,10
6.73036,-4.28111,-1.26336,28,3
4.72285,-3.00531,0.687343,14,11
7.87054,-5.01022,-1.14557,49,4
9.0808,-5.78288,1.70514,45,12
10.0363,-6.39133,-1.04099,4,5
5.07666,-3.23419,1.17004,8,13
4.87432,-3.10648,-0.302921,15,6
9.48611,-6.04797,2.59728,24,14
5.23997,-3.34209,-0.108484,10,7
4.83363,-3.08411,1.53635,48,15
18.2255,-11.6647,0.377705,11,8
0.446398,-0.285813,-0.122373,15,1
4.54939,-2.91393,0.283138,17,9
0.524067,-0.335671,-0.120973,30,2
4.67032,-2.99254,0.485283,60,10
10.9212,-7.00054,-2.05461,11,3
4.69395,-3.00999,0.684662,23,11
7.94322,-5.09555,-1.15873,11,4
9.06721,-5.81881,1.70639,11,12
10.0105,-6.42418,-1.04064,11,5
9.68461,-6.21741,2.23704,13,13
11.273,-7.2399,-0.702139,16,6
9.43707,-6.06314,2.58964,44,14
5.16435,-3.31928,-0.107158,52,7
4.80984,-3.0926,1.53221,50,15
9.95696,-6.42174,0.206811,5,8
0.468323,-0.302161,-0.128672,14,1
4.52576,-2.92113,0.2823,43,9
0.552584,-0.356662,-0.127842,14,2
10.8602,-7.01504,-2.04773,17,3
5.33532,-3.44761,0.779964,27,11
7.90372,-5.10923,-1.15557,15,4
9.09328,-5.88046,1.71515,16,12
10.0806,-6.52143,-1.0504,11,5
12.6695,-8.19627,2.93312,10,13
11.1906,-7.24231,-0.69858,19,6
5.17741,-3.35198,1.42394,11,14
5.14266,-3.33076,-0.106948,47,7
4.80874,-3.11568,1.53531,48,15
11.2088,-7.28463,0.233339,15,8
0.444392,-0.288923,-0.122373,15,1
0.534817,-0.347978,-0.124026,29,2
4.22799,-2.75199,0.441357,57,10
6.66619,-4.34067,-1.25992,12,3
4.63289,-3.01669,0.678812,4,11
10.7368,-6.99388,-1.57333,13,4
5.10567,-3.32707,0.965201,22,12
10.4467,-6.81009,-1.09102,26,5
9.02956,-5.89079,-0.565019,16,6
9.3559,-6.10602,2.57929,15,14
10.5668,-6.89629,-0.220249,9,7
4.77842,-3.11977,1.5291,25,15
6.63895,-4.34937,0.138537,60,8
0.44333,-0.290549,-0.122373,15,1
0.540166,-0.354148,-0.125552,14,2
4.27833,-2.80606,0.447632,35,10
6.65265,-4.36499,-1.26024,13,3
4.63674,-3.04345,0.681006,26,11
11.569,-7.59649,-1.69935,43,4
8.05317,-5.28994,-0.84297,17,5
5.05668,-3.32288,1.17615,24,13
8.13776,-5.34957,-0.51038,45,6
5.17771,-3.405,1.43069,14,14
5.08027,-3.3422,-0.106146,41,7
4.796,-3.15638,1.53842,4,15
6.51358,-4.29981,0.136233,27,8
0.442313,-0.292095,-0.122373,15,1
11.1385,-7.35847,0.699627,17,9
0.538927,-0.356032,-0.125552,14,2
4.20535,-2.77924,0.441008,50,10
6.57476,-4.34679,-1.24835,21,3
4.61947,-3.05524,0.680031,78,11
11.5308,-7.62916,-1.69764,8,4
5.09656,-3.37334,0.968017,42,12
5.35477,-3.54425,-0.561806,10,5
12.6781,-8.39464,2.95563,12,13
8.12902,-5.38457,-0.511008,63,6
5.1333,-3.40153,1.42169,17,14
5.07191,-3.36212,-0.106215,100,7
4.76242,-3.15816,1.53117,7,15
6.29873,-4.18962,0.132045,57,8
0.421822,-0.280683,-0.116975,16,1
11.0829,-7.37738,0.697743,26,9
0.527875,-0.351384,-0.123263,15,2
4.18235,-2.78507,0.439614,36,10
4.52263,-3.0128,-0.860703,10,3
4.67155,-3.11318,0.689293,19,11
4.4761,-2.98406,-0.660532,25,4
8.89092,-5.92951,1.69262,44,12
11.4853,-7.65978,-1.2078,27,5
12.6569,-8.44429,2.95754,7,13
5.22188,-3.48651,1.44958,37,14
5.06513,-3.38313,-0.10632,52,7
10.1468,-6.77991,3.26992,11,15
6.20932,-4.16148,0.130474,31,8
0.440263,-0.295176,-0.122373,15,1
11.067,-7.4227,0.698371,24,9
0.529906,-0.355411,-0.124026,29,2
4.22224,-2.83295,0.444843,56,10
7.98596,-5.36027,-1.52336,11,3
5.29679,-3.55661,0.783376,60,11
4.46566,-2.99967,-0.660532,43,4
8.84557,-5.94398,1.68793,60,12
7.95434,-5.34509,-0.838438,34,5
12.0277,-8.08536,2.8171,3,13
4.94225,-3.32356,-0.312132,9,6
5.18058,-3.48514,1.44149,25,14
5.09311,-3.42759,-0.107158,57,7
10.2032,-6.86923,3.2958,15,15
0.439179,-0.296788,-0.122373,15,1
11.0199,-7.44979,0.697115,48,9
0.541612,-0.366147,-0.127079,28,2
4.24154,-2.8685,0.447981,19,10
4.57622,-3.09601,-0.875095,36,3
4.44148,-3.00711,-0.658582,16,4
8.80083,-5.96085,1.68355,42,12
7.91819,-5.36304,-0.836695,19,5
4.90518,-3.32356,1.15172,12,13
7.91418,-5.36435,-0.501064,7,6
5.09519,-3.45489,1.42124,48,14
5.04907,-3.42491,-0.106495,26,7
5.11973,-3.48459,0.1081,30,8
0.425254,-0.289545,-0.118774,16,1
11.0317,-7.51407,0.699522,33,9
0.524104,-0.356984,-0.123263,15,2
4.16728,-2.83953,0.441182,50,10
4.57028,-3.1153,-0.876033,50,3
4.46921,-3.04754,0.664188,11,11
4.4736,-3.05168,-0.664919,9,4
8.78976,-5.99821,1.68543,36,12
6.64704,-4.536,-0.704044,13,5
4.89193,-3.33955,1.15134,8,13
4.92824,-3.3656,-0.31276,12,6
5.16999,-3.53202,1.44554,44,14
18.4247,-12.5921,-0.389538,80,7
0.437096,-0.299847,-0.122373,15,1
17.9121,-12.2922,1.13852,12,9
0.532567,-0.365476,-0.125552,14,2
4.28711,-2.94315,0.454953,29,10
4.53496,-3.11446,-0.87134,16,3
4.53381,-3.11483,0.6754,26,11
9.30538,-6.39541,-1.38639,5,4
8.76551,-6.02662,1.6848,57,12
6.63201,-4.56146,-0.704218,10,5
4.88186,-3.35772,1.15172,11,13
4.93291,-3.3941,-0.313806,21,6
11.3792,-7.83534,-0.241157,25,7
4.77124,-3.28654,1.5524,13,15
5.06401,-3.49865,0.107437,33,8
0.464903,-0.321314,-0.130472,14,1
5.49362,-3.79829,0.350023,6,9
0.524765,-0.362958,-0.124026,29,2
4.31234,-2.98378,0.458788,14,10
10.5868,-7.32791,-2.03928,6,3
9.16497,-6.34376,1.36859,32,11
7.89577,-5.46729,-1.17921,5,4
8.73143,-6.04818,1.6823,58,12
6.59476,-4.56983,-0.701952,25,5
4.88888,-3.38901,1.1563,16,13
8.79048,-6.0959,-0.560623,27,6
9.95932,-6.90902,2.79839,23,14
10.5845,-7.34272,-0.224857,21,7
0.434939,-0.302967,-0.122373,15,1
0.539603,-0.376012,-0.127842,14,2
4.28895,-2.9909,-0.828164,27,3
9.17259,-6.39889,1.37322,3,11
14.0307,-9.79158,-2.10078,13,4
8.76104,-6.11633,1.69231,45,12
6.60654,-4.61221,-0.704916,10,5
4.89473,-3.41842,1.1605,18,13
6.73568,-4.70587,-0.43062,18,6
9.98466,-6.97835,2.81234,2,14
11.2999,-7.90053,-0.240669,25,7
4.64628,-3.24974,1.51927,34,15
6.02272,-4.22499,0.128415,39,8
0.417928,-0.293289,-0.117874,16,1
5.87333,-4.12325,0.376086,14,9
0.535073,-0.375637,-0.127079,28,2
4.17727,-2.93366,0.446586,66,10
4.36577,-3.06717,-0.845059,10,3
4.51176,-3.17092,0.677106,11,11
12.189,-8.56977,-1.8295,22,4
8.73155,-6.14119,1.69074,50,12
9.87582,-6.94599,-1.05633,11,5
4.8346,-3.40159,1.14905,3,13
11.5406,-8.1229,-0.739612,13,6
10.3203,-7.26672,2.91402,29,14
11.2968,-7.9572,-0.241192,53,7
4.74229,-3.3416,1.55447,77,15
0.394456,-0.278671,-0.12941,15,0
5.94588,-4.20213,0.127088,77,8
0.432813,-0.305996,-0.122373,15,1
0.520936,-0.368434,-0.124026,29,2
4.11984,-2.91485,0.441531,61,10
10.5353,-7.45663,-2.04429,27,3
4.5282,-3.20615,0.68125,68,11
7.88895,-5.58776,-1.18701,5,4
8.73907,-6.19219,1.69638,47,12
7.77229,-5.50716,-0.833383,45,5
6.68963,-4.74354,-0.429783,18,6
5.31809,-3.77378,-0.113825,46,7
4.68177,-3.32347,1.53842,26,15
0.431743,-0.307505,-0.122373,15,1
4.77409,-3.40156,0.307212,15,9
0.497262,-0.354301,-0.118683,15,2
4.16805,-2.97084,0.447806,14,10
10.4577,-7.45666,-2.03427,44,3
4.36507,-3.11358,0.658338,16,11
4.3112,-3.07629,-0.650295,4,4
8.70133,-6.21118,1.69325,49,12
7.73194,-5.51921,-0.831117,9,5
4.77398,-3.40902,1.14027,35,13
6.68441,-4.77498,-0.430516,50,6
5.01022,-3.58035,1.42169,32,14
5.28048,-3.77488,-0.113301,23,7
4.70314,-3.36339,1.54929,44,15
6.5875,-4.72488,0.141504,20,8
0.4465,-0.32037,-0.126872,15,1
4.73136,-3.39607,0.305223,3,9
0.527921,-0.37893,-0.126316,14,2
4.18354,-3.00397,0.450595,73,10
10.3835,-7.45855,-2.02489,33,3
4.43317,-3.18555,0.670281,2,11
10.3159,-7.41545,-1.55993,21,4
8.70044,-6.25651,1.69731,52,12
6.18324,-4.44802,-0.666393,16,5
6.70336,-4.82395,-0.432818,39,6
9.35801,-6.73681,2.66207,38,14
5.88065,-4.23502,-0.126495,55,7
4.70704,-3.39108,1.55447,103,15
11.4157,-8.24842,0.245835,13,8
0.429585,-0.310511,-0.122373,15,1
0.510621,-0.369356,-0.122499,15,2
4.4114,-3.19215,0.476393,24,10
10.1065,-7.31586,-1.97608,52,3
5.23889,-3.79232,0.794101,17,11
10.3478,-7.49333,-1.5687,27,4
8.71375,-6.31234,1.7042,61,12
6.67432,-4.84028,-0.432086,14,6
9.33326,-6.77106,2.66207,22,14
5.86745,-4.2567,-0.12653,75,7
4.57635,-3.32125,1.51513,45,15
11.3418,-8.25843,0.244892,12,8
0.428444,-0.312084,-0.122373,15,1
4.59879,-3.35103,0.29821,13,9
0.515675,-0.375761,-0.124026,14,2
4.10237,-2.9904,0.444146,14,10
10.3506,-7.54779,-2.02896,27,3
5.06298,-3.69334,0.769483,52,11
10.3059,-7.52068,-1.56651,42,4
8.66024,-6.3221,1.69825,49,12
5.02397,-3.66757,-0.5442,13,5
12.0956,-8.83323,2.91136,10,13
6.65416,-4.86119,-0.431876,25,6
9.77685,-7.1451,2.79569,8,14
5.84374,-4.27227,-0.126355,82,7
4.64679,-3.39845,1.54256,48,15
4.54546,-3.33409,0.0983967,34,8
0.408499,-0.299743,-0.116975,16,1
4.53554,-3.32925,0.294861,35,9
0.511195,-0.375236,-0.123263,15,2
5.58221,-4.09904,0.605907,61,10
5.67871,-4.17142,-1.116,11,3
4.66454,-3.4277,0.710742,32,11
10.27,-7.54955,-1.56505,37,4
8.70973,-6.40496,1.71233,61,12
6.13792,-4.5137,-0.666567,13,5
12.3478,-9.08365,2.97967,17,13
5.25052,-3.86395,-0.341649,37,6
9.85857,-7.25774,2.82628,17,14
5.81913,-4.28553,-0.126146,55,7
4.57891,-3.3734,1.52393,65,15
6.46858,-4.77951,0.140387,56,8
0.445061,-0.328967,-0.127772,14,1
4.64273,-3.43293,0.302607,17,9
0.500411,-0.370014,-0.120973,15,2
5.51981,-4.08296,0.600677,22,10
15.3997,-11.3951,-3.0342,10,3
4.69403,-3.47467,0.717079,30,11
10.2707,-7.60544,-1.56919,47,4
8.82859,-6.53997,1.74018,16,12
6.14055,-4.5504,-0.668659,33,5
9.71023,-7.19569,2.34924,11,13
10.1435,-7.51949,-0.661736,58,6
11.4509,-8.49488,-0.248871,35,7
4.60744,-3.41929,1.53739,15,15
6.25134,-4.65282,0.136024,17,8
0.409522,-0.304915,-0.117874,16,1
4.59868,-3.42526,0.300513,22,9
0.511646,-0.38123,-0.124026,14,2
5.3866,-4.01505,0.587778,24,10
9.82784,-7.32811,-1.94166,2,3
4.68665,-3.49459,0.717811,15,11
9.38199,-7.00076,1.85406,8,12
6.06555,-4.52771,-0.662209,12,5
9.67907,-7.2277,2.3481,20,13
10.1143,-7.55542,-0.661631,71,6
5.19198,-3.87986,1.49637,12,14
10.1237,-7.56521,-0.220598,100,7
4.6094,-3.44576,1.54204,9,15
6.13346,-4.60011,0.133825,52,8
0.399049,-0.299397,-0.115175,16,1
4.62344,-3.46886,0.302921,35,9
0.516593,-0.387728,-0.125552,14,2
8.1608,-6.1273,0.892823,16,10
5.81561,-4.36807,-1.15198,10,3
5.13087,-3.85517,0.788007,45,11
6.12514,-4.6039,-0.940831,13,4
9.23906,-6.94445,1.8306,7,12
5.20253,-3.91185,-0.569476,31,5
12.4261,-9.34677,3.02241,6,13
10.0846,-7.58828,-0.661422,58,6
4.79384,-3.60848,1.38525,9,14
10.0636,-7.57524,-0.219865,100,7
11.116,-8.37045,3.72855,20,15
4.52081,-3.4141,0.0988853,33,8
0.407384,-0.307767,-0.117874,16,1
4.66867,-3.52833,0.306689,30,9
0.50584,-0.382425,-0.123263,15,2
4.81814,-3.64393,0.528512,24,10
10.816,-8.18008,-2.14785,6,3
5.14022,-3.88893,0.79142,30,11
5.2456,-3.97009,-0.80775,1,4
5.95756,-4.51221,-0.653842,25,5
10.069,-7.62891,-0.66205,68,6
9.89294,-7.49827,2.86588,19,14
4.42979,-3.35874,-0.0970354,43,7
4.56676,-3.46385,1.53583,5,15
4.51045,-3.43107,0.0989202,46,8
0.421815,-0.320988,-0.122373,15,1
4.69288,-3.57242,0.309096,37,9
0.485823,-0.36983,-0.118683,15,2
4.82347,-3.67317,0.53043,28,10
4.66716,-3.55671,0.720492,15,11
5.18593,-3.95348,-0.800682,33,4
9.05999,-6.90936,1.80463,16,12
5.98058,-4.56093,-0.658026,13,5
11.0573,-8.43562,2.70338,23,13
10.0867,-7.69794,-0.664981,26,6
12.0755,-9.21906,3.50744,72,14
4.38943,-3.35234,-0.0964071,48,7
4.53315,-3.46335,1.52859,25,15
4.53337,-3.47355,0.0996881,15,8
0.405225,-0.310603,-0.117874,16,1
4.70098,-3.60458,0.310457,27,9
0.506341,-0.388248,-0.124026,14,2
5.10308,-3.91432,0.562677,15,10
5.13249,-3.9383,-1.02465,42,3
4.91139,-3.77001,0.760221,15,11
5.13588,-3.94375,-0.795076,8,4
9.20212,-7.06869,-1.01519,11,5
11.0107,-8.46101,2.69918,51,13
4.35138,-3.34497,-0.287638,5,6
10.2389,-7.87364,2.98195,12,14
4.40465,-3.38836,-0.0970005,21,7
4.51805,-3.48691,0.0996183,23,8
0.419564,-0.323925,-0.122373,15,1
0.517413,-0.399614,-0.127079,14,2
5.08939,-3.93211,0.562677,15,10
4.05746,-3.13596,-0.812208,16,3
5.05525,-3.90855,0.784595,70,11
10.2693,-7.94274,-1.59405,6,4
9.08027,-7.02563,1.81839,45,12
9.13361,-7.06944,-1.01048,24,5
10.9873,-8.5042,2.70071,45,13
4.30967,-3.3369,-0.28565,37,6
10.1913,-7.89382,2.9761,2,14
4.38173,-3.39515,-0.0967561,17,7
4.47586,-3.47934,0.0989551,16,8
0.396893,-0.308639,-0.116075,16,1
9.82433,-7.64253,0.652315,10,9
0.509747,-0.396684,-0.125552,14,2
5.01834,-3.90667,0.556402,84,10
4.04282,-3.14838,-0.811582,13,3
5.03844,-3.92373,0.784107,27,11
6.10888,-4.75906,-0.950825,5,4
9.03388,-7.04028,1.81401,49,12
9.11359,-7.10496,-1.01101,11,5
11.3678,-8.86557,2.80222,13,13
4.27221,-3.33302,-0.283975,25,6
10.1408,-7.91433,2.9698,2,14
4.37616,-3.41534,-0.0968958,21,7
4.6215,-3.60811,1.57103,18,15
0.401895,-0.3149,-0.117874,16,1
9.7884,-7.67233,0.651792,21,9
0.499088,-0.391195,-0.123263,30,2
5.05328,-3.96228,0.561806,39,10
5.01934,-3.93849,0.783376,82,11
10.1341,-7.95473,-1.58186,14,4
9.19756,-7.22218,1.85218,47,12
10.1104,-7.93899,-1.12466,4,5
11.0913,-8.71237,2.74154,7,13
10.2894,-8.08534,-0.68581,6,6
10.1499,-7.97859,2.9806,2,14
4.36047,-3.42889,-0.0968259,39,7
10.9884,-8.64393,3.74615,4,15
6.22176,-4.90836,0.138328,46,8
5.0493,-3.98626,0.337148,60,9
0.500802,-0.395367,-0.124026,29,2
4.92997,-3.89345,0.549604,15,10
4.14629,-3.27572,-0.836924,7,3
4.07522,-3.22188,-0.637864,8,4
9.18624,-7.26527,1.855,49,12
5.1429,-4.06745,-0.573659,31,5
12.2787,-9.71457,3.0434,28,13
5.10863,-4.04325,-0.34144,43,6
10.0609,-7.96558,2.96261,4,14
4.37042,-3.46147,-0.0973146,4,7
10.8916,-8.62945,3.72337,12,15
5.06481,-4.02441,0.112917,64,8
0.414942,-0.329824,-0.122373,15,1
9.76274,-7.76285,0.653676,48,9
0.496345,-0.394669,-0.123263,15,2
5.052,-4.01855,0.564769,22,10
9.03635,-7.19041,-1.82903,6,3
9.64952,-7.68108,1.51435,38,11
5.13234,-4.08684,-0.805556,33,4
9.18245,-7.31453,1.85938,41,12
5.12556,-4.0829,-0.57331,30,5
12.2693,-9.77695,3.04951,11,13
5.12885,-4.08845,-0.343743,16,6
10.8771,-8.67375,3.21185,2,14
5.65892,-4.51423,-0.126355,41,7
5.04137,-4.03456,0.112708,20,8
0.404661,-0.323963,-0.119674,16,1
10.7614,-8.61839,0.72255,20,9
0.501094,-0.401308,-0.124789,14,2
4.0555,-3.25023,-0.823158,17,3
9.61181,-7.70602,1.51264,59,11
9.25239,-7.42318,1.87878,43,12
6.60627,-5.3002,-0.740998,22,5
12.18,-9.77548,3.03577,20,13
10.8645,-8.72281,-0.730191,26,6
4.67205,-3.7524,1.38345,6,14
5.61195,-4.5089,-0.125657,40,7
4.52486,-3.63678,1.5555,57,15
6.03372,-4.86512,0.135291,8,8
0.397404,-0.32055,-0.117874,16,1
12.3136,-9.93581,0.829211,8,9
0.502676,-0.405608,-0.125552,14,2
5.31458,-4.28986,0.59754,26,10
8.98159,-7.25241,-1.82841,6,3
5.03574,-4.06768,0.794832,20,11
11.9136,-9.62681,-1.88069,31,4
4.77156,-3.85705,0.971771,41,12
6.5775,-5.31686,-0.739952,15,5
11.2602,-9.10531,2.81481,16,13
5.81531,-4.70411,-0.391996,35,6
4.61131,-3.7315,1.3695,16,14
5.58606,-4.52189,-0.125448,20,7
4.48748,-3.63389,1.54722,13,15
4.95027,-4.02011,0.111311,15,8
0.387207,-0.314562,-0.115175,16,1
5.19859,-4.22478,0.35107,8,9
0.49821,-0.404884,-0.124789,14,2
5.32586,-4.32975,0.600503,35,10
6.21142,-5.05149,-1.26806,5,3
5.00457,-4.07146,0.792151,30,11
10.3588,-8.43035,-1.63987,8,4
6.31907,-5.14453,1.29058,37,12
6.25916,-5.09576,-0.706136,12,5
9.52795,-7.75973,2.38855,23,13
5.81124,-4.73447,-0.392834,21,6
5.49585,-4.48071,-0.123772,26,7
4.97955,-4.07281,0.112289,68,8
0.389123,-0.31838,-0.116075,16,1
0.499832,-0.409108,-0.125552,14,2
4.93919,-4.04412,0.558494,48,10
6.12651,-5.01806,-1.25429,33,3
9.54458,-7.8205,1.51508,10,11
10.2894,-8.43374,-1.63354,29,4
4.7155,-3.86647,0.965827,77,12
6.55255,-5.37276,-0.741347,22,5
26.2513,-21.5401,-1.77963,36,6
5.49409,-4.51129,-0.124087,53,7
4.462,-3.66513,1.54722,36,15
4.89122,-4.02914,0.110613,8,8
0.409064,-0.337087,-0.122373,15,1
5.50493,-4.53792,0.373888,39,9
0.50446,-0.415845,-0.127079,14,2
5.26629,-4.34274,0.597191,16,10
6.37715,-5.26065,-1.30936,10,3
6.45046,-5.32302,1.02687,26,11
6.14948,-5.07646,-0.979098,38,4
6.24645,-5.15834,1.28308,26,12
9.42662,-7.7873,2.37672,39,13
24.233,-20.0259,-1.64754,8,6
4.52842,-3.74357,1.35645,26,14
5.24253,-4.33546,-0.118746,43,7
4.76028,-3.93805,1.65541,62,15
5.05103,-4.19047,0.114558,45,8
0.386891,-0.321089,-0.116075,16,1
5.64734,-4.68851,0.384669,43,9
0.496963,-0.412587,-0.125552,14,2
4.19206,-3.48279,-0.863205,3,3
6.39367,-5.31379,1.02078,13,11
10.1997,-8.47999,-1.62866,33,4
4.6975,-3.90687,0.967704,22,12
13.8692,-11.5349,-1.57822,13,5
9.39032,-7.81262,2.37443,31,13
11.6823,-9.723,-0.796553,19,6
9.39158,-7.81921,2.82134,38,14
9.35456,-7.79116,-0.2125,67,7
4.50309,-3.75184,1.57051,85,15
5.13765,-4.2927,0.116861,20,8
0.406701,-0.339934,-0.122373,15,1
4.95216,-4.14065,0.3383,14,9
0.501545,-0.419356,-0.127079,14,2
4.78959,-4.00614,0.546292,41,10
4.19806,-3.51261,-0.86696,53,3
10.9433,-9.15975,1.75224,23,11
10.4257,-8.72964,-1.66961,40,4
10.6412,-8.91323,2.19853,21,12
6.12172,-5.12764,-0.69864,6,5
9.38256,-7.86174,2.37939,37,13
25.562,-21.4263,-1.74802,9,6
4.49322,-3.76758,1.35376,11,14
21.7494,-18.2435,-0.495509,10,7
4.36714,-3.66446,1.52755,35,15
5.09051,-4.28357,0.116128,44,8
0.407003,-0.342607,-0.122823,15,1
5.64502,-4.75355,0.386763,54,9
0.488064,-0.410988,-0.124026,14,2
4.82282,-4.06263,0.551696,18,10
4.14801,-3.49542,-0.859138,43,3
4.72634,-3.98418,0.759002,10,11
6.4086,-5.40419,-1.02931,4,4
4.68974,-3.95613,0.971771,30,12
4.61896,-3.89642,-0.528687,31,5
11.9118,-10.052,3.02967,11,13
6.1169,-5.1637,-0.419525,36,6
9.33676,-7.88459,2.82134,23,14
5.67956,-4.7979,-0.129776,7,7
4.27907,-3.61609,1.50115,10,15
5.05722,-4.2858,0.115709,24,8
0.405804,-0.344025,-0.122823,15,1
5.0389,-4.2733,0.346255,45,9
0.492616,-0.417768,-0.125552,14,2
4.7372,-4.01886,0.543503,31,10
4.11771,-3.49454,-0.855384,18,3
9.80312,-8.32248,1.57894,7,11
9.23578,-7.8436,-1.48778,16,4
4.59166,-3.90091,-0.527118,22,5
4.96067,-4.2159,1.26545,3,13
5.03976,-4.28462,-0.346673,6,6
5.64755,-4.80474,-0.129427,21,7
4.27672,-3.63977,1.50477,47,15
4.57527,-3.90489,0.104994,26,8
0.404601,-0.34544,-0.122823,15,1
5.06496,-4.32588,0.349081,36,9
0.483618,-0.413195,-0.123644,14,2
4.76859,-4.0742,0.548733,20,10
4.80704,-4.10995,0.776551,7,11
5.6285,-4.81399,-0.909389,5,4
11.2002,-9.58281,2.33463,15,12
4.53495,-3.88144,-0.522237,28,5
9.36245,-8.01609,2.3958,10,13
15.2147,-13.0313,-1.04986,31,6
9.45138,-8.09795,-0.217248,38,7
4.25812,-3.64965,1.5027,20,15
4.60641,-3.96074,0.106041,46,8
0.403332,-0.34692,-0.122823,15,1
5.28979,-4.55154,0.365724,45,9
0.476148,-0.409841,-0.122118,15,2
4.6902,-4.03706,0.541411,50,10
4.8145,-4.14698,0.780208,67,11
15.8399,-13.6485,-2.5673,8,4
6.25882,-5.39485,1.30873,34,12
4.51315,-3.89153,-0.521366,30,5
9.39842,-8.10678,2.41259,10,13
4.44268,-3.83346,-0.307526,15,6
4.49114,-3.87528,1.3695,11,14
4.45045,-3.84153,-0.10262,34,7
4.22863,-3.65134,1.49701,41,15
4.61907,-4.00117,0.106669,24,8
0.402058,-0.348396,-0.122823,15,1
5.82543,-5.04971,0.404034,14,9
0.486583,-0.421788,-0.125171,14,2
5.10739,-4.42884,0.591439,11,10
4.1289,-3.58161,-0.865708,58,3
4.7498,-4.12166,0.772164,20,11
4.34582,-3.77244,-0.706599,29,4
6.23751,-5.41645,1.30842,14,12
4.52511,-3.92946,-0.524329,37,5
11.7296,-10.1892,3.02012,32,13
4.42625,-3.84633,-0.307317,37,6
11.6144,-10.0962,3.55288,18,14
9.68753,-8.42421,-0.224089,9,7
4.90026,-4.26274,1.7403,10,15
4.73015,-4.12637,0.109566,60,8
0.38322,-0.334422,-0.117424,16,1
0.476234,-0.415738,-0.122881,15,2
6.12138,-5.34567,0.711016,20,10
4.12678,-3.6051,-0.867899,62,3
6.15988,-5.38308,1.00445,24,11
4.31768,-3.77453,-0.704161,49,4
4.50387,-3.93868,-0.523457,20,5
4.43384,-3.88017,-0.308782,34,6
9.35418,-8.19185,-0.217038,66,7
0.435466,-0.382432,-0.155291,12,0
4.64211,-4.07819,0.107856,90,8
0.399616,-0.351195,-0.122823,15,1
5.57403,-4.90036,0.388961,16,9
0.477728,-0.41999,-0.123644,14,2
6.06977,-5.33805,0.707182,20,10
4.12455,-3.62861,-0.870089,48,3
4.72985,-4.16259,0.773627,7,11
4.26276,-3.75285,-0.697336,42,4
6.20696,-5.4664,1.30998,49,12
4.45203,-3.92223,-0.5191,10,5
11.7952,-10.3916,3.05562,5,13
4.51317,-3.9775,-0.315272,16,6
9.65646,-8.51332,2.97205,25,14
9.4755,-8.35672,-0.220529,75,7
4.90805,-4.33007,1.75376,73,15
4.51701,-3.99632,0.105273,68,8
0.41298,-0.365503,-0.127322,15,1
5.57334,-4.93435,0.390112,21,9
0.458549,-0.406118,-0.119065,15,2
9.28477,-8.22603,1.08526,22,10
8.40281,-7.44726,-1.77835,10,3
9.22705,-8.17777,1.51386,35,11
4.19468,-3.71898,-0.688318,22,4
6.19375,-5.49327,1.31123,23,12
4.45024,-3.94833,-0.520494,5,5
9.47655,-8.41368,-0.664143,6,6
9.46422,-8.40568,-0.220947,100,7
4.88569,-4.34076,1.75117,64,15
4.50084,-4.01151,0.105238,85,8
0.420365,-0.374795,-0.130022,14,1
4.69369,-4.18634,0.329612,6,9
0.480571,-0.428625,-0.125171,14,2
9.20248,-8.21064,1.07899,51,10
4.15006,-3.70407,-0.881039,30,3
9.21182,-8.22475,1.5163,28,11
8.63594,-7.71329,-1.42173,15,4
4.81689,-4.30377,1.02308,32,12
6.29212,-5.62185,-0.738209,17,5
11.5625,-10.3344,3.0144,10,13
4.49055,-4.01501,-0.315691,13,6
10.8299,-9.68648,3.35447,11,14
9.1949,-8.22697,-0.215363,66,7
4.85103,-4.34189,1.74444,61,15
4.49277,-4.03254,0.105378,61,8
0.395854,-0.355429,-0.122823,15,1
0.479072,-0.4303,-0.125171,14,2
9.23897,-8.3013,1.08666,24,10
4.14886,-3.7291,-0.883542,60,3
9.14172,-8.2197,1.50947,7,11
8.60601,-7.74073,-1.42124,15,4
4.84883,-4.36284,1.03309,56,12
4.4196,-3.97663,-0.520145,13,5
4.41417,-3.97453,-0.311294,46,6
11.4578,-10.3202,3.56008,29,14
13.3392,-12.0191,-0.31341,61,7
4.83441,-4.35751,1.74392,14,15
4.44009,-4.01334,0.10447,85,8
0.394611,-0.356809,-0.122823,15,1
4.62288,-4.18149,0.326681,29,9
0.457183,-0.413532,-0.119828,15,2
9.2188,-8.34152,1.0877,38,10
4.06113,-3.67595,-0.867586,53,3
9.10562,-8.24489,1.50826,38,11
12.2247,-11.073,-2.02522,9,4
4.40647,-3.99414,-0.52032,10,5
13.1357,-11.9107,-0.929277,21,6
11.3885,-10.3301,3.54973,22,14
14.3219,-12.9954,-0.337564,36,7
4.86208,-4.41331,1.75945,51,15
4.46155,-4.06112,0.105308,26,8
0.393363,-0.358184,-0.122823,15,1
4.63778,-4.2245,0.328775,6,9
0.464372,-0.423139,-0.122118,15,2
11.7149,-10.6785,1.38682,15,10
4.02427,-3.66952,-0.86258,42,3
9.07678,-8.27663,1.50826,38,11
12.2667,-11.1892,-2.03863,6,4
4.37779,-3.99607,-0.518577,10,5
9.47139,-8.64856,2.49311,15,13
11.812,-10.7896,-0.838422,16,6
4.80492,-4.39057,1.50267,35,14
13.1324,-11.9999,-0.310513,100,7
6.3258,-5.80059,0.149811,16,8
0.392048,-0.359623,-0.122823,15,1
0.462892,-0.424757,-0.122118,15,2
11.7216,-10.7597,1.39205,12,10
3.98089,-3.65549,-0.856009,57,3
8.86511,-8.14332,1.47803,14,11
8.36379,-7.68551,-1.39467,4,4
4.80792,-4.41956,1.03434,42,12
4.42248,-4.06526,-0.525549,10,5
9.65357,-8.87692,2.54921,16,13
5.76511,-5.30315,-0.410523,14,6
4.85266,-4.46538,1.52247,30,14
13.0677,-12.029,-0.310025,76,7
4.86448,-4.47939,1.77188,17,15
4.3883,-4.05224,0.104261,6,8
0.39079,-0.36099,-0.122823,15,1
4.58983,-4.24131,0.327518,19,9
0.452755,-0.418376,-0.119828,15,2
11.7162,-10.8303,1.39589,12,10
3.97535,-3.67607,-0.857574,67,3
8.92406,-8.2551,1.49266,7,11
8.34565,-7.72275,-1.39614,1,4
4.42289,-4.09421,-0.527292,7,5
11.5096,-10.658,3.04913,13,13
4.58904,-4.25099,-0.327832,16,6
4.87564,-4.51805,1.53462,48,14
9.24497,-8.56993,-0.22004,100,7
4.88423,-4.52919,1.78482,21,15
4.36827,-4.06209,0.104121,13,8
0.389528,-0.362352,-0.122823,15,1
4.57136,-4.25243,0.327204,6,9
0.46279,-0.430653,-0.122881,15,2
6.05643,-5.63784,0.723916,28,10
3.95961,-3.68723,-0.856948,70,3
8.96346,-8.34979,1.50411,7,11
8.46387,-7.88717,-1.42051,42,4
4.76617,-4.44141,1.03184,12,12
8.48486,-7.90949,-1.01484,4,5
9.31138,-8.683,2.47479,18,13
5.7221,-5.33781,-0.410105,29,6
4.84986,-4.52574,1.53147,12,14
13.0382,-12.1668,-0.311281,83,7
4.81552,-4.49526,1.76515,69,15
0.352584,-0.330057,-0.12941,15,0
4.36207,-4.08338,0.104296,6,8
0.388324,-0.363641,-0.122823,15,1
0.467014,-0.437636,-0.124407,14,2
6.06288,-5.68347,0.727053,9,10
3.93439,-3.68818,-0.854132,66,3
4.58443,-4.29904,0.771677,65,11
8.4811,-7.95593,-1.42782,13,4
4.38332,-4.11333,0.95206,33,12
8.45139,-7.9336,-1.01414,22,5
11.4912,-10.7871,3.06363,17,13
13.9479,-13.0979,-1.00276,18,6
9.47507,-8.9008,3.0013,48,14
9.19371,-8.63951,-0.220214,100,7
8.73958,-8.21563,3.21402,20,15
5.24704,-4.94628,0.125867,28,8
0.387052,-0.364995,-0.122823,15,1
9.47403,-8.93412,0.682461,35,9
0.456991,-0.431099,-0.122118,15,2
6.05559,-5.71449,0.728448,9,10
3.90856,-3.68969,-0.851316,70,3
4.6098,-4.35318,0.778501,12,11
8.33062,-7.86962,-1.4071,11,4
4.37253,-4.13056,0.952686,36,12
4.97856,-4.7047,-0.599283,26,5
9.25634,-8.75023,2.47594,23,13
9.18002,-8.68112,-0.662155,13,6
9.64072,-9.11997,3.06383,44,14
9.23329,-8.73454,-0.221855,56,7
4.8227,-4.56379,1.77912,17,15
6.39828,-6.07174,0.153965,48,8
0.38584,-0.366276,-0.122823,15,1
9.46307,-8.98639,0.683926,46,9
0.44979,-0.427283,-0.120591,15,2
6.02116,-5.72187,0.726705,3,10
3.9994,-3.8006,-0.873843,40,3
8.87704,-8.43873,1.50387,14,11
4.46655,-4.2475,-0.756809,11,4
4.37669,-4.1635,0.956753,71,12
4.89427,-4.65749,-0.59109,31,5
11.3606,-10.811,3.04836,21,13
4.09388,-3.89718,-0.296222,6,6
9.1622,-8.7281,-0.220878,37,7
0.38443,-0.367755,-0.122823,15,1
9.37221,-8.96881,0.679844,15,9
0.453895,-0.434358,-0.122118,15,2
12.8566,-12.3076,1.55712,42,10
8.35049,-7.99665,-1.83122,15,3
4.60577,-4.41215,0.783132,22,11
8.1924,-7.85074,-1.39321,23,4
4.34641,-4.1666,0.953625,92,12
4.87923,-4.67901,-0.591439,23,5
9.20058,-8.82303,2.47785,11,13
4.09185,-3.92532,-0.297164,39,6
4.77777,-4.58492,1.52877,5,14
21.0126,-20.1714,-0.508424,42,7
4.66789,-4.4826,1.73409,36,15
9.04138,-8.7068,0.219098,12,8
0.383144,-0.369095,-0.122823,15,1
10.8811,-10.4858,0.791948,25,9
0.463607,-0.446919,-0.125171,14,2
12.8416,-12.3836,1.56079,87,10
3.58976,-3.46296,-0.789994,11,3
8.7978,-8.48704,1.50094,21,11
3.69251,-3.56333,-0.630065,6,4
4.31621,-4.16665,0.950183,109,12
9.07076,-8.75953,-1.10322,11,5
9.23172,-8.91808,2.49502,11,13
4.10616,-3.96805,-0.299257,33,6
9.60733,-9.28741,3.08498,17,14
9.21587,-8.90899,-0.22374,18,7
4.73693,-4.58079,1.76566,106,15
9.04816,-8.77747,0.22004,30,8
0.381789,-0.370496,-0.122823,15,1
5.61334,-5.44921,0.41,8,9
0.44514,-0.432125,-0.120591,15,2
12.8126,-12.4423,1.56253,65,10
3.58473,-3.48235,-0.791559,25,3
12.8154,-12.4537,2.19414,52,11
8.2143,-7.98527,-1.40662,11,4
4.30232,-4.18382,0.950496,120,12
4.52506,-4.40043,-0.552219,13,5
9.20897,-8.95846,2.49731,16,13
9.40868,-9.15913,3.03144,17,14
13.0713,-12.7291,-0.318472,45,7
5.12525,-5.00677,0.125064,53,8
0.380493,-0.371827,-0.122823,15,1
27.1216,-26.5131,1.98772,18,9
0.446437,-0.436421,-0.121355,15,2
3.57961,-3.50175,-0.793123,26,3
12.7761,-12.5026,2.19487,57,11
7.71968,-7.55703,-1.32643,6,4
4.29051,-4.20158,0.951122,118,12
4.48263,-4.38971,-0.548907,13,5
13.1774,-12.9088,3.58568,13,13
4.11402,-4.03156,-0.301874,12,6
13.191,-12.9312,4.26462,36,14
4.36321,-4.27874,-0.106669,5,7
9.30186,-9.12497,3.49147,15,15
4.0956,-4.02896,0.100282,17,8
0.379193,-0.373153,-0.122823,15,1
12.8811,-12.6803,0.947281,5,9
0.439315,-0.432467,-0.119828,15,2
8.59858,-8.46751,1.0558,18,10
3.535,-3.48234,-0.785927,5,3
12.7423,-12.5568,2.19657,42,11
7.67911,-7.56999,-1.32399,19,4
4.40663,-4.34552,0.980218,66,12
9.04521,-8.91978,-1.11141,38,5
4.20939,-4.15392,-0.309934,12,6
13.168,-12.999,4.27182,18,14
8.9341,-8.82253,-0.219167,47,7
9.30706,-9.19404,3.50545,12,15
4.10567,-4.06715,0.100875,39,8
0.377888,-0.374474,-0.122823,15,1
4.68364,-4.64294,0.345627,18,9
0.448956,-0.445056,-0.122881,15,2
26.9335,-26.7088,3.31854,32,10
4.84248,-4.80376,-1.08034,12,3
4.11725,-4.08575,0.712205,2,11
3.56992,-3.54384,-0.617634,24,4
4.40685,-4.37619,0.98366,82,12
9.2999,-9.23843,2.54806,14,13
4.16511,-4.13903,-0.307735,15,6
