x, y, z, intensity, ring
1.84877,-7.61281,-0.685393,53,5
2.01261,-8.2875,1.65775,5,13
1.9405,-7.99663,-0.431248,18,6
1.94481,-8.02049,1.90534,47,14
1.96974,-8.1295,-0.146007,100,7
1.76835,-7.30388,2.01361,14,15
1.69112,-7.03859,0.126355,33,8
1.93261,-8.0499,0.433865,37,9
0.13602,-0.567,-0.113341,16,2
4.62673,-19.3014,1.73649,10,10
0.148164,-0.618574,-0.100744,14,3
2.01321,-8.41148,1.06197,16,11
1.97616,-8.26307,1.34565,79,12
1.77176,-7.41412,-0.666916,18,5
1.98169,-8.29898,1.65851,22,13
1.90561,-7.98654,-0.430306,47,6
1.92078,-8.05634,1.91208,51,14
5.07359,-21.2802,-0.381859,15,7
1.66546,-7.03443,0.126181,66,8
1.91139,-8.08575,0.435435,51,9
0.13404,-0.567471,-0.113341,16,2
5.35567,-22.6915,2.03979,5,10
0.147019,-0.622907,-0.10137,14,3
1.96708,-8.34083,1.05222,28,11
2.24018,-9.50627,-1.19919,37,4
2.07951,-8.83138,1.43701,33,12
1.81021,-7.69372,-0.691494,26,5
1.94157,-8.252,1.64783,29,13
1.87533,-7.98298,1.89319,40,14
1.70359,-7.2576,-0.130125,42,7
1.92911,-8.22478,2.26363,27,15
1.87875,-8.06069,0.144471,40,8
1.88768,-8.11183,0.436482,34,9
4.50607,-19.379,1.74067,14,10
0.150209,-0.646506,-0.105124,13,3
1.91236,-8.23742,1.03833,26,11
1.94861,-8.40019,-1.0588,8,4
1.74105,-7.51141,-0.674585,21,5
1.88794,-8.15162,1.62646,39,13
1.85009,-8.00087,1.89589,41,14
1.66384,-7.20116,-0.129008,77,7
1.88257,-8.15429,2.24241,55,15
1.73882,-7.57993,0.135745,33,8
1.84553,-8.05802,0.433237,52,9
0.130174,-0.56837,-0.113341,16,2
1.93741,-8.46597,0.759824,15,10
0.144429,-0.631621,-0.102621,14,3
1.88139,-8.23437,1.03711,26,11
1.87951,-8.23277,-1.03686,11,4
4.39718,-19.2764,3.13151,17,12
1.70463,-7.47276,-0.670576,32,5
1.83296,-8.05479,1.90714,30,14
1.63692,-7.19912,-0.128869,49,7
1.78095,-7.90269,0.424549,46,9
0.128189,-0.568821,-0.113341,16,2
1.89909,-8.43381,0.756338,20,10
0.140488,-0.624413,-0.10137,14,3
1.87135,-8.32417,1.04759,23,11
1.68674,-7.50909,-0.944975,13,4
1.85022,-8.2436,1.33814,18,12
1.66675,-7.42618,-0.66587,17,5
1.63941,-7.31628,-0.392938,39,6
1.90446,-8.50612,2.01241,57,14
1.65195,-7.38433,-0.13208,29,7
1.90229,-8.51036,2.33662,39,15
1.6139,-7.26783,0.129951,42,8
1.74687,-7.87961,0.422979,63,9
1.90498,-8.59989,0.770631,24,10
0.143431,-0.648044,-0.105124,13,3
1.80028,-8.1407,1.0237,4,11
2.12222,-9.60446,-1.20773,39,4
1.82441,-8.26351,1.34033,31,12
1.63739,-7.41639,-0.664475,8,5
1.84604,-8.36841,1.66576,13,13
1.60827,-7.29661,-0.391578,56,6
4.05758,-18.4242,4.3555,34,14
1.62573,-7.38809,-0.132045,87,7
1.87838,-8.54337,2.34387,42,15
1.58297,-7.24802,0.129497,68,8
1.72531,-7.91298,0.424445,60,9
1.89827,-8.71356,0.780218,37,10
0.141168,-0.64854,-0.105124,13,3
1.76848,-8.13142,1.02175,40,11
2.08321,-9.58659,-1.20456,37,4
1.99674,-9.19642,1.49051,85,12
2.08201,-9.59725,-0.859181,43,5
1.58151,-7.30245,-0.391578,52,6
3.96519,-18.3088,4.32491,43,14
1.59401,-7.36636,-0.131556,79,7
1.84814,-8.54798,2.34335,14,15
1.56731,-7.30461,0.130404,85,8
1.80841,-8.44264,0.452497,61,9
0.122027,-0.570175,-0.113341,16,2
1.86382,-8.70877,0.779172,33,10
0.137137,-0.641327,-0.103873,13,3
2.05427,-9.62328,-1.20821,52,4
1.91316,-8.96992,1.45265,56,12
2.05513,-9.64379,-0.862668,40,5
1.76911,-8.30875,1.65126,33,13
1.55225,-7.29648,-0.39095,49,6
3.89076,-18.2889,4.31681,28,14
1.54954,-7.29,-0.13009,78,7
1.8184,-8.56226,2.34542,19,15
1.54217,-7.31813,0.130544,55,8
1.76164,-8.36682,0.448101,40,9
0.120036,-0.570597,-0.113341,16,2
1.82984,-8.70579,0.778301,22,10
0.134786,-0.641825,-0.103873,13,3
4.22477,-20.135,2.52611,22,11
2.01659,-9.61097,-1.20578,35,4
1.91021,-9.11188,1.47455,71,12
1.6375,-7.81784,-0.698815,13,5
1.73246,-8.27836,1.64401,35,13
1.5329,-7.33118,-0.39252,70,6
1.80596,-8.63711,2.03716,24,14
1.54248,-7.38345,-0.131661,50,7
1.66298,-7.96719,2.18081,45,15
1.51749,-7.32125,0.130509,74,8
1.73146,-8.36088,0.447472,40,9
0.118143,-0.570992,-0.113341,16,2
1.77958,-8.6084,0.769062,33,10
0.131058,-0.63453,-0.102621,14,3
4.16761,-20.1956,2.53196,34,11
1.99193,-9.6526,-1.21016,16,4
1.88477,-9.14138,1.47831,63,12
1.61157,-7.82322,-0.698815,12,5
1.69827,-8.25137,1.63752,33,13
1.5118,-7.35187,-0.393357,68,6
1.77731,-8.64305,2.03716,17,14
1.5691,-7.63729,-0.136094,83,7
1.63616,-7.97076,2.18029,51,15
1.496,-7.33996,0.130753,66,8
1.68315,-8.27293,0.442448,53,9
0.116149,-0.571401,-0.113341,16,2
1.74706,-8.59473,0.767319,22,10
0.128954,-0.634961,-0.102621,14,3
4.0643,-20.0303,2.50953,45,11
1.93535,-9.54665,-1.19603,15,4
1.85873,-9.17694,1.483,38,12
1.58504,-7.83271,-0.699163,13,5
1.68035,-8.31113,1.64821,6,13
1.48612,-7.3571,-0.393357,54,6
4.26557,-21.1168,4.97367,23,14
1.61087,-7.98183,-0.142132,96,7
1.61711,-8.01998,2.1922,42,15
1.47497,-7.3748,0.131277,66,8
1.59455,-7.98721,0.426852,33,9
0.114054,-0.571823,-0.113341,16,2
1.70697,-8.55809,0.763484,20,10
0.126625,-0.63543,-0.102621,14,3
4.0052,-20.1171,2.51855,33,11
1.90461,-9.5751,-1.19871,13,4
1.84703,-9.29413,1.50083,57,12
1.55904,-7.85214,-0.700384,15,5
1.45837,-7.35858,-0.393148,47,6
1.84184,-9.30196,-0.165519,100,7
1.69605,-8.57355,2.34179,35,15
1.43523,-7.3154,0.130125,49,8
1.55706,-7.94373,0.424235,8,9
0.112057,-0.572218,-0.113341,16,2
1.67444,-8.55843,0.762961,28,10
0.129601,-0.663031,-0.107001,13,3
3.9672,-20.3148,2.54146,23,11
1.89324,-9.69469,-1.21284,28,4
1.80512,-9.25205,1.49301,67,12
1.40659,-7.21611,-0.643209,7,5
1.65873,-8.51757,1.68675,31,13
1.66658,-8.56584,2.01466,42,14
1.79142,-9.21608,-0.163878,100,7
1.55674,-8.01618,2.18806,43,15
1.39241,-7.22391,0.128415,74,8
0.110159,-0.572586,-0.113341,16,2
0.125912,-0.655698,-0.10575,13,3
3.85643,-20.1017,2.51319,11,11
1.86631,-9.72821,-1.21626,6,4
1.79265,-9.35305,1.50834,52,12
1.85441,-9.68439,-0.862668,19,5
3.75896,-19.6492,3.88869,21,13
1.5736,-8.23347,-0.439308,7,6
1.63451,-8.55218,2.01016,41,14
1.46119,-7.65256,-0.135989,15,7
1.53195,-8.03078,2.19064,43,15
1.32753,-7.01236,0.124575,57,8
1.6765,-8.87261,0.473222,40,9
0.10816,-0.572967,-0.113341,16,2
1.51121,-8.00549,0.71276,35,10
0.118611,-0.628935,-0.10137,14,3
1.54442,-8.19713,1.02419,35,11
1.81876,-9.66248,-1.20724,17,4
1.7954,-9.54756,1.53869,67,12
3.6965,-19.695,3.89518,28,13
1.6086,-8.5789,2.01511,32,14
1.43152,-7.64189,-0.13571,91,7
1.51173,-8.07786,2.20203,9,15
1.3,-7.00735,0.124401,68,8
1.32288,-7.14459,0.380796,55,9
0.106059,-0.57336,-0.113341,16,2
1.4833,-8.01882,0.713457,45,10
0.116305,-0.629366,-0.10137,14,3
1.51545,-8.2086,1.02492,40,11
1.78261,-9.66518,-1.20675,44,4
1.81139,-9.84045,-0.875392,28,5
3.72442,-20.253,4.00279,24,13
3.71592,-20.2266,4.74782,24,14
1.40639,-7.66282,-0.135989,15,7
1.49117,-8.13275,2.21549,7,15
1.27467,-7.01403,0.124436,67,8
1.48809,-8.19658,0.436587,56,9
1.55266,-8.56921,0.761916,22,10
0.115405,-0.637563,-0.102621,14,3
1.48182,-8.19456,1.02248,27,11
1.74541,-9.66188,-1.20553,24,4
1.49351,-8.26746,1.33063,38,12
1.8485,-10.2428,-0.910603,15,5
1.55184,-8.60753,1.70011,16,13
3.60414,-20.031,4.69878,23,14
1.6817,-9.34647,-0.165763,100,7
1.25245,-7.02413,0.12454,70,8
1.44303,-8.10931,0.431667,69,9
1.41439,-7.96449,0.707705,45,10
0.117435,-0.661282,-0.106375,13,3
1.75423,-9.88818,1.23307,17,11
1.74142,-9.82594,-1.22527,38,4
1.29466,-7.32,-0.650356,2,5
1.525,-8.62229,1.70202,30,13
1.57594,-8.91942,-0.474687,54,6
3.49434,-19.7972,4.64119,41,14
1.66399,-9.43696,-0.167264,86,7
1.41827,-8.05164,2.19064,51,15
1.24548,-7.12892,0.126321,44,8
1.41265,-8.10249,0.431039,29,9
0.100149,-0.574421,-0.113341,16,2
1.4625,-8.39703,0.745705,22,10
0.114449,-0.657795,-0.10575,13,3
1.44776,-8.32963,1.03808,16,11
1.67213,-9.63051,-1.20017,12,4
1.68477,-9.72342,-0.863365,19,5
1.50428,-8.68173,1.7127,35,13
1.69434,-9.78881,-0.520638,77,6
2.85346,-16.5026,3.86646,44,14
1.30224,-7.53919,-0.133546,66,7
1.38687,-8.0375,2.18547,48,15
1.29006,-7.53926,0.133511,53,8
1.17728,-6.89461,0.366561,23,9
0.0980433,-0.574785,-0.113341,16,2
1.43807,-8.43966,0.749016,11,10
0.106734,-0.627052,-0.100744,14,3
1.41701,-8.32485,1.03686,26,11
1.64383,-9.6676,-1.20407,16,4
1.65726,-9.75689,1.56747,88,12
1.77914,-10.4855,-0.930475,30,5
1.47277,-8.68912,1.71308,41,13
1.65745,-9.78905,-0.520324,38,6
3.40848,-20.1522,4.71857,24,14
1.27459,-7.53581,-0.133406,81,7
1.37973,-8.16611,2.21911,11,15
1.13608,-6.79624,0.361118,15,9
0.0960364,-0.575123,-0.113341,16,2
1.32403,-7.93759,0.704044,20,10
0.104544,-0.627421,-0.100744,14,3
1.38258,-8.30649,1.03394,28,11
1.45015,-8.72187,-1.08561,1,4
1.62028,-9.74508,1.56466,66,12
1.63154,-9.8234,-0.871209,21,5
1.43472,-8.64772,1.70392,29,13
1.52759,-9.21745,-0.489655,42,6
2.74294,-16.5687,3.87726,23,14
1.27604,-7.7079,-0.136373,38,7
1.36887,-8.27761,2.2481,21,15
1.11009,-6.78637,0.360385,41,9
1.29182,-7.91464,0.701604,43,10
0.104372,-0.639462,-0.102621,14,3
1.34448,-8.24637,1.0259,28,11
1.4209,-8.72467,-1.08537,15,4
1.62368,-9.98075,1.60158,52,12
1.57487,-9.69137,-0.859007,8,5
1.39565,-8.58848,1.69133,42,13
1.49862,-9.23232,-0.490179,56,6
2.67737,-16.5123,3.86196,21,14
1.25871,-7.77153,-0.13742,100,7
1.33965,-8.28043,2.24758,42,15
1.07332,-6.69346,0.118327,34,8
1.08979,-6.80382,0.361118,55,9
0.0921194,-0.575764,-0.113341,16,2
1.24513,-7.79099,0.690273,37,10
0.107122,-0.671033,-0.107627,12,3
1.31382,-8.23925,1.02443,26,11
1.3895,-8.72369,-1.08464,1,4
1.53896,-9.67293,-0.856915,19,5
1.36381,-8.58167,1.68904,17,13
1.46889,-9.25328,-0.491016,70,6
2.61789,-16.51,3.85926,52,14
1.20663,-7.60976,-0.134488,100,7
1.30282,-8.22568,2.23154,43,15
1.13607,-7.23827,0.127891,39,8
1.06727,-6.81547,0.361537,30,9
1.21054,-7.74805,0.68609,45,10
0.101237,-0.647964,-0.103873,13,3
1.28649,-8.24356,1.02443,40,11
1.48134,-9.50301,-1.18091,44,4
1.29331,-8.31588,-0.736292,11,5
2.52376,-16.2275,3.19223,36,13
1.27386,-8.20026,-0.434912,32,6
1.17822,-7.60207,-0.134279,100,7
1.2738,-8.22827,2.23102,51,15
0.973669,-6.36295,0.112359,42,8
1.49533,-9.79492,0.519277,35,9
1.46716,-9.6216,0.851512,32,10
0.0975583,-0.640537,-0.102621,14,3
1.24706,-8.19742,1.0181,42,11
1.41979,-9.34377,-1.16044,16,4
1.26953,-8.36475,1.34002,24,12
1.26611,-8.34224,-0.738209,15,5
2.50145,-16.5011,3.24413,36,13
1.43014,-9.44523,-0.500646,56,6
2.48831,-16.4532,3.84171,10,14
1.1541,-7.64015,-0.134872,100,7
1.24364,-8.24265,2.23361,49,15
0.952043,-6.37027,0.112428,60,8
0.078256,-0.524249,-0.122373,15,1
1.19194,-7.99454,0.423607,32,9
1.42006,-9.53602,0.843493,48,10
0.0935781,-0.62915,-0.100744,14,3
1.22019,-8.2135,1.01956,33,11
1.38104,-9.30744,-1.15532,17,4
1.22382,-8.25775,1.32218,9,12
1.22852,-8.28945,-0.733154,11,5
2.42515,-16.3835,3.21933,19,13
1.36124,-9.20715,-0.487771,21,6
1.2728,-8.61935,2.01151,10,14
1.12071,-7.59863,-0.134069,100,7
1.23288,-8.36926,2.26674,49,15
0.93875,-6.4349,0.11351,57,8
0.976513,-6.70194,0.354943,54,9
0.083688,-0.575066,-0.112959,16,2
1.40224,-9.64739,0.852906,66,10
0.0930842,-0.641202,-0.102621,14,3
1.19806,-8.26289,1.02517,52,11
1.69023,-11.6717,-1.44805,16,4
1.1739,-8.11622,-0.717466,6,5
2.39152,-16.5551,3.25139,28,13
1.32823,-9.20591,-0.487457,43,6
1.09323,-7.58647,-0.13379,37,7
1.21007,-8.40772,2.27605,38,15
0.928126,-6.5132,0.114837,17,8
0.95508,-6.71915,0.355675,27,9
1.35765,-9.57529,0.846108,48,10
0.0931759,-0.657154,-0.105124,13,3
1.16954,-8.25896,1.02419,42,11
1.33239,-9.42079,-1.16824,15,4
1.13774,-8.05464,1.28839,82,12
1.14223,-8.09659,-0.715374,18,5
3.02278,-21.4268,4.20619,11,13
1.43034,-10.1517,-0.537281,49,6
1.20025,-8.5294,1.98857,46,14
2.25537,-16.0478,-0.282869,70,7
1.1834,-8.43102,2.28123,7,15
0.911715,-6.56196,0.11564,61,8
1.37824,-9.94518,0.526186,21,9
1.33409,-9.63895,0.851337,38,10
0.0887175,-0.641821,-0.102621,14,3
1.14369,-8.28462,1.02687,33,11
1.30356,-9.45488,-1.1719,11,4
1.11662,-8.10945,1.29653,79,12
1.11428,-8.09244,-0.714677,16,5
2.24883,-16.3531,3.20864,12,13
1.28212,-9.33544,-0.493842,17,6
2.25222,-16.4203,3.82642,34,14
1.39386,-10.1754,-0.179271,100,7
3.20764,-23.4468,6.34107,27,15
0.878877,-6.49178,0.114348,64,8
0.931401,-6.89785,0.364782,26,9
0.077762,-0.575897,-0.112959,16,2
1.29777,-9.6238,0.849594,16,10
0.0891131,-0.661704,-0.10575,13,3
1.1145,-8.2866,1.02663,38,11
1.52477,-11.352,-1.40637,11,4
1.09094,-8.13287,1.29966,71,12
1.08656,-8.10023,-0.715026,10,5
2.18365,-16.3006,3.19681,14,13
1.37426,-10.2723,-0.543143,38,6
2.19154,-16.4029,3.82057,45,14
1.30068,-9.74811,-0.171662,100,7
3.19672,-23.9902,6.48497,21,15
0.840268,-6.37387,0.112219,56,8
1.03671,-7.88523,0.416804,21,9
1.2678,-9.65593,0.852035,26,10
0.0826937,-0.630673,-0.100744,14,3
1.08119,-8.25698,1.02248,24,11
1.10368,-8.44022,-1.04515,1,4
1.0738,-8.22282,1.31342,42,12
1.27509,-9.77754,-0.862668,28,5
2.16065,-16.5908,3.25215,10,13
1.3366,-10.2772,-0.543143,38,6
2.15161,-16.5438,3.85161,39,14
1.34674,-10.3693,-0.182517,100,7
2.13643,-16.4721,4.45065,11,15
0.798861,-6.23608,0.109741,60,8
1.00249,-7.84737,0.414605,54,9
0.0735384,-0.576452,-0.112959,16,2
0.0798825,-0.627053,-0.100118,14,3
1.05267,-8.27467,1.02419,26,11
1.07299,-8.44618,-1.0454,35,4
1.04564,-8.24237,1.31593,18,12
1.02765,-8.11193,-0.715374,10,5
2.10426,-16.6336,3.25902,21,13
1.29742,-10.2702,-0.542515,73,6
2.11099,-16.7101,3.8885,47,14
1.39808,-11.0825,-0.194978,100,7
2.8458,-22.5903,6.10088,15,15
0.770323,-6.19333,0.108938,52,8
0.977652,-7.8827,0.41628,50,9
0.0715258,-0.576705,-0.112959,16,2
0.0795232,-0.643025,-0.102621,14,3
1.0272,-8.31787,1.02906,35,11
1.01228,-8.22066,1.31186,25,12
0.995435,-8.08383,-0.712585,13,5
2.02535,-16.4713,3.22582,12,13
1.26473,-10.3004,-0.543875,42,6
1.30228,-10.6369,-0.187055,20,7
2.76767,-22.6389,6.11124,15,15
0.738383,-6.11061,0.107437,38,8
1.3245,-10.9933,0.580301,49,9
0.0695122,-0.576951,-0.112959,16,2
1.40384,-11.669,1.02826,17,10
0.0772782,-0.643299,-0.102621,14,3
0.977829,-8.15191,1.0081,40,11
1.00733,-8.41028,-1.04003,5,4
0.977952,-8.17707,1.30435,52,12
0.976201,-8.16243,-0.719209,5,5
1.95196,-16.3939,3.81157,35,14
1.25334,-10.5421,-0.18531,36,7
2.74079,-23.0877,6.22977,29,15
0.711691,-6.06747,0.106634,15,8
1.33622,-11.4263,0.60291,30,9
0.0757071,-0.647389,-0.126697,14,2
0.881541,-7.54967,0.664998,35,10
0.0750321,-0.643564,-0.102621,14,3
0.949367,-8.15527,1.0081,47,11
1.27546,-10.9732,-1.35641,11,4
0.950314,-8.18829,1.3056,21,12
0.948392,-8.17173,-0.719732,13,5
1.28408,-11.0811,2.16835,14,13
1.03761,-8.96778,-0.473117,7,6
0.98851,-8.55652,1.98857,15,14
1.32996,-11.5298,-0.202588,27,7
2.67012,-23.1835,6.25307,29,15
1.09735,-9.64631,0.169463,30,8
1.3387,-11.823,1.04099,38,10
0.0727853,-0.643822,-0.102621,14,3
0.925793,-8.20193,1.01347,47,11
1.23004,-10.9144,-1.34861,9,4
1.21371,-10.7865,-0.949649,22,5
1.24189,-11.0543,2.16225,23,13
1.1617,-10.3567,-0.546178,42,6
0.960371,-8.57541,1.99217,48,14
1.29282,-11.5622,-0.203076,20,7
2.59604,-23.2541,6.26963,19,15
1.05798,-9.5984,0.168555,56,8
0.0579816,-0.526877,-0.122373,15,1
1.23941,-11.2805,0.594746,34,9
0.0634667,-0.577647,-0.112959,16,2
0.817733,-7.45464,0.656108,15,10
0.0683869,-0.624436,-0.0994923,14,3
0.893058,-8.16762,1.00883,51,11
1.19818,-10.9759,-1.35567,6,4
0.900403,-8.26149,1.31624,4,12
1.19872,-10.9986,-0.967952,25,5
1.20669,-11.0898,2.16835,14,13
0.954917,-8.79015,-0.463383,39,6
0.931902,-8.59227,1.99532,23,14
1.25654,-11.6044,-0.203739,23,7
2.5161,-23.2746,6.27274,19,15
0.994979,-9.32564,0.163704,58,8
1.20023,-11.2868,0.594851,44,9
0.792548,-7.46537,0.656806,97,10
0.0666232,-0.6286,-0.100118,14,3
0.85744,-8.10357,1.00055,36,11
1.15527,-10.9366,-1.35031,1,4
1.17453,-11.1375,-0.979805,42,5
1.16427,-11.0588,2.16148,37,13
0.972035,-9.2483,-0.487352,14,6
0.901091,-8.58772,1.99352,20,14
1.21395,-11.5888,-0.20339,100,7
1.25539,-12.0047,3.2342,8,15
0.92897,-9.00483,0.158014,82,8
1.18248,-11.5015,0.605946,39,9
0.760381,-7.40863,0.651576,31,10
0.0660393,-0.644549,-0.102621,14,3
0.83339,-8.14798,1.00567,49,11
0.875522,-8.57469,-1.05831,12,4
0.843707,-8.2774,1.3178,56,12
0.825517,-8.09894,-0.712237,8,5
1.12368,-11.0432,2.15767,54,13
0.863453,-8.50053,-0.447787,3,6
0.869733,-8.57724,1.99037,48,14
1.15516,-11.4119,-0.200214,20,7
1.20416,-11.9168,3.20936,41,15
0.892774,-8.96026,0.157176,51,8
1.14331,-11.5155,0.606469,48,9
0.0574142,-0.57828,-0.112959,16,2
1.15463,-11.6502,1.02425,40,10
0.0657337,-0.664434,-0.10575,13,3
0.806113,-8.16269,1.00713,54,11
0.951722,-9.65435,-1.19115,8,4
0.819838,-8.33141,1.32594,38,12
0.796266,-8.09186,-0.711365,13,5
1.04885,-10.6778,2.08554,32,13
0.837319,-8.55501,1.98452,55,14
1.15401,-11.812,-0.20716,100,7
1.16218,-11.9171,3.20832,48,15
0.860536,-8.95337,0.157002,52,8
0.0506196,-0.527635,-0.122373,15,1
1.25294,-13.0841,0.688846,44,9
0.0553953,-0.578477,-0.112959,16,2
0.701247,-7.33641,0.644778,16,10
0.0615379,-0.644995,-0.102621,14,3
0.77404,-8.12791,1.0025,56,11
0.0803991,-0.845807,-0.10432,5,4
1.89851,-20.0096,3.18344,16,12
0.765288,-8.08084,-0.710145,13,5
1.02786,-10.8534,2.11912,60,13
0.789802,-8.35524,-0.439831,100,6
0.811296,-8.59863,1.99397,57,14
1.04396,-11.0853,-0.19435,100,7
1.11714,-11.8845,3.19849,39,15
1.03872,-11.2183,0.196654,36,8
0.0487775,-0.527808,-0.122373,15,1
1.02033,-11.0618,0.582185,48,9
0.0591735,-0.645216,-0.102621,14,3
0.740768,-8.07719,0.995916,38,11
0.723797,-7.90731,-0.974955,5,4
0.752489,-8.2366,1.30998,22,12
0.733094,-8.03981,-0.70631,20,5
0.976863,-10.7339,2.09508,54,13
0.751767,-8.27652,-0.43554,39,6
0.776959,-8.57049,1.98677,60,14
1.03631,-11.4314,-0.200354,100,7
1.07582,-11.8903,3.199,28,15
1.00397,-11.2937,0.19791,65,8
0.983653,-11.0872,0.583337,52,9
0.0512545,-0.578859,-0.112959,16,2
1.04351,-11.8087,1.03715,23,10
0.0548384,-0.621806,-0.0988666,15,3
0.708896,-8.05414,0.992748,47,11
0.703148,-8.00483,-0.986654,1,4
0.723042,-8.23131,1.30873,52,12
0.946357,-10.7952,-0.94808,22,5
0.941784,-10.7646,2.10043,45,13
0.726346,-8.31889,-0.437633,47,6
0.748392,-8.58868,1.99037,43,14
0.995711,-11.427,-0.200214,100,7
1.03448,-11.8959,3.19952,6,15
0.962758,-11.2532,0.197142,55,8
0.0450916,-0.528136,-0.122373,15,1
0.943251,-11.0706,0.58229,40,9
0.978534,-11.5324,1.01258,65,10
0.0527761,-0.621984,-0.0988666,15,3
0.688047,-8.12568,1.00128,40,11
0.683953,-8.09415,-0.997379,1,4
1.00071,-11.8674,1.88629,30,12
0.907501,-10.7845,-0.94686,20,5
0.931106,-11.0651,2.15843,40,13
0.702098,-8.36106,-0.439727,54,6
0.721859,-8.61442,1.99577,47,14
0.944984,-11.3008,-0.197945,100,7
0.986362,-11.8205,3.1783,2,15
0.929522,-11.3302,0.198434,43,8
0.0432477,-0.52829,-0.122373,15,1
0.901022,-11.0301,0.579987,39,9
0.0473131,-0.579194,-0.112959,16,2
0.933488,-11.4521,1.00525,12,10
0.0506047,-0.622164,-0.0988666,15,3
0.674611,-8.31204,1.02395,57,11
0.652171,-8.05296,-0.992017,1,4
0.879275,-10.8808,-0.955053,16,5
0.858549,-10.6475,2.07638,52,13
0.689601,-8.58969,1.98947,46,14
0.908087,-11.336,-0.198504,100,7
0.943248,-11.8008,3.17209,36,15
0.880731,-11.2158,0.196374,52,8
0.683817,-8.74727,0.459824,128,9
0.0452911,-0.579356,-0.112959,16,2
0.682641,-8.75189,0.768016,41,10
0.0478195,-0.61446,-0.0976151,15,3
0.63791,-8.21539,1.01176,36,11
0.618536,-7.98394,-0.983242,1,4
0.882971,-11.4231,1.81464,45,12
0.6882,-8.90333,-0.781264,16,5
0.818811,-10.6172,2.0699,43,13
0.660658,-8.60565,1.99262,61,14
0.905012,-11.8156,-0.206846,100,7
0.897192,-11.7404,3.155,35,15
0.834693,-11.127,0.194769,48,8
0.658039,-8.81334,0.463173,68,9
0.904871,-12.1478,1.06574,18,10
0.0465527,-0.626442,-0.0994923,14,3
0.601304,-8.11066,0.998597,47,11
0.0612041,-0.827508,-0.101883,11,4
0.847453,-11.4852,1.82403,28,12
0.833347,-11.294,-0.990786,10,5
0.791544,-10.7531,2.09585,43,13
0.651366,-8.86991,-0.466104,100,6
0.630473,-8.60596,1.99217,57,14
0.650226,-8.89691,-0.15571,100,7
0.852271,-11.6895,3.14051,31,15
0.794279,-11.1079,0.194385,13,8
0.0377132,-0.528714,-0.122373,15,1
0.62571,-8.79367,0.462022,40,9
0.844406,-11.8965,1.04343,24,10
0.0429707,-0.606897,-0.0963636,15,3
0.571869,-8.09687,0.996648,36,11
0.0555249,-0.788113,-0.097008,7,4
0.778553,-11.0783,-0.971612,2,5
0.753456,-10.748,2.09432,35,13
0.574981,-8.22261,-0.431981,97,6
0.599886,-8.60033,1.99037,46,14
0.844571,-12.1388,-0.212396,77,7
0.592669,-8.78395,0.461394,60,9
0.0391205,-0.579805,-0.112959,16,2
0.771365,-11.4622,1.00508,44,10
0.0428626,-0.638585,-0.10137,14,3
0.767603,-11.466,1.411,27,11
0.0544875,-0.816041,-0.10042,6,4
0.79024,-11.8663,-1.04047,24,5
0.759987,-11.4422,2.22903,42,13
0.54484,-8.22466,-0.431981,36,6
0.568103,-8.59858,1.98947,51,14
0.782455,-11.8744,-0.207719,48,7
0.545224,-8.47719,0.148276,90,8
0.0370964,-0.579938,-0.112959,16,2
0.726658,-11.3912,0.99863,48,10
0.0396299,-0.62296,-0.0988666,15,3
0.523593,-8.2533,1.01542,22,11
0.0530174,-0.838019,-0.103101,11,4
0.745403,-11.8149,1.87502,42,12
0.596892,-9.46098,-0.829374,8,5
0.697606,-11.0881,2.15958,47,13
0.516128,-8.22651,-0.431981,100,6
0.538328,-8.6044,1.99037,43,14
0.533057,-8.54408,-0.149428,40,7
1.534,-24.6568,6.61956,18,15
0.533959,-8.78044,0.153546,83,8
0.0383894,-0.634935,-0.123644,14,2
0.69888,-11.5926,1.01606,25,10
0.0388775,-0.646756,-0.102621,14,3
0.492167,-8.21149,1.01005,33,11
0.0494996,-0.828291,-0.101883,11,4
0.676664,-11.3561,1.80181,39,12
1.22064,-20.4853,-1.79541,8,5
0.650631,-10.9514,2.13248,33,13
0.487644,-8.23225,-0.43219,25,6
0.690052,-11.6838,2.70211,31,14
0.502407,-8.53192,-0.149183,23,7
1.45222,-24.7353,6.63923,11,15
0.500331,-8.73034,0.152639,18,8
0.0302352,-0.529194,-0.122373,15,1
0.499744,-8.77372,0.460556,35,9
0.0330468,-0.580183,-0.112959,16,2
0.693651,-12.2156,1.07045,20,10
0.0366198,-0.646888,-0.102621,14,3
0.463948,-8.22108,1.01103,45,11
0.0453816,-0.806657,-0.0992016,13,4
0.636909,-11.3564,1.8015,54,12
0.498028,-8.88007,-0.778126,18,5
0.645825,-11.5514,2.24887,9,13
0.450014,-8.07437,-0.423817,50,6
0.650344,-11.7056,2.70661,48,14
0.476381,-8.60151,-0.15037,49,7
1.33957,-24.2638,6.51137,14,15
0.59002,-11.0371,0.579254,41,9
0.606165,-11.3763,0.996713,48,10
0.0339423,-0.639121,-0.10137,14,3
0.435143,-8.22067,1.01078,31,11
0.0443436,-0.84051,-0.103345,5,4
0.604213,-11.4907,1.82246,22,12
0.460264,-8.78235,-0.769411,13,5
0.423911,-8.11578,-0.42591,47,6
0.607454,-11.6688,2.69761,61,14
0.443246,-8.54321,-0.149323,32,7
1.28549,-24.8606,6.67028,7,15
0.550592,-11.0211,0.578312,47,9
0.0288942,-0.580405,-0.112959,16,2
0.658937,-13.2829,1.16353,25,10
0.0314046,-0.635296,-0.100744,14,3
0.405074,-8.19438,1.00737,29,11
0.0411163,-0.834712,-0.102614,11,4
0.558774,-11.3842,1.80525,50,12
0.466688,-9.5421,-0.835824,29,5
0.528077,-10.8361,2.10882,47,13
0.391352,-8.05943,-0.422875,39,6
0.561762,-11.6107,2.68367,52,14
0.415741,-8.59264,-0.150161,100,7
1.19889,-24.8688,6.67132,15,15
0.558544,-11.9772,0.209289,34,8
0.513694,-11.0569,0.580092,30,9
0.0268681,-0.580502,-0.112959,16,2
0.612659,-13.2871,1.1637,57,10
0.0290055,-0.631455,-0.100118,14,3
0.3754,-8.20374,1.00835,42,11
0.0370623,-0.813044,-0.0999329,12,4
0.515344,-11.3052,1.79243,49,12
0.435454,-9.58945,-0.839833,37,5
0.487056,-10.7673,2.09508,47,13
0.365554,-8.11262,-0.425596,79,6
0.523939,-11.6729,2.69761,42,14
0.356423,-7.94079,-0.138747,86,7
0.518651,-11.9749,0.209219,47,8
0.381396,-8.87762,0.465685,58,9
0.0248417,-0.580592,-0.112959,16,2
0.850683,-19.9636,1.74817,21,10
0.0252294,-0.592076,-0.0938607,16,3
0.347604,-8.19106,1.00664,42,11
0.0341982,-0.809195,-0.0994454,12,4
0.545569,-12.9628,2.05492,14,12
0.40323,-9.62077,-0.842447,39,5
0.447072,-10.6668,2.07524,36,13
0.338566,-8.1118,-0.425491,97,6
0.479563,-11.5383,2.66612,52,14
0.328372,-7.934,-0.138607,100,7
0.474697,-11.9227,0.208277,40,8
0.0209949,-0.529641,-0.122373,15,1
0.346546,-8.7811,0.460556,29,9
0.448205,-11.4076,0.998805,27,10
0.0247068,-0.631638,-0.100118,14,3
0.317929,-8.16445,1.00323,45,11
0.0303738,-0.783523,-0.0962768,28,4
0.504126,-13.0633,2.07057,45,12
0.374167,-9.69572,-0.848897,37,5
0.412624,-10.7409,2.08936,39,13
0.324903,-8.49612,-0.445588,18,6
0.44173,-11.6041,2.68097,50,14
0.299841,-7.91312,-0.138223,100,7
0.445706,-12.272,0.21435,18,8
0.0191459,-0.529711,-0.122373,15,1
0.315031,-8.75831,0.4593,22,9
0.0209597,-0.58271,-0.113341,16,2
0.408597,-11.4151,0.999328,40,10
0.0222205,-0.623823,-0.0988666,15,3
0.0281285,-0.797511,-0.097983,27,4
0.462056,-13.1657,2.08652,50,12
0.347378,-9.89807,-0.866502,24,5
0.388832,-11.1347,2.16568,35,13
0.295869,-8.51517,-0.44653,14,6
0.386476,-11.1791,2.58244,46,14
0.273593,-7.95408,-0.138921,100,7
0.0172968,-0.529775,-0.122373,15,1
0.383575,-11.8116,0.619344,21,9
0.367525,-11.3786,0.996016,46,10
0.0202965,-0.631795,-0.100118,29,3
0.265297,-8.30338,1.02005,27,11
0.026227,-0.825382,-0.101395,24,4
0.415224,-13.1396,2.08214,30,12
0.308169,-9.75186,-0.853603,33,5
0.358041,-11.393,2.21567,25,13
0.349146,-11.2349,2.59504,72,14
0.245766,-7.95299,-0.138886,86,7
0.358312,-11.6609,3.12602,25,15
0.262995,-8.96678,0.156583,100,8
0.25926,-8.94596,0.469035,58,9
0.0168912,-0.582842,-0.113341,16,2
0.32683,-11.3459,0.993053,44,10
0.0178648,-0.623963,-0.0988666,15,3
0.326317,-11.4672,1.40857,35,11
0.022953,-0.811578,-0.0996891,12,4
0.377736,-13.4391,2.12939,8,12
0.272783,-9.70508,-0.84942,43,5
0.325833,-11.665,2.26834,39,13
0.255368,-9.19983,-0.482328,97,6
0.307617,-11.1523,2.57569,56,14
0.218659,-7.97779,-0.139305,70,7
0.309086,-11.3493,3.04216,37,15
0.227046,-8.78773,0.153442,62,8
0.0135979,-0.529883,-0.122373,15,1
0.228539,-8.96678,0.470082,39,9
0.0148565,-0.582897,-0.113341,16,2
0.290905,-11.4924,1.00578,25,10
0.0156867,-0.624022,-0.0988666,15,3
0.211532,-8.4737,1.04076,9,11
0.0220384,-0.889048,-0.109195,4,4
0.196742,-7.99304,-0.699512,26,5
0.283771,-11.6111,2.25765,38,13
0.222526,-9.17071,-0.480758,100,6
0.272769,-11.3228,2.61483,58,14
0.191002,-7.9865,-0.139445,70,7
0.271071,-11.4179,3.06028,37,15
0.195743,-8.76048,0.152953,80,8
0.0117481,-0.529927,-0.122373,15,1
0.194955,-8.86369,0.464639,40,9
0.249959,-11.4555,1.00247,34,10
0.0129954,-0.600374,-0.0951122,15,3
0.176073,-8.20051,1.00713,42,11
0.252035,-11.9326,1.89035,40,12
0.168335,-7.96977,-0.69742,30,5
0.243075,-11.6042,2.25613,41,13
0.195988,-9.43501,-0.494575,49,6
0.233524,-11.3373,2.61798,52,14
0.161409,-7.90315,-0.137979,100,7
0.237003,-11.7046,3.13689,29,15
0.155363,-8.24128,0.143878,77,8
0.00989827,-0.529965,-0.122373,15,1
0.163644,-8.84435,0.463592,128,9
0.0107868,-0.582987,-0.113341,16,2
0.210666,-11.4942,1.00578,23,10
0.0111865,-0.616216,-0.0976151,15,3
0.223166,-12.4128,1.52434,28,11
0.0138523,-0.778033,-0.0955456,7,4
0.229707,-13.0295,2.064,12,12
0.140866,-7.99023,-0.699163,46,5
0.202771,-11.6168,2.25842,29,13
0.157946,-9.14009,-0.479083,76,6
0.199848,-11.6829,2.69761,48,14
0.133616,-7.89167,-0.137769,100,7
0.342831,-20.4593,5.48282,21,15
0.126012,-8.20378,0.143214,66,8
0.00804827,-0.529996,-0.122373,15,1
0.147009,-9.79346,0.513311,18,9
0.127596,-8.6002,0.752503,78,10
0.00920914,-0.628102,-0.0994923,14,3
0.179464,-12.3877,1.52117,28,11
0.0110228,-0.770137,-0.0945706,7,4
0.184392,-13.0421,2.06587,18,12
0.113114,-8.00064,-0.700035,50,5
0.183794,-13.1623,2.55875,33,13
0.125708,-9.11662,-0.477827,100,6
0.15482,-11.3718,2.62563,44,14
0.105774,-7.87009,-0.137385,100,7
0.274436,-20.6883,5.5439,11,15
0.0975631,-8.22017,0.143494,60,8
0.233516,-20.2708,1.06242,12,9
0.00671658,-0.583048,-0.113341,16,2
0.0961055,-8.4711,0.741172,37,10
0.00688419,-0.616279,-0.0976151,15,3
0.128736,-11.7074,1.43757,23,11
0.00811958,-0.750321,-0.0921332,8,4
0.138444,-13.0032,2.05962,18,12
0.0838513,-8.00697,-0.700558,26,5
0.130444,-12.4562,2.42137,14,13
0.0990478,-9.61829,-0.5041,42,6
0.114947,-11.3547,2.62158,50,14
0.0781608,-7.85641,-0.137141,62,7
0.203844,-20.8553,5.58842,11,15
0.0736105,-8.78635,0.153372,97,8
0.00434807,-0.53004,-0.122373,15,1
0.00457955,-0.583069,-0.113341,16,2
0.0645986,-8.41162,0.735943,60,10
0.00450676,-0.600498,-0.0951122,15,3
0.0627941,-8.36693,1.02736,19,11
0.00567511,-0.774165,-0.0950581,22,4
0.0829195,-11.5873,1.83529,38,12
0.0562358,-8.05503,-0.704741,32,5
0.0561245,-8.4622,-0.443495,47,6
0.0730777,-11.3161,2.61258,22,14
0.050595,-7.83464,-0.136757,38,7
0.0687265,-10.9379,2.93087,9,15
0.0415288,-8.81256,0.153826,38,8
0.0442925,-9.7605,0.511532,105,9
0.00254422,-0.583081,-0.113341,16,2
0.0349939,-8.35402,0.730888,73,10
0.00252167,-0.628165,-0.0994923,14,3
0.0319214,-8.31351,1.02078,76,11
0.00291027,-0.794032,-0.0974955,27,4
0.0423109,-11.544,1.82841,7,12
0.028397,-8.13488,-0.711714,10,5
0.0299799,-9.54286,-0.500122,66,6
0.0334852,-11.2851,2.60538,52,14
0.0254784,-8.58665,-0.149881,57,7
0.013187,-9.44455,0.164855,77,8
0.000647588,-0.530057,-0.122373,15,1
0.0102895,-9.82451,0.514881,112,9
0.000508852,-0.583086,-0.113341,16,2
0.0059772,-8.5613,0.749016,80,10
0.000452358,-0.647923,-0.102621,14,3
0.00433156,-8.27386,1.0159,51,11
0.000300085,-0.859545,-0.105539,20,4
0.00353554,-20.2496,3.20722,6,12
-4.02182e-07,-9.20085,-0.80497,28,5
-5.41588e-07,-12.3901,2.40839,15,13
-0.00464815,-13.3196,3.07508,29,14
-0.00450551,-8.60469,-0.150195,90,7
-0.00945567,-13.5442,3.62916,18,15
-0.0163373,-7.8008,0.136164,20,8
-0.00120261,-0.530056,-0.122373,15,1
-0.0239864,-9.8165,0.514463,30,9
-0.00142476,-0.583085,-0.113341,16,2
-0.0224708,-8.58318,0.750934,60,10
-0.00180926,-0.647921,-0.102621,14,3
-0.0244841,-8.25199,1.01322,51,11
-0.00280009,-0.891302,-0.109439,16,4
-0.0290573,-8.76248,-0.766622,6,5
-0.0441398,-12.6452,2.458,38,13
-0.0511967,-13.3332,3.07823,55,14
-0.0345647,-8.61062,-0.1503,99,7
-0.0568943,-13.5827,3.63951,30,15
-0.0451867,-8.09064,0.141225,35,8
-0.00289573,-0.502767,-0.116075,16,1
-0.077309,-13.0279,0.682775,44,9
-0.00346004,-0.583076,-0.113341,16,2
-0.05259,-8.60895,0.7532,16,10
-0.00407101,-0.647911,-0.102621,14,3
-0.053647,-8.30744,1.02005,40,11
-0.00609564,-0.919078,-0.112851,9,4
-0.079707,-11.7098,1.85469,8,12
-0.0594407,-8.73244,-0.764007,13,5
-0.0878963,-12.59,2.44732,45,13
-0.0642564,-8.97945,-0.470605,36,6
-0.0977366,-13.3329,3.07823,42,14
-0.0653268,-8.70443,-0.151941,100,7
-0.104559,-13.6153,3.64831,27,15
-0.071196,-7.84448,0.136932,85,8
-0.00490307,-0.530035,-0.122373,15,1
-0.0924803,-9.8121,0.514253,39,9
-0.00549542,-0.583061,-0.113341,16,2
-0.133577,-13.4265,1.64865,33,11
-0.00948455,-0.936916,-0.115045,8,4
-0.0903728,-8.77601,-0.767842,2,5
-0.13283,-12.6839,2.46563,40,13
-0.0937717,-8.80741,-0.461603,54,6
-0.144402,-13.3442,3.08093,44,14
-0.109607,-9.96788,-0.174,96,7
-0.120473,-10.7849,2.88997,19,15
-0.0988294,-7.86418,0.137281,72,8
-0.00675316,-0.530014,-0.122373,15,1
-0.126884,-9.8237,0.514881,53,9
-0.0075306,-0.583038,-0.113341,16,2
-0.111412,-8.51076,0.744659,61,10
-0.119699,-8.90631,1.09366,25,11
-0.0131873,-0.968635,-0.118944,7,4
-0.161509,-11.7129,1.85531,30,12
-0.11826,-8.57642,-0.750411,15,5
-0.173293,-12.4105,2.41259,23,13
-0.117004,-8.27582,-0.43376,58,6
-0.190648,-13.3202,3.07553,34,14
-0.147209,-10.1614,-0.177386,100,7
-0.158458,-10.8075,2.89619,42,15
-0.125958,-7.84379,0.136932,100,8
-0.00860329,-0.529988,-0.122373,15,1
-0.139843,-8.52315,0.44674,26,9
-0.00872828,-0.53197,-0.103418,18,2
-0.140855,-8.49438,0.743264,60,10
-0.150754,-8.90385,1.09341,27,11
-0.0165685,-0.968583,-0.118944,7,4
-0.224987,-13.0197,2.06243,5,12
-0.148615,-8.51418,-0.745007,37,5
-0.218669,-12.5276,2.43549,15,13
-0.143849,-8.15953,-0.427689,83,6
-0.238009,-13.3682,3.08678,34,14
-0.182931,-10.1748,-0.177631,100,7
-0.153181,-7.83531,0.136792,81,8
-0.00991516,-0.502677,-0.116075,16,1
-0.168959,-8.49066,0.445065,34,9
-0.0117025,-0.582969,-0.113341,16,2
-0.168397,-8.31652,0.72775,26,10
-0.179158,-8.77228,1.07733,35,11
-0.0199902,-0.970504,-0.119188,7,4
-0.181506,-8.66499,-0.758255,33,5
-0.26504,-12.5483,2.43968,38,13
-0.184897,-8.68211,-0.455114,43,6
-0.284913,-13.2698,3.06428,59,14
-0.213939,-9.96419,-0.173966,100,7
-0.180506,-7.77472,0.135745,92,8
-0.198969,-8.506,0.445902,78,9
-0.0137373,-0.582925,-0.113341,16,2
-0.196009,-8.25613,0.722521,48,10
-0.205906,-8.54731,1.04978,19,11
-0.0244621,-1.00813,-0.123819,1,4
-0.202406,-8.34154,1.32156,79,12
-0.214234,-8.76589,-0.767145,26,5
-0.308019,-12.5139,2.4332,25,13
-0.214409,-8.64947,-0.453439,100,6
-0.329968,-13.2181,3.05259,29,14
-0.253859,-10.1693,-0.177561,71,7
-0.332065,-13.2097,3.54064,19,15
-0.012811,-0.482793,-0.12941,15,0
-0.206075,-7.76608,0.135605,100,8
-0.241864,-8.9964,0.471652,50,9
-0.0157721,-0.582873,-0.113341,16,2
-0.224989,-8.26137,0.723044,45,10
-0.232508,-8.48308,1.04198,33,11
-0.0316364,-1.14695,-0.140881,1,4
-0.236126,-8.50665,1.34784,26,12
-0.246778,-8.83479,-0.773246,11,5
-0.349515,-12.5128,2.4332,49,13
-0.241352,-8.58682,-0.450194,65,6
-0.372806,-13.1819,3.04449,36,14
-0.289583,-10.1763,-0.1777,97,7
-0.376294,-13.1428,3.52304,28,15
-0.231862,-7.72134,0.134837,67,8
-0.270779,-8.91365,0.46736,72,9
-0.0177049,-0.582818,-0.113341,16,2
-0.259989,-8.50951,0.744833,78,10
-0.261873,-8.47428,1.04101,47,11
-0.0316935,-1.01985,-0.125282,1,4
-0.368124,-11.7793,1.86658,37,12
-0.26247,-8.35196,-0.731062,5,5
-0.394115,-12.541,2.43892,39,13
-0.272648,-8.62785,-0.452392,47,6
-0.406193,-12.7831,2.95271,34,14
-0.255752,-8.0047,-0.139794,100,7
-0.420989,-13.1047,3.51321,33,15
-0.260219,-7.76246,0.13557,68,8
-0.0178516,-0.529757,-0.122373,15,1
-0.294724,-8.70106,0.456265,31,9
-0.0198408,-0.582749,-0.113341,16,2
-0.28552,-8.34323,0.730365,54,10
-0.291589,-8.47729,1.0415,23,11
-0.0358019,-1.0356,-0.127232,9,4
-0.677033,-19.4852,3.08802,15,12
-0.438907,-12.5061,2.43243,41,13
-0.291104,-8.25353,-0.432818,32,6
-0.454146,-12.8127,2.95991,53,14
-0.284684,-8.03173,-0.140282,100,7
-0.465632,-13.0723,3.50493,33,15
-0.286513,-7.7035,0.134558,23,8
-0.0192235,-0.512049,-0.0996023,19,2
-0.322301,-8.54526,0.748145,78,10
-0.322658,-8.47616,1.0415,30,11
-0.0399007,-1.0434,-0.128207,27,4
-0.483392,-12.5261,2.43663,41,13
-0.316818,-8.17264,-0.428632,21,6
-0.498338,-12.7974,2.95676,57,14
-0.314277,-8.03463,-0.140352,88,7
-0.522641,-13.3021,3.56704,21,15
-0.346245,-8.50966,0.14866,77,8
-0.0216419,-0.529615,-0.122373,15,1
-0.355261,-8.65682,0.454067,123,9
-0.0239087,-0.582596,-0.113341,16,2
-0.358364,-8.69538,0.761393,39,10
-0.349605,-8.41151,1.0337,57,11
-0.0435428,-1.04325,-0.128207,47,4
-0.0692491,-1.65223,-0.144679,4,5
-0.525378,-12.4831,2.42862,44,13
-0.550608,-12.9747,2.99815,38,14
-0.566594,-13.2423,3.55152,29,15
-0.372947,-8.44048,0.147473,82,8
-0.375911,-8.47403,0.444542,78,9
-0.0259421,-0.582509,-0.113341,16,2
-0.380348,-8.50697,0.745007,86,10
-0.380841,-8.45189,1.03881,76,11
-0.0479914,-1.06094,-0.1304,69,4
-0.537015,-11.8717,1.88222,9,12
-0.074564,-1.64203,-0.143807,18,5
-0.569487,-12.493,2.43091,48,13
-0.0777858,-1.69989,-0.0891805,1,6
-0.590796,-12.8618,2.9725,46,14
-0.60045,-13.0223,3.49302,36,15
-0.0252463,-0.529456,-0.122373,15,1
-0.410358,-8.57441,0.44988,35,9
-0.0279754,-0.582415,-0.113341,16,2
-0.401214,-8.32251,0.728971,71,10
-0.408195,-8.4367,1.03711,73,11
-0.0501614,-1.03302,-0.126988,57,4
-0.578933,-11.8796,1.88378,14,12
-0.0797114,-1.62982,-0.142761,34,5
-0.668838,-13.6754,2.6614,23,13
-0.0804851,-1.63977,-0.0860403,11,6
-0.625008,-12.6885,2.93291,27,14
-0.64437,-12.9893,3.48474,29,15
-0.430288,-8.43575,0.147438,1,8
-0.0270944,-0.529364,-0.122373,15,1
-0.444281,-8.65071,0.453962,47,9
-0.0299066,-0.582319,-0.113341,16,2
-0.426042,-8.26741,0.724264,86,10
-0.434454,-8.37377,1.02955,54,11
-0.0537669,-1.03283,-0.126988,40,4
-0.711484,-13.6214,2.16036,18,12
-0.084983,-1.62157,-0.142064,47,5
-0.673299,-12.7621,2.95046,70,14
-0.0883664,-1.66941,-0.0291804,11,7
-0.689811,-12.9889,3.48526,39,15
-0.028942,-0.529267,-0.122373,15,1
-0.498543,-9.08785,0.47699,13,9
-0.455791,-8.25584,0.723393,71,10
-0.463461,-8.36824,1.02906,30,11
-0.058253,-1.0485,-0.128938,25,4
-0.471574,-8.46124,1.34221,34,12
-0.0901978,-1.61331,-0.141367,51,5
-0.799659,-14.2583,2.77589,17,13
-0.092217,-1.63916,-0.0860403,52,6
-0.719851,-12.7556,2.94956,57,14
-0.0926159,-1.64114,-0.0286918,29,7
-0.732961,-12.9478,3.4749,39,15
-0.0957122,-1.64497,0.0287616,3,8
-0.0308817,-0.529157,-0.122373,15,1
-0.496635,-8.45907,0.741347,18,10
-0.479383,-8.11679,0.998354,54,11
-0.0626823,-1.05818,-0.130156,14,4
-0.498484,-8.39043,1.33126,88,12
-0.0953563,-1.60503,-0.140669,51,5
-0.856898,-14.3809,2.80031,37,13
-0.0972233,-1.62686,-0.0854123,57,6
-0.760758,-12.6928,2.93561,53,14
-0.0981502,-1.6328,-0.0285521,43,7
-0.777041,-12.8891,3.45989,43,15
-0.101331,-1.64263,0.0287267,19,8
-0.0327286,-0.529046,-0.122373,15,1
-0.102645,-1.65454,0.0868777,3,9
-0.508456,-8.12696,0.999816,27,11
-0.0667486,-1.0639,-0.130888,13,4
-0.533846,-8.48524,1.34659,33,12
-0.100833,-1.6027,-0.140495,54,5
-0.101766,-1.60857,-0.0844702,59,6
-0.802097,-12.6433,2.92481,55,14
-0.104484,-1.64243,-0.0287267,48,7
-0.829284,-13.0001,3.49043,37,15
-0.106804,-1.63827,0.0286569,38,8
-0.107871,-1.65021,0.0866684,13,9
-0.112625,-1.71374,0.150256,1,10
-0.0426018,-0.646522,-0.102621,14,3
-0.544151,-8.23606,1.01347,2,11
-0.0695435,-1.0498,-0.129182,13,4
-0.559631,-8.44795,1.34096,74,12
-0.107087,-1.61228,-0.141367,52,5
-0.107115,-1.60422,-0.0842609,61,6
-0.845966,-12.6366,2.92391,25,14
-0.108461,-1.62013,-0.0283427,51,7
-0.886491,-13.2073,3.54686,36,15
-0.112099,-1.63591,0.0286219,52,8
-0.113219,-1.64384,0.0863543,33,9
-0.115166,-1.66365,0.145899,5,10
-0.0447456,-0.646377,-0.102621,14,3
-0.0726109,-1.04362,-0.12845,13,4
-0.598601,-8.58191,1.36254,44,12
-0.11202,-1.60195,-0.140495,58,5
-1.01795,-14.5573,2.83657,10,13
-0.112434,-1.60386,-0.0842609,64,6
-0.889915,-12.6629,2.93066,12,14
-0.113975,-1.61774,-0.0283078,55,7
-0.117234,-1.62753,0.0284823,64,8
-0.118238,-1.63748,0.0860403,55,9
-0.118664,-1.63544,0.143458,21,10
-0.045282,-0.622574,-0.0988666,15,3
-0.122118,-1.67494,0.206203,1,11
-0.0779899,-1.06712,-0.131375,15,4
-0.634256,-8.67839,1.37819,9,12
-0.116021,-1.58369,-0.138926,75,5
-1.91795,-26.1175,5.0904,16,13
-0.118472,-1.60943,-0.0845749,68,6
-2.73996,-37.1336,8.59628,50,14
-0.11875,-1.60938,-0.0281682,58,7
-0.977651,-13.2183,3.55152,13,15
-0.121428,-1.61118,0.0282031,81,8
-0.124255,-1.64104,0.0862497,60,9
-0.0441249,-0.581415,-0.113341,16,2
-0.124674,-1.63899,0.143807,41,10
-0.0491443,-0.646057,-0.102621,14,3
-0.127219,-1.66859,0.205472,12,11
-0.081528,-1.06685,-0.131375,14,4
-0.666506,-8.70173,1.38226,10,12
-0.122158,-1.59122,-0.139624,82,5
-0.123195,-1.60106,-0.0841562,86,6
-2.85873,-37.068,8.58323,50,14
-0.123905,-1.60297,-0.0280635,66,7
-1.01842,-13.1455,3.53288,27,15
-0.126894,-1.60876,0.0281682,88,8
-0.12872,-1.62467,0.0854123,63,9
-0.0460528,-0.581265,-0.113341,16,2
-0.129163,-1.62665,0.142761,58,10
-0.0513991,-0.645882,-0.102621,14,3
-0.130834,-1.64043,0.202059,38,11
-0.0846189,-1.05865,-0.1304,12,4
-0.711072,-8.87656,1.41041,16,12
-0.12835,-1.59873,-0.140321,61,5
-1.03409,-12.8807,2.51181,44,13
-0.127181,-1.58072,-0.0831095,100,6
-1.07853,-13.3756,3.09803,14,14
-0.130627,-1.61648,-0.0283078,93,7
-1.07069,-13.2208,3.5541,25,15
-0.132838,-1.61229,0.028238,100,8
-0.133567,-1.61426,0.0848889,74,9
-0.0481829,-0.581092,-0.113341,16,2
-0.135949,-1.63609,0.143633,75,10
-0.058028,-0.696872,-0.110756,12,3
-0.136394,-1.63799,0.201816,70,11
-0.0853424,-1.02274,-0.126013,7,4
-0.724276,-8.66143,1.37662,28,12
-1.96973,-23.4569,4.5756,27,13
-0.134314,-1.59616,-0.0839469,100,6
-1.12541,-13.3463,3.09218,53,14
-0.135261,-1.60406,-0.0280984,100,7
-1.11634,-13.2112,3.55255,25,15
-0.138746,-1.61179,0.028238,100,8
-0.138795,-1.6058,0.0844702,81,9
-0.0502109,-0.580921,-0.113341,16,2
-0.140455,-1.62171,0.142412,81,10
-0.0645592,-0.743896,-0.118264,10,3
-0.142569,-1.63945,0.202059,85,11
-0.0865055,-0.992755,-0.122357,4,4
-0.754298,-8.63904,1.37349,7,12
-0.137082,-1.57001,-0.13788,31,5
-2.03671,-23.2797,4.5424,13,13
-0.139536,-1.5917,-0.0837375,100,6
-1.1841,-13.4801,3.12412,51,14
-0.141139,-1.60356,-0.0280984,100,7
-1.16442,-13.2032,3.55152,25,15
-0.144371,-1.6113,0.028238,100,8
-0.0475698,-0.529875,-0.122823,15,1
-0.145294,-1.61525,0.0849936,97,9
-0.0522385,-0.580742,-0.113341,16,2
-0.145042,-1.60931,0.141367,91,10
-0.0696427,-0.77121,-0.122645,9,3
-0.147217,-1.62708,0.200597,92,11
-0.0906873,-1.00035,-0.123332,9,4
-0.147955,-1.62891,0.259056,10,12
-0.142741,-1.5715,-0.138055,50,5
-2.1386,-23.4992,4.58667,16,13
-0.145816,-1.59916,-0.0841562,100,6
-1.21555,-13.3052,3.08453,48,14
-0.146918,-1.60504,-0.0281333,100,7
-1.20979,-13.1913,3.54944,31,15
-0.149254,-1.60282,0.0280984,100,8
-0.150746,-1.61275,0.0848889,99,9
-0.0542653,-0.580556,-0.113341,16,2
-0.150659,-1.60879,0.141367,100,10
-0.0741796,-0.790629,-0.125773,8,3
-0.153082,-1.62854,0.200841,100,11
-0.0945509,-1.00398,-0.123819,9,4
-0.154383,-1.63625,0.260307,18,12
-0.148226,-1.571,-0.138055,83,5
-0.151021,-1.59467,-0.0839469,100,6
-0.153277,-1.61248,-0.0282729,100,7
-0.154655,-1.6003,0.0280635,100,8
-0.0512678,-0.52953,-0.122823,15,1
-0.156567,-1.6142,0.0849936,100,9
-0.0562916,-0.580363,-0.113341,16,2
-0.155503,-1.60032,0.140669,100,10
-0.0780872,-0.802162,-0.127651,8,3
-0.157224,-1.61219,0.198891,100,11
-0.0953525,-0.975989,-0.120407,7,4
-0.160093,-1.6357,0.260307,36,12
-0.153903,-1.57245,-0.138229,99,5
-0.156196,-1.59015,-0.0837375,100,6
-0.158512,-1.60796,-0.0282031,100,7
-1.2075,-12.2271,3.29218,12,15
-0.160639,-1.60373,0.0281333,100,8
-0.0531159,-0.529348,-0.122823,15,1
-0.161402,-1.60569,0.0845749,100,9
-0.058317,-0.580163,-0.113341,16,2
-0.161687,-1.60572,0.141192,100,10
-0.0816799,-0.809746,-0.128902,8,3
-0.163649,-1.61953,0.199866,100,11
-0.0963598,-0.95195,-0.117482,9,4
-0.165005,-1.62727,0.259056,48,12
-0.158989,-1.56794,-0.13788,77,5
-3.75669,-36.9839,7.22594,21,13
-0.161746,-1.5896,-0.0837375,21,6
-1.36884,-13.4293,3.11647,53,14
-0.16453,-1.61138,-0.0282729,100,7
-0.166648,-1.60714,0.0282031,100,8
-0.0549633,-0.529159,-0.122823,15,1
-0.166592,-1.60115,0.0843656,100,9
-0.0603418,-0.579956,-0.113341,16,2
-0.167291,-1.60514,0.141192,100,10
-0.0853264,-0.817315,-0.130153,7,3
-0.168269,-1.60908,0.198647,100,11
-0.0972004,-0.927916,-0.114557,11,4
-0.169653,-1.61686,0.257491,54,12
-0.124541,-1.18693,-0.104413,46,5
-3.89315,-37.0409,7.23968,35,13
-0.168339,-1.59896,-0.0842609,15,6
-0.168893,-1.59886,-0.0280635,100,7
-0.171618,-1.60058,0.0280984,100,8
-0.0568101,-0.528964,-0.122823,15,1
-0.171901,-1.60059,0.0843656,100,9
-0.172039,-1.59662,0.140495,100,10
-0.086695,-0.803264,-0.127963,16,3
-0.174951,-1.61835,0.199866,100,11
-0.10108,-0.933492,-0.115288,11,4
-0.175652,-1.62218,0.25843,65,12
-0.120305,-1.10923,-0.0976144,56,5
-1.39791,-12.868,2.51601,28,13
-0.172839,-1.58843,-0.0837375,66,6
-1.47903,-13.5706,3.15156,36,14
-0.173761,-1.59431,-0.0279937,100,7
-0.176265,-1.59404,0.0279937,100,8
-0.0585639,-0.528773,-0.122823,15,1
-0.178588,-1.6099,0.0848889,100,9
-0.17539,-1.57856,-0.308729,3,2
-0.178713,-1.60591,0.141367,100,10
-0.0941648,-0.846164,-0.134847,13,3
-0.181636,-1.62959,0.201328,100,11
-0.101973,-0.913423,-0.112851,13,4
-0.181094,-1.61959,0.258117,70,12
-0.12329,-1.10089,-0.0969172,40,5
-1.4314,-12.7814,2.49998,41,13
-0.177661,-1.58388,-0.0835282,100,6
-1.52402,-13.5656,3.15156,31,14
-0.179549,-1.59569,-0.0280286,100,7
-0.181148,-1.58745,0.0278889,100,8
-0.0604093,-0.528565,-0.122823,15,1
-0.184207,-1.60927,0.0848889,100,9
-0.182856,-1.59747,-0.312545,2,2
-0.184265,-1.60729,0.141541,100,10
-0.0950899,-0.828168,-0.132031,14,3
-0.183922,-1.59937,0.197672,100,11
-0.104933,-0.91109,-0.112607,13,4
-0.186746,-1.61895,0.258117,70,12
-0.125798,-1.09058,-0.0960456,7,5
-1.48705,-12.8719,2.51868,42,13
-0.181352,-1.56738,-0.0826908,100,6
-1.56553,-13.5099,3.13987,46,14
-0.186731,-1.60895,-0.0282729,100,7
-0.187623,-1.59476,0.0280286,100,8
-0.062254,-0.528351,-0.122823,15,1
-0.18795,-1.59275,0.0840516,100,9
-0.190272,-1.61242,-0.315598,2,2
-0.190108,-1.60862,0.141715,100,10
-0.0996055,-0.841563,-0.134221,13,3
-0.189737,-1.60069,0.197916,100,11
-0.102965,-0.867351,-0.107245,13,4
-0.192396,-1.61829,0.258117,72,12
-0.129369,-1.08815,-0.0958713,5,5
-1.53174,-12.8646,2.5183,35,13
-0.189896,-1.59252,-0.0840516,100,6
-1.61083,-13.4888,3.13627,63,14
-0.191872,-1.60432,-0.0282031,100,7
-0.194151,-1.60203,0.0281682,100,8
-0.0640978,-0.528131,-0.122823,15,1
-0.193991,-1.59605,0.0842609,100,9
-0.192583,-1.58447,-0.310255,3,2
-0.194999,-1.60201,0.141192,100,10
-0.103021,-0.845132,-0.134847,13,3
-0.194843,-1.59608,0.197428,100,11
-0.105751,-0.865015,-0.107001,13,4
-0.197324,-1.61173,0.257178,77,12
-0.13244,-1.08176,-0.0953484,8,5
-1.5752,-12.8475,2.51601,50,13
-0.195454,-1.59184,-0.0840516,100,6
-1.6679,-13.5644,3.15516,54,14
-0.196004,-1.59173,-0.0279937,100,7
-0.198752,-1.59341,0.0280286,100,8
-0.065941,-0.527904,-0.122823,15,1
-0.200553,-1.60329,0.0846796,100,9
-0.198113,-1.58378,-0.310255,3,2
-0.199848,-1.59539,0.140669,100,10
-0.10302,-0.821247,-0.131092,15,3
-0.202639,-1.61311,0.199622,100,11
-0.107779,-0.856763,-0.106026,9,4
-0.202455,-1.60711,0.256553,75,12
-0.130986,-1.03978,-0.0916878,6,5
-1.62102,-12.8497,2.51753,40,13
-0.202261,-1.60106,-0.0845749,60,6
-0.202313,-1.59699,-0.0280984,100,7
-0.202532,-1.57882,0.0277842,100,8
-0.0677833,-0.52767,-0.122823,15,1
-0.206657,-1.60654,0.0848889,100,9
-0.204892,-1.59282,-0.312164,3,2
-0.20567,-1.59666,0.140844,100,10
-0.10538,-0.816964,-0.130466,15,3
-0.208269,-1.6124,0.199622,100,11
-0.109241,-0.844569,-0.104564,10,4
-0.208825,-1.61227,0.257491,72,12
-0.131721,-1.01558,-0.0895961,5,5
-1.66385,-12.8284,2.51448,46,13
-0.208661,-1.60222,-0.0282031,54,7
-0.209609,-1.59,0.0279937,100,8
-0.0696248,-0.52743,-0.122823,15,1
-0.212002,-1.60383,0.0847843,100,9
-0.211759,-1.59984,-0.31369,2,2
-0.212044,-1.59984,0.141192,100,10
-0.106295,-0.800906,-0.127963,16,3
-0.211807,-1.59592,0.197672,100,11
-0.111927,-0.842215,-0.10432,5,4
-0.215233,-1.6174,0.25843,75,12
-0.132633,-0.995366,-0.087853,5,5
-1.71111,-12.8242,2.51486,29,13
-0.150234,-1.12445,-0.0594537,4,6
-0.214253,-1.60149,-0.0282031,11,7
-0.215167,-1.58724,0.0279588,59,8
-0.0715574,-0.527172,-0.122823,15,1
-0.215719,-1.58923,0.0840516,99,9
-0.215756,-1.58742,-0.3114,3,2
-0.218702,-1.60699,0.14189,100,10
-0.110957,-0.814231,-0.130153,31,3
-0.217923,-1.5971,0.197916,100,11
-0.112594,-0.824098,-0.102127,11,4
-0.220877,-1.61664,0.25843,75,12
-0.136647,-0.998845,-0.0882016,3,5
-0.149815,-1.09226,-0.0577789,10,6
-0.219842,-1.60073,-0.0282031,7,7
-0.222356,-1.60038,0.0282031,11,8
-0.0733052,-0.526932,-0.122823,15,1
-0.222643,-1.59835,0.0845749,55,9
-0.223465,-1.60221,-0.314453,1,2
-0.223483,-1.6003,0.141367,100,10
-0.11147,-0.798208,-0.127651,33,3
-0.224043,-1.60226,0.198647,100,11
-0.114501,-0.817822,-0.101395,6,4
-0.225422,-1.60804,0.257178,75,12
-0.136533,-0.972713,-0.0859356,3,5
-0.151769,-1.07989,-0.0571509,17,6
-0.226265,-1.60589,-0.0283078,5,7
-0.226248,-1.58772,0.0279937,6,8
-0.0751441,-0.526672,-0.122823,15,1
-0.230763,-1.61536,0.085517,11,9
-0.22625,-1.5818,0.139798,73,10
-0.116777,-0.815413,-0.130466,30,3
-0.230198,-1.6054,0.199135,100,11
-0.122433,-0.852786,-0.105783,5,4
-0.231596,-1.61115,0.257804,75,12
-0.138224,-0.960398,-0.0848897,3,5
-0.151834,-1.05366,-0.0557901,12,6
-0.228438,-1.58134,-0.0278889,6,7
-0.229766,-1.57307,0.0277493,5,8
-0.0769821,-0.526407,-0.122823,15,1
-0.235532,-1.60862,0.0852029,6,9
-0.112584,-0.76612,-0.122645,38,3
-0.236089,-1.60655,0.199378,100,11
-0.125409,-0.852354,-0.105783,5,4
-0.237507,-1.61229,0.258117,67,12
-0.136634,-0.926401,-0.0819264,2,5
-0.148392,-1.0037,-0.0531733,10,6
-0.226929,-1.53306,-0.0270512,7,7
-0.237307,-1.58408,0.0279588,9,8
-0.078911,-0.526121,-0.122823,15,1
-0.241146,-1.60779,0.0852029,5,9
-0.238748,-1.58802,0.140495,5,10
-0.114082,-0.757908,-0.121393,29,3
-0.123201,-0.816556,-0.101395,6,4
-0.243722,-1.61535,0.258743,36,12
-0.138676,-0.918039,-0.0812292,2,5
-8.66871,-57.3192,11.2684,18,13
-0.150101,-0.991325,-0.0525453,8,6
-0.171437,-1.13091,-0.0199656,3,7
-1.30788,-8.53708,0.150754,18,8
-0.0806553,-0.525857,-0.122823,15,1
-1.32957,-8.65849,0.459091,8,9
-0.247018,-1.6049,0.142064,5,10
-0.117195,-0.761431,-0.122019,28,3
-0.246694,-1.60094,0.198891,7,11
-0.12046,-0.78083,-0.097008,7,4
-0.250566,-1.6223,0.259994,6,12
-0.143707,-0.929363,-0.082275,2,5
-8.86714,-57.3444,11.2791,18,13
-0.150943,-0.975032,-0.0517079,10,6
-8.9283,-57.6068,13.4584,26,14
-0.174157,-1.1224,-0.0198259,16,7
-1.37422,-8.76558,0.154873,37,8
-0.0824903,-0.525572,-0.122823,15,1
-0.249242,-1.58439,0.140321,7,10
-0.116779,-0.741504,-0.11889,20,3
-0.252899,-1.60399,0.199378,6,11
-0.122431,-0.776504,-0.0965205,7,4
-0.254096,-1.60976,0.258117,5,12
-0.144922,-0.917073,-0.0812292,2,5
-9.05867,-57.2588,11.2684,18,13
-0.151221,-0.954772,-0.0506612,6,6
-0.175686,-1.10799,-0.0195816,30,7
-1.39696,-8.72149,0.154175,10,8
-1.35219,-8.43255,0.447577,131,9
-0.257656,-1.60323,0.142064,2,10
-0.116727,-0.72551,-0.116387,21,3
-0.258849,-1.60706,0.199866,5,11
-0.126268,-0.783933,-0.0974955,6,4
-0.257861,-1.59915,0.256553,4,12
-0.145422,-0.900852,-0.0798347,3,5
-7.30471,-45.2006,8.90009,10,13
-0.153748,-0.950322,-0.0504519,6,6
-0.177121,-1.09358,-0.0193373,21,7
-1.39712,-8.52239,0.452601,108,9
-4.01201,-24.4463,2.16739,5,10
