x, y, z, intensity, ring
11.5552,-7.54998,0.723388,23,9
0.532504,-0.34793,-0.123644,29,2
7.28465,-4.7615,0.761393,45,10
12.4973,-8.17178,-2.36498,8,3
11.5124,-7.53065,1.68911,41,11
4.38518,-2.86958,-0.64347,20,4
11.5576,-7.56595,2.18789,22,12
8.23995,-5.39618,1.91458,26,13
9.82349,-6.43566,-0.615471,13,6
11.7711,-7.71451,3.24919,11,14
12.2748,-8.04772,-0.256201,51,7
9.96699,-6.53713,3.19383,16,15
6.27141,-4.12581,0.131033,41,8
0.472073,-0.310684,-0.130472,14,1
7.27825,-4.79183,0.456684,123,9
0.534504,-0.352039,-0.124407,14,2
11.5113,-7.58455,1.20606,26,10
6.32847,-4.17128,-1.20048,3,3
11.4778,-7.56533,1.68789,41,11
6.49884,-4.28845,-0.681209,33,5
8.25125,-5.4469,1.92183,52,13
12.0498,-7.95746,-0.756778,3,6
8.29079,-5.47716,2.29405,3,14
6.47871,-4.28004,-0.135535,38,7
6.19791,-4.11009,0.129811,79,8
0.454692,-0.301639,-0.125973,15,1
6.97607,-4.62962,0.438785,34,9
0.530001,-0.351732,-0.123644,29,2
11.5196,-7.64783,1.20972,10,10
4.3195,-2.86878,-0.821281,5,3
11.4748,-7.62382,1.69155,48,11
4.36288,-2.89979,-0.643226,27,4
11.3814,-7.56752,2.16474,35,12
6.48052,-4.30891,-0.680861,7,5
11.5293,-7.66876,2.69155,13,13
13.1626,-8.75848,-0.828583,13,6
12.6483,-8.41945,3.50789,38,14
6.5179,-4.34033,-0.136687,93,7
6.18519,-4.13281,0.129846,68,8
0.460117,-0.307556,-0.127772,14,1
7.01797,-4.6928,0.442448,29,9
0.535298,-0.357945,-0.125171,29,2
7.35112,-4.91743,0.773769,20,10
4.37513,-2.92779,-0.833796,28,3
11.4712,-7.67929,1.69496,33,11
4.38902,-2.9393,-0.648589,17,4
11.4616,-7.67867,2.18508,60,12
7.04478,-4.71963,-0.74187,2,5
10.7197,-7.18431,2.50838,22,13
6.9409,-4.65355,-0.437947,25,6
8.21189,-5.50777,2.2828,14,14
6.40806,-4.29955,-0.134698,100,7
10.1262,-6.79684,3.26785,12,15
6.28187,-4.2292,0.132185,78,8
0.420248,-0.283034,-0.116975,16,1
0.514507,-0.346647,-0.120591,31,2
11.4362,-7.70802,1.20658,44,10
4.39928,-2.96623,-0.840366,8,3
9.51882,-6.42053,1.40978,13,11
5.39896,-3.64301,-0.799707,8,4
11.4593,-7.73521,2.18977,53,12
6.96716,-4.70295,-0.73542,23,5
10.553,-7.1261,2.47517,6,13
7.02392,-4.74483,-0.444228,7,6
8.24429,-5.57132,2.2972,21,14
6.38142,-4.31405,-0.134453,97,7
10.2128,-6.90682,3.30357,23,15
6.19922,-4.20508,0.130753,78,8
0.438608,-0.29763,-0.122373,15,1
6.93216,-4.70579,0.439099,31,9
0.536035,-0.363879,-0.125934,29,2
11.4026,-7.74341,1.20589,21,10
14.6847,-9.97594,-2.81175,7,3
9.51934,-6.46934,1.4132,16,11
6.54028,-4.44644,-0.971055,13,4
11.852,-8.06067,2.27018,16,12
6.78925,-4.61743,-0.718338,12,5
10.5394,-7.17063,2.47785,4,13
12.2909,-8.36541,-0.779178,26,6
11.4174,-7.77384,3.18891,58,14
7.03072,-4.78884,-0.148485,48,7
10.4521,-7.12191,3.38898,22,15
6.29842,-4.30455,0.133162,77,8
0.456871,-0.312358,-0.127772,14,1
6.89344,-4.71297,0.437633,30,9
0.53152,-0.363531,-0.125171,29,2
6.91281,-4.72975,0.732805,24,10
6.75026,-4.62027,-1.29559,13,3
8.19291,-5.6098,1.21918,17,11
6.34784,-4.34809,-0.944731,57,4
11.8317,-8.10439,2.27143,48,12
6.77473,-4.64223,-0.718512,23,5
10.4965,-7.19516,2.47365,0,13
13.9121,-9.54006,-0.884059,27,6
8.19716,-5.62322,2.29495,27,14
7.0148,-4.81213,-0.148485,32,7
10.4762,-7.18933,3.40451,8,15
6.20998,-4.27439,0.131591,72,8
0.436572,-0.300609,-0.122373,15,1
6.89339,-4.74833,0.43868,58,9
0.520548,-0.3587,-0.122881,30,2
6.8372,-4.71315,0.72653,60,10
4.40265,-3.03492,-0.846936,23,3
8.21185,-5.66286,1.22479,28,11
7.61281,-5.25173,-1.13558,19,4
10.4564,-7.21878,2.46983,1,13
9.67647,-6.68283,-0.616308,20,6
8.17526,-5.64816,2.29405,17,14
12.6914,-8.77157,-0.269291,40,7
8.14695,-5.6328,2.65393,14,15
6.22789,-4.31883,0.132289,60,8
0.416306,-0.288802,-0.116975,16,1
6.8095,-4.72568,0.434388,78,9
0.522518,-0.362754,-0.123644,29,2
6.83135,-4.74261,0.727576,30,10
6.7073,-4.65822,-1.2934,23,3
8.21974,-5.71074,1.22893,31,11
7.52108,-5.22729,-1.12461,12,4
12.1138,-8.42247,2.33682,5,12
12.6452,-8.79521,-1.3476,5,5
13.0419,-9.07786,-0.83277,35,6
11.6039,-8.07691,3.26404,18,14
9.50169,-6.61615,-0.202099,100,7
8.08602,-5.6325,2.64047,15,15
6.1481,-4.29695,0.130928,38,8
0.418439,-0.292559,-0.117874,16,1
7.21766,-5.04823,0.461603,60,9
0.52762,-0.369169,-0.125171,29,2
11.8827,-8.3142,1.26881,30,10
6.64811,-4.65333,-1.28527,60,3
12.799,-8.96194,1.91847,16,11
6.94744,-4.86646,-1.0415,24,4
11.9988,-8.40787,2.32055,17,12
13.4352,-9.41789,-1.43546,17,5
7.06836,-4.95852,-0.452497,29,6
11.5534,-8.10484,3.25819,24,14
9.55922,-6.70837,-0.203844,20,7
10.1303,-7.11175,3.31651,16,15
6.20914,-4.37358,0.132568,56,8
0.407806,-0.287356,-0.115175,16,1
6.75672,-4.76281,0.433237,85,9
0.526328,-0.371008,-0.125171,14,2
11.8424,-8.35081,1.26777,35,10
6.67459,-4.70841,-1.29371,45,3
11.1101,-7.8402,1.66961,15,11
9.13995,-6.4523,-1.37371,24,4
12.1389,-8.57258,2.35371,19,12
9.77458,-6.90288,-1.04691,2,5
12.4333,-8.78375,2.95907,3,13
10.4974,-7.41883,-0.673669,35,6
9.51824,-6.73181,-0.203495,66,7
8.04136,-5.68939,2.63944,34,15
0.432225,-0.306826,-0.122373,15,1
6.73842,-4.78521,0.433132,39,9
0.521828,-0.37057,-0.124407,14,2
6.77639,-4.81395,0.727228,50,10
6.57116,-4.66988,-1.27682,60,3
9.61843,-6.83799,1.44903,10,11
6.97877,-4.96322,-1.05149,13,4
12.096,-8.60574,2.35121,31,12
6.70159,-4.76786,-0.719558,6,5
11.6588,-8.29775,2.78161,9,13
12.9494,-9.21967,-0.833084,35,6
12.4978,-8.90473,-0.26786,33,7
8.04033,-5.73088,2.64565,23,15
6.43549,-4.60056,0.138083,33,8
0.4153,-0.296997,-0.117874,16,1
6.42279,-4.59488,0.413873,39,9
0.517338,-0.370105,-0.123644,29,2
11.6024,-8.30342,1.24824,27,10
6.53555,-4.67899,-1.27306,26,3
12.6464,-9.05724,1.90994,20,11
6.85974,-4.91471,-1.03613,41,4
12.1382,-8.69969,2.36529,46,12
12.3075,-8.82104,-1.32477,28,5
11.6729,-8.36928,2.79192,7,13
9.72476,-6.97509,-0.627194,19,6
10.0431,-7.20606,2.85373,2,14
7.2844,-5.22859,-0.156513,8,7
8.014,-5.7544,2.64358,47,15
6.48754,-4.67208,0.139549,52,8
0.417423,-0.300723,-0.118774,16,1
6.78749,-4.89169,0.438471,18,9
0.522414,-0.3765,-0.125171,14,2
11.5749,-8.34503,1.24842,30,10
6.29648,-4.54116,-1.22958,52,3
12.6275,-9.11062,1.91189,16,11
6.7846,-4.89681,-1.02736,11,4
12.1814,-8.7952,2.37968,34,12
12.3122,-8.88961,-1.3286,5,5
11.6054,-8.38239,2.78276,24,13
10.9145,-7.88629,-0.705698,16,6
11.474,-8.29362,3.26854,2,14
7.23207,-5.22938,-0.15578,92,7
7.91716,-5.72686,2.61821,17,15
6.8548,-4.973,0.147822,18,8
0.416371,-0.302178,-0.118774,16,1
6.45359,-4.68537,0.417955,54,9
0.533806,-0.387548,-0.128224,14,2
6.58052,-4.77927,0.71154,52,10
6.13835,-4.45977,-1.20173,25,3
12.6085,-9.16398,1.91384,4,11
6.9505,-5.05354,-1.05514,11,4
12.165,-8.84813,2.3825,22,12
8.96554,-6.52342,-0.970043,17,5
11.5745,-8.42169,2.78238,32,13
8.8975,-6.47628,-0.576742,43,6
11.8956,-8.66168,3.39721,2,14
7.06507,-5.14627,-0.152569,41,7
8.07043,-5.88075,2.67567,7,15
0.409021,-0.299029,-0.116975,16,1
6.4114,-4.689,0.41628,51,9
0.526044,-0.384865,-0.126697,14,2
6.57421,-4.81159,0.71276,9,10
6.14269,-4.49741,-1.2058,15,3
8.30634,-6.08155,1.26403,2,11
6.8079,-4.98628,-1.03613,13,4
6.60781,-4.84327,-0.716769,6,5
11.477,-8.4153,2.76635,11,13
11.6878,-8.57611,3.34682,2,14
7.2502,-5.31996,-0.156967,41,7
12.8184,-9.40917,4.26068,12,15
6.67252,-4.91401,0.144646,56,8
0.414198,-0.30515,-0.118774,16,1
6.28002,-4.62834,0.408849,24,9
0.515215,-0.379711,-0.124407,14,2
8.82976,-6.50986,0.959759,23,10
6.34157,-4.67712,-1.24803,26,3
12.5362,-9.24925,1.91286,4,11
6.78638,-5.00884,-1.03565,13,4
11.836,-8.739,2.33025,4,12
7.45704,-5.50785,-0.811071,30,5
9.86996,-7.29007,2.38511,4,13
8.79792,-6.50062,-0.573288,37,6
9.95588,-7.3589,2.85823,21,14
7.0554,-5.21691,-0.153162,49,7
10.2785,-7.62514,0.223391,11,8
0.410001,-0.304271,-0.117874,16,1
6.01205,-4.46332,0.392415,48,9
0.510668,-0.379255,-0.123644,14,2
8.64911,-6.42574,0.942677,12,10
6.14206,-4.56482,-1.21205,46,3
9.13412,-6.78855,1.39735,6,11
6.77045,-5.03368,-1.03589,26,4
54.4891,-40.5262,10.7555,22,12
7.38661,-5.49579,-0.805493,34,5
12.6292,-9.3998,3.06019,5,13
13.9981,-10.4225,-0.914623,20,6
10.1695,-7.57461,2.92751,2,14
7.16865,-5.33945,-0.156025,92,7
11.9018,-8.86812,3.97701,12,15
12.3694,-9.24679,0.26957,22,8
0.40264,-0.301104,-0.116075,16,1
6.08841,-4.55471,0.398486,37,9
0.515629,-0.38574,-0.125171,29,2
6.54813,-4.90041,0.715549,20,10
8.58822,-6.42949,-1.69919,15,3
9.02973,-6.76248,1.38517,26,11
6.77896,-5.0787,-1.04003,11,4
11.8158,-8.85546,2.3387,11,12
7.36579,-5.52035,-0.805319,10,5
10.7616,-8.06829,2.61446,10,13
17.9529,-13.4648,-1.17609,24,6
11.4368,-8.58076,3.30093,38,14
7.24019,-5.43411,-0.158014,92,7
12.0515,-9.04856,4.03809,31,15
0.4047,-0.304852,-0.116975,16,1
6.46965,-4.87523,0.424549,131,9
0.523687,-0.394626,-0.12746,14,2
7.24852,-5.46414,0.794163,16,10
3.97137,-2.99481,-0.787804,7,3
8.97755,-6.77244,1.38078,26,11
15.2638,-11.5188,-2.34793,22,4
8.6981,-6.5664,-0.953484,22,5
9.32104,-7.04178,-0.612226,6,6
11.7053,-8.84622,3.38731,13,14
7.27541,-5.50036,-0.159201,41,7
12.2248,-9.24556,4.10694,18,15
0.422262,-0.320399,-0.122373,15,1
6.08192,-4.61643,0.400161,66,9
0.503541,-0.382208,-0.122881,15,2
12.2008,-9.26428,1.34028,17,10
8.92224,-6.77972,1.37591,32,11
8.87365,-6.74524,-1.36859,15,4
8.97011,-6.82103,-0.985906,72,5
10.5206,-8.00297,2.56943,41,13
8.72263,-6.63765,-0.57444,3,6
11.5922,-8.82447,3.36347,18,14
9.10481,-6.9335,-0.19976,47,7
11.7023,-8.91473,3.94181,15,15
9.12251,-6.96964,0.200389,22,8
0.408755,-0.312404,-0.118774,16,1
6.27679,-4.79897,0.414082,27,9
0.499084,-0.381579,-0.122118,15,2
12.1573,-9.29834,1.33906,11,10
3.94566,-3.01886,-0.786865,23,3
7.22759,-5.53191,1.11754,15,11
8.78228,-6.72428,-1.35811,4,4
11.7664,-9.01234,2.34746,1,12
8.83869,-6.76992,-0.974053,17,5
10.4739,-8.02532,2.56485,18,13
8.62015,-6.6073,-0.569206,6,6
11.1144,-8.52219,3.23345,2,14
9.08373,-6.96767,-0.19983,47,7
11.5975,-8.89907,3.91697,19,15
11.8731,-9.13688,0.261507,45,8
0.420015,-0.323339,-0.122373,15,1
5.40234,-4.16036,0.35735,32,9
0.510193,-0.392901,-0.125171,14,2
10.2197,-7.8731,1.12867,23,10
3.91945,-3.02056,-0.783737,37,3
7.24911,-5.58861,1.12388,34,11
6.68224,-5.15345,-1.03613,5,4
11.7645,-9.07628,2.3534,16,12
8.79962,-6.79131,-0.972484,4,5
12.3404,-9.52402,3.03005,9,13
9.16616,-7.07675,-0.606888,6,6
11.3637,-8.77653,3.31488,18,14
7.08766,-5.47599,-0.156339,41,7
12.0799,-9.33644,4.09089,10,15
9.27752,-7.1912,0.204891,55,8
0.418884,-0.324803,-0.122373,15,1
5.3578,-4.15594,0.355361,27,9
0.499443,-0.387547,-0.122881,15,2
10.2223,-7.93494,1.13215,52,10
3.89899,-3.02764,-0.78186,38,3
7.21701,-5.60414,1.12193,34,11
9.87639,-7.67196,-1.53555,15,4
11.764,-9.14154,2.35966,15,12
8.75699,-6.80731,-0.970392,12,5
8.91631,-6.93616,-0.592024,27,6
9.71356,-7.55908,2.84158,6,14
8.81235,-6.85775,-0.194908,37,7
12.5534,-9.77254,4.26275,18,15
9.29208,-7.25715,0.205799,33,8
0.417691,-0.326336,-0.122373,15,1
5.30319,-4.1448,0.352744,29,9
0.507368,-0.396542,-0.125171,14,2
8.90275,-6.9606,0.988695,34,10
3.88373,-3.03758,-0.780921,37,3
8.6848,-6.79508,1.35397,12,11
5.39619,-4.22356,-0.841386,4,4
7.19191,-5.63107,1.44671,19,12
14.8152,-11.5999,-1.6462,18,5
12.527,-9.81183,3.09301,16,13
8.68452,-6.80464,-0.578208,40,6
9.77607,-7.66266,2.86768,57,14
8.7604,-6.86903,-0.194315,100,7
12.5175,-9.81848,4.26275,15,15
9.34841,-7.35383,0.207614,13,8
0.416549,-0.327792,-0.122373,15,1
12.1718,-9.58173,0.811835,19,9
0.512152,-0.403168,-0.126697,14,2
8.91597,-7.02121,0.992878,25,10
3.89638,-3.06945,-0.785614,15,3
9.91926,-7.8169,1.55067,7,11
9.46161,-7.46161,1.9085,20,12
14.7996,-11.6713,-1.64899,7,5
12.3478,-9.74119,3.05714,35,13
8.26248,-6.52063,-0.551621,35,6
8.84622,-6.98632,-0.196758,100,7
12.5741,-9.93397,4.29381,13,15
5.68483,-4.50413,0.1266,12,8
0.415403,-0.329244,-0.122373,15,1
12.2338,-9.69985,0.81822,26,9
0.492281,-0.390317,-0.122118,15,2
8.86955,-7.03496,0.990438,8,10
3.91504,-3.10636,-0.791559,32,3
10.8917,-8.64502,1.70739,23,11
5.40544,-4.29198,-0.84748,30,4
7.21275,-5.72906,1.45891,29,12
8.52335,-6.77249,-0.952438,10,5
7.25357,-5.76355,1.80086,11,13
8.18964,-6.50967,-0.548272,21,6
11.9386,-9.493,3.52138,24,14
8.78266,-6.98604,-0.195886,75,7
9.28772,-7.39043,3.18037,4,15
5.84257,-4.66239,0.130474,42,8
0.438618,-0.350144,-0.129572,14,1
0.509253,-0.406823,-0.126697,14,2
4.92925,-3.9392,0.552044,15,10
3.88974,-3.10959,-0.788743,13,3
7.06264,-5.64611,1.11023,22,11
5.31136,-4.2476,-0.835049,48,4
9.40466,-7.52378,1.90756,25,12
5.04317,-4.03601,-0.565118,11,5
11.6678,-9.34096,2.90526,20,13
6.1999,-4.96528,-0.41628,43,6
9.70458,-7.77484,2.87083,17,14
8.55222,-6.85162,-0.191278,92,7
11.3738,-9.11541,3.90558,13,15
0.413036,-0.332208,-0.122373,15,1
26.3168,-21.1744,1.77021,15,9
0.501712,-0.403675,-0.125171,14,2
4.9015,-3.94514,0.550476,26,10
10.3134,-8.30403,-2.09716,2,3
10.9439,-8.81489,1.72543,23,11
7.16849,-5.77805,1.45828,4,12
5.01974,-4.04608,-0.564072,13,5
7.16323,-5.77587,1.78864,14,13
6.1701,-4.97686,-0.415443,87,6
9.66829,-7.80132,2.86813,42,14
7.19197,-5.80526,-0.16133,59,7
11.3103,-9.13276,3.89523,27,15
5.64588,-4.57195,0.126809,44,8
0.393703,-0.318928,-0.116975,16,1
9.74482,-7.89683,0.65734,4,9
0.481996,-0.390591,-0.120591,15,2
5.16629,-4.18806,0.581852,20,10
3.86334,-3.13294,-0.787804,6,3
6.96194,-5.64773,1.10072,15,11
14.9408,-12.1247,-2.36256,12,4
7.17282,-5.82296,1.46329,11,12
5.02106,-4.07614,-0.565815,11,5
6.21159,-5.04622,-0.41942,32,6
9.63192,-7.82765,2.86543,51,14
7.19183,-5.84673,-0.161784,34,7
11.2349,-9.13684,3.88022,5,15
5.81895,-4.74582,0.131068,24,8
0.386547,-0.315373,-0.115175,16,1
0.482151,-0.393513,-0.120973,15,2
5.20566,-4.25017,0.587953,20,10
6.60626,-5.39562,-1.35097,30,3
8.82684,-7.21183,1.39955,22,11
5.42108,-4.43078,-0.859666,16,4
9.4326,-7.71225,1.92978,16,12
5.03456,-4.11634,-0.568953,13,5
7.18808,-5.87919,1.80505,19,13
6.13366,-5.01855,-0.415338,65,6
7.2264,-5.91474,2.15593,21,14
10.9791,-8.98949,-0.247685,8,7
9.69942,-7.94454,3.35947,2,15
5.69882,-4.68106,0.128729,52,8
0.409534,-0.336515,-0.122373,15,1
5.02216,-4.12819,0.340707,27,9
0.492907,-0.405167,-0.124026,14,2
9.92606,-8.16206,1.12431,30,10
9.51495,-7.82679,-1.95136,20,3
10.7943,-8.88233,1.71641,7,11
3.88214,-3.19564,-0.61739,5,4
5.10014,-4.19975,-0.578017,5,5
9.94209,-8.1898,2.5038,35,13
6.17159,-5.08566,-0.419106,76,6
9.52742,-7.8538,2.85058,19,14
9.91707,-8.17791,-0.224368,55,7
7.32898,-6.04584,2.54574,22,15
0.390341,-0.323033,-0.116975,16,1
4.98618,-4.12786,0.339242,54,9
0.473343,-0.391861,-0.119446,15,2
5.06077,-4.1911,0.574879,18,10
3.81054,-3.15684,-0.783737,13,3
8.8206,-7.31001,1.40662,35,11
3.87402,-3.21171,-0.617878,31,4
9.28882,-7.70352,1.91132,21,12
5.1974,-4.31037,-0.590742,16,5
7.16046,-5.94051,1.80849,12,13
6.14304,-5.09824,-0.418374,68,6
9.54792,-7.92684,2.86498,23,14
8.36858,-6.9502,-0.189882,9,7
7.32715,-6.08744,2.55247,44,15
0.425139,-0.354338,-0.127772,14,1
4.99629,-4.1657,0.340916,75,9
0.484035,-0.403569,-0.122499,15,2
5.09048,-4.24575,0.579934,78,10
8.3043,-6.92871,-1.71296,5,3
8.92914,-7.45269,1.42807,27,11
3.86736,-3.22903,-0.618609,40,4
9.10723,-7.60673,1.8794,39,12
7.18337,-6.00197,1.81955,27,13
6.16352,-5.15167,-0.42099,25,6
5.83639,-4.88171,-0.132813,36,7
6.54715,-5.49371,0.149183,16,8
0.405988,-0.340785,-0.122373,15,1
4.97174,-4.17326,0.340184,44,9
0.482623,-0.405256,-0.122499,15,2
4.8651,-4.08665,0.555879,82,10
8.15151,-6.84963,-1.68636,6,3
5.68314,-4.77717,0.911583,13,11
3.84391,-3.23229,-0.616659,8,4
9.03055,-7.59366,1.86877,34,12
8.04733,-6.76928,-0.920016,5,5
9.85879,-8.29599,2.50456,35,13
6.23718,-5.25033,-0.427271,25,6
9.39099,-7.90795,2.83438,8,14
5.79569,-4.88043,-0.132254,100,7
7.26929,-6.12348,2.54678,22,15
5.81093,-4.90888,0.132778,63,8
0.404856,-0.34213,-0.122373,15,1
9.18367,-7.76355,0.63023,16,9
0.493199,-0.41708,-0.125552,14,2
4.98923,-4.2207,0.571742,37,10
8.12121,-6.87025,-1.6848,8,3
8.91306,-7.54279,1.43367,3,11
3.8665,-3.27324,-0.622021,12,4
9.07183,-7.68259,1.88285,42,12
7.99629,-6.77415,-0.916878,7,5
9.85669,-8.35021,2.51105,45,13
6.15421,-5.21546,-0.42277,50,6
7.18705,-6.0929,2.17528,25,14
5.77853,-4.91618,0.132429,20,8
0.403659,-0.343541,-0.122373,15,1
5.2147,-4.43963,0.35892,38,9
0.49174,-0.418799,-0.125552,14,2
5.01616,-4.2721,0.576448,20,10
5.60516,-4.77712,0.904271,6,11
3.83693,-3.27126,-0.619096,26,4
9.02391,-7.69626,1.87847,15,12
7.95137,-6.78392,-0.914438,9,5
9.71103,-8.28814,2.48166,7,13
6.21404,-5.30542,-0.428213,72,6
9.20208,-7.85654,2.79344,68,14
8.164,-6.97271,-0.187404,45,7
5.78021,-4.95424,0.132883,38,8
0.384644,-0.329797,-0.116975,16,1
5.65774,-4.8527,0.390636,53,9
0.469342,-0.402701,-0.12021,15,2
4.83565,-4.14905,0.557448,97,10
5.58611,-4.79634,0.904027,65,11
5.27506,-4.53087,-0.853817,5,4
5.53763,-4.75807,1.15636,6,12
7.89926,-6.78964,-0.9113,7,5
9.70887,-8.348,2.48891,17,13
6.22332,-5.3529,-0.430202,83,6
9.08753,-7.81651,2.76735,87,14
5.79191,-4.98359,-0.133371,29,7
7.20954,-6.20556,2.54885,45,15
5.98753,-5.17012,0.138083,26,8
0.383433,-0.331204,-0.116975,16,1
5.52657,-4.77546,0.382785,54,9
0.485759,-0.41974,-0.124789,14,2
4.80383,-4.15241,0.555531,46,10
9.32993,-8.0676,-1.95355,32,3
5.56099,-4.81029,0.902808,11,11
5.26743,-4.55796,-0.855279,9,4
5.54554,-4.80031,1.16168,17,12
9.3292,-8.0755,-1.07951,26,5
6.13365,-5.31313,-0.425282,65,6
9.10742,-7.89188,2.78219,23,14
9.27464,-8.03961,-0.214246,100,7
9.04911,-7.84689,3.20936,40,15
0.399918,-0.347889,-0.122373,15,1
5.48727,-4.77506,0.381215,72,9
0.478367,-0.416278,-0.123263,15,2
4.84791,-4.22017,0.562329,75,10
8.93078,-7.7771,-1.87565,13,3
5.58308,-4.86357,0.909145,24,11
3.8043,-3.31519,-0.619584,3,4
5.24286,-4.57041,1.10161,15,12
10.0233,-8.73776,-1.16335,27,5
9.54678,-8.32525,2.4622,32,13
6.13914,-5.35552,-0.426957,39,6
6.99487,-6.10416,2.14333,22,14
8.36827,-7.30525,-0.193896,100,7
9.68374,-8.4566,3.44488,9,15
5.41273,-4.74015,0.125588,45,8
0.398701,-0.349282,-0.122373,15,1
5.46456,-4.78892,0.380796,53,9
0.497582,-0.436061,-0.128605,14,2
4.88559,-4.28304,0.56843,46,10
5.59165,-4.90375,-1.17795,8,3
5.49742,-4.82281,0.897933,99,11
3.78972,-3.32583,-0.619096,28,4
8.37573,-7.35308,-0.975098,21,5
9.48078,-8.32614,2.45266,64,13
6.0724,-5.33473,-0.423607,43,6
6.58857,-5.79227,-0.153127,66,7
9.6295,-8.46866,3.43608,12,15
5.97206,-5.26693,0.138991,97,8
0.39748,-0.350672,-0.122373,15,1
5.42834,-4.79078,0.379436,69,9
0.484281,-0.427402,-0.125552,14,2
4.80041,-4.23809,0.560237,48,10
9.29824,-8.21193,-1.96482,37,3
5.43444,-4.80122,0.890377,73,11
3.79445,-3.3535,-0.621777,15,4
5.18714,-4.58597,1.09661,45,12
6.35729,-5.6205,-0.742393,8,5
9.41784,-8.32927,2.44388,42,13
5.56908,-4.92711,-0.389694,38,6
10.0735,-8.91543,3.10567,61,14
6.4635,-5.72245,-0.150684,100,7
10.229,-9.05939,3.66125,3,15
5.77272,-5.12707,0.134767,46,8
0.396253,-0.352057,-0.122373,15,1
5.43249,-4.82828,0.380901,60,9
0.456372,-0.405614,-0.118683,15,2
4.75283,-4.2257,0.556402,60,10
7.78905,-6.92761,-1.65101,7,3
5.35684,-4.76607,0.880384,52,11
8.33331,-7.4221,-0.976319,14,5
9.37991,-8.35426,2.44159,52,13
5.53395,-4.93057,-0.388438,38,6
10.1238,-9.02314,3.13087,8,14
6.47632,-5.77425,-0.151452,41,7
7.29943,-6.51042,2.6208,2,15
5.14667,-4.60327,0.120526,17,8
0.395022,-0.353438,-0.122373,15,1
5.40221,-4.83522,0.379959,47,9
0.463659,-0.415141,-0.120973,15,2
4.83081,-4.32683,0.567384,48,10
8.81112,-7.89466,-1.87377,7,3
5.23816,-4.69333,0.863566,52,11
10.0312,-8.99101,-1.65401,22,4
5.14912,-4.6168,1.09535,19,12
13.3309,-11.957,-1.56671,3,5
9.39745,-8.43185,2.45419,39,13
5.47869,-4.91747,-0.385821,63,6
8.74939,-7.8559,2.71471,38,14
6.48589,-5.82354,-0.15215,33,7
5.13273,-4.62478,0.120596,13,8
0.379249,-0.341837,-0.117874,16,1
5.40522,-4.87372,0.381424,72,9
0.485536,-0.437792,-0.127079,14,2
4.75502,-4.28896,0.560237,67,10
7.65715,-6.90906,-1.63349,2,3
5.29755,-4.78166,0.876241,54,11
10.1897,-9.20066,-1.6857,21,4
9.11944,-8.23716,1.94636,39,12
8.95705,-8.09332,-1.05615,26,5
9.12906,-8.24874,2.3916,50,13
5.49705,-4.96871,-0.388333,45,6
6.51492,-5.89288,-0.153337,100,7
9.4372,-8.53914,3.4102,8,15
0.429202,-0.389449,-0.155291,12,0
0.392482,-0.356256,-0.122373,15,1
5.3586,-4.8657,0.379331,48,9
0.483928,-0.439569,-0.127079,14,2
4.71862,-4.2876,0.557797,43,10
7.62447,-6.93044,-1.63192,1,3
5.09133,-4.62788,0.844798,28,11
7.85168,-7.13947,-1.30303,8,4
9.04826,-8.2304,1.93728,50,12
8.89043,-8.08967,-1.05162,28,5
9.06973,-8.25571,2.38397,40,13
5.54082,-5.0453,-0.392729,58,6
9.00846,-8.20569,2.81324,8,14
8.17665,-7.44801,-0.193059,46,7
0.356533,-0.325788,-0.12941,15,0
5.9113,-5.40344,0.139794,100,8
0.373916,-0.341912,-0.116975,16,1
0.465007,-0.425354,-0.122499,15,2
4.8271,-4.41702,0.572439,9,10
12.993,-11.8933,-2.78985,13,3
4.81227,-4.40655,0.801169,30,11
12.5023,-11.4522,-2.08177,9,4
8.98745,-8.23548,1.93071,49,12
13.2396,-12.1318,-1.57107,27,5
9.01191,-8.26079,2.37634,46,13
5.67922,-5.20769,-0.403824,79,6
8.23918,-7.5604,-0.195188,65,7
9.41997,-8.64695,3.42625,24,15
0.389923,-0.359055,-0.122373,15,1
0.477959,-0.440276,-0.126316,14,2
4.77355,-4.39874,0.567907,20,10
12.9702,-11.956,-2.79392,9,3
5.09019,-4.6938,0.850161,35,11
6.33107,-5.8401,-1.05758,5,4
8.4186,-7.76846,1.81433,31,12
13.0083,-12.0037,-1.54858,3,5
8.96715,-8.27755,2.37214,43,13
5.53188,-5.10825,-0.394613,79,6
8.97243,-8.28822,2.81999,57,14
13.1063,-12.1111,-0.311491,22,7
8.99678,-8.31653,3.28286,25,15
0.388667,-0.360414,-0.122373,15,1
5.16676,-4.79118,0.369283,32,9
0.45339,-0.420579,-0.12021,15,2
4.76109,-4.41809,0.568255,43,10
9.00212,-8.35651,-1.94542,33,3
4.69557,-4.36034,0.786789,20,11
6.36737,-5.91485,-1.06709,26,4
8.6837,-8.06657,1.87721,76,12
12.978,-12.0599,-1.54998,16,5
8.93533,-8.30612,2.37137,35,13
5.57691,-5.18601,-0.399114,65,6
8.94344,-8.31949,2.81999,63,14
5.82292,-5.41668,-0.138816,63,7
8.92248,-8.30289,3.26578,36,15
5.7033,-5.32213,0.136164,24,8
0.38747,-0.361701,-0.122373,15,1
5.01133,-4.67968,0.359339,54,9
0.469135,-0.438242,-0.124789,14,2
4.74564,-4.43468,0.568255,67,10
7.58303,-7.08615,-1.64381,25,3
5.03782,-4.70936,0.846748,35,11
5.00431,-4.68132,1.08534,23,12
5.99801,-5.61284,-0.718686,13,5
8.9063,-8.33437,2.37099,21,13
5.72298,-5.35735,-0.410837,39,6
8.90869,-8.34244,2.81774,59,14
5.79231,-5.42603,-0.138537,63,7
8.87512,-8.31682,3.25905,44,15
13.0044,-12.2205,0.311491,18,8
0.386205,-0.363051,-0.122373,15,1
5.36307,-5.04331,0.385821,26,9
0.464819,-0.437105,-0.124026,14,2
4.73526,-4.45449,0.568778,84,10
5.32922,-5.01674,0.898665,18,11
6.27493,-5.90906,-1.05831,42,4
5.00088,-4.71095,1.08816,50,12
5.18798,-4.88891,1.38566,34,13
5.46445,-5.15124,-0.393566,58,6
8.87952,-8.37349,2.81774,57,14
5.54059,-5.22667,-0.132952,81,7
8.85868,-8.35968,3.26371,43,15
5.76477,-5.45528,0.138537,39,8
0.367953,-0.348321,-0.116975,16,1
5.17721,-4.9027,0.373679,17,9
0.451812,-0.428005,-0.120973,15,2
4.72324,-4.47593,0.569301,63,10
5.78457,-5.4836,-1.26243,11,3
4.91262,-4.65701,0.831149,4,11
5.8884,-5.58398,-0.996404,37,4
4.95145,-4.6971,1.08096,27,12
5.99481,-5.68886,-0.723044,26,5
5.16861,-4.90654,1.38527,9,13
5.48319,-5.20699,-0.396288,65,6
8.88126,-8.43684,2.82808,46,14
5.67164,-5.38784,-0.136548,7,7
8.82244,-8.38389,3.26112,36,15
5.70565,-5.43912,0.137595,15,8
0.369495,-0.352357,-0.117874,16,1
0.46452,-0.44313,-0.124789,14,2
4.67588,-4.46213,0.565466,41,10
5.30531,-5.06455,-1.16168,18,3
4.86537,-4.6462,0.82603,14,11
6.23536,-5.95656,-1.0588,30,4
5.48084,-5.23761,-0.663255,12,5
5.41683,-5.17824,1.45664,11,13
5.49962,-5.25923,-0.3988,21,6
5.76744,-5.51919,-0.13934,39,7
8.807,-8.43087,3.26681,36,15
5.50198,-5.28175,0.133127,48,8
0.382318,-0.367143,-0.122373,15,1
5.53665,-5.31874,0.402359,39,9
0.454476,-0.436589,-0.122499,15,2
4.72348,-4.53916,0.573136,30,10
5.68064,-5.46088,-1.24803,56,3
4.82336,-4.63839,0.821643,26,11
6.24314,-6.00581,-1.06368,12,4
4.95614,-4.7694,1.08941,50,12
5.37926,-5.17658,-0.653145,23,5
5.36053,-5.16035,1.44633,14,13
5.45821,-5.25623,-0.397125,14,6
28.9014,-27.8416,9.26483,42,14
6.3961,-6.16371,-0.155047,100,7
5.07232,-4.90342,0.123144,44,8
0.381034,-0.368475,-0.122373,15,1
5.55537,-5.37414,0.40508,35,9
0.452949,-0.438172,-0.122499,15,2
4.7749,-4.62074,0.581329,16,10
4.90269,-4.74772,0.837974,14,11
8.67022,-8.39909,-1.48218,3,4
5.0189,-4.86365,1.10693,42,12
5.54193,-5.37238,-0.675283,21,5
5.31993,-5.15717,1.44023,16,13
5.4341,-5.26969,-0.396707,47,6
8.76165,-8.49953,2.81819,8,14
6.36594,-6.17764,-0.154838,100,7
8.00773,-7.77359,2.9904,6,15
15.1039,-14.7033,0.367932,14,8
0.362992,-0.353488,-0.116975,16,1
4.93857,-4.81094,0.361327,32,9
0.459776,-0.448051,-0.124789,14,2
4.91025,-4.78836,0.842117,14,11
4.91707,-4.79836,1.08816,14,12
8.60693,-8.40208,-1.05232,21,5
5.35577,-5.23013,1.45511,6,13
8.6956,-8.49754,2.80694,23,14
6.36436,-6.21939,-0.155326,16,7
9.82062,-9.60028,3.67989,5,15
10.1113,-9.91558,0.247196,15,8
0.358912,-0.352087,-0.116075,16,1
4.91663,-4.82481,0.361013,12,9
0.444197,-0.435902,-0.120973,15,2
4.65356,-4.56826,0.570521,50,10
4.9663,-4.87867,0.854792,19,11
8.55197,-8.40693,-1.04918,47,5
5.38088,-5.29147,1.46694,9,13
6.13379,-6.03397,-0.450927,18,6
8.66588,-8.52784,2.80694,17,14
5.3967,-5.31259,-0.132185,36,7
9.20312,-9.06284,3.46093,4,15
9.4691,-9.35085,0.232292,6,8
0.37709,-0.372511,-0.122373,15,1
4.89407,-4.83633,0.360595,9,9
0.445466,-0.44021,-0.121736,15,2
4.58091,-4.52845,0.563549,52,10
5.28404,-5.22534,-1.17701,36,3
4.96194,-4.90854,0.856985,61,11
5.25034,-5.19565,-0.906952,31,4
4.72537,-4.67778,1.05312,92,12
8.507,-8.42131,-1.04726,45,5
6.06019,-6.00334,-0.447054,87,6
5.2323,-5.18503,1.70063,17,14
5.39375,-5.34688,-0.132568,7,7
8.03426,-7.96723,3.03181,3,15
9.40379,-9.35141,0.231489,16,8
0.375787,-0.373825,-0.122373,15,1
0.43836,-0.436223,-0.12021,15,2
4.59755,-4.57674,0.567558,60,10
5.12439,-5.10297,-1.14541,11,3
4.90118,-4.8824,0.849429,57,11
5.22795,-5.20974,-0.90622,13,4
4.72161,-4.7068,1.05593,63,12
8.49589,-8.46924,-1.04953,21,5
6.11131,-6.09639,-0.452392,68,6
5.22796,-5.21702,1.70513,12,14
5.16135,-5.15235,-0.127298,55,7
24.5318,-24.4976,9.28953,8,15
9.38381,-9.39691,0.231803,6,8
0.37448,-0.375134,-0.122373,15,1
4.83339,-4.84352,0.358606,25,9
0.445155,-0.446088,-0.122499,15,2
6.99657,-7.01614,-1.56935,28,3
4.84347,-4.85871,0.842361,61,11
6.26345,-6.28536,-1.08951,5,4
4.76649,-4.78483,1.0697,74,12
5.19422,-5.21421,-0.643907,42,5
4.70039,-4.72012,1.29483,22,13
8.06751,-8.10703,2.64048,32,14
5.62706,-5.6566,-0.13927,78,7
24.3848,-24.5214,9.26624,16,15
14.3397,-14.4604,0.355471,24,8
0.373168,-0.376439,-0.122373,15,1
0.435304,-0.439273,-0.12021,15,2
5.23854,-5.28814,0.651228,20,10
9.96601,-10.0639,-2.24327,16,3
4.87117,-4.92073,0.850161,61,11
5.25289,-5.30819,-0.916945,1,4
4.88173,-4.93485,1.09942,106,12
4.69631,-4.74906,1.29826,24,13
5.16996,-5.22986,-0.385402,52,6
7.94053,-8.03534,2.60808,30,14
5.76187,-5.8327,-0.14311,100,7
24.3276,-24.6352,9.27711,8,15
3.81222,-3.87122,0.0948364,15,8
0.371852,-0.377739,-0.122373,15,1
0.44203,-0.449185,-0.122499,15,2
4.54099,-4.61611,0.566512,1,10
6.52221,-6.63241,-1.4733,35,3
4.89432,-4.97875,0.857229,11,11
5.2065,-5.29818,-0.91207,1,4
8.04791,-8.19247,-1.00473,6,5
5.17406,-5.27068,-0.387077,14,6
7.9138,-8.0644,2.60853,58,14
5.70507,-5.81566,-0.142202,100,7
8.33884,-8.50345,3.19124,2,15
5.9392,-6.07338,0.148276,30,8
0.370531,-0.379035,-0.122373,15,1
4.68608,-4.79531,0.351384,18,9
0.421249,-0.431068,-0.117157,16,2
5.29616,-5.4215,0.663081,61,10
6.44657,-6.60144,-1.46141,50,3
4.89355,-5.01285,0.860154,23,11
5.01745,-5.14157,-0.88209,4,4
4.7575,-4.8769,1.07909,38,12
8.01365,-8.21763,-1.00421,14,5
5.14552,-5.27649,1.43259,7,13
6.08415,-6.24119,-0.456788,47,6
7.85976,-8.06546,2.59998,60,14
5.17124,-5.30842,-0.129357,78,7
8.3428,-8.56711,3.20418,12,15
8.29322,-8.54003,0.207788,13,8
0.350203,-0.36075,-0.116075,16,1
4.73608,-4.88043,0.356408,112,9
0.441538,-0.455155,-0.123263,15,2
5.20413,-5.3665,0.654017,37,10
6.41271,-6.61509,-1.45922,33,3
4.81799,-4.97004,0.849917,64,11
4.95388,-5.11201,-0.874047,12,4
4.38172,-4.52317,0.997426,56,12
14.01,-14.4673,-1.76194,20,5
5.86262,-6.05821,-0.44182,76,6
7.58626,-7.8421,2.519,37,14
5.14433,-5.31782,-0.129148,14,7
3.71944,-3.85832,0.0935449,15,8
0.367809,-0.381677,-0.122373,15,1
4.69961,-4.8768,0.354943,13,9
0.437223,-0.453866,-0.122499,15,2
14.6066,-15.168,1.8423,20,10
6.39232,-6.64028,-1.45985,36,3
4.83002,-5.01913,0.855279,57,11
5.80731,-6.03469,-1.02833,5,4
4.37138,-4.54413,0.998678,82,12
6.21461,-6.46245,-0.784402,1,5
5.15117,-5.35847,1.44481,24,13
5.87465,-6.1132,-0.444332,32,6
7.80191,-8.11872,2.59953,48,14
5.55242,-5.77991,-0.139898,56,7
23.2774,-24.2396,9.00483,15,15
5.20587,-5.43622,0.131382,33,8
0.366542,-0.382894,-0.122373,15,1
4.64751,-4.85485,0.352221,54,9
0.44386,-0.463824,-0.124789,14,2
14.6885,-15.3545,1.85903,28,10
6.36344,-6.6543,-1.45828,23,3
4.8888,-5.11404,0.868685,30,11
5.61718,-5.87599,-0.99811,5,4
4.58694,-4.79995,1.05155,113,12
7.16479,-7.50014,-0.907466,20,5
4.60322,-4.82036,1.29559,15,13
4.26698,-4.46982,-0.323855,16,6
7.63231,-7.99514,2.55184,54,14
5.53046,-5.79539,-0.139829,100,7
9.13822,-9.57932,3.54737,2,15
5.11614,-5.37811,0.129567,61,8
0.346469,-0.364337,-0.116075,16,1
4.65255,-4.8942,0.353896,19,9
0.420599,-0.4426,-0.118683,15,2
8.2184,-8.64829,1.04378,6,10
5.36449,-5.64707,-1.23364,15,3
4.70231,-4.95174,0.838461,40,11
6.45765,-6.80257,-1.15167,45,4
4.83802,-5.09821,1.11319,39,12
5.89487,-6.21407,-0.749365,9,5
4.61474,-4.86632,1.30361,26,13
5.81504,-6.1342,-0.442972,36,6
7.46761,-7.87747,2.50595,52,14
5.50882,-5.81321,-0.139794,40,7
18.1351,-19.1438,7.06576,4,15
5.8625,-6.2081,0.149044,25,8
0.36386,-0.385444,-0.122373,15,1
0.427057,-0.452707,-0.120973,15,2
5.0107,-5.31165,0.638852,43,10
4.70455,-4.9906,0.842117,71,11
6.54295,-6.94321,-1.17141,17,4
4.6378,-4.92324,1.07126,88,12
6.95385,-7.38441,-0.88742,12,5
5.04633,-5.36065,1.43107,18,13
5.77198,-6.13365,-0.441401,32,6
7.39595,-7.85938,2.49156,52,14
3.91865,-4.16565,-0.0998278,13,7
23.115,-24.5805,9.04107,7,15
13.8744,-14.8006,0.354109,11,8
0.343789,-0.366867,-0.116075,16,1
0.425395,-0.454269,-0.120973,15,2
4.60579,-4.91842,0.589521,33,10
5.5295,-5.90688,-1.28151,21,3
4.71607,-5.0397,0.84748,35,11
6.63544,-7.09327,-1.19261,34,4
4.44568,-4.75408,1.0309,66,12
4.75933,-5.09127,-0.609742,11,5
7.07484,-7.57092,2.01418,19,13
4.15701,-4.45006,-0.319145,35,6
7.45755,-7.98327,2.52215,50,14
5.50564,-5.89582,-0.140806,16,7
22.9021,-24.5337,8.99293,15,15
5.84953,-6.28604,0.149881,18,8
0.361024,-0.388101,-0.122373,15,1
0.442441,-0.475956,-0.126316,14,2
8.07534,-8.68706,1.03768,74,10
4.78538,-5.15149,0.863322,40,11
5.29103,-5.69781,-0.954725,30,4
4.37581,-4.71388,1.0187,104,12
5.2475,-5.65489,-0.674934,17,5
4.18277,-4.51066,-0.32239,19,6
7.39512,-7.97483,2.5109,48,14
5.4201,-5.84703,-0.139165,63,7
14.2889,-15.4198,5.63294,9,15
3.60388,-3.89866,0.0926723,1,8
0.375606,-0.406471,-0.127772,14,1
7.3101,-7.91357,0.5646,29,9
0.427622,-0.462923,-0.122499,15,2
5.50152,-5.95986,-1.28464,11,3
4.62558,-5.01269,0.837486,52,11
6.56422,-7.11607,-1.18871,35,4
4.44586,-4.82131,1.03873,58,12
4.16134,-4.51276,-0.537054,13,5
4.71181,-5.11151,1.35131,15,13
4.29445,-4.66038,-0.332124,29,6
7.05836,-7.66248,2.40518,33,14
5.3614,-5.82232,-0.138153,47,7
14.2207,-15.4486,5.62621,14,15
3.61324,-3.93626,0.0932657,45,8
0.358374,-0.390549,-0.122373,15,1
7.31349,-7.97289,0.567008,73,9
0.420695,-0.458626,-0.120973,15,2
4.55673,-4.96932,0.58987,18,10
6.62327,-7.2255,-1.55246,6,3
4.51686,-4.92928,0.820912,28,11
4.59576,-5.0189,1.07783,111,12
4.15633,-4.53902,-0.538448,15,5
4.4434,-4.85422,1.27918,17,13
3.90737,-4.27013,-0.303339,15,6
7.32488,-8.00772,2.5055,76,14
6.69452,-7.32117,-0.173163,43,7
14.164,-15.4953,5.62517,19,15
4.172,-4.57694,0.1081,77,8
0.357009,-0.391798,-0.122373,15,1
5.0113,-5.50155,0.390008,24,9
0.432312,-0.474605,-0.124789,14,2
4.53936,-4.98519,0.58987,24,10
6.58605,-7.23543,-1.54964,5,3
7.9879,-8.77858,1.45731,30,11
5.25211,-5.77402,-0.958381,18,4
4.44266,-4.88584,1.04592,57,12
4.11767,-4.52844,-0.535485,17,5
4.52943,-4.98302,1.30895,37,13
3.96766,-4.36652,-0.309201,18,6
7.23399,-7.964,2.48391,35,14
6.63935,-7.31192,-0.172395,100,7
14.1774,-15.619,5.65209,11,15
4.07817,-4.50549,0.106076,26,8
6.79408,-7.51125,0.530791,32,9
0.414849,-0.458639,-0.12021,15,2
4.52059,-4.99953,0.589696,7,10
6.55148,-7.24812,-1.54745,10,3
4.53557,-5.01961,0.830662,7,11
5.59651,-6.19595,-1.02517,28,4
4.29716,-4.7591,1.01557,104,12
4.08982,-4.52948,-0.533916,32,5
4.70538,-5.21303,1.36505,8,13
3.74635,-4.15199,-0.293081,28,6
7.41498,-8.22074,2.55589,52,14
3.96238,-4.3945,-0.103283,20,7
8.81331,-9.77787,3.52719,4,15
4.15331,-4.62082,0.108449,89,8
0.354265,-0.394281,-0.122373,15,1
6.80651,-7.57534,0.533722,10,9
0.431612,-0.480533,-0.125552,14,2
4.52973,-5.04493,0.593182,28,10
6.53933,-7.28564,-1.55058,1,3
4.58695,-5.11224,0.843336,35,11
5.57087,-6.21102,-1.02443,16,4
4.62956,-5.16155,1.09817,79,12
4.11522,-4.58971,-0.53932,17,5
4.47095,-4.9882,1.30208,2,13
3.73316,-4.16653,-0.293186,33,6
6.97539,-7.78786,2.41372,33,14
3.93044,-4.38825,-0.10283,34,7
8.84527,-9.87901,3.55307,12,15
4.31377,-4.83147,0.113057,42,8
0.352955,-0.395453,-0.122373,15,1
0.432545,-0.484967,-0.126316,14,2
4.44182,-4.98189,0.583943,93,10
6.85562,-7.68917,-1.63161,5,3
4.58847,-5.14817,0.846748,26,11
3.84014,-4.31008,-0.708792,8,4
4.60364,-5.16882,1.09629,68,12
5.47572,-6.15014,-0.720429,30,5
4.5536,-5.11444,1.33108,10,13
3.99419,-4.48771,-0.314853,22,6
6.86015,-7.71049,2.38268,68,14
3.90048,-4.3855,-0.102446,19,7
14.0594,-15.8133,5.66969,7,15
0.351573,-0.396683,-0.122373,15,1
5.13231,-5.79287,0.405604,54,9
0.410023,-0.462958,-0.12021,15,2
4.44906,-5.02344,0.587081,75,10
3.8563,-4.35569,-0.921399,3,3
4.55073,-5.14186,0.843092,35,11
3.83428,-4.33387,-0.710498,28,4
4.46648,-5.05021,1.06782,63,12
5.45158,-6.16623,-0.720081,13,5
3.97904,-4.50382,-0.314958,26,6
6.8061,-7.70372,2.37323,59,14
6.65837,-7.53916,-0.175571,35,7
9.74652,-11.0397,3.94596,2,15
3.45471,-3.9255,0.0912761,34,8
0.350117,-0.397969,-0.122373,15,1
5.09258,-5.79065,0.404138,60,9
0.408324,-0.464458,-0.12021,15,2
4.44114,-5.05168,0.588476,58,10
3.89638,-4.4336,-0.934852,20,3
4.63667,-5.27781,0.862591,14,11
3.81837,-4.34789,-0.710498,11,4
4.34107,-4.94482,1.04217,93,12
5.15822,-5.87768,-0.684173,26,5
4.49786,-5.12702,1.32574,24,13
4.06917,-4.64,-0.323436,42,6
6.78424,-7.73594,2.37548,50,14
3.91514,-4.46593,-0.103667,5,7
8.71668,-9.94647,3.54375,9,15
0.348656,-0.399249,-0.122373,15,1
5.04111,-5.77467,0.401731,102,9
0.407991,-0.46736,-0.120591,15,2
4.34399,-4.97786,0.578017,71,10
3.81388,-4.37193,-0.918896,22,3
4.61208,-5.28879,0.861616,26,11
3.7424,-4.29302,-0.699286,13,4
4.45919,-5.11707,1.07502,35,12
5.03034,-5.77248,-0.669879,11,5
4.67079,-5.36178,1.38222,8,13
3.96507,-4.55326,-0.316423,35,6
6.70594,-7.70343,2.35794,19,14
3.90399,-4.48629,-0.103807,50,7
8.62564,-9.91568,3.52149,24,15
0.34726,-0.400464,-0.122373,15,1
5.03008,-5.80279,0.402464,66,9
0.421789,-0.486583,-0.125171,14,2
4.28353,-4.9433,0.572265,86,10
4.91994,-5.67973,-1.19015,10,3
4.59749,-5.30936,0.862348,45,11
3.76767,-4.35259,-0.706842,18,4
4.3366,-5.01161,1.04968,108,12
5.39215,-6.23145,-0.720952,23,5
6.3667,-7.3603,1.89168,15,13
6.30193,-7.28798,-0.504937,35,6
4.66294,-5.39445,1.64619,24,14
3.90531,-4.51956,-0.104261,40,7
7.58198,-8.77762,3.1079,5,15
3.65416,-4.24236,0.0977335,16,8
0.34586,-0.401674,-0.122373,15,1
4.96028,-5.76279,0.398486,68,9
0.402157,-0.467221,-0.119828,15,2
4.29094,-4.98692,0.575576,75,10
3.84639,-4.47184,-0.934227,6,3
4.58928,-5.33741,0.864297,54,11
3.74081,-4.35216,-0.704649,20,4
4.48386,-5.21849,1.08972,122,12
5.35348,-6.23059,-0.718686,32,5
4.63453,-5.39575,1.3826,21,13
6.25303,-7.28266,-0.503053,35,6
4.61235,-5.37373,1.63494,11,14
3.81138,-4.4421,-0.102166,24,7
0.344456,-0.402878,-0.122373,15,1
4.9051,-5.73908,0.39566,41,9
0.403075,-0.471606,-0.120591,15,2
4.27739,-5.00641,0.576099,50,10
3.83588,-4.49124,-0.935478,47,3
4.61316,-5.40322,0.872341,54,11
3.64956,-4.27611,-0.690268,42,4
6.60158,-7.73766,-0.88986,20,5
4.60802,-5.40293,1.38031,30,13
3.99363,-4.68421,-0.322599,6,6
6.59077,-7.73319,2.34579,66,14
3.62985,-4.26054,-0.0976986,49,7
7.59818,-8.92152,3.13999,36,15
5.05223,-5.94896,0.136233,15,8
0.343047,-0.404078,-0.122373,15,1
4.91089,-5.78662,0.397753,55,9
0.411589,-0.484985,-0.123644,14,2
4.19673,-4.94687,0.567558,71,10
3.81252,-4.49557,-0.933601,6,3
4.68412,-5.52528,0.889403,23,11
3.68082,-4.34334,-0.699043,31,4
4.30048,-5.07634,1.05374,21,12
5.24803,-6.19484,-0.710319,11,5
4.55868,-5.38303,1.37115,19,13
3.99919,-4.72403,-0.324378,35,6
6.51087,-7.69367,2.32689,47,14
4.89485,-5.78613,-0.132289,81,7
7.54329,-8.91996,3.13016,10,15
0.341635,-0.405273,-0.122373,15,1
4.86106,-5.7686,0.395346,75,9
0.409893,-0.486419,-0.123644,14,2
4.21923,-5.00872,0.572962,28,10
5.33257,-6.33263,-1.31123,53,3
4.56637,-5.42466,0.870635,45,11
3.70014,-4.39717,-0.705624,23,4
5.2251,-6.2116,-0.710145,13,5
4.50322,-5.35533,1.36009,11,13
3.48275,-4.14323,-0.283661,14,6
6.55167,-7.79691,2.35119,45,14
3.80967,-4.53536,-0.103388,5,7
7.65125,-9.11194,3.18813,12,15
4.67679,-5.58545,0.127158,34,8
0.340218,-0.406463,-0.122373,15,1
0.395594,-0.47279,-0.119828,15,2
4.67596,-5.59041,0.637631,50,10
5.32311,-6.36636,-1.31436,55,3
4.82876,-5.77718,0.924501,24,11
3.64404,-4.36132,-0.697824,38,4
4.39663,-5.26391,1.08628,49,12
5.20102,-6.22918,-0.709971,31,5
8.26311,-9.8966,2.50609,10,13
3.55657,-4.26117,-0.290883,63,6
6.44826,-7.72846,2.32374,48,14
4.89789,-5.87237,-0.133476,66,7
13.5947,-16.3052,5.68832,11,15
3.99505,-4.80523,0.109078,11,8
0.338797,-0.407649,-0.122373,15,1
6.60751,-7.95314,0.541887,44,9
0.388841,-0.468195,-0.118302,15,2
4.75726,-5.73014,0.651576,15,10
5.28965,-6.37367,-1.31186,16,3
4.89604,-5.8994,0.941319,11,11
3.61612,-4.35873,-0.695387,9,4
5.20086,-6.27337,-0.712934,35,5
6.27249,-7.56869,1.91076,23,13
3.72186,-4.49257,-0.305747,31,6
6.29311,-7.59895,2.27785,42,14
3.58659,-4.33083,-0.0981523,4,7
13.7224,-16.5758,5.76597,7,15
4.07159,-4.93397,0.11166,38,8
0.337301,-0.408888,-0.122373,15,1
6.5707,-7.96806,0.541259,44,9
0.394699,-0.478638,-0.120591,15,2
6.47083,-7.85254,-1.61159,25,3
4.5071,-5.47144,0.870391,38,11
5.91439,-7.18239,-1.1424,16,4
6.70148,-8.14112,1.67009,9,12
6.51735,-7.91743,-0.897181,15,5
4.21891,-5.12706,1.29063,3,13
3.45621,-4.20167,-0.285126,40,6
6.20466,-7.54561,2.25536,42,14
3.59355,-4.37175,-0.0987806,50,7
7.52191,-9.15407,3.17467,4,15
3.98464,-4.86308,0.109741,37,8
0.335871,-0.410062,-0.122373,15,1
6.54664,-7.99558,0.541573,48,9
0.390538,-0.476975,-0.119828,15,2
4.15549,-5.07882,-1.03935,16,3
4.82102,-5.89433,0.934982,9,11
5.84405,-7.14767,-1.13363,13,4
6.70553,-8.20423,1.67823,10,12
4.86946,-5.9578,-0.673191,6,5
4.18857,-5.12655,1.28682,4,13
3.62598,-4.43956,-0.300408,15,6
6.64168,-8.13481,2.42452,47,14
3.64023,-4.46018,-0.100491,52,7
13.264,-16.2574,5.62207,9,15
3.95628,-4.863,0.109427,71,8
0.334438,-0.411232,-0.122373,15,1
6.48845,-7.98119,0.53906,51,9
0.391348,-0.481382,-0.120591,15,2
4.59772,-5.6575,0.637806,26,10
6.11817,-7.53109,-1.53681,6,3
3.9895,-4.91258,0.777039,15,11
5.82407,-7.17419,-1.1346,9,4
6.63826,-8.18004,1.66853,10,12
4.83357,-5.95619,-0.671099,6,5
6.2201,-7.6675,1.91916,13,13
3.43937,-4.24121,-0.286173,11,6
6.65006,-8.20335,2.43802,47,14
3.6473,-4.50083,-0.101119,52,7
0.333,-0.412397,-0.122373,15,1
6.47686,-8.024,0.540421,15,9
0.389665,-0.482745,-0.120591,15,2
4.60047,-5.70142,0.640943,39,10
7.51806,-9.32057,-1.89661,6,3
3.95862,-4.90948,0.774358,20,11
6.33342,-7.85751,-1.23917,66,4
6.04822,-7.50636,1.5268,4,12
7.45538,-9.25277,-1.03959,24,5
6.20069,-7.69834,1.92145,20,13
3.40576,-4.22986,-0.284603,37,6
6.38434,-7.93201,2.35074,43,14
3.62655,-4.5073,-0.10098,52,7
6.00904,-7.47107,2.56904,25,15
6.22303,-7.75928,0.173617,15,8
0.319369,-0.398353,-0.117874,16,1
0.375618,-0.468848,-0.116775,16,2
6.66962,-8.32505,0.933264,10,10
9.94648,-12.4197,-2.52016,7,3
3.87075,-4.83494,0.760465,5,11
6.66442,-8.32748,-1.30961,16,4
7.44009,-9.30337,-1.04221,18,5
6.79519,-8.50001,2.11531,28,13
3.37776,-4.22671,-0.283556,31,6
6.2532,-7.82485,2.3125,56,14
3.52093,-4.40744,-0.0984665,49,7
5.99619,-7.50861,2.57473,11,15
3.89806,-4.89702,0.109252,15,8
0.330041,-0.41477,-0.122373,15,1
0.383672,-0.482515,-0.119828,15,2
4.61039,-5.79813,0.64809,26,10
9.17446,-11.5421,-2.33525,14,3
3.79249,-4.77294,0.748522,37,11
3.72004,-4.68344,-0.734385,11,4
4.71196,-5.93436,1.20017,30,12
7.40346,-9.32746,-1.04186,27,5
6.68467,-8.42489,2.0905,12,13
3.36349,-4.24062,-0.283661,17,6
6.44609,-8.12712,2.39483,35,14
3.45382,-4.35607,-0.0970354,48,7
5.96503,-7.52599,2.57318,10,15
3.99909,-5.06191,0.112603,66,8
0.328518,-0.415976,-0.122373,15,1
3.28455,-4.16046,0.277799,30,9
0.360009,-0.456178,-0.112959,16,2
6.48499,-8.21731,0.915833,48,10
6.08562,-7.71403,-1.55621,12,3
3.79586,-4.8133,0.752665,20,11
3.70531,-4.70016,-0.734872,9,4
3.91867,-4.97259,1.00275,8,12
6.54079,-8.30589,2.05501,9,13
3.7939,-4.81946,-0.321447,13,6
6.20291,-7.87966,2.3152,45,14
3.4403,-4.37184,-0.0971052,43,7
7.13898,-9.07528,3.09392,27,15
3.6671,-4.67683,0.103737,37,8
0.326992,-0.417178,-0.122373,15,1
3.31979,-4.23693,0.282091,24,9
0.387389,-0.494588,-0.122118,15,2
6.33739,-8.09401,-1.62817,5,3
3.76963,-4.81624,0.750959,22,11
3.69907,-4.72778,-0.737066,24,4
3.87486,-4.95424,0.996175,25,12
6.20588,-7.93745,-0.881493,3,5
3.77744,-4.8349,-0.321552,26,6
6.74268,-8.63023,2.52845,48,14
3.46241,-4.43328,-0.0981872,49,7
7.12112,-9.12118,3.10065,14,15
0.296943,-0.380891,-0.12941,15,0
3.60035,-4.61987,0.102236,57,8
0.325752,-0.418146,-0.122373,15,1
0.375065,-0.481793,-0.118683,15,2
3.97276,-5.10324,0.565815,1,10
8.07852,-10.3811,-2.08339,4,3
3.77117,-4.84777,0.754128,15,11
3.60703,-4.63845,-0.721467,31,4
3.89409,-5.00939,1.00494,36,12
6.15418,-7.91964,-0.877484,19,5
6.14593,-7.91187,1.9474,33,13
3.58178,-4.61262,-0.306061,18,6
6.73855,-8.6779,2.53655,48,14
3.4848,-4.48934,-0.0991995,50,7
7.10232,-9.15296,3.10428,29,15
3.59808,-4.65201,0.102655,64,8
0.324218,-0.419337,-0.122373,15,1
0.380499,-0.492486,-0.120973,15,2
7.81549,-10.1157,1.11838,26,10
6.30531,-8.164,-1.6338,13,3
3.78735,-4.90556,0.760952,47,11
3.67491,-4.76164,-0.738528,36,4
3.89501,-5.04865,1.00994,41,12
6.09713,-7.90586,-0.873475,21,5
6.11449,-7.93123,1.94663,29,13
3.49536,-4.53554,-0.300094,18,6
6.73287,-8.7365,2.54645,45,14
3.38412,-4.39278,-0.0967911,48,7
7.05222,-9.1575,3.09703,11,15
3.6638,-4.77303,0.105029,63,8
0.322678,-0.420523,-0.122373,15,1
3.22809,-4.20693,0.277904,34,9
0.376388,-0.490695,-0.12021,15,2
3.95343,-5.15594,0.56843,9,10
6.12513,-7.99108,-1.59469,12,3
3.80194,-4.96195,0.767533,17,11
3.64053,-4.75302,-0.735116,20,4
3.82931,-4.99949,0.997426,71,12
6.06586,-7.92235,-0.872952,12,5
4.08569,-5.33806,1.30666,4,13
3.49043,-4.56199,-0.301036,15,6
6.70436,-8.76576,2.5478,43,14
3.34811,-4.37756,-0.0961977,48,7
7.04016,-9.20815,3.10583,30,15
3.65038,-4.78834,0.105098,38,8
0.321282,-0.421591,-0.122373,15,1
3.34168,-4.38658,0.288999,13,9
0.374673,-0.492006,-0.12021,15,2
3.92455,-5.15544,0.566861,61,10
6.01364,-7.89975,-1.57248,10,3
3.77585,-4.96189,0.765583,30,11
6.51277,-8.56163,-1.32082,9,4
3.83097,-5.03798,1.00243,43,12
4.04032,-5.31521,-0.584118,20,5
6.78034,-8.91982,2.17789,9,13
3.45957,-4.55287,-0.299676,24,6
5.935,-7.81341,2.26526,32,14
3.43681,-4.52619,-0.0991995,60,7
7.01031,-9.23574,3.10686,16,15
3.61675,-4.77873,0.10461,17,8
0.319809,-0.422709,-0.122373,15,1
6.06719,-8.02226,0.527128,39,9
0.375408,-0.496378,-0.120973,15,2
3.85216,-5.09532,0.558843,41,10
6.14325,-8.12872,-1.61378,10,3
3.84346,-5.0875,0.782889,55,11
3.46454,-4.58759,-0.705867,28,4
3.78004,-5.00718,0.993672,88,12
3.84981,-5.0996,-0.559017,16,5
6.85323,-9.08134,2.21148,22,13
3.42562,-4.541,-0.298106,15,6
5.89244,-7.81385,2.25941,60,14
3.43182,-4.55253,-0.0995136,50,7
8.24179,-10.9372,3.66954,6,15
3.2589,-4.33729,0.0946968,26,8
0.318331,-0.423823,-0.122373,15,1
3.64195,-4.85063,0.317889,16,9
0.373673,-0.497685,-0.120973,15,2
3.8511,-5.13104,0.561283,45,10
5.44858,-7.2621,-1.43795,6,3
3.6426,-4.85855,-0.745597,16,4
3.75187,-5.00612,0.990856,65,12
6.43323,-8.58385,-0.938493,14,5
6.86151,-9.15863,2.22445,22,13
3.37263,-4.50337,-0.294861,39,6
5.85344,-7.81877,2.25491,53,14
3.39314,-4.53406,-0.0988504,18,7
3.27961,-4.39673,0.0957439,66,8
0.293552,-0.393687,-0.113375,16,1
5.98955,-8.03559,0.525244,25,9
0.371846,-0.499051,-0.120973,15,2
3.86054,-5.1812,0.565292,15,10
5.45152,-7.3191,-1.44545,10,3
3.89913,-5.23681,0.801657,40,11
5.44139,-7.31083,-1.119,11,4
3.70018,-4.97322,0.981783,35,12
3.52904,-4.74493,-0.517356,15,5
3.30964,-4.45319,-0.290779,46,6
5.82495,-7.83759,2.25446,37,14
3.17695,-4.27621,-0.0929864,33,7
3.38958,-4.57909,0.0994438,68,8
0.31529,-0.42609,-0.122373,15,1
5.95174,-8.04625,0.524511,30,9
0.360676,-0.487782,-0.11792,16,2
3.82139,-5.16808,0.562329,31,10
3.97104,-5.37243,-1.05812,18,3
3.94951,-5.34526,0.816037,19,11
5.46173,-7.39459,-1.12875,12,4
3.91425,-5.3014,1.04373,32,12
3.5341,-4.78829,-0.520668,30,5
5.89203,-7.98591,1.92908,8,13
3.27551,-4.44118,-0.289209,25,6
5.81585,-7.88555,2.26211,56,14
3.16481,-4.29265,-0.0930911,45,7
6.54094,-8.87516,2.95416,38,15
3.39409,-4.62049,0.100072,53,8
0.313726,-0.427243,-0.122373,15,1
4.10078,-5.58458,0.363107,28,9
0.356648,-0.485873,-0.117157,16,2
3.77295,-5.1419,0.557971,35,10
3.963,-5.40287,-1.06125,11,3
3.94163,-5.37571,0.818475,14,11
3.79139,-5.1708,-0.787276,40,4
3.91674,-5.34371,1.04936,65,12
3.50677,-4.78613,-0.5191,40,5
5.86527,-8.00801,1.92946,26,13
3.29303,-4.4977,-0.292139,25,6
5.81362,-7.94039,2.27201,55,14
3.23012,-4.4134,-0.0954647,46,7
6.47912,-8.85584,2.94018,32,15
3.31864,-4.54933,0.098292,55,8
0.312308,-0.428281,-0.122373,15,1
5.8933,-8.08174,0.524197,56,9
0.355035,-0.487053,-0.117157,16,2
3.71599,-5.09963,0.552044,22,10
7.14577,-9.81009,-1.92227,10,3
3.8268,-5.25556,0.798244,27,11
3.6784,-5.05176,-0.767289,30,4
3.93155,-5.40139,1.05812,19,12
4.21419,-5.79608,-0.375563,28,6
5.77809,-7.94702,2.26841,32,14
3.26602,-4.49364,-0.0969656,43,7
6.44745,-8.87415,2.93915,20,15
3.32817,-4.59432,0.099025,60,8
0.310886,-0.429314,-0.122373,15,1
5.86154,-8.0974,0.523883,52,9
0.35572,-0.491408,-0.11792,16,2
3.70957,-5.12645,0.553613,31,10
5.27701,-7.29527,-1.42606,5,3
5.86815,-8.11547,1.22966,23,11
3.32816,-4.60444,-0.69758,11,4
6.93914,-9.60368,1.87659,21,12
3.47411,-4.80989,-0.5191,6,5
5.68329,-7.87138,-0.50881,21,6
5.73777,-7.94976,2.26346,56,14
3.21405,-4.45475,-0.0958835,21,7
6.42095,-8.90287,2.94122,11,15
3.18019,-4.42245,0.0950807,46,8
0.309385,-0.430397,-0.122373,15,1
3.10951,-4.32734,0.279265,6,9
0.372243,-0.518221,-0.124026,14,2
3.8302,-5.33422,0.574531,15,10
2.93497,-4.08896,-0.79719,25,3
5.88377,-8.19719,1.23892,17,11
5.34884,-7.45468,-1.12656,16,4
3.89835,-5.43513,1.05937,45,12
3.91471,-5.45995,-0.587778,26,5
5.62648,-7.85319,-0.506298,52,6
6.86483,-9.58516,2.72191,48,14
3.1845,-4.44643,-0.0954647,21,7
6.38084,-8.91266,2.93708,10,15
0.291963,-0.409317,-0.116075,16,1
3.09479,-4.34033,0.279369,16,9
0.361313,-0.506729,-0.120973,15,2
3.82081,-5.36054,0.575925,39,10
2.93215,-4.11527,-0.800319,13,3
5.8629,-8.23163,1.24087,25,11
7.04389,-9.89342,-1.49119,21,4
5.42014,-7.61561,1.4805,14,12
3.90391,-5.48725,-0.589173,28,5
6.86397,-9.64784,2.30154,28,13
5.58399,-7.85163,-0.504937,59,6
6.84375,-9.62654,2.72686,55,14
3.33383,-4.69116,-0.100456,33,7
6.34254,-8.92812,2.93449,13,15
3.41662,-4.82367,0.103179,63,8
0.306298,-0.4326,-0.122373,15,1
3.09808,-4.37719,0.281044,29,9
0.359453,-0.50805,-0.120973,15,2
5.66144,-8.00483,0.857787,30,10
2.96494,-4.19374,-0.813459,32,3
3.90546,-5.52406,0.830662,26,11
3.14376,-4.44832,-0.668819,28,4
4.06224,-5.75006,1.11506,8,12
4.25137,-6.02001,-0.644778,21,5
3.89806,-5.52381,-0.354314,33,6
5.72442,-8.11489,2.2927,19,14
3.27825,-4.64721,-0.0992693,27,7
6.27014,-8.89179,2.91534,21,15
3.37132,-4.7969,0.102341,33,8
0.30471,-0.433719,-0.122373,15,1
3.11952,-4.44028,0.284394,24,9
0.364448,-0.518942,-0.123263,15,2
2.91851,-4.15879,-0.804699,26,3
3.86695,-5.51233,0.826762,14,11
3.15137,-4.49395,-0.673937,8,4
5.30786,-7.56916,1.46423,23,12
3.82091,-5.45075,-0.582375,11,5
3.45135,-4.92721,-0.315272,19,6
5.69159,-8.12843,2.2909,14,14
3.24136,-4.62914,-0.098641,36,7
5.84801,-8.35493,2.73261,34,15
3.26613,-4.68014,0.0996183,23,8
0.30327,-0.434728,-0.122373,15,1
3.04688,-4.36923,0.27916,19,9
0.355898,-0.510547,-0.120973,15,2
3.276,-4.70128,0.50132,18,10
2.8855,-4.14089,-0.79938,20,3
3.79078,-5.44205,0.814331,19,11
3.08995,-4.43758,-0.663944,46,4
5.34009,-7.67195,1.4805,15,12
5.39156,-7.74878,-0.825888,6,5
7.97693,-11.4645,2.71483,30,13
3.37797,-4.85664,-0.310038,18,6
5.64347,-8.11686,2.28235,53,14
6.96165,-10.0165,-0.212919,48,7
5.82653,-8.3864,2.73624,30,15
3.27596,-4.72932,0.100421,23,8
0.301751,-0.435784,-0.122373,15,1
2.97932,-4.30429,0.274345,28,9
0.345264,-0.49881,-0.11792,16,2
3.27173,-4.7285,0.503063,11,10
3.6048,-5.21182,-1.00368,10,3
