x, y, z, intensity, ring
0.682793,-0.139785,-0.135474,25,2
19.2685,-3.94825,1.7208,31,10
10.6584,-2.18593,1.33593,50,11
7.50595,-1.54075,-0.940831,8,4
10.837,-2.22846,-0.967952,40,5
13.9164,-2.86422,2.76177,20,13
18.2258,-3.75448,-0.975228,29,6
14.637,-3.01786,3.4503,15,14
19.2442,-3.96778,-0.342975,14,7
10.5289,-2.17277,2.88066,7,15
21.7061,-4.51487,0.38699,25,8
0.53801,-0.112004,-0.126872,15,1
16.2893,-3.39411,0.872022,22,9
0.699599,-0.145772,-0.138909,24,2
19.2156,-4.00735,1.71732,42,10
10.6368,-2.22214,1.33423,81,11
6.48986,-1.35698,-0.814087,32,4
10.9711,-2.29798,-0.980676,17,5
13.9274,-2.9172,2.76597,24,13
16.6663,-3.49392,-0.892433,27,6
15.1165,-3.17178,3.56592,24,14
19.2667,-4.04609,-0.343638,36,7
10.6835,-2.24552,2.92517,11,15
21.7665,-4.60675,0.388351,12,8
0.518551,-0.109843,-0.122373,15,1
0.676014,-0.143445,-0.13433,25,2
15.1607,-3.21974,1.35597,33,10
6.40721,-1.36189,-1.03747,68,3
10.6464,-2.26297,1.33642,25,11
7.29669,-1.55229,-0.91597,28,4
10.8795,-2.31647,1.76177,9,12
6.47531,-1.37991,-0.579237,35,5
14.0088,-2.98789,2.78429,4,13
6.60394,-1.40974,-0.353896,27,6
14.4855,-3.09484,3.41971,18,14
19.3444,-4.13296,-0.345278,7,7
18.8641,-4.06478,0.336831,36,8
0.548624,-0.118316,-0.129572,14,1
17.9455,-3.87341,0.962144,3,9
0.671671,-0.144975,-0.133566,26,2
15.1591,-3.27474,1.35684,63,10
6.37732,-1.37882,-1.03341,61,3
16.3441,-3.53671,2.05325,21,11
7.04456,-1.52566,-0.885015,21,4
6.4023,-1.38774,-0.573136,28,5
6.58141,-1.42897,-0.352954,10,6
14.4708,-3.14455,3.41881,24,14
19.2979,-4.19703,-0.34472,14,7
10.6407,-2.31615,2.91793,41,15
18.8264,-4.12547,0.336413,48,8
0.548208,-0.12023,-0.129572,14,1
19.0146,-4.17368,1.02024,30,9
0.671161,-0.147319,-0.133566,26,2
15.169,-3.33234,1.35876,24,10
6.52295,-1.43416,-1.05781,17,3
16.576,-3.6475,2.08397,36,11
6.47117,-1.42515,-0.8136,48,4
10.799,-2.38023,1.75144,65,12
6.36045,-1.40193,-0.569824,15,5
15.7054,-3.46455,3.12621,10,13
6.52958,-1.4416,-0.350442,20,6
10.9566,-2.42099,2.59054,10,14
19.3124,-4.27085,-0.345244,58,7
10.6382,-2.35454,2.91948,8,15
15.4722,-3.44712,0.27669,24,8
0.494528,-0.110268,-0.116975,16,1
16.4015,-3.66016,0.88071,10,9
0.672559,-0.150088,-0.133948,26,2
16.775,-3.74659,1.50379,26,10
6.31163,-1.41082,-1.02433,60,3
19.6201,-4.3892,2.46859,10,11
6.40804,-1.43471,-0.806288,32,4
10.7964,-2.41921,1.75238,52,12
16.8865,-3.78695,-1.51407,15,5
15.7411,-3.53009,3.13576,12,13
16.8862,-3.78998,-0.906982,37,6
10.7104,-2.40583,2.5343,11,14
16.8332,-3.78428,-0.301159,46,7
10.5941,-2.3836,2.90964,33,15
15.4757,-3.50464,0.27697,37,8
0.516946,-0.117163,-0.122373,15,1
9.99601,-2.26737,0.537176,9,9
0.694979,-0.157768,-0.138527,24,2
16.7826,-3.81291,1.5057,29,10
6.38732,-1.45233,-1.03747,48,3
10.354,-2.35427,1.30376,33,11
6.43009,-1.46324,-0.8097,47,4
10.7801,-2.45513,1.75113,63,12
14.2177,-3.24061,-1.27579,27,5
19.7878,-4.51385,3.94517,20,13
19.3587,-4.41951,-1.04065,56,6
10.6939,-2.44333,2.5325,54,14
19.323,-4.41492,-0.345977,14,7
12.0245,-2.74956,3.30512,8,15
0.546897,-0.12606,-0.129572,14,1
10.0133,-2.30808,0.538537,22,9
0.675294,-0.15578,-0.134711,25,2
16.5265,-3.81544,1.48391,35,10
6.29752,-1.45506,-1.02371,30,3
16.3544,-3.78172,2.06105,21,11
6.38987,-1.47874,-0.805313,38,4
10.7657,-2.4914,1.75019,70,12
14.2509,-3.30056,-1.27979,39,5
15.3138,-3.54955,3.05562,11,13
17.0979,-3.96623,-0.919857,13,6
10.6986,-2.48373,2.53565,52,14
10.2479,-2.3791,-0.183634,100,7
15.482,-3.61987,0.277528,6,8
0.546476,-0.127873,-0.129572,14,1
10.0324,-2.34939,0.540002,61,9
0.663277,-0.155448,-0.132421,26,2
16.1639,-3.79121,1.45254,21,10
6.30805,-1.47954,-1.02621,57,3
10.6272,-2.49454,1.34032,25,11
6.39846,-1.5031,-0.807019,51,4
10.7262,-2.52174,1.74518,70,12
14.2587,-3.35485,-1.28154,21,5
17.0497,-4.01467,-0.917973,20,6
13.8503,-3.26387,3.28519,22,14
7.70152,-1.8163,-0.138118,100,7
9.59838,-2.26542,2.64254,30,15
0.563895,-0.133819,-0.155291,12,0
17.4402,-4.14197,0.312887,56,8
0.515691,-0.12257,-0.122373,15,1
0.666578,-0.158555,-0.133185,26,2
11.3929,-2.71207,1.0246,70,10
6.0857,-1.44982,-0.990856,27,3
10.5933,-2.52563,1.33715,18,11
6.39511,-1.52589,-0.807263,60,4
6.90476,-1.64877,-0.621072,12,5
11.2278,-2.68312,2.24391,23,13
9.25398,-2.21314,-0.498657,35,6
10.7762,-2.57918,2.55814,41,14
7.59401,-1.81895,-0.136303,91,7
9.57163,-2.29441,2.63737,65,15
16.9124,-4.07904,0.303672,28,8
0.51526,-0.124369,-0.122373,15,1
0.673654,-0.162725,-0.134711,25,2
11.4027,-2.75651,1.02635,51,10
6.47036,-1.56535,-1.05437,97,3
10.6172,-2.57054,1.34129,34,11
6.38395,-1.5468,-0.806531,34,4
6.90284,-1.6738,-0.62142,13,5
11.0943,-2.6922,2.21911,9,13
22.0209,-5.34775,-1.18761,15,6
10.716,-2.60435,2.546,31,14
7.45548,-1.81332,-0.13393,82,7
9.56356,-2.32781,2.63737,29,15
18.3257,-4.48765,0.329327,10,8
0.514823,-0.126167,-0.122373,15,1
10.6959,-2.62321,0.577161,43,9
0.676895,-0.166011,-0.135474,25,2
11.4859,-2.81909,1.03471,12,10
6.33249,-1.55541,-1.03278,38,3
10.6101,-2.60806,1.34154,15,11
6.45369,-1.58757,-0.816037,58,4
9.88018,-2.43229,1.61159,63,12
15.4029,-3.79471,-1.38787,13,5
11.7387,-2.892,2.35,19,13
10.014,-2.46894,-0.540526,14,6
10.5952,-2.6142,2.51945,13,14
7.48794,-1.84892,-0.134628,97,7
9.57601,-2.36628,2.64306,44,15
18.3836,-4.56992,0.330653,18,8
0.487904,-0.121377,-0.116075,16,1
9.95021,-2.47718,0.537386,65,9
0.661042,-0.164694,-0.132421,26,2
11.3363,-2.82646,1.02216,48,10
6.38617,-1.59343,-1.04248,57,3
10.6241,-2.65084,1.34446,34,11
6.4327,-1.60624,-0.814087,67,4
6.59109,-1.64823,-0.594402,6,5
14.4153,-3.60751,2.88847,11,13
10.5326,-2.63975,2.50685,18,14
7.57454,-1.89838,-0.136303,100,7
9.56207,-2.39828,2.64151,25,15
16.8952,-4.26572,0.304161,19,8
0.513907,-0.129848,-0.122373,15,1
12.6248,-3.19222,0.682461,47,9
0.66427,-0.167963,-0.133185,26,2
10.4089,-2.63386,0.939365,8,10
6.33844,-1.60505,-1.0356,52,3
10.647,-2.69805,1.34861,46,11
6.44986,-1.63566,-0.817012,55,4
15.2275,-3.86445,2.48825,34,12
6.56791,-1.66682,-0.592833,10,5
14.3893,-3.65442,2.8858,13,13
9.9496,-2.52872,-0.538014,98,6
10.5781,-2.69043,2.5199,22,14
7.43963,-1.89357,-0.134,82,7
9.52513,-2.42616,2.63374,48,15
14.3813,-3.68446,0.259133,22,8
0.513451,-0.131641,-0.122373,15,1
12.6561,-3.24719,0.684764,36,9
0.671286,-0.172232,-0.134711,25,2
10.4132,-2.67365,0.940585,46,10
6.57004,-1.68812,-1.07439,68,3
10.626,-2.73224,1.34714,68,11
6.49794,-1.67202,-0.823837,43,4
15.3535,-3.95354,2.51109,41,12
9.96367,-2.56565,-0.900144,16,5
11.6274,-2.99623,2.33398,8,13
10.0916,-2.60234,-0.546178,100,6
10.5743,-2.7288,2.52125,65,14
7.4233,-1.91703,-0.133825,100,7
9.42683,-2.43619,2.6089,37,15
13.2168,-3.43532,0.238365,9,8
0.514874,-0.133923,-0.122823,15,1
12.7259,-3.31248,0.68916,62,9
0.674481,-0.175563,-0.135474,25,2
10.2862,-2.67935,0.929952,63,10
6.58513,-1.71652,-1.07783,41,3
16.3462,-4.26395,2.07422,36,11
14.7454,-3.84915,-1.87118,23,4
15.2517,-3.98415,2.49669,11,12
14.1917,-3.70725,-1.28328,28,5
14.4622,-3.78061,2.90564,10,13
10.0283,-2.6234,-0.543247,87,6
10.5006,-2.74891,2.50595,56,14
7.45138,-1.95205,-0.134453,100,7
9.42761,-2.47153,2.61148,40,15
13.0268,-3.43453,0.235154,30,8
0.514403,-0.135719,-0.122823,15,1
12.722,-3.35892,0.689579,33,9
0.673864,-0.177917,-0.135474,25,2
10.3981,-2.7473,0.940933,38,10
6.43969,-1.70264,-1.05499,81,3
20.294,-5.36949,2.57754,18,11
6.94858,-1.83979,-0.882578,32,4
10.8822,-2.88332,1.78304,10,12
10.1227,-2.6821,-0.916181,20,5
14.3844,-3.81396,2.89266,25,13
9.61949,-2.55236,-0.52158,35,6
14.1449,-3.75574,3.37876,27,14
7.42712,-1.97343,-0.134139,97,7
9.51601,-2.53024,2.6384,26,15
0.559912,-0.149609,-0.155291,12,0
12.8525,-3.43659,0.232222,52,8
0.513926,-0.137514,-0.122823,15,1
12.4439,-3.33202,0.675134,60,9
0.673239,-0.180268,-0.135474,25,2
6.42798,-1.72357,-1.05406,63,3
10.7176,-2.87577,1.3625,35,11
6.56635,-1.76313,-0.834805,42,4
10.853,-2.91616,1.77991,27,12
10.9224,-2.93686,2.1985,28,13
9.64717,-2.59578,-0.523569,100,6
9.06613,-2.44114,2.16763,15,14
7.48005,-2.01547,-0.135221,83,7
9.56494,-2.57903,2.65445,17,15
12.7941,-3.46888,0.231384,37,8
0.513443,-0.139307,-0.122823,15,1
12.411,-3.36968,0.673983,64,9
0.657417,-0.178616,-0.132421,26,2
14.5271,-3.94966,1.3171,34,10
6.46165,-1.75801,-1.06063,58,3
10.6902,-2.90847,1.36031,25,11
6.51993,-1.77509,-0.829687,22,4
9.76588,-2.66065,1.60314,35,12
9.11715,-2.48562,-0.826759,17,5
14.1787,-3.86822,2.85679,12,13
9.00754,-2.45912,-0.489341,28,6
9.03456,-2.46819,2.16223,12,14
7.48261,-2.0442,-0.135396,83,7
9.55029,-2.61087,2.6529,10,15
0.465689,-0.12801,-0.12941,15,0
12.8217,-3.52688,0.232117,40,8
0.512929,-0.141188,-0.122823,15,1
12.4236,-3.42204,0.675343,49,9
0.656789,-0.18091,-0.132421,26,2
17.429,-4.80402,1.5817,23,10
6.62495,-1.8273,-1.08847,40,3
10.6967,-2.95239,1.3625,45,11
14.4676,-3.99591,-1.84291,56,4
9.74845,-2.69432,1.60189,45,12
9.06381,-2.5068,-0.82275,21,5
13.3439,-3.69057,2.69117,16,13
9.0528,-2.50546,-0.492272,7,6
7.49819,-2.07802,-0.135815,100,7
9.54438,-2.64689,2.65393,8,15
0.465217,-0.129716,-0.12941,15,0
12.7285,-3.54906,0.230651,60,8
0.512433,-0.142978,-0.122823,15,1
12.1692,-3.39771,0.662155,30,9
0.640995,-0.17909,-0.129368,27,2
17.3959,-4.86357,1.58031,40,10
6.6144,-1.85051,-1.08785,23,3
11.7238,-3.28217,-1.49485,39,4
9.73518,-2.72727,1.60126,14,12
9.13941,-2.56209,-0.83042,13,5
13.3549,-3.74634,2.69613,10,13
9.48006,-2.66115,-0.516033,35,6
9.31685,-2.61709,2.23421,30,14
7.34651,-2.06363,-0.133197,100,7
12.8347,-3.62943,0.232815,56,8
0.511906,-0.144855,-0.122823,15,1
9.08389,-2.5722,0.494784,32,9
0.663034,-0.187745,-0.133948,26,2
12.3239,-3.49196,1.12065,33,10
6.57179,-1.86335,-1.0819,12,3
14.0784,-3.99441,1.79684,28,11
11.6716,-3.31373,-1.48973,37,4
18.1524,-5.15715,2.98884,31,12
7.35953,-2.09086,-0.669356,13,5
13.5834,-3.86165,2.74498,13,13
7.26152,-2.06576,-0.39566,68,6
9.32453,-2.6544,2.23826,28,14
7.34274,-2.09163,-0.133267,88,7
9.45088,-2.69394,2.63323,18,15
16.7473,-4.79905,0.304091,21,8
0.511397,-0.146641,-0.122823,15,1
9.06334,-2.60058,0.494156,15,9
0.635955,-0.182477,-0.128605,28,2
12.304,-3.53276,1.11995,68,10
10.3529,-2.97451,-1.70607,28,3
14.1178,-4.05888,1.80367,28,11
6.44426,-1.85395,-0.823349,20,4
16.4695,-4.74122,2.71445,19,12
9.16726,-2.63906,-0.834603,1,5
11.7701,-3.39059,2.38091,20,13
9.26278,-2.67181,2.22567,72,14
7.29505,-2.10561,-0.132534,100,7
9.38945,-2.7119,2.61873,71,15
16.7074,-4.85079,0.303672,42,8
0.548309,-0.159299,-0.131821,14,1
9.44593,-2.7443,0.515509,44,9
0.657937,-0.191273,-0.133185,26,2
12.2877,-3.57457,1.1196,21,10
6.52259,-1.89869,-1.07596,41,3
14.1264,-4.1148,1.80659,44,11
9.71952,-2.83298,-1.24307,63,4
16.4196,-4.78586,2.70882,17,12
10.2941,-3.00241,-0.938144,8,5
10.1355,-2.95808,2.05234,24,13
7.28335,-2.12704,-0.397649,87,6
8.7203,-2.54834,2.09744,50,14
7.28227,-2.1281,-0.132429,81,7
9.38411,-2.74411,2.61977,43,15
16.6529,-4.89489,0.302974,50,8
0.510387,-0.150118,-0.122823,15,1
9.43055,-2.77556,0.515195,65,9
0.653498,-0.192459,-0.132421,26,2
10.0831,-2.97145,0.919667,10,10
9.74312,-2.87125,-1.60877,17,3
14.1032,-4.15881,1.80537,32,11
9.6282,-2.84104,-1.23259,22,4
10.9617,-3.2366,1.81026,30,12
10.2951,-3.04172,-0.93919,10,5
10.1219,-2.99056,2.05158,28,13
7.18815,-2.12513,-0.392834,36,6
8.72488,-2.58112,2.10059,72,14
7.2863,-2.15692,-0.132638,66,7
9.46339,-2.80318,2.64461,17,15
0.462906,-0.137735,-0.12941,15,0
11.53,-3.43285,0.209987,48,8
0.50986,-0.151899,-0.122823,15,1
9.23897,-2.75426,0.505251,41,9
0.652823,-0.194739,-0.132421,26,2
10.077,-3.00601,0.920016,100,10
9.80875,-2.92785,-1.62129,68,3
14.0467,-4.19552,1.80001,12,11
9.56307,-2.85815,-1.22552,15,4
9.71638,-2.90581,1.60627,14,12
10.2672,-3.07249,-0.937621,14,5
10.1372,-3.03552,2.05692,10,13
7.20327,-2.15834,-0.39409,39,6
8.72702,-2.61491,2.10329,55,14
7.14081,-2.14099,-0.130125,78,7
11.2244,-3.38671,0.204647,100,8
0.5093,-0.153767,-0.122823,15,1
9.17719,-2.7725,0.502425,131,9
0.665259,-0.201107,-0.135093,25,2
14.0576,-4.2496,1.28485,27,10
9.47653,-2.86655,-1.5681,41,3
10.5771,-3.20148,1.35689,31,11
11.8552,-3.59058,-1.52093,19,4
17.7969,-5.39353,2.94535,6,12
9.44554,-2.86437,-0.863539,7,5
10.9564,-3.32463,2.2256,15,13
10.3238,-3.13464,-0.565438,20,6
9.23017,-2.80258,2.22702,33,14
7.19032,-2.18459,-0.131172,100,7
9.49669,-2.88713,2.65962,29,15
7.69708,-2.35323,0.140492,42,8
0.508733,-0.155632,-0.122823,15,1
7.36643,-2.25355,0.40372,72,9
0.643903,-0.197107,-0.130895,27,2
11.5197,-3.52852,1.05406,49,10
6.06826,-1.85989,-1.00525,23,3
10.5748,-3.24313,1.35811,34,11
11.8198,-3.62495,-1.518,46,4
9.40691,-2.88855,-0.860924,45,5
11.6579,-3.58197,2.37061,24,13
9.65225,-2.96758,-0.529221,28,6
8.77328,-2.69734,2.11904,83,14
7.0393,-2.16557,-0.128554,98,7
9.63426,-2.96573,2.70104,13,15
7.61282,-2.35511,0.139096,41,8
0.508214,-0.157318,-0.122823,15,1
7.35129,-2.2756,0.403301,117,9
0.641371,-0.19866,-0.130513,27,2
10.9484,-3.39329,1.00281,91,10
6.4111,-1.98825,-1.06313,67,3
10.8351,-3.36231,1.39297,68,11
11.8494,-3.67707,-1.52337,9,4
9.68542,-3.0074,1.60627,9,12
9.42011,-2.92683,-0.863016,42,5
10.6579,-3.31345,2.1695,9,13
7.36908,-2.29239,-0.404452,50,6
8.70288,-2.70731,2.10419,72,14
6.99389,-2.17702,-0.127856,98,7
9.47128,-2.94998,2.65807,27,15
7.46947,-2.33793,0.136617,12,8
0.526286,-0.164827,-0.127322,15,1
7.44622,-2.3335,0.408953,112,9
0.646293,-0.20266,-0.131658,26,2
10.9295,-3.42719,1.00212,25,10
6.38374,-2.00299,-1.05969,56,3
10.8447,-3.40477,1.39565,100,11
6.13415,-1.92703,-0.78947,13,4
6.42211,-2.01995,-0.588998,25,5
8.83093,-2.78099,2.13749,67,14
7.07398,-2.22906,-0.129462,35,7
11.5392,-3.6383,3.24197,11,15
7.33291,-2.32754,0.403196,77,9
0.643675,-0.204433,-0.131277,27,2
6.93484,-2.20253,0.636586,26,10
11.4792,-3.65022,1.47901,100,11
6.45619,-2.05423,-0.83188,31,4
9.78035,-3.11379,1.62567,48,12
6.40137,-2.03925,-0.587778,48,5
9.57308,-3.05332,-0.526604,56,6
8.85038,-2.82281,2.14468,52,14
7.13054,-2.27564,-0.130649,100,7
11.1117,-3.54834,3.1255,25,15
0.459869,-0.147559,-0.12941,15,0
7.46927,-2.39812,0.136932,48,8
0.50651,-0.16272,-0.122823,15,1
7.33384,-2.35746,0.40372,65,9
0.633612,-0.203675,-0.129368,27,2
6.885,-2.21451,0.632751,60,10
8.46365,-2.7239,-1.40822,7,3
11.5262,-3.71174,1.48681,42,11
6.44862,-2.07788,-0.83188,64,4
7.87187,-2.538,1.30998,45,12
6.41697,-2.06891,-0.58987,62,5
7.14862,-2.30619,1.46007,3,13
7.38417,-2.3836,-0.40665,54,6
8.42459,-2.72107,2.04391,49,14
7.03462,-2.27348,-0.129043,100,7
9.60608,-3.10638,2.70518,13,15
7.44754,-2.41985,0.136687,42,8
0.535591,-0.174128,-0.130022,14,1
7.5022,-2.44051,0.413454,51,9
0.636631,-0.2071,-0.130132,27,2
6.86396,-2.23421,0.631531,43,10
13.3213,-4.3412,1.72031,31,11
11.8673,-3.86966,-1.53263,42,4
7.86672,-2.56668,1.31061,57,12
6.40971,-2.0913,-0.58987,20,5
9.99768,-3.26582,-0.551202,21,6
8.40763,-2.74804,2.04211,89,14
6.97723,-2.28186,-0.128136,77,7
9.60252,-3.1423,2.70725,11,15
7.36496,-2.42148,0.135326,89,8
0.505362,-0.166252,-0.122823,15,1
7.5828,-2.49603,0.418374,38,9
0.637769,-0.209935,-0.130513,27,2
9.86502,-3.24918,0.908686,28,10
9.45378,-3.11556,-1.57655,23,3
13.3456,-4.40072,1.72543,31,11
6.46412,-2.1328,-0.83578,14,4
8.15409,-2.69197,1.36004,93,12
15.3618,-5.07447,-1.41541,13,5
7.11557,-2.35049,1.45664,18,13
8.42574,-2.78655,2.04885,48,14
6.9901,-2.31311,-0.12852,7,7
9.36208,-3.11435,0.17222,26,8
0.504779,-0.168015,-0.122823,15,1
7.30496,-2.43287,0.40351,78,9
0.651896,-0.217236,-0.133566,26,2
12.4727,-4.15879,1.15028,20,10
8.47726,-2.82823,-1.41542,43,3
13.317,-4.44288,1.72372,27,11
6.46228,-2.15723,-0.836511,22,4
7.92918,-2.64845,1.32406,63,12
13.5148,-4.51674,-1.24668,27,5
10.665,-3.5664,2.18591,7,13
7.07427,-2.36702,-0.39095,52,6
9.18236,-3.07416,2.23556,16,14
7.92252,-2.65238,-0.145832,100,7
11.2565,-3.77073,3.18089,63,15
14.1605,-4.76827,0.260809,27,8
0.504159,-0.169864,-0.122823,15,1
7.29599,-2.45963,0.40351,66,9
0.63253,-0.213239,-0.12975,27,2
11.2253,-3.78647,1.03646,8,10
7.07296,-2.38719,-1.18233,22,3
13.1031,-4.42498,1.69813,37,11
12.3106,-4.15973,-1.59551,27,4
7.68925,-2.59968,1.28558,74,12
13.5367,-4.57665,-1.25016,2,5
12.5866,-4.25789,2.58279,14,13
7.06596,-2.3917,-0.39095,31,6
8.71751,-2.95241,2.12489,15,14
7.91085,-2.68075,-0.145797,89,7
9.43231,-3.21286,0.173931,52,8
0.47774,-0.162822,-0.116525,16,1
7.33084,-2.49991,0.405918,55,9
0.646647,-0.220515,-0.132803,26,2
6.76947,-2.30979,0.625778,15,10
7.05337,-2.40803,-1.18045,8,3
12.742,-4.35261,1.65328,41,11
12.4876,-4.26817,-1.62037,30,4
7.69321,-2.63097,1.28777,42,12
13.1851,-4.50911,-1.21913,27,5
10.4634,-3.58038,2.14965,14,13
7.09158,-2.42799,-0.392834,43,6
15.9837,-5.47556,3.90065,21,14
13.6313,-4.67235,-0.251524,34,7
15.6404,-5.36407,4.43046,6,15
9.37188,-3.22883,0.173023,77,8
0.477168,-0.164489,-0.116525,16,1
7.222,-2.49096,0.40037,37,9
0.634738,-0.21893,-0.130513,27,2
13.7996,-4.76236,1.27718,13,10
12.6573,-4.37308,1.64426,67,11
15.3807,-5.31702,-1.99817,45,4
9.94847,-3.44108,1.66728,23,12
17.7718,-6.15056,3.65552,16,13
7.05664,-2.44358,-0.391368,59,6
9.08706,-3.14845,2.22027,30,14
7.24956,-2.51322,-0.13393,67,7
10.4053,-3.60926,2.95105,41,15
0.502353,-0.175134,-0.122823,15,1
7.3151,-2.55168,0.406022,105,9
0.63397,-0.221144,-0.130513,27,2
13.8675,-4.84004,1.28502,11,10
13.0825,-4.56861,-2.19478,13,3
13.131,-4.58814,1.70788,42,11
13.1909,-4.61421,-1.22262,10,5
17.6909,-6.19181,3.64331,18,13
7.05938,-2.47216,-0.391996,73,6
15.9009,-5.57155,3.88985,10,14
12.4963,-4.38103,-0.23114,82,7
10.3598,-3.63405,2.94174,21,15
11.884,-4.18733,0.219935,13,8
0.501738,-0.176887,-0.122823,15,1
7.04057,-2.48352,0.391264,47,9
0.644303,-0.227274,-0.132803,26,2
6.73364,-2.37657,0.624732,15,10
13.0963,-4.62477,-2.19978,19,3
13.1018,-4.62932,1.70617,38,11
13.2695,-4.69115,-1.72811,24,4
7.69503,-2.72193,1.29277,76,12
9.76362,-3.45364,-0.906071,9,5
8.43576,-2.9856,1.73941,9,13
7.08648,-2.50945,-0.393985,43,6
12.4055,-4.3979,-0.229743,22,7
12.3225,-4.3709,3.50337,7,15
0.454979,-0.162011,-0.12941,15,0
11.922,-4.24758,0.220913,13,8
0.501118,-0.178637,-0.122823,15,1
7.54166,-2.68991,0.41963,63,9
0.643505,-0.229522,-0.132803,26,2
8.93204,-3.18758,0.829723,16,10
7.45066,-2.66039,-1.25304,15,3
8.75427,-3.12759,1.14143,15,11
13.4437,-4.8056,-1.75297,16,4
7.67805,-2.74611,1.29152,76,12
12.0684,-4.31635,-1.12135,19,5
10.2442,-3.66796,-0.570253,30,6
6.95117,-2.49025,1.70468,56,14
11.8705,-4.25494,-0.22011,100,7
10.3578,-3.71476,2.94847,23,15
7.52307,-2.71144,0.139584,57,8
0.50046,-0.180473,-0.122823,15,1
7.22409,-2.60511,0.402464,18,9
0.631579,-0.227881,-0.130513,27,2
11.0098,-3.97463,1.02408,10,10
13.0536,-4.71501,-2.19822,16,3
8.72035,-3.15156,1.1385,18,11
13.5903,-4.91424,-1.77442,9,4
9.96819,-3.6045,1.67885,76,12
11.9551,-4.32531,-1.11228,14,5
8.39757,-3.03988,1.73598,43,13
9.24668,-3.34908,-0.515405,3,6
6.93467,-2.51305,1.70288,40,14
12.1132,-4.38969,-0.224892,100,7
10.3539,-3.75419,2.95105,34,15
7.55162,-2.75006,0.140282,26,8
0.499859,-0.182131,-0.122823,15,1
6.93537,-2.52838,0.386867,39,9
0.619714,-0.226047,-0.128224,28,2
6.60127,-2.40919,0.614797,22,10
13.4312,-4.90185,-2.26455,48,3
8.70053,-3.17705,1.13728,42,11
9.56326,-3.49398,-1.25014,19,4
9.87763,-3.61079,1.66571,71,12
11.9062,-4.35469,-1.10914,19,5
8.41878,-3.07917,1.74247,50,13
9.26929,-3.39208,-0.517289,7,6
10.5953,-3.87943,2.60493,46,14
11.8574,-4.3439,-0.220424,75,7
12.3577,-4.52962,3.52667,8,15
7.52884,-2.77156,0.140038,67,8
0.521164,-0.191957,-0.128222,14,1
6.93962,-2.55741,0.3876,105,9
0.626329,-0.230817,-0.12975,27,2
8.94677,-3.29886,0.834255,8,10
8.70056,-3.21153,1.13875,31,11
13.3982,-4.94818,-1.7537,54,4
10.4153,-3.8486,1.75864,28,12
8.98687,-3.32256,-0.838264,11,5
8.46691,-3.13033,1.75468,36,13
7.42914,-2.74812,-0.415129,7,6
10.1102,-3.74188,2.48886,16,14
7.04156,-2.60755,-0.131068,79,7
7.72972,-2.86391,2.20876,10,15
7.45727,-2.77482,0.138886,100,8
0.498575,-0.185616,-0.122823,15,1
6.96246,-2.59347,0.38938,27,9
0.634677,-0.236539,-0.131658,26,2
14.3447,-5.34899,1.33941,28,10
14.6099,-5.4508,-2.46979,19,3
11.9738,-4.4673,1.56919,76,11
15.1755,-5.66484,-1.98891,24,4
7.60564,-2.84061,1.28589,35,12
12.1237,-4.53046,-1.13233,11,5
8.59146,-3.21222,1.78292,33,13
7.38909,-2.76414,-0.413454,54,6
15.068,-5.63968,3.71439,27,14
7.06238,-2.64333,-0.131626,79,7
7.75586,-2.90443,2.21911,17,15
7.39277,-2.78171,0.137874,41,8
0.497891,-0.187443,-0.122823,15,1
6.88002,-2.59151,0.385297,33,9
0.620987,-0.233909,-0.128987,27,2
14.3837,-5.42081,1.34481,24,10
7.45621,-2.81152,-1.26211,10,3
12.1282,-4.57562,1.59161,32,11
14.6309,-5.52273,-1.92017,23,4
7.23113,-2.73097,1.22426,40,12
12.1134,-4.57487,-1.13285,26,5
8.36349,-3.1603,1.73789,42,13
7.38873,-2.79344,-0.413977,32,6
15.1411,-5.7274,3.73734,27,14
12.164,-4.60367,-0.227021,55,7
7.73793,-2.9301,2.21704,66,15
12.1399,-4.61638,0.226707,13,8
0.497234,-0.189179,-0.122823,15,1
6.85786,-2.61054,0.384565,38,9
0.631176,-0.240266,-0.131277,27,2
12.8789,-4.9051,1.20571,70,10
8.76063,-3.33835,-1.48488,13,3
10.3723,-3.95459,1.36299,19,11
14.4168,-5.49948,-1.89458,55,4
7.16803,-2.73577,1.21518,73,12
10.9712,-4.18731,-1.02739,11,5
8.26437,-3.15586,1.71957,21,13
22.9559,-8.77058,-1.28788,5,6
8.41515,-3.2168,2.0799,37,14
11.877,-4.54252,-0.22196,100,7
7.73848,-2.96123,2.22015,83,15
7.44411,-2.86051,0.1392,13,8
0.496571,-0.190914,-0.122823,15,1
6.85057,-2.63518,0.384669,37,9
0.641328,-0.246696,-0.133566,26,2
8.87428,-3.41718,-1.50615,30,3
10.3677,-3.99434,1.36421,42,11
14.4975,-5.58832,-1.90774,25,4
7.16213,-2.7622,1.21581,119,12
10.8034,-4.16868,-1.0131,20,5
8.4731,-3.2695,1.76537,11,13
7.47898,-2.8874,-0.420153,14,6
10.2035,-3.94131,2.5253,54,14
11.9954,-4.63586,-0.224473,100,7
7.66684,-2.96454,2.20255,46,15
7.37629,-2.86404,0.138118,45,8
0.495901,-0.192646,-0.122823,15,1
6.84506,-2.66052,0.384879,15,9
0.618462,-0.240507,-0.128987,27,2
12.7952,-4.97835,1.20118,21,10
10.0582,-3.91547,-1.70952,22,3
10.4259,-4.05859,1.37371,26,11
11.0023,-4.28519,-1.44976,19,4
10.8704,-4.23821,-1.02077,9,5
7.47765,-2.91842,-0.420676,97,6
8.40281,-3.28119,2.0826,66,14
12.0667,-4.71188,-0.226113,9,7
7.64385,-2.98636,2.19893,42,15
14.9735,-5.87708,0.280774,11,8
0.495192,-0.194462,-0.122823,15,1
6.79855,-2.6698,0.382785,63,9
0.621273,-0.2441,-0.12975,27,2
10.6231,-4.17598,0.99863,27,10
10.0243,-3.9426,-1.70607,47,3
7.63825,-3.00571,1.00786,74,11
10.9274,-4.30221,-1.44196,37,4
16.4579,-6.47963,2.80143,15,12
10.6498,-4.19507,-1.00142,17,5
7.82847,-3.08529,1.63561,35,13
7.45441,-2.93938,-0.419944,58,6
8.37861,-3.30549,2.07945,31,14
15.8561,-6.25546,-0.297529,46,7
7.74658,-3.05771,2.23154,72,15
7.40259,-2.93388,0.138991,34,8
0.476429,-0.18892,-0.118324,16,1
6.81518,-2.70382,0.384251,43,9
0.627716,-0.249164,-0.131277,27,2
10.6399,-4.22553,1.00159,48,10
13.391,-5.31811,-2.28207,14,3
7.63008,-3.03175,1.0081,54,11
8.83597,-3.51269,-1.16751,22,4
12.208,-4.85569,2.08089,10,12
8.81539,-3.50807,-0.830071,14,5
8.15566,-3.24553,1.70621,45,13
7.48359,-2.9796,-0.422142,32,6
9.82135,-3.91236,2.44072,63,14
13.0775,-5.21209,-0.24573,100,7
7.80046,-3.11049,2.25017,53,15
0.493857,-0.197829,-0.122823,15,1
0.634176,-0.254166,-0.132803,26,2
10.9754,-4.40094,1.03454,40,10
8.54153,-3.42675,-1.45766,53,3
10.4252,-4.18455,1.37932,39,11
11.0176,-4.42458,-1.4578,28,4
12.2533,-4.92331,2.09153,11,12
11.552,-4.64386,-1.08927,38,5
7.9603,-3.20002,1.66767,26,13
10.5269,-4.23392,-0.594641,33,6
9.95587,-4.00627,2.47761,26,14
9.72019,-3.91341,-0.182901,45,7
6.67006,-2.69759,0.125588,55,8
0.493163,-0.199551,-0.122823,15,1
10.4099,-4.21432,0.58857,41,9
0.615043,-0.249118,-0.128987,27,2
10.8539,-4.39849,1.0246,17,10
8.3843,-3.3994,-1.43294,46,3
10.4307,-4.22912,1.382,26,11
10.27,-4.16602,-1.36079,6,4
7.38006,-2.99523,1.26149,8,12
11.9289,-4.84382,-1.1264,30,5
10.848,-4.40935,-0.613692,30,6
8.37242,-3.4048,2.08665,13,14
7.44287,-3.02678,-0.140248,88,7
6.62681,-2.7084,0.124959,85,8
0.524896,-0.214634,-0.130922,14,1
10.4055,-4.25698,0.589198,21,9
0.625073,-0.255724,-0.131277,27,2
10.8329,-4.43408,1.02408,48,10
8.28829,-3.39421,-1.41855,46,3
7.88209,-3.22947,1.04588,7,11
10.8277,-4.43855,-1.43684,8,4
13.794,-5.65733,-1.30437,31,5
8.24415,-3.38285,1.73216,28,13
11.9278,-4.89926,2.977,23,14
7.42432,-3.05099,-0.140108,88,7
7.65255,-3.14635,2.21704,30,15
6.59143,-2.72083,0.124471,85,8
0.491722,-0.203075,-0.122823,15,1
10.3868,-4.29175,0.588989,73,9
0.627805,-0.259404,-0.13204,26,2
10.9408,-4.52287,1.03576,42,10
8.2271,-3.40273,-1.4101,45,3
11.7135,-4.84711,1.55652,29,11
10.6269,-4.39963,-1.41222,37,4
7.14674,-2.96028,1.22519,58,12
13.6103,-5.63759,-1.28886,26,5
8.31391,-3.44543,1.74934,21,13
10.3705,-4.29985,-0.588361,100,6
10.0423,-4.1658,2.51,20,14
7.35637,-3.05313,-0.139026,39,7
0.534974,-0.222907,-0.155291,12,0
6.52653,-2.72074,0.123423,61,8
0.491011,-0.20479,-0.122823,15,1
10.2336,-4.2703,0.581138,16,9
0.623227,-0.26019,-0.131277,27,2
10.7944,-4.50653,1.02338,19,10
8.19695,-3.42382,-1.40697,38,3
7.89049,-3.29743,1.05003,4,11
10.4979,-4.38922,-1.39711,49,4
7.2457,-3.03094,1.24397,63,12
11.7627,-4.92285,-1.11559,21,5
8.41169,-3.52214,1.77262,40,13
10.3418,-4.33243,-0.587628,100,6
9.69694,-4.06228,2.42722,19,14
7.43788,-3.11744,-0.140771,32,7
11.0439,-4.63108,3.20884,4,15
6.61787,-2.78733,0.125343,90,8
0.490257,-0.206589,-0.122823,15,1
0.615033,-0.259421,-0.12975,27,2
10.7906,-4.55148,1.0246,46,10
8.22984,-3.47304,-1.41479,46,3
10.2302,-4.31928,1.36347,48,11
10.3537,-4.37359,-1.38005,52,4
7.03986,-2.9752,1.21049,54,12
13.8292,-5.84739,-1.31361,44,5
8.43669,-3.56901,1.78063,42,13
9.65147,-4.08488,2.41957,5,14
7.43009,-3.14624,-0.140841,40,7
10.6906,-4.52909,3.11101,22,15
6.53953,-2.7826,0.124052,52,8
0.489496,-0.208384,-0.122823,15,1
9.75362,-4.15424,0.555599,59,9
0.614124,-0.261566,-0.12975,27,2
10.7299,-4.57226,1.02042,17,10
7.53382,-3.21189,-1.29715,7,3
7.84237,-3.34506,1.04686,28,11
10.3924,-4.43489,-1.38736,13,4
7.22874,-3.0863,1.24491,24,12
13.9132,-5.94022,-1.32355,42,5
7.39772,-3.1615,-0.421619,18,6
9.65077,-4.12636,2.42317,7,14
9.56041,-4.0897,-0.181505,100,7
10.6828,-4.57205,3.11359,19,15
6.57571,-2.82515,0.124924,49,8
0.478024,-0.205474,-0.120124,15,1
9.70236,-4.17248,0.553505,48,9
0.598779,-0.257503,-0.126697,28,2
10.6443,-4.57976,1.0138,46,10
10.1826,-4.38531,1.36128,28,11
8.4262,-3.63064,-1.12656,27,4
7.227,-3.11543,1.24647,17,12
7.5033,-3.23454,-0.714851,6,5
6.96938,-3.00582,1.47534,3,13
10.5628,-4.55781,-0.60291,13,6
12.9176,-5.57656,3.24829,18,14
9.57178,-4.13415,-0.181994,27,7
7.86666,-3.39932,2.29624,23,15
10.8219,-4.69428,0.205903,47,8
0.48803,-0.211796,-0.122823,15,1
9.66026,-4.19439,0.551935,60,9
0.601478,-0.261156,-0.12746,28,2
10.7251,-4.65896,1.02303,70,10
7.54201,-3.27779,-1.30247,48,3
10.3984,-4.52136,1.39224,32,11
8.38981,-3.64974,-1.12339,28,4
13.3278,-5.80338,-1.27178,27,5
13.7017,-5.96907,-0.78326,6,6
12.8891,-5.61773,3.24604,29,14
10.2282,-4.46008,-0.194769,9,7
7.81933,-3.41131,2.28589,19,15
9.76871,-4.278,0.186147,10,8
0.508707,-0.222883,-0.128222,14,1
9.65288,-4.23129,0.552354,61,9
0.618496,-0.271243,-0.131277,27,2
10.4361,-4.57896,0.997062,23,10
8.18834,-3.59443,-1.41636,27,3
10.3099,-4.52571,1.38249,39,11
8.35703,-3.67022,-1.12071,15,4
7.34613,-3.22779,1.27087,44,12
13.3147,-5.85308,-1.27247,47,5
7.49941,-3.29826,1.59249,26,13
16.5719,-7.29179,-0.948851,31,6
11.1295,-4.8994,2.80739,25,14
9.14919,-4.02764,-0.174489,44,7
7.85157,-3.45805,2.29883,15,15
7.42125,-3.28245,0.141644,40,8
0.486501,-0.215283,-0.122823,15,1
9.69026,-4.29009,0.555389,106,9
0.599594,-0.265453,-0.12746,28,2
8.54191,-3.78347,0.817347,42,10
8.09809,-3.58858,-1.4029,52,3
8.329,-3.69439,-1.11876,33,4
7.19342,-3.19219,1.24647,54,12
13.3088,-5.90599,-1.27387,32,5
7.01594,-3.1149,1.49213,37,13
7.00183,-3.1101,-0.401522,25,6
9.20928,-4.09446,-0.17592,8,7
7.84944,-3.49151,2.30194,57,15
0.529244,-0.236188,-0.155291,12,0
7.43348,-3.31893,0.142097,65,8
0.485747,-0.21698,-0.122823,15,1
9.6497,-4.31248,0.553924,56,9
0.591494,-0.26434,-0.125934,29,2
8.485,-3.79375,0.813163,20,10
8.4209,-3.76685,-1.4611,31,3
10.3461,-4.63018,1.39175,68,11
7.42829,-3.32595,-0.999329,42,4
7.13897,-3.1979,1.23896,75,12
13.2554,-5.93775,-1.27073,25,5
6.99248,-3.13375,1.48946,35,13
6.95631,-3.11899,-0.399533,32,6
6.7779,-3.04042,1.71503,51,14
9.19676,-4.1274,-0.175955,44,7
7.82487,-3.51335,2.29831,64,15
9.1775,-4.13609,0.175711,56,8
0.484987,-0.218674,-0.122823,15,1
9.75111,-4.3987,0.560623,34,9
0.601305,-0.271247,-0.128224,28,2
8.45354,-3.81514,0.81142,18,10
8.20786,-3.70599,-1.42637,37,3
10.3407,-4.67117,1.39321,32,11
7.45643,-3.36984,-1.00469,85,4
7.11516,-3.2171,1.23677,21,12
13.2727,-6.00122,-1.27439,27,5
7.02443,-3.17756,1.49861,18,13
6.96903,-3.15396,-0.400893,43,6
8.25313,-3.73684,2.09159,20,14
21.9821,-9.95766,-0.421231,8,7
7.78616,-3.52868,2.29055,74,15
9.67267,-4.39994,0.185484,56,8
0.48422,-0.220366,-0.122823,15,1
10.2392,-4.66196,0.589617,73,9
0.607502,-0.276598,-0.12975,27,2
10.5235,-4.79361,1.0117,23,10
8.23802,-3.75428,-1.43388,33,3
7.11467,-3.24384,0.960087,13,11
7.40308,-3.3769,-0.999085,57,4
12.8653,-5.87121,2.23983,31,12
13.2299,-6.03758,-1.2723,22,5
7.00258,-3.19717,1.49632,24,13
7.42124,-3.38988,-0.427585,87,6
8.21522,-3.75428,2.0853,39,14
7.35091,-3.36085,-0.141085,48,7
6.4515,-2.9619,0.123912,22,8
0.462198,-0.212294,-0.117424,16,1
9.93068,-4.5634,0.572765,51,9
0.608316,-0.279537,-0.130132,27,2
8.43937,-3.87989,0.81264,16,10
8.16743,-3.7566,-1.42387,22,3
7.08888,-3.26202,0.958137,74,11
7.44895,-3.42928,-1.00688,22,4
12.9596,-5.96898,2.25985,24,12
13.3163,-6.13606,-1.28276,34,5
7.00742,-3.22898,1.49976,14,13
7.4148,-3.41827,-0.427899,76,6
7.35729,-3.39487,-0.141434,100,7
7.84377,-3.62101,2.31488,10,15
8.75266,-4.05543,0.168381,42,8
0.48267,-0.223741,-0.122823,15,1
9.52151,-4.4157,0.550051,21,9
0.603726,-0.280112,-0.129368,27,2
8.40341,-3.90073,0.810548,33,10
10.067,-4.6751,-1.75801,37,3
7.07925,-3.28758,0.958381,22,11
7.47114,-3.47116,-1.01152,50,4
12.7309,-5.91759,2.22356,43,12
13.3887,-6.22619,-1.29182,21,5
7.03826,-3.27452,1.50892,18,13
7.41309,-3.45048,-0.428527,65,6
8.19874,-3.81791,2.088,27,14
7.34902,-3.42222,-0.141504,100,7
6.77428,-3.16898,0.130544,66,8
0.481847,-0.225508,-0.122823,15,1
9.95385,-4.6606,0.57601,73,9
0.595632,-0.278888,-0.127842,28,2
8.38974,-3.93004,0.810548,54,10
9.41032,-4.41012,-1.646,32,3
7.10131,-3.32952,0.963012,33,11
7.61113,-3.57017,-1.03223,59,4
6.90266,-3.23932,1.20767,8,12
7.23207,-3.39545,-0.698989,12,5
6.97525,-3.27487,1.49785,12,13
7.41546,-3.48313,-0.429364,54,6
8.56633,-4.02553,2.18517,36,14
7.34185,-3.45168,-0.141609,88,7
7.80368,-3.67047,2.31074,42,15
9.93139,-4.68818,0.191697,40,8
0.456387,-0.215538,-0.116525,16,1
10.2842,-4.85914,0.596107,56,9
0.623005,-0.294493,-0.133948,26,2
8.45813,-3.99995,0.818567,38,10
9.38695,-4.4412,-1.64475,15,3
7.15065,-3.38315,0.971299,54,11
7.65603,-3.6239,-1.04003,34,4
7.24718,-3.43347,-0.701604,11,5
7.03594,-3.33489,1.5135,6,13
10.6943,-5.07117,-0.620286,74,6
8.61137,-4.0853,2.20047,24,14
7.38577,-3.50386,-0.142691,88,7
8.15768,-3.88752,0.157735,10,8
0.480221,-0.228951,-0.122823,15,1
10.2239,-4.87438,0.593594,56,9
0.604254,-0.288214,-0.130132,27,2
8.44412,-4.02945,0.818567,40,10
13.3987,-6.39946,1.82317,44,11
7.6624,-3.66135,-1.04271,37,4
7.31299,-3.49439,1.2837,41,12
7.74565,-3.70279,-0.751108,34,5
7.0278,-3.36113,1.51426,3,13
10.7288,-5.13347,-0.623321,27,6
8.56718,-4.10103,2.19282,33,14
7.38071,-3.53308,-0.14283,40,7
14.0799,-6.74296,4.18303,3,15
9.67673,-4.65086,0.187404,35,8
0.444334,-0.213652,-0.113825,16,1
12.723,-6.12045,0.739926,12,9
0.61032,-0.293727,-0.131658,26,2
12.794,-6.16009,1.24232,13,10
13.465,-6.48607,1.83511,44,11
7.65737,-3.69018,-1.04369,37,4
7.33278,-3.53533,1.28933,91,12
7.73089,-3.72894,-0.750934,16,5
7.02242,-3.38873,-0.408639,68,6
10.8139,-5.22065,2.7723,14,14
7.18906,-3.47378,2.1394,8,15
9.4823,-4.59823,0.183948,60,8
0.478651,-0.232214,-0.122823,15,1
0.612875,-0.297464,-0.132421,26,2
12.4437,-6.04235,1.21024,28,10
10.3535,-5.02962,-1.82309,22,3
13.4334,-6.52869,1.83389,40,11
10.1063,-4.9139,-1.3798,31,4
7.32572,-3.5635,1.29027,103,12
10.3531,-5.03838,-1.00735,27,5
6.88119,-3.34875,1.48755,23,13
6.97643,-3.39661,-0.40665,76,6
14.2207,-6.92668,3.65186,9,14
8.96114,-4.36677,-0.174,96,7
14.1107,-6.87919,4.20633,12,15
9.52188,-4.65854,0.18503,71,8
0.505843,-0.247591,-0.130022,14,1
12.341,-6.04311,0.720143,12,9
0.583572,-0.285889,-0.126316,28,2
8.4283,-4.1308,0.821181,38,10
10.2445,-5.02318,-1.80713,27,3
6.99043,-3.4276,0.955943,9,11
10.1336,-4.971,-1.3859,45,4
7.32388,-3.59427,1.29215,42,12
10.2622,-5.03849,-1.0002,34,5
6.87415,-3.37654,1.48869,34,13
6.96931,-3.4248,-0.406964,76,6
10.8689,-5.34347,2.79614,14,14
8.96917,-4.40949,-0.174454,100,7
14.4697,-7.11683,4.32072,10,15
0.476977,-0.235633,-0.122823,15,1
0.58609,-0.289664,-0.127079,28,2
8.29059,-4.09927,0.809154,48,10
7.5144,-3.71711,-1.32782,28,3
13.4593,-6.66075,1.84388,12,11
7.40773,-3.66757,-1.01493,26,4
16.9083,-8.37498,2.98852,55,12
7.49616,-3.7146,-0.731934,11,5
7.03824,-3.48769,1.52685,71,13
6.95911,-3.44999,-0.407069,54,6
7.85092,-3.89381,2.02321,9,14
8.90996,-4.421,-0.173617,100,7
0.476152,-0.237297,-0.122823,15,1
8.24714,-4.11187,0.482956,25,9
0.588538,-0.293563,-0.127842,28,2
8.26838,-4.12607,0.808457,71,10
13.4359,-6.70769,1.84388,16,11
10.2044,-5.09661,-1.40052,39,4
16.6051,-8.29709,2.94003,30,12
10.2134,-5.10556,-0.998979,40,5
7.0768,-3.54071,-0.41471,79,6
16.8739,-8.44611,4.3564,34,14
8.95348,-4.48161,-0.174768,100,7
6.9354,-3.47299,2.07832,41,15
9.43875,-4.74513,0.184402,13,8
0.475279,-0.23904,-0.122823,15,1
8.90184,-4.47716,0.522208,58,9
0.584002,-0.29385,-0.127079,28,2
9.05781,-4.56155,-1.60627,2,3
13.3793,-6.74081,1.8395,4,11
7.86523,-3.9644,-1.08147,15,4
16.8777,-8.50704,2.99353,15,12
10.2257,-5.15643,-1.00194,31,5
16.1173,-8.13086,3.50898,16,13
7.09828,-3.58249,-0.416699,25,6
14.1462,-7.14266,3.6586,26,14
8.83603,-4.46147,-0.172779,35,7
6.95773,-3.5146,2.08867,28,15
8.15302,-4.13268,0.15955,17,8
0.439723,-0.222988,-0.113825,16,1
8.81848,-4.47387,0.518231,38,9
0.582973,-0.295887,-0.127079,14,2
12.487,-6.34048,1.22524,28,10
10.0149,-5.08524,-1.77897,45,3
7.93061,-4.02865,1.09219,17,11
7.81134,-3.96978,-1.07586,17,4
13.8579,-7.04574,2.46228,30,12
9.44582,-4.80458,-0.927163,26,5
16.4385,-8.36139,3.58492,18,13
10.5521,-5.36961,-0.620495,23,6
7.09909,-3.61561,-0.139061,70,7
6.85591,-3.49326,2.06175,56,15
8.16881,-4.17659,0.160143,30,8
0.473641,-0.24227,-0.122823,15,1
8.76903,-4.48734,0.516242,48,9
0.571451,-0.292552,-0.124789,29,2
12.363,-6.3292,1.21513,28,10
9.74566,-4.9914,-1.73423,27,3
7.91296,-4.0545,1.09171,2,11
15.5277,-7.96303,2.76388,15,12
9.34922,-4.7966,-0.919319,22,5
16.6366,-8.53902,3.63491,19,13
8.66326,-4.44849,-0.51038,70,6
7.03996,-3.61494,1.82705,59,14
7.04552,-3.61935,-0.138258,63,7
6.82821,-3.50922,2.05709,61,15
0.45197,-0.233279,-0.117424,16,1
8.77382,-4.53044,0.517498,37,9
0.587818,-0.303655,-0.128605,28,2
14.4657,-7.47269,1.42447,34,10
9.99404,-5.16494,-1.78179,47,3
15.9001,-8.22074,2.19779,9,11
8.95702,-4.63296,-1.23819,1,4
7.13692,-3.69311,1.27275,9,12
9.29088,-4.80976,-0.91531,46,5
14.1976,-7.35306,3.1079,8,13
8.64335,-4.47837,-0.510171,66,6
7.21699,-3.73933,1.87654,20,14
7.07304,-3.66631,-0.139061,86,7
6.83588,-3.5449,2.06331,61,15
8.14329,-4.23913,0.160248,13,8
0.470124,-0.244835,-0.122373,15,1
8.75618,-4.56012,0.517393,85,9
0.586755,-0.305705,-0.128605,28,2
12.659,-6.59831,1.24894,41,10
7.14735,-3.72861,0.989823,13,11
7.77496,-4.05774,-1.07684,23,4
7.14675,-3.72988,1.27682,13,12
9.24931,-4.82926,-0.912869,43,5
15.9538,-8.33335,3.49867,1,13
7.03399,-3.67728,1.83245,21,14
9.09638,-4.75547,-0.179166,97,7
7.02375,-3.67349,2.12387,28,15
9.12608,-4.78927,0.179899,43,8
0.486563,-0.255452,-0.126872,15,1
9.36792,-4.92035,0.554552,43,9
0.568305,-0.29862,-0.124789,29,2
12.6906,-6.6712,1.25435,30,10
9.75141,-5.12612,-1.74487,60,3
7.13319,-3.75136,0.989579,18,11
7.54704,-3.97406,-0.746227,22,5
14.2237,-7.48978,3.12469,33,13
7.24849,-3.81846,-0.429364,14,6
12.3454,-6.50624,3.22175,11,14
9.19293,-4.84688,-0.1814,28,7
6.98526,-3.68447,2.1161,72,15
9.02447,-4.7762,0.178224,51,8
0.44778,-0.237087,-0.116975,16,1
9.29244,-4.92217,0.551098,16,9
0.58813,-0.31153,-0.129368,27,2
12.5857,-6.66939,1.24615,57,10
9.86785,-5.23137,-1.76896,67,3
14.3997,-7.63712,2.00134,25,11
7.37541,-3.91332,-1.02517,41,4
7.56902,-4.01774,-0.749714,33,5
7.18573,-3.8175,-0.426433,47,6
7.15335,-3.8019,1.87024,11,14
9.19538,-4.88927,-0.181784,24,7
7.07469,-3.76326,2.14716,44,15
8.99893,-4.80296,0.178049,77,8
0.467578,-0.249663,-0.122373,15,1
0.587039,-0.313581,-0.129368,13,2
9.6248,-5.14564,-1.7286,61,3
8.03107,-4.2954,1.11827,20,11
10.5455,-5.64259,-1.46853,34,4
14.2738,-7.64072,2.56427,25,12
7.54792,-4.04038,-0.749016,30,5
7.12013,-3.81298,1.56998,68,13
7.12835,-3.81898,-0.423817,32,6
14.0877,-7.55059,3.6901,19,14
9.16064,-4.91189,-0.181435,27,7
7.02405,-3.76784,2.13577,77,15
8.94161,-4.81255,0.177247,55,8
0.497588,-0.267924,-0.130472,14,1
10.0808,-5.43021,0.600084,33,9
0.589342,-0.317593,-0.130132,27,2
11.7671,-6.34122,1.16946,47,10
9.65721,-5.20639,-1.73767,11,3
14.0927,-7.60082,1.966,25,11
7.36888,-3.97603,-1.02809,37,4
10.2629,-5.53986,1.84718,26,12
7.53832,-4.07086,-0.749539,26,5
7.80912,-4.21885,1.7253,57,13
8.62537,-4.66177,-0.513834,7,6
10.2022,-5.51401,2.67737,24,14
9.12408,-4.93337,-0.181051,100,7
6.99896,-3.7859,2.13215,83,15
8.91336,-4.83956,0.177037,46,8
0.465779,-0.253003,-0.122373,15,1
10.1696,-5.52624,0.606574,21,9
0.567476,-0.308499,-0.125552,29,2
11.8295,-6.43093,1.178,10,10
7.06282,-3.84118,-1.27338,13,3
14.1205,-7.68279,1.9738,46,11
7.37692,-4.01535,-1.03126,27,4
9.84349,-5.36016,1.77522,66,12
7.50586,-4.08893,-0.747796,28,5
7.14371,-3.89326,1.58142,17,13
8.38201,-4.57002,-0.500332,49,6
10.17,-5.54484,2.67422,34,14
9.80816,-5.3498,-0.195013,75,7
0.464849,-0.254708,-0.122373,15,1
11.5732,-6.344,0.691672,56,9
0.583611,-0.319915,-0.129368,27,2
11.867,-6.50778,1.1841,47,10
7.05389,-3.8699,-1.27432,65,3
11.9483,-6.55779,1.67351,11,11
7.34127,-4.03089,-1.02833,13,4
8.10107,-4.44992,1.46391,46,12
7.58409,-4.16594,-0.757035,5,5
7.81831,-4.29637,1.73407,45,13
8.33101,-4.58001,-0.498238,100,6
10.1342,-5.57362,2.67017,64,14
8.37461,-4.60779,-0.166845,8,7
6.98456,-3.84456,2.13629,20,15
11.1944,-6.18219,0.223216,13,8
0.4469,-0.246905,-0.117874,16,1
9.83963,-5.43849,0.589198,11,9
0.579054,-0.320051,-0.128605,28,2
11.9715,-6.61954,1.19682,10,10
8.49577,-4.69959,-1.53775,65,3
11.9914,-6.63598,1.68277,41,11
8.47165,-4.69011,-1.18896,68,4
8.07858,-4.47434,1.46266,79,12
8.3939,-4.64899,-0.839484,14,5
8.31846,-4.611,-0.498448,57,6
12.7341,-7.06153,3.36167,24,14
8.29377,-4.6011,-0.165554,24,7
8.19742,-4.54952,2.5121,7,15
8.35293,-4.65109,0.16688,7,8
0.463059,-0.257947,-0.122373,15,1
0.588223,-0.327804,-0.130895,27,2
8.13552,-4.53561,0.814906,44,10
8.49484,-4.73788,-1.54057,100,3
12.0149,-6.70392,1.68935,11,11
8.03531,-4.4871,1.45766,26,12
10.1607,-5.67394,-1.01815,18,5
7.18482,-4.01381,1.59974,19,13
7.32762,-4.09695,1.93818,5,14
8.25323,-4.61636,-0.165065,42,7
0.472351,-0.265288,-0.125073,15,1
0.573383,-0.322162,-0.127842,28,2
11.9007,-6.68929,1.19438,28,10
13.3946,-7.53515,1.88703,24,11
7.62216,-4.28961,-1.07391,11,4
9.97846,-5.61798,1.8137,22,12
10.1981,-5.74163,-1.02391,2,5
7.20155,-4.05621,1.60661,6,13
7.24205,-4.08068,-0.435645,39,6
8.24577,-4.65005,-0.165239,33,7
8.17387,-4.61138,2.51469,77,15
8.18544,-4.63487,0.164192,115,8
0.461202,-0.261254,-0.122373,15,1
8.19297,-4.64291,0.493528,128,9
0.56195,-0.318454,-0.125552,14,2
8.18258,-4.63891,0.822924,70,10
10.5793,-6.00013,-1.92633,11,3
13.3393,-7.56852,1.88313,20,11
7.63746,-4.33516,-1.0783,17,4
10.2082,-5.79668,-1.02704,11,5
7.22704,-4.1072,-0.435645,32,6
8.20106,-4.66264,2.17798,109,14
8.14684,-4.63558,2.51158,107,15
8.1779,-4.66837,0.164367,100,8
0.460287,-0.262863,-0.122373,15,1
8.18191,-4.67445,0.493842,139,9
0.577882,-0.330153,-0.129368,27,2
8.16115,-4.66448,0.822402,100,10
7.87802,-4.50448,-1.43732,2,3
8.19856,-4.68966,1.15971,100,11
10.5099,-6.01422,-1.48681,31,4
8.19452,-4.69115,1.49551,147,12
11.2634,-6.44797,-1.13547,11,5
7.8061,-4.47059,1.74857,75,13
9.16226,-5.2494,-0.5534,45,6
8.9669,-5.14163,-0.180423,100,7
0.459367,-0.264468,-0.122373,15,1
0.580128,-0.334128,-0.130132,27,2
8.14827,-4.69493,0.82275,98,10
9.58735,-5.52634,-1.75269,47,3
5.34126,-3.08005,0.757052,30,11
10.4957,-6.05484,-1.48778,16,4
8.19349,-4.72861,1.49833,55,12
6.4791,-3.74071,-0.65454,20,5
7.21747,-4.16701,1.61997,15,13
9.01071,-5.20443,-0.545341,28,6
16.1105,-9.30891,4.29567,18,14
9.02854,-5.21893,-0.182029,99,7
7.14431,-4.13142,2.21135,4,15
12.2635,-7.11462,0.247475,15,8
0.424732,-0.246506,-0.113375,16,1
12.0198,-6.97885,0.728412,35,9
0.561923,-0.326391,-0.126316,28,2
9.13325,-5.30928,-1.67322,10,3
7.99572,-4.64802,1.13558,10,11
10.7937,-6.27705,-1.53312,6,4
9.67266,-5.62736,1.7724,21,12
6.60204,-3.84248,-0.66831,11,5
9.11066,-5.30679,-0.552563,52,6
16.0662,-9.36201,4.29297,25,14
9.32126,-5.43164,-0.188311,100,7
9.98379,-5.82004,3.09651,31,15
12.1925,-7.13327,0.246568,48,8
0.457462,-0.267748,-0.122373,15,1
11.9712,-7.00664,0.726946,15,9
0.564169,-0.330334,-0.127079,28,2
5.53228,-3.24058,0.560934,28,10
9.15216,-5.3631,-1.68011,25,3
10.0782,-5.9081,1.4344,13,11
10.8203,-6.3457,-1.54018,12,4
6.92491,-4.0612,1.2715,44,12
10.9982,-6.45258,-1.11559,7,5
9.22642,-5.41744,-0.560727,37,6
16.0401,-9.42198,4.29477,34,14
9.14017,-5.36894,-0.18503,100,7
0.483429,-0.285103,-0.129572,14,1
11.9209,-7.03316,0.725376,58,9
0.563012,-0.332302,-0.127079,28,2
5.53637,-3.26899,0.562503,46,10
9.04757,-5.3422,-1.66415,10,3
10.0073,-5.91121,1.42709,37,11
11.0658,-6.53909,-1.57821,11,4
6.88859,-4.07228,1.26743,45,12
14.0933,-8.33477,-1.43249,14,5
7.48606,-4.42724,1.69057,18,13
8.6188,-5.09918,-0.524825,21,6
7.4057,-4.38321,1.98677,21,14
13.4214,-7.94687,-0.272258,48,7
9.89804,-5.86301,3.08254,10,15
11.6399,-6.91678,0.23634,19,8
0.457304,-0.271851,-0.122823,15,1
11.3607,-6.75622,0.692719,39,9
0.5551,-0.33025,-0.125552,14,2
12.6742,-7.54038,1.29025,57,10
8.86931,-5.27878,-1.63474,2,3
9.88422,-5.88517,1.41247,37,11
11.9093,-7.09373,-1.70203,3,4
5.21302,-3.10635,0.961133,85,12
10.9032,-6.49962,-1.11054,23,5
7.53723,-4.49487,1.70583,31,13
8.58633,-5.12254,-0.523988,17,6
7.39036,-4.40904,1.98677,31,14
11.594,-6.91965,-0.235677,100,7
7.19375,-4.29514,2.245,4,15
13.8633,-8.30688,0.282101,17,8
0.456305,-0.273526,-0.122823,15,1
11.2177,-6.72694,0.685496,16,9
0.563987,-0.338342,-0.127842,14,2
8.78554,-5.27262,-1.62285,60,3
9.94428,-5.9704,1.42417,27,11
7.04518,-4.2315,-1.00908,48,4
5.18805,-3.1173,0.958631,61,12
8.78064,-5.27803,-0.89631,26,5
15.9836,-9.61151,3.62537,19,13
9.43007,-5.67288,-0.576742,16,6
9.43811,-5.67772,2.54285,11,14
13.1243,-7.89835,-0.267371,57,7
13.8704,-8.38038,0.282869,50,8
0.455299,-0.275196,-0.122823,15,1
11.6834,-7.0646,0.715537,35,9
0.566162,-0.34234,-0.128605,28,2
5.33931,-3.22978,0.545944,11,10
8.75939,-5.3007,-1.6216,7,3
9.87818,-5.98008,1.41783,10,11
7.06189,-4.27683,-1.01371,28,4
6.90494,-4.18343,1.2787,74,12
10.8871,-6.59606,-1.11368,26,5
12.0813,-7.32533,-0.740449,45,6
9.42557,-5.71732,2.5451,18,14
13.0747,-7.93395,-0.266952,100,7
9.68704,-5.88055,3.03647,16,15
14.2202,-8.65964,0.290617,50,8
0.454336,-0.276784,-0.122823,15,1
11.8548,-7.22487,0.727575,12,9
0.5482,-0.334097,-0.124789,29,2
5.05581,-3.08245,0.518054,11,10
6.69181,-4.08149,-1.24146,45,3
6.85449,-4.18235,0.985923,36,11
7.0825,-4.32317,-1.01883,56,4
7.05383,-4.30736,1.30904,71,12
8.8218,-5.38696,-0.904328,13,5
15.2192,-9.2971,3.46662,12,13
9.16698,-5.60214,-0.56303,33,6
8.51271,-5.20434,2.3035,3,14
11.4656,-7.01235,-0.234595,45,7
9.6714,-5.91736,3.03802,14,15
8.28456,-5.08474,0.169672,10,8
0.453367,-0.278368,-0.122823,15,1
0.560413,-0.344229,-0.127842,14,2
9.47045,-5.81943,0.972484,27,10
6.60348,-4.05931,-1.2277,52,3
6.85337,-4.21457,0.987873,27,11
7.08258,-4.35723,-1.02102,22,4
5.1798,-3.18788,0.963324,35,12
8.61707,-5.3054,-0.885328,43,5
15.5511,-9.57456,3.54981,11,13
9.08105,-5.59326,-0.558948,54,6
9.2361,-5.69098,2.50461,18,14
12.127,-7.4752,-0.248662,87,7
9.61615,-5.92979,3.02715,21,15
0.49288,-0.304884,-0.155291,12,0
8.3722,-5.17885,0.171836,12,8
0.452393,-0.279949,-0.122823,15,1
13.2221,-8.18528,0.814976,15,9
0.559147,-0.346281,-0.127842,14,2
4.82022,-2.98634,0.496091,61,10
6.45255,-3.99919,-1.20236,52,3
5.38586,-3.33807,0.778014,30,11
7.10444,-4.40494,-1.02638,20,4
5.13339,-3.18408,0.956753,56,12
11.011,-6.8324,-1.13372,33,5
12.5702,-7.80294,2.87587,10,13
8.55826,-5.31462,-0.527965,80,6
16.0053,-9.94307,4.3501,12,14
4.90048,-3.04435,-0.1007,19,7
15.645,-9.72302,4.93568,13,15
4.95624,-3.09099,0.101957,24,8
0.451363,-0.281605,-0.122823,15,1
4.9378,-3.08069,0.305014,10,9
0.544612,-0.339915,-0.124789,29,2
4.91624,-3.06962,0.507072,50,10
10.0122,-6.25387,-1.8697,16,3
11.0338,-6.89738,-1.59771,42,4
9.48236,-5.92753,1.77115,27,12
10.9617,-6.85495,-1.13111,26,5
12.5728,-7.86551,2.88274,11,13
9.02725,-5.64962,-0.558111,40,6
15.7277,-9.84686,4.28397,12,14
4.86609,-3.04658,-0.100212,52,7
14.5615,-9.12027,4.60387,1,15
8.48654,-5.33185,0.174943,33,8
0.450427,-0.2831,-0.122823,15,1
4.8932,-3.07665,0.302921,22,9
0.546745,-0.343904,-0.125552,14,2
6.37669,-4.01251,-1.19328,36,3
5.14907,-3.24128,0.747059,42,11
11.0848,-6.98048,-1.60843,32,4
7.33563,-4.62128,1.37318,39,12
8.88973,-5.60249,-0.919319,9,5
12.5765,-7.926,2.88961,8,13
10.7605,-6.78411,-0.666655,35,6
7.60684,-4.7977,2.0763,5,14
4.83006,-3.04754,-0.0996881,32,7
14.4904,-9.14629,4.59145,12,15
5.37267,-3.40172,0.110997,26,8
0.426388,-0.270073,-0.116525,16,1
4.98366,-3.15785,0.309201,25,9
0.529018,-0.335207,-0.121736,30,2
5.12073,-3.24595,0.53043,41,10
6.40269,-4.06013,-1.20079,16,3
5.17963,-3.28582,0.753153,17,11
11,-6.98084,-1.59966,24,4
5.09977,-3.23766,0.956753,35,12
10.7567,-6.82902,-1.11472,45,5
13.5084,-8.57928,3.11057,5,13
11.996,-7.62172,-0.744845,22,6
13.218,-8.40136,3.61586,21,14
4.86327,-3.09228,-0.100596,47,7
16.002,-10.1787,5.08165,13,15
5.25456,-3.35268,0.108798,100,8
0.44844,-0.286238,-0.122823,15,1
4.99449,-3.1892,0.310562,16,9
0.531154,-0.339165,-0.122499,30,2
5.01534,-3.20374,0.520668,7,10
6.39846,-4.08884,-1.20267,40,3
5.17649,-3.30923,0.754371,5,11
5.15999,-3.30122,0.970207,52,12
8.86817,-5.67361,-0.921062,15,5
13.4563,-8.61557,-0.837375,19,6
13.1821,-8.44325,3.61406,19,14
4.96525,-3.18152,-0.102934,19,7
14.5319,-9.315,4.6251,2,15
5.37402,-3.45536,0.111521,12,8
0.447438,-0.287802,-0.122823,15,1
5.03875,-3.24228,0.314016,60,9
0.553019,-0.355987,-0.127842,28,2
5.2772,-3.39701,0.549081,16,10
8.67607,-5.58706,-1.63443,42,3
6.83703,-4.40448,0.998597,24,11
8.66839,-5.58639,-1.26622,55,4
5.24639,-3.38236,0.988666,90,12
11.5414,-7.4436,-1.20153,15,5
9.28115,-5.98817,2.14698,35,13
11.0048,-7.10299,-0.686438,26,6
13.2949,-8.58115,3.65321,26,14
5.12043,-3.30622,-0.10639,31,7
14.5545,-9.4013,4.6427,2,15
5.10291,-3.30754,0.106146,68,8
0.44638,-0.28944,-0.122823,15,1
4.96316,-3.21942,0.310038,20,9
0.55171,-0.358011,-0.127842,14,2
5.45357,-3.53889,0.568778,41,10
6.46017,-4.19368,-1.21988,30,3
6.80087,-4.41653,0.995673,24,11
8.65951,-5.6257,-1.26793,64,4
5.24721,-3.41018,0.991169,47,12
9.30687,-6.05319,2.15805,49,13
10.9754,-7.1411,-0.686229,42,6
13.0674,-8.50229,3.59922,26,14
5.12169,-3.33369,-0.106669,21,7
14.9344,-9.72445,4.77521,6,15
5.37701,-3.51326,0.112114,15,8
0.445316,-0.291074,-0.122823,15,1
4.94799,-3.2354,0.309829,27,9
0.543885,-0.355637,-0.126316,28,2
5.21381,-3.41052,0.545072,61,10
6.4117,-4.1957,-1.21362,20,3
5.09885,-3.33787,0.748278,90,11
8.63717,-5.65631,-1.26769,20,4
6.54169,-4.28565,1.23865,71,12
8.58293,-5.62293,-0.897704,63,5
13.3087,-8.72222,3.09301,11,13
10.9637,-7.18813,-0.687066,55,6
13.3523,-8.75746,3.6865,26,14
19.56,-12.8338,-0.408351,42,7
9.35262,-6.13885,2.99764,5,15
13.6707,-9.00046,0.285696,29,8
0.460572,-0.303345,-0.127322,15,1
11.8313,-7.79539,0.742543,12,9
0.54264,-0.357534,-0.126316,28,2
5.27506,-3.47694,0.552742,26,10
6.40691,-4.22458,-1.2155,28,3
5.09214,-3.35893,0.749009,55,11
6.82298,-4.50235,-1.00372,39,4
5.20618,-3.43676,0.98804,103,12
8.57988,-5.66384,-0.899447,61,5
13.5992,-8.98067,3.16781,8,13
8.58554,-5.67188,-0.53927,100,6
13.2111,-8.73096,3.6559,26,14
8.77251,-5.7998,-0.183564,45,7
6.85776,-4.53561,2.20307,29,15
4.87411,-3.23345,0.102097,5,8
0.420541,-0.27909,-0.116525,16,1
0.54466,-0.361597,-0.127079,28,2
8.3881,-5.57093,0.88097,66,10
9.77164,-6.49226,-1.85813,20,3
6.794,-4.51734,-1.00177,49,4
14.5468,-9.67955,3.3964,6,13
8.5607,-5.69849,-0.538956,73,6
9.2309,-6.14694,2.56039,46,14
8.58579,-5.71952,-0.180074,72,7
9.40804,-6.28863,0.197526,13,8
0.419565,-0.280556,-0.116525,16,1
11.8032,-7.89556,0.744217,30,9
0.540131,-0.361313,-0.126316,14,2
