x, y, z, intensity, ring
-3.60096,9.55486,-1.9848,33,2
-5.4162,14.3791,1.34429,54,10
-3.76251,9.9941,-1.69137,36,3
-5.14808,13.6817,1.79489,80,11
-4.20236,11.1743,-1.46584,46,4
-4.07355,10.8375,-1.01292,18,5
-4.99736,13.3023,2.76215,57,13
-6.14375,16.3712,4.03697,33,14
-4.77543,12.7318,-0.237353,24,7
-4.73808,12.6389,3.61674,26,15
-5.13796,13.7641,0.256446,36,8
-0.210487,0.564174,-0.13902,13,1
-4.81288,12.907,0.721922,28,9
-3.53534,9.48091,-1.96686,26,2
-5.13218,13.7706,1.28572,71,10
-3.80828,10.2238,-1.72798,72,3
-5.15569,13.8484,1.81439,20,11
-3.82757,10.2865,-1.34763,33,4
-5.16214,13.8806,2.34558,38,12
-4.03291,10.8442,-1.01223,22,5
-4.93858,13.2866,2.75528,47,13
-4.35057,11.7108,-0.654723,42,6
-6.11438,16.4674,4.05542,23,14
-4.724,12.7297,-0.237004,90,7
-4.70804,12.6934,3.62761,23,15
-5.15431,13.9564,0.259692,66,8
-0.215265,0.583187,-0.143519,12,1
-4.76227,12.9087,0.721085,56,9
-3.48999,9.46004,-1.95999,52,2
-5.00689,13.5791,1.2662,57,10
-3.65986,9.93116,-1.67635,77,3
-5.09086,13.8216,1.80854,36,11
-3.68947,10.0223,-1.31131,23,4
-5.15118,14.0005,2.36279,65,12
-6.0495,16.4509,3.40709,42,13
-4.30554,11.7147,-0.654095,29,6
-4.69013,12.768,3.14032,8,14
-4.67678,12.7386,-0.236864,30,7
-4.61646,12.581,3.59086,32,15
-5.73484,15.6966,0.2917,17,8
-0.210554,0.576613,-0.141719,13,1
-4.64665,12.732,0.710304,49,9
-3.45126,9.4617,-1.9577,40,2
-4.92296,13.5037,1.25748,49,10
-3.66469,10.0577,-1.69544,42,3
-4.61443,12.6643,1.65499,7,11
-3.71016,10.188,-1.3313,26,4
-5.16173,14.1817,2.39032,19,12
-3.85645,10.6013,-0.986952,31,5
-4.66983,12.8582,-0.238784,39,7
-4.5244,12.4645,3.55307,12,15
-4.66369,12.9114,0.239622,16,8
-0.208439,0.577381,-0.141719,13,1
-4.69373,13.0017,0.724434,42,9
-3.50417,9.71192,-2.00693,28,2
-5.88894,16.3303,1.51878,32,10
-3.59004,9.96081,-1.67698,81,3
-4.5256,12.5635,1.63963,15,11
-3.60461,10.0067,-1.30595,19,4
-5.21658,14.4896,2.43913,30,12
-3.80795,10.5828,-0.983988,23,5
-4.82941,13.4289,2.77398,27,13
-4.19322,11.6663,-0.649699,61,6
-4.36623,12.1476,2.98015,23,14
-4.63303,12.897,-0.239203,100,7
-4.44495,12.3802,3.5246,32,15
-4.56161,12.7611,0.23655,55,8
-0.206524,0.578069,-0.141719,13,1
-4.5787,12.816,0.713234,52,9
-3.51486,9.84367,-2.03173,19,2
-4.67557,13.1016,1.21704,2,10
-3.48864,9.78102,-1.64475,45,3
-4.49592,12.6121,1.64402,18,11
-3.5954,10.0859,-1.31473,45,4
-3.69264,10.3701,-0.963071,22,5
-4.06951,11.4411,-0.636405,52,6
-4.90584,13.7924,3.37966,24,14
-4.39676,12.3749,3.5189,22,15
-0.193364,0.546347,-0.155291,12,0
-4.52861,12.8026,0.237039,68,8
-0.199409,0.564052,-0.13812,13,1
-4.50199,12.7415,0.70821,49,9
-4.63475,13.1245,1.21774,31,10
-3.57518,10.1297,-1.70138,66,3
-4.45143,12.6194,1.64304,15,11
-3.50737,9.94862,-1.29523,56,4
-3.95552,11.2261,-1.04134,47,5
-8.48404,24.0917,4.96485,100,13
-3.885,11.0382,-0.613273,100,6
-4.84021,13.7598,3.36752,33,14
-4.59024,13.0565,-0.241576,28,7
-4.34073,12.3537,3.50855,21,15
-0.191456,0.547018,-0.155291,12,0
-4.53803,12.9731,0.239901,34,8
-0.196153,0.561066,-0.13722,13,1
-4.40347,12.6025,0.699627,28,9
-3.5488,10.1565,-2.09127,45,2
-4.59942,13.1707,1.22053,55,10
-3.52874,10.1104,-1.69606,87,3
-4.84671,13.8944,1.80684,20,11
-3.56476,10.2251,-1.32959,33,4
-4.85586,13.9363,2.33744,36,12
-3.70063,10.6208,-0.983988,19,5
-4.60994,13.2379,2.72475,24,13
-4.01057,11.5233,-0.639441,52,6
-4.80111,13.8024,3.37382,45,14
-4.46518,12.8439,-0.237353,57,7
-5.37292,15.4637,4.38647,33,15
-0.189546,0.547683,-0.155291,12,0
-4.48226,12.9586,0.239342,68,8
-0.198013,0.572798,-0.13992,13,1
-4.3451,12.5763,0.697324,70,9
-3.47229,10.0501,-2.06684,73,2
-3.50437,10.1544,-1.70138,68,3
-4.85384,14.0726,1.8278,68,11
-3.54069,10.2713,-1.33398,28,4
-4.67206,13.561,2.27174,55,12
-4.4806,13.0126,2.67514,43,13
-3.97033,11.5372,-0.639441,42,6
-4.96966,14.4493,3.52768,31,14
-4.44112,12.9199,-0.23847,46,7
-0.175124,0.511786,-0.144939,14,0
-0.203576,0.595614,-0.145318,12,1
-4.35863,12.7596,0.70664,60,9
-3.17699,9.3004,-1.91038,42,2
-4.4829,13.1309,1.21391,28,10
-3.48358,10.2096,-1.70858,72,3
-4.4632,13.0881,1.69788,18,11
-3.49201,10.246,-1.32911,67,4
-3.62768,10.6501,-0.984337,25,5
-4.3953,12.9111,2.6511,56,13
-5.31569,15.6326,3.81202,45,14
-5.43507,16.002,4.5283,16,15
-0.185717,0.548993,-0.155291,12,0
-0.196505,0.581551,-0.141719,13,1
-4.32621,12.8107,0.708629,50,9
-3.1288,9.26493,-1.90084,14,2
-4.44469,13.1691,1.216,86,10
-3.48075,10.319,-1.72485,63,3
-4.41241,13.0885,1.69593,37,11
-3.3358,9.90068,-1.2828,22,4
-4.36042,12.9492,2.16411,29,12
-3.79966,11.284,-1.04169,58,5
-4.36961,12.984,2.66293,43,13
-4.23542,12.5926,-0.696278,100,6
-5.28096,15.7102,3.82642,42,14
-5.39025,16.0539,4.53762,11,15
-0.16787,0.502003,-0.141833,14,0
-0.1883,0.56375,-0.13722,13,1
-4.31688,12.9318,0.714491,74,9
-3.08401,9.23855,-1.89321,21,2
-4.47246,13.4056,1.23639,78,10
-3.41784,10.2505,-1.71139,57,3
-4.70119,14.1076,1.82585,8,11
-3.34387,10.0403,-1.29937,59,4
-3.84205,11.5429,-1.06435,35,5
-4.33294,13.0253,2.66827,42,13
-4.25154,12.7955,3.11287,31,14
-4.29235,12.9259,-0.237737,23,7
-6.02362,18.1499,5.1241,17,15
-0.163692,0.495249,-0.139762,14,0
-0.187553,0.568105,-0.13812,13,1
-4.43301,13.4278,0.741077,45,9
-3.05113,9.24739,-1.89283,9,2
-4.42189,13.4098,1.23535,18,10
-3.37338,10.2361,-1.70701,57,3
-4.32155,13.1209,1.69618,22,11
-3.40438,10.3423,-1.33691,48,4
-3.68219,11.1929,-1.03088,22,5
-4.29481,13.0627,2.67285,31,13
-3.52392,10.7244,-0.591606,33,6
-4.19468,12.7732,3.10387,59,14
-4.09224,12.4613,-0.228941,37,7
-5.67784,17.2998,4.87874,18,15
-0.164362,0.503163,-0.141833,14,0
-4.20429,12.8707,0.23634,50,8
-0.190506,0.583544,-0.141719,13,1
-4.33965,13.3007,0.733227,61,9
-3.01456,9.24492,-1.89015,2,2
-4.39173,13.4763,1.24005,21,10
-3.35411,10.2923,-1.71452,51,3
-4.25711,13.071,1.68789,30,11
-3.27607,10.0648,-1.29961,81,4
-4.24885,13.0611,2.17538,51,12
-3.61908,11.1318,-1.02408,18,5
-4.23325,13.0209,2.6614,42,13
-4.11847,12.6904,-0.232885,25,7
-4.93618,15.2191,4.28708,11,15
-0.155567,0.481645,-0.135621,15,0
-4.21647,13.0622,0.239587,53,8
-0.187271,0.580496,-0.140819,26,1
-4.23375,13.1314,0.723074,10,9
-3.00016,9.30532,-1.90046,11,2
-4.31035,13.377,1.22959,13,10
-3.32786,10.3341,-1.71953,41,3
-4.23396,13.1557,1.69691,7,11
-3.25915,10.1328,-1.30693,37,4
-4.21472,13.1116,2.18132,14,12
-3.46386,10.7757,-0.990264,42,5
-4.17217,12.987,2.65148,9,13
-3.97042,12.3664,-0.680682,97,6
-5.15138,16.0543,3.89255,39,14
-4.01186,12.5105,-0.229325,39,7
-4.87654,15.216,4.28138,2,15
-0.160933,0.50427,-0.141833,14,0
-4.14776,13.0045,0.23826,60,8
-0.186428,0.584859,-0.141719,13,1
-3.05823,9.60007,-1.95846,68,2
-8.03102,25.2253,2.31608,25,10
-3.25642,10.2345,-1.70107,52,3
-4.45991,14.0254,1.80708,52,11
-3.03858,9.56145,-1.23186,24,4
-5.21713,16.4266,2.72978,8,12
-3.43225,10.8067,-0.992007,34,5
-5.17395,16.3005,3.32427,20,13
-3.99004,12.5782,-0.691567,35,6
-5.65183,17.8276,4.31771,37,14
-4.08836,12.9038,-0.236271,27,7
-4.82923,15.2514,4.28656,13,15
-0.159172,0.504828,-0.141833,14,0
-4.09633,12.9998,0.237911,82,8
-0.184385,0.585507,-0.141719,13,1
-4.09041,12.9968,0.714072,37,9
-3.02883,9.62379,-1.96114,40,2
-7.62251,24.2345,2.22265,11,10
-3.23312,10.2854,-1.70764,62,3
-4.58466,14.5939,1.87825,37,11
-3.04205,9.68942,-1.24697,49,4
-5.12782,16.3429,2.71289,30,12
-3.25255,10.3662,-0.95052,48,5
-5.14111,16.3952,3.33992,32,13
-4.79455,15.3088,3.70359,26,14
-4.08331,13.0458,-0.238609,43,7
-4.86767,15.5613,4.36887,31,15
-0.172345,0.553337,-0.155291,12,0
-4.01111,12.8861,0.235573,85,8
-0.177709,0.57126,-0.13812,13,1
-4.0373,12.9862,0.712711,23,9
-3.00804,9.67555,-1.96953,47,2
-4.50522,14.5002,1.32843,66,10
-2.98163,9.60241,-1.5925,58,3
-4.40072,14.1814,1.82317,28,11
-3.1364,10.1133,-1.3001,24,4
-4.80525,15.5041,2.57084,15,12
-3.22342,10.4003,-0.952612,18,5
-5.05596,16.3231,3.3216,33,13
-4.00667,12.9435,-0.710094,55,6
-4.7238,15.2696,3.6901,16,14
-3.97868,12.8689,-0.235119,23,7
-4.83727,15.6557,4.39061,10,15
-0.170606,0.553876,-0.155291,12,0
-4.01826,13.0534,0.2384,55,8
-0.17706,0.575541,-0.13902,13,1
-4.01175,13.0485,0.715433,28,9
-3.0186,9.81819,-1.99663,19,2
-3.16193,10.2972,-1.70607,47,3
-4.32295,14.087,1.80927,84,11
-3.24779,10.59,-1.36006,20,4
-3.14986,10.2771,-0.94041,50,5
-4.95118,16.1643,3.28611,42,13
-3.88999,12.7077,-0.696487,48,6
-4.35429,14.2333,3.43635,2,14
-3.89497,12.7399,-0.232536,38,7
-4.30598,14.093,3.94854,1,15
-0.168672,0.554468,-0.155291,12,0
-4.00931,13.1879,0.240599,52,8
-0.18638,0.613447,-0.148018,12,1
-3.95805,13.0357,0.713967,79,9
-3.06587,10.0973,-2.0512,33,2
-4.4344,14.6137,1.3361,63,10
-3.11852,10.2836,-1.70201,68,3
-4.30311,14.1988,1.8217,56,11
-3.16362,10.4455,-1.34008,49,4
-3.10705,10.2651,-0.938319,42,5
-4.83163,15.9729,3.24375,24,13
-3.8248,12.6524,-0.692719,87,6
-4.30402,14.2466,3.4359,40,14
-3.85278,12.761,-0.232675,34,7
-4.23667,14.0414,3.92991,28,15
-0.166735,0.555053,-0.155291,12,0
-4.00408,13.3378,0.243077,48,8
-0.176397,0.587962,-0.141719,13,1
-3.96759,13.2331,0.724016,22,9
-2.86202,9.54566,-1.93709,19,2
-4.40567,14.7035,1.3429,60,10
-4.24613,14.1891,1.81853,16,11
-3.1351,10.4831,-1.34349,61,4
-4.60846,15.4194,2.54894,32,12
-3.06427,10.2593,-0.93675,38,5
-4.81181,16.1101,3.26818,24,13
-3.41843,11.4523,-0.626357,40,6
-5.0709,16.9992,4.09546,23,14
-3.77737,12.6709,-0.230791,47,7
-4.20032,14.0987,3.94181,12,15
-0.1647,0.55566,-0.155291,12,0
-4.19674,14.1589,0.257772,43,8
-0.174344,0.588575,-0.141719,13,1
-3.86922,13.0706,0.714386,112,9
-2.77522,9.381,-1.9016,2,2
-4.35005,14.7138,1.34237,89,10
-5.78892,19.5933,2.50856,28,11
-3.07713,10.4216,-1.33423,42,4
-4.55461,15.4354,2.54894,10,12
-3.0476,10.3349,-0.942677,18,5
-6.68345,22.6792,4.59583,13,13
-3.36458,11.4245,-0.624159,67,6
-5.13567,17.4495,4.19939,42,14
-3.83192,13.0197,-0.236899,28,7
-4.12218,14.015,3.91438,42,15
-0.162759,0.556232,-0.155291,12,0
-4.24472,14.5158,0.263985,12,8
-0.172185,0.58921,-0.141719,13,1
-3.76362,12.8789,0.703186,55,9
-4.29923,14.7308,1.34255,57,10
-3.02656,10.3769,-1.71202,60,3
-5.67874,19.4829,2.49174,44,11
-3.19738,10.9697,-1.40296,30,4
-4.72656,16.2478,3.28917,20,13
-3.35256,11.5321,-0.629392,58,6
-5.12673,17.6348,4.23988,18,14
-3.75353,12.9197,-0.23484,43,7
-4.11849,14.1852,3.95786,15,15
-0.160914,0.556769,-0.155291,12,0
-0.16915,0.586033,-0.140819,13,1
-3.81173,13.206,0.720352,30,9
-3.08511,10.6956,-2.16377,52,2
-2.92269,10.1458,-1.67228,12,3
-5.59269,19.4272,2.48223,16,11
-3.10992,10.8028,-1.38029,67,4
-4.7744,16.5956,2.7351,16,12
-3.09114,10.7517,-0.978759,21,5
-5.13997,17.8899,3.61812,18,13
-3.2906,11.4606,-0.624891,43,6
-4.21366,14.6754,3.52498,24,14
-4.06663,14.182,3.9532,32,15
-0.159066,0.557299,-0.155291,12,0
-4.01232,14.0667,0.255329,46,8
-0.175218,0.614702,-0.147568,12,1
-3.83088,13.4395,0.732389,47,9
-3.06414,10.7568,-2.17408,68,2
-4.21234,14.7973,1.34603,24,10
-5.62051,19.7702,2.52367,61,11
-3.06622,10.7926,-1.37761,59,4
-4.33227,15.2489,2.51077,32,12
-5.06776,17.8615,3.60896,39,13
-4.10769,14.4969,3.47864,60,14
-3.69066,13.0252,-0.236306,27,7
-4.15274,14.6657,4.08416,20,15
-0.15712,0.557851,-0.155291,12,0
-3.93096,13.9568,0.253095,61,8
-0.167899,0.596521,-0.143069,12,1
-3.91427,13.9161,0.757615,90,9
-3.05898,10.8827,-2.19736,33,2
-4.43277,15.7806,1.43406,71,10
-2.98141,10.6138,-1.74612,48,3
-5.55921,19.8041,2.52562,33,11
-3.07813,10.9728,-1.3993,30,4
-4.23476,15.1061,2.48481,47,12
-2.98456,10.6536,-0.967952,4,5
-6.24302,22.2849,4.49851,18,13
-3.35344,11.9784,-0.651897,26,6
-4.06432,14.5274,3.48269,22,14
-4.8841,17.4693,-0.316622,75,7
-4.12752,14.7731,4.11005,11,15
-3.88596,13.9839,0.253339,23,8
-0.165816,0.597103,-0.143069,12,1
-3.61573,13.029,0.708629,47,9
-3.0423,10.9627,-2.21148,47,2
-10.1665,36.6591,3.3283,76,10
-2.97335,10.7288,-1.76333,57,3
-5.50065,19.8616,2.5305,40,11
-3.10176,11.2074,-1.42782,49,4
-3.01294,10.8939,-0.988869,65,5
-4.51145,16.3231,3.29184,36,13
-3.26269,11.8129,-0.642267,39,6
-4.19142,15.1858,3.63701,26,14
-3.73894,13.5557,-0.245451,87,7
-4.03639,14.644,4.07019,16,15
-3.65632,13.3378,0.241402,24,8
-0.160641,0.586402,-0.140369,13,1
-3.5987,13.1456,0.714281,70,9
-3.00402,10.9733,-2.21148,52,2
-4.35364,15.9142,1.44347,40,10
-2.90359,10.621,-1.74393,82,3
-6.30964,23.0958,2.93973,16,11
-3.00877,11.0209,-1.40272,9,4
-2.96599,10.8716,-0.985906,31,5
-4.63363,16.996,3.42426,13,13
-3.18048,11.6739,-0.634102,48,6
-4.03396,14.8168,3.54523,60,14
-3.67953,13.5243,-0.244648,25,7
-5.88842,21.658,6.01392,11,15
-3.54555,13.1131,0.237108,53,8
-0.163677,0.605772,-0.144868,12,1
-3.5606,13.187,0.715851,21,9
-2.95341,10.9382,-2.20232,61,2
-5.43733,20.1516,1.82609,16,10
-2.87575,10.6654,-1.74956,52,3
-6.20522,23.0295,2.92852,63,11
-3.00022,11.1425,-1.41685,16,4
-4.33862,16.1244,2.64468,37,12
-2.92181,10.8588,-0.983814,31,5
-4.26535,15.8631,3.193,14,13
-3.18688,11.8605,-0.643628,29,6
-3.98777,14.8514,3.55018,18,14
-3.59654,13.4038,-0.242239,38,7
-4.04514,15.0861,4.1851,15,15
-3.51726,13.1911,0.238295,49,8
-0.161561,0.606339,-0.144868,12,1
-3.48988,13.1067,0.710827,48,9
-2.93693,11.0301,-2.21873,49,2
-5.41305,20.3438,1.84178,32,10
-2.9451,11.0763,-1.81527,41,3
-4.62151,17.3933,2.20973,9,11
-2.96334,11.1606,-1.41783,57,4
-3.91096,14.7399,2.41535,11,12
-2.92732,11.0326,-0.99863,51,5
-4.22052,15.9178,3.20101,5,13
-3.16643,11.9507,-0.647919,3,6
-3.94538,14.9011,3.55873,18,14
-3.5707,13.4955,-0.243671,100,7
-3.90356,14.764,4.09193,27,15
-0.159444,0.606899,-0.144868,12,1
-3.43726,13.0835,0.708943,50,9
-2.92932,11.158,-2.24239,66,2
-5.32331,20.2912,1.83533,20,10
-2.90893,11.096,-1.81683,50,3
-4.53713,17.3191,2.19828,9,11
-2.95805,11.2995,-1.43416,26,4
-2.81618,10.7652,-0.97353,42,5
-4.20813,16.0976,3.23421,32,13
-2.77638,10.6283,-0.575696,20,6
-3.8771,14.8525,3.54388,33,14
-3.54209,13.5692,-0.244787,46,7
-3.93407,15.0815,4.1763,15,15
-3.3541,12.9321,0.233199,61,8
-0.154497,0.596106,-0.142169,13,1
-3.35001,12.9349,0.700255,53,9
-2.85346,11.0256,-2.21377,42,2
-5.25543,20.3212,1.83637,56,10
-2.91613,11.2758,-1.84468,53,3
-4.46228,17.2668,2.18975,9,11
-2.86199,11.0825,-1.4054,63,4
-3.81646,14.7891,2.4191,47,12
-2.74425,10.6419,-0.961502,46,5
-4.13217,16.0241,3.21666,46,13
-3.85795,14.9823,3.57177,18,14
-3.53756,13.748,-0.247789,100,7
-3.89006,15.1288,4.18562,8,15
-3.39363,13.275,0.239168,46,8
-0.152415,0.596642,-0.142169,13,1
-3.28656,12.8749,0.696382,45,9
-5.17226,20.2768,1.83079,52,10
-2.82016,11.0639,-1.80838,41,3
-10.8344,42.5362,5.38955,19,11
-2.84386,11.1732,-1.41563,37,4
-3.76482,14.8023,2.4191,49,12
-2.75659,10.8382,-0.97841,29,5
-3.20052,12.6021,-0.681414,29,6
-3.8761,15.2733,3.63791,26,14
-3.40156,13.4133,-0.241541,33,7
-7.18185,28.3408,7.83394,5,15
-0.141679,0.561971,-0.155291,12,0
-3.35557,13.3197,0.239761,64,8
-0.156991,0.623627,-0.148468,12,1
-3.24989,12.9192,0.698162,45,9
-2.77452,11.0295,-2.21071,33,2
-4.21405,16.7644,1.51233,26,10
-2.81905,11.2231,-1.83279,48,3
-4.15606,16.5582,2.09615,27,11
-2.7691,11.0406,-1.3976,45,4
-3.71649,14.8288,2.42129,51,12
-2.75264,10.9831,-0.990612,23,5
-4.36457,17.4275,3.49219,15,13
-3.83243,15.3141,-0.827327,13,6
-3.82465,15.2943,3.63971,16,14
-3.35036,13.4076,-0.241227,49,7
-6.9963,28.019,7.73817,16,15
-0.147308,0.593909,-0.141269,13,1
-3.23154,13.0288,0.7035,32,9
-2.45924,9.92245,-1.98708,30,2
-2.76562,11.1754,-1.8234,17,3
-4.10252,16.5899,2.09835,100,11
-3.01125,12.177,-1.54018,51,4
-3.70189,14.981,2.44413,36,12
-2.67464,10.8321,-0.976144,42,5
-4.03798,16.3657,3.27657,30,13
-4.42822,17.9608,-0.969471,18,6
-3.81123,15.4583,3.6757,47,14
-3.30348,13.409,-0.241053,100,7
-3.88138,15.7665,4.35075,3,15
-3.41692,13.9638,0.250931,38,8
-0.152743,0.624681,-0.148468,12,1
-3.15559,12.9056,0.696278,19,9
-2.64113,10.8097,-2.16301,73,2
-4.09747,16.7831,1.51145,42,10
-2.66254,10.9139,-1.77929,47,3
-4.89845,20.0942,2.53951,46,11
-2.98308,12.2371,-1.54652,42,4
-3.65312,14.9971,2.44476,18,12
-2.64012,10.8467,-0.976667,21,5
-4.29409,17.6552,3.53187,16,13
-3.08238,12.6829,-0.684031,19,6
-3.77237,15.522,3.68785,16,14
-3.27504,13.4859,-0.242239,22,7
-3.85368,15.8806,4.3787,8,15
-0.135983,0.563377,-0.155291,12,0
-3.37717,14.0023,0.251419,34,8
-0.149758,0.621395,-0.147568,12,1
-3.15307,13.0932,0.705803,40,9
-4.93071,20.4906,1.84387,28,10
-2.6231,10.9092,-1.7771,48,3
-4.26323,17.744,2.24069,28,11
-2.53532,10.5604,-1.33349,8,4
-3.6003,15.0078,2.44445,9,12
-2.73707,11.4095,-1.02652,22,5
-4.18152,17.4441,3.48684,6,13
-3.32224,13.8701,-0.747462,13,6
-3.72497,15.5635,3.6946,47,14
-3.18237,13.3067,-0.238819,38,7
-3.78924,15.8564,4.36835,10,15
-0.134015,0.563848,-0.155291,12,0
-2.87498,12.1054,0.217178,33,8
-0.144888,0.610538,-0.144868,12,1
-3.72946,15.7277,0.84711,28,9
-2.30385,9.7157,-1.94091,14,2
-3.78838,15.9885,1.43755,12,10
-2.65236,11.2028,-1.8234,15,3
-4.19943,17.751,2.23971,42,11
-3.05832,12.9376,-1.63232,43,4
-2.65509,11.2406,-1.01048,18,5
-4.15938,17.6229,3.51966,22,13
-3.88813,16.4865,-0.887723,33,6
-3.68806,15.6504,3.71214,32,14
-3.1084,13.2009,-0.236724,40,7
-3.78608,16.0915,4.42943,15,15
-0.132047,0.564312,-0.155291,12,0
-2.81313,12.0316,0.215677,56,8
-0.142756,0.61104,-0.144868,12,1
-2.27707,9.75427,-1.94702,19,2
-3.73888,16.0288,1.43999,31,10
-2.2599,9.69602,-1.57686,23,3
-5.06725,21.758,2.74304,6,11
-3.02574,13.0023,-1.63914,35,4
-3.46769,14.9133,2.42505,43,12
-2.64697,11.3837,-1.02251,9,5
-4.12495,17.754,3.54294,11,13
-3.06408,13.1984,-0.710094,48,6
-3.61799,15.5967,3.6964,26,14
-3.08037,13.2896,-0.238121,42,7
-3.69849,15.9691,4.39216,15,15
-0.130076,0.56477,-0.155291,12,0
-2.77111,12.0414,0.215677,57,8
-0.143242,0.62293,-0.147568,12,1
-2.22454,9.68179,-1.93099,33,2
-4.65746,20.2867,1.82103,19,10
-2.55244,11.1267,-1.80807,10,3
-4.9478,21.5859,2.71915,6,11
-2.87441,12.5504,-1.58089,60,4
-3.43456,15.0081,2.4385,41,12
-2.55966,11.185,-1.00386,40,5
-6.33687,27.7126,5.52583,4,13
-2.81023,12.2997,-0.661213,35,6
-3.56744,15.6263,3.70044,11,14
-3.03218,13.2925,-0.237981,23,7
-4.77354,20.9431,5.75562,7,15
-0.128104,0.56522,-0.155291,12,0
-2.75292,12.1563,0.217562,91,8
-0.141067,0.623426,-0.147568,12,1
-3.36152,14.8678,0.798856,44,9
-2.1942,9.70482,-1.93404,52,2
-3.65279,16.1692,1.45027,40,10
-2.21216,9.8002,-1.59125,12,3
-4.88071,21.6398,2.72378,13,11
-2.4915,11.0556,-1.3915,20,4
-3.38822,15.047,2.44288,39,12
-2.52016,11.1919,-1.00369,17,5
-3.96556,17.6253,3.51165,5,13
-2.77298,12.3348,-0.662573,16,6
-3.49279,15.5493,3.6793,23,14
-2.82154,12.5713,-0.224892,83,7
-3.50914,15.6476,4.29691,15,15
-0.12613,0.565664,-0.155291,12,0
-0.136349,0.612502,-0.144868,12,1
-3.30526,14.86,0.797809,11,9
-2.16883,9.75075,-1.94167,47,2
-3.57817,16.1002,1.44295,75,10
-2.18308,9.831,-1.59501,7,3
-5.91797,26.6722,3.35458,20,11
-2.4705,11.1437,-1.4015,42,4
-3.34594,15.105,2.45039,20,12
-2.89129,13.0525,-1.16963,15,5
-3.8985,17.6141,3.50669,6,13
-2.72818,12.3366,-0.662155,22,6
-3.41074,15.4358,3.64961,40,14
-2.76988,12.5459,-0.224263,46,7
-0.115878,0.528361,-0.144939,14,0
-2.92867,13.3648,0.238819,11,8
-0.129209,0.59013,-0.13947,13,1
-2.14527,9.80621,-1.95121,40,2
-3.45643,15.8128,1.41611,75,10
-2.15212,9.854,-1.59751,13,3
-5.4363,24.9123,3.13082,18,11
-2.42863,11.1387,-1.39979,52,4
-4.42236,20.2827,3.28794,33,12
-2.84444,13.0567,-1.16911,27,5
-6.19497,28.4604,5.66168,8,13
-2.90498,13.357,-0.716375,3,6
-3.27201,15.0573,3.55738,31,14
-2.85013,13.1159,-0.234281,22,7
-4.77815,22.0068,6.03411,11,15
-0.122178,0.566531,-0.155291,12,0
-2.74648,12.7352,0.227405,17,8
-0.132177,0.613415,-0.144868,25,1
-3.20319,14.8782,0.7976,36,9
-2.078,9.66009,-1.92068,23,2
-3.39912,15.8151,1.41523,96,10
-2.63871,12.2771,-1.98891,27,3
-5.61083,26.1277,3.28121,19,11
-2.39418,11.1583,-1.40125,30,4
-4.34697,20.2768,3.2845,14,12
-2.42286,11.3112,-1.01205,11,5
-6.01791,28.0949,5.58498,12,13
-3.21717,15.0452,3.55198,27,14
-2.71283,12.6975,-0.226637,46,7
-4.71744,22.099,6.05481,18,15
-0.108269,0.51024,-0.139762,14,0
-2.64228,12.463,0.222379,36,8
-0.128419,0.606247,-0.143069,12,1
-3.11692,14.7271,0.788912,32,9
-2.10449,9.9435,-1.97564,9,2
-3.33758,15.7834,1.4114,75,10
-2.65709,12.5761,-2.03584,60,3
-5.31787,25.1915,3.16129,27,11
-2.37569,11.2637,-1.41344,35,4
-5.27982,25.0546,4.05541,21,12
-2.4006,11.4015,-1.01937,4,5
-5.90606,28.0505,5.572,24,13
-2.7519,13.0813,-0.700569,58,6
-3.17104,15.0868,3.55918,40,14
-2.67836,12.7538,-0.227475,100,7
-4.66566,22.2363,6.08794,6,15
-0.107974,0.518198,-0.141833,14,0
-2.62773,12.6112,0.224857,77,8
-0.127494,0.612415,-0.144419,25,1
-2.69374,12.9507,0.693242,11,9
-3.32953,16.0354,1.43284,68,10
-2.60456,12.5549,-2.03083,13,3
-5.20449,25.0874,3.14594,82,11
-3.18888,15.385,-1.92919,14,4
-2.34221,11.3201,-1.01136,9,5
-3.1979,15.4693,3.0705,32,13
-2.57143,12.4498,-0.666237,84,6
-2.96646,14.375,3.38866,65,14
-2.61563,12.675,-0.225904,33,7
-5.20282,25.2343,6.90374,8,15
-0.0968655,0.473149,-0.12941,15,0
-2.54902,12.462,0.22203,56,8
-0.122908,0.601423,-0.141719,26,1
-3.3046,16.1992,1.44644,90,10
-2.47117,12.1245,-1.95981,45,3
-5.08835,24.9877,3.13107,63,11
-3.11664,15.3188,-1.91944,8,4
-3.16287,15.5599,2.51484,42,12
-2.30428,11.336,-1.01205,11,5
-3.16538,15.5861,3.09149,22,13
-2.52358,12.4371,-0.665085,100,6
-2.95769,14.5896,3.4368,36,14
-2.57988,12.7374,-0.226846,22,7
-5.11106,25.257,6.90477,8,15
-0.0990218,0.492424,-0.134586,15,0
-0.121191,0.603759,-0.142169,26,1
-2.54366,12.6837,0.67796,44,9
-1.99272,9.93647,-1.96991,42,2
-3.15488,15.7457,1.40495,34,10
-4.97539,24.8768,3.11498,26,11
-2.2117,11.0684,-1.3859,41,4
-3.11627,15.6096,2.5211,43,12
-2.26781,11.3596,-1.01345,20,5
-3.12208,15.6529,3.10255,26,13
-2.48641,12.4772,-0.66676,87,6
-2.88848,14.5081,3.41521,18,14
-2.50263,12.5816,-0.223914,44,7
-3.11826,15.6908,4.28656,5,15
-0.10329,0.523091,-0.142868,14,0
-0.12172,0.617562,-0.145318,25,1
-2.55836,12.9801,0.693347,45,9
-1.94968,9.90099,-1.96152,61,2
-3.17336,16.13,1.43824,46,10
-2.80325,14.2619,-2.30209,13,3
-4.42378,22.5273,2.81884,43,11
-2.17648,11.0936,-1.38809,55,4
-3.05688,15.581,2.51484,22,12
-2.92793,14.9376,-1.33174,13,5
-3.07498,15.7023,3.11019,28,13
-2.42519,12.3957,-0.661945,78,6
-2.97203,15.2047,3.57672,27,14
-2.55142,13.053,-0.232152,39,7
-5.7303,29.343,8.01097,11,15
-0.0963168,0.496896,-0.135621,15,0
-2.43997,12.5878,0.22381,33,8
-0.118931,0.614136,-0.144419,25,1
-2.44286,12.6262,0.673983,48,9
-1.88455,9.74967,-1.93022,35,2
-3.01805,15.6285,1.39257,59,10
-2.15441,11.1562,-1.79962,37,3
-5.10266,26.448,3.30729,40,11
-2.93619,15.2331,-1.90482,19,4
-2.98753,15.514,2.50233,38,12
-2.18055,11.3341,-1.00979,13,5
-3.00583,15.6237,3.09263,22,13
-2.3984,12.4782,-0.665923,87,6
-2.88227,15.0097,3.52858,27,14
-2.46177,12.832,-0.228068,28,7
-2.99174,15.6092,4.25861,7,15
-2.52943,13.2975,0.236271,68,8
-0.119333,0.627949,-0.147568,24,1
-2.74858,14.4772,0.772269,12,9
-1.82841,9.6305,-1.90542,47,2
-2.6677,14.0646,1.25243,66,10
-2.05294,10.8338,-1.74643,40,3
-5.04022,26.6236,3.32703,10,11
-2.3123,12.2258,-1.52775,12,4
-2.93666,15.5418,2.50514,17,12
-2.44887,12.9603,-1.15394,9,5
-2.33298,12.3707,-0.659747,48,6
-2.7927,14.8225,3.48224,33,14
-2.39551,12.7265,-0.226044,24,7
-2.93723,15.6196,4.25861,13,15
-0.0922232,0.493742,-0.134586,15,0
-2.47199,13.2473,0.235224,41,8
-0.111069,0.595794,-0.13992,26,1
-2.33161,12.5193,0.667388,27,9
-1.77106,9.50944,-1.88023,52,2
-2.65431,14.2657,1.26951,90,10
-1.92738,10.3689,-1.67041,10,3
-4.06581,21.8945,2.73426,6,11
-2.55712,13.7835,-1.72128,65,4
-2.40216,12.9609,-1.15324,11,5
-3.01642,16.291,3.22047,12,13
-2.30033,12.4357,-0.662783,55,6
-2.72465,14.744,3.46155,24,14
-2.4647,13.3503,-0.236969,30,7
-2.882,15.6259,4.25757,10,15
-0.0918913,0.501662,-0.136656,14,0
-2.34042,12.7896,0.226951,45,8
-0.109339,0.598095,-0.140369,26,1
-2.35868,12.9022,0.687381,79,9
-1.7442,9.55033,-1.8871,59,2
-2.91633,15.9841,1.42151,25,10
-1.95104,10.704,-1.72328,21,3
-4.02029,22.0784,2.75547,41,11
-2.49371,13.7084,-1.7108,43,4
-5.70439,31.3581,5.04814,8,12
-2.35192,12.9418,-1.1508,2,5
-2.96024,16.3053,3.22124,12,13
-2.25762,12.4476,-0.662992,78,6
-2.65858,14.6729,3.44265,74,14
-2.33984,12.9137,-0.22908,26,7
-2.69665,14.8978,4.05673,6,15
-0.0908223,0.505783,-0.137692,14,0
-2.29092,12.758,0.226253,40,8
-0.112517,0.627226,-0.147118,24,1
-1.71673,9.58921,-1.89359,40,2
-1.91067,10.6832,-1.7189,5,3
-4.07869,22.8283,2.84736,7,11
-2.46951,13.8358,-1.72567,11,4
-6.47288,36.3018,5.84033,5,12
-2.45977,13.8091,-1.22715,10,5
-4.51605,25.3529,5.00568,32,13
-2.20443,12.3881,-0.659433,81,6
-2.68665,15.1133,3.54388,31,14
-2.37307,13.3629,-0.236899,30,7
-2.63923,14.8767,4.04845,11,15
-0.0938368,0.532717,-0.144939,14,0
-2.27029,12.9018,0.228661,52,8
-0.109314,0.621857,-0.145768,25,1
-2.341,13.3173,0.708629,10,9
-1.73348,9.87136,-1.94816,47,2
-2.63705,15.0322,1.33523,51,10
-1.85188,10.5672,-1.69919,8,3
-4.01403,22.9285,2.85808,15,11
-2.75942,15.7782,-1.96673,18,4
-5.98152,34.2021,5.4993,9,12
-2.35636,13.4874,-1.19787,2,5
-4.43022,25.384,5.00874,30,13
-2.15569,12.3643,-0.657758,84,6
-2.64925,15.2109,3.56457,38,14
-2.2265,12.7836,-0.226497,100,7
-5.87849,33.7867,9.18911,7,15
-0.0873777,0.506389,-0.137692,14,0
-2.23464,12.9506,0.229394,86,8
-0.108576,0.629898,-0.147568,24,1
-1.7323,10.0708,-1.98632,35,2
-2.58591,15.0491,1.33592,34,10
-1.81482,10.5616,-1.69731,10,3
-2.61816,15.2527,1.90019,4,11
-2.38166,13.8895,-1.7303,7,4
-10.0757,58.8214,9.45208,15,12
-2.31363,13.5211,-1.20013,15,5
-4.35694,25.4624,5.02133,16,13
-2.11871,12.395,-0.659014,68,6
-2.59913,15.2215,3.56502,13,14
-2.18824,12.8287,-0.227161,31,7
-2.52526,14.8201,4.02826,1,15
-0.0831205,0.491438,-0.133551,15,0
-2.27869,13.4868,0.238749,42,8
-0.104106,0.616822,-0.144419,25,1
-2.09291,12.4135,0.659747,13,9
-1.69236,10.0378,-1.97869,30,2
-2.53004,15.0222,1.33279,92,10
-2.56588,15.2676,1.90092,49,11
-2.31607,13.7959,-1.71763,75,4
-6.01052,35.8405,5.75585,10,12
-2.5087,14.9753,-1.32843,28,5
-4.30275,25.6847,5.06216,13,13
-2.07115,12.3767,-0.657654,19,6
-4.42527,26.4727,6.1965,41,14
-2.14016,12.8166,-0.226811,36,7
-2.4662,14.785,4.01635,4,15
-0.0819492,0.495551,-0.134586,15,0
-2.1458,12.9758,0.229569,28,8
-0.10227,0.619104,-0.144868,25,1
-1.66259,10.0866,-1.98708,76,2
-2.28625,13.8853,1.23116,60,10
-2.52385,15.345,1.90945,61,11
-2.2399,13.6335,-1.69642,47,4
-5.70942,34.7892,5.58377,24,12
-2.4448,14.9132,-1.32215,49,5
-5.65058,34.506,6.79662,25,13
-4.227,25.8694,6.05163,63,14
-2.0925,12.8062,-0.226497,41,7
-2.40866,14.7573,4.00652,13,15
-0.0839211,0.518719,-0.140798,14,0
-2.11705,13.1,0.231628,88,8
-0.100311,0.621399,-0.145318,25,1
-1.99124,12.3352,0.654828,13,9
-1.61986,10.0458,-1.97793,28,2
-2.24061,13.9109,1.23273,63,10
-1.71577,10.6642,-1.71077,18,3
-2.46475,15.3366,1.90726,66,11
-2.23239,13.9062,-1.72933,43,4
-5.58825,34.8108,5.58409,19,12
-2.2063,13.759,-1.21913,20,5
-5.00223,31.23,6.14787,10,13
-1.98726,12.4208,-0.659224,32,6
-2.53381,15.8545,3.70674,11,14
-1.9973,12.4975,-0.220913,84,7
-2.35683,14.7637,4.006,5,15
-0.0802991,0.50756,-0.137692,14,0
-2.1536,13.6126,0.240564,59,8
-0.100075,0.633277,-0.148018,24,1
-2.00266,12.6873,0.673145,10,9
-1.62606,10.3132,-2.02944,90,2
-2.20754,14.017,1.24145,28,10
-1.68746,10.7147,-1.71796,17,3
-2.41666,15.3623,1.90945,41,11
-2.1841,13.8998,-1.72762,13,4
-4.10922,26.1811,4.19745,11,12
-2.40636,15.3492,-1.35928,28,5
-6.91831,44.1289,8.68257,9,13
-1.94791,12.4391,-0.659852,35,6
-4.06167,25.9669,6.06783,47,14
-1.93514,12.3858,-0.218818,25,7
-4.04697,25.9323,7.03263,4,15
-0.0738866,0.477278,-0.12941,15,0
-2.037,13.1734,0.232675,31,8
-0.0972685,0.629771,-0.147118,24,1
-1.54996,10.0469,-1.97602,47,2
-2.21506,14.3748,1.27247,35,10
-1.52805,9.92788,-1.59094,12,3
-3.54182,23.0383,2.86198,22,11
-2.14462,13.9662,-1.73493,39,4
-2.17814,14.2011,-1.25696,27,5
-6.71724,43.8462,8.62228,9,13
-2.4362,15.9206,-0.844074,19,6
-2.43318,15.9195,3.71799,2,14
-1.89732,12.4281,-0.219447,25,7
-3.93926,25.8335,7.00209,8,15
-0.0751088,0.496634,-0.134586,15,0
-0.0915812,0.606983,-0.141719,26,1
-2.02565,13.4416,0.712397,30,9
-1.48094,9.82703,-1.93175,47,2
-2.63847,17.5288,1.55085,16,10
-2.37627,15.8244,1.96478,42,11
-2.02135,13.4769,-1.67327,22,4
-3.90821,26.0881,4.17805,8,12
-2.10702,14.0647,-1.24424,10,5
-4.0511,27.0742,5.32128,3,13
-2.39389,16.0179,-0.848785,52,6
-3.98186,26.675,6.22665,8,14
-1.86042,12.4782,-0.220214,37,7
-3.88519,26.0898,7.06783,4,15
-0.0728102,0.493071,-0.133551,15,0
-1.97912,13.4188,0.236759,49,8
-0.0897457,0.609227,-0.142169,26,1
-1.83931,12.4859,0.661422,11,9
-1.44519,9.82243,-1.92984,33,2
-2.35161,16.0023,1.41506,9,10
-1.50403,10.2471,-1.64037,17,3
-2.30662,15.7344,1.95259,34,11
-1.98298,13.5268,-1.67863,56,4
-3.82282,26.1087,4.1793,11,12
-2.03686,13.9281,-1.23151,27,5
-4.96358,33.9826,6.67564,18,13
-2.31634,15.8779,-0.840934,26,6
-3.81067,26.1211,6.09437,16,14
-1.84325,12.6505,-0.223146,21,7
-4.05181,27.8422,7.53888,20,15
-0.0689679,0.478013,-0.12941,15,0
-1.89183,13.1284,0.231524,36,8
-0.0877248,0.609521,-0.142169,26,1
-1.42016,9.87964,-1.94015,73,2
-2.26767,15.7951,1.39606,25,10
-1.54406,10.7683,-1.72297,13,3
-2.0307,14.1798,1.75882,27,11
-1.94346,13.5706,-1.68326,15,4
-3.59861,25.1591,4.02537,10,12
-1.94473,13.6133,-1.2031,52,5
-3.89417,27.2936,5.35906,26,13
-2.00643,14.0802,-0.745369,29,6
-3.72568,26.1452,6.09707,8,14
-1.80326,12.6704,-0.223391,27,7
-3.66096,25.7554,6.97051,4,15
-0.0716949,0.508847,-0.137692,14,0
-0.0870592,0.619458,-0.144419,25,1
-1.95437,13.9061,0.735948,64,9
-1.40649,10.0204,-1.96686,38,2
-1.9893,14.1905,1.25365,11,10
-1.50286,10.7342,-1.71671,11,3
-1.98449,14.1923,1.75955,34,11
-1.91412,13.689,-1.69715,80,4
-3.50532,25.1005,4.01411,21,12
-1.93233,13.8545,-1.22384,25,5
-3.52519,25.3074,4.96676,22,13
-2.20548,15.8534,-0.838841,35,6
-3.72703,26.7905,6.24464,33,14
-1.78408,12.8407,-0.226288,100,7
-3.5965,25.9186,7.01141,8,15
-0.0657963,0.47846,-0.12941,15,0
-0.0842099,0.613951,-0.143069,25,1
-1.7606,12.836,0.679007,26,9
-1.36073,9.93357,-1.94892,49,2
-1.85284,13.5436,1.19595,70,10
-1.44453,10.5728,-1.69012,10,3
-1.95648,14.3385,1.77686,42,11
-1.92159,14.0828,-1.74517,30,4
-3.4322,25.1864,4.026,10,12
-2.09406,15.3868,-1.35858,10,5
-3.43995,25.3092,4.96485,55,13
-2.15289,15.8606,-0.838841,29,6
-3.46962,25.5611,5.95535,22,14
-1.86908,13.7878,-0.242868,26,7
-3.51053,25.9304,7.01141,21,15
-0.0660914,0.494016,-0.133551,15,0
-1.75336,13.1234,0.231105,43,8
-0.0829902,0.621982,-0.144868,25,1
-1.81656,13.6326,0.720771,27,9
-1.32898,9.97353,-1.95579,61,2
-1.80634,13.574,1.19804,23,10
-1.89529,14.2806,1.76881,42,11
-1.83177,13.8204,-1.71178,13,4
-3.6364,27.4729,4.38924,6,12
-2.85375,21.589,-1.90522,23,5
-3.38395,25.6,5.01942,16,13
-1.81193,13.7259,-0.725586,45,6
-3.41552,25.9084,6.03319,7,14
-1.73104,13.1485,-0.231489,100,7
-3.4044,25.8939,6.99795,8,15
-0.0647787,0.498087,-0.134586,15,0
-1.63843,12.598,0.22175,52,8
-0.0785595,0.604876,-0.140819,26,1
-1.69138,13.0407,0.68916,27,9
-1.28838,9.94718,-1.94969,45,2
-1.76194,13.6221,1.2017,57,10
-1.36724,10.585,-1.69043,63,3
-1.87036,14.4801,1.7927,52,11
-1.87265,14.5178,-1.79733,8,4
-4.0172,31.1864,4.98025,7,12
-2.50537,19.4765,-1.71801,15,5
-3.3041,25.7213,5.04079,33,13
-2.01726,15.7254,-0.830886,52,6
-3.29726,25.7391,5.9909,7,14
-1.73621,13.5532,-0.238505,72,7
-3.0691,23.9913,6.48083,38,15
-0.0659491,0.521309,-0.140798,14,0
-0.0790251,0.626427,-0.145768,25,1
-1.68451,13.3718,0.706326,118,9
-1.25488,9.96135,-1.95159,73,2
-1.71613,13.642,1.20292,13,10
-1.80417,14.3824,1.77978,15,11
-1.8066,14.4221,-1.78465,45,4
-3.48385,27.8511,4.44556,6,12
-2.38346,19.0542,-1.68001,3,5
-5.64795,45.2158,8.85735,10,13
-3.01181,24.1802,5.62558,46,14
-1.55052,12.466,-0.219272,100,7
-2.97781,23.9755,6.47358,66,15
-0.0589422,0.479353,-0.12941,15,0
-1.51217,12.3156,0.216584,7,8
-0.0763638,0.62283,-0.144868,25,1
-1.60943,13.1457,0.69408,21,9
-1.22559,10.0105,-1.96037,57,2
-1.71806,14.0533,1.23866,10,10
-1.24927,10.2335,-1.63286,2,3
-1.91202,15.6852,1.94016,53,11
-1.76943,14.5367,-1.79806,12,4
-4.48869,36.9305,5.89226,5,12
-1.70945,14.0644,-1.23953,17,5
-3.1247,25.7457,5.04117,6,13
-1.53305,12.65,-0.667807,26,6
-2.9248,24.1693,5.62063,100,14
-1.51323,12.523,-0.22018,93,7
-2.89109,23.9608,6.46685,28,15
-0.0609336,0.510247,-0.137692,14,0
-1.4687,12.3169,0.216515,28,8
-0.0744195,0.625028,-0.145318,25,1
-1.18948,10.005,-1.95846,45,2
-1.669,14.0592,1.23866,21,10
-1.21028,10.2104,-1.62848,3,3
-1.69299,14.304,1.76857,34,11
-1.28861,10.9037,-1.34812,15,4
-3.30715,28.0258,4.46965,6,12
-1.67739,14.2147,-1.25225,27,5
-3.03503,25.7584,5.04156,37,13
-1.68655,14.3353,-0.756464,26,6
-2.83906,24.1677,5.61793,100,14
-1.473,12.558,-0.220703,46,7
-2.81643,24.0475,6.48756,10,15
-0.0555942,0.479752,-0.12941,15,0
-1.41696,12.2464,0.215188,7,8
-0.0733553,0.634964,-0.147568,24,1
-1.45285,12.5951,0.664457,29,9
-1.15747,10.0344,-1.96342,64,2
-1.65182,14.342,1.26306,49,10
-1.63807,14.2664,1.76321,46,11
-1.26162,11.0047,-1.36006,19,4
-3.7617,32.8631,5.23899,8,12
-2.15614,18.8366,-1.65875,43,5
-2.77813,24.3078,4.75572,63,13
-2.47955,21.729,-1.14616,50,6
-2.75997,24.224,5.62873,79,14
-1.4816,13.024,-0.228801,100,7
-2.98385,26.2704,7.0844,17,15
-0.0569386,0.50682,-0.136656,14,0
-1.39471,12.4341,0.218399,11,8
-0.0713558,0.637152,-0.148018,24,1
-1.12571,10.0677,-1.96915,38,2
-1.60948,14.417,1.26916,41,10
-1.15692,10.3795,-1.65414,12,3
-3.05664,27.4669,3.39333,10,11
-1.23038,11.0562,-1.36591,15,4
-3.66689,33.003,5.25933,17,12
-2.09127,18.8519,-1.65945,29,5
-2.69131,24.2998,4.75229,75,13
-1.44521,13.0905,-0.229883,100,7
-2.90264,26.3339,7.09889,4,15
-0.0544204,0.499325,-0.134586,15,0
-1.35584,12.4605,0.218783,16,8
-0.06819,0.627699,-0.145768,25,1
-1.38007,12.7037,0.669691,54,9
-1.10862,10.2216,-1.99853,90,2
-1.56038,14.4104,1.26812,13,10
-1.70707,15.8167,1.95332,34,11
-1.14217,10.5826,-1.30693,28,4
-2.63664,24.4696,3.89803,57,12
-2.01958,18.7736,-1.65195,25,5
-2.61596,24.3574,4.76183,45,13
-2.25535,21.0344,-1.10869,43,6
-2.90694,27.1114,6.29503,34,14
-1.39476,13.0296,-0.228731,100,7
-2.80114,26.2109,7.06317,8,15
-0.0539818,0.511029,-0.137692,14,0
-0.0665163,0.631797,-0.146668,24,1
-1.36638,12.9784,0.683926,33,9
-1.07492,10.2272,-1.99892,49,2
-1.51529,14.4413,1.27038,11,10
-1.20433,11.497,-1.83091,20,3
-1.66947,15.9644,1.97087,63,11
-1.1013,10.549,-1.3023,53,4
-2.55097,24.435,3.89115,100,12
-1.97797,18.9783,-1.66938,29,5
-1.4345,13.8106,-0.727679,16,6
-2.8121,27.1194,6.29458,8,14
-1.2971,12.509,-0.219516,100,7
-2.69868,26.0701,7.0228,21,15
-0.0506281,0.49584,-0.133551,15,0
-1.23337,12.0793,0.211942,15,8
-0.0650135,0.637831,-0.148018,24,1
-1.34371,13.2056,0.69565,70,9
-1.04695,10.3071,-2.0138,57,2
-1.50628,14.8548,1.30629,66,10
-1.61473,15.9521,1.96868,93,11
-1.07689,10.6573,-1.31521,82,4
-2.46804,24.4673,3.89491,77,12
-1.88735,18.7433,-1.64812,36,5
-2.50393,24.8665,4.858,3,13
-1.96479,19.5465,-1.02955,15,6
-2.71397,27.0472,6.27568,8,14
-1.25582,12.5373,-0.219935,32,7
-2.77046,27.7075,7.46124,5,15
-0.0505023,0.511385,-0.137692,14,0
-0.0603055,0.612842,-0.142169,26,1
-1.30053,13.24,0.69722,56,9
-1.01354,10.3183,-2.01532,59,2
-1.45196,14.8082,1.30176,23,10
-1.08582,11.094,-1.76552,45,3
-1.56367,16.005,1.97453,21,11
-1.23594,12.7193,-1.11803,11,5
-2.51452,25.8775,5.05377,37,13
-1.19026,12.2715,-0.64614,39,6
-2.61897,27.0506,6.27433,8,14
-1.22243,12.6491,-0.22182,40,7
-2.74071,28.4112,7.6481,10,15
-0.0493588,0.519259,-0.139762,14,0
-1.15904,12.1932,0.213792,23,8
-0.0589024,0.620809,-0.143969,25,1
-1.25468,13.2485,0.697429,42,9
-0.960745,10.1636,-1.98441,54,2
-1.32842,14.0795,1.23726,57,10
-0.975702,10.3604,-1.64819,37,3
-2.31855,24.6194,3.03625,25,11
-2.51399,26.7949,4.26253,25,12
-1.07616,11.4916,-1.00979,58,5
-2.65681,28.4238,5.54911,16,13
-1.14583,12.2817,-0.646454,29,6
-2.27806,24.4639,5.67237,6,14
-1.18068,12.6792,-0.222274,100,7
-2.64043,28.4091,7.645,21,15
-0.0454329,0.496343,-0.133551,15,0
-1.16528,12.7549,0.223565,88,8
-0.0576882,0.632665,-0.146668,24,1
-1.1596,12.7418,0.670528,35,9
-0.927221,10.1884,-1.98861,92,2
-1.27224,14.0066,1.23046,97,10
-0.943096,10.4031,-1.65445,66,3
-1.44159,15.9328,1.96429,8,11
-1.03371,11.4471,-1.41125,19,4
-2.41416,26.7862,4.25971,14,12
-2.32752,25.8753,5.04995,6,13
-1.08938,12.1345,-0.638499,19,6
-2.18621,24.3999,5.65572,20,14
-1.13438,12.6854,-0.222309,25,7
-2.53252,28.3762,7.63361,15,15
-0.0423449,0.481103,-0.12941,15,0
-1.12093,12.7609,0.2236,40,8
-0.0565006,0.64451,-0.149367,24,1
-1.1501,13.1457,0.691567,39,9
-0.893701,10.2151,-1.99319,57,2
-1.2937,14.8168,1.30124,34,10
-0.905063,10.3867,-1.65132,62,3
-1.34383,15.4532,1.90457,20,11
-0.9057,10.4361,-1.28621,9,4
-3.57259,41.2495,6.55773,14,12
-0.915281,10.5679,-0.928034,2,5
-2.34183,27.094,5.28617,7,13
-1.03414,11.989,-0.630648,87,6
-2.11173,24.5316,5.68451,27,14
-1.08307,12.6076,-0.220878,100,7
-2.54995,29.7438,7.99906,11,15
-0.0419666,0.496648,-0.133551,15,0
-0.0540873,0.642761,-0.148918,24,1
-1.11022,13.2213,0.695336,13,9
-0.85492,10.1809,-1.98594,38,2
-1.18457,14.1363,1.2411,60,10
-0.885429,10.5886,-1.68292,46,3
-1.29566,15.527,1.91311,33,11
-0.87075,10.457,-1.2884,6,4
-2.89615,34.8539,5.53934,9,12
-0.963852,11.5996,-1.01833,11,5
-2.20312,26.5698,5.18237,14,13
-1.02144,12.3448,-0.649175,13,6
-2.02945,24.5796,5.69396,13,14
-1.04546,12.6891,-0.222239,75,7
-2.02109,24.5829,6.6092,15,15
-0.0389851,0.481387,-0.12941,15,0
-1.01941,12.615,0.220913,42,8
-0.0509037,0.631292,-0.146218,25,1
-0.81465,10.1252,-1.97449,38,2
-0.832534,10.3927,-1.65132,85,3
-1.21582,15.2109,1.87362,49,11
-0.912835,11.4454,-1.40978,48,4
-0.924623,11.6187,-1.01972,31,5
-2.1046,26.5049,5.16825,49,13
-0.972186,12.2707,-0.645093,39,6
-1.94995,24.6662,5.71241,34,14
-1.07035,13.5698,-0.237597,45,7
-1.94057,24.6573,6.62732,11,15
-0.0396921,0.512337,-0.137692,14,0
-0.972131,12.5766,0.22018,31,8
-0.0479503,0.621751,-0.143969,25,1
-1.01513,13.1628,0.691881,49,9
-0.776141,10.0868,-1.96648,42,2
-1.17965,15.3659,1.3483,12,10
-0.795192,10.3818,-1.64913,60,3
-1.16408,15.2329,1.87581,53,11
-0.841641,11.0388,-1.35933,35,4
-1.17917,15.4658,2.45665,40,12
-0.921962,12.1764,-0.639964,74,6
-1.87029,24.7584,5.7322,27,14
-0.944457,12.5025,-0.218853,100,7
-1.86691,24.7714,6.65631,11,15
-0.0367636,0.49706,-0.133551,15,0
-0.925261,12.5099,0.218958,52,8
-0.0464617,0.62968,-0.145768,25,1
-0.956422,12.993,0.682775,41,9
-0.733452,9.98767,-1.94663,33,2
-1.12702,15.3839,1.34952,6,10
-0.758882,10.3588,-1.64507,62,3
-0.805754,11.0515,-1.36055,15,4
-1.12861,15.5171,2.46416,46,12
-0.790709,10.8976,-0.955924,10,5
-1.7052,23.5012,4.58018,57,13
-0.879418,12.1495,-0.638394,35,6
-1.67898,23.2522,5.38218,64,14
-0.87983,12.2145,-0.213757,100,7
-1.64864,22.9434,6.16352,31,15
-0.035115,0.497179,-0.133551,15,0
-0.869779,12.3455,0.216026,16,8
-0.0444005,0.631782,-0.146218,25,1
-0.924752,13.1915,0.693033,12,9
-0.691813,9.86862,-1.92297,30,2
-1.69558,24.2479,2.1266,26,10
-0.725612,10.4027,-1.65164,61,3
-1.11714,16.0563,1.97623,25,11
-0.788472,11.3611,-1.39833,60,4
-1.07539,15.5347,2.46635,33,12
-0.739842,10.6875,-0.937273,22,5
-0.834117,12.1107,-0.636196,48,6
-1.6985,24.7239,5.72141,55,14
-0.798503,11.6529,-0.203879,47,7
-1.64573,24.0784,6.46685,10,15
-0.0349317,0.520429,-0.139762,14,0
-0.0429737,0.6436,-0.148918,24,1
-0.651487,9.78282,-1.9058,28,2
-1.00763,15.1705,1.33017,37,10
-0.690076,10.417,-1.65351,98,3
-1.06985,16.1928,1.99256,38,11
-0.715529,10.8587,-1.33618,71,4
-1.01676,15.4714,2.45571,22,12
-0.712337,10.8391,-0.950346,52,5
-2.07049,31.5897,6.15359,20,13
-0.787281,12.0437,-0.632532,35,6
-1.62488,24.9241,5.7664,35,14
-0.833718,12.823,-0.224298,22,7
-1.59766,24.6393,6.61593,22,15
-0.0350776,0.551395,-0.148044,13,0
-0.830541,13.0917,0.228976,15,8
-0.0401115,0.634022,-0.146668,24,1
-0.945029,14.9376,0.784411,42,9
-0.616105,9.76544,-1.90198,28,2
-0.95191,15.1302,1.32634,60,10
-0.65618,10.4588,-1.65977,76,3
-1.01147,16.1667,1.98891,46,11
-0.68182,10.9285,-1.34446,17,4
-0.970984,15.5634,2.46979,40,12
-0.671154,10.7879,-0.94564,22,5
-1.91927,30.9364,6.02499,4,13
-0.758058,12.2537,-0.643418,78,6
-1.53235,24.8401,5.7457,42,14
-0.742436,12.0353,-0.210476,86,7
-1.51122,24.5673,6.59523,7,15
-0.0301386,0.501376,-0.134586,15,0
-0.771167,12.8289,0.224333,31,8
-0.0384749,0.641932,-0.148468,24,1
-0.892527,14.9348,0.784097,45,9
-0.579092,9.71854,-1.89244,33,2
-0.907594,15.2766,1.33889,69,10
-0.627349,10.5595,-1.67541,73,3
-1.15552,19.5071,2.39936,10,11
-0.651898,11.0377,-1.35762,63,4
-0.916531,15.5647,2.46947,30,12
-0.629409,10.7205,-0.939539,24,5
-2.39015,40.7106,7.92697,8,13
-0.71287,12.1784,-0.639336,84,6
-1.44292,24.7245,5.71781,6,14
-0.695893,11.9599,-0.209115,20,7
-1.43641,24.7614,6.64596,18,15
-0.0291328,0.513046,-0.137692,14,0
-0.778599,13.7539,0.240459,57,8
-0.0357952,0.63428,-0.146668,24,1
-0.854478,15.1411,0.794774,45,9
-0.54344,9.65964,-1.88061,28,2
-0.856152,15.2656,1.33767,57,10
-0.58542,10.4709,-1.66102,61,3
-0.87687,15.7332,1.9348,45,11
-0.614354,11.0578,-1.35982,57,4
-0.867983,15.6229,2.47824,6,12
-0.667235,12.0474,-1.05563,71,5
-1.73525,31.431,6.11886,10,13
-0.676498,12.2925,-0.645198,87,6
-1.32939,24.2332,5.60308,6,14
-0.671998,12.2497,-0.214141,22,7
-1.31336,24.0176,6.44511,42,15
-0.0273419,0.513145,-0.137692,14,0
-0.729577,13.6925,0.239342,57,8
-0.0344149,0.648017,-0.149817,24,1
-0.730038,13.7917,0.723806,21,9
-0.508169,9.63207,-1.87489,26,2
-0.805792,15.3242,1.34255,31,10
-0.551313,10.4846,-1.6629,98,3
-0.816487,15.5795,1.91554,74,11
-0.577373,11.0538,-1.35909,35,4
-1.45467,27.9434,4.43179,3,12
-0.621148,11.9721,-1.04883,21,5
-1.54171,29.7151,5.7838,21,13
-0.644184,12.4582,-0.653781,100,6
-1.24772,24.2122,5.59723,91,14
-0.622878,12.1282,-0.211977,31,7
-1.23109,24.0529,6.45339,28,15
-0.0240137,0.482366,-0.12941,15,0
-0.676609,13.6391,0.238365,63,8
-0.0320397,0.648139,-0.149817,24,1
-0.678209,13.7684,0.722446,11,9
-0.474352,9.62987,-1.87413,26,2
-0.758152,15.4463,1.35301,24,10
-0.515393,10.5379,-1.67103,60,3
-0.758797,15.5705,1.91408,49,11
-0.528668,10.8873,-1.33837,28,4
-1.35626,28.0314,4.44493,3,12
-0.590237,12.1991,-1.06853,47,5
-1.17337,24.3396,4.73664,33,13
-0.593346,12.3528,-0.648129,78,6
-1.34408,28.0843,6.49119,36,14
-0.595373,12.4859,-0.21819,100,7
-1.35351,28.4897,7.64241,10,15
-0.0232229,0.501744,-0.134586,15,0
-0.634985,13.7713,0.240634,28,8
-0.0289721,0.630727,-0.145768,25,1
-1.29388,28.2756,1.48341,15,9
-0.439296,9.60009,-1.86802,26,2
-0.69634,15.2757,1.33784,100,10
-0.483083,10.6383,-1.68668,40,3
-0.701125,15.4996,1.90506,61,11
-0.502727,11.1568,-1.37127,64,4
-0.54452,12.1314,-1.06243,57,5
-1.08929,24.3632,4.74046,24,13
-1.24517,28.0693,6.48669,73,14
-0.546491,12.368,-0.216096,32,7
-1.08154,24.5745,6.59109,22,15
-0.0219669,0.513403,-0.137692,14,0
-0.528001,12.3909,0.21648,56,8
-0.0267701,0.630824,-0.145768,25,1
-1.15827,27.2939,1.4317,35,9
-0.405702,9.5996,-1.86764,28,2
-0.644769,15.3199,1.3415,14,10
-0.458185,10.932,-1.73298,50,3
-0.46188,11.1129,-1.36567,70,4
-0.50052,12.0934,-1.05894,40,5
-1.16447,28.2547,5.49683,32,13
-0.467947,11.4027,-0.598095,3,6
-1.14829,28.1008,6.49299,18,14
-0.501144,12.2639,-0.214246,23,7
-1.45786,35.8294,9.6084,8,15
-0.0201745,0.513476,-0.137692,14,0
-0.4924,12.5324,0.218923,41,8
-0.0252117,0.64454,-0.148918,24,1
-1.10807,28.4554,1.49241,21,9
-0.370895,9.56761,-1.86115,28,2
-0.5906,15.3041,1.33993,74,10
-0.414544,10.742,-1.70263,48,3
-0.711283,18.5152,2.27506,19,11
-0.432614,11.3127,-1.39004,67,4
-1.08572,28.5216,4.52064,22,12
-0.475506,12.549,-1.09869,38,5
-1.06876,28.2055,5.48652,100,13
-0.469956,12.46,-0.653467,52,6
-0.947781,25.2457,5.83253,7,14
-0.952875,25.6199,6.86958,20,15
-0.0180549,0.501957,-0.134586,15,0
-0.453518,12.67,0.221297,48,8
-0.0230309,0.646572,-0.149367,24,1
-1.01477,28.4888,1.49398,28,9
-0.33666,9.49815,-1.84741,28,2
-0.543783,15.4175,1.34969,69,10
-0.389519,11.0987,-1.75895,81,3
-0.686132,19.6484,2.41399,25,11
-0.400363,11.5225,-1.41563,23,4
-0.993265,28.5862,4.53034,19,12
-0.437265,12.6481,-1.10723,19,5
-0.97184,28.2542,5.4953,32,13
-0.39032,11.4057,-0.598095,13,6
-0.860121,25.2625,5.83568,7,14
-0.431881,12.6847,-0.221541,100,7
-0.867773,25.619,6.86854,24,15
-0.0161776,0.498155,-0.133551,15,0
-0.45155,13.9046,0.242833,64,8
-0.0210752,0.652488,-0.150717,23,1
-0.469232,14.6064,0.765884,25,9
-0.302945,9.48161,-1.84398,26,2
-0.357916,11.2638,-1.78492,27,3
-0.621415,19.6644,2.41569,41,11
-0.365271,11.6229,-1.42782,100,4
-0.884335,28.2973,4.48404,56,12
-0.387539,12.4703,-1.09154,49,5
-0.889489,28.6222,5.56628,16,13
-0.387236,12.5308,-0.657026,52,6
-0.79501,25.8729,5.97605,83,14
-0.377521,12.3564,-0.215782,28,7
-0.848046,27.9159,7.48349,20,15
-0.364948,12.5928,0.2199,11,8
-0.0185728,0.644766,-0.148918,24,1
-0.424297,14.7297,0.772269,60,9
-0.270656,9.45312,-1.83825,26,2
-0.581985,20.4516,1.79,41,10
-0.314293,11.113,-1.76083,50,3
-0.553053,19.6764,2.41691,25,11
-0.325248,11.644,-1.43026,41,4
-0.791326,28.3297,4.48873,50,12
-0.316438,11.4,-0.997759,17,5
-0.719099,26.07,5.06941,57,13
-0.342723,12.5041,-0.65556,29,6
-0.335942,12.3355,-0.215398,24,7
-0.701377,25.9198,6.94774,8,15
-0.0123896,0.482804,-0.12941,15,0
-0.323491,12.6059,0.22011,10,8
-0.0164844,0.646772,-0.149367,24,1
-0.374657,14.8009,0.775933,30,9
-0.23721,9.43635,-1.83482,23,2
-0.476627,19.0931,1.67095,28,10
-0.276997,11.0962,-1.75801,38,3
-0.481163,19.4102,2.38401,20,11
-0.289366,11.7561,-1.44391,64,4
-0.770706,31.5354,4.9962,24,12
-0.277569,11.4389,-1.00107,42,5
-0.633316,26.0997,5.07476,27,13
-0.291873,12.1159,-0.635149,48,6
-0.301812,12.7125,-0.22196,20,7
-0.708152,30.0493,8.05393,17,15
-0.0114791,0.513744,-0.137692,14,0
-0.269079,12.1372,0.211907,13,8
-0.0138411,0.629291,-0.145318,25,1
-0.310568,14.2331,0.746101,51,9
-0.205276,9.40764,-1.8291,26,2
-0.41371,19.1125,1.67252,31,10
-0.237926,11.0813,-1.75551,76,3
-0.605794,28.4459,3.49351,44,11
-0.244049,11.5546,-1.41905,41,4
-0.549428,26.2292,4.15521,57,12
-0.602544,29.0067,5.63955,16,13
-0.295641,14.3533,-0.752382,19,6
-0.902751,44.2019,10.2069,16,14
-0.252534,12.4715,-0.217736,28,7
-0.599952,29.8875,8.00993,23,15
-0.00910323,0.482877,-0.12941,15,0
-0.0119687,0.646871,-0.149367,24,1
-0.259532,14.1602,0.742229,34,9
-0.171971,9.38278,-1.82413,26,2
-0.516883,28.4725,2.49143,35,10
-0.197678,10.9951,-1.74174,40,3
-0.470492,26.4253,3.24514,100,11
-0.199383,11.3093,-1.38882,45,4
-0.504815,28.921,4.58134,16,12
-0.217567,12.4645,-1.09067,30,5
-0.501973,29.0479,5.64718,4,13
-0.205784,12.0297,-0.630544,68,6
-0.723731,42.7453,9.86995,15,14
-0.212747,12.6963,-0.221646,65,7
-0.487635,29.4065,7.88052,5,15
-0.00771419,0.502222,-0.134586,15,0
-0.188068,12.3847,0.2162,33,8
-0.0096233,0.641063,-0.148018,24,1
-0.211343,14.2449,0.746625,33,9
-0.138953,9.36566,-1.8207,26,2
-0.389502,26.5657,2.32444,31,10
-0.158984,10.974,-1.7383,57,3
-0.280626,19.6067,2.40765,30,11
-0.157096,11.1114,-1.36445,45,4
-0.397411,28.4604,4.50813,26,12
-0.399591,28.9788,5.63345,16,13
-0.163271,11.9924,-0.628555,45,6
-0.168616,12.7109,-0.22189,100,7
-0.38839,29.6688,7.9504,11,15
-0.0061902,0.521563,-0.139762,14,0
-0.148651,12.7112,0.22189,12,8
-0.00734045,0.637196,-0.147118,24,1
-0.166531,14.6789,0.769339,20,9
-0.106057,9.34842,-1.81726,23,2
-0.296796,26.5688,2.32462,87,10
-0.120158,10.9271,-1.73079,68,3
-0.213253,19.7068,2.41984,56,11
-0.11848,11.1278,-1.3664,49,4
-0.298876,28.5387,4.52033,29,12
-0.296283,28.7719,5.59299,16,13
-0.12131,11.9829,-0.628032,74,6
-0.368356,37.0242,8.54814,12,14
-0.124047,12.6915,-0.221541,20,7
-0.283699,29.5521,7.91883,23,15
-0.00420783,0.502264,-0.134586,15,0
-0.104867,12.7836,0.223146,5,8
-0.0049752,0.619679,-0.143069,25,1
-0.116518,14.8352,0.777503,45,9
-0.0730715,9.30358,-1.80849,21,2
-0.22213,28.9247,2.53065,65,10
-0.0817446,10.8919,-1.72516,66,3
-0.211577,28.8625,3.54396,33,11
-0.0823888,11.5132,-1.41368,41,4
-0.19911,28.5198,4.5172,35,12
-0.0827336,11.8504,-1.0368,49,5
-0.247732,36.394,7.07443,6,13
-0.0877571,13.2316,-0.693452,48,6
-0.239332,37.0604,8.55624,12,14
-0.0818832,13.0318,-0.227475,20,7
-0.175388,28.7106,7.69314,5,15
-0.0025491,0.521594,-0.139762,14,0
-0.0603398,12.8039,0.223496,11,8
-0.00287412,0.633334,-0.146218,25,1
-0.0608921,13.9547,0.731343,18,9
-0.0403576,9.2488,-1.7978,26,2
-0.120217,28.6981,2.51078,71,10
-0.0440041,10.9613,-1.73611,61,3
-0.107822,28.0789,3.44768,21,11
-0.0405087,11.0529,-1.35714,28,4
-0.0995623,28.5203,4.5172,26,12
-0.120178,36.2375,7.0439,27,13
-0.0403617,12.8483,-0.673354,35,6
-0.109516,36.907,8.5207,25,14
-0.0352233,12.612,-0.220145,100,7
-0.0750141,28.6551,7.67813,63,15
-0.000674527,0.482962,-0.12941,15,0
-0.000669307,0.639186,-0.147568,24,1
-0.015313,14.6239,0.766408,17,9
-0.00803557,9.20373,-1.78903,26,2
-0.0199071,28.5171,2.49492,28,10
-0.0057244,10.9337,-1.73173,56,3
-0.00980283,28.0474,3.44378,64,11
-0.0019157,10.9776,-1.34787,17,4
-0.00517431,29.6504,4.69616,14,12
1.30271e-07,10.9243,-0.95575,22,5
