x, y, z, intensity, ring
-0.289866,0.501859,-0.155291,12,0
-0.276637,0.479343,-0.127772,14,1
-5.84108,10.1252,-2.27215,9,2
-34.4908,59.8122,6.04059,46,10
-5.259,9.12356,-1.6679,38,3
-5.10686,8.86319,-1.25599,15,4
-37.9797,65.9421,12.0527,28,12
-5.10264,8.86303,-0.894741,30,5
-4.79531,8.33594,-0.503995,94,6
-6.32584,11.001,-0.221506,36,7
-6.24493,10.8999,0.219272,43,8
-0.304101,0.53099,-0.141269,13,1
-34.7048,60.5979,3.65975,25,9
-5.74699,10.0389,-2.24849,11,2
-36.3328,63.492,6.40002,52,10
-5.22087,9.12723,-1.6654,15,3
-5.07448,8.87491,-1.25525,44,4
-4.9477,8.66019,-0.872603,24,5
-4.75576,8.33098,-0.502739,100,6
-9.94142,17.4221,-0.35013,100,7
-6.2473,10.9883,0.220633,15,8
-0.300412,0.528607,-0.140369,13,1
-5.72919,10.0852,-2.2546,14,2
-36.0237,63.4388,6.38259,52,10
-6.17642,10.8813,-1.98171,40,3
-5.08461,8.96509,-1.26549,33,4
-6.07451,10.7148,-1.07759,28,5
-6.32482,11.1654,-0.672517,58,6
-9.85403,17.4028,-0.349083,36,7
-0.28477,0.504768,-0.155291,12,0
-10.0782,17.8641,0.358019,6,8
-0.291,0.51602,-0.13677,13,1
-33.9325,60.196,3.62144,24,9
-5.67853,10.0778,-2.24849,21,2
-6.05596,10.752,-1.95449,26,3
-4.94678,8.78988,-1.23844,17,4
-5.01169,8.91249,-0.894567,9,5
-6.29069,11.1916,-0.672831,74,6
-9.75308,17.3656,-0.347652,100,7
-9.61447,17.1819,0.343673,36,8
-0.32059,0.573158,-0.151617,11,1
-9.84044,17.6002,1.05677,7,9
-5.62496,10.0606,-2.24048,23,2
-35.9118,64.2565,6.44011,53,10
-6.00973,10.7575,-1.95168,52,3
-4.90252,8.78282,-1.23502,42,4
-4.9757,8.92123,-0.893695,15,5
-6.41984,11.5153,-0.690939,32,6
-9.70116,17.4152,-0.347966,100,7
-9.71163,17.4986,0.349327,65,8
-0.295899,0.533376,-0.140819,13,1
-9.77313,17.6239,1.05614,43,9
-5.62992,10.1567,-2.25727,28,2
-9.69295,17.4937,1.74974,3,10
-5.99897,10.8313,-1.96106,37,3
-6.0208,10.8752,-1.52629,36,4
-4.87026,8.8043,-0.880273,19,5
-6.26054,11.3316,-0.225974,23,7
-9.62912,17.5008,0.348664,74,8
-0.288307,0.524212,-0.13812,13,1
-9.63263,17.5144,1.04756,38,9
-5.76847,10.4928,-2.32749,17,2
-34.6527,63.0591,6.29508,50,10
-6.00297,10.9284,-1.97483,35,3
-4.81171,8.77059,-0.875218,49,5
-6.03294,11.0057,-0.657758,42,6
-33.8374,61.7284,16.2518,49,14
-6.19116,11.299,-0.224892,44,7
-9.53079,17.4589,0.347198,55,8
-0.301502,0.552535,-0.145318,12,1
-9.55632,17.513,1.04557,32,9
-5.52682,10.1327,-2.24353,23,2
-38.7924,71.1504,7.08995,63,10
-4.86071,8.91886,-1.60877,53,3
-5.2591,9.65389,-1.34982,22,4
-4.81404,8.84424,-0.88097,50,5
-33.6114,61.7759,13.6703,31,13
-6.06607,11.1537,-0.665399,35,6
-33.679,61.9259,16.2743,49,14
-6.12596,11.2685,-0.223879,23,7
-9.40142,17.3586,0.34458,65,8
-0.299668,0.553532,-0.145318,12,1
-9.52174,17.5954,1.0485,13,9
-5.54738,10.2511,-2.26567,2,2
-38.4027,70.9947,7.06171,63,10
-6.23477,11.531,-2.0762,17,3
-6.25384,11.5759,-1.6155,13,4
-4.72445,8.75229,-0.870163,56,5
-6.11156,11.3267,-0.674506,84,6
-9.29691,17.2446,-0.341962,30,7
-9.3332,17.3772,0.344301,65,8
-0.275612,0.513368,-0.134521,14,1
-9.4867,17.6778,1.05143,22,9
-6.0536,11.2852,-2.48929,19,2
-34.5118,64.3643,6.38956,52,10
-5.67999,10.602,-1.47681,7,4
-4.79354,8.95493,-0.88864,40,5
-32.9478,61.5763,13.5749,30,13
-6.0408,11.2944,-0.671261,94,6
-9.20271,17.2134,-0.340706,40,7
-9.32489,17.5154,0.34636,48,8
-0.288376,0.5419,-0.141719,13,1
-4.79622,9.01657,-1.98518,23,2
-33.967,63.8827,6.32995,51,10
-5.1402,9.67953,-1.34568,16,4
-4.71462,8.88185,-0.87975,19,5
-9.31785,17.5687,-1.04222,37,6
-9.15006,17.2596,-0.340985,40,7
-36.7254,69.3037,21.0161,63,15
-9.3396,17.6842,0.349083,67,8
-0.27748,0.525619,-0.13722,13,1
-33.8077,64.0678,3.79645,29,9
-5.58082,10.5805,-2.3252,27,2
-33.7383,63.9903,6.3289,51,10
-33.35,63.2806,8.78288,48,11
-5.11085,9.70179,-1.34641,1,4
-4.53975,8.62498,-0.852732,91,5
-33.2722,63.2133,13.8856,32,13
-9.19723,17.4811,-1.03521,82,6
-9.16513,17.4348,-0.343812,29,7
-9.2676,17.6972,0.348699,49,8
-0.284681,0.54385,-0.141719,13,1
-33.608,64.2043,3.79792,29,9
-5.58666,10.6772,-2.34237,7,2
-33.3135,63.6958,6.28881,50,10
-5.75468,11.0077,-1.96732,50,3
-32.82,62.8055,8.70098,48,11
-6.58698,12.6105,-1.74688,7,4
-32.8115,62.8695,13.7848,31,13
-9.08166,17.4086,-1.02903,33,6
-9.26721,17.7718,-0.349851,72,7
-9.03465,17.3924,0.342102,74,8
-0.29006,0.558627,-0.145318,12,1
-32.9182,63.4242,3.74495,27,9
-4.73295,9.12299,-1.99777,4,2
-32.8855,63.4155,6.24976,50,10
-5.69268,10.9776,-1.95856,60,3
-32.6115,62.914,8.70098,48,11
-4.51867,8.72112,-1.20602,15,4
-8.70722,16.8195,-1.657,18,5
-8.92566,17.2488,-1.01783,56,6
-5.86399,11.3418,-0.222867,48,7
-9.06635,17.6034,0.345627,23,8
-0.280972,0.545775,-0.141719,13,1
-32.8155,63.7426,3.7573,28,9
-5.21561,10.1354,-2.21567,26,2
-32.7078,63.588,6.25604,50,10
-5.7013,11.0888,-1.97483,21,3
-4.47459,8.71036,-1.20236,63,4
-33.1926,64.6135,11.5051,25,12
-4.96095,9.66125,-0.950172,20,5
-8.98483,17.5126,-1.03154,56,6
-8.98908,17.5285,-0.343847,79,7
-9.29904,18.2032,0.356797,47,8
-0.272071,0.532819,-0.13812,13,1
-5.18734,10.1676,-2.21873,26,2
-4.86849,9.5467,-1.69731,52,3
-6.37879,12.5191,-1.72518,26,4
-6.1312,12.0435,-1.18235,27,5
-8.95388,17.5957,-1.03468,33,6
-8.96319,17.6293,-0.345209,31,7
-9.00053,17.7718,0.347722,25,8
-0.268449,0.530288,-0.13722,13,1
-36.1227,71.3559,4.19148,40,9
-5.2573,10.3897,-2.26338,19,2
-32.821,64.8901,6.36202,52,10
-4.7977,9.4896,-1.68417,66,3
-4.99697,9.89232,-1.36079,35,4
-6.06967,12.0211,-1.17817,27,5
-32.6585,64.709,14.0893,33,13
-6.03622,11.9652,-0.702349,42,6
-9.02982,17.9071,-0.35006,30,7
-8.92988,17.7783,0.347268,4,8
-0.275433,0.548591,-0.141719,13,1
-5.12857,10.2237,-2.22331,30,2
-4.77063,9.51428,-1.68574,63,3
-8.76818,17.5173,-1.71383,23,5
-8.76241,17.5134,-1.02631,37,6
-32.5319,65.0497,16.7912,53,14
-8.73926,17.4824,-0.34116,100,7
-0.273517,0.549549,-0.141719,13,1
-32.5972,65.523,3.83539,30,9
-5.32987,10.7135,-2.32596,27,2
-4.63804,9.33099,-1.65038,60,3
-4.40593,8.8718,-1.21626,48,4
-4.80682,9.68327,-0.945814,34,5
-8.6817,17.5045,-1.02401,48,6
-32.1315,64.8136,16.7013,52,14
-8.68439,17.5253,-0.341404,30,7
-8.92503,18.0823,0.35198,18,8
-0.252628,0.512053,-0.131821,14,1
-31.2393,63.3471,3.70162,26,9
-5.31502,10.7778,-2.33588,22,2
-4.59147,9.31877,-1.64538,57,3
-4.38546,8.9085,-1.21918,85,4
-4.76068,9.67497,-0.943374,30,5
-8.94394,18.1925,-1.06242,60,6
-8.54118,17.3886,-0.338158,94,7
-31.0086,63.3804,1.23162,23,8
-0.257688,0.526937,-0.135421,13,1
-30.9794,63.3768,3.69701,26,9
-4.21517,8.62327,-1.86573,23,2
-4.15928,8.51647,-1.50115,21,3
-4.59895,9.42507,-1.28767,31,4
-31.369,64.3159,11.3337,25,12
-4.77491,9.79002,-0.952961,32,5
-8.92413,18.3134,-1.06765,32,6
-4.89761,10.0594,-0.195292,100,7
-31.0001,63.9273,1.24013,23,8
-0.274546,0.566412,-0.145318,12,1
-30.7946,63.56,3.70141,26,9
-4.11827,8.50012,-1.83596,30,2
-32.4053,66.9143,6.50461,54,10
-4.11748,8.50604,-1.49677,65,3
-4.02757,8.32772,-1.13582,13,4
-30.9603,64.0444,11.2667,24,12
-8.17115,16.9028,-1.64254,39,5
-8.63864,17.8858,-1.04096,48,6
-30.2872,62.7638,-1.21643,45,7
-30.3932,63.2654,1.22512,23,8
-0.272469,0.567415,-0.145318,12,1
-30.6296,63.786,3.70832,26,9
-5.11162,10.6497,-2.2962,15,2
-31.953,66.6015,6.46277,54,10
-4.08286,8.51395,-1.49551,46,3
-30.9736,64.618,8.79848,48,11
-4.61198,9.62163,-1.3101,63,4
-4.75723,9.93355,-0.963594,12,5
-8.32562,17.4003,-1.01092,18,6
-30.1542,63.0496,-1.21992,46,7
-0.263884,0.554239,-0.141719,13,1
-4.55322,9.56748,-2.05959,2,2
-4.0775,8.57561,-1.50396,35,3
-4.54681,9.56695,-1.30059,39,4
-6.1241,12.8973,-1.24912,12,5
-8.30811,17.5126,-1.01584,90,6
-29.8747,63.001,-1.21706,45,7
-30.2855,64.1274,1.2379,23,8
-0.248734,0.526915,-0.134521,14,1
-27.568,58.426,3.38572,18,9
-4.49298,9.52216,-2.04662,30,2
-3.97071,8.42291,-1.47486,81,3
-30.7136,65.1811,8.84723,48,11
-4.51678,9.58995,-1.30156,34,4
-4.9679,10.5525,-1.02042,33,5
-8.31885,17.6865,-1.02432,30,6
-8.74125,18.6014,-0.358752,88,7
-26.7455,56.9403,16.8564,32,15
-30.0309,64.1675,1.23664,23,8
-0.256802,0.548962,-0.13992,13,1
-27.2404,58.2577,3.37044,17,9
-4.43643,9.48799,-2.03593,30,2
-3.93878,8.43135,-1.47393,72,3
-4.33971,9.29806,-1.25989,67,4
-29.919,64.1322,11.2085,24,12
-4.97231,10.6583,-1.02896,20,5
-8.60806,18.4685,-1.06786,40,6
-26.6358,57.1728,14.5615,35,14
-8.67289,18.6245,-0.358612,7,7
-26.5825,57.1104,16.8791,33,15
-0.249967,0.539247,-0.13722,13,1
-26.9059,58.0433,3.35285,17,9
-4.42722,9.55508,-2.047,38,2
-3.93753,8.506,-1.48456,36,3
-4.29806,9.29333,-1.2572,66,4
-5.95335,12.8783,-1.24127,20,5
-8.55192,18.5165,-1.06891,20,6
-29.749,64.4419,-1.23891,48,7
-26.393,57.1982,16.8791,33,15
-0.251432,0.547156,-0.13902,13,1
-26.3113,57.2839,3.30366,15,9
-4.32175,9.41346,-2.01342,73,2
-3.96451,8.6393,-1.50553,60,3
-4.43185,9.66662,-1.30571,75,4
-26.5291,57.8911,10.086,18,12
-26.2558,57.374,14.5669,35,14
-29.3625,64.1926,-1.23214,47,7
-29.2327,64.1749,1.23092,23,8
-0.255981,0.562219,-0.142619,13,1
-26.0334,57.2045,3.29382,15,9
-3.87089,8.5057,-1.8165,19,2
-26.1464,57.4794,5.52463,36,10
-4.2213,9.28426,-1.61534,53,3
-4.42435,9.73987,-1.31351,49,4
-4.99902,11.0101,-1.0579,26,5
-4.43891,9.78553,-0.563135,13,6
-28.9666,63.9158,-1.22488,46,7
-0.238495,0.528209,-0.155291,12,0
-4.67311,10.3546,0.198294,40,8
-0.247606,0.548898,-0.13902,13,1
-25.8451,57.3205,3.29528,15,9
-3.85409,8.54779,-1.82261,11,2
-25.9636,57.6103,5.52846,36,10
-4.18887,9.29894,-1.61534,43,3
-26.2862,58.3803,7.8613,48,11
-4.38137,9.73534,-1.31083,20,4
-31.4193,69.8459,12.1302,28,12
-4.94258,10.9875,-1.05406,19,5
-26.0658,57.9719,12.3553,24,13
-23.011,51.2018,-2.94191,17,6
-27.4819,61.2072,-1.17113,41,7
-4.58225,10.2485,0.195956,55,8
-0.245689,0.549759,-0.13902,13,1
-4.30066,9.62776,-2.04967,38,2
-4.14431,9.28645,-1.61065,48,3
-4.46874,10.0181,-1.3469,45,4
-26.0699,58.4715,10.1398,19,12
-25.8233,57.9729,12.3362,24,13
-4.40948,9.90386,-0.568159,37,6
-4.33183,9.73401,-0.185973,82,7
-4.60252,10.3862,0.198294,97,8
-0.245443,0.554134,-0.13992,13,1
-4.1789,9.43911,-2.00655,52,2
-25.3532,57.2937,5.4814,35,10
-4.40355,9.95592,-1.72422,76,3
-25.9283,58.6487,7.87349,48,11
-5.52551,12.4984,-1.6779,31,4
-4.72278,10.6928,-1.02269,54,5
-4.32501,9.80148,-0.56146,100,6
-4.29549,9.73918,-0.185798,48,7
-25.682,58.2564,17.0593,34,15
-4.56001,10.3831,0.197945,28,8
-0.248304,0.565651,-0.142619,13,1
-25.0918,57.1878,3.27288,14,9
-4.13574,9.42595,-2.00082,33,2
-24.8558,56.6768,5.41446,34,10
-4.18017,9.53626,-1.64913,40,3
-26.0507,59.458,7.9705,48,11
-4.18545,9.55735,-1.28109,66,4
-25.9088,59.2185,12.5644,25,13
-4.23007,9.67303,-0.553296,100,6
-25.6983,58.7932,14.8135,37,14
-25.4646,58.3138,17.05,34,15
-4.47827,10.2944,0.195956,51,8
-0.233895,0.537921,-0.135421,13,1
-4.04725,9.31249,-1.97373,45,2
-4.41685,10.1678,0.969869,17,10
-4.11618,9.48013,-1.63693,41,3
-25.6075,59.0059,7.89786,48,11
-4.1173,9.49178,-1.27037,66,4
-25.4429,58.6825,10.1304,19,12
-4.55637,10.509,-1.00212,34,5
-4.27566,9.87101,-0.563763,100,6
-4.27346,9.87537,-0.187823,21,7
-4.43282,10.2879,0.195537,100,8
-0.23664,0.549473,-0.13812,13,1
-3.9666,9.21476,-1.95007,28,2
-4.38118,10.1876,-1.75645,36,3
-4.0763,9.48785,-1.26793,88,4
-4.51337,10.5102,-1.00072,53,5
-4.18212,9.74822,-0.555913,52,6
-4.20128,9.79759,-0.186078,37,7
-4.4026,10.3118,0.195711,73,8
-0.233287,0.54667,-0.13722,13,1
-24.2884,56.9434,3.24441,14,9
-4.00447,9.39289,-1.9848,26,2
-4.35122,10.2112,0.971089,21,10
-4.41474,10.3602,-1.78367,72,3
-4.02693,9.45931,-1.26232,42,4
-4.44936,10.4617,-0.994621,51,5
-4.25838,10.0175,-0.570462,64,6
-28.594,67.2979,16.8812,54,14
-4.16862,9.81588,-0.186147,45,7
-4.35723,10.305,0.195292,16,8
-0.234412,0.554661,-0.13902,13,1
-3.95115,9.35367,-1.97373,52,2
-4.33129,10.2586,0.974227,46,10
-4.50604,10.6777,-1.8356,43,3
-23.8475,56.5375,7.53421,48,11
-3.97153,9.42026,-1.25525,85,4
-4.32697,10.2734,-0.975273,21,5
-4.15054,9.85929,-0.560623,91,6
-4.18395,9.94834,-0.188381,27,7
-4.34672,10.381,0.196444,13,8
-0.236988,0.566262,-0.141719,13,1
-4.26536,10.1967,0.579254,48,9
-3.90472,9.33911,-1.96762,38,2
-4.42728,10.5993,-1.81933,63,3
-23.7204,56.7889,7.55663,48,11
-3.94703,9.45422,-1.25794,46,4
-4.12897,9.90947,-0.562612,77,6
-4.13843,9.93705,-0.187893,25,7
-0.221973,0.535362,-0.155291,12,0
-0.236403,0.570727,-0.142619,13,1
-3.84957,9.29826,-1.95617,35,2
-23.3084,56.327,5.33323,32,10
-4.38271,10.5965,-1.8162,12,3
-3.73655,9.03866,-1.2009,55,4
-24.6017,59.5405,10.2036,19,12
-3.95398,9.57409,-0.906245,46,5
-4.02275,9.75027,-0.552772,87,6
-4.33776,10.519,-0.198608,29,7
-4.25136,10.3556,0.195397,70,8
-0.234509,0.571508,-0.142619,13,1
-3.85447,9.39817,-1.97449,38,2
-23.2152,56.6326,5.35485,33,10
-5.06577,12.3639,-2.11625,22,3
-4.13461,10.0963,1.33959,31,11
-3.69527,9.02345,-1.19724,16,4
-24.4071,59.6291,10.2048,19,12
-3.91768,9.57609,-0.9052,67,5
-26.2555,64.209,13.4841,30,13
-3.98964,9.76171,-0.552668,100,6
-4.12514,10.0983,-0.190406,40,7
-0.225275,0.554229,-0.13812,13,1
-4.16013,10.24,0.579254,6,9
-3.93412,9.68373,-2.03173,52,2
-22.8803,56.3475,5.32068,32,10
-4.10633,10.1228,1.34129,3,11
-3.8889,9.59641,-0.905897,46,5
-3.958,9.77673,-0.552772,100,6
-4.02539,9.95318,-0.187404,32,7
-4.02768,10.004,0.188242,37,8
-0.230613,0.573091,-0.142619,13,1
-3.93986,9.79576,-2.05234,38,2
-3.70298,9.2161,-1.57311,15,3
-4.07097,10.1371,1.34129,3,11
-3.89321,9.69933,-1.28328,35,4
-31.0893,77.4935,13.2247,38,12
-4.10908,10.2423,-0.965511,34,5
-3.93277,9.81274,-0.554029,100,6
-4.03819,10.086,-0.189638,44,7
-3.99273,10.018,0.188242,77,8
-0.232939,0.584755,-0.145318,12,1
-4.17424,10.4841,0.591396,78,9
-4.20557,10.5628,-2.20995,14,2
-4.04437,10.1631,0.95697,46,10
-23.4103,58.8874,7.78087,48,11
-3.97661,10.008,-1.32228,49,4
-4.04022,10.1733,-0.957667,36,5
-3.939,9.92851,-0.559785,100,6
-3.99928,10.0907,-0.189463,47,7
-3.95627,10.0282,0.188172,53,8
-0.230896,0.585564,-0.145318,12,1
-4.02411,10.2106,0.575172,61,9
-3.6691,9.30978,-1.94511,30,2
-4.00084,10.1567,0.955053,53,10
-3.62046,9.19577,-1.56528,47,3
-3.80578,9.6764,-1.2767,78,4
-4.15703,10.5749,-0.994098,23,5
-25.5745,65.0911,13.594,30,13
-3.92037,9.9831,-0.562088,87,6
-4.03852,10.2945,-0.193024,25,7
-3.84486,9.84633,0.184507,63,8
-0.21468,0.550059,-0.13632,13,1
-3.648,9.35179,-1.95121,14,2
-3.872,9.93116,0.932566,68,10
-3.66365,9.40161,-1.59813,81,3
-3.76694,9.67667,-1.275,71,4
-25.4356,65.3737,11.1103,23,12
-3.84716,9.89806,-0.556541,100,6
-3.9765,10.2414,-0.191767,23,7
-3.80543,9.84663,0.184263,61,8
-0.214163,0.554441,-0.13722,13,1
-3.80907,9.8663,-2.05578,11,2
-3.8244,9.91116,0.929429,93,10
-3.62157,9.39038,-1.59407,38,3
-25.2742,65.5677,8.62811,48,11
-3.84397,9.98262,-0.935878,48,5
-3.8176,9.92448,-0.557273,100,6
-4.18819,10.8992,-0.203809,100,7
-3.81706,9.97499,0.186427,11,8
-0.213716,0.558788,-0.13812,13,1
-3.72763,9.75149,0.54712,14,9
-3.62982,9.49561,-1.97602,64,2
-4.0548,10.6185,-1.80025,33,3
-3.94579,10.3438,-1.35933,1,4
-3.78742,9.93388,-0.930126,66,5
-3.76548,9.88669,-0.554447,80,6
-3.85266,10.1262,-0.189114,53,7
-0.205331,0.541963,-0.155291,12,0
-3.99608,10.553,0.196968,10,8
-0.213144,0.563176,-0.13902,13,1
-3.65083,9.65145,-2.00578,100,2
-3.76145,9.95439,-1.68543,76,3
-3.91597,10.3742,-1.36152,44,4
-3.69927,9.80536,-0.916878,63,5
-3.75067,9.9521,-0.557378,100,6
-4.15336,11.0323,-0.205764,100,7
-4.15497,11.0894,0.206706,1,8
-0.215277,0.574867,-0.141719,13,1
-21.876,58.4167,3.26911,14,9
-3.55862,9.50784,-1.97335,76,2
-21.7143,58.0467,5.42213,34,10
-3.69762,9.88975,-1.67228,67,3
-3.90682,10.4604,-1.37103,49,4
-3.57583,9.57929,-0.894567,76,5
-3.75847,10.0793,-0.563763,100,6
-3.94915,10.5963,-0.197387,20,7
-21.449,57.829,1.0766,16,8
-0.206596,0.557305,-0.13722,13,1
-3.55677,9.6049,-1.9909,76,2
-21.4908,58.0661,5.4169,34,10
-3.68195,9.94827,-1.68011,32,3
-21.4427,57.967,7.5888,48,11
-3.86247,10.4472,-1.36762,42,4
-3.57275,9.67395,-0.902236,35,5
-0.203307,0.554364,-0.13632,13,1
-19.7641,53.8914,3.00827,10,9
-3.60598,9.83784,-2.0367,59,2
-3.83252,10.4615,0.97475,19,10
-3.63633,9.93138,-1.6751,22,3
-21.1883,57.8998,7.57028,48,11
-3.52423,9.64084,-0.898053,52,5
-0.197839,0.544742,-0.155291,12,0
-22.1648,61.0298,1.13336,19,8
-0.208117,0.573353,-0.140819,13,1
-3.44781,9.50892,-1.9661,40,2
-19.3451,53.382,4.96753,27,10
-4.83502,13.342,-2.24765,10,3
-19.4995,53.8375,7.03064,42,11
-3.94532,10.8988,-1.42319,41,4
-3.51088,9.70929,-0.903282,56,5
-3.64267,10.0793,-0.56167,30,6
-3.90298,10.8113,-0.200633,31,7
-4.13613,11.5138,0.213548,22,8
-0.208748,0.581412,-0.142619,13,1
-19.3928,54.0134,3.00764,10,9
-3.7425,10.4295,-2.15385,73,2
-19.1828,53.4871,4.97136,27,10
-20.6893,57.7512,7.53226,48,11
-3.81625,10.6584,-1.39004,49,4
-3.5317,9.86907,-0.917053,15,5
-3.71973,10.406,-0.57915,50,6
-4.23511,11.8543,-0.219726,100,7
-0.194127,0.546076,-0.155291,12,0
-4.02759,11.3296,0.209883,30,8
-0.210734,0.593119,-0.145318,12,1
-19.299,54.348,3.02251,10,9
-3.67127,10.3444,-2.13363,28,2
-20.5026,57.8012,5.36566,33,10
-3.59967,10.1483,-1.70545,55,3
-3.95259,11.1556,-1.45317,35,4
-20.8125,58.7726,9.87508,17,12
-3.68055,10.4051,-0.578417,13,6
-4.11709,11.6522,-0.215712,100,7
-0.192315,0.546717,-0.155291,12,0
-3.99996,11.3775,0.210511,7,8
-0.199618,0.568111,-0.13902,13,1
-3.62524,10.3232,-2.12676,45,2
-18.9199,53.9059,4.99821,27,10
-3.57534,10.1925,-1.71077,66,3
-4.07445,11.6283,-1.51289,19,4
-20.585,58.7815,9.86445,17,12
-3.60141,10.284,-0.95331,16,5
-20.6683,59.0525,12.1614,23,13
-3.65212,10.4405,-0.579673,3,6
-3.44053,9.84664,-0.182064,23,7
-0.190406,0.547385,-0.155291,12,0
-0.201471,0.579849,-0.141719,13,1
-18.8589,54.3078,3.01288,10,9
-3.54797,10.2171,-2.10233,40,2
-18.8034,54.1787,5.01738,27,10
-4.56774,13.1686,-2.2076,22,3
-20.1807,58.2125,7.56492,48,11
-3.40605,9.83053,-1.27743,20,4
-20.1612,58.2221,9.7587,17,12
-3.587,10.3587,-0.959062,4,5
-3.94927,11.4177,-0.63316,52,6
-24.2079,70.0268,17.1057,56,14
-3.38786,9.80566,-0.181086,29,7
-0.188494,0.548046,-0.155291,12,0
-3.90028,11.3465,0.209429,70,8
-0.19818,0.576863,-0.140819,13,1
-18.4357,53.6933,2.97519,10,9
-3.50973,10.222,-2.10081,42,2
-18.5741,54.1272,5.00657,27,10
-3.2907,9.59495,-1.60658,25,3
-20.0044,58.3615,7.57516,48,11
-4.00604,11.694,-1.51776,36,4
-20.3725,59.5031,9.96143,18,12
-3.42194,10.0004,-0.924722,60,5
-20.2607,59.2102,12.1645,23,13
-3.33484,9.75139,-0.540107,94,6
-20.154,58.9657,14.3865,33,14
-3.36395,9.84771,-0.181645,28,7
-0.164106,0.482885,-0.136656,14,0
-3.5962,10.5819,0.195083,96,8
-0.196165,0.577551,-0.140819,13,1
-18.2905,53.8821,2.9821,10,9
-3.47414,10.2403,-2.10195,45,2
-18.3577,54.142,5.00169,27,10
-3.34363,9.867,-1.65007,67,3
-19.624,57.9102,7.50764,48,11
-3.68502,10.8807,-1.41052,63,4
-19.81,58.526,9.78623,17,12
-3.38701,10.0123,-0.924722,60,5
-19.9668,59.0572,12.1179,23,13
-3.29396,9.74841,-0.53927,91,6
-3.32379,9.84234,-0.181331,72,7
-0.168571,0.501768,-0.141833,14,0
-3.55675,10.5931,0.195048,60,8
-0.197766,0.589351,-0.143519,12,1
-18.1392,54.0555,2.98817,10,9
-3.50828,10.4609,-2.14469,38,2
-18.1483,54.1454,4.99612,27,10
-3.19498,9.53771,-1.59313,82,3
-19.3486,57.7934,7.48327,48,11
-19.5617,58.4637,9.76433,17,12
-3.3432,9.99756,-0.922282,43,5
-19.707,58.9664,12.0851,23,13
-3.29472,9.86403,-0.545027,28,6
-3.37173,10.1005,-0.185868,100,7
-0.166906,0.502324,-0.141833,14,0
-3.52098,10.603,0.195013,11,8
-0.192128,0.578907,-0.140819,13,1
-19.2709,58.0657,3.20631,13,9
-3.1905,9.619,-1.96991,73,2
-19.2012,57.9233,5.33881,33,10
-3.16147,9.54263,-1.59219,90,3
-19.1544,57.8498,7.48229,48,11
-3.72942,11.2635,-1.45683,48,4
-19.4422,58.7533,9.80187,17,12
-3.30252,9.98589,-0.92019,46,5
-18.6858,56.5336,11.5737,20,13
-3.79397,11.4921,-0.211244,33,7
-0.168858,0.513887,-0.144939,14,0
-3.50701,10.6792,0.1962,57,8
-0.195676,0.596205,-0.144868,25,1
-3.23323,9.85711,-2.01647,30,2
-19.0462,58.1003,5.34927,33,10
-3.12919,9.55118,-1.59188,57,3
-18.9414,57.8488,7.474,48,11
-3.68638,11.2652,-1.45536,42,4
-3.66761,11.2144,-1.03227,31,5
-18.331,56.0839,11.4691,19,13
-3.55667,10.8881,-0.600293,50,6
-19.2786,59.0528,14.3415,33,14
-3.30414,10.127,-0.185938,82,7
-0.15513,0.477725,-0.134586,15,0
-3.43144,10.5734,0.194036,77,8
-0.186981,0.576494,-0.13992,13,1
-20.858,64.347,3.54503,22,9
-3.31625,10.2307,-2.0905,28,2
-18.8175,58.0868,5.34195,33,10
-3.09462,9.55829,-1.59125,51,3
-18.4888,57.1402,7.37407,48,11
-3.73926,11.5632,-1.49217,18,4
-18.1519,56.1659,9.34884,15,12
-3.65479,11.3087,-1.03977,47,5
-18.1798,56.2858,11.4974,20,13
-3.53337,10.9461,-0.602806,87,6
-19.0724,59.1197,14.3415,33,14
-3.24668,10.0699,-0.184681,44,7
-19.0626,59.1601,16.6545,31,15
-0.154642,0.481943,-0.135621,15,0
-3.43298,10.7053,0.196235,15,8
-0.189725,0.591989,-0.143519,12,1
-3.07751,9.60834,-1.96114,28,2
-16.2214,50.6758,4.65516,22,10
-3.04377,9.51447,-1.58218,60,3
-18.0475,56.4481,7.27658,47,11
-3.21612,10.0653,-1.29742,1,4
-3.57468,11.1942,-1.02809,42,5
-17.8639,55.9748,11.4211,19,13
-3.25724,10.2124,-0.561774,100,6
-18.8588,59.1636,14.3361,33,14
-3.21576,10.0945,-0.184926,41,7
-18.8395,59.1747,16.64,31,15
-0.151791,0.478797,-0.134586,15,0
-3.41612,10.782,0.197422,62,8
-0.190011,0.600079,-0.145318,12,1
-16.8012,53.0926,2.91846,9,9
-3.04513,9.62277,-1.9619,28,2
-16.0192,50.6523,4.64784,45,10
-3.01055,9.52504,-1.58218,56,3
-17.7487,56.1889,7.23514,46,11
-3.16543,10.0273,-1.29108,42,4
-18.3822,58.2655,9.67672,16,12
-3.48523,11.047,-1.01345,20,5
-17.6825,56.0818,11.4302,19,13
-3.16335,10.039,-0.551621,100,6
-18.665,59.27,14.346,33,14
-3.58512,11.3913,-0.208452,37,7
-0.144345,0.460888,-0.12941,15,0
-3.37369,10.7786,0.197142,11,8
-0.183261,0.585859,-0.141719,13,1
-16.6203,53.1328,2.91763,9,9
-3.0455,9.74202,-1.98403,30,2
-15.8732,50.8068,4.65691,22,10
-3.75207,12.0169,-1.99391,17,3
-17.4424,55.8981,7.1898,45,11
-3.17356,10.1766,-1.30888,31,4
-3.46681,11.1238,-1.01937,24,5
-17.531,56.2856,11.4592,19,13
-3.09267,9.93551,-0.545341,100,6
-18.5101,59.5023,14.3865,33,14
-0.159864,0.516756,-0.144939,14,0
-3.33852,10.7917,0.197177,6,8
-0.173258,0.560399,-0.135421,13,1
-16.0739,52.0226,2.85357,9,9
-2.99815,9.70945,-1.97525,52,2
-15.7663,51.0904,4.67782,23,10
-3.13495,10.1588,-1.68386,32,3
-15.606,50.6025,6.50197,31,11
-3.55901,11.5472,-1.48364,49,4
-15.6092,50.6755,8.39834,26,12
-3.35585,10.9016,-0.997933,46,5
-17.4309,56.6249,11.5165,20,13
-3.14779,10.2321,-0.561041,100,6
-18.299,59.5186,14.3757,33,14
-3.03999,9.89392,-0.180667,99,7
-0.169446,0.554232,-0.155291,12,0
-0.179269,0.587093,-0.141719,13,1
-15.9129,52.1139,2.85566,9,9
-3.00834,9.85829,-2.00349,40,2
-3.09256,10.147,-1.68011,18,3
-15.4027,50.5693,6.49076,31,11
-3.0227,9.92396,-1.27378,67,4
-15.532,51.0256,8.44777,13,12
-3.34346,10.9908,-1.00508,29,5
-3.04703,10.029,-0.549318,100,6
-19.0756,62.8641,17.6028,38,15
-0.139673,0.462325,-0.12941,15,0
-15.4163,51.0614,0.931016,12,8
-0.185201,0.613804,-0.148018,12,1
-15.7227,52.109,2.85252,9,9
-2.93255,9.72536,-1.97449,59,2
-15.402,51.1752,6.56193,33,11
-3.00007,9.96815,-1.27817,64,4
-15.3388,50.9974,8.43463,26,12
-3.26627,10.8664,-0.992704,59,5
-17.75,59.0888,11.9927,22,13
-2.97183,9.89936,-0.541677,66,6
-18.8126,62.666,15.1055,39,14
-3.44206,11.473,-0.20908,100,7
-0.165766,0.555343,-0.155291,12,0
-0.179268,0.601342,-0.144868,12,1
-2.89917,9.73127,-1.97373,57,2
-2.92379,9.82645,-1.62379,57,3
-15.1869,51.0737,6.54243,32,11
-2.97209,9.99517,-1.28036,55,4
-15.1471,50.9722,8.42212,13,12
-3.26085,10.9803,-1.00212,38,5
-17.5115,59.0043,11.9637,22,13
-2.89469,9.7598,-0.533513,100,6
-3.08917,10.4222,-0.189743,18,7
-0.163924,0.55589,-0.155291,12,0
-15.0248,50.9841,0.92777,25,8
-0.173969,0.590717,-0.142169,13,1
-15.1059,51.2925,2.80228,9,9
-2.863,9.72764,-1.97106,45,2
-15.1266,51.4288,4.69002,23,10
-2.9118,9.90622,-1.63537,67,3
-14.8295,50.4839,6.46054,31,11
-3.01782,10.2735,-1.31473,11,4
-15.5889,53.1033,8.76565,13,12
-3.17562,10.8247,-0.986952,59,5
-18.7375,63.9113,12.946,27,13
-2.87635,9.81727,-0.53613,100,6
-3.05627,10.4381,-0.189847,83,7
-0.161788,0.556515,-0.155291,12,0
-14.8083,50.9704,0.926478,12,8
-0.17496,0.602609,-0.144868,12,1
-14.7307,50.7363,2.76878,8,9
-2.86447,9.87244,-1.99815,83,2
-16.4704,56.8024,5.17426,30,10
-2.92048,10.0786,-1.66196,36,3
-2.89102,9.98999,-1.27695,68,4
-14.8632,51.3601,8.46842,13,12
-3.12075,10.7909,-0.982768,65,5
-18.5115,64.0507,12.9597,27,13
-2.85194,9.87429,-0.538642,42,6
-0.159845,0.557077,-0.155291,12,0
-14.5035,50.5464,0.917892,12,8
-0.177258,0.618172,-0.148468,12,1
-14.4192,50.319,2.74324,8,9
-2.86783,10.0145,-2.02487,47,2
-16.3816,57.2427,5.20912,30,10
-2.90117,10.1376,-1.67009,70,3
-2.84424,9.9518,-1.27085,59,4
-15.2469,53.3833,8.79318,14,12
-3.10002,10.8611,-0.988172,53,5
-3.24539,11.378,-0.620076,87,6
-3.34618,11.7468,-0.213199,30,7
-18.1982,63.9275,17.8099,40,15
-0.157996,0.557604,-0.155291,12,0
-0.174038,0.615037,-0.147568,12,1
-14.8657,52.5343,2.86131,9,9
-2.80095,9.90493,-2.00082,80,2
-15.2327,53.903,4.90059,26,10
-2.86469,10.1439,-1.66947,60,3
-2.83158,10.04,-1.28085,24,4
-15.0913,53.5096,8.8057,14,12
-3.08993,10.9634,-0.996539,17,5
-17.9229,63.6348,12.8506,26,13
-3.1786,11.2931,-0.614843,74,6
-18.0063,64.0166,15.3529,41,14
-3.23411,11.498,-0.208486,31,7
-0.156049,0.558152,-0.155291,12,0
-14.7018,52.5852,0.953076,13,8
-0.163607,0.585581,-0.140369,13,1
-16.0508,57.4874,3.12802,11,9
-2.76741,9.91843,-2.00159,28,2
-14.8957,53.4223,4.85213,25,10
-2.82148,10.1191,-1.66384,62,3
-15.1878,54.5067,6.94753,40,11
-2.8824,10.3515,-1.31936,55,4
-16.9241,60.8203,9.99898,18,12
-3.03456,10.9127,-0.990961,17,5
-17.7297,63.7582,12.8636,27,13
-3.14113,11.3036,-0.614843,100,6
-3.34903,12.068,-0.218609,100,7
-0.154197,0.558666,-0.155291,12,0
-14.4905,52.5359,0.951261,13,8
-0.171919,0.623722,-0.149367,12,1
-14.488,52.5983,2.85922,9,9
-2.72825,9.90484,-1.99701,61,2
-14.7449,53.5675,4.86085,25,10
-2.77672,10.0946,-1.65821,52,3
-2.80681,10.2179,-1.30108,66,4
-16.513,60.1551,9.88009,17,12
-2.99539,10.9194,-0.990612,23,5
-3.1168,11.3853,-0.206043,32,7
-0.152149,0.559228,-0.155291,12,0
-14.3018,52.5669,0.950912,13,8
-0.164628,0.605514,-0.144868,12,1
-14.3148,52.6871,2.86131,9,9
-2.44655,9.01101,-1.81498,35,2
-14.5172,53.5058,4.85039,25,10
-2.68697,9.91021,-1.62629,66,3
-2.78567,10.2813,-1.3079,53,4
-2.94217,10.874,-0.985557,25,5
-17.1592,63.4627,12.7789,26,13
-2.94098,10.8922,-0.196933,35,7
-0.150195,0.559755,-0.155291,12,0
-0.157364,0.58729,-0.140369,13,1
-3.1636,11.8067,0.640592,2,9
-2.70808,10.1138,-2.03517,9,2
-14.286,53.3906,4.8354,25,10
-2.72839,10.2039,-1.67291,46,3
-13.839,51.7924,6.58241,33,11
-2.77231,10.3754,-1.31863,56,4
-16.907,63.3187,10.3801,20,12
-2.9913,11.2264,-0.608877,37,6
-19.427,72.9095,17.4198,58,14
-2.9117,10.9353,-0.197526,22,7
-0.148338,0.56025,-0.155291,12,0
-14.6956,55.542,1.00285,14,8
-0.164382,0.62172,-0.148468,12,1
-2.58777,9.7943,-1.96915,33,2
-13.7864,52.2164,4.72489,23,10
-2.72075,10.3122,-1.68918,52,3
-13.6328,51.7075,6.56583,33,11
-2.84922,10.8068,-1.37225,52,4
-2.87237,10.9333,-0.197317,100,7
-0.14648,0.560739,-0.155291,12,0
-3.06883,11.7562,0.212082,41,8
-0.158384,0.607177,-0.144868,12,1
-2.5523,9.79143,-1.96686,71,2
-13.2767,50.97,4.6081,22,10
-13.4822,51.8331,6.57607,33,11
-2.81597,10.834,-1.37444,33,4
-3.91334,15.0666,-1.3619,55,5
-16.652,64.1576,12.8842,27,13
-2.93095,11.3168,-0.204054,100,7
-0.144521,0.561247,-0.155291,12,0
-3.02828,11.7688,0.212117,58,8
-0.152381,0.592627,-0.141269,13,1
-13.0855,50.9276,2.7557,17,9
-2.50443,9.74704,-1.95617,66,2
-13.0828,50.9543,4.60252,21,10
-13.2953,51.8567,6.57315,33,11
-2.6604,10.3841,-1.31619,19,4
-13.146,51.3492,8.39521,13,12
-3.13977,12.2641,-1.10758,16,5
-13.0493,51.0828,12.1721,22,14
-2.89687,11.3483,-0.204437,20,7
-16.0113,62.7689,17.3574,36,15
-0.142562,0.561748,-0.155291,12,0
-0.14361,0.566709,-0.134971,14,1
-12.9994,51.2979,2.77339,9,9
-2.47232,9.76333,-1.9577,78,2
-13.2382,52.317,4.7214,23,10
-2.54613,10.0696,-1.64507,30,3
-12.8195,50.7365,6.42544,30,11
-12.8528,50.9061,8.31574,25,12
-2.72943,10.8184,-0.976144,2,5
-12.8586,51.0036,10.2243,14,13
-2.70305,10.7296,-0.579882,100,6
-12.8719,51.1318,12.173,22,14
-2.86996,11.4005,-0.205205,26,7
-0.1406,0.562242,-0.155291,12,0
-0.144564,0.578526,-0.13767,13,1
-2.94863,11.8087,0.637871,0,9
-2.42586,9.72238,-1.94778,52,2
-12.8319,51.4658,4.64052,22,10
-2.47545,9.9285,-1.62066,70,3
-12.6723,50.8635,6.43616,30,11
-2.52731,10.1516,-1.2845,52,4
-12.7485,51.2458,8.36393,25,12
-2.67003,10.7408,-0.9683,14,5
-12.7509,51.2936,10.2739,14,13
-2.70067,10.8722,-0.587105,97,6
-15.5115,62.492,14.8652,37,14
-2.90188,11.6997,-0.210406,48,7
-0.138735,0.562705,-0.155291,12,0
-2.91219,11.8207,0.2125,13,8
-0.152793,0.620656,-0.147568,12,1
-2.5465,10.3519,-2.07219,73,2
-12.7106,51.7093,4.65865,22,10
-2.56188,10.4301,-1.70107,37,3
-12.4899,50.8882,6.43373,30,11
-2.47909,10.1083,-1.27792,57,4
-12.6053,51.4358,8.3877,13,12
-2.65194,10.8212,-0.97475,8,5
-2.6252,10.7283,-0.578836,100,6
-2.87621,11.7719,-0.211523,67,7
-0.136769,0.563186,-0.155291,12,0
-12.4924,51.4799,0.924663,12,8
-0.145114,0.59846,-0.142169,13,1
-2.86799,11.8368,0.638289,41,9
-2.50037,10.3353,-1.68417,86,3
-12.3467,51.0742,6.45176,30,11
-2.496,10.333,-1.30522,70,4
-12.3015,50.9649,8.30385,12,12
-2.59405,10.7471,-0.967254,53,5
-12.3502,51.2058,10.2388,14,13
-2.59663,10.7743,-0.580824,81,6
-15.3504,63.7431,15.137,40,14
-2.8379,11.7935,-0.211733,67,7
-0.134803,0.56366,-0.155291,12,0
-2.85377,11.9419,0.214316,6,8
-0.151624,0.634976,-0.150717,11,1
-2.42085,10.146,-2.02754,80,2
-12.3308,51.7193,4.65168,22,10
-2.45283,10.2959,-1.67635,82,3
-12.107,50.9383,8.29259,25,12
-2.57679,10.8414,-0.974924,53,5
-15.0901,63.5384,12.6941,26,13
-2.55808,10.7794,-0.580615,74,6
-2.79949,11.815,-0.211942,100,7
-0.132834,0.564127,-0.155291,12,0
-2.73696,11.6325,0.208591,26,8
-0.141379,0.601355,-0.142619,13,1
-11.9592,50.9084,2.74062,17,9
-2.25252,9.58862,-1.91458,47,2
-14.6689,62.4923,5.61597,38,10
-2.41734,10.3063,-1.67666,65,3
-2.24501,9.5867,-1.20894,6,4
-12.048,51.4881,8.37519,25,12
-14.6269,62.5583,12.4881,25,13
-2.58269,11.0547,-0.594955,100,6
-2.4775,10.6212,-0.190371,37,7
-0.130865,0.564587,-0.155291,12,0
-0.144551,0.624628,-0.148018,12,1
-12.2249,52.8255,2.84163,18,9
-2.21506,9.57921,-1.91114,30,2
-12.1489,52.5806,4.7214,23,10
-2.3178,10.0395,-1.63192,15,3
-2.21198,9.59641,-1.20919,26,4
-11.7849,51.1273,8.31011,12,12
-14.404,62.5899,12.4843,25,13
-2.5508,11.0929,-0.596525,100,6
-2.28375,9.93946,-0.178015,88,7
-0.117722,0.516071,-0.141833,14,0
-12.1736,53.3668,0.955449,13,8
-0.147676,0.647904,-0.153417,11,1
-11.9127,52.307,2.81149,9,9
-2.22996,9.79938,-1.9535,49,2
-11.8769,52.2341,4.68654,23,10
-2.29369,10.0876,-1.63849,12,3
-2.399,10.5677,-1.33057,53,4
-2.38474,10.5219,-0.943897,50,5
-14.4437,63.7287,12.7018,26,13
-2.4968,11.0253,-0.592443,40,6
-11.3158,50.0489,-0.895658,45,7
-0.11601,0.516458,-0.141833,14,0
-0.136032,0.606582,-0.143519,12,1
-13.4209,59.8945,3.21678,13,9
-2.06352,9.209,-1.83444,21,2
-11.8677,53.0932,6.6799,35,11
-2.35473,10.5431,-1.32643,59,4
-2.38758,10.699,-0.959062,28,5
-14.2314,63.8247,12.7109,26,13
-2.69718,12.1062,-0.650013,74,6
-2.37104,10.6598,-0.190615,55,7
-0.125044,0.565905,-0.155291,12,0
-11.5145,52.1539,0.932273,12,8
-0.129716,0.588023,-0.13902,13,1
-13.2334,60.089,5.38309,33,10
-2.32431,10.5804,-1.33008,34,4
-2.13237,9.71474,-0.870163,35,5
-13.9942,63.8088,12.698,26,13
-2.3783,10.8532,-0.58229,81,6
-2.35347,10.7579,-0.192221,100,7
-0.114863,0.528582,-0.144939,14,0
-11.228,51.7131,0.923686,12,8
-0.127663,0.588472,-0.13902,13,1
-11.448,52.7704,2.82991,9,9
-2.0965,9.67216,-1.92374,28,2
-11.1767,51.6944,6.49393,31,11
-2.07317,9.58877,-1.20456,13,4
-2.1161,9.80392,-0.877484,15,5
-13.7507,63.7613,12.6789,26,13
-2.33703,10.8458,-0.581453,100,6
-2.572,11.9464,-0.213303,100,7
-0.105838,0.494956,-0.135621,15,0
-11.0423,51.6835,0.922499,12,8
-0.128151,0.600327,-0.141719,13,1
-12.4812,58.4686,3.13325,11,9
-1.95016,9.14336,-1.81726,28,2
-13.1214,61.5729,5.50789,36,10
-2.40657,11.3026,-1.83028,56,3
-13.3696,62.8451,7.88909,48,11
-2.04508,9.61307,-1.20675,55,4
-3.14358,14.8021,-1.3239,18,5
-2.31845,10.9356,-0.585849,47,6
-2.14573,10.1297,-0.180737,22,7
-0.107378,0.510428,-0.139762,14,0
-0.127762,0.608378,-0.143519,12,1
-12.2052,58.1188,3.11231,11,9
-1.93675,9.23048,-1.83329,35,2
-12.8084,61.0974,5.46153,35,10
-2.13743,10.2046,-1.65132,25,3
-2.01888,9.647,-1.21016,41,4
-2.17897,10.4301,-0.932218,22,5
-2.28299,10.9471,-0.586058,70,6
-2.11703,10.1602,-0.181156,45,7
-0.105685,0.510781,-0.139762,14,0
-11.9307,57.7127,1.02868,14,8
-0.128897,0.624066,-0.147118,12,1
-11.5195,55.7726,2.98462,10,9
-1.83392,8.88691,-1.76384,19,2
-12.4786,60.5229,5.40645,34,10
-12.8669,62.5163,7.83693,48,11
-1.98768,9.65753,-1.21065,92,4
-2.04453,9.95134,-0.888814,38,5
-2.12828,10.3866,-0.185065,31,7
-0.099881,0.49225,-0.134586,15,0
-11.5994,57.2172,1.01905,14,8
-0.12534,0.618826,-0.145768,25,1
-11.333,55.9535,2.99194,10,9
-12.2524,60.6016,5.40923,34,10
-12.5537,62.2033,7.79159,48,11
-1.97518,9.79581,-1.22698,24,4
-1.92171,9.53919,-0.851337,40,5
-3.05036,15.1691,-0.810893,45,6
-2.24555,11.1769,-0.198992,84,7
-0.104203,0.52291,-0.142868,14,0
-2.1084,10.5803,0.188311,1,8
-0.120623,0.60586,-0.142619,26,1
-1.98797,9.99422,0.534036,30,9
-1.78327,8.97328,-1.77834,35,2
-2.05803,10.3653,0.924548,4,10
-12.3273,62.1434,7.77892,48,11
-1.98706,10.0262,-1.25501,100,4
-1.93595,9.78624,-0.872778,38,5
-3.0012,15.185,-0.811207,39,6
-2.03583,10.3195,-0.183599,33,7
-0.100241,0.511877,-0.139762,14,0
-2.0657,10.5582,0.187788,26,8
-0.118507,0.606277,-0.142619,26,1
-2.02849,10.3873,0.554657,17,9
-1.75313,8.97722,-1.77796,26,2
-11.845,60.711,5.41167,34,10
-1.8326,9.40166,-1.5171,36,3
-12.1057,62.1626,7.776,48,11
-1.95358,10.0409,-1.25599,22,4
-1.89533,9.75969,-0.869814,35,5
-2.00058,10.3113,-0.55047,100,6
-2.00626,10.3599,-0.184193,43,7
-0.098364,0.512241,-0.139762,14,0
-2.03825,10.6144,0.188661,41,8
-0.119328,0.621998,-0.146218,25,1
-11.5723,60.4918,5.38832,67,10
-1.82891,9.56935,-1.54307,15,3
-11.87,62.107,7.76381,48,11
-1.8958,9.92872,-1.24112,57,4
-2.02462,10.6235,-0.946163,10,5
-1.99712,10.4991,-0.560099,100,6
-2.05819,10.8305,-0.19243,27,7
-0.0965754,0.512581,-0.139762,14,0
-1.96642,10.4469,0.185554,18,8
-0.117767,0.626261,-0.147118,24,1
-1.9526,10.3835,0.553715,59,9
-1.70298,9.06479,-1.79284,16,2
-1.87734,10.0025,0.890383,2,10
-11.6335,62.1033,7.75796,48,11
-1.88679,10.0819,-1.2594,57,4
-1.80078,9.63168,-0.857264,26,5
-1.98976,10.6631,-0.568473,43,6
-2.0387,10.9359,-0.194175,31,7
-0.0933812,0.505317,-0.137692,14,0
-9.55232,51.6908,0.917543,12,8
-0.111091,0.601736,-0.141269,26,1
-1.90222,10.3137,0.549632,17,9
-11.0714,60.1459,5.35049,66,10
-1.74442,9.47667,-1.52617,66,3
-11.4319,62.1649,7.76088,48,11
-1.82285,9.92219,-1.23868,45,4
-11.6524,63.4889,10.2236,19,12
-1.79733,9.80252,-0.871906,10,5
-2.04043,11.1613,-0.19805,65,7
-0.0951527,0.524632,-0.142868,14,0
-0.110725,0.611708,-0.143519,25,1
-1.84168,10.1846,0.54241,39,9
-1.62028,8.96025,-1.76994,19,2
-10.8113,59.847,5.32068,65,10
-1.73098,9.59157,-1.5437,67,3
-10.8492,60.1766,7.50788,48,11
-1.79243,9.95193,-1.24161,49,4
-1.91265,10.63,-0.944943,50,5
-1.88148,10.4778,-0.557901,50,6
-9.25807,51.661,-0.916112,47,7
-0.0967021,0.543981,-0.148044,13,0
-1.86573,10.506,0.186252,98,8
-0.108589,0.612091,-0.143519,25,1
-1.64929,9.30609,-1.83711,64,2
-10.601,59.8765,5.31999,65,10
-1.72364,9.74539,-1.56747,63,3
-11.0156,62.3449,7.77356,48,11
-1.77838,10.0754,-1.25623,26,4
-10.7122,60.7519,9.77059,17,12
-1.77658,10.0755,-0.895089,46,5
-12.0892,68.6311,13.5459,30,13
-1.8982,10.7872,-0.574021,100,6
-1.95347,11.1241,-0.197142,9,7
-0.0828693,0.4758,-0.12941,15,0
-1.83076,10.5223,0.186427,15,8
-0.107787,0.620146,-0.145318,25,1
-1.63628,9.42398,-1.85924,28,2
-10.4712,60.3706,5.3606,66,10
-1.63936,9.46133,-1.52086,62,3
-10.7951,62.3673,7.77161,48,11
-1.85549,10.731,-1.33715,49,4
-1.75564,10.1641,-0.902411,35,5
-1.84255,10.6895,-0.568473,47,6
-1.82834,10.6181,-0.188067,82,7
-0.0857555,0.502747,-0.136656,14,0
-1.80493,10.5815,0.187369,20,8
-0.107366,0.630105,-0.147568,24,1
-1.76687,10.3803,0.55183,131,9
-1.59152,9.35996,-1.8455,19,2
-10.2414,60.2948,5.35067,33,10
-1.70688,10.049,-1.6144,45,3
-10.6015,62.481,7.78136,48,11
-1.81525,10.7097,-1.33374,49,4
-10.3974,61.4076,9.86445,17,12
-1.70553,10.0837,-0.894741,67,5
-2.50284,14.8134,-0.787342,22,6
-1.84745,10.9577,-0.193966,100,7
-0.0879104,0.525894,-0.142868,14,0
-0.103563,0.620865,-0.145318,25,1
-1.72455,10.3388,0.549318,59,9
-1.55725,9.34582,-1.84169,26,2
-10.0322,60.2734,5.34578,33,10
-1.63745,9.84836,-1.58124,53,3
-10.0276,60.3753,7.51471,48,11
-1.71125,10.3145,-1.28377,46,4
-1.67111,10.0834,-0.894218,73,5
-10.913,65.9202,12.988,27,13
-8.77363,53.1122,12.4281,23,14
-1.81469,10.9854,-0.19435,100,7
-10.4755,63.4838,17.2405,35,15
-0.086074,0.526198,-0.142868,14,0
-8.82026,53.921,0.953704,13,8
-0.101503,0.621205,-0.145318,25,1
-1.68652,10.3329,0.54869,28,9
-1.53567,9.41901,-1.85505,19,2
-9.70968,59.6198,5.28478,32,10
-1.60891,9.87908,-1.58531,51,3
-9.7967,60.2201,7.49131,48,11
-1.66749,10.2613,-1.27646,55,4
-10.3627,63.8402,10.2436,19,12
-1.64132,10.1226,-0.897181,20,5
-10.6717,65.8165,12.9605,27,13
-8.60927,53.2141,12.4452,23,14
-1.78367,11.0371,-0.195153,100,7
-0.0824952,0.515035,-0.139762,14,0
-8.78425,54.9033,0.970528,13,8
-0.0981047,0.613858,-0.143519,25,1
-9.52135,59.7107,5.29,32,10
-1.58965,9.98022,-1.60064,57,3
-9.58767,60.2618,7.49228,48,11
-1.69272,10.6513,-1.32423,30,4
-9.97819,62.8576,10.0803,18,12
-8.22699,51.8846,10.2113,14,13
-1.73296,10.9662,-0.193792,30,7
-0.0771102,0.492417,-0.133551,15,0
-0.0977661,0.625749,-0.146218,25,1
-8.97897,57.5357,3.05181,21,9
-1.47939,9.47968,-1.86497,28,2
-9.39205,60.2514,5.33498,32,10
-1.56118,10.0267,-1.60721,40,3
-9.37175,60.2596,7.4879,48,11
-1.63146,10.5022,-1.30498,66,4
-9.89439,63.7666,10.2205,19,12
-1.59102,10.2537,-0.907814,39,5
-8.07348,52.0914,10.2464,14,13
-1.59835,10.3247,-0.547539,59,6
-7.81829,50.5613,11.8117,21,14
-1.71206,11.0849,-0.195781,93,7
-0.0759757,0.496502,-0.134586,15,0
-8.19891,53.6428,0.947212,13,8
-0.0967574,0.633792,-0.148018,24,1
-8.78594,57.618,3.05454,10,9
-1.43712,9.42462,-1.85314,52,2
-9.05026,59.4212,5.25863,31,10
-1.53033,10.0594,-1.61159,60,3
-1.56888,10.3371,-1.28377,70,4
-1.56328,10.3123,-0.912521,45,5
-7.85636,51.8864,10.2006,14,13
-1.56409,10.342,-0.548167,87,6
-7.69354,50.9313,11.8918,21,14
-2.30614,15.2847,-0.269814,31,7
-8.48785,56.3228,15.262,21,15
-0.0788107,0.527334,-0.142868,14,0
-7.96619,53.3665,0.941837,12,8
-0.0933951,0.626417,-0.146218,25,1
-8.57946,57.6128,3.05265,21,9
-1.4152,9.50337,-1.86764,47,2
-8.81815,59.2868,5.24399,31,10
-1.56893,10.561,-1.69106,55,3
-8.74224,58.9176,7.31338,48,11
-1.45653,9.82804,-1.21991,64,4
-9.32229,62.9782,10.0835,18,12
-1.52961,10.3335,-0.913915,15,5
-9.55019,64.5957,12.6926,26,13
-1.61404,10.9303,-0.579045,100,6
-7.44919,50.5067,11.7865,21,14
-2.25422,15.3025,-0.269989,89,7
-0.0741808,0.50849,-0.137692,14,0
-7.82885,53.7304,0.94777,13,8
-0.0878401,0.603598,-0.140819,26,1
-8.38518,57.6192,3.0515,21,9
-1.38541,9.53157,-1.87222,28,2
-8.56539,59.0018,5.2161,61,10
-1.45099,10.0073,-1.60158,42,3
-8.55987,59.1089,7.33337,48,11
-1.44613,9.98606,-1.23892,33,4
-9.1841,63.4975,10.1617,19,12
-1.61032,11.1473,-0.985383,23,5
-7.53428,52.2198,10.2556,14,13
-7.26638,50.4251,11.7618,21,14
-1.58643,11.0227,-0.194385,100,7
-7.60182,52.8837,14.3158,20,15
-0.0724943,0.508733,-0.137692,14,0
-7.64611,53.7244,0.947212,13,8
-0.0872094,0.613532,-0.143069,25,1
-8.24213,57.9848,3.0694,32,9
-1.3698,9.64885,-1.89435,90,2
-8.40043,59.2469,5.23527,62,10
-1.50366,10.6184,-1.69857,20,3
-8.3688,59.1723,7.33775,48,11
-1.40856,9.95935,-1.23502,55,4
-8.95965,63.4298,10.146,19,12
-1.48011,10.4916,-0.926988,56,5
-7.37643,52.3533,10.277,14,13
-7.09232,50.4006,11.7505,21,14
-2.16131,15.3785,-0.271071,100,7
-7.40279,52.7403,14.2702,20,15
-0.0665477,0.478356,-0.12941,15,0
-7.01055,50.4575,0.8892,11,8
-0.0870491,0.62733,-0.146218,25,1
-8.04243,58.033,3.07045,10,9
-1.31085,9.45887,-1.85619,57,2
-8.15531,58.9231,5.20424,61,10
-1.37647,9.95801,-1.59219,58,3
-8.66064,62.7354,7.776,48,11
-1.3746,9.9701,-1.23576,24,4
-8.71931,63.3237,10.1241,19,12
-1.4309,10.3919,-0.91775,46,5
-1.37778,10.0319,-0.530687,87,6
-2.11495,15.4394,-0.272013,65,7
-7.22075,52.7811,14.2744,20,15
-0.0648774,0.478586,-0.12941,15,0
-6.81666,50.3509,0.886896,11,8
-0.08277,0.612181,-0.142619,26,1
-7.85583,58.1795,3.07673,21,9
-1.28623,9.52565,-1.8684,35,2
-7.96234,59.046,5.21261,30,10
-1.36122,10.1076,-1.61534,63,3
-8.39607,62.4269,7.73407,48,11
-1.56097,11.6216,-1.43976,61,4
-1.38508,10.3257,-0.911475,37,5
-6.96489,51.9918,10.1965,28,13
-1.35043,10.0941,-0.533722,38,6
-6.70932,50.2171,11.6966,21,14
-1.78387,13.3695,-0.235433,99,7
-6.86702,51.5345,13.9307,19,15
-0.0657348,0.497961,-0.134586,15,0
-6.54731,49.6647,0.8744,11,8
-0.082922,0.629854,-0.146668,24,1
-7.63761,58.0917,3.07066,21,9
-1.24939,9.50283,-1.86306,28,2
-7.74634,58.9983,5.20599,30,10
-1.32567,10.1104,-1.61503,18,3
-8.17449,62.4283,7.73066,48,11
-1.5343,11.7332,-1.45293,49,4
-1.3351,10.2238,-0.902062,46,5
-6.79528,52.1073,10.2144,14,13
-1.31054,10.0631,-0.531838,45,6
-1.72354,13.2705,-0.233583,30,7
-6.71195,51.7497,13.9824,19,15
-0.0615347,0.479027,-0.12941,15,0
-1.83551,14.3086,0.251803,55,8
-0.0784945,0.612743,-0.142619,26,1
-7.42413,58.0348,3.06626,10,9
-1.20225,9.39808,-1.84169,38,2
-7.53327,58.9697,5.20111,30,10
-7.93045,62.2516,7.70531,48,11
-1.48682,11.6873,-1.44659,70,4
-1.32351,10.4182,-0.918796,30,5
-1.37958,10.8899,-0.575277,100,6
-6.40602,50.6378,11.7838,21,14
-1.69174,13.3915,-0.235607,100,7
-6.45872,51.1978,13.8271,19,15
-0.0598623,0.479239,-0.12941,15,0
-1.78134,14.2811,0.25121,33,8
-0.0780411,0.62655,-0.145768,25,1
-7.24025,58.211,3.07421,10,9
-1.14982,9.24441,-1.81078,42,2
-7.49389,60.3362,5.31929,65,10
-7.68627,62.0622,7.6785,48,11
-1.23161,9.95877,-1.2321,12,4
-6.47176,52.4057,8.3633,12,12
-1.27371,10.314,-0.909209,82,5
-6.91767,56.0972,10.9868,17,13
-1.23318,10.0145,-0.528803,100,6
-1.35181,11.0096,-0.193617,46,7
-6.29737,51.362,13.8655,19,15
-0.0605167,0.498623,-0.134586,15,0
-1.7998,14.8511,0.261123,90,8
-0.0758533,0.626819,-0.145768,25,1
-1.77974,14.7285,0.777503,9,9
-1.11165,9.19964,-1.80124,30,2
-7.28322,60.362,5.31929,65,10
-1.21925,10.1198,-1.6144,30,3
-7.43973,61.8403,7.64779,48,11
-1.19399,9.93936,-1.22917,13,4
-1.24742,10.3994,-0.916355,71,5
-6.70224,55.9572,10.9547,17,13
-1.2141,10.1516,-0.535816,80,6
-1.74241,14.6122,-0.256865,100,7
-6.11392,51.3491,13.8561,19,15
-0.0588628,0.49882,-0.134586,15,0
-1.73651,14.7378,0.259029,42,8
-0.0746852,0.634809,-0.147568,24,1
-1.07358,9.13893,-1.78864,33,2
-7.05749,60.1681,5.30012,64,10
-1.18546,10.1218,-1.61409,37,3
-7.21754,61.7188,7.62975,48,11
-1.1654,9.98073,-1.23381,17,4
-1.18528,10.1973,-0.538014,63,6
-5.86537,50.5385,11.746,21,14
-1.3017,11.2331,-0.197387,75,7
-6.00535,51.9026,14,19,15
-0.0549241,0.47983,-0.12941,15,0
-1.71094,14.9703,0.263008,72,8
-0.0702596,0.615704,-0.143069,25,1
-1.73031,15.1868,0.801054,27,9
-1.03256,9.06265,-1.773,28,2
-1.14923,10.118,-1.61284,45,3
-5.893,51.9642,6.4213,30,11
-1.18333,10.4671,-0.921585,30,5
-7.48428,66.306,12.9704,27,13
-1.14296,10.1418,-0.534873,100,6
-5.69026,50.5703,11.7487,21,14
-1.17564,10.4646,-0.183809,81,7
-5.8168,51.858,13.9824,19,15
-0.0596391,0.537621,-0.144939,14,0
-1.64238,14.8291,0.260425,33,8
-0.0691807,0.62563,-0.145318,25,1
-0.994243,9.0057,-1.76117,28,2
-6.62373,60.0931,5.28931,32,10
-1.2053,10.9525,-1.74518,81,3
-5.70034,51.8818,6.40862,30,11
-1.14894,10.474,-1.29377,39,4
-1.1624,10.6138,-0.934135,52,5
-5.59519,51.1715,10.006,13,13
-1.20466,11.0352,-0.581767,97,6
-5.6864,52.1745,12.1168,22,14
-1.36558,12.55,-0.220354,75,7
-0.0515731,0.480201,-0.12941,15,0
-1.54818,14.439,0.253479,27,8
-0.0682411,0.637494,-0.148018,24,1
-0.958835,8.97203,-1.75392,30,2
-6.38305,59.8266,5.26386,31,10
-1.06643,10.0119,-1.59469,38,3
-5.50869,51.8027,6.39644,59,11
-1.16435,10.9675,-1.35421,19,4
-1.12744,10.6376,-0.935878,18,5
-5.66772,53.5648,10.4701,15,13
-1.17389,11.1128,-0.585639,54,6
-1.30251,12.3717,-0.217143,32,7
-0.0538882,0.518809,-0.139762,14,0
-1.50603,14.5239,0.254875,60,8
-0.0640087,0.618344,-0.143519,25,1
-1.5687,15.1541,0.798437,64,9
-0.905512,8.76246,-1.71232,28,2
-6.13925,59.5096,5.23405,62,10
-1.02418,9.94478,-1.58343,72,3
-5.36112,52.1455,6.43641,30,11
-1.03101,10.0454,-1.2399,9,4
-5.46471,53.428,10.4395,15,13
-1.20428,11.7944,-0.621333,20,6
-5.18013,50.821,11.7937,21,14
-1.50034,14.7195,-0.258261,68,7
-5.24848,51.5807,13.8924,19,15
-0.0532343,0.530527,-0.142868,14,0
-1.45366,14.487,0.254142,52,8
-0.0639002,0.637943,-0.148018,24,1
-0.872582,8.74212,-1.70774,28,2
-5.92614,59.4772,5.22934,31,10
-1.0006,10.0425,-1.59845,26,3
-5.19208,52.2025,6.44128,30,11
-0.997296,10.0448,-1.23941,45,4
-5.14428,51.9055,8.2613,12,12
-1.01195,10.2288,-0.899273,73,5
-5.28633,53.4342,10.4373,15,13
-5.06167,51.346,11.9116,21,14
-1.21474,12.3445,-0.216515,100,7
-0.0481177,0.49609,-0.133551,15,0
-1.41753,14.6413,0.25676,46,8
-0.0609233,0.630404,-0.146218,25,1
-1.44561,14.9858,0.789017,29,9
-0.841138,8.71956,-1.70278,30,2
-5.68112,59.0007,5.18577,30,10
-5.00607,52.1808,6.43641,30,11
-0.961656,10.0423,-1.23868,28,4
-4.96643,51.9586,8.26694,25,12
-0.982011,10.2738,-0.902933,65,5
-4.89844,51.3415,10.0251,26,13
-1.01187,10.6253,-0.559367,97,6
-4.96649,52.248,12.1168,22,14
-1.35523,14.2837,-0.250442,21,7
-5.00081,52.8046,14.2123,19,15
-0.047824,0.511642,-0.137692,14,0
-1.36103,14.5884,0.255748,54,8
-0.0583609,0.626732,-0.145318,25,1
-1.38904,14.945,0.786609,17,9
-0.808695,8.70094,-1.69858,30,2
-5.46576,58.919,5.17688,60,10
-0.931016,10.0551,-1.59939,30,3
-4.75118,51.4112,6.3394,28,11
-0.919305,9.96653,-1.22893,17,4
-4.79881,52.1251,8.29071,12,12
-0.961671,10.4458,-0.91775,67,5
-4.74109,51.5968,10.0717,13,13
-0.965291,10.5253,-0.553924,100,6
-4.9262,53.8175,12.4767,23,14
-0.922037,10.0924,-0.176898,35,7
-0.0449994,0.500262,-0.134586,15,0
-1.30921,14.5831,0.255573,6,8
-0.0561726,0.626932,-0.145318,25,1
-0.776746,8.68612,-1.69515,28,2
-5.24998,58.8246,5.16694,30,10
-0.8896,9.98747,-1.58812,57,3
-5.05192,56.8294,7.00529,41,11
-4.99453,56.4074,8.96902,14,12
-0.934162,10.5503,-0.92664,31,5
-4.54783,51.4645,10.0427,13,13
-4.73813,53.8324,12.4762,23,14
-0.876656,9.98005,-0.174873,29,7
-0.0449163,0.519662,-0.139762,14,0
-1.30315,15.1076,0.264683,16,8
-0.0549868,0.638773,-0.148018,24,1
-4.8949,56.9797,2.99718,10,9
-0.746923,8.69464,-1.69629,28,2
-4.91866,57.3736,5.03795,28,10
-0.85726,10.02,-1.59282,25,3
-4.81365,56.3799,6.94777,40,11
-4.58507,53.9248,8.57167,13,12
-0.846523,9.95591,-0.874172,19,5
-4.3552,51.3274,10.0129,13,13
-4.51738,53.4602,12.3863,23,14
-0.844163,10.0109,-0.175362,100,7
-0.0415058,0.500564,-0.134586,15,0
-1.25156,15.126,0.264928,37,8
-0.0522755,0.633135,-0.146668,24,1
-4.74929,57.5211,3.02481,10,9
-0.716727,8.69915,-1.69667,30,2
-4.63086,56.3261,4.94452,26,10
-0.83019,10.1194,-1.60815,30,3
-4.38228,53.5316,6.59484,33,11
-0.900871,11.0282,-1.3586,39,4
-4.49244,54.995,8.73937,13,12
-0.813381,9.97866,-0.875915,85,5
-4.29409,52.7943,10.2961,14,13
-0.870531,10.726,-0.563972,81,6
-0.816769,10.0854,-0.176618,27,7
-4.34323,53.7466,14.4483,20,15
-1.00116,12.6084,0.220773,56,8
-0.049868,0.629419,-0.145768,25,1
-4.5652,57.7483,3.0359,10,9
-0.68605,8.69769,-1.69591,28,2
-4.43264,56.322,4.94278,26,10
-0.79136,10.0552,-1.59751,17,3
-3.99529,50.8781,6.26628,27,11
-0.850802,10.8589,-1.33739,67,4
-4.36201,55.7981,8.86452,14,12
-0.77994,9.99932,-0.877484,56,5
-4.06649,52.1349,10.1648,14,13
-0.799933,10.2788,-0.540316,28,6
-4.18356,53.8783,12.4762,23,14
-0.965368,12.4608,-0.218155,20,7
-0.0380976,0.500835,-0.134586,15,0
-0.959105,12.6377,0.221227,68,8
-0.0475236,0.627647,-0.145318,25,1
-4.33921,57.4413,3.01895,21,9
-0.656762,8.69404,-1.69477,28,2
-4.24284,56.2967,4.93929,53,10
-3.823,50.963,6.27505,27,11
-0.809482,10.8163,-1.33179,63,4
-3.89513,52.1687,8.28571,12,12
-0.782382,10.4787,-0.919319,58,5
-3.87661,52.043,10.1442,13,13
-0.76597,10.3074,-0.541677,56,6
-1.03352,13.9737,-0.244578,100,7
-3.89682,52.8123,14.1895,19,15
-0.0385858,0.531793,-0.142868,14,0
-0.0451919,0.625865,-0.144868,25,1
-4.12804,57.3087,3.0112,10,9
-0.62528,8.68062,-1.69171,26,2
-4.06376,56.5536,4.96056,27,10
-0.779755,10.8781,-1.72735,20,3
-3.63544,50.8414,6.25848,27,11
-0.798423,11.1933,-1.37785,33,4
-3.92497,55.1612,8.75877,13,12
-0.840966,11.8189,-1.03663,51,5
-3.78193,53.2822,10.3831,14,13
-0.730416,10.316,-0.541991,80,6
-3.69061,52.2539,12.0938,22,14
-0.693687,9.84609,-0.17229,30,7
-3.6491,51.9237,13.9472,19,15
-0.861929,12.5144,0.218958,41,8
-0.0443424,0.64546,-0.149367,24,1
-3.89112,56.7847,2.98294,10,9
-0.593769,8.66512,-1.68828,26,2
-3.83533,56.1142,4.92081,26,10
-3.85901,56.7518,6.98433,41,11
-0.764448,11.2713,-1.38712,31,4
