x, y, z, intensity, ring
0.59156,10.4824,-1.6629,35,3
0.960272,16.9632,2.08616,36,11
0.714181,12.5771,-1.54677,53,4
0.944718,16.586,2.63123,5,12
0.677762,11.8992,-1.04273,38,5
0.981561,17.1799,3.34488,12,13
0.963936,16.7685,3.87771,31,14
0.695957,12.0701,-0.211035,77,7
0.948661,16.403,4.40251,5,15
0.0307526,0.520693,-0.139762,14,0
0.807974,13.64,0.238505,34,8
0.0373298,0.628335,-0.145318,25,1
0.979935,16.4942,0.865951,36,9
0.519653,8.72101,-1.6982,26,2
0.980198,16.402,1.43755,59,10
0.622714,10.3896,-1.64851,32,3
1.01889,16.9499,2.08494,18,11
0.738007,12.2417,-1.50582,24,4
0.984979,16.3383,2.59243,20,12
0.726511,12.0161,-1.05319,28,5
1.03523,17.0725,3.32466,41,13
0.747888,12.2984,-0.645721,42,6
1.02127,16.7456,3.87321,36,14
0.777121,12.7424,-0.222832,93,7
0.994209,16.2551,4.36369,22,15
0.0316046,0.505157,-0.135621,15,0
0.847829,13.5514,0.237004,12,8
0.0392914,0.626263,-0.144868,25,1
1.05757,16.8097,0.882698,41,9
0.548974,8.70151,-1.69477,26,2
1.03883,16.4203,1.43946,34,10
0.655046,10.354,-1.64319,42,3
1.08326,17.0752,2.10078,40,11
0.769648,12.0985,-1.48851,45,4
1.04301,16.3505,2.59494,43,12
0.781045,12.2103,-1.07045,42,5
1.0867,16.9887,3.30901,26,13
0.782272,12.1962,-0.640487,35,6
1.07242,16.674,3.85746,28,14
0.811174,12.578,-0.220005,100,7
1.0528,16.2805,4.37145,25,15
0.034804,0.528182,-0.141833,14,0
1.09393,16.5574,0.28964,27,8
0.041735,0.630011,-0.145768,25,1
1.09705,16.5169,0.867521,51,9
0.575563,8.64274,-1.6837,28,2
1.08613,16.3094,1.43005,31,10
0.69145,10.3556,-1.64381,42,3
1.23699,18.4776,2.27384,78,11
0.805231,11.9967,-1.47633,34,4
1.11415,16.5557,2.6281,20,12
0.831439,12.3228,-1.08056,38,5
1.14591,16.9395,3.30023,19,13
0.821841,12.1175,-0.63651,42,6
1.13049,16.6683,3.85701,68,14
0.865925,12.7346,-0.222797,37,7
1.10516,16.2112,4.35385,31,15
0.0335214,0.481798,-0.12941,15,0
0.974139,13.9659,0.244369,8,8
0.0444515,0.635686,-0.147118,24,1
1.15394,16.461,0.864799,44,9
0.607235,8.64057,-1.6837,23,2
1.16489,16.5756,1.45376,3,10
0.729537,10.3549,-1.64413,33,3
0.846809,11.96,-1.47218,54,4
1.17705,16.583,2.63311,12,12
0.863592,12.1368,-1.06452,26,5
1.1989,16.8079,3.27543,24,13
0.863824,12.0805,-0.634731,26,6
1.20157,16.804,3.8894,31,14
0.862128,12.0273,-0.210476,100,7
1.16901,16.2687,4.37042,22,15
0.0423447,0.578007,-0.155291,12,0
1.02855,14.0061,0.245136,1,8
0.0473533,0.643293,-0.148918,24,1
1.21594,16.5186,0.868044,23,9
0.635083,8.60707,-1.67759,28,2
1.22828,16.607,1.4569,6,10
0.765146,10.3207,-1.63912,33,3
1.30694,17.5871,2.16537,23,11
0.840156,11.3057,-1.39199,12,4
1.2518,16.8054,2.66909,13,12
0.904763,12.1179,-1.06313,40,5
1.24907,16.6901,3.25329,39,13
0.909577,12.1252,-0.637243,19,6
1.24536,16.6014,3.84351,10,14
0.905603,12.0442,-0.210825,30,7
1.22898,16.3069,4.38181,33,15
0.0386549,0.504667,-0.135621,15,0
1.18565,15.4442,0.270373,19,8
0.047692,0.619816,-0.143519,25,1
1.28925,16.7554,0.88071,30,9
0.663322,8.601,-1.67683,26,2
1.33202,17.2326,1.51215,35,10
0.797991,10.3004,-1.6363,31,3
1.43488,18.4792,2.27579,48,11
0.863046,11.1148,-1.36884,1,4
1.30568,16.7775,2.66533,23,12
0.955172,12.2459,-1.07463,40,5
1.30793,16.7309,3.26207,24,13
0.955233,12.1919,-0.640906,52,6
1.2937,16.5117,3.82372,28,14
1.0952,13.9469,-0.244194,100,7
0.0415595,0.519942,-0.139762,14,0
1.23654,15.4362,0.270303,52,8
0.050683,0.631309,-0.146218,25,1
1.40139,17.4558,0.917763,29,9
0.691051,8.58897,-1.67492,26,2
1.38548,17.1824,1.50814,58,10
0.830715,10.2799,-1.63349,32,3
2.45164,30.2728,3.7292,24,11
0.925924,11.4085,-1.4054,8,4
1.36387,16.8046,2.67034,18,12
0.981074,12.0619,-1.05877,47,5
1.36149,16.7029,3.25749,30,13
1.05875,12.961,-0.681519,29,6
1.3499,16.4896,3.81967,20,14
1.15139,14.0648,-0.246323,100,7
1.50375,18.3296,4.92791,16,15
0.0440167,0.527494,-0.141833,14,0
1.27608,15.2925,0.26786,48,8
0.0532633,0.636964,-0.147568,24,1
1.42113,16.9592,0.891909,27,9
0.716755,8.53564,-1.665,26,2
1.39851,16.6196,1.45916,31,10
0.861158,10.2338,-1.62661,28,3
1.4258,16.9086,2.08348,9,11
1.01439,12.0047,-1.47925,18,4
2.24421,26.5036,4.21278,20,12
1.13115,13.331,-1.1705,35,5
1.05993,12.4659,-0.655665,29,6
1.39581,16.3822,3.79582,37,14
1.14758,13.441,-0.235468,81,7
1.56344,18.2742,4.91446,17,15
0.0417571,0.481154,-0.12941,15,0
1.33136,15.3099,0.268243,45,8
0.0570087,0.654246,-0.151617,23,1
1.46381,16.7651,0.881966,31,9
0.743864,8.51952,-1.66233,26,2
1.4517,16.593,1.45724,43,10
0.893073,10.1875,-1.61972,27,3
1.73181,19.7155,2.43007,20,11
1.05786,12.0189,-1.48144,18,4
3.10496,35.2068,5.59785,20,12
1.16065,13.1605,-1.15586,19,5
1.75028,19.8067,3.86503,3,13
1.10908,12.5257,-0.659014,3,6
1.44919,16.3345,3.78593,35,14
1.24141,13.9648,-0.244718,21,7
1.75097,19.658,5.28819,9,15
0.0455212,0.504094,-0.135621,15,0
1.36876,15.1279,0.265137,27,8
0.0582366,0.642399,-0.148918,24,1
1.49757,16.4874,0.867626,18,9
0.770403,8.48168,-1.65546,28,2
1.50401,16.5263,1.45184,68,10
0.924327,10.1371,-1.61221,25,3
1.80478,19.7548,2.43568,10,11
2.44811,26.6938,4.24563,11,12
1.1882,12.9559,-1.13825,45,5
2.5854,28.1366,5.49225,44,13
1.85398,20.0997,4.66009,22,14
1.27396,13.7852,-0.241646,25,7
1.8235,19.6941,5.29958,15,15
0.045115,0.480851,-0.12941,15,0
1.33921,14.247,0.249779,64,8
0.0591998,0.62861,-0.145768,25,1
0.800368,8.48285,-1.65622,26,2
1.54575,16.3524,1.43702,62,10
0.957474,10.1102,-1.60846,28,3
1.88853,19.9045,2.45494,21,11
2.54466,26.7205,4.25126,17,12
1.22621,12.8523,-1.12954,28,5
1.79769,18.8422,3.67918,36,13
1.32439,13.8557,-0.729459,42,6
1.80431,18.8419,4.3699,15,14
1.32703,13.8324,-0.242554,100,7
1.90165,19.7856,5.32598,22,15
0.0513776,0.526828,-0.141833,14,0
1.46522,15.0244,0.263496,22,8
0.0612041,0.62646,-0.145318,25,1
1.58365,16.1804,0.852029,22,9
0.828778,8.45251,-1.65088,26,2
1.58931,16.18,1.42238,68,10
0.99278,10.0889,-1.60564,28,3
1.63627,16.6282,2.05155,48,11
2.79186,28.2704,4.49937,71,12
1.17241,11.8507,-1.04186,27,5
1.36885,13.7872,-0.726109,81,6
1.88647,18.967,4.40049,16,14
1.41014,14.1779,-0.248697,96,7
1.94026,19.4732,5.24367,28,15
1.50779,14.8956,0.261332,58,8
0.0648761,0.639803,-0.148468,24,1
1.69009,16.6675,0.877988,30,9
0.855494,8.42222,-1.64554,26,2
1.02539,10.0598,-1.60158,28,3
1.69861,16.6359,2.05325,17,11
1.25271,12.2476,-1.51167,18,4
2.89133,28.2683,4.50062,100,12
1.21397,11.8485,-1.04203,11,5
1.92246,18.7312,3.6601,15,13
1.38388,13.4605,-0.709152,32,6
1.96006,19.0321,4.41714,35,14
1.44918,14.0714,-0.246917,100,7
0.0502318,0.480344,-0.12941,15,0
1.51079,14.447,0.253549,12,8
0.066794,0.637647,-0.148018,24,1
1.72345,16.4252,0.865532,51,9
0.882838,8.39965,-1.64172,26,2
1.72851,16.4182,1.44434,25,10
1.05522,10.023,-1.59626,27,3
2.05939,19.5282,2.41106,20,11
1.2675,11.9591,-1.05214,26,5
1.97918,18.6739,3.65018,43,13
1.40089,13.1956,-0.69544,19,6
2.05861,19.3588,4.49452,30,14
1.40085,13.1516,-0.23086,27,7
2.17289,20.3659,5.488,8,15
0.0559705,0.518588,-0.139762,14,0
1.61279,14.9188,0.261926,46,8
0.0690195,0.63741,-0.148018,24,1
1.78724,16.4786,0.868672,19,9
0.910267,8.39277,-1.64096,26,2
1.85224,17.0502,1.50047,13,10
1.08379,9.96032,-1.58687,23,3
1.81848,16.6852,2.06081,35,11
1.37137,12.5625,-1.55164,26,4
3.8695,35.3893,5.63852,10,12
1.35652,12.4064,-1.09189,19,5
2.10485,19.2192,3.75817,8,13
1.33848,12.202,-0.643314,32,6
2.12424,19.334,4.49047,26,14
1.44894,13.1665,-0.231209,36,7
3.64449,33.0643,8.91321,7,15
0.05778,0.51839,-0.139762,14,0
1.64379,14.7243,0.25861,67,8
0.0703781,0.629418,-0.146218,25,1
1.8912,16.8871,0.890549,8,9
0.937804,8.37394,-1.6379,26,2
1.90308,16.9664,1.49368,71,10
1.11437,9.91918,-1.58093,26,3
2.19701,19.5252,2.41253,30,11
1.25471,11.1334,-1.37566,11,4
3.44908,30.5567,4.87043,18,12
1.42553,12.6293,-1.11193,26,5
2.14656,18.9874,3.71429,26,13
1.47365,13.0149,-0.686438,39,6
2.18711,19.2858,4.48102,35,14
1.50121,13.217,-0.232187,9,7
3.20809,28.2009,7.60514,15,15
0.0604722,0.525862,-0.141833,14,0
1.66635,14.4681,0.254212,13,8
0.0730212,0.63304,-0.147118,24,1
1.94468,16.8589,0.889397,27,9
0.966129,8.36281,-1.63638,23,2
1.14557,9.88579,-1.57623,33,3
2.38003,20.5073,2.53488,23,11
1.28669,11.0698,-1.36835,4,4
3.54652,30.5117,4.86511,15,12
1.46637,12.5965,-1.10949,26,5
2.21214,18.9739,3.71314,13,13
1.49313,12.7875,-0.674715,22,6
2.27343,19.4407,4.51882,27,14
1.63213,13.9568,-0.245276,96,7
3.30586,28.2265,7.61497,21,15
0.0595785,0.502626,-0.135621,15,0
1.70489,14.3831,0.252816,24,8
0.0760391,0.640535,-0.148918,24,1
2.02309,17.0166,0.898085,21,9
0.991139,8.3243,-1.62951,26,2
2.18662,18.3375,1.61569,6,10
1.17437,9.8486,-1.57092,26,3
2.32751,19.4901,2.41009,5,11
1.35027,11.2902,-1.39614,15,4
3.88792,32.4605,5.17798,17,12
1.5222,12.6902,-1.11821,45,5
4.81244,40.1201,7.85446,16,13
1.50694,12.5445,-0.662155,35,6
2.32416,19.3189,4.49227,9,14
1.49068,12.3726,-0.217527,28,7
3.83481,31.7822,8.57778,27,15
0.0612451,0.502426,-0.135621,15,0
1.73813,14.2381,0.250372,11,8
0.0792203,0.648003,-0.150717,23,1
2.07611,16.9821,0.89662,40,9
1.01707,8.30733,-1.62684,21,2
2.2913,18.6881,1.64724,6,10
1.20441,9.80915,-1.56528,35,3
2.3977,19.4996,2.41228,30,11
1.41514,11.4922,-1.42173,44,4
3.98539,32.3651,5.16484,12,12
1.54403,12.521,-1.10374,49,5
4.35885,35.2962,6.91301,45,13
2.39014,19.299,4.48957,9,14
1.71161,13.8203,-0.243077,97,7
3.48628,28.1094,7.58961,30,15
0.0601132,0.479207,-0.12941,15,0
1.8157,14.4743,0.254631,15,8
0.0803974,0.640003,-0.148918,24,1
2.12415,16.8856,0.891909,50,9
1.04385,8.28619,-1.6234,19,2
2.14905,17.0354,1.50222,3,10
1.23199,9.7659,-1.55903,26,3
2.4713,19.5624,2.42106,10,11
1.50581,11.903,-1.47316,25,4
4.09239,32.3039,5.15733,34,12
1.59249,12.5531,-1.10705,33,5
3.44899,27.1872,5.32701,11,13
1.59053,12.5201,-0.661422,42,6
2.54069,19.9715,4.64794,15,14
1.80734,14.1872,-0.249639,100,7
2.46422,19.3165,5.21779,7,15
0.0677169,0.524978,-0.141833,14,0
1.85388,14.3526,0.252606,13,8
0.0829924,0.641637,-0.149367,24,1
2.18514,16.8939,0.892747,16,9
1.06999,8.26108,-1.61921,23,2
2.19492,16.9231,1.49298,26,10
1.26294,9.7241,-1.55308,25,3
2.52789,19.4371,2.40668,25,11
1.59779,12.2855,-1.52117,39,4
4.19492,32.2111,5.14482,34,12
1.64403,12.6067,-1.11228,26,5
4.18416,32.0412,6.28105,53,13
1.63304,12.4884,-0.660061,84,6
2.48102,18.9732,4.41759,29,14
1.80831,13.81,-0.243112,100,7
2.53717,19.3499,5.22918,7,15
0.0760484,0.574544,-0.155291,12,0
1.90751,14.3919,0.253409,15,8
0.0861454,0.649085,-0.151167,23,1
1.09351,8.2283,-1.61348,26,2
2.26153,16.9947,1.49995,13,10
1.29257,9.70028,-1.54995,26,3
2.6094,19.5565,2.42252,30,11
1.62513,12.1798,-1.50874,31,4
3.688,27.6036,4.41083,34,12
1.78491,13.3417,-1.17765,30,5
3.65957,27.3181,5.35754,41,13
3.63283,27.0827,6.30853,34,14
1.84505,13.7365,-0.241925,71,7
2.60698,19.3835,5.24057,10,15
0.072756,0.536003,-0.144939,14,0
1.97489,14.5302,0.255957,6,8
0.0851438,0.625625,-0.145768,25,1
1.11627,8.19156,-1.60699,23,2
2.29068,16.7877,1.48234,13,10
1.31938,9.65679,-1.5437,27,3
2.69307,19.6854,2.43958,31,11
1.64285,11.9931,-1.48632,28,4
4.40871,32.1427,5.13856,45,12
1.73113,12.6212,-1.11455,11,5
4.47833,32.6079,6.39783,16,13
2.61888,19.0195,4.43244,6,14
1.99241,14.4511,-0.254631,100,7
2.67621,19.3858,5.24367,5,15
0.0719615,0.516612,-0.139762,14,0
2.02145,14.4935,0.255433,66,8
0.0875965,0.627254,-0.146218,25,1
2.38885,17.0841,0.904051,26,9
1.14269,8.17206,-1.60394,21,2
2.34485,16.7481,1.47956,12,10
1.34897,9.62279,-1.539,28,3
2.83764,20.2165,2.50661,33,11
1.66177,11.8241,-1.46609,51,4
4.52032,32.1232,5.13793,45,12
1.85152,13.1576,-1.16248,27,5
4.58443,32.5376,6.38714,22,13
5.61418,39.7456,9.26708,14,14
1.95182,13.8005,-0.243287,100,7
3.78344,26.7175,7.23037,18,15
0.0683004,0.478109,-0.12941,15,0
2.06381,14.4289,0.254421,23,8
0.0914432,0.638518,-0.148918,24,1
2.44961,17.0836,0.90447,44,9
1.1687,8.15053,-1.60051,23,2
2.3996,16.7141,1.47729,12,10
1.37412,9.55936,-1.52962,31,3
2.60194,18.0786,2.24264,42,11
1.69935,11.7927,-1.46292,30,4
2.75994,19.129,3.06111,18,12
1.78949,12.3876,-1.09502,26,5
4.73168,32.7546,6.43293,16,13
1.99159,13.7696,-0.729145,48,6
4.0598,28.0345,6.53978,9,14
2.01404,13.8906,-0.244997,100,7
4.03375,27.7863,7.52335,45,15
2.11591,14.4335,0.254631,22,8
0.0950866,0.647836,-0.151167,23,1
2.49238,16.9603,0.898399,40,9
1.19514,8.12288,-1.59593,26,2
2.61011,17.7184,1.56689,26,10
1.4028,9.51127,-1.52273,27,3
2.66184,18.0478,2.23996,9,11
1.73413,11.7435,-1.45756,45,4
4.21347,28.4991,4.56288,22,12
1.97918,13.3707,-1.18253,27,5
4.17878,28.1965,5.54071,44,13
2.04791,13.8017,-0.731238,52,6
2.82036,18.9848,4.43109,26,14
2.03783,13.7173,-0.242065,100,7
0.0803263,0.534921,-0.144939,14,0
2.21815,14.7539,0.260425,12,8
0.0968802,0.643629,-0.150267,24,1
2.5465,16.8977,0.895573,46,9
1.21997,8.09536,-1.59135,23,2
2.65231,17.5791,1.55538,26,10
1.43216,9.48092,-1.51867,27,3
2.82148,18.6562,2.31674,30,11
1.78013,11.7567,-1.45999,22,4
4.31878,28.4893,4.56382,22,12
2.00016,13.1943,-1.16754,35,5
4.28072,28.2051,5.54529,16,13
2.06516,13.5911,-0.720457,35,6
2.89365,19.0211,4.44188,6,14
2.09833,13.777,-0.243252,97,7
2.84602,18.6642,5.05888,11,15
0.0769091,0.500268,-0.135621,15,0
0.0958615,0.622101,-0.145318,25,1
2.61064,16.9223,0.897352,23,9
1.24373,8.06195,-1.58562,21,2
2.69845,17.4713,1.54667,32,10
1.46072,9.44658,-1.51397,28,3
2.82037,18.2185,2.2636,14,11
1.80626,11.6543,-1.44805,33,4
5.01883,32.3449,5.18424,34,12
2.04468,13.1774,-1.16667,22,5
4.64917,29.9282,5.88722,74,13
2.04599,13.1556,-0.697743,26,6
4.53493,29.1257,6.80522,10,14
2.13563,13.7004,-0.24203,88,7
2.90222,18.5969,5.04335,11,15
0.0750525,0.477096,-0.12941,15,0
2.21812,14.0842,0.248871,19,8
0.102281,0.648712,-0.151617,23,1
2.80049,17.7619,0.942361,31,9
1.2682,8.03429,-1.58104,21,2
2.7448,17.3693,1.53847,32,10
1.49059,9.42191,-1.51084,28,3
2.82992,17.8674,2.22119,52,11
1.82316,11.511,-1.43099,33,4
4.77121,30.0903,4.82538,47,12
2.06879,13.0324,-1.15446,23,5
2.0599,12.9472,-0.687066,13,6
5.20499,32.7152,7.64789,11,14
2.1669,13.6044,-0.240459,71,7
4.41677,27.6986,7.51559,25,15
0.0766341,0.476844,-0.12941,15,0
2.25719,14.0294,0.248034,13,8
0.102263,0.634901,-0.148468,24,1
2.62436,16.2934,0.864904,14,9
1.29202,8.01259,-1.57761,23,2
2.81732,17.4525,1.54667,29,10
1.51711,9.38767,-1.50615,27,3
2.87838,17.7913,2.2129,52,11
1.8461,11.4108,-1.41929,27,4
3.81801,23.5731,3.78227,11,12
2.10116,12.9586,-1.14854,28,5
5.3394,32.8937,6.47758,45,13
2.09929,12.9186,-0.685915,35,6
5.30875,32.6689,7.64114,100,14
2.33144,14.3314,-0.253444,100,7
5.29454,32.5098,8.82573,7,15
0.0819695,0.499464,-0.135621,15,0
2.29819,13.9883,0.24744,15,8
0.100889,0.613407,-0.143519,25,1
1.31635,7.99471,-1.57494,21,2
2.62048,15.8979,1.40966,12,10
1.54212,9.34555,-1.50021,27,3
2.94998,17.8581,2.22241,52,11
1.872,11.3201,-1.40881,23,4
5.46439,33.0077,5.29906,36,12
5.44333,32.8449,6.47148,61,13
2.1382,12.8879,-0.684659,13,6
2.28864,13.7649,-0.243566,100,7
3.07954,18.5018,5.02575,6,15
0.0894635,0.533469,-0.144939,14,0
2.37747,14.1616,0.250651,26,8
0.106905,0.636112,-0.148918,24,1
1.34034,7.96683,-1.57036,21,2
2.73023,16.2109,1.43824,28,10
1.56981,9.31089,-1.49551,26,3
2.99875,17.7674,2.21242,19,11
1.8943,11.2117,-1.39614,23,4
5.44088,32.1684,5.16734,55,12
2.45779,14.5313,-1.28938,28,5
2.32269,13.7035,-0.728412,48,6
6.36016,37.4842,8.77759,12,14
2.33165,13.7273,-0.243042,71,7
3.14637,18.5043,5.02937,17,15
0.0815402,0.47603,-0.12941,15,0
2.40019,13.9975,0.247894,46,8
0.107147,0.624211,-0.146218,25,1
3.0299,17.633,0.937651,31,9
1.36249,7.92921,-1.56387,21,2
2.83205,16.4644,1.4616,21,10
1.60095,9.29757,-1.49426,22,3
3.17203,18.4024,2.29285,19,11
1.93208,11.1972,-1.39516,26,4
3.43322,19.8762,3.19471,17,12
2.48863,14.3926,-1.27788,42,5
6.39602,36.9905,7.29692,14,13
2.41003,13.9236,-0.740554,48,6
9.8246,56.7014,13.2856,25,14
2.38571,13.7545,-0.243671,100,7
6.07457,34.9859,9.51471,16,15
0.0932786,0.532815,-0.144939,14,0
2.43628,13.9162,0.246603,17,8
0.11168,0.63727,-0.149367,24,1
2.87712,16.4007,0.87265,33,9
1.38848,7.90676,-1.56044,21,2
3.0514,17.3585,1.54196,29,10
1.62817,9.25273,-1.488,26,3
3.18911,18.1234,2.25946,58,11
1.96978,11.1826,-1.39419,26,4
3.48612,19.7708,3.17969,69,12
2.33071,13.2047,-1.17312,12,5
7.45692,42.2041,8.33072,9,13
2.46765,13.952,-0.742543,61,6
2.42987,13.7244,-0.243287,100,7
6.198,34.9721,9.51678,16,15
0.0883425,0.494452,-0.134586,15,0
2.54113,14.2084,0.251943,19,8
0.114358,0.638775,-0.149817,24,1
2.9238,16.3316,0.86951,24,9
1.41088,7.87288,-1.55471,23,2
2.93256,16.3476,1.45306,12,10
1.65627,9.22366,-1.48425,26,3
3.26746,18.178,2.26775,29,11
2.00986,11.1815,-1.39492,23,4
3.53657,19.6554,3.16311,48,12
2.32099,12.8866,-1.14558,2,5
7.71079,42.7691,8.4475,9,13
2.49789,13.8411,-0.7371,35,6
6.00199,33.2578,7.8022,11,14
2.49162,13.7926,-0.244648,43,7
7.824,43.2672,11.7814,14,15
0.0934424,0.513162,-0.139762,14,0
2.62014,14.3749,0.255049,15,8
0.113678,0.623055,-0.146218,25,1
2.98404,16.3552,0.871289,44,9
1.43557,7.86043,-1.55319,23,2
2.98783,16.3437,1.45358,34,10
1.68152,9.18897,-1.47956,26,3
3.33523,18.208,2.27286,9,11
2.03905,11.1318,-1.38955,20,4
3.61348,19.7077,3.17343,13,12
2.49068,13.5706,-1.20711,40,5
6.06928,33.0364,6.5291,28,13
2.59362,14.1038,-0.751544,29,6
6.09074,33.1208,7.77476,22,14
2.57717,14.0006,-0.248487,70,7
6.81432,36.9829,10.0763,9,15
0.0986671,0.531844,-0.144939,14,0
2.63859,14.2089,0.252257,35,8
0.117168,0.630338,-0.148018,24,1
3.03929,16.3349,0.870766,39,9
1.45445,7.81702,-1.54555,23,2
3.03326,16.2867,1.4494,15,10
1.70438,9.14256,-1.47299,28,3
3.29655,17.6661,2.20657,9,11
2.06988,11.0817,-1.38419,16,4
3.70149,19.7979,3.19001,26,12
2.37565,12.7065,-1.13093,16,5
7.92205,42.331,8.37117,9,13
2.69591,14.3916,-0.76735,48,6
6.98028,37.2269,8.7443,25,14
2.78317,14.8288,-0.263357,92,7
7.39422,39.3587,10.7306,11,15
0.0990871,0.523903,-0.142868,14,0
2.72909,14.4157,0.256097,16,8
0.121181,0.639499,-0.150267,24,1
3.08697,16.2751,0.868149,21,9
1.47404,7.77139,-1.53754,26,2
3.19229,16.8143,1.49734,42,10
1.72927,9.09969,-1.46704,37,3
3.37562,17.7461,2.21802,19,11
2.09815,11.0198,-1.37737,17,4
3.77687,19.8178,3.19533,37,12
2.48004,13.0132,-1.159,26,5
8.79298,46.0945,9.12143,10,13
2.66035,13.9328,-0.74338,55,6
6.89801,36.0922,8.48335,12,14
2.80823,14.6795,-0.260879,75,7
6.18476,32.2991,8.81175,21,15
0.0914088,0.474234,-0.12941,15,0
2.77901,14.4041,0.256062,21,8
0.121565,0.629505,-0.148018,24,1
3.21806,16.6486,0.888665,35,9
1.49818,7.75078,-1.53449,21,2
3.15142,16.2886,1.45149,34,10
1.75953,9.08584,-1.46579,28,3
3.43717,17.7323,2.21778,23,11
2.13093,10.9832,-1.37371,20,4
3.84903,19.82,3.19783,39,12
2.58779,13.313,-1.18654,65,5
7.02125,36.1212,7.15267,13,13
2.59148,13.3196,-0.711141,13,6
7.13272,36.6264,8.61473,25,14
2.86941,14.7207,-0.261786,50,7
7.09173,36.3482,9.92312,9,15
0.100598,0.511807,-0.139762,14,0
2.81655,14.3296,0.25491,13,8
0.124138,0.630989,-0.148468,24,1
3.21364,16.3198,0.871708,21,9
1.52088,7.71634,-1.52876,23,2
3.2543,16.4958,1.47101,81,10
1.78439,9.03669,-1.45891,25,3
3.55865,18.0221,2.25556,43,11
2.16695,10.964,-1.37225,19,4
3.90248,19.727,3.18501,29,12
2.65204,13.3938,-1.19456,40,5
7.15282,36.0914,7.1519,34,13
3.56948,17.9942,-0.961412,7,6
7.14926,36.0075,8.47526,24,14
2.61662,13.1787,-0.234525,36,7
7.20725,36.2664,9.90759,9,15
0.0993505,0.496299,-0.135621,15,0
3.26544,16.2976,0.290129,13,8
0.122235,0.609512,-0.143519,25,1
3.33893,16.6492,0.889921,49,9
1.54356,7.68981,-1.52456,23,2
3.22042,16.0292,1.4304,28,10
1.81359,9.01879,-1.45703,27,3
4.41668,21.9438,2.7484,13,11
2.19771,10.9093,-1.3664,19,4
2.69366,13.3591,-1.19229,20,5
7.39645,36.6493,7.26753,7,13
2.69701,13.3516,-0.713862,26,6
7.27105,35.9632,8.47076,12,14
2.66538,13.1832,-0.23477,36,7
7.31541,36.1502,9.88275,9,15
0.100311,0.492163,-0.134586,15,0
2.91133,14.2841,0.254456,42,8
0.129709,0.635835,-0.149817,24,1
3.38504,16.5787,0.886781,42,9
1.56882,7.67669,-1.52304,23,2
3.32745,16.2678,1.45271,56,10
1.8423,9.00692,-1.45609,27,3
3.71744,18.1582,2.27579,24,11
2.22032,10.8358,-1.35811,17,4
5.98586,29.1608,5.78647,48,13
2.74931,13.3817,-0.715956,6,6
5.95248,28.947,6.82277,80,14
3.62849,17.6297,-0.314178,97,7
5.90623,28.6713,7.84377,45,15
0.101942,0.491828,-0.134586,15,0
3.07775,14.8358,0.264474,19,8
0.130739,0.629654,-0.148468,24,1
3.43877,16.5616,0.886467,18,9
1.58907,7.64645,-1.51808,23,2
3.35785,16.1435,1.4426,50,10
1.8697,8.98109,-1.45296,30,3
3.83101,18.3861,2.30601,9,11
2.24841,10.7813,-1.35226,17,4
4.10138,19.6665,3.18188,22,12
2.70352,12.9523,-1.1576,19,5
7.54577,36.1196,7.17251,28,13
3.06498,14.6584,-0.78483,3,6
9.23532,44.13,10.4089,17,14
3.07578,14.6973,-0.2621,92,7
7.79577,37.2189,10.1892,9,15
2.99611,14.2053,0.253409,37,8
0.134436,0.636844,-0.150267,24,1
3.48831,16.5104,0.884373,33,9
1.61007,7.61397,-1.51273,23,2
3.51566,16.6112,1.48548,29,10
1.8962,8.95938,-1.45046,23,3
3.84752,18.1635,2.27969,29,11
2.2788,10.7486,-1.34909,17,4
4.13309,19.4781,3.15372,86,12
2.74457,12.9233,-1.15586,26,5
6.80984,32.0653,6.37188,27,13
3.28465,15.4531,-0.827955,6,6
7.69879,36.1889,8.54184,12,14
3.10999,14.6063,-0.260669,100,7
7.90389,37.0894,10.1612,9,15
3.50923,16.3552,0.291979,19,8
0.136249,0.634466,-0.149817,24,1
3.55264,16.5293,0.886048,58,9
1.6316,7.59131,-1.5093,26,2
3.58162,16.6501,1.49001,45,10
1.92082,8.92181,-1.44545,23,3
3.95649,18.3615,2.30626,39,11
2.30835,10.7037,-1.34446,17,4
4.19606,19.4404,3.14996,17,12
2.78994,12.9258,-1.15691,19,5
6.92588,32.0605,6.37569,11,13
3.32422,15.3752,-0.824396,3,6
7.7649,35.8838,8.47616,12,14
3.20837,14.8142,-0.264578,74,7
7.49925,34.5978,9.48572,33,15
0.10947,0.502077,-0.137692,14,0
3.57398,16.378,0.292607,30,8
0.137216,0.628275,-0.148468,24,1
3.56595,16.3139,0.875162,28,9
1.65263,7.56064,-1.50434,26,2
3.57798,16.3553,1.46474,34,10
1.94814,8.89769,-1.44264,18,3
3.97381,18.1343,2.27944,19,11
2.33635,10.6529,-1.3391,19,4
4.18554,19.0687,3.09208,13,12
2.82564,12.8732,-1.15307,42,5
7.95858,36.2279,7.20991,14,13
3.36072,15.2854,-0.820209,6,6
7.65727,34.7982,8.22601,36,14
3.22823,14.6584,-0.261996,50,7
8.13519,36.9088,10.1271,9,15
0.108714,0.490375,-0.134586,15,0
3.79702,17.1132,0.305976,14,8
0.138985,0.62589,-0.148018,24,1
3.6196,16.3,0.875057,20,9
1.67177,7.52224,-1.49785,26,2
3.68653,16.5741,1.48548,32,10
1.97318,8.86384,-1.43826,37,3
3.92658,17.6243,2.21705,28,11
2.36216,10.6025,-1.33374,24,4
4.3025,19.2957,3.13119,13,12
2.8992,12.9916,-1.16457,27,5
9.67308,43.3103,8.62609,19,13
3.42016,15.3009,-0.821675,13,6
4.90082,21.9071,-0.391841,48,7
8.28118,36.9872,10.1561,9,15
0.106095,0.471166,-0.12941,15,0
4.15929,18.4563,0.330234,20,8
0.143204,0.63493,-0.150267,24,1
3.64156,16.1457,0.867416,22,9
1.69022,7.48793,-1.49213,23,2
3.73532,16.5346,1.48304,39,10
1.99864,8.8399,-1.43544,16,3
3.985,17.6112,2.21705,19,11
2.38811,10.5539,-1.32862,16,4
7.22026,31.8832,5.17767,21,12
2.95196,13.0247,-1.16841,27,5
7.92531,34.9399,6.96415,26,13
3.4585,15.2349,-0.818744,26,6
9.13467,40.2388,9.52623,14,14
3.3719,14.8415,-0.265661,74,7
8.4252,37.0537,10.1819,9,15
4.25661,18.6003,0.333062,16,8
0.144439,0.630653,-0.149367,24,1
3.70147,16.1485,0.868254,22,9
1.71372,7.4705,-1.48984,23,2
3.83423,16.7144,1.5003,48,10
2.02176,8.80628,-1.43106,20,3
4.5817,19.9408,2.51221,28,11
2.4107,10.4836,-1.32082,22,4
2.93078,12.725,-1.14244,30,5
10.0342,43.5324,8.68372,19,13
3.12915,13.5647,-0.729563,9,6
9.53524,41.3346,9.79347,15,14
5.25901,22.7793,-0.408072,34,7
8.57405,37.1088,10.2052,19,15
0.119008,0.51181,-0.140798,14,0
4.2817,18.3995,0.329746,18,8
0.141003,0.605446,-0.143519,25,1
3.76063,16.1348,0.868254,73,9
1.74109,7.46417,-1.48984,19,2
3.89412,16.6944,1.49978,39,10
2.04324,8.75264,-1.42355,18,3
4.16656,17.8342,2.24873,9,11
2.44685,10.465,-1.3196,19,4
4.56822,19.5227,3.17562,35,12
2.98875,12.7626,-1.1468,28,5
8.5474,36.4707,7.28127,35,13
3.47803,14.8287,-0.798228,29,6
9.70001,41.3563,9.80697,15,14
4.53956,19.3393,-0.346744,14,7
8.71974,37.1185,10.2166,19,15
0.12266,0.51889,-0.142868,14,0
4.15759,17.5742,0.315225,18,8
0.145466,0.614406,-0.145768,25,1
3.77459,15.9428,0.858624,10,9
1.75853,7.42175,-1.48259,26,2
3.9401,16.616,1.49402,42,10
2.07075,8.72587,-1.42043,20,3
4.22089,17.7725,2.24288,28,11
2.47052,10.4024,-1.31278,20,4
4.62264,19.449,3.16623,42,12
3.0485,12.8161,-1.15255,19,5
8.70102,36.5514,7.30341,28,13
3.17615,13.3321,-0.718259,13,6
9.65826,40.5412,9.62161,15,14
5.22663,21.9221,-0.393377,8,7
8.86404,37.1499,10.2337,9,15
4.2672,17.7742,0.319065,7,8
0.145226,0.604447,-0.143519,25,1
3.99494,16.6273,0.896201,7,9
1.779,7.3987,-1.47915,23,2
4.02455,16.7249,1.50501,39,10
2.09505,8.69975,-1.4173,21,3
4.28863,17.795,2.24751,52,11
2.49569,10.3555,-1.3079,15,4
4.68063,19.4067,3.16185,14,12
3.05078,12.6394,-1.13756,35,5
8.84015,36.5968,7.31829,43,13
3.55542,14.7076,-0.792994,19,6
9.82379,40.6377,9.6522,15,14
4.13928,17.1097,-0.307267,83,7
8.98036,37.0921,10.2259,19,15
0.12153,0.499295,-0.137692,14,0
4.33653,17.8027,0.319833,1,8
0.149076,0.611535,-0.145318,25,1
4.78525,19.615,1.05813,22,9
1.79841,7.37178,-1.47495,23,2
4.13055,16.9186,1.52366,29,10
2.11732,8.66589,-1.41292,32,3
4.37497,17.8926,2.26165,9,11
2.51815,10.2908,-1.30083,19,4
10.0328,40.9697,6.68069,30,12
3.0576,12.486,-1.12466,30,5
8.97222,36.6111,7.32707,21,13
3.50903,14.3078,-0.77206,19,6
9.92844,40.4518,9.61621,15,14
4.19564,17.0816,-0.307023,38,7
9.125,37.1224,10.243,9,15
0.125126,0.506369,-0.139762,14,0
4.90268,19.8257,0.356483,22,8
0.15121,0.611011,-0.145318,25,1
4.06147,16.3994,0.88542,29,9
1.818,7.34068,-1.46999,21,2
4.12967,16.6623,1.50187,48,10
2.1409,8.63161,-1.40854,22,3
4.71525,18.9966,2.40326,10,11
2.54113,10.23,-1.29425,23,4
8.42108,33.8759,5.52871,24,12
3.10646,12.4965,-1.12658,28,5
8.36107,33.6094,6.73212,30,13
3.60044,14.4621,-0.781062,16,6
5.9378,23.8152,-0.428422,35,7
9.2882,37.2253,10.2803,9,15
0.122193,0.487191,-0.134586,15,0
4.4461,17.7138,0.318786,11,8
0.159039,0.63316,-0.150717,23,1
4.13719,16.4587,0.889397,33,9
1.84026,7.32096,-1.46732,26,2
4.17566,16.5995,1.49751,29,10
2.1633,8.59343,-1.40353,16,3
4.82081,19.1359,2.42301,25,11
2.56615,10.1787,-1.28889,19,4
8.55185,33.8961,5.53684,24,12
3.15542,12.5068,-1.12849,35,5
8.48699,33.6143,6.73899,36,13
3.5555,14.0719,-0.760651,19,6
9.27331,36.6747,8.7335,12,14
4.55466,17.9999,-0.324091,100,7
10.3343,40.8108,11.2804,12,15
0.119128,0.46804,-0.12941,15,0
5.62934,22.1009,0.398089,2,8
0.158841,0.623159,-0.148468,24,1
4.16796,16.3397,0.883745,45,9
1.8624,7.30118,-1.46465,19,2
4.17691,16.3628,1.47746,46,10
2.18497,8.55329,-1.39821,18,3
4.88315,19.1016,2.42081,46,11
2.59773,10.1543,-1.28694,16,4
8.6853,33.9254,5.54654,19,12
3.21289,12.5498,-1.13337,35,5
8.61695,33.6339,6.74891,30,13
3.47663,13.5602,-0.733645,26,6
10.0299,39.0922,9.31747,14,14
4.62592,18.0168,-0.324685,100,7
0.120761,0.467622,-0.12941,15,0
4.52963,17.5274,0.315993,20,8
0.158576,0.613167,-0.146218,25,1
4.20812,16.2716,0.880814,29,9
1.88001,7.26423,-1.45854,26,2
4.2305,16.3346,1.47624,18,10
2.20639,8.5131,-1.39289,16,3
4.94133,19.0518,2.41667,56,11
2.62318,10.1067,-1.28207,17,4
8.74714,33.7013,5.51463,19,12
3.27171,12.5963,-1.1386,28,5
8.74516,33.6454,6.75731,25,13
3.48221,13.3876,-0.724958,16,6
10.1874,39.1381,9.33682,14,14
4.67204,17.9491,-0.323742,82,7
10.2953,39.5243,10.9439,11,15
0.122393,0.467197,-0.12941,15,0
4.58773,17.5123,0.315993,1,8
0.162585,0.620178,-0.148018,24,1
4.27199,16.2839,0.88228,23,9
1.89937,7.23483,-1.45396,23,2
4.26674,16.2407,1.4691,34,10
2.22809,8.4809,-1.38883,22,3
4.99892,19.0142,2.41399,10,11
2.64759,10.0634,-1.27768,17,4
8.84965,33.6133,5.50524,9,12
3.32632,12.6253,-1.14226,28,5
16.4319,62.3685,12.5369,25,13
3.62485,13.7487,-0.745159,19,6
4.58,17.3468,-0.313166,100,7
10.451,39.5554,10.9625,11,15
4.31864,16.2535,0.293549,26,8
0.164749,0.619607,-0.148018,24,1
4.336,16.2959,0.883745,13,9
1.91831,7.20952,-1.45015,26,2
4.31186,16.1938,1.46613,40,10
2.25259,8.45399,-1.3857,21,3
8.85655,33.2154,4.22082,13,11
2.6781,10.0368,-1.27548,16,4
9.01226,33.7521,5.53309,24,12
3.37706,12.6386,-1.14453,28,5
16.6353,62.2577,12.5262,25,13
3.58047,13.3906,-0.726423,19,6
10.4803,39.1676,9.36066,14,14
4.62241,17.2631,-0.311944,100,7
10.919,40.7503,11.3042,12,15
0.125651,0.466331,-0.12941,15,0
4.25933,15.8077,0.285766,40,8
0.167418,0.62091,-0.148468,24,1
1.94062,7.18728,-1.4471,26,2
4.62375,17.1126,1.55085,29,10
2.27274,8.40563,-1.37913,17,3
8.95794,33.1306,4.214,27,11
2.70845,10.0102,-1.27329,17,4
9.1068,33.6346,5.51901,9,12
3.36124,12.4056,-1.12448,26,5
9.8553,36.3488,7.32058,29,13
3.74563,13.8053,-0.74966,13,6
9.82977,36.2045,8.66107,37,14
4.67898,17.2334,-0.3117,99,7
9.80604,36.0922,10.0215,37,15
4.30723,15.7554,0.285103,32,8
0.166093,0.607134,-0.145318,25,1
1.96259,7.1691,-1.44481,26,2
4.3913,16.0299,1.45411,18,10
2.29684,8.37859,-1.376,18,3
9.08456,33.1167,4.21644,27,11
2.73567,9.96573,-1.2689,17,4
9.61163,35.0141,5.75084,5,12
3.37971,12.3035,-1.11629,23,5
9.979,36.3028,7.31829,36,13
3.77473,13.7228,-0.745892,42,6
11.0095,39.9972,9.57752,14,14
4.72848,17.1784,-0.311002,100,7
11.0904,40.2633,11.1903,12,15
4.45284,16.0782,0.291211,17,8
0.170187,0.614092,-0.147118,24,1
1.97605,7.12059,-1.43641,26,2
4.44403,16.003,1.45306,31,10
2.31562,8.33857,-1.37068,17,3
9.21558,33.1629,4.22619,27,11
2.75168,9.8954,-1.2611,19,4
10.1241,36.3829,5.98143,22,12
3.40286,12.2206,-1.10984,23,5
11.2943,40.5608,8.18418,8,13
3.80628,13.6602,-0.743171,26,6
9.42747,33.811,8.10364,23,14
4.4477,15.9406,-0.288872,7,7
11.5426,41.3407,11.5009,13,15
0.130446,0.465013,-0.12941,15,0
4.52623,16.1242,0.292328,16,8
0.168114,0.598485,-0.143519,25,1
1.99434,7.09509,-1.43259,26,2
4.48574,15.9479,1.4494,28,10
2.34472,8.33044,-1.37068,22,3
8.04506,28.5638,3.64365,71,11
2.77274,9.83797,-1.25501,19,4
9.45959,33.5412,5.51963,9,12
3.44175,12.2035,-1.10932,26,5
11.4635,40.6194,8.20402,8,13
3.86316,13.6795,-0.74495,29,6
9.61434,34.0217,8.16212,12,14
4.45054,15.7383,-0.285486,100,7
11.9771,42.3263,11.7866,14,15
0.132069,0.464555,-0.12941,15,0
4.71217,16.5642,0.3006,14,8
0.171802,0.603517,-0.144868,25,1
4.7817,16.7863,0.914728,22,9
2.01479,7.07298,-1.42954,26,2
4.55722,15.9877,1.45446,25,10
2.36348,8.28611,-1.36473,18,3
9.61958,33.7028,4.30345,14,11
2.80434,9.81869,-1.25379,19,4
9.56738,33.4757,5.51432,23,12
3.48213,12.1838,-1.10862,26,5
11.5955,40.5452,8.19715,17,13
4.14169,14.4724,-0.788912,35,6
9.7459,34.0329,8.17292,12,14
4.50599,15.7246,-0.285521,100,7
9.87876,34.4513,9.60322,8,15
4.57167,15.8597,0.288104,50,8
0.174988,0.606659,-0.145768,25,1
2.03403,7.04704,-1.42572,23,2
4.6025,15.9353,1.45114,15,10
2.38088,8.23796,-1.35816,22,3
9.72615,33.6309,4.29858,14,11
2.83363,9.79168,-1.2516,19,4
10.043,34.7037,5.72206,25,12
3.51078,12.1237,-1.10426,26,5
11.6364,40.1575,8.12694,17,13
3.87013,13.3472,-0.728307,32,6
10.1193,34.8764,8.38393,36,14
4.52022,15.579,-0.283148,100,7
9.90247,34.1067,9.51626,8,15
4.66514,15.9846,0.290652,11,8
0.171536,0.587369,-0.141269,26,1
4.72274,16.161,0.882384,5,9
2.0498,7.00975,-1.41962,23,2
4.66481,15.9421,1.45323,12,10
2.40541,8.22054,-1.3566,18,3
6.79474,23.2061,2.96898,65,11
2.85883,9.75746,-1.24843,19,4
7.24359,24.7071,4.07793,5,12
3.53402,12.0464,-1.09834,26,5
11.7325,39.9925,8.10137,25,13
3.86655,13.1714,-0.71941,32,6
9.83508,33.4815,8.0564,11,14
4.47927,15.2389,-0.277249,100,7
9.95277,33.8384,9.45104,8,15
0.142319,0.481697,-0.134586,15,0
4.71354,15.9433,0.290199,50,8
0.175244,0.592373,-0.142619,26,1
2.0708,6.99539,-1.41809,23,2
5.38877,18.1922,1.65997,17,10
2.4296,8.19694,-1.3541,18,3
7.38145,24.8875,3.18737,92,11
2.88609,9.72459,-1.2455,19,4
7.30918,24.628,4.06886,28,12
3.55296,11.9639,-1.09189,26,5
11.8759,39.9645,8.10404,8,13
3.94609,13.2707,-0.725586,16,6
9.95135,33.4451,8.05595,47,14
4.25719,14.3078,-0.260564,33,7
12.5224,42.0594,11.7587,14,15
0.146215,0.4886,-0.136656,14,0
4.80938,16.0713,0.292816,56,8
0.177207,0.591788,-0.142619,26,1
4.86645,16.2413,0.88856,15,9
2.089,6.96743,-1.41389,26,2
5.34174,17.805,1.62633,27,10
2.44712,8.15667,-1.34878,17,3
7.47708,24.9066,3.19298,56,11
2.90747,9.67884,-1.24087,17,4
7.39851,24.6137,4.07074,39,12
3.58035,11.9037,-1.08753,23,5
14.0707,46.7814,9.4958,22,13
4.40451,14.6346,-0.80095,45,6
11.9818,39.786,9.59281,15,14
4.46058,14.8022,-0.269849,65,7
10.2894,34.1232,9.54991,16,15
0.140076,0.462203,-0.12941,15,0
4.87754,16.0841,0.293375,57,8
0.183336,0.604188,-0.145768,25,1
4.93871,16.2654,0.890863,33,9
2.11217,6.95634,-1.41313,26,2
5.02623,16.5433,1.51268,9,10
2.47298,8.13442,-1.34659,20,3
10.6962,35.1611,4.51258,14,11
2.94004,9.65862,-1.23966,19,4
10.7872,35.4161,5.86379,21,12
3.60795,11.8454,-1.08335,19,5
11.56,37.9294,7.70754,40,13
4.50006,14.7559,-0.808486,42,6
10.5378,34.5322,8.33534,36,14
4.65379,15.2409,-0.278156,100,7
10.3901,34.0058,9.52765,8,15
0.141688,0.461712,-0.12941,15,0
4.87261,15.8682,0.289745,48,8
0.185444,0.603545,-0.145768,25,1
4.92855,16.0304,0.87893,10,9
2.13356,6.93954,-1.41122,26,2
5.0857,16.5313,1.5132,16,10
2.48101,8.05966,-1.33564,28,3
8.08637,26.2525,3.37286,100,11
2.96731,9.62743,-1.23697,16,4
8.02272,26.0136,4.31165,48,12
3.634,11.7833,-1.07881,21,5
7.9728,25.8357,5.25564,76,13
4.22627,13.6867,-0.750707,13,6
10.3102,33.3688,8.06315,11,14
4.4961,14.5425,-0.265695,8,7
10.4956,33.9269,9.51574,16,15
0.154763,0.498111,-0.139762,14,0
4.97308,15.9962,0.292398,56,8
0.184076,0.591729,-0.143069,25,1
2.15018,6.90768,-1.40626,26,2
8.25808,26.5136,2.42955,6,10
2.50737,8.04529,-1.3347,16,3
11.0867,35.5517,4.57254,29,11
2.99084,9.5848,-1.23283,15,4
3.66146,11.7268,-1.0748,23,5
4.23111,13.5346,-0.743171,35,6
7.99364,25.5546,6.18165,100,14
4.54847,14.5409,-0.26594,100,7
10.5054,33.5637,9.4236,16,15
0.150704,0.47914,-0.134586,15,0
4.60971,14.6558,0.268174,37,8
0.185453,0.589256,-0.142619,26,1
5.01655,15.9299,0.875267,31,9
2.16897,6.88328,-1.40283,26,2
5.71444,18.1239,1.66258,31,10
2.52572,8.01056,-1.33032,18,3
9.60392,30.4412,3.91932,38,11
3.00408,9.51615,-1.22527,15,4
7.71469,24.4233,4.05666,7,12
3.67475,11.6265,-1.06679,21,5
10.9979,34.7963,7.09352,13,13
4.40665,13.9337,-0.765884,35,6
4.74107,14.9729,-0.274142,88,7
7.95647,25.1124,7.05851,26,15
0.15815,0.497046,-0.139762,14,0
4.5656,14.3405,0.262694,36,8
0.191649,0.601603,-0.145768,25,1
5.0976,15.9922,0.879663,28,9
2.18821,6.86483,-1.40054,26,2
5.75029,18.0289,1.65561,28,10
2.55006,7.9904,-1.32844,16,3
11.2675,35.2845,4.54792,29,11
3.0252,9.46779,-1.2204,15,4
10.6549,33.326,5.54153,14,12
3.69386,11.5535,-1.06121,26,5
13.0031,40.646,8.29523,18,13
4.31522,13.4808,-0.74181,13,6
9.85199,30.7592,7.45668,11,14
4.70297,14.6744,-0.268976,89,7
8.04645,25.0919,7.06058,13,15
0.153963,0.478103,-0.134586,15,0
4.61011,14.3073,0.262379,15,8
0.18717,0.580529,-0.140819,26,1
5.18099,16.0598,0.884373,18,9
2.20492,6.83473,-1.39596,26,2
5.83093,18.0637,1.66067,24,10
2.56519,7.94198,-1.32187,25,3
7.99216,24.7294,3.19103,9,11
3.05395,9.44395,-1.21869,15,4
11.3921,35.2075,5.86097,5,12
3.71148,11.4704,-1.05476,26,5
16.8899,52.1677,10.6586,16,13
4.62262,14.2693,-0.786086,45,6
9.91724,30.5948,7.42518,43,14
4.89545,15.0935,-0.27697,100,7
11.0017,33.9002,9.54991,8,15
0.149644,0.459195,-0.12941,15,0
4.80137,14.7246,0.270338,63,8
0.196449,0.602103,-0.146218,25,1
5.2835,16.184,0.892223,30,9
2.22694,6.82139,-1.39481,26,2
5.92798,18.1474,1.67025,10,10
2.5843,7.90669,-1.31749,20,3
8.06484,24.6599,3.18566,46,11
3.07579,9.39927,-1.21431,17,4
8.80415,26.8886,4.48122,15,12
3.73972,11.4214,-1.05145,26,5
9.02861,27.5579,5.63688,16,13
4.72529,14.4144,-0.794983,42,6
9.99422,30.4693,7.40314,43,14
4.63382,14.1188,-0.259378,41,7
10.0194,30.5101,8.6047,6,15
0.160926,0.488024,-0.137692,14,0
4.97429,15.0762,0.277109,21,8
0.188164,0.569955,-0.13857,27,1
5.37191,16.2622,0.897562,11,9
2.24704,6.80239,-1.39252,26,2
7.72828,23.3818,2.15449,5,10
2.60072,7.86386,-1.31186,20,3
8.1197,24.5373,3.17348,9,11
3.09423,9.34513,-1.2087,16,4
8.86316,26.7527,4.4637,34,12
3.76891,11.3762,-1.04848,26,5
9.07657,27.3809,5.60711,20,13
4.74791,14.3144,-0.790378,29,6
10.0041,30.1438,7.3325,10,14
4.6648,14.0475,-0.258365,8,7
10.0741,30.3191,8.5607,27,15
0.15896,0.476464,-0.134586,15,0
0.196326,0.587778,-0.143069,25,1
2.26455,6.77588,-1.38871,26,2
6.14867,18.3871,1.69623,28,10
2.62878,7.85661,-1.31217,23,3
11.8725,35.4625,4.59179,60,11
3.11863,9.30981,-1.20553,16,4
8.94017,26.6729,4.45557,21,12
3.78581,11.2949,-1.04221,24,5
8.15457,24.315,4.98508,16,13
4.74574,14.1425,-0.781795,48,6
10.1577,30.2528,7.3676,21,14
4.98956,14.8519,-0.273479,89,7
10.1706,30.2563,8.55293,6,15
0.164329,0.486889,-0.137692,14,0
0.194633,0.576012,-0.140369,26,1
5.37529,15.8989,0.879558,24,9
2.27498,6.72888,-1.38069,23,2
5.56479,16.4499,1.5193,19,10
2.64289,7.80809,-1.3056,18,3
12.0121,35.4679,4.59789,15,11
3.13709,9.2575,-1.20017,16,4
9.129,26.9241,4.50281,13,12
3.81689,11.2571,-1.03994,24,5
9.25489,27.2797,5.59948,20,13
4.86698,14.3377,-0.793518,29,6
10.2983,30.3205,7.39279,43,14
4.92555,14.4936,-0.267196,100,7
10.3097,30.3194,8.58089,27,15
0.166028,0.486312,-0.137692,14,0
5.11508,14.974,0.276202,4,8
0.200424,0.586394,-0.143069,25,1
5.59491,16.36,0.906145,71,9
2.29592,6.71347,-1.37917,23,2
5.6054,16.3814,1.51477,13,10
2.66501,7.78386,-1.3031,26,3
10.2496,29.9196,3.88325,12,11
3.15909,9.21645,-1.19627,15,4
9.21844,26.8789,4.50062,22,12
3.83871,11.1928,-1.03524,24,5
9.6024,27.9826,5.7506,43,13
4.99159,14.5378,-0.805555,35,6
10.3984,30.2678,7.38874,10,14
5.13602,14.9415,-0.275783,88,7
10.5236,30.5974,8.66992,7,15
0.165202,0.478426,-0.135621,15,0
5.70998,16.5267,0.305208,61,8
0.20629,0.596741,-0.145768,25,1
5.66373,16.3744,0.908029,22,9
2.31292,6.68686,-1.37535,26,2
5.67102,16.3862,1.51703,39,10
2.67924,7.73718,-1.29684,28,3
9.00221,25.9822,3.37627,51,11
3.18474,9.18661,-1.19383,15,4
9.04615,26.0796,4.37203,30,12
3.85752,11.121,-1.02983,24,5
9.52364,27.4407,5.64604,20,13
4.87982,14.0524,-0.779597,58,6
10.4413,30.0509,7.34465,43,14
5.1297,14.7554,-0.272676,81,7
10.3079,29.6336,8.40696,6,15
0.159228,0.45596,-0.12941,15,0
5.56711,15.9328,0.294597,28,8
0.200654,0.573943,-0.140369,26,1
5.738,16.4035,0.91075,55,9
2.333,6.66948,-1.37344,26,2
6.20208,17.7203,1.64254,37,10
2.69905,7.70728,-1.2934,28,3
9.12436,26.0405,3.38797,41,11
3.20431,9.13984,-1.1892,15,4
10.4337,29.7442,4.99245,19,12
3.88378,11.0718,-1.02652,24,5
9.63498,27.4517,5.6552,21,13
4.92819,14.0334,-0.779492,65,6
10.4279,29.6778,7.26232,100,14
5.44581,15.4901,-0.286603,63,7
10.4023,29.5719,8.39971,71,15
0.177544,0.502763,-0.142868,14,0
5.7566,16.2923,0.301612,21,8
0.203306,0.575076,-0.140819,26,1
5.91311,16.7167,0.929277,42,9
2.34841,6.63908,-1.36886,26,2
6.47196,18.2864,1.6971,28,10
2.70813,7.64753,-1.28495,41,3
9.24171,26.0833,3.39772,52,11
3.22625,9.10054,-1.18555,15,4
9.14743,25.7886,4.33386,33,12
3.91575,11.0394,-1.02478,22,5
9.73337,27.4253,5.65672,25,13
4.98249,14.0312,-0.780329,68,6
5.38866,15.1582,-0.280809,100,7
10.6201,29.8576,8.49134,13,15
0.1754,0.491224,-0.139762,14,0
6.42701,17.9895,0.333446,10,8
0.205968,0.576198,-0.141269,26,1
5.91944,16.5597,0.921636,27,9
2.3643,6.61051,-1.36467,26,2
6.36525,17.7872,1.65282,27,10
2.73481,7.63803,-1.28495,28,3
9.41706,26.2864,3.42843,31,11
3.2446,9.05185,-1.18067,15,4
9.24024,25.7786,4.3373,24,12
3.94349,10.9956,-1.02199,22,5
10.0969,28.1377,5.8109,31,13
5.01929,13.9799,-0.778445,74,6
12.1528,33.8298,8.29889,12,14
5.45579,15.1873,-0.281682,78,7
10.2636,28.5551,8.13054,6,15
0.173178,0.479707,-0.136656,14,0
5.99909,16.6176,0.308384,18,8
0.205892,0.570013,-0.13992,26,1
6.05053,16.7418,0.932941,13,9
2.38536,6.59668,-1.36352,26,2
6.36696,17.5982,1.63731,30,10
2.75542,7.61592,-1.28276,25,3
9.50959,26.2699,3.43038,53,11
3.26784,9.02238,-1.17823,15,4
9.82213,27.1038,4.56601,13,12
3.97031,10.9499,-1.01902,24,5
9.74716,26.8823,5.55827,12,13
5.10785,14.0796,-0.784935,45,6
11.3646,31.3091,7.68973,11,14
5.47601,15.078,-0.280006,100,7
17.5825,48.3864,13.7945,19,15
0.17212,0.47187,-0.134586,15,0
6.08791,16.6811,0.309955,20,8
0.211222,0.578444,-0.142169,26,1
6.06216,16.6015,0.926242,9,9
2.40386,6.57951,-1.36161,26,2
6.40134,17.5114,1.63121,27,10
2.76706,7.56544,-1.27588,27,3
9.60942,26.259,3.4333,10,11
3.29112,8.98854,-1.17531,17,4
9.91672,27.0841,4.5682,22,12
3.99083,10.8937,-1.01502,22,5
10.1774,27.766,5.74831,48,13
5.1824,14.131,-0.788808,58,6
10.6898,29.1324,7.16424,10,14
6.38222,17.3932,-0.323393,30,7
16.2661,44.3055,12.6464,16,15
0.167082,0.453141,-0.12941,15,0
6.10998,16.5708,0.308279,30,8
0.21314,0.57774,-0.142169,26,1
6.16157,16.6927,0.932522,27,9
2.42204,6.55819,-1.35894,26,2
6.06328,16.4088,1.53045,13,10
2.78529,7.53769,-1.27275,25,3
9.79075,26.482,3.4667,32,11
3.31402,8.95896,-1.17287,24,4
10.0208,27.0752,4.57258,22,12
4.00946,10.8274,-1.01014,24,5
10.2333,27.6346,5.72809,35,13
5.22854,14.1119,-0.788703,45,6
11.6452,31.4137,7.73472,11,14
5.74402,15.4866,-0.288314,100,7
13.134,35.3919,10.1152,9,15
0.176676,0.474308,-0.135621,15,0
6.15103,16.5044,0.307442,37,8
0.210389,0.564211,-0.13902,13,1
6.21631,16.6617,0.931999,12,9
2.44241,6.54644,-1.35818,26,2
6.11209,16.3736,1.52906,26,10
2.80605,7.51312,-1.27025,26,3
11.1596,29.8636,3.91444,12,11
3.32442,8.89156,-1.16556,20,4
10.0862,26.9624,4.55944,19,12
4.01532,10.7338,-1.00264,23,5
10.3923,27.766,5.76281,21,13
5.26446,14.058,-0.786714,35,6
10.1836,27.1794,6.70084,19,14
5.40846,14.4272,-0.268942,100,7
13.2568,35.344,10.1146,18,15
0.183776,0.488152,-0.139762,14,0
6.19169,16.4379,0.306604,35,8
0.210982,0.559826,-0.13812,13,1
6.60634,17.5202,0.981299,13,9
2.45901,6.52135,-1.35474,26,2
6.85349,18.166,1.69867,52,10
2.83226,7.50328,-1.27025,26,3
10.4362,27.6331,3.62683,23,11
3.34561,8.8539,-1.16215,17,4
10.0342,26.5408,4.49405,34,12
4.03656,10.6768,-0.99863,23,5
10.4621,27.6579,5.74793,48,13
5.21947,13.7911,-0.772793,35,6
10.2853,27.1619,6.70534,9,14
5.57215,14.7074,-0.274526,100,7
14.0552,37.0786,10.625,63,15
0.185479,0.487508,-0.139762,14,0
8.47219,22.2564,0.415681,11,8
0.21571,0.566371,-0.13992,13,1
6.80329,17.8535,1.00129,5,9
2.47337,6.49071,-1.35016,26,2
6.90267,18.1048,1.69518,21,10
2.84717,7.46382,-1.26524,27,3
10.4023,27.2553,3.58198,23,11
3.36871,8.82177,-1.15947,17,4
10.0655,26.3451,4.46683,25,12
4.0539,10.6106,-0.99375,23,5
10.5733,27.6598,5.75594,30,13
5.22692,13.6665,-0.766827,35,6
10.4079,27.1986,6.72334,9,14
5.76574,15.0595,-0.281472,78,7
13.9773,36.4882,10.4697,20,15
0.191339,0.497677,-0.142868,14,0
5.69678,14.8097,0.27697,9,8
0.216285,0.561977,-0.13902,13,1
6.88423,17.8781,1.00401,19,9
2.4953,6.4802,-1.34978,26,2
6.92429,17.9727,1.68507,28,10
2.8661,7.4354,-1.26211,30,3
10.7703,27.9263,3.67509,24,11
3.38162,8.76366,-1.15337,15,4
10.5857,27.4192,4.65518,30,12
4.08015,10.5685,-0.991135,23,5
10.7448,27.8168,5.7964,13,13
5.23571,13.5475,-0.761174,35,6
10.7951,27.9182,6.9105,10,14
5.84352,15.1046,-0.282694,70,7
13.9665,36.0824,10.3673,19,15
0.174887,0.450186,-0.12941,15,0
5.7267,14.7338,0.275923,43,8
0.216833,0.557586,-0.13812,13,1
6.80899,17.5003,0.984125,49,9
2.50865,6.44767,-1.34482,26,2
7.01661,18.0246,1.69222,24,10
2.88343,7.40326,-1.25836,30,3
10.5131,26.9785,3.55517,22,11
3.40858,8.74255,-1.15215,17,4
10.578,27.1171,4.61012,16,12
4.12136,10.5653,-0.992181,23,5
11.415,29.2477,6.10284,10,13
5.25827,13.4659,-0.757615,35,6
10.8819,27.8532,6.90375,50,14
5.75789,14.7302,-0.276062,32,7
14.0642,35.9615,10.3466,19,15
0.183516,0.467556,-0.134586,15,0
5.78102,14.7212,0.276062,12,8
0.21379,0.544129,-0.134971,28,1
6.92484,17.6158,0.991976,9,9
2.52109,6.41329,-1.33948,26,2
7.15387,18.1891,1.71,28,10
2.90492,7.38212,-1.25648,27,3
10.6057,26.938,3.55469,22,11
3.42307,8.68997,-1.14679,19,4
10.6356,26.9862,4.59417,39,12
4.15164,10.5342,-0.990612,23,5
13.1792,33.423,6.98361,6,13
5.29351,13.4178,-0.755941,35,6
10.9798,27.8168,6.9042,40,14
5.82763,14.7565,-0.276935,16,7
14.0356,35.5223,10.2342,9,15
0.192352,0.484837,-0.139762,14,0
5.88289,14.8207,0.278331,30,8
0.214344,0.53972,-0.134071,28,1
7.15382,18.0042,1.01532,10,9
2.53805,6.38759,-1.33604,26,2
10.2758,25.8481,2.43356,27,10
2.92539,7.35491,-1.25367,27,3
10.6992,26.886,3.55298,45,11
3.44021,8.64048,-1.14192,16,4
10.7067,26.8773,4.58228,26,12
4.17916,10.4911,-0.987997,23,5
13.1213,32.9222,6.88897,70,13
5.33526,13.3797,-0.754894,32,6
13.0263,32.6507,8.11578,95,14
5.85202,14.6608,-0.275539,8,7
12.9326,32.383,9.34337,16,15
0.198356,0.494922,-0.142868,14,0
5.78351,14.4233,0.271245,33,8
0.221306,0.551629,-0.13722,13,1
10.1688,25.3339,1.43066,20,9
2.54571,6.34225,-1.32841,30,2
10.7513,26.7716,2.52403,43,10
2.94662,7.33365,-1.25179,35,3
10.7131,26.6496,3.52666,22,11
3.45998,8.60263,-1.1385,15,4
10.8778,27.0322,4.61513,27,12
4.20088,10.4395,-0.984511,19,5
11.5006,28.5654,5.98568,23,13
5.33268,13.2387,-0.747986,35,6
13.1133,32.5382,8.09914,11,14
5.88896,14.605,-0.274875,88,7
14.413,35.7273,10.3227,19,15
0.198632,0.490645,-0.141833,14,0
7.24291,17.8819,0.336762,12,8
0.227622,0.561689,-0.13992,13,1
7.31973,18.0625,1.02139,6,9
2.57152,6.34242,-1.33032,26,2
7.20031,17.75,1.67583,14,10
2.9618,7.2977,-1.24741,27,3
10.7582,26.4943,3.51106,44,11
3.48102,8.57272,-1.13607,15,4
11.0031,27.0839,4.63015,37,12
4.21704,10.3749,-0.979805,21,5
11.757,28.9107,6.06658,19,13
5.35853,13.1701,-0.745159,29,6
14.687,36.0974,8.99714,13,14
5.92379,14.5521,-0.274247,64,7
14.613,35.8797,10.3807,19,15
0.191487,0.468525,-0.135621,15,0
5.97389,14.6094,0.275504,16,8
0.228007,0.557324,-0.13902,26,1
7.33118,17.9198,1.01469,13,9
2.58584,6.31751,-1.32689,26,2
7.43582,18.1575,1.71662,14,10
2.98074,7.27504,-1.24522,28,3
10.8543,26.4787,3.51374,55,11
3.49738,8.53174,-1.13217,15,4
11.2968,27.5443,4.71525,7,12
4.24008,10.3332,-0.97719,21,5
14.8375,36.1416,7.5942,7,13
5.37865,13.095,-0.741915,26,6
11.7754,28.6686,7.15524,10,14
5.96365,14.512,-0.273863,88,7
14.5527,35.3951,10.2544,28,15
0.198934,0.482174,-0.139762,14,0
6.03069,14.6098,0.275888,19,8
0.221672,0.536752,-0.134071,28,1
7.39216,17.8904,1.01448,6,9
2.60528,6.30527,-1.32612,26,2
7.29885,17.6558,1.67147,14,10
2.99882,7.25051,-1.24272,23,3
11.0088,26.604,3.53519,22,11
3.51119,8.48097,-1.12705,16,4
11.3679,27.4445,4.70492,14,12
4.26468,10.2908,-0.974575,21,5
12.0034,28.9645,6.09444,10,13
5.38839,12.9959,-0.737309,26,6
11.6514,28.0874,7.02027,10,14
6.02271,14.5114,-0.274247,100,7
14.7013,35.4047,10.272,19,15
0.194754,0.467176,-0.135621,15,0
6.09012,14.609,0.276272,34,8
0.230295,0.552162,-0.13812,13,1
10.4742,25.101,1.42542,12,9
2.62459,6.28662,-1.32421,28,2
7.36351,17.629,1.67147,14,10
3.01775,7.22125,-1.23959,25,3
11.0741,26.4995,3.52641,22,11
3.53236,8.44851,-1.12437,15,4
11.5558,27.6252,4.74278,3,12
4.28288,10.2335,-0.970566,19,5
11.86,28.3245,5.96889,76,13
5.40743,12.9079,-0.733436,26,6
11.7784,28.102,7.03467,83,14
6.06636,14.4737,-0.273933,72,7
11.6827,27.86,8.09482,24,15
0.194884,0.462933,-0.134586,15,0
6.1475,14.5958,0.276446,40,8
0.230804,0.547723,-0.13722,13,1
7.45794,17.6985,1.00653,4,9
2.63508,6.25028,-1.31849,26,2
11.1487,26.4314,2.50974,57,10
3.02988,7.17973,-1.23427,28,3
11.4676,27.1609,3.62001,23,11
3.54785,8.39894,-1.11949,17,4
11.4839,27.1861,4.67426,37,12
4.30307,10.1818,-0.96708,19,5
5.41121,12.7915,-0.727889,32,6
11.8977,28.1109,7.04727,10,14
6.17453,14.5887,-0.276516,23,7
11.8077,27.8848,8.11398,24,15
0.196499,0.46225,-0.134586,15,0
10.1896,23.9702,0.454635,27,8
0.230331,0.541574,-0.13587,27,1
10.6359,24.996,1.42364,30,9
2.65535,6.23743,-1.31773,26,2
11.2284,26.363,2.50695,28,10
3.04361,7.14601,-1.2302,27,3
12.4105,29.1243,3.88715,12,11
3.57023,8.37434,-1.11779,20,4
11.6167,27.2349,4.68959,37,12
4.32059,10.1246,-0.963071,14,5
15.0231,35.2041,7.44002,14,13
5.43478,12.7294,-0.725376,32,6
15.1921,35.5659,8.92876,13,14
6.78257,15.8708,-0.301263,69,7
12.4389,29.0922,8.47788,13,15
0.198031,0.461596,-0.134586,15,0
10.2929,23.9804,0.455508,33,8
0.237603,0.553302,-0.13902,26,1
10.5299,24.5091,1.398,19,9
2.67059,6.21597,-1.31506,26,2
12.4331,28.9248,2.75447,8,10
3.05449,7.10268,-1.22457,30,3
11.6271,27.0239,3.61221,23,11
3.58375,8.32536,-1.11291,23,4
11.6921,27.1489,4.68177,27,12
4.34014,10.0729,-0.959585,16,5
12.2567,28.4461,6.02079,19,13
5.44993,12.6424,-0.721504,29,6
15.2159,35.28,8.87027,13,14
6.97261,16.1592,-0.307197,83,7
15.4676,35.8292,10.4568,10,15
0.19204,0.443141,-0.12941,15,0
10.3582,23.9021,0.454705,27,8
0.23023,0.531014,-0.133621,14,1
10.4867,24.1754,1.38104,38,9
2.69257,6.20434,-1.31467,26,2
7.59703,17.497,1.66886,10,10
3.07578,7.08057,-1.22269,27,3
11.7087,26.954,3.60831,58,11
3.59537,8.27275,-1.10755,23,4
11.7632,27.0535,4.67239,10,12
4.36574,10.0357,-0.957493,16,5
12.3601,28.3992,6.02041,39,13
5.46593,12.5528,-0.717526,35,6
12.2272,28.067,7.06796,20,14
7.03377,16.1457,-0.307407,61,7
15.8604,36.3895,10.6364,21,15
0.209072,0.477865,-0.139762,14,0
10.4538,23.8823,0.455054,15,8
0.238429,0.544447,-0.13722,13,1
10.4877,23.9484,1.37016,29,9
2.70318,6.16972,-1.30933,26,2
11.7255,26.7494,2.55523,36,10
3.10206,7.07341,-1.22332,28,3
11.8186,26.9364,3.61172,11,11
3.61466,8.23833,-1.10462,30,4
11.9068,27.1244,4.69178,13,12
