x, y, z, intensity, ring
7.64591,-0.817112,0.402987,9,9
0.70277,-0.0751044,-0.137382,37,2
12.5957,-1.34831,1.10827,21,10
6.45802,-0.692444,-1.02871,22,3
10.7766,-1.1574,1.33081,75,11
6.41849,-0.690471,-0.792638,11,4
10.914,-1.176,1.73861,49,12
8.93181,-0.963997,-0.785971,16,5
9.93332,-1.07209,1.94205,47,13
21.1833,-2.29002,-1.11664,17,6
12.2561,-1.32711,2.84608,29,14
7.53665,-0.817411,-0.132324,81,7
11.4868,-1.24787,3.09599,11,15
7.6089,-0.837342,0.133616,17,8
0.557859,-0.0614896,-0.129572,14,1
10.0193,-1.10614,0.528279,24,9
0.698587,-0.0772481,-0.136619,25,2
10.0064,-1.10825,0.880796,84,10
6.36513,-0.70609,-1.01432,57,3
10.7449,-1.19194,1.3274,50,11
6.43182,-0.714625,-0.794588,13,4
10.953,-1.2189,1.7455,25,12
8.89473,-0.991417,-0.783007,16,5
10.0952,-1.127,1.97449,39,13
21.1053,-2.35988,-1.11298,48,6
10.4559,-1.17097,2.42902,10,14
7.61125,-0.852394,-0.133685,97,7
7.59783,-0.86432,0.133476,42,8
0.515033,-0.0586806,-0.119674,16,1
7.6359,-0.871351,0.402778,51,9
0.690511,-0.0787959,-0.135093,25,2
9.70748,-1.10946,0.854824,72,10
6.41758,-0.734594,-1.02308,35,3
10.6872,-1.22521,1.32082,46,11
6.44494,-0.740006,-0.796538,13,4
10.9288,-1.25678,1.74237,24,12
10.2449,-1.17994,-0.902236,20,5
10.1653,-1.17077,1.98899,47,13
21.095,-2.43331,-1.11287,78,6
7.58424,-0.877526,-0.133267,100,7
9.56243,-1.1081,2.57939,26,15
7.59675,-0.891069,0.133511,52,8
0.526437,-0.0618422,-0.122373,15,1
7.63876,-0.8987,0.403092,78,9
0.709715,-0.0836235,-0.138909,24,2
9.8656,-1.16418,0.869117,44,10
6.49723,-0.767848,-1.03622,25,3
10.6553,-1.25925,1.31741,25,11
6.37135,-0.754099,-0.787763,19,4
10.9891,-1.30259,1.75269,36,12
10.1102,-1.20199,1.97907,44,13
8.0758,-0.961551,-0.426224,25,6
10.842,-1.29283,2.5208,24,14
7.66254,-0.913703,-0.134698,37,7
11.7951,-1.40857,3.18296,8,15
7.6113,-0.921069,0.133825,44,8
0.510731,-0.0618956,-0.118774,16,1
7.89912,-0.958696,0.417013,52,9
0.709419,-0.0861004,-0.138909,24,2
9.9663,-1.21135,0.878356,20,10
8.48287,-1.03255,-1.35347,12,3
8.22489,-1.0026,1.01737,58,11
6.3311,-0.772875,-0.783132,17,4
12.6627,-1.54806,2.02051,35,12
10.1672,-1.24297,-0.896135,37,5
10.1683,-1.24491,1.99128,41,13
8.05455,-0.987547,-0.425282,58,6
10.7794,-1.32354,2.5073,45,14
8.6535,-1.06405,-0.152185,100,7
10.2752,-1.26528,2.77402,4,15
8.3879,-1.04477,0.147543,52,8
0.545319,-0.0680197,-0.126872,15,1
7.77086,-0.970667,0.410419,57,9
0.709114,-0.0885762,-0.138909,24,2
9.96399,-1.24638,0.87853,24,10
8.46353,-1.06019,-1.35097,25,3
8.14435,-1.02309,-1.00786,15,4
10.8306,-1.36246,1.72891,14,12
10.1717,-1.28138,1.99281,57,13
7.94405,-1.00216,-0.41963,47,6
7.93355,-1.00365,-0.139584,63,7
11.8058,-1.49561,3.18865,16,15
8.38222,-1.07379,0.147508,46,8
0.525749,-0.0674433,-0.122373,15,1
7.76743,-0.997787,0.410419,60,9
0.693222,-0.0890498,-0.135856,25,2
14.7912,-1.90266,1.30472,40,10
6.46924,-0.83332,-1.03309,10,3
10.911,-1.40741,1.3508,21,11
7.63673,-0.986417,-0.945462,43,4
8.72966,-1.12914,-0.770108,15,5
11.0165,-1.42884,-0.582185,23,6
11.1702,-1.45274,-0.196619,100,7
0.540967,-0.0713157,-0.125973,15,1
7.67083,-1.01261,0.405499,63,9
0.708478,-0.0935245,-0.138909,24,2
14.6659,-1.93862,1.29426,17,10
6.46825,-0.856156,-1.03341,23,3
8.00141,-1.06051,0.991042,24,11
8.03468,-1.06635,-0.995185,19,4
9.81418,-1.306,1.9245,9,13
11.5935,-1.54484,-0.612959,50,6
10.1912,-1.3598,2.37368,17,14
11.1155,-1.4851,-0.195746,27,7
12.2681,-1.64127,3.31651,4,15
8.36064,-1.1304,0.147263,32,8
0.525266,-0.071112,-0.122373,15,1
7.95423,-1.07828,0.420676,61,9
0.692584,-0.0938872,-0.135856,25,2
9.8655,-1.33913,0.871035,26,10
8.39716,-1.14131,-1.34221,38,3
8.0429,-1.09459,0.996648,20,11
10.9872,-1.49724,-1.36152,15,4
10.6493,-1.4531,1.70232,10,12
10.1881,-1.39197,-0.899622,15,5
7.98109,-1.09043,1.56578,7,13
10.187,-1.39363,-0.538851,56,6
10.283,-1.40859,2.39618,63,14
11.2054,-1.53694,-0.197422,65,7
10.4728,-1.43832,2.83252,31,15
8.4022,-1.1659,0.148066,36,8
0.559758,-0.0777724,-0.130472,14,1
7.86931,-1.09476,0.416385,45,9
0.703902,-0.0980502,-0.138146,36,2
9.8329,-1.37142,0.868594,58,10
8.25206,-1.15241,-1.31968,35,3
7.99971,-1.11717,0.991773,24,11
8.6188,-1.20516,-1.06855,15,4
8.04429,-1.12626,1.28652,23,12
8.00425,-1.1235,1.57112,4,13
10.2174,-1.43597,-0.540735,80,6
10.216,-1.43758,2.38178,80,14
8.34648,-1.17451,-0.147124,89,7
10.4639,-1.47433,2.83148,19,15
14.5765,-2.07714,0.257004,75,8
0.501593,-0.0715659,-0.116975,16,1
8.32791,-1.18969,0.440878,34,9
0.695781,-0.0993961,-0.136619,25,2
8.29687,-1.18821,-1.3275,22,3
7.98181,-1.14451,0.990067,54,11
8.21544,-1.17947,-1.01907,37,4
8.00687,-1.15095,1.2812,42,12
8.3458,-1.20116,-0.737686,20,5
10.4192,-1.50329,2.43037,40,14
11.1367,-1.60879,-0.196409,100,7
9.56361,-1.38325,2.58923,32,15
14.5316,-2.12252,0.256341,52,8
0.524479,-0.0767001,-0.122373,15,1
7.87116,-1.15249,0.416908,38,9
0.695412,-0.101946,-0.136619,25,2
10.0949,-1.48168,0.892649,24,10
8.11461,-1.19247,-1.29903,33,3
7.88349,-1.15851,0.978367,33,11
8.49997,-1.25062,-1.0549,55,4
8.04775,-1.18552,1.28839,39,12
8.59188,-1.26721,-0.759824,16,5
7.99795,-1.18103,1.5715,22,13
9.00957,-1.33202,-0.477304,3,6
9.94904,-1.4727,2.32194,52,14
8.36556,-1.2383,-0.147612,100,7
11.6723,-1.72985,3.16173,6,15
8.43282,-1.2618,0.148834,55,8
0.524208,-0.0785304,-0.122373,15,1
7.82956,-1.17433,0.414919,53,9
0.683421,-0.102504,-0.13433,25,2
14.4009,-2.16251,1.27404,24,10
7.59686,-1.14214,-1.21675,26,3
7.9481,-1.19636,0.986898,18,11
8.51911,-1.28383,-1.05783,49,4
8.13927,-1.22804,1.30373,23,12
10.4415,-1.5754,-0.923851,9,5
13.2101,-1.99548,2.59691,4,13
7.85576,-1.18807,-0.416385,3,6
9.9653,-1.50889,2.32689,42,14
11.0698,-1.67811,-0.195432,100,7
11.4828,-1.74276,3.11204,11,15
8.53313,-1.30728,0.150684,37,8
0.547045,-0.0839051,-0.127772,14,1
7.77606,-1.19407,0.412303,58,9
0.690821,-0.106081,-0.135856,37,2
14.3578,-2.20732,1.27091,22,10
7.59088,-1.16835,-1.21643,27,3
8.03021,-1.2374,0.997623,24,11
8.43021,-1.30055,-1.04735,42,4
11.1433,-1.72109,1.78586,45,12
7.74227,-1.1958,-0.685393,2,5
14.3439,-2.21798,2.8213,4,13
10.0909,-1.56396,2.35749,19,14
11.0758,-1.71858,-0.195641,100,7
10.9097,-1.69476,2.9583,41,15
8.63717,-1.35409,0.152604,51,8
0.523647,-0.0821882,-0.122373,15,1
7.82512,-1.22958,0.415129,30,9
0.698205,-0.10971,-0.137382,24,2
8.45139,-1.3295,0.748493,39,10
7.49699,-1.1807,-1.20204,70,3
12.6633,-1.99661,1.57406,25,11
8.47856,-1.33832,-1.05393,16,4
8.30416,-1.31228,1.33157,49,12
7.73981,-1.22448,-0.685567,20,5
14.2856,-2.26006,2.81138,4,13
8.58703,-1.36005,-0.455637,47,6
7.64312,-1.21329,-0.135082,100,7
10.4801,-1.66552,2.84339,71,15
8.71334,-1.39721,0.154035,30,8
0.500267,-0.080309,-0.116975,16,1
7.92923,-1.27432,0.420886,73,9
0.688106,-0.11071,-0.135474,25,2
8.3068,-1.33797,0.736117,100,10
7.50432,-1.21006,-1.20392,58,3
12.6641,-2.04206,1.57504,10,11
8.37389,-1.35178,-1.0415,41,4
8.30732,-1.34252,1.33282,9,12
7.78662,-1.25976,-0.690099,20,5
7.67312,-1.24415,-0.407383,72,6
11.2707,-1.8295,-0.199306,66,7
10.1348,-1.64693,2.75125,37,15
0.523045,-0.0859332,-0.122373,15,1
13.0939,-2.15359,0.69544,28,9
0.679967,-0.111836,-0.133948,26,2
8.47901,-1.39609,0.751805,50,10
7.50589,-1.23721,-1.20486,56,3
12.5664,-2.0736,1.56383,39,11
10.9346,-1.80629,-1.36079,6,4
10.6391,-1.75938,1.70795,3,12
10.0002,-1.65552,1.97029,39,13
7.59386,-1.25852,-0.403406,58,6
12.5916,-2.09129,-0.222797,46,7
10.2602,-1.70593,2.78696,13,15
8.38955,-1.40694,0.148485,50,8
0.522742,-0.0877584,-0.122373,15,1
0.68538,-0.115185,-0.135093,38,2
8.4957,-1.42931,0.753723,60,10
8.21353,-1.38479,1.02273,13,11
13.5785,-2.29176,-1.69082,8,4
7.73442,-1.30679,-0.686264,11,5
10.1047,-1.70908,1.99205,21,13
7.59139,-1.28535,-0.40351,32,6
9.94868,-1.68627,2.32959,58,14
7.63371,-1.29526,-0.135151,68,7
10.0885,-1.71359,2.74193,30,15
0.571253,-0.0977487,-0.155291,12,0
8.44372,-1.44634,0.149532,41,8
0.522433,-0.0895826,-0.122373,15,1
9.71666,-1.66614,0.516661,20,9
0.686909,-0.117909,-0.135474,25,2
8.48477,-1.45795,0.7532,54,10
8.70797,-1.49787,-1.39946,60,3
8.16952,-1.40672,1.01785,24,11
10.1764,-1.75411,-1.26793,9,4
8.19937,-1.41333,1.3178,54,12
7.78478,-1.34327,-0.691145,23,5
9.84134,-1.6999,1.94129,20,13
7.58489,-1.3115,-0.403406,47,6
9.72959,-1.68409,2.27965,17,14
12.2598,-2.12204,-0.217178,76,7
9.97238,-1.72791,2.71191,27,15
8.53934,-1.49189,0.151312,85,8
0.522133,-0.0913146,-0.122373,15,1
9.64783,-1.68902,0.513311,54,9
0.70003,-0.122678,-0.138146,24,2
8.59737,-1.50821,0.763659,45,10
8.7049,-1.52708,-1.39978,50,3
8.25279,-1.44925,1.02882,42,11
7.8752,-1.38436,-0.98178,39,4
10.8733,-1.91335,1.74862,45,12
10.1229,-1.78312,-0.899273,16,5
9.84339,-1.73388,1.94282,25,13
7.66704,-1.35191,-0.408011,29,6
10.505,-1.85421,2.46276,17,14
7.67198,-1.35554,-0.135989,100,7
10.5104,-1.85893,2.85995,43,15
0.521811,-0.0931366,-0.122373,15,1
0.688023,-0.122927,-0.135856,25,2
8.72569,-1.56057,0.775512,26,10
11.3056,-2.02606,1.41027,35,11
7.84883,-1.40798,-0.979098,30,4
8.16208,-1.46565,1.31342,21,12
10.1519,-1.82479,-0.902411,15,5
10.3377,-1.85819,2.04166,39,13
7.72124,-1.38927,-0.411151,39,6
7.60816,-1.37167,-0.134942,75,7
11.7205,-2.11519,3.19124,25,15
11.7198,-2.13197,0.207928,31,8
0.521482,-0.0949575,-0.122373,15,1
0.681774,-0.124391,-0.134711,25,2
8.69051,-1.58717,0.772897,26,10
11.2809,-2.0623,1.40808,91,11
7.93369,-1.45181,-0.99031,13,4
8.17246,-1.49698,1.31593,20,12
10.12,-1.85554,-0.900144,20,5
9.73997,-1.78762,1.92488,21,13
7.79075,-1.43128,-0.415129,50,6
12.056,-2.21704,-0.213967,86,7
10.8486,-1.99696,2.95571,4,15
0.559449,-0.103991,-0.131371,14,1
11.6577,-2.16904,0.621437,25,9
0.675545,-0.125693,-0.133566,39,2
8.44008,-1.5719,0.751108,16,10
12.5545,-2.34044,-2.0227,60,3
11.3182,-2.112,1.41368,20,11
8.422,-1.57309,-1.05198,38,4
7.33637,-1.37164,-0.652971,7,5
8.09784,-1.51693,-0.431772,36,6
8.51402,-1.59797,-0.151208,90,7
10.5773,-1.98713,2.88376,41,15
0.52079,-0.0986867,-0.122373,15,1
8.34359,-1.58257,0.445065,56,9
0.690533,-0.130977,-0.136619,25,2
8.35624,-1.58648,0.744136,37,10
12.5618,-2.3872,-2.0252,26,3
8.19443,-1.55872,1.02419,26,11
16.2752,-3.09877,-2.03424,13,4
7.33349,-1.39761,-0.653145,35,5
10.0377,-1.9148,1.98632,30,13
7.91593,-1.51148,-0.422351,72,6
8.65177,-1.65511,-0.153756,90,7
10.7961,-2.06728,2.94536,4,15
8.36445,-1.61377,0.148695,42,8
0.520442,-0.100504,-0.122373,15,1
8.31056,-1.60638,0.4436,30,9
0.682362,-0.131896,-0.135093,38,2
8.37217,-1.6198,0.746053,37,10
13.6705,-2.64736,-2.20541,37,3
11.4532,-2.22006,1.43245,70,11
8.16917,-1.58497,-1.02175,2,4
11.3363,-2.20149,1.82903,17,12
7.33248,-1.42396,-0.653494,38,5
9.91536,-1.92735,1.96342,33,13
8.31055,-1.61691,-0.443704,21,6
9.53534,-1.85694,2.24276,6,14
16.2595,-3.16936,-0.289151,15,7
8.36269,-1.64373,0.148764,13,8
0.539209,-0.106082,-0.126872,15,1
14.5443,-2.86403,0.776875,29,9
0.683823,-0.134657,-0.135474,25,2
13.5036,-2.66155,1.20414,18,10
13.7173,-2.70615,-2.21449,12,3
12.0608,-2.38154,1.50947,14,11
14.8549,-2.93597,-1.85924,4,4
7.33138,-1.45032,-0.653842,12,5
9.87583,-1.95547,1.95694,8,13
7.56429,-1.49914,-0.404138,50,6
13.4847,-2.67738,-0.239971,44,7
10.4365,-2.07406,2.85115,16,15
8.40984,-1.68351,0.149707,20,8
0.538835,-0.107963,-0.126872,15,1
8.15423,-1.6353,0.435854,65,9
0.689124,-0.138201,-0.136619,25,2
8.65563,-1.73742,0.772374,3,10
8.05658,-1.61864,-1.30153,25,3
12.1575,-2.44476,1.52264,38,11
8.32138,-1.67486,-1.04223,23,4
7.38851,-1.48978,-0.65942,26,5
7.5923,-1.53225,-0.405918,21,6
10.0952,-2.03922,2.37773,22,14
14.4376,-2.919,-0.257109,8,7
10.6072,-2.1465,2.89981,28,15
8.30791,-1.69328,0.147996,26,8
0.519361,-0.105948,-0.122373,15,1
8.16021,-1.66615,0.436482,49,9
0.682842,-0.139546,-0.135474,25,2
8.67067,-1.77353,0.774292,1,10
7.96544,-1.63072,-1.28777,17,3
10.4667,-2.14279,1.3118,6,11
15.5925,-3.19501,-1.9543,27,4
7.41644,-1.52238,-0.662384,15,5
9.7712,-2.00752,1.939,32,13
7.59445,-1.56168,-0.406336,7,6
10.0686,-2.07227,2.37323,36,14
8.22042,-1.6919,-0.146495,100,7
10.3234,-2.12661,2.82423,41,15
12.1431,-2.52135,0.21648,30,8
0.518969,-0.107851,-0.122373,15,1
8.14036,-1.6932,0.435749,60,9
0.676585,-0.14073,-0.13433,25,2
9.65532,-2.01007,0.862842,44,10
7.9771,-1.66214,-1.29058,16,3
18.0395,-3.76208,2.26263,29,11
8.60066,-1.79521,-1.07879,33,4
11.3079,-2.36234,1.82966,42,12
7.41471,-1.55037,-0.662732,10,5
9.76414,-2.04161,1.939,30,13
8.32987,-1.74323,-0.446007,58,6
12.7049,-2.66113,2.9968,10,14
8.18872,-1.71668,-0.146042,100,7
10.4914,-2.20132,2.87237,11,15
0.567038,-0.119804,-0.155291,12,0
8.11362,-1.71425,0.14475,55,8
0.518589,-0.109662,-0.122373,15,1
8.15394,-1.72574,0.436796,63,9
0.672223,-0.142395,-0.133566,39,2
7.98448,-1.69424,-1.29277,32,3
12.1308,-2.57405,1.52264,31,11
8.52444,-1.81037,-1.07001,42,4
11.2571,-2.39276,1.82277,13,12
7.3352,-1.56048,-0.656108,26,5
9.67786,-2.06062,1.92335,47,13
8.23357,-1.7546,-0.441192,72,6
12.6607,-2.70036,2.9887,21,14
8.19832,-1.74859,-0.146321,100,7
10.4477,-2.23027,2.86254,29,15
8.08773,-1.73977,0.144401,48,8
0.518184,-0.111562,-0.122373,15,1
8.10851,-1.7472,0.434703,65,9
0.669803,-0.144327,-0.133185,26,2
7.96887,-1.72002,-1.29121,47,3
12.1853,-2.63233,1.53068,14,11
13.4363,-2.90503,-1.68789,19,4
11.3505,-2.45615,1.83936,28,12
7.33166,-1.5865,-0.656283,32,5
9.65334,-2.09065,1.91992,10,13
8.16103,-1.76895,-0.437633,79,6
13.8472,-3.00399,3.27124,15,14
8.14496,-1.76844,-0.145483,65,7
10.4376,-2.26814,2.86202,45,15
0.471823,-0.103133,-0.12941,15,0
8.11287,-1.77483,0.14496,63,8
0.555864,-0.121706,-0.131371,14,1
8.15699,-1.78746,0.437633,38,9
0.667377,-0.146244,-0.132803,26,2
8.37811,-1.83745,0.750411,24,10
7.97439,-1.75037,-1.29309,52,3
12.1935,-2.67868,1.53287,14,11
8.39106,-1.84489,-1.0549,23,4
11.284,-2.48302,1.82997,39,12
7.32024,-1.6108,-0.65576,15,5
8.20161,-1.80774,-0.440145,61,6
10.632,-2.34538,2.5136,65,14
11.7863,-2.60218,-0.210685,67,7
10.3051,-2.27705,2.82786,40,15
8.12809,-1.80791,0.145344,50,8
0.540219,-0.120258,-0.127772,14,1
8.10618,-1.80452,0.435226,48,9
0.674528,-0.15028,-0.13433,25,2
10.1607,-2.2656,0.910778,8,10
7.97209,-1.77905,-1.29371,50,3
12.1957,-2.72382,1.53434,31,11
8.28383,-1.85166,-1.04223,11,4
11.4666,-2.56308,1.86094,10,12
7.34179,-1.64243,-0.6582,28,5
11.0026,-2.4634,2.19163,28,13
8.14458,-1.82501,-0.437424,50,6
10.8576,-2.43493,2.56894,31,14
8.22834,-1.84528,-0.147194,65,7
10.4314,-2.34124,2.86461,34,15
7.91335,-1.7877,0.141609,63,8
0.517008,-0.116892,-0.122373,15,1
8.09204,-1.83104,0.434807,10,9
0.668254,-0.151333,-0.133185,26,2
7.86982,-1.78365,-1.27807,38,3
12.1711,-2.76074,1.53239,28,11
8.17505,-1.85582,-1.02931,34,4
7.3399,-1.66893,-0.658549,43,5
10.9982,-2.50074,2.1924,16,13
8.4676,-1.9269,-0.455114,47,6
10.8267,-2.46573,2.56354,18,14
8.18286,-1.86511,-0.146495,89,7
7.71021,-1.77012,0.138083,67,8
0.516597,-0.118696,-0.122373,15,1
14.2039,-3.26356,0.763791,20,9
0.675402,-0.155308,-0.134711,25,2
10.0849,-2.32086,0.905374,68,10
7.97904,-1.83771,-1.29684,27,3
10.7087,-2.46836,1.34934,25,11
8.16271,-1.88301,-1.02858,45,4
7.4081,-1.71029,-0.665173,36,5
12.6854,-2.93332,-0.682356,16,6
10.9566,-2.53558,2.59639,22,14
11.3405,-2.62442,-0.203181,20,7
10.2834,-2.38168,2.82837,9,15
0.470356,-0.109628,-0.12941,15,0
7.75104,-1.80658,0.138921,30,8
0.5162,-0.120408,-0.122373,15,1
21.8925,-5.11067,1.17819,8,9
0.674856,-0.157665,-0.134711,25,2
10.4434,-2.44178,0.938319,14,10
7.99214,-1.86865,-1.29997,26,3
10.7236,-2.50928,1.35226,37,11
8.15449,-1.90962,-1.02833,38,4
11.4242,-2.67742,1.85844,17,12
7.5204,-1.76389,-0.675806,30,5
10.9312,-2.56389,2.18247,9,13
8.50874,-1.99727,-0.458044,39,6
10.8855,-2.55719,2.58154,34,14
11.6973,-2.75003,-0.209743,25,7
10.2957,-2.42243,2.83407,7,15
7.7421,-1.83586,0.138886,60,8
0.504358,-0.11969,-0.119674,16,1
12.1805,-2.89058,0.656084,7,9
0.662813,-0.157415,-0.132421,26,2
10.9131,-2.59384,0.981374,31,10
6.4302,-1.52952,-1.04686,57,3
10.71,-2.54952,1.35177,15,11
8.1162,-1.93355,-1.02443,31,4
11.3624,-2.70691,1.84999,34,12
7.52552,-1.79422,-0.676851,20,5
11.0931,-2.64685,2.21682,23,13
8.51849,-2.0341,-0.458986,29,6
10.9249,-2.61074,2.59324,50,14
11.7202,-2.80078,-0.210336,96,7
12.4306,-2.97285,3.42469,11,15
7.7243,-1.85872,0.138677,20,8
0.515325,-0.124099,-0.122373,15,1
14.7994,-3.56668,0.797809,1,9
0.669894,-0.161569,-0.133948,26,2
10.3346,-2.49448,0.930126,31,10
6.4347,-1.55315,-1.04842,21,3
12.6485,-3.05532,1.59771,36,11
7.0736,-1.70998,-0.893546,22,4
11.4201,-2.76281,1.86094,11,12
7.76901,-1.88096,-0.699338,37,5
10.758,-2.60463,2.15156,12,13
7.90608,-1.9156,-0.426329,43,6
11.2514,-2.72824,2.67287,22,14
11.446,-2.77754,-0.205589,100,7
10.2875,-2.49832,2.83666,3,15
14.2545,-3.48277,0.256132,22,8
0.537605,-0.131452,-0.127772,14,1
26.7063,-6.535,1.44091,5,9
0.673168,-0.164723,-0.134711,25,2
16.0293,-3.92532,1.44382,18,10
8.02935,-1.96774,-1.30936,65,3
12.6821,-3.11033,1.60331,39,11
8.24359,-2.02329,-1.04223,15,4
11.3701,-2.79276,1.85437,15,12
7.48217,-1.8378,-0.674062,13,5
8.12626,-1.99901,-0.438575,25,6
13.9856,-3.44295,3.32523,13,14
11.5547,-2.84666,-0.207719,48,7
24.8753,-6.13299,6.86492,4,15
14.2034,-3.52288,0.255433,16,8
0.514446,-0.127694,-0.122373,15,1
0.672589,-0.167072,-0.134711,25,2
24.3452,-6.0519,2.19476,22,10
12.6442,-3.14786,1.5999,18,11
6.95747,-1.7334,-0.880384,9,4
7.47571,-1.8639,-0.674062,35,5
10.6024,-2.64545,2.12409,24,13
8.19868,-2.0472,-0.442867,43,6
11.234,-2.8072,2.67332,22,14
11.5427,-2.88649,-0.207684,26,7
12.0446,-3.01422,3.32686,9,15
8.25902,-2.07912,0.14866,40,8
0.513998,-0.129489,-0.122373,15,1
7.61301,-1.91932,0.411465,49,9
0.671972,-0.169536,-0.134711,25,2
24.4785,-6.17584,2.2087,23,10
6.47745,-1.63544,-1.05812,32,3
12.2578,-3.09716,1.55237,50,11
6.95523,-1.75865,-0.880872,39,4
12.9053,-3.26555,2.10842,36,12
7.75468,-1.96368,-0.699861,26,5
8.16401,-2.07036,-0.441401,61,6
11.647,-2.95579,-0.209743,77,7
12.1351,-3.08192,3.35481,40,15
8.23779,-2.10591,0.148415,21,8
0.513519,-0.131372,-0.122373,15,1
0.667543,-0.171023,-0.133948,26,2
10.6172,-2.72012,0.958888,46,10
6.48672,-1.66309,-1.06063,10,3
10.96,-2.81202,1.38931,39,11
6.96027,-1.78709,-0.882334,58,4
12.922,-3.3202,2.11312,32,12
7.74743,-1.99209,-0.699861,31,5
8.44069,-2.17348,-0.456788,65,6
10.5493,-2.71646,2.51495,9,14
11.1093,-2.86273,-0.200249,100,7
12.1611,-3.13603,3.36517,8,15
14.1644,-3.67637,0.255433,37,8
0.550758,-0.143051,-0.131371,14,1
0.666941,-0.173352,-0.133948,26,2
10.611,-2.76001,0.959236,40,10
10.8498,-2.82615,1.37664,29,11
6.89221,-1.79657,-0.874534,7,4
12.9791,-3.38322,2.12438,35,12
7.77321,-2.02767,-0.702824,28,5
10.6017,-2.76746,2.12981,31,13
8.29585,-2.16709,-0.449357,72,6
24.0198,-6.27908,5.73175,6,14
11.0993,-2.90149,-0.200249,100,7
12.8678,-3.3662,3.56394,21,15
14.2334,-3.74469,0.256899,37,8
0.51259,-0.134954,-0.122373,15,1
7.48399,-1.97177,0.405604,36,9
0.681519,-0.179683,-0.137001,24,2
10.5301,-2.77823,0.952787,61,10
7.87691,-2.07823,-1.29027,35,3
11.0092,-2.90671,1.39809,16,11
7.70956,-2.03695,-0.979098,44,4
12.9691,-3.42901,2.12469,9,12
7.79112,-2.06141,-0.70509,31,5
12.6213,-3.33941,2.53776,25,13
8.30021,-2.19766,-0.449985,72,6
12.4911,-3.30962,2.9833,25,14
11.0833,-2.93868,-0.200144,22,7
12.7626,-3.38633,3.53806,20,15
14.228,-3.79641,0.257039,24,8
0.534709,-0.142775,-0.127772,14,1
10.6917,-2.85684,0.579987,7,9
0.677126,-0.180929,-0.136238,25,2
10.5458,-2.81983,0.955053,21,10
7.82762,-2.09448,-1.28339,43,3
11.0335,-2.95436,1.40247,19,11
7.75418,-2.07773,-0.985679,45,4
11.1502,-2.98978,1.82841,7,12
8.02249,-2.15262,-0.726705,45,5
12.6286,-3.38854,2.54158,24,13
8.29056,-2.2261,-0.44988,14,6
12.4587,-3.34764,2.97835,36,14
11.212,-3.01473,-0.202657,95,7
12.7787,-3.43838,3.54582,21,15
14.2224,-3.84814,0.257179,31,8
0.489063,-0.132417,-0.116975,16,1
10.5178,-2.84975,0.57109,8,9
0.653721,-0.177244,-0.131658,26,2
13.6851,-3.71302,1.24057,13,10
7.83705,-2.12781,-1.2862,38,3
6.52852,-1.77376,-0.830662,10,4
15.1255,-4.11235,2.48262,5,12
7.88228,-2.14452,-0.714677,28,5
12.8964,-3.51113,2.59806,16,13
7.78902,-2.12207,-0.423084,18,6
12.4878,-3.40455,2.98825,42,14
11.9693,-3.26319,-0.216549,100,7
12.7461,-3.47738,3.54013,22,15
11.5875,-3.18086,0.209743,43,8
0.511124,-0.140403,-0.122373,15,1
10.504,-2.88538,0.570881,8,9
0.66067,-0.181607,-0.133185,26,2
13.576,-3.73435,1.23186,28,10
7.85434,-2.16197,-1.29027,42,3
11.2379,-3.09545,1.43123,16,11
6.50858,-1.79398,-0.828955,37,4
7.79023,-2.14871,-0.707007,35,5
13.0014,-3.58851,2.62172,7,13
8.31292,-2.296,-0.451973,21,6
12.5941,-3.48083,3.01659,17,14
11.8749,-3.28205,-0.215049,100,7
12.8195,-3.54553,3.56394,16,15
0.465308,-0.129391,-0.12941,15,0
11.4382,-3.18069,0.20723,32,8
0.488127,-0.135828,-0.116975,16,1
22.8386,-6.35946,1.24246,22,9
0.650576,-0.181277,-0.131277,27,2
13.6012,-3.79242,1.23535,49,10
6.68832,-1.8649,-1.09973,11,3
6.4548,-1.80221,-0.822862,40,4
12.471,-3.48431,2.05086,24,12
6.55273,-1.83202,-0.595274,8,5
13.7571,-3.84623,2.77665,30,13
18.2723,-5.11204,-0.994383,7,6
22.8812,-6.40578,5.48566,6,14
11.7324,-3.2868,-0.212675,38,7
12.6769,-3.55376,3.5277,11,15
11.3019,-3.18534,0.204961,40,8
0.510156,-0.143879,-0.122373,15,1
22.8201,-6.44023,1.24267,22,9
0.682092,-0.192498,-0.137764,24,2
13.1131,-3.70321,1.19212,22,10
6.63235,-1.87426,-1.0916,60,3
11.3179,-3.2005,1.44415,6,11
6.43701,-1.82149,-0.821399,54,4
12.4645,-3.52944,2.05179,13,12
6.60413,-1.87002,-0.600503,36,5
13.7247,-3.88887,2.77284,24,13
8.00695,-2.27027,-0.436168,36,6
23.2787,-6.60476,5.58643,26,14
11.7209,-3.32773,-0.212675,100,7
13.3352,-3.78858,3.71457,4,15
0.464416,-0.132555,-0.12941,15,0
11.3484,-3.24125,0.206008,40,8
0.509651,-0.145659,-0.122373,15,1
22.6093,-6.46603,1.23241,15,9
0.677641,-0.193798,-0.137001,24,2
10.7996,-3.09061,0.982768,17,10
6.5479,-1.87511,-1.07877,43,3
11.3238,-3.2449,1.44635,37,11
6.43824,-1.84614,-0.822374,43,4
12.4976,-3.586,2.0593,25,12
12.894,-3.70215,2.6076,10,13
8.09495,-2.32578,-0.441401,29,6
23.0626,-6.63051,5.54009,6,14
11.5997,-3.33711,-0.210685,22,7
14.8609,-4.27815,4.14369,11,15
10.4688,-3.02958,0.190231,13,8
0.50914,-0.147437,-0.122373,15,1
10.2631,-2.97395,0.559995,17,9
0.654299,-0.18972,-0.132421,26,2
13.3529,-3.87179,1.21635,10,10
6.32884,-1.8363,-1.04373,35,3
14.6714,-4.25966,1.87581,24,11
6.55423,-1.90666,-0.597191,1,5
12.8501,-3.74061,2.60149,18,13
12.2206,-3.55968,-0.667074,42,6
14.6461,-4.26616,3.52183,11,14
11.586,-3.37702,-0.210651,19,7
14.7958,-4.31539,4.12972,2,15
10.4288,-3.05948,0.189708,35,8
0.508596,-0.149302,-0.122373,15,1
10.3154,-3.03012,0.563449,18,9
0.646065,-0.189902,-0.130895,27,2
13.9006,-4.0859,1.26759,2,10
6.54948,-1.92637,-1.08128,35,3
11.8468,-3.48671,1.5163,21,11
15.3957,-4.53412,-1.97063,20,4
12.4887,-3.68036,2.06212,10,12
7.85243,-2.31556,-0.716246,10,5
13.5556,-3.99993,2.74727,18,13
8.08727,-2.38788,-0.441925,21,6
14.6397,-4.32257,3.52408,18,14
11.564,-3.41663,-0.210476,22,7
13.937,-4.12039,3.89419,5,15
0.462954,-0.137573,-0.12941,15,0
10.4635,-3.11137,0.190545,62,8
0.508045,-0.151165,-0.122373,15,1
10.2985,-3.0662,0.563135,32,9
0.662333,-0.197198,-0.13433,25,2
10.5879,-3.15438,0.966557,40,10
6.52155,-1.94416,-1.07783,20,3
11.8111,-3.5233,1.51337,28,11
15.4189,-4.60244,-1.97575,9,4
6.53087,-1.95066,-0.59632,13,5
13.3441,-3.98819,2.7072,20,13
8.02148,-2.39893,-0.438785,7,6
12.6896,-3.7974,3.05798,8,14
11.5342,-3.45383,-0.210162,30,7
20.532,-6.15209,5.74319,7,15
10.5464,-3.17613,0.192256,56,8
0.507514,-0.152938,-0.122373,15,1
10.2208,-3.08195,0.559471,72,9
0.642844,-0.193841,-0.130513,27,2
10.4509,-3.15333,0.955053,51,10
6.49014,-1.95949,-1.07377,38,3
11.7741,-3.55704,1.51021,7,11
6.55178,-1.98059,-0.840411,15,4
12.3675,-3.74104,2.04648,45,12
8.40438,-2.54223,-0.768191,17,5
13.1516,-3.98072,2.67094,11,13
7.92895,-2.40144,-0.434179,54,6
13.9608,-4.23628,3.9092,14,15
10.5219,-3.20884,0.192011,58,8
0.488339,-0.149021,-0.117874,16,1
10.1393,-3.09602,0.555599,51,9
0.651551,-0.198951,-0.132421,26,2
10.4856,-3.20377,0.959236,63,10
6.49082,-1.98444,-1.07502,68,3
24.123,-7.37974,3.09743,17,11
6.4689,-1.98021,-0.830662,4,4
12.428,-3.80675,2.05868,42,12
6.54948,-2.00613,-0.599283,10,5
8.60073,-2.63607,1.74857,9,13
7.93197,-2.43262,-0.434807,29,6
11.5021,-3.53192,-0.210022,100,7
13.957,-4.28839,3.91231,16,15
0.461488,-0.142413,-0.12941,15,0
10.3616,-3.19953,0.189289,63,8
0.536225,-0.165682,-0.129572,14,1
10.325,-3.19216,0.56638,19,9
0.645226,-0.199484,-0.131277,27,2
10.4458,-3.23152,0.956621,51,10
6.47442,-2.00417,-1.07345,63,3
24.4934,-7.58665,3.14837,27,11
6.42782,-1.9922,-0.826274,1,4
12.5845,-3.90277,2.08684,32,12
12.887,-3.99658,-1.18044,27,5
19.3336,-6.00325,-1.06095,3,6
14.2775,-4.43601,3.45165,11,14
11.1956,-3.48063,-0.204647,100,7
14.0102,-4.35832,3.93146,22,15
10.589,-3.31026,0.193652,82,8
0.505885,-0.158244,-0.122373,15,1
0.644526,-0.201735,-0.131277,27,2
6.49,-2.03384,-1.07721,43,3
20.9531,-6.57032,2.69624,6,11
7.6993,-2.41577,-0.990798,42,4
12.6424,-3.96916,2.09873,21,12
12.9749,-4.07603,-1.18985,30,5
8.56713,-2.69135,1.74552,20,13
7.85954,-2.47057,-0.431772,54,6
14.3418,-4.51096,3.47099,15,14
11.399,-3.58752,-0.208591,31,7
14.1294,-4.44955,3.96925,10,15
10.4401,-3.30376,0.191139,36,8
0.50533,-0.160009,-0.122373,15,1
25.7399,-8.15529,1.41506,4,9
0.640039,-0.202909,-0.130513,27,2
13.3148,-4.2237,1.2221,49,10
10.5324,-3.3431,-1.75019,10,3
26.8068,-8.50877,3.45329,10,11
12.8979,-4.10137,-1.1841,30,5
8.52353,-2.71201,1.73865,36,13
7.86946,-2.50541,-0.432818,50,6
10.2273,-3.25803,2.47806,30,14
14.2371,-4.53816,4.00393,13,15
0.551935,-0.176782,-0.155291,12,0
10.2813,-3.29501,0.188451,62,8
0.50474,-0.16186,-0.122373,15,1
25.4398,-8.16292,1.4002,9,9
0.637458,-0.204543,-0.130132,27,2
6.13111,-1.96966,-1.01995,10,3
21.4026,-6.87986,2.76034,28,11
6.40246,-2.0593,-0.825787,37,4
22.875,-7.36197,3.80605,23,12
12.2361,-3.94036,-1.12466,21,5
19.242,-6.20017,-1.05949,15,6
10.1324,-3.2668,2.45782,40,14
12.0391,-3.88388,-0.220808,37,7
14.2718,-4.60693,4.01842,18,15
10.2259,-3.31669,0.187648,51,8
0.504172,-0.163621,-0.122373,15,1
11.5383,-3.74678,0.635777,34,9
0.653508,-0.212338,-0.133566,26,2
21.2479,-6.90797,1.95473,18,10
21.403,-6.96251,2.76351,14,11
6.30652,-2.05276,-0.814331,18,4
12.5205,-4.07784,2.08558,5,12
12.8474,-4.18677,-1.18218,25,5
6.52791,-2.12987,-0.359862,10,6
10.1222,-3.30452,2.45827,61,14
10.6074,-3.46292,-0.194769,9,7
14.2961,-4.66991,4.02981,16,15
11.9452,-3.92045,0.219447,30,8
0.503597,-0.16538,-0.122373,15,1
11.3638,-3.73404,0.62688,62,9
0.637879,-0.209601,-0.130513,27,2
21.2665,-6.99208,1.95856,37,10
5.68,-1.86859,-0.947054,47,3
20.9713,-6.90311,2.71086,6,11
13.0654,-4.30834,-1.20362,25,5
8.4667,-2.7919,1.73293,30,13
6.47718,-2.13711,-0.357455,37,6
12.6963,-4.19153,3.08678,34,14
10.5458,-3.48362,-0.193861,92,7
14.2778,-4.71918,4.02929,10,15
11.9637,-3.97283,0.22004,36,8
0.525209,-0.17451,-0.127772,14,1
0.648284,-0.215655,-0.132803,26,2
21.1803,-7.04985,1.95299,18,10
5.71622,-1.90375,-0.95425,41,3
28.0964,-9.35732,3.63609,11,11
12.4617,-4.15269,-1.61282,21,4
12.6154,-4.20638,2.10623,10,12
13.0768,-4.36274,-1.20606,27,5
8.43592,-2.81607,1.72873,64,13
6.41626,-2.14312,-0.354524,37,6
12.7197,-4.25101,3.09623,17,14
10.5696,-3.53245,-0.194525,20,7
14.2521,-4.76593,4.02671,4,15
11.9718,-4.0243,0.220459,20,8
0.502401,-0.168979,-0.122373,15,1
21.4615,-7.21843,1.18667,3,9
0.65497,-0.220422,-0.13433,25,2
21.2292,-7.14853,1.95978,32,10
5.83496,-1.96595,-0.975213,56,3
29.0965,-9.80901,3.77015,12,11
5.62597,-1.89772,-0.729023,11,4
12.6306,-4.2605,2.11124,15,12
12.9595,-4.37396,-1.19665,20,5
8.32002,-2.8097,1.70698,24,13
6.42767,-2.17189,-0.355571,37,6
10.4931,-3.54765,2.55724,9,14
19.3452,-6.54045,-0.356448,36,7
19.3216,-6.56633,0.356204,24,8
0.501838,-0.170644,-0.122373,15,1
21.2792,-7.2399,1.17798,9,9
0.646763,-0.220176,-0.132803,26,2
10.8991,-3.71248,1.00735,19,10
6.0584,-2.06363,-1.0137,35,3
21.5479,-7.34391,2.7952,14,11
12.4474,-4.24471,-1.61477,34,4
12.6176,-4.3052,2.11155,10,12
12.8933,-4.40179,-1.19194,27,5
8.23448,-2.81127,1.69133,31,13
6.46012,-2.20676,-0.357769,37,6
9.99266,-3.41541,2.43802,7,14
19.3865,-6.62994,-0.357635,44,7
19.2626,-6.62138,0.35554,24,8
0.501239,-0.172395,-0.122373,15,1
21.1292,-7.27124,1.17107,30,9
0.63114,-0.217319,-0.12975,27,2
21.1706,-7.28963,1.95891,37,10
6.01568,-2.07254,-1.00775,47,3
21.4077,-7.37962,2.78033,28,11
12.5226,-4.3192,-1.62647,19,4
6.61029,-2.28256,-0.611833,6,5
8.2167,-2.83886,1.6898,30,13
6.53127,-2.25783,-0.362165,37,6
12.9133,-4.46657,-0.238505,99,7
0.547418,-0.19031,-0.155291,12,0
18.9927,-6.60653,0.351003,29,8
0.474838,-0.165263,-0.116075,16,1
21.1326,-7.35914,1.17274,16,9
0.641463,-0.223506,-0.13204,26,2
21.0704,-7.3416,1.95211,63,10
6.13115,-2.13749,-1.0284,45,3
21.3674,-7.45346,2.77862,14,11
12.4973,-4.3618,-1.62525,43,4
8.49849,-2.96781,1.42574,21,12
6.53981,-2.28509,-0.606081,20,5
8.17844,-2.85924,1.68408,62,13
6.45131,-2.25669,-0.358187,37,6
12.8081,-4.48282,-0.236864,54,7
8.63689,-3.0246,2.45205,38,15
19.0344,-6.69933,0.352224,18,8
0.499962,-0.176064,-0.122373,15,1
21.9079,-7.7193,1.21733,7,9
0.629569,-0.22183,-0.12975,27,2
21.064,-7.42607,1.95403,45,10
6.12141,-2.15929,-1.02809,35,3
21.0797,-7.43989,2.74474,68,11
12.5318,-4.42542,-1.63183,21,4
12.6391,-4.46583,2.12313,17,12
6.54495,-2.31255,-0.607301,22,5
8.22579,-2.90806,1.69591,28,13
6.5639,-2.32182,-0.364886,37,6
16.5429,-5.85489,4.05137,23,14
12.8029,-4.53374,-0.237073,54,7
8.60754,-3.04978,2.44688,45,15
11.4412,-4.07178,0.211977,12,8
0.499344,-0.177809,-0.122373,15,1
21.8733,-7.79305,1.21692,19,9
0.639887,-0.227979,-0.13204,26,2
25.3206,-9.02622,2.35181,6,10
6.03755,-2.15344,-1.01526,26,3
21.0648,-7.51743,2.7462,41,11
12.3199,-4.39905,-1.60624,17,4
12.6793,-4.52986,2.13251,24,12
6.5556,-2.34208,-0.609044,8,5
10.3508,-3.70002,2.13668,9,13
6.57456,-2.35144,-0.365933,40,6
8.26576,-2.95794,2.02681,5,14
11.889,-4.25686,-0.220424,37,7
9.62985,-3.44988,2.74089,9,15
10.8417,-3.90113,0.201122,10,8
0.480385,-0.172949,-0.117874,16,1
21.4076,-7.70723,1.19242,16,9
0.642781,-0.231542,-0.132803,26,2
21.9245,-7.90193,2.03892,10,10
6.07274,-2.18991,-1.02246,52,3
14.9026,-5.37704,1.94528,16,11
12.0916,-4.36518,-1.57845,14,4
12.6196,-4.55578,2.12501,43,12
6.553,-2.36698,-0.609567,23,5
6.63769,-2.40019,-0.369911,35,6
8.24622,-2.98346,2.02456,17,14
14.8157,-5.3603,-0.275015,100,7
0.498123,-0.181203,-0.122373,15,1
26.2153,-9.54158,1.46206,2,9
0.636435,-0.231769,-0.131658,26,2
21.03,-7.66261,1.95822,18,10
6.41252,-2.3365,-1.08096,41,3
21.7219,-7.91901,2.83882,14,11
12.1536,-4.43315,-1.58845,13,4
12.6574,-4.61944,2.13408,24,12
6.52412,-2.38232,-0.60765,15,5
10.0838,-3.68217,2.08669,21,13
12.13,-4.43177,-0.676809,35,6
14.75,-5.39481,-0.274142,100,7
9.60614,-3.51535,2.74089,20,15
0.544014,-0.199835,-0.155291,12,0
10.7736,-3.95966,0.200354,25,8
0.497487,-0.182941,-0.122373,15,1
14.4536,-5.31789,0.807125,38,9
0.635663,-0.233878,-0.131658,26,2
14.3931,-5.29849,1.34185,11,10
6.39876,-2.35682,-1.08002,48,3
26.6152,-9.80831,3.48278,21,11
11.5662,-4.26471,-1.51362,34,4
12.8006,-4.7224,2.16099,30,12
6.51202,-2.4037,-0.607301,16,5
8.93452,-3.29789,1.85123,38,13
12.6503,-4.67198,-0.706745,16,6
8.074,-2.98346,1.98722,57,14
14.7048,-5.43656,-0.273654,100,7
7.98669,-2.95437,2.28175,19,15
11.7064,-4.34892,0.217981,48,8
0.474926,-0.176529,-0.116975,16,1
14.6165,-5.43584,0.817278,62,9
0.627441,-0.233468,-0.130132,27,2
14.4614,-5.38388,1.35004,21,10
6.42525,-2.39336,-1.08597,28,3
21.4336,-7.98385,2.80836,7,11
11.5103,-4.28981,-1.50826,10,4
12.9802,-4.84021,2.19415,7,12
6.53159,-2.43687,-0.609916,31,5
8.92237,-3.33062,1.85123,30,13
11.8529,-4.42691,-0.663097,52,6
7.96626,-2.97688,1.96337,38,14
13.9889,-5.22746,-0.260669,83,7
7.9709,-2.9802,2.2802,44,15
11.6997,-4.39531,0.218155,46,8
0.477924,-0.17964,-0.117874,16,1
14.6489,-5.50906,0.820209,40,9
0.632135,-0.23773,-0.131277,27,2
14.5581,-5.47783,1.36085,60,10
6.53887,-2.46171,-1.10662,47,3
23.2804,-8.76908,3.05453,8,11
11.4983,-4.33337,-1.50874,10,4
10.0069,-3.77332,1.69387,2,12
6.57854,-2.48189,-0.615145,23,5
11.8654,-4.47884,-0.664667,65,6
7.81545,-2.95165,1.92873,55,14
14.7609,-5.57769,-0.275434,88,7
10.244,-3.87293,2.93449,11,15
0.541819,-0.20571,-0.155291,12,0
14.6344,-5.55615,0.273235,54,8
0.495511,-0.188227,-0.122373,15,1
14.6071,-5.55165,0.818953,39,9
0.633095,-0.240743,-0.131658,26,2
14.5901,-5.55099,1.36573,63,10
6.51135,-2.47863,-1.10349,60,3
14.6043,-5.55933,1.91871,28,11
7.33692,-2.79436,-0.963987,38,4
21.0377,-8.01669,3.56577,14,12
6.46372,-2.46438,-0.605209,25,5
11.9814,-4.57286,-0.672098,68,6
7.74086,-2.95595,1.91298,21,14
11.7767,-4.49707,-0.22004,20,7
14.6774,-5.63412,0.274422,40,8
0.494818,-0.190042,-0.122373,15,1
14.5765,-5.59831,0.818325,44,9
0.635916,-0.24436,-0.132421,26,2
14.5501,-5.59402,1.36381,66,10
6.30354,-2.42475,-1.0697,27,3
14.5246,-5.59,1.91091,53,11
7.30995,-2.81482,-0.961793,37,4
20.6077,-7.93533,3.49756,10,12
6.41976,-2.47332,-0.601898,20,5
9.00914,-3.47273,1.8768,13,13
8.10865,-3.12887,2.00656,37,14
11.8038,-4.55471,-0.220843,75,7
9.58594,-3.70083,2.75332,28,15
15.3075,-5.9343,0.286568,24,8
0.50872,-0.197319,-0.125973,15,1
14.6202,-5.67372,0.821884,41,9
0.631399,-0.245157,-0.131658,26,2
14.5045,-5.63468,1.36137,48,10
5.12991,-1.99285,-0.871653,23,3
14.4985,-5.63526,1.90994,49,11
7.29873,-2.83832,-0.961549,22,4
14.5085,-5.64495,2.46572,16,12
6.47792,-2.52173,-0.608173,16,5
8.34261,-3.24762,1.74018,9,13
12.1008,-4.71302,-0.680577,19,6
8.2326,-3.2081,2.03986,35,14
11.6984,-4.56101,-0.219167,21,7
8.23393,-3.21193,2.36819,7,15
12.1418,-4.75588,0.227614,22,8
0.493513,-0.193406,-0.122373,15,1
16.7349,-6.5617,0.942047,79,9
0.625099,-0.245099,-0.130513,27,2
12.7312,-4.99441,1.19647,57,10
5.12292,-2.01075,-0.871653,12,3
14.4825,-5.68729,1.91042,45,11
11.2722,-4.42888,-1.48705,22,4
14.4501,-5.68038,2.45915,45,12
6.5896,-2.59173,-0.619503,33,5
8.63086,-3.39457,1.80276,6,13
7.34309,-2.88956,-0.413559,43,6
7.76441,-3.05692,1.92648,6,14
11.6601,-4.59303,-0.218748,26,7
8.17594,-3.22224,2.35474,15,15
13.8525,-5.4818,0.260041,15,8
0.514578,-0.203736,-0.127772,14,1
20.1917,-7.99852,1.1382,19,9
0.622371,-0.246666,-0.130132,27,2
12.6868,-5.03076,1.19403,72,10
5.24405,-2.0805,-0.893554,1,3
14.4754,-5.74293,1.91213,45,11
11.2917,-4.48211,-1.49168,16,4
14.4063,-5.72131,2.45508,42,12
6.58236,-2.61545,-0.619677,25,5
7.31946,-2.91129,-0.412826,39,6
7.71513,-3.07022,1.91703,21,14
11.6904,-4.65218,-0.219621,26,7
8.18798,-3.26005,2.36146,7,15
11.9311,-4.77209,0.224298,38,8
0.502972,-0.201276,-0.125073,15,1
6.59388,-2.6387,0.372213,20,9
0.632442,-0.253215,-0.132421,26,2
12.684,-5.08094,1.19543,49,10
5.08456,-2.0378,-0.867586,5,3
22.6018,-9.06295,2.98994,33,11
7.16124,-2.87299,-0.947412,21,4
14.4174,-5.78406,2.4604,42,12
7.85575,-3.15481,1.64554,31,13
7.33149,-2.94576,-0.414082,39,6
8.24499,-3.31447,2.05155,50,14
11.7168,-4.71012,-0.220424,100,7
11.93,-4.81762,0.224578,27,8
0.491461,-0.198563,-0.122373,15,1
6.57167,-2.65646,0.371481,43,9
0.638834,-0.258365,-0.133948,26,2
12.7124,-5.14387,1.19979,91,10
4.85804,-1.96574,-0.830041,28,3
16.5989,-6.71986,2.19877,28,11
6.77818,-2.74544,-0.897933,42,4
14.4484,-5.85513,2.46916,25,12
5.62967,-2.28254,-0.531476,10,5
8.27462,-3.35493,1.7356,33,13
11.8487,-4.80644,-0.67011,35,6
8.1545,-3.30954,2.03176,28,14
11.7114,-4.7555,-0.220633,100,7
9.71676,-3.94754,2.81026,19,15
11.9057,-4.85621,0.224438,16,8
0.479939,-0.195859,-0.119674,16,1
6.52352,-2.66353,0.369283,40,9
0.627024,-0.256139,-0.131658,26,2
12.6546,-5.16942,1.19595,44,10
4.81275,-1.96699,-0.823471,43,3
16.5533,-6.76875,2.19584,100,11
6.61973,-2.7082,-0.878191,24,4
19.7569,-8.0868,3.38117,9,12
5.59585,-2.2916,-0.529035,10,5
7.85533,-3.2185,1.65012,69,13
11.2433,-4.60893,-0.636824,35,6
8.18798,-3.35647,2.04301,53,14
11.728,-4.81001,-0.221262,29,7
9.94599,-4.08118,2.88066,10,15
13.7367,-5.66184,0.259343,16,8
0.490027,-0.202075,-0.122373,15,1
6.53218,-2.69504,0.370329,43,9
0.604304,-0.249446,-0.127079,28,2
12.6319,-5.21425,1.1956,36,10
4.88949,-2.0193,-0.837863,7,3
6.64095,-2.74534,-0.882334,25,4
16.4487,-6.8032,2.81926,12,12
5.5506,-2.29686,-0.525549,25,5
7.3846,-3.0588,-0.418897,39,6
8.082,-3.34767,2.01961,45,14
11.6623,-4.83306,-0.220354,25,7
14.221,-5.89635,4.12506,10,15
9.45524,-3.93777,0.178782,30,8
0.471295,-0.196374,-0.117874,16,1
6.54807,-2.72972,0.371795,43,9
0.625129,-0.260728,-0.131658,26,2
12.587,-5.24977,1.19316,60,10
5.07712,-2.1186,-0.87134,13,3
18.6483,-7.78546,2.48126,5,11
6.63267,-2.77043,-0.882578,40,4
7.29596,-3.05346,-0.414501,39,6
8.08046,-3.38179,2.02231,16,14
11.6795,-4.89045,-0.221017,21,7
14.1886,-5.94395,4.12195,16,15
6.95983,-2.9285,0.131801,33,8
0.510086,-0.214735,-0.127772,14,1
6.46808,-2.72424,0.367817,42,9
0.631406,-0.266067,-0.133185,26,2
12.6227,-5.31908,1.19839,13,10
4.99106,-2.1042,-0.857887,37,3
14.8079,-6.24598,1.97331,25,11
5.59463,-2.36096,-0.745597,10,4
19.8816,-8.39421,3.41809,50,12
5.54279,-2.34137,-0.526421,5,5
8.54825,-3.61268,1.80391,30,13
7.27184,-3.07474,-0.413768,47,6
14.2094,-6.01399,4.13438,17,15
6.96296,-2.95704,0.132045,48,8
0.487848,-0.20728,-0.122373,15,1
6.54356,-2.78162,0.372632,24,9
0.626954,-0.266514,-0.132421,26,2
6.65913,-2.83212,0.633099,26,10
5.01495,-2.13389,-0.863205,25,3
19.2218,-8.18294,2.56511,11,11
5.57033,-2.3725,-0.743403,29,4
19.899,-8.47945,3.42592,15,12
5.52441,-2.35408,-0.525375,13,5
7.275,-3.10305,-0.414501,18,6
8.80228,-3.75631,2.20947,37,14
12.0515,-5.14539,-0.228731,100,7
7.91281,-3.38,2.30556,23,15
6.9673,-2.98763,0.132324,61,8
0.508612,-0.218202,-0.127772,14,1
9.35472,-4.01524,0.533513,73,9
0.611587,-0.262506,-0.129368,27,2
6.62174,-2.84356,0.630485,41,10
5.02925,-2.16074,-0.86696,55,3
20.6594,-8.88026,2.76107,28,11
5.5529,-2.38801,-0.742184,25,4
6.64172,-2.85763,-0.632576,22,5
7.24395,-3.11974,-0.413349,50,6
8.54751,-3.68291,2.14873,52,14
11.8738,-5.11856,-0.225695,100,7
7.89918,-3.40683,2.30504,61,15
0.443241,-0.191808,-0.12941,15,0
6.95683,-3.01193,0.132324,68,8
0.486389,-0.210681,-0.122373,15,1
9.36081,-4.0566,0.534664,31,9
0.598012,-0.259279,-0.126697,28,2
6.60812,-2.86507,0.630136,52,10
4.82233,-2.09181,-0.832544,38,3
18.6653,-8.1004,2.49832,5,11
5.58459,-2.42477,-0.747547,18,4
8.09156,-3.51495,1.39727,11,12
4.82584,-2.09734,-0.460357,7,5
7.22148,-3.14149,-0.412721,76,6
8.40772,-3.65753,2.11679,49,14
6.63933,-2.88962,-0.12639,34,7
6.96773,-3.04702,0.132743,75,8
0.46776,-0.204651,-0.117874,16,1
12.1306,-5.30982,0.693975,60,9
0.620436,-0.271707,-0.131658,26,2
6.5483,-2.86769,0.62543,39,10
4.91957,-2.15545,-0.850691,20,3
13.4993,-5.91737,1.80976,32,11
5.79927,-2.54329,-0.777526,6,4
8.10576,-3.55649,1.40197,21,12
7.19163,-3.1599,-0.411675,65,6
8.41745,-3.69851,2.12264,44,14
6.52801,-2.86967,-0.124471,47,7
9.78446,-4.30323,2.86409,7,15
6.962,-3.07497,0.132848,72,8
0.484832,-0.214241,-0.122373,15,1
12.1778,-5.3812,0.697743,29,9
0.623075,-0.275459,-0.132421,26,2
6.62338,-2.92955,0.633622,11,10
4.99654,-2.21103,-0.865396,22,3
13.3305,-5.90171,1.79002,44,11
5.79899,-2.56855,-0.778745,9,4
8.08788,-3.58236,1.40103,49,12
8.20391,-3.63719,1.74438,60,13
9.47731,-4.20372,-0.543352,70,6
8.48578,-3.7657,2.14333,52,14
6.008,-2.66614,-0.114732,47,7
7.96488,-3.5362,2.33507,32,15
6.60838,-2.945,0.126286,55,8
0.46276,-0.206325,-0.116975,16,1
6.78353,-3.0259,0.389275,57,9
0.614939,-0.274432,-0.130895,27,2
6.61311,-2.95265,0.633622,20,10
4.98918,-2.22759,-0.865396,23,3
13.3109,-5.94588,1.79002,44,11
9.34082,-4.17444,-1.25623,39,4
14.1453,-6.32455,2.45414,19,12
5.43798,-2.43252,-0.521191,13,5
9.51983,-4.26042,-0.546597,42,6
8.52482,-3.81691,2.15638,31,14
6.0169,-2.69527,-0.115081,47,7
16.0583,-7.1967,4.71517,27,15
6.63818,-2.9861,0.127054,26,8
0.483362,-0.217536,-0.122373,15,1
6.74379,-3.03644,0.3876,38,9
0.606865,-0.273245,-0.129368,27,2
9.32635,-4.20121,0.894915,10,10
4.74185,-2.13704,-0.823784,35,3
13.272,-5.98415,1.78758,44,11
8.78153,-3.96132,-1.18286,28,4
14.3302,-6.46734,2.49012,37,12
5.42945,-2.45149,-0.521191,6,5
6.84414,-3.09025,1.45969,13,13
9.42846,-4.25909,-0.542201,77,6
8.64996,-3.90924,2.19147,48,14
6.29899,-2.84808,-0.120666,51,7
7.94879,-3.5957,2.33765,25,15
8.72346,-3.96081,0.167229,27,8
0.464857,-0.211162,-0.117874,16,1
6.71496,-3.0517,0.386553,41,9
0.602285,-0.273842,-0.128605,28,2
9.28006,-4.22134,0.891952,16,10
4.7232,-2.1495,-0.821907,38,3
13.2185,-6.01564,1.78319,42,11
14.3094,-6.51814,2.49044,13,12
10.5444,-4.80536,-1.0138,9,5
9.46047,-4.31338,2.02105,19,13
9.45457,-4.31268,-0.544608,80,6
8.40333,-3.83493,2.13254,15,14
6.58736,-3.0062,-0.12639,75,7
6.56393,-3.00936,0.126041,38,8
0.481793,-0.220989,-0.122373,15,1
6.56448,-3.011,0.378494,55,9
0.604894,-0.277581,-0.129368,27,2
9.27794,-4.25953,0.893172,22,10
4.76234,-2.18741,-0.830041,27,3
13.2234,-6.07648,1.78685,40,11
8.76919,-4.03152,-1.18506,13,4
13.5632,-6.23552,2.36435,29,12
4.74428,-2.18212,-0.45687,10,5
13.551,-6.23561,2.89953,12,13
9.45035,-4.35067,-0.545236,45,6
8.33856,-3.8406,2.11949,8,14
6.5405,-3.01245,-0.125692,74,7
7.91297,-3.64626,2.33455,29,15
7.10567,-3.28629,0.136652,52,8
0.51643,-0.238952,-0.131371,14,1
6.42706,-2.97517,0.371167,42,9
0.603921,-0.279691,-0.129368,27,2
9.27386,-4.29692,0.894218,16,10
4.68516,-2.1708,-0.817839,25,3
13.2014,-6.11947,1.7866,44,11
4.73626,-2.19649,-0.641033,4,4
13.4715,-6.2504,2.35215,39,12
6.62875,-3.07697,-0.639375,23,5
13.5195,-6.27555,2.89724,11,13
11.0263,-5.12059,-0.637138,26,6
6.87659,-3.19493,1.75057,33,14
6.54264,-3.04116,-0.125937,60,7
7.91771,-3.682,2.33972,35,15
6.91114,-3.22565,0.133127,34,8
0.480278,-0.224263,-0.122373,15,1
6.42025,-2.99927,0.371376,45,9
0.61722,-0.288339,-0.132421,26,2
6.53319,-3.05481,-1.14228,15,3
13.1925,-6.1714,1.78831,44,11
4.72496,-2.21132,-0.640545,22,4
6.64787,-3.11268,1.16262,8,12
4.75238,-2.22618,-0.459136,10,5
9.40845,-4.40724,2.01952,11,13
6.95914,-3.26138,-0.402778,18,6
6.84246,-3.20815,1.74472,17,14
6.56095,-3.07756,-0.126495,75,7
9.74985,-4.57547,2.88583,8,15
6.51812,-3.06997,0.125762,52,8
0.479492,-0.225939,-0.122373,15,1
6.41517,-3.02422,0.37169,48,9
0.609057,-0.28725,-0.130895,27,2
9.33914,-4.40662,0.903456,34,10
6.85778,-3.23727,-1.2011,10,3
8.80691,-4.15737,1.19578,13,11
4.72978,-2.23374,-0.642251,31,4
4.75359,-2.24701,-0.460008,25,5
13.2613,-6.27141,2.85145,12,13
6.99227,-3.30822,-0.405394,36,6
6.80071,-3.21904,1.73707,29,14
6.52667,-3.08933,-0.126041,75,7
7.85864,-3.72148,2.32989,13,15
6.96915,-3.31367,0.134698,64,8
0.478661,-0.227694,-0.122373,15,1
6.44552,-3.06745,0.374097,45,9
0.600959,-0.285999,-0.129368,27,2
8.80022,-4.18995,0.852732,34,10
4.69924,-2.2384,-0.82441,7,3
6.47992,-3.08799,0.881359,2,11
4.72515,-2.25277,-0.642739,11,4
6.63434,-3.16442,1.16419,39,12
4.71475,-2.24983,-0.457045,36,5
6.56827,-3.13431,1.41466,16,13
6.52648,-3.11577,-0.379017,28,6
13.5806,-6.48636,3.47459,20,14
6.472,-3.09254,-0.125204,74,7
7.81358,-3.73526,2.32057,28,15
6.59334,-3.16325,0.127647,57,8
0.442726,-0.212499,-0.113375,16,1
6.49599,-3.11933,0.377656,34,9
0.596368,-0.2865,-0.128605,28,2
8.93924,-4.2964,0.867723,14,10
6.67778,-3.21093,-1.17357,23,3
6.45658,-3.10457,0.879653,38,11
4.70115,-2.2615,-0.640545,8,4
6.70691,-3.22782,1.17889,48,12
6.75154,-3.25075,-0.655585,13,5
6.53021,-3.14559,1.40893,21,13
6.33509,-3.05296,-0.36855,38,6
13.6147,-6.56402,3.48944,22,14
6.44136,-3.10556,-0.12482,67,7
14.1254,-6.81331,4.20219,7,15
6.84447,-3.31464,0.132743,63,8
0.477019,-0.231114,-0.122373,15,1
6.52764,-3.16402,0.380168,39,9
0.609497,-0.29543,-0.131658,26,2
8.93673,-4.33366,0.868943,38,10
4.66533,-2.26335,-0.821281,33,3
6.41837,-3.11521,0.875997,33,11
5.19104,-2.52064,-0.708548,17,4
6.73119,-3.26994,-0.654714,28,5
6.58099,-3.1984,1.42229,16,13
6.31362,-3.06981,-0.367922,38,6
6.86945,-3.34155,1.76362,14,14
6.57917,-3.20177,-0.127717,35,7
6.66397,-3.256,0.129462,75,8
0.476209,-0.232778,-0.122373,15,1
6.52015,-3.18854,0.380378,55,9
0.619044,-0.302731,-0.133948,26,2
6.11354,-2.99103,0.595448,35,10
6.64987,-3.25486,-1.17263,22,3
6.37715,-3.12275,0.871853,30,11
6.21438,-3.04439,-0.849673,38,4
6.70364,-3.28553,-0.653145,11,5
6.54687,-3.21011,1.41733,3,13
6.33514,-3.10767,-0.369806,38,6
6.8175,-3.34576,1.75327,13,14
6.34537,-3.11543,-0.123389,33,7
8.53978,-4.19469,2.54937,19,15
6.40504,-3.15723,0.124645,34,8
0.475394,-0.234438,-0.122373,15,1
6.50539,-3.20952,0.380168,32,9
0.593335,-0.292729,-0.128605,28,2
6.08699,-3.00441,0.593879,43,10
4.67067,-2.30636,-0.825035,47,3
6.30926,-3.11686,0.864054,40,11
6.22329,-3.07574,-0.852354,16,4
6.17282,-3.05214,1.09066,42,12
6.63797,-3.28357,-0.647916,16,5
6.29278,-3.11282,1.36467,13,13
8.27899,-4.09713,-0.484108,39,6
9.15471,-4.5325,2.35839,38,14
6.32191,-3.13135,-0.123144,46,7
8.58394,-4.25364,2.56697,37,15
6.16837,-3.06738,0.120247,48,8
0.474573,-0.236096,-0.122373,15,1
6.3368,-3.15389,0.370957,32,9
0.588743,-0.293152,-0.127842,28,2
6.04383,-3.01071,0.590742,43,10
4.58792,-2.28645,-0.811895,45,3
6.27346,-3.12647,0.860641,42,11
4.58166,-2.28433,-0.628602,46,4
6.18511,-3.08513,1.09473,52,12
6.56942,-3.27826,-0.642338,50,5
6.4664,-3.22967,-0.378808,14,6
8.39368,-4.19408,2.16628,72,14
6.81718,-3.40635,-0.133022,59,7
8.74875,-4.37341,2.6208,26,15
6.16245,-3.09266,0.120352,60,8
0.498086,-0.250076,-0.128672,14,1
6.42337,-3.2264,0.376714,36,9
0.591225,-0.296967,-0.128605,28,2
6.00124,-3.01569,0.587604,39,10
7.44082,-3.74071,-1.31906,30,3
6.17152,-3.10395,0.848211,30,11
4.68143,-2.35554,-0.64347,15,4
6.0626,-3.05182,1.07502,13,12
6.57752,-3.31102,-0.644255,38,5
6.54915,-3.29818,1.42534,18,13
4.7178,-2.37693,-0.276857,11,6
6.2315,-3.1423,-0.121818,13,7
8.72576,-4.40196,2.61873,30,15
6.16232,-3.11957,0.120561,61,8
0.445055,-0.225399,-0.115175,16,1
6.18402,-3.13326,0.363316,20,9
0.586682,-0.297255,-0.127842,28,2
6.03155,-3.05734,0.591613,41,10
7.30968,-3.70681,-1.29809,37,3
6.21907,-3.15511,0.856254,28,11
4.6661,-2.36827,-0.642495,15,4
12.7432,-6.47058,2.26361,38,12
6.64941,-3.37636,-0.652448,26,5
6.39932,-3.25077,1.3952,23,13
6.39207,-3.24849,-0.375772,45,6
6.79906,-3.45682,1.76092,36,14
6.95661,-3.53845,-0.136233,61,7
8.66041,-4.40699,2.60372,39,15
6.08906,-3.10923,0.11934,60,8
0.458149,-0.234043,-0.118774,16,1
12.2938,-6.28024,0.723492,18,9
0.578648,-0.295727,-0.126316,28,2
6.53175,-3.33959,0.641815,30,10
6.67061,-3.41205,-1.18671,27,3
6.14793,-3.14605,0.847967,28,11
6.25163,-3.2005,-0.862348,25,4
12.6882,-6.4957,2.25766,35,12
6.91068,-3.53942,-0.679292,20,5
6.37395,-3.26593,1.39214,12,13
6.62241,-3.39469,-0.390008,42,6
6.77307,-3.47342,1.75732,39,14
6.5,-3.33338,-0.127507,91,7
6.60377,-3.38805,1.98877,13,15
6.09117,-3.13581,0.119584,48,8
0.47123,-0.242699,-0.122373,15,1
6.24244,-3.21645,0.368026,50,9
0.588083,-0.303142,-0.128605,28,2
5.97996,-3.08384,0.58865,39,10
6.7207,-3.46584,-1.19766,10,3
6.19921,-3.19828,0.856498,45,11
4.55991,-2.35354,-0.630065,9,4
6.72064,-3.47027,1.19798,23,12
6.90005,-3.56443,-0.679466,26,5
6.34216,-3.27623,1.38756,24,13
6.75838,-3.49274,-0.398695,39,6
6.78056,-3.50571,1.76227,38,14
6.43681,-3.3294,-0.126495,75,7
6.52842,-3.37823,1.96961,49,15
6.04469,-3.13862,0.118886,56,8
0.463463,-0.24075,-0.120574,15,1
6.27782,-3.26107,0.370748,45,9
0.576622,-0.299659,-0.126316,28,2
5.92904,-3.08252,0.584641,22,10
6.7296,-3.50022,-1.20142,25,3
6.31128,-3.28404,0.87356,52,11
4.56575,-2.37678,-0.632014,11,4
11.1299,-5.79383,1.98734,9,12
7.01366,-3.65264,-0.691842,28,5
6.25755,-3.26025,1.37154,17,13
10.3663,-5.40325,-0.612645,20,6
6.82358,-3.55819,1.77666,36,14
6.51971,-3.39973,-0.128345,77,7
6.58741,-3.4365,1.99084,28,15
6.02362,-3.15309,0.118676,60,8
0.483378,-0.253134,-0.125973,15,1
6.30178,-3.3015,0.372841,45,9
0.568617,-0.298024,-0.124789,29,2
5.93413,-3.11152,0.58621,48,10
7.2218,-3.78671,-1.29152,40,3
6.38297,-3.34829,0.885015,47,11
6.01326,-3.15569,-0.83383,28,4
11.127,-5.84183,1.99047,9,12
7.11552,-3.73732,-0.703173,23,5
6.45876,-3.39236,1.41809,24,13
6.82816,-3.5879,-0.404243,29,6
6.6358,-3.4883,1.73077,38,14
6.55559,-3.4476,-0.129287,78,7
6.53605,-3.43878,1.97893,56,15
5.93775,-3.13592,0.11721,52,8
0.468663,-0.247621,-0.122373,15,1
6.32496,-3.34324,0.374935,43,9
0.591818,-0.312955,-0.130132,27,2
5.92499,-3.13315,0.586384,39,10
7.15549,-3.78544,-1.28214,35,3
6.25837,-3.31224,0.869416,49,11
4.5315,-2.39931,-0.629577,7,4
12.9,-6.83311,2.3121,12,12
6.49969,-3.44431,-0.643558,18,5
6.41446,-3.40058,1.41122,16,13
6.15795,-3.26597,-0.365305,33,6
6.60575,-3.50347,1.72627,41,14
6.56234,-3.48192,-0.129671,35,7
6.57118,-3.48808,1.99342,49,15
5.88739,-3.13698,0.116442,30,8
0.467752,-0.249337,-0.122373,15,1
6.01659,-3.20851,0.35735,28,9
0.580274,-0.309577,-0.127842,28,2
5.91874,-3.15766,0.586907,45,10
6.75294,-3.60422,-1.21237,22,3
6.20766,-3.31458,0.864054,40,11
5.97596,-3.1922,-0.83188,31,4
6.23014,-3.32938,1.11882,28,12
6.57312,-3.51414,-0.652099,6,5
6.49024,-3.47129,1.43069,21,13
