x, y, z, intensity, ring
-2.13349,13.4855,0.715537,19,9
-1.59926,10.1087,-1.98937,28,2
-3.60875,22.8363,2.02271,29,10
-1.57109,9.95316,-1.59594,7,3
-2.85021,18.0773,2.24703,71,11
-1.77513,11.2714,-1.40101,55,4
-6.38168,40.5672,6.50423,6,12
-1.78018,11.3292,-1.00334,23,5
-4.24518,27.0166,5.31594,11,13
-3.64848,23.2721,5.43842,24,14
-3.66135,23.4076,6.34831,16,15
-0.0763367,0.492537,-0.133551,15,0
-2.03761,13.147,0.232222,15,8
-0.0989792,0.639366,-0.149367,24,1
-3.56544,23.0579,1.22278,35,9
-1.5511,10.0427,-1.97525,52,2
-4.10099,26.5828,2.3532,6,10
-1.52978,9.92762,-1.59094,5,3
-2.8645,18.5893,2.30942,39,11
-1.74876,11.3619,-1.41149,60,4
-3.89309,25.3231,4.05791,28,12
-1.77692,11.5716,-1.02425,45,5
-6.09747,39.7543,7.81783,8,13
-1.74605,11.3972,-0.604271,100,6
-3.58321,23.4163,5.46901,30,14
-1.72623,11.281,-0.199202,23,7
-3.54401,23.1873,6.28516,19,15
-0.0798232,0.527182,-0.142868,14,0
-1.94815,12.8815,0.227405,20,8
-0.0945975,0.626236,-0.146218,25,1
-2.82955,18.7537,0.993965,11,9
-1.53919,10.2014,-2.0054,35,2
-2.68666,17.8278,1.57734,37,10
-1.56274,10.3822,-1.6629,5,3
-2.7872,18.5389,2.30187,34,11
-1.71448,11.4173,-1.41758,17,4
-3.802,25.349,4.05979,7,12
-1.70489,11.367,-1.0056,56,5
-4.38132,29.2461,5.74831,35,13
-1.70419,11.3894,-0.603538,40,6
-3.5049,23.4518,5.47441,24,14
-1.69167,11.3327,-0.200005,95,7
-4.02762,27.0139,7.31837,19,15
-0.0706362,0.477769,-0.12941,15,0
-1.99489,13.5094,0.238365,34,8
-0.0904207,0.613067,-0.143069,25,1
-3.70191,25.1299,1.33122,23,9
-1.46837,9.96785,-1.95846,52,2
-2.60585,17.7109,1.56619,71,10
-3.97819,27.1039,3.36359,20,11
-1.66655,11.3682,-1.41076,19,4
-4.3534,29.7324,4.75936,17,12
-1.98964,13.5887,-1.20153,20,5
-4.29028,29.337,5.7632,17,13
-1.67106,11.4407,-0.605946,37,6
-3.3254,22.7948,5.31829,17,14
-1.64229,11.2712,-0.198818,22,7
-3.28396,22.5659,6.1102,45,15
-0.0733818,0.508606,-0.137692,14,0
-1.86131,12.9166,0.227789,67,8
-0.089668,0.623024,-0.145318,25,1
-8.03936,55.9276,2.96117,10,9
-1.37714,9.58037,-1.88138,19,2
-2.54062,17.6963,1.5641,29,10
-1.63939,11.4331,-1.82934,47,3
-3.65082,25.4925,3.16202,91,11
-1.61618,11.2993,-1.4015,30,4
-4.25042,29.7533,4.7603,17,12
-1.67564,11.7297,-1.03663,29,5
-4.19144,29.3771,5.76816,21,13
-1.65113,11.5869,-0.613377,64,6
-3.24361,22.7908,5.31469,69,14
-3.21984,22.6805,6.13815,15,15
-0.067299,0.478251,-0.12941,15,0
-0.0866802,0.617543,-0.143969,25,1
-3.79118,27.0441,1.43118,5,9
-1.4369,10.2501,-2.01189,100,2
-2.50949,17.924,1.58345,3,10
-1.58579,11.3409,-1.8137,72,3
-2.54294,18.2092,2.25751,19,11
-2.26802,16.2613,-2.01596,11,4
-3.78406,27.1658,4.34419,15,12
-1.64156,11.7848,-1.04099,18,5
-3.17994,22.8579,4.48592,13,13
-1.63788,11.7884,-0.62374,27,6
-3.16216,22.7885,5.31154,22,14
-1.80375,13.0156,-0.22936,32,7
-3.1772,22.9557,6.20959,6,15
-0.0698293,0.509106,-0.137692,14,0
-1.54123,11.2512,0.198224,13,8
-0.0866373,0.633288,-0.147568,24,1
-3.94106,28.8078,1.52381,30,9
-1.30836,9.57614,-1.87871,26,2
-2.43318,17.832,1.57456,6,10
-1.49472,10.9686,-1.75332,31,3
-3.63579,26.7153,3.31046,20,11
-1.45571,10.6963,-1.32545,20,4
-3.14965,23.1734,3.70406,24,12
-1.81936,13.4034,-1.1834,27,5
-3.11252,22.9603,4.50386,91,13
-3.66358,27.0608,6.30448,8,14
-1.69869,12.5638,-0.221297,28,7
-3.6889,27.3196,7.3867,9,15
-0.0696778,0.520823,-0.140798,14,0
-1.50179,11.2404,0.197945,6,8
-0.0835057,0.625845,-0.145768,25,1
-3.58452,26.8647,1.4204,9,9
-1.28179,9.61934,-1.88634,57,2
-3.41084,25.6313,2.26221,48,10
-1.43075,10.766,-1.72015,67,3
-2.42337,18.2596,2.26165,19,11
-2.05434,15.479,-1.91725,23,4
-3.0746,23.1974,3.70625,36,12
-1.76758,13.3541,-1.17852,25,5
-1.60831,12.1834,-0.644046,65,6
-3.14128,23.7962,5.54144,25,14
-1.4393,10.9179,-0.192221,100,7
-3.49289,26.5311,7.17032,36,15
-0.0649523,0.498064,-0.134586,15,0
-1.69667,13.028,0.229325,38,8
-0.08143,0.626119,-0.145768,25,1
-2.24672,17.2988,0.914205,8,9
-1.3045,10.0441,-1.96877,42,2
-2.33562,18.0078,1.58867,57,10
-1.39504,10.7707,-1.72015,32,3
-2.34956,18.1651,2.24898,42,11
-1.36685,10.582,-1.3101,22,4
-3.99231,30.9506,4.9427,15,12
-1.48446,11.5083,-1.01519,11,5
-3.84305,29.8345,5.84715,9,13
-1.51872,11.8064,-0.623845,81,6
-4.3056,33.5177,7.80175,11,14
-1.405,10.9526,-0.192744,100,7
-3.39805,26.5259,7.16566,54,15
-0.0627272,0.494455,-0.133551,15,0
-1.65445,13.0596,0.229778,32,8
-0.0777763,0.614799,-0.143069,25,1
-4.19792,33.2299,1.75535,36,9
-1.28444,10.1674,-1.99205,59,2
-2.27473,18.0317,1.59007,37,10
-1.40706,11.1694,-1.78304,27,3
-2.28639,18.1752,2.24922,19,11
-1.38804,11.0495,-1.36737,41,4
-3.83656,30.5841,4.88201,7,12
-1.69252,13.4923,-1.18968,47,5
-3.54295,28.2835,5.54071,20,13
-1.47105,11.7601,-0.621123,27,6
-3.33135,26.6698,6.20505,41,14
-1.36528,10.9455,-0.192535,100,7
-3.33528,26.7772,7.23037,18,15
-0.0614736,0.498505,-0.134586,15,0
-0.0784838,0.638277,-0.148468,24,1
-3.17618,25.868,1.36586,47,9
-1.24032,10.1016,-1.97831,38,2
-2.88462,23.5273,2.07378,46,10
-1.34574,10.9919,-1.75394,67,3
-2.22462,18.1968,2.25093,9,11
-1.33287,10.9183,-1.35056,52,4
-3.75392,30.7953,4.91361,7,12
-1.66446,13.6544,-1.20345,20,5
-3.30162,27.1244,5.31136,15,13
-1.48541,12.2212,-0.645198,48,6
-3.2359,26.6619,6.20055,41,14
-1.32104,10.9006,-0.191662,100,7
-2.928,24.1957,6.53052,21,15
-1.59315,13.321,0.234176,44,8
-0.0774105,0.648222,-0.150717,23,1
-2.04039,17.1111,0.903109,27,9
-1.20529,10.1079,-1.97869,64,2
-2.27081,19.0719,1.68036,45,10
-4.22742,35.6106,4.40314,28,11
-1.28774,10.8638,-1.34324,31,4
-3.65522,30.8828,4.9255,19,12
-1.6601,14.0261,-1.23569,30,5
-3.17514,26.8667,5.2587,3,13
-1.45188,12.3036,-0.64928,65,6
-3.14463,26.6885,6.20415,66,14
-1.48533,12.625,-0.22189,32,7
-2.84308,24.202,6.52949,21,15
-0.062359,0.537312,-0.144939,14,0
-0.0750343,0.648502,-0.150717,23,1
-1.99579,17.2491,0.910018,29,9
-1.17026,10.1298,-1.98212,47,2
-2.19588,19.0366,1.67653,17,10
-1.27112,11.0366,-1.75958,21,3
-3.01804,26.2446,3.24367,19,11
-1.23908,10.7915,-1.33374,15,4
-3.11003,27.0862,4.31822,33,12
-1.60301,13.9827,-1.23134,12,5
-3.0639,26.767,5.23694,29,13
-1.40745,12.3148,-0.649594,74,6
-2.79205,24.4674,5.68541,81,14
-1.32064,11.5731,-0.203321,85,7
-3.15484,27.6897,7.46745,10,15
-0.0574593,0.51065,-0.137692,14,0
-1.82881,16.2529,0.285486,16,8
-0.0694022,0.617762,-0.143519,25,1
-1.93,17.2063,0.907401,11,9
-1.13665,10.1494,-1.98518,45,2
-3.04998,27.2772,2.40131,46,10
-1.24066,11.0957,-1.76834,13,3
-2.9909,26.7911,3.30997,60,11
-1.21297,10.8824,-1.34446,1,4
-3.01633,27.1047,4.31947,21,12
-1.64682,14.8218,-1.30472,28,5
-2.7438,24.695,4.82976,25,13
-1.36595,12.3135,-0.64928,32,6
-1.28067,11.5816,-0.20339,100,7
-2.92824,26.5235,7.15014,18,15
-0.0578619,0.530042,-0.142868,14,0
-1.77466,16.2831,0.285905,1,8
-0.0670344,0.616063,-0.143069,25,1
-1.43499,13.188,0.695231,9,9
-1.10659,10.1863,-1.99166,57,2
-2.93997,27.1069,2.38545,66,10
-1.23339,11.3906,-1.81464,32,3
-2.9298,27.1014,3.34702,70,11
-1.3113,12.1497,-1.50046,25,4
-2.90418,26.9084,4.28662,39,12
-1.44013,13.3653,-1.17608,27,5
-2.65213,24.6537,4.81984,45,13
-1.33618,12.4413,-0.65577,65,6
-3.77287,35.1874,8.17022,12,14
-1.37955,12.8663,-0.225869,24,7
-2.8637,26.7521,7.20915,4,15
-0.0523583,0.49566,-0.133551,15,0
-1.2917,12.2281,0.21463,23,8
-0.0670353,0.635662,-0.147568,24,1
-1.80991,17.1913,0.905936,26,9
-1.06158,10.1003,-1.97411,54,2
-2.85157,27.1764,2.39068,66,10
-1.1179,10.654,-1.69669,28,3
-2.24761,21.4566,2.64895,12,11
-1.26914,12.1362,-1.49826,16,4
-2.59158,24.824,3.9531,37,12
-1.95422,18.7504,-1.64934,10,5
-2.57118,24.6701,4.82136,15,13
-3.65254,35.1649,8.16212,12,14
-1.33464,12.871,-0.225869,25,7
-2.89123,27.9302,7.52387,20,15
-0.0491419,0.480456,-0.12941,15,0
-1.25836,12.324,0.216235,27,8
-0.0648159,0.635892,-0.147568,24,1
-1.69409,16.6491,0.877046,16,9
-1.03007,10.1233,-1.97793,26,2
-2.74653,27.0391,2.37778,65,10
-1.15703,11.4105,-1.81652,50,3
-2.53155,25.0094,3.08646,70,11
-1.32276,13.0905,-1.6155,43,4
-2.50532,24.8368,3.95373,15,12
-1.44871,14.362,-1.26289,27,5
-3.4579,34.3404,6.70884,6,13
-1.32298,13.1615,-0.693242,52,6
-2.75191,27.4253,6.36342,8,14
-1.29548,12.9333,-0.226881,22,7
-2.41872,24.1898,6.51396,10,15
-0.0489835,0.496005,-0.133551,15,0
-1.21631,12.3383,0.21641,47,8
-0.0618323,0.628357,-0.145768,25,1
-1.63538,16.6489,0.876732,11,9
-1.00951,10.2773,-2.00731,52,2
-2.58078,26.3208,2.31381,6,10
-1.06928,10.925,-1.73861,25,3
-2.44192,24.9944,3.08354,96,11
-1.27629,13.0872,-1.61453,30,4
-2.7541,28.2919,4.50218,6,12
-1.27695,13.1177,-1.15307,28,5
-3.33668,34.3385,6.70617,12,13
-1.28378,13.2356,-0.696906,35,6
-2.89296,29.8806,6.93074,51,14
-1.24783,12.9119,-0.226428,22,7
-2.58767,26.8248,7.22105,9,15
-0.0476179,0.500019,-0.134586,15,0
-1.17474,12.3584,0.216689,61,8
-0.0583501,0.614989,-0.142619,26,1
-1.60192,16.915,0.890444,41,9
-0.962333,10.1615,-1.98403,23,2
-2.37676,25.1434,2.20957,57,10
-1.03819,11.0034,-1.7505,41,3
-2.54971,27.074,3.33898,81,11
-1.22038,12.9828,-1.60112,11,4
-1.97093,21.0067,3.34175,20,12
-1.21999,13.003,-1.14261,19,5
-2.81188,30.0262,5.86203,32,13
-2.78919,29.8964,6.93209,41,14
-1.21183,13.0137,-0.228138,55,7
-2.51743,27.0857,7.28886,19,15
-0.0479896,0.523268,-0.140798,14,0
-1.12066,12.2429,0.214595,27,8
-0.0574443,0.628773,-0.145768,25,1
-1.54123,16.9026,0.889502,9,9
-0.926498,10.1609,-1.98327,40,2
-2.29024,25.1655,2.21079,100,10
-0.990125,10.9007,-1.73361,72,3
-2.47042,27.2508,3.35969,30,11
-1.61743,17.8762,-2.20389,19,4
-1.89333,20.9663,3.33424,17,12
-1.2977,14.3704,-1.26236,12,5
-2.49081,27.6366,5.39379,3,13
-3.51651,39.17,9.07947,13,14
-1.1307,12.6195,-0.221157,93,7
-2.70111,30.2057,8.12588,12,15
-0.0444654,0.504188,-0.135621,15,0
-1.08388,12.3145,0.215782,30,8
-0.0554198,0.630911,-0.146218,25,1
-2.21868,25.2579,1.32881,19,9
-0.886397,10.1112,-1.97297,45,2
-2.31577,26.4694,2.32462,50,10
-0.951899,10.9021,-1.73329,62,3
-1.76027,20.2012,2.48979,11,11
-1.13247,13.0227,-1.60502,8,4
-1.82242,20.9567,3.33174,22,12
-1.24408,14.3352,-1.25888,27,5
-2.4194,27.9346,5.45027,3,13
-1.64645,19.0487,-1.00202,32,6
-2.78707,32.311,7.48727,11,14
-1.18285,13.713,-0.24025,21,7
-2.58899,30.0759,8.08861,12,15
-0.0433573,0.51204,-0.137692,14,0
-0.0539834,0.638859,-0.148018,24,1
-1.05593,12.5223,0.658596,11,9
-0.840234,9.98516,-1.94778,38,2
-2.2192,26.4277,2.32026,12,10
-0.937557,11.165,-1.77459,30,3
-1.76621,21.0773,2.59704,55,11
-0.962734,11.5131,-1.41856,1,4
-1.74712,20.9373,3.32767,22,12
-2.39339,28.7427,5.60635,16,13
-1.23232,14.8305,-0.779911,48,6
-3.39651,40.9623,9.48934,14,14
-1.05204,12.7146,-0.222693,34,7
-2.30324,27.8957,7.50006,20,15
-0.040406,0.496777,-0.133551,15,0
-1.03983,12.8119,0.224368,38,8
-0.0523821,0.646813,-0.149817,24,1
-0.797627,9.87048,-1.92488,38,2
-1.71264,21.2397,1.86426,49,10
-0.86388,10.737,-1.70607,13,3
-1.69357,21.0952,2.5985,67,11
-0.925078,11.548,-1.42246,6,4
-1.67922,21.0083,3.338,12,12
-1.0244,12.816,-1.12483,26,5
-2.22436,27.8898,5.43844,23,13
-1.17912,14.8168,-0.778968,42,6
-3.6382,45.8188,10.6114,18,14
-1.05534,13.3202,-0.233234,27,7
-2.18045,27.5819,7.41361,24,15
-0.0374727,0.481507,-0.12941,15,0
-0.998504,12.8593,0.225136,67,8
-0.0487694,0.629506,-0.145768,25,1
-1.01528,13.1347,0.690416,21,9
-0.756966,9.79295,-1.90923,30,2
-1.63818,21.2415,1.86391,100,10
-1.65002,21.4929,2.64676,12,11
-1.01241,13.2177,-1.62769,14,4
-2.05561,26.8993,4.27285,20,12
-0.968721,12.6765,-1.11228,30,5
-2.61237,34.2634,6.67946,18,13
-1.05861,13.9166,-0.731447,58,6
-0.989064,13.0626,-0.228661,100,7
-2.0581,27.2446,7.32096,52,15
-0.0380822,0.51246,-0.137692,14,0
-0.963519,12.9963,0.227475,30,8
-0.0462844,0.625785,-0.144868,25,1
-1.58067,21.4223,1.12575,18,9
-0.719452,9.7505,-1.90046,30,2
-1.95762,26.5942,2.33298,44,10
-0.803084,10.9359,-1.73674,38,3
-1.56917,21.4193,2.63701,62,11
-0.8466,11.5839,-1.42612,11,4
-2.01013,27.5702,4.37829,33,12
-0.939542,12.8864,-1.13041,21,5
-2.49061,34.2429,6.67374,12,13
-1.00887,13.9043,-0.73061,26,6
-1.98553,27.4308,6.34947,43,14
-0.93496,12.9483,-0.226602,100,7
-1.96201,27.2381,7.31733,57,15
-0.0354749,0.501027,-0.134586,15,0
-0.958155,13.5661,0.237388,57,8
-0.0446474,0.633718,-0.146668,24,1
-0.910959,12.9622,0.680996,27,9
-0.681978,9.70399,-1.89092,28,2
-1.87007,26.6764,2.33961,38,10
-0.813407,11.6322,-1.84687,56,3
-1.49897,21.49,2.64505,25,11
-0.798033,11.4699,-1.41173,15,4
-1.91332,27.5692,4.37704,12,12
-1.07319,15.4636,-1.35614,13,5
-1.91184,27.6178,5.3812,38,13
-0.95414,13.8181,-0.7259,45,6
-1.88761,27.4065,6.34227,100,14
-1.14728,16.7001,-0.292188,85,7
-0.87182,12.9888,0.22723,28,8
-0.041524,0.62026,-0.143519,25,1
-1.80406,27.0187,1.41914,16,9
-0.646398,9.68085,-1.88596,28,2
-1.7829,26.7722,2.34745,51,10
-0.676053,10.1784,-1.61566,28,3
-1.7735,26.7718,3.29437,49,11
-0.882182,13.3524,-1.64304,21,4
-1.85865,28.2065,4.47715,12,12
-0.889773,13.503,-1.18392,37,5
-1.81325,27.591,5.37471,100,13
-0.906288,13.8273,-0.726214,16,6
-1.79524,27.4634,6.35397,52,14
-0.829717,12.727,-0.222623,26,7
-1.51937,23.3686,6.27481,9,15
-0.0324679,0.508974,-0.136656,14,0
-0.842735,13.2472,0.231698,56,8
-0.040839,0.643739,-0.148918,24,1
-0.835696,13.2094,0.693661,7,9
-0.610864,9.65561,-1.88061,33,2
-1.31159,20.7891,1.82243,19,10
-0.662967,10.5376,-1.67228,100,3
-1.62931,25.9695,3.19493,56,11
-0.836321,13.3673,-1.64451,38,4
-0.85578,13.7168,-1.2024,30,5
-1.71875,27.6265,5.38043,46,13
-1.19045,19.1887,-1.00757,18,6
-2.53454,40.9699,9.47674,14,14
-0.785037,12.7259,-0.222553,100,7
-1.44278,23.4547,6.29655,26,15
-0.0302261,0.501371,-0.134586,15,0
-0.779806,12.9726,0.226846,45,8
-0.0376588,0.628316,-0.145318,25,1
-1.23628,20.6266,1.08294,47,9
-0.576221,9.64201,-1.87756,26,2
-1.2985,21.792,1.90993,48,10
-0.614462,10.3426,-1.641,10,3
-1.64607,27.7882,3.41795,100,11
-0.792343,13.4157,-1.65011,57,4
-1.63784,27.7314,4.39988,50,12
-0.804963,13.67,-1.19804,32,5
-1.40323,23.9007,4.65383,14,13
-1.38286,23.6953,5.47981,61,14
-0.739333,12.6685,-0.221506,20,7
-1.36521,23.4632,6.29759,48,15
-0.0282566,0.497616,-0.133551,15,0
-0.728617,12.8314,0.224333,70,8
-0.0359059,0.634274,-0.146668,24,1
-1.15101,20.3955,1.07058,7,9
-0.541565,9.62632,-1.87413,26,2
-1.53915,27.4439,2.4048,53,10
-1.46781,26.2535,3.22856,47,11
-0.68201,12.237,-1.50484,9,4
-1.33655,24.0566,3.81606,11,12
-0.708662,12.7954,-1.12117,11,5
-1.3219,23.868,4.64658,54,13
-0.713654,12.9265,-0.678483,32,6
-1.30481,23.7095,5.48206,49,14
-1.48593,27.1734,7.29197,19,15
-0.0268127,0.501565,-0.134586,15,0
-0.693508,13.0156,0.22751,38,8
-0.0334848,0.630503,-0.145768,25,1
-1.27815,24.067,1.26308,3,9
-0.507982,9.5967,-1.86802,26,2
-1.38831,26.3147,2.30544,50,10
-0.588241,11.1869,-1.77428,26,3
-1.26956,24.2246,2.97849,89,11
-0.635462,12.1659,-1.49582,10,4
-1.25564,24.0392,3.81262,38,12
-0.668398,12.8395,-1.12483,26,5
-0.672959,13.0147,-0.682984,45,6
-1.82209,35.3578,8.17382,48,14
-0.962449,18.6764,-0.32643,7,7
-1.39978,27.2553,7.31267,4,15
-0.0260258,0.52095,-0.139762,14,0
-0.631687,12.6443,0.220982,41,8
-0.0323628,0.650074,-0.150267,24,1
-0.963851,19.4294,1.0195,1,9
-0.469054,9.4886,-1.84665,49,2
-1.20069,24.3752,2.13514,69,10
-0.51946,10.5456,-1.67228,82,3
-1.1899,24.2425,2.98019,48,11
-0.59696,12.2056,-1.50046,36,4
-0.62106,12.79,-1.1203,42,5
-1.71777,35.3754,6.88439,6,13
-0.632219,13.0668,-0.685601,42,6
-1.70238,35.313,8.16212,12,14
-0.858101,17.8647,-0.312189,45,7
-1.3691,28.607,7.67399,15,15
-0.023398,0.501736,-0.134586,15,0
-0.600164,12.9181,0.225729,43,8
-0.029823,0.644343,-0.148918,24,1
-0.43903,9.52148,-1.85276,26,2
-1.12057,24.395,2.13654,48,10
-0.481108,10.5138,-1.66697,60,3
-1.21547,26.6639,3.27731,19,11
-0.55948,12.3207,-1.51435,10,4
-1.27388,28.053,4.44775,6,12
-0.580177,12.8258,-1.12326,47,5
-1.2566,27.8872,5.42623,15,13
-0.559374,12.4623,-0.653781,74,6
-1.25601,28.0923,6.49209,36,14
-0.581906,13.015,-0.227405,100,7
-1.27895,28.7175,7.70246,5,15
-0.0221461,0.513395,-0.137692,14,0
-0.577492,13.3875,0.233897,64,8
-0.0271841,0.632757,-0.146218,25,1
-0.40479,9.49942,-1.84818,26,2
-1.10526,26.045,2.28069,55,10
-0.446488,10.5213,-1.6679,47,3
-1.14565,27.108,3.33142,50,11
-0.509769,12.1122,-1.48851,6,4
-1.17595,28.0573,4.44775,28,12
-0.535405,12.8278,-1.12326,28,5
-1.16117,27.8206,5.41249,19,13
-0.54367,13.0807,-0.686124,65,6
-1.16437,28.1333,6.50064,9,14
-0.538944,13.0769,-0.228452,100,7
-1.77801,43.3259,11.6189,13,15
-0.0199823,0.501884,-0.134586,15,0
-0.513176,12.9459,0.226148,55,8
-0.0246679,0.625059,-0.144419,25,1
-0.72491,18.3685,0.9634,12,9
-0.371588,9.45755,-1.83978,26,2
-1.01696,25.9987,2.27633,67,10
-0.409454,10.5149,-1.66665,72,3
-1.07354,27.6931,3.40284,21,11
-0.466953,12.1001,-1.48681,6,4
-1.08252,28.0512,4.44618,31,12
-0.489265,12.7359,-1.11507,28,5
-1.06457,27.8382,5.41516,15,13
-0.502491,13.2003,-0.6923,26,6
-1.06595,28.1313,6.49929,27,14
-0.493605,13.0267,-0.227544,21,7
-1.25856,33.3683,8.94738,14,15
-0.0196327,0.540562,-0.144939,14,0
-0.446652,12.298,0.214804,13,8
-0.0223839,0.619295,-0.143069,25,1
-0.33717,9.41955,-1.83215,26,2
-0.640514,17.9819,1.57421,23,10
-0.376695,10.5754,-1.67604,47,3
-0.938169,26.4685,3.25196,19,11
-0.432705,12.2682,-1.50728,46,4
-0.98606,28.0963,4.45275,12,12
-0.446332,12.7814,-1.11891,28,5
-1.20218,34.4263,6.69587,12,13
-0.593267,17.0743,-0.895364,40,6
-0.970843,28.0821,6.48714,36,14
-0.587534,17.0813,-0.298331,85,7
-1.39439,40.7459,10.9242,11,15
-0.0173062,0.53291,-0.142868,14,0
-0.395599,12.2477,0.213897,17,8
-0.0204608,0.636909,-0.147118,24,1
-0.586588,18.2595,0.957434,27,9
-0.299309,9.3678,-1.82184,30,2
-0.569308,17.9165,1.56828,16,10
-0.337482,10.6795,-1.69231,33,3
-0.829498,26.3947,3.24246,38,11
-0.389651,12.3987,-1.52312,39,4
-1.15157,36.8485,5.83907,5,12
-0.393604,12.6655,-1.10862,35,5
-1.0791,34.9194,6.79089,31,13
-0.408291,13.2875,-0.696696,58,6
-0.862463,28.0681,6.48309,9,14
-0.382651,12.5242,-0.218714,23,7
-1.02936,33.8845,9.08351,7,15
-0.0149758,0.513654,-0.137692,14,0
-0.352204,12.153,0.212221,26,8
-0.0191901,0.666193,-0.153867,23,1
-0.766816,26.6204,1.3957,16,9
-0.26779,9.35304,-1.81879,28,2
-0.754443,26.512,2.32043,50,10
-0.303738,10.7398,-1.70169,33,3
-0.795334,28.2962,3.47571,10,11
-0.315679,11.2312,-1.37956,19,4
-1.02938,36.8521,5.83907,10,12
-0.344577,12.4138,-1.08648,11,5
-0.962588,34.8973,6.78593,6,13
-0.36308,13.2468,-0.694498,58,6
-0.998547,36.4317,8.41407,12,14
-0.342475,12.5754,-0.219586,26,7
-0.917141,33.8935,9.08507,15,15
-0.0137714,0.533013,-0.142868,14,0
-0.439837,17.1397,0.299274,66,8
-0.0161865,0.635083,-0.146668,24,1
-0.459262,18.1433,0.951154,13,9
-0.236129,9.32836,-1.81383,28,2
-0.666065,26.4964,2.31887,43,10
-0.264723,10.6045,-1.68011,53,3
-0.667754,26.9374,3.30851,20,11
-0.283651,11.5239,-1.41539,15,4
-0.661633,27.0724,4.28912,3,12
-0.306519,12.632,-1.10548,9,5
-0.768761,31.6815,6.16008,20,13
-0.317414,13.1761,-0.69073,71,6
-0.294693,12.4126,-0.216724,33,7
-0.703646,29.8581,8.00269,23,15
-0.0113897,0.513746,-0.137692,14,0
-0.394688,17.8029,0.310827,20,8
-0.0139268,0.633187,-0.146218,25,1
-0.393526,18.035,0.945397,9,9
-0.201217,9.2958,-1.80734,33,2
-0.575838,26.8194,2.34693,12,10
-0.24146,11.3381,-1.79618,76,3
-0.589057,27.66,3.39699,21,11
-0.249792,11.8265,-1.45244,34,4
-0.568706,27.1495,4.30101,3,12
-0.28584,13.7605,-1.20414,27,5
-0.741155,35.9827,6.99582,13,13
-0.268959,13.1692,-0.690311,58,6
-0.542774,26.8053,6.18975,8,14
-0.249295,12.3116,-0.214944,100,7
-0.604062,30.0922,8.0648,6,15
-0.00959617,0.513783,-0.137692,14,0
-0.232278,12.5539,0.219167,27,8
-0.0119632,0.652718,-0.150717,23,1
-0.330208,18.0162,0.94435,12,9
-0.168159,9.26307,-1.80086,26,2
-0.498219,27.7117,2.42485,33,10
-0.195413,10.9754,-1.73861,53,3
-0.473613,26.864,3.299,59,11
-0.202427,11.5971,-1.42417,5,4
-0.500816,28.6919,4.54505,6,12
-0.313819,18.1599,-1.58902,16,5
-0.458019,26.7749,5.20527,14,13
-0.223763,13.216,-0.692719,26,6
-0.612184,36.5337,8.43566,12,14
-0.206449,12.3204,-0.215083,22,7
-0.590421,35.6049,9.54162,16,15
-0.00809587,0.53313,-0.142868,14,0
-0.189769,12.4967,0.218155,28,8
-0.00947705,0.631321,-0.145768,25,1
-0.271994,18.3328,0.960888,1,9
-0.135563,9.24593,-1.79742,26,2
-0.377045,26.0258,2.27721,30,10
-0.153519,10.5968,-1.67854,93,3
-0.384519,26.8655,3.299,49,11
-0.181623,12.8462,-1.57748,14,4
-0.51838,37.1236,5.88037,10,12
-0.25034,18.1549,-1.5885,40,5
-0.368029,26.6899,5.18848,38,13
-0.17866,13.1228,-0.687799,48,6
-0.164399,12.393,-0.21634,47,7
-0.486429,37.1579,9.95729,9,15
-0.00596093,0.502246,-0.134586,15,0
-0.203766,17.4242,0.304161,36,8
-0.0073629,0.639144,-0.147568,24,1
-0.211432,18.3536,0.961935,24,9
-0.104676,9.2267,-1.7936,26,2
-0.291967,26.1365,2.28679,12,10
-0.115662,10.5182,-1.66603,37,3
-0.281581,26.0211,3.19517,18,11
-0.127991,12.021,-1.47608,1,4
-0.287978,27.0473,4.28411,31,12
-0.188657,18.0142,-1.57612,20,5
-0.276472,26.848,5.21901,29,13
-0.171492,16.9399,-0.887827,27,6
-0.315991,31.7609,7.33295,10,14
-0.178868,17.9784,-0.313829,100,7
-0.309121,31.6268,8.47477,26,15
-0.00436967,0.521582,-0.139762,14,0
-0.149649,17.8627,0.311805,22,8
-0.00522722,0.637217,-0.147118,24,1
-0.145965,18.1805,0.952829,37,9
-0.0720693,9.17597,-1.78368,26,2
-0.200985,26.1713,2.28976,6,10
-0.0834938,10.8722,-1.72203,68,3
-0.146207,19.4811,2.39205,10,11
-0.0864353,11.7911,-1.44781,19,4
-0.137792,19.2555,3.04985,40,12
-0.101901,14.5959,-1.27701,10,5
-0.188226,26.9607,5.24076,18,13
-0.116563,17.1241,-0.897457,33,6
-0.204415,30.8206,7.11565,10,14
-0.109817,17.0051,-0.296831,100,7
-0.226015,35.9704,9.63842,8,15
-0.00264013,0.521593,-0.139762,14,0
-0.0868007,17.7611,0.310025,24,8
-0.0029571,0.627487,-0.144868,25,1
-0.0818445,18.0351,0.945188,34,9
-0.0415085,9.14671,-1.77796,26,2
-0.0858949,19.6846,1.7222,49,10
-0.0450399,10.7519,-1.70295,50,3
-0.0781449,19.4657,2.3901,71,11
-0.0448822,11.6881,-1.43513,15,4
-0.0614829,16.7758,-1.4677,12,5
-0.107539,30.8052,5.98797,23,13
-0.0564801,17.0305,-0.892537,37,6
-0.0970052,30.8796,7.12915,42,14
-0.0506448,17.0673,-0.297913,69,7
-0.103698,37.13,9.94901,9,15
-0.000837477,0.53319,-0.142868,14,0
-0.0247308,17.7073,0.309082,9,8
-0.000768956,0.629443,-0.145318,25,1
-0.0188161,17.9693,0.941733,39,9
-0.00954904,9.11931,-1.77262,23,2
-0.0171829,19.6808,1.72185,100,10
-0.00781047,11.1885,-1.77209,62,3
-0.0102008,19.4837,2.3923,56,11
-0.00408723,11.6942,-1.43586,5,4
-0.00468618,26.8533,4.25314,14,12
-0.00252286,14.4568,-1.2648,30,5
3.66906e-07,30.7681,5.98072,19,13
0.00297648,17.1005,-0.896201,60,6
0.0107332,30.7492,7.09901,52,14
0.00920835,17.5873,-0.306988,100,7
0.0238397,34.1493,9.15029,23,15
0.000964258,0.502281,-0.134586,15,0
0.0373521,17.8352,0.311316,48,8
0.00150766,0.664519,-0.153417,23,1
0.0439976,18.0072,0.943722,24,9
0.0221903,9.08199,-1.76537,26,2
0.0515318,19.6847,1.7222,38,10
0.0314135,11.2497,-1.78179,17,3
0.0806632,27.1877,3.33825,30,11
0.037048,11.7934,-1.44805,15,4
0.100205,30.2191,4.78627,14,12
0.0479773,14.4687,-1.26585,27,5
0.1287,36.8717,7.16717,21,13
0.0627242,17.1144,-0.896934,33,6
0.117747,30.6632,7.07921,10,14
0.0708125,17.6412,-0.30793,100,7
0.127597,30.4631,8.16264,12,15
0.00288491,0.533183,-0.142868,14,0
0.0985187,17.639,0.307895,37,8
0.00371489,0.645022,-0.148918,24,1
0.108234,18.2386,0.955864,18,9
0.0536383,9.03866,-1.75697,26,2
0.159695,26.1417,2.28714,55,10
0.181816,28.154,3.45695,43,11
0.076111,11.4756,-1.40905,45,4
0.216479,31.8048,5.0375,4,12
0.0770393,11.3185,-0.990264,38,5
0.215447,30.8596,5.99865,23,13
0.122197,17.0761,-0.894945,50,6
0.226031,30.836,7.11925,42,14
0.129815,17.2969,-0.301927,85,7
0.153814,20.0288,5.36687,2,15
0.00457374,0.513852,-0.137692,14,0
0.159741,17.6006,0.307232,54,8
0.00587645,0.635262,-0.146668,24,1
0.168637,18.2302,0.955445,9,9
0.0850019,9.01879,-1.75315,28,2
0.251571,26.2067,2.29289,24,10
0.111958,11.4547,-1.81433,61,3
0.304902,30.6463,3.76308,24,11
0.116708,11.5288,-1.41563,23,4
0.320875,31.6972,5.02061,20,12
0.149315,14.4998,-1.26864,17,5
0.322454,30.79,5.9853,52,13
0.174953,16.4325,-0.861241,61,6
0.334498,30.9111,7.1368,10,14
0.187948,17.3683,-0.303183,22,7
0.220216,20.0263,5.36635,12,15
0.00617603,0.498379,-0.133551,15,0
0.218425,17.626,0.307686,18,8
0.00808116,0.643034,-0.148468,24,1
0.346951,27.2304,1.4272,27,9
0.116101,8.98899,-1.74743,33,2
0.346446,26.4646,2.31555,50,10
0.357744,26.9691,3.31168,10,11
0.154269,11.4788,-1.40954,27,4
0.492274,36.1579,5.72738,20,12
0.199904,14.4972,-1.26846,25,5
0.411475,29.8406,5.80098,13,13
0.229134,16.4099,-0.860089,39,6
0.549326,38.854,8.97105,13,14
0.251955,17.6035,-0.307302,68,7
0.42409,29.2741,7.84481,61,15
0.00782882,0.498356,-0.133551,15,0
0.281955,17.7511,0.309885,20,8
0.0104504,0.650795,-0.150267,24,1
0.440063,27.1092,1.42092,35,9
0.145369,8.95519,-1.74094,26,2
0.433806,26.4394,2.31346,6,10
0.451889,26.9677,3.31168,30,11
0.204858,12.0994,-1.48583,16,4
0.467849,27.351,4.33261,24,12
0.250046,14.618,-1.2791,28,5
0.537746,31.1188,6.04979,9,13
0.287255,16.4569,-0.862601,39,6
0.519291,29.4565,6.80162,100,14
0.312401,17.5465,-0.306325,99,7
0.532602,29.624,7.93902,11,15
0.0100135,0.521504,-0.139762,14,0
0.33539,17.3101,0.302206,52,8
0.0126461,0.646858,-0.149367,24,1
0.52741,26.7381,1.40156,28,9
0.176359,8.94088,-1.73827,26,2
0.549159,27.5971,2.41491,60,10
0.218881,10.9039,-1.72735,23,3
0.546671,26.9977,3.31558,20,11
0.242509,11.8743,-1.45829,11,4
0.817531,39.6907,6.28773,6,12
0.298449,14.4896,-1.26794,15,5
0.615918,29.6505,5.76472,4,13
0.300693,14.3551,-0.752486,48,6
0.670429,31.7418,7.32981,10,14
0.375271,17.6213,-0.307651,15,7
0.635336,29.5911,7.93073,28,15
0.0109569,0.482839,-0.12941,15,0
0.456757,19.9737,0.348734,13,8
0.0147694,0.640965,-0.148018,24,1
0.619657,26.8919,1.40972,28,9
0.206741,8.90489,-1.7314,26,2
0.643398,27.5054,2.40707,59,10
0.256153,10.8695,-1.72203,57,3
0.639663,26.944,3.30924,50,11
0.291116,12.2624,-1.50606,12,4
0.947409,39.6147,6.27615,12,12
0.342983,14.2375,-1.24598,27,5
0.718108,29.5952,5.75442,43,13
0.427562,17.4948,-0.917135,16,6
0.740079,30.2822,6.99328,10,14
0.43242,17.568,-0.306743,22,7
0.733645,29.5965,7.9328,11,15
0.0130605,0.502112,-0.134586,15,0
0.721061,27.5364,0.480814,26,8
0.0168434,0.638965,-0.147568,24,1
0.710667,26.9596,1.41338,26,9
0.235543,8.87668,-1.72606,26,2
0.515694,19.3073,1.68978,14,10
0.290235,10.7955,-1.71045,26,3
0.563314,20.818,2.55706,41,11
0.326197,12.055,-1.48071,39,4
0.390472,14.2462,-1.24685,30,5
0.484075,17.4393,-0.914309,30,6
0.562993,20.2825,4.68438,100,14
0.598833,21.4384,-0.374354,38,7
0.560464,19.9404,5.34513,30,15
0.0152917,0.521376,-0.139762,14,0
0.582908,19.7564,0.344999,27,8
0.0187308,0.631114,-0.145768,25,1
0.809174,27.1047,1.42113,26,9
0.264156,8.84837,-1.72072,26,2
0.631092,21.0162,1.83951,32,10
0.327039,10.828,-1.71577,67,3
0.631197,20.7783,2.55243,64,11
0.364762,11.9387,-1.46658,73,4
0.63405,20.6349,3.26979,17,12
0.510826,16.6246,-1.45515,17,5
0.633071,20.4866,3.98409,15,13
0.446989,14.3833,-0.754161,48,6
0.584466,18.598,-0.324789,100,7
0.629888,19.9326,5.34358,20,15
0.0171117,0.521319,-0.139762,14,0
0.582812,17.6617,0.308454,20,8
0.0213215,0.642731,-0.148468,24,1
0.708014,21.231,1.11329,9,9
0.2938,8.81011,-1.71346,26,2
0.647236,19.3074,1.69012,28,10
0.361643,10.7321,-1.70076,31,3
0.705274,20.8216,2.55804,11,11
0.409876,12.0386,-1.47901,19,4
0.968556,28.3024,4.48529,25,12
0.572265,16.7223,-1.46387,33,5
1.07523,31.2601,6.07994,10,13
0.588071,17.0105,-0.892014,37,6
1.18206,34.0201,7.85889,11,14
0.651052,18.6438,-0.325627,100,7
1.0352,29.4967,7.90847,22,15
0.0182301,0.501951,-0.134586,15,0
0.711329,19.4921,0.340462,23,8
0.0239936,0.654337,-0.151167,23,1
0.782263,21.2324,1.1135,15,9
0.323682,8.78549,-1.70889,28,2
0.711381,19.2174,1.68245,17,10
0.399253,10.7347,-1.70138,33,3
1.05517,28.2381,3.46962,21,11
0.544462,14.5028,-1.78197,20,4
1.0707,28.3877,4.49937,16,12
0.627859,16.6465,-1.45742,28,5
1.16836,30.8343,5.99789,19,13
0.650033,17.0762,-0.895573,50,6
1.22657,32.0743,7.41034,32,14
0.665153,17.3146,-0.30245,68,7
1.14054,29.5546,7.92504,23,15
0.0219805,0.552072,-0.148044,13,0
0.777452,19.4415,0.339624,51,8
0.0256517,0.638672,-0.147568,24,1
0.857183,21.2495,1.11455,26,9
0.354191,8.78039,-1.70812,26,2
1.21125,29.8972,2.61781,31,10
0.432463,10.6286,-1.6848,38,3
1.14985,28.139,3.45792,64,11
0.459074,11.1865,-1.37469,11,4
1.16693,28.3147,4.48842,28,12
0.638128,15.4837,-1.35579,13,5
0.784088,18.9449,3.68567,19,13
0.716931,17.2494,-0.904784,40,6
1.17858,28.238,6.52493,37,14
0.90496,21.5918,-0.377216,85,7
1.24686,29.6258,7.94523,17,15
0.020898,0.482511,-0.12941,15,0
0.845828,19.4507,0.339833,48,8
0.0283908,0.65026,-0.150267,24,1
1.1927,27.2085,1.42731,22,9
0.383547,8.74968,-1.7024,26,2
0.842547,19.1443,1.67653,10,10
0.466337,10.554,-1.67322,41,3
1.24966,28.1705,3.46231,65,11
0.490963,11.0242,-1.35494,8,4
1.30071,29.0919,4.61231,16,12
0.694312,15.5291,-1.35998,10,5
1.27172,28.3326,5.51285,32,13
0.813007,18.0429,-0.946548,38,6
1.27715,28.2337,6.52493,9,14
0.866304,19.0774,-0.333341,100,7
1.75466,38.4927,10.3248,19,15
0.0258341,0.551905,-0.148044,13,0
1.24295,26.4548,0.462279,18,8
0.0298341,0.632638,-0.146218,25,1
1.28541,27.1563,1.42479,30,9
0.413254,8.73063,-1.69896,26,2
1.37219,28.883,2.52978,36,10
0.500627,10.4991,-1.66478,33,3
1.34229,28.047,3.44768,43,11
0.574875,11.9682,-1.47121,30,4
1.35201,28.0454,4.44712,12,12
0.606325,12.5773,-1.10165,33,5
1.37392,28.3967,5.52621,20,13
0.870273,17.9223,-0.940373,28,6
1.72486,35.3939,8.18102,12,14
0.840185,17.1788,-0.300216,62,7
1.86355,37.9673,10.1856,19,15
0.0261164,0.520946,-0.139762,14,0
1.13294,22.5201,0.393587,30,8
0.0326198,0.646159,-0.149367,24,1
1.36696,26.9843,1.416,26,9
0.440513,8.69588,-1.69248,23,2
1.47161,28.9499,2.53606,29,10
0.533431,10.4579,-1.65852,28,3
1.43853,28.1059,3.45548,64,11
0.61385,11.9524,-1.4695,39,4
1.44837,28.1059,4.45744,34,12
0.649878,12.611,-1.10479,19,5
1.45247,28.09,5.46744,20,13
0.897832,17.3049,-0.908134,37,6
1.84788,35.497,8.20621,12,14
0.896518,17.164,-0.300007,100,7
1.98986,37.9687,10.1876,28,15
0.0283487,0.528568,-0.141833,14,0
1.20777,22.4461,0.392365,27,8
0.0362409,0.671338,-0.155216,22,1
1.513,27.9367,1.46624,31,9
0.469274,8.66489,-1.68675,26,2
1.51146,27.8186,2.4374,34,10
0.569828,10.454,-1.65821,28,3
1.53273,28.0293,3.44671,64,11
0.657517,11.9858,-1.47389,42,4
1.54452,28.0652,4.45181,37,12
0.692256,12.5788,-1.10217,26,5
1.71285,31.0252,6.03987,24,13
0.95557,17.2538,-0.905621,47,6
0.994821,17.8496,-0.312049,100,7
1.89493,33.8936,9.09594,7,15
0.0301935,0.528466,-0.141833,14,0
1.2907,22.5216,0.393761,27,8
0.0374659,0.651752,-0.150717,23,1
1.60993,27.9212,1.46572,26,9
0.498386,8.6436,-1.68294,26,2
1.6142,27.9106,2.44594,61,10
0.604717,10.4243,-1.65383,28,3
1.64048,28.1942,3.46767,65,11
0.700858,12.0092,-1.47706,33,4
1.65241,28.2292,4.47872,28,12
1.02944,17.5866,-1.54126,39,5
1.81319,30.8838,6.01354,4,13
1.01697,17.2703,-0.906668,27,6
1.99433,33.7674,7.8094,11,14
1.3279,22.4173,-0.391981,48,7
2.23081,37.5489,10.0789,18,15
0.030635,0.505217,-0.135621,15,0
1.4925,24.5429,0.42919,40,8
0.0400961,0.657453,-0.152067,23,1
1.72409,28.1886,1.48006,34,9
0.527957,8.63201,-1.68103,26,2
1.71819,28.0122,2.45535,61,10
0.640123,10.4064,-1.65132,30,3
1.73143,28.0675,3.4528,64,11
0.73101,11.8165,-1.45366,17,4
1.74554,28.1365,4.46495,34,12
1.76447,28.3613,5.52354,12,13
1.07427,17.2188,-0.904156,13,6
2.20562,35.2539,8.15493,24,14
1.3175,20.9995,-0.367268,45,7
2.36017,37.5139,10.0717,37,15
0.032398,0.505107,-0.135621,15,0
1.85399,28.826,0.5042,16,8
0.0412623,0.639806,-0.148018,24,1
1.82091,28.1585,1.4788,31,9
0.556939,8.61248,-1.67759,26,2
1.82616,28.1631,2.46912,56,10
0.67414,10.3686,-1.64569,26,3
1.451,22.2572,2.73865,41,11
0.786623,12.0338,-1.48071,43,4
1.86533,28.4594,4.5172,35,12
0.77768,11.8651,-1.04029,9,5
2.07961,31.6442,6.16428,30,13
1.1383,17.2748,-0.907296,37,6
2.49145,37.7097,8.72495,51,14
1.39053,20.9908,-0.367199,45,7
2.52836,38.0663,10.2223,9,15
0.0391157,0.578234,-0.155291,12,0
1.42729,21.0444,0.368176,26,8
0.0442884,0.651324,-0.150717,23,1
1.90344,27.9208,1.46666,10,9
0.583396,8.5576,-1.66729,26,2
1.92405,28.1505,2.4686,56,10
0.707896,10.3307,-1.64006,28,3
1.53386,22.3273,2.74791,55,11
0.791663,11.4942,-1.41466,30,4
1.95757,28.3503,4.50093,35,12
0.795071,11.5145,-1.00979,15,5
2.7759,40.0997,7.81325,8,13
1.20123,17.3086,-0.909285,37,6
2.37459,34.1296,7.89848,11,14
1.57134,22.5278,-0.39418,65,7
2.4382,34.8678,9.36563,16,15
0.0375691,0.527992,-0.141833,14,0
1.47995,20.7481,0.36308,74,8
0.0455889,0.637559,-0.147568,24,1
2.06559,28.8164,1.51408,33,9
0.612003,8.53788,-1.66385,26,2
2.02972,28.247,2.47766,42,10
0.741117,10.2888,-1.6338,28,3
1.6128,22.3357,2.74962,75,11
0.869469,12.0121,-1.47876,30,4
2.07769,28.6348,4.54724,13,12
0.840018,11.5493,-1.0131,11,5
1.61417,22.1929,4.32526,26,13
1.28211,17.5851,-0.924044,38,6
2.79826,38.2881,8.86307,13,14
1.53674,20.9766,-0.367129,53,7
2.56909,34.9844,9.39927,8,15
0.0377738,0.504734,-0.135621,15,0
1.56536,20.9163,0.366117,35,8
0.0483974,0.645169,-0.149367,24,1
2.16256,28.7612,1.51157,30,9
0.64211,8.51992,-1.6608,26,2
2.13055,28.2036,2.47453,56,10
0.773004,10.2092,-1.6216,31,3
1.64518,21.7282,2.67552,39,11
0.898923,11.8447,-1.45853,49,4
2.4803,32.6062,5.17923,8,12
0.962723,12.627,-1.10792,26,5
1.67664,21.9402,4.27717,54,13
0.991617,12.9463,-0.680472,42,6
2.16096,28.1486,6.51773,37,14
1.59434,20.7677,-0.363569,22,7
2.66717,34.6631,9.31542,8,15
0.0413461,0.52771,-0.141833,14,0
1.63607,20.8347,0.36479,42,8
0.0510674,0.648873,-0.150267,24,1
2.1951,27.8914,1.46624,23,9
0.670146,8.4961,-1.6566,26,2
2.22599,28.1583,2.47121,49,10
0.807702,10.1946,-1.61972,25,3
1.72073,21.6705,2.66918,26,11
0.94828,11.9424,-1.47096,18,4
2.30387,28.9505,4.5998,13,12
1.40438,17.6086,-1.54545,16,5
1.74681,21.854,4.26153,18,13
1.04429,13.0363,-0.685392,22,6
2.27407,28.388,6.57487,9,14
1.69035,21.055,-0.3687,83,7
2.67677,33.2691,8.94323,14,15
0.0412086,0.504465,-0.135621,15,0
1.72162,21.0304,0.368316,14,8
0.0525814,0.640931,-0.148468,24,1
1.70817,20.8214,1.09487,11,9
0.697032,8.47818,-1.65355,26,2
2.32802,28.256,2.48045,42,10
0.838576,10.1564,-1.61409,25,3
1.78309,21.55,2.65505,38,11
0.966595,11.682,-1.43928,30,4
2.3979,28.919,4.59605,13,12
0.956588,11.5122,-1.01066,4,5
1.82611,21.9302,4.27756,26,13
1.08984,13.0606,-0.686857,26,6
2.37337,28.4424,6.58927,37,14
1.76266,21.0792,-0.369223,100,7
2.36443,28.2163,7.58702,20,15
0.0491005,0.577472,-0.155291,12,0
1.78253,20.921,0.366501,19,8
0.0553698,0.64852,-0.150267,24,1
0.721961,8.43865,-1.6463,26,2
2.43448,28.397,2.49353,35,10
0.869549,10.1221,-1.60909,26,3
1.8576,21.5795,2.65943,25,11
1.08192,12.5429,-1.54579,58,4
2.42893,28.1016,4.46746,3,12
0.995448,11.5169,-1.01136,9,5
1.90492,21.9945,4.29129,23,13
1.53585,17.6971,-0.930952,35,6
2.46927,28.3951,6.58027,37,14
1.79664,20.6187,-0.361265,100,7
2.68303,30.729,8.26513,18,15
0.0425968,0.481081,-0.12941,15,0
1.86756,21.0501,0.368874,19,8
0.0555624,0.62503,-0.144868,25,1
1.87953,21.1014,1.11026,23,9
0.749325,8.41261,-1.64172,26,2
2.24418,25.1456,2.2087,63,10
0.901004,10.0757,-1.6022,28,3
1.92814,21.5195,2.65285,31,11
1.06038,11.8114,-1.4561,17,4
2.52877,28.1127,4.47058,3,12
1.11632,12.4103,-1.09014,11,5
2.78458,30.8962,6.02995,53,13
1.13938,12.6173,-0.663934,35,6
2.58909,28.6153,6.63336,9,14
1.88287,20.7697,-0.364022,97,7
3.00209,33.0512,8.8925,14,15
0.0442757,0.480929,-0.12941,15,0
1.94874,21.1271,0.37034,38,8
0.0595373,0.644237,-0.149367,24,1
1.92888,20.8322,1.09644,26,9
0.778507,8.40799,-1.64134,26,2
2.33249,25.1436,2.20922,51,10
0.932698,10.0351,-1.59626,26,3
2.0073,21.5562,2.65821,25,11
1.1547,12.3769,-1.52629,52,4
2.89567,30.9791,4.928,42,12
1.15537,12.3607,-1.08613,28,5
2.05221,21.9142,4.27832,11,13
1.16475,12.4144,-0.653467,42,6
2.39534,25.4824,5.90901,7,14
1.18796,12.6143,-0.221157,100,7
2.6525,28.113,7.56632,10,15
0.0503659,0.526926,-0.141833,14,0
2.08138,21.7352,0.381126,30,8
0.0615992,0.642085,-0.148918,24,1
2.03464,21.1693,1.11455,15,9
0.805784,8.38373,-1.63714,26,2
2.79664,29.0442,2.55279,29,10
0.963542,9.98855,-1.58937,26,3
2.0703,21.4226,2.64262,70,11
1.24037,12.8114,-1.5804,9,4
1.22102,12.5886,-1.10653,54,5
2.13438,21.9655,4.28977,23,13
1.15719,11.8874,-0.625938,64,6
2.38328,24.4382,5.66877,47,14
1.23626,12.6538,-0.221925,27,7
2.76831,28.2843,7.61497,10,15
0.0533482,0.538281,-0.144939,14,0
2.08729,21.0234,0.368769,45,8
0.0636474,0.639927,-0.148468,24,1
2.06615,20.7367,1.09215,34,9
0.834267,8.37305,-1.63561,26,2
2.89325,28.9867,2.54861,51,10
0.995654,9.95761,-1.58499,22,3
2.10531,21.0182,2.59362,54,11
1.11721,11.1341,-1.37396,15,4
3.93373,39.1345,6.22953,30,12
1.27933,12.705,-1.11716,19,5
2.2256,22.1025,4.31801,47,13
1.22754,12.1695,-0.641011,65,6
2.46894,24.4336,5.66967,74,14
2.12424,20.9856,-0.368176,100,7
2.89802,28.5801,7.69728,21,15
0.0545304,0.530395,-0.142868,14,0
2.09625,20.3894,0.357774,33,8
0.0646831,0.62807,-0.145768,25,1
2.10469,20.4016,1.07488,91,9
0.8595,8.31721,-1.62531,26,2
2.20986,21.3479,1.87768,38,10
1.02868,9.92049,-1.57968,27,3
2.1809,21.0324,2.5963,42,11
1.22314,11.7757,-1.45366,42,4
4.06787,39.097,6.22578,12,12
1.29123,12.3893,-1.0898,45,5
2.2803,21.8423,4.26878,18,13
1.247,11.9245,-0.628346,29,6
2.58994,24.7248,5.7394,27,14
2.201,21.0118,-0.368769,100,7
3.00603,28.6486,7.7185,21,15
0.0551559,0.518676,-0.139762,14,0
2.1788,20.4552,0.359066,38,8
0.0696722,0.653019,-0.151617,23,1
2.24624,21.0535,1.10963,27,9
0.887278,8.30244,-1.62302,23,2
2.21799,20.72,1.82312,8,10
1.05867,9.87363,-1.57279,37,3
2.2317,20.7796,2.56608,41,11
1.30429,12.1245,-1.49729,34,4
3.21741,29.9085,4.76437,14,12
1.26596,11.7489,-1.03384,24,5
2.38223,22.0723,4.31534,28,13
2.74736,25.3724,5.89192,29,14
2.26745,20.9404,-0.367652,99,7
2.65775,24.5048,6.60454,22,15
0.0552779,0.503118,-0.135621,15,0
2.24552,20.4379,0.358891,29,8
0.0707717,0.643099,-0.149367,24,1
2.30463,20.9085,1.1024,37,9
0.914524,8.28369,-1.61997,26,2
3.13184,28.3225,2.493,21,10
1.08294,9.79349,-1.56059,36,3
2.29622,20.7326,2.56121,35,11
1.32698,11.9622,-1.47779,64,4
2.40431,21.6394,3.44844,26,12
2.3983,21.5511,4.21497,11,13
1.40602,12.6145,-0.66519,42,6
2.7543,24.6717,5.7313,27,14
1.37948,12.3372,-0.216689,76,7
2.74476,24.5088,6.60817,3,15
0.0578155,0.51061,-0.137692,14,0
2.31979,20.4557,0.359345,49,8
0.0714764,0.629294,-0.146218,25,1
2.35434,20.7281,1.0933,11,9
0.940216,8.265,-1.61692,26,2
3.47136,30.4678,2.68283,32,10
1.11824,9.79946,-1.56215,23,3
2.36722,20.7126,2.55974,35,11
1.37302,11.995,-1.48242,42,4
2.47695,21.6392,3.44969,24,12
1.37246,11.9716,-1.05424,30,5
2.59332,22.5861,4.41914,30,13
2.1332,18.5501,-0.978578,32,6
2.48834,21.6051,5.02091,19,14
2.33147,20.2431,-0.35568,81,7
2.90815,25.2116,6.80021,28,15
0.0604939,0.51808,-0.139762,14,0
2.37602,20.3486,0.3576,24,8
0.0749208,0.640667,-0.148918,24,1
0.965632,8.23242,-1.61119,26,2
2.88218,24.5349,2.16129,44,10
1.14681,9.76235,-1.55684,25,3
2.42661,20.6258,2.54999,34,11
1.37051,11.6316,-1.43806,34,4
1.43785,12.1665,-1.07184,49,5
2.71152,22.9439,4.49088,21,13
1.45547,12.2972,-0.648966,39,6
2.57693,21.74,5.0542,53,14
2.4238,20.4175,-0.358891,100,7
3.42971,28.848,7.78424,11,15
0.0599073,0.498696,-0.134586,15,0
2.4604,20.4514,0.359554,24,8
0.07739,0.642337,-0.149367,24,1
2.55808,21.2009,1.11915,12,9
0.989632,8.20189,-1.60585,26,2
2.63393,21.7976,1.92091,17,10
1.17542,9.71318,-1.54964,27,3
2.49335,20.5738,2.54463,40,11
1.41374,11.6484,-1.44074,38,4
2.64512,21.7626,3.47222,24,12
1.47939,12.1716,-1.07271,40,5
2.71735,22.3243,4.37143,30,13
1.43917,11.8063,-0.623321,43,6
2.658,21.7734,5.0641,25,14
2.50573,20.4963,-0.360427,73,7
2.97188,24.2741,6.55278,14,15
0.062596,0.506153,-0.136656,14,0
2.5362,20.4784,0.360183,63,8
0.0817906,0.659468,-0.153417,23,1
2.61114,21.0234,1.11026,37,9
1.01462,8.16916,-1.60012,26,2
2.71221,21.806,1.92248,48,10
1.20542,9.67765,-1.54463,28,3
2.5622,20.5414,2.54171,34,11
1.44381,11.5587,-1.43026,13,4
2.71764,21.7258,3.46784,22,12
1.56243,12.4906,-1.1013,45,5
2.79574,22.3186,4.3722,30,13
1.48063,11.8032,-0.623426,77,6
2.72987,21.7311,5.05645,45,14
2.48815,19.7791,-0.347966,58,7
3.05128,24.2214,6.54139,21,15
0.0658254,0.51743,-0.139762,14,0
2.61347,20.5151,0.360986,45,8
0.0821191,0.643714,-0.149817,24,1
2.69287,21.0795,1.11371,26,9
1.04239,8.15972,-1.59898,26,2
3.23505,25.2885,2.23049,23,10
1.23316,9.62636,-1.53713,28,3
2.64273,20.6012,2.55024,57,11
1.48415,11.5536,-1.43026,42,4
2.75439,21.4125,3.41935,26,12
1.58568,12.327,-1.08736,47,5
2.85633,22.1743,4.34587,19,13
1.5374,11.9188,-0.629811,48,6
2.81644,21.8045,5.0758,20,14
2.45689,18.9949,-0.334318,29,7
3.1363,24.2144,6.54243,39,15
0.068633,0.524859,-0.141833,14,0
2.67105,20.3987,0.359101,51,8
0.083859,0.639559,-0.148918,24,1
2.72301,20.7393,1.09623,34,9
1.06856,8.13852,-1.59554,23,2
3.03839,23.1101,2.03927,40,10
1.26135,9.58087,-1.53056,30,3
2.6661,20.2238,2.50466,27,11
1.52135,11.5247,-1.42733,17,4
2.83094,21.4164,3.42154,43,12
1.62009,12.2562,-1.0816,38,5
2.96335,22.388,4.38975,35,13
1.57374,11.8737,-0.627717,81,6
3.35736,25.2969,5.89147,22,14
2.52055,18.9663,-0.333969,100,7
3.76232,28.2726,7.64241,10,15
0.0704648,0.524616,-0.141833,14,0
2.74891,20.4388,0.359973,27,8
0.0827093,0.614155,-0.143069,25,1
2.78258,20.6347,1.0912,11,9
1.09461,8.11723,-1.59211,23,2
2.87164,21.267,1.87751,85,10
1.28684,9.51768,-1.52117,27,3
2.80486,20.718,2.56706,35,11
1.5589,11.4997,-1.4249,37,4
2.92214,21.5278,3.44093,41,12
1.63954,12.0787,-1.06644,16,5
3.05972,22.5118,4.41608,10,13
1.61519,11.8682,-0.627717,58,6
3.41116,25.0321,5.83253,43,14
2.79761,20.5029,-0.361195,82,7
3.34293,24.4675,6.61697,18,15
0.0722958,0.524367,-0.141833,14,0
2.80246,20.3004,0.357705,45,8
0.0888553,0.642818,-0.149817,24,1
2.84228,20.5358,1.08649,5,9
1.1189,8.08418,-1.58639,21,2
2.90264,20.9451,1.84997,33,10
1.31598,9.48378,-1.51648,28,3
2.89001,20.8005,2.57851,60,11
1.59712,11.4804,-1.42319,31,4
3.01717,21.6603,3.46377,46,12
2.25453,16.1853,-1.4297,8,5
3.93235,28.1943,5.53346,20,13
2.27841,16.3151,-0.863334,13,6
3.55142,25.3983,5.92071,37,14
1.75399,12.5279,-0.220808,65,7
3.75873,26.8127,7.2547,55,15
0.0741253,0.524112,-0.141833,14,0
2.85845,20.1855,0.355855,15,8
0.0919195,0.648293,-0.151167,23,1
3.25922,22.958,1.21524,19,9
1.14242,8.04719,-1.5799,19,2
2.96873,20.8855,1.84561,60,10
1.34713,9.46544,-1.51429,27,3
2.95279,20.7215,2.56998,35,11
1.68037,11.7774,-1.46073,18,4
3.04304,21.3015,3.40808,13,12
1.71678,12.0176,-1.06208,19,5
3.18928,22.2975,4.3783,35,13
1.7014,11.8803,-0.628974,48,6
3.62927,25.3105,5.90317,7,14
1.80225,12.5534,-0.221366,93,7
2.89843,19.9656,0.352155,40,8
0.0944621,0.649896,-0.151617,23,1
3.1521,21.6598,1.1471,36,9
1.16852,8.02955,-1.57723,21,2
3.03817,20.8513,1.84352,40,10
1.3756,9.42941,-1.50928,27,3
3.01879,20.6678,2.56462,41,11
1.70653,11.6693,-1.44805,44,4
3.12882,21.3689,3.4206,24,12
1.75092,11.9583,-1.05737,33,5
1.74692,11.902,-0.630439,65,6
3.70116,25.1859,5.87707,29,14
2.69923,18.3457,-0.323672,60,7
4.27694,29.0334,7.86344,33,15
0.074376,0.500651,-0.135621,15,0
0.0935728,0.62836,-0.146668,24,1
1.19307,8.00212,-1.57265,21,2
3.65481,24.4842,2.16582,22,10
1.40325,9.38938,-1.50365,27,3
3.1479,21.038,2.6119,36,11
1.75107,11.6888,-1.45122,34,4
3.1823,21.2172,3.39807,15,12
1.82014,12.1354,-1.07358,59,5
3.39269,22.5931,4.44089,30,13
1.80478,12.0044,-0.636196,74,6
3.41749,22.7043,5.30075,11,14
2.91941,19.3723,-0.341962,29,7
4.37535,28.9992,7.85826,16,15
0.0813531,0.534766,-0.144939,14,0
2.83421,18.6085,0.328559,22,8
0.0951777,0.624177,-0.145768,25,1
3.27732,21.4675,1.1381,18,9
1.21625,7.96685,-1.56654,23,2
3.20744,20.9852,1.85729,61,10
1.43213,9.35904,-1.49958,26,3
3.23816,21.1368,2.62555,43,11
1.77561,11.5767,-1.43806,28,4
3.59813,23.4318,3.75474,24,12
1.8885,12.2983,-1.08858,47,5
3.47332,22.5927,4.44318,27,13
1.99403,12.9555,-0.686962,74,6
3.49553,22.6845,5.29895,50,14
2.77785,18.0062,-0.318018,82,7
3.65916,23.6914,6.42337,17,15
0.0778696,0.500119,-0.135621,15,0
2.92841,18.7862,0.331875,40,8
0.0982575,0.629617,-0.147118,24,1
3.36056,21.5092,1.14092,46,9
1.24224,7.95092,-1.56425,21,2
3.27851,20.9601,1.85607,16,10
1.46235,9.33837,-1.49708,26,3
3.31285,21.1313,2.62628,18,11
1.78708,11.3861,-1.41515,26,4
3.61397,22.9996,3.68747,24,12
1.92646,12.2602,-1.08579,57,5
3.57688,22.7376,4.47409,21,13
2.00879,12.7551,-0.676704,97,6
3.57499,22.6741,5.2994,22,14
2.00386,12.6949,-0.224333,100,7
3.74122,23.6747,6.42234,7,15
0.0820458,0.515107,-0.139762,14,0
3.00121,18.8213,0.332678,12,8
0.103834,0.650438,-0.152067,23,1
3.46178,21.661,1.14961,22,9
1.26658,7.92521,-1.56005,23,2
3.55563,22.2234,1.96902,18,10
1.48744,9.2864,-1.48957,27,3
3.38659,21.1196,2.62628,56,11
1.81895,11.3307,-1.40905,24,4
3.77103,23.4647,3.76413,9,12
1.9623,12.2101,-1.08195,23,5
3.65466,22.7153,4.47218,13,13
2.05585,12.7638,-0.677541,45,6
3.64079,22.5788,5.28005,11,14
2.03158,12.5851,-0.222518,100,7
3.8297,23.6977,6.43217,3,15
0.0776326,0.476683,-0.12941,15,0
3.07686,18.8719,0.33376,66,8
0.104848,0.642379,-0.150267,24,1
3.84277,23.5437,1.2502,15,9
1.2917,7.90524,-1.557,23,2
3.41609,20.8836,1.85136,16,10
1.51474,9.24996,-1.48456,27,3
3.47859,21.2193,2.64018,68,11
1.85458,11.3129,-1.40759,23,4
3.56379,21.7152,3.48536,8,12
2.03591,12.3919,-1.09869,28,5
3.96939,24.134,4.7542,33,13
2.0978,12.7407,-0.676704,42,6
3.71565,22.5666,5.28005,22,14
3.03792,18.4305,-0.326046,100,7
4.68262,28.3777,7.7066,5,15
0.0830153,0.499291,-0.135621,15,0
2.9989,18.0173,0.318821,9,8
0.105697,0.634339,-0.148468,24,1
1.31403,7.87768,-1.55242,26,2
3.56767,21.3654,1.89511,42,10
1.53824,9.20202,-1.47768,31,3
3.52797,21.0823,2.62458,43,11
1.88783,11.2812,-1.40442,19,4
3.92199,23.4119,3.75975,26,12
2.07041,12.3458,-1.0952,28,5
3.96717,23.6308,4.65765,5,13
2.19399,13.0548,-0.693766,26,6
4.13378,24.597,5.7583,21,14
3.13419,18.6293,-0.329746,81,7
5.92468,35.1782,9.55871,8,15
0.0872558,0.51425,-0.139762,14,0
3.05562,17.9896,0.318506,5,8
0.10878,0.639748,-0.149817,24,1
3.58636,21.0696,1.12009,48,9
1.33586,7.84812,-1.54746,26,2
3.64721,21.4046,1.89965,38,10
1.56576,9.17935,-1.47486,33,3
3.56445,20.8748,2.6002,67,11
1.91649,11.212,-1.39662,20,4
4.97422,29.0699,4.67113,13,12
2.13569,12.4681,-1.1067,28,5
4.05147,23.6524,4.66452,31,13
2.23254,13.0198,-0.6923,45,6
4.31357,25.1298,5.88652,7,14
3.16872,18.4409,-0.326604,81,7
6.02778,35.043,9.52765,8,15
0.0858387,0.494892,-0.134586,15,0
3.14369,18.1246,0.321089,22,8
0.110679,0.637445,-0.149367,24,1
3.67185,21.1258,1.12376,58,9
1.35823,7.80642,-1.54021,23,2
3.6706,21.075,1.87158,45,10
1.5926,9.13463,-1.46861,31,3
3.66047,20.9952,2.61678,67,11
1.94607,11.1504,-1.3898,26,4
3.82018,21.8661,3.51571,16,12
2.15002,12.2937,-1.09189,14,5
4.15642,23.7418,4.68512,31,13
3.05182,17.4143,-0.926556,24,6
4.30327,24.5303,5.74975,7,14
3.15913,18.0082,-0.319135,100,7
0.0943013,0.532635,-0.144939,14,0
3.29908,18.615,0.32999,40,8
0.114716,0.646629,-0.151617,23,1
3.72778,21.0126,1.11842,35,9
1.38135,7.77843,-1.53563,23,2
3.76018,21.1523,1.8796,80,10
1.62171,9.11345,-1.4661,30,3
3.7106,20.8312,2.59801,55,11
1.97975,11.1143,-1.38614,22,4
3.91451,21.9538,3.53198,14,12
2.22723,12.4784,-1.10897,45,5
4.17298,23.3561,4.61185,30,13
2.31264,12.9308,-0.688427,35,6
4.04495,22.6168,5.30435,5,14
3.24241,18.1112,-0.321159,60,7
4.9368,27.5479,7.49902,20,15
0.0857741,0.475285,-0.12941,15,0
3.3,18.2675,0.324021,44,8
0.115473,0.638574,-0.149817,24,1
3.801,21.0198,1.11947,39,9
1.40503,7.76222,-1.53334,23,2
3.83669,21.175,1.88274,46,10
1.64523,9.07109,-1.46016,28,3
4.20589,23.1665,2.89099,15,11
2.00525,11.0451,-1.37834,20,4
4.28892,23.6005,3.79917,26,12
2.27431,12.5023,-1.11176,45,5
4.24864,23.3324,4.60995,30,13
3.14521,17.2556,-0.919229,30,6
4.55044,24.9652,5.85862,7,14
2.29424,12.5745,-0.223112,100,7
4.02055,22.0144,5.99632,5,15
0.0915424,0.497798,-0.135621,15,0
3.31423,18.0047,0.319554,46,8
0.116884,0.634355,-0.148918,36,1
3.97867,21.5721,1.14961,27,9
1.42756,7.74014,-1.52991,26,2
3.9655,21.4796,1.91098,65,10
1.67099,9.04228,-1.45641,27,3
3.87972,20.974,2.61897,36,11
2.03729,11.0029,-1.37396,16,4
4.05774,21.8936,3.52666,12,12
2.30631,12.4437,-1.10723,40,5
4.31165,23.241,4.59468,30,13
3.07843,16.5775,-0.88364,47,6
4.60907,24.7959,5.82263,7,14
3.415,18.3542,-0.325871,100,7
5.03965,27.0597,7.37531,19,15
0.0961279,0.512666,-0.139762,14,0
3.4169,18.2053,0.323323,28,8
0.117298,0.624367,-0.146668,24,1
4.04767,21.5247,1.14783,36,9
1.45131,7.71775,-1.52647,23,2
4.13259,21.9551,1.95455,49,10
1.70071,9.02668,-1.45484,28,3
4.37083,23.1763,2.89586,46,11
2.06538,10.9411,-1.36713,17,4
4.08388,21.6134,3.4838,46,12
2.34751,12.4239,-1.10618,40,5
4.33584,22.9249,4.53515,23,13
3.1296,16.5313,-0.881756,10,6
4.45323,23.5006,5.5221,12,14
3.57257,18.8353,-0.334632,59,7
5.18273,27.2982,7.44519,10,15
0.0906639,0.474377,-0.12941,15,0
3.5349,18.4781,0.328384,20,8
0.124241,0.648835,-0.152517,23,1
3.99571,20.8474,1.11245,12,9
1.47107,7.66803,-1.51769,26,2
4.01624,20.9348,1.86496,53,10
