x, y, z, intensity, ring
26.8978,12.4855,4.69679,14,12
7.09558,3.29216,-0.684347,21,5
39.1799,18.1784,8.3956,9,13
8.1952,3.80061,-0.473431,39,6
34.4694,15.9782,8.77129,12,14
9.65079,4.47156,-0.185659,100,7
32.4284,15.0184,9.57579,17,15
11.7622,5.42744,0.226113,28,8
0.514951,0.237505,-0.130922,14,1
15.0273,6.92769,0.867207,18,9
0.725705,0.334401,-0.155319,36,2
20.4275,9.40857,1.96763,37,10
5.59481,2.57569,-0.975525,26,3
23.1998,10.6805,3.13594,54,11
6.25214,2.87699,-0.845042,25,4
26.8838,12.3652,4.68678,13,12
7.08893,3.25904,-0.682604,21,5
32.5761,14.9696,6.96873,26,13
8.20363,3.76805,-0.473117,39,6
34.5153,15.8461,8.76814,12,14
9.65907,4.43451,-0.185519,100,7
32.2155,14.7835,9.49762,8,15
11.7766,5.38179,0.226009,26,8
0.529999,0.242093,-0.134521,14,1
15.0526,6.87256,0.867207,20,9
0.723296,0.330235,-0.154555,36,2
20.5563,9.38104,1.97687,18,10
5.60197,2.55533,-0.975213,27,3
23.1376,10.5493,3.12229,36,11
6.28793,2.86557,-0.848454,22,4
27.0296,12.3124,4.7043,14,12
7.11114,3.23924,-0.68365,15,5
33.8539,15.4139,7.23052,14,13
8.2131,3.73773,-0.472908,39,6
33.4422,15.2123,8.482,24,14
9.70438,4.41232,-0.186078,100,7
32.2343,14.6493,9.48727,8,15
11.8044,5.34478,0.226183,30,8
0.516638,0.233814,-0.130922,14,1
15.0838,6.82327,0.867626,21,9
0.720867,0.32609,-0.153792,37,2
22.3444,10.103,2.14543,44,10
5.61265,2.53657,-0.975525,28,3
23.1942,10.4774,3.12497,18,11
6.29246,2.84116,-0.847723,27,4
26.7501,12.0725,4.64829,6,12
7.12967,3.21767,-0.684347,18,5
34.0632,15.3658,7.26372,14,13
8.22427,3.70822,-0.472803,39,6
33.3495,15.0298,8.44511,12,14
9.70514,4.37185,-0.185798,100,7
32.5354,14.6493,9.56078,8,15
11.8303,5.30682,0.226323,28,8
0.496113,0.222442,-0.125523,15,1
15.0954,6.7683,0.866997,20,9
0.707668,0.317149,-0.150739,39,2
22.4178,10.042,2.14909,22,10
5.62508,2.51857,-0.976151,30,3
23.3448,10.4475,3.14033,54,11
6.27698,2.80783,-0.844311,23,4
27.5474,12.3225,4.7797,7,12
7.15359,3.19845,-0.685567,13,5
36.1439,16.1528,7.69533,15,13
8.24264,3.68194,-0.473117,39,6
9.72324,4.34127,-0.185868,100,7
33.2118,14.8216,9.74506,8,15
11.8953,5.28868,0.22723,28,8
0.521779,0.231875,-0.131821,14,1
15.1189,6.71558,0.866997,21,9
0.690828,0.30671,-0.146923,42,2
21.7224,9.63965,2.07919,15,10
5.64784,2.50632,-0.978654,28,3
23.0545,10.226,3.0967,52,11
6.27355,2.78136,-0.842605,24,4
26.6529,11.8109,4.61732,10,12
7.15014,3.16701,-0.684173,22,5
36.1972,16.0329,7.69533,15,13
8.26759,3.66024,-0.47385,39,6
33.8715,14.9886,8.55129,12,14
9.73467,4.30569,-0.185798,100,7
11.9064,5.24391,0.227091,32,8
0.499399,0.219845,-0.125973,15,1
15.1478,6.66517,0.867312,19,9
0.695435,0.305999,-0.147686,41,2
21.9877,9.67025,2.1015,21,10
5.64932,2.48341,-0.977403,33,3
23.2427,10.2125,3.11717,53,11
6.3123,2.77222,-0.846505,32,4
26.8278,11.7766,4.64047,13,12
7.16242,3.14409,-0.684347,15,5
33.0295,14.4921,7.01109,6,13
8.29129,3.63617,-0.474478,39,6
35.0231,15.3522,8.82843,12,14
9.74049,4.26767,-0.185624,100,7
33.3039,14.5847,9.74195,8,15
11.8843,5.18472,0.226323,28,8
0.518026,0.225889,-0.130472,14,1
15.1782,6.61545,0.86773,19,9
0.707297,0.308276,-0.149976,40,2
22.0524,9.60696,2.10446,26,10
5.63804,2.455,-0.973961,30,3
22.8359,9.93881,3.05795,34,11
6.3274,2.75255,-0.847236,22,4
26.9829,11.7325,4.66018,16,12
7.16787,3.11668,-0.683824,15,5
34.0522,14.7993,7.21716,28,13
8.29111,3.60164,-0.473745,43,6
35.1694,15.2702,8.85182,13,14
9.75716,4.23444,-0.185659,100,7
32.3408,14.0287,9.44586,8,15
11.9207,5.15113,0.226672,30,8
0.515233,0.222535,-0.129572,14,1
15.2159,6.56876,0.868568,26,9
0.711974,0.307361,-0.150739,39,2
19.607,8.46034,1.86827,24,10
5.65383,2.43843,-0.975213,28,3
22.7155,9.79224,3.03723,51,11
6.34426,2.73358,-0.848211,22,4
26.7951,11.5398,4.62076,16,12
7.16407,3.08534,-0.682429,15,5
34.1072,14.6818,7.21792,7,13
8.3018,3.57188,-0.47364,47,6
30.0739,12.9332,7.55791,11,14
9.7829,4.20509,-0.185868,100,7
32.1607,13.8173,9.37909,16,15
11.9441,5.11185,0.226777,30,8
0.512424,0.219202,-0.128672,14,1
15.2388,6.5156,0.868568,24,9
0.713042,0.304874,-0.150739,39,2
19.5008,8.33391,1.85537,74,10
5.66412,2.41946,-0.975525,30,3
22.9814,9.81187,3.06818,43,11
6.34464,2.70753,-0.846992,19,4
26.768,11.4175,4.60919,13,12
7.1638,3.05562,-0.681384,15,5
34.2305,14.5935,7.23319,7,13
8.31789,3.54445,-0.47385,39,6
29.5863,12.6013,7.42428,32,14
9.82696,4.18345,-0.186427,100,7
32.3118,13.7488,9.40911,16,15
11.9637,5.0709,0.226811,33,8
0.520363,0.220453,-0.130472,14,1
15.2669,6.46471,0.868882,27,9
0.696024,0.294728,-0.146923,42,2
19.572,8.28365,1.85938,49,10
5.66526,2.39659,-0.974274,33,3
22.3792,9.46256,2.98336,16,11
6.35039,2.68382,-0.846505,21,4
26.6639,11.2633,4.58447,16,12
7.19331,3.03709,-0.683127,16,5
24.9233,10.5229,5.2587,32,13
8.33573,3.51772,-0.474164,43,6
29.5314,12.4563,7.39954,43,14
9.81755,4.13902,-0.185973,100,7
32.2528,13.591,9.37805,16,15
11.9758,5.02679,0.226707,28,8
0.531912,0.223158,-0.133171,14,1
15.2378,6.38975,0.865951,31,9
0.715206,0.299764,-0.150739,39,2
19.5581,8.19338,1.8552,20,10
5.65214,2.36666,-0.97052,42,3
23.9978,10.0484,3.19444,9,11
6.37071,2.66623,-0.847967,28,4
26.6575,11.1511,4.57665,9,12
7.21122,3.01504,-0.683824,15,5
25.0559,10.4708,5.27854,7,13
8.35962,3.49177,-0.474792,39,6
29.771,12.4291,7.44813,11,14
9.81902,4.09934,-0.185729,100,7
31.9541,13.3339,9.27763,16,15
11.9886,4.98056,0.226602,30,8
0.511129,0.21224,-0.127772,14,1
15.1708,6.29634,0.860822,33,9
0.712621,0.29576,-0.149976,40,2
19.686,8.16628,1.86461,53,10
5.65489,2.34465,-0.969581,33,3
27.0603,11.2143,3.59661,11,11
6.38044,2.64286,-0.847967,21,4
27.2731,11.2913,4.6752,16,12
7.21486,2.98554,-0.683127,15,5
30.9517,12.808,6.51117,11,13
8.37545,3.46409,-0.475001,39,6
29.8719,12.3489,7.46253,44,14
9.85246,4.07095,-0.186078,100,7
32.6135,13.4689,9.45466,16,15
12.0004,4.9364,0.226497,31,8
0.522681,0.2149,-0.130472,14,1
15.1077,6.20843,0.856007,33,9
0.7137,0.293147,-0.149976,40,2
20.3111,8.33848,1.92091,35,10
5.67624,2.32915,-0.971771,37,3
24.1315,9.90199,3.20273,18,11
6.38779,2.61982,-0.847723,27,4
26.128,10.7105,4.47246,15,12
7.23998,2.96638,-0.684521,15,5
25.1574,10.3024,5.28426,41,13
8.37331,3.42732,-0.474164,39,6
30.3137,12.4017,7.5615,22,14
9.87401,4.03956,-0.186217,100,7
32.5834,13.3236,9.4324,8,15
12.0351,4.89917,0.226811,33,8
0.512635,0.208577,-0.127772,14,1
15.2043,6.18311,0.860194,40,9
0.718357,0.292133,-0.150739,39,2
20.1038,8.1715,1.8986,51,10
5.69714,2.31453,-0.973961,33,3
22.7331,9.23094,3.01261,41,11
6.38815,2.59266,-0.846505,21,4
25.7387,10.4409,4.39925,3,12
7.26188,2.94432,-0.685567,15,5
25.2005,10.2175,5.28579,33,13
8.37967,3.39582,-0.47385,47,6
30.3189,12.2804,7.55206,22,14
9.90914,4.0116,-0.186601,100,7
32.315,13.0758,9.34078,16,15
12.0558,4.85863,0.226881,30,8
0.538666,0.216979,-0.134071,14,1
15.2517,6.14044,0.861659,35,9
0.697567,0.280703,-0.14616,42,2
19.5237,7.85242,1.84108,16,10
5.71292,2.29658,-0.975213,28,3
22.9991,9.24556,3.04357,17,11
6.39348,2.56887,-0.846017,24,4
23.1683,9.30422,3.95435,12,12
7.27582,2.92043,-0.685916,15,5
25.3835,10.1835,5.31632,18,13
8.40132,3.3688,-0.474373,61,6
30.2226,12.1127,7.51696,11,14
9.89339,3.96508,-0.186043,100,7
32.3049,12.9407,9.32473,8,15
12.0987,4.82689,0.22737,40,8
0.550281,0.219429,-0.13677,13,1
15.3648,6.12682,0.866893,25,9
0.694846,0.276935,-0.145396,43,2
19.4996,7.76772,1.83637,48,10
5.72968,2.28128,-0.976777,27,3
23.306,9.2746,3.07988,43,11
6.41532,2.55167,-0.847723,23,4
23.133,9.20105,3.94309,12,12
7.27065,2.8904,-0.684521,15,5
25.5011,10.1327,5.33387,18,13
8.43287,3.34903,-0.475525,50,6
30.2626,12.0124,7.51696,11,14
9.90834,3.93299,-0.186078,100,7
29.3093,11.6281,8.44889,6,15
12.1035,4.78233,0.227161,38,8
0.514755,0.203287,-0.127772,14,1
15.3434,6.05628,0.864485,32,9
0.717724,0.283153,-0.149976,40,2
19.5136,7.69451,1.83515,72,10
5.7317,2.26009,-0.975838,26,3
23.2037,9.14485,3.06233,25,11
6.43852,2.5362,-0.849673,27,4
23.0142,9.06093,3.91743,22,12
7.26957,2.86063,-0.683475,15,5
25.5254,10.0444,5.33197,41,13
8.44393,3.32105,-0.475525,43,6
30.4746,11.9797,7.55971,11,14
9.91456,3.89546,-0.185938,100,7
29.8622,11.7269,8.59642,13,15
12.122,4.74078,0.227195,41,8
0.515462,0.201489,-0.127772,14,1
15.3011,5.97797,0.860927,32,9
0.707687,0.276485,-0.147686,41,2
19.7395,7.70802,1.85398,45,10
5.73771,2.23935,-0.975525,26,3
22.7546,8.87623,2.99896,33,11
6.44918,2.51443,-0.849917,28,4
23.0273,8.97336,3.9143,12,12
7.2758,2.83379,-0.683127,16,5
25.789,10.0443,5.37967,19,13
8.43872,3.28503,-0.474583,39,6
30.5326,11.8796,7.56375,22,14
9.95606,3.8717,-0.186462,20,7
29.604,11.5064,8.51049,13,15
12.1366,4.69772,0.227161,38,8
0.519797,0.201094,-0.128672,14,1
15.253,5.89789,0.857054,26,9
0.723346,0.279551,-0.150739,39,2
19.578,7.56239,1.8362,60,10
5.74957,2.21973,-0.976151,30,3
22.5466,8.70453,2.96752,24,11
6.44681,2.48762,-0.848454,20,4
20.633,7.95749,3.50257,22,12
7.30423,2.81554,-0.68487,15,5
21.0881,8.12454,4.39281,12,13
8.45629,3.25623,-0.474897,43,6
21.4133,8.24126,5.29715,22,14
9.96018,3.83334,-0.186287,100,7
29.7342,11.4377,8.53637,20,15
12.163,4.65678,0.227335,41,8
0.538731,0.206152,-0.133171,14,1
15.2754,5.84532,0.857158,31,9
0.702313,0.268608,-0.14616,42,2
5.76097,2.20106,-0.976777,30,3
25.7866,9.84693,3.38919,20,11
6.42992,2.45406,-0.845042,25,4
20.5555,7.84528,3.48473,16,12
7.3103,2.78861,-0.684521,16,5
25.9776,9.9043,5.40409,19,13
8.46201,3.22456,-0.474583,43,6
30.7825,11.7239,7.60469,11,14
9.99032,3.80495,-0.186601,100,7
29.7775,11.3352,8.53741,13,15
12.184,4.61855,0.22744,33,8
0.528477,0.200222,-0.130472,14,1
15.361,5.81672,0.860822,25,9
0.70141,0.265461,-0.145778,43,2
20.6646,7.81675,1.93294,22,10
5.75715,2.17774,-0.9749,28,3
26.1626,9.89125,3.43428,10,11
6.44916,2.43694,-0.846505,25,4
20.6936,7.81535,3.50351,28,12
7.31067,2.75955,-0.68365,18,5
25.9001,9.7765,5.3812,11,13
8.48761,3.20212,-0.47542,43,6
21.4562,8.09049,5.294,39,14
10.0054,3.77075,-0.186636,100,7
29.9218,11.2707,8.56743,13,15
12.2132,4.5809,0.227684,41,8
0.540121,0.202481,-0.133171,14,1
15.4766,5.7988,0.86616,28,9
0.711525,0.266453,-0.147686,41,2
20.9572,7.8481,1.95787,9,10
5.74437,2.15002,-0.971458,37,3
26.0575,9.7477,3.416,21,11
6.46135,2.4158,-0.846992,28,4
20.7819,7.76589,3.51383,26,12
7.32212,2.73472,-0.683824,17,5
21.1757,7.90464,4.39357,12,13
8.52735,3.18147,-0.47699,47,6
29.7588,11.1027,7.33295,10,14
10.026,3.7386,-0.186776,100,7
30.037,11.1945,8.58917,13,15
12.2149,4.53055,0.227405,37,8
0.50797,0.188307,-0.125073,15,1
15.5427,5.75869,0.868672,27,9
0.71802,0.265889,-0.148831,40,2
17.9161,6.63447,1.67147,28,10
5.7411,2.12484,-0.969581,33,3
25.3093,9.36219,3.31338,10,11
6.47388,2.39348,-0.84748,24,4
20.9658,7.74717,3.54011,24,12
7.34891,2.71408,-0.685393,15,5
26.4757,9.77266,5.48576,16,13
8.52397,3.14466,-0.476153,50,6
30.1558,11.1251,7.42069,32,14
10.0509,3.70598,-0.186985,100,7
30.0017,11.0563,8.56743,20,15
12.2483,4.49194,0.227719,33,8
0.515975,0.189127,-0.126872,15,1
15.6162,5.72092,0.871603,27,9
0.715257,0.26203,-0.148068,41,2
17.8243,6.52629,1.66067,45,10
5.76369,2.10921,-0.972084,27,3
25.4366,9.30345,3.32557,40,11
6.48261,2.36973,-0.84748,23,4
20.9755,7.6635,3.53698,30,12
7.36209,2.68977,-0.685741,18,5
21.5876,7.88287,4.46722,5,13
8.52551,3.11146,-0.475629,58,6
30.0042,10.9444,7.37345,21,14
10.0513,3.66432,-0.186741,100,7
30.2634,11.027,8.63058,13,15
12.2489,4.4437,0.22744,40,8
0.527625,0.19131,-0.129572,14,1
15.668,5.67794,0.873383,22,9
0.708784,0.256856,-0.146541,42,2
27.6368,10.0098,2.57162,22,10
5.80445,2.10118,-0.977716,28,3
20.6454,7.46948,2.69575,6,11
6.50205,2.35114,-0.848942,20,4
20.9836,7.58352,3.53385,12,12
7.37518,2.66541,-0.68609,16,5
21.4858,7.76079,4.44051,27,13
8.57577,3.09592,-0.477827,50,6
21.5477,7.77466,5.2886,39,14
10.0583,3.62718,-0.186636,100,7
30.3163,10.9265,8.63472,13,15
12.2474,4.39485,0.227126,41,8
0.550301,0.197362,-0.134971,14,1
15.8626,5.68589,0.883117,22,9
0.694891,0.249081,-0.143488,44,2
19.7132,7.06223,1.83201,40,10
5.82477,2.08557,-0.979906,28,3
20.5649,7.35924,2.68186,13,11
6.5233,2.33311,-0.850648,23,4
21.6814,7.75027,3.6468,8,12
7.3638,2.63227,-0.684173,15,5
31.3761,11.2096,6.47644,22,13
8.5696,3.05993,-0.476885,65,6
21.5179,7.6791,5.27465,45,14
10.0898,3.59877,-0.186985,100,7
30.5544,10.8919,8.69166,14,15
12.2287,4.34003,0.226497,41,8
0.55466,0.196742,-0.13587,13,1
18.0811,6.40996,1.00537,13,9
0.703158,0.249278,-0.145015,43,2
17.8879,6.33795,1.66032,66,10
5.82642,2.06324,-0.978967,28,3
20.6222,7.29867,2.686,13,11
6.5445,2.31496,-0.852354,24,4
21.997,7.77659,3.6953,4,12
7.37858,2.60854,-0.684695,17,5
21.4746,7.58771,4.42715,17,13
8.56704,3.02534,-0.476153,76,6
21.4435,7.56826,5.24991,44,14
10.1098,3.56618,-0.187125,100,7
30.707,10.8257,8.72427,7,15
12.1815,4.27546,0.225345,51,8
0.518566,0.181904,-0.126872,15,1
15.8699,5.56377,0.881338,25,9
0.711435,0.24942,-0.146541,42,2
5.8224,2.03898,-0.97709,26,3
18.0676,6.32364,2.35037,45,11
6.53006,2.28424,-0.849429,25,4
21.9289,7.66652,3.67934,9,12
7.39938,2.58543,-0.685741,18,5
21.7512,7.60012,4.47867,10,13
8.58509,2.99805,-0.476571,72,6
31.1255,10.8634,7.61099,11,14
10.1241,3.53153,-0.18716,100,7
31.4542,10.9658,8.92563,14,15
12.2134,4.23881,0.22566,52,8
0.515515,0.178816,-0.125973,15,1
0.716054,0.248096,-0.147305,42,2
15.6905,5.43332,1.45271,28,10
5.84477,2.02279,-0.979593,28,3
18.204,6.30013,2.36524,20,11
6.53424,2.26013,-0.848942,28,4
22.0564,7.62478,3.69623,9,12
7.42719,2.56609,-0.687485,25,5
21.5451,7.43961,4.43058,10,13
8.59791,2.96722,-0.476676,79,6
31.4765,10.8567,7.68703,11,14
10.1383,3.49682,-0.187195,100,7
31.3845,10.8188,8.89509,7,15
12.2818,4.21218,0.226637,45,8
0.534602,0.183244,-0.130472,14,1
14.7029,5.03968,0.814557,12,9
0.709487,0.24305,-0.145778,43,2
18.0919,6.19426,1.67304,28,10
5.84058,1.99854,-0.977716,31,3
17.8851,6.11646,2.32088,55,11
6.52933,2.23167,-0.847236,22,4
21.9184,7.49151,3.6687,24,12
7.43987,2.54144,-0.687833,21,5
21.5691,7.36372,4.4302,25,13
8.61767,2.94041,-0.477199,50,6
21.6243,7.37415,5.27465,16,14
10.1447,3.45948,-0.18709,100,7
31.3508,10.6849,8.87491,14,15
12.3052,4.17465,0.226811,45,8
0.557353,0.188979,-0.13587,13,1
14.8037,5.01653,0.819162,29,9
0.717769,0.243091,-0.147305,42,2
14.8354,5.0215,1.37026,12,10
5.84718,1.97916,-0.977716,31,3
17.9278,6.06475,2.3238,55,11
6.5555,2.21636,-0.849673,27,4
21.63,7.30872,3.61614,17,12
7.44492,2.51418,-0.687485,17,5
21.7347,7.3399,4.45921,31,13
8.62169,2.9099,-0.476885,54,6
21.656,7.30488,5.27645,28,14
10.1776,3.43107,-0.187474,100,7
31.4264,10.5883,8.88578,14,15
12.3462,4.14057,0.2273,38,8
0.554314,0.185794,-0.134971,14,1
14.9139,4.99591,0.824291,32,9
0.709263,0.237592,-0.145396,43,2
14.5761,4.87993,1.34481,45,10
5.83532,1.95247,-0.974587,32,3
18.0091,6.02229,2.3316,55,11
6.56884,2.19536,-0.850404,22,4
21.7659,7.2701,3.6346,4,12
7.44944,2.48821,-0.687136,18,5
21.7975,7.27642,4.46684,31,13
8.6299,2.87916,-0.476781,54,6
26.6728,8.89354,6.49119,27,14
10.1895,3.39552,-0.187474,100,7
31.2523,10.4084,8.82625,21,15
12.3682,4.09996,0.22744,40,8
0.521661,0.172826,-0.126872,15,1
14.8156,4.90552,0.817906,20,9
0.715679,0.236966,-0.146541,42,2
14.5836,4.82589,1.34394,15,10
5.85335,1.93581,-0.976464,28,3
18.2449,6.0304,2.35939,55,11
6.5727,2.17117,-0.849917,28,4
22.2995,7.3619,3.71939,18,12
7.45808,2.46219,-0.687136,21,5
21.7817,7.18675,4.45844,31,13
8.62662,2.84464,-0.476048,47,6
26.5723,8.75708,6.45924,72,14
10.2222,3.36682,-0.187858,100,7
31.6261,10.4104,8.92149,14,15
12.3957,4.06113,0.227684,36,8
0.537077,0.175855,-0.130472,14,1
14.7738,4.83452,0.814662,43,9
0.7221,0.236298,-0.147686,41,2
15.1988,4.97066,1.39902,25,10
5.86946,1.91844,-0.978028,28,3
18.1677,5.93462,2.34672,35,11
6.55193,2.13897,-0.846261,27,4
22.4189,7.31466,3.73503,22,12
7.47084,2.43607,-0.687485,25,5
8.6346,2.81389,-0.475943,50,6
26.4971,8.62987,6.4336,45,14
10.2263,3.32863,-0.187718,24,7
26.0297,8.46764,7.33441,28,15
12.4098,4.01783,0.227684,37,8
0.526563,0.17038,-0.127772,14,1
14.6993,4.75342,0.809637,34,9
0.713621,0.230631,-0.145778,43,2
14.6064,4.71773,1.3429,36,10
5.88021,1.89812,-0.978654,30,3
18.4131,5.94374,2.37572,51,11
6.57636,2.12157,-0.848454,24,4
21.7374,7.00843,3.61739,23,12
7.49447,2.41487,-0.688879,21,5
21.4887,6.91997,4.38823,12,13
8.65817,2.7865,-0.476676,43,6
26.8513,8.63653,6.51188,37,14
10.2397,3.29353,-0.187753,100,7
21.3307,6.85674,6.00357,8,15
12.3883,3.96075,0.227021,45,8
0.556885,0.177939,-0.134971,14,1
14.6492,4.68081,0.805974,45,9
0.7032,0.224555,-0.143488,44,2
14.3267,4.57222,1.3157,94,10
5.89621,1.88059,-0.980218,31,3
18.3781,5.85812,2.36841,20,11
6.59733,2.10167,-0.850161,25,4
21.6902,6.90973,3.6055,25,12
7.49526,2.38628,-0.688182,22,5
21.4585,6.82765,4.37716,32,13
8.66784,2.75627,-0.476676,39,6
25.9768,8.2553,6.29278,8,14
10.2512,3.25777,-0.187753,100,7
21.3103,6.7682,5.99114,28,15
12.3651,3.90819,0.226358,41,8
0.53889,0.170221,-0.130472,14,1
14.7131,4.64468,0.808591,35,9
0.711469,0.224462,-0.145015,43,2
14.4546,4.55753,1.32599,25,10
5.893,1.85805,-0.978654,33,3
18.369,5.78821,2.36475,30,11
6.60994,2.08157,-0.850892,28,4
21.4994,6.76637,3.56983,25,12
7.51495,2.36369,-0.689228,23,5
21.4623,6.75058,4.37334,20,13
8.69218,2.7323,-0.477513,54,6
26.0673,8.18898,6.30808,34,14
10.2663,3.22316,-0.187823,100,7
21.3983,6.71402,6.00926,25,15
12.3271,3.84892,0.225415,40,8
0.543201,0.1695,-0.131371,14,1
14.635,4.56671,0.803462,43,9
0.72158,0.225024,-0.146923,42,2
5.88624,1.83336,-0.976464,28,3
18.5199,5.76476,2.38157,41,11
6.62096,2.05966,-0.851379,28,4
22.2102,6.9092,3.68403,22,12
7.53035,2.34112,-0.689925,26,5
21.9394,6.81658,4.46569,31,13
8.69403,2.69957,-0.477095,54,6
22.1872,6.88507,5.36328,35,14
10.2731,3.18792,-0.187753,100,7
21.3983,6.63616,6.00305,34,15
12.3551,3.81273,0.225695,40,8
0.54376,0.167698,-0.131371,14,1
14.4466,4.45265,0.792262,44,9
0.709228,0.218458,-0.144252,44,2
5.91306,1.82023,-0.979906,30,3
23.1361,7.1176,2.97215,48,11
6.63535,2.04003,-0.852354,24,4
22.0076,6.76202,3.64649,14,12
7.56895,2.32418,-0.692714,21,5
26.8715,8.25137,5.46401,31,13
8.70294,2.67072,-0.477095,47,6
22.2546,6.82518,5.37408,52,14
10.2631,3.14559,-0.187369,22,7
21.4841,6.58066,6.02065,25,15
12.4041,3.77574,0.226323,45,8
0.540671,0.164475,-0.130472,14,1
14.4789,4.40179,0.793099,45,9
0.70251,0.213573,-0.142725,45,2
15.4052,4.68045,1.40861,62,10
5.92378,1.79866,-0.980531,33,3
23.2051,7.0414,2.97751,32,11
6.65453,2.01799,-0.853817,24,4
22.1676,6.71814,3.6687,24,12
7.57742,2.29642,-0.692714,25,5
26.3675,7.98595,5.35525,41,13
8.72077,2.6396,-0.477513,58,6
22.2303,6.72443,5.36193,29,14
10.2292,3.09227,-0.186531,23,7
21.5111,6.49867,6.02117,34,15
12.4383,3.73876,0.226707,45,8
0.530044,0.159222,-0.127772,14,1
14.8098,4.44598,0.81037,48,9
0.701371,0.210555,-0.142344,45,2
14.5951,4.37875,1.33313,14,10
5.93192,1.77853,-0.980844,33,3
15.0794,4.5183,1.93285,4,11
6.67674,1.99931,-0.855767,28,4
22.2118,6.64695,3.67214,9,12
7.57394,2.26653,-0.691668,21,5
26.4893,7.92198,5.37433,23,13
8.74524,2.61372,-0.478351,65,6
21.9007,6.54138,5.2769,22,14
10.2457,3.05826,-0.186636,25,7
21.5373,6.42466,6.0222,34,15
12.5509,3.7249,0.228522,52,8
0.52686,0.156263,-0.126872,15,1
14.8207,4.39571,0.810161,39,9
0.705866,0.209221,-0.143107,45,2
15.6419,4.63334,1.42726,25,10
5.92862,1.75502,-0.97928,35,3
15.175,4.48929,1.94309,8,11
6.67416,1.97318,-0.854548,27,4
24.1829,7.14954,3.99409,28,12
7.55123,2.23105,-0.688879,27,5
22.2972,6.58358,4.51912,10,13
8.76197,2.58544,-0.478769,58,6
22.2842,6.57127,5.36373,47,14
10.2519,3.02314,-0.186566,26,7
21.5103,6.339,6.00874,23,15
12.638,3.7052,0.229883,46,8
0.531115,0.155611,-0.127772,14,1
14.8723,4.35461,0.812149,37,9
0.716013,0.209513,-0.145015,43,2
14.654,4.28513,1.33575,74,10
5.92303,1.73202,-0.977403,36,3
15.2089,4.44452,1.94552,45,11
6.6902,1.95382,-0.855767,24,4
28.3245,8.26659,4.67332,6,12
7.58193,2.21137,-0.690971,25,5
26.993,7.87288,5.46553,16,13
8.75132,2.55078,-0.477723,65,6
21.3198,6.21014,5.12663,41,14
10.3143,3.00243,-0.187509,26,7
21.6844,6.30812,6.05119,36,15
12.6874,3.67163,0.230546,36,8
0.516679,0.149425,-0.124173,15,1
14.6111,4.22282,0.797077,24,9
0.701616,0.202776,-0.141962,46,2
14.538,4.19893,1.3239,94,10
5.94423,1.71571,-0.979906,37,3
15.2644,4.40295,1.95064,42,11
6.68363,1.9266,-0.85406,24,4
28.2355,8.13376,4.65393,6,12
7.59688,2.18842,-0.691668,22,5
22.3434,6.4322,4.5195,28,13
8.76401,2.52132,-0.477932,68,6
21.4894,6.17822,5.16218,42,14
10.3593,2.97634,-0.188137,21,7
21.6933,6.22866,6.04757,27,15
12.7463,3.6405,0.231384,36,8
0.528441,0.150829,-0.126872,15,1
14.4184,4.11262,0.785772,54,9
0.702319,0.200326,-0.141962,46,2
14.6656,4.18037,1.33418,25,10
5.96158,1.6982,-0.981783,35,3
33.1673,9.44171,4.23423,13,11
6.69795,1.90543,-0.855035,30,4
26.0958,7.4188,4.29694,12,12
7.61214,2.16406,-0.692365,28,5
22.3109,6.33861,4.50844,2,13
8.78429,2.49399,-0.47856,65,6
21.2783,6.0372,5.10639,51,14
10.358,2.93689,-0.187928,21,7
21.7688,6.16818,6.06258,15,15
12.3817,3.48967,0.224543,31,8
0.54397,0.153211,-0.130472,14,1
14.3327,4.03413,0.780329,45,9
0.706794,0.198937,-0.142725,45,2
5.96367,1.67631,-0.981157,36,3
19.2775,5.41504,2.45859,10,11
6.71794,1.8858,-0.856742,33,4
26.0321,7.30259,4.28224,14,12
7.61426,2.13454,-0.691842,20,5
23.4445,6.57229,4.73283,24,13
8.80833,2.46762,-0.479397,68,6
21.3612,5.98023,5.12124,56,14
10.3682,2.90072,-0.187928,21,7
26.0434,7.28124,7.2459,27,15
12.3764,3.4416,0.224229,38,8
0.533236,0.14818,-0.127772,14,1
14.3139,3.97499,0.77855,41,9
0.688601,0.191095,-0.138909,48,2
5.97929,1.65708,-0.982721,32,3
15.962,4.42365,2.03376,21,11
6.72256,1.86181,-0.856498,37,4
26.7276,7.39715,4.39237,34,12
7.61974,2.10742,-0.691668,22,5
22.3292,6.17147,4.50309,10,13
8.80961,2.43319,-0.478979,72,6
21.5445,5.94648,5.15993,52,14
10.3879,2.86717,-0.188102,20,7
22.2304,6.13163,6.17905,12,15
12.4179,3.40415,0.224752,25,8
0.530017,0.145195,-0.126872,15,1
14.5923,3.99474,0.79289,44,9
0.719561,0.196984,-0.145015,43,2
15.4568,4.22852,1.40199,81,10
5.99456,1.6388,-0.984286,35,3
15.8842,4.33948,2.02181,48,11
6.74658,1.84186,-0.858692,33,4
7.6309,2.08185,-0.692017,25,5
22.8355,6.22568,4.60079,11,13
8.81998,2.40295,-0.479083,76,6
21.5087,5.85589,5.14643,31,14
10.4331,2.83852,-0.18873,20,7
22.1278,6.01615,6.14436,6,15
14.806,4.00329,0.26772,18,8
0.538046,0.145377,-0.128672,14,1
14.5907,3.93962,0.792052,45,9
0.708872,0.191401,-0.142725,45,2
14.5828,3.93474,1.32146,40,10
6.00787,1.61993,-0.985537,36,3
15.8916,4.28194,2.02084,48,11
6.74338,1.81572,-0.857473,34,4
33.8491,9.10786,5.55186,9,12
7.64966,2.05831,-0.693062,25,5
22.8154,6.13472,4.59239,22,13
8.83217,2.37318,-0.479293,58,6
21.6758,5.82019,5.18152,26,14
10.443,2.80209,-0.18873,100,7
22.3054,5.9809,6.18785,25,15
14.4083,3.84184,0.260285,48,8
0.53855,0.143498,-0.128672,14,1
15.1101,4.0233,0.819476,25,9
0.705741,0.187915,-0.141962,46,2
13.938,3.7086,1.26184,13,10
6.02495,1.60199,-0.987414,31,3
15.9583,4.2402,2.02742,61,11
6.74009,1.78962,-0.856254,38,4
22.5031,5.97081,3.68747,6,12
7.65487,2.03109,-0.692888,28,5
22.2332,5.89504,4.47104,7,13
8.84619,2.34387,-0.479607,68,6
21.7111,5.74849,5.18512,26,14
10.4237,2.75795,-0.188207,21,7
22.4382,5.93262,6.2189,28,15
14.4739,3.80525,0.261228,30,8
0.527739,0.138647,-0.125973,15,1
15.2554,4.00503,0.826594,51,9
0.706393,0.185451,-0.141962,46,2
14.6388,3.84042,1.32407,60,10
6.02859,1.58045,-0.987102,33,3
16.1362,4.22724,2.04814,30,11
6.76742,1.77161,-0.858935,34,4
27.4162,7.17205,4.48842,6,12
7.65999,2.00385,-0.692714,26,5
22.2632,5.81987,4.47294,28,13
8.86012,2.3145,-0.479921,72,6
21.7178,5.66922,5.18197,36,14
10.3868,2.70943,-0.187369,21,7
22.4868,5.86158,6.22667,29,15
14.3903,3.72962,0.259482,70,8
0.550857,0.142667,-0.131371,14,1
14.5036,3.75359,0.785144,18,9
0.707036,0.182984,-0.141962,46,2
14.6926,3.79977,1.32773,23,10
6.02833,1.55791,-0.986163,37,3
28.5768,7.37984,3.62391,11,11
6.77356,1.74798,-0.858935,32,4
24.0592,6.20423,3.93527,10,12
7.66694,1.9771,-0.692714,27,5
22.1503,5.70784,4.44623,30,13
8.86428,2.28256,-0.479711,76,6
22.1489,5.69924,5.28005,5,14
10.3943,2.67266,-0.187334,22,7
22.5895,5.8042,6.24944,19,15
14.3567,3.66749,0.258645,73,8
0.513588,0.131103,-0.122373,15,1
0.70767,0.180514,-0.141962,34,2
14.5668,3.71304,1.31518,57,10
6.03374,1.53686,-0.986163,37,3
22.7157,5.78172,2.87807,22,11
6.77962,1.72433,-0.858935,32,4
23.7151,6.02726,3.87551,20,12
7.70083,1.95719,-0.695154,23,5
22.2595,5.6532,4.46417,26,13
8.87219,2.25161,-0.479711,79,6
22.2159,5.63387,5.2913,45,14
10.3822,2.63096,-0.18695,23,7
18.6956,4.73419,5.16758,8,15
14.3345,3.60857,0.258016,67,8
0.55373,0.139293,-0.131821,14,1
14.4016,3.62011,0.778236,21,9
0.704488,0.177086,-0.141199,46,2
15.4222,3.87379,1.39118,36,10
6.04673,1.51771,-0.987414,41,3
15.8118,3.96579,2.00158,46,11
6.77212,1.69727,-0.857229,38,4
23.7015,5.9358,3.86988,20,12
7.70761,1.9303,-0.695154,25,5
22.5591,5.64553,4.52027,10,13
8.88968,2.22304,-0.480235,72,6
22.3262,5.57896,5.31289,46,14
10.3642,2.58792,-0.186462,21,7
18.7195,4.67077,5.16965,3,15
14.215,3.52577,0.255643,61,8
0.535298,0.132671,-0.127322,15,1
0.701291,0.173682,-0.140435,47,2
15.3641,3.80222,1.38473,96,10
6.06349,1.49944,-0.989292,36,3
16.026,3.9601,2.02693,26,11
6.78378,1.67505,-0.85796,34,4
22.1072,5.45461,3.60644,2,12
7.72204,1.9053,-0.695851,25,5
23.181,5.71525,4.64086,5,13
8.90514,2.19391,-0.480653,65,6
23.5509,5.79774,5.59948,26,14
10.3925,2.5565,-0.186811,23,7
18.7057,4.59802,5.16137,8,15
14.2428,3.47993,0.255922,61,8
0.547116,0.133575,-0.130022,14,1
0.711429,0.173559,-0.142344,45,2
15.5863,3.79953,1.40356,34,10
6.05334,1.47453,-0.986789,37,3
15.6771,3.81587,1.98111,46,11
6.81466,1.65746,-0.861129,45,4
28.8789,7.01857,4.70711,3,12
7.71703,1.8755,-0.694806,27,5
22.0809,5.36233,4.41685,2,13
8.91663,2.16375,-0.480863,68,6
23.0729,5.59472,5.48116,30,14
10.4267,2.52633,-0.187264,23,7
18.7254,4.53361,5.16241,13,15
0.551369,0.132576,-0.130922,14,1
15.6602,3.76259,0.844074,27,9
0.696759,0.167406,-0.139291,48,2
15.7351,3.77766,1.41576,21,10
6.06037,1.45385,-0.987102,45,3
15.9799,3.83054,2.01767,48,11
6.82041,1.63366,-0.861129,38,4
24.3118,5.8188,3.95936,12,12
7.73128,1.85041,-0.695503,25,5
22.1224,5.29072,4.42143,10,13
8.94355,2.13725,-0.48191,65,6
23.1093,5.51821,5.48521,50,14
10.4724,2.49874,-0.187928,24,7
18.7448,4.4691,5.16344,9,15
0.532865,0.12616,-0.126422,15,1
0.70116,0.165877,-0.140054,47,2
15.7676,3.72729,1.4175,68,10
6.06733,1.43314,-0.987414,41,3
16.0685,3.79252,2.02717,35,11
6.81834,1.60802,-0.860154,38,4
23.186,5.46385,3.77289,2,12
7.73413,1.82115,-0.695154,26,5
23.0064,5.4173,4.5943,19,13
8.93152,2.10145,-0.480863,65,6
22.0434,5.18241,5.22786,33,14
10.5336,2.47452,-0.18887,22,7
18.7754,4.40718,5.16758,8,15
12.0467,2.81001,0.215921,37,8
0.552281,0.128723,-0.130922,14,1
0.705588,0.164196,-0.140817,34,2
14.4537,3.36083,1.29827,20,10
6.07446,1.41134,-0.987727,45,3
15.9753,3.7117,2.01377,8,11
6.80458,1.57972,-0.857717,38,4
24.4557,5.67302,3.97625,28,12
7.73656,1.79324,-0.694806,28,5
21.2722,4.92673,4.24436,9,13
8.96251,2.0741,-0.482119,58,6
22.0356,5.09544,5.22156,21,14
10.6045,2.45215,-0.189987,25,7
18.7812,4.33944,5.16499,6,15
11.9497,2.74125,0.214001,70,8
0.541352,0.124086,-0.128222,14,1
12.9446,2.96471,0.695964,28,9
0.68702,0.157349,-0.137001,49,2
14.4537,3.30769,1.29723,17,10
6.09091,1.39277,-0.989605,38,3
15.7875,3.60713,1.98842,17,11
6.8258,1.5583,-0.859666,38,4
23.8061,5.43047,3.86737,5,12
7.76025,1.77021,-0.696374,28,5
8.97749,2.04458,-0.482538,58,6
22.3383,5.08334,5.28905,5,14
10.6446,2.42036,-0.190545,25,7
18.8177,4.27528,5.17069,5,15
12.008,2.71052,0.214874,60,8
0.564594,0.12734,-0.133621,14,1
12.8321,2.89185,0.689369,48,9
0.691395,0.155813,-0.137764,49,2
14.4069,3.24408,1.292,16,10
6.10151,1.3728,-0.990543,36,3
15.8078,3.55375,1.9894,25,11
6.83701,1.53577,-0.860398,40,4
22.3292,5.01164,3.62459,23,12
7.77805,1.74573,-0.69742,27,5
36.9993,8.29747,7.37057,14,13
8.99236,2.01497,-0.482956,54,6
22.4491,5.02619,5.31109,28,14
10.6901,2.39148,-0.191209,23,7
25.9798,5.80717,7.13305,4,15
12.7319,2.82726,0.227649,55,8
0.54601,0.121147,-0.129122,14,1
16.8141,3.7276,0.902586,15,9
0.695768,0.154248,-0.138527,48,2
14.4162,3.19335,1.29182,5,10
6.0947,1.34893,-0.988666,37,3
21.0612,4.65758,2.64846,44,11
6.83458,1.51019,-0.859423,34,4
22.2772,4.91834,3.61332,23,12
7.77437,1.71642,-0.696549,26,5
36.8574,8.13061,7.33661,29,13
8.99934,1.98358,-0.482956,58,6
22.6682,4.99223,5.35878,11,14
10.7628,2.36833,-0.19236,100,7
18.8131,4.13634,5.16137,13,15
12.7319,2.78066,0.227475,58,8
0.54643,0.119241,-0.129122,14,1
17.4749,3.81015,0.937337,20,9
0.696303,0.151819,-0.138527,36,2
14.4,3.13707,1.28938,8,10
6.09551,1.32681,-0.98804,42,3
20.8329,4.53088,2.61775,36,11
6.86308,1.49138,-0.862348,34,4
22.244,4.82964,3.60519,4,12
7.79199,1.69181,-0.697595,25,5
23.4897,5.09584,4.67215,17,13
9.00816,1.95257,-0.483061,50,6
18.8249,4.07697,4.44683,29,14
10.8942,2.3574,-0.194559,22,7
18.8577,4.07718,5.16965,10,15
12.8002,2.7488,0.228522,52,8
0.543032,0.116515,-0.128222,14,1
15.1759,3.25343,0.813406,11,9
0.708373,0.151733,-0.140817,46,2
14.3465,3.07301,1.28363,11,10
6.13294,1.31255,-0.993359,45,3
20.8408,4.45647,2.61678,36,11
6.86437,1.46658,-0.86186,37,4
20.891,4.4596,3.38336,16,12
7.79814,1.66324,-0.697595,25,5
17.3024,3.6872,3.43876,6,13
9.01331,1.91913,-0.482956,58,6
18.8429,4.01206,4.44773,19,14
11.0158,2.34348,-0.196584,93,7
20.9126,4.44511,5.7287,25,15
12.8474,2.70971,0.229185,66,8
0.554896,0.116935,-0.130922,14,1
17.5779,3.70105,0.941419,12,9
0.697397,0.14671,-0.138527,48,2
14.3635,3.02164,1.28415,35,10
6.13578,1.28965,-0.993046,46,3
20.958,4.40127,2.62945,68,11
6.8697,1.44141,-0.86186,37,4
20.8879,4.37893,3.38024,26,12
7.80419,1.63465,-0.697595,25,5
17.3081,3.62216,3.43723,30,13
9.02028,1.88608,-0.482956,72,6
19.0959,3.99281,4.50397,13,14
11.4549,2.39306,-0.204263,28,7
21.1008,4.40436,5.77581,27,15
13.3741,2.76966,0.2384,41,8
0.559138,0.11569,-0.131821,14,1
13.2938,2.75059,0.711455,8,9
0.705595,0.145865,-0.140054,35,2
6.13466,1.26596,-0.992108,45,3
21.1062,4.35168,2.64603,70,11
6.86885,1.41622,-0.861129,31,4
21.1004,4.34666,3.41215,15,12
7.80984,1.60739,-0.697595,25,5
17.3283,3.5633,3.43876,15,13
9.02681,1.85458,-0.482956,65,6
19.0753,3.91908,4.49587,16,14
11.52,2.36472,-0.205275,100,7
21.082,4.32368,5.76649,22,15
13.1618,2.6802,0.234456,57,8
0.555699,0.113058,-0.130922,14,1
0.690684,0.140396,-0.137001,49,2
29.6824,6.02816,2.64988,31,10
6.13301,1.24443,-0.991169,48,3
20.6011,4.17636,2.58095,48,11
6.8988,1.39856,-0.864297,37,4
21.0276,4.25901,3.39807,22,12
7.82294,1.58307,-0.698292,25,5
9.01725,1.82147,-0.482119,65,6
23.3651,4.71972,5.5032,43,14
12.204,2.46299,-0.217317,53,7
18.4658,3.72336,5.04749,16,15
12.9961,2.60161,0.231349,32,8
0.529318,0.105864,-0.124623,15,1
12.615,2.52072,0.674192,105,9
0.706547,0.141182,-0.140054,47,2
13.2919,2.65358,1.18584,27,10
6.13711,1.22409,-0.991169,37,3
13.908,2.77153,1.74127,19,11
6.90559,1.37486,-0.864541,33,4
17.9715,3.57475,2.90217,26,12
7.84405,1.55886,-0.699686,23,5
17.3843,3.4548,3.44525,15,13
8.96447,1.77989,-0.478979,72,6
18.8894,3.74705,4.44593,26,14
12.0811,2.39433,-0.214979,40,7
18.3802,3.63938,5.02057,19,15
12.3145,2.42047,0.219063,27,8
0.537334,0.105518,-0.126422,15,1
12.6609,2.48398,0.676181,41,9
0.699353,0.137081,-0.138527,36,2
13.3661,2.61748,1.19159,12,10
6.14543,1.20234,-0.991795,36,3
13.9098,2.72144,1.74029,42,11
6.90061,1.34884,-0.863322,37,4
17.8462,3.48512,2.87996,35,12
7.869,1.53528,-0.701429,26,5
17.5761,3.42599,3.48074,8,13
8.95525,1.74397,-0.478141,79,6
18.7308,3.6443,4.40544,19,14
12.0521,2.34488,-0.214316,37,7
18.4307,3.58257,5.03092,8,15
12.2035,2.35223,0.216933,15,8
0.510927,0.0983888,-0.120124,15,1
12.6719,2.43793,0.676285,48,9
0.692116,0.133155,-0.137001,49,2
13.5962,2.61331,1.21129,39,10
6.17481,1.18573,-0.995862,45,3
13.9061,2.66782,1.73859,31,11
6.9094,1.32429,-0.86381,37,4
17.7464,3.39814,2.86181,9,12
7.88214,1.5093,-0.702127,25,5
17.5667,3.36057,3.47654,2,13
8.9397,1.70858,-0.47699,97,6
20.6825,3.94913,4.86119,21,14
12.0587,2.30032,-0.214281,39,7
21.8861,4.17104,5.96992,17,15
0.561053,0.106012,-0.131821,14,1
12.4075,2.34219,0.661736,84,9
0.692577,0.130739,-0.137001,37,2
13.6151,2.56767,1.21216,23,10
6.18668,1.16563,-0.997113,38,3
13.9465,2.62514,1.74249,50,11
6.92764,1.30273,-0.865516,33,4
7.87561,1.47957,-0.701081,22,5
19.066,3.57844,3.77077,8,13
8.95935,1.67993,-0.477723,76,6
20.6885,3.87548,4.85939,21,14
12.0824,2.26116,-0.21456,33,7
17.8501,3.33733,4.8658,16,15
12.0073,2.22758,0.213164,31,8
0.542259,0.100502,-0.127322,15,1
12.669,2.34577,0.675239,35,9
0.712356,0.13177,-0.140817,46,2
11.8764,2.19687,1.05668,9,10
6.17128,1.14044,-0.993985,45,3
13.9302,2.57176,1.73932,38,11
6.91848,1.27602,-0.86381,37,4
17.0489,3.14137,2.74574,56,12
7.88098,1.4507,-0.701081,25,5
17.7583,3.26567,3.50974,27,13
8.99492,1.6525,-0.479293,68,6
18.9692,3.48492,4.45268,9,14
12.2102,2.24098,-0.216689,23,7
21.3105,3.90736,5.80531,10,15
12.3006,2.23541,0.218225,55,8
0.538789,0.0978173,-0.126422,15,1
11.8619,2.1514,0.6318,46,9
0.689653,0.124958,-0.136238,37,2
13.6409,2.47161,1.21286,7,10
6.1657,1.11605,-0.99242,42,3
16.3149,2.95021,2.03571,21,11
6.92897,1.25172,-0.864541,38,4
17.0759,3.08166,2.74824,33,12
7.90193,1.42463,-0.702475,27,5
17.716,3.19082,3.49906,16,13
9.02253,1.62341,-0.480444,72,6
17.9615,3.23179,4.21333,33,14
12.1888,2.19091,-0.216166,26,7
17.883,3.21122,4.86839,9,15
12.2123,2.17314,0.216515,36,8
0.531469,0.0944777,-0.124623,15,1
12.0349,2.13725,0.640592,64,9
0.717147,0.127356,-0.14158,34,2
11.9589,2.12158,1.0626,47,10
6.1892,1.09689,-0.995549,48,3
16.2552,2.87794,2.02693,13,11
6.92569,1.22492,-0.863566,38,4
17.1143,3.02387,2.75262,35,12
7.91863,1.39912,-0.703521,28,5
17.7019,3.12452,3.49409,26,13
9.06158,1.5978,-0.482224,76,6
12.2597,2.15732,-0.217282,25,7
17.8719,3.14164,4.86217,6,15
12.2198,2.1305,0.216515,37,8
0.558673,0.0973031,-0.130922,14,1
12.6228,2.19622,0.67147,26,9
0.690508,0.12014,-0.136238,37,2
11.9309,2.07369,1.05947,45,10
6.20078,1.07663,-0.996801,53,3
17.1043,2.96672,2.13149,9,11
6.93775,1.2021,-0.864541,33,4
17.078,2.95602,2.74511,12,12
7.91954,1.37079,-0.703173,27,5
17.9217,3.09883,3.53531,11,13
9.11631,1.57466,-0.48484,76,6
26.5068,4.57375,6.21,41,14
11.9204,2.05472,-0.211139,20,7
17.521,3.01696,4.76382,40,15
12.1956,2.08244,0.215956,62,8
0.535958,0.0914202,-0.125523,15,1
0.687053,0.11707,-0.135474,37,2
11.9184,2.02869,1.05772,24,10
6.19281,1.05299,-0.994923,48,3
13.4665,2.28737,1.67717,30,11
6.93799,1.17721,-0.864054,40,4
20.2687,3.43546,3.25603,8,12
7.92428,1.34313,-0.703173,28,5
17.6401,2.98677,3.47769,39,13
9.14144,1.54616,-0.485887,87,6
17.0246,2.87643,3.98613,30,14
12.5506,2.11826,-0.222169,33,7
17.4457,2.94133,4.74053,19,15
11.8853,1.98678,0.210336,33,8
0.559339,0.0934007,-0.130922,14,1
11.9286,1.98974,0.633788,46,9
0.699076,0.116609,-0.137764,49,2
6.1984,1.0317,-0.995236,50,3
13.5469,2.25239,1.68618,41,11
6.94793,1.15396,-0.864785,47,4
16.3285,2.70903,2.62153,13,12
7.94464,1.31808,-0.704567,28,5
17.416,2.88633,3.43151,12,13
9.17634,1.51913,-0.487457,79,6
16.9595,2.80459,3.96859,30,14
12.2915,2.03044,-0.217457,26,7
17.4959,2.88701,4.7514,12,15
11.8171,1.93301,0.20901,36,8
0.548122,0.089562,-0.128222,14,1
11.7147,1.91206,0.622065,55,9
0.699479,0.114168,-0.137764,36,2
13.4346,2.19037,1.1909,30,10
6.20781,1.01101,-0.996175,46,3
13.5468,2.20382,1.68521,41,11
6.95192,1.1297,-0.864785,49,4
7.95925,1.29055,-0.705439,30,5
9.18159,1.48709,-0.487457,72,6
16.9346,2.73977,3.96049,24,14
12.3459,1.99518,-0.218295,24,7
38.6238,6.23495,10.4832,10,15
11.7962,1.88732,0.208521,35,8
0.544583,0.0870332,-0.127322,15,1
11.4708,1.83117,0.608772,29,9
0.711525,0.113458,-0.140054,35,2
13.3796,2.13109,1.18532,27,10
6.21538,0.98887,-0.996801,48,3
13.6446,2.17087,1.69642,41,11
6.98915,1.11072,-0.868928,34,4
16.2514,2.57979,2.6062,30,12
7.96961,1.26369,-0.705962,28,5
17.3781,2.75241,3.42006,30,13
9.22248,1.45905,-0.489341,70,6
17.035,2.69198,3.98163,2,14
27.2514,4.30157,7.39239,9,15
11.6311,1.81722,0.205485,52,8
0.564152,0.0880413,-0.131821,14,1
11.5663,1.80296,0.613482,58,9
0.684759,0.106741,-0.134711,25,2
13.3889,2.08468,1.18549,55,10
6.2227,0.967773,-0.997426,46,3
12.2147,1.89748,1.51776,38,11
6.97552,1.08236,-0.866735,31,4
16.1651,2.50538,2.59087,40,12
7.98579,1.23769,-0.707007,28,5
17.2498,2.67041,3.39297,51,13
9.26897,1.43326,-0.491539,66,6
17.7915,2.74791,4.1562,43,14
12.0002,1.8513,-0.211942,96,7
18.5261,2.85475,5.02264,9,15
11.7619,1.79562,0.207684,40,8
0.572162,0.0872467,-0.133621,14,1
11.4856,1.74934,0.608877,38,9
0.696773,0.106124,-0.137001,37,2
12.9805,1.9747,1.14871,27,10
6.23189,0.946938,-0.998365,50,3
12.2075,1.85275,1.51605,38,11
7.01458,1.06336,-0.871122,29,4
16.1347,2.44303,2.58461,28,12
7.96839,1.20653,-0.70509,30,5
17.2862,2.6143,3.39831,18,13
9.33711,1.41044,-0.494889,66,6
17.3848,2.623,4.05902,14,14
12.1925,1.83741,-0.215223,100,7
18.2379,2.7452,4.94189,19,15
11.8274,1.7634,0.208731,51,8
0.572463,0.0852488,-0.133621,14,1
12.3431,1.83588,0.65399,45,9
0.689372,0.102536,-0.135474,37,2
13.5923,2.01926,1.20223,23,10
6.24884,0.927207,-1.00055,42,3
16.2295,2.40525,2.0145,56,11
7.04378,1.04265,-0.874291,32,4
16.2486,2.40229,2.60151,25,12
7.95284,1.17579,-0.703347,28,5
17.6973,2.61331,3.4773,52,13
9.34791,1.37871,-0.495203,38,6
17.4035,2.56371,4.06127,48,14
12.1869,1.79309,-0.215014,66,7
18.2398,2.68041,4.93982,19,15
11.9622,1.74083,0.211,37,8
0.526474,0.0765228,-0.122823,15,1
12.0569,1.75032,0.638499,38,9
0.693611,0.100693,-0.136238,25,2
11.7932,1.70993,1.04256,25,10
6.2579,0.906239,-1.00149,52,3
11.9686,1.73111,1.48486,52,11
7.0513,1.01862,-0.874778,34,4
15.4025,2.22229,2.46478,12,12
7.9431,1.14603,-0.702127,27,5
17.1972,2.47815,3.37732,23,13
10.5388,1.51679,-0.558006,84,6
17.3641,2.49601,4.05002,43,14
12.3198,1.76873,-0.217248,38,7
18.0081,2.58217,4.8746,6,15
11.9939,1.70272,0.211453,27,8
0.499726,0.0708545,-0.116525,16,1
11.8869,1.68329,0.629183,9,9
0.692015,0.0979953,-0.135856,25,2
11.6925,1.65369,1.03314,76,10
6.25516,0.883559,-1.00055,53,3
14.6656,2.06894,1.81853,28,11
7.03712,0.991511,-0.872585,33,4
7.94132,1.11608,-0.701604,30,5
17.0793,2.40034,3.35251,15,13
10.813,1.51775,-0.572241,57,6
17.419,2.44188,4.06082,25,14
12.1477,1.70076,-0.214106,100,7
17.0948,2.39035,4.6251,5,15
11.7957,1.6326,0.207858,100,8
0.561742,0.0776485,-0.130922,14,1
0.705983,0.0973355,-0.138527,24,2
11.9413,1.64425,1.05458,58,10
6.27206,0.862512,-1.00275,56,3
15.3964,2.11726,1.90823,20,11
7.04644,0.96775,-0.873316,32,4
16.7015,2.29079,2.67002,16,12
7.91951,1.08484,-0.699338,28,5
17.1055,2.34013,3.35595,10,13
11.335,1.54867,-0.599561,67,6
17.229,2.35089,4.01448,33,14
14.755,2.01332,-0.259936,41,7
17.0954,2.32962,4.62303,15,15
12.3883,1.66836,0.21819,35,8
0.560092,0.0753292,-0.130472,14,1
11.8848,1.59633,0.62845,35,9
0.681023,0.0914728,-0.133566,26,2
11.6646,1.56468,1.02966,82,10
6.25545,0.837988,-0.999616,47,3
12.195,1.63149,1.51069,59,11
7.05781,0.94297,-0.874291,34,4
16.4846,2.19951,2.63404,55,12
7.88788,1.05107,-0.6962,25,5
11.5264,1.53386,-0.6094,50,6
17.1675,2.28149,3.99828,41,14
12.0426,1.59826,-0.212047,48,7
17.1172,2.26873,4.62665,16,15
12.2731,1.60924,0.216061,88,8
0.525571,0.0688198,-0.122373,15,1
12.1002,1.58229,0.639545,66,9
0.673567,0.0879594,-0.13204,26,2
11.7394,1.53093,1.03576,23,10
6.26436,0.815822,-1.00055,53,3
12.114,1.57763,1.49997,84,11
7.08468,0.921398,-0.877216,34,4
16.359,2.12465,2.61277,35,12
7.87965,1.02199,-0.695154,25,5
16.9661,2.19749,3.32542,42,13
11.9697,1.54822,-0.632532,68,6
17.0849,2.20682,3.97713,33,14
12.0778,1.56006,-0.21257,36,7
17.0963,2.20525,4.61889,16,15
12.2565,1.56574,0.215677,75,8
0.545127,0.0695424,-0.126872,15,1
12.0816,1.53913,0.638289,70,9
0.710843,0.0905569,-0.139291,36,2
11.6236,1.4787,1.02513,12,10
6.27865,0.797633,-1.00243,53,3
11.8159,1.49898,1.46243,28,11
7.08376,0.897398,-0.876728,30,4
16.3189,2.06446,2.60526,26,12
7.88102,0.995607,-0.69498,30,5
16.8151,2.12425,3.29451,34,13
12.0716,1.52286,-0.637661,78,6
16.533,2.08274,3.84711,55,14
12.0353,1.51401,-0.211733,42,7
17.1322,2.15215,4.62665,34,15
12.0079,1.49141,0.211209,31,8
0.553102,0.0685984,-0.128672,14,1
11.7579,1.45619,0.620914,60,9
0.715067,0.088433,-0.140054,23,2
12.0758,1.49128,1.06452,45,10
6.27957,0.774372,-1.00212,53,3
12.0673,1.48809,1.4929,100,11
7.07503,0.871215,-0.875266,34,4
16.5005,2.02893,2.63311,32,12
7.91015,0.971245,-0.697246,30,5
16.9767,2.08148,3.32466,25,13
12.0771,1.47861,-0.637661,81,6
16.5908,2.02828,3.85881,21,14
12.2192,1.49383,-0.214874,100,7
12.0967,1.45743,0.212675,15,8
0.526263,0.0633122,-0.122373,15,1
12.0071,1.44239,0.633788,28,9
0.69198,0.0831263,-0.135474,37,2
11.9049,1.428,1.04901,54,10
6.27831,0.751979,-1.00149,41,3
12.114,1.44881,1.49802,17,11
7.07029,0.844331,-0.874291,32,4
16.4843,1.96564,2.62935,22,12
7.94729,0.946253,-0.700209,26,5
17.3368,2.06422,3.39373,31,13
11.8422,1.40791,-0.624996,37,6
16.9674,2.01424,3.94474,22,14
12.582,1.49141,-0.221157,31,7
17.7419,2.09989,4.78712,18,15
12.0103,1.40452,0.211069,62,8
0.580677,0.0678029,-0.134971,14,1
11.9942,1.39838,0.632846,44,9
0.67473,0.0785466,-0.13204,26,2
6.32419,0.733971,-1.00838,52,3
11.8942,1.38042,1.47023,100,11
7.10672,0.823536,-0.878434,38,4
16.5813,1.91852,2.64374,28,12
7.95055,0.918504,-0.700209,28,5
17.4612,2.01417,3.41663,30,13
11.7422,1.35238,-0.619448,47,6
16.9999,1.95493,3.95059,2,14
12.6666,1.45661,-0.222553,100,7
16.7646,1.92491,4.52157,30,15
13.8176,1.56455,0.242728,26,8
0.549939,0.0621717,-0.127772,14,1
11.9851,1.35494,0.632114,64,9
0.690607,0.0779523,-0.135093,25,2
15.7161,1.77117,1.38368,15,10
6.30512,0.709463,-1.00494,42,3
11.6684,1.31089,1.44171,70,11
7.11166,0.797699,-0.878678,34,4
16.5702,1.85865,2.64093,15,12
7.96559,0.892078,-0.701255,28,5
17.7023,1.97938,3.46242,15,13
11.596,1.29454,-0.611493,16,6
16.9485,1.8891,3.93709,16,14
12.2344,1.36366,-0.214874,100,7
16.9632,1.88774,4.57333,11,15
14.5105,1.59429,0.254805,50,8
0.557891,0.0611977,-0.129572,14,1
12.1784,1.33375,0.642058,41,9
0.694778,0.0759681,-0.135856,25,2
11.8303,1.29145,1.04116,42,10
6.32118,0.690052,-1.00713,56,3
11.8148,1.28767,1.45926,42,11
7.12413,0.77519,-0.879897,38,4
7.99638,0.867273,-0.703695,31,5
16.6977,1.811,3.26474,13,13
11.5942,1.25544,-0.611179,40,6
16.912,1.82827,3.9272,26,14
12.3385,1.33167,-0.216619,23,7
17.7687,1.91461,4.78867,10,15
14.5557,1.54785,0.255503,49,8
0.55035,0.0584269,-0.127772,14,1
12.6537,1.34112,0.666865,44,9
0.695039,0.0735422,-0.135856,25,2
12.0088,1.27066,1.0565,22,10
6.32748,0.668396,-1.00775,46,3
11.9673,1.26204,1.47754,3,11
7.12087,0.749692,-0.879166,34,4
16.7753,1.76316,2.67159,30,12
8.05088,0.844763,-0.708228,31,5
16.878,1.768,3.29871,29,13
11.4756,1.20006,-0.60469,57,6
20.2578,2.11846,4.70238,15,14
12.1243,1.26576,-0.21278,100,7
18.0481,1.88102,4.86217,6,15
12.4288,1.27563,0.218085,15,8
0.546683,0.0560122,-0.126872,15,1
12.4817,1.27664,0.657549,21,9
0.689444,0.0703962,-0.134711,25,2
12.3682,1.26286,1.0877,47,10
6.35347,0.647602,-1.01151,45,3
13.2654,1.34979,1.63719,41,11
7.12752,0.72399,-0.879653,37,4
16.7699,1.70047,2.66971,30,12
8.08762,0.818658,-0.711191,30,5
16.8922,1.70692,3.30023,16,13
11.46,1.15599,-0.603643,37,6
17.1825,1.73322,3.98703,11,14
12.1547,1.22391,-0.213234,100,7
22.0703,2.21848,5.94352,11,15
12.3279,1.21963,0.216235,40,8
0.55852,0.0551571,-0.129572,14,1
0.693593,0.0683742,-0.135474,25,2
12.4203,1.2222,1.09189,36,10
6.35187,0.623927,-1.01088,45,3
11.9722,1.17389,1.47706,3,11
7.13408,0.698247,-0.88014,40,4
16.7623,1.63765,2.66752,31,12
8.10233,0.791586,-0.712237,30,5
17.4178,1.69863,3.40174,48,13
11.0446,1.07515,-0.581557,60,6
17.0452,1.65629,3.95374,74,14
12.1451,1.178,-0.212989,100,7
18.0922,1.75165,4.87046,9,15
12.2863,1.17222,0.215433,67,8
0.566469,0.053946,-0.131371,14,1
0.684056,0.0650236,-0.133566,26,2
12.3948,1.17602,1.08927,22,10
6.35008,0.601376,-1.01025,52,3
11.9545,1.13003,1.47438,28,11
7.13647,0.673341,-0.88014,31,4
16.8859,1.59024,2.68629,37,12
8.12686,0.765352,-0.714154,23,5
11.1139,1.04275,-0.585011,57,6
16.8841,1.58115,3.91505,47,14
12.3423,1.15365,-0.216375,100,7
18.2021,1.69818,4.89841,16,15
12.2465,1.1253,0.214665,33,8
0.55501,0.0509009,-0.128672,14,1
12.0968,1.10728,0.636615,14,9
0.696009,0.0637093,-0.135856,25,2
12.3552,1.12876,1.08544,6,10
6.36001,0.579929,-1.01151,45,3
13.8207,1.25778,1.70398,60,11
7.14867,0.649322,-0.881359,38,4
16.7969,1.52273,2.67128,22,12
8.15131,0.738959,-0.716072,25,5
17.6326,1.59539,3.44143,48,13
11.2507,1.01598,-0.592024,77,6
16.839,1.51766,3.90335,47,14
11.205,1.00791,-0.196374,18,7
17.6576,1.58522,4.75036,18,15
14.1367,1.24924,0.247719,57,8
0.54742,0.0482783,-0.126872,15,1
12.0588,1.06137,0.634417,23,9
0.67667,0.0595578,-0.13204,26,2
16.4873,1.44826,1.44801,25,10
6.3679,0.558241,-1.01244,48,3
16.7695,1.46714,2.0669,17,11
7.11331,0.621085,-0.876728,36,4
16.5935,1.44591,2.63811,15,12
8.19552,0.714135,-0.719732,28,5
17.5207,1.52362,3.41853,10,13
10.3329,0.896749,-0.543561,24,6
11.6448,1.0065,-0.204019,25,7
17.5976,1.51793,4.73277,7,15
14.0733,1.19413,0.246533,15,8
0.547585,0.046367,-0.126872,15,1
12.1279,1.02693,0.637871,75,9
0.674918,0.0570306,-0.131658,40,2
16.7007,1.40827,1.46631,25,10
6.37965,0.536835,-1.01401,52,3
13.839,1.1621,1.7052,54,11
7.1095,0.595752,-0.875997,42,4
16.6533,1.39549,2.64687,25,12
8.23569,0.688675,-0.723044,28,5
17.4418,1.45544,3.40212,25,13
20.0109,1.66278,4.63579,33,14
11.1379,0.92549,-0.195083,100,7
24.0078,1.99069,6.45495,3,15
12.2256,0.996536,0.214106,20,8
0.551621,0.0448667,-0.127772,14,1
12.3345,1.00108,0.648547,25,9
0.680983,0.0551496,-0.132803,26,2
16.9478,1.36954,1.48757,26,10
6.37943,0.515516,-1.0137,48,3
13.821,1.11444,1.70251,15,11
7.09165,0.570583,-0.87356,41,4
16.983,1.36343,2.69849,15,12
8.244,0.660402,-0.723567,20,5
17.3663,1.39116,3.38648,10,13
10.4344,0.834032,-0.548586,52,6
17.8697,1.4252,4.13865,2,14
15.5206,1.23513,-0.271769,48,7
19.5371,1.55134,5.25144,21,15
12.227,0.953702,0.214071,35,8
0.563431,0.0438485,-0.130472,14,1
14.6278,1.13582,0.76892,47,9
0.673333,0.052283,-0.131277,27,2
13.0608,1.01186,1.1461,47,10
6.36543,0.492031,-1.01119,53,3
16.8016,1.29576,2.0691,56,11
7.08371,0.545061,-0.872341,33,4
17.4131,1.33681,2.76607,15,12
8.96329,0.688118,-0.786493,27,5
17.4278,1.33488,3.39755,6,13
10.3695,0.792428,-0.545027,73,6
17.1595,1.30831,3.97309,41,14
10.7413,0.817072,-0.188032,100,7
19.4866,1.47889,5.23643,15,15
10.3697,0.772422,0.181505,10,8
0.5286,0.0392818,-0.122373,15,1
14.6357,1.08505,0.769129,38,9
0.689174,0.0510936,-0.13433,25,2
13.0166,0.962733,1.14191,19,10
6.35726,0.46908,-1.00963,47,3
16.7822,1.23536,2.06617,17,11
7.07369,0.51946,-0.870878,32,4
20.5067,1.50233,3.25665,21,12
9.06896,0.664393,-0.795558,22,5
17.5518,1.28277,3.42082,21,13
10.3702,0.756083,-0.544922,70,6
17.1445,1.24699,3.96859,30,14
11.0533,0.802,-0.193442,55,7
19.6188,1.42006,5.27059,35,15
10.3683,0.735934,0.181435,16,8
0.548172,0.0388129,-0.126872,15,1
11.896,0.840199,0.624996,8,9
0.691307,0.0488261,-0.134711,25,2
18.9664,1.33623,1.66345,14,10
6.39039,0.449103,-1.01463,45,3
17.8993,1.25479,2.20315,19,11
7.0715,0.494487,-0.870391,32,4
20.7267,1.44572,3.29076,33,12
9.11904,0.63447,-0.799741,34,5
17.5248,1.21932,3.41472,10,13
10.3489,0.718218,-0.543666,52,6
17.1916,1.1901,3.97848,30,14
11.7403,0.810669,-0.205415,100,7
19.5157,1.34413,5.2416,17,15
12.1844,0.822107,0.213164,40,8
0.552193,0.0371607,-0.127772,14,1
11.8809,0.797463,0.624054,13,9
0.679728,0.045505,-0.132421,26,2
19.2455,1.28503,1.68751,7,10
6.40381,0.426464,-1.01651,45,3
17.9194,1.19335,2.2051,9,11
7.0712,0.469669,-0.870147,38,4
9.15102,0.604603,-0.802356,40,5
18.9142,1.24634,3.68452,8,13
10.5906,0.696002,-0.556227,56,6
17.2717,1.13205,3.99603,30,14
10.2045,0.668843,-0.178503,35,7
20.1661,1.31822,5.41501,16,15
10.2516,0.653956,0.179306,31,8
0.567884,0.0361265,-0.131371,14,1
11.8798,0.753661,0.623845,43,9
0.68772,0.0436294,-0.133948,26,2
19.2876,1.22023,1.69082,7,10
6.41512,0.404731,-1.01808,46,3
17.9356,1.12842,2.20657,38,11
7.07684,0.443996,-0.870635,38,4
20.7798,1.30008,3.29764,21,12
9.20686,0.57441,-0.807062,24,5
22.5591,1.40745,4.39357,5,13
10.3398,0.643277,-0.542933,38,6
17.3066,1.07368,4.00323,11,14
10.155,0.628224,-0.177596,23,7
19.7041,1.21551,5.28974,13,15
10.2339,0.616966,0.178957,27,8
0.529102,0.0318052,-0.122373,15,1
0.683956,0.0408741,-0.133185,26,2
19.3556,1.15333,1.6964,10,10
6.41262,0.38098,-1.01745,41,3
17.8106,1.05815,2.19072,50,11
7.06447,0.41847,-0.868928,46,4
17.8461,1.054,2.83146,19,12
9.23666,0.543906,-0.809502,40,5
22.717,1.33372,4.42333,12,13
10.9961,0.643658,-0.577266,84,6
17.4174,1.01649,4.02797,2,14
11.5446,0.673745,-0.201855,26,7
19.6157,1.14134,5.2649,22,15
13.4125,0.75927,0.234491,16,8
0.529215,0.0298658,-0.122373,15,1
11.9287,0.6711,0.626147,6,9
0.688014,0.0387071,-0.133948,26,2
