x, y, z, intensity, ring
7.68332,-12.9918,-0.263462,26,7
15.2312,-25.7648,8.01977,11,15
7.4558,-12.6524,0.256341,25,8
0.270014,-0.458392,-0.122823,15,1
7.17588,-12.1822,0.740973,36,9
0.294855,-0.500764,-0.112959,16,2
7.38153,-12.5414,1.27317,30,10
0.360608,-0.612924,-0.112633,35,3
14.0884,-23.9556,3.41234,21,11
4.8122,-8.18256,-1.16556,11,4
14.3547,-24.4181,4.48623,21,12
2.94951,-5.01929,-0.509338,51,5
14.9283,-25.4142,5.72923,30,13
7.39348,-12.5918,-0.765256,29,6
14.1939,-24.1736,6.47184,45,14
7.63007,-12.9999,-0.263112,83,7
7.42288,-12.6926,0.256655,63,8
0.268492,-0.459285,-0.122823,15,1
7.04968,-12.0641,0.732285,40,9
0.309041,-0.52886,-0.119065,15,2
7.28664,-12.4746,1.26393,35,10
0.358573,-0.614116,-0.112633,35,3
15.3318,-26.2687,3.73456,12,11
5.3418,-9.15606,-1.30156,41,4
7.30137,-12.5199,2.29552,17,12
14.8865,-25.5365,5.74564,21,13
14.5716,-25.0065,-1.5168,15,6
14.0329,-24.0916,6.43675,45,14
6.01399,-10.3289,-0.208626,77,7
14.4656,-24.8544,7.70556,5,15
7.41165,-12.7755,0.257807,37,8
0.266887,-0.460219,-0.122823,15,1
6.89033,-11.8864,0.720038,42,9
0.319008,-0.550318,-0.123644,14,2
7.25804,-12.5258,1.26655,46,10
0.358408,-0.618783,-0.113259,46,3
22.3994,-38.6877,5.489,39,11
5.2939,-9.14717,-1.29766,34,4
5.76571,-9.9664,-1.00735,22,5
14.7343,-25.4795,5.72122,34,13
14.976,-25.9079,-1.5683,16,6
13.9585,-24.1573,6.44125,45,14
5.9849,-10.362,-0.20887,96,7
15.6152,-27.0462,8.36814,6,15
0.265279,-0.461148,-0.122823,15,1
0.289683,-0.503774,-0.112959,16,2
7.21625,-12.5545,1.2669,33,10
0.363134,-0.63202,-0.115449,44,3
14.4164,-25.1013,3.5542,11,11
5.26194,-9.16559,-1.29766,17,4
5.81638,-10.1396,-1.02269,22,5
14.6854,-25.6006,5.73686,21,13
14.8348,-25.8717,-1.56296,32,6
13.845,-24.1552,6.42775,45,14
5.93378,-10.3568,-0.208347,21,7
14.4963,-25.3119,7.81582,22,15
13.7672,-24.1169,0.484723,16,8
0.263668,-0.462071,-0.122823,15,1
6.87546,-12.054,0.727261,12,9
0.287834,-0.504832,-0.112959,16,2
14.1677,-24.8588,2.50329,35,10
0.354948,-0.623048,-0.113571,34,3
13.8757,-24.3563,3.44183,43,11
5.21517,-9.15802,-1.29401,26,4
5.81249,-10.2152,-1.02826,24,5
13.9528,-24.5314,5.48576,40,13
9.28401,-16.3295,-0.984439,7,6
13.8065,-24.2939,6.45115,9,14
5.89166,-10.367,-0.208137,20,7
14.5032,-25.5303,7.86758,22,15
13.6945,-24.195,0.485282,16,8
0.261972,-0.463035,-0.122823,15,1
0.324729,-0.57419,-0.128224,14,2
14.1505,-25.0313,2.51566,29,10
0.344997,-0.610525,-0.111068,48,3
13.6702,-24.2013,3.41283,21,11
3.97915,-7.04746,-0.993723,20,4
24.841,-44.0138,8.00475,12,12
5.7613,-10.2122,-1.02582,24,5
14.033,-24.8741,5.5514,8,13
9.28876,-16.4715,-0.991034,7,6
13.7177,-24.3351,6.44935,36,14
5.8124,-10.3153,-0.206671,23,7
14.4456,-25.6472,7.88725,22,15
14.1894,-25.275,0.505945,16,8
0.260354,-0.463946,-0.122823,15,1
6.6747,-11.899,0.715014,23,9
0.332224,-0.5925,-0.13204,13,2
14.1385,-25.2255,2.52996,29,10
0.342757,-0.611786,-0.111068,60,3
13.6137,-24.2991,3.4199,21,11
3.95355,-7.05957,-0.993479,23,4
13.6728,-24.4245,4.43335,28,12
5.65848,-10.1122,-1.0138,45,5
14.5244,-25.9671,5.78342,17,13
9.12112,-16.3136,-0.97952,29,6
13.7055,-24.523,6.48579,36,14
5.8183,-10.4106,-0.208172,100,7
14.3823,-25.7447,7.90175,11,15
6.13662,-11.0253,0.220249,60,8
0.258652,-0.464897,-0.122823,15,1
0.282444,-0.507868,-0.112959,16,2
14.0717,-25.313,2.53379,7,10
0.342538,-0.616432,-0.111694,48,3
13.6875,-24.6421,3.46109,10,11
3.93247,-7.08269,-0.994698,15,4
13.5443,-24.3944,4.41927,31,12
5.64636,-10.1737,-1.01798,27,5
13.7575,-24.7987,5.51247,20,13
9.42831,-17.0021,-1.01888,18,6
13.6056,-24.5452,6.47904,45,14
5.77611,-10.4204,-0.207963,19,7
14.5152,-26.197,8.02494,17,15
5.95888,-10.79,0.215153,60,8
0.257109,-0.465752,-0.122823,15,1
14.0475,-25.4575,1.52381,11,9
0.280669,-0.508851,-0.112959,16,2
26.056,-47.2588,4.7214,23,10
0.351937,-0.638323,-0.115449,55,3
13.3863,-24.2892,3.40527,31,11
2.85629,-5.18485,-0.726829,8,4
13.7706,-25.0073,4.52158,26,12
5.62234,-10.2143,-1.02007,11,5
13.6515,-24.8012,5.50293,36,13
9.3815,-17.0508,-1.01992,22,6
14.2106,-25.8383,6.80792,10,14
5.72622,-10.4159,-0.207474,100,7
14.3697,-26.1493,7.99492,11,15
5.7329,-10.467,0.208312,56,8
0.254546,-0.464938,-0.122373,15,1
0.27898,-0.509779,-0.112959,16,2
13.6705,-24.9905,2.49213,35,10
0.345916,-0.632615,-0.114197,45,3
13.9031,-25.4367,3.55932,22,11
2.84579,-5.20872,-0.728779,48,4
13.6681,-25.0275,4.51658,29,12
5.52269,-10.1167,-1.00839,29,5
13.6975,-25.0917,5.55674,20,13
7.54154,-13.8207,-0.825129,29,6
14.0457,-25.7509,6.77193,40,14
5.68312,-10.4236,-0.20723,100,7
0.252922,-0.465824,-0.122373,15,1
9.12595,-16.8149,1.00265,27,9
0.27711,-0.510798,-0.112959,16,2
9.11684,-16.8121,1.67322,38,10
0.337006,-0.621722,-0.112007,59,3
13.7527,-25.3716,3.54347,11,11
2.84461,-5.25004,-0.733166,45,4
13.5459,-25.0108,4.505,29,12
5.46647,-10.0974,-1.00456,38,5
13.6176,-25.1642,5.5617,33,13
7.48608,-13.8394,-0.824605,35,6
8.99268,-16.6316,-0.330025,59,7
13.6164,-25.1936,7.67347,5,15
5.77352,-10.7226,0.21257,41,8
0.251212,-0.466747,-0.122373,15,1
9.12008,-16.952,1.00883,11,9
0.276255,-0.513491,-0.113341,16,2
9.05526,-16.8386,1.67269,42,10
0.330157,-0.614195,-0.110443,49,3
13.3111,-24.7731,3.45305,21,11
2.81032,-5.23245,-0.729266,12,4
13.6045,-25.3405,4.55537,19,12
5.60089,-10.4369,-1.03628,11,5
13.4869,-25.132,5.54415,32,13
8.91621,-16.6217,-0.988522,14,6
8.93072,-16.6627,-0.32999,44,7
13.4975,-25.1939,7.65846,10,15
5.78597,-10.8362,0.21442,37,8
0.249582,-0.467621,-0.122373,15,1
12.5073,-23.4438,1.39256,19,9
0.274371,-0.5145,-0.113341,16,2
8.99255,-16.8699,1.67252,49,10
0.337192,-0.632834,-0.113571,46,3
13.3225,-25.0034,3.47864,21,11
2.80884,-5.27377,-0.733654,11,4
13.5076,-25.3721,4.55256,26,12
10.1142,-19.0061,-1.88361,9,5
13.4952,-25.3702,5.58574,20,13
8.56268,-16.1041,-0.955864,3,6
13.5037,-25.4075,6.6428,28,14
8.85467,-16.6602,-0.329327,36,7
14.3313,-26.9759,8.18489,6,15
5.70038,-10.7707,0.21271,60,8
0.247866,-0.468533,-0.122373,15,1
12.4017,-23.4524,1.39036,28,9
0.272574,-0.515455,-0.113341,16,2
5.59386,-10.5828,1.04726,22,10
0.328522,-0.621781,-0.111381,48,3
13.3402,-25.2592,3.5074,22,11
2.79041,-5.28578,-0.733897,29,4
13.0089,-24.6528,4.41489,15,12
5.41538,-10.2625,-1.01519,20,5
13.1849,-24.9969,5.49339,24,13
8.48965,-16.102,-0.95398,14,6
13.4122,-25.4494,6.64146,9,14
5.5315,-10.5003,-0.20716,100,7
0.246229,-0.469395,-0.122373,15,1
12.3346,-23.5239,1.39203,26,9
0.270773,-0.516403,-0.113341,16,2
5.60776,-10.6993,1.05685,49,10
0.330933,-0.631673,-0.112946,47,3
13.2059,-25.2177,3.49521,22,11
2.78575,-5.32187,-0.737553,52,4
12.9338,-24.719,4.41865,15,12
7.383,-14.1104,-1.39327,19,5
13.1231,-25.0915,5.50408,16,13
5.60283,-10.7172,-0.633788,52,6
8.86392,-16.9695,-0.334179,22,7
14.0806,-26.9682,8.15176,6,15
8.61757,-16.5612,0.325871,26,8
0.244589,-0.470252,-0.122373,15,1
8.79477,-16.9162,0.999198,6,9
0.268969,-0.517345,-0.113341,16,2
8.7667,-16.8694,1.66328,24,10
0.321441,-0.618801,-0.110443,36,3
12.2167,-23.5283,3.25513,28,11
2.79277,-5.38089,-0.744378,13,4
13.0384,-25.1322,4.48435,6,12
5.55555,-10.7086,-1.05546,19,5
13.1981,-25.4508,5.57277,16,13
5.56722,-10.7403,-0.633998,29,6
8.59403,-16.5937,-0.326185,81,7
12.6746,-24.4832,7.38721,14,15
8.58904,-16.6481,0.326988,16,8
0.242946,-0.471103,-0.122373,15,1
8.83267,-17.135,1.01029,15,9
0.267161,-0.518281,-0.113341,16,2
12.1053,-23.4938,2.31224,43,10
0.324706,-0.630456,-0.11232,35,3
12.0827,-23.4702,3.24124,57,11
3.98111,-7.73643,-1.06831,15,4
12.1871,-23.6933,4.21998,23,12
5.24656,-10.1999,-1.00351,12,5
13.6505,-26.5496,5.80288,4,13
8.37534,-16.2966,-0.96026,3,6
6.93937,-13.5142,-0.265172,90,7
12.62,-24.5875,7.40533,4,15
8.61739,-16.8471,0.330304,12,8
0.2413,-0.471948,-0.122373,15,1
8.76371,-17.1479,1.00925,15,9
0.26535,-0.51921,-0.113341,16,2
8.76383,-17.1556,1.68542,17,10
0.316215,-0.61927,-0.11013,37,3
11.952,-23.4167,3.22808,47,11
5.10881,-10.0136,-1.38029,13,4
12.8573,-25.2121,4.48247,15,12
5.22993,-10.2555,-1.00717,24,5
8.73731,-17.1479,-1.00862,15,6
6.89397,-13.5419,-0.265242,99,7
12.987,-25.5215,7.67295,10,15
8.50698,-16.7754,0.328315,22,8
0.239651,-0.472788,-0.122373,15,1
8.79046,-17.3495,1.0193,9,9
5.35881,-10.5811,1.03768,29,10
0.326542,-0.645044,-0.11451,22,3
5.22346,-10.3228,1.42051,40,11
3.47095,-6.86239,-0.944244,13,4
12.0027,-23.7407,4.21341,14,12
5.29388,-10.471,-1.02652,36,5
13.649,-27.0087,5.88226,4,13
8.69722,-17.2176,-1.01092,11,6
5.39245,-10.6845,-0.208905,100,7
12.8987,-25.5684,7.67347,5,15
8.46519,-16.8458,0.329083,48,8
0.237917,-0.473663,-0.122373,15,1
8.5431,-17.0156,0.997837,13,9
0.286293,-0.570222,-0.124026,14,2
5.32803,-10.6167,1.03925,59,10
0.320633,-0.639174,-0.113259,34,3
8.36208,-16.6769,2.29066,24,11
3.47602,-6.9354,-0.952531,16,4
8.72237,-17.4106,3.08426,6,12
5.0395,-10.0593,-0.984337,23,5
13.52,-26.9989,5.86929,4,13
5.48009,-10.9483,-0.641639,16,6
13.3828,-26.7482,6.9051,40,14
5.3461,-10.6899,-0.208626,100,7
12.7669,-25.5395,7.65069,5,15
8.39474,-16.852,0.328629,12,8
0.236262,-0.47449,-0.122373,15,1
8.19354,-16.4625,0.963714,33,9
0.291299,-0.585279,-0.127079,14,2
0.304327,-0.611989,-0.108253,25,3
8.37009,-16.8393,2.30894,29,11
3.76093,-7.56971,-1.03784,41,4
11.8852,-23.9322,4.23218,14,12
6.77144,-13.635,-1.33191,5,5
13.4004,-26.9949,5.85822,22,13
5.23234,-10.5451,-0.616936,43,6
11.6572,-23.5039,6.05703,39,14
8.65104,-17.4503,-0.339973,14,7
8.26947,-16.7467,0.326011,10,8
0.234604,-0.475312,-0.122373,15,1
8.37992,-16.9853,0.992604,21,9
0.257984,-0.522909,-0.113341,16,2
5.31987,-10.7876,1.05232,20,10
0.303935,-0.616591,-0.108878,37,3
11.6742,-23.6937,3.24319,19,11
8.52296,-17.3133,3.05642,33,12
5.3845,-10.9379,-1.06661,26,5
11.8031,-23.987,5.19649,18,13
8.22077,-16.7142,-0.97617,14,6
8.64211,-17.5863,-0.342032,29,7
13.6564,-27.8024,8.29981,6,15
8.61272,-17.5963,0.341962,21,8
0.232944,-0.476128,-0.122373,15,1
8.35392,-17.0826,0.996581,13,9
0.287206,-0.587298,-0.127079,14,2
7.94822,-16.2602,1.58345,3,10
0.304383,-0.622973,-0.109817,24,3
11.797,-24.1553,3.30071,9,11
3.74718,-7.67606,-1.04881,30,4
8.45728,-17.3323,3.05454,12,12
5.22309,-10.7042,-1.04203,24,5
8.31975,-17.058,3.6891,9,13
6.91605,-14.1863,-0.827118,16,6
11.6747,-23.9578,6.15286,8,14
5.16206,-10.5979,-0.205764,19,7
6.64233,-13.6915,0.265626,36,8
0.23128,-0.476938,-0.122373,15,1
8.12436,-16.7612,0.97617,34,9
0.254327,-0.524698,-0.113341,16,2
5.02552,-10.3727,1.00839,8,10
0.303928,-0.627587,-0.110443,49,3
8.30832,-17.1636,2.34135,30,11
5.12879,-10.6,-1.44586,15,4
8.42339,-17.4169,3.06424,21,12
5.11196,-10.5699,-1.02722,24,5
8.29861,-17.1665,3.70627,19,13
4.91134,-10.1641,-0.591606,20,6
6.75601,-13.9942,-0.271245,100,7
6.6023,-13.7308,0.26594,30,8
0.229614,-0.477743,-0.122373,15,1
8.11164,-16.8849,0.981718,9,9
0.252494,-0.525582,-0.113341,16,2
5.01084,-10.435,1.01275,44,10
0.306864,-0.63933,-0.11232,35,3
8.21229,-17.1174,2.33112,30,11
4.95185,-10.3261,-1.40613,22,4
8.3984,-17.521,3.07738,18,12
5.04661,-10.5284,-1.02147,27,5
11.3722,-23.7357,5.11597,35,13
4.88187,-10.1938,-0.592338,47,6
11.5197,-24.0651,6.15961,40,14
6.71747,-14.0393,-0.271664,100,7
4.97919,-10.4485,0.202029,58,8
8.2072,-17.2377,1.00056,13,9
0.250658,-0.52646,-0.113341,16,2
4.9898,-10.4849,1.01589,34,10
0.302934,-0.636829,-0.111694,48,3
8.1542,-17.1495,2.3316,20,11
4.94219,-10.3989,-1.41368,23,4
8.34228,-17.5609,3.07926,19,12
5.14234,-10.8249,-1.04848,45,5
11.2775,-23.7504,5.11063,28,13
4.86852,-10.2577,-0.59506,67,6
11.4432,-24.121,6.16366,32,14
6.68985,-14.1078,-0.272537,23,7
4.90853,-10.3935,0.200633,41,8
0.226273,-0.479334,-0.122373,15,1
0.278978,-0.591251,-0.127079,14,2
4.99651,-10.5941,1.02478,17,10
0.29734,-0.630736,-0.110443,49,3
8.08413,-17.1563,2.32868,25,11
4.12684,-8.76205,-1.1892,8,4
8.03272,-17.0627,2.98696,25,12
5.04597,-10.7184,-1.03646,27,5
4.86329,-10.3397,-0.598828,54,6
11.3763,-24.1978,6.17311,41,14
6.65672,-14.1655,-0.2732,100,7
4.88324,-10.4341,0.201087,43,8
0.224599,-0.480121,-0.122373,15,1
7.8794,-16.8513,0.974914,13,9
0.288555,-0.61712,-0.132421,13,2
4.97131,-10.6368,1.02722,46,10
0.290956,-0.622821,-0.108878,50,3
7.72772,-16.5495,2.24264,42,11
4.08952,-8.76201,-1.18725,9,4
8.10756,-17.3788,3.03733,19,12
5.20732,-11.162,-1.07759,26,5
4.79257,-10.2824,-0.594537,64,6
8.01148,-17.1964,4.3798,15,14
6.57937,-14.1288,-0.272048,100,7
11.2377,-24.1434,7.13564,18,15
4.82828,-10.4112,0.200319,41,8
0.222921,-0.480902,-0.122373,15,1
7.85243,-16.9476,0.978892,28,9
0.245131,-0.529056,-0.113341,16,2
4.99611,-10.7878,1.04012,51,10
0.29127,-0.629211,-0.109817,49,3
7.93332,-17.1457,2.31966,20,11
6.25877,-13.5328,-1.83072,8,4
8.08084,-17.4805,3.05016,22,12
4.94594,-10.6991,-1.03123,13,5
7.98045,-17.2713,3.69826,8,13
4.77088,-10.3299,-0.596316,37,6
7.95141,-17.2242,4.3798,34,14
6.46718,-14.0155,-0.26943,23,7
4.80026,-10.4461,0.200668,62,8
0.221241,-0.481677,-0.122373,15,1
7.70239,-16.777,0.967483,24,9
0.243283,-0.529909,-0.113341,16,2
5.0141,-10.9265,1.0518,18,10
0.294013,-0.640997,-0.111694,48,3
4.86288,-10.6068,1.4327,37,11
3.97119,-8.66583,-1.17043,11,4
6.41204,-14.0051,-1.3476,5,5
6.4876,-14.1767,-0.817069,32,6
7.90502,-17.282,4.38745,26,14
6.39909,-13.9962,-0.268627,24,7
6.39367,-14.0426,0.269326,28,8
0.219559,-0.482447,-0.122373,15,1
6.47939,-14.2441,0.820105,39,9
0.241339,-0.530797,-0.113341,16,2
7.87072,-17.3187,1.66433,28,10
0.288393,-0.634876,-0.110443,49,3
4.82746,-10.6273,1.43318,47,11
3.94091,-8.67964,-1.17043,23,4
7.90554,-17.4196,3.02982,24,12
4.8495,-10.6907,-1.02704,11,5
4.6581,-10.2782,-0.591396,37,6
7.78775,-17.1919,4.3573,25,14
4.89467,-10.8053,-0.207055,67,7
6.45148,-14.3084,0.273968,28,8
0.201775,-0.447715,-0.113375,16,1
6.44933,-14.3103,0.822617,46,9
0.239485,-0.531636,-0.113341,16,2
7.83966,-17.4115,1.6706,28,10
0.278879,-0.619667,-0.107627,51,3
4.79499,-10.6594,1.43513,37,11
4.75914,-10.5846,1.83811,44,12
4.79909,-10.6784,-1.02425,24,5
4.58619,-10.2143,-0.586791,20,6
7.81386,-17.411,4.40589,16,14
4.76686,-10.6216,-0.203216,100,7
7.79532,-17.3778,5.10339,4,15
4.67837,-10.4684,0.200144,15,8
0.216185,-0.483968,-0.122373,15,1
6.37735,-14.2835,0.81979,46,9
0.26003,-0.582668,-0.124026,14,2
7.66602,-17.1859,1.64637,37,10
0.282456,-0.633216,-0.109817,49,3
4.76366,-10.6843,1.43635,47,11
7.80973,-17.5245,-2.35573,17,4
4.76155,-10.6896,1.85344,35,12
4.72774,-10.6187,-1.01693,18,5
6.34203,-14.2511,-0.817488,16,6
7.70144,-17.314,4.37485,25,14
4.65501,-10.4701,-0.200005,100,7
7.71892,-17.3696,5.09304,11,15
4.64261,-10.4865,0.200179,20,8
0.214495,-0.484719,-0.122373,15,1
6.34119,-14.3367,0.82157,31,9
0.235767,-0.533295,-0.113341,16,2
4.64756,-10.5126,1.0056,21,10
0.284236,-0.643233,-0.111381,48,3
4.72553,-10.699,1.43611,40,11
7.42623,-16.8216,-2.25775,4,4
4.72421,-10.7062,1.85344,10,12
4.65688,-10.5586,-1.00961,24,5
7.8197,-17.738,3.7681,17,13
6.28654,-14.267,-0.817069,16,6
7.63702,-17.3318,4.3726,15,14
4.7079,-10.6894,-0.203879,100,7
12.8935,-29.2887,8.57468,13,15
6.27239,-14.3093,0.272711,21,8
0.212717,-0.485502,-0.122373,15,1
7.45354,-17.02,0.973763,20,9
0.218066,-0.498186,-0.105708,18,2
7.52109,-17.1824,1.64097,13,10
0.277918,-0.635221,-0.109817,24,3
7.59255,-17.3621,2.32673,20,11
7.94173,-18.1693,-2.43471,21,4
7.62765,-17.459,3.01762,18,12
6.1873,-14.1689,-1.35266,18,5
7.57322,-17.3509,3.67994,7,13
6.22142,-14.2606,-0.815394,16,6
6.28087,-14.4038,-0.274282,48,7
12.7744,-29.3092,8.56691,6,15
6.21512,-14.3211,0.272502,34,8
0.210936,-0.486279,-0.122373,15,1
0.231945,-0.534969,-0.113341,16,2
0.276373,-0.638048,-0.11013,24,3
7.49022,-17.3006,2.31479,40,11
7.61484,-17.5884,-2.3533,55,4
7.52744,-17.3949,3.00198,37,12
6.12989,-14.1721,-1.35091,13,5
7.49469,-17.3358,3.67117,49,13
6.18824,-14.3208,-0.817592,6,6
4.50919,-10.4401,-0.198504,37,7
12.6759,-29.3625,8.5695,13,15
6.16918,-14.3453,0.272572,46,8
9.84961,-22.9146,1.30714,22,9
0.23017,-0.535735,-0.113341,16,2
0.272697,-0.635331,-0.109504,25,3
7.48994,-17.4585,2.33258,30,11
7.55882,-17.619,-2.35403,35,4
7.50319,-17.4978,3.01543,18,12
6.07737,-14.1796,-1.34969,18,5
7.37067,-17.2054,3.63835,34,13
6.14622,-14.3541,-0.818325,6,6
4.71845,-11.0249,-0.209324,100,7
12.602,-29.4595,8.58555,6,15
6.12628,-14.3768,0.272781,15,8
0.207706,-0.487667,-0.122373,15,1
9.59276,-22.5335,1.28349,10,9
0.228392,-0.536495,-0.113341,16,2
4.44963,-10.4573,0.994273,36,10
0.269816,-0.634414,-0.109191,25,3
7.45608,-17.5399,2.34014,30,11
11.526,-27.1404,4.6702,16,12
4.58251,-10.7905,-1.02565,11,5
7.40102,-17.4357,3.68185,12,13
7.61037,-17.9376,-1.02118,3,6
7.4095,-17.4726,4.3816,13,14
4.69476,-11.0763,-0.209987,20,7
12.4697,-29.4339,8.56536,13,15
7.5735,-17.9464,0.340008,12,8
0.206002,-0.488389,-0.122373,15,1
7.08859,-16.8138,0.956283,19,9
0.226518,-0.537289,-0.113341,16,2
7.73066,-18.3457,1.74172,29,10
0.275267,-0.653557,-0.11232,23,3
7.23692,-17.1907,2.29017,34,11
5.718,-13.5893,-1.81025,20,4
11.4909,-27.3225,4.6946,3,12
5.98303,-14.2261,-1.35022,15,5
7.3812,-17.5592,3.70246,13,13
7.51521,-17.8867,-1.01678,18,6
7.39676,-17.6134,4.41039,16,14
4.63672,-11.0465,-0.209115,100,7
13.248,-31.5775,9.17565,7,15
7.49847,-17.9433,0.339449,10,8
0.204296,-0.489105,-0.122373,15,1
6.89982,-16.5269,0.938593,22,9
0.224547,-0.538116,-0.113341,16,2
4.34812,-10.4201,0.987823,46,10
0.260818,-0.625343,-0.107314,26,3
7.20818,-17.291,2.30016,48,11
3.65412,-8.76982,-1.16653,6,4
7.26259,-17.4387,2.99197,16,12
5.92625,-14.2369,-1.34917,13,5
7.2723,-17.4792,3.67994,18,13
7.4312,-17.8699,-1.01427,30,6
7.31203,-17.5833,4.39644,32,14
4.5943,-11.0534,-0.20894,87,7
12.1787,-29.3151,8.50583,6,15
7.16821,-17.3312,0.327372,14,8
6.79877,-16.4543,0.933046,13,9
0.222573,-0.538935,-0.113341,16,2
4.30306,-10.4194,0.986254,46,10
0.263046,-0.63725,-0.109191,25,3
7.11599,-17.2476,2.2909,43,11
4.42641,-10.734,-1.42563,16,4
7.21669,-17.509,2.99948,16,12
9.21328,-22.3642,-2.11614,23,5
7.14614,-17.355,3.64827,12,13
4.65655,-11.3145,-0.64122,42,6
7.2149,-17.5307,4.37665,12,14
7.40118,-17.9922,-0.339589,79,7
11.4989,-27.9676,8.10259,12,15
8.38179,-20.4776,0.386222,15,8
0.200705,-0.49059,-0.122373,15,1
7.18744,-17.5772,0.995221,3,9
4.27087,-10.4498,0.987649,14,10
0.259215,-0.634553,-0.108566,25,3
7.02421,-17.2037,2.28164,48,11
3.60624,-8.83681,-1.1719,41,4
7.18753,-17.6213,3.01418,12,12
7.28845,-17.8776,-1.68908,3,5
8.92793,-21.91,4.59888,13,13
4.64067,-11.3943,-0.644779,58,6
12.0108,-29.4903,7.3514,43,14
7.33443,-18.0174,-0.339554,58,7
11.5208,-28.3156,8.1911,6,15
7.10854,-17.5501,0.330514,20,8
0.198906,-0.491322,-0.122373,15,1
6.99423,-17.2939,1.63208,43,10
0.258368,-0.639161,-0.109191,50,3
7.00721,-17.3435,2.29675,39,11
3.56193,-8.82052,-1.168,26,4
7.14138,-17.6933,3.022,37,12
7.66862,-19.0092,-1.79332,17,5
7.05985,-17.5089,3.66964,18,13
4.60709,-11.4316,-0.64593,16,6
11.8895,-29.5016,7.3433,10,14
6.52119,-16.1893,-0.304649,22,7
11.4307,-28.3917,8.20094,12,15
7.24165,-18.0506,0.339484,31,8
0.197276,-0.491979,-0.122373,15,1
0.216918,-0.541236,-0.113341,16,2
6.94129,-17.3281,1.63312,37,10
0.254778,-0.636347,-0.108566,38,3
6.9091,-17.2652,2.28334,24,11
4.3163,-10.7915,-1.42709,28,4
7.06067,-17.6619,3.01262,39,12
8.09108,-20.2394,-1.90697,14,5
7.02083,-17.5711,3.67803,12,13
2.61484,-6.5475,-0.369492,7,6
11.5583,-28.9563,7.19798,31,14
6.83945,-17.1432,-0.322171,82,7
11.2677,-28.2572,8.15125,12,15
6.65309,-16.7525,0.314632,24,8
0.195557,-0.492664,-0.122373,15,1
0.215027,-0.54199,-0.113341,16,2
6.89985,-17.4004,1.63766,30,10
0.262017,-0.661106,-0.112633,47,3
7.26697,-18.3449,2.42276,20,11
3.51715,-8.88332,-1.17311,15,4
6.99098,-17.6662,3.00917,25,12
6.73228,-17.0125,-1.6007,6,5
8.80005,-22.2491,4.65078,25,13
2.58462,-6.53801,-0.368445,87,6
11.2494,-28.4709,7.06751,10,14
6.72374,-17.0256,-0.319519,7,7
11.2705,-28.5533,8.22527,25,15
6.57555,-16.7272,0.313724,28,8
6.53469,-16.6404,0.936918,33,9
0.213134,-0.542737,-0.113341,16,2
6.74298,-17.1796,1.61465,37,10
0.251772,-0.641788,-0.109191,50,3
7.20941,-18.3868,2.42496,30,11
3.49844,-8.92696,-1.17726,41,4
8.77001,-22.3899,3.80855,16,12
5.35014,-13.666,-1.28398,10,5
8.57132,-21.8939,4.57026,33,13
2.5727,-6.57489,-0.370015,49,6
11.1408,-28.4864,7.06166,41,14
6.69194,-17.1198,-0.320845,90,7
11.1918,-28.6464,8.2408,25,15
6.49174,-16.6849,0.312503,7,8
6.52649,-16.7915,0.944141,7,9
0.211143,-0.543515,-0.113341,16,2
6.68862,-17.2265,1.61674,27,10
0.250133,-0.644548,-0.109504,50,3
8.08744,-20.8399,2.74474,34,11
2.4522,-6.32216,-0.832611,6,4
8.7168,-22.4849,3.8195,9,12
5.31392,-13.7143,-1.28677,28,5
8.36623,-21.603,4.50309,28,13
2.53489,-6.54889,-0.368026,45,6
11.0405,-28.5379,7.06436,41,14
6.69924,-17.3165,-0.324091,82,7
11.1092,-28.7304,8.25374,25,15
6.488,-16.8578,0.315295,28,8
0.190301,-0.494718,-0.122373,15,1
6.4477,-16.7706,0.941629,13,9
0.209245,-0.544249,-0.113341,16,2
6.71493,-17.4747,1.63783,43,10
0.252131,-0.656482,-0.111381,48,3
7.21922,-18.8067,2.47346,26,11
2.70633,-7.05392,-0.92767,30,4
8.59401,-22.4115,3.80167,19,12
5.27529,-13.757,-1.28903,18,5
8.43129,-21.9987,4.57942,27,13
10.9248,-28.5344,7.05402,41,14
2.35198,-6.14636,-0.114872,29,7
11.0321,-28.8449,8.27496,25,15
6.43197,-16.8879,0.315435,33,8
0.188573,-0.49538,-0.122373,15,1
7.17747,-18.865,1.05781,17,9
0.207344,-0.544976,-0.113341,16,2
6.24173,-16.4142,1.53638,58,10
0.248435,-0.653665,-0.110756,49,3
6.58254,-17.3287,2.27603,4,11
2.56191,-6.74783,-0.886234,9,4
7.04119,-18.5556,3.14339,17,12
5.24562,-13.8237,-1.29357,28,5
7.10616,-18.7366,3.89518,19,13
2.53583,-6.68968,-0.374935,17,6
10.8493,-28.6362,7.06976,31,14
2.33405,-6.16388,-0.115046,64,7
0.186843,-0.496035,-0.122373,15,1
7.54223,-20.0339,1.12187,6,9
6.18721,-16.4434,1.53708,58,10
0.244761,-0.65083,-0.11013,49,3
6.52202,-17.3515,2.27603,9,11
7.75395,-20.64,-2.70721,6,4
6.32297,-16.8398,2.84898,27,12
5.19663,-13.8401,-1.29339,13,5
8.48652,-22.614,4.69505,14,13
2.51597,-6.70785,-0.375458,38,6
10.7219,-28.6009,7.05177,10,14
2.3034,-6.14765,-0.114593,29,7
10.5181,-28.0872,8.03633,11,15
6.21889,-16.6775,0.310688,43,8
0.203534,-0.54641,-0.113341,16,2
6.12769,-16.4593,1.53656,39,10
0.239732,-0.644275,-0.108878,37,3
7.84254,-21.0879,2.76253,7,11
2.44834,-6.58692,-0.862835,23,4
8.12015,-21.8578,3.69311,18,12
2.45272,-6.60222,-0.616191,25,5
6.90138,-18.587,3.85396,24,13
2.49463,-6.72221,-0.375772,17,6
10.9324,-29.475,7.25782,10,14
2.28332,-6.1594,-0.114662,29,7
10.4254,-28.1382,8.04047,11,15
6.1551,-16.6841,0.310409,37,8
6.16941,-16.7409,0.935034,15,9
0.201625,-0.547117,-0.113341,16,2
6.31741,-17.1517,1.59913,33,10
0.234752,-0.637693,-0.107627,25,3
6.41649,-17.4395,2.28164,39,11
2.42534,-6.59543,-0.862835,47,4
6.21412,-16.9077,2.85305,15,12
2.51076,-6.83142,-0.63676,12,5
8.37582,-22.8016,4.72176,14,13
2.47115,-6.73087,-0.375772,17,6
6.87546,-18.7374,4.6079,29,14
6.24217,-17.0207,-0.316447,22,7
10.3417,-28.2143,8.05186,17,15
6.11397,-16.7525,0.311281,22,8
0.181638,-0.497964,-0.122373,15,1
7.37991,-20.2432,1.1292,7,9
6.14018,-16.8517,1.56915,27,10
0.231172,-0.634796,-0.107001,26,3
6.23472,-17.1298,2.23825,28,11
6.15911,-16.9404,2.85493,17,12
2.43516,-6.69783,-0.623512,25,5
8.24656,-22.6942,4.69352,14,13
2.46536,-6.78827,-0.378494,10,6
6.75748,-18.6166,4.57235,45,14
6.26183,-17.2605,-0.320496,75,7
10.1958,-28.1195,8.01459,23,15
6.03168,-16.7079,0.310059,46,8
0.197801,-0.548511,-0.113341,16,2
6.02322,-16.7118,1.55416,35,10
0.229625,-0.637458,-0.107314,26,3
6.05587,-16.8208,2.19511,28,11
6.4777,-18.0024,-2.34915,20,4
6.1457,-17.0797,2.87495,30,12
2.38547,-6.63317,-0.616714,48,5
6.58948,-18.3331,3.7868,9,13
7.57749,-21.0935,-1.17463,4,6
6.61804,-18.4328,4.52152,37,14
2.27451,-6.33503,-0.11749,18,7
6.61361,-18.4306,5.24678,21,15
6.06909,-16.9877,0.314876,13,8
6.10467,-17.125,1.59059,40,10
0.231489,-0.64938,-0.109191,25,3
5.99273,-16.8202,2.19243,42,11
2.4119,-6.7734,-0.882822,12,4
5.83238,-16.3883,2.75512,12,12
2.34895,-6.60391,-0.613228,42,5
6.53984,-18.3863,3.79328,17,13
6.05711,-17.0386,-0.9477,10,6
6.55819,-18.4583,4.52242,37,14
2.19483,-6.18087,-0.114488,41,7
6.54601,-18.4444,5.24419,19,15
6.07504,-17.1935,0.318297,26,8
6.02641,-17.0749,0.948956,24,9
5.94843,-16.8633,1.56445,61,10
0.22528,-0.639006,-0.107314,26,3
6.01578,-17.0732,2.22265,38,11
7.43308,-21.1074,-2.74767,13,4
6.04992,-17.1893,2.88622,15,12
2.33101,-6.62294,-0.614274,51,5
6.46259,-18.372,3.78565,30,13
5.89029,-16.7544,-0.930743,17,6
6.51568,-18.5436,4.53771,20,14
2.1865,-6.22623,-0.115186,52,7
6.01961,-17.2278,0.318541,20,8
0.174755,-0.500421,-0.122373,15,1
6.97374,-19.9809,1.1091,8,9
5.83704,-16.7335,1.5505,39,10
0.219147,-0.628597,-0.105437,26,3
5.96725,-17.126,2.2268,28,11
2.39393,-6.87443,-0.89379,24,4
5.95742,-17.117,2.87057,23,12
2.30526,-6.62351,-0.613576,42,5
5.81471,-16.7258,-0.928021,14,6
6.45411,-18.5754,4.53996,37,14
2.21067,-6.36606,-0.117629,73,7
6.45002,-18.5846,5.27111,20,15
5.81446,-16.8292,0.310792,9,8
5.97157,-17.3034,0.959318,13,9
0.190219,-0.551187,-0.113341,16,2
5.74806,-16.6652,1.54231,58,10
0.213732,-0.62002,-0.103873,27,3
5.84342,-16.9609,2.20267,47,11
2.35699,-6.84521,-0.888915,65,4
5.90342,-17.1545,2.87339,12,12
2.28147,-6.62964,-0.613402,28,5
5.76668,-16.7762,-0.929696,17,6
6.3715,-18.5462,4.52737,37,14
2.19168,-6.38319,-0.117804,67,7
7.71694,-22.4881,6.37057,13,15
5.75374,-16.8437,0.310688,46,8
6.33423,-18.5642,1.02798,11,9
5.75159,-16.8662,1.55904,58,10
0.217939,-0.63946,-0.107001,26,3
5.81682,-17.077,2.2151,23,11
2.335,-6.85903,-0.889646,29,4
6.0891,-17.8969,2.99416,7,12
2.27564,-6.68849,-0.618109,6,5
5.96394,-17.539,3.60095,37,13
5.71195,-16.8076,-0.930324,7,6
6.2967,-18.5388,4.52017,37,14
2.15782,-6.35672,-0.117175,67,7
7.66756,-22.6009,6.3949,35,15
5.67252,-16.7973,0.309466,56,8
0.170128,-0.50407,-0.122823,15,1
6.27258,-18.5956,1.02851,5,9
5.78433,-17.1581,1.58414,37,10
0.213814,-0.634601,-0.106063,26,3
5.7008,-16.9298,2.1934,47,11
2.09957,-6.23875,-0.808238,36,4
5.98629,-17.7982,2.97413,24,12
6.7635,-20.1206,-1.85711,4,5
5.63369,-16.7595,3.43685,15,13
2.13841,-6.36518,-0.351907,43,6
5.6371,-16.7891,4.08871,23,14
2.14134,-6.38128,-0.11749,100,7
7.56098,-22.5451,6.37161,16,15
5.68033,-17.0162,0.313131,18,8
8.6121,-25.8287,1.42689,7,9
5.72518,-17.1905,1.58519,37,10
0.209615,-0.629758,-0.105124,13,3
5.61972,-16.8837,2.18487,32,11
2.08029,-6.25357,-0.809213,41,4
5.66238,-17.0317,2.84273,15,12
2.20134,-6.62519,-0.610787,13,5
2.11758,-6.38056,-0.352326,37,6
6.64548,-20.0354,4.87334,17,14
7.08591,-21.3757,6.03411,17,15
5.57785,-16.9154,0.310897,22,8
0.166517,-0.505275,-0.122823,15,1
6.60421,-20.0514,1.10638,15,9
0.181794,-0.551956,-0.112959,16,2
5.72556,-17.3939,1.6021,23,10
0.204946,-0.62298,-0.103873,13,3
5.68801,-17.3002,2.23606,52,11
2.16828,-6.59873,-0.852842,19,4
5.58944,-17.0204,2.83741,15,12
5.50076,-16.7602,3.42884,20,13
2.16377,-6.59667,-0.36384,40,6
5.6704,-17.2975,4.20254,42,14
5.49867,-16.7835,-0.308279,53,7
7.02315,-21.4493,6.04757,24,15
5.56958,-17.0906,0.313759,18,8
5.89807,-18.1201,0.998675,23,9
0.17977,-0.552618,-0.112959,16,2
6.95848,-21.4033,1.96902,23,10
0.203882,-0.627484,-0.104498,13,3
5.59446,-17.218,2.2229,52,11
2.11825,-6.52319,-0.842117,65,4
5.77878,-17.8064,2.96506,18,12
2.10224,-6.48157,-0.596145,46,5
5.51981,-17.0287,3.47959,34,13
2.04664,-6.31765,-0.348034,67,6
5.60516,-17.3126,4.20119,18,14
2.0973,-6.47791,-0.118851,56,7
6.83761,-21.1318,5.95129,27,15
8.80651,-27.3634,0.501757,3,8
8.74162,-27.1943,1.49702,13,9
0.17784,-0.553243,-0.112959,16,2
5.44129,-16.9375,1.55643,16,10
0.206521,-0.643238,-0.107001,13,3
6.81164,-21.2285,2.73743,13,11
5.72373,-17.8594,2.97038,34,12
2.07474,-6.47369,-0.594751,61,5
5.46752,-17.0703,3.48417,27,13
2.02274,-6.31905,-0.34772,84,6
5.47819,-17.1242,4.1508,43,14
2.05649,-6.43222,-0.117874,67,7
6.77834,-21.2138,5.96733,25,15
8.77759,-27.6036,0.505596,3,8
8.65389,-27.2475,1.49827,10,9
0.175908,-0.55386,-0.112959,16,2
5.39118,-16.9849,1.55904,39,10
0.201886,-0.636424,-0.10575,13,3
5.65348,-17.8328,2.29699,29,11
5.64227,-17.8191,2.96037,24,12
6.59433,-20.8384,4.24855,13,13
2.05488,-6.49745,-0.357141,40,6
5.46537,-17.2918,4.18679,36,14
2.04186,-6.46415,-0.118327,98,7
6.75136,-21.3865,6.00926,14,15
8.6692,-27.5959,0.504898,16,8
5.75983,-18.3572,1.0083,34,9
5.39028,-17.1899,1.57612,37,10
0.196118,-0.625815,-0.103873,13,3
5.39897,-17.2387,2.21802,23,11
1.8625,-5.95051,-0.765583,44,4
6.54366,-20.9192,3.47159,16,12
2.01938,-6.4557,-0.591788,47,5
6.46121,-20.6683,4.20925,29,13
2.06256,-6.60181,-0.362479,43,6
5.41427,-17.3406,4.19399,33,14
2.02226,-6.48078,-0.118502,31,7
5.41886,-17.3766,4.87719,1,15
2.00912,-6.4744,0.118327,41,8
8.54742,-27.5782,1.51314,22,9
5.39273,-17.4103,1.5946,27,10
0.193933,-0.626495,-0.103873,13,3
5.33583,-17.2479,2.2168,42,11
1.84347,-5.96266,-0.766314,46,4
6.39537,-20.6985,3.43123,20,12
1.98742,-6.43225,-0.588998,25,5
6.3896,-20.6926,4.20963,36,13
1.97766,-6.40859,-0.351488,40,6
5.36691,-17.4022,4.20434,39,14
2.02142,-6.55851,-0.119793,56,7
8.91417,-28.94,8.11398,12,15
0.155721,-0.508706,-0.122823,15,1
5.63914,-18.4218,1.00967,15,9
0.170001,-0.555701,-0.112959,16,2
6.77119,-22.1476,2.0262,19,10
0.189326,-0.619645,-0.102621,14,3
5.24707,-17.1838,2.20608,47,11
1.83609,-6.01684,-0.772408,55,4
6.31789,-20.7037,3.42842,28,12
1.96383,-6.43949,-0.588998,31,5
1.94019,-6.36994,-0.348976,54,6
5.30934,-17.4422,4.20928,36,14
1.95309,-6.41631,-0.117071,61,7
6.36229,-20.9145,5.85759,10,15
8.72386,-28.8221,0.525632,21,8
5.57595,-18.4452,1.00987,28,9
0.16806,-0.556291,-0.112959,16,2
5.24094,-17.3588,1.58641,37,10
0.194122,-0.642963,-0.106375,13,3
5.24396,-17.3798,2.22899,47,11
1.77028,-5.87085,-0.752909,47,4
6.44279,-21.38,3.53667,18,12
1.93732,-6.43295,-0.587778,53,5
6.31009,-20.9529,4.25351,2,13
1.92021,-6.38016,-0.349186,27,6
1.91745,-6.37904,-0.116268,66,7
6.28536,-20.9237,5.85397,21,15
7.88451,-26.3808,0.480604,16,8
5.50354,-18.4377,1.00841,13,9
8.67175,-29.0703,2.65407,23,10
0.190748,-0.63985,-0.10575,13,3
5.14755,-17.2781,2.21363,52,11
1.79396,-6.0254,-0.77192,42,4
8.81081,-29.6119,4.89327,11,12
1.87056,-6.29071,-0.574182,28,5
6.23188,-20.9579,4.25008,22,13
6.78612,-22.8363,-1.24853,16,6
6.28728,-21.1712,5.09874,25,14
1.87298,-6.31093,-0.114907,76,7
6.13483,-20.6843,5.78098,22,15
8.46018,-28.6713,0.521792,24,8
7.13908,-24.2253,1.32358,21,9
0.164173,-0.557451,-0.112959,16,2
5.10725,-17.3529,1.58257,54,10
0.189516,-0.644335,-0.106375,13,3
5.08833,-17.2998,2.21412,52,11
1.90335,-6.47538,-0.828712,54,4
6.31508,-21.4984,3.54887,22,12
1.84017,-6.26853,-0.571567,31,5
6.14286,-20.9391,4.24168,22,13
1.85653,-6.33241,-0.345836,27,6
6.21951,-21.2278,5.10684,41,14
1.83407,-6.25986,-0.113859,64,7
6.02296,-20.5703,5.74319,15,15
8.41428,-28.9056,0.525492,3,8
8.78702,-30.2254,1.64963,3,9
0.162226,-0.558021,-0.112959,16,2
5.07499,-17.4682,1.59146,37,10
0.185063,-0.637405,-0.105124,13,3
7.88305,-27.169,3.47352,21,11
1.90725,-6.57764,-0.840899,54,4
6.2434,-21.546,3.55294,14,12
1.8266,-6.30362,-0.574182,37,5
5.10043,-17.6132,3.56431,3,13
5.9635,-20.607,-1.12428,18,6
6.16161,-21.3055,5.12034,5,14
1.81278,-6.2723,-0.113964,88,7
5.94538,-20.5848,5.74112,20,15
6.99799,-24.3568,0.442349,8,8
8.49197,-29.5955,1.61362,12,9
0.160277,-0.558584,-0.112959,16,2
5.01508,-17.4897,1.59181,43,10
0.18066,-0.630451,-0.103873,13,3
5.91695,-20.6621,2.63896,31,11
2.07707,-7.25795,-0.926938,31,4
8.20555,-28.6917,4.72651,17,12
1.81828,-6.35785,-0.57854,31,5
5.98413,-20.9381,4.23291,24,13
4.56633,-15.9879,-0.871394,35,6
8.2261,-28.8206,6.91949,40,14
1.78868,-6.2709,-0.113825,46,7
5.84278,-20.4977,5.7111,27,15
5.90815,-20.8373,0.378054,21,8
8.06654,-28.4686,1.55071,11,9
0.158326,-0.55914,-0.112959,16,2
5.65002,-19.9667,1.81545,34,10
0.180608,-0.638681,-0.105124,27,3
5.85613,-20.7227,2.64408,19,11
2.04363,-7.2365,-0.923282,13,4
6.05955,-21.4569,3.53135,20,12
1.80906,-6.41017,-0.582723,47,5
4.97415,-17.637,3.56202,34,13
4.63457,-16.4439,-0.895364,30,6
8.07948,-28.686,6.88035,50,14
6.5619,-23.2979,-0.422488,35,7
5.7999,-20.6062,5.73595,17,15
8.24557,-29.4529,0.533869,11,8
6.81521,-24.3765,1.32651,25,9
0.156373,-0.559689,-0.112959,16,2
4.89393,-17.5281,1.59216,20,10
0.181677,-0.650692,-0.107001,13,3
6.98188,-25.0231,3.18981,18,11
3.90809,-14.0161,-1.7866,6,4
5.96234,-21.398,3.51821,22,12
1.76851,-6.35119,-0.576797,12,5
4.91669,-17.6572,3.56279,43,13
4.57359,-16.4361,-0.894108,13,6
7.99684,-28.7577,6.89115,40,14
6.51801,-23.4555,-0.424931,26,7
5.72483,-20.6151,5.73284,7,15
6.9422,-25.1349,0.455159,6,8
6.75504,-24.4906,1.33143,25,9
4.83261,-17.5327,1.59112,40,10
0.178355,-0.647514,-0.106375,13,3
5.69334,-20.6836,2.63408,37,11
2.04224,-7.42442,-0.945462,10,4
8.08506,-29.4128,4.83132,10,12
3.86242,-14.0511,-1.27491,12,5
5.85869,-21.328,4.29931,26,13
4.44058,-16.1766,-0.879139,30,6
5.78118,-21.0746,5.0452,39,14
5.38721,-19.6519,-0.35568,7,7
8.11099,-29.6082,8.22579,12,15
5.54556,-20.3549,0.368246,26,8
5.87462,-21.5924,1.17274,17,9
0.15256,-0.56074,-0.112959,16,2
4.76667,-17.5322,1.58955,43,10
0.169879,-0.625257,-0.102621,14,3
6.73783,-24.8165,3.15739,18,11
7.81744,-28.8326,4.73152,17,12
1.77059,-6.53038,-0.591962,2,5
5.82528,-21.4999,4.32984,28,13
5.62013,-20.7571,-1.127,27,6
5.71267,-21.1135,5.0497,39,14
6.30818,-23.3306,-0.42186,8,7
7.99953,-29.6065,8.21751,12,15
5.41273,-20.1443,0.364092,24,8
5.70398,-21.2578,1.15348,12,9
5.33548,-19.8984,1.80238,50,10
0.170763,-0.637295,-0.104498,13,3
5.54572,-20.7114,2.63262,37,11
1.8041,-6.74239,-0.856985,30,4
5.43382,-20.3219,3.33174,1,12
1.74419,-6.52305,-0.590742,13,5
5.81405,-21.7591,4.37792,27,13
4.34145,-16.2593,-0.881966,13,6
5.62286,-21.073,5.0353,34,14
5.31737,-19.9421,-0.360253,44,7
5.76032,-21.6185,5.99477,5,15
4.36363,-16.4691,0.297389,28,8
5.75132,-21.7372,1.1784,4,9
5.30521,-20.0652,1.8158,42,10
0.171565,-0.649346,-0.106375,13,3
6.5553,-24.8284,3.153,18,11
1.83322,-6.94827,-0.882334,58,4
5.28832,-20.058,3.28544,8,12
1.7661,-6.69863,-0.606081,10,5
7.47919,-28.3878,5.70633,17,13
4.19365,-15.9286,-0.863229,48,6
5.55323,-21.1076,5.0389,19,14
4.26387,-16.2183,-0.292712,15,7
5.67746,-21.6105,5.987,5,15
4.30612,-16.4843,0.297389,28,8
5.39411,-20.6787,1.11999,2,9
5.20699,-19.9757,1.80604,19,10
0.165313,-0.634648,-0.103873,13,3
5.98755,-23.003,2.91853,31,11
1.84893,-7.10832,-0.901833,15,4
5.2133,-20.0572,3.28231,3,12
1.6614,-6.39652,-0.578191,20,5
5.68964,-21.9056,4.39929,10,13
1.73409,-6.68115,-0.361746,13,6
7.23883,-27.9101,6.65675,38,14
4.3166,-16.6551,-0.300321,69,7
5.58988,-21.5834,5.97406,28,15
4.23858,-16.4605,0.296691,33,8
5.16771,-20.0978,1.08754,11,9
5.1164,-19.9271,1.79994,3,10
0.16495,-0.642903,-0.105124,13,3
5.37737,-20.9587,2.65675,38,11
1.81918,-7.0955,-0.899396,11,4
5.16924,-20.1767,3.29889,7,12
1.68848,-6.59529,-0.595622,6,5
9.58177,-37.4542,7.51482,7,13
1.71354,-6.70295,-0.362584,43,6
7.1389,-27.9459,6.659,48,14
1.62191,-6.34911,-0.114383,29,7
5.53553,-21.6851,5.99684,14,15
4.16396,-16.4197,0.295679,10,8
4.67875,-18.4767,0.998884,13,9
0.142652,-0.563342,-0.112959,16,2
5.27408,-20.843,1.881,46,10
0.158831,-0.628154,-0.102621,14,3
5.25675,-20.805,2.63482,6,11
1.79267,-7.10019,-0.899152,5,4
5.04983,-20.0155,3.26948,31,12
5.17807,-20.5389,4.11728,21,13
1.69501,-6.72825,-0.36363,20,6
7.08365,-28.1388,6.69904,39,14
4.19,-16.6565,-0.299797,38,7
7.33654,-29.1864,8.06377,6,15
4.14104,-16.5718,0.298157,36,8
5.20177,-20.8632,1.88117,46,10
0.156637,-0.628705,-0.102621,14,3
5.18745,-20.8367,2.63652,37,11
1.76212,-7.08329,-0.896227,35,4
6.27186,-25.2301,4.11767,16,12
1.63951,-6.59532,-0.594576,32,5
5.14989,-20.7321,4.15239,21,13
4.01473,-16.1743,-0.873383,35,6
7.128,-28.7384,6.83581,10,14
5.03334,-20.3084,-0.365209,30,7
7.22904,-29.1894,8.05756,5,15
4.5196,-18.359,0.330025,14,8
5.28616,-21.489,1.15976,10,9
5.83371,-23.7506,2.13967,37,10
0.161975,-0.659943,-0.107627,12,3
5.7847,-23.5866,2.9819,16,11
1.73077,-7.06241,-0.892815,22,4
4.89702,-19.9822,3.25853,8,12
7.27769,-29.7414,5.95171,23,13
3.90226,-15.9593,-0.861031,19,6
9.12289,-37.3386,8.87387,13,14
1.73237,-7.09032,-0.127403,89,7
7.15649,-29.3126,8.08499,18,15
4.49736,-18.5332,0.332887,14,8
4.46519,-18.4287,0.993755,42,9
0.136745,-0.564805,-0.112959,16,2
5.07989,-20.9977,1.89006,34,10
0.156999,-0.648956,-0.10575,13,3
5.04597,-20.8735,2.63677,12,11
1.72692,-7.14915,-0.903052,72,4
4.8328,-20.0223,3.26228,3,12
1.62192,-6.72475,-0.605209,2,5
7.13437,-29.5803,5.9147,23,13
3.89845,-16.176,-0.872022,29,6
8.99446,-37.3497,8.86937,13,14
1.70854,-7.10021,-0.127472,100,7
7.06135,-29.3675,8.09327,12,15
3.92649,-16.4308,0.294876,21,8
4.40176,-18.4481,0.993965,21,9
0.134871,-0.565256,-0.112959,16,2
5.00561,-20.9951,1.88832,21,10
0.150155,-0.630284,-0.102621,14,3
4.95055,-20.7963,2.62482,25,11
1.71252,-7.19955,-0.908658,33,4
5.00223,-21.0461,3.42623,9,12
1.59751,-6.72649,-0.604861,13,5
7.00566,-29.498,5.89333,23,13
3.82721,-16.1274,-0.868672,26,6
4.99585,-21.0682,4.99886,38,14
1.68605,-7.11586,-0.127647,77,7
6.86845,-29.0103,7.98819,23,15
3.88285,-16.5028,0.295923,5,8
4.30354,-18.3195,0.986219,9,9
4.85538,-20.701,1.86025,16,10
0.147844,-0.630831,-0.102621,14,3
3.83023,-16.3431,2.06105,21,11
1.67425,-7.14944,-0.901589,16,4
4.93324,-21.0826,3.42936,9,12
1.58763,-6.79023,-0.61009,13,5
6.88321,-29.4623,5.88112,18,13
1.53556,-6.57787,-0.354,37,6
4.91949,-21.0902,4.99976,23,14
4.28634,-18.3758,-0.329362,22,7
6.78337,-29.1037,8.00734,11,15
3.752,-16.213,0.290478,21,8
4.26155,-18.4441,0.992081,14,9
0.130823,-0.566206,-0.112959,16,2
3.81275,-16.5148,1.48287,42,10
0.150969,-0.654441,-0.106375,13,3
3.78101,-16.4035,2.0669,21,11
1.66898,-7.24644,-0.913045,60,4
4.79746,-20.8465,3.38806,20,12
1.59341,-6.92388,-0.621595,37,5
6.74645,-29.3389,5.85173,36,13
3.70902,-16.1426,-0.868044,29,6
6.52027,-28.4007,6.72739,39,14
4.24667,-18.5123,-0.331526,22,7
6.65507,-29.0343,7.98146,23,15
3.68917,-16.1987,0.289989,26,8
0.128846,-0.56666,-0.112959,16,2
3.74537,-16.4853,1.47903,15,10
0.152182,-0.670375,-0.108878,12,3
3.72724,-16.432,2.06885,30,11
1.64016,-7.23674,-0.911095,12,4
4.65311,-20.5471,3.33675,36,12
1.52127,-6.71759,-0.602595,58,5
6.64313,-29.3584,5.85097,36,13
1.51867,-6.71701,-0.360909,27,6
6.37171,-28.2046,6.67565,38,14
3.61404,-16.0107,-0.286499,23,7
6.63061,-29.3984,8.07515,6,15
4.04099,-18.034,0.32259,42,8
4.08297,-18.2512,0.980148,42,9
0.126867,-0.567106,-0.112959,16,2
4.58444,-20.5096,1.83864,16,10
0.144674,-0.647767,-0.105124,13,3
3.68067,-16.4934,2.07495,45,11
1.58854,-7.12423,-0.896227,12,4
4.55515,-20.4456,3.31766,28,12
1.46965,-6.59645,-0.591265,36,5
6.54189,-29.3872,5.85211,27,13
1.4796,-6.65208,-0.357141,47,6
4.70513,-21.171,5.00696,23,14
1.56362,-7.04138,-0.125902,74,7
4.73444,-21.338,5.85656,10,15
4.0103,-18.1944,0.325208,24,8
3.64882,-16.582,0.889816,22,9
4.04177,-18.383,1.64672,27,10
0.137326,-0.625116,-0.10137,14,3
4.47468,-20.3859,2.56267,29,11
1.55558,-7.09289,-0.891596,12,4
4.46431,-20.3726,3.30327,28,12
1.4415,-6.57819,-0.589173,36,5
4.64753,-21.2265,4.22375,9,13
1.44613,-6.61038,-0.354628,54,6
4.63869,-21.2215,5.01506,19,14
3.96128,-18.1376,-0.324056,82,7
6.34984,-29.0986,7.98043,28,15
3.91923,-18.0813,0.322939,26,8
3.99854,-18.4784,0.990824,5,9
3.98221,-18.4184,1.64864,27,10
0.134309,-0.62173,-0.100744,14,3
4.50736,-20.8827,2.62312,12,11
3.33196,-15.4501,-1.94065,17,4
4.35031,-20.1892,3.27105,26,12
1.42996,-6.64186,-0.594402,30,5
4.5325,-21.0526,4.18597,4,13
1.42263,-6.61344,-0.354524,67,6
4.5523,-21.1805,5.00156,47,14
3.92355,-18.2706,-0.326185,81,7
6.25674,-29.1602,7.9913,23,15
3.83275,-17.9853,0.320985,42,8
3.91823,-18.418,0.986847,21,9
0.120822,-0.568424,-0.112959,16,2
3.92047,-18.4602,1.65108,37,10
0.13613,-0.641541,-0.103873,13,3
4.43444,-20.8983,2.62312,37,11
1.47391,-6.95211,-0.872585,1,4
4.29086,-20.2564,3.27949,21,12
1.41171,-6.6702,-0.596494,43,5
4.45206,-21.0537,4.18292,24,13
1.40416,-6.64596,-0.355989,77,6
4.43076,-20.9892,4.95252,37,14
1.46956,-6.9615,-0.124191,53,7
4.46568,-21.1729,5.79806,10,15
3.85036,-18.3986,0.328105,38,8
3.85882,-18.455,0.988103,33,9
3.85316,-18.4601,1.64986,16,10
0.135503,-0.649748,-0.105124,13,3
3.40948,-16.363,2.05228,26,11
1.43547,-6.89527,-0.864785,22,4
4.21972,-20.2693,3.27918,17,12
1.39897,-6.72581,-0.601026,61,5
4.37614,-21.0575,4.18063,25,13
1.44998,-6.98327,-0.373783,59,6
4.39983,-21.2087,5.00066,42,14
3.45551,-16.6568,-0.296935,85,7
4.36352,-21.0521,5.76079,27,15
3.78248,-18.3779,0.327512,24,8
0.116851,-0.569254,-0.112959,16,2
3.7939,-18.4988,1.65212,13,10
0.126997,-0.619232,-0.100118,14,3
4.19679,-20.4814,2.56706,23,11
6.50665,-31.8106,5.14263,20,12
1.38586,-6.7814,-0.605558,46,5
4.33813,-21.2277,4.21154,11,13
1.41762,-6.94303,-0.371376,28,6
4.33142,-21.2327,5.00291,38,14
3.7404,-18.3518,-0.326918,7,7
5.9175,-29.0595,7.94626,11,15
3.70522,-18.3263,0.32636,26,8
3.74411,-18.552,0.991871,13,9
4.25945,-21.1245,1.88535,17,10
0.123275,-0.611925,-0.0988666,15,3
3.82289,-18.9936,2.37889,30,11
7.27376,-36.2042,5.84877,16,12
1.33432,-6.64141,-0.592659,35,5
4.29143,-21.3794,4.23863,24,13
1.38081,-6.88527,-0.368026,24,6
7.60185,-37.9401,8.93326,13,14
3.68691,-18.4177,-0.327861,29,7
6.21725,-31.0861,8.49444,26,15
3.61592,-18.2117,0.324091,36,8
3.65758,-18.4552,0.986009,30,9
3.67564,-18.5633,1.65561,35,10
0.122671,-0.620103,-0.100118,14,3
3.75194,-18.9835,2.37596,35,11
1.3967,-7.07328,-0.885259,28,4
3.67652,-18.636,3.00855,15,12
1.32,-6.69099,-0.596668,26,5
7.57099,-38.4122,7.61023,7,13
1.33825,-6.79599,-0.363002,13,6
7.43927,-37.8134,8.89726,13,14
3.05567,-15.5461,-0.276551,28,7
6.11354,-31.1322,8.50117,19,15
3.55883,-18.2576,0.324685,40,8
3.60573,-18.5326,0.989464,22,9
0.110983,-0.570427,-0.112959,16,2
3.58078,-18.4215,1.64184,43,10
0.123519,-0.636041,-0.102621,14,3
3.6728,-18.9302,2.36768,25,11
1.45435,-7.50295,-0.938394,7,4
3.59942,-18.5867,2.99854,24,12
1.28148,-6.61731,-0.589696,45,5
7.30336,-37.7484,7.47361,30,13
7.4602,-38.6313,9.08352,13,14
3.00441,-15.5724,-0.27683,100,7
6.02019,-31.233,8.52291,13,15
3.54994,-18.5566,0.329781,46,8
3.53839,-18.5313,0.988731,30,9
0.108991,-0.570811,-0.112959,16,2
3.56126,-18.6688,1.66276,38,10
0.115381,-0.605421,-0.0976151,15,3
3.5265,-18.5217,2.31503,35,11
1.37622,-7.23497,-0.904271,8,4
3.54669,-18.6632,3.00886,34,12
1.27028,-6.68438,-0.595274,10,5
7.17887,-37.8122,7.48124,30,13
1.24871,-6.58343,-0.351174,37,6
7.48205,-39.4843,9.27788,14,14
2.92437,-15.4472,-0.274422,100,7
5.91364,-31.2671,8.52654,6,15
3.44604,-18.3606,0.326081,38,8
3.45272,-18.4317,0.982765,28,9
3.42717,-18.3129,1.62999,54,10
0.123432,-0.660189,-0.106375,13,3
5.42418,-29.0399,3.62732,23,11
1.34731,-7.22021,-0.901833,40,4
3.47863,-18.6599,3.00636,19,12
3.16573,-16.9815,-1.51128,6,5
5.68772,-30.5394,6.03834,24,13
1.25751,-6.75857,-0.360281,54,6
7.3399,-39.4872,9.27248,14,14
3.47614,-18.7191,-0.332329,44,7
3.37903,-18.3567,0.325802,32,8
4.10075,-22.3213,1.18939,13,9
3.38876,-18.4639,1.64236,43,10
0.113289,-0.61787,-0.0994923,14,3
3.37207,-18.4092,2.29797,34,11
1.24778,-6.81872,-0.851136,42,4
3.40139,-18.6059,2.99572,27,12
1.25977,-6.89104,-0.612879,13,5
7.308,-40.0148,7.90674,16,13
1.25112,-6.85723,-0.365305,60,6
7.15694,-39.2652,9.21445,13,14
1.22947,-6.75193,-0.119793,43,7
3.33944,-18.5042,0.32821,34,8
3.36255,-18.6696,0.994174,10,9
0.103008,-0.571921,-0.112959,16,2
3.31123,-18.4031,1.63591,54,10
0.118121,-0.657146,-0.10575,13,3
3.29656,-18.3583,2.29017,53,11
1.19172,-6.64327,-0.828712,57,4
3.2974,-18.3999,2.96068,48,12
3.03254,-16.939,-1.50553,21,5
7.18731,-40.1464,7.92773,8,13
1.22049,-6.8242,-0.363316,67,6
5.55527,-31.0928,7.29201,21,14
1.21538,-6.80933,-0.120736,25,7
6.92675,-38.8473,10.5733,10,15
3.29677,-18.6398,0.330409,32,8
4.09167,-23.1814,1.23366,12,9
0.100911,-0.572295,-0.112959,16,2
3.25793,-18.4955,1.64306,40,10
0.115027,-0.653683,-0.105124,13,3
3.24657,-18.4499,2.30016,39,11
1.17574,-6.68845,-0.83383,13,4
3.29089,-18.7401,3.01355,25,12
2.95033,-16.818,-1.49385,15,5
3.26148,-18.6107,3.67269,16,13
1.19478,-6.8247,-0.363107,67,6
5.45638,-31.1993,7.31226,43,14
1.19746,-6.84702,-0.121329,63,7
6.71597,-38.4411,10.4563,10,15
3.17045,-18.3168,0.324475,20,8
3.8877,-22.5074,1.19703,13,9
0.0989127,-0.572643,-0.112959,16,2
3.19267,-18.5029,1.64271,67,10
0.113415,-0.657974,-0.10575,13,3
3.19711,-18.5673,2.31332,50,11
1.16199,-6.75531,-0.84163,19,4
2.89204,-16.8483,-1.49559,9,5
5.25643,-30.6226,6.03949,29,13
1.16454,-6.79142,-0.361118,50,6
5.34876,-31.2259,7.31406,10,14
1.14031,-6.66411,-0.118013,30,7
6.55876,-38.3703,10.4304,20,15
3.10014,-18.2903,0.323812,22,8
0.0968133,-0.573002,-0.112959,16,2
3.09897,-18.3612,1.62912,40,10
0.107719,-0.638907,-0.102621,14,3
3.14614,-18.6605,2.32356,50,11
2.77925,-16.5019,-2.05472,13,4
3.11705,-18.5274,2.9757,16,12
1.12701,-6.70598,-0.594925,25,5
5.13732,-30.601,6.03147,24,13
1.1555,-6.8902,-0.366142,50,6
5.22526,-31.1915,7.30146,43,14
1.1296,-6.743,-0.11934,31,7
6.47005,-38.6635,10.5039,10,15
3.5853,-21.6336,0.382766,12,8
3.3661,-20.333,1.08011,28,9
3.03226,-18.3562,1.62772,43,10
0.108704,-0.658769,-0.10575,13,3
3.01703,-18.3037,2.27774,39,11
3.09962,-18.8252,-2.34257,2,4
3.84955,-23.3798,3.75286,9,12
1.10489,-6.71774,-0.595622,15,5
5.12596,-31.1999,6.14596,10,13
1.13435,-6.91192,-0.367084,35,6
5.08892,-31.0422,7.26232,42,14
1.10573,-6.74493,-0.119305,62,7
6.30509,-38.5028,10.4542,10,15
3.24856,-20.013,0.3539,11,8
3.27691,-20.2322,1.07414,13,9
3.45258,-21.3642,1.89337,51,10
0.102107,-0.631825,-0.10137,14,3
3.0025,-18.5997,2.31332,45,11
1.05674,-6.5535,-0.815062,4,4
3.68718,-22.8919,3.67246,9,12
1.08238,-6.72746,-0.596145,5,5
4.91956,-30.5771,6.02002,9,13
1.11015,-6.90776,-0.366666,38,6
4.9702,-30.9608,7.23938,42,14
1.12429,-7.01135,-0.123947,53,7
6.26902,-39.1388,10.6209,10,15
3.16552,-19.9412,0.352434,24,8
0.0830106,-0.523517,-0.122373,15,1
3.09566,-19.5452,1.03709,28,9
0.0912149,-0.575908,-0.113341,16,2
3.38141,-21.3735,1.8932,46,10
0.106684,-0.675103,-0.108253,12,3
2.93663,-18.6042,2.31259,53,11
1.06014,-6.72382,-0.83578,20,4
3.61064,-22.9261,3.6759,24,12
1.06472,-6.76053,-0.59876,10,5
4.88815,-31.0731,6.11428,15,13
1.07952,-6.87016,-0.364468,37,6
4.73005,-30.1366,7.04277,41,14
1.09795,-7.00338,-0.123738,33,7
6.21605,-39.6949,10.7658,11,15
3.06891,-19.7783,0.349362,22,8
3.06775,-19.8164,1.05091,17,9
3.31317,-21.4265,1.89686,34,10
0.0970905,-0.628618,-0.100744,14,3
2.86623,-18.579,2.30821,24,11
1.01489,-6.58622,-0.818231,4,4
3.47229,-22.5598,3.6152,4,12
4.37479,-28.4235,-2.51601,15,5
4.63497,-30.1489,5.9292,18,13
1.05857,-6.89363,-0.365514,43,6
4.64285,-30.2705,7.07021,41,14
3.01882,-19.7051,-0.347966,79,7
4.33937,-28.3579,7.68693,21,15
3.03282,-20.0063,0.353202,42,8
3.00931,-19.8981,1.05467,25,9
0.087192,-0.576531,-0.113341,16,2
3.53774,-23.4198,2.07221,10,10
0.0966638,-0.640672,-0.102621,14,3
3.25188,-21.5785,2.67942,39,11
4.19422,-27.8645,-3.45987,9,4
3.39998,-22.6148,3.62208,17,12
1.00002,-6.65155,-0.588476,1,5
4.54341,-30.2561,5.94713,9,13
1.0499,-6.99999,-0.370957,38,6
4.53456,-30.2691,7.06616,51,14
2.94735,-19.6977,-0.347652,100,7
4.62213,-30.9274,8.37901,13,15
2.95711,-19.9772,0.352504,18,8
2.93866,-19.9006,1.05426,26,9
0.0851791,-0.576831,-0.113341,16,2
3.03821,-20.5996,1.82173,31,10
0.09673,-0.65664,-0.105124,13,3
3.17683,-21.5917,2.67966,39,11
3.19528,-21.7434,-2.69843,3,4
3.48453,-23.7405,3.80042,49,12
0.974188,-6.63726,-0.586907,13,5
3.54446,-24.1782,4.75,18,13
1.02199,-6.9799,-0.369701,35,6
4.44466,-30.3928,7.09136,41,14
2.89765,-19.8384,-0.349956,87,7
4.53423,-31.081,8.41628,19,15
2.88793,-19.9914,0.352574,33,8
0.0756931,-0.524625,-0.122373,15,1
2.86662,-19.8929,1.05331,35,9
0.083165,-0.577125,-0.113341,16,2
3.09628,-21.5133,1.90156,59,10
0.0955616,-0.664795,-0.106375,13,3
3.37931,-23.5381,2.91975,47,11
3.13542,-21.8665,-2.71232,3,4
3.44477,-24.0537,3.8486,26,12
0.956061,-6.68418,-0.590742,15,5
3.46671,-24.2371,4.75916,33,13
0.959489,-6.7165,-0.355571,47,6
4.36359,-30.5837,7.1323,21,14
2.81428,-19.7495,-0.34821,79,7
4.0321,-28.331,7.66777,10,15
2.78381,-19.7578,0.34828,27,8
2.78771,-19.8356,1.04975,20,9
0.0810493,-0.577426,-0.113341,16,2
2.84288,-20.2795,1.79157,15,10
0.0964111,-0.688616,-0.11013,12,3
2.72985,-19.498,2.4174,10,11
0.117657,-0.841433,-0.10432,5,4
3.38046,-24.2064,3.87113,12,12
0.930247,-6.66972,-0.589173,25,5
3.34237,-23.9949,4.70917,17,13
0.931837,-6.69821,-0.354419,27,6
4.32656,-31.1399,7.25827,10,14
1.39303,-10.0261,-0.176688,97,7
4.31394,-31.0889,8.41007,19,15
2.77089,-20.2018,0.355924,31,8
2.69712,-19.7151,1.04285,13,9
2.97273,-21.758,1.92126,39,10
0.0843925,-0.618488,-0.0988666,15,3
2.77202,-20.3418,2.52075,33,11
0.910419,-6.68963,-0.828955,28,4
3.27522,-24.0973,3.85173,19,12
0.91571,-6.74613,-0.595622,13,5
3.24486,-23.9052,4.68932,31,13
0.909524,-6.70934,-0.354838,13,6
4.20502,-31.0602,7.23623,42,14
1.38494,-10.2432,-0.180423,45,7
4.20592,-31.1486,8.42197,6,15
2.73266,-20.4531,0.360183,24,8
2.64834,-19.8748,1.0508,15,9
