x, y, z, intensity, ring
6.92727,-10.9494,1.59088,32,11
3.39424,-5.36708,-0.77972,43,4
6.68056,-10.5676,1.98015,47,12
4.26057,-6.74216,-0.697769,22,5
8.65243,-13.6921,3.14835,14,13
3.83034,-6.06369,-0.375877,21,6
7.77529,-12.3136,3.36212,24,14
6.10211,-9.66751,-0.199551,47,7
7.18203,-11.3828,3.60638,19,15
7.09945,-11.2868,0.232745,42,8
0.283179,-0.450378,-0.122823,15,1
6.49168,-10.3286,0.639336,37,9
0.337351,-0.536951,-0.123263,15,2
7.03493,-11.2016,1.15725,30,10
6.035,-9.61316,-1.79775,6,3
6.88161,-10.9617,1.58918,39,11
3.35755,-5.35031,-0.775577,28,4
6.67512,-10.6411,1.98953,47,12
8.53338,-13.6139,3.12316,15,13
3.8187,-6.09461,-0.376924,52,6
7.71149,-12.3123,3.35402,40,14
6.80391,-10.8632,-0.22374,65,7
7.16583,-11.4455,3.61829,12,15
6.8675,-11.0074,0.226462,18,8
0.281526,-0.451413,-0.122823,15,1
6.49077,-10.4116,0.643,42,9
0.308471,-0.494809,-0.113341,16,2
6.98946,-11.2159,1.15621,50,10
0.376002,-0.603603,-0.112633,23,3
6.86133,-11.0189,1.59381,21,11
5.76215,-9.25728,-1.33886,15,4
6.69556,-10.7611,2.00737,37,12
4.37111,-7.02794,-0.72409,1,5
8.47751,-13.6303,3.12011,21,13
3.71409,-5.97391,-0.368654,24,6
7.61189,-12.2481,3.32928,49,14
4.40455,-7.08998,-0.145693,40,7
7.30218,-11.7589,3.70888,5,15
7.07008,-11.4207,0.234456,39,8
0.279949,-0.452393,-0.122823,15,1
6.46279,-10.4478,0.643837,48,9
0.323175,-0.522653,-0.119446,15,2
6.93678,-11.2228,1.15429,32,10
4.12827,-6.68163,-1.24397,5,3
4.16005,-6.73307,0.971786,24,11
3.3755,-5.46541,-0.788738,13,4
6.64135,-10.7575,2.00236,44,12
8.43986,-13.6813,3.12469,23,13
3.76765,-6.10988,-0.376191,7,6
7.58433,-12.3041,3.33692,40,14
4.35144,-7.05935,-0.14475,32,7
7.36041,-11.9455,3.75961,27,15
7.04596,-11.4755,0.235049,30,8
0.278289,-0.453416,-0.122823,15,1
6.39834,-10.4289,0.64122,38,9
0.321349,-0.523778,-0.119446,15,2
8.22771,-13.4159,1.37689,9,10
4.13486,-6.74484,-1.25304,8,3
4.14572,-6.7652,0.974224,24,11
3.36167,-5.4879,-0.790201,1,4
6.59982,-10.7784,2.00174,50,12
3.62278,-5.91879,-0.607127,11,5
8.40333,-13.7291,3.12889,19,13
3.7536,-6.13492,-0.376924,21,6
7.51795,-12.2922,3.32658,42,14
4.28799,-7.01383,-0.143494,64,7
4.82732,-7.92396,0.161958,10,8
0.276705,-0.454384,-0.122823,15,1
6.30063,-10.3505,0.635045,41,9
0.323509,-0.531661,-0.120973,15,2
7.57485,-12.4535,1.27526,49,10
0.369449,-0.607636,-0.112633,23,3
4.1623,-6.84578,0.983729,24,11
3.326,-5.47246,-0.786301,1,4
6.596,-10.857,2.01206,42,12
3.6052,-5.93651,-0.60765,5,5
3.67203,-6.05131,-0.370957,49,6
7.44455,-12.2731,3.31398,36,14
4.28526,-7.06466,-0.144227,88,7
7.70744,-12.7115,3.98323,5,15
4.80067,-7.94247,0.161993,31,8
0.275117,-0.455347,-0.122823,15,1
4.47712,-7.41303,0.453857,60,9
0.329864,-0.546175,-0.124026,14,2
7.54999,-12.5059,1.27805,22,10
4.08155,-6.7634,-1.25116,6,3
4.19272,-6.95036,0.996648,33,11
3.3038,-5.47893,-0.78557,29,4
6.59171,-10.9358,2.02238,42,12
3.61018,-5.98938,-0.611833,2,5
7.6031,-12.6187,2.86366,7,13
3.6777,-6.10623,-0.373574,45,6
7.39577,-12.2843,3.31038,27,14
4.27501,-7.10357,-0.144715,97,7
7.54651,-12.5446,3.92266,1,15
4.77703,-7.96604,0.162133,60,8
0.273526,-0.456305,-0.122823,15,1
4.48304,-7.48172,0.457102,21,9
0.299701,-0.500169,-0.113341,16,2
7.59433,-12.6792,1.29304,30,10
4.08329,-6.81997,-1.25898,2,3
4.13072,-6.90193,0.987629,27,11
3.28262,-5.48702,-0.785082,24,4
6.55958,-10.969,2.02426,44,12
3.57289,-5.97459,-0.609044,21,5
7.53584,-12.6064,2.85488,4,13
3.56109,-5.95958,-0.36384,54,6
7.34785,-12.3017,3.30813,24,14
3.85448,-6.45571,-0.131242,21,7
7.05021,-11.8128,3.6861,6,15
4.8453,-8.14421,0.165414,97,8
0.271931,-0.457257,-0.122823,15,1
4.47731,-7.53166,0.459196,33,9
0.297953,-0.501212,-0.113341,16,2
10.0335,-16.8848,1.71836,28,10
4.05643,-6.82909,-1.25805,8,3
4.10153,-6.90777,0.986411,36,11
3.43366,-5.78524,-0.82603,6,4
6.49807,-10.9527,2.01707,47,12
3.54791,-5.9825,-0.608521,6,5
7.07118,-11.9234,2.6946,10,13
3.53924,-5.97026,-0.363735,43,6
7.28598,-12.2954,3.29958,24,14
4.18658,-7.06786,-0.143389,100,7
7.03059,-11.8739,3.69749,13,15
4.79143,-8.11802,0.164541,61,8
0.270333,-0.458203,-0.122823,15,1
4.44287,-7.53348,0.458358,105,9
0.296114,-0.502301,-0.113341,16,2
9.94116,-16.87,1.71313,14,10
4.00731,-6.80306,-1.25054,5,3
4.03306,-6.84679,0.975686,18,11
3.31876,-5.63639,-0.803119,33,4
6.4588,-10.9736,2.01675,39,12
4.47974,-7.6142,-0.772897,26,5
3.54062,-6.02279,-0.366142,40,6
7.22409,-12.2935,3.29193,27,14
4.21153,-7.16691,-0.145099,100,7
6.98029,-11.8834,3.69283,12,15
4.76669,-8.14416,0.164716,71,8
0.268652,-0.459191,-0.122823,15,1
4.38902,-7.50489,0.455637,70,9
0.294359,-0.503332,-0.113341,16,2
10.0552,-17.2004,1.74311,7,10
3.9955,-6.83748,-1.25429,5,3
4.01996,-6.88209,0.978611,18,11
3.33212,-5.7068,-0.811406,34,4
6.40459,-10.9733,2.01237,44,12
8.26291,-14.163,3.18727,29,13
3.42097,-5.86603,-0.355885,23,6
7.1615,-12.285,3.28294,29,14
4.14597,-7.11491,-0.143738,88,7
6.96586,-11.9589,3.70836,11,15
4.39585,-7.57105,0.152813,22,8
0.267048,-0.460126,-0.122823,15,1
4.35578,-7.50807,0.454904,53,9
0.312304,-0.538319,-0.120973,15,2
3.85809,-6.65288,0.672842,7,10
0.362586,-0.625494,-0.11451,22,3
3.90236,-6.73463,0.9557,27,11
3.22263,-5.5638,-0.78947,43,4
6.3712,-11.0042,2.01394,36,12
3.78656,-6.54005,-0.661163,13,5
6.74224,-11.6497,2.61637,28,13
3.45448,-5.97129,-0.361537,40,6
6.65909,-11.5153,3.07103,40,14
4.16214,-7.20033,-0.145169,89,7
6.95597,-12.0384,3.72544,20,15
7.03314,-12.2113,0.245974,13,8
0.26544,-0.461055,-0.122823,15,1
4.35644,-7.56997,0.45773,61,9
0.326091,-0.566632,-0.127079,14,2
9.51558,-16.5414,1.66956,14,10
0.357447,-0.621618,-0.113571,23,3
3.92433,-6.82738,0.966911,20,11
3.29912,-5.74197,-0.813112,46,4
3.96473,-6.90324,1.26086,44,12
3.76073,-6.54804,-0.660641,12,5
8.2733,-14.411,3.23002,9,13
3.43361,-5.98331,-0.361537,47,6
6.6014,-11.5081,3.06293,42,14
4.13897,-7.21828,-0.145239,100,7
6.87932,-12.0023,3.70681,12,15
3.88955,-6.80806,0.136862,20,8
0.263829,-0.461979,-0.122823,15,1
6.2925,-11.023,0.66519,19,9
0.289072,-0.506386,-0.113341,16,2
3.81451,-6.68484,0.673365,9,10
3.35309,-5.87859,-1.07189,2,3
3.86705,-6.7824,0.958624,29,11
3.19255,-5.60169,-0.791663,39,4
3.99048,-7.00457,1.27682,52,12
3.40845,-5.98292,-0.60242,6,5
6.65394,-11.6846,2.6137,20,13
3.50163,-6.15148,-0.370957,17,6
6.57179,-11.5497,3.06788,46,14
4.17208,-7.33524,-0.147298,100,7
6.46883,-11.3779,3.507,26,15
3.85689,-6.80594,0.136548,44,8
0.262215,-0.462897,-0.122823,15,1
4.29365,-7.58282,0.456684,57,9
0.305682,-0.539852,-0.120591,15,2
0.357962,-0.632695,-0.115136,33,3
3.95866,-6.99975,0.987386,27,11
3.21401,-5.68538,-0.8019,22,4
3.9456,-6.98235,1.27025,35,12
3.36788,-5.96241,-0.599109,22,5
6.62953,-11.7368,2.62019,17,13
3.45657,-6.12193,-0.368445,35,6
6.53239,-11.5742,3.06833,44,14
4.15038,-7.35672,-0.147438,97,7
6.8077,-12.0719,3.71354,13,15
3.78901,-6.74091,0.134977,42,8
4.25541,-7.57686,0.455428,21,9
0.319079,-0.568359,-0.126697,14,2
9.25801,-16.4976,1.65509,17,10
0.352741,-0.628834,-0.114197,22,3
4.00024,-7.13126,1.00396,36,11
3.25919,-5.81257,-0.818231,7,4
6.26812,-11.1834,2.03052,35,12
3.33438,-5.95154,-0.596843,15,5
6.64787,-11.8706,2.64461,28,13
3.39801,-6.07007,-0.364572,30,6
6.4766,-11.5743,3.06203,46,14
4.15396,-7.42352,-0.148485,81,7
6.81833,-12.19,3.74252,13,15
3.77791,-6.77921,0.135466,82,8
0.258896,-0.464762,-0.122823,15,1
3.80906,-6.83791,0.410209,17,9
0.294171,-0.528303,-0.117538,16,2
5.87002,-10.5463,1.05598,27,10
0.348623,-0.62661,-0.113571,34,3
3.98179,-7.15975,1.00591,18,11
3.90145,-7.01817,-0.985923,19,4
6.30007,-11.333,2.05367,24,12
3.41907,-6.15297,-0.615842,15,5
7.72366,-13.9052,3.09187,6,13
3.36032,-6.05221,-0.362793,16,6
6.46832,-11.6548,3.07733,29,14
3.80004,-6.84699,-0.136687,69,7
6.79261,-12.2441,3.75184,11,15
3.75444,-6.78995,0.135431,24,8
0.257353,-0.465618,-0.122823,15,1
3.2781,-5.93336,0.355256,6,9
0.30751,-0.556824,-0.123644,14,2
0.352271,-0.638138,-0.115449,33,3
4.05393,-7.34672,1.03028,21,11
4.27988,-7.75938,-1.08805,28,4
6.31866,-11.4604,2.07276,27,12
3.38988,-6.15091,-0.614448,25,5
4.12662,-7.49081,-0.448205,47,6
6.45971,-11.7308,3.09173,31,14
3.77418,-6.85671,-0.136617,54,7
6.9426,-12.6181,3.85899,23,15
4.37782,-7.98302,0.158922,56,8
0.255726,-0.466513,-0.122823,15,1
0.279247,-0.509633,-0.112959,16,2
5.82968,-10.6437,1.06173,9,10
0.355733,-0.64976,-0.117326,43,3
4.04351,-7.38869,1.03418,38,11
3.17243,-5.79936,-0.81165,5,4
7.00741,-12.8152,2.31335,11,12
3.30064,-6.03625,-0.601898,47,5
7.65049,-13.9971,3.10065,16,13
4.09758,-7.49991,-0.447891,90,6
6.31225,-11.5583,3.04044,46,14
4.69305,-8.59696,-0.170964,8,7
7.01418,-12.8542,3.9237,10,15
3.85121,-7.08126,0.140701,21,8
0.254096,-0.467403,-0.122823,15,1
0.292464,-0.538204,-0.119065,15,2
3.98941,-7.34452,0.731237,48,10
0.344037,-0.633638,-0.114197,56,3
4.01391,-7.39578,1.03321,52,11
4.74434,-8.74526,-1.22162,5,4
6.98523,-12.8813,2.32086,27,12
3.2729,-6.03547,-0.600677,35,5
7.58661,-13.9961,3.09454,23,13
4.06186,-7.4966,-0.446844,54,6
6.26722,-11.5717,3.03819,42,14
5.34086,-9.86536,-0.195816,20,7
6.70999,-12.3995,3.77772,36,15
0.252463,-0.468287,-0.122823,15,1
3.46782,-6.43505,0.383099,0,9
0.275593,-0.511618,-0.112959,16,2
0.338078,-0.627878,-0.112946,47,3
3.98995,-7.41324,1.0337,16,11
3.7714,-7.01011,-0.977392,1,4
7.04314,-13.0969,2.35528,13,12
4.08562,-7.60053,-0.754943,35,5
7.19795,-13.396,2.95601,18,13
4.12886,-7.6874,-0.457312,47,6
6.21757,-11.5763,3.03369,48,14
6.63104,-12.3565,3.75753,24,15
3.73256,-6.98166,0.138188,86,8
0.250745,-0.469209,-0.122823,15,1
3.42068,-6.40368,0.380482,9,9
0.273716,-0.512624,-0.112959,16,2
3.42812,-6.42029,0.63676,37,10
0.336704,-0.630856,-0.113259,58,3
6.13428,-11.4981,1.60014,32,11
4.41355,-8.27628,-1.15167,11,4
3.88874,-7.29522,1.30936,7,12
7.33892,-13.7793,3.03463,20,13
4.10159,-7.70424,-0.457416,68,6
6.13847,-11.5302,3.01569,40,14
5.59235,-10.5088,-0.207788,48,7
6.57482,-12.3602,3.75132,27,15
3.76687,-7.10838,0.140422,35,8
0.249024,-0.470125,-0.122823,15,1
3.49031,-6.59483,0.652797,39,10
0.339932,-0.642562,-0.115136,56,3
6.79827,-12.856,1.78563,8,11
4.10025,-7.75712,-1.07733,27,4
3.99803,-7.56372,1.35504,9,12
3.77889,-7.15217,-0.707705,6,5
7.14775,-13.534,2.97509,7,13
5.14789,-9.75146,-0.577894,30,6
6.09071,-11.5423,3.01299,48,14
5.59669,-10.6061,-0.209324,100,7
6.58481,-12.4839,3.78186,22,15
3.81679,-7.26067,0.14318,52,8
0.247463,-0.470948,-0.122823,15,1
4.01021,-7.63508,0.451973,48,9
0.270131,-0.514523,-0.112959,16,2
0.335963,-0.640188,-0.11451,56,3
3.24225,-6.18081,0.856985,2,11
4.05515,-7.73375,-1.07221,17,4
4.02937,-7.68786,1.37475,17,12
3.34338,-6.38172,-0.63031,1,5
9.58371,-18.2931,4.01424,16,13
5.13128,-9.79856,-0.579673,16,6
6.07228,-11.6004,3.02289,46,14
5.50216,-10.5157,-0.20716,77,7
6.53313,-12.4914,3.77721,27,15
3.80343,-7.297,0.143633,100,8
0.245818,-0.471809,-0.122823,15,1
0.268423,-0.515416,-0.112959,16,2
3.42234,-6.57425,0.648439,9,10
0.328256,-0.630842,-0.112633,58,3
4.02673,-7.74188,1.07148,45,11
4.00615,-7.70559,-1.06636,57,4
8.82028,-16.9725,3.02951,18,12
7.08261,-13.6346,2.98654,14,13
6.02277,-11.6042,3.01839,46,14
5.55659,-10.7106,-0.210616,100,7
6.48505,-12.5056,3.77462,22,15
3.74122,-7.23917,0.142237,31,8
0.244169,-0.472665,-0.122823,15,1
4.11945,-7.98129,0.785796,39,10
0.316089,-0.612674,-0.109191,63,3
3.95783,-7.67473,1.06026,9,11
3.99287,-7.746,-1.07001,39,4
8.77184,-17.0243,3.03326,37,12
7.05025,-13.6889,2.99303,21,13
3.52783,-6.85265,-0.403929,54,6
6.00363,-11.6668,3.02919,48,14
3.79134,-7.37082,-0.14468,32,7
6.45902,-12.5625,3.78497,28,15
3.6603,-7.14363,0.140108,100,8
0.242518,-0.473514,-0.122823,15,1
3.21193,-6.27395,0.369387,12,9
0.264818,-0.517277,-0.112959,16,2
4.09519,-8.00271,0.786493,41,10
0.321145,-0.627843,-0.111694,48,3
3.25777,-6.37173,0.878678,33,11
3.97213,-7.77226,-1.07172,46,4
8.77617,-17.1797,3.05548,16,12
6.24799,-12.236,2.67056,7,13
3.49572,-6.84891,-0.402987,65,6
5.98147,-11.7241,3.03864,53,14
3.74833,-7.35016,-0.144017,100,7
6.45286,-12.659,3.80723,27,15
3.43881,-6.76948,0.132534,17,8
0.240864,-0.474358,-0.122823,15,1
3.55158,-6.99752,0.411256,38,9
0.263011,-0.518198,-0.112959,16,2
5.6898,-11.2152,1.10025,16,10
0.326099,-0.643054,-0.114197,45,3
3.23372,-6.37952,0.878191,42,11
3.89115,-7.67983,-1.05709,46,4
8.60101,-16.9829,3.01512,33,12
3.25507,-6.42721,-0.63031,42,5
6.21943,-12.2857,2.67667,17,13
3.46818,-6.85394,-0.402568,100,6
5.96514,-11.7936,3.05124,51,14
3.67753,-7.27397,-0.142272,100,7
6.37203,-12.609,3.78549,27,15
3.39987,-6.75108,0.13194,15,8
0.23833,-0.473455,-0.122373,15,1
3.17164,-6.30336,0.369806,6,9
0.292968,-0.582249,-0.126697,14,2
0.316754,-0.630069,-0.111694,48,3
8.13508,-16.1889,2.2246,23,11
8.53902,-17.0075,3.01418,15,12
3.20133,-6.37621,-0.624209,13,5
6.20645,-12.367,2.68964,33,13
3.43976,-6.85708,-0.402045,83,6
5.93179,-11.83,3.05529,48,14
3.65481,-7.29212,-0.142377,23,7
6.51142,-12.9973,3.89523,21,15
3.51473,-7.04022,0.13735,66,8
0.236676,-0.474284,-0.122373,15,1
0.303202,-0.607863,-0.13204,13,2
3.06794,-6.15333,0.601549,48,10
0.309266,-0.620563,-0.109817,37,3
6.98805,-14.0281,1.92432,12,11
3.8454,-7.7228,-1.05929,42,4
8.05536,-16.1848,2.86338,19,12
6.16324,-12.3886,2.68964,22,13
3.47361,-6.98529,-0.408849,39,6
5.88352,-11.8367,3.05169,51,14
3.63289,-7.312,-0.142516,100,7
6.45227,-12.9923,3.88694,18,15
0.234936,-0.475148,-0.122373,15,1
3.11406,-6.30082,0.36834,51,9
0.275746,-0.55793,-0.120973,15,2
3.04095,-6.1556,0.600677,48,10
0.311363,-0.630549,-0.111381,48,3
6.88475,-13.9486,1.90994,45,11
3.56763,-7.23126,-0.990067,26,4
8.01695,-16.2568,2.87089,33,12
3.21113,-6.51154,-0.635191,13,5
6.18463,-12.5467,2.71903,41,13
3.40649,-6.91377,-0.403929,72,6
5.8754,-11.9299,3.07013,53,14
3.62903,-7.37191,-0.143424,64,7
6.41911,-13.0453,3.89574,23,15
3.40351,-6.9413,0.134942,19,8
0.233276,-0.475965,-0.122373,15,1
3.07975,-6.28655,0.366875,69,9
0.273797,-0.558889,-0.120973,15,2
2.93183,-5.98724,0.583246,46,10
0.307423,-0.628083,-0.110756,24,3
6.83689,-13.9743,1.91018,37,11
3.78655,-7.74299,-1.05831,49,4
3.27676,-6.70349,-0.652797,32,5
6.13821,-12.5629,2.71788,24,13
3.38409,-6.9292,-0.404138,50,6
5.82346,-11.9293,3.06473,51,14
3.60064,-7.37915,-0.143319,40,7
6.33203,-12.9826,3.87038,25,15
6.43511,-13.2408,0.256969,7,8
0.231613,-0.476777,-0.122373,15,1
3.07785,-6.33858,0.369283,40,9
0.254693,-0.52452,-0.113341,16,2
2.87959,-5.93291,0.576971,39,10
0.30954,-0.638039,-0.11232,23,3
6.8002,-14.0231,1.91359,33,11
3.27809,-6.76297,-0.922795,11,4
9.49235,-19.5922,3.44813,22,12
3.14622,-6.49669,-0.631531,12,5
6.11229,-12.6214,2.7259,35,13
3.38251,-6.98772,-0.40686,43,6
5.76226,-11.9092,3.05439,48,14
5.35533,-11.0731,-0.2147,24,7
6.32535,-13.0846,3.89419,24,15
3.32894,-6.91085,0.133895,8,8
0.218112,-0.453001,-0.116075,16,1
3.13193,-6.50766,0.378494,39,9
0.252769,-0.52545,-0.113341,16,2
2.90186,-6.035,0.585861,56,10
0.306343,-0.637389,-0.112007,23,3
6.71681,-13.9752,1.90384,16,11
3.58455,-7.46147,-1.01639,5,4
8.04551,-16.7547,2.94378,15,12
2.90454,-6.0514,-0.587255,35,5
6.08977,-12.6933,2.73658,19,13
3.3586,-7.00367,-0.407069,47,6
5.73037,-11.9548,3.06068,48,14
6.24375,-13.0317,3.87193,22,15
3.35009,-7.02046,0.13578,6,8
0.228196,-0.478422,-0.122373,15,1
2.99483,-6.27879,0.364572,27,9
0.250933,-0.526329,-0.113341,16,2
2.8722,-6.02711,0.584118,48,10
0.304117,-0.638454,-0.112007,35,3
3.09938,-6.50968,0.885259,9,11
3.61775,-7.60182,-1.0337,42,4
7.98613,-16.7809,2.94347,16,12
2.90308,-6.10288,-0.591265,43,5
5.99821,-12.6152,2.71521,38,13
3.33156,-7.00994,-0.406755,68,6
5.69446,-11.9871,3.06383,29,14
3.1422,-6.61447,-0.127821,21,7
6.19325,-13.043,3.86883,13,15
3.34817,-7.07672,0.136652,15,8
0.209946,-0.443942,-0.113375,16,1
2.93875,-6.21698,0.360385,8,9
0.249095,-0.527202,-0.113341,16,2
2.82307,-5.97765,0.578366,60,10
0.303685,-0.643031,-0.112633,23,3
6.75636,-14.3126,1.94333,41,11
3.58574,-7.59942,-1.03175,17,4
7.29637,-15.4705,2.70913,12,12
2.96757,-6.295,-0.60887,30,5
6.0275,-12.7859,2.74765,24,13
3.3083,-7.02095,-0.406755,61,6
8.39649,-17.8273,4.54941,28,14
3.09354,-6.57112,-0.126774,55,7
6.12712,-13.0208,3.85589,18,15
3.31242,-7.06483,0.136199,34,8
0.224934,-0.479964,-0.122373,15,1
0.247253,-0.528068,-0.113341,16,2
2.87842,-6.14757,0.593879,26,10
0.293903,-0.627985,-0.109817,24,3
6.69206,-14.3055,1.93919,28,11
3.52724,-7.54355,-1.02248,42,4
6.84336,-14.6423,2.55989,12,12
2.96835,-6.35406,-0.613576,10,5
7.99157,-17.1146,3.67155,22,13
3.29099,-7.05112,-0.407802,47,6
7.81991,-16.7546,4.26867,12,14
3.06974,-6.58007,-0.126739,75,7
6.09796,-13.0771,3.86624,9,15
3.29408,-7.09324,0.136513,41,8
0.223173,-0.480785,-0.122373,15,1
2.75465,-5.9371,0.34301,55,9
0.275051,-0.593088,-0.127079,14,2
2.92712,-6.31171,0.608696,16,10
0.299907,-0.64698,-0.112946,35,3
6.63791,-14.3263,1.9387,45,11
2.88975,-6.23969,-0.844311,6,4
6.78467,-14.6565,2.55802,22,12
2.93667,-6.34681,-0.611833,5,5
7.82578,-16.921,3.62384,10,13
3.29865,-7.13566,-0.411989,39,6
7.75682,-16.7796,4.26777,12,14
3.03805,-6.57494,-0.126425,13,7
6.08563,-13.1765,3.88902,23,15
3.29396,-7.16159,0.137595,48,8
0.22141,-0.4816,-0.122373,15,1
2.77479,-6.0356,0.348139,43,9
0.243468,-0.529824,-0.113341,16,2
2.70521,-5.88968,0.567035,9,10
0.293412,-0.639099,-0.111381,24,3
6.56135,-14.2983,1.93163,37,11
4.43854,-9.67229,-1.30668,6,4
6.70053,-14.6083,2.5455,37,12
3.26823,-7.12856,-0.68609,13,5
7.77321,-16.9625,3.6269,6,13
3.02253,-6.59874,-0.380378,24,6
7.72011,-16.8544,4.27992,9,14
3.03922,-6.63823,-0.127437,55,7
6.02191,-13.1591,3.87763,18,15
3.23452,-7.09423,0.136094,49,8
2.74399,-6.02114,0.346778,35,9
0.257986,-0.566361,-0.120973,15,2
0.290473,-0.63827,-0.111068,36,3
6.49006,-14.2675,1.92456,45,11
4.39575,-9.66347,-1.30351,11,4
6.64796,-14.6214,2.54394,31,12
3.29733,-7.25545,-0.697246,12,5
6.87247,-15.1292,3.23002,23,13
2.99733,-6.60146,-0.379959,70,6
7.65048,-16.8497,4.27227,12,14
3.0114,-6.63553,-0.127193,48,7
8.13379,-17.9308,5.27577,13,15
3.17886,-7.03385,0.134733,8,8
0.218211,-0.483058,-0.122373,15,1
2.6983,-5.97607,0.343638,66,9
0.262468,-0.581574,-0.124026,14,2
2.82673,-6.26343,0.6012,24,10
0.288355,-0.63923,-0.111068,36,3
6.46311,-14.3342,1.93065,41,11
2.79598,-6.20396,-0.835536,59,4
6.62609,-14.7094,2.5552,30,12
3.16646,-7.03255,-0.67476,25,5
6.75355,-15.0063,3.19872,33,13
3.22417,-7.16742,-0.411884,76,6
7.94977,-17.6725,4.47383,26,14
2.97182,-6.60952,-0.126495,61,7
8.10679,-18.0384,5.29906,15,15
0.216439,-0.483854,-0.122373,15,1
2.67067,-5.97316,0.342905,39,9
0.237906,-0.532344,-0.113341,16,2
2.78018,-6.221,0.596145,52,10
0.285204,-0.638479,-0.110756,49,3
6.14913,-13.7723,1.85193,44,11
2.76109,-6.18697,-0.83188,66,4
6.618,-14.8364,2.57303,37,12
4.80389,-10.7745,-1.0321,11,5
3.20113,-7.18649,-0.412303,68,6
8.07208,-18.1217,4.58,17,14
2.93294,-6.58749,-0.125867,74,7
8.03748,-18.061,5.29699,13,15
2.89875,-6.54141,0.124889,61,8
0.214664,-0.484645,-0.122373,15,1
2.70562,-6.10845,0.350128,78,9
0.236047,-0.533172,-0.113341,16,2
2.7493,-6.21293,0.594402,60,10
0.28526,-0.64494,-0.111694,48,3
6.11626,-13.8347,1.85729,20,11
2.78333,-6.29873,-0.84553,31,4
6.55579,-14.8359,2.56897,40,12
4.14079,-9.37512,-0.896658,31,5
6.87276,-15.5679,3.30786,1,13
3.13088,-7.09529,-0.406441,39,6
7.81372,-17.7161,4.47023,26,14
2.93171,-6.64708,-0.126809,55,7
7.60578,-17.2528,5.05215,1,15
2.72199,-6.20382,0.355047,46,9
0.26257,-0.598719,-0.127079,14,2
2.6956,-6.14949,0.58743,39,10
0.284705,-0.649501,-0.11232,47,3
4.45876,-10.1766,1.36421,68,11
2.77676,-6.34066,-0.849917,9,4
6.6505,-15.1935,2.62685,43,12
6.7007,-15.3154,3.24948,12,13
2.81684,-6.44137,-0.368445,21,6
7.76117,-17.7562,4.47383,32,14
4.47922,-10.2525,-0.195292,100,7
7.81069,-17.8865,5.2297,14,15
2.83501,-6.51698,0.124052,72,8
0.21136,-0.486094,-0.122373,15,1
2.69156,-6.19313,0.353896,51,9
0.232412,-0.534766,-0.113341,16,2
2.67361,-6.15474,0.587081,31,10
0.274569,-0.632371,-0.109191,50,3
4.34734,-10.0173,1.34081,28,11
2.86046,-6.59434,-0.882578,4,4
6.61786,-15.2637,2.63498,37,12
7.39924,-17.0659,-1.62737,17,5
6.64017,-15.3225,3.24604,39,13
2.87373,-6.63443,-0.378912,21,6
12.5816,-29.0604,7.31091,32,14
2.95036,-6.81788,-0.129671,57,7
7.50586,-17.3533,5.06612,17,15
2.83045,-6.56907,0.124855,57,8
0.209662,-0.486829,-0.122373,15,1
2.70784,-6.29055,0.35892,36,9
0.230544,-0.535574,-0.113341,16,2
4.52858,-10.5254,1.00247,8,10
0.277042,-0.644214,-0.111068,48,3
4.31784,-10.0452,1.34251,68,11
3.04743,-7.09309,-0.9479,43,4
6.51699,-15.176,2.6159,40,12
2.8011,-6.52288,-0.621072,13,5
6.52857,-15.2103,3.21742,22,13
3.00253,-6.99867,-0.399114,58,6
12.4639,-29.0665,7.30146,10,14
4.31931,-10.0777,-0.191383,100,7
7.43459,-17.3546,5.05888,13,15
2.8075,-6.57891,0.124855,31,8
0.207961,-0.487558,-0.122373,15,1
4.49602,-10.5459,0.600817,9,9
0.228673,-0.536375,-0.113341,16,2
2.59855,-6.09811,0.579934,18,10
0.27247,-0.639725,-0.11013,49,3
2.87887,-6.76576,-0.902808,15,4
6.47094,-15.215,2.61871,37,12
3.87857,-9.11963,-0.867025,8,5
6.33335,-14.8987,3.14682,30,13
2.7797,-6.5422,-0.372527,31,6
12.1994,-28.726,7.20518,10,14
4.34505,-10.2363,-0.194106,100,7
6.30556,-14.8622,4.3259,15,15
0.206258,-0.488281,-0.122373,15,1
4.23777,-10.0371,0.570985,9,9
0.226799,-0.53717,-0.113341,16,2
2.58809,-6.13284,0.582375,20,10
0.270235,-0.640672,-0.11013,49,3
4.27151,-10.1318,1.35007,28,11
2.79665,-6.63674,-0.884284,31,4
6.42392,-15.2521,2.62122,33,12
6.30111,-14.9678,3.15674,28,13
2.76769,-6.57764,-0.373993,56,6
6.48354,-15.4162,3.86106,28,14
4.46273,-10.6164,-0.201017,100,7
6.23868,-14.8485,4.31555,13,15
2.82326,-6.74592,0.127647,50,8
0.204552,-0.488998,-0.122373,15,1
2.65645,-6.35357,0.360909,12,9
0.224923,-0.537959,-0.113341,16,2
5.6565,-13.5356,1.28346,30,10
0.268758,-0.643434,-0.110443,49,3
5.93087,-14.2061,1.89019,24,11
2.78722,-6.67944,-0.888671,12,4
6.39421,-15.3309,2.63092,35,12
3.97587,-9.53265,-0.903631,28,5
6.21861,-14.9172,3.14148,28,13
2.75546,-6.61307,-0.375458,70,6
4.28347,-10.2904,-0.194559,100,7
6.22094,-14.9522,4.33936,46,15
2.79128,-6.73542,0.127263,56,8
0.202844,-0.489709,-0.122373,15,1
4.19128,-10.1236,0.57423,15,9
2.57721,-6.22808,0.589696,35,10
0.265001,-0.640717,-0.109817,24,3
4.24087,-10.2586,1.36299,35,11
2.97691,-7.20466,-0.957162,33,4
6.33689,-15.344,2.62935,37,12
4.0095,-9.70852,-0.91897,18,5
6.16649,-14.9388,3.14148,29,13
2.72856,-6.61342,-0.374935,63,6
6.75613,-16.3835,4.09141,31,14
4.45099,-10.7989,-0.203879,100,7
6.16871,-14.9738,4.33936,25,15
2.78977,-6.79877,0.128275,34,8
0.201134,-0.490414,-0.122373,15,1
4.2847,-10.4524,0.592024,7,9
0.221162,-0.539516,-0.113341,16,2
2.56452,-6.25916,0.591788,43,10
0.256025,-0.625186,-0.107001,26,3
4.22684,-10.3266,1.37006,32,11
2.9555,-7.2242,-0.958381,26,4
6.11058,-14.9437,2.55708,31,12
3.97935,-9.73168,-0.919842,20,5
6.07049,-14.853,3.11896,22,13
2.7757,-6.79485,-0.384669,31,6
6.69963,-16.4088,4.09186,25,14
4.41402,-10.8162,-0.203914,57,7
6.11203,-14.9845,4.33625,21,15
2.77655,-6.8344,0.128764,77,8
0.19942,-0.491113,-0.122373,15,1
2.43655,-6.00351,0.339556,12,9
0.219277,-0.540285,-0.113341,16,2
2.52992,-6.23669,0.588824,30,10
0.261264,-0.644382,-0.11013,37,3
5.79073,-14.2895,1.89312,33,11
2.21037,-5.45713,-0.722929,6,4
6.04059,-14.921,2.54957,35,12
2.6437,-6.53025,-0.616365,6,5
6.12612,-15.1399,3.17468,17,13
2.69355,-6.66008,-0.376505,45,6
6.14205,-15.1945,3.78368,25,14
5.70814,-14.1281,-0.265975,74,7
6.05607,-14.9968,4.33367,15,15
2.73253,-6.79396,0.127821,59,8
0.197705,-0.491806,-0.122373,15,1
0.21739,-0.541047,-0.113341,16,2
4.14013,-10.3093,0.971961,25,10
0.262692,-0.654457,-0.111694,24,3
5.89086,-14.6836,1.9426,24,11
2.19278,-5.4685,-0.723417,14,4
5.97892,-14.9181,2.5455,47,12
4.72516,-11.7899,-1.11124,19,5
6.17544,-15.4163,3.22811,24,13
2.69256,-6.72507,-0.379645,73,6
6.09838,-15.2393,3.78953,35,14
5.63948,-14.0997,-0.265067,90,7
5.99579,-14.9981,4.32797,10,15
2.72729,-6.84991,0.128694,68,8
4.15803,-10.454,0.589617,56,9
0.2155,-0.541802,-0.113341,16,2
4.14313,-10.4218,0.981199,19,10
0.253841,-0.638848,-0.108878,25,3
5.86741,-14.7742,1.95186,29,11
2.17441,-5.47796,-0.72366,35,4
5.97707,-15.0656,2.56709,33,12
4.65091,-11.7229,-1.10339,35,5
6.10495,-15.3958,3.21933,29,13
2.64258,-6.66758,-0.375877,70,6
6.09754,-15.3928,3.82237,22,14
4.23279,-10.6908,-0.200703,57,7
5.95051,-15.0369,4.33315,6,15
2.6865,-6.81659,0.127891,46,8
0.194267,-0.493175,-0.122373,15,1
4.19834,-10.6636,0.600608,12,9
0.213513,-0.542588,-0.113341,16,2
5.57826,-14.1758,1.33279,25,10
0.245102,-0.623185,-0.106063,26,3
5.82307,-14.813,1.9543,46,11
2.15673,-5.48922,-0.724148,47,4
5.90928,-15.0478,2.56052,45,12
4.605,-11.7325,-1.10269,28,5
5.97248,-15.2243,3.17888,29,13
2.57583,-6.56937,-0.369806,77,6
6.04733,-15.423,3.82462,28,14
4.16845,-10.6366,-0.199411,100,7
5.90926,-15.0864,4.34143,7,15
2.67094,-6.85061,0.128345,71,8
0.192458,-0.493883,-0.122373,15,1
0.211522,-0.543367,-0.113341,16,2
3.95281,-10.1541,0.95331,23,10
0.250696,-0.64433,-0.109504,25,3
5.74931,-14.7843,1.94772,38,11
2.13731,-5.49893,-0.724391,55,4
5.88556,-15.1504,2.57429,27,12
2.78074,-7.16175,-0.672145,6,5
5.92658,-15.2717,3.18422,21,13
2.56474,-6.61229,-0.37169,63,6
5.84488,-15.069,3.73149,32,14
3.90319,-10.0682,-0.188486,23,7
5.85113,-15.1008,4.33936,8,15
2.60048,-6.74282,0.126146,60,8
0.190646,-0.494585,-0.122373,15,1
4.07411,-10.5748,0.593908,45,9
0.244915,-0.635702,-0.132421,13,2
3.89265,-10.1091,0.947732,21,10
0.246913,-0.641557,-0.108878,25,3
5.60386,-14.5681,1.91652,37,11
2.11002,-5.4882,-0.721954,40,4
5.85338,-15.2327,2.58461,23,12
2.9251,-7.61219,-0.713457,12,5
5.87746,-15.3033,3.18651,29,13
2.50514,-6.52611,-0.366352,27,6
6.37877,-16.6259,4.11121,11,14
4.01734,-10.4764,-0.195851,22,7
5.80335,-15.1419,4.34505,15,15
2.54841,-6.67712,0.12475,72,8
0.188919,-0.495248,-0.122373,15,1
3.99448,-10.477,0.587628,112,9
0.207724,-0.544831,-0.113341,16,2
3.86444,-10.1412,0.949475,21,10
0.253812,-0.666413,-0.112946,47,3
5.5219,-14.506,1.90579,41,11
2.64992,-6.96497,-0.914995,20,4
5.76085,-15.1496,2.56709,55,12
4.02094,-10.5741,-0.989741,23,5
5.82749,-15.3329,3.18842,27,13
2.45823,-6.47133,-0.362793,33,6
6.01981,-15.8556,3.9155,2,14
3.75088,-9.88465,-0.184542,100,7
5.84089,-15.4005,4.41338,12,15
2.46998,-6.54006,0.122027,59,8
0.187189,-0.495904,-0.122373,15,1
3.97551,-10.5376,0.590245,31,9
0.205821,-0.545553,-0.113341,16,2
5.32421,-14.1199,1.32024,51,10
0.245912,-0.652507,-0.110443,49,3
5.49432,-14.5865,1.91384,12,11
2.56404,-6.81069,-0.893546,43,4
5.66341,-15.0513,2.54707,32,12
3.96226,-10.5302,-0.984337,38,5
5.62604,-14.9599,3.10675,11,13
2.49606,-6.64065,-0.371795,70,6
5.75814,-15.3274,3.78008,12,14
2.5249,-6.72451,-0.125378,27,7
5.81561,-15.4968,4.43512,13,15
2.41074,-6.45124,0.120212,28,8
3.90378,-10.4578,0.585011,23,9
0.203915,-0.546268,-0.113341,16,2
5.28464,-14.1645,1.32268,31,10
0.247083,-0.662616,-0.112007,47,3
7.36366,-19.7581,2.58899,6,11
2.53887,-6.81588,-0.893059,39,4
5.81622,-15.6227,2.6403,20,12
2.84105,-7.6312,-0.712411,12,5
5.71825,-15.3677,3.18727,23,13
2.41578,-6.49582,-0.363212,37,6
5.72022,-15.3894,3.79043,22,14
2.47773,-6.66955,-0.124191,100,7
5.68079,-15.2997,4.37301,5,15
2.38959,-6.46336,0.120282,50,8
2.5325,-6.85726,0.383099,30,9
0.202007,-0.546976,-0.113341,16,2
5.29312,-14.3399,1.33732,23,10
0.239983,-0.650502,-0.109817,49,3
6.01524,-16.3138,2.13491,50,11
2.51643,-6.82842,-0.893546,39,4
5.76643,-15.6558,2.64249,15,12
2.56528,-6.96846,-0.649659,20,5
6.56391,-17.8306,3.6933,13,13
2.34619,-6.37676,-0.356094,40,6
5.86218,-15.9415,3.92135,10,14
2.45858,-6.68942,-0.124401,100,7
5.61602,-15.2886,4.36421,15,15
3.86443,-10.5658,0.196374,32,8
0.181986,-0.497837,-0.122373,15,1
3.73061,-10.2109,0.569729,17,9
3.69268,-10.1181,0.942328,27,10
0.239628,-0.656944,-0.110756,49,3
5.67391,-15.5551,2.03302,48,11
2.47966,-6.80173,-0.888915,21,4
2.76251,-7.58581,-0.70631,21,5
5.59404,-15.3695,3.17926,6,13
2.37811,-6.53734,-0.364572,40,6
6.5648,-18.0563,4.43558,13,14
2.45981,-6.76562,-0.125657,100,7
5.56262,-15.3081,4.36421,15,15
2.40108,-6.64014,0.123249,27,8
3.74608,-10.3711,0.577894,63,9
0.198088,-0.548408,-0.113341,16,2
3.64854,-10.1065,0.940062,27,10
0.242697,-0.672642,-0.113259,46,3
5.91855,-16.4124,2.14222,18,11
5.41727,-15.0388,2.53174,5,12
2.74547,-7.62165,-0.70875,10,5
6.56716,-18.241,3.76848,8,13
2.27818,-6.33136,-0.35264,67,6
5.42416,-15.0827,3.70044,26,14
2.41268,-6.71249,-0.124505,33,7
5.5117,-15.3429,4.36835,20,15
3.60689,-10.0848,0.18695,32,8
2.41903,-6.77099,0.376819,39,9
3.57975,-10.0254,0.931346,23,10
0.239683,-0.671624,-0.112946,47,3
7.09562,-19.8938,2.59338,12,11
5.36739,-15.0651,2.53299,22,12
1.91175,-5.36585,-0.498357,15,5
6.65294,-18.6836,3.85511,8,13
2.27549,-6.39385,-0.355675,84,6
5.43679,-15.2851,3.74544,42,14
2.27737,-6.40621,-0.118676,62,7
5.43095,-15.2856,4.34661,13,15
3.561,-10.0671,0.186392,13,8
2.45194,-6.93946,0.385716,15,9
0.194255,-0.549777,-0.113341,16,2
2.33529,-6.61298,0.613576,15,10
0.230105,-0.651967,-0.109504,50,3
5.10319,-14.4671,1.88361,28,11
2.38269,-6.75848,-0.879897,37,4
5.30952,-15.0688,2.53048,38,12
2.67365,-7.58801,-0.70387,18,5
5.79471,-16.455,3.39106,41,13
2.26178,-6.42624,-0.357036,74,6
5.32002,-15.1239,3.70134,28,14
2.22846,-6.33866,-0.11728,67,7
5.36859,-15.279,4.33936,26,15
0.17493,-0.50036,-0.122373,15,1
2.4422,-6.98946,0.388019,18,9
0.192334,-0.550452,-0.113341,16,2
5.04675,-14.4517,1.33924,40,10
0.224574,-0.643441,-0.10794,25,3
5.72478,-16.4117,2.13418,27,11
2.35255,-6.74801,-0.877459,13,4
5.25169,-15.0723,2.52798,28,12
2.65829,-7.62928,-0.706833,30,5
5.72885,-16.451,3.3861,43,13
2.24327,-6.44541,-0.357664,27,6
5.2768,-15.17,3.70809,21,14
2.20238,-6.33507,-0.117071,49,7
5.43125,-15.6316,4.43409,16,15
3.66124,-10.585,0.195502,48,8
2.40008,-6.94278,0.384983,29,9
0.190412,-0.55112,-0.113341,16,2
3.55455,-10.294,0.952787,51,10
0.222971,-0.646088,-0.108253,25,3
5.72442,-16.5967,2.15563,4,11
1.80302,-5.23041,-0.6793,4,4
5.23193,-15.1774,2.54269,40,12
2.6297,-7.63287,-0.70631,37,5
5.62089,-16.3242,3.35595,16,13
2.24675,-6.52875,-0.361851,54,6
5.22001,-15.1772,3.70539,42,14
3.08799,-8.97836,-0.165728,34,7
5.23432,-15.2275,4.31451,6,15
3.52383,-10.2981,0.189987,62,8
2.36227,-6.91142,0.382785,43,9
3.49864,-10.2479,0.947383,27,10
0.220827,-0.646824,-0.108253,25,3
6.04564,-17.7184,2.2987,9,11
1.78951,-5.24763,-0.680762,4,4
5.16809,-15.1638,2.53737,31,12
2.58569,-7.59108,-0.701604,31,5
5.64395,-16.5695,3.40251,13,13
2.35253,-6.91052,-0.382576,42,6
5.17593,-15.2129,3.70989,45,14
3.05212,-8.97583,-0.165484,69,7
5.17989,-15.242,4.31348,6,15
3.46864,-10.2535,0.18894,52,8
2.35219,-6.96125,0.385088,21,9
4.85177,-14.367,1.32668,20,10
0.217936,-0.645719,-0.10794,25,3
5.92602,-17.5682,2.27652,29,11
2.25377,-6.68534,-0.866247,5,4
5.23307,-15.5318,2.59587,42,12
2.56687,-7.61849,-0.703347,45,5
2.33286,-6.93194,-0.383309,38,6
5.13709,-15.2734,3.72024,47,14
2.99911,-8.92198,-0.164297,68,7
5.10082,-15.1831,4.29174,13,15
4.6866,-14.0149,0.257947,13,8
3.55478,-10.6426,0.588047,37,9
3.30516,-9.90103,0.913218,22,10
0.212555,-0.637107,-0.106375,13,3
4.88889,-14.6623,1.89775,12,11
1.7817,-5.34663,-0.691974,3,4
5.20254,-15.6212,2.60776,33,12
2.54592,-7.64442,-0.704916,28,5
5.50086,-16.5266,3.38572,13,13
2.43536,-7.32097,-0.404348,76,6
5.12862,-15.4262,3.75308,22,14
2.1968,-6.61153,-0.121608,26,7
5.05692,-15.2283,4.2995,16,15
3.40952,-10.3155,0.189638,15,8
3.5439,-10.7346,0.592443,43,9
0.182795,-0.553693,-0.113341,16,2
3.26933,-9.90873,0.912869,46,10
0.208474,-0.632217,-0.105437,26,3
5.02407,-15.2449,1.97087,4,11
1.7593,-5.3415,-0.690512,25,4
5.10228,-15.5004,2.58461,41,12
2.52162,-7.66505,-0.705962,10,5
5.43761,-16.5289,3.38228,13,13
2.25571,-6.86078,-0.378494,42,6
5.09968,-15.5199,3.77153,20,14
2.13627,-6.50516,-0.119514,75,7
5.02301,-15.3046,4.31607,21,15
3.34431,-10.238,0.187997,13,8
2.28412,-7.00069,0.385925,20,9
0.180764,-0.554359,-0.113341,16,2
2.27426,-6.97874,0.642164,13,10
0.206767,-0.634855,-0.10575,13,3
4.97944,-15.2888,1.97428,4,11
1.78795,-5.49296,-0.70928,11,4
4.97359,-15.289,2.54644,38,12
2.50286,-7.69844,-0.708228,32,5
5.37032,-16.5282,3.37808,22,13
2.23548,-6.8842,-0.379331,21,6
5.45603,-16.8119,4.08061,28,14
2.11108,-6.50497,-0.119374,100,7
4.98446,-15.368,4.32901,20,15
3.32396,-10.3035,0.188975,6,8
3.50253,-10.87,0.598514,39,9
0.178828,-0.554987,-0.113341,16,2
2.24928,-6.98474,0.641989,20,10
0.20697,-0.643094,-0.107001,26,3
4.8018,-14.929,1.92554,8,11
1.78117,-5.54105,-0.714642,11,4
4.90725,-15.2751,2.54112,43,12
2.45209,-7.63737,-0.701778,10,5
5.24838,-16.3468,3.33725,7,13
5.46396,-17.0387,4.131,23,14
2.10004,-6.55266,-0.120107,100,7
4.94931,-15.4524,4.34764,21,15
2.20852,-6.93693,0.381529,15,9
2.21219,-6.95686,0.638677,7,10
0.201022,-0.632553,-0.105124,13,3
4.60236,-14.4822,1.86582,12,11
1.77263,-5.58129,-0.719029,13,4
4.88378,-15.3863,2.55677,51,12
2.43686,-7.68197,-0.70509,13,5
5.16114,-16.2798,3.31969,6,13
2.30742,-7.28272,-0.40037,47,6
5.15617,-16.2839,3.94339,2,14
2.12243,-6.70293,-0.122725,100,7
4.91807,-15.5414,4.36783,15,15
3.28796,-10.4471,0.191174,50,8
2.1825,-6.93888,0.381215,39,9
3.40366,-10.8346,0.993575,31,10
0.202363,-0.644559,-0.107001,26,3
2.18756,-6.97199,0.897202,6,11
2.0046,-6.39276,-0.822618,45,4
4.81231,-15.3467,2.54738,43,12
2.47438,-7.89576,-0.723916,15,5
5.15591,-16.4626,3.35328,12,13
2.29272,-7.32504,-0.402254,90,6
5.20925,-16.6533,4.02842,13,14
2.11335,-6.7561,-0.123563,100,7
4.93988,-15.8018,4.43616,9,15
3.40595,-10.9487,0.200144,41,8
2.81664,-9.06549,0.497506,55,9
0.172909,-0.556859,-0.113341,16,2
3.37349,-10.8711,0.995842,34,10
0.195541,-0.630133,-0.104498,13,3
3.04408,-9.81563,1.26184,25,11
1.71541,-5.53475,-0.711473,11,4
4.78618,-15.4521,2.56208,56,12
1.75041,-5.65466,-0.517879,15,5
5.10013,-16.4759,3.35251,11,13
2.25071,-7.27536,-0.399114,39,6
5.12406,-16.5737,4.00503,30,14
2.07677,-6.7214,-0.122795,97,7
4.86759,-15.7636,4.42063,17,15
3.34892,-10.8994,0.199027,47,8
3.13129,-10.1974,0.559053,23,9
0.171062,-0.55743,-0.113341,16,2
4.37727,-14.2728,1.30612,23,10
0.192183,-0.627035,-0.103873,13,3
2.99178,-9.76736,1.25428,5,11
1.72164,-5.62422,-0.722198,12,4
4.7112,-15.3904,2.54926,45,12
2.49868,-8.16772,-0.747273,11,5
5.0535,-16.5292,3.35977,41,13
2.21421,-7.24688,-0.397125,79,6
5.05935,-16.5691,3.99963,13,14
2.07257,-6.78754,-0.123877,86,7
4.81698,-15.7852,4.42218,11,15
3.35749,-11.0578,0.201715,50,8
2.73053,-9.00417,0.493109,47,9
0.169115,-0.558023,-0.113341,16,2
3.02394,-9.98427,0.912695,22,10
0.196973,-0.650355,-0.107627,12,3
2.95247,-9.75443,1.25135,37,11
1.69781,-5.6128,-0.720004,1,4
2.05587,-6.80508,-0.621943,5,5
4.99185,-16.5234,3.35519,16,13
1.98755,-6.58307,-0.360385,23,6
4.9706,-16.4738,3.97264,22,14
2.10313,-6.9747,-0.127158,100,7
4.76854,-15.8241,4.42839,8,15
3.34427,-11.1683,0.203495,35,8
2.70953,-9.0543,0.495308,37,9
0.167069,-0.558639,-0.113341,16,2
2.9588,-9.89984,0.903979,46,10
0.198997,-0.666249,-0.11013,12,3
2.91954,-9.78091,1.2533,14,11
1.92139,-6.44105,-0.825299,54,4
2.01327,-6.75338,-0.61654,25,5
4.93621,-16.5687,3.36053,10,13
1.9651,-6.60022,-0.360909,50,6
5.27856,-17.7405,4.27317,34,14
2.09637,-7.04561,-0.12831,77,7
4.71657,-15.8618,4.43409,5,15
2.01212,-6.80153,0.123807,42,8
0.165118,-0.559219,-0.113341,16,2
2.98625,-10.1203,0.923154,84,10
0.185606,-0.629013,-0.103873,13,3
2.88035,-9.76769,1.25038,54,11
1.68005,-5.70097,-0.729754,13,4
4.55992,-15.4833,2.55645,36,12
2.40202,-8.16137,-0.74431,38,5
6.1506,-20.898,4.23443,6,13
2.12637,-7.22943,-0.394927,76,6
5.21256,-17.7336,4.26732,18,14
2.07684,-7.07016,-0.128624,77,7
4.61057,-15.7058,4.38595,8,15
2.01416,-6.89681,0.125413,33,8
3.0101,-10.3272,0.941108,57,10
0.183409,-0.629657,-0.103873,13,3
4.31318,-14.8171,1.89482,33,11
1.65848,-5.70108,-0.729023,46,4
4.50199,-15.4858,2.55426,52,12
2.38329,-8.19799,-0.746925,9,5
4.71267,-16.2211,3.28344,13,13
1.9179,-6.60577,-0.36049,40,6
5.12944,-17.6787,4.24977,33,14
2.0321,-7.00822,-0.127368,100,7
4.53421,-15.6476,4.36524,18,15
3.04354,-10.5584,0.191802,22,8
2.73778,-9.51019,0.518649,72,9
0.161307,-0.56033,-0.113341,16,2
2.99496,-10.4104,0.947732,63,10
0.183393,-0.637887,-0.105124,13,3
4.19565,-14.6031,1.86558,44,11
1.63966,-5.71065,-0.72951,43,4
4.4855,-15.6325,2.57585,12,12
4.66576,-16.2714,3.29031,31,13
1.89593,-6.61627,-0.360699,37,6
5.05375,-17.6478,4.23808,30,14
1.99882,-6.98451,-0.126809,100,7
4.44609,-15.5463,4.33263,28,15
4.08294,-14.3523,0.26046,49,8
2.70402,-9.51777,0.518545,34,9
0.15935,-0.56089,-0.113341,16,2
2.96132,-10.4303,0.948603,68,10
0.179009,-0.630922,-0.103873,13,3
4.24537,-14.9729,1.91091,45,11
1.86865,-6.59489,-0.84163,69,4
2.05006,-7.24477,-0.658723,13,5
4.63513,-16.3802,3.30901,28,13
1.88207,-6.65552,-0.362479,67,6
4.97357,-17.5997,4.22233,36,14
1.95812,-6.93371,-0.125762,74,7
4.34353,-15.3907,4.28501,27,15
3.91608,-13.9506,0.25292,19,8
2.66647,-9.51176,0.517707,56,9
0.157294,-0.56147,-0.113341,16,2
2.76086,-9.86171,0.895961,42,10
0.183082,-0.654402,-0.107627,12,3
4.60811,-16.4711,2.10005,9,11
1.85257,-6.62623,-0.844798,59,4
2.822,-10.1005,1.66102,23,12
2.01887,-7.23077,-0.656806,33,5
4.53127,-16.2401,3.27734,19,13
4.90223,-17.5934,4.21648,33,14
1.86413,-6.69009,-0.121224,100,7
4.25713,-15.2885,4.2524,27,15
2.93256,-10.596,0.191907,27,8
2.63911,-9.54218,0.518859,75,9
0.155333,-0.562016,-0.113341,16,2
2.72854,-9.87897,0.896658,52,10
0.174489,-0.632187,-0.103873,27,3
4.59046,-16.6429,2.1198,18,11
1.99256,-7.23393,-0.656457,17,5
4.48602,-16.2975,3.28573,11,13
1.84976,-6.72466,-0.365514,67,6
4.85887,-17.6761,4.23223,24,14
1.84925,-6.7274,-0.121783,71,7
4.21397,-15.3405,4.26275,27,15
2.4658,-9.02582,0.16332,30,8
0.140113,-0.513224,-0.122823,15,1
2.62418,-9.61878,0.522522,57,9
0.15337,-0.562554,-0.113341,16,2
2.64743,-9.71735,0.881145,46,10
0.173431,-0.636574,-0.104498,13,3
4.48258,-16.4646,2.09518,9,11
2.7851,-10.2438,1.68136,9,12
2.25722,-8.30794,-0.7532,34,5
4.43658,-16.3293,3.28917,4,13
1.82797,-6.73269,-0.365619,74,6
5.41103,-19.9434,4.77076,8,14
1.90738,-7.0349,-0.127228,75,7
4.17101,-15.3943,4.27362,26,15
1.88593,-6.99927,0.12653,26,8
2.58125,-9.59316,0.520638,24,9
0.151504,-0.56306,-0.113341,16,2
2.57898,-9.59139,0.868943,74,10
0.178384,-0.663883,-0.108878,12,3
2.67173,-9.95018,1.265,5,11
1.73524,-6.46696,-0.822131,52,4
2.75137,-10.2611,1.68261,8,12
2.2282,-8.31577,-0.7532,13,5
4.40648,-16.4452,3.30939,5,13
1.8463,-6.8953,-0.374097,73,6
4.45686,-16.6565,3.98073,13,14
2.93761,-10.9863,-0.198504,100,7
4.12273,-15.4293,4.27931,20,15
2.41351,-9.0834,0.164053,38,8
1.81426,-6.83769,0.370748,51,9
2.55095,-9.62774,0.871383,58,10
0.171905,-0.649256,-0.106375,13,3
6.25508,-23.6244,3.00067,16,11
1.57353,-5.94716,-0.755346,47,4
4.25206,-16.082,2.63467,7,12
1.64899,-6.24118,-0.564769,6,5
4.41835,-16.7346,3.36434,5,13
1.81032,-6.86146,-0.371899,70,6
5.94881,-22.5632,5.38713,23,14
1.85925,-7.05191,-0.127298,75,7
4.059,-15.4063,4.26896,27,15
2.38324,-9.10379,0.164262,62,8
1.78735,-6.83239,0.37012,39,9
0.147471,-0.56413,-0.113341,16,2
2.62761,-10.0588,0.909557,52,10
0.170635,-0.653675,-0.107001,13,3
2.56639,-9.83843,1.24843,31,11
1.60429,-6.15458,-0.780939,40,4
1.34997,-5.18261,-0.468549,5,5
4.0889,-15.7087,3.15522,1,13
1.79993,-6.91993,-0.374725,77,6
4.07577,-15.6808,3.74049,12,14
1.84569,-7.10094,-0.128066,100,7
2.40904,-9.32849,0.168171,68,8
1.76199,-6.83279,0.369806,19,9
0.159218,-0.617873,-0.124026,14,2
2.50255,-9.71863,0.878007,48,10
0.163541,-0.635107,-0.103873,13,3
2.5476,-9.90071,1.25525,43,11
1.71982,-6.68857,-0.847967,47,4
2.46877,-9.60825,1.57123,28,12
1.32989,-5.17957,-0.467852,13,5
4.01725,-15.6462,3.13995,15,13
1.75712,-6.84848,-0.370539,91,6
4.03343,-15.732,3.74948,15,14
1.81394,-7.08022,-0.127577,100,7
3.93793,-15.3818,4.25447,7,15
1.72192,-6.76524,0.121853,38,8
1.74846,-6.87955,0.372004,6,9
0.143627,-0.56512,-0.113341,16,2
2.4968,-9.83116,0.88742,20,10
0.161323,-0.635674,-0.103873,13,3
2.50033,-9.85952,1.24892,31,11
1.70085,-6.71185,-0.850161,22,4
4.11251,-16.2406,2.65344,10,12
1.94167,-7.66777,-0.692017,7,5
3.99343,-15.7819,3.16438,8,13
1.72977,-6.84101,-0.369806,59,6
3.97897,-15.7478,3.74993,27,14
1.78921,-7.0865,-0.127577,35,7
3.88516,-15.3992,4.2555,8,15
1.73332,-6.91086,0.124366,22,8
1.72104,-6.87205,0.371271,20,9
0.141654,-0.565618,-0.113341,16,2
0.155269,-0.620902,-0.10137,14,3
2.45195,-9.81233,1.24185,66,11
1.74666,-6.99508,-0.885259,47,4
1.8763,-7.51985,-0.678072,21,5
3.94639,-15.8281,3.17086,11,13
2.63342,-10.5699,-0.570881,13,6
3.96117,-15.911,3.78548,12,14
1.76978,-7.11405,-0.127961,100,7
4.14457,-16.6725,4.60336,6,15
1.73318,-7.01393,0.126111,61,8
0.13958,-0.566134,-0.113341,16,2
0.157826,-0.640621,-0.104498,13,3
2.42005,-9.83047,1.24307,34,11
1.70564,-6.93367,-0.876728,40,4
2.19874,-8.94491,1.45891,83,12
1.83827,-7.48411,-0.674237,41,5
3.89069,-15.852,3.17277,8,13
1.95623,-7.97635,-0.430411,18,6
3.90653,-15.9285,3.78638,27,14
1.73827,-7.093,-0.127472,100,7
4.33034,-17.6833,4.87822,6,15
1.71171,-7.03773,0.126425,60,8
2.33122,-9.59943,0.517707,13,9
0.137504,-0.566642,-0.113341,16,2
2.33373,-9.61709,0.865805,52,10
0.150822,-0.621998,-0.10137,14,3
4.00513,-16.53,2.08835,22,11
1.63958,-6.77202,-0.855523,54,4
1.80521,-7.46756,-0.672145,35,5
3.82842,-15.849,3.16934,11,13
1.7011,-7.04766,-0.379959,3,6
3.8655,-16.0147,3.80347,25,14
1.71601,-7.11487,-0.127752,98,7
4.26188,-17.684,4.87408,18,15
1.69289,-7.07313,0.126949,44,8
1.75835,-7.35229,0.396183,22,9
0.135069,-0.565209,-0.112959,16,2
2.41045,-10.0946,0.907988,28,10
0.154043,-0.645604,-0.105124,13,3
2.38062,-9.98504,1.26037,23,11
1.24625,-5.23121,-0.660288,8,4
3.91502,-16.4335,2.67566,10,12
1.78975,-7.51839,-0.676154,28,5
3.77353,-15.8642,3.16972,9,13
1.95406,-8.22137,-0.442867,43,6
3.80678,-16.0288,3.80347,25,14
1.71057,-7.20253,-0.129218,100,7
4.19968,-17.6969,4.87356,13,15
1.66116,-7.04367,0.126321,53,8
2.17625,-9.24221,0.49761,18,9
2.36973,-10.0796,0.905897,48,10
0.148284,-0.630727,-0.102621,14,3
2.34658,-9.98902,1.25989,37,11
1.63172,-6.95144,-0.876728,32,4
2.40515,-10.2544,1.66822,9,12
1.76804,-7.54399,-0.677897,30,5
3.72493,-15.8938,3.17315,11,13
3.74117,-15.9882,3.79088,22,14
1.70409,-7.28829,-0.130649,29,7
4.14052,-17.7227,4.87667,16,15
1.62073,-6.98125,0.125099,78,8
2.12455,-9.17322,0.823796,12,10
0.150535,-0.650486,-0.10575,13,3
2.31841,-10.0262,1.26354,23,11
1.22045,-5.28213,-0.66565,6,4
2.35735,-10.2108,1.65977,14,12
1.73763,-7.52652,-0.675806,47,5
4.2268,-18.3228,3.65514,12,13
2.00123,-8.68212,-0.466941,14,6
3.72383,-16.1683,3.83047,26,14
1.67146,-7.26302,-0.13009,100,7
4.06824,-17.6919,4.86425,6,15
1.61462,-7.06679,0.12653,70,8
2.23694,-9.8063,0.527128,25,9
0.129241,-0.566569,-0.112959,16,2
2.07481,-9.10288,0.816824,42,10
0.147387,-0.647156,-0.105124,13,3
2.27194,-9.98387,1.2572,23,11
1.20464,-5.29797,-0.667113,14,4
1.71797,-7.56168,-0.67842,42,5
3.61997,-15.9462,3.1785,11,13
2.60403,-11.4802,-0.616936,37,6
3.65703,-16.1356,3.81967,25,14
1.64345,-7.25711,-0.129881,100,7
4.20301,-18.5746,5.10288,1,15
1.6009,-7.12116,0.127403,57,8
2.19176,-9.76532,0.524511,32,9
2.05348,-9.15672,0.821007,44,10
0.143399,-0.639956,-0.103873,13,3
2.23795,-9.99561,1.25769,17,11
2.28299,-10.2135,1.65758,42,12
1.68851,-7.56015,-0.677723,37,5
3.5662,-15.9805,3.18269,21,13
2.15378,-9.65921,-0.518649,38,6
3.55318,-15.9352,3.76928,37,14
1.61332,-7.24133,-0.129497,85,7
1.58429,-7.16993,0.12817,70,8
2.12756,-9.64457,0.517603,27,9
0.125085,-0.567502,-0.112959,16,2
2.00919,-9.11555,0.816649,50,10
0.141052,-0.640477,-0.103873,13,3
3.60356,-16.3763,2.05886,26,11
1.35639,-6.16921,-0.775577,24,4
1.73938,-7.92436,-0.709796,33,5
3.99295,-18.2064,3.62308,12,13
1.98241,-9.04663,-0.485364,39,6
3.56316,-16.2603,3.84306,21,14
5.30279,-24.2394,6.64854,3,15
1.84864,-8.51429,0.15208,56,8
2.06342,-9.51957,0.510485,21,9
1.97576,-9.12285,0.816649,14,10
0.138704,-0.64099,-0.103873,27,3
1.99808,-9.24146,1.16093,10,11
2.39969,-11.1084,-1.3954,12,4
3.31251,-15.3469,2.48668,7,12
1.62716,-7.54505,-0.675283,33,5
3.47419,-16.1232,3.20597,18,13
1.9278,-8.95426,-0.480025,65,6
3.45391,-16.0427,3.78863,27,14
1.75406,-8.1542,-0.145588,40,7
3.99243,-18.5756,5.09097,9,15
1.82492,-8.55622,0.152709,86,8
1.49737,-7.03249,0.376819,46,9
3.19145,-15.0017,1.34185,43,10
0.132247,-0.622172,-0.100744,14,3
2.05986,-9.69922,1.21747,31,11
1.56578,-7.37906,-0.926207,40,4
3.27139,-15.4304,2.49826,7,12
1.59537,-7.53148,-0.67354,37,5
3.46101,-16.3529,3.2491,9,13
1.88918,-8.93391,-0.47856,76,6
3.32776,-15.7369,3.71349,27,14
1.7531,-8.29753,-0.148031,89,7
4.37361,-20.7184,5.67383,4,15
1.89367,-9.03298,0.483689,82,9
0.119135,-0.56878,-0.112959,16,2
1.90346,-9.09547,0.812989,34,10
0.135034,-0.645809,-0.104498,13,3
1.93595,-9.26684,1.16239,21,11
1.54502,-7.3956,-0.92767,15,4
1.50459,-7.21463,-0.644778,28,5
3.40641,-16.3483,3.24604,9,13
1.86192,-8.94371,-0.478769,83,6
3.29141,-15.8102,3.72834,27,14
1.7311,-8.32258,-0.14838,25,7
4.32265,-20.8002,5.69247,9,15
1.54182,-7.47141,0.133162,45,8
1.4124,-6.85031,0.366561,49,9
0.117248,-0.569172,-0.112959,16,2
1.8769,-9.11929,0.814558,16,10
0.14085,-0.684952,-0.110756,12,3
1.93477,-9.41711,1.18043,44,11
1.51809,-7.38902,-0.926207,41,4
1.5419,-7.5182,-0.671448,43,5
3.80972,-18.5925,3.6891,11,13
3.23115,-15.7829,3.71934,30,14
1.70069,-8.31456,-0.148136,100,7
3.27891,-16.0447,4.38802,6,15
1.51703,-7.47648,0.133162,60,8
1.90985,-9.42933,0.504205,24,9
0.11536,-0.569558,-0.112959,16,2
1.8585,-9.18405,0.819787,16,10
0.124485,-0.615712,-0.0994923,14,3
1.90824,-9.44682,1.18335,22,11
1.49936,-7.42929,-0.930594,61,4
1.53296,-7.60948,-0.679118,48,5
3.7558,-18.6435,3.69673,11,13
2.2274,-11.0666,-0.591606,20,6
3.16797,-15.7539,3.70989,28,14
1.63463,-8.13616,-0.144855,100,7
3.22897,-16.0863,4.3963,10,15
1.87576,-9.43006,0.503891,65,9
0.113272,-0.569977,-0.112959,16,2
1.83298,-9.23184,0.823447,30,10
0.128377,-0.647166,-0.104498,13,3
1.80071,-9.07762,1.13631,28,11
1.46608,-7.39749,-0.925963,53,4
1.99824,-10.0918,1.62942,56,12
1.51412,-7.65387,-0.682604,38,5
1.99732,-10.1057,2.00235,9,13
1.72833,-8.75275,-0.467569,39,6
1.92172,-9.74108,2.29225,52,14
1.60273,-8.12415,-0.144541,100,7
3.1997,-16.234,4.43357,15,15
1.65223,-8.45272,0.150335,10,8
1.84233,-9.44275,0.504205,72,9
1.80837,-9.27729,0.826934,80,10
0.126872,-0.651488,-0.105124,13,3
1.77501,-9.12313,1.14118,49,11
1.43858,-7.40086,-0.92572,63,4
1.80684,-9.30404,1.50115,43,12
1.34876,-6.94522,-0.61898,11,5
1.69853,-8.76265,-0.467779,50,6
1.87474,-9.68077,2.2765,56,14
1.58016,-8.16728,-0.145204,100,7
3.08518,-15.9611,4.35592,6,15
1.81349,-9.4707,0.505356,60,9
0.10929,-0.570754,-0.112959,16,2
1.77709,-9.28942,0.827457,26,10
0.130531,-0.682971,-0.11013,12,3
1.7439,-9.13317,1.14167,44,11
1.40716,-7.37659,-0.922064,57,4
1.76732,-9.27342,1.4952,74,12
1.85291,-9.73176,1.92564,62,13
2.21022,-11.6194,-0.619867,16,6
1.54754,-8.15113,-0.14482,100,7
4.15663,-21.9144,5.97665,11,15
1.79848,-9.55473,0.169707,57,8
1.79775,-9.56923,0.510276,19,9
1.7487,-9.31711,0.829374,54,10
0.120865,-0.644592,-0.103873,13,3
1.73503,-9.26213,1.15703,63,11
1.19663,-6.39414,-0.798732,28,4
1.88742,-10.0951,1.62661,53,12
1.43096,-7.65364,-0.681209,53,5
1.7991,-9.63202,1.90466,31,13
1.4805,-7.93397,-0.422979,39,6
1.52311,-8.17811,-0.145204,100,7
4.07586,-21.906,5.97044,11,15
1.80977,-9.80282,0.174,55,8
1.76325,-9.56956,0.509962,37,9
0.105303,-0.571503,-0.112959,16,2
1.72266,-9.35842,0.832512,34,10
0.117185,-0.637238,-0.102621,14,3
1.75542,-9.55513,1.19286,41,11
1.34954,-7.35304,-0.91792,30,4
1.70539,-9.30108,1.4977,61,12
1.40064,-7.63899,-0.679466,40,5
1.75628,-9.58803,1.89473,104,13
1.44777,-7.91159,-0.421514,61,6
1.83879,-10.0583,2.36064,22,14
1.49491,-8.18534,-0.145239,65,7
3.02328,-16.5703,4.51329,4,15
1.73197,-9.58745,0.51059,12,9
0.103656,-0.573799,-0.113341,16,2
1.70732,-9.46045,0.841053,52,10
0.119166,-0.660972,-0.106375,13,3
1.71361,-9.51431,1.18701,30,11
1.32702,-7.37529,-0.920114,20,4
1.69423,-9.42557,1.51679,14,12
1.37686,-7.6676,-0.681558,43,5
1.72696,-9.61729,1.89931,36,13
1.42155,-7.92446,-0.421933,32,6
2.81156,-15.6888,3.67975,11,14
1.59284,-8.89717,-0.15777,100,7
3.3273,-18.6041,5.06405,3,15
1.55162,-8.74608,0.155047,52,8
0.101553,-0.574175,-0.113341,16,2
1.63242,-9.23906,0.820833,58,10
0.112622,-0.638061,-0.102621,14,3
1.70592,-9.6649,1.20504,30,11
1.65823,-9.41392,1.51397,41,12
1.35457,-7.69787,-0.683824,26,5
1.68592,-9.59069,1.89283,13,13
1.37557,-7.83322,-0.416804,54,6
4.02583,-22.9487,5.37903,23,14
2.93731,-16.7437,-0.296726,38,7
2.9322,-16.7318,4.55159,6,15
1.5476,-8.91327,0.157909,10,8
1.66366,-9.60156,0.510694,35,9
0.0995477,-0.574526,-0.113341,16,2
1.59506,-9.21525,0.818218,56,10
0.110394,-0.63845,-0.102621,14,3
1.66677,-9.64957,1.20236,30,11
1.37379,-7.96167,-0.992017,46,4
1.61298,-9.35764,1.50396,36,12
1.32059,-7.66132,-0.680163,8,5
1.70507,-9.90221,1.95312,15,13
1.36515,-7.93639,-0.422037,68,6
