x, y, z, intensity, ring
0.37526,13.6048,-0.237562,63,7
0.576393,20.7652,5.56616,13,15
0.0145504,0.502071,-0.134586,15,0
0.46924,16.0947,0.281054,17,8
0.0189676,0.646704,-0.149367,24,1
0.49455,16.7617,0.878825,12,9
0.256324,8.68755,-1.68942,23,2
0.315538,10.5695,-1.67479,38,3
0.501034,16.6851,2.0496,21,11
0.353817,11.7146,-1.43903,1,4
0.519484,17.1008,2.70976,28,12
0.539835,17.6689,3.43609,12,13
0.392643,12.7784,-0.670005,68,6
0.534554,17.2985,3.99558,11,14
0.521699,16.7873,-0.293166,62,7
0.654672,20.9484,5.61586,19,15
0.0169298,0.521325,-0.139762,14,0
0.5157,15.7952,0.275853,33,8
0.0210332,0.64079,-0.148018,24,1
0.546926,16.5742,0.869091,34,9
0.28561,8.6552,-1.68332,23,2
0.525755,15.8487,1.38735,30,10
0.350655,10.515,-1.66634,41,3
0.561664,16.7547,2.05837,21,11
0.382676,11.3562,-1.39516,1,4
0.666647,19.6812,3.11899,10,12
0.403811,11.9216,-1.0436,38,5
0.588878,17.2961,3.36396,45,13
0.459245,13.4197,-0.703709,55,6
0.594201,17.2751,3.99063,2,14
0.471197,13.6298,-0.238051,63,7
0.663924,19.108,5.12306,6,15
0.0181938,0.505818,-0.135621,15,0
0.56932,15.7513,0.27512,51,8
0.0236941,0.652398,-0.150717,23,1
0.615336,16.8616,0.884268,11,9
0.315031,8.63257,-1.67912,26,2
0.580056,15.8189,1.3849,27,10
0.3835,10.4091,-1.64976,27,3
0.624621,16.8736,2.07324,36,11
0.454855,12.2296,-1.50265,49,4
0.492068,13.1685,-1.1529,35,5
0.639891,17.0447,3.3155,35,13
0.512488,13.5877,-0.712606,52,6
0.654938,17.2846,3.99333,13,14
0.53916,14.1636,-0.247405,100,7
0.730772,19.1094,5.1241,19,15
0.0202639,0.513473,-0.137692,14,0
0.62477,15.7612,0.275329,12,8
0.0258164,0.648417,-0.149817,24,1
0.652024,16.3765,0.858938,33,9
0.343831,8.59807,-1.67263,26,2
0.634068,15.7869,1.38229,100,10
0.417606,10.3524,-1.641,31,3
0.685932,16.9309,2.08055,45,11
0.49536,12.1744,-1.49607,54,4
0.687604,16.8992,2.67878,13,12
0.51062,12.4958,-1.09415,26,5
0.52611,12.7656,-0.669586,32,6
0.77676,18.7678,4.33661,25,14
0.600511,14.5094,-0.253479,100,7
0.790764,19.0258,5.10236,13,15
0.022388,0.521119,-0.139762,14,0
0.681665,15.8669,0.277214,52,8
0.0275464,0.638593,-0.147568,24,1
0.703132,16.2345,0.851611,23,9
0.372817,8.57328,-1.66805,26,2
0.685691,15.705,1.37532,81,10
0.447968,10.2602,-1.62661,37,3
0.736245,16.7956,2.06422,21,11
0.536425,12.1886,-1.49802,43,4
0.550619,12.4123,-1.08701,49,5
0.843172,19.0072,3.69826,11,13
0.537602,12.0715,-0.633265,16,6
0.837692,18.736,4.32986,15,14
0.638336,14.2215,-0.248487,96,7
0.8923,19.8026,5.31148,15,15
0.0223297,0.482446,-0.12941,15,0
0.745125,16.0383,0.280251,42,8
0.0293214,0.62876,-0.145318,25,1
0.761295,16.2638,0.853285,55,9
0.40088,8.56415,-1.66653,26,2
0.741979,15.7922,1.38316,45,10
0.482196,10.225,-1.62129,35,3
0.795812,16.8128,2.06666,21,11
0.584529,12.3036,-1.5124,16,4
0.87678,18.3876,2.91563,16,12
0.592527,12.4264,-1.0884,47,5
0.917863,19.1787,3.73222,17,13
0.57629,11.9977,-0.629497,48,6
1.03491,21.4677,4.96197,37,14
0.698022,14.4269,-0.252117,25,7
0.966483,19.9036,5.33944,9,15
0.0259346,0.520955,-0.139762,14,0
0.773363,15.4803,0.270547,22,8
0.0323943,0.64617,-0.149367,24,1
0.805823,16.0177,0.840516,36,9
0.428801,8.52349,-1.65889,26,2
0.80463,15.9387,1.39623,28,10
0.517288,10.2115,-1.61941,31,3
0.852382,16.7683,2.06154,39,11
0.668931,13.1143,-1.61233,30,4
0.939349,18.3529,2.91062,12,12
0.64843,12.669,-1.10984,38,5
0.988433,19.2459,3.74596,30,13
0.692582,13.4397,-0.705279,48,6
1.05631,20.4286,4.72262,28,14
0.748588,14.4284,-0.252187,94,7
1.03474,19.877,5.33323,18,15
0.028164,0.528578,-0.141833,14,0
0.81982,15.3358,0.268069,45,8
0.0348586,0.649945,-0.150267,24,1
0.831565,15.4544,0.811103,43,9
0.457174,8.49645,-1.65393,21,2
0.888512,16.4591,1.44208,15,10
0.550582,10.1662,-1.61253,30,3
0.905298,16.6621,2.04887,35,11
0.708441,12.997,-1.59819,27,4
0.912486,16.6868,2.64687,20,12
0.695916,12.7263,-1.11507,33,5
1.05882,19.3012,3.75741,13,13
0.7283,13.2338,-0.694603,71,6
1.12236,20.3295,4.70058,42,14
0.74199,13.3974,-0.234211,9,7
1.10005,19.7999,5.31356,22,15
0.030009,0.528476,-0.141833,14,0
0.991828,17.4131,0.30444,26,8
0.0370158,0.647874,-0.149817,24,1
0.88551,15.4514,0.811103,39,9
0.485259,8.46737,-1.64859,26,2
0.940933,16.3683,1.43441,46,10
0.584358,10.1346,-1.60783,31,3
0.984662,17.0255,2.09396,9,11
0.710812,12.2532,-1.50704,30,4
1.08639,18.6713,2.96224,13,12
0.762784,13.1097,-1.14889,28,5
1.12711,19.313,3.76046,17,13
0.77461,13.2332,-0.694708,71,6
1.22221,20.8176,4.8144,17,14
0.796748,13.5305,-0.236585,9,7
1.17099,19.8268,5.32184,20,15
0.0290634,0.482088,-0.12941,15,0
1.23581,20.4396,0.357425,24,8
0.0386875,0.638015,-0.147568,24,1
0.937133,15.4103,0.809114,44,9
0.513023,8.43623,-1.64287,26,2
1.00181,16.4266,1.43981,25,10
0.61491,10.0537,-1.59532,28,3
1.03922,16.9427,2.08421,22,11
1.17491,19.0459,3.02231,16,12
0.802656,13.0115,-1.14052,40,5
1.19501,19.3168,3.76199,13,13
0.832537,13.4197,-0.704651,68,6
1.64349,26.4167,6.11057,32,14
0.85344,13.6793,-0.239238,53,7
1.23415,19.7262,5.29596,20,15
0.0322219,0.505118,-0.135621,15,0
0.976153,15.2605,0.266917,33,8
0.0410386,0.639821,-0.148018,24,1
0.98836,15.3671,0.807021,46,9
0.541714,8.42263,-1.64058,26,2
1.03594,16.0631,1.40826,50,10
0.648081,10.0219,-1.59063,30,3
1.09284,16.8538,2.07373,18,11
0.765937,11.7805,-1.44951,2,4
1.24176,19.0476,3.02325,7,12
0.848319,13.0126,-1.14087,21,5
1.25436,19.1891,3.73795,6,13
0.845678,12.9026,-0.677646,39,6
1.35435,20.6083,4.76806,20,14
1.03056,15.6397,-0.273584,73,7
1.30504,19.7526,5.30424,15,15
0.0350228,0.520423,-0.139762,14,0
1.03036,15.2709,0.267161,61,8
0.0431404,0.637729,-0.147568,24,1
1.0447,15.4435,0.811207,21,9
0.565135,8.33254,-1.6234,30,2
1.15783,17.0275,1.49315,26,10
0.68145,9.99591,-1.58687,26,3
1.1472,16.7845,2.06569,21,11
0.872548,12.7661,-1.57114,24,4
1.31654,19.2129,3.05016,16,12
0.917227,13.3514,-1.17085,25,5
1.3208,19.1768,3.73642,4,13
1.41999,20.5648,4.75906,8,14
1.03864,15.0038,-0.262519,41,7
1.36546,19.6749,5.28457,18,15
0.0340262,0.481763,-0.12941,15,0
1.10528,15.6105,0.273165,24,8
0.0456691,0.643414,-0.148918,24,1
1.28978,18.1713,0.954713,13,9
0.594574,8.35608,-1.62836,26,2
1.15375,16.175,1.41872,15,10
0.712765,9.96798,-1.5828,25,3
1.23421,17.2182,2.11955,13,11
0.82404,11.4959,-1.41515,1,4
1.37349,19.0215,3.70704,6,13
0.916901,12.6674,-0.665609,94,6
1.90223,26.2802,6.08313,8,14
1.16248,16.0214,-0.28039,63,7
1.49628,20.572,5.52682,18,15
0.0398983,0.539445,-0.144939,14,0
1.12762,15.2099,0.266219,66,8
0.0463581,0.623825,-0.144419,25,1
1.17591,15.7865,0.82963,10,9
0.62082,8.33448,-1.62455,26,2
1.24893,16.7274,1.46753,40,10
0.742276,9.91829,-1.5753,27,3
1.26488,16.8616,2.07617,27,11
0.950636,12.6431,-1.55676,34,4
1.48158,19.6585,3.12243,25,12
0.952413,12.6078,-1.10618,47,5
1.45239,19.2263,3.74787,8,13
0.964631,12.74,-0.669586,26,6
1.55375,20.4731,4.74017,32,14
1.06491,13.9994,-0.245067,96,7
1.56925,20.5821,5.53096,24,15
0.0403798,0.520035,-0.139762,14,0
1.24124,15.9854,0.279867,71,8
0.0488377,0.627546,-0.145318,25,1
0.650754,8.32432,-1.62302,26,2
1.33481,17.0365,1.49507,35,10
0.776306,9.88596,-1.5706,28,3
1.31937,16.8017,2.06934,4,11
0.988692,12.5625,-1.54725,29,4
1.55314,19.6906,3.12838,53,12
0.998926,12.6362,-1.10897,47,5
1.53261,19.3442,3.77191,1,13
1.02713,12.9355,-0.680053,48,6
1.62723,20.4478,4.73567,32,14
1.07252,13.4773,-0.235991,100,7
1.66367,20.8596,5.60706,24,15
0.0437574,0.539146,-0.144939,14,0
1.31441,16.1602,0.283008,27,8
0.0511376,0.627362,-0.145318,25,1
1.2921,15.8175,0.831723,35,9
0.678846,8.31026,-1.62073,26,2
1.32568,16.1938,1.42151,28,10
0.808547,9.85563,-1.56622,27,3
1.60996,19.5824,2.41253,35,11
1.03049,12.5074,-1.54092,31,4
1.60758,19.4702,3.09427,18,12
1.05598,12.7895,-1.12274,33,5
1.59899,19.325,3.76924,8,13
1.06369,12.8283,-0.674611,68,6
1.74701,21.0246,4.87064,48,14
1.28436,15.4243,-0.270163,100,7
1.74926,20.9631,5.63656,9,15
0.0488992,0.577489,-0.155291,12,0
1.32753,15.6454,0.274073,55,8
0.0531619,0.625238,-0.144868,25,1
1.40462,16.4856,0.867102,12,9
0.705352,8.2785,-1.61501,23,2
1.38389,16.2089,1.42325,34,10
0.84109,9.83109,-1.56278,26,3
1.66627,19.4362,2.39522,51,11
1.07024,12.4582,-1.53531,33,4
1.6818,19.5373,3.10585,66,12
1.09121,12.6765,-1.11315,45,5
2.29205,26.5721,5.18428,10,13
1.10847,12.8245,-0.674611,32,6
1.20888,13.9295,-0.244054,97,7
1.81406,20.8606,5.61068,27,15
0.0509146,0.577315,-0.155291,12,0
1.38477,15.6705,0.274596,70,8
0.0574068,0.648343,-0.150267,24,1
1.41894,16.0252,0.843132,23,9
0.733897,8.27207,-1.61424,21,2
1.88998,21.2606,1.8674,37,10
0.871724,9.78678,-1.55621,25,3
1.73304,19.4184,2.39376,51,11
1.10537,12.3854,-1.52678,30,4
1.75855,19.6654,3.12713,35,12
1.15128,12.8492,-1.12867,33,5
1.96839,21.9258,4.27908,23,13
1.13748,12.6455,-0.665399,65,6
2.89308,32.1627,7.45533,11,14
1.17231,13.0073,-0.227963,74,7
1.87923,20.8102,5.59877,9,15
0.046137,0.504038,-0.135621,15,0
1.44166,15.7196,0.275539,72,8
0.0581301,0.632624,-0.146668,24,1
1.50643,16.3943,0.862811,8,9
0.759702,8.252,-1.61081,21,2
1.95681,21.2146,1.86391,33,10
0.900722,9.74646,-1.55027,25,3
1.80896,19.5371,2.40911,15,11
1.14314,12.3461,-1.52239,31,4
1.8159,19.5749,3.11367,16,12
1.16697,12.5557,-1.10322,66,5
2.04055,21.9133,4.27794,4,13
1.1731,12.5741,-0.661841,74,6
2.75207,29.4986,6.83986,40,14
1.22493,13.1049,-0.229743,100,7
2.04442,21.831,5.87519,30,15
0.0492679,0.519268,-0.139762,14,0
1.49719,15.7506,0.276167,55,8
0.0594886,0.624668,-0.144868,25,1
1.54846,16.2299,0.854437,4,9
0.78589,8.22194,-1.60547,21,2
1.55871,16.3071,1.43319,34,10
0.928893,9.70016,-1.54338,27,3
1.86235,19.4124,2.39449,5,11
1.18186,12.2966,-1.51679,33,4
1.92985,20.0423,3.18907,3,12
1.22991,12.7499,-1.12065,40,5
2.03318,21.0384,4.1085,23,13
1.25201,12.9317,-0.680891,71,6
2.85409,29.4791,6.83761,50,14
1.36276,14.0499,-0.246393,100,7
2.14508,22.0756,5.943,30,15
0.0473807,0.480633,-0.12941,15,0
1.54881,15.6833,0.275085,75,8
0.0633124,0.63996,-0.148468,24,1
0.813884,8.19751,-1.60127,23,2
2.10801,21.2321,1.8667,33,10
0.961309,9.66524,-1.53838,25,3
2.09214,20.9976,2.59094,42,11
1.21864,12.2092,-1.50655,30,4
2.22499,22.2523,3.54199,10,12
1.25143,12.4935,-1.09851,49,5
2.11027,21.0308,4.1085,23,13
1.27263,12.6607,-0.666865,61,6
2.19771,21.8638,5.0731,20,14
1.30065,12.9167,-0.226602,27,7
2.2221,22.0292,5.93265,13,15
0.0515007,0.503518,-0.135621,15,0
1.60935,15.7074,0.275608,73,8
0.0646626,0.630031,-0.146218,25,1
1.61746,15.7595,0.830258,20,9
0.839484,8.16533,-1.59554,23,2
2.92654,28.4166,2.49928,14,10
0.992266,9.61842,-1.53149,28,3
2.15357,20.8397,2.57242,41,11
1.25574,12.1515,-1.49997,25,4
3.07353,29.6913,4.72776,7,12
1.29338,12.4732,-1.09712,28,5
2.18124,20.9999,4.10392,44,13
1.38482,13.3098,-0.701302,100,6
2.27079,21.825,5.0659,20,14
1.44646,13.8787,-0.243566,97,7
0.0527642,0.499502,-0.134586,15,0
1.4729,13.9202,0.244334,34,8
0.0665463,0.627875,-0.145768,25,1
1.68234,15.8732,0.836538,26,9
0.864068,8.13907,-1.59097,23,2
2.50017,23.5111,2.06855,41,10
1.01956,9.57186,-1.52461,26,3
2.07272,19.427,2.39888,5,11
1.29076,12.098,-1.49387,28,4
2.10983,19.7421,3.14465,1,12
1.37545,12.8492,-1.13058,33,5
1.3735,12.7888,-0.674087,84,6
2.3442,21.827,5.06815,5,14
1.45975,13.5696,-0.238225,45,7
2.44402,22.6819,6.11279,12,15
0.0548391,0.503166,-0.135621,15,0
1.70176,15.589,0.273724,66,8
0.0698988,0.639274,-0.148468,24,1
2.0889,19.0736,1.00558,7,9
0.889132,8.1186,-1.58753,23,2
2.57593,23.4829,2.06681,25,10
1.04568,9.51738,-1.51648,35,3
2.15711,19.6016,2.4213,10,11
1.3232,12.0046,-1.48291,25,4
2.34627,21.2524,3.38649,33,12
1.42505,12.908,-1.13616,28,5
2.28486,20.663,4.04095,12,13
2.48675,22.4172,5.20717,21,14
1.48106,13.3299,-0.234107,20,7
2.52446,22.6848,6.11589,9,15
0.056595,0.502971,-0.135621,15,0
1.75102,15.5373,0.272921,76,8
0.0719114,0.63709,-0.148018,24,1
2.15659,19.0761,1.00611,13,9
0.916582,8.10764,-1.586,21,2
2.36805,20.914,1.84143,16,10
1.07534,9.48227,-1.51147,25,3
2.93927,25.878,3.19785,9,11
1.35836,11.9407,-1.47559,27,4
1.46221,12.8336,-1.13006,40,5
2.33026,20.4208,3.99516,54,13
1.50315,13.1522,-0.693766,68,6
2.57209,22.4704,5.22156,21,14
1.54216,13.4518,-0.23634,30,7
2.60782,22.7123,6.12573,36,15
0.0583502,0.502771,-0.135621,15,0
1.83134,15.7555,0.276865,40,8
0.0739094,0.634899,-0.147568,24,1
1.84292,15.8071,0.834026,11,9
0.943056,8.08879,-1.58295,21,2
2.45006,20.9827,1.84822,44,10
1.10499,9.44903,-1.50678,30,3
3.98095,33.9907,4.20206,13,11
1.38778,11.8314,-1.46268,33,4
2.29131,19.5051,3.11054,6,12
1.57185,13.3805,-1.17869,30,5
2.39923,20.393,3.99134,39,13
1.51517,12.8593,-0.678588,71,6
2.65279,22.4806,5.22606,43,14
1.56938,13.2796,-0.233408,100,7
2.67324,22.586,6.09415,15,15
0.0633167,0.529418,-0.142868,14,0
1.90558,15.9098,0.279692,37,8
0.0765895,0.638507,-0.148468,24,1
2.28042,18.9833,1.00202,22,9
0.967073,8.05036,-1.57608,21,2
2.5102,20.8653,1.83864,32,10
1.13537,9.42354,-1.50334,26,3
2.56771,21.2807,2.63189,6,11
1.42431,11.7871,-1.4578,27,4
2.42821,20.0657,3.20128,13,12
1.59533,13.1831,-1.16179,30,5
2.46238,20.3183,3.97837,28,13
1.56606,12.9035,-0.681205,39,6
2.73666,22.5157,5.23641,44,14
1.86194,15.2968,-0.268976,100,7
2.72447,22.3503,6.03307,31,15
0.0618588,0.502351,-0.135621,15,0
1.96306,15.919,0.279971,48,8
0.0783403,0.634368,-0.147568,24,1
1.94073,15.6928,0.828688,26,9
0.991793,8.01966,-1.57074,19,2
2.38955,19.2943,1.70093,7,10
1.1651,9.39403,-1.49927,26,3
2.63169,21.1888,2.62165,12,11
1.45662,11.7111,-1.44903,23,4
2.49849,20.059,3.20159,26,12
1.65498,13.2681,-1.1698,62,5
2.517,20.179,3.9528,41,13
1.58783,12.7116,-0.671366,52,6
2.81185,22.4789,5.23011,44,14
1.8763,14.9786,-0.263496,100,7
2.80079,22.3272,6.02945,31,15
0.0656445,0.517453,-0.139762,14,0
2.01736,15.9021,0.279797,50,8
0.0810452,0.637957,-0.148468,24,1
2.41088,18.951,1.00119,9,9
1.01895,7.99844,-1.56731,21,2
2.59036,20.3052,1.79088,48,10
1.19501,9.35443,-1.49364,23,3
2.73231,21.3883,2.64749,31,11
1.49145,11.6587,-1.44318,30,4
3.82474,29.8568,4.7675,17,12
1.68557,13.1397,-1.159,26,5
2.5867,20.1366,3.94631,28,13
1.63262,12.6919,-0.670633,68,6
2.88302,22.3815,5.20987,43,14
1.94927,15.1326,-0.266324,23,7
2.92591,22.6833,6.12832,27,15
0.065452,0.501895,-0.135621,15,0
1.9125,14.6454,0.257807,36,8
0.0838881,0.64152,-0.149367,24,1
2.54564,19.4673,1.02893,24,9
1.04533,7.98316,-1.56502,21,2
2.65838,20.2744,1.78896,45,10
1.22097,9.29928,-1.4855,26,3
2.81948,21.445,2.65578,31,11
1.51583,11.5295,-1.42782,33,4
2.59386,19.7023,3.14746,6,12
1.76632,13.3985,-1.18235,47,5
2.94422,22.3034,4.37296,12,13
2.97663,22.5186,5.24406,49,14
1.95538,14.7729,-0.260111,26,7
2.98933,22.5542,6.09622,12,15
0.0717271,0.536142,-0.144939,14,0
1.95681,14.6073,0.257248,34,8
0.0823878,0.614198,-0.143069,25,1
2.27587,16.9665,0.897143,13,9
1.06814,7.95241,-1.55967,21,2
2.72639,20.2714,1.78948,30,10
1.24784,9.26581,-1.48081,28,3
2.88077,21.3628,2.64676,25,11
1.53231,11.363,-1.40783,28,4
2.6531,19.6485,3.14027,3,12
1.82408,13.4912,-1.19107,40,5
3.02897,22.3733,4.38861,27,13
1.69939,12.536,-0.662992,3,6
3.04762,22.4816,5.23776,44,14
2.01403,14.8377,-0.261367,24,7
3.04564,22.4082,6.05947,33,15
0.0687793,0.50145,-0.135621,15,0
2.18074,15.8785,0.279762,40,8
0.0878756,0.639019,-0.148918,24,1
2.33022,16.9451,0.89641,45,9
1.09049,7.91965,-1.55395,21,2
2.79033,20.2385,1.78739,67,10
1.27803,9.25771,-1.48018,25,3
3.18589,23.0481,2.85686,15,11
1.56454,11.3186,-1.40296,27,4
1.90437,13.7417,-1.21373,27,5
3.11798,22.4701,4.4096,12,13
1.73765,12.5065,-0.661736,3,6
3.10393,22.3401,5.20717,26,14
2.07921,14.9458,-0.263392,50,7
3.13086,22.4765,6.0807,24,15
0.0806586,0.573915,-0.155291,12,0
2.23421,15.8771,0.279867,19,8
0.0889065,0.631006,-0.147118,24,1
2.38723,16.9432,0.896724,24,9
1.11291,7.88877,-1.54861,23,2
2.86857,20.3081,1.79436,30,10
1.30512,9.22799,-1.47612,28,3
3.24199,22.8939,2.83907,14,11
1.58509,11.1934,-1.38809,31,4
2.95778,20.8607,3.33706,28,12
1.94992,13.7353,-1.21373,30,5
3.20132,22.5218,4.42181,22,13
1.91898,13.4834,-0.713758,52,6
3.19748,22.4667,5.23911,44,14
1.99871,14.0262,-0.247301,52,7
3.3631,23.5714,6.37989,6,15
0.0745754,0.516241,-0.139762,14,0
2.55707,17.6793,0.311805,18,8
0.0946804,0.653803,-0.152517,23,1
2.46315,17.009,0.900702,11,9
1.14009,7.86307,-1.54441,21,2
2.9863,20.571,1.81859,31,10
1.33571,9.18968,-1.4708,26,3
3.31557,22.7831,2.82688,7,11
1.61484,11.0829,-1.37517,24,4
3.05979,20.9997,3.36115,35,12
2.01358,13.8026,-1.22035,42,5
2.96487,20.2987,3.98753,15,13
1.96814,13.4582,-0.712816,13,6
3.2995,22.5347,5.25801,44,14
2.18147,14.8988,-0.262833,92,7
3.29918,22.5051,6.09467,3,15
0.0763769,0.515978,-0.139762,14,0
2.30296,15.5581,0.274526,18,8
0.0925625,0.62457,-0.145768,25,1
2.48441,16.7435,0.887095,33,9
1.16522,7.8435,-1.54136,21,2
2.83855,19.0844,1.68803,7,10
1.36153,9.15394,-1.46579,20,3
3.39813,22.8191,2.83273,14,11
1.64514,11.0343,-1.36981,27,4
3.1459,21.0749,3.37492,13,12
2.09268,14.0024,-1.23866,22,5
3.00954,20.1373,3.95776,18,13
2.01097,13.4397,-0.712188,16,6
3.36265,22.4465,5.24001,5,14
2.22309,14.8219,-0.261612,28,7
3.37342,22.4648,6.08691,18,15
0.0723031,0.47752,-0.12941,15,0
2.35306,15.5223,0.274038,48,8
0.0959119,0.63195,-0.147568,24,1
1.18798,7.81825,-1.53716,21,2
2.89044,19,1.68141,17,10
1.38634,9.10226,-1.45828,25,3
4.25457,27.9015,3.46548,10,11
1.68095,11.0108,-1.36762,30,4
4.31105,28.2387,4.5244,6,12
2.10026,13.7413,-1.21617,25,5
3.07001,20.0626,3.94517,35,13
2.04034,13.3181,-0.706117,3,6
3.42356,22.321,5.21347,43,14
2.28314,14.8856,-0.262868,22,7
3.77131,24.5596,6.65786,3,15
2.35215,15.1765,0.268069,61,8
0.100099,0.645108,-0.150717,23,1
2.58267,16.6255,0.881756,38,9
1.21104,7.78689,-1.53181,19,2
2.95981,19.0095,1.68315,14,10
1.41317,9.07614,-1.45484,27,3
2.91619,18.7079,2.32478,25,11
1.71868,11.013,-1.36859,31,4
2.92733,18.7363,3.00354,3,12
2.17962,13.9347,-1.23395,27,5
3.13379,20.0348,3.94173,20,13
2.0814,13.2916,-0.70507,6,6
3.49727,22.3076,5.21302,5,14
2.27834,14.5161,-0.256481,100,7
3.59222,22.8611,6.20079,6,15
0.079783,0.50373,-0.136656,14,0
2.29487,14.473,0.255782,13,8
0.102961,0.648604,-0.151617,23,1
1.23563,7.77508,-1.53029,19,2
3.03911,19.1019,1.69222,10,10
1.43677,9.02044,-1.44671,33,3
2.99649,18.7917,2.33648,10,11
1.75367,10.9854,-1.36591,27,4
2.98617,18.685,2.99697,7,12
2.2761,14.226,-1.26045,32,5
3.21425,20.0897,3.95471,22,13
3.57141,22.2721,5.20762,48,14
2.28304,14.2217,-0.251419,43,7
3.66281,22.7912,6.18526,9,15
0.0810102,0.49962,-0.135621,15,0
2.34122,14.4392,0.255329,1,8
0.103351,0.636699,-0.148918,24,1
2.47635,15.2389,0.809114,10,9
1.26033,7.74724,-1.52571,19,2
3.60358,22.1268,1.96135,18,10
1.46219,8.96832,-1.4392,30,3
3.15693,19.363,2.40887,46,11
1.78305,10.9243,-1.35909,22,4
3.1001,18.9728,3.04484,19,12
2.26335,13.8366,-1.22663,30,5
2.44044,14.8866,-0.790587,42,6
3.65617,22.2781,5.21212,21,14
2.38935,14.559,-0.257528,17,7
3.66498,22.3075,6.0574,27,15
0.0852807,0.514581,-0.139762,14,0
0.10313,0.620937,-0.145318,25,1
3.18761,19.1924,1.01961,13,9
1.28479,7.7273,-1.52266,19,2
3.67948,22.1063,1.96066,41,10
1.49186,8.95342,-1.43763,28,3
3.15048,18.8872,2.3511,5,11
1.81719,10.8825,-1.3547,16,4
3.17249,18.9988,3.05079,37,12
2.2906,13.7028,-1.21547,42,5
3.36635,20.1165,3.96463,16,13
2.57158,15.3507,-0.815708,29,6
3.72618,22.2191,5.20132,59,14
2.35284,14.0299,-0.248313,23,7
3.68366,21.9421,5.96164,11,15
0.0903013,0.533328,-0.144939,14,0
0.107468,0.634041,-0.148468,24,1
3.82958,22.57,1.19975,19,9
1.30781,7.69955,-1.51808,19,2
4.57957,26.9331,2.39016,19,10
1.51227,8.89389,-1.42887,31,3
3.21309,18.8767,2.3511,35,11
1.84093,10.804,-1.34568,20,4
3.31154,19.4141,3.1193,33,12
2.35485,13.791,-1.22402,30,5
4.24925,24.8853,4.90723,21,13
2.62517,15.3579,-0.816546,45,6
5.27132,30.8062,7.21553,53,14
2.43454,14.2128,-0.251699,100,7
3.81377,22.2414,6.04653,18,15
0.090754,0.525411,-0.142868,14,0
2.66062,15.3873,0.272572,66,8
0.109348,0.631742,-0.148018,24,1
3.91107,22.5722,1.20059,24,9
1.32864,7.66809,-1.51273,23,2
4.67295,26.9413,2.39225,6,10
1.54703,8.90997,-1.43231,26,3
3.28202,18.883,2.3533,30,11
1.87422,10.7721,-1.34251,34,4
3.32675,19.1008,3.07081,42,12
2.42074,13.8989,-1.2343,30,5
4.95283,28.4078,5.60521,4,13
2.56029,14.6698,-0.780434,74,6
4.72216,27.0289,6.33462,43,14
2.46553,14.0978,-0.249814,94,7
3.96934,22.6732,6.16766,18,15
0.0838656,0.475626,-0.12941,15,0
2.67433,15.1514,0.268558,18,8
0.109857,0.621761,-0.145768,25,1
3.40058,19.2268,1.02327,7,9
1.34788,7.62087,-1.50434,19,2
3.39529,19.1774,1.70389,7,10
1.57571,8.8909,-1.43012,21,3
3.3871,19.0923,2.38084,10,11
1.90347,10.7185,-1.33666,17,4
3.37335,18.9762,3.05266,43,12
2.49017,14.008,-1.24476,30,5
3.44605,19.3656,3.82343,5,13
2.63075,14.7689,-0.786191,29,6
4.82297,27.0487,6.34317,8,14
2.58922,14.5065,-0.257214,24,7
3.89964,21.8262,5.94093,22,15
0.0889463,0.494343,-0.134586,15,0
2.74634,15.2483,0.270442,22,8
0.113756,0.630963,-0.148018,24,1
1.37168,7.60066,-1.50129,19,2
3.49656,19.3556,1.7208,14,10
1.60005,8.84841,-1.42418,22,3
3.44488,19.0315,2.37475,10,11
1.93415,10.6747,-1.33203,20,4
3.56789,19.6719,3.16655,13,12
2.44163,13.4621,-1.197,27,5
3.47015,19.114,3.77611,8,13
2.57872,14.1898,-0.755836,42,6
4.88353,26.8457,6.29953,25,14
2.73227,15.0049,-0.266219,100,7
3.98064,21.8391,5.94818,16,15
0.0913689,0.49783,-0.135621,15,0
2.80353,15.2602,0.270826,34,8
0.11631,0.632479,-0.148468,24,1
3.11314,16.9123,0.901225,13,9
1.39572,7.58231,-1.49861,19,2
4.59305,24.9276,2.21759,11,10
1.62949,8.835,-1.42293,16,3
4.05657,21.9729,2.74352,20,11
1.96888,10.6542,-1.33033,16,4
4.25453,23.0002,3.70468,13,12
2.51324,13.5867,-1.20885,30,5
3.53363,19.0844,3.77268,13,13
2.59985,14.0275,-0.747672,84,6
4.43547,23.9084,5.61388,6,14
2.61705,14.0929,-0.250198,100,7
4.05227,21.8004,5.94145,11,15
0.0995028,0.531688,-0.144939,14,0
2.84574,15.1914,0.269779,13,8
0.119953,0.63973,-0.150267,24,1
3.14343,16.7644,0.893898,19,9
1.41964,7.56389,-1.49594,19,2
4.52479,24.085,2.14403,5,10
1.65704,8.81179,-1.42011,16,3
4.16997,22.1537,2.7679,7,11
1.99428,10.595,-1.32374,16,4
3.57369,18.9677,3.05704,7,12
2.51044,13.3116,-1.18514,20,5
5.7871,30.6566,6.06429,9,13
2.74002,14.5012,-0.773421,48,6
4.209,22.2755,5.23371,5,14
2.78937,14.7483,-0.261996,100,7
4.15796,21.9633,5.98959,17,15
0.0976487,0.512378,-0.139762,14,0
3.2056,16.8044,0.298611,24,8
0.120978,0.633587,-0.148918,24,1
3.17429,16.6244,0.88699,8,9
1.43735,7.52057,-1.48831,23,2
4.70534,24.5963,2.19092,11,10
1.68217,8.7849,-1.41667,23,3
3.79948,19.8236,2.47834,10,11
2.01894,10.5337,-1.31692,17,4
3.63136,18.9286,3.05266,16,12
2.62408,13.6652,-1.21739,27,5
3.7157,19.3317,3.82648,17,13
2.72054,14.1409,-0.754685,74,6
4.27474,22.2194,5.22381,43,14
2.74865,14.2735,-0.253723,69,7
4.26002,22.1012,6.031,23,15
0.0964033,0.49688,-0.135621,15,0
2.82444,14.544,0.25861,12,8
0.125309,0.64466,-0.151617,23,1
1.4619,7.51384,-1.48793,21,2
5.29227,27.1757,2.42223,13,10
1.70411,8.74244,-1.41073,21,3
3.82301,19.5946,2.45128,10,11
2.04923,10.4935,-1.31278,17,4
5.20904,26.6492,4.3007,33,12
2.66488,13.6207,-1.21425,27,5
3.78808,19.3617,3.83488,10,13
2.78585,14.2259,-0.759709,39,6
4.34928,22.189,5.22021,53,14
2.70799,13.8027,-0.24552,22,7
4.35128,22.1582,6.05067,9,15
0.0974744,0.492733,-0.134586,15,0
3.044,15.3874,0.273793,22,8
0.12453,0.628925,-0.148018,24,1
1.48714,7.49687,-1.48564,21,2
3.77731,19.0245,1.69692,21,10
1.72767,8.69351,-1.40384,21,3
4.59636,23.1286,2.89537,15,11
2.07888,10.4512,-1.30839,16,4
3.98751,20.0284,3.23444,10,12
2.69722,13.5352,-1.20746,27,5
3.85403,19.3226,3.82992,8,13
2.89663,14.5094,-0.77541,58,6
4.43134,22.1767,5.22111,43,14
2.75536,13.7893,-0.245451,21,7
4.50362,22.518,6.15316,6,15
0.0991937,0.492389,-0.134586,15,0
0.124136,0.615093,-0.144868,25,1
3.07902,15.2428,0.814976,2,9
1.50825,7.46662,-1.48068,23,2
5.47712,27.0903,2.41805,27,10
1.75487,8.67193,-1.40134,21,3
4.69805,23.1953,2.90585,15,11
2.10731,10.3949,-1.3023,16,4
5.5037,27.1243,4.38361,15,12
2.72504,13.43,-1.19891,27,5
5.39453,26.5624,5.26862,14,13
2.92577,14.3935,-0.769757,9,6
4.50601,22.1478,5.21796,21,14
2.7995,13.7477,-0.244892,61,7
4.59692,22.5543,6.16766,18,15
0.10324,0.503395,-0.137692,14,0
3.34422,16.2918,0.290303,29,8
0.125106,0.608929,-0.143519,25,1
1.52916,7.43631,-1.47572,26,2
4.04941,19.6749,1.75741,14,10
1.78034,8.64254,-1.39759,20,3
3.97648,19.2864,2.41789,10,11
2.13235,10.333,-1.29547,16,4
3.95812,19.1636,3.09928,16,12
2.76464,13.3853,-1.19578,27,5
6.64856,32.1613,6.38371,60,13
3.00514,14.524,-0.777294,13,6
4.5825,22.1281,5.21706,21,14
3.12386,15.0713,-0.268662,100,7
4.53044,21.8382,5.97613,17,15
0.102629,0.491685,-0.134586,15,0
3.14017,15.0312,0.268034,9,8
0.127231,0.608489,-0.143519,25,1
3.49097,16.6812,0.893165,22,9
1.54345,7.3752,-1.46465,23,2
5.11306,24.411,2.18203,22,10
1.80726,8.6208,-1.39508,20,3
4.09922,19.5367,2.45104,5,11
2.15657,10.2692,-1.2884,20,4
5.55681,26.4376,4.2788,14,12
2.76996,13.1786,-1.17817,30,5
5.57418,26.4972,5.26328,14,13
3.18708,15.1369,-0.810684,42,6
5.18291,24.5947,5.80284,57,14
3.17645,15.0603,-0.268662,100,7
4.59027,21.7448,5.95491,27,15
3.17973,14.9595,0.266952,25,8
0.131381,0.617571,-0.145768,25,1
3.49053,16.3935,0.878407,44,9
1.56346,7.34288,-1.45931,26,2
4.3129,20.2385,1.8104,11,10
1.83199,8.58933,-1.39102,16,3
4.0845,19.134,2.40229,10,11
2.18121,10.2092,-1.28182,19,4
4.16989,19.5006,3.15841,17,12
2.79178,13.0558,-1.16806,27,5
3.23321,15.0944,-0.809009,45,6
4.71686,22.0022,5.19502,59,14
3.22103,15.012,-0.267999,90,7
6.79602,31.6467,8.67303,35,15
0.10198,0.472073,-0.12941,15,0
3.21037,14.8486,0.265172,46,8
0.138894,0.64187,-0.151617,23,1
3.52448,16.2739,0.87265,26,9
1.58908,7.33738,-1.45931,19,2
5.92657,27.3422,2.44768,6,10
1.85735,8.56165,-1.38757,18,3
5.20931,23.9926,3.01456,25,11
2.21388,10.1879,-1.28012,15,4
5.47089,25.1551,4.07731,11,12
2.81617,12.9487,-1.15935,26,5
3.27567,15.0362,-0.806497,32,6
4.81771,22.096,5.22111,21,14
3.2781,15.0221,-0.268383,100,7
4.77,21.8406,5.99011,11,15
0.107772,0.490583,-0.134586,15,0
3.31587,15.0814,0.269535,61,8
0.136109,0.618542,-0.146218,25,1
3.59329,16.3161,0.875581,46,9
1.60919,7.30686,-1.45435,26,2
4.42064,20.0561,1.7968,3,10
1.88042,8.52425,-1.38257,17,3
6.03853,27.351,3.43915,21,11
2.24172,10.1453,-1.27573,17,4
4.29611,19.4266,3.15122,29,12
2.84587,12.8687,-1.15307,26,5
5.92432,26.7671,5.32891,41,13
3.35621,15.1514,-0.813301,35,6
5.91469,26.6794,6.30898,100,14
3.31233,14.9286,-0.266917,100,7
6.19972,27.9191,7.66311,21,15
0.109484,0.490204,-0.134586,15,0
0.138267,0.618064,-0.146218,25,1
3.6895,16.4788,0.885001,19,9
1.62911,7.2763,-1.44939,26,2
4.05629,18.1022,1.62301,23,10
1.90497,8.4945,-1.37881,16,3
5.71576,25.4664,3.20468,100,11
2.26624,10.089,-1.26963,17,4
4.35782,19.3845,3.14684,48,12
2.87372,12.7829,-1.14627,26,5
6.02333,26.7712,5.33387,41,13
3.24368,14.4051,-0.773839,35,6
3.3609,14.9014,-0.266638,100,7
4.90152,21.7144,5.96474,11,15
0.111194,0.489819,-0.134586,15,0
0.142152,0.625178,-0.148018,24,1
3.39468,14.9176,0.801787,13,9
1.65102,7.25525,-1.44633,26,2
4.53577,19.916,1.78704,41,10
1.93066,8.47047,-1.376,15,3
4.23118,18.5487,2.33599,15,11
2.28863,10.0249,-1.26257,20,4
5.17213,22.6372,3.67777,11,12
2.88548,12.6291,-1.13337,28,5
6.10318,26.6906,5.32204,41,13
3.4227,14.9563,-0.80409,48,6
5.26026,22.9675,5.43977,24,14
3.5447,15.4645,-0.276935,100,7
4.97512,21.6877,5.96216,25,15
0.108397,0.470641,-0.12941,15,0
3.45174,14.975,0.268243,49,8
0.144553,0.626627,-0.148468,24,1
3.90205,16.9016,0.909076,30,9
1.6702,7.2287,-1.44213,26,2
4.59517,19.8881,1.78582,45,10
1.9497,8.43164,-1.37068,15,3
5.51575,23.8344,3.00384,16,11
2.31385,9.99054,-1.25915,23,4
6.13798,26.4811,4.30539,27,12
2.91159,12.5515,-1.12727,28,5
6.17877,26.6148,5.31098,18,13
3.47363,14.9507,-0.804404,65,6
5.82501,25.0712,5.94231,60,14
3.4986,15.0462,-0.26964,89,7
5.03054,21.6174,5.94714,16,15
0.113645,0.485289,-0.133551,15,0
3.51163,14.9837,0.268627,16,8
0.151743,0.646963,-0.153417,23,1
3.99865,17.035,0.917031,16,9
1.69265,7.20532,-1.4387,21,2
4.67351,19.8944,1.78791,41,10
1.97199,8.3879,-1.36473,15,3
5.45258,23.1744,2.92316,15,11
2.3459,9.96267,-1.25672,19,4
6.04741,25.6624,4.17586,13,12
2.92922,12.4205,-1.11646,28,5
3.55137,15.0351,-0.809637,48,6
5.66511,23.9838,5.68946,27,14
3.5436,14.9905,-0.268872,100,7
5.1204,21.644,5.95957,11,15
0.116317,0.488628,-0.134586,15,0
3.53222,14.8267,0.266044,49,8
0.145979,0.612282,-0.145318,25,1
4.0442,16.9626,0.91389,40,9
1.71687,7.19555,-1.43794,26,2
4.74824,19.8849,1.78861,52,10
1.99768,8.35948,-1.36129,13,3
5.54486,23.1852,2.92706,47,11
2.37327,9.92353,-1.25282,17,4
5.42519,22.6673,3.69154,29,12
2.94889,12.3114,-1.10758,26,5
3.40814,14.2069,-0.765675,29,6
5.75015,23.9695,5.69081,20,14
3.63419,15.1375,-0.271734,89,7
5.18464,21.579,5.94663,30,15
0.122473,0.507018,-0.139762,14,0
3.53345,14.6167,0.262484,36,8
0.149842,0.619371,-0.147118,24,1
4.1333,17.085,0.921218,40,9
1.73611,7.17074,-1.43412,23,2
4.8212,19.898,1.79122,30,10
2.02073,8.33362,-1.35816,16,3
5.61236,23.1281,2.92218,7,11
2.3954,9.87124,-1.24721,20,4
6.64898,27.379,4.46245,15,12
2.96994,12.2202,-1.10025,28,5
5.80107,23.8512,4.77137,24,13
3.45382,14.1897,-0.765361,65,6
5.93791,24.3953,5.79654,14,14
3.64177,14.9505,-0.268593,90,7
5.52566,22.6672,6.25152,9,15
0.119555,0.487845,-0.134586,15,0
3.60809,14.7117,0.264404,10,8
0.150966,0.615085,-0.146218,25,1
4.17375,17.0053,0.917659,34,9
1.75192,7.13253,-1.42763,23,2
5.59578,22.7648,2.05095,15,10
2.04364,8.30769,-1.35504,16,3
5.68237,23.0823,2.91877,47,11
2.41939,9.82041,-1.24185,17,4
5.72142,23.2235,3.78822,28,12
2.97945,12.0846,-1.08892,28,5
6.02263,24.4094,4.887,12,13
3.68231,14.913,-0.805032,32,6
5.41765,21.9245,5.21392,21,14
3.6851,14.9131,-0.268139,90,7
6.078,24.5785,6.78417,16,15
0.121258,0.487425,-0.134586,15,0
3.681,14.7967,0.266149,13,8
0.153004,0.614581,-0.146218,25,1
4.34123,17.4247,0.941105,11,9
1.77253,7.10923,-1.4242,21,2
5.88792,23.5976,2.12782,32,10
2.06687,8.28362,-1.35222,20,3
5.75745,23.0576,2.91804,23,11
2.44665,9.79115,-1.23917,15,4
5.8106,23.2359,3.79354,21,12
2.99791,11.9794,-1.08038,26,5
5.94817,23.7684,4.76259,30,13
3.7007,14.7767,-0.798333,52,6
5.49269,21.9159,5.21617,37,14
3.66464,14.6111,-0.262938,29,7
5.80963,23.1462,6.39438,7,15
0.121928,0.483274,-0.133551,15,0
3.75025,14.8535,0.267406,37,8
0.155149,0.614043,-0.146218,25,1
1.79204,7.08206,-1.42,23,2
5.70515,22.5465,2.03474,24,10
2.0885,8.24763,-1.34753,18,3
6.11536,24.1322,3.05673,43,11
2.47447,9.75753,-1.236,17,4
5.90236,23.2576,3.80042,26,12
3.03333,11.9438,-1.07812,26,5
6.16194,24.245,4.86258,15,13
3.73907,14.7011,-0.794983,45,6
5.56579,21.8833,5.21302,21,14
3.73634,14.6797,-0.264404,100,7
6.2795,24.6534,6.81678,24,15
0.127534,0.497795,-0.137692,14,0
3.80119,14.8261,0.267161,12,8
0.153039,0.596482,-0.142169,26,1
4.41863,17.2094,0.931161,15,9
1.81652,7.06974,-1.41886,21,2
5.80808,22.6046,2.04188,20,10
2.10838,8.19974,-1.34096,16,3
6.18992,24.0558,3.0499,42,11
2.49933,9.70611,-1.23064,19,4
6.39521,24.8178,4.05916,10,12
3.07709,11.9326,-1.07812,26,5
6.15806,23.863,4.79045,18,13
3.78643,14.6622,-0.793622,65,6
5.59479,21.6647,5.16578,36,14
3.84766,14.8885,-0.268418,22,7
6.73355,26.0367,7.20604,9,15
0.129358,0.497324,-0.137692,14,0
4.44486,17.0763,0.308,15,8
0.159646,0.61289,-0.146218,25,1
1.83474,7.03866,-1.41389,26,2
4.67188,17.91,1.61935,13,10
2.13493,8.17858,-1.33877,13,3
5.99006,22.9305,2.91,15,11
2.52685,9.66615,-1.22674,22,4
6.76408,25.8751,4.23593,31,12
3.11115,11.8928,-1.0755,26,5
6.36163,24.3009,4.8828,31,13
3.82697,14.6083,-0.791424,68,6
5.62623,21.4612,5.12214,56,14
3.89707,14.8653,-0.268243,100,7
6.82193,26.0037,7.20345,18,15
4.50249,17.0653,0.30807,39,8
0.163667,0.619893,-0.148018,24,1
4.53458,17.1627,0.930324,35,9
1.85529,7.01703,-1.41084,23,2
5.97224,22.5721,2.04276,10,10
2.15598,8.14854,-1.33501,13,3
5.98324,22.5978,2.87027,30,11
2.55127,9.62893,-1.22308,20,4
6.78146,25.5764,4.19088,34,12
3.14805,11.8646,-1.07393,26,5
6.97437,26.2855,5.28617,15,13
4.02301,15.1515,-0.82157,35,6
5.70087,21.4556,5.12528,51,14
3.97411,14.9463,-0.269954,100,7
5.81884,21.8688,6.06361,3,15
0.128748,0.481502,-0.133551,15,0
3.995,14.9304,0.269779,16,8
0.163814,0.611789,-0.146218,25,1
4.54084,16.9585,0.920066,62,9
1.87245,6.98808,-1.40626,26,2
4.52587,16.879,1.52889,16,10
2.18031,8.1257,-1.33251,16,3
6.05128,22.5365,2.86515,15,11
2.57714,9.59122,-1.21942,17,4
6.88776,25.6339,4.20402,25,12
3.1641,11.7675,-1.06609,26,5
7.07068,26.278,5.28961,18,13
4.06653,15.1026,-0.819686,42,6
5.81122,21.5673,5.15678,52,14
4.00909,14.879,-0.268976,24,7
5.88428,21.8233,6.05637,33,15
0.126383,0.466133,-0.12941,15,0
4.73052,17.4473,0.31554,56,8
0.165842,0.611242,-0.146218,25,1
4.5503,16.7594,0.910122,22,9
1.89374,6.97013,-1.40397,26,2
4.57221,16.817,1.5247,29,10
2.19947,8.08983,-1.32782,16,3
6.12599,22.5163,2.86515,30,11
2.60788,9.57879,-1.21894,17,4
6.64591,24.3937,4.00441,26,12
3.1973,11.7275,-1.06347,23,5
6.62073,24.2845,4.89272,21,13
4.06716,14.908,-0.809847,29,6
5.89605,21.5968,5.16848,57,14
4.06048,14.863,-0.268942,32,7
5.96807,21.8306,6.06413,18,15
0.139186,0.506694,-0.140798,14,0
4.76225,17.3247,0.31362,22,8
0.168491,0.612538,-0.146668,24,1
1.9132,6.95057,-1.4013,28,2
4.62373,16.7863,1.52331,35,10
2.22035,8.05544,-1.32344,18,3
6.50328,23.5779,3.0031,8,11
2.64078,9.56771,-1.21869,17,4
6.72945,24.3647,4.00347,28,12
3.22131,11.6631,-1.05859,26,5
7.24728,26.2217,5.28808,22,13
4.16923,15.0746,-0.819686,42,6
5.97452,21.5873,5.17118,31,14
4.37171,15.7853,-0.285905,86,7
6.13401,22.1335,6.1542,9,15
0.129553,0.465262,-0.12941,15,0
4.91985,17.6566,0.319938,43,8
0.166964,0.598807,-0.143519,25,1
4.69134,16.8138,0.914833,17,9
1.93376,6.93061,-1.39863,26,2
4.68069,16.7643,1.52279,13,10
2.24101,8.02101,-1.31906,15,3
8.23928,29.4701,3.75723,24,11
2.6656,9.52785,-1.21479,16,4
6.81658,24.3486,4.00472,21,12
3.24804,11.6019,-1.05406,26,5
7.3483,26.2303,5.29495,11,13
4.28868,15.2984,-0.832665,32,6
6.30301,22.4688,5.38758,17,14
4.45219,15.8604,-0.287546,23,7
4.87818,17.2737,0.313306,61,8
0.171703,0.607597,-0.145768,25,1
4.93044,17.4354,0.949584,32,9
1.94779,6.88792,-1.39138,26,2
5.38744,19.0389,1.73109,31,10
2.26308,7.99223,-1.31561,18,3
8.3394,29.4316,3.75601,24,11
2.68855,9.4822,-1.21016,15,4
6.39579,22.5422,3.71125,9,12
3.27656,11.5483,-1.05023,23,5
10.4914,36.9526,7.46674,7,13
4.31093,15.1739,-0.826699,58,6
6.221,21.8825,5.25216,55,14
4.60657,16.1929,-0.293864,85,7
6.57187,23.0861,6.43165,21,15
0.141298,0.494065,-0.137692,14,0
4.40037,15.3763,0.279169,11,8
0.173287,0.60512,-0.145318,25,1
4.78,16.6808,0.90939,29,9
1.96425,6.85466,-1.38604,28,2
5.49891,19.177,1.74538,10,10
2.2866,7.96909,-1.31311,17,3
10.2801,35.8037,4.57376,14,11
2.71615,9.45368,-1.20773,15,4
6.4668,22.4931,3.70687,29,12
3.30088,11.4813,-1.04517,23,5
6.58407,22.886,4.62903,11,13
4.39813,15.2777,-0.833189,39,6
6.30221,21.8775,5.25621,11,14
4.6398,16.0961,-0.292398,85,7
6.45379,22.3744,6.23961,35,15
0.145172,0.500991,-0.139762,14,0
4.90565,16.9184,0.307476,31,8
0.173226,0.597025,-0.143519,25,1
4.93713,17.0159,0.928545,26,9
1.9909,6.85719,-1.38794,26,2
5.8593,20.1679,1.83742,28,10
2.30558,7.93071,-1.30811,17,3
6.81799,23.4371,2.99701,16,11
2.74248,9.42127,-1.2048,15,4
6.66777,22.9059,3.77852,35,12
3.32979,11.4314,-1.04169,22,5
6.66228,22.8572,4.62788,30,13
4.32281,14.8213,-0.809114,35,6
6.99274,23.9599,5.76235,28,14
4.53068,15.5239,-0.282275,100,7
7.80387,26.7218,7.45917,5,15
0.136037,0.463408,-0.12941,15,0
4.88063,16.6258,0.30245,17,8
0.177402,0.603927,-0.145318,25,1
4.96271,16.8836,0.922264,8,9
2.01261,6.84266,-1.38642,19,2
5.55334,18.8686,1.7208,3,10
2.32295,7.8927,-1.3031,15,3
6.89118,23.3992,2.99506,41,11
2.76585,9.38546,-1.20139,16,4
3.35614,11.3739,-1.0375,20,5
6.73081,22.8105,4.62292,22,13
4.4941,15.2206,-0.831723,61,6
7.61604,25.7774,6.2055,24,14
4.75889,16.0967,-0.292991,85,7
6.42673,21.7241,6.07034,18,15
0.143076,0.481473,-0.134586,15,0
4.94604,16.6336,0.302904,40,8
0.177286,0.595832,-0.143519,25,1
5.7363,19.2666,1.05352,13,9
2.02632,6.80584,-1.38031,26,2
5.97312,20.0492,1.83027,16,10
2.34371,7.86183,-1.29934,17,3
11.4789,38.4808,4.93059,16,11
2.78724,9.33771,-1.19651,16,4
7.53024,25.2115,4.16741,11,12
3.38612,11.3296,-1.03454,20,5
8.91074,29.8145,6.04865,19,13
4.54378,15.1933,-0.831095,39,6
6.82996,22.8233,5.50005,31,14
4.74736,15.854,-0.288872,100,7
6.49199,21.6664,6.06051,33,15
0.148182,0.492044,-0.137692,14,0
5.0329,16.7119,0.304649,73,8
0.179927,0.597076,-0.143969,25,1
2.04842,6.78897,-1.3784,23,2
7.02727,23.2754,2.12712,16,10
2.37194,7.8513,-1.29903,16,3
8.26512,27.3582,3.50911,22,11
2.81293,9.30512,-1.19359,15,4
7.1778,23.7291,3.92651,27,12
3.41065,11.2682,-1.03001,22,5
9.03248,29.8229,6.05704,4,13
4.53455,14.9625,-0.819372,35,6
6.92035,22.8205,5.50545,50,14
4.76031,15.6976,-0.286324,100,7
6.54907,21.5826,6.04342,34,15
0.146517,0.480437,-0.134586,15,0
5.03751,16.5079,0.301263,28,8
0.187805,0.61505,-0.148468,24,1
5.19353,16.9979,0.931475,14,9
2.06637,6.76301,-1.37459,23,2
5.87528,19.2172,1.75811,32,10
2.39124,7.81652,-1.29465,18,3
6.88308,22.4855,2.88733,15,11
2.83771,9.26438,-1.18969,13,4
7.25952,23.6857,3.92369,27,12
3.42778,11.1838,-1.02338,24,5
6.80289,22.182,4.50996,28,13
4.52582,14.748,-0.808486,48,6
7.11037,23.1557,5.59228,13,14
4.84131,15.7565,-0.28772,100,7
6.73543,21.9075,6.14126,31,15
0.157313,0.509456,-0.142868,14,0
5.11635,16.559,0.30252,78,8
0.187073,0.605082,-0.146218,25,1
5.80297,18.758,1.02903,47,9
2.08938,6.75388,-1.37421,23,2
5.92111,19.128,1.75183,18,10
2.40858,7.77605,-1.28933,18,3
7.00679,22.6073,2.9061,38,11
2.86532,9.23925,-1.18774,13,4
3.44849,11.1128,-1.01798,24,5
6.92744,22.31,4.54087,26,13
4.54763,14.6368,-0.803252,35,6
7.27041,23.3857,5.65392,26,14
4.67769,15.0368,-0.274875,40,7
8.36784,26.8826,7.54406,5,15
0.159091,0.508904,-0.142868,14,0
5.19203,16.5983,0.303567,45,8
0.187438,0.598846,-0.144868,25,1
2.10942,6.7353,-1.37192,23,2
7.00548,22.3545,2.04955,15,10
2.42921,7.74686,-1.28589,21,3
7.05891,22.4975,2.89513,15,11
2.88686,9.1951,-1.18335,13,4
10.746,34.2069,5.67888,10,12
3.47532,11.0627,-1.01449,24,5
6.98878,22.2332,4.53019,10,13
4.31765,13.7272,-0.754161,35,6
7.42104,23.5795,5.70701,34,14
5.20406,16.5253,-0.302415,100,7
0.145712,0.460458,-0.12941,15,0
5.16785,16.3208,0.29882,28,8
0.189526,0.598188,-0.144868,25,1
5.25959,16.5904,0.912111,4,9
2.12936,6.71667,-1.36963,23,2
7.07143,22.292,2.04607,20,10
2.45204,7.72516,-1.2837,22,3
7.13079,22.4519,2.89245,38,11
2.90511,9.14145,-1.17775,15,4
8.62474,27.123,4.50782,9,12
3.50122,11.0106,-1.01083,22,5
7.20088,22.6315,4.61643,27,13
4.34979,13.6626,-0.75144,52,6
7.5092,23.5721,5.71151,34,14
5.21617,16.3641,-0.299797,85,7
0.159017,0.49677,-0.139762,14,0
5.27378,16.4654,0.301787,61,8
0.18913,0.590133,-0.143069,25,1
5.28469,16.4796,0.906982,11,9
2.14443,6.68714,-1.36505,26,2
5.49565,17.1272,1.57368,13,10
2.47282,7.70194,-1.2812,18,3
7.21553,22.4603,2.89659,46,11
2.92447,9.09775,-1.17336,15,4
7.56241,23.5119,3.9118,27,12
3.5243,10.9572,-1.007,22,5
7.25243,22.5346,4.60155,22,13
4.40058,13.6652,-0.752382,35,6
7.56582,23.4803,5.69531,27,14
5.16609,16.0232,-0.293864,100,7
8.07838,25.041,7.05023,4,15
0.154796,0.477833,-0.134586,15,0
5.20173,16.0474,0.294457,61,8
0.195398,0.602445,-0.146218,25,1
5.34464,16.4687,0.907401,9,9
2.1617,6.66094,-1.36123,23,2
7.02854,21.6445,1.99099,28,10
2.4942,7.67635,-1.27838,27,3
2.94393,9.04974,-1.16848,15,4
7.6047,23.3632,3.89146,20,12
3.54279,10.8842,-1.00142,23,5
7.5171,23.0804,4.71833,31,13
4.45444,13.6688,-0.753429,35,6
7.78488,23.8743,5.79744,28,14
5.24246,16.0678,-0.295015,100,7
7.94209,24.3277,6.85715,16,15
0.156464,0.47729,-0.134586,15,0
5.2571,16.0273,0.294422,38,8
0.195676,0.596205,-0.144868,25,1
5.40148,16.448,0.907296,12,9
2.18187,6.64402,-1.35932,26,2
7.07731,21.5384,1.98349,52,10
2.50431,7.61693,-1.26994,26,3
10.2263,31.0853,4.01803,13,11
2.9724,9.02997,-1.16726,15,4
7.71153,23.4135,3.90429,27,12
3.56331,10.8188,-0.996539,23,5
7.57487,22.985,4.70421,51,13
4.59532,13.9358,-0.769025,81,6
7.63125,23.1289,5.62288,33,14
5.39192,16.3324,-0.300216,100,7
8.22451,24.8978,7.0259,26,15
0.164211,0.495077,-0.139762,14,0
5.28844,15.9348,0.293061,50,8
0.194685,0.586271,-0.142619,26,1
6.39218,19.238,1.06242,13,9
2.20196,6.62705,-1.35742,23,2
7.16942,21.5646,1.9882,38,10
2.52964,7.60439,-1.26931,20,3
7.6591,23.0107,2.97776,8,11
2.99198,8.98376,-1.16263,15,4
3.58531,10.759,-0.992181,23,5
7.63333,22.8933,4.69085,23,13
4.69197,14.0636,-0.77698,35,6
7.70144,23.0707,5.61523,39,14
5.33804,15.9815,-0.294108,100,7
8.33218,24.9312,7.0435,35,15
0.165937,0.494501,-0.139762,14,0
5.35295,15.9428,0.293549,52,8
0.191766,0.570809,-0.13902,26,1
5.76328,17.1549,0.948432,13,9
2.21694,6.59513,-1.35245,26,2
7.21544,21.4526,1.98018,37,10
2.55176,7.58241,-1.26712,26,3
7.56706,22.4721,2.91146,38,11
3.01255,8.94128,-1.15849,13,4
12.8831,38.2371,6.39066,26,12
3.62221,10.7446,-0.992007,21,5
8.30869,24.6319,5.053,16,13
4.71613,13.9734,-0.772897,35,6
7.74452,22.9329,5.58823,45,14
5.4825,16.2346,-0.299099,100,7
8.41915,24.9163,7.04712,39,15
0.167663,0.493919,-0.139762,14,0
5.55105,16.3529,0.301438,57,8
0.199298,0.586777,-0.143069,25,1
5.7113,16.8057,0.930219,33,9
2.23553,6.57434,-1.34978,23,2
5.63392,16.559,1.53028,39,10
2.5699,7.55333,-1.26368,20,3
8.1418,23.9164,3.10206,17,11
3.03194,8.90118,-1.15459,15,4
7.68905,22.5606,3.77508,14,12
3.6449,10.6885,-0.987997,23,5
8.88141,26.0443,5.34876,3,13
4.73793,13.8858,-0.76892,35,6
7.77457,22.7725,5.55539,70,14
5.58179,16.3403,-0.301403,100,7
8.49419,24.852,7.03729,26,15
5.54771,16.1575,0.298192,14,8
0.204511,0.595293,-0.145318,25,1
5.74851,16.7233,0.926765,46,9
2.25157,6.55018,-1.34635,23,2
7.46172,21.695,2.0072,33,10
2.59174,7.53124,-1.26149,23,3
8.25756,23.9817,3.11425,8,11
3.05523,8.86802,-1.15167,15,4
7.76839,22.5355,3.77539,26,12
3.66854,10.6361,-0.984337,21,5
7.88723,22.8673,4.70192,28,13
4.7753,13.8371,-0.767141,39,6
7.85974,22.7618,5.55944,51,14
5.53497,16.0202,-0.295853,100,7
8.56701,24.782,7.0259,35,15
5.629,16.2098,0.299518,61,8
0.198913,0.572486,-0.13992,26,1
5.79569,16.6711,0.924986,25,9
2.27234,6.53262,-1.34444,26,2
7.46392,21.4455,1.98663,23,10
2.60764,7.48811,-1.25586,23,3
8.36994,24.0352,3.12497,9,11
3.07507,8.82543,-1.14752,15,4
7.9517,22.8085,3.82576,19,12
3.68859,10.5744,-0.979805,21,5
7.95804,22.8011,4.69428,34,13
4.76145,13.6347,-0.756883,35,6
7.93282,22.7034,5.55224,6,14
5.59943,16.0253,-0.296307,100,7
8.64454,24.7264,7.01866,13,15
0.165145,0.470263,-0.133551,15,0
5.68771,16.1872,0.299483,52,8
0.198424,0.564399,-0.13812,27,1
5.71162,16.2371,0.902063,15,9
2.28927,6.50798,-1.34101,26,2
7.59032,21.5659,2.00022,33,10
2.62326,7.44915,-1.25085,30,3
7.68746,21.8176,2.84029,44,11
3.09881,8.78976,-1.14435,15,4
8.06351,22.8594,3.83922,23,12
3.71487,10.5313,-0.977016,23,5
8.03302,22.7603,4.69161,14,13
4.73851,13.4184,-0.745787,35,6
8.01203,22.6756,5.55224,25,14
5.6508,15.984,-0.295923,100,7
8.13597,23.0008,6.53725,29,15
0.161614,0.45512,-0.12941,15,0
5.74954,16.1823,0.299763,78,8
0.200393,0.563703,-0.13812,27,1
6.47774,18.2117,1.01301,12,9
2.30802,6.48885,-1.33872,21,2
7.68894,21.605,2.00633,52,10
2.64858,7.43809,-1.25054,18,3
7.6996,21.6111,2.81689,43,11
3.11348,8.73402,-1.1385,15,4
8.23615,23.0916,3.88302,25,12
3.74559,10.5014,-0.975447,21,5
8.46742,23.7269,4.89692,34,13
4.75175,13.3077,-0.740554,35,6
8.06819,22.5832,5.5365,6,14
5.72338,16.0112,-0.296796,85,7
8.23182,23.0159,6.54967,14,15
0.182785,0.509099,-0.144939,14,0
5.79788,16.1396,0.299344,82,8
0.201041,0.559333,-0.13722,27,1
6.55026,18.224,1.0149,1,9
2.32734,6.47151,-1.33681,26,2
7.69011,21.3718,1.98715,38,10
2.67252,7.42323,-1.2496,23,3
7.77971,21.5971,2.81859,65,11
3.13385,8.69508,-1.13485,15,4
8.34149,23.144,3.89647,25,12
3.76735,10.4471,-0.971612,23,5
8.71544,24.1551,4.99156,16,13
4.74392,13.1407,-0.73218,35,6
9.80865,27.1554,6.66575,38,14
5.79886,16.0542,-0.297947,93,7
8.30417,22.9776,6.54657,18,15
0.164787,0.453981,-0.12941,15,0
5.84454,16.1015,0.298995,17,8
0.213539,0.58797,-0.144419,25,1
6.9167,19.0345,1.06137,21,9
2.34857,6.45966,-1.33604,26,2
7.16733,19.7028,1.83428,20,10
2.68767,7.38833,-1.24522,23,3
7.79832,21.4257,2.79958,57,11
3.15451,8.66226,-1.13192,16,4
8.19229,22.4837,3.79009,14,12
3.784,10.3796,-0.966557,23,5
8.28578,22.728,4.7023,11,13
4.78679,13.1231,-0.732075,35,6
8.30723,22.7621,5.59408,32,14
5.98656,16.3945,-0.304649,100,7
8.39162,22.9684,6.55226,32,15
0.171613,0.467942,-0.133551,15,0
5.85112,15.9458,0.296481,33,8
0.210217,0.572586,-0.140819,26,1
6.88324,18.7384,1.0462,15,9
2.36321,6.43341,-1.33223,26,2
7.2285,19.6677,1.83323,20,10
2.69368,7.32514,-1.23615,31,3
7.95052,21.6089,2.82713,36,11
3.18199,8.64374,-1.13095,15,4
8.26868,22.4494,3.78916,30,12
3.81359,10.3539,-0.965337,22,5
9.50829,25.8011,5.34494,41,13
4.82841,13.095,-0.731447,35,6
8.39271,22.7494,5.59813,26,14
5.99597,16.2441,-0.302241,100,7
12.0082,32.5147,9.28746,8,15
0.175931,0.474585,-0.135621,15,0
5.91509,15.9478,0.2969,21,8
0.206112,0.555406,-0.13677,27,1
6.97155,18.776,1.04965,33,9
2.3836,6.4196,-1.33108,23,2
8.13735,21.9041,2.04433,30,10
2.72817,7.33976,-1.24021,20,3
8.13592,21.8768,2.86588,45,11
3.20107,8.60282,-1.12705,15,4
8.57993,23.0461,3.89491,22,12
3.85178,10.3461,-0.96586,22,5
8.93013,23.974,4.97286,22,13
4.86294,13.0482,-0.729773,35,6
8.35903,22.4169,5.52345,6,14
5.92403,15.8783,-0.295818,100,7
8.36124,22.3989,6.40629,7,15
0.203259,0.541911,-0.133621,28,1
6.13666,16.361,0.915775,15,9
2.40393,6.40572,-1.32994,21,2
8.28029,22.0527,2.06088,55,10
2.74336,7.30246,-1.23552,25,3
8.25275,21.9561,2.88002,7,11
3.2171,8.55443,-1.12217,16,4
8.63893,22.9713,3.88708,45,12
3.88226,10.3177,-0.964465,22,5
8.76682,23.2867,4.83663,25,13
4.8817,12.9601,-0.725795,35,6
8.40287,22.2964,5.50095,50,14
6.12403,16.2497,-0.303113,100,7
8.38299,22.2319,6.36643,13,15
0.184713,0.487799,-0.139762,14,0
6.15876,16.2643,0.303567,35,8
0.209888,0.55399,-0.13677,27,1
6.05427,15.9716,0.895154,45,9
2.42,6.38077,-1.3265,26,2
8.34167,21.9827,2.05705,55,10
2.76616,7.28963,-1.23489,26,3
8.92724,23.5135,3.08817,35,11
3.23347,8.51217,-1.11803,16,4
8.71275,22.9244,3.88427,30,12
3.91259,10.2892,-0.963071,18,5
8.79724,23.1346,4.81106,33,13
4.89837,12.8748,-0.721922,29,6
8.6286,22.6673,5.59948,26,14
6.14514,16.1348,-0.301368,100,7
8.30644,21.7981,6.25048,26,15
0.179429,0.46914,-0.134586,15,0
6.2305,16.282,0.3043,43,8
0.218788,0.571453,-0.141269,13,1
6.15071,16.0567,0.901121,41,9
2.43624,6.35988,-1.32383,21,2
8.4188,21.9661,2.0581,40,10
2.77107,7.22644,-1.22582,28,3
8.466,22.0662,2.90195,7,11
3.25249,8.47303,-1.11437,19,4
8.81467,22.951,3.89397,30,12
3.93062,10.2289,-0.958713,20,5
8.90399,23.1715,4.82518,40,13
4.91103,12.7737,-0.717212,35,6
8.70628,22.6334,5.59858,32,14
6.25457,16.2513,-0.303951,100,7
8.27974,21.5022,6.17387,31,15
0.188114,0.486497,-0.139762,14,0
6.3385,16.3925,0.306778,26,8
0.217969,0.563416,-0.13947,13,1
6.30334,16.2847,0.915147,36,9
2.45031,6.32711,-1.31887,23,2
9.04561,23.3452,2.1904,28,10
2.8054,7.23649,-1.22926,21,3
9.07611,23.4117,3.08305,35,11
3.27199,8.43571,-1.11096,15,4
8.864,22.8409,3.88051,20,12
3.94971,10.1724,-0.954704,18,5
9.05995,23.3217,4.86334,25,13
4.94986,12.7351,-0.716061,35,6
8.7708,22.5541,5.58688,26,14
6.16486,15.8529,-0.2969,100,7
8.29871,21.3291,6.13246,30,15
0.194029,0.496634,-0.142868,14,0
6.36724,16.2891,0.305277,56,8
0.214355,0.548094,-0.13587,13,1
7.32765,18.7365,1.05436,15,9
2.47453,6.324,-1.32002,23,2
7.31631,18.6882,1.75584,10,10
2.82344,7.20826,-1.22613,20,3
9.11622,23.2618,3.0677,51,11
3.29492,8.40334,-1.10828,15,4
9.1564,23.3524,3.97281,10,12
3.98156,10.1493,-0.953832,18,5
9.17215,23.3686,4.87975,34,13
4.97676,12.6731,-0.713548,35,6
8.76467,22.3075,5.53335,51,14
6.22527,15.8443,-0.297145,28,7
8.36322,21.2748,6.12521,15,15
0.195762,0.495954,-0.142868,14,0
6.40581,16.2288,0.304545,33,8
0.218318,0.552818,-0.13722,27,1
7.39448,18.7145,1.05457,32,9
2.49154,6.30254,-1.31735,23,2
7.35732,18.6014,1.75009,14,10
2.84514,7.19335,-1.22519,16,3
9.1933,23.2315,3.0677,60,11
3.30962,8.35914,-1.10389,15,4
9.58487,24.1963,4.12205,19,12
4.00448,10.1039,-0.950869,16,5
9.21994,23.2632,4.8641,34,13
4.99888,12.6064,-0.710722,32,6
8.8235,22.2403,5.5239,31,14
6.24735,15.7389,-0.295574,100,7
8.88095,22.3623,6.44718,21,15
0.185961,0.466589,-0.134586,15,0
6.43131,16.1284,0.303079,66,8
0.226746,0.568343,-0.141269,26,1
6.50769,16.3117,0.92038,13,9
2.49495,6.25049,-1.30819,23,2
8.75201,21.9149,2.06455,20,10
2.8673,7.17604,-1.22394,18,3
9.24782,23.1329,3.05892,25,11
3.32919,8.32358,-1.10072,16,4
9.07306,22.6843,3.86956,7,12
4.02168,10.0498,-0.947034,16,5
9.27481,23.1652,4.85037,25,13
5.02206,12.537,-0.707792,32,6
8.89964,22.2057,5.523,31,14
6.2385,15.5658,-0.292712,100,7
8.92485,22.2574,6.42544,28,15
0.189032,0.469521,-0.135621,15,0
6.41604,15.9363,0.299867,42,8
0.230085,0.571203,-0.142169,26,1
6.83559,16.9613,0.958376,5,9
2.51529,6.2381,-1.30742,23,2
8.02791,19.8997,1.87733,34,10
