x, y, z, intensity, ring
-2.24867,-0.418391,0.20011,1,10
-2.32255,-0.431299,0.290049,1,11
-2.30155,-0.426983,0.37075,1,12
-0.493675,-0.0914972,-0.0439265,12,5
-2.35514,-0.436074,0.465574,1,13
-2.15051,-0.397022,0.585966,1,15
-0.521399,-0.0954126,-0.122373,15,1
-2.22993,-0.40766,0.118803,1,9
-2.29716,-0.419121,0.204293,1,10
-2.28882,-0.417187,0.285662,1,11
-2.31857,-0.421774,0.373253,1,12
-0.544959,-0.0990358,-0.0484586,11,5
-0.554168,-0.10061,-0.0295175,16,6
-2.2185,-0.40237,0.520537,1,14
-2.13478,-0.386416,0.581308,2,15
-0.494876,-0.0887746,-0.116075,16,1
-2.24314,-0.401988,0.119431,1,9
-2.2397,-0.400969,0.199064,1,10
-2.25118,-0.402212,0.280787,1,11
-2.35115,-0.419227,0.378259,1,12
-0.494301,-0.0880485,-0.0439265,12,5
-0.554516,-0.0986745,-0.0295175,16,6
-2.21989,-0.394623,0.520537,1,14
-2.12851,-0.377612,0.579237,2,15
-0.483666,-0.0850223,-0.113375,16,1
-2.26026,-0.396919,0.120268,1,9
-2.24508,-0.393444,0.199412,1,10
-2.26039,-0.395721,0.281762,1,11
-2.3526,-0.411017,0.378259,1,12
-0.545637,-0.095229,-0.0484586,11,5
-0.554874,-0.0966414,-0.0295175,16,6
-2.17524,-0.378468,0.509739,1,14
-2.15455,-0.37448,0.585966,1,15
-0.522386,-0.0898562,-0.122373,15,1
-2.28526,-0.39309,0.121524,1,9
-2.24644,-0.385605,0.199412,1,10
-2.27356,-0.389444,0.283224,1,11
-2.35402,-0.402803,0.378259,1,12
-0.545966,-0.0933236,-0.0484586,11,5
-0.555208,-0.0947041,-0.0295175,16,6
-2.18039,-0.371527,0.510639,1,14
-2.16727,-0.368902,0.589072,1,15
-0.522681,-0.0881234,-0.122373,15,1
-2.28661,-0.38511,0.121524,1,9
-2.24777,-0.377762,0.199412,1,10
-2.34372,-0.392625,0.376381,1,12
-0.546288,-0.0914172,-0.0484586,11,5
-0.555519,-0.0928624,-0.0295175,16,6
-2.19699,-0.366862,0.514238,1,14
-1.15191,-0.192143,-0.0203844,1,7
-2.19904,-0.366415,0.597354,1,15
-0.522985,-0.0862983,-0.122373,15,1
-2.31153,-0.381428,0.12278,1,9
-2.24901,-0.370306,0.199412,1,10
-2.3762,-0.389969,0.381387,1,12
-0.495468,-0.0812248,-0.0439265,12,5
-0.55584,-0.0909227,-0.0295175,16,6
-2.19441,-0.358562,0.513338,1,14
-1.11307,-0.181873,-0.0196863,1,7
-2.16974,-0.354142,0.589072,1,15
-0.523268,-0.0845636,-0.122373,15,1
-2.29707,-0.37081,0.121943,1,9
-2.26209,-0.364354,0.200458,1,10
-2.41458,-0.388483,0.300286,1,11
-2.35804,-0.378541,0.378259,1,12
-0.495749,-0.0794949,-0.0439265,12,5
-0.556138,-0.089079,-0.0295175,16,6
-2.18404,-0.349436,0.510639,1,14
-1.12949,-0.180511,-0.0199656,1,7
-2.17096,-0.346566,0.589072,1,15
-2.26942,-0.359036,0.0401056,1,8
-0.52356,-0.0827366,-0.122373,15,1
-2.27067,-0.358827,0.120477,1,9
-2.26329,-0.35685,0.200458,1,10
-2.33748,-0.367712,0.290537,1,11
-0.49601,-0.0778505,-0.0439265,12,5
-2.24214,-0.35151,0.44115,1,13
-0.516982,-0.0809572,-0.027424,17,6
-2.1814,-0.341208,0.509739,1,14
-1.13008,-0.176765,-0.0199656,1,7
-2.195,-0.342943,0.595284,1,15
-2.29036,-0.354567,0.0404547,1,8
-0.523832,-0.0809999,-0.122373,15,1
-2.29954,-0.355166,0.121943,1,9
-2.28815,-0.352589,0.20255,1,10
-2.33477,-0.359355,0.290049,1,11
-0.547482,-0.0839721,-0.0484586,11,5
-2.24329,-0.344073,0.44115,1,13
-0.525144,-0.0804522,-0.0278427,17,6
-2.19022,-0.335151,0.511539,1,14
-1.1307,-0.172819,-0.0199656,1,7
-2.15035,-0.328282,0.582861,1,15
-2.31136,-0.349561,0.0408037,1,8
-0.524111,-0.0791708,-0.122373,15,1
-2.28491,-0.345152,0.121105,1,9
-2.38781,-0.359845,0.211266,1,10
-2.33601,-0.351203,0.290049,1,11
-2.36175,-0.354652,0.378259,1,12
-0.496528,-0.0744725,-0.0439265,12,5
-2.24448,-0.33624,0.44115,1,13
-0.557026,-0.0833476,-0.0295175,16,6
-2.19909,-0.328656,0.513338,1,14
-2.15143,-0.321149,0.582861,1,15
-2.27294,-0.336045,0.0401056,1,8
-0.524371,-0.0774325,-0.122373,15,1
-2.30981,-0.340671,0.122361,1,9
-2.38906,-0.351507,0.211266,1,10
-2.36297,-0.346406,0.378259,1,12
-0.500728,-0.0733161,-0.0442751,12,5
-2.22033,-0.325098,0.436189,1,13
-0.529632,-0.0774539,-0.0280521,17,6
-2.19245,-0.320235,0.511539,1,14
-2.14871,-0.313081,0.581825,1,15
-2.29395,-0.330563,0.0404547,1,8
-0.524651,-0.07551,-0.122373,15,1
-2.30308,-0.331468,0.121943,1,9
-2.30744,-0.331273,0.203944,1,10
-0.500981,-0.0715679,-0.0442751,12,5
-2.20984,-0.315294,0.4339,1,13
-0.518049,-0.0738215,-0.027424,17,6
-2.18584,-0.31148,0.509739,1,14
-2.18804,-0.311015,0.592178,1,15
-2.37424,-0.334101,0.0418509,1,8
-0.524899,-0.0737698,-0.122373,15,1
-2.28834,-0.321605,0.121105,1,9
-2.32431,-0.325833,0.205339,1,10
-2.36528,-0.330313,0.378259,1,12
-0.509109,-0.071007,-0.0449724,12,5
-2.21087,-0.307965,0.4339,1,13
-0.542029,-0.0754056,-0.0286801,17,6
-2.19458,-0.305304,0.511539,1,14
-2.17758,-0.302165,0.589072,1,15
-2.37534,-0.326226,0.0418509,1,8
-0.525141,-0.0720287,-0.122373,15,1
-2.32902,-0.319037,0.123199,1,9
-2.39249,-0.327305,0.211266,1,10
-2.22157,-0.302343,0.355106,1,12
-0.501444,-0.0682436,-0.0442751,12,5
-2.21577,-0.30116,0.434663,1,13
-0.53436,-0.0725332,-0.0282614,17,6
-2.23426,-0.302878,0.520537,1,14
-2.17862,-0.294561,0.589072,1,15
-2.37646,-0.317933,0.0418509,1,8
-0.525389,-0.0701952,-0.122373,15,1
-2.31825,-0.30932,0.122571,1,9
-2.22653,-0.295106,0.355732,1,12
-2.18567,-0.289302,0.428557,1,13
-0.54253,-0.0717145,-0.0286801,17,6
-2.2353,-0.295077,0.520537,1,14
-2.17964,-0.286955,0.589072,1,15
-2.33912,-0.303799,0.123618,1,9
-2.21188,-0.28531,0.353229,1,12
-0.497957,-0.0642315,-0.0439265,12,5
-2.21003,-0.28468,0.433136,1,13
-0.522967,-0.067272,-0.0276334,17,6
-0.525866,-0.0665257,-0.122373,15,1
-2.35205,-0.297133,0.124246,1,9
-2.2207,-0.278571,0.354481,1,12
-0.549577,-0.0689407,-0.0484586,11,5
-2.19933,-0.2755,0.430847,1,13
-0.499417,-0.0624713,-0.0263773,18,6
-0.526095,-0.0646897,-0.122373,15,1
-2.23052,-0.272688,0.275912,1,11
-2.24122,-0.273599,0.357609,1,12
-2.23535,-0.272091,0.437716,1,13
-0.559112,-0.0679572,-0.0295175,16,6
-0.526307,-0.0629447,-0.122373,15,1
-2.2,-0.261945,0.193834,1,10
-2.23141,-0.265289,0.275912,1,11
-2.199,-0.260659,0.350726,1,12
-0.559335,-0.0661027,-0.0295175,16,6
-2.10664,-0.247847,0.568367,1,15
-0.526523,-0.0611071,-0.122373,15,1
-2.20085,-0.254648,0.193834,1,10
-2.23232,-0.257499,0.275912,1,11
-2.247,-0.258397,0.358235,1,12
-0.559562,-0.0641499,-0.0295175,16,6
-2.1075,-0.240492,0.568367,1,15
-2.30432,-0.258879,0.121524,1,9
-2.16213,-0.242522,0.190348,1,10
-2.23321,-0.249705,0.275912,1,11
-2.2204,-0.247488,0.353855,1,12
-0.559782,-0.0621961,-0.0295175,16,6
-2.06992,-0.228887,0.558014,1,15
-0.526937,-0.0574298,-0.122373,15,1
-2.20589,-0.240416,0.116291,1,9
-2.20258,-0.239277,0.193834,1,10
-2.23407,-0.241908,0.275912,1,11
-2.25263,-0.243521,0.358861,1,12
-2.07835,-0.222846,0.560084,1,15
-0.527125,-0.0556821,-0.122373,15,1
-2.1948,-0.231457,0.115662,1,9
-2.17962,-0.229088,0.191743,1,10
-2.21116,-0.232013,0.272987,1,11
-2.12908,-0.22077,0.573543,1,15
-2.20748,-0.225395,0.116291,1,9
-2.18037,-0.221858,0.191743,1,10
-2.21394,-0.224494,0.273231,2,11
-0.560393,-0.0564287,-0.0295175,16,6
-2.1568,-0.216798,-0.0378368,1,7
-2.22411,-0.219644,0.117128,1,9
-2.20489,-0.216969,0.193834,1,10
-2.23245,-0.218894,0.275425,2,11
-0.584432,-0.0568921,-0.0307735,15,6
-2.18935,-0.212739,-0.0383953,1,7
-0.527661,-0.0503432,-0.122373,15,1
-2.20896,-0.210365,0.116291,1,9
-2.2056,-0.209656,0.193834,1,10
-2.26083,-0.21411,0.278837,1,11
-0.560755,-0.0527109,-0.0295175,16,6
-2.19008,-0.205096,-0.0383953,1,7
-0.527834,-0.0485012,-0.122373,15,1
-2.20968,-0.202653,0.116291,1,9
-2.20631,-0.201955,0.193834,1,10
-2.23784,-0.204054,0.275912,1,11
-0.560936,-0.050753,-0.0295175,16,6
-2.15892,-0.194578,-0.0378368,1,7
-0.528,-0.0466584,-0.122373,15,1
-2.21038,-0.194938,0.116291,1,9
-2.20701,-0.194252,0.193834,1,10
-0.561109,-0.0487946,-0.0295175,16,6
-2.15959,-0.18704,-0.0378368,1,7
-0.528159,-0.044815,-0.122373,15,1
-2.31055,-0.195646,0.121524,1,9
-0.561276,-0.0468358,-0.0295175,16,6
-0.528313,-0.0429712,-0.122373,15,1
-0.56159,-0.0429162,-0.0295175,16,6
-2.16143,-0.164416,-0.0378368,1,7
-0.5286,-0.0392817,-0.122373,15,1
-0.586362,-0.0426482,-0.010262,8,7
-0.528727,-0.0375286,-0.122373,15,1
-0.561869,-0.0390927,-0.0295175,16,6
-0.528849,-0.0357752,-0.122373,15,1
-2.06864,-0.137399,0.402989,1,13
-0.57865,-0.038231,-0.0101224,8,7
-0.528964,-0.0340212,-0.122373,15,1
-0.562116,-0.0353654,-0.0295175,16,6
-0.554824,-0.0348094,-0.00970354,8,7
-0.529086,-0.0320822,-0.122373,15,1
-1.88925,-0.112242,0.36788,1,13
-0.562241,-0.0333048,-0.0295175,16,6
-0.529189,-0.0303275,-0.122373,15,1
-1.86021,-0.104328,0.362155,5,13
-0.562349,-0.0314401,-0.0295175,16,6
-0.590998,-0.0328351,-0.0103318,8,7
-0.529292,-0.0284801,-0.122373,15,1
-1.87232,-0.098452,0.364445,6,13
-0.562455,-0.0294771,-0.0295175,16,6
-0.529383,-0.0267248,-0.122373,15,1
-1.89617,-0.0934017,0.369025,4,13
-0.56255,-0.0276117,-0.0295175,16,6
-0.567236,-0.0277425,-0.00991297,8,7
-0.529469,-0.0249691,-0.122373,15,1
-2.11676,-0.0994533,0.111057,1,9
-2.0897,-0.0963548,0.331328,1,12
-1.90627,-0.0875636,0.370933,1,13
-0.562638,-0.0257462,-0.0295175,16,6
-0.5913,-0.0268508,-0.0103318,8,7
-0.529553,-0.0231207,-0.122373,15,1
-2.07718,-0.0903289,0.108963,1,9
-2.05422,-0.0889711,0.179889,1,10
-0.562725,-0.0237819,-0.0295175,16,6
-2.03357,-0.0816767,0.106661,1,9
-2.03859,-0.0811654,0.178495,1,10
-1.87545,-0.0730313,0.364827,1,13
-0.562804,-0.0218175,-0.0295175,16,6
-2.06977,-0.0758951,0.108545,1,9
-2.06674,-0.0750617,0.180935,1,10
-0.562874,-0.019951,-0.0295175,16,6
-0.591546,-0.0207607,-0.0103318,8,7
-2.11793,-0.070259,0.111057,1,9
-2.0152,-0.0664992,0.176403,1,10
-0.56763,-0.0179376,-0.00991297,8,7
-0.529821,-0.0158173,-0.122373,15,1
-2.11816,-0.0628656,0.111057,1,9
-0.562999,-0.0160211,-0.0295175,16,6
-0.567689,-0.0159562,-0.00991297,8,7
-0.563052,-0.0140557,-0.0295175,16,6
-0.567739,-0.0140736,-0.00991297,8,7
-0.529917,-0.0122107,-0.122373,15,1
-0.575782,-0.012262,-0.0100526,8,7
-0.61181,-0.0108928,-0.0106809,7,7
-0.563167,-0.00825717,-0.0295175,16,6
-0.583851,-0.00835662,-0.0101922,8,7
-2.11892,-0.0266288,0.111057,1,9
-0.579877,-0.00637645,-0.0101224,8,7
-2.02913,-0.0184165,0.106347,2,9
-1.99431,-0.0174042,0.174486,2,10
-0.603891,-0.00453234,-0.0105413,8,7
-0.530049,-0.00305292,-0.122373,15,1
-2.03917,-0.0113891,0.10687,5,9
-2.00631,-0.0108554,0.175532,5,10
-0.563222,-0.00245747,-0.0295175,16,6
-2.0352,-0.00426306,0.106661,4,9
-2.0402,-0.00391699,0.178495,2,10
-0.567913,-0.000297291,-0.00991297,8,7
-0.57952,0.00637236,-0.155291,12,0
-0.540862,0.00783556,-0.144939,14,0
-1.89355,0.0294159,0.232527,1,11
-0.553814,0.00879661,-0.0484586,11,5
-0.5022,0.00902895,-0.134586,15,0
-1.92519,0.0366292,0.236427,2,11
-0.593621,0.0115018,-0.0519448,10,5
-0.50603,0.0107765,-0.135621,15,0
-1.92307,0.0429689,0.236183,2,11
-0.55374,0.0126627,-0.0484586,11,5
-0.63496,0.0146309,-0.0332857,14,6
-1.90902,0.0493226,0.234477,1,11
-0.553692,0.0145956,-0.0484586,11,5
-0.579321,0.0164854,-0.155291,12,0
-0.52974,0.0158148,-0.0463669,12,5
-0.579263,0.0184064,-0.155291,12,0
-0.58544,0.0194211,-0.0512476,10,5
-0.579199,0.0203272,-0.155291,12,0
-0.577409,0.0210717,-0.0505503,10,5
-0.634698,0.0233842,-0.0332857,14,6
-0.579124,0.0223489,-0.155291,12,0
-0.553442,0.0221317,-0.0484586,11,5
-0.662551,0.0267267,-0.0347511,13,6
-0.585209,0.0254484,-0.0512476,10,5
-0.578954,0.0263914,-0.155291,12,0
-0.553274,0.025995,-0.0484586,11,5
-0.578864,0.0283112,-0.155291,12,0
-0.553185,0.0278295,-0.0484586,11,5
-0.578761,0.0303316,-0.155291,12,0
-0.592874,0.0319013,-0.0519448,10,5
-0.604694,0.0346547,-0.0529907,10,5
-0.592643,0.0359362,-0.0519448,10,5
-0.572638,0.0366293,-0.0502017,11,5
-1.79157,0.120566,0.284398,1,12
-0.61624,0.0415789,-0.0540366,10,5
-0.578165,0.040125,-0.155291,12,0
-1.69261,0.119843,0.268754,2,12
-0.608141,0.0431653,-0.0533393,10,5
-0.578014,0.0422438,-0.155291,12,0
-1.71385,0.127361,0.272196,3,12
-0.552354,0.0411439,-0.0484586,11,5
-0.577863,0.0442611,-0.155291,12,0
-1.70552,0.13273,0.270945,3,12
-0.583989,0.0455507,-0.0512476,10,5
-0.577705,0.0462781,-0.155291,12,0
-0.528357,0.0424178,-0.122373,15,1
-1.70308,0.138522,0.270632,2,12
-0.591769,0.0482362,-0.0519448,10,5
-0.577548,0.0481935,-0.155291,12,0
-0.528206,0.0442618,-0.122373,15,1
-1.73804,0.147169,0.276263,1,12
-0.575724,0.0488508,-0.0505503,10,5
-0.760199,0.064771,-0.0399847,10,6
-0.665477,0.0568173,-0.0116582,7,7
-0.538885,0.0468621,-0.144939,14,0
-0.528056,0.0460131,-0.122373,15,1
-0.583489,0.0515618,-0.0512476,10,5
-1.50048,0.133122,0.347774,1,14
-1.5163,0.135059,0.407899,1,15
-0.504094,0.0455213,-0.135621,15,0
-0.579346,0.0531324,-0.050899,10,5
-1.46896,0.135495,0.340576,1,14
-1.41963,0.131445,0.382017,1,15
-0.577021,0.0541381,-0.155291,12,0
-0.606925,0.0577989,-0.0533393,10,5
-1.47556,0.14078,0.288122,1,13
-0.576829,0.056152,-0.155291,12,0
-0.602754,0.0595254,-0.0529907,10,5
-1.47506,0.14593,0.288122,1,13
-0.576629,0.0581652,-0.155291,12,0
-0.648475,0.0657553,-0.126697,14,2
-0.582722,0.0596018,-0.0512476,10,5
-0.576433,0.060077,-0.155291,12,0
-0.648254,0.0679054,-0.126697,14,2
-0.582521,0.0615338,-0.0512476,10,5
-0.57622,0.0620887,-0.155291,12,0
-0.648013,0.0701677,-0.126697,14,2
-0.582303,0.0635669,-0.0512476,10,5
-0.549131,0.0610126,-0.148044,13,0
-0.577536,0.0644747,-0.112959,16,2
-0.613767,0.069062,-0.0540366,10,5
-0.548925,0.0628332,-0.148044,13,0
-0.616327,0.0708753,-0.120591,15,2
-0.60166,0.0697209,-0.0529907,10,5
-0.575574,0.067818,-0.155291,12,0
-0.616088,0.0729188,-0.120591,15,2
-0.589543,0.0704032,-0.0519448,10,5
-0.575321,0.0699272,-0.155291,12,0
-0.627509,0.0766038,-0.122881,15,2
-0.616979,0.0758647,-0.0543852,9,5
-0.575074,0.0719349,-0.155291,12,0
-0.631134,0.079283,-0.123644,14,2
-0.612757,0.0775178,-0.0540366,10,5
-0.574819,0.073942,-0.155291,12,0
-0.595806,0.0769588,-0.116775,16,2
-0.60458,0.0786283,-0.0533393,10,5
-1.66456,0.216484,0.326283,1,13
-0.574571,0.0758476,-0.155291,12,0
-0.607225,0.0804818,-0.119065,15,2
-0.647763,0.08643,-0.0571742,9,5
-1.54704,0.206694,0.303386,1,13
-0.574303,0.0778529,-0.155291,12,0
-0.60694,0.082601,-0.119065,15,2
-0.627718,0.0859866,-0.0554311,9,5
-1.54246,0.21129,0.302623,1,13
-1.2899,0.177611,0.348888,1,15
-0.574041,0.0797569,-0.155291,12,0
-0.524989,0.0731283,-0.122373,15,1
-0.598885,0.0835285,-0.117538,16,2
-0.580076,0.081421,-0.0512476,10,5
-1.55726,0.218859,0.305676,2,13
-1.31605,0.185896,0.356135,1,15
-0.573759,0.0817602,-0.155291,12,0
-0.594703,0.0850625,-0.116775,16,2
-0.611341,0.0879868,-0.0540366,10,5
-1.55066,0.223454,0.304531,2,13
-1.29627,0.187719,0.350959,1,15
-0.573471,0.0837625,-0.155291,12,0
-0.598288,0.0877073,-0.117538,16,2
-0.579494,0.0854689,-0.0512476,10,5
-1.52851,0.22571,0.300333,2,13
-1.29564,0.192017,0.350959,1,15
-0.573175,0.0857638,-0.155291,12,0
-0.524208,0.0785303,-0.122373,15,1
-0.605744,0.0909614,-0.119065,15,2
-0.618593,0.0934428,-0.0547338,9,5
-1.51222,0.228432,0.29728,1,13
-0.627987,0.0949741,-0.0332857,14,6
-1.31407,0.199437,0.356135,1,15
-0.624844,0.0959494,-0.122881,15,2
-0.626155,0.0967101,-0.0554311,9,5
-1.50365,0.232509,0.295754,1,13
-1.31336,0.204023,0.356135,1,15
-0.572578,0.0896631,-0.155291,12,0
-0.593474,0.0932539,-0.116775,16,2
-0.62975,0.0995172,-0.0557797,9,5
-1.46405,0.23162,0.288122,1,13
-1.29738,0.206181,0.351994,1,15
-0.572261,0.0916613,-0.155291,12,0
-0.597022,0.0959479,-0.117538,16,2
-0.597929,0.0966291,-0.0529907,10,5
-1.29287,0.209863,0.350959,1,15
-0.571954,0.0935585,-0.155291,12,0
-0.5967,0.0979272,-0.117538,16,2
-0.613332,0.101206,-0.0543852,9,5
-0.522788,0.0874848,-0.122373,15,1
-0.619607,0.103798,-0.122118,15,2
-0.664075,0.111843,-0.0589173,8,5
-0.571304,0.0974495,-0.155291,12,0
-0.576264,0.0985026,-0.134971,14,1
-0.619241,0.10596,-0.122118,15,2
-0.644045,0.110783,-0.0571742,9,5
-0.57096,0.099443,-0.155291,12,0
-0.560559,0.0978331,-0.131371,14,1
-0.599528,0.104742,-0.118302,15,2
-0.612257,0.107517,-0.0543852,9,5
-0.57061,0.101436,-0.155291,12,0
-0.567888,0.101156,-0.133171,14,1
-0.610755,0.108902,-0.120591,15,2
-0.627567,0.112465,-0.0557797,9,5
-0.570252,0.103427,-0.155291,12,0
-0.575201,0.104532,-0.134971,14,1
-0.606508,0.110331,-0.119828,15,2
-0.595812,0.108922,-0.0529907,10,5
-0.569888,0.105417,-0.155291,12,0
-0.559504,0.103698,-0.131371,14,1
-0.617701,0.114596,-0.122118,15,2
-0.642436,0.119764,-0.0571742,9,5
-0.569554,0.107206,-0.155291,12,0
-0.566835,0.1069,-0.133171,14,1
-0.617338,0.116536,-0.122118,15,2
-0.661631,0.125495,-0.0589173,8,5
-0.569176,0.109194,-0.155291,12,0
-0.558804,0.107406,-0.131371,14,1
-0.589937,0.113497,-0.116775,16,2
-0.641627,0.124023,-0.0571742,9,5
-0.600498,0.117596,-0.141269,13,1
-0.624216,0.122353,-0.123644,14,2
-0.64119,0.126262,-0.0571742,9,5
-0.5684,0.113165,-0.155291,12,0
-0.580994,0.115778,-0.13677,13,1
-0.619935,0.123763,-0.122881,15,2
-0.593862,0.119096,-0.0529907,10,5
-0.553848,0.11238,-0.130472,14,1
-0.631065,0.128162,-0.125171,14,2
-0.581751,0.118676,-0.0519448,10,5
-0.567616,0.117031,-0.155291,12,0
-0.564903,0.116677,-0.133171,14,1
-0.645994,0.133544,-0.128224,14,2
-0.589136,0.122326,-0.0526421,20,5
-1.20656,0.251625,0.330253,1,15
-0.567204,0.119012,-0.155291,12,0
-0.564493,0.118649,-0.133171,14,1
-0.6071,0.127715,-0.120591,15,2
-0.594553,0.125617,-0.053165,20,5
-0.566785,0.120991,-0.155291,12,0
-0.54883,0.117358,-0.129572,14,1
-0.645046,0.13805,-0.128224,14,2
-0.553205,0.1189,-0.0495045,33,5
-1.20478,0.260042,0.330253,1,15
-0.56636,0.122969,-0.155291,12,0
-0.578884,0.1259,-0.13677,13,1
-0.545001,0.119128,-0.0488072,34,5
-0.940402,0.2059,-0.0504519,3,6
-1.15485,0.253275,0.316795,1,15
-0.570852,0.126137,-0.134971,14,1
-0.564053,0.125254,-0.0505503,32,5
-1.0177,0.226364,-0.0546387,2,6
-1.17286,0.261305,0.321971,1,15
-0.578037,0.129736,-0.13677,13,1
-0.559748,0.126247,-0.0502017,22,5
-0.977979,0.220935,-0.0525453,2,6
-1.22474,0.277131,0.336465,1,15
-0.570003,0.12992,-0.134971,14,1
-0.588434,0.134877,-0.0528164,20,5
-0.992814,0.22775,-0.0533827,2,6
-1.29343,0.297422,0.355617,5,15
-0.564656,0.130569,-0.155291,12,0
-0.596125,0.138065,-0.141269,13,1
-0.661742,0.153384,-0.13204,13,2
-0.574376,0.133767,-0.0515962,21,5
-0.984233,0.2294,-0.052964,2,6
-1.27169,0.297101,0.349923,11,15
-0.572876,0.134789,-0.13587,13,1
-0.575845,0.13623,-0.0517705,21,5
-0.987272,0.233927,-0.0531733,2,6
-1.15097,0.272926,0.273091,1,14
-1.28192,0.304214,0.353029,11,15
-0.576169,0.137794,-0.13677,13,1
-0.60055,0.14429,-0.0540366,10,5
-0.967032,0.232699,-0.0521266,2,6
-1.16517,0.280592,0.27669,1,14
-1.294,0.311856,0.356653,6,15
-0.568134,0.137866,-0.134971,14,1
-0.619399,0.151108,-0.0557797,9,5
-1.06047,0.25871,0.21218,1,13
-0.981777,0.239694,-0.052964,2,6
-1.14151,0.278904,0.271291,1,14
-1.33043,0.325554,0.367005,2,15
-0.659536,0.162608,-0.13204,13,2
-0.632433,0.156511,-0.0569999,18,5
-1.05956,0.26241,0.21218,1,13
-0.957671,0.237354,-0.0517079,2,6
-1.1916,0.295553,0.283438,1,14
-22.282,5.53074,6.15161,12,15
-0.618356,0.15532,-0.0557797,9,5
-1.05868,0.265923,0.21218,1,13
-0.933634,0.234686,-0.0504519,3,6
-1.26243,0.317569,0.300535,8,14
-21.517,5.42066,5.94559,11,15
-0.658414,0.167094,-0.13204,13,2
-0.629068,0.160114,-0.0797026,11,4
-0.62363,0.158845,-0.0563026,18,5
-1.05775,0.269617,0.21218,1,13
-1.27075,0.324383,0.302784,11,14
-21.5634,5.51248,5.96371,5,15
-0.561323,0.144227,-0.155291,12,0
-0.684444,0.176245,-0.137382,12,2
-0.628506,0.162308,-0.0797026,11,4
-0.655865,0.169496,-0.0592659,8,5
-1.15184,0.297885,0.231261,1,13
-1.29602,0.335657,0.309083,11,14
-28.9379,7.50541,8.01045,17,15
-0.683825,0.178633,-0.137382,12,2
-0.562645,0.147397,-0.0714154,13,4
-1.04908,0.27483,0.171765,1,12
-0.66876,0.175321,-0.0604861,16,5
-1.24574,0.326813,0.250341,1,13
-0.931126,0.24445,-0.0504519,3,6
-1.28542,0.337703,0.306833,4,14
-28.8568,7.5866,7.99492,17,15
-0.700816,0.185425,-0.167364,9,1
-0.56174,0.148838,-0.112959,16,2
-0.558316,0.148243,-0.070928,13,4
-1.02139,0.271388,0.167385,1,12
-0.660442,0.175607,-0.0597888,17,5
-1.14978,0.305718,0.231261,1,13
-24.7236,6.58306,5.90676,7,14
-28.763,7.66936,7.97629,23,15
-0.700164,0.18787,-0.167364,9,1
-0.656048,0.176156,-0.13204,13,2
-0.569296,0.153288,-0.0723904,12,4
-1.051,0.282991,0.172391,1,12
-0.648313,0.174686,-0.058743,17,5
-1.20178,0.324041,0.241946,1,13
-22.1587,5.98303,5.29895,45,14
-27.7415,7.49562,7.69987,26,15
-0.628079,0.170763,-0.150267,12,1
-0.655429,0.178445,-0.13204,13,2
-0.584106,0.159355,-0.0743403,12,4
-1.03095,0.281456,0.169262,1,12
-0.664997,0.181673,-0.0603118,8,5
-1.21017,0.330611,0.243854,5,13
-22.1106,6.04877,5.2922,45,14
-31.3149,8.57853,8.69994,14,15
-0.582419,0.160425,-0.13947,13,1
-0.654865,0.180503,-0.13204,13,2
-0.606534,0.167637,-0.0772652,11,4
-1.0948,0.302585,0.1799,1,12
-0.725873,0.200757,-0.0658897,6,5
-1.22042,0.337765,0.246144,12,13
-21.6472,5.99923,5.18602,53,14
-31.3864,8.70423,8.72738,7,15
-0.585638,0.163403,-0.140369,26,1
-0.622092,0.173925,-0.102308,14,3
-0.605975,0.169647,-0.0772652,11,4
-1.07852,0.302142,0.177397,1,12
-0.725168,0.203289,-0.0658897,6,5
-1.24198,0.348169,0.250723,12,13
-23.9312,6.71774,5.7385,27,14
-22.9645,6.45504,6.3918,37,15
-0.592565,0.167567,-0.142169,26,1
-0.748075,0.211684,-0.151121,9,2
-0.555727,0.157674,-0.070928,13,4
-1.07365,0.304826,0.176771,1,12
-1.24642,0.354112,0.251868,9,13
-21.1823,6.02593,5.08434,5,14
-22.7691,6.48594,6.34365,27,15
-0.58261,0.166951,-0.13992,26,1
-0.747294,0.214424,-0.151121,9,2
-1.10296,0.31731,0.181777,2,12
-1.27153,0.366286,0.257211,2,13
-20.75,5.98525,4.98582,23,14
-22.8094,6.58359,6.36125,20,15
-0.587608,0.170716,-0.141269,13,1
-1.16822,0.340505,0.192727,4,12
-22.38,6.53164,4.53171,21,13
-20.7768,6.06768,4.99706,52,14
-27.8038,8.13039,7.76198,21,15
-0.957348,0.281399,0.0174175,1,8
-0.585169,0.172114,-0.140819,26,1
-0.716239,0.211072,-0.118264,10,3
-1.19361,0.352204,0.197107,9,12
-22.3846,6.61361,4.53706,28,13
-27.5673,8.16057,7.70349,21,15
-0.603272,0.179614,-0.145318,25,1
-0.745085,0.221978,-0.151121,9,2
-1.20562,0.360328,0.199298,11,12
-22.3587,6.68668,4.53629,5,13
-25.0306,7.49525,6.03229,62,14
-22.7478,6.82034,6.36333,13,15
-0.95541,0.287909,0.0174175,1,8
-0.59891,0.180594,-0.144419,25,1
-0.650294,0.196335,-0.13204,13,2
-0.809291,0.244648,-0.133908,6,3
-0.621322,0.187943,-0.0797026,11,4
-1.20625,0.365106,0.19961,12,12
-22.3397,6.77029,4.53744,28,13
-23.2426,7.05278,5.60758,32,14
-22.8717,6.9446,6.40474,17,15
-0.954349,0.291409,0.0174175,1,8
-0.61129,0.186773,-0.147568,24,1
-0.743478,0.227304,-0.151121,9,2
-1.13124,0.346502,0.145268,2,11
-0.578874,0.177421,-0.0743403,12,4
-1.21252,0.37163,0.200862,7,12
-22.3816,6.86839,4.55079,13,13
-26.1927,8.04792,6.32607,34,14
-0.925166,0.284265,-0.0168939,2,7
-22.8584,7.02781,6.40784,7,15
-0.884596,0.273321,0.0161609,2,8
-0.597635,0.18477,-0.144419,25,1
-1.11112,0.344375,0.142831,2,11
-0.566906,0.175812,-0.0728779,37,4
-24.3884,7.56813,4.04446,18,12
-25.9174,8.04757,5.27511,18,13
-1.01469,0.315265,-0.0556855,2,6
-21.0894,6.5565,5.09874,5,14
-0.855428,0.266109,-0.0156374,3,7
-22.4538,6.98927,6.30121,6,15
-0.952343,0.297899,0.0174175,1,8
-0.587687,0.183945,-0.142169,26,1
-0.674467,0.211236,-0.137382,12,2
-1.12506,0.353005,0.144781,6,11
-0.61932,0.194439,-0.0797026,11,4
-24.4216,7.66731,4.05416,21,12
-22.8494,7.18248,4.65574,23,13
-22.6724,7.13554,5.48746,25,14
-0.92321,0.290556,-0.0168939,2,7
-28.7894,9.06622,8.08758,6,15
-0.894154,0.282956,0.0163704,2,8
-0.587074,0.185893,-0.142169,26,1
-0.741098,0.234948,-0.151121,9,2
-0.68538,0.217415,-0.113884,11,3
-1.15794,0.367544,0.149168,16,11
-24.2253,7.69867,4.026,21,12
-20.9583,6.66446,4.27489,26,13
-23.397,7.44893,5.66877,33,14
-0.92219,0.293776,-0.0168939,2,7
-27.9956,8.92377,7.87328,5,15
-0.950293,0.304374,0.0174175,1,8
-0.575287,0.184372,-0.13947,13,1
-0.69214,0.222222,-0.115136,11,3
-1.18311,0.380084,0.15258,22,11
-22.1592,7.12306,3.68654,18,12
-26.9376,8.66948,5.50064,20,13
-22.1961,7.14776,5.38353,29,14
-29.8836,9.63485,8.41317,39,15
-0.892208,0.289035,0.0163704,2,8
-0.619163,0.2007,-0.150267,12,1
-0.739523,0.239858,-0.151121,9,2
-1.11052,0.360402,0.102147,1,10
-0.73649,0.239158,-0.122645,9,3
-1.19695,0.388913,0.15453,12,11
-21.0571,6.84593,3.50695,24,12
-25.4825,8.29451,5.20909,14,13
-29.8212,9.71253,7.24072,10,14
-0.882195,0.287494,-0.0161958,2,7
-27.7209,9.03918,7.81271,27,15
-0.876042,0.287012,0.0160911,2,8
-0.596273,0.195468,-0.144868,12,1
-0.671567,0.220281,-0.137382,12,2
-1.05253,0.345444,0.0969172,1,10
-0.690651,0.226807,-0.115136,11,3
-1.21451,0.399077,0.156968,1,11
-20.8429,6.85279,3.47504,24,12
-25.4567,8.37958,5.20947,7,13
-0.914361,0.301157,-0.0504519,3,6
-21.6528,7.13582,5.2634,33,14
-0.919222,0.302936,-0.0168939,2,7
-27.7679,9.15646,7.83445,27,15
-0.947218,0.313813,0.0174175,1,8
-0.588222,0.194992,-0.143069,25,1
-0.737874,0.244886,-0.151121,9,2
-1.0759,0.357278,0.0991832,2,10
-0.708642,0.235322,-0.118264,10,3
-26.7239,8.87951,3.45768,10,11
-21.0269,6.99471,3.50976,26,12
-26.3415,8.76776,5.39646,19,13
-21.544,7.17925,5.24271,44,14
-0.918159,0.306143,-0.0168939,2,7
-31.4943,10.5073,8.89613,7,15
-0.908197,0.304407,0.0167194,2,8
-0.594929,0.199522,-0.144868,12,1
-1.06225,0.356455,0.058721,1,9
-0.688665,0.231093,-0.141199,11,2
-1.12193,0.376698,0.103541,8,10
-0.674111,0.22647,-0.112633,11,3
-20.22,6.79692,2.61922,18,11
-20.5231,6.90677,3.42967,20,12
-21.3225,7.17995,4.37334,27,13
-0.912289,0.307374,-0.0504519,3,6
-21.4911,7.24507,5.23596,49,14
-0.894347,0.301676,-0.0164751,2,7
-31.5544,10.6499,8.92356,14,15
-0.945004,0.320418,0.0174175,1,8
-0.605301,0.205354,-0.147568,12,1
-1.061,0.360161,0.058721,1,9
-0.736146,0.250031,-0.151121,9,2
-1.15827,0.39363,0.107027,15,10
-0.650833,0.221308,-0.108878,12,3
-20.2412,6.88279,2.62507,43,11
-20.5923,7.0102,3.44531,14,12
-21.3258,7.26819,4.37945,42,13
-0.911157,0.310716,-0.0504519,3,6
-21.6433,7.38484,5.2796,45,14
-0.885718,0.302213,-0.0163355,2,7
-39.8977,13.6212,11.2964,25,15
-0.943824,0.323879,0.0174175,1,8
-0.582427,0.199977,-0.142169,13,1
-1.05967,0.364047,0.058721,1,9
-0.735269,0.252599,-0.151121,9,2
-1.1437,0.393137,0.105807,15,10
-0.610829,0.210087,-0.102308,14,3
-29.3233,10.0911,3.80769,24,11
-20.4507,7.04573,3.42592,50,12
-21.2093,7.31123,4.36075,11,13
-0.860976,0.296962,-0.0477304,5,6
-21.7518,7.50674,5.31244,23,14
-0.914847,0.315901,-0.0168939,2,7
-26.153,9.03584,7.41413,9,15
-0.633271,0.219909,-0.154766,11,1
-1.06972,0.371677,0.059349,1,9
-0.697293,0.242277,-0.143488,11,2
-1.13667,0.395164,0.105284,5,10
-0.610092,0.212218,-0.102308,14,3
-20.004,6.96221,2.60069,36,11
-20.1499,7.02088,3.37961,22,12
-0.805261,0.280579,-0.0746053,4,5
-20.9093,7.28958,4.30427,28,13
-0.908965,0.317069,-0.0504519,3,6
-30.8569,10.7697,7.54531,11,14
-0.913739,0.319092,-0.0168939,2,7
-23.4659,8.19926,6.66045,15,15
-0.606758,0.213078,-0.148468,12,1
-1.10617,0.388457,0.0614424,3,9
-0.689034,0.242106,-0.141962,11,2
-23.0215,8.0936,2.13497,10,10
-0.639163,0.224834,-0.107314,13,3
-20.0863,7.06956,2.61459,30,11
-20.2215,7.12112,3.39557,20,12
-20.993,7.40103,4.32679,11,13
-0.907853,0.32024,-0.0504519,3,6
-21.9042,7.72659,5.36238,5,14
-0.912676,0.32212,-0.0168939,2,7
-26.6993,9.42849,7.58702,15,15
-0.591356,0.209875,-0.144868,12,1
-1.11993,0.397467,0.0622798,7,9
-0.662326,0.235193,-0.136619,12,2
-22.9251,8.14522,2.12852,43,10
-0.608634,0.216366,-0.102308,14,3
-33.5084,11.9186,4.36682,14,11
-19.6469,6.99209,3.30296,45,12
-0.803333,0.286054,-0.0746053,4,5
-28.5785,10.182,5.89714,9,13
-0.857872,0.305812,-0.0477304,5,6
-23.9674,8.54383,5.87437,14,14
-0.911603,0.325145,-0.0168939,2,7
-30.8453,11.0078,8.77552,14,15
-0.612669,0.219729,-0.150267,12,1
-1.12236,0.402528,0.0624891,13,9
-0.639368,0.22943,-0.13204,13,2
-53.9379,19.3657,5.0139,27,10
-0.607913,0.218383,-0.102308,14,3
-20.3211,7.30401,2.65139,44,11
-19.7184,7.0913,3.31891,19,12
-19.6947,7.09054,4.06881,10,13
-0.868128,0.312716,-0.0483584,4,6
-30.002,10.8073,7.3622,10,14
-0.910519,0.328166,-0.0168939,2,7
-21.2115,7.64916,6.04187,2,15
-0.589951,0.213792,-0.144868,12,1
-1.13417,0.411011,0.0632218,20,9
-0.664443,0.240918,-0.137382,12,2
-20.2743,7.36322,2.64846,38,11
-19.7449,7.17487,3.32736,31,12
-0.895041,0.325415,-0.0833209,2,5
-27.6764,10.0679,5.72465,13,13
-0.848318,0.308762,-0.0473117,5,6
-20.5151,7.46689,5.04025,9,14
-0.9207,0.335289,-0.0171034,1,7
-21.1388,7.70226,6.02841,2,15
-0.589201,0.21585,-0.144868,12,1
-1.14578,0.419976,0.0639545,14,9
-0.659911,0.241885,-0.136619,12,2
-23.7599,8.7137,2.2141,23,10
-32.622,11.9767,4.26689,27,11
-0.795652,0.29227,-0.104076,5,4
-20.3675,7.48569,3.43687,20,12
-0.845278,0.310667,-0.0787888,3,5
-29.6588,10.9064,6.14252,15,13
-0.903467,0.332411,-0.0504519,3,6
-20.4657,7.53395,5.03485,4,14
-0.923218,0.340044,-0.0171732,1,7
-21.1177,7.78236,6.03048,11,15
-1.05208,0.389386,0.0195816,1,8
-1.16304,0.430913,0.0650013,7,9
-0.670109,0.24828,-0.138909,12,2
-23.8078,8.82567,2.22143,34,10
-35.5074,13.1769,4.65029,30,11
-19.6672,7.30634,3.32298,14,12
-0.892748,0.331655,-0.0833209,2,5
-20.5297,7.63087,4.25733,27,13
-0.89107,0.331386,-0.0498238,3,6
-20.4831,7.62166,5.04565,39,14
-0.940766,0.350242,-0.0175222,3,7
-22.9569,8.55127,6.56417,21,15
-1.05821,0.395859,0.0197212,3,8
-20.6264,7.72008,1.15422,12,9
-0.669238,0.250617,-0.138909,24,2
-23.7787,8.90942,2.2216,11,10
-31.6937,11.8876,4.15623,13,11
-19.6539,7.37568,3.32486,12,12
-0.824436,0.309557,-0.0770457,4,5
-20.4626,7.68729,4.24894,27,13
-0.889907,0.334494,-0.0498238,3,6
-20.4449,7.68474,5.0425,19,14
-0.932112,0.350544,-0.0173826,3,7
-21.0191,7.90892,6.01754,11,15
-1.07934,0.407848,0.0201401,7,8
-20.4549,7.73335,1.14605,19,9
-0.65004,0.245889,-0.135093,25,2
-37.2084,14.0821,3.48065,11,10
-24.9936,9.46924,3.2817,59,11
-0.792653,0.300309,-0.104076,5,4
-20.5973,7.80771,3.4888,22,12
-0.853212,0.323593,-0.0798347,3,5
-20.5397,7.79411,4.27031,11,13
-0.888793,0.337443,-0.0498238,3,6
-22.9645,8.71879,5.67102,47,14
-0.953377,0.362154,-0.0178015,3,7
-20.9783,7.97308,6.0134,5,15
-1.09666,0.418555,0.0204891,13,8
-22.6965,8.6715,1.27333,8,9
-0.645554,0.246642,-0.13433,25,2
-37.6919,14.4082,3.53033,35,10
-25.0437,9.58328,3.29242,59,11
-0.7916,0.303074,-0.104076,5,4
-19.8043,7.58632,3.35896,37,12
-0.833528,0.319294,-0.0780915,3,5
-20.7154,7.93947,4.31228,38,13
-0.910048,0.34897,-0.0510799,3,6
-22.9175,8.79262,5.66697,54,14
-0.970776,0.372646,-0.0181505,1,7
-22.2127,8.5311,6.37575,10,15
-1.08587,0.418783,0.0203146,11,8
-22.7966,8.80103,1.28066,78,9
-0.681319,0.263036,-0.141962,23,2
-25.9101,10.0083,2.43008,40,10
-31.8976,12.3339,4.19913,13,11
-19.4885,7.54344,3.30984,10,12
-0.82126,0.317886,-0.0770457,4,5
-0.923723,0.357917,-0.0519173,2,6
-28.1232,10.9026,6.96358,51,14
-1.08879,0.422313,-0.0203844,1,7
-20.8717,8.09978,5.99891,11,15
-1.07135,0.417488,0.0200703,3,8
-22.6091,8.81491,1.27176,22,9
-0.706003,0.275401,-0.147305,10,2
-25.6857,10.0248,2.4123,60,10
-31.59,12.3418,4.16428,27,11
-20.1478,7.87556,3.42623,28,12
-0.849834,0.332362,-0.0798347,3,5
-28.49,11.1479,5.94675,4,13
-0.918748,0.359683,-0.0517079,5,6
-20.3552,7.97301,5.047,14,14
-1.06504,0.41717,-0.0199656,1,7
-20.8447,8.16894,5.99891,14,15
-21.7733,8.56795,0.408421,23,8
-22.3236,8.79349,1.25742,9,9
-0.697731,0.274984,-0.145778,10,2
-25.6969,10.1326,2.41665,54,10
-31.4215,12.3963,4.14746,13,11
-0.788437,0.311209,-0.104076,5,4
-20.3719,8.04525,3.46909,20,12
-0.867199,0.342648,-0.0815778,2,5
-22.8748,9.0383,4.78091,66,13
-0.904549,0.357588,-0.0509752,6,6
-20.5207,8.11644,5.09469,25,14
-1.08961,0.431186,-0.0204542,9,7
-20.7837,8.22885,5.98959,17,15
-21.6634,8.61214,0.40692,44,8
-21.5185,8.55892,1.21367,7,9
-0.678574,0.270037,-0.141962,11,2
-37.4026,14.8919,3.52214,11,10
-31.4702,12.5426,4.15964,13,11
-0.787346,0.31396,-0.104076,5,4
-20.4002,8.13471,3.47848,16,12
-0.869759,0.346999,-0.0819264,2,5
-0.927408,0.370373,-0.052336,4,6
-20.4597,8.17501,5.08659,25,14
-1.08074,0.431829,-0.0203146,16,7
-20.803,8.31637,6.00305,17,15
-21.5957,8.66829,0.406187,49,8
-21.4904,8.63473,1.21378,57,9
-0.684914,0.275333,-0.143488,11,2
-48.2232,19.3954,4.54744,21,10
-31.3051,12.5972,4.14331,27,11
-0.834178,0.335845,-0.110414,3,4
-20.2415,8.15347,3.45626,22,12
-0.842671,0.339606,-0.079486,3,5
-20.5584,8.28527,4.30847,19,13
-0.959517,0.386891,-0.0542201,6,6
-20.465,8.25593,5.09469,20,14
-1.08294,0.437096,-0.0203844,16,7
-20.394,8.23558,5.89331,22,15
-21.5802,8.74963,0.406467,49,8
-21.5305,8.73823,1.21775,49,9
-0.691273,0.280556,-0.145015,10,2
-21.6961,8.80987,2.04868,25,10
-20.9607,8.5198,2.77813,7,11
-0.833001,0.338755,-0.110414,3,4
-22.8514,9.29759,3.90742,62,12
-0.856304,0.348405,-0.0808805,3,5
-20.5548,8.36734,4.31381,11,13
-0.969259,0.394758,-0.0548481,6,6
-20.3945,8.3104,5.08434,5,14
-20.706,8.44151,-0.390306,40,7
-20.3401,8.29651,5.88606,22,15
-21.8049,8.92948,0.411283,31,8
-21.4906,8.80955,1.21723,54,9
-0.704822,0.288925,-0.148068,20,2
-23.0312,9.44577,2.17785,22,10
-20.9162,8.58688,2.77618,49,11
-0.828141,0.340152,-0.109926,4,4
-22.8334,9.3833,3.90992,20,12
-0.864297,0.355179,-0.0817521,5,5
-20.5908,8.46592,4.32755,11,13
-0.99004,0.407256,-0.0561041,6,6
-20.3762,8.38599,5.08704,10,14
-20.7337,8.53734,-0.391388,89,7
-20.3218,8.37187,5.88917,16,15
-21.1305,8.73958,0.399137,13,8
-21.6735,8.96859,1.22927,45,9
-0.700182,0.289881,-0.147305,10,2
-35.7985,14.8282,3.39001,11,10
-22.8243,9.46347,3.03382,93,11
-0.821448,0.340759,-0.109195,4,4
-20.2623,8.40537,3.47441,4,12
-0.896175,0.371941,-0.0848897,3,5
-20.5303,8.52495,4.32106,26,13
-1.02919,0.427567,-0.0584069,8,6
-21.6101,8.98213,5.40287,6,14
-20.6905,8.59991,-0.391108,100,7
-26.7119,11.1081,7.75163,10,15
-21.0534,8.78956,0.398229,26,8
-21.6642,9.05342,1.23052,19,9
-0.728146,0.304441,-0.15341,9,2
-20.6358,8.63216,1.957,23,10
-22.8093,9.54601,3.03601,100,11
-0.827637,0.346548,-0.11017,3,4
-20.0871,8.41499,3.44938,12,12
-0.896709,0.375837,-0.085064,3,5
-20.5255,8.60284,4.32602,7,13
-1.05724,0.443336,-0.0600817,16,6
-21.3717,8.96628,5.35069,23,14
-20.6825,8.68137,-0.391527,89,7
-20.421,8.57583,5.93472,13,15
-34.7318,14.6427,0.657921,5,8
-23.0271,9.71281,1.30976,16,9
-0.665634,0.280901,-0.140435,11,2
-20.5869,8.69202,1.95508,54,10
-0.833798,0.352381,-0.111145,3,4
-20.05,8.4777,3.44782,8,12
-0.921147,0.389676,-0.0875044,3,5
-21.4156,9.06393,4.52027,2,13
-1.05752,0.447802,-0.0601864,22,6
-21.3436,9.03787,5.35114,5,14
-25.2384,10.6922,-0.47844,40,7
-20.5152,8.69552,5.97044,34,15
-26.7138,11.3669,0.506748,43,8
-23.0444,9.81024,1.31259,44,9
-0.693599,0.295416,-0.146541,10,2
-22.7483,9.6936,2.16338,71,10
-29.1528,12.4347,3.89153,25,11
-0.861839,0.367605,-0.115045,2,4
-20.1435,8.59609,3.46878,20,12
-0.941838,0.402116,-0.0895961,5,5
-20.3726,8.70225,4.30618,4,13
-1.05787,0.452092,-0.060291,12,6
-21.3386,9.11932,5.35743,23,14
-20.7495,8.87181,-0.393901,89,7
-21.115,9.03247,6.15368,18,15
-23.6313,10.1479,0.448911,9,8
-23.0797,9.9206,1.31656,25,9
-0.71426,0.307018,-0.151121,9,2
-20.8736,8.98526,2.79032,7,11
-0.838672,0.361189,-0.11212,3,4
-20.3783,8.78047,3.51446,22,12
-0.973435,0.419429,-0.0927337,5,5
-20.3166,8.7581,4.30045,9,13
-1.0747,0.463507,-0.0613377,2,6
-21.1242,9.11499,5.31154,28,14
-20.7698,8.96637,-0.394878,89,7
-20.1807,8.71623,5.8902,13,15
-23.6435,10.251,0.449818,15,8
-21.0222,9.12328,1.20101,15,9
-30.109,13.073,2.87178,17,10
-0.773645,0.336069,-0.133595,7,3
-20.8202,9.04857,2.7874,21,11
-0.85197,0.370447,-0.11407,3,4
-20.1953,8.78536,3.48818,30,12
-0.990235,0.430772,-0.0944768,5,5
-21.7224,9.45418,4.60498,24,13
-27.7425,12.0801,-1.58578,24,6
-20.5902,8.96997,5.18512,43,14
-20.6577,9.00367,-0.393342,40,7
-20.3237,8.86229,5.94093,8,15
-27.1687,11.8923,0.517673,17,8
-20.9372,9.17336,1.19797,43,9
-26.472,11.6039,2.52874,14,10
-0.772467,0.338768,-0.133595,7,3
-29.7685,13.0613,3.99147,13,11
-0.88339,0.387781,-0.118457,2,4
-20.1718,8.85898,3.48943,14,12
-1.01601,0.446421,-0.0970915,10,5
-19.4317,8.53802,4.12567,17,13
-21.736,9.55499,-1.24434,22,6
-20.7675,9.13358,5.23776,16,14
-20.703,9.10955,-0.394808,89,7
-20.335,8.95186,5.95336,16,15
-22.6239,9.99718,0.431738,51,8
-20.9672,9.27386,1.20153,36,9
-22.8622,10.1216,2.18743,22,10
-0.800118,0.354396,-0.138601,5,3
-27.1509,12.0259,3.64609,47,11
-0.862067,0.382016,-0.115776,5,4
-20.0576,8.89251,3.47504,22,12
-1.02537,0.454811,-0.0981374,13,5
-21.3114,9.45728,4.5321,13,13
-27.9876,12.4258,-1.60483,33,6
-21.8024,9.68428,5.5077,31,14
-20.6565,9.17526,-0.394529,100,7
-20.6868,9.19303,6.06568,30,15
-22.5651,10.0703,0.431319,20,8
-21.2465,9.48623,1.21943,21,9
-26.2937,11.7507,2.51967,29,10
-0.795269,0.355575,-0.137975,6,3
-27.0812,12.114,3.64267,23,11
-0.893346,0.399613,-0.120163,4,4
-20.8793,9.34415,3.62302,23,12
-1.0256,0.459202,-0.0983117,12,5
-19.2501,8.62307,4.1001,34,13
-27.9878,12.543,-1.60734,33,6
-33.4911,15.0094,8.47301,74,14
-20.7411,9.29967,-0.396763,100,7
-20.1346,9.03193,5.91298,11,15
-21.0766,9.48987,0.403465,10,8
-21.2532,9.57386,1.22163,14,9
-26.0784,11.7584,2.50276,64,10
-0.768877,0.346838,-0.133595,7,3
-26.4674,11.9449,3.56541,22,11
-0.904681,0.408289,-0.121869,5,4
-19.3701,8.74595,3.36616,41,12
-1.03496,0.467522,-0.0993576,5,5
-18.9334,8.55669,4.03866,16,13
-27.9533,12.639,-1.60776,25,6
-21.8443,9.87684,5.5347,19,14
-20.6974,9.36263,-0.396519,99,7
-21.1394,9.56701,6.21735,18,15
-28.0527,12.743,0.537813,15,8
-22.6869,10.3103,1.30599,18,9
-25.9704,11.8135,2.49614,28,10
-0.783904,0.35675,-0.136411,12,3
-26.2451,11.9495,3.54079,33,11
-0.950295,0.432674,-0.128207,5,4
-19.4021,8.83797,3.37679,22,12
-18.5288,8.44408,-1.78146,8,5
-19.1853,8.7473,4.09858,10,13
-27.9549,12.7515,-1.61027,8,6
-21.6696,9.88452,5.4987,31,14
-22.6128,10.3195,-0.433867,23,7
-21.0583,9.61459,6.20286,12,15
-25.9633,11.8979,0.498511,37,8
-26.1856,12.0053,1.50968,11,9
-22.2243,10.1985,2.13932,21,10
-0.779126,0.357699,-0.135785,13,3
-20.8423,9.57318,2.81616,7,11
-0.977718,0.44908,-0.132106,10,4
-19.3979,8.91381,3.38117,46,12
-27.5483,12.665,-2.65267,8,5
-18.9707,8.72555,4.05889,10,13
-22.5963,10.3979,-1.30358,90,6
-34.944,16.0798,8.88062,13,14
-29.0686,13.3824,-0.558582,45,7
-20.721,9.54375,6.11279,6,15
-25.9452,11.9994,0.498964,16,8
-26.1142,12.0886,1.50811,27,9
-26.1497,12.1106,2.52124,58,10
-0.794004,0.367891,-0.138601,17,3
-29.2951,13.5797,3.96465,13,11
-1.00308,0.465188,-0.135762,24,4
-19.4923,9.04388,3.40339,28,12
-28.6354,13.286,-2.76179,8,5
-18.8654,8.757,4.04286,22,13
-22.5798,10.486,-1.30474,100,6
-20.2463,9.4066,5.15408,15,14
-25.3219,11.7702,-0.487411,91,7
-21.2289,9.87216,6.27326,9,15
-26.3653,12.3055,0.507865,13,8
-25.871,12.0858,1.49649,10,9
-26.1037,12.2001,2.52089,29,10
-0.792715,0.37066,-0.138601,11,3
-26.2466,12.278,3.55785,45,11
-1.01044,0.472893,-0.136981,32,4
-22.6217,10.592,-2.18534,43,5
-20.0009,9.36913,4.2932,11,13
-28.9452,13.5651,-1.67527,43,6
-20.2557,9.49706,5.16488,26,14
-25.2408,11.8398,-0.486643,100,7
-21.1244,9.91338,6.25255,6,15
-27.1615,12.7928,0.524061,39,8
-25.9211,12.2141,1.50173,2,9
-25.987,12.2563,2.51375,49,10
-0.814641,0.384383,-0.142668,14,3
-21.8216,10.301,2.96289,32,11
-1.01776,0.480656,-0.1382,13,4
-19.1534,9.04559,3.35489,9,12
-22.6008,10.6785,-2.18691,31,5
-19.2777,9.1125,4.14475,17,13
-29.2154,13.8163,-1.6937,78,6
-20.1995,9.55688,5.15903,5,14
-24.6537,11.6643,-0.476067,100,7
-21.0914,9.98337,6.25255,6,15
-27.193,12.918,0.525492,3,8
-26.5818,12.639,1.54255,2,9
-25.9801,12.364,2.51723,29,10
-0.820496,0.390478,-0.14392,18,3
-21.8053,10.3819,2.96533,8,11
-1.02153,0.48659,-0.138931,12,4
-19.4605,9.27386,3.41434,3,12
-29.8939,14.2522,-2.89741,8,5
-20.6527,9.84638,4.44738,25,13
-28.1834,13.4428,-1.63644,25,6
-21.2651,10.1475,5.43977,24,14
-24.5335,11.7124,-0.474531,79,7
-22.5974,10.7929,6.71014,11,15
-27.0684,12.9748,0.523956,3,8
-26.6546,12.7879,1.54935,5,9
-19.5912,9.40333,1.90122,46,10
-0.829813,0.39847,-0.145797,16,3
-27.0384,12.9895,3.68314,24,11
-1.02341,0.491872,-0.139419,20,4
-19.3889,9.3229,3.40746,24,12
-29.8015,14.3297,-2.89305,61,5
-19.9742,9.60863,4.30847,9,13
-20.5488,9.88947,-1.19514,30,6
-19.1314,9.21143,4.90213,18,14
-20.2984,9.77767,-0.393273,89,7
-20.238,9.75297,6.01961,5,15
-33.0249,15.972,0.640329,5,8
-26.7086,12.9287,1.55511,14,9
-0.699774,0.338736,-0.151121,9,2
-26.2109,12.6934,2.54791,29,10
-0.855082,0.414284,-0.15049,15,3
-26.9518,13.0639,3.67753,12,11
-1.0324,0.500638,-0.140881,12,4
-19.6797,9.54744,3.4644,20,12
-28.4983,13.8257,-2.7712,25,5
-18.7201,9.08594,4.04477,2,13
-20.5177,9.96288,-1.19535,25,6
-18.0351,8.76128,4.62904,30,14
-20.3325,9.88168,-0.394599,89,7
-19.8321,9.64278,5.90884,8,15
-28.4041,13.8598,0.551671,4,8
-26.19,12.785,1.52737,5,9
-32.8992,16.0744,3.2035,10,10
-0.858955,0.419869,-0.151429,17,3
-16.7863,8.21264,-2.29456,10,4
-19.2611,9.4234,3.39619,26,12
-24.9567,12.2154,-2.43095,7,5
-18.5084,9.06316,4.00584,30,13
-20.2784,9.93427,-1.18342,35,6
-17.9782,8.81132,4.62229,39,14
-20.0015,9.80296,-0.388805,64,7
-19.0715,9.35128,5.69143,26,15
-20.5531,10.1134,0.399835,2,8
-26.3333,12.969,1.53836,2,9
-0.609338,0.300228,-0.13204,13,2
-0.877048,0.432322,-0.15487,16,3
-16.6949,8.23664,-2.28578,20,4
-18.9748,9.36555,3.35145,22,12
-24.9497,12.3201,-2.43443,7,5
-18.9852,9.37483,4.11575,14,13
-20.2811,10.0192,-1.18551,20,6
-18.1306,8.96068,4.66908,41,14
-20.098,9.93743,-0.391353,8,7
-18.9244,9.36126,5.65727,14,15
-0.696249,0.345924,-0.151121,9,2
-0.926827,0.460888,-0.163943,19,3
-1.41473,0.703818,0.194016,1,11
-19.3292,9.62456,3.41997,7,12
-18.5675,9.24933,4.03218,8,13
-20.2639,10.0988,-1.18656,5,6
-17.9073,8.92827,4.6196,39,14
-18.9314,9.4471,5.66917,21,15
-1.41058,0.706982,0.0826908,2,9
-0.60728,0.304368,-0.13204,13,2
-1.41414,0.709076,0.138403,5,10
-0.944635,0.473863,-0.167385,19,3
-1.41404,0.709642,0.19426,15,11
-28.9742,14.5535,5.13543,16,12
-18.4053,9.24886,4.00394,10,13
-17.8395,8.97233,4.61015,21,14
-18.9311,9.52963,5.67901,28,15
-1.42614,0.720392,0.0278889,1,8
-1.38793,0.7014,-0.359022,1,1
-1.41358,0.714359,0.0830048,12,9
-0.627239,0.317116,-0.136619,12,2
-1.39921,0.707713,0.137183,14,10
-0.944738,0.47805,-0.167698,17,3
-1.42218,0.719953,0.195722,15,11
-18.8579,9.55063,3.34801,9,12
-1.44671,0.733003,-0.14189,1,5
-18.4972,9.37607,4.03103,54,13
-1.44642,0.733494,-0.0849936,1,6
-18.1383,9.20207,4.69563,42,14
-1.40704,0.713833,-0.0275399,6,7
-18.9166,9.6011,5.68418,9,15
-1.37716,0.701393,-0.41411,1,0
-1.39701,0.711505,0.0273654,16,8
-1.41997,0.723823,0.0835282,22,9
-0.591149,0.301465,-0.128987,13,2
-1.39851,0.713499,0.137357,9,10
-0.918513,0.468612,-0.163318,17,3
-1.41802,0.723763,0.195478,10,11
-1.40375,0.716788,-0.193529,4,4
-18.7453,9.57596,3.33393,19,12
-1.40156,0.716288,-0.137706,5,5
-18.4835,9.44629,4.03485,12,13
-1.40664,0.719193,-0.0827955,13,6
-18.3089,9.36511,4.74782,24,14
-1.40454,0.71874,-0.0275399,17,7
-18.8658,9.65827,5.67901,4,15
-1.34733,0.691837,-0.405828,1,0
-1.40519,0.72186,0.0275748,22,8
-1.37273,0.705486,-0.356322,1,1
-1.42289,0.731267,0.0838422,8,9
-0.646018,0.33215,-0.141199,11,2
-1.40145,0.720867,0.13788,10,10
-0.925654,0.476335,-0.164882,16,3
-1.41725,0.729617,0.195722,40,11
-1.3996,0.720531,-0.193285,11,4
-18.7451,9.65435,3.33956,31,12
-1.37615,0.709069,-0.13544,21,5
-18.4103,9.49006,4.02607,22,13
-1.37394,0.708537,-0.0810161,21,6
-18.1634,9.36682,4.71812,40,14
-1.41281,0.728895,-0.0277493,11,7
-18.7753,9.69065,5.66141,4,15
-1.3536,0.700742,-0.408416,2,0
-1.39213,0.720997,0.0273654,10,8
-1.36519,0.707345,-0.354973,2,1
-1.39209,0.721281,0.0821675,12,9
-0.589137,0.305379,-0.128987,13,2
-0.927576,0.481221,-0.165508,16,3
-1.3972,0.725168,-0.193285,22,4
-18.9093,9.81841,3.3746,7,12
-1.40208,0.728323,-0.138229,12,5
-18.708,9.72216,4.0982,17,13
-1.38576,0.72046,-0.0818534,7,6
-18.1928,9.45847,4.73387,32,14
-1.39974,0.72804,-0.0275399,10,7
-18.7276,9.74483,5.65675,2,15
-1.34785,0.703439,-0.407381,2,0
-1.40392,0.733014,0.0276446,12,8
-1.3732,0.717282,-0.357672,5,1
-0.574201,0.300057,-0.125934,14,2
-1.40723,0.735684,0.138926,100,10
-0.936478,0.489787,-0.167385,16,3
-1.39479,0.729797,0.193285,100,11
-1.38059,0.722676,-0.191335,11,4
-18.6789,9.77754,3.33925,22,12
-1.39789,0.732045,-0.138055,5,5
-18.5209,9.70306,4.06423,28,13
-1.38336,0.725051,-0.0818534,7,6
-19.492,10.2205,5.08119,30,14
-1.39201,0.729892,-0.0274352,15,7
-18.5259,9.71804,5.6055,13,15
-1.33,0.700042,-0.402722,2,0
-1.38201,0.72742,0.0272607,36,8
-1.38891,0.73167,0.0822721,100,9
-0.583571,0.307552,-0.128224,14,2
-1.38351,0.72944,0.136835,100,10
-0.940091,0.495653,-0.168324,14,3
-1.39587,0.736271,0.193772,100,11
-1.37116,0.723544,-0.19036,10,4
-18.6377,9.839,3.338,21,12
-1.37067,0.723893,-0.135614,5,5
-18.6466,9.84786,4.09896,23,13
-1.39155,0.735233,-0.0824815,13,6
-23.5774,12.4625,6.15691,56,14
-1.38415,0.731942,-0.0273305,60,7
-18.5601,9.81878,5.62621,23,15
-1.33279,0.707165,-0.404275,2,0
-1.36887,0.726614,0.0270512,100,8
-1.37001,0.727526,-0.358122,4,1
-1.39517,0.741199,0.0827955,100,9
-0.617223,0.327907,-0.135856,12,2
-1.37756,0.732154,0.136486,100,10
-0.920913,0.489658,-0.165195,13,3
-1.38804,0.738342,0.193041,100,11
-1.37213,0.730191,-0.190847,8,4
-1.37002,0.729371,-0.135789,12,5
-18.8928,10.0624,4.16078,23,13
-21.4633,11.4411,5.61523,6,14
-1.37629,0.733946,-0.0272258,100,7
-19.8825,10.6073,6.03825,14,15
-1.34734,0.720927,-0.409452,2,0
-1.38043,0.738938,0.0273305,100,8
-1.38905,0.744178,0.0825861,100,9
-0.584925,0.313371,-0.128987,13,2
-1.38027,0.739782,0.137009,100,10
-0.919199,0.49287,-0.165195,13,3
-1.37845,0.739429,0.192066,100,11
-1.37483,0.737793,-0.191579,13,4
-29.3278,15.7452,5.27216,8,12
-18.778,10.0856,4.14323,23,13
-1.34592,0.723186,-0.080074,100,6
-18.3216,9.84865,4.80226,4,14
-1.36844,0.735904,-0.027121,100,7
-20.0903,10.8085,6.11279,9,15
-1.34992,0.728377,-0.411005,2,0
-1.37608,0.742803,0.0272956,100,8
-1.34432,0.725961,-0.352723,4,1
-1.37955,0.744984,0.0821675,100,9
-0.614919,0.332208,-0.135856,12,2
-1.38118,0.74649,0.137357,100,10
-0.931374,0.503592,-0.167698,16,3
-1.37237,0.742347,0.191579,100,11
-1.3705,0.741642,-0.191335,46,4
-18.6031,10.0671,3.3502,15,12
-1.35263,0.732278,-0.134568,100,5
-18.4803,10.0089,4.08522,18,13
-1.35568,0.734541,-0.0808067,100,6
-18.2751,9.90604,4.79911,8,14
-1.37654,0.746156,-0.0273305,100,7
-20.1291,10.9156,6.13556,9,15
-1.34398,0.731238,-0.409969,2,0
-1.36307,0.741627,0.0270861,100,8
-1.36641,0.744064,0.0815394,100,9
-0.568931,0.309933,-0.125934,14,2
-1.37682,0.750354,0.137183,100,10
-0.947044,0.516131,-0.170826,17,3
-1.37862,0.751645,0.192797,100,11
-1.35583,0.739529,-0.189629,100,4
-18.7135,10.2114,3.37648,20,12
-1.3658,0.745586,-0.136137,100,5
-18.4108,10.0504,4.07721,20,13
-1.35323,0.739032,-0.0808067,100,6
-18.2113,9.94977,4.79101,41,14
-1.3634,0.745202,-0.027121,100,7
-18.5654,10.1516,5.66969,4,15
-1.33477,0.731976,-0.407899,2,0
-1.37099,0.752152,0.0272956,100,8
-1.3701,0.751971,-0.360821,5,1
-1.36731,0.750752,0.0817488,100,9
-0.581667,0.319377,-0.128987,13,2
-1.36559,0.750119,0.136312,100,10
-0.946968,0.520384,-0.171139,29,3
-1.37077,0.753584,0.192066,100,11
-1.36194,0.749041,-0.190847,100,4
-18.7453,10.3138,3.38868,22,12
-1.34936,0.742428,-0.134743,100,5
-19.9424,10.9771,4.42486,5,13
-1.36639,0.752422,-0.0817488,128,6
-18.8763,10.3988,4.97547,38,14
-1.36079,0.749957,-0.027121,100,7
-18.5027,10.2014,5.66141,23,15
-1.35086,0.747253,0.0269465,100,8
-1.36405,0.754862,-0.359922,5,1
-1.36817,0.757455,0.0819581,100,9
-0.556502,0.308093,-0.123644,14,2
-1.36471,0.755846,0.136486,100,10
-0.939962,0.520815,-0.170201,52,3
-1.36639,0.757403,0.191822,100,11
-1.35758,0.752827,-0.190604,100,4
-18.7247,10.3878,3.3915,31,12
-1.33979,0.743267,-0.134046,100,5
-18.7402,10.4007,4.16612,8,13
-1.36376,0.757187,-0.0817488,131,6
-19,10.5536,5.01776,34,14
-1.36166,0.756645,-0.0271908,100,7
-18.5109,10.2903,5.67487,14,15
-1.33131,0.742217,-0.408416,2,0
-1.35174,0.753912,0.0270163,100,8
-1.33758,0.746326,-0.353623,5,1
-1.36901,0.764173,0.0821675,100,9
-0.579423,0.323431,-0.128987,13,2
-1.36032,0.759634,0.136312,100,10
-0.93124,0.520239,-0.168949,69,3
-1.36374,0.762167,0.191822,100,11
-1.35667,0.75853,-0.190847,100,4
-18.6538,10.4338,3.38524,22,12
-1.34414,0.75183,-0.134743,100,5
-18.8082,10.5245,4.1894,18,13
-1.35065,0.756089,-0.0811207,125,6
-19.0566,10.6722,5.0425,24,14
-1.3625,0.763348,-0.0272607,100,7
-18.6569,10.4569,5.73077,20,15
-1.31861,0.74118,-0.405311,2,0
-1.35258,0.760586,0.0270861,100,8
-1.36285,0.766988,0.0819581,100,9
-0.591978,0.333154,-0.13204,13,2
-1.36981,0.77122,0.137532,100,10
-0.929418,0.523486,-0.168949,69,3
-1.35761,0.764974,0.191335,100,11
-1.34191,0.756438,-0.189141,100,4
-18.3884,10.3698,3.34363,15,12
-1.34845,0.760432,-0.13544,100,5
-1.348,0.760799,-0.0811207,125,6
-17.923,10.1197,4.75187,44,14
-1.35634,0.766132,-0.0271908,100,7
-19.2863,10.8983,5.93576,24,15
-1.3314,0.753886,-0.409969,2,0
-1.35019,0.764832,0.0270861,100,8
-1.34278,0.760945,-0.356322,5,1
-1.35175,0.766341,0.0814348,100,9
-0.570434,0.323393,-0.12746,14,2
-1.35872,0.770605,0.13666,100,10
-0.929487,0.527379,-0.169262,37,3
-1.35347,0.768255,0.191091,100,11
