x, y, z, intensity, ring
0.382241,-0.37003,-0.122823,15,1
3.50801,-3.39713,0.255923,41,9
0.45413,-0.439775,-0.122881,15,2
4.66659,-4.52066,0.56843,11,10
12.455,-12.0698,-2.74699,11,3
4.49827,-4.36065,0.769239,17,11
4.4234,-4.28957,-0.756565,11,4
4.17415,-4.04927,0.921086,67,12
13.8544,-13.44,-1.68873,3,5
4.24646,-4.12085,1.1502,7,13
3.90942,-3.79511,-0.285545,11,6
3.77186,-3.66285,1.21384,65,14
3.89421,-3.78299,-0.0947666,46,7
8.25581,-8.02282,3.08461,8,15
3.62762,-3.5351,0.0884139,16,8
0.380947,-0.371362,-0.122823,15,1
3.54904,-3.46094,0.259796,35,9
0.449781,-0.438616,-0.122118,15,2
4.66076,-4.54666,0.56965,61,10
4.49011,-4.38172,-0.993672,13,3
4.49154,-4.38464,0.770702,70,11
5.15686,-5.03589,-0.885015,15,4
4.22358,-4.12594,0.935165,60,12
13.6877,-13.3713,-1.67409,18,5
3.88186,-3.79477,-0.284498,14,6
3.7702,-3.6869,1.21744,59,14
3.82095,-3.73783,-0.0933006,33,7
8.23604,-8.05969,3.08771,33,15
4.12907,-4.05196,0.10098,35,8
0.379649,-0.372689,-0.122823,15,1
3.52269,-3.45932,0.258749,19,9
0.434239,-0.426428,-0.118302,15,2
4.46862,-4.38977,0.548035,41,10
4.20286,-4.13014,-0.933288,36,3
4.37853,-4.30427,0.753884,30,11
12.7087,-12.4975,-2.18853,14,4
4.32744,-4.25702,0.961446,74,12
12.6297,-12.4242,-1.54998,13,5
4.24137,-4.17381,1.15668,13,13
5.37589,-5.29211,-0.395346,39,6
3.7462,-3.6891,1.21384,26,14
3.74092,-3.68519,-0.09166,48,7
3.6313,-3.58845,0.089112,5,8
0.378346,-0.374012,-0.122823,15,1
3.68243,-3.64152,0.271414,6,9
0.424372,-0.419658,-0.116012,16,2
4.44052,-4.39273,0.546467,58,10
4.19123,-4.14757,-0.933914,62,3
4.39028,-4.34606,0.758515,85,11
12.4238,-12.303,-2.14685,23,4
4.27186,-4.23178,0.952373,119,12
12.5721,-12.4541,-1.54823,35,5
5.45116,-5.40191,1.49174,36,13
3.86095,-3.8274,-0.284917,11,6
3.73745,-3.70627,1.21519,12,14
3.74507,-3.71512,-0.0920789,40,7
3.79976,-3.77069,1.43438,7,15
0.377038,-0.375331,-0.122823,15,1
3.68101,-3.66563,0.272252,20,9
0.431252,-0.429449,-0.118302,15,2
4.39411,-4.37727,0.542632,13,10
4.14874,-4.13428,-0.927656,45,3
4.42851,-4.41462,0.767777,40,11
12.3794,-12.3449,-2.14661,9,4
6.0891,-6.07424,1.36223,71,12
12.5257,-12.4951,-1.54789,35,5
5.26273,-5.25172,1.44519,19,13
13.1739,-13.1509,-0.975542,10,6
5.76117,-5.75313,1.87969,9,14
3.74481,-3.74089,-0.092393,32,7
6.42393,-6.41944,2.43342,4,15
3.71916,-3.72695,0.0919044,33,8
0.375725,-0.376644,-0.122823,15,1
3.66679,-3.67704,0.272147,13,9
0.438068,-0.439293,-0.120591,15,2
3.46872,-3.47963,0.429852,14,10
4.15659,-4.17113,-0.932662,63,3
4.43268,-4.44974,0.771189,30,11
12.3881,-12.4401,-2.15563,4,4
6.06089,-6.08846,1.36067,113,12
4.48256,-4.50295,-0.555879,10,5
5.21113,-5.23666,1.43603,112,13
13.111,-13.1798,-0.974286,7,6
4.6199,-4.6474,-0.114383,47,7
8.14994,-8.20131,3.09806,11,15
3.70049,-3.73423,0.0917648,48,8
0.374408,-0.377954,-0.122823,15,1
4.45498,-4.49874,0.33181,30,9
0.442058,-0.446399,-0.122118,15,2
3.46076,-3.49597,0.430375,33,10
4.3282,-4.37376,-0.974587,47,3
4.34034,-4.38756,0.757784,62,11
12.6377,-12.7796,-2.20681,9,4
5.34524,-5.40717,1.20423,26,12
12.5922,-12.7381,-1.56706,35,5
4.7274,-4.78551,-0.352535,13,6
5.71812,-5.79043,1.87879,23,14
4.19344,-4.24795,-0.104191,40,7
3.66079,-3.72005,0.0911016,56,8
0.373087,-0.379258,-0.122823,15,1
4.23759,-4.3092,0.316737,47,9
0.454262,-0.461938,-0.125934,14,2
3.48345,-3.54355,0.434733,19,10
4.1426,-4.21554,-0.936104,42,3
4.32222,-4.39986,0.757296,30,11
3.7039,-3.77175,-0.649076,7,4
5.3374,-5.43707,1.20674,30,12
12.6404,-12.8809,-1.57891,10,5
4.6771,-4.76777,-0.350023,37,6
8.07745,-8.23691,2.66342,22,14
4.13799,-4.22115,-0.103179,19,7
4.93256,-5.03345,1.88834,53,15
3.754,-3.8415,0.0937543,60,8
0.358143,-0.366618,-0.118324,16,1
4.35649,-4.46114,0.326786,42,9
0.430623,-0.441122,-0.119828,15,2
3.48575,-3.57198,0.43665,63,10
5.45685,-5.5938,-1.23771,8,3
4.29852,-4.40639,0.755834,27,11
3.68101,-3.77471,-0.64737,21,4
5.31287,-5.45001,1.20548,78,12
4.50389,-4.62176,-0.564595,23,5
3.80403,-3.90631,-0.285754,8,6
5.8818,-6.04205,1.94673,35,14
4.36873,-4.48776,-0.109322,55,7
3.70508,-3.80736,1.4235,31,15
3.70508,-3.81935,0.0928817,63,8
0.370363,-0.381918,-0.122823,15,1
4.39849,-4.53731,0.331182,39,9
0.43728,-0.45108,-0.122118,15,2
3.41779,-3.52689,0.429678,52,10
4.17556,-4.31034,-0.950496,26,3
4.18705,-4.32372,0.739016,72,11
3.61607,-3.7354,-0.638352,6,4
3.94939,-4.08115,0.899498,40,12
4.43496,-4.58452,1.23988,104,13
3.77649,-3.90521,-0.284708,31,6
3.73826,-3.86703,1.24173,28,14
4.17299,-4.31824,-0.104819,41,7
3.67366,-3.80285,1.41678,20,15
4.15927,-4.31759,0.104645,30,8
0.352807,-0.366364,-0.117424,16,1
4.09313,-4.25191,0.309306,29,9
0.435624,-0.45268,-0.122118,15,2
3.40346,-3.53796,0.429504,42,10
4.25036,-4.41987,0.752909,80,11
3.62089,-3.76661,-0.64152,3,4
3.93648,-4.09633,0.899811,100,12
4.39893,-4.57916,-0.555531,16,5
4.39501,-4.57667,1.23339,37,13
4.38872,-4.57172,-0.332124,35,6
3.72406,-3.8807,1.24173,44,14
4.09559,-4.26785,-0.103248,50,7
3.68309,-3.83935,1.42558,50,15
3.69839,-3.86744,0.0934053,56,8
0.367621,-0.384559,-0.122823,15,1
4.40397,-4.60688,0.334008,37,9
0.436754,-0.457037,-0.122881,15,2
5.0715,-5.30888,0.642338,43,10
3.27148,-3.4258,-0.75026,25,3
3.72834,-3.90558,0.662969,21,11
3.65365,-3.82868,-0.649807,8,4
3.92489,-4.11291,0.900437,120,12
4.23302,-4.43735,-0.536531,6,5
3.80182,-3.98673,1.07082,21,13
4.40718,-4.62315,-0.334741,35,6
3.72663,-3.91061,1.24713,13,14
4.17447,-4.38056,-0.105622,35,7
3.675,-3.85778,1.42765,65,15
3.73788,-3.93478,0.0947317,52,8
0.352924,-0.371645,-0.118324,16,1
4.38924,-4.62368,0.334113,37,9
0.432453,-0.45571,-0.122118,15,2
5.01043,-5.28174,0.636934,31,10
4.07853,-4.29938,-0.938607,8,3
3.71947,-3.92224,0.6637,61,11
3.60953,-3.80764,-0.644201,19,4
3.91866,-4.13518,0.902314,89,12
3.69134,-3.89667,-0.469595,2,5
3.79938,-4.01072,1.07387,50,13
4.45054,-4.70303,-0.113022,46,7
3.6801,-3.89023,1.43489,28,15
3.77764,-4.00453,0.0960929,68,8
0.364995,-0.387052,-0.122823,15,1
4.27306,-4.53288,0.326472,25,9
0.417472,-0.442856,-0.118302,15,2
3.48983,-3.70332,0.445192,15,10
4.16102,-4.41711,-0.961133,6,3
3.70031,-3.92942,0.662726,52,11
3.49825,-3.71615,-0.626652,45,4
4.40103,-4.67679,1.01714,63,12
3.50844,-3.72958,-0.447981,2,5
3.78671,-4.02539,1.07425,24,13
4.03355,-4.28929,-0.308573,21,6
3.71861,-3.95576,1.25343,40,14
4.13009,-4.39503,-0.105273,15,7
4.78946,-5.09847,1.87437,67,15
3.73083,-3.98267,0.0952552,60,8
0.363641,-0.388324,-0.122823,15,1
3.91052,-4.17741,0.299885,36,9
0.405115,-0.432915,-0.115249,16,2
5.27815,-5.6443,-1.22394,5,3
3.73538,-3.99451,0.6715,30,11
3.44865,-3.68918,-0.620071,46,4
3.90858,-4.18265,0.906694,75,12
4.12547,-4.41939,-0.316842,39,6
3.70674,-3.97222,1.25433,49,14
4.112,-4.40649,-0.105203,56,7
5.12348,-5.49233,2.01258,39,15
3.75161,-4.03439,0.0961628,38,8
0.362216,-0.389654,-0.122823,15,1
3.75107,-4.03663,0.28879,37,9
0.433003,-0.465966,-0.123644,14,2
4.01505,-4.32373,-0.93454,5,3
3.72207,-4.00963,0.671744,42,11
3.48912,-3.76,-0.629821,8,4
4.34192,-4.68065,1.01119,119,12
3.52772,-3.80426,-0.453907,36,5
4.0101,-4.32446,1.14638,33,13
4.08694,-4.40886,-0.315062,19,6
3.65709,-3.94654,1.24218,56,14
4.12979,-4.45821,-0.106076,56,7
5.10987,-5.51816,2.01517,40,15
4.02511,-4.35891,0.103563,68,8
0.360853,-0.390916,-0.122823,15,1
3.75186,-4.06585,0.289941,42,9
0.439279,-0.476209,-0.125934,14,2
12.4246,-13.4786,-2.90342,2,3
3.71208,-4.02698,0.672475,59,11
4.25329,-4.61732,0.994298,86,12
3.47528,-3.77405,-0.448852,33,5
4.14315,-4.50091,1.18912,37,13
4.00313,-4.35033,-0.309829,15,6
3.63469,-3.95131,1.23948,59,14
3.92332,-4.26508,-0.101154,28,7
3.79734,-4.12958,1.50322,20,15
4.18341,-4.5638,0.108065,30,8
0.359418,-0.392236,-0.122823,15,1
3.8186,-4.16727,0.296222,39,9
0.413744,-0.451681,-0.119065,15,2
2.97834,-3.2537,-0.698636,8,3
4.03232,-4.40668,0.73341,30,11
3.53582,-3.86543,-0.643226,64,4
3.43251,-3.75381,-0.445017,32,5
3.99363,-4.36898,1.15058,38,13
4.0984,-4.48517,-0.318412,19,6
3.65899,-4.0057,1.25253,53,14
3.79917,-4.15916,-0.0983269,36,7
3.79332,-4.15422,1.50736,106,15
4.15883,-4.56729,0.107821,61,8
0.358115,-0.393426,-0.122823,15,1
3.82554,-4.20421,0.297896,28,9
0.406881,-0.447313,-0.117538,16,2
2.97949,-3.27671,-0.701452,25,3
4.04973,-4.45528,0.73926,20,11
3.50162,-3.85363,-0.639327,35,4
3.49573,-3.84985,-0.454953,38,5
3.91709,-4.31389,1.13264,32,13
4.07545,-4.48987,-0.317784,35,6
3.64961,-4.02214,1.25388,43,14
3.74566,-4.12944,-0.0973146,45,7
3.77491,-4.16314,1.50581,56,15
4.1375,-4.57585,0.107681,66,8
0.355433,-0.393228,-0.122373,15,1
3.81024,-4.21539,0.297792,32,9
0.413292,-0.4574,-0.119828,15,2
3.38547,-3.74809,0.44188,17,10
2.98524,-3.30615,-0.705519,7,3
3.87986,-4.29845,0.710986,27,11
3.50543,-3.88499,-0.642495,45,4
5.14375,-5.7007,1.21612,47,12
3.52031,-3.90284,-0.459834,40,5
3.6956,-4.09862,1.07273,37,13
3.99289,-4.42989,-0.31255,31,6
3.57815,-3.97115,1.23408,47,14
5.94997,-6.60348,-0.155152,41,7
3.76237,-4.17707,1.50633,33,15
4.09291,-4.55682,0.106913,56,8
0.354127,-0.394404,-0.122373,15,1
3.81684,-4.25245,0.299466,33,9
0.41956,-0.467607,-0.122118,15,2
3.03494,-3.38368,-0.719912,33,3
3.90402,-4.35416,0.718054,22,11
3.68303,-4.11058,0.874156,50,12
3.56116,-3.97596,-0.46698,21,5
3.64531,-4.06991,1.06204,34,13
6.89587,-7.70178,-0.541782,42,6
3.64164,-4.06867,1.26063,49,14
4.35083,-4.86272,-0.113894,29,7
3.74906,-4.19162,1.50684,112,15
4.08017,-4.57626,0.107018,100,8
0.352679,-0.3957,-0.122373,15,1
3.82382,-4.29176,0.301246,23,9
0.404786,-0.454481,-0.118302,15,2
3.47716,-3.90405,0.457393,43,10
3.06849,-3.44642,-0.730862,67,3
3.8722,-4.35064,0.715129,20,11
3.49802,-3.93161,-0.646151,32,4
3.6837,-4.14176,0.87791,47,12
3.55318,-3.99643,-0.467852,37,5
3.62314,-4.07654,1.06013,33,13
4.80455,-5.40769,1.67004,26,14
4.39273,-4.94591,-0.115465,66,7
3.69006,-4.15621,1.48924,54,15
3.9812,-4.49835,0.104854,88,8
0.351227,-0.396989,-0.122373,15,1
3.79483,-4.29078,0.300199,6,9
0.403117,-0.455962,-0.118302,15,2
3.34406,-3.78243,0.441705,47,10
2.94464,-3.33183,-0.704268,38,3
3.83914,-4.34547,0.711961,5,11
3.66457,-4.15079,0.876972,66,12
3.55433,-4.02735,-0.469944,17,5
3.61726,-4.10009,1.06281,15,13
4.89193,-5.54686,-0.3876,7,6
3.65297,-4.14202,1.27502,15,14
4.40367,-4.99498,-0.116233,100,7
3.66969,-4.16391,1.48717,58,15
3.68357,-4.19292,0.0974193,41,8
0.349769,-0.398274,-0.122373,15,1
0.409295,-0.466218,-0.120591,15,2
3.51153,-4.00132,0.46576,71,10
2.93893,-3.35002,-0.705832,28,3
4.39909,-5.0162,0.819206,30,11
2.97183,-3.38992,-0.553531,32,4
3.6298,-4.14191,0.872279,16,12
3.48696,-3.98173,-0.277381,5,6
4.36031,-4.98249,-0.11557,66,7
3.6684,-4.19333,1.49287,35,15
3.7675,-4.31877,0.100037,71,8
0.348377,-0.399493,-0.122373,15,1
3.76534,-4.31934,0.300304,24,9
0.412825,-0.473564,-0.122118,15,2
3.37581,-3.87386,0.449549,100,10
2.95317,-3.39005,-0.71209,17,3
2.97562,-3.41824,-0.556455,38,4
3.6244,-4.16499,0.874469,5,12
3.57583,-4.10918,-0.476568,26,5
3.59628,-4.13413,1.0651,31,13
3.46911,-3.98935,-0.277067,30,6
4.75086,-5.46524,1.67184,54,14
4.32321,-4.97504,-0.115046,64,7
4.62165,-5.32035,1.88834,32,15
0.34698,-0.400706,-0.122373,15,1
3.39208,-3.91869,0.271624,31,9
0.40603,-0.469064,-0.120591,15,2
3.32837,-3.84645,0.445017,73,10
2.95811,-3.41976,-0.716157,42,3
6.91923,-8.00188,1.29888,3,11
3.00132,-3.47216,-0.563524,8,4
3.5276,-4.08244,-0.472035,22,5
3.85775,-4.46609,1.14714,117,13
3.61572,-4.18737,-0.289941,17,6
3.96094,-4.59041,-0.105831,51,7
4.57655,-5.30573,1.87747,67,15
3.86505,-4.49354,0.103458,31,8
0.345579,-0.401915,-0.122373,15,1
3.42785,-3.98806,0.275601,21,9
0.409509,-0.476434,-0.122118,15,2
3.14223,-3.65705,0.421834,85,10
2.93844,-3.42108,-0.71428,28,3
3.85621,-4.49118,0.726829,57,11
2.99306,-3.48713,-0.564255,28,4
3.86021,-4.49902,0.93892,79,12
3.48478,-4.06146,-0.468201,6,5
3.84086,-4.47804,1.14676,33,13
6.40915,-7.47504,-0.516033,17,6
3.7196,-4.33973,1.31956,20,14
4.13355,-4.8244,-0.110893,100,7
3.70094,-4.32102,1.52444,26,15
3.87921,-4.54197,0.104261,28,8
0.344174,-0.403119,-0.122373,15,1
3.70046,-4.33574,0.298734,34,9
0.418039,-0.489807,-0.125171,14,2
3.11134,-3.64678,0.419393,82,10
2.9675,-3.47941,-0.724292,28,3
3.54043,-4.15264,0.670038,76,11
2.9358,-3.44468,-0.555724,73,4
3.87139,-4.54404,0.94549,103,12
3.31036,-3.88554,-0.446586,26,5
3.83793,-4.50637,1.15058,17,13
3.41032,-4.00569,-0.275706,35,6
3.68043,-4.32449,1.31101,41,14
4.2346,-4.9774,-0.114069,58,7
3.68083,-4.32802,1.52237,48,15
3.31106,-3.90427,0.0893563,53,8
0.325123,-0.383507,-0.116075,16,1
3.6259,-4.27854,0.293919,22,9
0.406173,-0.479282,-0.122118,15,2
3.09859,-3.65762,0.419393,61,10
2.94129,-3.47316,-0.72085,40,3
3.54258,-4.18467,0.673206,35,11
2.9212,-3.45188,-0.555237,17,4
3.83126,-4.52888,0.939546,113,12
3.3341,-3.94118,-0.451641,5,5
3.42411,-4.04902,1.03075,33,13
3.39373,-4.01452,-0.275497,55,6
3.64016,-4.30755,1.30202,52,14
4.23526,-5.01353,-0.114558,35,7
3.64825,-4.32018,1.51513,65,15
3.23816,-3.84544,0.0877507,63,8
0.323782,-0.38464,-0.116075,16,1
3.62455,-4.30582,0.294965,35,9
0.407025,-0.483701,-0.122881,15,2
3.49494,-4.15479,0.474999,48,10
2.93423,-3.48946,-0.722102,41,3
3.1652,-3.76546,0.603985,38,11
2.96404,-3.5274,-0.565718,6,4
3.82131,-4.54761,0.940797,27,12
3.81017,-4.53756,1.15172,20,13
3.38355,-4.03093,-0.275811,57,6
3.63512,-4.33217,1.30562,36,14
3.34456,-3.98589,-0.0908223,3,7
4.42227,-5.27212,1.84383,85,15
3.25233,-3.88837,0.0884837,26,8
0.340005,-0.406642,-0.122373,15,1
3.6966,-4.42265,0.302083,31,9
0.407852,-0.488132,-0.123644,14,2
3.06915,-3.67457,0.41887,26,10
2.87453,-3.44156,-0.710213,35,3
3.2672,-3.91307,0.625921,51,11
2.97141,-3.56007,-0.569374,1,4
3.76491,-4.51238,0.930785,60,12
3.81186,-4.57027,-0.520668,12,5
3.77372,-4.52454,1.14524,34,13
3.35738,-4.02679,-0.274764,24,6
3.60327,-4.32324,1.29932,41,14
3.32038,-3.98525,-0.0905431,3,7
4.43969,-5.33057,1.85884,33,15
3.16081,-3.80586,0.0863545,60,8
0.338584,-0.407826,-0.122373,15,1
3.75512,-4.52467,0.308154,21,9
0.406231,-0.489482,-0.123644,14,2
3.0455,-3.67093,0.417302,70,10
2.81962,-3.39987,-0.699575,41,3
3.18637,-3.84346,0.613003,27,11
10.4666,-12.6295,-2.01401,15,4
3.87975,-4.68482,-0.532173,31,5
3.60263,-4.35019,1.09792,23,13
3.37259,-4.07387,-0.277171,16,6
3.59188,-4.3403,1.30067,56,14
3.30008,-3.98911,-0.0903686,34,7
4.40505,-5.32668,1.85211,82,15
3.14877,-3.81841,0.0863894,34,8
0.337158,-0.409005,-0.122373,15,1
3.00643,-3.64839,0.247758,5,9
0.399441,-0.484906,-0.122118,15,2
3.11688,-3.78512,0.428981,26,10
2.82346,-3.43001,-0.703642,28,3
3.1805,-3.86375,0.614465,56,11
3.8723,-4.70584,-0.748278,31,4
3.86717,-4.70295,-0.532696,15,5
3.58666,-4.36337,1.09792,24,13
3.36018,-4.08929,-0.277381,30,6
3.57471,-4.35193,1.30022,52,14
3.28106,-3.99442,-0.0902289,31,7
3.15249,-3.85159,0.0868781,37,8
0.335657,-0.410238,-0.122373,15,1
0.375373,-0.458943,-0.115249,16,2
3.0696,-3.75433,0.424274,49,10
2.91773,-3.56985,-0.730236,16,3
3.2241,-3.9461,0.625677,13,11
3.86759,-4.73538,-0.750715,15,4
3.23693,-3.96463,0.810643,46,12
4.77333,-5.84852,-0.660466,10,5
4.07789,-4.99642,1.25362,22,13
3.35346,-4.11028,-0.278009,16,6
3.63463,-4.4565,1.32766,30,14
3.26134,-4.00022,-0.0900893,19,7
3.57962,-4.39218,1.51823,13,15
3.12515,-3.8455,0.0864941,49,8
0.334223,-0.411407,-0.122373,15,1
2.99032,-3.68221,0.248596,47,9
0.391012,-0.481655,-0.120591,15,2
3.02569,-3.72842,0.420091,43,10
2.88098,-3.55137,-0.724292,37,3
3.28909,-4.05445,0.641033,9,11
10.4841,-12.9283,-2.04375,13,4
3.24173,-3.99892,0.815337,82,12
8.92374,-11.012,-1.24005,2,5
3.9199,-4.83895,1.21049,117,13
3.37985,-4.17376,-0.281463,22,6
3.23981,-4.00226,-0.0898799,19,7
3.52538,-4.35659,1.50167,45,15
3.07965,-3.81802,0.0856215,28,8
0.332712,-0.41263,-0.122373,15,1
2.98182,-3.69937,0.249015,47,9
0.386864,-0.47996,-0.119828,15,2
3.01765,-3.74517,0.420788,56,10
2.89831,-3.59833,-0.731801,22,3
5.16292,-6.41449,-1.01103,24,4
3.26792,-4.06156,0.825661,63,12
3.83354,-4.76626,-0.535136,13,5
3.83039,-4.76234,1.18798,30,13
3.40656,-4.2369,-0.284917,34,6
3.76868,-4.68897,1.38885,41,14
3.23263,-4.02346,-0.0900893,19,7
3.06381,-3.82562,0.0855517,9,8
0.33127,-0.413789,-0.122373,15,1
2.97887,-3.72223,0.249852,43,9
0.392461,-0.490573,-0.122118,15,2
3.20176,-4.00361,0.448503,15,10
3.20087,-4.00392,-0.811895,20,3
3.69011,-4.61591,0.72561,30,11
2.76233,-3.4566,-0.543294,20,4
3.51387,-4.3986,0.891677,77,12
3.72472,-4.66588,1.1605,34,13
3.391,-4.24936,-0.284917,31,6
3.7697,-4.7256,1.3956,52,14
3.27344,-4.1035,-0.0916251,32,7
3.0311,-3.81334,0.0850281,48,8
0.305505,-0.384485,-0.113375,16,1
2.98201,-3.75293,0.251213,20,9
0.396852,-0.499626,-0.124026,14,2
2.98211,-3.75574,0.419568,19,10
3.05178,-3.84487,-0.777479,12,3
4.19015,-5.28098,0.827737,90,11
2.73361,-3.44649,-0.540125,48,4
3.20388,-4.0394,0.816588,17,12
4.1282,-5.20662,-0.581329,32,5
3.86085,-4.87117,1.2082,24,13
3.60437,-4.54921,-0.304177,25,6
3.69873,-4.66999,1.37535,37,14
3.25785,-4.11333,-0.0915902,64,7
4.3482,-5.49197,1.87696,77,15
3.01348,-3.8171,0.0848885,53,8
0.328373,-0.416091,-0.122373,15,1
2.9726,-3.76802,0.251527,40,9
0.361065,-0.457845,-0.113341,16,2
5.35822,-6.79687,0.757209,16,10
3.05614,-3.87669,-0.78186,28,3
2.73199,-3.46801,-0.542075,57,4
4.11739,-5.2304,-0.582375,15,5
3.71109,-4.71426,1.16622,30,13
6.30036,-8.00632,-0.533931,56,6
4.64831,-5.90907,1.73572,42,14
3.22617,-4.10267,-0.0911016,40,7
4.34572,-5.52837,1.8842,81,15
3.00507,-3.83389,0.0850281,56,8
0.326919,-0.417235,-0.122373,15,1
6.90781,-8.81936,0.587105,21,9
0.383757,-0.489951,-0.120973,15,2
3.54728,-4.53052,0.503412,26,10
3.04746,-3.89356,-0.783111,27,3
3.51069,-4.48702,0.69953,10,11
2.72109,-3.47909,-0.542319,44,4
3.45058,-4.41336,0.887296,80,12
4.01658,-5.13729,-0.570521,25,5
3.74297,-4.78906,1.18149,26,13
6.58224,-8.42488,-0.560309,47,6
4.62406,-5.92065,1.73437,15,14
3.24628,-4.15805,-0.0920789,36,7
4.32996,-5.54808,1.88576,34,15
2.97571,-3.82384,0.0845744,19,8
0.32546,-0.418373,-0.122373,15,1
0.382044,-0.491288,-0.120973,15,2
4.91442,-6.32195,0.700558,22,10
3.03142,-3.90105,-0.782485,47,3
3.50718,-4.51492,0.701967,92,11
2.74789,-3.53874,-0.550118,42,4
5.3538,-6.89711,1.38288,16,12
3.68531,-4.74936,1.16851,30,13
6.5785,-8.48095,-0.562507,13,6
6.14618,-7.92646,2.31565,37,14
3.22317,-4.15829,-0.0918346,44,7
4.93683,-6.38981,0.140946,7,8
4.97008,-6.4375,0.426224,29,9
0.385126,-0.498834,-0.122499,15,2
5.76513,-7.46998,0.825539,36,10
3.00934,-3.90066,-0.780295,42,3
3.54353,-4.59473,0.712448,85,11
2.74158,-3.55617,-0.551337,43,4
3.79489,-4.92599,-0.544026,10,5
3.66152,-4.75287,1.16622,28,13
6.53301,-8.48329,-0.561146,30,6
6.13987,-7.97566,2.32374,53,14
3.21108,-4.17268,-0.0919044,44,7
11.6342,-15.1237,5.11271,14,15
2.95624,-3.85404,0.0847838,44,8
0.322532,-0.420635,-0.122373,15,1
3.50049,-4.56687,0.30156,4,9
0.371355,-0.484659,-0.118683,15,2
3.48915,-4.55537,0.502017,30,10
3.00823,-3.92892,-0.783737,25,3
3.52747,-4.60707,0.712448,45,11
2.71588,-3.54837,-0.548656,47,4
3.60583,-4.71282,0.939858,106,12
3.72635,-4.87387,1.19256,16,13
6.57707,-8.60556,-0.567636,30,6
4.95236,-6.48211,1.88329,12,14
3.08602,-4.03927,-0.088728,3,7
2.94694,-3.87121,0.0849234,61,8
0.320988,-0.421815,-0.122373,15,1
3.49823,-4.59875,0.302816,16,9
0.372038,-0.489077,-0.119446,15,2
3.59985,-4.73405,0.52032,73,10
3.01602,-3.9677,-0.789368,13,3
5.18838,-6.82801,1.05295,26,11
2.74729,-3.61679,-0.557674,46,4
3.53239,-4.65207,0.925154,117,12
3.58368,-4.72132,-0.518577,11,5
3.56022,-4.69212,-0.308677,46,6
3.01562,-3.97725,-0.0871224,36,7
4.27093,-5.63491,1.89456,9,15
2.931,-3.87829,0.0848536,68,8
0.319513,-0.422933,-0.122373,15,1
3.48938,-4.62049,0.303444,9,9
0.372608,-0.493571,-0.12021,15,2
5.68036,-7.52715,0.825016,26,10
2.99432,-3.96927,-0.787491,17,3
3.50995,-4.6528,0.715617,27,11
2.75855,-3.65806,-0.562549,53,4
3.46738,-4.59969,0.912326,106,12
4.67989,-6.21043,-0.680338,25,5
4.65912,-6.18736,-0.405918,58,6
4.32104,-5.74046,1.65879,15,14
3.01134,-4.00054,-0.0874017,58,7
2.90956,-3.8794,0.0846442,78,8
7.72222,-10.3037,0.67482,28,9
0.370883,-0.494869,-0.12021,15,2
2.98873,-3.99076,-0.789681,30,3
3.52143,-4.70377,0.721467,12,11
2.73561,-3.65543,-0.560599,38,4
3.44813,-4.60921,0.9117,91,12
3.50965,-4.69315,1.13913,4,13
4.84916,-6.48672,-0.424445,54,6
4.3348,-5.80078,1.67184,61,14
2.99067,-4.00353,-0.0872271,65,7
4.18427,-5.60341,1.87385,58,15
2.89242,-3.88473,0.0845395,55,8
0.300189,-0.403322,-0.116075,16,1
3.54922,-4.77033,0.311608,32,9
0.362122,-0.48671,-0.11792,16,2
3.55282,-4.7769,0.520843,24,10
2.98068,-4.0091,-0.791246,13,3
3.45762,-4.6523,0.711717,55,11
4.83835,-6.51247,-0.99616,34,4
3.95966,-5.33169,1.05187,103,12
2.80704,-3.77968,-0.411898,40,5
4.35749,-5.87379,1.68848,47,14
3.01598,-4.06696,-0.088379,45,7
4.26017,-5.74679,1.91681,40,15
2.8836,-3.90123,0.0846791,44,8
0.314993,-0.42631,-0.122373,15,1
5.05853,-6.84871,0.446216,15,9
0.369752,-0.500604,-0.120973,15,2
3.53849,-4.79248,0.521191,13,10
2.95963,-4.00994,-0.789368,8,3
3.4284,-4.64677,0.709036,60,11
4.81323,-6.52613,-0.995673,16,4
3.93282,-5.33434,1.04968,90,12
4.76003,-6.45634,-0.701778,7,5
4.1244,-5.59625,1.35131,34,13
3.19263,-4.33355,-0.282091,30,6
4.45367,-6.04744,1.73392,59,14
2.98636,-4.05652,-0.0879252,65,7
4.05688,-5.51268,1.83399,45,15
2.89481,-3.94513,0.0854121,41,8
0.313503,-0.427407,-0.122373,15,1
2.82141,-3.84791,0.250061,48,9
0.344785,-0.470227,-0.113341,16,2
3.71961,-5.07477,0.550476,7,10
5.91574,-8.07396,-1.58531,2,3
3.43444,-4.68914,0.713667,30,11
8.13141,-11.1061,-1.69008,7,4
3.91651,-5.35123,1.0503,109,12
2.76881,-3.7831,-0.410155,2,5
4.12107,-5.63279,1.35665,31,13
3.14211,-4.2963,-0.278951,11,6
4.42449,-6.05194,1.73077,38,14
2.99814,-4.10244,-0.0886931,63,7
4.03761,-5.52681,1.83399,40,15
2.89397,-3.97299,0.085796,60,8
0.312009,-0.428499,-0.122373,15,1
2.80443,-3.85289,0.249747,46,9
0.352384,-0.484126,-0.116393,16,2
3.71712,-5.10867,0.552742,41,10
5.97583,-8.21597,-1.60909,2,3
3.47642,-4.78138,0.725854,37,11
7.14375,-9.82892,-1.49192,4,4
3.86065,-5.31373,1.04029,117,12
4.03332,-5.55342,1.33414,26,13
5.56893,-7.67061,-0.496773,3,6
5.91423,-8.1492,2.32464,52,14
3.00259,-4.13878,-0.0892516,41,7
3.96612,-5.46893,1.81018,119,15
2.87657,-3.97821,0.0856913,63,8
0.310511,-0.429585,-0.122373,15,1
4.78418,-6.62124,0.428108,36,9
0.371299,-0.514062,-0.123263,15,2
3.66688,-5.07864,0.548035,22,10
11.2902,-15.6427,-3.05548,4,3
3.76642,-5.21842,0.790201,70,11
7.90733,-10.9597,-1.65937,8,4
3.92759,-5.44573,1.06344,109,12
2.72303,-3.77696,-0.407366,58,5
3.94062,-5.46783,1.31009,35,13
3.58995,-4.98309,-0.321866,29,6
5.94354,-8.25306,2.34804,17,14
3.02902,-4.20603,-0.0904733,15,7
2.87596,-4.00822,0.0861102,64,8
0.308935,-0.430721,-0.122373,15,1
4.91233,-6.85136,0.44182,55,9
0.362638,-0.505782,-0.120973,15,2
3.65725,-5.10275,0.549255,9,10
3.09247,-4.31633,-0.840992,5,3
3.74726,-5.23219,0.790201,52,11
11.4274,-15.9616,-2.41033,7,4
4.41804,-6.17332,1.20236,48,12
2.71099,-3.78806,-0.40754,47,5
3.93979,-5.5071,1.3162,31,13
5.94609,-8.31461,-0.535711,17,6
5.98156,-8.36729,2.37458,19,14
2.86477,-4.00885,-0.0860055,14,7
2.87819,-4.04104,0.0865988,53,8
0.291606,-0.409572,-0.116075,16,1
4.37998,-6.15412,0.395869,11,9
0.351764,-0.494248,-0.11792,16,2
3.65559,-5.13821,0.551696,20,10
3.07739,-4.3271,-0.840992,20,3
3.73243,-5.2501,0.790932,77,11
11.2497,-15.8299,-2.3845,20,4
4.39875,-6.19193,1.20298,45,12
2.70698,-3.8105,-0.408935,37,5
3.93077,-5.53522,1.31964,24,13
5.29966,-7.46563,-0.479816,3,6
5.8869,-8.29594,2.34849,45,14
2.83919,-4.00252,-0.0856564,42,7
3.91103,-5.51557,1.81173,48,15
2.88715,-4.08371,0.0872969,68,8
0.30592,-0.432867,-0.122373,15,1
2.74968,-3.89215,0.249747,10,9
0.350036,-0.495473,-0.11792,16,2
3.05998,-4.33459,-0.840366,6,3
3.71637,-5.26634,0.79142,92,11
10.1108,-14.3329,-2.15368,9,4
4.34523,-6.16204,1.19422,26,12
2.704,-3.83458,-0.410504,8,5
3.96346,-5.62272,1.33719,9,13
6.05241,-8.58939,-0.550679,38,6
4.28794,-6.08757,1.71908,64,14
2.90233,-4.12195,-0.087995,43,7
4.0363,-5.73456,1.87903,42,15
2.84531,-4.05448,0.0864592,60,8
0.282024,-0.402025,-0.113375,16,1
2.74067,-3.90827,0.250166,21,9
0.334778,-0.477403,-0.113341,16,2
3.60705,-5.14566,0.549778,43,10
2.92127,-4.16891,-0.806263,5,3
3.75719,-5.36382,0.804094,42,11
10.0698,-14.3812,-2.15563,11,4
4.39166,-6.27427,1.21299,50,12
2.85397,-4.07741,-0.43543,13,5
3.86614,-5.52553,1.31086,18,13
4.46099,-6.37806,-0.407906,29,6
4.27225,-6.11048,1.72133,52,14
2.88335,-4.1255,-0.0878554,39,7
4.024,-5.7597,1.88265,72,15
2.77971,-3.99055,0.0848885,22,8
0.302891,-0.434992,-0.122373,15,1
2.73728,-3.93256,0.251108,28,9
0.355541,-0.510795,-0.120973,15,2
3.52192,-5.06173,0.539494,69,10
2.9067,-4.17908,-0.806263,13,3
3.61152,-5.19436,0.776795,85,11
6.54714,-9.4201,-1.40857,15,4
4.40805,-6.34472,1.22363,61,12
11.7561,-16.9274,-1.80308,21,5
3.84011,-5.52932,1.30857,7,13
2.86573,-4.12786,-0.263355,10,6
4.22756,-6.09174,1.71188,29,14
2.83929,-4.09282,-0.0869479,72,7
3.88498,-5.60226,1.82674,112,15
2.77259,-4.0101,0.0850979,46,8
0.30137,-0.436047,-0.122373,15,1
2.75419,-3.98646,0.253934,50,9
0.331353,-0.479786,-0.113341,16,2
3.48524,-5.04837,0.536705,84,10
2.83863,-4.1133,-0.791559,13,3
3.67567,-5.3262,0.794588,45,11
12.0568,-17.4773,-2.60703,12,4
4.35784,-6.31941,1.21581,37,12
4.31624,-6.26142,-0.665347,8,5
5.75257,-8.34817,1.97068,29,13
2.85398,-4.14327,-0.263669,21,6
4.13448,-6.00447,1.68308,53,14
2.82952,-4.1093,-0.0870875,90,7
3.86978,-5.62215,1.82882,40,15
2.76126,-4.02518,0.0852026,57,8
0.29977,-0.437148,-0.122373,15,1
2.75198,-4.01465,0.255085,48,9
0.358537,-0.523043,-0.123263,15,2
3.47323,-5.06872,0.537577,24,10
2.81198,-4.10525,-0.788117,13,3
3.65389,-5.33636,0.794101,37,11
6.47059,-9.4536,-1.40662,5,4
4.57782,-6.69075,1.28401,11,12
6.25084,-9.13595,-0.968475,8,5
5.6713,-8.29204,1.95274,33,13
2.84965,-4.16805,-0.264611,28,6
4.11349,-6.01886,1.68308,31,14
2.81557,-4.12129,-0.0871224,54,7
4.03981,-5.91548,1.9194,67,15
2.74494,-4.03149,0.0851328,39,8
0.298242,-0.438192,-0.122373,15,1
2.71323,-3.9879,0.252783,47,9
0.345666,-0.508059,-0.119446,15,2
3.67848,-5.40866,0.572265,16,10
2.79319,-4.10851,-0.786865,17,3
4.30248,-6.3309,0.939856,9,11
5.81622,-8.56152,-1.27085,6,4
9.0698,-13.3558,-1.41245,16,5
4.41727,-6.50713,1.52876,19,13
2.82387,-4.16144,-0.263564,57,6
4.06073,-5.98642,1.67004,55,14
2.80229,-4.13275,-0.0871573,39,7
4.0213,-5.93274,1.92044,77,15
2.68271,-3.9698,0.0836319,16,8
0.296711,-0.43923,-0.122373,15,1
0.354877,-0.525533,-0.123263,15,2
3.65512,-5.41486,0.571567,24,10
2.75673,-4.08548,-0.780608,22,3
5.38041,-7.97679,1.1814,22,11
5.77409,-8.56367,-1.26817,39,4
4.21193,-6.24915,1.1936,34,12
2.78834,-4.137,-0.436476,2,5
5.69994,-8.46006,1.98289,28,13
2.81267,-4.17624,-0.263878,47,6
4.07573,-6.0539,1.68488,14,14
2.78338,-4.13587,-0.0870177,39,7
4.39955,-6.53982,2.11196,54,15
2.7379,-4.08211,0.085796,28,8
0.295176,-0.440263,-0.122373,15,1
0.337738,-0.503936,-0.11792,16,2
3.63398,-5.42428,0.571219,30,10
2.77323,-4.14104,-0.789368,13,3
3.62541,-5.41557,0.800194,17,11
5.79937,-8.66626,-1.28036,16,4
4.19339,-6.26874,1.19453,25,12
2.79586,-4.18271,-0.263669,57,6
9.63894,-14.4257,4.00548,13,14
2.81558,-4.2154,-0.0884837,52,7
4.4314,-6.63707,2.13836,67,15
2.75355,-4.13659,0.0867385,60,8
0.293637,-0.441291,-0.122373,15,1
7.95964,-11.9621,0.75301,1,9
0.344676,-0.518189,-0.120973,15,2
7.46282,-11.2239,1.17922,20,10
2.77516,-4.17537,-0.794061,16,3
3.57682,-5.38355,0.793613,25,11
5.77128,-8.68976,-1.28085,26,4
4.17586,-6.28755,1.19547,51,12
2.76159,-4.15968,-0.436825,50,5
4.18821,-6.31094,1.47228,18,13
2.79449,-4.21242,-0.264925,60,6
4.51263,-6.80493,1.88509,18,14
2.80048,-4.22305,-0.0884488,63,7
4.37201,-6.59537,2.12025,55,15
2.74643,-4.15571,0.0869479,85,8
0.292172,-0.442262,-0.122373,15,1
0.332049,-0.503005,-0.117157,16,2
7.59697,-11.5127,1.20676,28,10
2.79068,-4.22907,-0.802509,12,3
4.28364,-6.49402,0.955212,29,11
11.0882,-16.8161,-2.47322,10,4
4.14736,-6.29219,1.1936,66,12
2.73719,-4.15432,-0.435256,25,5
4.23315,-6.42479,1.49556,7,13
2.79259,-4.24001,-0.266076,55,6
4.48254,-6.80846,1.88194,18,14
2.78792,-4.23614,-0.0885186,60,7
4.45195,-6.76715,2.17046,78,15
2.6354,-4.01812,0.0838763,46,8
0.290627,-0.44328,-0.122373,15,1
4.55981,-6.95751,0.435959,39,9
0.319532,-0.487739,-0.113341,16,2
7.38078,-11.2661,1.17835,55,10
2.94472,-4.49658,-0.851316,12,3
3.56184,-5.44099,0.798488,12,11
5.6283,-8.60094,-1.26208,11,4
4.10158,-6.27026,1.18671,113,12
2.73576,-4.18386,-0.437348,12,5
2.78577,-4.2636,-0.266913,34,6
3.97588,-6.08505,1.67813,12,14
2.77858,-4.25422,-0.0886931,48,7
4.45365,-6.82147,2.18288,21,15
2.62065,-4.02775,0.0838763,64,8
0.289,-0.444342,-0.122373,15,1
4.54734,-6.99427,0.437215,14,9
0.339139,-0.52183,-0.120973,15,2
7.4111,-11.4034,1.18985,27,10
2.91316,-4.48415,-0.846936,5,3
3.54512,-5.45901,0.799219,15,11
5.65943,-8.71808,-1.27622,19,4
4.07104,-6.27365,1.18452,119,12
2.70306,-4.16712,-0.434559,40,5
2.80163,-4.32238,-0.269949,36,6
3.95461,-6.10122,1.67858,55,14
2.75536,-4.25262,-0.0884488,41,7
4.80458,-7.41823,2.36819,48,15
2.61563,-4.05245,0.0841904,66,8
0.28737,-0.445398,-0.122373,15,1
0.345828,-0.536209,-0.124026,14,2
7.46534,-11.5795,1.20536,13,10
2.89135,-4.4865,-0.845372,6,3
4.28837,-6.6568,0.972274,54,11
9.74698,-15.136,-2.21047,26,4
4.02771,-6.25697,1.17858,59,12
5.61532,-8.72329,-0.90764,7,5
4.0784,-6.33814,1.46503,34,13
2.76599,-4.30022,-0.26796,31,6
3.91747,-6.09272,1.67229,41,14
2.74192,-4.26606,-0.0885186,37,7
4.85463,-7.55606,2.4065,46,15
2.70285,-4.21984,0.0874715,94,8
0.285813,-0.446398,-0.122373,15,1
0.314321,-0.491113,-0.113341,16,2
6.51971,-10.1907,1.05842,33,10
0.376754,-0.589113,-0.110756,24,3
4.2619,-6.66671,0.971543,42,11
10.468,-16.3809,-2.38693,10,4
4.40994,-6.90359,1.29747,58,12
2.68462,-4.20267,-0.436302,20,5
4.05836,-6.35565,1.46579,30,13
2.79073,-4.37214,-0.271833,28,6
3.92028,-6.14414,1.68263,50,14
5.64435,-8.84962,-0.183215,99,7
4.88016,-7.65441,2.43238,72,15
2.74281,-4.31532,0.0892516,77,8
0.284253,-0.447393,-0.122373,15,1
6.14731,-9.67914,0.600922,9,9
0.339971,-0.535296,-0.123263,15,2
6.27907,-9.89042,1.02495,8,10
2.84408,-4.48155,-0.840679,5,3
4.21308,-6.64132,0.965693,22,11
5.3154,-8.3822,-1.21869,1,4
4.26736,-6.73207,1.26243,111,12
2.68807,-4.24063,-0.439265,7,5
5.48311,-8.65335,1.99128,28,13
2.79255,-4.40885,-0.273508,35,6
4.18341,-6.60728,1.80546,38,14
5.62946,-8.89462,-0.183739,54,7
4.81932,-7.61753,2.4153,42,15
2.78427,-4.41451,0.0911016,66,8
0.28269,-0.448383,-0.122373,15,1
9.22081,-14.6311,0.906354,15,9
0.310885,-0.493295,-0.113341,16,2
4.15239,-6.59133,0.681558,43,10
2.84632,-4.51987,-0.845998,10,3
5.6207,-8.92897,1.29547,18,11
5.8993,-9.37519,-1.36006,42,4
4.27749,-6.80044,1.27244,68,12
8.83234,-14.0418,-1.45132,11,5
5.61171,-8.92506,2.04929,43,13
2.75376,-4.38137,-0.271205,28,6
3.91151,-6.22582,1.69748,46,14
2.67901,-4.26575,-0.0879252,14,7
5.01354,-7.98607,2.52659,9,15
4.66437,-7.45585,0.153511,33,8
0.281045,-0.449416,-0.122373,15,1
0.328848,-0.526062,-0.120591,15,2
4.1282,-6.6065,0.681558,67,10
5.81853,-9.31521,-1.73955,6,3
5.2925,-8.47635,1.22698,23,11
5.82916,-9.33949,-1.35177,39,4
4.35187,-6.97528,1.30216,104,12
4.88186,-7.82476,-0.806888,12,5
5.44598,-8.73234,2.00044,27,13
2.7324,-4.38296,-0.270682,60,6
3.86083,-6.19546,1.68533,30,14
2.66653,-4.28063,-0.0880299,54,7
5.62654,-9.0359,2.85219,35,15
2.79269,-4.49889,0.0924279,37,8
0.279474,-0.450394,-0.122373,15,1
4.31317,-6.95372,0.428841,78,9
0.306312,-0.493839,-0.112959,16,2
4.12821,-6.65812,0.685393,37,10
5.79846,-9.35561,-1.74331,6,3
5.25347,-8.47959,1.22479,17,11
5.78816,-9.34628,-1.34982,13,4
4.3982,-7.10464,1.32344,106,12
2.52217,-4.07419,-0.419219,10,5
5.36898,-8.67617,1.98327,32,13
2.73494,-4.42134,-0.272461,38,6
3.90375,-6.31332,1.71368,41,14
2.66419,-4.31032,-0.0884488,45,7
5.59497,-9.05548,2.85219,6,15
2.79375,-4.53585,0.0929864,34,8
0.2779,-0.451367,-0.122373,15,1
0.304587,-0.494905,-0.112959,16,2
6.02796,-9.79832,1.00647,40,10
5.77612,-9.39262,-1.74643,3,3
5.20097,-8.46067,1.21942,31,11
2.69588,-4.38724,-0.632258,24,4
4.28878,-6.9795,1.29747,117,12
5.58417,-9.09472,2.07448,8,13
2.69755,-4.39512,-0.270263,39,6
4.2455,-6.9199,1.87429,16,14
2.6687,-4.34982,-0.0890771,37,7
4.65998,-7.59844,2.38838,28,15
2.6723,-4.37106,0.0894261,60,8
0.276402,-0.452286,-0.122373,15,1
4.3178,-7.06814,0.434074,23,9
0.323321,-0.529477,-0.120591,15,2
5.95532,-9.75637,1.00003,31,10
0.364333,-0.596874,-0.110756,24,3
5.27525,-8.64563,1.24355,23,11
2.65134,-4.347,-0.62519,26,4
4.31272,-7.0737,1.31217,61,12
2.51129,-4.12062,-0.422182,46,5
6.68808,-10.974,2.49807,10,13
2.69024,-4.41598,-0.270996,55,6
4.23672,-6.95724,1.88059,13,14
2.61815,-4.30103,-0.0878903,47,7
3.67742,-6.04354,1.89559,32,15
2.66636,-4.39575,0.0897403,88,8
0.274821,-0.453248,-0.122373,15,1
5.99295,-9.88774,0.605946,9,9
0.301211,-0.496967,-0.112959,16,2
4.92459,-8.12826,0.831466,16,10
2.48048,-4.09575,-0.758394,5,3
5.25326,-8.67758,1.2455,11,11
2.60635,-4.30698,-0.618121,31,4
4.39945,-7.27294,1.34628,71,12
2.48349,-4.1072,-0.419916,58,5
6.70662,-11.0914,2.51944,17,13
2.72233,-4.50397,-0.275811,35,6
4.65381,-7.70254,2.07765,15,14
2.59795,-4.30158,-0.0877158,61,7
3.66628,-6.07287,1.90077,101,15
2.65925,-4.41874,0.0900195,49,8
0.273238,-0.454205,-0.122373,15,1
5.82356,-9.68438,0.592234,4,9
0.325685,-0.541817,-0.122881,15,2
4.90605,-8.16504,0.833383,46,10
2.46138,-4.09804,-0.757143,10,3
4.22945,-7.04178,1.00859,60,11
2.56882,-4.27861,-0.612759,52,4
4.15345,-6.92071,1.27838,120,12
5.64653,-9.41228,-0.960282,48,5
6.64977,-11.089,2.51334,15,13
4.11981,-6.8728,-0.419944,39,6
5.99979,-10.013,2.69491,23,14
2.59012,-4.32263,-0.0879601,58,7
3.63712,-6.07238,1.89663,105,15
2.64098,-4.42502,0.0899497,28,8
0.271571,-0.455203,-0.122373,15,1
4.23003,-7.09312,0.432818,21,9
0.297647,-0.49911,-0.112959,16,2
4.89895,-8.21806,0.837044,44,10
2.43695,-4.08964,-0.754014,6,3
4.2087,-7.06576,1.00981,56,11
2.55718,-4.29482,-0.613734,53,4
4.16544,-6.99869,1.28996,53,12
2.66694,-4.48273,-0.456347,10,5
5.36129,-9.01151,2.03822,22,13
4.10498,-6.90259,-0.420886,29,6
5.97774,-10.0557,2.70076,31,14
2.56404,-4.31491,-0.0876111,32,7
3.62076,-6.09563,1.89973,42,15
2.64386,-4.46519,0.090578,48,8
0.26998,-0.456148,-0.122373,15,1
0.295816,-0.500197,-0.112959,16,2
4.86676,-8.23253,0.836695,24,10
2.42596,-4.10535,-0.755266,2,3
4.13351,-6.99496,0.997623,11,11
2.54217,-4.30372,-0.613734,60,4
4.17212,-7.06592,1.29966,107,12
5.2953,-8.9753,2.02563,39,13
2.6572,-4.50564,-0.274136,16,6
4.61076,-7.82128,2.09609,41,14
2.61802,-4.44097,-0.0899846,34,7
4.32229,-7.33487,2.28123,45,15
5.03929,-8.5824,0.173721,15,8
0.268307,-0.457135,-0.122373,15,1
4.9164,-8.37645,0.50902,31,9
0.30599,-0.521547,-0.117538,16,2
4.51849,-7.70466,0.781438,16,10
2.39264,-4.08141,-0.749321,5,3
4.16204,-7.10255,1.01078,24,11
2.51233,-4.28903,-0.610322,19,4
4.07953,-6.96453,1.27838,81,12
2.43223,-4.15393,-0.421137,61,5
5.25898,-8.98526,2.02372,17,13
2.58901,-4.42524,-0.268693,42,6
4.2578,-7.28052,1.94718,70,14
2.60048,-4.44663,-0.0899148,65,7
4.27912,-7.3199,2.27191,13,15
5.00375,-8.58697,0.173477,43,8
0.266789,-0.458022,-0.122373,15,1
4.81076,-8.26239,0.501064,20,9
0.292317,-0.50225,-0.112959,16,2
4.48155,-7.70316,0.779695,24,10
0.361582,-0.621509,-0.113884,23,3
4.16741,-7.16607,1.01785,65,11
2.43824,-4.19436,-0.595697,36,4
4.03436,-6.94286,1.27181,28,12
2.41371,-4.1555,-0.420439,63,5
6.04563,-10.4083,2.3397,21,13
2.57031,-4.4269,-0.268274,57,6
4.23461,-7.29628,1.94763,62,14
4.14535,-7.14535,-0.144192,40,7
4.3301,-7.46681,2.31281,8,15
5.02079,-8.68575,0.175117,27,8
0.265189,-0.458951,-0.122373,15,1
4.63404,-8.02316,0.485573,15,9
0.302433,-0.523618,-0.117538,16,2
4.42609,-7.66622,0.774466,11,10
0.365334,-0.633033,-0.115762,22,3
4.18601,-7.25623,1.02858,64,11
2.48903,-4.31635,-0.611784,11,4
4.04167,-7.01167,1.28182,70,12
2.39992,-4.16349,-0.420439,58,5
5.19574,-9.01745,2.02296,17,13
2.46812,-4.28527,-0.259168,30,6
4.24023,-7.36506,1.96202,63,14
2.58334,-4.48894,-0.0904035,7,7
4.19516,-7.29266,2.25431,15,15
5.38832,-9.39712,0.189079,88,8
0.263585,-0.459873,-0.122373,15,1
5.43606,-9.48806,0.573079,65,9
0.288891,-0.504228,-0.112959,16,2
4.82706,-8.42852,0.849768,8,10
0.36116,-0.630875,-0.115136,33,3
4.18531,-7.31388,1.03467,23,11
6.14742,-10.747,-1.5202,6,4
5.14868,-9.00467,1.64287,21,12
2.38932,-4.17876,-0.421137,41,5
5.00446,-8.75599,1.96037,35,13
2.49674,-4.37016,-0.263773,18,6
4.2261,-7.40013,1.96742,46,14
2.56468,-4.49272,-0.0902987,42,7
4.31808,-7.56733,2.33455,26,15
4.92345,-8.65627,0.173826,51,8
0.261978,-0.460791,-0.122373,15,1
5.37035,-9.44968,0.569625,78,9
0.287041,-0.505284,-0.112959,16,2
4.49154,-7.90655,0.795558,1,10
4.59521,-8.09232,-1.47393,5,3
4.16073,-7.33017,1.03491,33,11
4.71685,-8.3133,-1.1736,11,4
5.12306,-9.0329,1.64475,21,12
2.36908,-4.17882,-0.420265,45,5
5.05364,-8.91775,1.99243,39,13
2.5319,-4.46965,-0.269216,49,6
5.18955,-9.1613,2.43082,45,14
6.07342,-10.726,-0.215153,38,7
4.28022,-7.56218,2.32834,11,15
0.260288,-0.461748,-0.122373,15,1
5.32881,-9.45712,0.568892,52,9
0.285187,-0.506332,-0.112959,16,2
4.7412,-8.41771,0.845236,30,10
0.352759,-0.626558,-0.113884,34,3
4.14065,-7.35748,1.03662,21,11
4.55009,-8.08831,-1.13948,60,4
5.23709,-9.31333,1.69231,27,12
2.3596,-4.1979,-0.421311,50,5
5.01996,-8.9345,1.99205,36,13
2.61037,-4.64782,-0.279369,24,6
5.21701,-9.289,2.45961,24,14
4.48248,-7.98441,-0.159829,100,7
4.25247,-7.57782,2.32834,13,15
3.99719,-7.14919,0.14297,36,8
5.33182,-9.54017,0.572765,33,9
0.310228,-0.555315,-0.123644,14,2
0.3572,-0.639921,-0.116074,33,3
4.14558,-7.42981,1.04466,54,11
4.51945,-8.1032,-1.13923,61,4
4.90242,-8.78984,1.59407,46,12
4.95052,-8.88337,1.97678,28,13
4.45054,-7.98949,-0.479293,36,6
5.06442,-9.09523,2.40338,19,14
4.43123,-7.95808,-0.158991,25,7
4.20157,-7.54873,2.31488,47,15
3.95309,-7.12569,0.142237,75,8
0.257058,-0.463554,-0.122373,15,1
0.281645,-0.508311,-0.112959,16,2
4.00801,-7.23661,0.723741,39,10
0.346462,-0.62555,-0.113259,46,3
4.28917,-7.74744,1.08732,20,11
4.93481,-8.92099,1.61472,34,12
8.93196,-16.1535,3.58797,21,13
4.43852,-8.03042,-0.480863,7,6
5.34899,-9.68169,2.55364,20,14
4.4972,-8.1433,-0.162377,22,7
4.15465,-7.52614,2.30349,16,15
3.94168,-7.16397,0.142726,41,8
0.255438,-0.464448,-0.122373,15,1
5.20736,-9.47214,0.566484,43,9
0.279958,-0.509242,-0.112959,16,2
3.9293,-7.15033,0.713806,18,10
0.344277,-0.626755,-0.113259,46,3
3.98408,-7.25601,1.01639,24,11
2.54824,-4.6429,-0.650295,12,4
5.13357,-9.35727,1.69043,39,12
2.32679,-4.24119,-0.423228,62,5
4.88238,-8.90309,1.97373,12,13
4.44694,-8.11242,-0.48484,43,6
5.32359,-9.71568,2.55769,20,14
4.44377,-8.11335,-0.16147,76,7
5.03381,-9.19444,2.8087,27,15
3.89271,-7.1338,0.141853,26,8
0.253815,-0.465337,-0.122373,15,1
5.09204,-9.33946,0.557483,112,9
0.278179,-0.510216,-0.112959,16,2
3.80325,-6.97856,0.695328,7,10
0.344922,-0.633157,-0.114197,45,3
3.80588,-6.98919,0.977149,76,11
2.51208,-4.61515,-0.645176,29,4
5.11882,-9.4081,1.69638,50,12
2.32435,-4.27203,-0.425494,32,5
4.26691,-7.8456,1.73598,23,13
4.39857,-8.09104,-0.482642,90,6
5.23102,-9.62633,2.52935,11,14
4.34288,-7.99526,-0.158817,58,7
4.20341,-7.74171,2.36043,34,15
3.89538,-7.19835,0.142865,47,8
0.252189,-0.46622,-0.122373,15,1
4.14461,-7.66529,0.456684,23,9
0.294976,-0.545775,-0.120591,15,2
3.78077,-6.9953,0.695677,78,10
0.335198,-0.620454,-0.111694,48,3
3.77392,-6.98846,0.975199,56,11
5.65198,-10.4706,-1.46097,9,4
5.06906,-9.39462,1.69074,49,12
2.31341,-4.28929,-0.426366,35,5
4.27725,-7.93377,1.75201,11,13
4.24056,-7.86899,2.0637,1,14
4.34339,-8.06319,-0.159864,100,7
4.17544,-7.75464,2.35991,55,15
3.87275,-7.21963,0.143005,26,8
0.250479,-0.467141,-0.122373,15,1
5.00149,-9.33165,0.554866,52,9
0.274431,-0.512242,-0.112959,16,2
3.74851,-6.99681,0.694457,75,10
0.34318,-0.640833,-0.115136,56,3
3.67708,-6.86923,0.956674,58,11
7.38922,-13.8098,-1.9231,23,4
4.98988,-9.32952,1.67573,49,12
5.01669,-9.39147,-0.558006,74,6
4.32135,-8.09316,-0.160143,35,7
4.93655,-9.24922,2.80922,17,15
4.28281,-8.05479,0.159236,88,8
0.248765,-0.468056,-0.122373,15,1
4.97194,-9.35874,0.555389,35,9
0.272642,-0.513197,-0.112959,16,2
3.98916,-7.51201,0.744136,15,10
0.332493,-0.626384,-0.11232,47,3
3.65281,-6.88442,0.956918,69,11
7.42599,-14.0016,-1.94601,29,4
5.04355,-9.51355,1.70545,39,12
2.26866,-4.27933,-0.423751,13,5
4.26634,-8.05091,1.77109,71,13
4.91563,-9.28009,-0.550365,94,6
4.22471,-7.97909,2.0844,81,14
3.92217,-7.41081,-0.146356,25,7
4.12662,-7.80041,2.36457,63,15
4.2556,-8.07146,0.159271,55,8
0.24713,-0.468922,-0.122373,15,1
4.24201,-8.0525,0.47699,135,9
0.270849,-0.514145,-0.112959,16,2
3.93321,-7.46948,0.738558,67,10
0.331225,-0.629288,-0.112633,58,3
3.64539,-6.92875,0.961305,24,11
4.9239,-9.36275,-1.29888,5,4
4.87979,-9.28281,1.66102,7,12
5.62546,-10.7013,-1.05772,9,5
4.67746,-8.9017,1.95465,16,13
4.90921,-9.3467,-0.553296,42,6
4.19774,-7.99551,2.08485,39,14
5.69713,-10.856,-0.214001,19,7
4.81384,-9.20803,0.181365,37,8
0.245491,-0.469782,-0.122373,15,1
5.37253,-10.2854,0.608144,26,9
0.294503,-0.563812,-0.123644,14,2
3.91634,-7.50082,0.740301,65,10
0.320801,-0.61468,-0.109817,49,3
3.6524,-7.00127,0.969593,15,11
11.1729,-21.4264,-2.96703,15,4
5.89197,-11.3039,-1.11524,9,5
4.21929,-8.10519,2.10959,93,14
5.13768,-9.8736,-0.19428,9,7
4.13446,-7.949,2.40081,10,15
4.73013,-9.12535,0.179411,41,8
0.24385,-0.470636,-0.122373,15,1
4.88009,-9.4227,0.556122,19,9
0.267253,-0.516024,-0.112959,16,2
3.92952,-7.59053,0.747796,22,10
0.323192,-0.624568,-0.111381,60,3
3.76018,-7.26964,1.00493,49,11
6.39188,-12.3629,-1.70885,15,4
3.9288,-7.60214,1.35535,90,12
4.02758,-7.79328,-0.767493,15,5
4.80077,-9.29733,-0.548376,56,6
4.19276,-8.12333,2.11049,17,14
5.93385,-11.5015,-0.225904,23,7
4.58491,-8.92127,0.175083,32,8
0.242206,-0.471484,-0.122373,15,1
4.78422,-9.31709,0.5489,65,9
0.26545,-0.516953,-0.112959,16,2
3.97578,-7.746,0.761741,15,10
0.318305,-0.62042,-0.110443,49,3
4.05998,-7.91685,1.09244,27,11
7.22886,-14.1022,-1.94577,14,4
3.89683,-7.60526,1.35347,103,12
3.76595,-7.34981,-0.722521,10,5
3.95662,-7.72526,1.68713,62,13
4.7423,-9.26727,2.40338,10,14
5.95377,-11.6397,-0.228208,100,7
4.05952,-7.93983,2.38942,44,15
4.14158,-8.12831,0.159236,85,8
4.72086,-9.27321,0.545341,36,9
3.84571,-7.5574,0.74187,3,10
0.325093,-0.639134,-0.113571,46,3
3.94505,-7.75933,1.06879,26,11
6.34319,-12.4815,-1.71909,11,4
4.63698,-9.12813,1.6216,20,12
3.64823,-7.18173,-0.704741,31,5
3.91185,-7.70402,1.6795,57,13
4.77732,-9.41255,-0.553191,49,6
4.94004,-9.73735,2.5208,7,14
5.96646,-11.7656,-0.230267,100,7
4.03265,-7.95567,2.38994,21,15
4.38817,-8.68711,0.169882,61,8
0.293679,-0.58189,-0.126697,14,2
4.4394,-8.79996,0.862319,40,10
0.312187,-0.619099,-0.109817,37,3
4.16544,-8.26407,1.13631,31,11
7.07486,-14.0424,-1.93065,17,4
3.84631,-7.63757,1.35441,24,12
3.59625,-7.14103,-0.699512,45,5
3.90524,-7.75796,1.68828,41,13
3.77689,-7.51277,-0.146775,100,7
4.10808,-8.17511,2.45153,21,15
4.2844,-8.55575,0.16702,100,8
0.237255,-0.473994,-0.122373,15,1
0.260022,-0.519705,-0.112959,16,2
4.2527,-8.50356,0.831814,22,10
0.310907,-0.621952,-0.11013,37,3
4.11704,-8.2395,1.13095,39,11
6.98056,-13.9764,-1.91822,10,4
3.83727,-7.6863,1.36067,17,12
3.92898,-7.87343,1.71041,44,13
5.99791,-12.0247,-0.704233,19,6
4.75803,-9.54314,2.46186,14,14
3.75956,-7.5438,-0.147124,65,7
4.00802,-8.04588,2.40857,23,15
4.35587,-8.77485,0.170999,38,8
0.235599,-0.47482,-0.122373,15,1
4.50813,-9.08953,0.531733,15,9
0.258206,-0.520609,-0.112959,16,2
4.22919,-8.53085,0.833035,18,10
0.311366,-0.628343,-0.111068,24,3
3.97988,-8.03502,1.10097,47,11
6.98106,-14.1003,-1.93187,17,4
3.57105,-7.21596,-0.704393,31,5
3.88929,-7.86246,1.70507,38,13
4.42709,-8.9536,-0.523464,7,6
4.72642,-9.56318,2.46276,31,14
5.80839,-11.7575,-0.228906,26,7
3.98932,-8.07888,2.41426,35,15
4.3261,-8.79179,0.171034,58,8
0.23394,-0.475639,-0.122373,15,1
0.28757,-0.584934,-0.126697,14,2
4.19235,-8.53126,0.83164,22,10
0.311783,-0.634745,-0.112007,23,3
3.95531,-8.05599,1.10194,40,11
6.69479,-13.6416,-1.86582,14,4
4.55954,-9.29485,1.63975,31,12
3.5204,-7.17651,-0.699338,21,5
3.84107,-7.83368,1.69591,44,13
4.66472,-9.52187,2.44792,33,14
5.73917,-11.7203,-0.227789,100,7
3.97638,-8.12398,2.42358,12,15
4.38041,-8.98118,0.174419,50,8
0.232279,-0.476453,-0.122373,15,1
5.02288,-10.3076,0.600922,34,9
0.254565,-0.522399,-0.112959,16,2
3.79088,-7.78279,0.757383,13,10
0.311295,-0.639382,-0.112633,23,3
3.97321,-8.16435,1.11486,37,11
5.16314,-10.6142,-1.44927,11,4
3.77298,-7.75981,1.36661,41,12
3.49271,-7.18338,-0.698815,13,5
3.85575,-7.93357,1.71461,48,13
5.09145,-10.4808,-0.610656,16,6
4.52675,-9.32248,2.39258,21,14
5.74188,-11.8302,-0.229534,100,7
4.79039,-9.87418,2.9407,25,15
3.55704,-7.35809,0.142656,20,8
0.230614,-0.477261,-0.122373,15,1
3.90715,-8.08953,0.470814,34,9
0.25274,-0.523284,-0.112959,16,2
3.74723,-7.76188,0.754071,5,10
0.299618,-0.620895,-0.109191,25,3
3.72045,-7.7133,1.05149,19,11
6.54594,-13.5772,-1.85071,22,4
3.77846,-7.84056,1.3785,35,12
6.84701,-14.208,-1.37985,21,5
3.86127,-8.01596,1.72949,36,13
4.38247,-9.10204,-0.529431,45,6
4.60916,-9.5814,-0.185589,73,7
4.67301,-9.71848,2.88946,10,15
3.53911,-7.38669,0.14297,48,8
0.228947,-0.478063,-0.122373,15,1
3.87371,-8.09231,0.470186,127,9
0.25176,-0.525934,-0.113341,16,2
5.74613,-12.0092,1.16475,27,10
0.307676,-0.643322,-0.112946,47,3
3.69094,-7.72087,1.05076,52,11
6.47711,-13.5552,-1.84461,12,4
3.71021,-7.76814,1.36348,85,12
3.44723,-7.22078,-0.700035,2,5
4.93537,-10.3379,2.22674,19,13
4.29734,-9.00552,-0.522941,38,6
4.60838,-9.66166,2.47131,28,14
5.69357,-11.9422,-0.23093,100,7
4.57839,-9.60743,2.85167,9,15
0.227277,-0.478859,-0.122373,15,1
4.71863,-9.94637,0.576952,39,9
0.273384,-0.576523,-0.124026,14,2
3.65575,-7.71288,0.74675,1,10
0.290938,-0.614097,-0.107627,25,3
3.64697,-7.69782,1.04588,28,11
6.43146,-13.5813,-1.8451,16,4
3.75321,-7.92923,1.38945,52,12
3.91622,-8.27734,-0.801136,16,5
4.9092,-10.3808,2.23208,21,13
4.5388,-9.60625,2.45287,52,14
5.66723,-11.9945,-0.231559,54,7
3.86917,-8.19269,2.42772,31,15
0.22552,-0.479689,-0.122373,15,1
3.60589,-7.67334,0.444332,47,9
0.24799,-0.527722,-0.113341,16,2
3.6576,-7.78691,0.752677,22,10
0.301386,-0.641931,-0.11232,23,3
3.64234,-7.76146,1.05271,68,11
4.73691,-10.0984,-1.36957,34,4
3.88899,-8.29456,-0.801484,16,5
4.85793,-10.3659,2.22521,22,13
4.33022,-9.24404,-0.534978,63,6
4.45979,-9.52496,2.42812,35,14
5.63001,-12.0297,-0.231838,63,7
3.84321,-8.21556,2.43031,63,15
3.33608,-7.15751,0.137839,20,8
0.223844,-0.480473,-0.122373,15,1
3.59848,-7.72753,0.44674,43,9
0.246146,-0.528585,-0.113341,16,2
0.297477,-0.639397,-0.111694,36,3
3.60351,-7.74892,1.0493,47,11
6.27135,-13.492,-1.82682,14,4
3.83567,-8.25569,-0.796429,9,5
4.78782,-10.3098,2.20957,30,13
4.29793,-9.2591,-0.534978,35,6
4.31333,-9.29653,2.36604,42,14
5.59303,-12.0602,-0.232047,91,7
3.63901,-7.85034,2.3185,67,15
3.30856,-7.16367,0.137734,97,8
0.222166,-0.481252,-0.122373,15,1
3.54136,-7.67475,0.442972,7,9
0.2443,-0.529441,-0.113341,16,2
3.5923,-7.78873,0.750411,22,10
0.298551,-0.647607,-0.112946,47,3
3.54653,-7.69655,1.04052,45,11
6.20345,-13.4687,-1.82073,30,4
3.56863,-7.75163,1.35159,65,12
3.781,-8.21292,-0.791025,28,5
5.06612,-11.0095,2.35573,37,13
4.18797,-9.10529,-0.525244,14,6
4.22387,-9.18758,2.33454,43,14
5.5175,-12.0069,-0.230651,100,7
3.78334,-8.23693,2.42876,21,15
3.23278,-7.06425,0.135605,50,8
0.220484,-0.482024,-0.122373,15,1
4.06266,-8.8859,0.512055,4,9
0.24245,-0.53029,-0.113341,16,2
0.283977,-0.621693,-0.108253,51,3
3.54767,-7.77028,1.04881,28,11
6.1358,-13.4451,-1.81463,22,4
3.53745,-7.75505,1.35003,111,12
3.73577,-8.18982,-0.787539,18,5
4.21745,-9.25434,-0.532989,7,6
4.45836,-9.7875,2.48301,35,14
3.94591,-8.66653,-0.166217,86,7
4.41073,-9.69191,2.85322,34,15
3.16268,-6.97533,0.133685,34,8
0.218801,-0.482791,-0.122373,15,1
3.49099,-7.70657,0.44339,11,9
0.240598,-0.531133,-0.113341,16,2
5.41894,-11.9682,1.14941,37,10
0.287507,-0.635278,-0.110443,49,3
3.51153,-7.76272,1.04613,40,11
4.69523,-10.3843,-1.3993,9,4
3.57707,-7.91496,1.37568,67,12
3.70962,-8.20826,-0.788062,42,5
7.41461,-16.4139,3.50096,2,13
4.13252,-9.15251,-0.52629,21,6
3.42855,-7.59693,1.92423,61,14
3.9403,-8.73493,-0.167264,94,7
4.45787,-9.88688,2.90602,32,15
3.19403,-7.11036,0.136059,68,8
0.217114,-0.483552,-0.122373,15,1
0.238742,-0.53197,-0.113341,16,2
3.75763,-8.37674,0.803227,52,10
0.292561,-0.6525,-0.113259,46,3
3.42271,-7.63726,1.0276,64,11
6.2049,-13.8518,-1.86363,36,4
3.52762,-7.87872,1.36724,42,12
4.07118,-9.10125,-0.522522,35,6
3.40281,-7.61063,1.92468,38,14
3.89347,-8.71212,-0.166566,60,7
3.12692,-7.02647,0.134244,85,8
0.215425,-0.484307,-0.122373,15,1
0.236884,-0.5328,-0.113341,16,2
3.48806,-7.84905,0.751457,16,10
0.28948,-0.651712,-0.112946,47,3
3.41134,-7.68363,1.03223,52,11
