x, y, z, intensity, ring
6.41264,-12.8337,3.31218,18,14
6.31711,-12.648,-0.246777,31,7
6.27151,-12.5622,3.76219,14,15
5.88723,-11.839,0.230791,38,8
0.235931,-0.474655,-0.122373,15,1
5.92303,-11.9214,0.697638,33,9
0.259443,-0.522187,-0.113341,16,2
6.40101,-12.8891,1.25905,52,10
0.311804,-0.628126,-0.111068,36,3
7.10453,-14.3183,1.96258,4,11
5.45948,-11.0174,2.39007,10,13
6.99973,-14.1318,-0.82649,13,6
6.24796,-12.6196,3.25099,67,14
6.28845,-12.707,-0.247475,70,7
6.27596,-12.6873,3.79273,24,15
5.79105,-11.7483,0.228627,35,8
0.234272,-0.475476,-0.122373,15,1
5.84961,-11.8775,0.69387,63,9
0.257527,-0.523134,-0.113341,16,2
0.312116,-0.634582,-0.112007,35,3
6.34398,-12.8983,1.76491,7,11
4.99298,-10.156,-1.38955,11,4
5.9861,-12.1815,2.14972,40,12
5.50671,-11.2109,-1.09276,19,5
5.40176,-11.0021,2.38244,25,13
5.86734,-11.9556,-0.697952,29,6
6.23342,-12.7072,3.26764,47,14
6.22292,-12.6857,-0.246637,8,7
6.22993,-12.7056,3.7917,23,15
5.7111,-11.6939,0.227161,48,8
0.232528,-0.476331,-0.122373,15,1
5.97196,-12.2335,0.713444,38,9
5.80291,-11.8977,1.15813,27,10
0.312495,-0.640994,-0.112946,23,3
6.35318,-13.0375,1.78075,42,11
3.37713,-6.93334,-0.946925,41,4
5.93922,-12.1934,2.14816,45,12
5.51202,-11.3214,-1.10165,9,5
5.89721,-12.1233,-0.706536,6,6
6.26146,-12.8778,3.30588,29,14
7.21128,-14.8313,-0.28786,86,7
6.38905,-13.1461,3.91645,31,15
5.73852,-11.8496,0.229813,13,8
0.230947,-0.4771,-0.122373,15,1
5.76829,-11.9217,0.69408,42,9
0.253869,-0.524919,-0.113341,16,2
5.78736,-11.9717,1.16335,30,10
0.311228,-0.643806,-0.113259,23,3
6.29955,-13.0371,1.77783,65,11
3.33167,-6.89803,-0.940588,50,4
5.88803,-12.1963,2.14503,16,12
5.4768,-11.3495,-1.10252,19,5
2.65863,-5.51191,-0.320715,42,6
6.21533,-12.8915,3.30408,31,14
5.98749,-12.4244,-0.240738,53,7
6.35906,-13.2013,3.92629,20,15
5.71443,-11.9056,0.230511,30,8
0.229281,-0.477903,-0.122373,15,1
6.36744,-13.278,0.771746,12,9
0.252127,-0.525758,-0.113341,16,2
5.79844,-12.0969,1.17364,12,10
0.304711,-0.635981,-0.111694,48,3
6.23,-13.0088,1.77101,31,11
3.51585,-7.34471,-0.999816,11,4
5.65464,-11.8233,-1.14662,9,5
5.2543,-10.9862,2.36718,41,13
2.63679,-5.51576,-0.320401,52,6
6.15853,-12.8885,3.29778,36,14
6.87142,-14.3868,-0.278296,88,7
6.17228,-12.9288,3.8388,9,15
0.227611,-0.4787,-0.122373,15,1
0.273786,-0.576332,-0.124026,14,2
5.70535,-12.0154,1.1637,20,10
0.295602,-0.622817,-0.109191,25,3
6.18029,-13.0215,1.76979,42,11
3.32938,-7.01797,-0.95375,17,4
10.7223,-22.6219,-2.19022,12,5
5.2098,-10.9966,2.36527,32,13
2.62254,-5.53802,-0.321133,42,6
6.77667,-14.3167,-0.276481,88,7
6.11141,-12.9171,3.82897,21,15
5.89418,-12.5088,0.241367,48,8
0.225855,-0.479531,-0.122373,15,1
5.66571,-12.0348,0.697115,38,9
0.248358,-0.527549,-0.113341,16,2
5.67949,-12.0695,1.16702,20,10
0.301834,-0.64172,-0.11232,23,3
6.1452,-13.071,1.77344,19,11
3.2496,-6.91514,-0.93815,1,4
5.28587,-11.2534,1.9692,30,12
5.40763,-11.5126,-1.1128,9,5
6.20098,-13.2077,2.83618,17,13
2.60744,-5.55618,-0.321657,68,6
11.5886,-24.7053,6.29998,17,14
5.30054,-11.3052,-0.217946,66,7
5.91811,-12.6281,3.73683,5,15
5.8454,-12.5184,0.241157,19,8
5.75961,-12.3459,0.713967,34,9
0.246515,-0.528413,-0.113341,16,2
5.65164,-12.12,1.16998,37,10
0.299592,-0.64277,-0.11232,23,3
6.23115,-13.3749,1.81171,32,11
5.4478,-11.6988,-1.58455,1,4
5.25572,-11.2915,1.97264,35,12
5.25895,-11.2984,-1.09032,26,5
5.68942,-12.2288,2.62172,4,13
2.58971,-5.56887,-0.321866,19,6
6.67975,-14.3706,3.6586,33,14
5.29981,-11.407,-0.219551,84,7
11.8546,-25.5268,7.54147,5,15
11.1566,-24.112,0.463745,34,8
0.222502,-0.481097,-0.122373,15,1
5.44411,-11.7767,0.679949,17,9
0.244669,-0.52927,-0.113341,16,2
5.5859,-12.089,1.1651,20,10
0.293205,-0.634845,-0.110756,24,3
6.05962,-13.1262,1.77515,31,11
10.8613,-23.5383,-3.18298,4,4
6.64341,-14.4041,2.51234,15,12
5.14688,-11.1593,-1.07515,11,5
5.64999,-12.2558,2.62324,19,13
5.67546,-12.3167,-0.710722,35,6
6.62139,-14.3761,3.6541,35,14
5.32267,-11.5617,-0.222169,100,7
11.6959,-25.4171,7.49695,20,15
5.46118,-11.9118,0.228731,11,8
0.220821,-0.48187,-0.122373,15,1
6.83023,-14.9116,0.859566,5,9
0.24282,-0.530121,-0.113341,16,2
5.54118,-12.103,1.16457,25,10
0.291809,-0.637661,-0.111068,24,3
6.04101,-13.2069,1.78319,11,11
4.09569,-8.95815,-1.20943,17,4
5.6809,-12.4311,2.16474,24,12
5.06815,-11.0902,-1.06679,21,5
6.01258,-13.1629,2.81291,41,13
5.62911,-12.3291,-0.710304,35,6
5.88994,-12.9064,3.27529,20,14
5.2466,-11.502,-0.220668,20,7
11.5871,-25.4138,7.48401,10,15
5.55355,-12.2257,0.234386,44,8
0.219138,-0.482638,-0.122373,15,1
0.240968,-0.530965,-0.113341,16,2
5.54663,-12.2275,1.17469,27,10
0.281424,-0.620685,-0.10794,51,3
5.87606,-12.9657,1.74785,58,11
4.05047,-8.94165,-1.20529,33,4
6.46366,-14.2755,2.48199,23,12
5.14001,-11.3574,-1.09067,26,5
5.54241,-12.2523,-0.704756,26,6
6.71676,-14.8552,3.76388,80,14
5.18583,-11.4747,-0.219796,75,7
6.4872,-14.3609,4.22237,40,15
5.49443,-12.2086,0.233688,57,8
0.217451,-0.4834,-0.122373,15,1
2.36211,-5.25349,0.301874,35,9
0.239021,-0.531845,-0.113341,16,2
5.52056,-12.2895,1.17869,30,10
0.288857,-0.643337,-0.111694,48,3
5.84377,-13.0151,1.75175,15,11
3.96803,-8.84164,-1.18993,5,4
9.85555,-21.9706,3.81387,19,12
5.05631,-11.2771,-1.08125,28,5
6.42888,-14.3451,3.05562,22,13
5.50808,-12.2962,-0.706117,16,6
6.59697,-14.7339,3.72699,30,14
5.06484,-11.312,-0.21634,100,7
6.39441,-14.2882,4.19442,28,15
5.75977,-12.9245,0.246986,35,8
0.215678,-0.484194,-0.122373,15,1
2.31603,-5.2019,0.29842,23,9
0.237163,-0.532676,-0.113341,16,2
5.77411,-12.975,1.24249,70,10
0.289821,-0.651561,-0.112946,47,3
5.88232,-13.2305,1.77783,3,11
3.8445,-8.65113,-1.16239,41,4
5.0517,-11.373,-1.08875,19,5
6.37877,-14.3674,3.05562,22,13
2.51464,-5.66659,-0.324902,16,6
6.64664,-14.9849,3.78458,22,14
4.99498,-11.2665,-0.215118,100,7
6.34905,-14.3274,4.19908,30,15
5.70897,-12.9317,0.246742,11,8
0.213987,-0.484944,-0.122373,15,1
5.45893,-12.3771,0.708943,8,9
0.235302,-0.533501,-0.113341,16,2
5.73602,-13.0114,1.24406,79,10
0.285952,-0.648953,-0.11232,47,3
6.36899,-14.4609,1.94016,45,11
3.85987,-8.76806,-1.17628,41,4
5.02481,-11.4197,-1.09154,26,5
6.39734,-14.5459,3.08882,27,13
2.50931,-5.70825,-0.326786,19,6
6.38107,-14.5227,3.6622,38,14
5.04729,-11.4926,-0.219098,100,7
6.36189,-14.4928,4.24101,18,15
5.50595,-12.5907,0.239866,15,8
0.212293,-0.485688,-0.122373,15,1
2.29965,-5.26369,0.301036,8,9
0.261734,-0.599085,-0.127079,14,2
5.66505,-12.973,1.23848,36,10
0.282104,-0.646326,-0.111694,48,3
5.03969,-11.5519,1.5475,7,11
3.89906,-8.94161,-1.19773,15,4
9.60293,-22.0326,3.80668,11,12
5.00163,-11.4756,-1.0952,26,5
6.35202,-14.5808,3.09149,8,13
2.47502,-5.68401,-0.324902,42,6
6.50454,-14.9451,3.76298,50,14
5.06777,-11.6495,-0.22175,100,7
6.396,-14.7098,4.29795,5,15
5.43654,-12.5511,0.238749,42,8
0.210596,-0.486426,-0.122373,15,1
2.2773,-5.26253,0.300513,27,9
0.231572,-0.53513,-0.113341,16,2
5.60628,-12.9616,1.23552,73,10
0.275143,-0.636428,-0.109817,49,3
10.6892,-24.7369,3.30875,20,11
3.15156,-7.2968,-0.97593,39,4
6.31906,-14.6375,2.52517,12,12
5.09026,-11.7911,-1.12361,11,5
2.45912,-5.70179,-0.325425,45,6
6.23632,-14.4667,3.63701,23,14
5.00887,-11.6249,-0.220947,20,7
6.2896,-14.6043,4.26068,27,15
5.28862,-12.3274,0.234141,15,8
0.208897,-0.487158,-0.122373,15,1
4.86207,-11.3386,0.646558,32,9
0.251358,-0.586461,-0.124026,14,2
5.5563,-12.9701,1.23447,73,10
0.275253,-0.642832,-0.110756,49,3
3.15262,-7.36981,-0.984217,16,4
6.27593,-14.6711,2.52736,22,12
4.90103,-11.4626,-1.09067,26,5
2.63011,-6.15429,1.30094,104,13
2.45332,-5.7434,-0.327309,29,6
6.17278,-14.4579,3.62936,33,14
5.05902,-11.8492,-0.224892,37,7
2.35553,-5.5412,0.105098,38,8
0.20728,-0.487848,-0.122373,15,1
4.83807,-11.3923,0.648652,8,9
0.22783,-0.536734,-0.113341,16,2
5.06432,-11.9366,1.13442,26,10
0.274662,-0.647378,-0.111381,48,3
4.9197,-11.6013,1.54725,39,11
3.09717,-7.30712,-0.974467,41,4
6.17767,-14.582,2.50827,28,12
5.06298,-11.9566,-1.13599,19,5
2.59361,-6.12501,1.29292,26,13
2.43348,-5.74966,-0.327204,39,6
6.15137,-14.5411,3.64511,30,14
4.97635,-11.7692,-0.223042,100,7
10.8685,-25.7168,7.48091,10,15
2.33229,-5.54018,0.104924,27,8
0.205576,-0.488569,-0.122373,15,1
2.27796,-5.41641,0.307945,17,9
0.226049,-0.537486,-0.113341,16,2
5.03398,-11.9754,1.13651,47,10
0.276227,-0.657439,-0.112946,47,3
4.89377,-11.6532,1.55188,50,11
3.07779,-7.33253,-0.976417,88,4
6.09235,-14.5215,2.49419,41,12
5.11598,-12.2002,-1.15743,9,5
2.56614,-6.11954,1.28987,4,13
2.4381,-5.81706,-0.330554,52,6
6.09305,-14.5445,3.64061,28,14
4.94142,-11.8013,-0.223321,100,7
10.8883,-26.0165,7.557,20,15
2.30755,-5.53536,0.10468,53,8
0.203869,-0.489283,-0.122373,15,1
4.79682,-11.5179,0.653885,38,9
4.98852,-11.99,1.13616,42,10
0.267747,-0.643855,-0.110443,36,3
4.99332,-12.0075,1.59673,29,11
3.04685,-7.33039,-0.974711,22,4
6.00979,-14.466,2.48105,42,12
4.89534,-11.7893,-1.11681,26,5
2.56025,-6.1688,1.29826,15,13
2.43513,-5.87024,-0.333066,58,6
6.03522,-14.5559,3.63791,26,14
4.89484,-11.8055,-0.223077,100,7
10.4668,-25.2566,7.32561,9,15
2.28725,-5.54378,0.10468,41,8
0.202075,-0.490027,-0.122373,15,1
4.75,-11.5244,0.653257,17,9
0.222197,-0.53909,-0.113341,16,2
4.91704,-11.9355,1.12936,38,10
0.263242,-0.639306,-0.109504,37,3
4.94323,-12.011,1.59478,39,11
3.05168,-7.41862,-0.984948,61,4
5.23411,-12.7304,2.18007,39,12
4.81854,-11.7197,-1.10862,26,5
2.52228,-6.13775,1.28987,3,13
2.38427,-5.8048,-0.328879,58,6
5.98363,-14.5751,3.63746,42,14
4.80978,-11.7216,-0.221157,22,7
5.99271,-14.6117,4.23169,13,15
2.28754,-5.59987,0.105587,30,8
0.200363,-0.49073,-0.122373,15,1
5.11046,-12.5228,0.708838,7,9
0.220314,-0.539863,-0.113341,16,2
4.9378,-12.1057,1.14383,26,10
0.258026,-0.632905,-0.108253,25,3
5.88557,-14.4438,1.91506,24,11
3.04224,-7.46967,-0.99031,67,4
4.86417,-11.9491,2.04335,50,12
5.00221,-12.2882,-1.16074,26,5
5.06235,-12.4421,2.61103,14,13
2.38055,-5.85379,-0.331182,39,6
5.9496,-14.6374,3.64781,21,14
5.92495,-14.5914,4.21979,13,15
2.22375,-5.49844,0.103528,64,8
0.198649,-0.491426,-0.122373,15,1
8.20012,-20.296,1.1472,6,9
0.218428,-0.540628,-0.113341,16,2
4.96489,-12.2947,1.16004,37,10
0.252118,-0.624642,-0.106688,26,3
4.88228,-12.1023,1.60234,25,11
2.97012,-7.3661,-0.975199,67,4
5.93297,-14.7216,2.5139,33,12
5.03004,-12.4811,-1.1773,12,5
5.04236,-12.518,2.62324,16,13
2.41008,-5.9862,-0.338195,52,6
5.87082,-14.5894,3.63071,11,14
2.34078,-5.81995,-0.109496,60,7
5.87254,-14.6084,4.21875,15,15
2.20751,-5.5136,0.103667,100,8
0.196932,-0.492116,-0.122373,15,1
0.21654,-0.541388,-0.113341,16,2
4.7659,-11.9216,1.12326,66,10
0.263129,-0.658537,-0.11232,23,3
4.84589,-12.134,1.60429,39,11
2.99148,-7.49441,-0.990798,67,4
2.52024,-6.31704,1.07721,17,12
2.89781,-7.26341,-0.684173,23,5
5.01391,-12.5738,2.63126,38,13
2.40913,-6.04467,-0.341021,37,6
10.1959,-25.5952,6.36072,35,14
2.3027,-5.7835,-0.108659,26,7
5.02864,-12.6364,3.64417,3,15
2.20791,-5.57371,0.104645,64,8
0.195127,-0.492835,-0.122373,15,1
2.40203,-6.06683,0.341963,11,9
0.214554,-0.542178,-0.113341,16,2
4.76321,-12.0428,1.13302,42,10
0.252726,-0.63929,-0.108878,25,3
4.81598,-12.1886,1.60916,39,11
2.92025,-7.39455,-0.976174,94,4
2.85507,-7.23321,-0.680338,50,5
4.96779,-12.5921,2.63126,11,13
4.51823,-11.4585,-0.645512,42,6
10.2871,-26.102,6.47724,36,14
4.34137,-11.0156,-0.206671,48,7
4.96468,-12.6036,3.62968,30,15
2.16532,-5.51957,0.103493,100,8
2.37938,-6.07146,0.341754,38,9
0.238437,-0.608732,-0.127079,14,2
4.6979,-11.9999,1.12745,52,10
0.247724,-0.632766,-0.107627,25,3
4.6692,-11.9328,1.57333,50,11
2.89571,-7.40419,-0.976174,52,4
2.82981,-7.24313,-0.680338,55,5
4.87671,-12.4824,2.60492,4,13
4.95394,-12.6931,3.14572,31,14
2.27608,-5.83483,-0.109322,11,7
4.95925,-12.7198,3.65815,13,15
2.15472,-5.54946,0.103912,77,8
0.191768,-0.494152,-0.122373,15,1
2.34878,-6.05552,0.340393,108,9
0.210858,-0.543625,-0.113341,16,2
4.6696,-12.0452,1.13024,47,10
0.251223,-0.648363,-0.11013,37,3
4.63612,-11.9712,1.57626,43,11
2.89349,-7.47535,-0.984217,56,4
2.45538,-6.34677,1.07783,41,12
2.80451,-7.25297,-0.680338,52,5
11.7181,-30.3052,6.31578,21,13
2.32986,-6.02858,-0.338718,68,6
2.29459,-5.94347,-0.111207,67,7
2.2128,-5.75854,0.107681,64,8
0.190042,-0.494818,-0.122373,15,1
2.30473,-6.00402,0.337044,72,9
4.62685,-12.0659,1.13058,57,10
0.250259,-0.652968,-0.110756,49,3
4.68098,-12.2135,1.60599,29,11
2.80773,-7.32969,-0.963743,60,4
4.91728,-12.8434,2.17819,15,12
2.77775,-7.25899,-0.679989,57,5
11.6336,-30.4176,6.33028,10,13
2.28564,-5.97925,-0.335474,68,6
11.5016,-30.104,7.44003,10,14
2.26312,-5.92343,-0.110683,99,7
10.875,-28.4789,8.16833,18,15
2.17108,-5.71241,0.106669,27,8
2.29263,-6.03857,0.338509,36,9
0.206963,-0.54512,-0.113341,16,2
4.60874,-12.1454,1.13651,49,10
0.252882,-0.666767,-0.112946,47,3
4.67488,-12.3326,1.6194,39,11
2.88283,-7.6091,-0.999085,75,4
2.25779,-5.96249,-0.557797,15,5
4.81026,-12.7098,2.64156,25,13
2.26617,-5.99092,-0.335683,61,6
11.1718,-29.5497,7.29336,10,14
2.23716,-5.92046,-0.110474,44,7
10.1153,-26.7836,7.6714,15,15
2.1462,-5.70685,0.106425,66,8
2.28137,-6.07271,0.339974,53,9
0.229915,-0.612002,-0.127079,14,2
4.59643,-12.2416,1.14401,28,10
0.245694,-0.6547,-0.110756,49,3
4.61089,-12.2931,1.61209,21,11
2.76985,-7.38862,-0.968861,65,4
2.37797,-6.34665,1.07345,21,12
4.7514,-12.6879,2.63355,11,13
3.03077,-8.09754,-0.453125,32,6
9.71735,-25.9764,6.40301,35,14
2.23818,-5.9863,-0.111556,39,7
10.0028,-26.768,7.6569,26,15
2.08861,-5.6131,0.10454,64,8
0.184763,-0.496813,-0.122373,15,1
4.36162,-11.728,0.65577,44,9
0.203152,-0.546552,-0.113341,16,2
4.55922,-12.2725,1.1454,47,10
0.241345,-0.649998,-0.109817,49,3
2.79098,-7.52481,-0.985436,49,4
2.74175,-7.39603,-0.690099,37,5
4.75278,-12.8278,2.65911,3,13
2.24371,-6.05904,-0.338614,26,6
4.71591,-12.7419,3.13672,10,14
2.2211,-6.00119,-0.111695,84,7
4.52806,-12.2409,3.49716,11,15
2.06722,-5.61249,0.1044,88,8
4.33928,-11.7938,0.658596,62,9
0.235123,-0.639389,-0.132421,13,2
4.42769,-12.0471,1.12291,26,10
0.237825,-0.647086,-0.109191,50,3
2.38128,-6.48261,0.847967,80,11
2.78654,-7.58993,-0.992748,67,4
2.33131,-6.35342,1.07189,48,12
2.70905,-7.38685,-0.688356,47,5
9.34134,-25.4713,5.27358,25,13
2.2188,-6.05332,-0.337881,39,6
4.65687,-12.7117,3.12547,23,14
2.09013,-5.70846,-0.106111,82,7
4.49726,-12.2893,3.50648,2,15
2.1373,-5.8658,0.108973,22,8
0.181377,-0.498059,-0.122373,15,1
4.3015,-11.8183,0.659119,42,9
0.199427,-0.547922,-0.113341,16,2
4.41223,-12.1291,1.12919,35,10
0.238265,-0.655338,-0.110443,49,3
2.3783,-6.54499,0.855035,19,11
4.51175,-12.4297,2.09434,12,12
2.6825,-7.39018,-0.687833,65,5
4.59907,-12.6771,2.62133,27,13
2.16906,-5.98217,-0.333485,19,6
4.60118,-12.6968,3.11782,34,14
2.04568,-5.64803,-0.104854,56,7
4.4517,-12.2977,3.50441,5,15
2.14325,-5.9466,0.110334,16,8
0.179638,-0.498689,-0.122373,15,1
0.197514,-0.548615,-0.113341,16,2
4.38403,-12.1838,1.13285,45,10
0.239318,-0.66546,-0.112007,47,3
2.4293,-6.75874,0.881847,14,11
6.55015,-18.2337,-2.37889,27,4
4.53375,-12.6275,2.12501,23,12
2.13603,-5.95586,-0.331601,68,6
7.15022,-19.9478,4.89224,36,14
2.13655,-5.96388,-0.110578,60,7
4.64123,-12.9625,3.68921,4,15
2.14262,-6.01055,0.111381,31,8
2.18147,-6.12627,0.340812,9,9
4.23059,-11.8874,1.10391,45,10
0.237656,-0.668153,-0.11232,47,3
4.25085,-11.9576,1.55822,21,11
4.34248,-12.2221,-1.59259,14,4
2.1199,-5.97646,-0.332333,71,6
7.11375,-20.0663,4.91518,36,14
2.11171,-5.95999,-0.110369,66,7
4.37606,-12.3576,3.51269,21,15
2.109,-5.98216,0.110718,74,8
0.176152,-0.499931,-0.122373,15,1
0.193679,-0.54998,-0.113341,16,2
2.44478,-6.9462,0.644255,9,10
0.222212,-0.631709,-0.106063,53,3
4.07675,-11.5959,1.50923,38,11
2.71385,-7.72361,-1.00518,20,4
2.16531,-6.16589,-0.571742,50,5
3.96933,-11.3093,2.32978,37,13
7.04237,-20.0874,4.91428,4,14
2.04329,-5.83145,-0.107856,100,7
4.43889,-12.6755,3.59862,8,15
2.10061,-6.02536,0.111381,100,8
0.174406,-0.500543,-0.122373,15,1
2.08281,-5.98103,0.331915,24,9
0.191758,-0.550653,-0.113341,16,2
2.38515,-6.85308,0.634842,7,10
0.225198,-0.647407,-0.108566,25,3
2.25605,-6.48943,0.84358,21,11
7.40219,-21.3161,3.5739,19,12
2.53857,-7.31443,-0.677374,53,5
3.93756,-11.3454,2.33436,8,13
4.36665,-12.5959,3.07778,25,14
1.94763,-5.62125,-0.103842,55,7
2.10954,-6.11962,0.112987,31,8
0.172657,-0.501149,-0.122373,15,1
2.05867,-5.97882,0.331391,108,9
4.18609,-12.1711,1.12605,19,10
0.226676,-0.659436,-0.110443,24,3
2.24758,-6.53857,0.848942,64,11
2.59537,-7.55463,-0.980805,37,4
2.50332,-7.29498,-0.67476,10,5
4.41375,-12.8695,2.64461,30,13
2.07428,-6.05159,-0.335264,55,6
4.3735,-12.7667,3.11557,23,14
1.92022,-5.60531,-0.103423,25,7
4.24015,-12.3845,3.50752,10,15
2.08323,-6.11595,0.112777,64,8
2.03739,-5.98821,0.331496,69,9
0.187812,-0.552011,-0.113341,16,2
2.32066,-6.8247,0.630659,31,10
0.221195,-0.650872,-0.108878,25,3
4.24192,-12.5035,2.09122,48,12
4.23011,-12.4758,2.56066,24,13
2.10443,-6.21012,-0.343638,74,6
2.35168,-6.94374,1.69253,16,14
2.19266,-6.47793,-0.119374,43,7
4.21454,-12.4585,3.52408,29,15
2.03443,-6.0417,0.111277,94,8
2.29373,-6.82749,0.630136,46,10
0.211263,-0.629207,-0.105124,27,3
1.93409,-5.76034,0.746084,20,11
2.5684,-7.65393,-0.991285,5,4
4.18317,-12.4732,2.08371,42,12
2.37001,-7.0709,-0.652448,30,5
6.93817,-20.712,4.24588,13,13
2.07975,-6.21211,-0.343324,40,6
2.22143,-6.63915,-0.122202,52,7
4.22249,-12.627,3.56756,11,15
2.00975,-6.04152,0.111137,28,8
2.00645,-6.03865,0.333485,30,9
0.183858,-0.553341,-0.113341,16,2
2.25167,-6.78062,0.625081,31,10
0.209065,-0.62994,-0.105124,27,3
1.91109,-5.76174,0.745353,100,11
2.52221,-7.60865,-0.984217,48,4
4.17346,-12.5972,2.10185,16,12
2.23002,-6.73113,-0.620375,31,5
6.86028,-20.7193,4.24245,27,13
2.2739,-6.87161,-0.379331,56,6
2.2848,-6.90859,1.67993,56,14
2.50207,-7.57,-0.139165,24,7
4.23314,-12.8148,3.61622,5,15
2.49018,-7.57392,0.139165,12,8
1.9648,-5.983,0.330031,51,9
0.181925,-0.553979,-0.113341,16,2
3.99373,-12.1685,1.12047,52,10
0.211174,-0.643805,-0.107314,26,3
1.88973,-5.7646,0.744866,70,11
2.51356,-7.67211,-0.991285,78,4
4.24379,-12.9609,2.16005,29,12
2.21023,-6.75023,-0.62142,22,5
4.15689,-12.703,2.59806,7,13
2.07234,-6.33659,-0.349395,40,6
2.25703,-6.90541,1.67724,45,14
2.4657,-7.54828,-0.138607,26,7
2.29444,-7.02815,1.981,20,15
1.93589,-5.96513,0.32867,40,9
0.17999,-0.554611,-0.113341,16,2
1.91046,-5.89027,0.54176,50,10
0.203444,-0.627626,-0.104498,13,3
1.86899,-5.76927,0.744622,45,11
2.49288,-7.69973,-0.993723,33,4
2.20199,-6.8053,-0.625778,41,5
2.01336,-6.22975,-0.343115,37,6
2.22273,-6.88172,1.66959,26,14
2.30419,-7.13818,-0.130928,100,7
2.43541,-7.58541,0.139061,45,8
0.178053,-0.555236,-0.113341,16,2
1.89657,-5.91778,0.543678,80,10
0.21511,-0.671601,-0.111694,24,3
1.85731,-5.80223,0.748034,20,11
2.46659,-7.71027,-0.993966,81,4
2.3046,-7.20822,1.1986,124,12
2.11269,-6.60798,-0.606953,47,5
2.22467,-6.96241,1.42076,36,13
1.99524,-6.24816,-0.343743,60,6
2.21173,-6.93028,1.67948,12,14
2.27076,-7.1195,-0.130439,26,7
3.87035,-12.2009,0.223426,47,8
0.176114,-0.555854,-0.113341,16,2
1.87169,-5.91106,0.542457,60,10
0.205017,-0.647865,-0.107627,12,3
1.85141,-5.8541,0.753884,5,11
2.44864,-7.74723,-0.997623,66,4
2.27942,-7.21622,1.1986,107,12
2.03148,-6.43519,-0.590393,46,5
2.18439,-6.91959,1.41046,27,13
2.00587,-6.35794,-0.349395,81,6
2.18167,-6.91937,1.67499,9,14
2.24529,-7.12548,-0.130404,85,7
6.52694,-20.726,5.82239,2,15
2.38359,-7.60605,0.139131,90,8
2.42397,-7.74438,0.425282,25,9
0.174075,-0.556496,-0.113341,16,2
1.86845,-5.97684,0.547861,15,10
0.200285,-0.64107,-0.106375,13,3
2.3223,-7.43319,0.956187,60,11
2.13523,-6.83861,-0.879653,18,4
2.2448,-7.19396,1.1936,77,12
2.04222,-6.54875,-0.600154,33,5
2.16369,-6.94254,1.41351,4,13
2.00809,-6.44724,-0.353896,100,6
6.60557,-21.2211,5.13113,41,14
2.2204,-7.13327,-0.130404,64,7
6.41267,-20.614,5.78461,12,15
2.33619,-7.55169,0.137979,99,8
0.172132,-0.5571,-0.113341,16,2
1.87814,-6.08231,0.556925,67,10
0.194551,-0.63044,-0.104498,13,3
2.29036,-7.42648,0.954237,24,11
2.06747,-6.7079,-0.86186,56,4
2.23354,-7.25123,1.20173,22,12
1.98792,-6.46185,-0.354314,43,6
6.55092,-21.3073,5.14643,26,14
2.16135,-7.03432,-0.12845,100,7
4.00695,-13.0491,3.65763,28,15
0.170089,-0.557727,-0.113341,16,2
1.85409,-6.08344,0.556402,45,10
0.194541,-0.638707,-0.10575,13,3
2.27426,-7.46671,0.958381,2,11
2.04519,-6.71888,-0.862348,59,4
2.11105,-6.93959,1.14885,8,12
1.95184,-6.42023,-0.587081,56,5
2.30485,-7.59091,-0.415757,100,6
6.49768,-21.4133,5.16623,26,14
2.13388,-7.03225,-0.128275,100,7
1.90164,-6.30649,0.345208,112,9
0.168336,-0.558259,-0.113341,16,2
1.8275,-6.06443,0.554136,39,10
0.195382,-0.648772,-0.107314,26,3
2.25349,-7.48752,0.960087,20,11
2.03948,-6.78075,-0.869416,25,4
1.92022,-6.39232,-0.583943,42,5
2.26893,-7.55795,-0.413559,79,6
6.4763,-21.5866,5.20312,26,14
2.09619,-6.99141,-0.127403,96,7
1.93496,-6.49069,0.118223,100,8
1.88018,-6.315,0.345313,70,9
0.166288,-0.558872,-0.113341,16,2
1.79958,-6.05199,0.552393,9,10
0.195253,-0.657058,-0.108566,25,3
6.1895,-20.8286,2.66796,39,11
1.71572,-5.77736,-0.739991,19,4
1.67695,-5.65403,-0.515962,41,5
2.06264,-6.9589,1.41084,34,13
6.40598,-21.6401,5.21032,26,14
2.07915,-7.02361,-0.127856,77,7
3.89046,-13.1508,3.67471,31,15
1.90156,-6.46512,0.117629,44,8
0.164337,-0.559449,-0.113341,16,2
2.11685,-7.21101,0.657503,15,10
0.182393,-0.621722,-0.102621,28,3
6.07291,-20.714,2.65041,12,11
1.69174,-5.77409,-0.738772,58,4
6.41122,-21.8963,3.61364,17,12
1.65832,-5.66367,-0.516311,51,5
6.40147,-21.9055,5.2688,22,14
2.62855,-9.0006,-0.163669,42,7
3.86659,-13.2484,3.69801,10,15
2.27151,-7.82368,0.142202,67,8
1.71237,-5.9094,0.538274,15,10
0.184618,-0.637534,-0.105124,13,3
5.97518,-20.6474,2.6392,43,11
1.67158,-5.77996,-0.738772,62,4
2.02822,-7.01773,1.15699,13,12
1.85982,-6.43505,-0.586035,36,5
5.93307,-20.5422,4.1562,25,13
1.99836,-6.92348,-0.377656,100,6
6.93202,-24.0323,5.77449,35,14
2.03881,-7.07289,-0.128485,100,7
3.82513,-13.2786,3.70267,45,15
2.59508,-9.05608,0.164437,22,8
1.77768,-6.21177,0.338614,70,9
5.75232,-20.1137,1.83027,8,10
0.18022,-0.630577,-0.103873,13,3
5.85509,-20.5001,2.61775,42,11
1.83024,-6.41659,-0.583769,45,5
5.90654,-20.7213,4.18826,36,13
1.99224,-6.9938,-0.38111,21,6
6.15715,-21.6292,5.19187,21,14
2.0163,-7.08766,-0.128624,77,7
2.55692,-9.04199,0.164018,13,8
1.7739,-6.28137,0.342068,45,9
5.73402,-20.3177,1.847,32,10
0.178017,-0.631202,-0.103873,13,3
5.78888,-20.5396,2.62019,43,11
1.65379,-5.87174,-0.749009,44,4
1.93904,-6.88911,1.13352,113,12
1.62051,-5.75744,-0.523283,22,5
5.74912,-20.4394,4.1272,25,13
1.94565,-6.92188,-0.376819,87,6
6.11586,-21.7725,5.22111,21,14
2.02181,-7.20247,-0.130579,100,7
1.831,-6.56231,0.118921,26,8
1.72355,-6.18555,0.33652,36,9
0.156509,-0.561689,-0.113341,16,2
5.59466,-20.0919,1.82469,48,10
0.17899,-0.643238,-0.10575,13,3
5.70067,-20.5004,2.61264,55,11
1.63381,-5.87939,-0.749253,47,4
1.94563,-7.00623,1.15167,18,12
5.70241,-20.5483,4.14513,25,13
1.92041,-6.92478,-0.37661,59,6
6.01484,-21.7035,5.19952,32,14
1.98118,-7.15359,-0.129567,100,7
1.99984,-7.22588,2.00895,9,15
5.74106,-20.857,0.3776,14,8
1.82688,-6.64602,0.361223,120,9
5.38358,-19.5984,1.77815,15,10
0.17779,-0.647669,-0.106375,13,3
5.6212,-20.4914,2.60898,30,11
5.60473,-20.4734,4.12605,25,13
1.92627,-7.04125,-0.382576,100,6
5.95036,-21.7658,5.20942,16,14
1.97201,-7.21834,-0.130614,100,7
1.8345,-6.76609,0.367398,33,9
0.152584,-0.562768,-0.113341,16,2
5.32139,-19.6401,1.78024,22,10
0.171398,-0.633032,-0.103873,13,3
5.72176,-21.1471,2.6899,33,11
1.60361,-5.93089,-0.754371,32,4
1.87709,-6.94717,1.13978,120,12
1.84389,-6.82428,-0.618457,38,5
5.54602,-20.5402,4.13559,8,13
1.93602,-7.1752,-0.389484,77,6
1.94712,-7.22137,1.72672,20,14
1.93431,-7.17884,-0.129776,99,7
14.5711,-54.1156,15.0167,21,15
1.86924,-6.98098,0.126146,100,8
1.77734,-6.64704,0.360595,51,9
0.150619,-0.563297,-0.113341,16,2
5.26154,-19.6913,1.78321,15,10
0.174283,-0.652711,-0.107001,13,3
5.49438,-20.5915,2.61678,36,11
1.90459,-7.14292,-0.907683,17,4
1.84825,-6.9365,1.13697,43,12
1.81903,-6.82683,-0.618109,61,5
9.13511,-34.3081,6.90118,26,13
1.90223,-7.1491,-0.387705,52,6
5.61348,-21.1118,5.0434,29,14
1.86148,-7.00581,-0.12653,100,7
1.77186,-6.67321,1.85004,3,15
1.92501,-7.29101,0.131626,55,8
1.7139,-6.50063,0.352326,47,9
5.18719,-19.6884,1.78129,52,10
0.169489,-0.643764,-0.105437,26,3
5.45681,-20.7411,2.63335,12,11
1.59548,-6.06865,-0.770458,7,4
1.78658,-6.80037,-0.615145,52,5
8.93602,-34.0379,6.8405,25,13
1.83216,-6.98376,-0.378389,100,6
1.89715,-7.23667,1.72717,8,14
1.82942,-6.98325,-0.126006,100,7
1.74513,-6.66627,1.84642,8,15
1.65524,-6.35911,0.114697,49,8
1.7334,-6.66895,0.361118,63,9
0.146683,-0.564335,-0.113341,16,2
0.16476,-0.634792,-0.103873,13,3
5.44219,-20.9829,2.66163,25,11
1.79281,-6.92229,-0.625604,52,5
5.42605,-20.9659,4.20963,22,13
1.80977,-6.99785,-0.378808,100,6
5.68781,-22.009,5.24811,27,14
1.80803,-7.00121,-0.126216,6,7
1.64098,-6.39584,0.115256,72,8
0.144712,-0.564844,-0.113341,16,2
1.54122,-6.02011,0.543678,43,10
0.162543,-0.635363,-0.103873,13,3
1.77391,-6.93906,0.879409,2,11
1.56093,-6.11041,-0.774358,43,4
1.48823,-5.83005,0.952999,115,12
1.75286,-6.86673,-0.620026,56,5
1.41937,-5.56434,1.11623,2,13
1.78138,-6.98864,-0.37797,70,6
1.84995,-7.26296,1.73032,17,14
2.18804,-8.59656,-0.154838,83,7
1.56475,-6.15219,1.70096,32,15
2.29905,-9.09241,0.163704,28,8
1.55137,-6.14448,0.332124,24,9
0.160041,-0.633872,-0.127079,14,2
1.53872,-6.09886,0.550301,80,10
0.163221,-0.647419,-0.10575,13,3
1.74434,-6.92404,0.876728,26,11
1.50373,-5.97337,-0.756321,44,4
1.4669,-5.83137,0.952373,79,12
1.7109,-6.80132,-0.613576,92,5
1.70978,-6.80692,-0.367817,100,6
1.8374,-7.3204,1.74247,20,14
2.17407,-8.66816,-0.15599,100,7
1.7215,-6.90969,0.124296,46,8
0.164463,-0.661099,-0.132421,13,2
1.51069,-6.07713,0.547861,78,10
0.161913,-0.651819,-0.106375,13,3
1.51357,-6.09778,0.771433,5,11
1.54882,-6.24447,-0.789957,55,4
1.44559,-5.83262,0.951747,79,12
1.41069,-5.69608,1.14066,21,13
1.68745,-6.81866,-0.368131,84,6
1.68473,-6.81786,-0.122586,91,7
1.51944,-6.15359,1.69837,33,15
1.6907,-6.88847,0.123807,85,8
1.48039,-6.04071,0.325948,26,9
1.48473,-6.06301,0.546118,48,10
0.154002,-0.629355,-0.102621,14,3
1.49652,-6.12038,0.773627,85,11
1.5713,-6.43111,-0.812869,37,4
1.43459,-5.87601,0.958005,17,12
1.74182,-7.1344,-0.642512,5,5
1.37591,-5.63994,1.12844,30,13
1.66186,-6.82759,-0.122656,100,7
1.49065,-6.12882,1.69009,38,15
1.64597,-6.80881,0.122272,100,8
2.12989,-8.82413,0.475734,8,9
0.136351,-0.564901,-0.112959,16,2
1.46683,-6.08171,0.547338,33,10
0.151805,-0.629889,-0.102621,14,3
1.47282,-6.11592,0.772408,55,11
1.44899,-6.0216,-0.760465,41,4
1.43855,-5.98278,0.974587,25,12
1.7374,-7.22567,-0.650182,5,5
1.34796,-5.61034,1.12158,46,13
1.68876,-7.03419,-0.379122,73,6
2.03191,-8.47654,-0.15215,29,7
1.47194,-6.14526,1.69319,10,15
1.6296,-6.84564,0.12283,100,8
0.134378,-0.565373,-0.112959,16,2
1.48933,-6.27095,0.563898,39,10
0.149605,-0.630415,-0.102621,14,3
1.45833,-6.14999,0.776064,55,11
1.41927,-5.98992,-0.755834,44,4
1.33153,-5.62839,1.12425,30,13
1.53611,-6.50327,1.54271,4,14
1.99771,-8.46412,-0.151801,25,7
1.58835,-6.7773,0.121504,100,8
1.59907,-6.83377,0.367817,42,9
1.45518,-6.22373,0.559191,54,10
0.145606,-0.623239,-0.10137,14,3
1.43821,-6.16085,0.776795,25,11
1.4926,-6.39888,-0.806775,48,4
1.37881,-5.91573,0.962072,103,12
1.99942,-8.57843,-0.770631,35,5
1.30831,-5.61771,1.12119,23,13
1.63237,-7.01469,-0.377447,17,6
1.61271,-6.93567,1.64394,12,14
1.93557,-8.3308,-0.149288,100,7
1.62735,-7.00973,1.9282,103,15
1.56289,-6.77501,0.121364,100,8
0.119057,-0.516514,-0.122373,15,1
1.55055,-6.73227,0.36206,54,9
0.130428,-0.566298,-0.112959,16,2
1.52237,-6.61516,0.593879,78,10
0.151398,-0.658396,-0.107001,13,3
1.4285,-6.22218,-0.783864,41,4
1.35197,-5.89355,0.957692,32,12
1.961,-8.54846,-0.767319,6,5
4.85066,-21.1961,5.02001,39,14
1.7108,-7.48173,-0.133965,97,7
1.60674,-7.03232,1.93286,70,15
1.54012,-6.78433,0.121434,72,8
1.51733,-6.69479,0.359757,36,9
0.12845,-0.566749,-0.112959,16,2
1.40245,-6.19293,0.555531,52,10
0.150406,-0.664701,-0.10794,25,3
1.42996,-6.32976,-0.796782,22,4
1.34052,-5.9387,0.964262,65,12
1.59477,-7.07657,-0.380168,87,6
1.64385,-7.30622,-0.130719,79,7
1.57286,-6.99642,1.92147,112,15
1.51773,-6.79551,0.121539,100,8
1.46831,-6.58503,0.353582,53,9
0.126372,-0.567216,-0.112959,16,2
1.42477,-6.40029,0.573659,18,10
0.138962,-0.624754,-0.10137,14,3
1.35293,-6.08256,0.765096,42,11
1.39062,-6.2572,-0.787032,24,4
1.4945,-6.73013,1.09191,87,12
1.22696,-5.52988,-0.495568,50,5
1.52251,-6.8676,1.36734,18,13
1.56624,-7.07067,-0.37954,80,6
1.52067,-6.87063,1.6246,93,14
1.60839,-7.267,-0.129916,78,7
1.54593,-6.99055,1.91837,42,15
1.9294,-8.80471,0.472384,17,9
0.124391,-0.567654,-0.112959,16,2
1.42287,-6.49864,0.582026,3,10
0.143535,-0.656111,-0.106375,13,3
1.33529,-6.10881,0.767777,20,11
1.3249,-6.06637,-0.762415,81,4
1.55742,-7.13699,1.15699,119,12
1.1757,-5.39224,-0.482843,51,5
4.55288,-20.8814,4.15429,21,13
1.58873,-7.29271,-0.391159,80,6
1.50994,-6.93683,1.63899,45,14
1.64252,-7.55227,-0.134907,60,7
1.51906,-6.9905,1.91681,19,15
1.4716,-6.81793,0.121748,44,8
1.45901,-6.77109,0.363002,48,9
6.39564,-29.7317,2.66069,7,10
0.134488,-0.625732,-0.10137,14,3
1.31813,-6.13284,0.770214,7,11
1.29038,-6.00885,-0.754615,57,4
1.52918,-7.12693,1.15449,54,12
1.11844,-5.21708,-0.466806,17,5
1.47456,-6.88408,1.36848,12,13
1.62636,-7.59925,-0.407278,83,6
1.50202,-7.02426,1.65834,56,14
1.63036,-7.62445,-0.136094,100,7
1.45355,-6.84429,0.122132,15,8
1.29696,-6.11745,0.327728,30,9
0.120525,-0.568488,-0.112959,16,2
5.18248,-24.4656,2.18796,45,10
0.138248,-0.653208,-0.10575,13,3
1.46329,-6.91986,0.868441,57,11
1.25321,-5.93153,-0.744378,27,4
1.22079,-5.78806,-0.517531,61,5
1.54977,-7.35417,-0.39388,87,6
1.50043,-7.1262,1.68128,20,14
1.67917,-7.98205,-0.142377,100,7
1.50728,-7.22125,0.128764,6,8
1.78934,-8.58753,0.459719,22,9
4.90248,-23.5696,2.10621,10,10
0.136657,-0.657578,-0.106375,13,3
1.42257,-6.84524,0.858448,54,11
1.29102,-6.21769,-0.77972,30,4
5.31585,-25.6242,4.14489,19,12
1.09544,-5.28505,-0.47221,12,5
1.42926,-6.90164,1.37001,12,13
1.5309,-7.39891,-0.395974,25,6
1.43524,-6.94272,1.63674,7,14
1.56183,-7.55508,-0.134663,100,7
1.52295,-7.43242,0.132429,31,8
1.41965,-6.94058,0.371271,64,9
0.116454,-0.569335,-0.112959,16,2
1.27655,-6.24654,0.557797,18,10
0.129618,-0.634826,-0.102621,14,3
1.39707,-6.84846,0.858204,61,11
1.26822,-6.22238,-0.77972,49,4
5.25579,-25.81,4.17179,11,12
1.06109,-5.21075,-0.465237,50,5
1.50625,-7.41008,-0.396288,18,6
1.65979,-8.18004,-0.145693,100,7
5.00242,-24.6759,6.74638,24,15
1.74479,-8.66881,0.154349,43,8
1.40643,-7.00032,0.374202,57,9
1.2516,-6.23533,0.556402,11,10
0.124294,-0.61978,-0.100118,14,3
1.37667,-6.87082,0.860398,16,11
1.20246,-6.00682,-0.752178,57,4
4.8693,-24.3464,3.93245,20,12
1.14292,-5.71457,-0.509861,23,5
4.9583,-24.8139,4.91867,16,13
1.47881,-7.40746,-0.395869,18,6
1.51046,-7.57979,-0.134907,60,7
4.90608,-24.642,6.7324,15,15
1.37082,-6.94224,0.370853,57,9
0.131475,-0.666441,-0.13204,13,2
1.19554,-6.06569,0.540889,37,10
0.122893,-0.624087,-0.100744,14,3
1.3611,-6.91843,0.86576,19,11
1.14894,-5.84542,-0.73146,44,4
4.27536,-21.7515,3.51102,8,12
1.11337,-5.66965,-0.505503,36,5
5.73607,-29.237,5.79143,13,13
1.43374,-7.31458,-0.390636,70,6
4.91017,-25.0737,5.89867,14,14
1.58985,-8.11854,-0.144401,88,7
4.77908,-24.4269,6.66925,27,15
1.43833,-7.40648,0.131696,63,8
1.41651,-7.30776,0.390112,110,9
0.110485,-0.570524,-0.112959,16,2
1.16414,-6.01701,0.536182,67,10
0.128328,-0.663279,-0.107001,13,3
1.3423,-6.94434,0.868441,87,11
1.16983,-6.05775,-0.75754,20,4
4.72293,-24.4798,3.94872,5,12
1.0898,-5.65393,-0.50376,52,5
5.60267,-29.0669,5.75404,8,13
1.41816,-7.3644,-0.393043,72,6
4.82258,-25.0669,5.89327,7,14
1.44487,-7.51724,-0.133616,67,7
4.69889,-24.47,6.6765,23,15
1.34285,-7.05956,0.37661,56,9
0.108593,-0.570887,-0.112959,16,2
1.1412,-6.00518,0.534788,60,10
0.126012,-0.663723,-0.107001,13,3
1.32286,-6.97434,0.87161,11,11
1.29522,-6.84168,1.10286,18,12
1.06882,-5.64577,-0.502714,60,5
6.12579,-32.3888,6.40737,5,13
1.42752,-7.5694,-0.134453,100,7
4.64563,-24.6571,6.72308,19,15
1.41121,-7.54804,0.134034,2,8
1.29622,-6.9464,0.370329,72,9
1.12133,-6.015,0.535311,26,10
0.120801,-0.648623,-0.104498,13,3
4.52952,-24.3442,3.0404,17,11
1.15109,-6.19262,-0.773383,3,4
1.06075,-5.71215,-0.508292,60,5
5.97975,-32.2324,6.37226,22,13
4.48704,-24.2099,-1.2904,23,6
1.38872,-7.50748,-0.133267,51,7
4.6157,-24.9771,6.80591,12,15
1.38882,-7.57456,0.134418,41,8
0.104958,-0.573562,-0.113341,16,2
4.28988,-23.466,2.08703,46,10
0.116406,-0.637381,-0.102621,14,3
1.2581,-6.89553,0.860641,2,11
1.12341,-6.1634,-0.769239,10,4
1.25769,-6.90692,1.11194,40,12
1.0858,-5.96887,-0.530778,55,5
5.45856,-30.0067,5.92844,9,13
1.22562,-6.74413,-0.359234,33,6
5.25533,-28.9469,6.79217,10,14
4.41761,-24.3569,-0.432087,99,7
4.53538,-25.0311,6.81626,8,15
1.34221,-7.46717,0.132429,13,8
5.32615,-29.6907,1.58086,15,9
0.102855,-0.573943,-0.113341,16,2
4.20665,-23.4972,2.08843,56,10
0.116852,-0.65336,-0.105124,13,3
1.23507,-6.90574,0.861373,54,11
1.25184,-7.02777,1.38756,4,13
1.18794,-6.67582,-0.355361,74,6
1.24833,-7.0223,1.64664,1,14
1.34677,-7.57605,-0.134314,75,7
4.46486,-25.1418,6.84214,24,15
5.07254,-28.8266,0.510902,7,8
1.23117,-7.01095,0.373051,2,9
0.100851,-0.574299,-0.113341,16,2
4.2513,-24.2339,2.15257,27,10
0.113206,-0.645981,-0.103873,13,3
1.07723,-6.15955,-0.767777,13,4
1.20721,-6.9099,1.111,9,12
1.37636,-7.88621,-0.700384,11,5
1.15503,-6.62484,-0.35243,67,6
1.22214,-7.01701,1.64439,11,14
1.30871,-7.52184,-0.133267,7,7
4.39253,-25.2722,6.8732,12,15
1.27719,-7.40959,0.131242,68,8
1.20026,-6.97781,0.371062,30,9
0.0987454,-0.574664,-0.113341,16,2
4.1729,-24.3102,2.15798,49,10
0.109503,-0.638603,-0.102621,14,3
4.22384,-24.6328,3.06867,43,11
1.06544,-6.22002,-0.774845,53,4
1.18475,-6.92381,1.11256,21,12
1.35386,-7.92043,-0.702998,22,5
1.18731,-6.95333,1.37115,24,13
1.13813,-6.67234,-0.354733,20,6
5.05505,-29.6668,6.94784,10,14
1.28413,-7.53621,-0.133441,81,7
5.04534,-29.641,8.05652,17,15
1.17004,-6.95459,0.369597,53,9
4.10419,-24.4209,2.16652,11,10
0.107273,-0.638982,-0.102621,14,3
4.1089,-24.5013,3.05039,25,11
1.04001,-6.20822,-0.772895,57,4
1.15676,-6.91252,1.11006,8,12
0.970075,-5.79694,-0.514219,10,5
1.16238,-6.95356,1.37039,35,13
1.11779,-6.694,-0.355675,20,6
1.2542,-7.52706,-0.133197,81,7
4.89067,-29.383,7.98146,5,15
1.25279,-7.59216,0.134314,9,8
1.14446,-6.95074,0.369178,15,9
0.0947311,-0.57534,-0.113341,16,2
1.14983,-6.99101,0.619852,20,10
0.109525,-0.666642,-0.107001,13,3
4.00792,-24.4215,3.03869,34,11
1.36934,-8.35294,-1.0393,17,4
4.00376,-24.4495,3.924,12,12
1.28759,-7.86284,-0.697072,13,5
1.10988,-6.79248,-0.360699,64,6
1.14831,-7.0354,1.64574,57,14
1.2247,-7.51166,-0.132848,66,7
4.76478,-29.2569,7.94264,28,15
1.2164,-7.53529,0.133232,11,8
0.0927222,-0.575667,-0.113341,16,2
1.13998,-7.08547,0.62787,22,10
0.102809,-0.639715,-0.102621,14,3
3.97142,-24.7391,3.07647,35,11
3.732,-23.2737,-2.89415,14,4
3.87403,-24.1864,3.87958,32,12
1.12404,-7.02548,1.38298,3,13
1.08679,-6.80025,-0.360909,97,6
3.81205,-23.9063,-0.422558,8,7
4.67175,-29.3306,7.95817,17,15
3.75828,-23.8095,0.420743,11,8
1.19067,-7.56031,0.401103,4,9
1.10102,-7.00693,0.620549,37,10
0.103527,-0.659602,-0.10575,13,3
1.08961,-6.94224,0.862835,2,11
0.9442,-6.02265,-0.748522,11,4
3.80211,-24.2798,3.8924,30,12
0.893217,-5.71049,-0.505678,58,5
4.5671,-29.2316,5.75098,17,13
1.0443,-6.69171,-0.354943,54,6
4.82073,-30.9258,-0.54633,11,7
4.54883,-29.215,7.92245,23,15
5.73094,-37.1913,0.656839,5,8
0.102422,-0.66777,-0.107001,13,3
1.06716,-6.96581,0.865272,45,11
0.909809,-5.94562,-0.738528,30,4
3.72772,-24.3892,3.90773,15,12
0.859431,-5.62297,-0.497659,56,5
4.44222,-29.0979,5.7216,17,13
1.03509,-6.78811,-0.359862,10,6
4.76431,-31.281,7.30506,10,14
3.67758,-24.1741,-0.426816,8,7
1.15218,-7.65459,0.135117,48,8
0.0865883,-0.576622,-0.113341,16,2
3.51616,-23.4432,2.07396,20,10
0.0936516,-0.625145,-0.100118,14,3
1.04255,-6.96753,0.865029,26,11
0.891982,-5.9684,-0.740966,45,4
4.35241,-29.1575,4.66926,13,12
0.83774,-5.61214,-0.496439,63,5
3.65217,-24.4957,4.81411,33,13
1.01433,-6.81144,-0.360909,13,6
4.45039,-29.9211,6.98383,41,14
3.66193,-24.6497,-0.434984,9,7
4.4837,-30.2175,8.18541,6,15
4.43241,-30.1986,1.5996,6,9
0.084575,-0.57692,-0.113341,16,2
3.45047,-23.5658,2.08372,41,10
0.0908972,-0.621559,-0.0994923,14,3
1.0099,-6.91416,0.85796,26,11
0.844643,-5.78275,-0.717567,29,4
3.5736,-24.4961,3.92087,27,12
0.819868,-5.62686,-0.497485,60,5
3.57257,-24.5491,4.82213,33,13
1.12097,-7.71226,-0.40843,36,6
4.36684,-30.0437,7.00902,30,14
7.2155,-49.7033,-0.876669,22,7
4.6518,-32.0829,8.68648,7,15
4.53093,-31.5596,0.556522,4,8
3.52034,-24.5509,1.29982,10,9
0.0826614,-0.577198,-0.113341,16,2
3.4324,-23.9972,2.12085,48,10
0.089953,-0.629679,-0.100744,14,3
0.992854,-6.95874,0.863079,26,11
0.817331,-5.72853,-0.710498,43,4
3.53136,-24.7816,3.96468,20,12
0.815802,-5.73212,-0.506549,18,5
3.50634,-24.6677,4.84311,34,13
1.01314,-7.13655,-0.377761,94,6
4.24884,-29.9288,6.97888,10,14
4.5676,-32.255,8.72893,7,15
5.49451,-39.1947,0.690836,6,8
5.41911,-38.7553,2.05084,19,9
0.0807469,-0.577469,-0.113341,16,2
3.34095,-23.9236,2.11335,42,10
0.0933218,-0.669102,-0.107001,13,3
0.973058,-6.98559,0.866004,26,11
0.787209,-5.6586,-0.70148,22,4
3.39672,-24.4475,3.9093,12,12
0.784999,-5.64994,-0.499054,10,5
3.45097,-24.8698,4.88051,12,13
0.989743,-7.14185,-0.377866,28,6
4.10881,-29.6867,6.91904,20,14
5.24648,-37.9553,-0.668811,48,7
4.49038,-32.5272,8.7983,7,15
0.888161,-6.50061,0.114523,1,8
5.31427,-38.9976,2.06266,4,9
0.0787306,-0.577747,-0.113341,16,2
0.0915178,-0.673339,-0.107627,12,3
0.943329,-6.9496,0.861129,54,11
0.804518,-5.93474,-0.73536,9,4
3.30685,-24.4259,3.90398,25,12
0.772756,-5.70793,-0.503935,2,5
4.20642,-31.1113,6.10245,20,13
6.72185,-49.7813,-2.6326,30,6
3.36163,-24.9287,5.80734,28,14
0.962419,-7.14639,-0.125867,47,7
4.09407,-30.4404,8.22993,6,15
0.858343,-6.45015,0.11358,37,8
4.21691,-31.7734,1.67977,3,9
3.26967,-24.6692,2.17715,61,10
0.0850195,-0.642321,-0.102621,14,3
0.919584,-6.95679,0.861616,57,11
0.770028,-5.83321,-0.722442,18,4
3.88226,-29.4489,4.70461,24,12
4.09651,-31.1161,6.10055,5,13
6.00365,-45.6638,-2.41373,13,6
3.26902,-24.8978,5.79744,57,14
0.936168,-7.13979,-0.125692,74,7
4.29178,-32.7761,8.85731,7,15
0.843014,-6.50863,0.114558,13,8
4.12695,-31.9504,1.68836,3,9
0.0746953,-0.578282,-0.113341,16,2
7.18423,-55.6961,4.91314,26,10
0.078739,-0.611267,-0.0976151,15,3
0.892762,-6.94027,0.859179,21,11
0.75472,-5.87524,-0.727316,36,4
3.81413,-29.7327,4.74779,17,12
0.722496,-5.63216,-0.496788,60,5
3.20257,-25,4.89921,9,13
0.845967,-6.61296,-0.349395,13,6
3.18381,-24.9226,5.80059,28,14
0.917314,-7.19062,-0.12653,27,7
3.8944,-30.5698,8.25736,18,15
0.822289,-6.52741,0.114837,6,8
0.0726763,-0.57854,-0.113341,16,2
4.79707,-38.2411,3.37188,11,10
0.0829884,-0.6625,-0.10575,13,3
3.71608,-29.7076,3.67607,24,11
0.749955,-6.0039,-0.742916,12,4
3.69613,-29.6321,4.72964,17,12
0.700616,-5.62488,-0.495916,53,5
3.77144,-30.2789,5.93111,4,13
0.799953,-6.43155,-0.33966,32,6
3.68143,-29.6406,6.89565,40,14
6.52825,-52.6366,-0.925815,24,7
3.73638,-30.1691,8.14555,18,15
6.42734,-52.498,0.923197,12,8
0.785841,-6.43731,0.33987,78,9
4.67108,-38.3751,3.38217,55,10
0.0800831,-0.658878,-0.105124,13,3
3.59535,-29.5805,3.65876,48,11
2.85426,-23.5175,-2.90878,3,4
3.61787,-29.8527,4.7628,17,12
3.65949,-30.2847,5.92958,13,13
0.779724,-6.4622,-0.341126,43,6
3.5998,-29.8783,6.94784,41,14
0.856327,-7.10751,-0.124959,60,7
3.61766,-30.0707,8.11553,30,15
6.25092,-52.6562,0.925571,12,8
0.762007,-6.43816,0.339765,41,9
4.53009,-38.3318,3.37694,22,10
0.0787086,-0.667,-0.106375,13,3
3.50131,-29.7157,3.67387,48,11
2.37838,-20.2157,-2.4993,5,4
3.44897,-29.3596,4.68208,27,12
4.21531,-35.8832,-3.16096,9,5
3.6226,-30.8843,6.04445,19,13
0.766222,-6.54224,-0.345208,40,6
3.50046,-29.9333,6.95774,41,14
0.782033,-6.69747,-0.117699,42,7
3.5553,-30.4944,8.22631,12,15
6.0117,-52.1969,0.917124,12,8
0.735657,-6.40705,0.337986,37,9
4.38967,-38.29,3.37188,44,10
0.0718869,-0.62802,-0.100118,14,3
3.40636,-29.8047,3.68338,60,11
2.28304,-20.0069,-2.47249,2,4
3.38,-29.6659,4.72901,17,12
0.642352,-5.63785,-0.496439,2,5
3.53763,-31.0976,6.08375,5,13
0.735717,-6.47741,-0.341649,50,6
3.41726,-30.1331,7.00138,30,14
0.748524,-6.61074,-0.116128,48,7
3.44254,-30.451,8.21129,24,15
0.723497,-6.48075,0.113825,12,8
0.717704,-6.44928,0.340079,25,9
5.88983,-53.0101,4.66632,22,10
0.0692588,-0.62434,-0.0994923,14,3
3.49372,-31.5448,3.89689,25,11
0.0898891,-0.812903,-0.10042,6,4
4.15997,-37.6805,6.00427,5,12
0.604084,-5.47173,-0.481623,23,5
3.41443,-30.9771,6.0578,9,13
0.708951,-6.44221,-0.33966,42,6
3.31014,-30.1275,6.99733,41,14
0.723918,-6.5994,-0.115884,12,7
3.35031,-30.5915,8.24597,12,15
0.702804,-6.50113,0.114139,16,8
0.056878,-0.526997,-0.122373,15,1
0.0624671,-0.579731,-0.113341,16,2
5.70134,-52.9986,4.66353,22,10
0.0717196,-0.667788,-0.106375,13,3
3.38253,-31.5469,3.89568,25,11
0.0921218,-0.860584,-0.10627,4,4
5.6355,-52.7327,8.39959,13,12
0.603612,-5.64814,-0.496962,30,5
3.27254,-30.6726,5.99598,19,13
3.68213,-34.5687,-1.82192,37,6
3.17013,-29.8113,6.92129,10,14
0.703411,-6.62575,-0.116303,54,7
3.12623,-29.4964,7.94782,23,15
0.669292,-6.40012,0.112324,20,8
3.93247,-37.7316,1.98814,4,9
0.0604431,-0.579945,-0.113341,16,2
5.76848,-55.4418,4.87671,51,10
0.0661228,-0.636597,-0.10137,14,3
3.28897,-31.7185,3.91542,63,11
0.0862557,-0.833256,-0.102858,5,4
5.47738,-53.0035,8.43964,26,12
3.16847,-30.7131,6.00171,19,13
3.56226,-34.5893,-1.82234,37,6
3.11428,-30.2913,7.03017,51,14
0.672111,-6.5486,-0.114907,64,7
3.02994,-29.5725,7.96542,28,15
5.28588,-52.4941,2.76501,8,9
5.30252,-52.7517,4.63843,22,10
0.0619281,-0.617169,-0.0982409,15,3
5.16543,-51.5687,6.36353,29,11
0.0884816,-0.884909,-0.109195,4,4
5.18246,-51.9216,8.26443,12,12
0.542993,-5.44008,-0.478311,6,5
3.08168,-30.9291,6.04178,19,13
3.46897,-34.8778,-1.83689,18,6
3.01911,-30.4087,7.05491,20,14
0.654968,-6.60861,-0.115919,84,7
2.92023,-29.5176,7.94782,28,15
0.632553,-6.48624,0.113755,31,8
4.78216,-49.2143,2.59136,15,9
0.0563929,-0.580353,-0.113341,16,2
5.09718,-52.5517,4.61925,44,10
0.0624384,-0.644908,-0.102621,14,3
5.09271,-52.6969,6.50051,31,11
0.08158,-0.845694,-0.10432,5,4
4.94818,-51.3888,8.17683,24,12
0.522854,-5.43005,-0.477265,13,5
3.63806,-37.8518,7.39156,14,13
3.24478,-33.8221,-1.78068,36,6
2.83344,-29.5888,6.86236,20,14
0.632656,-6.61882,-0.116058,100,7
2.808,-29.4314,7.92193,11,15
0.591006,-6.28732,0.110229,22,8
4.61201,-49.2486,2.5923,7,9
0.0543666,-0.580546,-0.113341,16,2
5.01496,-53.6523,4.71443,23,10
0.0601869,-0.645122,-0.102621,14,3
0.0797298,-0.857833,-0.105783,5,4
4.78264,-51.5552,8.20061,25,12
0.502609,-5.41795,-0.476045,2,5
3.50934,-37.9015,7.39881,7,13
3.10648,-33.6144,-1.76916,27,6
2.72495,-29.5422,6.84931,50,14
0.606982,-6.59311,-0.11557,66,7
2.70737,-29.4641,7.92815,11,15
0.574641,-6.35109,0.111311,9,8
4.4329,-49.1849,2.58812,7,9
0.0523399,-0.580733,-0.113341,16,2
0.0579346,-0.645328,-0.102621,14,3
0.0756741,-0.846243,-0.10432,5,4
4.71573,-52.8387,8.4021,26,12
2.91987,-32.7165,-2.8737,8,5
4.63496,-52.0362,10.1549,13,13
2.72668,-30.6728,-1.61383,41,6
2.64024,-29.7592,6.89745,40,14
0.569855,-6.43584,-0.112777,63,7
2.62219,-29.6735,7.98198,34,15
0.55524,-6.38493,0.11187,1,8
3.10464,-35.8464,1.88566,8,9
0.0503125,-0.580912,-0.113341,16,2
2.95717,-34.2133,3.00443,37,10
0.0546631,-0.633718,-0.100744,14,3
0.0744187,-0.86628,-0.106758,4,4
4.53261,-52.8706,8.4046,13,12
2.79714,-32.6272,-2.86498,17,5
4.45261,-52.0442,10.1533,13,13
2.60023,-30.4553,-1.6019,33,6
2.53684,-29.7741,6.8988,50,14
0.54891,-6.45572,-0.113092,100,7
0.530289,-6.35494,0.111311,57,8
2.97949,-35.8571,1.88566,8,9
0.0482843,-0.581084,-0.113341,16,2
2.58402,-31.1636,2.73582,41,10
0.0524507,-0.633905,-0.100744,14,3
0.0678083,-0.82301,-0.101395,6,4
2.5849,-31.4407,4.99652,16,12
2.67899,-32.5852,-2.86045,35,5
4.2478,-51.7777,10.0984,13,13
2.4794,-30.287,-1.59258,16,6
2.43098,-29.7595,6.8934,40,14
0.527835,-6.47553,-0.113406,100,7
4.32048,-53.1186,14.2801,20,15
0.509218,-6.37071,0.111556,82,8
0.0421412,-0.52838,-0.122373,15,1
2.45013,-30.7883,1.61865,6,9
2.4768,-31.1923,2.73756,41,10
0.0524218,-0.661653,-0.105124,13,3
0.0658716,-0.835115,-0.102858,5,4
2.47374,-31.4318,4.9937,20,12
2.56023,-32.5308,-2.85487,35,5
4.0443,-51.5025,10.0419,26,13
2.42125,-30.9028,-1.62451,33,6
4.09998,-52.4462,12.1451,22,14
0.505694,-6.48332,-0.11351,63,7
4.12754,-53.037,14.2542,20,15
0.484234,-6.33656,0.110927,27,8
2.33779,-30.7329,1.6153,12,9
0.044125,-0.581415,-0.113341,16,2
2.35599,-31.0438,2.72379,32,10
0.048024,-0.634256,-0.100744,14,3
0.0638513,-0.847217,-0.10432,5,4
2.376,-31.5998,5.01904,16,12
2.44187,-32.5519,-2.85592,26,5
4.0196,-53.7097,10.4693,15,13
2.72079,-36.4404,-1.91508,9,6
3.90035,-52.2387,12.0938,22,14
0.478752,-6.42721,-0.112498,63,7
0.460862,-6.33629,0.110893,57,8
0.0383591,-0.528668,-0.122373,15,1
0.445258,-6.15144,0.323227,2,9
0.0419938,-0.581572,-0.113341,16,2
2.47451,-34.2695,3.006,18,10
0.0465505,-0.646249,-0.102621,14,3
2.23684,-31.1294,3.83206,25,11
0.0590424,-0.823685,-0.101395,6,4
2.22297,-31.0881,4.93645,19,12
3.81993,-53.6849,10.4617,15,13
2.64631,-37.2829,-1.95883,9,6
3.71796,-52.3809,12.1235,22,14
0.456464,-6.44688,-0.112812,5,7
0.435569,-6.30802,0.110369,61,8
2.13232,-31.1179,2.72885,33,10
0.0425651,-0.622766,-0.0988666,15,3
2.12071,-31.1076,3.8284,25,11
0.0541378,-0.796169,-0.097983,13,4
2.13186,-31.3519,4.97712,15,12
2.24582,-33.1132,-2.90368,8,5
3.62536,-53.5922,10.4411,15,13
2.18271,-32.35,-1.69924,17,6
3.5194,-52.297,12.101,22,14
0.440804,-6.55018,-0.114593,64,7
0.412681,-6.2795,0.109845,20,8
0.0346674,-0.528922,-0.122373,15,1
0.401781,-6.14643,0.322808,55,9
0.0379326,-0.581851,-0.113341,16,2
2.02666,-31.1709,2.73286,24,10
0.0412687,-0.634731,-0.100744,14,3
2.02049,-31.1601,3.83401,25,11
0.0522659,-0.80823,-0.0994454,12,4
2.02292,-31.367,4.97837,19,12
2.13712,-33.2282,-2.91309,8,5
3.44762,-53.6039,10.4411,15,13
2.09153,-32.6082,-1.71243,35,6
3.35193,-52.4017,12.1226,22,14
0.414373,-6.49581,-0.113615,69,7
1.93145,-31.0452,0.542944,23,8
0.374774,-6.05809,0.318098,54,9
0.0360029,-0.581974,-0.113341,16,2
1.9153,-31.0482,2.72153,32,10
0.0380826,-0.619098,-0.0982409,15,3
1.90236,-31.0144,3.81524,25,11
0.0500502,-0.818314,-0.100664,12,4
1.91883,-31.4626,4.99245,19,12
1.9788,-32.5394,-2.85208,8,5
1.98434,-32.7249,-1.71819,17,6
3.165,-52.347,12.1073,22,14
0.390733,-6.48124,-0.113336,80,7
1.82705,-31.1197,0.544131,23,8
0.030974,-0.529152,-0.122373,15,1
0.355021,-6.08329,0.319354,54,9
0.0338696,-0.582102,-0.113341,16,2
1.81557,-31.2976,2.74279,24,10
0.0351289,-0.607401,-0.0963636,15,3
1.77792,-30.7414,3.78087,49,11
0.0490218,-0.850192,-0.104564,10,4
1.79403,-31.2088,4.95115,19,12
1.82689,-31.8777,-2.79352,8,5
3.07404,-53.8036,10.4754,15,13
1.86246,-32.6981,-1.71641,8,6
2.97532,-52.3971,12.1163,22,14
0.364706,-6.42267,-0.112289,73,7
1.71715,-31.202,0.545458,27,8
0.335777,-6.14039,0.322285,38,9
1.67486,-30.7268,2.69224,16,10
0.0347232,-0.639079,-0.10137,14,3
1.66695,-30.7794,3.78477,12,11
0.0435513,-0.806758,-0.0992016,13,4
1.67432,-31.1166,4.93551,19,12
1.74344,-32.4012,-2.83884,17,5
1.6863,-31.4415,6.12039,40,13
1.70406,-31.8767,-1.67297,17,6
2.87536,-53.964,12.4762,23,14
0.337769,-6.36007,-0.111172,28,7
1.6109,-31.2598,0.546365,27,8
0.0271868,-0.52936,-0.122373,15,1
0.321588,-6.28314,0.329717,55,9
0.029805,-0.582324,-0.113341,16,2
1.58353,-31.0449,2.71961,24,10
0.0328934,-0.647088,-0.102621,14,3
1.58772,-31.3421,3.85327,25,11
0.0404346,-0.800957,-0.0984704,13,4
1.55944,-30.9979,4.9158,26,12
1.63174,-32.4349,-2.84128,35,5
1.56651,-31.2472,6.08146,25,13
1.54325,-30.891,-1.62095,16,6
0.323493,-6.52099,-0.113964,29,7
1.34242,-27.9475,0.488388,26,8
0.291854,-6.12064,0.321133,47,9
1.47431,-31.0323,2.71804,16,10
0.0306343,-0.647199,-0.102621,14,3
1.46111,-30.9826,3.80842,24,11
0.0381975,-0.812991,-0.0999329,25,4
1.4648,-31.2932,4.96179,19,12
1.26716,-27.0708,-2.37098,28,5
1.44545,-30.9956,6.03147,34,13
1.43467,-30.8803,-1.62011,8,6
1.45745,-31.4891,7.27762,43,14
1.2591,-27.3068,-0.477149,39,7
1.43213,-32.1572,0.561863,4,8
0.27419,-6.20542,0.32553,45,9
0.0257389,-0.582518,-0.113341,16,2
1.36869,-31.099,2.72344,40,10
0.0269909,-0.615726,-0.0976151,15,3
1.35814,-31.1065,3.82304,25,11
0.0357906,-0.823035,-0.101152,24,4
1.34257,-30.9982,4.91423,18,12
1.33775,-31.0122,6.03376,24,13
1.17085,-27.2534,-1.42961,35,6
1.34586,-31.4551,7.26862,42,14
1.15577,-27.1233,-0.473868,39,7
1.13096,-27.5586,0.481442,13,8
0.021642,-0.529615,-0.122373,15,1
