x, y, z, intensity, ring
-0.337254,0.44127,-0.128222,14,1
-9.87591,12.9218,0.852343,16,9
-0.455302,0.595941,-0.145778,21,2
-9.73245,12.7433,1.40286,34,10
-8.27463,10.8384,-2.15973,66,3
-14.3314,18.7786,2.90049,15,11
-8.79756,11.5276,-1.78051,11,4
-9.5544,12.5283,-1.37846,52,5
-9.65297,12.6622,3.09492,21,13
-9.89418,12.9833,-0.855484,45,6
-15.0577,19.7589,5.73535,34,14
-9.42774,12.3757,-0.271559,23,7
-14.1351,18.5616,6.25152,45,15
-0.35056,0.461511,-0.155291,12,0
-9.5268,12.5466,0.27498,25,8
-0.345215,0.454803,-0.131821,14,1
-9.9056,13.0549,0.858833,11,9
-0.446203,0.588063,-0.143488,22,2
-9.6781,12.7597,1.40112,100,10
-8.21,10.828,-2.15223,13,3
-14.4765,19.0998,2.94266,40,11
-8.79683,11.6104,-1.78855,26,4
-9.80846,12.9503,2.57303,30,12
-9.03404,11.9278,-1.30908,21,5
-9.81973,12.9746,-0.852762,45,6
-14.1445,18.6956,5.41232,60,14
-9.4448,12.4883,-0.273305,38,7
-14.1051,18.6571,6.26704,26,15
-9.38184,12.4456,0.272048,57,8
-0.369426,0.490245,-0.141719,13,1
-0.441785,0.586481,-0.142725,22,2
-9.70661,12.8905,1.41175,81,10
-8.2066,10.9024,-2.1613,22,3
-14.4766,19.239,2.95631,32,11
-8.77057,11.6601,-1.79148,2,4
-9.80831,13.0445,2.58492,10,12
-8.99594,11.9641,-1.3096,28,5
-24.7716,32.9567,8.01398,8,13
-9.54642,12.7054,-0.832874,81,6
-14.0674,18.7292,5.40782,100,14
-9.34832,12.4508,-0.271769,23,7
-15.8606,21.132,7.07974,8,15
-0.34733,0.463947,-0.155291,12,0
-9.20415,12.299,0.268139,51,8
-0.359541,0.480609,-0.13857,13,1
-0.436208,0.583303,-0.14158,34,2
-9.76056,13.0567,1.42622,59,10
-8.90399,11.9152,-2.3559,52,3
-10.1895,13.6405,2.09055,27,11
-8.57897,11.4886,-1.76052,18,4
-9.78272,13.1007,2.58962,12,12
-9.43561,12.6404,-1.38002,49,5
-14.0729,18.8597,4.57407,11,13
-9.55337,12.8075,-0.837375,87,6
-14.0183,18.8001,5.41412,78,14
-9.24124,12.3936,-0.269849,36,7
-15.7535,21.1349,7.06317,35,15
-8.98438,12.0887,0.262903,93,8
-0.355621,0.47867,-0.13767,13,1
-0.44119,0.59428,-0.14387,33,2
-9.64844,13.0011,1.41646,56,10
-8.96332,12.0779,-2.38218,21,3
-10.1892,13.7348,2.09981,22,11
-8.56329,11.5473,-1.76516,16,4
-9.75458,13.1585,2.59431,20,12
-10.0356,13.5425,-1.47468,24,5
-13.9753,18.8589,4.56262,30,13
-9.56435,12.9113,-0.842086,52,6
-15.6451,21.1432,7.04764,8,15
-0.344164,0.4663,-0.155291,12,0
-9.0193,12.2245,0.265172,34,8
-0.351635,0.476771,-0.13677,13,1
-10.3718,14.0679,0.915984,19,9
-0.436887,0.592579,-0.143107,45,2
-9.58163,13.001,1.41297,90,10
-10.0847,13.6935,2.08811,22,11
-8.59707,11.6779,-1.78051,15,4
-9.76947,13.2752,2.61058,10,12
-9.34124,12.698,-1.37915,28,5
-13.9082,18.906,4.56224,44,13
-9.20211,12.5134,-0.814034,68,6
-13.6337,18.5465,5.31424,23,14
-9.27291,12.6189,-0.27334,89,7
-15.5323,21.1447,7.03004,21,15
-0.342452,0.467559,-0.155291,12,0
-8.91277,12.1688,0.263287,34,8
-0.345363,0.471707,-0.134971,14,1
-13.1088,17.9109,1.16322,8,9
-0.432394,0.591008,-0.142344,45,2
-9.58096,13.1003,1.41994,50,10
-8.8685,12.1306,-2.37999,47,3
-9.97473,13.6437,2.07519,36,11
-8.52229,11.6613,-1.77344,1,4
-9.78717,13.397,2.62779,13,12
-9.25808,12.6774,-1.3734,31,5
-13.8724,19.0028,4.57331,22,13
-9.28922,12.7294,-0.825861,84,6
-14.4879,19.8606,5.67552,40,14
-9.03906,12.3911,-0.26772,33,7
-16.5147,22.6473,7.51041,10,15
-8.82696,12.1448,0.262065,81,8
-0.343632,0.472969,-0.134971,14,1
-0.430328,0.592513,-0.142344,45,2
-9.39471,12.9402,1.39902,62,10
-9.18346,12.6539,-2.47636,78,3
-13.9171,19.1834,2.91,38,11
-9.07619,12.5152,-1.89824,65,4
-13.8458,19.0992,3.73628,42,12
-9.00327,12.4193,-1.34202,49,5
-9.49619,13.104,3.14568,18,13
-9.1756,12.6663,-0.819686,65,6
-13.471,18.6026,5.30255,22,14
-8.98069,12.4063,-0.267336,40,7
-15.3331,21.1896,7.0083,17,15
-0.28265,0.391615,-0.12941,15,0
-8.84419,12.2582,0.263845,49,8
-0.341979,0.474166,-0.134971,14,1
-9.75071,13.5247,0.873801,29,9
-0.424813,0.589234,-0.141199,46,2
-9.39724,13.0392,1.40617,37,10
-9.14385,12.6923,-2.47761,33,3
-9.9012,13.7486,2.08031,49,11
-8.93386,12.4099,-1.87752,44,4
-9.53413,13.2486,2.58524,47,12
-8.85513,12.3051,-1.32634,28,5
-9.48364,13.1833,3.15674,23,13
-9.31323,12.9512,-0.836015,68,6
-14.1259,19.6511,5.58733,26,14
-8.80896,12.259,-0.263496,45,7
-9.97093,13.8811,4.57954,16,15
-0.337537,0.471119,-0.155291,12,0
-8.75244,12.2208,0.262379,75,8
-0.335784,0.469018,-0.133171,14,1
-9.68721,13.5309,0.872127,33,9
-0.429609,0.600293,-0.143488,44,2
-9.3169,13.0233,1.40094,59,10
-6.30381,8.81481,-1.7164,12,3
-9.63266,13.4746,2.03376,48,11
-8.84533,12.3733,-1.86753,82,4
-9.53953,13.3493,2.59869,28,12
-8.76464,12.2694,-1.31919,28,5
-9.25869,12.9706,-0.835177,52,6
-16.8368,23.587,6.69049,9,14
-9.92372,13.9126,4.57903,16,15
-0.306855,0.431309,-0.141833,14,0
-8.68868,12.2171,0.261681,96,8
-0.336485,0.473306,-0.134071,14,1
-9.76726,13.7388,0.883431,16,9
-0.433302,0.609716,-0.145396,43,2
-9.32789,13.1305,1.40913,59,10
-6.26768,8.826,-1.71452,13,3
-9.56379,13.4725,2.02864,70,11
-8.7939,12.388,-1.86533,36,4
-8.66396,12.2139,-1.31013,28,5
-24.186,34.1086,8.1277,8,13
-8.48798,11.9747,-0.769234,32,6
-17.9305,25.2961,7.15839,21,14
-8.71822,12.3041,-0.263217,92,7
-0.334405,0.473347,-0.155291,12,0
-8.84192,12.5203,0.267545,16,8
-0.341657,0.483971,-0.13677,13,1
-9.18374,13.0091,0.834549,8,9
-0.447126,0.633606,-0.150739,39,2
-9.31071,13.1988,1.41314,87,10
-6.22244,8.82413,-1.71014,10,3
-9.51906,13.5041,2.02864,78,11
-8.75392,12.4187,-1.86558,42,4
-9.66128,13.711,2.65657,13,12
-8.61768,12.2345,-1.30925,52,5
-8.38385,11.9113,-0.763372,42,6
-13.6449,19.3859,5.47306,6,14
-8.69923,12.364,-0.26388,92,7
-12.7942,18.1908,5.95905,11,15
-0.332834,0.474454,-0.155291,12,0
-8.8015,12.5512,0.26758,49,8
-0.315442,0.449996,-0.126872,15,1
-0.440515,0.628654,-0.149213,30,2
-9.21889,13.161,1.40582,31,10
-6.2192,8.88194,-1.71734,15,3
-9.53,13.6153,2.04058,35,11
-8.61821,12.3127,-1.84535,46,4
-9.46401,13.526,2.61465,23,12
-8.60332,12.3005,-1.31326,31,5
-24.1707,34.5708,8.19944,8,13
-8.32028,11.9047,-0.761174,100,6
-13.585,19.4374,5.47486,49,14
-13.1201,18.7793,-0.39987,82,7
-15.0113,21.4942,7.02487,17,15
-0.27591,0.396392,-0.12941,15,0
-8.77942,12.6178,0.268313,30,8
-0.342721,0.492744,-0.13857,13,1
-9.10524,13.091,0.835701,44,9
-0.434846,0.625428,-0.148068,20,2
-15.8202,22.7624,2.4252,33,10
-6.17308,8.8852,-1.71358,42,3
-9.51401,13.6991,2.04789,61,11
-8.44068,12.1581,-1.81732,32,4
-9.48759,13.6661,2.63498,15,12
-8.565,12.3418,-1.31431,39,5
-13.2742,19.1346,4.52675,2,13
-8.43935,12.1698,-0.776142,100,6
-13.5946,19.6112,5.50905,6,14
-8.59903,12.4047,-0.263462,31,7
-20.8686,30.1157,9.81752,8,15
-0.289898,0.419605,-0.136656,14,0
-8.70911,12.6057,0.267441,16,8
-0.336656,0.487464,-0.13677,13,1
-9.04814,13.1062,0.834654,33,9
-0.441581,0.639869,-0.151121,19,2
-15.7237,22.7928,2.42258,27,10
-8.93102,12.9462,-2.49106,15,3
-9.49445,13.7681,2.0535,35,11
-8.54678,12.3985,-1.849,52,4
-9.27171,13.4552,2.58805,11,12
-8.88015,12.8917,-1.36957,28,5
-13.2463,19.2303,4.53896,21,13
-8.44765,12.2685,-0.780643,39,6
-13.6765,19.8696,5.56889,6,14
-8.89799,12.9322,-0.274003,100,7
-16.4095,23.8581,7.75888,43,15
-0.327847,0.477913,-0.155291,12,0
-8.68542,12.6658,0.268069,45,8
-0.332748,0.485421,-0.13587,13,1
-9.28231,13.5463,0.860613,76,9
-0.439457,0.64133,-0.151121,19,2
-12.5405,18.3081,1.94148,18,10
-8.47396,12.3759,-2.37561,31,3
-9.46539,13.829,2.05764,52,11
-8.28375,12.1072,-1.80123,68,4
-8.94982,13.0856,-1.387,31,5
-13.1835,19.2829,4.54049,28,13
-8.60762,12.5947,-0.799484,100,6
-13.6521,19.9832,5.58733,52,14
-8.75582,12.8211,-0.271001,100,7
-16.6801,24.4338,7.92711,23,15
-0.271814,0.399212,-0.12941,15,0
-12.3159,18.0951,0.382068,15,8
-0.32009,0.470468,-0.131371,14,1
-9.92462,14.5927,0.924881,12,9
-0.441632,0.649354,-0.152647,19,2
-12.5359,18.4391,1.95072,49,10
-8.44959,12.4332,-2.38093,38,3
-9.74167,14.3398,2.12857,27,11
-8.22582,12.113,-1.79782,46,4
-8.94122,13.1714,2.52141,12,12
-8.23267,12.1277,-1.28241,31,5
-23.1588,34.1283,8.01703,8,13
-8.33825,12.2924,-0.778445,29,6
-13.5626,20.0017,5.57924,6,14
-8.74579,12.9029,-0.272083,100,7
-9.57171,14.1267,4.5723,6,15
-0.324502,0.48019,-0.155291,12,0
-12.4474,18.4263,0.388142,52,8
-0.318446,0.471582,-0.131371,14,1
-9.59674,14.2117,0.898713,10,9
-5.94897,8.81307,-2.06684,4,2
-9.20844,13.6469,1.44034,21,10
-6.02347,8.93017,-1.70607,26,3
-9.36972,13.8964,2.05789,35,11
-8.20447,12.1682,-1.80196,30,4
-8.10123,12.0241,-1.26846,27,5
-16.2707,24.1586,5.66168,51,13
-8.68908,12.9064,3.59202,9,14
-8.18267,12.1588,-0.255817,44,7
-14.0915,20.9466,6.76449,16,15
-12.2548,18.2715,0.384023,52,8
-0.329903,0.492059,-0.13677,13,1
-8.97566,13.3874,0.844702,12,9
-6.04213,9.0154,-2.10958,4,2
-9.58009,14.2998,1.50588,42,10
-5.99603,8.95338,-1.7067,37,3
-9.30813,13.9043,2.05447,48,11
-8.17954,12.2184,-1.80537,66,4
-8.72404,13.0367,2.48449,29,12
-8.07128,12.0658,-1.27003,37,5
-13.4773,20.1625,5.59903,6,14
-8.15787,12.2091,-0.256306,27,7
-16.3579,24.4905,7.89139,22,15
-0.282753,0.424452,-0.136656,14,0
-12.1864,18.3004,0.383778,55,8
-0.330429,0.496395,-0.13767,13,1
-8.91793,13.3972,0.843446,41,9
-5.92845,8.90954,-2.0802,7,2
-9.52931,14.3265,1.50535,16,10
-5.92256,8.90741,-1.69419,56,3
-9.28395,13.9682,2.05935,35,11
-5.98591,9.00952,-1.32813,42,4
-8.63375,12.9948,2.47104,42,12
-8.09406,12.1871,-1.27997,44,5
-9.07685,13.6721,3.18994,12,13
-8.971,13.5178,-0.85025,19,6
-13.5479,20.4222,5.65797,27,14
-8.13945,12.2694,-0.257004,37,7
-19.8031,29.8625,9.60115,8,15
-12.1367,18.3574,0.384127,55,8
-0.322334,0.487733,-0.134971,14,1
-12.3863,18.7492,1.17766,8,9
-5.74261,8.6959,-2.02563,4,2
-12.635,19.1401,2.0065,61,10
-5.90169,8.94019,-1.69669,37,3
-9.22446,13.979,2.05642,39,11
-8.13553,12.3335,-1.81415,26,4
-8.59922,13.0414,2.47417,46,12
-7.97471,12.0989,-1.26777,27,5
-8.48988,12.8854,-0.808695,32,6
-13.4319,20.3937,5.63772,39,14
-8.54411,12.9775,-0.27121,23,7
-16.3543,24.8498,7.97111,17,15
-12.2766,18.7106,0.39062,62,8
-0.31208,0.475819,-0.131371,14,1
-8.31716,12.6858,0.794983,20,9
-5.73849,8.75266,-2.03441,9,2
-9.25247,14.1177,1.47677,31,10
-9.17234,14.0061,2.05569,52,11
-5.88857,8.99524,-1.32009,13,4
-7.9171,12.0986,-1.26498,30,5
-8.92554,13.6449,3.16934,8,13
-8.26122,12.6341,-0.79111,65,6
-13.335,20.4014,5.62693,46,14
-8.44407,12.9236,-0.269465,34,7
-14.1526,21.6687,6.9348,25,15
-12.2166,18.7617,0.390794,20,8
-0.316795,0.486705,-0.134071,14,1
-12.1179,18.6243,1.16448,22,9
-5.80213,8.91745,-2.06799,9,2
-8.21786,12.6351,1.31867,20,10
-8.92327,13.7301,2.0106,48,11
-8.19522,12.6147,-1.84705,26,4
-22.7901,35.0937,6.6275,7,12
-7.87481,12.1261,-1.26498,30,5
-8.88534,13.6875,3.17201,33,13
-8.06268,12.4249,-0.776247,74,6
-13.2711,20.4592,5.63007,33,14
-8.3456,12.8708,-0.267755,100,7
-14.0012,21.6012,6.89753,20,15
-12.1066,18.7354,0.389363,27,8
-0.35316,0.546738,-0.150267,12,1
-11.7375,18.1782,1.13402,16,9
-5.7944,8.97394,-2.07638,4,2
-8.18235,12.6771,1.32006,46,10
-5.80454,8.99652,-1.69575,50,3
-9.01086,13.9714,2.04131,35,11
-5.80949,9.01111,-1.31643,19,4
-7.86377,12.2068,-1.27038,12,5
-8.84602,13.7316,3.17506,8,13
-8.00412,12.4295,-0.774782,87,6
-15.112,23.4762,6.44575,9,14
-8.35256,12.9805,-0.26943,25,7
-13.7021,21.3023,6.78675,20,15
-11.7734,18.3601,0.380707,26,8
-0.323906,0.505311,-0.13857,13,1
-8.29808,12.9504,0.806078,15,9
-5.73182,8.94882,-2.0657,9,2
-11.9669,18.6905,1.94166,27,10
-5.84606,9.1342,-1.71765,42,3
-9.04229,14.1282,2.05959,48,11
-5.73735,8.96779,-1.30717,6,4
-8.82604,13.8009,2.59462,16,12
-8.30188,12.9863,-1.34847,28,5
-8.784,13.7457,3.17086,11,13
-7.97464,12.484,-0.776352,32,6
-8.47098,13.2661,3.63386,19,14
-8.135,12.7399,-0.263845,37,7
-13.6391,21.3679,6.79245,16,15
-8.43903,13.267,0.274457,43,8
-0.326234,0.513073,-0.140369,13,1
-8.21425,12.9186,0.80231,15,9
-7.64988,12.0357,-2.77207,6,2
-11.9015,18.7321,1.94166,27,10
-5.51443,8.68265,-1.62911,26,3
-8.93087,14.0674,2.04594,56,11
-5.71239,8.99782,-1.30863,39,4
-12.493,19.6858,3.69279,9,12
-8.25222,13.0084,-1.34778,15,5
-8.77066,13.831,3.18346,13,13
-7.97165,12.5759,-0.780329,55,6
-8.4499,13.3303,3.64376,9,14
-8.15256,12.8662,-0.26587,29,7
-6.32323,9.98306,3.16639,27,15
-0.309516,0.489984,-0.155291,12,0
-8.43128,13.3525,0.275643,43,8
-0.359897,0.570181,-0.155666,11,1
-7.98054,12.6435,0.783574,47,9
-7.65392,12.1307,-2.7881,15,2
-8.08847,12.8244,1.32651,51,10
-5.48877,8.7059,-1.63005,60,3
-8.79632,13.9575,2.02571,35,11
-5.67405,9.00328,-1.30668,52,4
-12.4319,19.7338,3.69404,18,12
-8.24514,13.0931,-1.3537,13,5
-7.85118,12.4771,-0.772583,100,6
-8.40772,13.3616,3.64466,4,14
-7.82558,12.4412,-0.25655,34,7
-6.22428,9.89931,3.13326,37,15
-8.29456,13.2329,0.272607,12,8
-0.316616,0.505317,-0.13767,13,1
-7.99784,12.7694,0.789645,15,9
-7.56988,12.0862,-2.77207,18,2
-8.05647,12.868,1.32825,17,10
-5.89163,9.41394,-1.75895,35,3
-8.74473,13.9782,2.02449,48,11
-5.49945,8.79413,-1.27353,20,4
-9.80907,15.6917,2.93096,21,12
-7.63772,12.2182,-1.26062,2,5
-9.88036,15.8119,3.62423,9,13
-7.814,12.5099,-0.773002,58,6
-8.37135,13.4074,3.64916,2,14
-8.06586,12.9231,-0.265905,46,7
-6.18867,9.91933,3.13275,38,15
-8.32753,13.3892,0.275224,16,8
-0.331313,0.532898,-0.144868,12,1
-7.99433,12.8634,0.793727,6,9
-5.77216,9.28782,-2.12561,4,2
-7.99469,12.869,1.32546,48,10
-7.75954,12.4954,-2.32962,11,3
-15.5303,25.0185,3.61562,11,11
-5.57757,8.98869,-1.29888,23,4
-9.75216,15.7225,2.93033,27,12
-7.59713,12.2481,-1.26097,10,5
-9.83131,15.8563,3.62652,16,13
-7.74504,12.4963,-0.77049,68,6
-9.61253,15.5155,4.21378,15,14
-8.01964,12.9495,-0.26587,44,7
-6.09401,9.84396,3.10221,77,15
-0.304454,0.493145,-0.155291,12,0
-8.28389,13.4232,0.275329,22,8
-0.306942,0.497564,-0.134971,14,1
-7.93066,12.8559,0.791634,17,9
-5.72013,9.27616,-2.11836,9,2
-7.93717,12.8765,1.32337,69,10
-5.52318,8.96377,-1.66759,21,3
-8.89157,14.4361,2.08177,13,11
-7.94405,12.9028,-1.86046,42,4
-7.34338,11.9318,-1.22576,42,5
-9.74401,15.8387,3.61469,31,13
-7.71915,12.5522,-0.772269,78,6
-9.63383,15.6718,4.24708,12,14
-8.08138,13.1464,-0.26936,100,7
-6.02998,9.81309,3.08616,38,15
-8.20173,13.3893,0.274073,46,8
-0.327678,0.535141,-0.144868,12,1
-7.84195,12.8119,0.787238,49,9
-5.67132,9.26927,-2.11226,11,2
-9.00864,14.7296,1.51058,58,10
-5.49446,8.98372,-1.6679,12,3
-8.8364,14.4536,2.08007,49,11
-8.1155,13.2797,-1.91091,23,4
-9.71184,15.8981,2.95067,16,12
-7.31622,11.9812,-1.2282,50,5
-9.64642,15.7972,3.59789,15,13
-7.12493,11.6725,-0.716689,91,6
-9.47219,15.524,4.19849,33,14
-8.26243,13.5467,-0.27697,96,7
-6.04295,9.9116,3.11049,40,15
-0.30109,0.495206,-0.155291,12,0
-9.30985,15.318,0.312887,28,8
-0.317713,0.522958,-0.141269,13,1
-8.66284,14.2647,0.874639,18,9
-5.63546,9.27964,-2.11035,9,2
-15.0732,24.83,2.54129,43,10
-5.48253,9.03494,-1.67385,21,3
-8.96915,14.7865,2.12345,27,11
-7.67798,12.6629,-1.81829,70,4
-9.74742,16.0822,2.97851,16,12
-7.33738,12.1059,-1.23848,40,5
-9.48135,15.6494,3.55668,37,13
-7.07173,11.6768,-0.715433,35,6
-9.46033,15.627,4.21738,57,14
-8.11053,13.4026,-0.273444,33,7
-6.1723,10.2037,3.19538,47,15
-0.29979,0.49736,-0.134071,14,1
-7.95434,13.2017,0.807753,15,9
-7.27381,12.0722,-2.73964,24,2
-8.81771,14.6404,1.49524,48,10
-7.52335,12.4962,-2.31022,56,3
-9.65651,16.0457,2.29943,9,11
-7.6102,12.6505,-1.81268,68,4
-9.63727,16.0264,2.96193,13,12
-7.37825,12.2698,-1.2526,35,5
-9.44487,15.7127,3.56355,25,13
-7.41461,12.34,-0.754475,84,6
-9.25421,15.4077,4.14945,54,14
-8.01121,13.3434,-0.271664,43,7
-6.18336,10.3031,3.21971,40,15
-8.34237,13.9446,0.283637,24,8
-0.308054,0.515128,-0.13857,13,1
-7.7383,12.94,0.790168,37,9
-5.44764,9.11317,-2.06379,14,2
-8.72362,14.5992,1.48792,16,10
-7.44423,12.4631,-2.29927,30,3
-8.94508,14.9817,2.14246,50,11
-7.68015,12.8631,-1.8395,50,4
-9.25809,15.5121,2.86119,15,12
-7.19858,12.0662,-1.22924,42,5
-9.22204,15.464,3.49982,60,13
-7.3265,12.2903,-0.74987,100,6
-9.19508,15.4249,4.14585,92,14
-8.00376,13.4318,-0.272921,26,7
-6.14323,10.3136,3.2166,59,15
-9.30476,15.671,0.318122,54,8
-0.302365,0.509444,-0.13677,13,1
-9.31822,15.6999,0.956806,52,9
-5.40537,9.11092,-2.05921,21,2
-8.04506,13.5656,1.37985,3,10
-5.54736,9.35769,-1.72297,7,3
-9.20097,15.527,2.21607,57,11
-7.6921,12.9808,-1.85266,42,4
-9.19955,15.5308,2.859,37,12
-7.21132,12.1791,-1.23831,30,5
-9.15271,15.4641,3.49295,67,13
-7.34062,12.4074,-0.755522,91,6
-9.11114,15.4,4.131,34,14
-6.22697,10.5334,3.27872,42,15
-9.2365,15.6742,0.317564,67,8
-0.308587,0.523877,-0.140369,13,1
-8.89407,15.0991,0.918391,14,9
-5.36616,9.11357,-2.05578,11,2
-9.19256,15.6183,1.58554,40,10
-5.50828,9.36242,-1.72047,28,3
-8.71068,14.8114,2.1098,27,11
-7.64499,12.9993,-1.85168,48,4
-9.149,15.563,2.85931,52,12
-7.12547,12.1257,-1.23046,55,5
-9.11032,15.5096,3.49638,24,13
-7.24482,12.3386,-0.74987,39,6
-8.05258,13.7143,3.67165,64,14
-7.92058,13.4949,-0.27313,32,7
-6.26826,10.684,3.3191,25,15
-9.18851,15.7117,0.317704,22,8
-0.287178,0.49125,-0.131371,14,1
-9.93686,17.0049,-3.82839,9,2
-8.55585,14.6474,1.48409,32,10
-5.45629,9.34481,-1.7139,60,3
-8.6515,14.8231,2.10736,9,11
-7.5488,12.9338,-1.83876,10,4
-7.03001,12.0546,-1.22088,37,5
-9.26846,15.8993,3.57729,15,13
-7.99234,13.7157,3.6649,100,14
-7.11387,12.213,-0.246707,23,7
-6.20169,10.6513,3.30253,31,15
-8.51793,14.6883,0.296377,8,8
-0.306877,0.52939,-0.141269,13,1
-7.48631,12.9146,0.782318,54,9
-9.87742,17.0463,-3.82954,14,2
-8.55403,14.7684,1.49315,58,10
-5.34381,9.22969,-1.68918,27,3
-16.2357,28.0531,3.97977,13,11
-7.49511,12.9558,-1.83779,22,4
-9.52482,16.4643,3.01262,15,12
-7.04064,12.1751,-1.23046,40,5
-8.01341,13.8629,3.11248,33,13
-7.20347,12.4667,-0.75458,78,6
-7.93865,13.7446,3.66445,73,14
-7.11507,12.3187,-0.248313,24,7
-6.16647,10.6806,3.3046,39,15
-9.1544,15.9071,0.320356,24,8
-0.291515,0.506756,-0.134971,14,1
-5.24499,9.12501,-2.04585,16,2
-8.52824,14.843,1.49768,16,10
-5.21772,9.08122,-1.65883,17,3
-8.76729,15.2653,2.16147,32,11
-6.83637,11.908,-1.68594,45,4
-9.53514,16.6156,3.0342,16,12
-6.92474,12.0717,-1.21757,22,5
-7.95372,13.8655,3.10713,40,13
-7.13229,12.4386,-0.75144,74,6
-9.46775,16.5182,4.39554,19,14
-7.12968,12.4441,-0.250337,86,7
-6.13875,10.7189,3.30978,47,15
-7.16664,12.5543,0.252327,26,8
-0.303266,0.531466,-0.141269,13,1
-7.4306,13.0272,0.785981,24,9
-5.10576,8.95135,-2.00311,21,2
-8.47305,14.8609,1.49664,26,10
-5.19479,9.11482,-1.66165,43,3
-8.63435,15.1561,2.14173,50,11
-5.2584,9.23392,-1.30473,24,4
-7.06583,12.4179,-1.24999,47,5
-7.89944,13.883,3.10484,24,13
-7.08784,12.4617,-0.751335,81,6
-8.67996,15.2671,4.05452,14,14
-7.03877,12.3855,-0.248662,31,7
-6.18432,10.8864,3.35481,10,15
-7.08237,12.5079,0.250896,6,8
-0.280291,0.495211,-0.131371,14,1
-7.42245,13.1191,0.789959,8,9
-6.55256,11.5863,-2.58737,14,2
-5.18467,9.17508,-1.66916,57,3
-7.59112,13.4337,1.89458,33,11
-6.77552,11.9952,-1.69155,33,4
-7.89506,13.9829,2.54331,82,12
-6.9059,12.236,-1.22924,37,5
-7.86587,13.9426,3.11171,18,13
-6.8096,12.0752,-0.726528,97,6
-7.39332,13.1157,3.47594,40,14
-6.90319,12.2462,-0.245381,48,7
-7.0218,12.5076,0.250372,68,8
-0.27466,0.489438,-0.129572,14,1
-6.49095,11.5715,-2.57897,25,2
-5.16034,9.2069,-1.67166,11,3
-7.48168,13.354,1.87947,33,11
-6.75285,12.0581,-1.69691,57,4
-7.85006,14.0173,2.54456,42,12
-6.94296,12.4026,-1.24354,20,5
-7.46916,13.3481,2.97319,4,13
-6.50612,11.6318,-0.698476,26,6
-7.38934,13.2162,3.49574,11,14
-6.9053,12.3505,-0.246986,37,7
-6.08461,10.8871,3.34187,41,15
-6.93357,12.4469,0.248697,61,8
-0.297684,0.534613,-0.141269,13,1
-7.30057,13.1165,0.786714,43,9
-6.45434,11.6009,-2.5805,28,2
-9.14521,16.4442,1.6462,13,10
-6.32605,11.375,-2.06149,49,3
-7.58107,13.6373,1.91579,49,11
-6.23266,11.2163,-1.57553,24,4
-8.77466,15.7974,2.86213,24,12
-6.87351,12.3797,-1.23883,27,5
-10.8538,19.5485,4.34625,26,13
-8.04598,14.5034,3.82912,10,14
-6.95621,12.5442,-0.250372,25,7
-6.18892,11.1651,3.42055,21,15
-8.40445,15.2121,0.303358,19,8
-0.290164,0.525414,-0.13857,13,1
-7.23773,13.1057,0.784621,46,9
-6.42816,11.6446,-2.58546,31,2
-7.20782,13.0623,1.30524,31,10
-6.39603,11.5959,-2.09747,15,3
-7.75099,14.0583,1.97111,89,11
-7.61145,13.8109,2.49763,29,12
-6.88818,12.5037,-1.24894,20,5
-8.95205,16.2568,3.60743,18,13
-6.39982,11.6268,-0.695545,61,6
-14.558,26.4591,6.97213,10,14
-7.2404,13.1593,-0.26217,45,7
-6.10625,11.1026,3.39519,24,15
-8.05502,14.6945,0.292502,48,8
-0.28842,0.526373,-0.13857,13,1
-7.23128,13.2027,0.788912,51,9
-6.40916,11.7066,-2.59424,31,2
-7.6243,13.9376,1.95064,34,11
-6.20378,11.3455,-1.58771,32,4
-7.57267,13.8547,2.50076,40,12
-6.84545,12.5294,-1.24912,27,5
-8.94045,16.3639,3.62461,18,13
-7.66985,14.0442,-0.838631,22,6
-14.4693,26.5055,6.97168,41,14
-6.8496,12.5526,-0.249604,27,7
-6.39721,11.7675,0.233792,66,8
-0.282859,0.520528,-0.13677,13,1
-7.18324,13.2244,0.788703,17,9
-6.18664,11.3896,-2.51944,22,2
-7.38873,13.6084,1.35475,54,10
-6.20388,11.4309,-2.05993,45,3
-7.67499,14.1474,1.97623,29,11
-6.2001,11.4334,-1.59698,58,4
-8.72637,16.0988,2.9003,12,12
-6.56153,12.11,-1.20502,30,5
-7.22222,13.3294,2.94685,22,13
-6.32244,11.6736,-0.695754,52,6
-7.21709,13.331,3.49979,2,14
-6.81525,12.594,-0.249953,31,7
-6.35325,11.7845,0.233688,17,8
-0.290285,0.538667,-0.141269,13,1
-7.27722,13.5096,0.804194,20,9
-6.03037,11.1996,-2.4725,28,2
-7.18867,13.3564,1.32703,23,10
-6.1741,11.4762,-2.064,63,3
-7.79015,14.48,2.01889,48,11
-6.194,11.5179,-1.60575,95,4
-7.55433,14.0534,2.52704,20,12
-6.48055,12.0609,-1.19787,37,5
-6.32023,11.7724,-0.700255,52,6
-14.7225,27.4343,7.18809,10,14
-6.5254,12.1596,-0.240878,41,7
-6.53392,12.1806,3.7037,11,15
-7.66815,14.3491,0.283986,73,8
-0.286472,0.536289,-0.140369,13,1
-7.1792,13.4398,0.798542,73,9
-6.20669,11.6241,-2.56142,19,2
-7.22643,13.5396,1.34272,66,10
-6.1275,11.4854,-2.06181,53,3
-7.65856,14.3613,1.99841,34,11
-6.12839,11.4968,-1.59966,60,4
-7.35469,13.7973,2.47636,29,12
-6.1742,11.5876,-1.14871,28,5
-7.13957,13.405,2.9522,10,13
-6.55129,12.3056,-0.73061,9,6
-12.5558,23.5941,6.17041,8,14
-6.49982,12.2141,-0.241506,41,7
-6.58752,12.3841,3.75857,6,15
-6.47595,12.2155,0.241332,15,8
-0.308417,0.582006,-0.152067,11,1
-6.86206,12.9547,0.768292,47,9
-6.16516,11.644,-2.56104,22,2
-7.1111,13.4362,1.33,69,10
-6.18918,11.6942,-2.0956,42,3
-7.08271,13.3882,1.85973,16,11
-6.06611,11.4714,-1.59332,55,4
-7.36372,13.9312,2.49576,32,12
-6.57583,12.4458,-1.23151,27,5
-8.66158,16.3934,3.604,15,13
-6.26327,11.8593,-0.702872,71,6
-8.66646,16.4166,4.28577,56,14
-6.3349,12.005,-0.236934,34,7
-6.57129,12.4583,3.7741,12,15
-0.302757,0.576179,-0.150267,12,1
-6.7819,12.9067,0.764105,66,9
-5.07485,9.66206,-2.12141,30,2
-6.97944,13.2939,1.31361,74,10
-6.09691,11.6178,-2.07808,22,3
-7.06821,13.4744,1.86826,37,11
-6.07304,11.5822,-1.60575,30,4
-6.91386,13.1857,2.35809,36,12
-6.08501,11.6099,-1.1468,42,5
-7.01172,13.3837,2.93693,4,13
-6.20608,11.851,-0.701093,87,6
-6.5102,12.437,-0.245032,26,7
-6.52815,12.4766,3.77306,2,15
-6.46292,12.394,0.243985,17,8
-0.273823,0.525337,-0.13677,13,1
-6.60484,12.677,0.749137,64,9
-6.57364,12.6225,-2.76635,25,2
-6.94403,13.3394,1.3157,60,10
-4.94008,9.48981,-1.6945,13,3
-7.02257,13.496,1.86801,53,11
-6.27185,12.0584,-1.66888,19,4
-6.86232,13.1993,2.35622,29,12
-6.09131,11.7213,-1.15569,16,5
-6.1557,11.8502,-0.699836,87,6
-6.85816,13.2082,3.4359,38,14
-6.24843,12.039,-0.236759,25,7
-6.49612,12.5216,3.77979,13,15
-7.70997,14.9122,0.293026,13,8
-0.28004,0.541871,-0.140819,13,1
-6.21314,12.0274,0.709466,36,9
-4.9522,9.58649,-2.09737,30,2
-6.9866,13.5305,1.33226,86,10
-6.80067,13.1817,1.82122,44,11
-7.05515,13.6867,2.43881,14,12
-6.27515,12.1735,-1.19822,27,5
-7.07153,13.7243,3.00104,14,13
-6.16917,11.9782,-0.706117,100,6
-7.02341,13.6426,3.54253,36,14
-6.21643,12.0803,-0.237143,100,7
-7.07181,13.7485,4.14266,30,15
-0.279924,0.546313,-0.141719,13,1
-6.17293,12.0526,0.709676,24,9
-4.92855,9.62294,-2.10157,21,2
-6.51508,12.7316,-2.26517,32,3
-7.03937,13.7621,1.89799,37,11
-6.24535,12.215,-1.68448,42,4
-7.02621,13.7482,2.44538,54,12
-5.93341,11.6099,-1.14069,28,5
-7.07181,13.8433,3.02165,33,13
-6.11915,11.9836,-0.705175,100,6
-6.97841,13.6723,3.54388,47,14
-6.03427,11.8276,-0.231768,35,7
-6.98078,13.6887,4.11729,21,15
-6.19869,12.1972,0.238819,37,8
-0.263894,0.519489,-0.134521,14,1
-6.48209,12.7603,0.750079,27,9
-4.90204,9.65409,-2.10462,11,2
-6.84508,13.4866,1.3232,74,10
-6.10507,12.0337,-2.13721,15,3
-7.05144,13.9052,1.91432,45,11
-6.99398,13.7919,-1.89872,31,4
-6.67871,13.1758,2.33963,17,12
-6.13778,12.1139,-1.18811,27,5
-7.0261,13.8732,3.0228,45,13
-6.13592,12.1207,-0.711978,81,6
-6.95063,13.7301,3.55288,51,14
-6.12864,12.1116,-0.236934,27,7
-6.97283,13.7859,4.13955,28,15
-7.20048,14.2855,0.279238,26,8
-0.269184,0.534284,-0.13812,13,1
-6.44333,12.7889,0.750498,64,9
-6.27404,12.4583,-2.7114,33,2
-6.79136,13.4914,1.32146,71,10
-6.79658,13.5135,1.85729,44,11
-6.36756,12.6605,-1.74005,45,4
-6.60481,13.1379,2.329,48,12
-5.87035,11.682,-1.14383,33,5
-6.10106,12.1517,-0.712606,84,6
-6.91993,13.7827,3.56053,27,14
-5.95749,11.8709,-0.231838,91,7
-5.97907,11.9608,0.233408,60,8
-0.255216,0.510768,-0.131821,14,1
-6.26033,12.5344,0.734274,28,9
-6.59411,13.2026,-2.86862,45,2
-6.39951,12.8186,1.25347,44,10
-6.54706,13.1256,1.80099,16,11
-6.87603,13.7912,-1.89214,72,4
-6.60297,13.2493,2.34464,50,12
-6.11418,12.2685,-1.19926,35,5
-6.2183,12.4884,-0.731133,58,6
-6.54963,13.1595,3.39361,15,14
-5.96768,11.9955,-0.233862,100,7
-6.66895,13.411,4.01325,13,15
-6.25781,12.6284,0.246009,61,8
-0.267271,0.539596,-0.13902,13,1
-6.91131,13.9594,0.816336,10,9
-6.39816,12.923,-2.80298,34,2
-6.34766,12.8266,1.25208,79,10
-5.79112,11.7072,-2.06869,15,3
-6.51264,13.1715,1.80415,64,11
-6.32475,12.7972,-1.75273,11,4
-6.72291,13.6088,2.40409,28,12
-6.06779,12.2826,-1.19857,32,5
-6.81577,13.8028,2.99227,42,13
-6.13843,12.4366,-0.726842,74,6
-6.53642,13.2487,3.41071,65,14
-5.94434,12.0539,-0.234595,48,7
-6.65456,13.5,4.03292,6,15
-6.23044,12.6843,0.246672,16,8
-0.27741,0.565015,-0.145318,12,1
-6.51821,13.2818,-2.87587,45,2
-6.79686,13.8557,1.35022,69,10
-6.02417,12.286,-2.16724,78,3
-6.47448,13.2102,1.80635,68,11
-6.06084,12.3717,-1.69155,87,4
-6.02886,12.3173,-1.19979,32,5
-6.73043,13.7507,2.97586,38,13
-6.21172,12.6965,-0.740763,58,6
-6.48842,13.268,3.40981,42,14
-5.92506,12.1213,-0.235503,23,7
-9.55023,19.5462,5.82912,15,15
-6.78487,13.9357,0.270547,43,8
-0.282258,0.579998,-0.148918,12,1
-6.48955,13.341,0.777503,59,9
-6.22261,12.8036,1.24546,27,10
-6.47256,13.3238,1.81878,48,11
-5.98034,12.316,-1.68107,42,4
-6.70106,13.8064,2.43068,42,12
-5.97452,12.315,-1.19752,27,5
-6.57291,13.5544,2.92815,35,13
-5.88376,12.1387,-0.706954,74,6
-6.54681,13.5126,3.4665,87,14
-5.89056,12.1581,-0.235817,38,7
-6.17948,12.8114,0.248278,57,8
-0.266589,0.552943,-0.141719,13,1
-6.24985,12.9689,0.754475,53,9
-5.89031,12.2228,-2.63736,34,2
-6.26435,13.0047,1.26289,55,10
-5.6833,11.8037,-2.07495,30,3
-6.34966,13.1936,1.79782,84,11
-5.89729,12.2591,-1.67034,70,4
-6.4501,13.4143,2.35747,50,12
-6.04241,12.572,-1.22035,30,5
-6.5111,13.5472,2.92167,37,13
-6.24179,12.9927,-0.755417,55,6
-6.63879,13.8252,3.54073,56,14
-5.89961,12.2914,-0.237981,48,7
-6.84304,14.2633,4.23894,42,15
-6.15542,12.8762,0.249116,70,8
-0.256256,0.536287,-0.13722,13,1
-6.20971,13.0014,0.755103,54,9
-5.8294,12.2106,-2.63011,40,2
-6.19605,12.9845,1.2587,90,10
-5.53199,11.5981,-2.03521,38,3
-6.23946,13.0813,1.77954,46,11
-5.89803,12.371,-1.68277,14,4
-6.10326,12.8072,2.24702,11,12
-6.00791,12.6128,-1.22227,10,5
-6.48672,13.6242,2.93312,27,13
-5.95982,12.5231,-0.726842,87,6
-6.4466,13.5521,3.4647,74,14
-6.013,12.6406,-0.244334,31,7
-6.59162,13.8632,4.11315,18,15
-6.12841,12.9355,0.249849,72,8
-0.262722,0.554791,-0.141719,13,1
-6.2452,13.188,0.764733,49,9
-5.69732,12.0365,-2.58852,46,2
-6.1487,12.9959,1.25783,57,10
-5.51377,11.6592,-2.04272,16,3
-6.34223,13.4171,1.82219,48,11
-5.89939,12.4803,-1.69496,61,4
-6.16175,13.0471,-1.26236,2,5
-6.60158,13.9847,3.00601,31,13
-5.93104,12.5699,-0.728412,39,6
-6.00688,12.7364,-0.2458,39,7
-8.4032,17.8254,5.28043,16,15
-6.1263,13.0427,0.251524,60,8
-0.262538,0.559187,-0.142619,13,1
-6.0529,12.8922,0.746415,83,9
-5.30707,11.3088,-2.42824,13,2
-6.14618,13.1028,1.2662,79,10
-6.3853,13.625,1.84754,32,11
-5.62968,12.0126,-1.62891,19,4
-6.53353,13.9476,2.43944,30,12
-5.8067,12.4016,-1.19804,40,5
-6.30301,13.4677,2.89037,25,13
-5.80639,12.4122,-0.718154,100,6
-11.0582,23.6389,6.02509,31,14
-5.94683,12.7182,-0.245067,39,7
-9.19636,19.6768,5.81981,15,15
-0.244748,0.525341,-0.155291,12,0
-6.1058,13.1119,0.252466,53,8
-0.257392,0.552987,-0.140819,13,1
-6.1163,13.1404,0.759604,45,9
-5.58508,12.0046,-2.57363,38,2
-6.04809,13.0057,1.25487,100,10
-5.80685,12.4927,-2.18195,24,3
-6.22885,13.4066,1.81512,60,11
-5.83019,12.5543,-1.69959,7,4
-6.52218,14.0444,2.45258,21,12
-5.74792,12.3828,-1.19438,30,5
-6.20544,13.3746,2.86595,17,13
-5.86687,12.6507,-0.730819,39,6
-7.95878,17.1693,4.369,3,14
-5.855,12.6308,-0.243007,46,7
-9.1668,19.7843,5.84258,21,15
-0.242912,0.526192,-0.155291,12,0
-5.97764,12.9487,0.248941,48,8
-0.263722,0.571532,-0.145318,12,1
-5.9834,12.973,0.748718,51,9
-5.95263,12.9182,1.24441,85,10
-5.43554,11.796,-2.05711,100,3
-6.18269,13.4236,1.81463,56,11
-5.82007,12.6421,-1.70885,15,4
-6.5334,14.1981,2.47542,30,12
-5.72548,12.4481,-1.19874,42,5
-7.10285,15.4427,3.30405,20,13
-6.31294,13.7316,-0.792052,35,6
-6.21095,13.516,3.4341,29,14
-5.8501,12.7366,-0.244648,42,7
-6.10972,13.3079,3.9237,12,15
-5.99645,13.1095,0.251629,79,8
-0.243899,0.533459,-0.135421,13,1
-5.92729,12.9702,0.747358,37,9
-6.00826,13.1535,1.26515,68,10
-5.3648,11.7502,-2.04585,23,3
-6.14404,13.4632,1.81707,52,11
-5.42742,11.8984,-1.60575,56,4
-5.76213,12.6438,-1.21565,47,5
-6.19648,13.5969,2.90449,20,13
-5.63491,12.3704,-0.712397,100,6
-6.1605,13.5305,3.4323,24,14
-5.82797,12.8061,-0.24559,48,7
-6.05443,13.3099,3.918,9,15
-0.239233,0.527875,-0.155291,12,0
-5.99935,13.2378,0.253688,38,8
-0.259726,0.57336,-0.145318,12,1
-6.1975,13.6877,0.787447,23,9
-5.26802,11.6403,-2.48357,27,2
-5.98301,13.2263,1.27003,63,10
-5.66595,12.5312,-2.17819,84,3
-5.96779,13.1988,1.77856,42,11
-5.36624,11.8738,-1.5999,35,4
-8.29718,18.3677,3.1922,17,12
-5.85817,12.9744,-1.24546,42,5
-7.677,17.0106,3.62766,12,13
-5.58214,12.3746,-0.711455,52,6
-6.13089,13.5974,3.44355,9,14
-5.812,12.8901,-0.246812,42,7
-11.0149,24.4409,7.18326,13,15
-0.237389,0.528707,-0.155291,12,0
-5.92541,13.2031,0.252606,68,8
-0.248051,0.552971,-0.13992,13,1
-6.30254,14.05,0.807021,51,9
-5.14061,11.4651,-2.44236,55,2
-5.91806,13.2052,1.26602,82,10
-5.38475,12.0209,-2.08621,63,3
-6.28117,14.0286,1.88727,45,11
-5.32349,11.8952,-1.60014,65,4
-8.22898,18.3875,3.19064,19,12
-5.89582,13.1803,-1.26324,25,5
-5.719,12.797,-0.734588,16,6
-9.24112,20.6878,5.23101,5,14
-5.76779,12.9122,-0.246847,42,7
-5.88103,13.1719,3.8652,12,15
-5.99781,13.484,0.257598,55,8
-0.255716,0.575159,-0.145318,12,1
-6.16668,13.8766,0.795821,54,9
-5.01688,11.2946,-2.40229,31,2
-5.96005,13.4243,1.28502,30,10
-5.20538,11.7245,-2.03177,75,3
-5.83121,13.1403,1.76516,42,11
-5.29529,11.9382,-1.60356,71,4
-5.83363,13.1643,-1.25975,27,5
-6.13444,13.8562,3.49844,24,14
-5.70812,12.8993,-0.246219,42,7
-8.70759,19.6869,5.76804,12,15
-5.87249,13.3273,0.254212,68,8
-0.250565,0.568914,-0.143519,12,1
-6.12786,13.92,0.797077,44,9
-5.01974,11.4028,-2.42175,63,2
-5.96124,13.5479,1.29496,100,10
-5.35609,12.1784,-2.10717,31,3
-5.83005,13.2623,1.77881,42,11
-5.26636,11.9857,-1.60746,37,4
-5.38777,12.2679,-1.17224,30,5
-8.89345,20.2598,4.30084,9,13
-5.97603,13.6202,-0.779492,71,6
-5.71925,13.0474,-0.248662,35,7
-6.46031,14.745,4.31348,7,15
-5.81314,13.3184,0.253653,20,8
-0.243902,0.559069,-0.140819,13,1
-6.15746,14.1207,0.807335,34,9
-4.9901,11.4437,-2.42671,31,2
-5.88446,13.5011,1.28851,52,10
-5.32616,12.226,-2.11218,60,3
-5.78926,13.2954,1.78051,27,11
-5.91391,13.5946,2.34808,42,12
-5.27259,12.1203,-1.15638,47,5
-8.40933,19.3401,4.09934,23,13
-6.0192,13.8498,-0.791424,68,6
-12.1962,28.0762,7.06706,10,14
-5.66173,13.0397,-0.248138,100,7
-5.79277,13.3479,3.89885,10,15
-5.74757,13.2946,0.252816,53,8
-0.24968,0.577805,-0.145318,12,1
-8.14668,18.8529,1.07634,13,9
-4.8139,11.1456,-2.35993,75,2
-5.82624,13.4959,1.28607,16,10
-5.29285,12.2663,-2.11593,23,3
-6.06907,14.0719,1.88166,41,11
-5.19749,12.0568,-1.61209,19,4
-6.04318,14.0186,2.41785,58,12
-5.21606,12.1057,-1.15324,42,5
-12.2051,28.34,5.99789,23,13
-6.52834,15.1659,-0.865323,35,6
-8.16556,18.9785,4.76986,20,14
-5.72277,13.3009,-0.252746,44,7
-6.38728,14.8525,4.33211,51,15
-6.11528,14.2749,0.271071,25,8
-0.24316,0.567881,-0.142619,13,1
-6.19794,14.4818,0.825547,11,9
-5.12089,11.971,-2.53089,33,2
-5.7368,13.4173,1.27666,100,10
-5.25913,12.3001,-2.11875,19,3
-5.75402,13.4641,1.79782,44,11
-5.17151,12.1069,-1.61648,32,4
-5.90268,13.8253,2.38093,46,12
-5.03066,11.7885,-1.12135,59,5
-12.0941,28.3406,5.98949,19,13
-6.12539,14.3608,-0.81822,35,6
-8.37618,19.6472,4.93093,23,14
-5.64104,13.238,-0.251175,34,7
-6.35886,14.9298,4.34816,37,15
-6.05448,14.2704,0.270582,57,8
-0.23509,0.554374,-0.13902,13,1
-6.50667,15.3511,0.873801,11,9
-4.70038,11.0895,-2.34123,35,2
-5.91222,13.9554,1.32599,34,10
-5.76424,13.6193,1.81585,64,11
-4.83301,11.4246,-1.52312,7,4
-5.84208,13.8167,2.37593,51,12
-5.04586,11.9336,-1.13355,49,5
-11.6107,27.473,5.79754,13,13
-5.11075,12.0988,-0.688323,19,6
-8.09304,19.1682,4.8036,34,14
-6.02816,14.2915,4.15612,11,15
-5.98605,14.2472,0.269744,55,8
-0.240698,0.573159,-0.143519,12,1
-5.46437,13.0183,0.739926,10,9
-4.68596,11.1638,-2.35344,32,2
-5.68773,13.5571,1.28624,96,10
-5.72084,13.6427,-2.34308,32,3
-5.70592,13.6137,1.81244,68,11
-4.7885,11.4304,-1.52166,43,4
-5.76177,13.7605,2.36279,52,12
-4.92952,11.7729,-1.11664,47,5
-7.99862,19.112,4.02722,14,13
-5.06772,12.1147,-0.688218,48,6
-5.96487,14.2665,3.56997,18,14
-5.29326,12.6664,-0.239622,28,7
-9.12483,21.8457,6.34365,60,15
-5.33404,12.8205,0.242379,12,8
-0.234207,0.563199,-0.140819,13,1
-5.57685,13.4107,0.761174,15,9
-4.62436,11.1257,-2.34199,20,2
-5.6763,13.6633,1.29444,57,10
-5.73304,13.8067,-2.36779,21,3
-5.71696,13.7748,1.83121,32,11
-4.77035,11.4939,-1.528,73,4
-5.80239,13.9875,2.39845,41,12
-4.99294,12.0421,-1.14052,61,5
-7.93637,19.1506,4.0295,10,13
-6.04729,14.5994,-0.828164,26,6
-9.10636,21.9847,5.49375,56,14
-5.2976,12.8529,0.242658,42,8
-0.233822,0.567576,-0.141719,13,1
-5.53919,13.4458,0.762116,51,9
-4.8386,11.751,-2.47021,34,2
-5.79247,14.0745,1.33157,86,10
-5.70525,13.8695,-2.3753,12,3
-5.81618,14.1461,1.87801,45,11
-5.774,14.0505,2.40596,33,12
-4.9878,12.1434,-1.14854,26,5
-5.73891,13.979,2.93731,4,13
-4.98134,12.1397,-0.687694,48,6
-5.9049,14.3905,3.59112,18,14
-4.97695,12.1351,-0.228941,25,7
-5.86999,14.3196,4.1468,3,15
-5.24739,12.8519,0.242309,31,8
-0.227521,0.557523,-0.13902,13,1
-5.33306,13.0748,0.74003,41,9
-4.77958,11.7179,-2.45991,49,2
-5.73298,14.0623,1.3286,92,10
-4.88548,11.9895,-2.05054,49,3
-5.79619,14.2315,1.88678,28,11
-5.5108,13.5376,-1.79465,80,4
-8.30746,20.4179,3.4913,14,12
-4.86883,11.9725,-1.13076,59,5
-5.88185,14.4635,3.03501,4,13
-4.93203,12.134,-0.686438,87,6
-6.0358,14.8569,3.70224,30,14
-5.17681,12.7489,-0.24018,97,7
-13.8238,34.0609,9.84962,8,15
-5.09758,12.6106,0.237423,85,8
-0.232874,0.576382,-0.143519,12,1
-5.46763,13.5397,0.765256,34,9
-4.78437,11.8536,-2.48471,41,2
-5.68662,14.0961,1.32982,74,10
-4.8356,11.9926,-2.04804,26,3
-5.65443,14.0234,1.85656,20,11
-5.50136,13.6506,-1.80708,58,4
-7.86267,19.5196,3.33299,29,12
-4.72581,11.7381,-1.10705,26,5
-8.15284,20.2604,4.24512,2,13
-4.88306,12.1409,-0.68581,100,6
-7.34562,18.2728,4.54671,21,14
-4.86079,12.0916,-0.227475,28,7
-8.14524,20.2722,5.85397,7,15
-5.21989,13.0507,0.245346,24,8
-0.233653,0.58447,-0.145318,12,1
-5.39809,13.503,0.762116,30,9
-4.78448,11.9742,-2.50647,55,2
-5.64033,14.1233,1.33052,94,10
-4.79737,12.0186,-2.0496,52,3
-7.96718,19.9699,2.63993,25,11
-5.5287,13.8578,-1.83194,38,4
-7.79302,19.5433,3.33237,21,12
-4.70546,11.8063,-1.11193,49,5
-8.07117,20.2614,4.23939,9,13
-4.86946,12.2302,-0.689893,58,6
-5.82524,14.6307,3.63566,40,14
-4.7971,12.0546,-0.226462,20,7
-8.12012,20.4153,5.8871,8,15
-5.16407,13.0363,0.244753,12,8
-0.223105,0.563499,-0.13992,13,1
-5.6665,14.3119,0.806706,71,9
-4.80399,12.1397,-2.53776,41,2
-5.53631,13.9974,1.31692,74,10
-4.76766,12.0602,-2.05398,55,3
-7.9746,20.1827,2.66455,51,11
-4.84735,12.268,-1.61964,17,4
-8.32388,21.0774,3.58923,17,12
-4.87257,12.3445,-1.16109,54,5
-9.6409,24.4373,5.10643,17,13
-4.85012,12.3002,-0.692928,35,6
-5.37566,13.633,3.38326,11,14
-4.79743,12.1728,-0.228382,50,7
-7.10645,18.0408,5.19553,10,15
-5.16828,13.1744,0.247021,38,8
-0.216967,0.55335,-0.13722,13,1
-5.61286,14.3223,0.806183,29,9
-4.91915,12.5522,-2.62057,57,2
-5.49931,14.0398,1.31919,51,10
-4.70603,12.0207,-2.0446,28,3
-8.02264,20.5029,2.70331,39,11
-4.81461,12.3107,-1.62306,13,4
-8.12799,20.7936,3.53605,16,12
-4.54509,11.6276,-1.09224,28,5
-9.56696,24.4874,5.11025,17,13
-4.90229,12.5543,-0.706326,48,6
-13.8083,35.3799,8.76814,12,14
-4.58632,11.7572,-0.220284,32,7
-7.10239,18.2167,5.23902,8,15
-5.10127,13.1383,0.246009,15,8
-0.227725,0.586805,-0.145318,12,1
-5.47977,14.1277,0.794146,112,9
-4.81354,12.41,-2.58737,31,2
-5.46683,14.1016,1.3232,89,10
-4.68189,12.0831,-2.05242,48,3
-8.03633,20.7511,2.73231,67,11
-5.9143,15.2875,2.59619,13,12
-4.49154,11.6099,-1.0891,61,5
-7.57678,19.5949,4.08369,10,13
-4.83324,12.5061,-0.702663,68,6
-12.9235,33.4573,8.28045,12,14
-4.46458,11.5642,-0.216375,30,7
-7.02276,18.1999,5.22711,22,15
-4.8567,12.6389,0.23634,44,8
-0.219387,0.571224,-0.141269,13,1
-5.38604,14.0311,0.787656,46,9
-5.41116,14.1039,1.32163,54,10
-4.63827,12.0957,-2.05179,34,3
-7.69175,20.0691,2.63896,6,11
-4.86064,12.6888,-1.66839,40,4
-5.87997,15.3579,2.60463,31,12
-4.55072,11.886,-1.1135,30,5
-5.2378,13.6878,2.84878,3,13
-5.02929,13.1497,-0.737832,55,6
-5.89294,15.4159,3.81022,72,14
-4.39207,11.4957,-0.214804,53,7
-7.68281,20.1193,5.77063,25,15
-4.87509,12.8203,0.239412,57,8
-0.225699,0.593845,-0.146668,12,1
-5.35051,14.0853,0.789645,46,9
-4.39423,11.5679,-2.40534,49,2
-4.62194,12.1802,-2.06337,42,3
-5.72099,15.0844,1.98086,21,11
-4.92045,12.9805,-1.70446,80,4
-5.84732,15.4337,2.61402,56,12
-4.53955,11.9819,-1.121,40,5
-7.42589,19.6106,4.07606,20,13
-4.98336,13.1672,-0.737832,29,6
-6.91124,18.2901,5.23902,8,15
-4.93119,13.0984,0.244299,41,8
-0.210003,0.558113,-0.13767,13,1
-5.34033,14.2002,0.795088,34,9
-4.38557,11.6614,-2.42175,23,2
-5.7854,15.3918,1.43859,68,10
-4.57597,12.1806,-2.06087,9,3
-5.48533,14.6089,1.91603,24,11
-4.76927,12.7086,-1.66669,57,4
-4.52287,12.0649,-1.12727,57,5
-5.41328,14.44,2.99761,4,13
-7.62285,20.3558,5.01821,53,14
-6.82754,18.2514,5.22142,12,15
-5.38103,14.446,0.269081,49,8
-0.210773,0.566147,-0.13947,13,1
-5.89531,15.8435,0.885943,26,9
-4.31337,11.5983,-2.40534,60,2
-5.80461,15.6165,1.45759,53,10
-4.56019,12.2751,-2.07401,71,3
-5.43153,14.6206,1.91506,4,11
-4.69586,12.647,-1.65645,31,4
-7.74208,20.8624,3.52447,14,12
-4.50429,12.1441,-1.1332,19,5
-5.50226,14.8427,3.07699,11,13
-4.56518,12.3214,-0.688637,52,6
-5.315,14.3529,3.53353,9,14
-4.57276,12.3485,-0.229848,39,7
-6.95623,18.795,5.36998,18,15
-0.200404,0.543804,-0.155291,12,0
-4.73781,12.8631,0.239273,45,8
-0.214083,0.581546,-0.143069,25,1
-5.73992,15.5922,0.870766,31,9
-7.05246,19.1783,1.78774,30,10
-4.51186,12.2761,-2.07151,41,3
-13.4944,36.736,4.80531,15,11
-7.81831,21.2954,3.59299,12,12
-4.73641,12.9079,-1.20292,45,5
-5.67213,15.4664,3.20216,30,13
-4.41835,12.0541,-0.672831,61,6
-5.69523,15.5461,3.82237,35,14
-4.18088,11.4124,-0.212151,35,7
-8.94499,24.4301,6.97103,8,15
-0.198505,0.5445,-0.155291,12,0
-5.44511,14.936,0.277493,16,8
-0.20815,0.571267,-0.140369,13,1
-5.66428,15.554,0.867521,25,9
-4.32361,11.879,-2.45724,47,2
-5.87049,16.1378,1.50239,42,10
-4.37928,12.0385,-2.02896,79,3
-6.14532,16.9025,2.20827,4,11
-4.24745,11.6888,-1.52702,48,4
-7.52746,20.7265,3.49256,32,12
-4.67637,12.8832,-1.19909,27,5
-5.35824,14.7617,3.05256,34,13
-4.23872,11.6838,-0.651373,100,6
-5.19925,14.3393,3.52138,11,14
-4.23503,11.6864,-0.216968,28,7
-6.79787,18.7687,5.34875,7,15
-4.74444,13.1566,0.244124,17,8
-0.204833,0.568323,-0.13947,13,1
-5.62484,15.615,0.869824,13,9
-4.30882,11.9616,-2.47136,36,2
-5.22979,14.5263,1.35074,15,10
-6.78626,18.8702,2.46225,21,11
-4.20998,11.7129,-1.52824,40,4
-7.45107,20.7415,3.49068,38,12
-4.21532,11.7342,-1.09084,54,5
-5.32326,14.8265,3.0621,30,13
-4.19926,11.7023,-0.651583,74,6
-6.74121,18.7965,4.61015,25,14
-4.13754,11.543,-0.214036,53,7
-6.44434,17.9884,5.11996,9,15
-5.37497,15.0697,0.279273,29,8
-0.198922,0.558021,-0.13677,13,1
-5.55487,15.5913,0.867416,9,9
-4.26769,11.9785,-2.47174,42,2
-5.19108,14.5782,1.35388,100,10
-4.30176,12.0874,-2.03208,39,3
-6.0225,16.9319,2.20657,38,11
-4.17439,11.7425,-1.53019,61,4
-6.68553,18.8167,3.16279,8,12
-4.17367,11.747,-1.09067,61,5
-5.36147,15.0984,3.11438,11,13
-4.2686,12.0275,-0.668854,26,6
-6.44038,18.1569,4.44773,3,14
-4.30903,12.1548,-0.225101,23,7
-6.3828,18.0145,5.12099,19,15
-0.192887,0.546515,-0.155291,12,0
-4.4549,12.6293,0.233758,53,8
-0.199565,0.566064,-0.13857,13,1
-5.50248,15.6077,0.867312,36,9
-5.11633,14.5286,1.3476,75,10
-4.2602,12.1042,-2.0324,37,3
-5.95151,16.9191,2.20218,28,11
-4.13008,11.7476,-1.52897,52,4
-5.10572,14.5227,2.43819,13,12
-4.14123,11.7859,-1.09293,57,5
-5.30158,15.0967,3.11019,23,13
-4.51493,12.871,-0.238086,33,7
-6.32686,18.0465,5.1241,13,15
-0.190979,0.547185,-0.155291,12,0
-4.41234,12.6421,0.233723,61,8
-0.19897,0.570403,-0.13947,13,1
-5.421,15.5495,0.86302,24,9
-3.64781,10.4692,-2.155,33,2
-5.03611,14.4617,1.33976,60,10
-5.83599,16.7681,2.18,50,11
-4.11132,11.8194,-1.53653,61,4
-6.51123,18.7293,3.14058,19,12
-3.55927,10.2438,-0.948777,94,5
-5.36489,15.4406,3.17735,8,13
-4.23316,12.1902,-0.676285,39,6
-6.31153,18.1855,4.44413,42,14
-4.43393,12.7828,-0.236166,27,7
-9.03096,26.0504,7.38773,4,15
-0.166463,0.482078,-0.136656,14,0
-4.29968,12.4589,0.230058,13,8
-0.194436,0.563725,-0.13767,13,1
-4.47626,12.9853,0.719829,26,9
-3.63034,10.5313,-2.1653,28,2
-6.45742,18.7431,1.7344,17,10
-5.75998,16.7377,2.17342,18,11
-3.50059,10.178,-1.32155,17,4
-6.44068,18.737,3.13808,13,12
-3.5324,10.2763,-0.950695,40,5
-5.03285,14.6497,3.01097,10,13
-4.56055,13.2975,-0.245381,35,7
-9.91213,28.918,8.1911,6,15
-0.18725,0.548473,-0.155291,12,0
-0.200015,0.586533,-0.143069,12,1
-4.41738,12.9611,0.717631,21,9
-3.76583,11.0494,-2.2691,26,2
-6.24614,18.3374,1.69483,38,10
-3.95517,11.6182,-1.94385,21,3
-5.70217,16.7596,2.17366,27,11
-3.47271,10.2127,-1.32448,6,4
-5.79175,17.0424,2.85086,15,12
-4.02926,11.8562,-1.09555,57,5
-5.30117,15.6078,3.20407,9,13
-4.08118,12.0228,-0.665399,71,6
-5.94839,17.5334,4.27452,12,14
-4.23029,12.4763,-0.229953,36,7
-8.76205,25.8567,7.31526,4,15
-0.169272,0.501532,-0.141833,14,0
-0.192986,0.572455,-0.13947,13,1
-4.25605,12.632,0.69858,7,9
-3.66017,10.8634,-2.22827,19,2
-6.09243,18.0929,1.67025,31,10
-3.88183,11.5346,-1.92759,72,3
-6.27709,18.6628,2.41764,46,11
-3.44463,10.2473,-1.3274,42,4
-5.7341,17.0681,2.8518,11,12
-4.06526,12.1006,-1.11681,28,5
-5.06418,15.0827,3.09263,4,13
-4.04491,12.054,-0.666341,52,6
-6.22733,18.5684,4.52152,16,14
-4.1829,12.4796,-0.229743,63,7
-5.81042,17.3454,4.90152,4,15
-0.16752,0.50212,-0.141833,14,0
-5.52512,16.5705,0.304894,28,8
-0.195915,0.587915,-0.143069,12,1
-4.20246,12.6183,0.69701,34,9
-3.68984,11.0792,-2.26986,23,2
-6.06889,18.2331,1.68123,28,10
-3.84342,11.5537,-1.92852,68,3
-6.19939,18.6469,2.41277,36,11
-3.45454,10.3968,-1.34519,16,4
-4.94363,14.8871,2.48449,25,12
-3.46855,10.4451,-0.962897,20,5
-4.93235,14.8618,3.04379,0,13
-4.11347,12.4017,-0.684764,39,6
-8.65322,26.1038,6.34902,35,14
-3.99027,12.0443,-0.221471,46,7
-5.75166,17.3711,4.90307,6,15
-0.181496,0.550403,-0.155291,12,0
-4.11091,12.4741,0.229255,25,8
-0.191424,0.581192,-0.141269,13,1
-4.16122,12.6341,0.697115,48,9
-3.4185,10.3852,-2.12523,23,2
-6.14218,18.6706,1.71958,77,10
-3.81787,11.6121,-1.93603,77,3
-6.14107,18.6892,2.41545,41,11
-3.37976,10.2856,-1.32935,33,4
-4.91333,14.9616,2.49419,59,12
-5.24023,15.9758,3.26818,12,13
-3.9899,12.1711,-0.671261,26,6
-6.06862,18.5122,4.49767,20,14
-4.0082,12.2342,-0.224717,64,7
-9.50406,29.0262,8.18386,6,15
-0.156911,0.481209,-0.135621,15,0
-4.09741,12.5732,0.230826,16,8
-0.188288,0.578118,-0.140369,13,1
-4.12672,12.6706,0.698371,43,9
-5.4947,16.8909,1.55399,100,10
-3.81965,11.7487,-1.95668,53,3
-5.2994,16.3099,2.10566,36,11
-3.38183,10.4082,-1.34373,15,4
-4.8521,14.9421,2.48825,30,12
-3.37401,10.3965,-0.956273,74,5
-4.97947,15.3526,3.13728,17,13
-3.95075,12.1881,-0.67147,45,6
-8.25036,25.4524,6.17716,41,14
-3.99103,12.3197,-0.226044,33,7
-7.5024,23.1725,6.52638,39,15
-0.148201,0.459662,-0.12941,15,0
-4.05508,12.5848,0.230791,13,8
-0.18876,0.586159,-0.142169,26,1
-6.10473,18.9685,1.04431,50,9
-3.53765,11.0053,-1.83091,57,3
-4.79538,14.9269,1.92505,45,11
-3.32969,10.3708,-1.33739,35,4
-5.14212,16.0254,2.66564,11,12
-4.56002,14.2113,-1.30577,21,5
-4.90395,15.2924,3.12164,10,13
-4.42721,13.814,-0.760232,45,6
-7.47312,23.332,5.65617,27,14
-4.05956,12.6821,-0.232431,100,7
-7.41499,23.1784,6.52069,21,15
-0.158323,0.496991,-0.139762,14,0
-4.01173,12.6008,0.230826,32,8
-0.181985,0.571958,-0.13857,13,1
-4.11503,12.9409,0.711664,48,9
-3.53749,11.1246,-2.2691,21,2
-5.38624,16.9488,1.5559,29,10
-3.82151,12.0323,-1.99955,63,3
-4.72042,14.8716,1.91579,4,11
-3.82588,12.0607,-1.55359,65,4
-4.75961,15.0133,2.4945,19,12
-3.90045,12.3032,-1.12919,49,5
-4.96558,15.6725,3.19567,21,13
-7.37458,23.304,5.64312,92,14
-4.05628,12.8258,-0.234805,46,7
-9.04107,28.6049,8.0384,17,15
-0.173986,0.552823,-0.155291,12,0
-3.97793,12.6471,0.231419,32,8
-0.185832,0.59118,-0.143069,12,1
-4.10264,13.0516,0.717003,46,9
-3.37095,10.7305,-2.18629,42,2
-5.27573,16.804,1.54091,3,10
-4.73396,15.0876,-2.50452,18,3
-5.06228,16.1439,2.07739,58,11
-3.77486,12.0456,-1.54993,42,4
-4.69562,14.9837,2.487,5,12
-3.86939,12.3548,-1.13268,28,5
-4.89853,15.6504,3.18766,31,13
-3.67657,11.7535,-0.645407,16,6
-5.02725,16.0813,3.88985,28,14
-3.85501,12.3315,-0.22552,100,7
-4.75047,15.2052,4.26844,5,15
-0.160585,0.516532,-0.144939,14,0
-4.91669,15.8148,0.289082,26,8
-0.18387,0.591793,-0.143069,12,1
-4.05172,13.0487,0.716061,17,9
-3.16531,10.2003,-2.076,76,2
-5.25362,16.9403,1.55172,6,10
-4.00458,12.9128,-2.14128,33,3
-5.01282,16.1738,2.07909,36,11
-3.71844,12.0049,-1.54311,61,4
-4.58254,14.8038,2.45446,16,12
-3.18677,10.3011,-0.943374,10,5
-4.87793,15.7678,3.20826,45,13
-3.64642,11.7942,-0.646977,6,6
-4.9716,16.0905,3.88805,42,14
-3.8379,12.429,-0.227056,44,7
-4.65692,15.0907,4.23169,10,15
-0.155467,0.505982,-0.141833,14,0
-4.01091,13.062,0.238505,8,8
-0.177229,0.577527,-0.13947,13,1
-3.07621,10.0305,-2.03937,28,2
-5.33171,17.3958,1.59181,6,10
-3.21665,10.5015,-1.73955,12,3
-7.23986,23.651,3.03698,8,11
-3.66606,11.9837,-1.53872,36,4
-4.53315,14.8272,2.45571,42,12
-4.62093,15.1238,3.07393,20,13
-3.60464,11.805,-0.646872,35,6
-4.89607,16.0443,3.87276,10,14
-3.756,12.316,-0.224752,43,7
-4.57943,15.0255,4.20892,18,15
-0.148005,0.488061,-0.136656,14,0
-3.95484,13.0415,0.237876,68,8
-0.175212,0.578143,-0.13947,13,1
-3.86211,12.7517,0.698266,18,9
-3.54676,11.7178,-2.37977,60,2
-5.24599,17.3427,1.58519,3,10
-3.17185,10.4924,-1.73611,27,3
-7.14002,23.6191,3.02967,42,11
-3.63053,12.0173,-1.5414,70,4
-4.49849,14.8997,2.46509,10,12
-3.09578,10.2602,-0.937621,16,5
-4.5564,15.1106,3.06783,21,13
-3.55962,11.8124,-0.646558,65,6
-4.76361,15.8177,3.81382,37,14
-3.76372,12.4976,-0.227824,29,7
-4.54032,15.0858,4.22134,30,15
-0.166251,0.555198,-0.155291,12,0
-3.92536,13.1172,0.238993,34,8
-0.169742,0.567579,-0.13677,27,1
-3.82272,12.7823,0.699208,27,9
-3.49346,11.6888,-2.37137,57,2
-7.07906,23.7009,2.16408,82,10
-3.10752,10.4107,-1.72078,23,3
-4.86872,16.3214,2.09128,76,11
-3.09306,10.3755,-1.32935,19,4
-4.44533,14.9115,2.46447,5,12
-3.05312,10.248,-0.93553,38,5
-4.50083,15.117,3.06592,8,13
-3.52406,11.8439,-0.647605,94,6
-4.50524,15.1608,4.2379,10,15
-0.164312,0.555775,-0.155291,12,0
-4.06893,13.7629,0.250512,57,8
-0.175589,0.594303,-0.143069,12,1
-3.83295,12.9814,0.709362,35,9
-3.4443,11.6727,-2.36565,50,2
-5.39134,18.2828,1.66764,38,10
-3.08695,10.4683,-1.7286,41,3
-4.8213,16.3603,2.0942,36,11
-3.1007,10.5285,-1.34763,13,4
-3.03138,10.3064,-0.939888,34,5
-4.6152,15.6912,3.17926,7,13
-7.28611,24.804,5.9684,15,14
-3.53838,12.0535,-0.219272,57,7
-8.34444,28.4436,7.94264,5,15
-0.162468,0.556317,-0.155291,12,0
-3.79509,13.0035,0.236445,12,8
-0.175696,0.602395,-0.144868,12,1
-3.76415,12.9058,0.704547,21,9
-3.43744,11.7933,-2.38778,76,2
-5.5179,18.9434,1.72621,17,10
-3.21878,11.0575,-1.82403,53,3
-4.93828,16.9755,2.17074,9,11
-3.03068,10.4249,-1.33301,72,4
-4.33104,14.8978,2.45727,28,12
-3.40329,11.7295,-0.640069,19,6
-7.21359,24.8779,5.9801,30,14
