x, y, z, intensity, ring
0.668907,0.0274509,-0.130132,27,2
12.9377,0.528677,1.13285,47,10
6.46598,0.263093,-1.02496,57,3
13.077,0.529801,1.60697,100,11
7.4321,0.299801,-0.913289,45,4
12.9579,0.520447,2.05398,45,12
7.98305,0.320634,-0.698989,37,5
20.6154,0.8244,4.01042,22,13
8.93265,0.355648,-0.468512,61,6
20.7378,0.822047,4.79146,20,14
10.5742,0.417311,-0.184716,35,7
18.9021,0.742663,5.06871,6,15
10.4969,0.397749,0.183355,41,8
0.531628,0.0200514,-0.122823,15,1
11.6578,0.437658,0.611389,63,9
0.672927,0.0251458,-0.130895,27,2
12.6349,0.472139,1.10618,52,10
6.48068,0.241034,-1.02715,41,3
7.54022,0.277809,-0.926451,41,4
12.9182,0.473688,2.04741,60,12
8.06182,0.294205,-0.705787,31,5
20.6438,0.749767,4.01538,20,13
9.13549,0.330194,-0.479083,79,6
18.166,0.656593,4.19669,15,14
18.8119,0.673374,5.04387,19,15
12.0211,0.411387,0.209952,48,8
0.531698,0.0181028,-0.122823,15,1
11.6853,0.395809,0.612749,42,9
0.684787,0.0230758,-0.133185,26,2
6.4756,0.217082,-1.02621,46,3
18.7269,0.62451,2.30065,53,11
7.61658,0.252666,-0.935713,45,4
12.904,0.425819,2.04491,70,12
7.99116,0.262303,-0.699512,27,5
20.6405,0.673891,4.01424,22,13
9.06278,0.294312,-0.475211,100,6
20.5951,0.668822,4.75726,37,14
9.11386,0.294378,-0.159166,16,7
18.7776,0.603228,5.03403,19,15
11.9426,0.364878,0.208556,50,8
0.531761,0.0161541,-0.122823,15,1
11.7025,0.355505,0.613587,112,9
0.692713,0.0209225,-0.134711,25,2
6.4882,0.193701,-1.02809,53,3
18.7548,0.556638,2.30382,24,11
7.63726,0.226672,-0.93815,51,4
12.9291,0.381469,2.04867,39,12
8.02787,0.23546,-0.70265,32,5
17.2144,0.501897,3.34755,15,13
20.6246,0.597713,4.76356,33,14
10.55,0.303903,-0.184228,31,7
18.8375,0.539349,5.04956,6,15
12.0117,0.327127,0.209743,66,8
0.531811,0.0143904,-0.122823,15,1
11.6917,0.316368,0.612959,41,9
0.704554,0.0189417,-0.137001,24,2
12.1811,0.325358,1.06609,67,10
6.49473,0.17234,-1.02903,50,3
19.0384,0.501865,2.33843,25,11
7.72528,0.203644,-0.948875,50,4
12.9244,0.33844,2.04773,25,12
7.94495,0.20666,-0.695328,20,5
17.1492,0.44308,3.33458,33,13
20.6849,0.530819,4.77706,20,14
10.567,0.269326,-0.184507,100,7
20.5058,0.519062,5.49628,23,15
0.555235,0.013182,-0.128222,14,1
11.6747,0.275134,0.612017,85,9
0.70069,0.0163902,-0.136238,25,2
11.8654,0.27755,1.03837,89,10
6.45379,0.14984,-1.02246,57,3
13.5705,0.312701,1.66669,52,11
7.68427,0.175721,-0.943756,61,4
12.967,0.294267,2.0543,49,12
7.79424,0.175518,-0.682081,16,5
14.3458,0.320541,2.78925,31,13
16.6869,0.369943,3.85341,31,14
10.4239,0.229275,-0.181994,30,7
20.4979,0.447264,5.49369,17,15
0.531899,0.0106774,-0.122823,15,1
11.7855,0.234525,0.617774,37,9
0.69682,0.0137447,-0.135474,25,2
12.0217,0.237127,1.05197,60,10
6.5017,0.12711,-1.02996,51,3
12.9443,0.250805,1.58966,83,11
7.62333,0.146376,-0.9362,51,4
13.0233,0.247787,2.06306,67,12
7.9781,0.150402,-0.698117,27,5
14.0898,0.263159,2.73925,7,13
8.78644,0.162573,-0.460556,47,6
16.6686,0.308415,3.84891,31,14
10.3347,0.189416,-0.180423,100,7
18.649,0.338545,4.9978,9,15
12.0365,0.199594,0.210127,31,8
0.529986,0.00869592,-0.122373,15,1
11.7403,0.190584,0.615366,105,9
0.698826,0.0113442,-0.135856,25,2
12.0265,0.19313,1.05232,11,10
6.52977,0.10372,-1.03434,48,3
13.6438,0.214332,1.67546,45,11
7.56626,0.117542,-0.929132,61,4
13.0142,0.199898,2.06149,85,12
7.93475,0.121877,-0.694283,13,5
14.3105,0.21731,2.782,15,13
16.2643,0.241302,3.75533,57,14
10.4113,0.152647,-0.181749,72,7
20.914,0.302994,5.60447,6,15
12.2531,0.160402,0.213897,100,8
0.549499,0.00709767,-0.126872,15,1
11.7549,0.149776,0.616099,62,9
0.718493,0.00915475,-0.139672,23,2
6.53602,0.0810008,-1.03528,56,3
12.9736,0.158511,1.59308,18,11
7.51898,0.0905542,-0.923282,63,4
12.9615,0.153845,2.05305,81,12
7.80762,0.0926713,-0.683127,10,5
16.3273,0.190936,3.17392,11,13
16.3235,0.185194,3.76883,27,14
10.3878,0.116038,-0.181331,72,7
21.3766,0.23506,5.72818,10,15
12.2456,0.117555,0.213757,77,8
0.54952,0.00517938,-0.126872,15,1
11.8752,0.109849,0.622379,49,9
0.714594,0.00661018,-0.138909,36,2
13.2947,0.120665,1.16318,30,10
6.52046,0.0580429,-1.03278,43,3
18.016,0.157219,2.21217,23,11
7.56293,0.0646826,-0.928644,43,4
13.0805,0.109589,2.07182,42,12
8.87154,0.0712294,-0.464953,100,6
16.4371,0.129104,3.79492,52,14
10.0542,0.0772104,-0.175501,53,7
20.761,0.155819,5.56306,13,15
12.2439,0.0747939,0.213722,62,8
0.553433,0.00328414,-0.127772,14,1
12.0892,0.0696348,0.633579,58,9
0.694981,0.00388152,-0.135093,25,2
13.7274,0.0742726,1.20101,26,10
6.57396,0.0344246,-1.04123,48,3
18.7073,0.0979605,2.29699,4,11
7.44996,0.0377079,-0.914751,58,4
12.98,0.0634331,2.05586,56,12
8.84611,0.041691,-0.773943,19,5
16.8328,0.0763857,3.27199,21,13
8.98758,0.0392163,-0.471024,43,6
16.5213,0.0692132,3.81427,30,14
8.95856,0.0375304,-0.156374,8,7
19.3106,0.0775194,5.17431,1,15
9.92646,0.0242565,0.173267,13,8
0.580723,0.00131772,-0.134071,14,1
11.9216,0.024965,0.624787,72,9
0.693027,0.00145127,-0.134711,25,2
13.5602,0.0260362,1.18636,55,10
6.59775,0.0115166,-1.04498,48,3
13.2128,0.020751,1.62232,39,11
7.48776,0.0104565,-0.919382,52,4
13.0157,0.0159047,2.06149,49,12
7.63085,0.00798919,-0.667613,6,5
16.7839,0.017572,3.26245,34,13
17.0378,0.0118991,3.93349,21,14
9.58454,0.00501647,-0.167299,69,7
18.3487,0.00641007,4.91653,6,15
16.5715,-0.0173536,0.289256,43,8
0.553442,-0.000676157,-0.127772,14,1
12.0075,-0.0167657,0.629288,55,9
0.693028,-0.00108861,-0.134711,25,2
13.608,-0.0237505,1.19055,65,10
6.60367,-0.0126782,-1.04592,45,3
13.1671,-0.025279,1.61672,76,11
7.54532,-0.0158029,-0.926451,47,4
13.0276,-0.0295587,2.06337,67,12
7.57903,-0.0185191,-0.663081,5,5
16.5718,-0.0433849,3.22124,14,13
9.04555,-0.02526,-0.474059,97,6
17.0202,-0.0505002,3.92945,39,14
12.74,-0.0378005,-0.222379,75,7
18.2192,-0.0572375,4.88184,15,15
12.11,-0.054954,0.211384,8,8
0.530051,-0.00249783,-0.122373,15,1
11.9295,-0.0582989,0.625205,65,9
0.726395,-0.00354987,-0.141199,23,2
11.5557,-0.0584892,1.01101,44,10
6.6273,-0.0347008,-1.04968,45,3
13.2582,-0.0717347,1.62793,82,11
7.30106,-0.0407772,-0.896471,51,4
13.0037,-0.0748967,2.05962,49,12
16.5656,-0.0983037,3.22009,36,13
8.87366,-0.0542068,-0.465057,68,6
18.3548,-0.115328,4.23763,33,14
9.46036,-0.0610932,-0.165135,69,7
18.1049,-0.120078,4.8513,16,15
12.0018,-0.0963586,0.209499,62,8
0.53004,-0.00434804,-0.122373,15,1
11.5917,-0.0971126,0.607516,46,9
0.7146,-0.00598676,-0.138909,36,2
11.8423,-0.101279,1.03611,23,10
6.65479,-0.0580755,-1.05406,45,3
13.2381,-0.117837,1.62549,71,11
7.1778,-0.0651454,-0.881359,37,4
13.0132,-0.120379,2.06118,67,12
16.6751,-0.157164,3.24146,7,13
8.89938,-0.0854305,-0.466418,97,6
15.9809,-0.156199,3.68965,61,14
9.03218,-0.0898585,-0.157665,33,7
18.2686,-0.184938,4.8953,12,15
9.50592,-0.109505,0.165937,58,8
0.530021,-0.00619819,-0.122373,15,1
11.5533,-0.137124,0.605527,58,9
0.696906,-0.00827144,-0.135474,25,2
11.8479,-0.142688,1.03663,29,10
6.71183,-0.0820046,-1.06313,48,3
7.3264,-0.0920711,-0.89964,42,4
13.0562,-0.166357,2.06806,20,12
7.30948,-0.0931345,-0.639549,13,5
16.7098,-0.215827,3.24833,9,13
8.9809,-0.117566,-0.47071,76,6
16.1419,-0.214127,3.72699,50,14
12.7689,-0.171612,-0.222902,56,7
18.1365,-0.246917,4.8601,9,15
15.3839,-0.230927,0.268558,16,8
0.561173,-0.0085217,-0.129572,14,1
11.5508,-0.177421,0.605422,51,9
0.692947,-0.0106437,-0.134711,25,2
11.8493,-0.184075,1.0368,68,10
6.72533,-0.10565,-1.06532,38,3
15.9998,-0.254138,1.96478,25,11
7.25458,-0.116497,-0.890865,47,4
14.8707,-0.241395,2.35559,12,12
7.35892,-0.119457,-0.643907,10,5
16.76,-0.274991,3.25825,18,13
16.2268,-0.271909,3.74678,32,14
9.45321,-0.160055,-0.16503,100,7
18.7015,-0.319905,5.01177,19,15
11.6642,-0.215819,0.203635,11,8
0.568933,-0.0106261,-0.131371,14,1
13.9024,-0.262086,0.728726,14,9
0.708609,-0.0133585,-0.137764,24,2
11.6952,-0.222517,1.02338,14,10
6.77034,-0.129997,-1.07251,53,3
21.3834,-0.414315,2.62604,25,11
7.27397,-0.142207,-0.893302,57,4
13.8814,-0.276231,2.6988,10,13
8.85806,-0.177816,-0.464325,65,6
16.1712,-0.327444,3.73419,50,14
8.65688,-0.176801,-0.151138,24,7
18.6017,-0.383154,4.98537,13,15
11.5614,-0.25429,0.201855,21,8
0.557203,-0.0123528,-0.128672,14,1
11.5752,-0.258636,0.606783,30,9
0.696779,-0.0156904,-0.135474,25,2
6.7876,-0.155217,-1.07533,60,3
21.3778,-0.488864,2.62555,12,11
7.34885,-0.169335,-0.902564,55,4
13.5711,-0.315082,2.15004,15,12
13.6624,-0.321973,2.65644,17,13
8.7615,-0.208006,-0.4593,100,6
16.1037,-0.385129,3.71889,25,14
9.48584,-0.226859,-0.165623,43,7
18.888,-0.455016,5.0625,16,15
11.8183,-0.303281,0.206357,16,8
0.553258,-0.0142943,-0.127772,14,1
11.7199,-0.304851,0.614424,34,9
0.708495,-0.0184289,-0.137764,24,2
11.5937,-0.303592,1.01467,31,10
6.80281,-0.179326,-1.07783,47,3
13.8888,-0.368542,1.70593,23,11
7.26483,-0.194043,-0.892327,41,4
13.5561,-0.364449,2.14785,36,12
7.25765,-0.195119,-0.635191,13,5
13.7436,-0.371892,2.67247,49,13
8.73277,-0.237827,-0.457835,87,6
16.1334,-0.442193,3.72609,42,14
9.18311,-0.253299,-0.160353,59,7
18.8669,-0.523705,5.05732,14,15
9.90828,-0.288878,0.173023,11,8
0.549309,-0.0161112,-0.126872,15,1
11.3794,-0.335746,0.59663,41,9
0.700577,-0.0206703,-0.136238,25,2
11.3855,-0.337913,0.996539,55,10
6.73501,-0.201067,-1.0672,93,3
11.6929,-0.351122,1.43635,37,11
6.98236,-0.210891,-0.857717,19,4
13.5014,-0.410146,2.1394,32,12
13.7266,-0.419384,2.66942,41,13
8.67999,-0.266714,-0.455114,100,6
16.1473,-0.498988,3.72969,12,14
8.92033,-0.277216,-0.15578,67,7
18.9673,-0.592758,5.08476,6,15
9.61541,-0.313936,0.167927,10,8
0.560935,-0.0184121,-0.129572,14,1
11.0867,-0.365848,0.581348,9,9
0.714236,-0.0235689,-0.138909,24,2
11.3504,-0.376531,0.993575,34,10
6.61186,-0.220493,-1.0478,52,3
11.7233,-0.393,1.44025,47,11
6.93198,-0.233591,-0.851623,45,4
13.0498,-0.442026,2.06806,30,12
7.03508,-0.238294,-0.615842,11,5
13.7289,-0.46743,2.67018,33,13
17.7951,-0.61209,4.11076,2,14
7.91207,-0.27353,-0.138188,31,7
18.6176,-0.646888,4.99158,3,15
11.6406,-0.420739,0.203321,31,8
0.529708,-0.0192384,-0.122373,15,1
0.716111,-0.0261335,-0.139291,24,2
6.58736,-0.242699,-1.04404,52,3
11.6525,-0.431349,1.43172,37,11
7.24058,-0.269296,-0.889646,37,4
13.0126,-0.486247,2.06243,47,12
7.46426,-0.27892,-0.653494,31,5
13.6762,-0.513435,2.66026,28,13
13.5379,-0.512976,3.12772,68,14
12.3532,-0.470243,-0.215782,9,7
18.5979,-0.711207,4.98693,17,15
9.19138,-0.364344,0.160562,12,8
0.547163,-0.021785,-0.126422,15,1
11.0699,-0.44268,0.580615,40,9
0.717977,-0.0287114,-0.139672,23,2
11.4072,-0.45816,0.998805,87,10
6.56082,-0.264657,-1.03998,66,3
11.4565,-0.464146,1.40783,22,11
7.01745,-0.28553,-0.862348,18,4
13.0227,-0.532151,2.06431,50,12
7.22435,-0.295212,-0.632576,12,5
13.5821,-0.557387,2.64232,30,13
8.86031,-0.365161,-0.464743,90,6
8.91095,-0.370363,-0.155675,41,7
21.5793,-0.900668,5.78719,10,15
10.9222,-0.471143,0.190825,50,8
0.531508,-0.0230202,-0.122823,15,1
11.661,-0.50709,0.611703,33,9
0.725718,-0.0315586,-0.141199,23,2
11.3956,-0.497541,0.997933,31,10
6.63287,-0.290757,-1.05155,53,3
11.435,-0.503261,1.4054,35,11
6.71497,-0.296705,-0.825299,45,4
13.1135,-0.58172,2.07901,30,12
7.22129,-0.320339,-0.632402,6,5
13.6291,-0.606978,2.65186,45,13
8.91285,-0.398495,-0.467569,94,6
13.7754,-0.618311,3.18351,18,14
20.0226,-0.902219,-0.349851,58,7
21.4545,-0.970489,5.75458,7,15
0.531424,-0.0248754,-0.122823,15,1
11.6511,-0.547416,0.611284,112,9
0.717759,-0.0337231,-0.139672,23,2
12.0883,-0.570072,1.05877,74,10
6.65944,-0.315216,-1.05593,55,3
11.3975,-0.541478,1.40101,35,11
6.68812,-0.318913,-0.822131,28,4
13.3047,-0.636745,2.10968,49,12
7.15638,-0.343746,-0.626824,7,5
13.7877,-0.662273,2.68316,28,13
8.81964,-0.425181,-0.462755,100,6
13.5922,-0.657634,3.14167,25,14
13.0367,-0.633037,-0.227824,46,7
19.56,-0.95322,5.2473,3,15
0.55469,-0.0279052,-0.128222,14,1
11.1305,-0.561901,0.584069,48,9
0.721552,-0.0365523,-0.140435,23,2
11.3818,-0.578567,0.997062,44,10
6.75885,-0.344754,-1.07189,60,3
15.4834,-0.789776,1.9036,45,11
6.76032,-0.346012,-0.831149,37,4
13.2196,-0.678928,2.09653,33,12
6.97208,-0.359291,-0.610787,13,5
13.8735,-0.717365,2.70033,35,13
8.93969,-0.463816,-0.46914,100,6
16.3298,-0.850091,3.77513,27,14
8.87064,-0.461785,-0.155047,50,7
18.4935,-0.965968,4.96208,26,15
11.0064,-0.592232,0.192395,33,8
0.558475,-0.0301482,-0.129122,14,1
10.9908,-0.59524,0.576847,144,9
0.709658,-0.0384337,-0.138146,24,2
11.3777,-0.618185,0.996887,44,10
6.7655,-0.368775,-1.07314,68,3
12.1485,-0.664318,1.49387,38,11
6.74909,-0.370243,-0.82993,38,4
15.9389,-0.877171,2.52829,16,12
7.03842,-0.387348,-0.616714,10,5
8.52921,-0.472377,-0.447682,100,6
16.5991,-0.922222,3.83811,34,14
13.2554,-0.738772,-0.231733,73,7
10.9603,-0.628131,0.191627,75,8
0.531129,-0.0305317,-0.122823,15,1
10.7873,-0.621989,0.566275,108,9
0.7154,-0.0412497,-0.139291,24,2
11.3238,-0.654906,0.992355,91,10
6.81939,-0.395592,-1.0819,51,3
12.0807,-0.702915,1.48583,91,11
6.7755,-0.395419,-0.833343,45,4
7.18024,-0.420297,-0.629264,6,5
13.3527,-0.78394,2.59996,24,13
8.42183,-0.495924,-0.442134,47,6
16.6055,-0.980732,3.84036,49,14
12.8076,-0.758668,-0.223949,100,7
16.9704,-1.00823,4.55522,5,15
11.0379,-0.671241,0.193024,53,8
0.531019,-0.0323855,-0.122823,15,1
10.829,-0.660432,0.568578,44,9
0.715251,-0.0437466,-0.139291,24,2
14.1731,-0.869348,1.24232,34,10
6.64052,-0.408478,-1.05374,81,3
13.9089,-0.858015,1.71105,31,11
6.77408,-0.419068,-0.833343,52,4
13.4602,-0.832691,2.13596,34,12
20.0943,-1.25014,3.91349,13,13
8.69912,-0.54273,-0.456788,39,6
16.4347,-1.02823,3.80167,45,14
12.5615,-0.785902,-0.219691,75,7
16.9746,-1.06498,4.55729,16,15
11.2512,-0.721664,0.196793,55,8
0.530909,-0.0341463,-0.122823,15,1
10.8884,-0.702213,0.571823,47,9
0.717053,-0.0463698,-0.139672,23,2
14.1322,-0.916367,1.23901,28,10
6.70023,-0.434459,-1.06344,60,3
14.2328,-0.925385,1.75126,31,11
6.75879,-0.440625,-0.831636,14,4
13.4434,-0.878769,2.13377,32,12
16.219,-1.06305,3.15942,17,13
16.1162,-1.06196,3.72879,20,14
12.5328,-0.828031,-0.219237,76,7
16.9901,-1.1255,4.56246,37,15
11.1688,-0.755535,0.195397,66,8
0.530787,-0.0359993,-0.122823,15,1
10.8381,-0.736965,0.569311,54,9
0.712978,-0.048481,-0.138909,24,2
11.4774,-0.782452,1.00647,17,10
6.45824,-0.441411,-1.02527,51,3
13.9126,-0.953348,1.71226,38,11
6.66215,-0.457684,-0.819937,12,4
13.2097,-0.909809,2.09716,45,12
6.97071,-0.481327,-0.61131,11,5
20.387,-1.40772,3.97226,15,13
8.58764,-0.594482,-0.451136,72,6
16.2193,-1.12563,3.75353,20,14
8.6398,-0.601123,-0.151173,66,7
17.0786,-1.19125,4.58731,6,15
11.0284,-0.784724,0.192989,62,8
0.546208,-0.0389611,-0.126422,15,1
10.8653,-0.776929,0.570881,17,9
0.712796,-0.0510938,-0.138909,24,2
11.4546,-0.823085,1.00473,23,10
6.39944,-0.460963,-1.0162,68,3
14.135,-1.01817,1.74005,69,11
6.64863,-0.480079,-0.818475,9,4
13.2163,-0.956627,2.09873,32,12
6.99482,-0.507531,-0.613576,11,5
16.2227,-1.17994,3.16171,2,13
8.93001,-0.651078,-0.469244,100,6
16.3142,-1.19232,3.77648,75,14
11.4996,-0.84044,-0.201261,95,7
22.6636,-1.66034,6.08898,9,15
10.9996,-0.8232,0.192535,60,8
0.546062,-0.0409627,-0.126422,15,1
10.8803,-0.818095,0.571823,23,9
0.724359,-0.0544649,-0.141199,23,2
11.4854,-0.86561,1.00769,57,10
6.34855,-0.479579,-1.00838,45,3
13.9945,-1.05962,1.72323,100,11
6.84675,-0.519617,-0.843092,51,4
13.2717,-1.00956,2.10811,44,12
6.85593,-0.521517,-0.601549,13,5
17.994,-1.37193,3.50783,4,13
8.82612,-0.674484,-0.463906,36,6
16.5062,-1.26429,3.82192,15,14
8.42991,-0.647166,-0.147578,73,7
17.1024,-1.31595,4.59611,28,15
10.9827,-0.860497,0.192291,77,8
0.530373,-0.0416481,-0.122823,15,1
10.8097,-0.850741,0.568264,21,9
0.714379,-0.0562228,-0.139291,24,2
11.5618,-0.911963,1.01467,17,10
6.48272,-0.512478,-1.02996,81,3
14.1768,-1.12321,1.74614,77,11
6.57972,-0.522458,-0.810431,21,4
13.2307,-1.0529,2.10217,9,12
6.85605,-0.545604,-0.601723,10,5
14.1631,-1.12958,2.76177,15,13
8.8695,-0.708949,-0.466313,90,6
16.2783,-1.304,3.77018,20,14
11.6986,-0.93919,-0.204856,21,7
16.6759,-1.34172,4.48275,8,15
11.0792,-0.906986,0.194036,31,8
0.503034,-0.0412685,-0.116525,16,1
10.9858,-0.903198,0.577684,29,9
0.716135,-0.058877,-0.139672,23,2
11.6141,-0.956896,1.01955,31,10
6.48679,-0.535591,-1.0309,41,3
14.1807,-1.17334,1.74712,54,11
6.58577,-0.546078,-0.811406,11,4
13.1502,-1.0927,2.08996,45,12
14.0886,-1.17315,2.74803,7,13
8.84309,-0.737912,-0.465057,39,6
16.2367,-1.35773,3.76163,40,14
11.7171,-0.981857,-0.20524,100,7
16.6769,-1.4004,4.4843,8,15
11.3948,-0.972873,0.199621,100,8
0.549486,-0.047011,-0.127322,15,1
11.0303,-0.945634,0.580196,14,9
0.696354,-0.059821,-0.135856,25,2
11.5847,-0.997236,1.01728,27,10
6.60681,-0.569888,-1.0503,52,3
6.88444,-0.595046,-0.848454,18,4
13.1955,-1.14285,2.09779,51,12
7.85833,-0.681987,-0.690099,12,5
24.9511,-2.16977,4.8683,6,13
8.69905,-0.758009,-0.457626,79,6
16.288,-1.42215,3.77468,12,14
11.7774,-1.02832,-0.206357,100,7
16.7566,-1.46601,4.50708,33,15
11.6222,-1.03521,0.20367,33,8
0.564838,-0.0504105,-0.130922,14,1
0.715695,-0.064,-0.139672,23,2
6.62052,-0.59436,-1.0528,60,3
14.0988,-1.2682,1.7381,69,11
6.89407,-0.621344,-0.849917,11,4
13.276,-1.19653,2.11124,12,12
7.17528,-0.647952,-0.63031,7,5
37.8481,-3.42447,7.38698,14,13
8.6506,-0.784222,-0.455218,29,6
17.5347,-1.5927,4.06487,31,14
11.7936,-1.07123,-0.206706,26,7
16.7322,-1.52275,4.5019,11,15
11.093,-1.02516,0.194455,75,8
0.52974,-0.0490493,-0.122823,15,1
11.0175,-1.02206,0.579882,21,9
0.715468,-0.0664979,-0.139672,23,2
13.4581,-1.25321,1.18253,20,10
6.60277,-0.614846,-1.0503,38,3
14.0866,-1.31421,1.73713,85,11
6.64887,-0.621479,-0.819937,15,4
13.3996,-1.25484,2.13158,4,12
7.38126,-0.692536,-0.648613,35,5
23.8528,-2.23796,4.65688,8,13
8.80903,-0.828045,-0.463697,50,6
17.4789,-1.64608,4.05317,37,14
7.79021,-0.73502,-0.136583,61,7
16.7652,-1.58478,4.51225,16,15
11.2029,-1.07477,0.196444,70,8
0.510168,-0.0490337,-0.118324,16,1
11.0896,-1.06585,0.58386,23,9
0.72306,-0.0696227,-0.141199,34,2
11.5302,-1.11227,1.01345,27,10
6.693,-0.646821,-1.06501,67,3
14.1076,-1.36586,1.74029,58,11
13.3954,-1.29927,2.13158,15,12
7.06957,-0.686949,-0.62142,15,5
23.8214,-2.31892,4.65231,11,13
8.0686,-0.786868,-0.424863,39,6
17.5913,-1.71864,4.08061,23,14
8.39873,-0.820543,-0.147298,48,7
16.8925,-1.65335,4.54797,8,15
11.1077,-1.10282,0.194839,30,8
0.529394,-0.0526539,-0.122823,15,1
11.2707,-1.12297,0.593594,61,9
0.707184,-0.0705864,-0.138146,36,2
13.6139,-1.36124,1.197,13,10
6.62595,-0.662526,-1.05468,41,3
14.3993,-1.44231,1.77686,73,11
6.8578,-0.688127,-0.846261,12,4
7.81448,-0.786877,-0.687136,38,5
23.3604,-2.35227,4.56377,11,13
8.5687,-0.864333,-0.451345,43,6
17.5642,-1.77481,4.07566,31,14
13.5129,-1.36782,-0.237073,26,7
16.8194,-1.70549,4.52985,16,15
11.2762,-1.16528,0.197875,67,8
0.529178,-0.0547786,-0.122823,15,1
11.7528,-1.21868,0.619239,37,9
0.704955,-0.0730987,-0.137764,36,2
6.65271,-0.692185,-1.05937,62,3
14.265,-1.48673,1.76101,73,11
6.59042,-0.68803,-0.8136,9,4
25.9984,-2.71878,4.14019,13,12
7.27439,-0.760719,-0.639897,10,5
16.3372,-1.71134,3.193,19,13
11.0997,-1.16467,-0.584907,20,6
17.4775,-1.83696,4.05722,17,14
16.8624,-1.77826,4.54331,30,15
11.1568,-1.19231,0.195851,60,8
0.548361,-0.0586997,-0.127322,15,1
11.7246,-1.25714,0.617983,57,9
0.7086,-0.0759776,-0.138527,24,2
13.6035,-1.461,1.197,42,10
6.50295,-0.699557,-1.03591,55,3
14.0328,-1.51206,1.73298,62,11
6.46561,-0.697824,-0.798488,1,4
25.8454,-2.79401,4.11736,11,12
16.3545,-1.77089,3.19758,10,13
8.49446,-0.921294,-0.447787,32,6
25.8577,-2.80905,6.00484,7,14
12.3393,-1.34265,-0.216654,47,7
16.8714,-1.83878,4.54745,20,15
11.7568,-1.29796,0.206462,11,8
0.528783,-0.0584716,-0.122823,15,1
11.8015,-1.30707,0.622275,38,9
0.700525,-0.0775862,-0.137001,24,2
13.3666,-1.48278,1.1766,12,10
6.65754,-0.739704,-1.06094,45,3
13.986,-1.55642,1.72786,65,11
6.52035,-0.726766,-0.805556,9,4
13.4596,-1.5026,2.14503,7,12
7.99362,-0.89239,-0.703695,30,5
16.3736,-1.83081,3.20254,11,13
11.8694,-1.32927,-0.625938,40,6
25.7102,-2.88387,5.9729,30,14
18.4551,-2.07333,-0.324161,82,7
16.9263,-1.90457,4.56402,19,15
21.3089,-2.42784,0.374354,21,8
0.528576,-0.0603171,-0.122823,15,1
11.656,-1.33216,0.614843,43,9
0.711953,-0.0813686,-0.139291,36,2
13.5395,-1.54982,1.19229,2,10
6.60585,-0.757314,-1.05312,42,3
14.0002,-1.6075,1.7303,93,11
6.56511,-0.754964,-0.811406,8,4
13.3914,-1.54234,2.13502,14,12
7.93899,-0.91436,-0.699163,28,5
31.1213,-3.58985,6.08948,10,13
12.0869,-1.39637,-0.637661,35,6
22.7576,-2.63314,5.28905,5,14
8.26939,-0.958264,-0.145309,65,7
16.3074,-1.8926,4.39889,17,15
14.8834,-1.74839,0.261577,10,8
0.505137,-0.0594294,-0.117424,16,1
11.6853,-1.37477,0.616622,10,9
0.692167,-0.0815559,-0.135474,25,2
13.6923,-1.61575,1.20624,10,10
7.01709,-0.829285,-1.11913,56,3
14.0457,-1.66242,1.73664,31,11
6.67874,-0.791663,-0.825787,5,4
13.3509,-1.58255,2.12939,29,12
7.87244,-0.934551,-0.693585,15,5
16.6255,-1.97659,3.25444,12,13
8.24437,-0.981623,-0.435121,39,6
20.2501,-2.41468,4.70823,19,14
8.31383,-0.991364,-0.146146,65,7
16.3106,-1.94781,4.40148,12,15
13.6863,-1.65381,0.240634,1,8
0.508807,-0.0615724,-0.118324,16,1
13.5719,-1.64479,0.716479,17,9
0.711368,-0.0863369,-0.139291,24,2
9.45009,-1.14861,0.83286,16,10
6.32993,-0.769369,-1.00994,13,3
14.7298,-1.79294,1.82195,56,11
6.53814,-0.796992,-0.808725,9,4
13.3512,-1.62986,2.13032,42,12
7.94033,-0.97073,-0.699861,61,5
16.5663,-2.02528,3.24413,37,13
12.1069,-1.48225,-0.639231,29,6
16.7603,-2.05494,3.8984,13,14
12.9627,-1.59161,-0.227963,74,7
19.5097,-2.39894,5.26697,3,15
10.1244,-1.25927,0.178084,13,8
0.547265,-0.0681654,-0.127322,15,1
13.5423,-1.68919,0.715223,19,9
0.703285,-0.0877234,-0.137764,24,2
9.47588,-1.18364,0.835475,72,10
14.8909,-1.86532,1.84266,32,11
6.38365,-0.800784,-0.789957,10,4
14.737,-1.85127,2.35246,60,12
7.81235,-0.982774,-0.688879,43,5
16.4929,-2.07476,3.23116,39,13
12.1432,-1.52974,-0.64143,39,6
16.7357,-2.11124,3.89435,21,14
8.15791,-1.03058,-0.143529,24,7
19.5203,-2.46945,5.27214,7,15
10.0982,-1.29181,0.1777,21,8
0.508364,-0.065123,-0.118324,16,1
11.6029,-1.48842,0.613063,41,9
0.714642,-0.0918013,-0.140054,35,2
9.47939,-1.21938,0.836172,74,10
6.63578,-0.854771,-1.05969,25,3
14.3862,-1.85312,1.781,42,11
6.45957,-0.83322,-0.799707,10,4
14.8167,-1.91383,2.36623,55,12
7.92743,-1.02537,-0.699338,18,5
16.4832,-2.13495,3.23078,42,13
12.3,-1.5953,-0.650013,39,6
16.3703,-2.12613,3.81112,12,14
15.1703,-1.97027,-0.267022,26,7
19.4963,-2.53558,5.268,11,15
0.527443,-0.0695328,-0.122823,15,1
15.1734,-2.003,0.802101,18,9
0.710425,-0.0937815,-0.139291,36,2
5.98456,-0.792132,-0.956128,40,3
13.4446,-1.78195,1.66522,7,11
6.62964,-0.879873,-0.821156,13,4
16.5496,-2.20231,3.24528,22,13
12.3438,-1.64482,-0.652629,42,6
16.3338,-2.17939,3.80437,30,14
12.719,-1.69934,-0.223984,100,7
19.0101,-2.54324,5.13911,19,15
11.7433,-1.58776,0.206846,13,8
0.55037,-0.0745108,-0.128222,14,1
13.7175,-1.85956,0.725481,10,9
0.690638,-0.0936235,-0.135474,37,2
9.30085,-1.26248,0.821181,46,10
5.76448,-0.783487,-0.921399,56,3
13.7805,-1.87545,1.70763,34,11
6.60686,-0.900329,-0.818718,25,4
16.6897,-2.28027,3.27428,14,13
11.7839,-1.6121,-0.623321,30,6
16.2836,-2.23058,3.79447,30,14
12.8319,-1.76003,-0.226078,83,7
19.6001,-2.69185,5.30113,9,15
11.7813,-1.63479,0.207614,28,8
0.503782,-0.0699951,-0.117424,16,1
13.6754,-1.90248,0.723597,48,9
0.690307,-0.0960337,-0.135474,37,2
9.27074,-1.29137,0.818915,64,10
5.76563,-0.80415,-0.922025,40,3
13.7975,-1.92683,1.71056,38,11
6.48769,-0.907167,-0.804338,8,4
17.4807,-2.45053,3.43113,18,13
7.50404,-1.05329,-0.397125,29,6
14.8851,-2.09461,-0.262379,92,7
19.5638,-2.75648,5.29388,9,15
14.2344,-2.02585,0.250966,11,8
0.565271,-0.0805506,-0.131821,14,1
13.6963,-1.95415,0.725062,16,9
0.693838,-0.0991184,-0.136238,37,2
9.27778,-1.32703,0.819961,94,10
6.60347,-0.945694,-1.05656,28,3
14.7889,-2.11794,1.83438,72,11
6.64168,-0.952348,-0.823837,12,4
22.1187,-3.17553,3.53917,8,12
14.9434,-2.15072,2.93464,9,13
7.42501,-1.06996,-0.393148,39,6
16.3579,-2.36012,3.81562,12,14
12.8747,-1.85757,-0.227056,74,7
23.0779,-3.3338,6.24789,3,15
9.89944,-1.44594,0.174629,37,8
0.526407,-0.0769821,-0.122823,15,1
13.7128,-2.00781,0.726318,22,9
0.689602,-0.100971,-0.135474,25,2
9.34011,-1.36924,0.825888,78,10
6.4516,-0.946936,-1.03278,26,3
6.64404,-0.977552,-0.824568,47,4
8.22941,-1.21228,-0.72775,26,5
11.7246,-1.73134,-0.621123,30,6
16.3206,-2.41293,3.80887,27,14
18.0842,-2.67689,-0.3191,15,7
26.3008,-3.89784,7.12425,18,15
9.90026,-1.48137,0.174733,16,8
0.506863,-0.075932,-0.118324,16,1
18.2446,-2.73644,0.966855,14,9
0.677597,-0.10163,-0.133185,26,2
13.3409,-2.00333,1.18026,27,10
5.7626,-0.866368,-0.922963,60,3
13.5446,-2.03875,1.6818,100,11
6.58562,-0.992455,-0.817743,12,4
14.6886,-2.2162,2.35277,34,12
7.94735,-1.19909,-0.703173,48,5
14.9358,-2.25617,2.93617,29,13
14.5879,-2.20621,-0.773212,29,6
16.3025,-2.46843,3.80662,27,14
18.1162,-2.74629,-0.319833,82,7
17.7036,-2.6869,4.79799,7,15
9.98002,-1.52894,0.176234,13,8
0.525857,-0.0806552,-0.122823,15,1
12.125,-1.86189,0.642895,29,9
0.692762,-0.106379,-0.136238,37,2
13.3358,-2.05019,1.18044,70,10
6.21445,-0.956495,-0.995862,16,3
13.4098,-2.06637,1.66595,30,11
6.53503,-1.00817,-0.811894,8,4
9.27894,-1.43314,1.48707,22,12
14.7164,-2.27559,2.89457,20,13
12.5175,-1.93781,-0.663829,32,6
17.5493,-2.71992,4.09996,80,14
15.0476,-2.33487,-0.2658,90,7
17.3906,-2.70153,4.71568,39,15
15.4055,-2.41518,0.272188,9,8
0.514021,-0.0806774,-0.120124,15,1
12.1264,-1.90544,0.643314,48,9
0.682689,-0.107272,-0.13433,25,2
13.2892,-2.09054,1.17695,52,10
6.3301,-0.996928,-1.01495,20,3
13.2614,-2.0909,1.6484,7,11
9.27584,-1.46583,1.48738,50,12
8.11393,-1.28222,-0.718686,22,5
17.3126,-2.73895,3.40709,10,13
11.8518,-1.87714,-0.628869,39,6
13.9117,-2.20588,3.25189,11,14
18.8807,-2.99716,-0.33369,66,7
17.4287,-2.7698,4.72862,27,15
10.5634,-1.69388,0.186741,15,8
0.556066,-0.0892665,-0.130022,14,1
0.695879,-0.111836,-0.137001,24,2
13.3861,-2.15369,1.18619,75,10
6.26222,-1.00865,-1.00462,37,3
13.4892,-2.1751,1.67765,41,11
7.62528,-1.23093,-0.948387,46,4
7.90289,-1.27716,-0.700384,15,5
10.9597,-1.77312,2.15805,10,13
11.7919,-1.90988,-0.626043,54,6
13.9347,-2.25942,3.25909,33,14
12.4432,-2.01982,-0.22004,100,7
23.2024,-3.77044,6.29862,19,15
0.524983,-0.0861575,-0.122823,15,1
0.699359,-0.1149,-0.137764,24,2
6.22748,-1.02537,-0.999616,30,3
10.4534,-1.72305,1.30083,33,11
9.43884,-1.5592,1.51522,37,12
10.9399,-1.80912,2.15538,15,13
11.5921,-1.91906,-0.615785,70,6
14.0055,-2.32111,3.27754,24,14
11.2663,-1.86916,-0.199341,76,7
15.0706,-2.50304,4.09348,4,15
10.1589,-1.70183,0.179795,50,8
0.524679,-0.0879895,-0.122823,15,1
12.2653,-2.05911,0.651792,7,9
0.6854,-0.115066,-0.135093,25,2
12.7459,-2.14208,1.13076,64,10
5.85569,-0.98516,-0.940484,30,3
10.4884,-1.76645,1.30595,63,11
16.763,-2.82923,2.69255,15,12
10.9277,-1.84632,2.15423,38,13
11.7901,-1.99415,-0.626671,19,6
18.0669,-3.05902,4.23043,15,14
11.2498,-1.9068,-0.199167,9,7
23.2498,-3.94493,6.31881,13,15
10.2357,-1.75145,0.181261,75,8
0.543577,-0.0931105,-0.127322,15,1
0.683039,-0.117245,-0.134711,25,2
11.7149,-2.01299,1.03994,17,10
5.84231,-1.00494,-0.93892,65,3
10.5076,-1.80743,1.30912,36,11
16.7959,-2.89511,2.69943,23,12
10.4275,-1.79927,-0.925768,22,5
10.9073,-1.88402,2.15156,28,13
7.54553,-1.30469,-0.401312,18,6
14.002,-2.4236,3.28069,13,14
12.1889,-2.10977,-0.215921,100,7
26.034,-4.5109,7.07974,17,15
10.243,-1.79137,0.181505,48,8
0.524036,-0.0917417,-0.122823,15,1
9.60819,-1.68381,0.511218,65,9
0.696162,-0.122001,-0.137382,24,2
11.6372,-2.04148,1.03367,17,10
5.81931,-1.02191,-0.935791,42,3
13.3906,-2.35389,1.66937,15,11
7.14377,-1.25707,-0.890621,56,4
16.6995,-2.94157,2.68567,28,12
10.4761,-1.84533,-0.930649,34,5
11.0012,-1.93981,2.17141,7,13
11.6753,-2.06076,-0.621333,13,6
13.9704,-2.46839,3.27529,6,14
12.2303,-2.16313,-0.216794,21,7
25.8328,-4.57362,7.02953,4,15
9.39211,-1.67637,0.166531,67,8
0.500692,-0.0894574,-0.117424,16,1
9.22477,-1.64983,0.491121,30,9
0.689934,-0.123393,-0.136238,25,2
10.2179,-1.82929,0.908163,36,10
5.80793,-1.04083,-0.93454,16,3
9.15013,-1.64142,1.14143,7,11
6.86971,-1.23358,-0.856985,12,4
8.90257,-1.60022,1.43263,34,12
7.69678,-1.38348,-0.684173,6,5
11.7329,-2.11319,-0.624787,54,6
23.9651,-4.32064,5.62198,6,14
12.3171,-2.22286,-0.218469,100,7
14.625,-2.642,3.98219,4,15
9.43539,-1.7181,0.167403,33,8
0.504211,-0.0919035,-0.118324,16,1
0.683705,-0.124743,-0.135093,25,2
10.2016,-1.86315,0.907291,38,10
5.8062,-1.06145,-0.934852,5,3
9.21854,-1.68693,1.15069,39,11
6.91808,-1.26721,-0.863566,15,4
8.88722,-1.62951,1.43106,28,12
10.4649,-1.91878,-0.930823,28,5
10.9913,-2.01727,2.17217,10,13
11.7588,-2.16027,-0.626566,35,6
17.9701,-3.30461,4.21828,27,14
18.7697,-3.45505,-0.333132,14,7
20.1633,-3.71522,5.49369,12,15
9.35856,-1.73788,0.166147,85,8
0.523047,-0.0972243,-0.122823,15,1
0.689056,-0.128207,-0.136238,25,2
9.40572,-1.75174,0.837044,16,10
5.82576,-1.08605,-0.938607,5,3
9.19113,-1.71509,1.14801,21,11
6.49408,-1.21299,-0.811162,10,4
8.84847,-1.65435,1.42574,58,12
8.69945,-1.62649,-0.774292,12,5
11.0285,-2.06393,2.18095,30,13
11.8101,-2.21233,-0.629706,29,6
13.9132,-2.60881,3.26809,38,14
12.321,-2.31248,-0.218818,38,7
14.6708,-2.75616,3.99979,7,15
9.33278,-1.76682,0.165798,28,8
0.522704,-0.0990495,-0.122823,15,1
9.82903,-1.86432,0.524302,36,9
0.684747,-0.129879,-0.135474,37,2
9.42108,-1.78865,0.838961,20,10
5.98301,-1.13699,-0.964575,11,3
9.18899,-1.74791,1.1485,28,11
6.37085,-1.213,-0.796294,4,4
8.80577,-1.6782,1.4198,82,12
8.58021,-1.63521,-0.764182,15,5
11.029,-2.10389,2.18247,21,13
9.69922,-1.85198,-0.517498,17,6
13.9308,-2.66248,3.27439,42,14
12.3541,-2.36337,-0.219551,100,7
18.767,-3.59357,5.11996,8,15
9.35798,-1.80545,0.166356,6,8
0.522355,-0.100873,-0.122823,15,1
9.72637,-1.88005,0.519173,127,9
0.684289,-0.132269,-0.135474,25,2
9.35414,-1.80979,0.833557,26,10
9.22766,-1.78866,1.1541,34,11
6.16001,-1.19515,-0.770458,8,4
8.85028,-1.71872,1.42793,84,12
12.1361,-2.35681,-1.0816,21,5
8.94406,-1.73855,1.77109,18,13
9.58683,-1.86523,-0.511846,38,6
9.58806,-1.86894,-0.17051,43,7
13.9306,-2.71794,3.80309,6,15
0.522,-0.102696,-0.122823,15,1
9.78442,-1.92672,0.522627,66,9
0.68575,-0.135036,-0.135856,25,2
9.31258,-1.8355,0.83042,20,10
6.09508,-1.20244,-0.983973,16,3
9.33042,-1.8424,1.16775,10,11
6.22785,-1.23089,-0.779476,35,4
8.80159,-1.74117,1.42105,76,12
8.48063,-1.67767,-0.756338,17,5
14.9081,-2.95189,2.9541,10,13
14.2903,-2.83475,3.36347,29,14
11.9038,-2.36349,-0.211837,100,7
13.9154,-2.76542,3.80153,18,15
11.0569,-2.2134,0.196828,25,8
0.540746,-0.108346,-0.127322,15,1
9.43102,-1.89135,0.5041,11,9
0.692974,-0.138973,-0.137382,24,2
9.29635,-1.86603,0.829548,18,10
9.15072,-1.84012,1.14606,5,11
7.02335,-1.4136,-0.879653,45,4
9.35704,-1.88501,1.51178,61,12
12.2345,-2.46469,-1.09189,26,5
13.3286,-2.68994,-0.712606,16,6
14.2479,-2.87805,3.35582,13,14
11.8406,-2.39393,-0.21086,77,7
13.9492,-2.82279,3.81344,12,15
9.48355,-1.9329,0.168939,20,8
0.52127,-0.106338,-0.122823,15,1
0.690561,-0.140998,-0.137001,24,2
10.2599,-2.09674,0.916181,90,10
6.72326,-1.3752,-1.08691,32,3
9.2901,-1.90192,1.16434,49,11
7.34508,-1.50506,-0.920601,31,4
8.81825,-1.80852,1.42574,27,12
11.9604,-2.45295,-1.06818,71,5
10.0461,-2.06399,-0.53749,45,6
13.5124,-2.77861,3.18486,4,14
11.9555,-2.46065,-0.213059,20,7
0.567493,-0.117626,-0.155291,12,0
0.497999,-0.103403,-0.117424,16,1
9.57207,-1.98925,0.512369,52,9
0.688142,-0.143009,-0.136619,25,2
6.5579,-1.36524,-1.06094,100,3
9.35725,-1.94972,1.1736,33,11
7.21736,-1.50516,-0.905246,15,4
11.7937,-2.46167,1.90819,46,12
11.9147,-2.48695,-1.06487,49,5
11.0213,-2.30247,2.18858,22,13
13.6594,-2.8561,-0.731343,29,6
13.5808,-2.84213,3.2033,24,14
12.2796,-2.57206,-0.218993,22,7
14.1163,-2.95934,3.86469,18,15
9.79266,-2.06721,0.174699,13,8
0.501449,-0.105946,-0.118324,16,1
9.59828,-2.02968,0.514148,43,9
0.676114,-0.142973,-0.13433,25,2
9.44198,-1.99834,0.844365,20,10
6.51831,-1.38075,-1.05531,16,3
9.564,-2.02766,1.20041,71,11
7.21594,-1.53116,-0.905733,62,4
10.9754,-2.33088,1.7771,37,12
7.27533,-1.54509,-0.650705,13,5
13.671,-2.90586,2.71674,10,13
10.0568,-2.13948,-0.538851,38,6
13.5575,-2.88668,3.20015,24,14
12.1063,-2.57989,-0.216061,22,7
14.0209,-2.99047,3.84139,9,15
9.88901,-2.12363,0.176549,6,8
0.520128,-0.111791,-0.122823,15,1
9.56966,-2.05855,0.512997,41,9
0.67945,-0.146158,-0.135093,25,2
9.57821,-2.06563,1.20309,55,11
6.75068,-1.45708,-0.847967,13,4
8.83744,-1.90911,1.432,40,12
11.2895,-2.43881,-1.01048,27,5
13.6972,-2.96144,2.72399,36,13
10.0825,-2.18175,-0.540631,28,6
15.2653,-3.30604,3.60597,9,14
12.4861,-2.70644,-0.223007,23,7
14.0576,-3.04963,3.85433,24,15
0.471859,-0.102968,-0.12941,15,0
9.98508,-2.18075,0.178398,17,8
0.519735,-0.113606,-0.122823,15,1
0.682771,-0.149368,-0.135856,25,2
9.65941,-2.11492,0.865108,20,10
6.74392,-1.47781,-1.09348,36,3
9.59809,-2.10501,1.20651,27,11
7.18569,-1.57725,-0.903296,43,4
8.91562,-1.95859,1.44577,42,12
7.2702,-1.59713,-0.651228,20,5
9.27857,-2.04003,1.84665,6,13
12.5638,-2.76462,-0.674192,26,6
15.2422,-3.35679,3.60327,16,14
12.0567,-2.65746,-0.215502,26,7
14.2204,-3.13697,3.90196,13,15
9.96764,-2.21342,0.178224,22,8
0.519335,-0.115419,-0.122823,15,1
9.28991,-2.06633,0.498762,14,9
0.67458,-0.150045,-0.13433,25,2
9.5275,-2.12092,0.853952,62,10
6.91225,-1.54001,-1.12164,22,3
9.70693,-2.16442,1.22113,25,11
6.99996,-1.56211,-0.880628,25,4
10.6978,-2.38928,1.73611,23,12
7.27625,-1.6251,-0.652274,10,5
12.5833,-2.815,-0.675762,39,6
9.166,-2.0522,2.16853,7,14
12.2601,-2.74719,-0.219307,30,7
13.9926,-3.13797,3.84243,31,15
0.471128,-0.10626,-0.12941,15,0
9.95791,-2.24776,0.178189,36,8
0.518929,-0.117231,-0.122823,15,1
9.3703,-2.11856,0.503472,35,9
0.67594,-0.15295,-0.134711,25,2
9.77655,-2.21221,0.876961,16,10
6.79894,-1.53969,-1.10411,37,3
9.59284,-2.17416,1.20773,16,11
6.59179,-1.4952,-0.82993,13,4
10.7674,-2.4463,-0.966034,2,5
9.22736,-2.0981,1.8394,64,13
16.4801,-3.75024,3.902,10,14
12.2387,-2.7873,-0.219098,100,7
13.9947,-3.1898,3.84605,19,15
9.97299,-2.28962,0.178608,23,8
0.518496,-0.119132,-0.122823,15,1
9.52403,-2.19004,0.51216,39,9
0.669635,-0.154105,-0.133566,26,2
9.9373,-2.2869,0.892126,44,10
7.03003,-1.61913,-1.1426,66,3
9.27144,-2.13707,1.16824,26,11
11.3253,-2.61257,-1.42709,15,4
11.8533,-2.73872,-1.06435,49,5
8.91165,-2.06069,1.77796,27,13
11.9319,-2.76127,-0.641848,61,6
12.0687,-2.79515,-0.216235,29,7
14.0244,-3.25067,3.85744,13,15
9.94116,-2.3207,0.178189,42,8
0.556009,-0.129899,-0.131821,14,1
9.33313,-2.18219,0.502321,129,9
0.680564,-0.159124,-0.135856,25,2
9.78335,-2.28926,0.879053,56,10
6.57591,-1.53994,-1.0697,20,3
9.48001,-2.22177,1.19554,11,11
6.77585,-1.58926,-0.854548,29,4
11.0925,-2.60376,1.80463,32,12
11.6303,-2.72999,-1.04517,28,5
9.1758,-2.15554,1.83215,11,13
16.9247,-3.979,-0.911169,30,6
9.07876,-2.13609,2.15323,46,14
12.0058,-2.82699,-0.215293,28,7
14.0011,-3.29939,3.85433,12,15
11.0674,-2.62437,0.198539,15,8
0.51763,-0.12284,-0.122823,15,1
0.672364,-0.159684,-0.13433,25,2
9.78112,-2.32478,0.879576,72,10
8.93727,-2.12751,1.12802,2,11
7.10433,-1.69249,-0.896715,36,4
11.0833,-2.64246,1.80463,42,12
11.7951,-2.81216,-1.06086,64,5
16.9398,-4.04501,-0.912739,13,6
9.10916,-2.17683,2.16223,12,14
11.9725,-2.86329,-0.214874,24,7
13.3601,-3.19761,3.68092,10,15
0.517198,-0.124646,-0.122823,15,1
12.8824,-3.10707,0.694498,28,9
0.675619,-0.16295,-0.135093,25,2
9.82911,-2.37246,0.884631,14,10
6.74549,-1.62941,-1.09911,38,3
8.86997,-2.14423,1.12047,7,11
7.05979,-1.70794,-0.89184,15,4
10.8417,-2.62489,1.76677,40,12
7.29845,-1.76703,-0.65698,10,5
9.09375,-2.20337,1.81879,48,13
13.2532,-3.21364,-0.7147,13,6
11.4528,-2.80037,0.205799,43,8
0.494045,-0.120892,-0.117424,16,1
12.9103,-3.16152,0.696592,9,9
0.655977,-0.160638,-0.131277,27,2
6.51146,-1.59696,-1.06188,57,3
8.89907,-2.18417,1.1251,13,11
7.04801,-1.73116,-0.891109,50,4
10.796,-2.65376,1.76083,42,12
11.6804,-2.87113,-1.05232,28,5
8.95636,-2.20321,1.79284,41,13
13.302,-3.27468,-0.717945,35,6
9.0786,-2.23664,2.15863,81,14
11.9464,-2.94537,-0.214769,25,7
13.3674,-3.2982,3.68921,27,15
11.6138,-2.88272,0.20887,85,8
0.516315,-0.128253,-0.122823,15,1
10.0654,-2.50213,0.543561,26,9
0.659223,-0.163874,-0.13204,26,2
9.98825,-2.4848,0.900493,46,10
6.37933,-1.58818,-1.04123,13,3
10.625,-2.64713,1.34446,43,11
7.02266,-1.75095,-0.888671,55,4
10.7752,-2.68856,1.75895,63,12
11.6606,-2.90948,-1.05145,64,5
9.00576,-2.24873,1.80429,30,13
9.06696,-2.26737,2.15773,72,14
12.8943,-3.22687,-0.232012,100,7
13.3558,-3.34484,3.68921,18,15
11.9546,-3.01166,0.215188,38,8
0.546098,-0.137677,-0.130022,14,1
10.0102,-2.52552,0.541049,8,9
0.65484,-0.165214,-0.131277,27,2
5.41232,-1.36752,-0.884168,11,3
10.606,-2.68177,1.34324,37,11
7.05114,-1.78421,-0.893059,28,4
11.0473,-2.79744,1.80494,39,12
11.5886,-2.93451,-1.04587,38,5
8.9046,-2.25652,1.78559,27,13
11.5384,-2.9261,-0.623845,23,6
13.7339,-3.48542,3.27124,47,14
12.6659,-3.21673,-0.228103,29,7
13.2074,-3.35671,3.65142,32,15
11.9053,-3.04347,0.21449,67,8
0.515407,-0.131855,-0.122823,15,1
9.73664,-2.49089,0.526709,27,9
0.678984,-0.173828,-0.136238,25,2
8.95738,-2.29487,0.80898,41,10
10.5216,-2.69954,1.33374,37,11
7.10448,-1.82412,-0.900615,77,4
9.14948,-2.34919,1.49614,9,12
11.4547,-2.94321,-1.03471,69,5
14.1103,-3.62817,2.83199,18,13
17.6829,-4.55007,-0.956911,21,6
13.8085,-3.55569,3.29193,13,14
12.69,-3.26769,-0.228731,100,7
13.2617,-3.41736,3.66954,9,15
0.514967,-0.133563,-0.122823,15,1
9.79168,-2.54142,0.530163,47,9
0.665071,-0.172742,-0.133566,26,2
8.92232,-2.3191,0.806539,43,10
6.18484,-1.60757,-1.01213,21,3
10.4473,-2.71743,1.32545,37,11
6.9351,-1.80516,-0.879897,36,4
12.3814,-3.22511,2.02645,19,12
11.3229,-2.95152,-1.02373,20,5
14.1495,-3.68831,2.84229,16,13
15.1167,-3.94325,-0.818744,32,6
13.6741,-3.56947,3.26269,11,14
12.7695,-3.33572,-0.230372,18,7
0.467112,-0.122719,-0.12941,15,0
11.1784,-2.93885,0.20175,17,8
0.514498,-0.13536,-0.122823,15,1
9.66879,-2.54558,0.523988,60,9
0.655002,-0.172448,-0.131658,26,2
8.88375,-2.34056,0.80375,15,10
5.89458,-1.55411,-0.965514,16,3
9.93103,-2.62018,1.2611,31,11
7.10149,-1.87497,-0.901833,42,4
9.13477,-2.41351,1.49645,16,12
11.8929,-3.14224,-1.0762,28,5
14.1271,-3.73517,2.84038,10,13
11.4536,-3.03045,-0.620914,43,6
18.1394,-4.80279,4.33211,25,14
17.6154,-4.66734,-0.318088,60,7
13.2001,-3.49995,3.65918,25,15
11.2376,-2.9964,0.203006,36,8
0.536617,-0.143184,-0.128222,14,1
9.60003,-2.56334,0.520743,61,9
0.656293,-0.17524,-0.13204,26,2
8.91595,-2.38235,0.807411,22,10
10.3034,-2.75694,1.30961,27,11
9.9367,-2.66067,-1.26305,15,4
11.0458,-2.95971,1.8112,16,12
11.8857,-3.18477,-1.07655,54,5
11.0097,-2.95211,2.21567,16,13
14.6914,-3.94206,-0.797181,65,6
13.6394,-3.66232,3.26044,27,14
12.6822,-3.40767,-0.22922,100,7
13.1841,-3.54501,3.65815,36,15
11.6788,-3.15774,0.211174,100,8
0.51354,-0.138949,-0.122823,15,1
9.61802,-2.60415,0.522208,72,9
0.667048,-0.180608,-0.13433,25,2
9.05373,-2.45306,0.820658,2,10
6.34497,-1.72032,-1.04123,21,3
10.2305,-2.77574,1.30156,21,11
6.75681,-1.83452,-0.859666,10,4
9.15201,-2.48655,1.50208,25,12
11.9264,-3.24034,-1.08125,52,5
18.4257,-5.00962,3.71162,13,13
18.1204,-4.9334,4.33571,25,14
12.7281,-3.46768,-0.230267,100,7
13.1866,-3.59507,3.66229,32,15
11.874,-3.25506,0.214909,33,8
0.490501,-0.134554,-0.117424,16,1
13.0545,-3.58355,0.709466,23,9
0.681559,-0.187093,-0.137382,24,2
10.0211,-2.75274,0.909209,24,10
6.46655,-1.77754,-1.06219,55,3
10.2801,-2.82775,1.30912,48,11
7.003,-1.92763,-0.89184,39,4
12.497,-3.44225,2.05305,10,12
12.0245,-3.31211,-1.09119,30,5
12.2077,-3.36487,2.46144,7,13
12.6034,-3.4763,-0.685182,3,6
13.6342,-3.76315,3.26539,24,14
12.9973,-3.58982,-0.235363,100,7
13.2354,-3.65806,3.67937,23,15
12.2294,-3.40302,0.221576,58,8
0.512508,-0.142709,-0.122823,15,1
10.7536,-2.99436,0.585011,6,9
0.663814,-0.184966,-0.133948,26,2
9.71298,-2.70826,0.88219,52,10
6.36644,-1.77634,-1.04686,35,3
8.66312,-2.41879,1.10438,12,11
6.96878,-1.94703,-0.888428,40,4
11.983,-3.35021,-1.08858,28,5
24.0756,-6.73562,4.85952,12,13
14.7441,-4.12772,-0.802415,32,6
13.5858,-3.80601,3.25729,9,14
12.4622,-3.49124,-0.225904,22,7
13.2238,-3.70707,3.67989,36,15
14.0831,-3.9692,0.255399,23,8
0.512032,-0.144408,-0.122823,15,1
12.9593,-3.65735,0.705698,11,9
0.659386,-0.186215,-0.133185,26,2
9.71305,-2.74486,0.883062,38,10
6.54681,-1.85009,-1.07752,70,3
9.97117,-2.81968,1.27232,39,11
6.98903,-1.97769,-0.89184,9,4
12.3428,-3.49499,2.03177,14,12
14.0511,-3.98134,-1.2777,10,5
23.8189,-6.74906,4.8122,12,13
17.6818,-5.01344,-0.963191,18,6
13.3744,-3.79466,3.2096,40,14
12.4134,-3.52435,-0.225241,23,7
13.2999,-3.77855,3.70474,11,15
13.9923,-3.99637,0.254002,31,8
0.511525,-0.146194,-0.122823,15,1
0.66254,-0.18948,-0.133948,26,2
9.71156,-2.77924,0.883759,40,10
6.22697,-1.7832,-1.0259,51,3
9.97272,-2.85775,1.27378,30,11
9.87108,-2.83049,-1.26086,48,4
10.7755,-3.09185,1.77553,41,12
16.6845,-4.78734,-1.5186,12,5
23.6594,-6.79315,4.78473,33,13
12.5177,-3.59649,-0.682566,13,6
13.318,-3.82894,3.19925,27,14
15.078,-4.3378,-0.273863,96,7
13.4073,-3.85969,3.73838,12,15
0.46395,-0.134176,-0.12941,15,0
15.6129,-4.51824,0.283706,9,8
0.540961,-0.156652,-0.130022,14,1
11.9033,-3.44923,0.649489,15,9
0.646789,-0.18742,-0.130895,27,2
9.68266,-2.80758,0.882016,12,10
6.14292,-1.78236,-1.01307,53,3
9.93027,-2.88313,1.26963,42,11
9.91071,-2.87933,-1.2672,56,4
10.7836,-3.13496,1.77866,39,12
15.9827,-4.64643,-1.4562,5,5
23.66,-6.88282,4.78969,6,13
16.6453,-4.84536,-0.908552,37,6
12.21,-3.55659,2.93606,10,14
15.0225,-4.37866,-0.27313,89,7
13.4513,-3.92323,3.75443,13,15
15.5625,-4.56259,0.283078,68,8
0.510492,-0.149762,-0.122823,15,1
13.1579,-3.86261,0.718677,7,9
0.661201,-0.194101,-0.133948,26,2
10.036,-2.94805,0.915135,46,10
6.17267,-1.81437,-1.01901,40,3
8.6956,-2.55761,1.11291,20,11
9.22837,-2.71606,-1.18116,39,4
10.7138,-3.15528,1.76896,38,12
11.9541,-3.52282,-1.09032,23,5
17.8789,-5.26884,3.62308,22,13
16.5114,-4.86898,-0.902167,27,6
12.2611,-3.61794,2.95136,38,14
14.9189,-4.40502,-0.271525,100,7
13.4801,-3.98275,3.76634,12,15
0.555574,-0.164991,-0.155291,12,0
15.4391,-4.585,0.281123,9,8
0.509966,-0.151543,-0.122823,15,1
0.668012,-0.198762,-0.135474,25,2
9.54011,-2.84041,0.87086,40,10
6.25685,-1.86406,-1.03403,63,3
8.67521,-2.58454,1.11145,5,11
9.10279,-2.71366,-1.16629,15,4
10.7198,-3.19774,1.77178,43,12
15.6474,-4.67065,-1.42866,5,5
15.4949,-4.62807,3.14339,28,13
15.5003,-4.63263,-0.847843,3,6
11.7082,-3.50149,2.82134,23,14
15.0797,-4.50978,-0.274736,88,7
0.509407,-0.153411,-0.122823,15,1
8.90039,-2.68041,0.487143,51,9
0.663555,-0.19996,-0.134711,25,2
9.56829,-2.88519,0.874346,48,10
6.21815,-1.87619,-1.02871,57,3
9.34791,-2.8223,1.19895,41,11
6.32409,-1.91056,-0.811162,11,4
10.7917,-3.26028,1.78554,33,12
11.6832,-3.53182,-1.06783,9,5
15.6121,-4.72249,3.17048,61,13
15.0884,-4.56694,-0.826176,32,6
12.1622,-3.68355,2.93381,38,14
14.0591,-4.25808,-0.256411,22,7
12.326,-3.73554,3.45109,8,15
9.00607,-2.74312,0.164332,57,8
0.531265,-0.161917,-0.128222,14,1
8.85468,-2.70039,0.485154,54,9
0.636564,-0.194253,-0.129368,27,2
9.51052,-2.90403,0.869989,16,10
6.47451,-1.97698,-1.0722,38,3
9.40874,-2.87475,1.20797,22,11
9.84676,-3.01046,-1.26427,34,4
11.976,-3.66372,1.98359,50,12
13.8903,-4.25199,-1.27091,20,5
15.6151,-4.77998,3.1743,36,13
17.1986,-5.26799,-0.942675,17,6
13.061,-4.00311,3.15381,22,14
11.228,-3.44347,-0.204996,100,7
12.3462,-3.78874,3.46041,41,15
8.94294,-2.75804,0.163355,80,8
0.530696,-0.163771,-0.128222,14,1
8.85665,-2.73482,0.485782,85,9
0.643385,-0.198792,-0.130895,27,2
8.02556,-2.47972,0.734897,13,10
6.23355,-1.92722,-1.03341,93,3
9.89741,-3.06187,1.27207,63,11
9.73569,-3.0137,-1.25135,27,4
11.9254,-3.69381,1.97733,15,12
11.5555,-3.58145,-1.05842,26,5
11.5359,-3.57759,2.34771,28,13
17.4691,-5.42096,-0.958585,28,6
13.0097,-4.03713,3.14482,23,14
16.9013,-5.24799,-0.308908,100,7
12.3605,-3.84042,3.46818,40,15
11.0896,-3.46465,0.202797,33,8
0.481733,-0.150597,-0.116525,16,1
8.84276,-2.76607,0.485573,78,9
0.650147,-0.203494,-0.132421,26,2
7.94986,-2.48829,0.728796,28,10
6.31316,-1.97721,-1.0478,38,3
9.53,-2.98652,1.22625,28,11
9.14118,-2.86642,-1.17628,23,4
11.7648,-3.69137,1.95293,21,12
13.7378,-4.31308,-1.25975,20,5
11.5583,-3.63102,2.35496,33,13
16.8909,-5.30947,-0.927917,38,6
13.0469,-4.10115,3.15741,49,14
17.3474,-5.4563,-0.317424,45,7
13.1535,-4.13971,3.6949,19,15
8.82525,-2.79275,0.161574,60,8
0.507187,-0.160597,-0.122823,15,1
8.82304,-2.79544,0.48505,59,9
0.656919,-0.208134,-0.133948,26,2
7.96158,-2.52403,0.730714,61,10
6.40755,-2.03259,-1.06469,93,3
9.47358,-3.00702,1.2204,17,11
9.05304,-2.87527,-1.16629,11,4
9.6389,-3.06319,1.60189,44,12
11.4973,-3.65379,-1.05546,26,5
11.2799,-3.58686,2.30078,18,13
11.3319,-3.60558,-0.623217,37,6
11.5331,-3.67403,-0.211279,77,7
13.0941,-4.17381,3.68248,5,15
8.72784,-2.79548,0.159969,50,8
0.525181,-0.168314,-0.127322,15,1
8.76188,-2.80976,0.482224,19,9
0.64871,-0.208028,-0.132421,26,2
8.07034,-2.58955,0.741521,33,10
6.44931,-2.07065,-1.07283,47,3
10.4685,-3.36308,1.35007,31,11
11.2541,-3.61762,-1.45146,16,4
9.57738,-3.08049,1.59344,71,12
11.3896,-3.66339,-1.04674,26,5
10.8674,-3.4975,2.21911,20,13
11.3345,-3.65001,-0.624054,40,6
14.0225,-4.51834,3.40126,20,14
13.9144,-4.4862,-0.255189,100,7
12.6988,-4.09672,3.57533,21,15
8.73135,-2.83025,0.160213,62,8
0.535713,-0.173754,-0.130022,14,1
10.021,-3.25216,0.552144,9,9
0.629306,-0.204231,-0.128605,28,2
8.06126,-2.61771,0.741521,60,10
6.02498,-1.95763,-1.00337,50,3
9.22393,-2.99882,1.19091,11,11
11.2414,-3.65688,-1.45146,35,4
9.60413,-3.12613,1.5997,58,12
11.1741,-3.63714,-1.02809,58,5
11.0231,-3.59014,2.25345,35,13
11.2818,-3.67655,-0.621856,37,6
11.3758,-3.70939,2.7624,23,14
11.1403,-3.63474,-0.204542,30,7
8.66061,-2.84077,0.159096,46,8
0.505478,-0.165899,-0.122823,15,1
0.639781,-0.210102,-0.130895,27,2
7.94607,-2.611,0.73176,41,10
6.53228,-2.1477,-1.0891,28,3
8.41388,-2.76797,1.08756,2,11
8.85273,-2.91405,-1.14435,8,4
9.62881,-3.17138,1.60564,42,12
11.22,-3.69545,-1.03349,18,5
11.3499,-3.74043,2.32291,39,13
11.1759,-3.68527,-0.616727,87,6
16.6908,-5.51351,4.70999,10,15
8.75123,-2.90436,0.160946,63,8
0.504896,-0.167663,-0.122823,15,1
8.66185,-2.87805,0.478351,33,9
0.653948,-0.217286,-0.133948,26,2
8.19404,-2.7242,0.755466,60,10
6.43665,-2.14119,-1.07439,25,3
8.37968,-2.78917,1.08439,5,11
11.3267,-3.77228,-1.46584,30,4
9.59519,-3.19748,1.60189,41,12
11.2196,-3.74096,-1.03471,24,5
10.7929,-3.59869,2.21148,14,13
12.0895,-4.03805,-0.222483,100,7
12.8916,-4.30847,3.6421,4,15
8.52683,-2.86297,0.157002,47,8
0.504307,-0.169424,-0.122823,15,1
8.56845,-2.88027,0.473745,65,9
0.645704,-0.217178,-0.132421,26,2
8.12735,-2.73515,0.750237,20,10
6.4325,-2.16603,-1.07502,67,3
7.95412,-2.6784,1.03053,57,11
8.91494,-3.00367,-1.15508,38,4
9.47915,-3.19561,1.58437,54,12
9.12412,-3.0777,-0.842447,3,5
11.4437,-3.86236,2.34771,7,13
19.1195,-6.45672,-1.05761,7,6
12.7572,-4.31063,3.10882,19,14
8.63498,-2.91774,-0.159096,100,7
12.5947,-4.25815,3.56239,12,15
8.51249,-2.89292,0.156932,31,8
0.503683,-0.171272,-0.122823,15,1
8.65994,-2.9464,0.479397,47,9
0.637508,-0.216901,-0.130895,27,2
8.05173,-2.74103,0.744136,46,10
6.4623,-2.2012,-1.08128,68,3
7.95553,-2.71138,1.03199,38,11
8.88696,-3.03056,-1.15288,19,4
9.53281,-3.25266,1.59532,77,12
11.2611,-3.84236,-1.04099,11,5
12.0716,-4.12362,-0.66854,29,6
12.6167,-4.31228,3.07823,17,14
8.76803,-2.99855,-0.161749,93,7
12.9463,-4.43,3.66643,5,15
8.64417,-2.97137,0.15955,70,8
0.503082,-0.173029,-0.122823,15,1
8.64016,-2.97336,0.478874,13,9
0.63489,-0.218486,-0.130513,27,2
7.97807,-2.74707,0.738209,65,10
6.41535,-2.21024,-1.0747,40,3
8.12993,-2.80254,1.05588,26,11
8.89697,-3.06869,-1.15557,59,4
11.208,-3.86799,-1.03733,24,5
12.1062,-4.18269,-0.671261,19,6
11.2589,-3.89214,2.75025,36,14
8.90492,-3.08012,-0.164471,94,7
11.4046,-3.96482,0.210755,27,8
0.502475,-0.174784,-0.122823,15,1
8.21286,-2.85841,0.455742,35,9
0.635978,-0.221347,-0.130895,27,2
7.97219,-2.77621,0.738558,54,10
6.4561,-2.24952,-1.08284,50,3
8.16884,-2.84789,1.06221,26,11
8.74001,-3.04873,-1.13655,50,4
9.6572,-3.37056,1.62004,35,12
11.1964,-3.90775,-1.0375,15,5
16.8034,-5.87129,-0.932836,17,6
9.99065,-3.4928,2.44342,19,14
8.86769,-3.10195,-0.163983,59,7
12.3407,-4.31925,3.50337,19,15
8.6251,-3.0323,0.159585,32,8
0.479802,-0.168777,-0.117424,16,1
8.0069,-2.8181,0.444856,78,9
0.646313,-0.227476,-0.133185,26,2
8.03762,-2.83049,0.74553,28,10
6.36623,-2.24315,-1.06907,28,3
8.142,-2.87044,1.06002,35,11
8.92026,-3.14657,-1.16141,48,4
9.63048,-3.39899,1.61753,28,12
8.75899,-3.0914,-0.81264,17,5
9.8133,-3.46544,2.02296,39,13
8.63243,-3.05012,-0.479816,36,6
12.7399,-4.50392,3.11962,27,14
8.83041,-3.12354,-0.163494,100,7
12.1726,-4.30816,3.45989,12,15
11.4087,-4.05573,0.211349,11,8
0.47921,-0.170451,-0.117424,16,1
7.90481,-2.81322,0.439727,58,9
