x, y, z, intensity, ring
0.362032,-8.25881,-0.144296,48,7
0.531466,-12.1726,3.26474,11,15
0.524009,-12.399,0.216619,31,8
0.0223709,-0.531536,-0.122823,15,1
0.630704,-15.0481,0.789331,11,9
0.0244172,-0.582575,-0.113341,16,2
0.48987,-11.7369,1.02774,51,10
0.0257579,-0.619733,-0.0982409,15,3
0.49557,-11.9738,1.47145,42,11
0.0327787,-0.795347,-0.0977392,27,4
0.579053,-14.1101,2.2367,46,12
0.342304,-8.34109,-0.730365,38,5
0.559347,-13.6882,2.66293,7,13
0.312127,-7.67112,-0.402359,43,6
0.493196,-12.1735,2.81279,48,14
0.328285,-8.13814,-0.142167,88,7
0.495796,-12.3442,3.3103,5,15
0.474684,-12.2449,0.213897,43,8
0.546814,-14.234,0.74652,8,9
0.45103,-11.7943,1.03262,46,10
0.0232938,-0.611924,-0.0969894,15,3
0.452491,-11.9417,1.46731,52,11
0.029703,-0.787522,-0.0967643,28,4
0.527574,-14.0528,2.22731,42,12
0.303768,-8.09137,-0.708402,38,5
0.510315,-13.6567,2.65644,4,13
0.455044,-12.2347,-0.641639,35,6
0.452574,-12.2258,2.82449,51,14
0.289273,-7.85148,-0.137141,85,7
0.448315,-12.2262,3.2782,12,15
0.430106,-12.1946,0.212989,52,8
0.407575,-11.7301,1.02687,65,10
0.0204752,-0.592259,-0.0938607,16,3
0.415445,-12.0781,1.48388,45,11
0.0272254,-0.795556,-0.0977392,20,4
0.48087,-14.1237,2.23826,48,12
0.277556,-8.15212,-0.713631,36,5
0.650198,-19.1955,3.73337,16,13
0.277803,-8.244,-0.432295,83,6
0.407609,-12.1592,2.80874,29,14
0.262465,-7.87043,-0.137455,85,7
0.625136,-18.8445,5.05215,6,15
0.387408,-12.192,0.212919,28,8
0.0168036,-0.531741,-0.122823,15,1
0.445297,-14.1695,0.742961,46,9
0.0183152,-0.582799,-0.113341,16,2
0.366937,-11.7414,1.02774,42,10
0.019144,-0.61602,-0.0976151,15,3
0.373467,-12.0854,1.48461,45,11
0.0249969,-0.813504,-0.0999329,6,4
0.435608,-14.2575,2.25923,30,12
0.239119,-7.82644,-0.685044,35,5
0.415739,-13.6854,2.6614,14,13
0.227861,-7.5442,-0.395555,68,6
0.355513,-11.8391,2.7345,61,14
0.241493,-8.08916,-0.14126,100,7
0.457742,-15.4229,4.13438,7,15
0.347449,-12.2852,0.214525,52,8
0.0149473,-0.531796,-0.122823,15,1
0.398285,-14.2589,0.747567,42,9
0.0162807,-0.582859,-0.113341,16,2
0.333027,-11.9975,1.05005,45,10
0.0165579,-0.600286,-0.0951122,15,3
0.331549,-12.0966,1.48583,77,11
0.0231299,-0.849305,-0.10432,5,4
0.381615,-14.103,2.23451,9,12
0.210074,-7.76349,-0.679466,30,5
0.365589,-13.5985,2.64423,14,13
0.195446,-7.31735,-0.383623,73,6
0.312996,-11.7955,2.72416,57,14
0.215522,-8.17591,-0.142761,100,7
0.364711,-13.9277,3.73321,18,15
0.305307,-12.3163,0.215049,61,8
0.0130909,-0.531845,-0.122823,15,1
0.348463,-14.2582,0.747462,44,9
0.0142461,-0.582913,-0.113341,16,2
0.294963,-12.156,1.06382,18,10
0.0143672,-0.596391,-0.0944864,16,3
0.29013,-12.1314,1.48997,42,11
0.324752,-13.7804,2.1832,5,12
0.180532,-7.6606,-0.670402,37,5
0.315228,-13.476,2.62019,28,13
0.172173,-7.41582,-0.388752,42,6
0.273346,-11.8627,2.73945,29,14
0.184925,-8.08665,-0.14119,88,7
0.255565,-11.2617,3.01835,21,15
0.262021,-12.4053,0.216584,55,8
0.0111416,-0.531889,-0.122823,15,1
0.294459,-14.1755,0.743066,31,9
0.0121095,-0.582961,-0.113341,16,2
0.377929,-18.348,1.60558,37,10
0.012504,-0.612239,-0.0969894,15,3
0.249602,-12.3269,1.51386,42,11
0.0141036,-0.702581,-0.0862835,9,4
0.281669,-14.1547,2.24233,11,12
0.15384,-7.73093,-0.676503,21,5
0.268311,-13.6027,2.64461,17,13
0.146164,-7.47631,-0.391892,52,6
0.247193,-12.758,2.94596,44,14
0.159698,-8.3172,-0.145204,100,7
0.214435,-11.2703,3.02042,26,15
0.22041,-12.5022,0.21826,32,8
0.240353,-13.9088,0.72904,63,9
0.0100746,-0.583,-0.113341,16,2
0.245864,-14.373,1.25766,30,10
0.0105005,-0.620179,-0.0982409,15,3
0.207836,-12.4031,1.52312,38,11
0.0117827,-0.710565,-0.0872585,9,4
0.128096,-7.80712,-0.683127,32,5
0.220763,-13.5996,2.64385,16,13
0.119456,-7.43883,-0.389903,38,6
0.202442,-12.7451,2.94281,25,14
0.123818,-7.88183,-0.137595,69,7
0.174581,-11.2382,3.01162,39,15
0.178011,-12.5908,0.219796,55,8
0.007428,-0.531954,-0.122823,15,1
0.193921,-13.8876,0.727889,17,9
0.180799,-13.28,1.16196,20,10
0.00812325,-0.604411,-0.0957379,15,3
0.167567,-12.632,1.55115,36,11
0.00947897,-0.71457,-0.0877459,9,4
0.177689,-13.5736,2.15004,45,12
0.103366,-8.00276,-0.700209,8,5
0.173165,-13.5905,2.64194,15,13
0.105134,-8.36586,-0.438471,50,6
0.149524,-11.8981,2.7471,12,14
0.0977793,-7.89019,-0.137734,100,7
0.137385,-11.2445,3.01317,41,15
0.137469,-12.7033,0.22175,20,8
0.00566392,-0.531976,-0.122823,15,1
0.00610591,-0.583055,-0.113341,16,2
0.136372,-13.2427,1.15865,27,10
0.00623886,-0.616286,-0.0976151,15,3
0.125301,-12.5948,1.54652,39,11
0.00722778,-0.726508,-0.0892084,8,4
0.13314,-13.6215,2.15754,44,12
0.0767887,-7.99908,-0.699861,13,5
0.127966,-13.5773,2.63927,25,13
0.0708326,-7.65716,-0.401312,29,6
0.10904,-11.7874,2.72146,17,14
0.071905,-7.92247,-0.138293,86,7
0.0999234,-11.2255,3.008,27,15
0.108638,-14.4754,0.252676,50,8
0.00389983,-0.531992,-0.122823,15,1
0.100017,-13.9765,0.732494,20,9
0.00417251,-0.583072,-0.113341,16,2
0.092122,-13.1953,1.15446,32,10
0.00419512,-0.616303,-0.0976151,15,3
0.0835357,-12.5951,1.54652,47,11
0.00484564,-0.750349,-0.0921332,16,4
0.0861495,-13.7108,2.17162,40,12
0.0481348,-7.87975,-0.689402,27,5
0.0997909,-16.3359,3.17544,6,13
0.0450852,-7.59744,-0.398172,47,6
0.0670075,-11.6338,2.68592,66,14
0.044662,-7.99666,-0.139584,31,7
0.0610425,-11.2818,3.02301,18,15
0.0509741,-12.698,0.221646,7,8
0.0514102,-14.0267,0.735111,27,9
0.00203541,-0.583083,-0.113341,16,2
0.0437515,-13.1935,1.15429,37,10
0.00193622,-0.616315,-0.0976151,15,3
0.0395073,-12.5755,1.54408,50,11
0.00216757,-0.730511,-0.0896958,26,4
0.0380572,-13.6281,2.15848,42,12
0.0204472,-7.81014,-0.683301,35,5
0.0400328,-16.3833,3.1846,5,13
0.0179231,-7.89914,-0.413977,76,6
0.0242853,-11.595,2.67692,52,14
0.0166694,-7.95877,-0.138921,63,7
0.0216001,-11.2511,3.01472,28,15
0.00444013,-12.7181,0.221995,52,8
9.28871e-05,-0.532006,-0.122823,15,1
0.00245881,-14.0827,0.738042,24,9
-2.54875e-08,-0.583087,-0.113341,16,2
-0.000226105,-0.647924,-0.102621,14,3
-0.00659094,-12.5875,1.54555,47,11
-0.000547414,-0.784111,-0.0962768,28,4
-0.00946322,-13.555,2.14691,44,12
-0.00685464,-7.85599,-0.68731,30,5
-0.0142863,-13.6426,2.65186,9,13
-0.00946008,-7.74337,-0.405813,25,6
-0.0162205,-11.6184,2.68232,22,14
-0.0110136,-7.88879,-0.137699,62,7
-0.017618,-11.2163,3.00541,5,15
-0.0376994,-12.706,0.221785,41,8
-0.00167133,-0.532003,-0.122823,15,1
-0.0468053,-14.1146,0.739716,25,9
-0.00203532,-0.583083,-0.113341,16,2
-0.0454134,-12.3906,1.08404,11,10
-0.00237472,-0.647919,-0.102621,14,3
-0.04815,-12.5397,1.5397,38,11
-0.00313959,-0.78212,-0.0960331,14,4
-0.0334872,-7.67461,-0.671448,40,5
-0.0593218,-13.5954,2.6427,10,13
-0.0582843,-12.8442,-0.673145,26,6
-0.059738,-12.224,-0.213373,100,7
-0.0642994,-12.7037,3.40399,12,15
-0.0816758,-12.6478,0.220773,45,8
-0.00352837,-0.531994,-0.122823,15,1
-0.0958976,-14.0883,0.738356,18,9
-0.00396891,-0.583073,-0.113341,16,2
-0.0867665,-12.4282,1.08736,2,10
-0.00463639,-0.647907,-0.102621,14,3
-0.0908,-12.3866,1.52093,52,11
-0.00627194,-0.8357,-0.102614,11,4
-0.103866,-13.525,2.14221,23,12
-0.0613397,-7.80993,-0.683301,37,5
-0.1067,-13.5853,2.6408,26,13
-0.0626003,-7.79705,-0.408639,14,6
-0.102579,-12.5046,2.88702,2,14
-0.102038,-12.1797,-0.212605,100,7
-0.1079,-12.6165,3.38069,28,15
-0.125826,-12.6474,0.220773,45,8
-0.00538531,-0.531979,-0.122823,15,1
-0.146143,-14.1918,0.743799,49,9
-0.00610596,-0.583055,-0.113341,16,2
-0.132466,-12.4418,1.08858,4,10
-0.00701099,-0.647886,-0.102621,14,3
-0.133434,-12.3307,1.5141,42,11
-0.00947281,-0.861478,-0.105783,15,4
-0.15026,-13.4515,2.13064,24,12
-0.0930097,-8.19816,-0.717292,21,5
-0.0911767,-7.79677,-0.408639,14,6
-0.16342,-13.7688,3.17901,20,14
-0.143984,-12.1313,-0.211768,100,7
-0.153241,-12.7242,3.40968,9,15
-0.172234,-12.6509,0.220843,31,8
-0.00733515,-0.531955,-0.122823,15,1
-0.199635,-14.297,0.749346,17,9
-0.00814111,-0.58303,-0.113341,16,2
-0.189386,-13.3955,1.17207,32,10
-0.00927258,-0.647857,-0.102621,14,3
-0.178168,-12.2983,1.51021,45,11
-0.0137361,-0.936863,-0.115045,11,4
-0.197569,-13.3165,2.10936,39,12
-0.119615,-8.06231,-0.705439,38,5
-0.240067,-15.9928,3.10904,12,13
-0.118635,-7.81238,-0.409477,14,6
-0.212976,-13.8656,3.2015,24,14
-0.189346,-12.1887,-0.21278,100,7
-0.199999,-12.7313,3.41175,24,15
-0.215743,-12.6122,0.22018,36,8
-0.257976,-14.7795,0.774677,20,9
-0.234072,-13.2772,1.16179,30,10
-0.0115339,-0.647821,-0.102621,14,3
-0.221455,-12.3175,1.51264,35,11
-0.0175828,-0.968565,-0.118944,7,4
-0.242638,-13.2387,2.09716,24,12
-0.147903,-8.06981,-0.706136,30,5
-0.296727,-16.037,3.11782,8,13
-0.145644,-7.79794,-0.408744,29,6
-0.26321,-13.9622,3.224,18,14
-0.232272,-12.2079,-0.213129,100,7
-0.243844,-12.6996,3.40347,15,15
-0.25952,-12.5994,0.21997,27,8
-0.0102392,-0.492925,-0.113825,16,1
-0.307191,-14.7885,0.7752,37,9
-0.0122112,-0.582959,-0.113341,16,2
-0.296994,-14.0611,1.23046,68,10
-0.264576,-12.3226,1.51337,38,11
-0.0210924,-0.974452,-0.119676,1,4
-0.282093,-13.0325,2.06462,44,12
-0.175507,-8.04335,-0.70387,28,5
-0.299388,-13.6119,2.64652,10,13
-0.183087,-8.25863,-0.432923,14,6
-0.309989,-13.8735,3.20375,24,14
-0.273112,-12.2231,-0.213408,100,7
-0.285435,-12.6755,3.39726,23,15
-0.297044,-12.4206,0.216864,37,8
-0.356681,-14.6995,0.770595,41,9
-0.0142461,-0.582913,-0.113341,16,2
-0.347349,-14.1118,1.235,26,10
-0.0159432,-0.647727,-0.102621,14,3
-0.306963,-12.3832,1.52093,38,11
-0.0261071,-1.04582,-0.12845,1,4
-0.32391,-12.8853,2.04147,43,12
-0.204842,-8.09249,-0.708228,7,5
-0.59784,-23.6182,4.59239,5,13
-0.213781,-8.38776,-0.439727,39,6
-0.316654,-12.256,-0.214001,19,7
-0.320535,-12.323,3.30305,17,15
-0.335522,-12.2415,0.213757,52,8
-0.0146688,-0.531804,-0.122823,15,1
-0.386801,-13.8477,1.21199,65,10
-0.346201,-12.2411,1.50362,31,11
-0.0284024,-0.998097,-0.122601,1,4
-0.369169,-12.8939,2.04303,45,12
-0.389511,-13.6044,-1.19072,17,5
-0.681976,-23.6749,4.60384,22,13
-0.225065,-7.76608,-0.407174,14,6
-0.340524,-11.6797,2.69761,23,14
-0.35709,-12.1749,-0.212605,100,7
-0.342639,-11.6131,3.11308,9,15
-0.376336,-12.1783,0.212675,60,8
-0.0165251,-0.531749,-0.122823,15,1
-0.608711,-19.4777,1.02128,20,9
-0.0182135,-0.582802,-0.113341,16,2
-0.423995,-13.4918,1.18096,22,10
-0.390254,-12.2815,1.50874,21,11
-0.0329638,-1.03172,-0.126744,9,4
-0.416267,-12.9577,2.05336,9,12
-0.439875,-13.6926,-1.19857,5,5
-0.246598,-7.59357,-0.398172,29,6
-0.456009,-13.967,3.22625,24,14
-0.399126,-12.1596,-0.212361,100,7
-0.4934,-14.9521,4.00859,21,15
-0.419807,-12.2049,0.213164,56,8
-0.527097,-15.17,0.795507,19,9
-0.0202477,-0.582735,-0.113341,16,2
-0.47978,-13.7391,1.20275,57,10
-0.456631,-12.9467,1.59064,39,11
-0.0370572,-1.04549,-0.12845,22,4
-0.445253,-12.5002,1.98109,46,12
-0.488791,-13.6555,2.65606,27,13
-0.275543,-7.66053,-0.401731,18,6
-0.441342,-12.2106,2.82089,44,14
-0.439535,-12.1022,-0.211384,100,7
-0.452662,-12.4039,3.32582,24,15
-0.461954,-12.1914,0.212954,55,8
-0.020237,-0.531621,-0.122823,15,1
-0.58058,-15.1821,0.796239,11,9
-0.0223834,-0.582657,-0.113341,16,2
-0.510203,-13.1612,1.61721,36,11
-0.0406292,-1.04337,-0.128207,43,4
-0.484946,-12.3979,1.96513,46,12
-0.0639846,-1.62852,-0.142587,1,5
-0.537677,-13.6242,2.65034,10,13
-0.306941,-7.74328,-0.406127,3,6
-0.48431,-12.1641,2.81054,40,14
-0.48162,-12.0966,-0.211314,28,7
-0.489087,-12.2304,3.27976,39,15
-0.505553,-12.1636,0.2125,55,8
-0.63798,-15.2217,0.798437,29,9
-0.0244171,-0.582575,-0.113341,16,2
-0.571714,-13.584,1.1895,10,10
-0.556502,-13.1136,1.6116,39,11
-0.0448755,-1.05313,-0.129425,72,4
-0.529623,-12.3782,1.96231,43,12
-0.0708937,-1.65017,-0.144504,9,5
-0.585821,-13.636,2.65301,21,13
-0.525839,-12.141,2.80559,19,14
-0.53981,-12.3637,3.31599,39,15
-0.54702,-12.1398,0.212117,22,8
-0.0228077,-0.504208,-0.116525,16,1
-0.692105,-15.2414,0.799589,23,9
-0.0265522,-0.582482,-0.113341,16,2
-0.62423,-13.6416,1.19473,34,10
-0.598994,-13.0402,1.60283,39,11
-0.0472715,-1.0252,-0.126013,59,4
-0.574472,-12.4118,1.96795,45,12
-0.0766534,-1.64991,-0.144504,28,5
-0.0776982,-1.6599,-0.087087,2,6
-0.56814,-12.0922,2.79479,34,14
-0.582325,-12.3482,3.31237,29,15
-0.683104,-14.0172,0.244962,5,8
-0.0259884,-0.531371,-0.122823,15,1
-0.745108,-15.2349,0.799379,7,9
-0.757222,-15.3726,1.34656,33,10
-0.64285,-12.9586,1.59308,39,11
-0.0503579,-1.01512,-0.124794,48,4
-0.615241,-12.3585,1.95981,45,12
-0.0811199,-1.62376,-0.142238,39,5
-0.683873,-13.6412,2.65492,10,13
-0.0828898,-1.64765,-0.086459,19,6
-0.608432,-12.0942,2.79569,21,14
-0.0846904,-1.67761,-0.02932,2,7
-0.868109,-17.1367,4.59766,8,15
-1.12327,-21.5051,1.12857,3,9
-0.0305164,-0.582287,-0.113341,16,2
-0.691381,-13.0615,1.60599,39,11
-0.0546683,-1.03279,-0.126988,21,4
-0.668163,-12.5812,1.99548,49,12
-0.0859739,-1.61354,-0.141367,48,5
-0.731306,-13.6801,2.66293,15,13
-0.0879254,-1.63939,-0.0860403,39,6
-0.644882,-12.024,2.77995,44,14
-0.0889636,-1.65336,-0.0289012,13,7
-0.923785,-17.1125,4.59197,9,15
-0.0924452,-1.66919,0.0291804,1,8
-0.0294039,-0.529241,-0.122373,15,1
-0.0285141,-0.511615,-0.0996023,19,2
-0.859604,-15.3752,1.34725,15,10
-0.742719,-13.2018,1.62354,29,11
-0.0582044,-1.03458,-0.127232,7,4
-0.71255,-12.6263,2.00299,54,12
-0.091099,-1.60927,-0.141018,51,5
-1.09588,-19.2991,3.75741,11,13
-0.0926797,-1.62713,-0.0854123,55,6
-0.686745,-12.0568,2.78804,42,14
-0.0941037,-1.64706,-0.0287965,36,7
-0.980528,-17.1094,4.59197,6,15
-0.0951672,-1.62096,0.0283427,9,8
-0.0288676,-0.490233,-0.113375,16,1
-0.1005,-1.7067,0.0895992,1,9
-0.0343775,-0.582072,-0.113341,16,2
-0.771447,-13.0233,1.14139,2,10
-0.785548,-13.1834,1.62159,29,11
-0.0605721,-1.01655,-0.125038,4,4
-0.75206,-12.5844,1.99673,49,12
-0.0961966,-1.60498,-0.140669,52,5
-1.31549,-21.8842,4.26153,15,13
-0.0973539,-1.61485,-0.0847843,57,6
-0.726137,-12.0447,2.78579,46,14
-0.0990824,-1.63876,-0.0286569,48,7
-0.727637,-11.9999,3.22126,6,15
-0.102602,-1.64455,0.0287616,28,8
-0.0330978,-0.529023,-0.122373,15,1
-0.104051,-1.65846,0.087087,7,9
-0.0365107,-0.581942,-0.113341,16,2
-0.833863,-13.1805,1.62159,14,11
-0.0638465,-1.0064,-0.123819,4,4
-0.802005,-12.607,2.0008,52,12
-0.102205,-1.6066,-0.140844,52,5
-0.883259,-13.8462,2.69689,16,13
-0.102634,-1.60451,-0.0842609,63,6
-0.779116,-12.1469,2.81009,17,14
-0.105117,-1.63437,-0.028587,49,7
-1.11934,-17.3564,4.6603,13,15
-0.107684,-1.63421,0.028587,42,8
-0.0349443,-0.528904,-0.122373,15,1
-0.109443,-1.65211,0.086773,24,9
-0.111709,-1.68186,0.147468,1,10
-0.0674918,-1.00816,-0.124063,4,4
-0.107812,-1.60624,-0.140844,52,5
-0.931058,-13.8352,2.69537,20,13
-0.108504,-1.60813,-0.0844702,63,6
-0.816908,-12.076,2.79434,70,14
-0.109604,-1.61604,-0.0282729,54,7
-1.17888,-17.337,4.65616,4,15
-0.113665,-1.63781,0.0286569,59,8
-0.114515,-1.64175,0.0862497,49,9
-0.115216,-1.64767,0.144504,12,10
-0.0715685,-1.01583,-0.125038,5,4
-0.891529,-12.6228,2.00424,10,12
-0.112155,-1.58796,-0.139275,60,5
-0.980039,-13.8416,2.69728,25,13
-0.114116,-1.60774,-0.0844702,63,6
-0.85726,-12.0478,2.78849,46,14
-0.115386,-1.61764,-0.0283078,55,7
-1.23787,-17.3116,4.65046,5,15
-0.117346,-1.60948,0.0281682,66,8
-0.119661,-1.63338,0.085831,53,9
-0.120237,-1.63732,0.143633,37,10
-0.12285,-1.66494,0.204984,2,11
-0.075846,-1.02548,-0.126257,7,4
-0.93617,-12.6275,2.00549,10,12
-0.117256,-1.5816,-0.138752,83,5
-1.02573,-13.8029,2.69041,25,13
-0.118689,-1.59339,-0.0837375,82,6
-0.120435,-1.60925,-0.0281682,57,7
-1.38139,-18.4148,4.9481,8,15
-0.122963,-1.60906,0.0281682,86,8
-0.125362,-1.63295,0.085831,63,9
-0.125646,-1.63292,0.143284,47,10
-0.127896,-1.6546,0.203766,20,11
-0.0795786,-1.02718,-0.1265,9,4
-1.22354,-15.7576,2.50326,5,12
-0.123547,-1.59111,-0.139624,91,5
-1.08381,-13.9264,2.71521,35,13
-0.12394,-1.58899,-0.0835282,100,6
-0.944385,-12.0804,2.79749,8,14
-0.12574,-1.60484,-0.0280984,75,7
-0.93297,-11.881,3.19331,12,15
-0.128898,-1.61261,0.028238,92,8
-0.129303,-1.6106,0.0846796,65,9
-0.131505,-1.63445,0.143458,67,10
-0.0520755,-0.645827,-0.102621,14,3
-0.132391,-1.63832,0.201816,45,11
-0.0815612,-1.00711,-0.124063,6,4
-1.26975,-15.6449,2.48606,3,12
-0.130229,-1.60457,-0.140844,52,5
-0.128674,-1.57859,-0.0830048,100,6
-1.39652,-17.0959,3.96004,24,14
-0.131341,-1.60439,-0.0280984,97,7
-1.46331,-17.8368,4.7954,16,15
-0.134526,-1.61215,0.028238,100,8
-0.134924,-1.61014,0.0846796,76,9
-0.04869,-0.58105,-0.113341,16,2
-0.136543,-1.62604,0.142761,74,10
-0.13861,-1.64378,0.202547,85,11
-0.0835718,-0.989022,-0.121869,6,4
-0.138336,-1.63372,0.259681,4,12
-0.135772,-1.60012,-0.140495,16,5
-1.18316,-13.944,2.72017,15,13
-0.13503,-1.58808,-0.0835282,100,6
-1.3422,-15.7531,3.65006,19,14
-0.13592,-1.59196,-0.0278889,100,7
-1.53265,-17.9143,4.81766,3,15
-0.13998,-1.60968,0.0282031,100,8
-0.140544,-1.60966,0.0846796,89,9
-0.0508194,-0.580868,-0.113341,16,2
-0.140935,-1.60767,0.141192,86,10
-0.0566955,-0.645438,-0.102621,14,3
-0.143304,-1.63142,0.201084,88,11
-0.0854574,-0.970927,-0.119676,7,4
-0.144211,-1.63519,0.259994,11,12
-0.138024,-1.56192,-0.137183,45,5
-1.23513,-13.9493,2.72208,14,13
-0.141556,-1.59553,-0.0839469,100,6
-1.397,-15.715,3.64241,23,14
-0.143069,-1.60941,-0.0282031,100,7
-0.144975,-1.5992,0.0280286,100,8
-0.147167,-1.61709,0.0850983,99,9
-0.0528466,-0.580687,-0.113341,16,2
-0.146727,-1.60915,0.141367,94,10
-0.0589482,-0.645236,-0.102621,14,3
-0.148559,-1.62298,0.200109,100,11
-0.0902845,-0.984445,-0.121382,5,4
-0.150565,-1.63859,0.26062,44,12
-0.144569,-1.57334,-0.138229,41,5
-1.45101,-15.7611,3.0766,18,13
-0.147491,-1.59901,-0.0841562,100,6
-1.44772,-15.6654,3.63206,28,14
-0.148599,-1.60489,-0.0281333,100,7
-1.47486,-15.8985,4.27828,6,15
-0.150744,-1.60067,0.0280635,100,8
-0.152247,-1.6106,0.0847843,100,9
-0.152907,-1.61458,0.14189,100,10
-0.0649318,-0.684358,-0.108878,12,3
-0.152909,-1.60861,0.198403,100,11
-0.0933438,-0.980171,-0.120894,6,4
-0.155721,-1.63215,0.259681,51,12
-0.149493,-1.56687,-0.137706,58,5
-1.48323,-15.5175,3.03005,25,13
-0.15231,-1.59053,-0.0837375,100,6
-2.21367,-23.0743,5.35159,23,14
-0.154965,-1.61232,-0.0282729,100,7
-1.52572,-15.8452,4.26534,11,15
-0.15672,-1.60412,0.0281333,100,8
-0.15603,-1.59418,0.0839469,100,9
-0.157179,-1.60016,0.140669,100,10
-0.0708024,-0.719513,-0.11451,11,3
-0.158717,-1.61005,0.198647,100,11
-0.0955942,-0.967986,-0.119432,7,4
-0.160744,-1.62769,0.259056,62,12
-0.143192,-1.44738,-0.127247,87,5
-1.52558,-15.3931,3.00677,29,13
-1.56631,-15.748,3.65366,11,14
-0.159123,-1.59986,-0.0280635,100,7
-1.58093,-15.8669,4.27258,13,15
-0.16244,-1.60757,0.0282031,100,8
-0.161997,-1.5976,0.0841562,100,9
-0.0589245,-0.580102,-0.113341,16,2
-0.163368,-1.60555,0.141192,100,10
-0.0747878,-0.734996,-0.117013,10,3
-0.163854,-1.60754,0.198403,100,11
-0.0967871,-0.947916,-0.116995,9,4
-0.165018,-1.61337,0.256865,72,12
-0.11433,-1.11587,-0.0981374,46,5
-1.55981,-15.2239,2.97471,17,13
-0.163337,-1.59144,-0.0838422,15,6
-1.61773,-15.735,3.65186,35,14
-0.164092,-1.59333,-0.0279588,100,7
-1.6373,-15.8709,4.27517,7,15
-0.167427,-1.60102,0.0280984,100,8
-0.167989,-1.601,0.0843656,100,9
-0.0608479,-0.579903,-0.113341,16,2
-0.167651,-1.59509,0.140321,100,10
-0.0732163,-0.69544,-0.110756,12,3
-0.169881,-1.6109,0.198891,100,11
-0.0982187,-0.929805,-0.114801,11,4
-0.170856,-1.61475,0.257178,75,12
-0.116562,-1.10162,-0.0969172,61,5
-1.63404,-15.4175,3.01364,10,13
-0.168048,-1.58292,-0.0834235,55,6
-1.66419,-15.6498,3.63341,28,14
-0.169865,-1.59473,-0.0279937,100,7
-1.64678,-15.4348,4.15922,22,15
-0.17237,-1.59447,0.0279937,100,8
-0.174223,-1.60636,0.0846796,100,9
-0.171257,-1.57901,-0.308729,1,2
-0.173002,-1.59251,0.140146,100,10
-0.0807718,-0.742311,-0.118264,10,3
-0.175503,-1.6103,0.198891,100,11
-0.100387,-0.91959,-0.113582,12,4
-0.176062,-1.61021,0.256553,80,12
-0.119324,-1.0913,-0.0960456,48,5
-1.68956,-15.4273,3.01669,33,13
-0.173354,-1.58034,-0.0833189,100,6
-1.72754,-15.7233,3.65186,21,14
-0.176306,-1.60208,-0.0281333,100,7
-1.69642,-15.3906,4.14887,27,15
-0.177047,-1.58591,0.027854,100,8
-0.0591176,-0.528711,-0.122823,15,1
-0.178883,-1.59982,0.0843656,100,9
-0.0648949,-0.579464,-0.113341,16,2
-0.179893,-1.60378,0.141192,100,10
-0.0844652,-0.75184,-0.119829,20,3
-0.179791,-1.59784,0.197428,100,11
-0.101595,-0.90148,-0.111389,14,4
-0.181622,-1.61158,0.256865,82,12
-0.123133,-1.09088,-0.0960456,10,5
-1.75024,-15.4818,3.02852,8,13
-0.177522,-1.56782,-0.0826908,100,6
-1.78922,-15.7772,3.6658,30,14
-0.182068,-1.60546,-0.0282031,100,7
-1.74941,-15.4021,4.15353,15,15
-0.18299,-1.59127,0.0279588,100,8
-0.0608706,-0.528512,-0.122823,15,1
-0.184009,-1.59522,0.0841562,100,9
-0.0669172,-0.579234,-0.113341,16,2
-0.185261,-1.60116,0.141018,100,10
-0.0890013,-0.769216,-0.122645,19,3
-0.184861,-1.59526,0.197185,100,11
-0.100236,-0.863673,-0.106758,19,4
-0.187931,-1.61683,0.257804,93,12
-0.125788,-1.08055,-0.0951741,3,5
-0.184801,-1.58507,-0.0836329,125,6
-1.83633,-15.7267,3.65545,40,14
-0.18651,-1.59489,-0.0280286,100,7
-1.81462,-15.4938,4.17993,20,15
-0.188308,-1.58863,0.0279239,100,8
-0.062715,-0.528297,-0.122823,15,1
-0.190283,-1.60052,0.0844702,100,9
-0.188434,-1.58496,-0.310255,1,2
-0.190805,-1.60252,0.141192,100,10
-0.0954281,-0.800284,-0.127651,16,3
-0.190899,-1.59855,0.197672,100,11
-0.103957,-0.869231,-0.107489,13,4
-0.192164,-1.60439,0.255927,89,12
-0.128897,-1.07617,-0.0948254,6,5
-1.83524,-15.2999,2.99532,18,13
-0.190809,-1.58838,-0.0838422,100,6
-2.18892,-18.1948,4.23088,18,14
-0.191358,-1.58827,-0.0279239,100,7
-1.85851,-15.403,4.15715,13,15
-0.193853,-1.58797,0.0279239,100,8
-0.0645587,-0.528075,-0.122823,15,1
-0.195384,-1.59588,0.0842609,100,9
-0.19567,-1.59591,0.140669,100,10
-0.0987025,-0.803868,-0.128276,16,3
-0.197931,-1.6097,0.199135,100,11
-0.105293,-0.855072,-0.105783,15,4
-0.197763,-1.60371,0.255927,91,12
-0.129483,-1.05001,-0.0925594,7,5
-1.89513,-15.346,3.00562,28,13
-0.197333,-1.59564,-0.0842609,100,6
-1.92715,-15.5607,3.61991,47,14
-0.197393,-1.59156,-0.0279937,100,7
-1.86964,-15.0532,4.06449,18,15
-0.198647,-1.58133,0.0278191,100,8
-0.20295,-1.61104,0.0850983,100,9
-0.201458,-1.59919,-0.313308,2,2
-0.200242,-1.58731,0.139972,100,10
-0.100022,-0.791759,-0.126399,17,3
-0.2033,-1.60703,0.198891,121,11
-0.109524,-0.864546,-0.107001,9,4
-0.20336,-1.60301,0.255927,91,12
-0.130389,-1.0278,-0.090642,5,5
-1.95809,-15.4133,3.02012,15,13
-1.99279,-15.6428,3.64061,28,14
-0.204719,-1.60475,-0.028238,100,7
-1.92658,-15.0811,4.07381,12,15
-0.203397,-1.57468,0.0277144,100,8
-0.0682437,-0.527611,-0.122823,15,1
-0.208059,-1.60636,0.0848889,100,9
-0.207063,-1.59648,0.140844,100,10
-0.103549,-0.797282,-0.127338,16,3
-0.207116,-1.59253,0.197185,100,11
-0.107927,-0.828726,-0.102614,11,4
-0.209976,-1.61013,0.257178,96,12
-0.131399,-1.00759,-0.0888989,5,5
-2.02383,-15.4979,3.03806,19,13
-1.96819,-15.0309,3.49979,22,14
-0.210319,-1.60402,-0.028238,27,7
-1.98274,-15.1011,4.08106,12,15
-0.209419,-1.57792,0.0277842,100,8
-0.212348,-1.59572,0.0843656,100,9
-0.212617,-1.59775,-0.313308,1,2
-0.213161,-1.5997,0.141192,100,10
-0.107899,-0.808664,-0.129215,16,3
-0.211885,-1.58589,0.196453,100,11
-0.111609,-0.834247,-0.103345,11,4
-0.21612,-1.6133,0.257804,93,12
-0.131913,-0.983402,-0.0868071,2,5
-2.06069,-15.3623,3.01287,20,13
-0.144637,-1.07684,-0.0569415,8,6
-2.01597,-14.9892,3.49169,31,14
-0.215917,-1.60328,-0.028238,9,7
-2.03079,-15.0596,4.07174,18,15
-0.216005,-1.58511,0.0279239,34,8
-0.0719255,-0.527122,-0.122823,15,1
-0.217647,-1.59299,0.0842609,84,9
-0.219004,-1.60085,-0.314072,1,2
-0.218752,-1.59693,0.141018,100,10
-0.110862,-0.808263,-0.129215,40,3
-0.219038,-1.59694,0.197916,100,11
-0.1129,-0.822052,-0.101883,5,4
-0.220404,-1.60275,0.25624,100,12
-0.135888,-0.986883,-0.0871557,2,5
-1.67857,-12.1748,2.38893,30,13
-0.150222,-1.08817,-0.0575696,14,6
-2.07036,-14.9779,3.49079,27,14
-0.219322,-1.58667,-0.0279588,6,7
-2.08467,-15.062,4.07433,12,15
-0.222091,-1.58628,0.0279588,9,8
-0.226538,-1.61394,0.0854123,33,9
-0.221862,-1.58063,-0.310255,1,2
-0.223216,-1.58826,0.140321,100,10
-0.112031,-0.796135,-0.127338,33,3
-0.22572,-1.60203,0.198647,100,11
-0.113693,-0.805908,-0.0999329,6,4
-0.226001,-1.59998,0.255927,96,12
-0.132808,-0.939032,-0.0829723,4,5
-1.72298,-12.1825,2.3916,7,13
-0.152339,-1.07578,-0.0569415,14,6
-2.12372,-14.9783,3.49259,36,14
-0.226541,-1.59575,-0.0281333,5,7
-2.14938,-15.1212,4.09245,14,15
-0.225353,-1.56966,0.0276795,5,8
-0.0756957,-0.526593,-0.122823,15,1
-0.231316,-1.60721,0.0850983,8,9
-0.228467,-1.58349,0.139972,45,10
-0.112689,-0.780078,-0.124835,36,3
-0.23046,-1.59533,0.197916,100,11
-0.120484,-0.833011,-0.103345,5,4
-0.231585,-1.59918,0.255927,89,12
-0.132654,-0.914902,-0.0808805,3,5
-0.152259,-1.04754,-0.0554761,8,6
-2.17131,-14.9202,3.48089,45,14
-0.230094,-1.5811,-0.0278889,6,7
-2.25145,-15.452,4.18407,15,15
-0.23172,-1.57682,0.0278191,5,8
-0.0774414,-0.52634,-0.122823,15,1
-0.237518,-1.61236,0.0854123,6,9
-0.115428,-0.781674,-0.125148,44,3
-0.234878,-1.58867,0.197185,84,11
-0.118014,-0.79726,-0.0989579,6,4
-0.239493,-1.61599,0.258743,78,12
-0.134944,-0.910539,-0.0805319,3,5
-2.04243,-13.7648,2.70491,22,13
-0.148506,-0.999642,-0.052964,8,6
-2.06249,-13.8667,3.2366,18,14
-0.197635,-1.32716,-0.0234211,6,7
-2.28957,-15.3566,4.16026,6,15
-0.239009,-1.58787,0.0280286,11,8
-0.0792783,-0.526066,-0.122823,15,1
-0.242549,-1.60757,0.0852029,6,9
-0.240749,-1.59376,0.141018,5,10
-0.11786,-0.779313,-0.124835,36,3
-0.121391,-0.800769,-0.0994454,6,4
-0.243946,-1.60733,0.257491,33,12
-0.142905,-0.94158,-0.0833209,2,5
-1.65633,-10.9005,2.14317,28,13
-0.147789,-0.971474,-0.0514986,11,6
-0.171821,-1.1268,-0.0198957,9,7
-2.34608,-15.3676,4.16543,2,15
-2.2043,-14.305,0.252641,11,8
-0.0811141,-0.525786,-0.122823,15,1
-2.20599,-14.2828,0.757406,11,9
-0.24692,-1.59685,0.141367,7,10
-0.116047,-0.749615,-0.120142,30,3
-0.247483,-1.5968,0.198403,7,11
-0.12175,-0.784647,-0.0974955,6,4
-0.138851,-0.893824,-0.0791374,3,5
-1.71127,-11.0033,2.16454,54,13
-0.151179,-0.970953,-0.0514986,5,6
-2.15385,-13.8173,3.2285,47,14
-0.173286,-1.11039,-0.0196165,24,7
-1.90825,-12.2137,3.31237,21,15
-2.2265,-14.1214,0.249535,4,8
-0.082949,-0.5255,-0.122823,15,1
-2.27516,-14.3973,0.763896,27,9
-0.248757,-1.57236,0.139275,5,10
-0.119281,-0.753108,-0.120767,29,3
-0.253677,-1.59985,0.198891,7,11
-0.121376,-0.764612,-0.0950581,7,4
-0.255472,-1.60754,0.257804,4,12
-0.144471,-0.909076,-0.0805319,3,5
-1.75429,-11.0263,2.17026,37,13
-0.156138,-0.980281,-0.0520219,4,6
-1.97284,-12.3721,2.89242,38,14
-0.177477,-1.11175,-0.0196514,25,7
-1.92161,-12.0239,3.26267,22,15
-0.0847827,-0.525207,-0.122823,15,1
-2.2882,-14.1748,0.752486,85,9
-1.65242,-10.2137,0.9052,16,10
-0.119066,-0.735137,-0.117952,21,3
-0.260213,-1.60483,0.199622,5,11
-0.131042,-0.807292,-0.10042,6,4
-1.8063,-11.1278,1.78554,4,12
-0.152757,-0.940031,-0.0833209,2,5
-1.79372,-11.026,2.17141,19,13
-0.155064,-0.952132,-0.0505565,6,6
-2.02354,-12.4113,2.90322,19,14
-0.17537,-1.07563,-0.0190231,13,7
-1.90421,-11.6666,3.16743,16,15
-0.0865239,-0.524923,-0.122823,15,1
-2.32238,-14.0741,0.747567,30,9
-2.56347,-15.5015,1.37462,27,10
-0.119892,-0.724994,-0.116387,21,3
-1.66972,-10.0859,1.25525,11,11
-0.12528,-0.755935,-0.0940831,7,4
-2.3773,-14.3291,2.30053,11,12
-0.144286,-0.868736,-0.0770457,4,5
-1.78427,-10.743,2.11684,30,13
-0.15298,-0.920089,-0.0488818,8,6
-1.81096,-10.8802,2.54645,48,14
-0.175509,-1.05332,-0.0186392,9,7
-0.199059,-1.18319,0.0209429,1,8
-0.0883557,-0.524618,-0.122823,15,1
-2.41831,-14.3436,0.762326,37,9
-2.4295,-14.3947,1.27718,30,10
-0.120776,-0.714832,-0.114823,22,3
-2.43885,-14.4194,1.79562,44,11
-0.127255,-0.751578,-0.0935957,7,4
-2.43424,-14.3616,2.3071,19,12
-0.159152,-0.93897,-0.0833209,2,5
-1.82603,-10.7619,2.1218,11,13
-0.155856,-0.91758,-0.0487771,9,6
-1.83325,-10.7816,2.52485,45,14
-0.171467,-1.00736,-0.0178364,7,7
-2.50578,-14.7058,3.9972,24,15
-0.187949,-1.0938,0.0193722,2,8
-2.47108,-14.3508,0.763163,22,9
-2.47466,-14.3566,1.27457,60,10
-0.121592,-0.704673,-0.113259,11,3
-2.28408,-13.2234,1.64767,18,11
-0.127848,-0.739393,-0.0921332,8,4
-2.48166,-14.3374,2.30459,30,12
-1.85051,-10.68,2.10691,19,13
-0.158375,-0.913095,-0.0485678,4,6
-1.90154,-10.9518,2.56624,50,14
-0.1719,-0.989019,-0.0175222,6,7
-2.04383,-11.7469,3.19486,5,15
-0.195221,-1.11283,0.0197212,10,8
-1.7988,-10.2328,0.544503,6,9
-2.52648,-14.3577,1.27544,82,10
-0.126107,-0.715917,-0.115136,11,3
-2.38227,-13.5106,1.68448,60,11
-0.134569,-0.762401,-0.0950581,7,4
-1.77555,-10.0491,1.61628,26,12
-1.82111,-10.2965,2.0325,52,13
-0.155294,-0.877136,-0.0466837,5,6
-1.95506,-11.0314,2.58649,16,14
-0.173954,-0.980538,-0.0173826,3,7
-2.0784,-11.7036,3.18503,27,15
-0.198752,-1.11018,0.0196863,17,8
-2.5765,-14.3627,0.764733,0,9
-2.57659,-14.3488,1.27544,85,10
-0.128605,-0.715472,-0.115136,11,3
-2.44454,-13.5862,1.69496,56,11
-0.130896,-0.726761,-0.0906708,8,4
-2.59606,-14.3995,2.31742,24,12
-0.159775,-0.884451,-0.0471024,5,6
-0.175239,-0.968118,-0.0171732,1,7
-2.63416,-14.5381,3.9589,28,15
-0.201549,-1.10358,0.0195816,15,8
-0.0956719,-0.523333,-0.122823,15,1
-2.63779,-14.4005,1.28084,22,10
-0.128251,-0.699475,-0.112633,11,3
-2.49016,-13.5678,1.69374,11,11
-0.140606,-0.765348,-0.0955456,7,4
-1.97185,-10.7122,2.11722,21,13
-0.164309,-0.891744,-0.0475211,5,6
-2.0801,-11.2781,2.64767,24,14
-0.182075,-0.987197,-0.0175222,1,7
-2.67884,-14.5103,3.95372,29,15
-0.196794,-1.05768,0.0187788,8,8
-0.0974068,-0.523013,-0.122823,15,1
-0.214492,-1.15057,0.0613377,1,9
-3.02605,-16.2009,1.4419,25,10
-0.132021,-0.706813,-0.113884,11,3
-2.56286,-13.7077,1.71226,23,11
-0.138031,-0.73756,-0.0921332,8,4
-1.88948,-10.0866,1.62535,52,12
-0.157156,-0.838136,-0.0746053,4,5
-2.01279,-10.7345,2.12294,36,13
-0.166529,-0.887269,-0.0473117,5,6
-2.73456,-14.5558,3.41926,24,14
-0.178868,-0.951181,-0.0168939,2,7
-2.73412,-14.5255,3.96045,27,15
-0.197131,-1.03931,0.0184646,6,8
-0.099232,-0.52267,-0.122823,15,1
-0.217761,-1.14589,0.0611284,4,9
-2.83999,-14.9302,1.32965,23,10
-0.135227,-0.710229,-0.11451,11,3
-2.66346,-13.9756,1.74688,27,11
-0.14358,-0.752673,-0.0940831,7,4
-1.91246,-10.0159,1.61503,48,12
-0.154844,-0.810185,-0.072165,5,5
-2.06241,-10.7911,2.13553,21,13
-0.164371,-0.859218,-0.0458463,6,6
-2.903,-15.1605,3.56367,24,14
-0.182187,-0.950551,-0.0168939,2,7
-2.78809,-14.533,3.96511,25,15
-0.196583,-1.01702,0.0180807,6,8
-0.101056,-0.52232,-0.122823,15,1
-0.219861,-1.13532,0.060605,12,9
-2.88331,-14.8611,1.32442,11,10
-0.132557,-0.682581,-0.11013,12,3
-2.72888,-14.052,1.7576,42,11
-0.145449,-0.74827,-0.0935957,7,4
-2.86527,-14.7268,2.37624,29,12
-2.10195,-10.7834,2.13553,7,13
-0.168284,-0.862531,-0.0460556,6,6
-2.47224,-12.6596,2.9779,51,14
-2.82472,-14.4511,3.94544,34,15
-0.191802,-0.973127,0.0173128,6,8
-0.224021,-1.13451,0.060605,13,9
-3.14996,-15.9376,1.42134,3,10
-0.134172,-0.678238,-0.109504,12,3
-2.94578,-14.8773,1.86216,40,11
-0.145489,-0.734102,-0.0918895,16,4
-1.93411,-9.75011,1.57436,76,12
-0.171294,-0.861938,-0.0460556,6,6
-2.3978,-12.0545,2.83753,19,14
-2.89088,-14.507,3.96356,25,15
-0.191656,-0.954806,0.0169986,5,8
-0.226011,-1.12393,0.0600817,13,9
-0.14122,-0.701003,-0.113259,11,3
-2.76463,-13.711,1.71738,31,11
-0.150407,-0.745264,-0.0933519,31,4
-1.95875,-9.69683,1.56685,67,12
-2.1729,-10.7473,2.13134,34,13
-0.167963,-0.830014,-0.0443809,7,6
-2.97758,-14.7009,3.4629,33,14
-0.177994,-0.878003,-0.0156374,3,7
-3.09478,-15.2522,4.17009,13,15
-0.194987,-0.954131,0.0169986,3,8
-0.222723,-1.08791,0.0581976,10,9
-0.137316,-0.669544,-0.108253,12,3
-2.05367,-10.0047,1.25404,17,11
-0.15141,-0.736957,-0.092377,32,4
-2.1028,-10.2259,1.65351,33,12
-2.21277,-10.7512,2.13363,42,13
-0.178113,-0.864634,-0.046265,6,6
-2.37368,-11.5126,2.71381,25,14
-0.175399,-0.849959,-0.0151487,3,7
-2.96004,-14.3313,3.92111,13,15
-0.201167,-0.96715,0.017243,1,8
-0.10843,-0.520839,-0.122823,15,1
-0.22,-1.05584,0.0565228,7,9
-0.239172,-1.14685,0.102495,1,10
-0.14046,-0.672928,-0.108878,12,3
-3.12414,-14.9544,1.87581,37,11
-0.152356,-0.728652,-0.091402,25,4
-3.20023,-15.292,2.47448,23,12
-2.24707,-10.728,2.13057,34,13
-0.170475,-0.813183,-0.0435435,7,6
-2.46027,-11.7255,2.766,12,14
-0.157816,-0.751491,-0.0134034,5,7
-3.2127,-15.285,4.1851,15,15
-0.200402,-0.946878,0.0168939,2,8
-0.221845,-1.04729,0.0561041,5,9
-0.16165,-0.762465,-0.151502,9,2
-0.239452,-1.12847,0.100926,6,10
-0.14527,-0.684028,-0.110756,12,3
-3.19407,-15.0269,1.88629,4,11
-0.15242,-0.716466,-0.0899396,25,4
-3.25216,-15.2871,2.47542,25,12
-2.26282,-10.6184,2.11035,46,13
-0.17248,-0.808676,-0.0433342,7,6
-2.4483,-11.4691,2.70751,17,14
-0.160725,-0.752919,-0.0134384,21,7
-3.25893,-15.2535,4.17941,13,15
-0.210269,-0.977488,0.0174524,1,8
-0.222975,-1.0348,0.0554761,5,9
-0.143616,-0.665939,-0.132421,13,2
-0.243389,-1.12763,0.100926,15,10
-0.140869,-0.652648,-0.10575,13,3
-3.27239,-15.1482,1.90287,4,11
-0.154376,-0.714016,-0.0896958,17,4
-3.31344,-15.3123,2.48136,7,12
-2.24773,-10.3786,2.06417,34,13
-0.179391,-0.827619,-0.0443809,7,6
-2.48714,-11.4647,2.70841,74,14
-0.162928,-0.750399,-0.0134034,10,7
-3.44302,-15.8443,4.34454,17,15
-0.113787,-0.519695,-0.122823,15,1
-0.224876,-1.02621,0.0550574,4,9
-0.150867,-0.688472,-0.137001,12,2
-0.24542,-1.11903,0.100229,15,10
-0.143993,-0.656011,-0.106375,13,3
-0.156015,-0.709595,-0.0892084,35,4
-3.36092,-15.2736,2.47698,18,12
-2.2945,-10.4187,2.07371,9,13
-0.17884,-0.811384,-0.0435435,7,6
-2.52757,-11.4579,2.70886,40,14
-0.16727,-0.757637,-0.0135431,15,7
-3.36659,-15.2361,4.18096,6,15
-0.217164,-0.974731,0.052336,3,9
-0.154244,-0.691747,-0.137764,12,2
-0.245614,-1.10062,0.0986603,11,10
-0.168787,-0.755728,-0.122645,9,3
-0.160656,-0.718733,-0.0904271,34,4
-3.41206,-15.2522,2.47542,22,12
-2.40479,-10.732,2.13782,4,13
-0.177442,-0.791235,-0.0424968,8,6
-2.56997,-11.4505,2.70931,12,14
-0.166411,-0.741439,-0.0132638,5,7
-3.26183,-14.5211,3.98788,4,15
-0.222942,-0.983668,0.0528593,2,9
-0.154053,-0.679716,-0.135474,12,2
-0.240199,-1.05895,0.0949998,6,10
-0.143436,-0.631847,-0.102621,14,3
-0.157567,-0.692975,-0.0872585,27,4
-3.45961,-15.203,2.46947,14,12
-2.68725,-11.7994,2.35229,12,13
-0.18109,-0.794505,-0.0427061,8,6
-2.79802,-12.266,2.90457,29,14
-0.165567,-0.725228,-0.0129846,11,7
-3.31116,-14.4921,3.98323,12,15
-0.223237,-0.96926,0.0521266,2,9
-0.149488,-0.648538,-0.129368,13,2
-0.23557,-1.02118,0.0916878,6,10
-0.157304,-0.681361,-0.110756,12,3
-0.266589,-1.15473,0.145512,2,11
-0.154623,-0.669211,-0.0843336,10,4
-3.50331,-15.1504,2.4629,20,12
-2.47843,-10.7012,2.13515,21,13
-0.181295,-0.782162,-0.0420781,8,6
-2.80201,-12.0791,2.86273,46,14
-0.172616,-0.744125,-0.0133336,21,7
-3.36609,-14.4993,3.9884,13,15
-0.121122,-0.518035,-0.122823,15,1
-0.228268,-0.976293,0.0525453,1,9
-0.155217,-0.663331,-0.132421,13,2
-0.235321,-1.00487,0.0902933,5,10
-0.147844,-0.630831,-0.102621,14,3
-0.274245,-1.16925,0.147462,10,11
-0.156958,-0.668667,-0.0843336,10,4
-2.69003,-11.442,2.28475,22,13
-0.189377,-0.804887,-0.0433342,7,6
-2.86438,-12.1646,2.88522,46,14
-0.178291,-0.757174,-0.013578,20,7
-3.41283,-14.4824,3.98685,7,15
-0.23629,-0.994923,0.053592,1,9
-0.155715,-0.655145,-0.130895,13,2
-0.235599,-0.990476,0.0890732,5,10
-0.149935,-0.630337,-0.102621,14,3
-0.272604,-1.14516,0.144537,22,11
-0.184936,-0.776282,-0.097983,6,4
-3.47613,-14.5687,2.91136,35,13
-0.183696,-0.769287,-0.0414501,9,6
-2.89202,-12.1019,2.87262,63,14
-0.181398,-0.758492,-0.0136129,25,7
-3.47685,-14.5268,4.00238,1,15
-0.236015,-0.978559,0.0527546,1,9
-0.159728,-0.662259,-0.132421,13,2
-0.238415,-0.987753,0.0888989,4,10
-0.274268,-1.13455,0.143318,17,11
-3.54915,-14.6481,2.92968,15,13
-0.18638,-0.768641,-0.0414501,9,6
-2.95125,-12.1618,2.88927,57,14
-0.180269,-0.742308,-0.0133336,32,7
-7.5332,-30.9965,8.54724,6,15
-0.12645,-0.51676,-0.122823,15,1
-0.24323,-0.993249,0.053592,1,9
-0.156435,-0.638815,-0.127842,14,2
-0.230954,-0.942407,0.0848897,4,10
-0.272075,-1.10853,0.14015,10,11
-3.02484,-12.2964,2.46144,33,13
-0.182378,-0.740834,-0.0399847,10,6
-2.95033,-11.9755,2.84743,29,14
-0.181423,-0.73585,-0.0132289,22,7
-7.61775,-30.8743,8.52084,13,15
-0.253263,-1.01957,0.0550574,1,9
-0.162453,-0.653507,-0.130895,13,2
-0.231356,-0.929994,0.0838438,4,10
-0.268265,-1.07675,0.13625,8,11
-0.2939,-1.17877,0.192414,2,12
-2.99355,-11.9886,2.4019,20,13
-0.194646,-0.778947,-0.0420781,8,6
-5.64432,-22.571,5.37138,29,14
-0.179496,-0.717784,-0.0129148,11,7
-3.70176,-14.7919,4.08572,13,15
-0.274398,-1.0884,0.0588256,1,9
-0.159931,-0.6339,-0.127079,14,2
-0.232162,-0.919522,0.0829723,2,10
-0.26843,-1.06238,0.134544,8,11
-0.293168,-1.15859,0.189286,5,12
-3.00678,-11.874,2.38091,18,13
-0.196247,-0.774425,-0.0418688,8,6
-3.84613,-15.1664,3.61226,4,14
-0.180033,-0.7094,-0.0127752,5,7
-3.74338,-14.7396,4.07485,21,15
-0.14914,-0.583399,-0.13902,13,1
-0.278006,-1.08749,0.0588256,1,9
-0.161059,-0.629562,-0.126316,14,2
-0.242129,-0.945769,0.0854126,1,10
-0.160803,-0.627652,-0.102621,14,3
-0.264249,-1.03067,0.130644,6,11
-0.299954,-1.16909,0.191163,11,12
-3.05065,-11.8729,2.38282,9,13
-0.188007,-0.73118,-0.039566,10,6
-4.04522,-15.7209,3.74768,37,14
-3.78887,-14.714,4.07122,21,15
-0.157919,-0.609311,-0.145318,12,1
-0.2818,-1.08651,0.0588256,1,9
-0.166214,-0.640398,-0.128605,28,2
-0.24643,-0.948775,0.0857612,1,10
-0.162884,-0.627115,-0.102621,14,3
-0.258676,-0.99521,0.126257,4,11
-0.304033,-1.16803,0.191163,11,12
-4.06392,-15.6016,3.13385,1,13
-0.190431,-0.730552,-0.039566,10,6
-4.01321,-15.385,3.67075,23,14
-0.193949,-0.742986,-0.0134034,5,7
-3.84412,-14.7157,4.07536,9,15
-0.160045,-0.608756,-0.145318,12,1
-0.285591,-1.08552,0.0588256,1,9
-0.16445,-0.624625,-0.125552,29,2
-0.25972,-0.986487,0.0892475,1,10
-0.165072,-0.626543,-0.102621,14,3
-0.263667,-1.00006,0.126988,4,11
-0.293988,-1.11349,0.182403,8,12
-0.190042,-0.718265,-0.038938,10,6
-4.01755,-15.1843,3.62621,28,14
-3.87616,-14.6293,4.05518,18,15
-0.162275,-0.608166,-0.145318,12,1
-0.289568,-1.08447,0.0588256,1,9
-0.159643,-0.597464,-0.12021,31,2
-0.263334,-0.985528,0.0892475,1,10
-0.167367,-0.625934,-0.102621,14,3
-0.261173,-0.976074,0.124063,2,11
-0.290399,-1.08378,0.17771,6,12
-0.193709,-0.721421,-0.0391473,10,6
-4.13078,-15.3841,3.6775,14,14
-0.199261,-0.741579,-0.0134034,5,7
-3.94179,-14.6598,4.0676,7,15
-0.166862,-0.615853,-0.124026,14,2
-0.16966,-0.625316,-0.102621,14,3
-0.263709,-0.971279,0.123576,2,11
-0.289519,-1.06561,0.174894,5,12
-0.326767,-1.20105,0.241946,1,13
-0.195177,-0.716886,-0.038938,10,6
-4.20442,-15.4429,3.69505,9,14
-3.99193,-14.6422,4.06657,4,15
-0.14074,-0.513052,-0.122823,15,1
-0.170982,-0.622869,-0.125552,14,2
-0.171733,-0.62475,-0.102621,14,3
-0.26061,-0.947431,0.120651,2,11
-0.287808,-1.04559,0.171765,5,12
-0.327096,-1.18671,0.239275,5,13
-0.18587,-0.673877,-0.0366352,12,6
-0.204304,-0.740206,-0.0134034,5,7
-8.7269,-31.5966,8.78328,7,15
-0.300719,-1.08143,0.0588256,1,9
-0.177254,-0.63743,-0.128605,14,2
-0.173804,-0.624177,-0.102621,14,3
-0.260554,-0.935088,0.119188,2,11
-0.285086,-1.02175,0.168011,5,12
-0.331558,-1.18751,0.239656,12,13
-0.184879,-0.661715,-0.0360071,12,6
-8.86526,-31.6664,8.81124,7,15
-0.304492,-1.08037,0.0588256,1,9
-0.171063,-0.606544,-0.122499,15,2
-0.17609,-0.623536,-0.102621,14,3
-0.269211,-0.953277,0.121626,2,11
-0.283813,-1.00364,0.165195,4,12
-0.333233,-1.17684,0.237748,12,13
-0.178591,-0.630288,-0.0343324,13,6
-4.09239,-14.4238,4.01739,4,15
-0.288515,-1.01016,0.0550574,1,9
-0.175337,-0.613494,-0.124026,14,2
-0.178266,-0.622918,-0.102621,14,3
-0.291284,-1.01717,0.129913,2,11
-0.289491,-1.01024,0.166446,4,12
-0.330841,-1.15302,0.233169,6,13
-0.182995,-0.637339,-0.0347511,26,6
-0.354087,-1.23241,0.296036,1,14
-9.73147,-33.8485,9.43706,16,15
-0.297592,-1.02834,0.0561041,1,9
-0.181846,-0.627964,-0.127079,14,2
-0.18033,-0.622323,-0.102621,14,3
-0.294656,-1.0162,0.129913,2,11
-0.283102,-0.975078,0.160815,4,12
-0.323709,-1.11421,0.225536,6,13
-0.181762,-0.625222,-0.034123,40,6
-0.363615,-1.24994,0.300535,2,14
-9.80796,-33.6715,9.3972,8,15
-0.315789,-1.07712,0.0588256,1,9
-0.19166,-0.653733,-0.132421,13,2
-0.176938,-0.602736,-0.0994923,14,3
-0.287618,-0.977874,0.16144,2,12
-0.323162,-1.09801,0.222483,5,13
-0.183943,-0.624583,-0.034123,27,6
-0.358061,-1.21502,0.292436,8,14
-4.22353,-14.3134,3.99875,4,15
-0.15081,-0.508151,-0.122373,15,1
-0.194055,-0.653026,-0.132421,13,2
-0.175765,-0.590723,-0.0976151,15,3
-0.287082,-0.963612,0.15925,2,12
-0.318205,-1.06672,0.216377,5,13
-0.179376,-0.600939,-0.032867,43,6
-0.360838,-1.2081,0.291087,11,14
-0.294538,-0.979261,0.053592,1,9
-0.182754,-0.607226,-0.123263,15,2
-0.183526,-0.60902,-0.100744,14,3
-0.290444,-0.962604,0.15925,2,12
-0.319655,-1.05808,0.214851,4,13
-0.187252,-0.619428,-0.0339137,41,6
-0.358847,-1.18631,0.286138,11,14
-0.169991,-0.557757,-0.113341,16,2
-0.184392,-0.604629,-0.100118,14,3
-0.285721,-0.935136,0.15487,2,12
-0.317996,-1.04012,0.211416,4,13
-0.191642,-0.626443,-0.0343324,27,6
-0.354793,-1.15903,0.279839,8,14
-0.183412,-0.594711,-0.120973,15,2
-0.181839,-0.588882,-0.0976151,15,3
-0.291319,-0.941681,0.156122,2,12
-0.311755,-1.00712,0.204929,4,13
-0.189691,-0.612415,-0.0335997,28,6
-0.353645,-1.14103,0.27579,8,14
-0.193678,-0.620304,-0.126316,14,2
-0.188609,-0.603327,-0.100118,14,3
-0.292243,-0.933118,0.15487,1,12
-0.309985,-0.989164,0.201494,2,13
-0.196011,-0.62509,-0.0343324,27,6
-0.350041,-1.11562,0.269941,7,14
-0.38966,-1.24037,0.34837,2,15
-0.191109,-0.604648,-0.123263,15,2
-0.183562,-0.580065,-0.0963636,15,3
-0.29908,-0.943391,0.156747,1,12
-0.31403,-0.989947,0.201876,2,13
-0.200609,-0.632016,-0.0347511,26,6
-0.345085,-1.08653,0.263193,5,14
-0.390475,-1.22796,0.345265,6,15
-0.191611,-0.598233,-0.0994923,14,3
-0.316856,-0.987483,0.164256,1,12
-0.309081,-0.962675,0.196533,2,13
-0.203425,-0.633214,-0.0348557,26,6
-0.341719,-1.06306,0.257794,5,14
-0.390024,-1.21187,0.341124,10,15
-0.19624,-0.605043,-0.100744,14,3
-0.310539,-0.95631,0.15925,1,12
-0.308358,-0.948466,0.193862,2,13
-0.21254,-0.653356,-0.0360071,12,6
-0.339581,-1.04327,0.253295,5,14
-0.384081,-1.17928,0.332324,11,15
-0.187163,-0.570603,-0.0951122,15,3
-0.329908,-1.00401,0.167385,1,12
-0.307823,-0.936249,0.191572,2,13
-0.209713,-0.63747,-0.0351698,26,6
-0.337555,-1.02547,0.249246,4,14
-0.383358,-1.16325,0.328183,9,15
-0.214359,-0.646646,-0.132421,13,2
-0.191643,-0.577445,-0.0963636,15,3
-0.317208,-0.954119,0.15925,1,12
-0.30861,-0.927717,0.190046,2,13
-0.218244,-0.655684,-0.0362165,12,6
-0.338054,-1.01505,0.246996,4,14
-0.374584,-1.12342,0.317312,7,15
-0.205485,-0.612353,-0.125552,14,2
-0.193758,-0.576739,-0.0963636,15,3
-0.317021,-0.941464,0.193099,1,13
-0.220646,-0.65488,-0.0362165,12,6
-0.335547,-0.995333,0.242497,4,14
-0.371094,-1.10014,0.3111,5,15
-0.200048,-0.589324,-0.120973,15,2
-0.194499,-0.572319,-0.0957379,15,3
-0.320305,-0.940352,0.193099,1,13
-0.221642,-0.650325,-0.0360071,12,6
-0.3321,-0.973867,0.237548,3,14
-0.372627,-1.09146,0.30903,4,15
-0.199554,-0.581194,-0.119446,15,2
-0.191358,-0.556691,-0.0932349,16,3
-0.323585,-0.939228,0.193099,1,13
-0.227816,-0.660877,-0.0366352,12,6
-0.333591,-0.967175,0.236199,2,14
-0.366345,-1.06094,0.300748,4,15
-0.205741,-0.592807,-0.144868,12,1
-0.199005,-0.573076,-0.11792,16,2
-0.192652,-0.554154,-0.0929221,32,3
-0.333322,-0.956632,0.196915,1,13
-0.223547,-0.641218,-0.0355885,12,6
-0.338249,-0.969684,0.237098,2,14
-0.362859,-1.03965,0.295054,4,15
-0.175453,-0.500177,-0.122373,15,1
-0.206209,-0.587196,-0.120973,15,2
-0.197762,-0.562831,-0.0944864,32,3
-0.220362,-0.625403,-0.0347511,13,6
-0.340815,-0.96672,0.236649,1,14
-0.360699,-1.02198,0.290395,4,15
-0.177198,-0.499561,-0.122373,15,1
-0.202902,-0.571708,-0.11792,16,2
-0.195758,-0.550969,-0.0926092,32,3
-0.234609,-0.658496,-0.0366352,12,6
-0.332409,-0.932483,0.22855,1,14
-0.363615,-1.0189,0.289877,4,15
-0.189467,-0.528289,-0.129572,14,1
-0.197035,-0.548787,-0.113341,16,2
-0.199112,-0.553965,-0.0932349,32,3
-0.224832,-0.62381,-0.0347511,26,6
-0.337808,-0.936758,0.2299,1,14
-0.35799,-0.992183,0.28263,4,15
-0.180769,-0.498281,-0.122373,15,1
-0.212346,-0.585005,-0.120973,15,2
-0.201045,-0.553267,-0.0932349,32,3
-0.230426,-0.632404,-0.0352744,26,6
-0.335736,-0.920926,0.226301,1,14
-0.353508,-0.969149,0.276419,4,15
-0.18242,-0.497678,-0.122373,15,1
-0.213035,-0.580574,-0.12021,15,2
-0.195389,-0.532199,-0.0897934,34,3
-0.234592,-0.63726,-0.0355885,25,6
-0.332053,-0.901522,0.221802,1,14
-0.35221,-0.955221,0.272795,2,15
-0.184156,-0.497039,-0.122373,15,1
-0.225877,-0.609318,-0.126316,14,2
-0.199308,-0.53707,-0.090732,16,3
-0.230547,-0.61959,-0.0346464,26,6
-0.337917,-0.907662,0.223601,1,14
-0.352844,-0.946745,0.270725,2,15
-0.199558,-0.532892,-0.131371,14,1
-0.204582,-0.546018,-0.113341,16,2
-0.227543,-0.606654,-0.102621,14,3
-0.227084,-0.603826,-0.033809,27,6
-0.332848,-0.88459,0.218203,1,14
-0.356146,-0.945507,0.270725,2,15
-0.187621,-0.495741,-0.122373,15,1
-0.206487,-0.545301,-0.113341,16,2
-0.227771,-0.599296,-0.0335997,28,6
-0.345631,-0.908924,0.224501,1,14
-0.351036,-0.922654,0.264513,2,15
-0.189264,-0.495116,-0.122373,15,1
-0.208389,-0.544577,-0.113341,16,2
-0.234051,-0.609725,-0.0342277,27,6
-0.354232,-0.922326,0.2281,1,14
-0.347322,-0.903391,0.259337,2,15
-0.190992,-0.494452,-0.122373,15,1
-0.234012,-0.603318,-0.0339137,27,6
-0.349074,-0.898572,0.258301,2,15
-0.192716,-0.493783,-0.122373,15,1
-0.236221,-0.602456,-0.0339137,27,6
-0.347974,-0.886558,0.255196,2,15
-0.24053,-0.607199,-0.0342277,27,6
-0.35692,-0.899642,0.259337,2,15
-0.239679,-0.598938,-0.033809,27,6
-0.362214,-0.903771,0.26089,2,15
-0.244763,-0.605505,-0.0342277,27,6
-0.347819,-0.859585,0.248466,2,15
-0.242996,-0.595444,-0.0337044,28,6
-0.350817,-0.858366,0.248466,1,15
-0.239745,-0.581666,-0.0329717,28,6
-0.349241,-0.846483,0.24536,1,15
-0.251647,-0.60484,-0.0343324,27,6
-0.358138,-0.859525,0.249502,1,15
-0.223654,-0.534662,-0.155291,12,0
-0.248444,-0.591025,-0.0335997,28,6
-0.380774,-0.904499,0.26296,1,15
-0.23958,-0.564415,-0.0321343,29,6
-0.379394,-0.892497,0.259854,1,15
-0.254724,-0.595752,-0.102621,14,3
-0.244696,-0.570919,-0.032553,29,6
-0.581909,-1.3577,0.341026,1,14
-0.223829,-0.518727,-0.0894805,17,3
-0.240245,-0.555439,-0.0317156,30,6
-0.59105,-1.36649,0.343725,1,14
-0.246052,-0.565071,-0.0976151,15,3
-0.255668,-0.585758,-0.033495,14,6
-0.596596,-1.36621,0.344175,1,14
-0.260742,-0.593143,-0.102621,14,3
-0.251268,-0.57024,-0.0326576,14,6
-0.604506,-1.37125,0.345975,1,14
-0.254069,-0.571184,-0.0327623,29,6
-0.611666,-1.37447,0.347324,1,14
-0.251153,-0.559362,-0.0321343,29,6
-0.610072,-1.35811,0.343725,1,14
-0.254752,-0.56212,-0.0323436,29,6
-0.60998,-1.34532,0.341026,1,14
-0.317216,-0.699299,-0.0134034,5,7
-0.260135,-0.568447,-0.0327623,29,6
-0.255419,-0.55303,-0.0319249,30,6
-0.32209,-0.697067,-0.0134034,5,7
-0.260625,-0.559422,-0.0323436,29,6
-0.324521,-0.695938,-0.0134034,5,7
-0.257477,-0.547664,-0.0317156,30,6
-0.326827,-0.694858,-0.0134034,5,7
-0.249279,-0.527115,-0.113341,16,2
-0.258436,-0.545002,-0.0316109,30,6
-0.329251,-0.693713,-0.0134034,5,7
-0.251025,-0.526285,-0.113341,16,2
-0.255165,-0.533287,-0.0309829,31,6
-0.33167,-0.69256,-0.0134034,5,7
-0.252861,-0.525406,-0.113341,16,2
-0.258762,-0.53599,-0.0311922,31,6
-0.334086,-0.691398,-0.0134034,5,7
-0.285565,-0.588098,-0.127079,14,2
-0.259756,-0.533288,-0.0310876,31,6
-0.329487,-0.675848,-0.0131242,5,7
-0.256523,-0.523628,-0.113341,16,2
-0.258974,-0.527001,-0.0307735,31,6
-0.258349,-0.522729,-0.113341,16,2
-0.263473,-0.531462,-0.0310876,31,6
-0.35185,-0.709419,-0.0138223,5,7
-0.25809,-0.516293,-0.0302502,32,6
-0.343587,-0.686726,-0.0134034,5,7
-0.755527,-1.49894,0.326283,1,13
-0.264387,-0.524306,-0.0307735,15,6
-0.757196,-1.48929,0.324757,1,13
-0.268026,-0.52694,-0.0309829,15,6
-0.242187,-0.473683,-0.122823,15,1
-0.748952,-1.46044,0.319033,2,13
-0.273511,-0.53311,-0.0314016,15,6
-0.243839,-0.472835,-0.122823,15,1
-0.760359,-1.47002,0.321704,3,13
-0.268027,-0.517961,-0.0305642,15,6
-0.245488,-0.471981,-0.122823,15,1
-0.770026,-1.47606,0.323612,3,13
-0.267985,-0.513481,-0.0303549,16,6
-0.247134,-0.471121,-0.122823,15,1
-0.782487,-1.48726,0.326665,1,13
-0.280939,-0.533751,-0.0316109,15,6
-0.248777,-0.470256,-0.122823,15,1
-0.820799,-1.54695,0.340403,1,13
-0.2828,-0.532767,-0.0316109,15,6
-0.250335,-0.469428,-0.122823,15,1
-0.26572,-0.496606,-0.0295175,16,6
-0.251972,-0.468551,-0.122823,15,1
-0.253607,-0.467669,-0.122823,15,1
-0.277872,-0.508598,-0.155291,12,0
-0.279557,-0.507673,-0.155291,12,0
-0.249123,-0.445024,-0.136656,14,0
-0.237382,-0.420598,-0.12941,15,0
-0.28686,-0.507643,-0.113341,16,2
-0.238849,-0.419767,-0.12941,15,0
-0.28863,-0.506639,-0.113341,16,2
-0.925171,-1.62134,0.295661,1,12
-0.240239,-0.418973,-0.12941,15,0
-0.290309,-0.505679,-0.113341,16,2
-0.917035,-1.59413,0.291281,1,12
-0.290041,-0.501758,-0.155291,12,0
