x, y, z, intensity, ring
13.679,10.0005,0.888037,19,9
4.53116,3.31267,-1.09105,11,2
18.5858,13.5828,2.01399,34,10
5.02287,3.66946,-0.985224,33,3
28.8016,21.0333,4.37901,14,11
5.60682,4.09306,-0.852354,29,4
6.39423,4.66617,-0.69254,16,5
7.38459,5.38493,-0.478979,39,6
8.7595,6.38286,-0.189184,100,7
10.6933,7.7663,0.230686,31,8
0.468358,0.340033,-0.133621,14,1
13.7009,9.94331,0.887199,21,9
4.53475,3.29106,-1.08914,11,2
18.6089,13.5003,2.01138,34,10
5.03405,3.65074,-0.984912,31,3
28.8234,20.8954,4.37121,14,11
5.6275,4.07812,-0.853329,23,4
52.0377,37.6967,10.1773,19,12
6.38466,4.62512,-0.689751,23,5
58.3891,42.2822,14.013,32,13
7.39849,5.35561,-0.478665,43,6
8.77201,6.34521,-0.188975,100,7
10.6993,7.71372,0.230232,35,8
0.501161,0.361183,-0.142619,13,1
13.7144,9.88025,0.885838,20,9
4.55099,3.27866,-1.09028,11,2
18.643,13.426,2.00999,24,10
5.04035,3.62853,-0.98366,28,3
28.9735,20.8503,4.38291,14,11
5.6417,4.05846,-0.853329,27,4
6.404,4.60513,-0.690099,16,5
7.39605,5.31461,-0.477304,54,6
8.77786,6.30289,-0.188626,100,7
10.7261,7.67632,0.230232,28,8
0.461211,0.329952,-0.130922,14,1
13.731,9.81953,0.884687,20,9
4.56081,3.26161,-1.0899,11,2
18.7027,13.3701,2.01138,24,10
5.04816,3.60747,-0.982721,27,3
28.8975,20.6429,4.36049,14,11
5.65583,4.03874,-0.853329,25,4
6.43139,4.59085,-0.691319,15,5
7.40805,5.28411,-0.476885,58,6
8.80469,6.27569,-0.18873,100,7
10.748,7.63537,0.230127,31,8
0.46236,0.32834,-0.130922,14,1
13.7228,9.74148,0.881966,21,9
4.56896,3.24339,-1.08914,11,2
18.7362,13.2955,2.00999,24,10
5.06395,3.59211,-0.983347,27,3
28.9629,20.5373,4.35951,14,11
5.6537,4.00749,-0.850892,27,4
6.43599,4.56031,-0.690099,15,5
7.41993,5.25361,-0.476467,43,6
8.81349,6.23568,-0.188451,100,7
10.7549,7.58397,0.229709,28,8
0.466689,0.328969,-0.131821,14,1
13.7584,9.69467,0.88207,20,9
4.57063,3.22064,-1.08685,9,2
18.7597,13.2139,2.00755,23,10
5.0813,3.57783,-0.984286,27,3
29.0247,20.4292,4.35805,14,11
5.66928,3.98887,-0.851136,21,4
6.4421,4.53094,-0.689053,16,5
7.43496,5.22538,-0.476257,65,6
8.82538,6.19798,-0.188242,100,7
10.765,7.53492,0.22936,30,8
0.480608,0.336276,-0.135421,13,1
13.8101,9.65918,0.883222,18,9
4.5931,3.21254,-1.08952,9,2
18.7731,13.1255,2.00406,33,10
5.08404,3.55328,-0.982409,27,3
29.0405,20.2891,4.34976,14,11
5.69456,3.97701,-0.852842,20,4
6.44807,4.50159,-0.688007,15,5
55.2606,38.5647,13.0987,28,13
7.45971,5.20396,-0.476676,43,6
8.82236,6.14999,-0.187718,100,7
10.7748,7.48588,0.22901,37,8
0.452968,0.314587,-0.127322,15,1
13.8503,9.61548,0.88364,16,9
4.60106,3.19425,-1.08876,6,2
18.809,13.0531,2.00301,33,10
5.08343,3.5265,-0.979906,23,3
29.0524,20.1469,4.34099,28,11
5.70841,3.95711,-0.852842,19,4
6.46702,4.48132,-0.688356,15,5
7.48111,5.18017,-0.476885,39,6
8.86844,6.13622,-0.188242,100,7
10.8223,7.46299,0.229464,23,8
0.460481,0.317428,-0.129122,14,1
13.8756,9.5614,0.883117,12,9
4.62512,3.18708,-1.09181,6,2
18.8347,12.9738,2.00092,23,10
5.1071,3.51658,-0.982096,26,3
29.1095,20.0363,4.33904,14,11
5.72055,3.93604,-0.852598,19,4
6.4777,4.45533,-0.687833,16,5
7.4975,5.15289,-0.476781,39,6
8.8898,6.10523,-0.188242,100,7
10.8614,7.4342,0.229743,26,8
0.471237,0.322421,-0.131821,14,1
13.8924,9.50163,0.88207,13,9
0.683846,0.467713,-0.161043,15,2
18.8799,12.908,2.00092,33,10
5.11771,3.49761,-0.981783,26,3
29.1891,19.9413,4.3405,14,11
5.72934,3.91269,-0.851867,20,4
6.50473,4.44055,-0.689053,16,5
7.51049,5.12331,-0.476467,39,6
8.89949,6.06627,-0.187997,100,7
10.8824,7.39287,0.229639,25,8
0.456238,0.309826,-0.127322,15,1
13.9056,9.43962,0.880814,15,9
0.685474,0.465324,-0.161043,15,2
18.91,12.8319,1.99935,38,10
5.1397,3.48638,-0.98366,26,3
29.2717,19.8482,4.34245,14,11
5.73803,3.88932,-0.851136,21,4
48.4798,32.848,9.275,15,12
6.52096,4.41668,-0.689053,21,5
48.0271,32.529,11.2753,18,13
7.53329,5.10042,-0.476781,39,6
8.9173,6.03293,-0.187928,100,7
10.8965,7.34701,0.229394,23,8
0.483172,0.325658,-0.134521,14,1
13.9137,9.37428,0.879244,19,9
0.666006,0.448551,-0.156082,17,2
18.9685,12.7703,2.00057,33,10
5.14589,3.46311,-0.982409,26,3
29.3276,19.7371,4.3405,14,11
5.75981,3.87481,-0.852354,20,4
6.53303,4.39167,-0.688705,15,5
48.1785,32.3746,11.2829,18,13
7.54862,5.07055,-0.476571,39,6
8.93167,5.99731,-0.187788,100,7
10.9051,7.29479,0.22901,25,8
0.474642,0.317386,-0.131821,14,1
13.9413,9.31878,0.878825,18,9
0.674097,0.450587,-0.157608,17,2
19.0096,12.7018,2.00022,33,10
5.14973,3.43964,-0.980844,25,3
29.3931,19.625,4.33952,28,11
5.77727,3.85588,-0.852842,20,4
41.0824,27.409,7.82204,11,12
6.54666,4.36774,-0.68853,15,5
48.4481,32.3108,11.3196,19,13
7.56793,5.04528,-0.476676,39,6
8.97023,5.97562,-0.188137,100,7
10.9288,7.25558,0.228976,25,8
0.443273,0.294176,-0.122823,15,1
13.9637,9.26344,0.878197,19,9
0.669122,0.44389,-0.156082,17,2
19.0057,12.6035,1.99517,38,10
5.15512,3.41728,-0.979593,25,3
29.4151,19.4916,4.3327,28,11
5.78573,3.8324,-0.852111,21,4
41.1746,27.2632,7.82141,11,12
6.56187,4.34486,-0.68853,15,5
48.6686,32.213,11.3447,19,13
7.5755,5.01222,-0.476048,39,6
8.96935,5.92993,-0.187683,100,7
10.9374,7.20638,0.228627,30,8
0.444297,0.292627,-0.122823,15,1
13.986,9.21159,0.877674,19,9
0.680506,0.44803,-0.158371,16,2
19.0396,12.5305,1.99412,38,10
5.17527,3.40469,-0.981157,26,3
29.5195,19.4128,4.33806,28,11
5.79078,3.80673,-0.850892,18,4
41.0436,26.9811,7.77949,22,12
6.577,4.32192,-0.68853,13,5
47.9603,31.5041,11.1539,18,13
7.58628,4.98136,-0.475629,39,6
8.98562,5.89796,-0.187613,100,7
10.9428,7.15803,0.228243,27,8
0.477886,0.312481,-0.131821,14,1
13.9964,9.14851,0.876313,16,9
0.662343,0.432765,-0.153792,27,2
19.0865,12.4661,1.99447,38,10
5.18984,3.38967,-0.981783,26,3
29.577,19.3105,4.33709,28,11
5.80005,3.78533,-0.850404,18,4
41.1937,26.8743,7.79012,22,12
6.58704,4.29568,-0.688007,13,5
48.3309,31.5186,11.2158,18,13
7.6061,4.95836,-0.475839,39,6
8.99107,5.85674,-0.187299,100,7
10.9627,7.11653,0.228138,28,8
0.478973,0.310811,-0.131821,14,1
14.04,9.1072,0.877046,20,9
0.680245,0.44125,-0.157608,34,2
19.0709,12.3659,1.98855,42,10
5.20164,3.37154,-0.981783,23,3
29.6293,19.1974,4.33489,28,11
5.81656,3.76722,-0.850892,19,4
41.3868,26.7948,7.8089,23,12
6.59363,4.26724,-0.687136,15,5
48.0088,31.0702,11.1158,18,13
7.62504,4.93286,-0.475943,39,6
9.0081,5.82314,-0.187229,100,7
10.9824,7.07497,0.228033,27,8
0.480055,0.309138,-0.131821,14,1
14.0935,9.07219,0.878407,19,9
0.756153,0.48656,-0.174781,26,2
19.158,12.3229,1.9929,38,10
5.19901,3.34283,-0.978967,25,3
29.6193,19.0445,4.32368,28,11
5.82967,3.7469,-0.850892,19,4
6.61184,4.24636,-0.687485,13,5
7.63466,4.89949,-0.47542,39,6
9.02838,5.79166,-0.187229,100,7
11.0184,7.04113,0.228243,31,8
0.44834,0.286395,-0.122823,15,1
14.1182,9.0151,0.877883,20,9
0.797559,0.509276,-0.18394,25,2
19.216,12.2656,1.99447,33,10
5.21231,3.32573,-0.97928,23,3
29.7307,18.9625,4.32977,28,11
5.85006,3.72977,-0.851867,20,4
41.8307,26.6593,7.85645,11,12
6.6199,4.21897,-0.686787,16,5
7.63319,4.86101,-0.474268,39,6
9.04279,5.75424,-0.18709,100,7
11.0412,7.00155,0.228208,28,8
0.449337,0.284828,-0.122823,15,1
14.1159,8.94439,0.87579,22,9
0.827524,0.524353,-0.190427,19,2
19.2453,12.1899,1.99308,38,10
5.2339,3.31385,-0.981157,22,3
29.7213,18.8108,4.31881,28,11
5.85298,3.70296,-0.850404,22,4
40.6546,25.7107,7.61867,10,12
6.64469,4.20222,-0.687833,16,5
48.6688,30.7671,11.1921,18,13
7.65349,4.83646,-0.474478,47,6
9.07297,5.72905,-0.187299,100,7
11.0757,6.96936,0.228417,28,8
0.450328,0.283258,-0.122823,15,1
14.1436,8.89293,0.875581,20,9
0.821039,0.516236,-0.188519,27,2
19.2826,12.1194,1.99255,47,10
5.24042,3.29241,-0.980218,25,3
29.7767,18.7006,4.31734,28,11
5.86419,3.68145,-0.850161,19,4
39.0341,24.4956,7.29892,9,12
6.64581,4.17053,-0.686439,16,5
7.67371,4.81184,-0.474687,43,6
9.06411,5.67929,-0.186706,100,7
11.0898,6.9243,0.228208,33,8
0.451314,0.281684,-0.122823,15,1
14.1542,8.83083,0.874325,26,9
0.799517,0.498818,-0.183177,37,2
19.3147,12.0457,1.99151,38,10
5.25355,3.27514,-0.980531,26,3
29.9361,18.6553,4.33099,28,11
5.88711,3.66726,-0.851623,21,4
38.5191,23.9853,7.18691,9,12
6.63666,4.13256,-0.683998,18,5
43.7854,27.254,10.0251,13,13
7.69046,4.78503,-0.474687,47,6
9.09236,5.6529,-0.18688,100,7
11.102,6.87817,0.227963,28,8
0.452295,0.280107,-0.122823,15,1
14.1952,8.78767,0.874953,25,9
0.78623,0.486724,-0.179742,35,2
19.3634,11.9824,1.99221,38,10
5.25487,3.25055,-0.978654,27,3
29.8558,18.461,4.31003,28,11
5.8965,3.6446,-0.851136,21,4
37.5775,23.2174,6.99606,8,12
6.6646,4.11775,-0.685393,17,5
43.9572,27.1485,10.0427,13,13
7.70881,4.7592,-0.474792,47,6
9.10353,5.61588,-0.186706,100,7
11.1242,6.83834,0.227928,33,8
0.479835,0.29485,-0.130022,14,1
14.2173,8.73283,0.874429,21,9
0.759485,0.466508,-0.173255,39,2
19.417,11.9221,1.99343,38,10
5.26956,3.23425,-0.97928,27,3
29.9319,18.3639,4.31174,28,11
5.90919,3.624,-0.851136,22,4
6.68913,4.10071,-0.686439,15,5
43.3553,26.5682,9.88391,12,13
7.72026,4.72914,-0.474478,39,6
9.14355,5.59659,-0.187125,100,7
11.1492,6.79751,0.227928,27,8
0.454288,0.276863,-0.122823,15,1
14.2304,8.66924,0.873278,25,9
0.776279,0.472914,-0.176689,40,2
19.4725,11.8581,1.99465,38,10
5.28306,3.21594,-0.979593,26,3
30.1669,18.3562,4.33587,28,11
5.91565,3.59818,-0.850161,22,4
35.994,21.8847,6.67193,7,12
6.6973,4.07202,-0.685741,17,5
43.7074,26.5641,9.94191,13,13
7.73584,4.69977,-0.474373,39,6
9.16913,5.56616,-0.187229,100,7
11.1524,6.74614,0.22751,36,8
0.481933,0.291409,-0.130022,14,1
14.2862,8.63501,0.874848,22,9
0.784646,0.474263,-0.178216,50,2
19.4984,11.7808,1.99308,33,10
5.28749,3.1934,-0.978341,27,3
30.2002,18.2323,4.33148,28,11
5.91457,3.56931,-0.848211,21,4
36.104,21.7793,6.67819,7,12
6.71488,4.05068,-0.68609,17,5
7.74536,4.66862,-0.473954,43,6
58.6279,35.3247,15.8024,45,14
9.18165,5.52999,-0.18709,100,7
11.157,6.69585,0.227126,31,8
0.456209,0.273685,-0.122823,15,1
14.2942,8.57527,0.873592,27,9
0.816604,0.489696,-0.185085,60,2
19.5462,11.7167,1.99377,38,10
5.30878,3.18101,-0.980218,26,3
30.2637,18.1268,4.33148,28,11
5.93892,3.55578,-0.849917,22,4
40.3148,24.1375,7.44221,10,12
6.72728,4.02619,-0.685916,16,5
7.75132,4.6354,-0.473326,54,6
9.20337,5.50156,-0.18716,100,7
11.1963,6.66904,0.227475,31,8
0.490603,0.29211,-0.131821,14,1
14.3086,8.51612,0.87265,26,9
0.705264,0.419588,-0.159516,65,2
19.5733,11.6403,1.99238,38,10
5.3125,3.15935,-0.978967,28,3
30.2759,17.998,4.32466,28,11
5.95409,3.53809,-0.850404,22,4
34.6719,20.5949,6.38722,6,12
6.73443,3.99862,-0.685218,15,5
36.1863,21.4859,8.18036,8,13
7.78211,4.61884,-0.474268,43,6
9.20875,5.46124,-0.18688,100,7
11.192,6.61364,0.226916,32,8
0.478196,0.282467,-0.128222,14,1
14.3417,8.46815,0.872859,23,9
0.686364,0.405268,-0.154937,81,2
19.6324,11.5875,1.99447,47,10
5.31499,3.13577,-0.977403,28,3
30.0581,17.7268,4.28468,28,11
5.96298,3.51527,-0.849917,23,4
37.0514,21.8336,6.81147,8,12
6.74251,3.97323,-0.684695,17,5
36.437,21.463,8.22005,8,13
7.78786,4.58557,-0.47364,47,6
9.23638,5.43413,-0.187055,100,7
11.2253,6.58061,0.227126,32,8
0.479179,0.280796,-0.128222,14,1
14.3246,8.39078,0.870033,27,9
0.675917,0.395924,-0.152266,95,2
19.7209,11.547,1.99935,47,10
5.32932,3.11919,-0.978028,22,3
30.0221,17.5646,4.27079,28,11
5.96494,3.48842,-0.848454,23,4
34.7023,20.2865,6.36657,6,12
6.7615,3.95268,-0.685218,20,5
36.4998,21.3288,8.21738,17,13
7.79519,4.55332,-0.473117,47,6
58.3925,34.0945,15.6107,43,14
9.23629,5.39077,-0.186671,100,7
11.2482,6.54138,0.227126,32,8
0.493635,0.286956,-0.131821,14,1
14.3694,8.34976,0.870975,24,9
0.675597,0.392576,-0.151884,96,2
19.7025,11.4441,1.99343,52,10
5.34017,3.10057,-0.978028,13,3
29.5819,17.1687,4.19962,27,11
5.97021,3.4636,-0.84748,23,4
37.1824,21.5625,6.80772,8,12
6.76904,3.92388,-0.684521,30,5
35.8777,20.7976,8.06092,17,13
7.82659,4.53509,-0.474059,43,6
9.23602,5.34748,-0.186287,100,7
11.2693,6.50108,0.227091,33,8
0.46087,0.265762,-0.122823,15,1
14.4434,8.32548,0.873697,23,9
0.67533,0.389117,-0.151502,100,2
19.746,11.3728,1.9936,38,10
5.33952,3.07408,-0.975838,8,3
29.3612,16.9039,4.15989,13,11
5.97882,3.44075,-0.846992,23,4
37.3567,21.4898,6.82586,16,12
6.78788,3.9032,-0.685044,17,5
36.0337,20.7119,8.07885,17,13
7.82065,4.49344,-0.472698,50,6
36.3963,20.9035,9.68999,15,14
9.2529,5.31421,-0.186252,100,7
11.267,6.44484,0.226567,37,8
0.461841,0.264071,-0.122823,15,1
14.4877,8.28041,0.874534,23,9
0.688616,0.393576,-0.154174,100,2
19.7977,11.3107,1.99482,42,10
5.33134,3.04465,-0.972397,5,3
30.4488,17.3818,4.30491,28,11
5.99656,3.42177,-0.847723,37,4
36.7592,20.9671,6.70259,7,12
6.80906,3.88225,-0.685741,17,5
36.2763,20.6832,8.11701,8,13
7.86405,4.48194,-0.474373,47,6
36.2286,20.6393,9.62611,15,14
9.28969,5.29015,-0.186601,100,7
48.7721,27.7627,15.0374,21,15
11.3155,6.42027,0.227091,28,8
0.486491,0.275916,-0.129122,14,1
14.5009,8.22093,0.873592,24,9
0.691762,0.392018,-0.154555,100,2
19.8668,11.2538,1.99761,38,10
29.4676,16.6856,4.15794,13,11
6.0102,3.40179,-0.847967,25,4
35.5238,20.0984,6.4645,27,12
6.82257,3.85846,-0.685741,17,5
34.6701,19.5995,7.7415,16,13
7.86652,4.44522,-0.473536,43,6
36.2124,20.4546,9.60181,15,14
9.29939,5.25278,-0.186427,21,7
48.9394,27.6322,15.0591,21,15
11.3442,6.3817,0.227195,30,8
0.497691,0.279862,-0.131821,14,1
14.5344,8.16968,0.873801,24,9
0.689703,0.387677,-0.153792,100,2
19.9337,11.2,2.0004,47,10
30.1015,16.8991,4.23862,27,11
6.02263,3.37974,-0.847967,25,4
35.1544,19.7197,6.38409,13,12
6.84295,3.83852,-0.686439,17,5
35.4747,19.8912,7.9056,8,13
7.88198,4.41774,-0.473536,43,6
36.0235,20.1824,9.53298,14,14
9.30986,5.21377,-0.186252,100,7
49.1313,27.5036,15.0871,21,15
11.3332,6.32354,0.226532,30,8
0.481646,0.268631,-0.127322,15,1
14.5524,8.11306,0.873173,27,9
0.680764,0.379531,-0.151502,100,2
19.9326,11.108,1.99639,47,10
0.773111,0.430661,-0.140165,5,3
29.5377,16.4472,4.15111,13,11
6.03092,3.35677,-0.84748,42,4
35.0366,19.4931,6.3503,6,12
6.8476,3.80976,-0.685567,20,5
34.7752,19.3398,7.73463,16,13
7.87292,4.37661,-0.47207,72,6
49.1095,27.2891,12.9707,25,14
9.34548,5.19096,-0.186601,100,7
49.6121,27.5458,15.2051,21,15
11.3412,6.2762,0.226253,38,8
0.496222,0.274495,-0.130922,14,1
14.5792,8.06476,0.873173,22,9
0.685521,0.379052,-0.152266,100,2
19.9957,11.0519,1.99883,52,10
0.743487,0.410766,-0.134534,27,3
28.2152,15.5821,3.95759,12,11
6.05998,3.34529,-0.849917,20,4
33.1365,18.2923,5.99488,5,12
6.8469,3.77814,-0.684173,20,5
35.4923,19.5767,7.87889,33,13
7.90214,4.35682,-0.472908,58,6
9.35564,5.15608,-0.186462,100,7
11.3567,6.23567,0.226148,41,8
0.500546,0.274723,-0.131821,14,1
14.6213,8.02151,0.874011,24,9
0.690282,0.378546,-0.153029,100,2
20.0254,10.9772,1.99796,52,10
0.737916,0.4045,-0.133282,100,3
28.211,15.4579,3.94979,25,11
6.0693,3.32422,-0.849673,23,4
33.2573,18.2079,6.00521,11,12
6.8618,3.75517,-0.684347,18,5
33.0977,18.113,7.33393,14,13
7.94458,4.34592,-0.474583,43,6
49.1231,26.8607,12.9257,24,14
9.33849,5.1042,-0.185763,100,7
49.5205,27.0555,15.1202,21,15
11.4135,6.21512,0.226846,36,8
0.487809,0.265521,-0.128222,14,1
14.6281,7.95897,0.872754,29,9
0.698498,0.379886,-0.154555,100,2
20.0635,10.9117,1.99813,47,10
0.735853,0.400034,-0.132656,35,3
28.2631,15.3584,3.94954,38,11
6.0861,3.30586,-0.850404,25,4
33.845,18.3763,6.09969,11,12
6.87486,3.7312,-0.684347,21,5
33.0828,17.9476,7.316,29,13
7.92358,4.29678,-0.472384,61,6
46.8217,25.3904,12.2967,23,14
9.35273,5.06967,-0.185694,100,7
49.7844,26.9745,15.172,21,15
11.4591,6.18559,0.2273,38,8
0.488779,0.263731,-0.128222,14,1
14.6502,7.9015,0.872336,31,9
0.692973,0.373596,-0.153029,100,2
20.1226,10.8485,2.00005,38,10
0.742531,0.400146,-0.133595,41,3
27.8508,15.0024,3.88422,25,11
6.08419,3.276,-0.848454,24,4
33.8651,18.2269,6.09125,11,12
6.88849,3.70597,-0.684347,21,5
33.4008,17.9619,7.37172,29,13
7.95863,4.27812,-0.473536,47,6
46.9007,25.2112,12.2931,23,14
9.40824,5.05523,-0.186427,100,7
49.9851,26.8467,15.203,21,15
11.4676,6.136,0.227021,35,8
0.496616,0.265614,-0.130022,14,1
14.7055,7.86188,0.873906,26,9
0.687348,0.367472,-0.151502,100,2
20.1869,10.7878,2.00249,42,10
0.743992,0.397422,-0.133595,50,3
28.3486,15.1368,3.94589,25,11
6.08565,3.24807,-0.846992,25,4
33.9909,18.1342,6.10188,5,12
6.88557,3.67347,-0.682778,30,5
32.8414,17.5136,7.23471,14,13
7.95589,4.24091,-0.472489,68,6
47.0134,25.0502,12.2985,23,14
9.43024,5.0226,-0.186496,100,7
60.093,31.9924,18.2416,43,15
11.5013,6.1025,0.227265,32,8
0.525086,0.278488,-0.13722,13,1
14.7346,7.81144,0.874011,28,9
0.692096,0.36691,-0.152266,100,2
20.2332,10.722,2.00336,38,10
0.738392,0.391124,-0.132344,52,3
29.0925,15.4037,4.04192,13,11
6.10748,3.23238,-0.848454,28,4
34.2077,18.0968,6.12942,11,12
6.92124,3.66152,-0.685044,16,5
32.944,17.4209,7.24387,21,13
7.99183,4.22432,-0.473745,43,6
47.092,24.8813,12.2963,23,14
9.42296,4.97657,-0.186008,100,7
11.4907,6.04555,0.226637,36,8
0.498458,0.262141,-0.130022,14,1
14.7604,7.76253,0.874011,29,9
0.691634,0.363578,-0.151884,100,2
20.2599,10.6457,2.00232,38,10
0.731009,0.383951,-0.130779,48,3
26.8366,14.0895,3.72165,12,11
6.11113,3.20842,-0.84748,24,4
40.1796,21.0858,7.18691,9,12
6.9181,3.629,-0.683475,21,5
33.7244,17.6832,7.40186,7,13
7.99238,4.18898,-0.472908,58,6
9.42347,4.93694,-0.185694,100,7
11.5089,6.00649,0.226602,35,8
0.488958,0.255078,-0.127322,15,1
14.802,7.72186,0.874953,26,9
0.696318,0.363098,-0.152647,100,2
20.3181,10.5904,2.00458,38,10
0.728774,0.3797,-0.130153,48,3
6.12526,3.18997,-0.847967,24,4
33.2757,17.3222,5.94169,5,12
6.9354,3.60881,-0.683998,17,5
32.4173,16.861,7.10267,27,13
8.00445,4.16153,-0.472803,47,6
9.43269,4.90198,-0.185554,100,7
11.5447,5.97656,0.226916,37,8
0.503647,0.26062,-0.130922,14,1
14.8147,7.6628,0.874115,25,9
0.706301,0.365174,-0.154555,91,2
20.3779,10.5358,2.00702,38,10
0.737049,0.380908,-0.131405,35,3
29.2434,15.1066,4.04143,13,11
6.11872,3.15946,-0.84553,24,4
34.6946,17.9072,6.18386,5,12
6.94441,3.58275,-0.68365,22,5
32.4708,16.7451,7.10153,34,13
7.9994,4.1235,-0.471652,58,6
50.1545,25.8534,13.0269,25,14
9.4533,4.87086,-0.185624,100,7
49.7064,25.6005,14.9815,21,15
11.5933,5.9479,0.22744,30,8
0.490727,0.251658,-0.127322,15,1
14.8426,7.60845,0.874115,25,9
0.693657,0.35542,-0.151502,100,2
20.4536,10.4801,2.01068,39,10
0.734924,0.376403,-0.130779,100,3
27.422,14.0386,3.78258,12,11
6.11436,3.12887,-0.843336,31,4
32.9134,16.8354,5.85534,5,12
6.9575,3.55727,-0.68365,26,5
32.7487,16.7367,7.14885,20,13
8.03047,4.10233,-0.472594,47,6
9.47108,4.83618,-0.185624,100,7
49.8309,25.4339,14.9908,21,15
11.6096,5.90265,0.227335,31,8
0.547239,0.278111,-0.141719,13,1
14.8544,7.54586,0.873173,32,9
0.701957,0.356431,-0.153029,93,2
20.4972,10.4078,2.01121,39,10
5.48877,2.78582,-0.9749,8,3
34.7669,17.6383,4.78678,15,11
6.15234,3.11991,-0.846992,23,4
6.96161,3.52724,-0.682778,20,5
32.6417,16.5314,7.11222,20,13
8.02941,4.06475,-0.471652,58,6
42.7725,21.6528,11.068,19,14
9.51373,4.81407,-0.186112,100,7
49.8376,25.2075,14.9649,21,15
11.6151,5.85197,0.227021,40,8
0.516926,0.260326,-0.133621,14,1
14.9105,7.50573,0.874848,29,9
0.699751,0.352091,-0.152266,100,2
20.553,10.3416,2.01295,39,10
5.48483,2.75858,-0.972397,20,3
26.8893,13.518,3.69532,24,11
6.15841,3.09466,-0.846261,27,4
33.0535,16.6025,5.85847,10,12
6.98339,3.50617,-0.68365,18,5
32.8793,16.5006,7.15076,6,13
8.06747,4.04694,-0.473012,43,6
42.6217,21.3806,11.0087,19,14
9.5474,4.78723,-0.186427,100,7
11.6406,5.81902,0.227161,33,8
0.500308,0.24999,-0.129122,14,1
14.9269,7.45528,0.874429,29,9
0.709574,0.354399,-0.154174,91,2
20.6371,10.3028,2.018,43,10
5.51114,2.75016,-0.975525,32,3
26.9067,13.4211,3.69191,24,11
6.16633,3.07442,-0.846017,23,4
6.9908,3.48244,-0.683301,18,5
33.1776,16.5273,7.20495,7,13
8.04547,4.00607,-0.471024,50,6
9.57134,4.76167,-0.186601,100,7
50.181,24.9537,15.0167,21,15
11.6537,5.7748,0.227021,40,8
0.497686,0.246512,-0.128222,14,1
14.9403,7.39692,0.873697,35,9
0.714387,0.353538,-0.154937,81,2
20.7211,10.25,2.02254,43,10
5.51056,2.72468,-0.973648,46,3
26.8644,13.2831,3.67972,12,11
6.16456,3.04672,-0.844311,27,4
33.0142,16.3095,5.83219,5,12
6.98505,3.44919,-0.681558,18,5
33.2538,16.4134,7.20838,28,13
8.0601,3.97655,-0.471024,54,6
9.561,4.71496,-0.186078,100,7
11.6891,5.7391,0.2273,38,8
0.512581,0.251555,-0.131821,14,1
14.9691,7.343,0.873801,29,9
0.71033,0.348448,-0.153792,83,2
20.814,10.2057,2.02811,53,10
5.51649,2.7037,-0.973022,48,3
6.17925,3.02585,-0.844798,25,4
33.535,16.4141,5.91354,11,12
7.01733,3.4332,-0.683475,16,5
33.2245,16.255,7.18968,28,13
8.07572,3.94927,-0.471128,54,6
9.55127,4.66672,-0.185554,100,7
11.6965,5.69214,0.227056,43,8
0.509951,0.248059,-0.130922,14,1
15.009,7.29768,0.874639,31,9
0.70807,0.344126,-0.153029,93,2
20.8298,10.1189,2.02602,53,10
5.54058,2.69036,-0.975525,35,3
29.5499,14.3486,4.03339,13,11
6.20942,3.0138,-0.84748,21,4
33.2669,16.1392,5.85628,21,12
7.0221,3.40521,-0.682778,15,5
37.3701,18.1137,8.07237,17,13
8.12969,3.9388,-0.473431,50,6
45.4346,22.0031,11.6547,21,14
9.5909,4.64468,-0.186008,100,7
11.7317,5.65618,0.227335,43,8
0.524901,0.252957,-0.134521,14,1
15.0236,7.24006,0.874011,31,9
0.718111,0.345912,-0.154937,81,2
20.6962,9.96488,2.00964,39,10
5.5357,2.66415,-0.973022,37,3
35.7667,17.2057,4.87331,15,11
6.22706,2.99554,-0.848454,24,4
33.3729,16.0469,5.86504,21,12
7.04113,3.38413,-0.683475,15,5
37.4243,17.9789,8.07046,8,13
8.13259,3.90521,-0.472803,50,6
41.1068,19.7392,10.5277,17,14
9.63409,4.62416,-0.186531,100,7
47.303,22.6943,14.058,19,15
11.7468,5.61552,0.227265,43,8
0.501121,0.239452,-0.128222,14,1
15.0799,7.20569,0.875895,32,9
0.724569,0.346067,-0.156082,71,2
20.4361,9.75628,1.98122,37,10
5.56055,2.65344,-0.975838,27,3
29.8715,14.248,4.06361,13,11
6.23159,2.97231,-0.847723,29,4
33.4919,15.9676,5.87662,26,12
7.0667,3.36762,-0.68487,16,5
41.2023,19.626,8.87109,10,13
8.11844,3.86534,-0.471233,58,6
41.1457,19.5902,10.521,17,14
9.66562,4.59992,-0.186845,100,7
47.2977,22.4991,14.0342,19,15
11.7744,5.58082,0.22744,45,8
0.512478,0.242795,-0.130922,14,1
15.105,7.153,0.875895,32,9
0.725772,0.343536,-0.156082,62,2
20.3495,9.6322,1.96972,41,10
5.58003,2.64005,-0.977716,31,3
35.7688,16.9154,4.8582,15,11
6.215,2.93782,-0.844067,24,4
27.7534,13.1131,4.86167,3,12
7.08382,3.34548,-0.685393,20,5
40.4361,19.0882,8.69173,9,13
8.15175,3.84636,-0.472384,54,6
41.1257,19.4049,10.4985,17,14
9.65449,4.55335,-0.186322,100,7
47.2886,22.2927,14.0083,19,15
11.8056,5.54272,0.227649,38,8
0.516893,0.242571,-0.131821,14,1
15.1474,7.10523,0.876837,27,9
0.707473,0.331706,-0.151884,38,2
20.3648,9.54824,1.9678,74,10
5.57715,2.61371,-0.975525,41,3
30.0493,14.0761,4.07434,13,11
6.23651,2.92007,-0.84553,23,4
27.7906,13.0062,4.85979,3,12
7.0834,3.31359,-0.684173,20,5
40.4098,18.8949,8.67112,9,13
8.16941,3.81815,-0.472594,50,6
40.3632,18.8646,10.2861,17,14
9.64756,4.50694,-0.185868,100,7
11.8403,5.50616,0.227928,35,8
0.500107,0.23246,-0.127322,15,1
15.2005,7.06229,0.878407,28,9
0.712188,0.330889,-0.152647,47,2
5.5849,2.59242,-0.975213,30,3
29.1463,13.5231,3.94515,12,11
6.25438,2.90053,-0.846505,24,4
27.6965,12.8387,4.83508,14,12
7.07323,3.27878,-0.682081,20,5
8.18813,3.79212,-0.472908,54,6
40.2623,18.6379,10.2429,16,14
9.68216,4.47995,-0.186217,100,7
46.9002,21.6908,13.8458,19,15
11.8431,5.45727,0.227614,43,8
0.525696,0.242127,-0.133621,14,1
15.2849,7.03675,0.881861,27,9
0.724039,0.333327,-0.154937,36,2
19.2652,8.86508,1.85537,4,10
5.5975,2.57456,-0.975838,37,3
25.9937,11.9503,3.51276,11,11
6.27168,2.882,-0.84748,28,4
28.0858,12.9002,4.89515,22,12
7.10636,3.26405,-0.684173,21,5
41.754,19.1694,8.93062,10,13
8.19769,3.76185,-0.472698,54,6
40.5114,18.5818,10.2897,17,14
9.70502,4.44945,-0.186357,100,7
11.8639,5.41672,0.227649,40,8
0.498172,0.227345,-0.126422,15,1
15.313,6.98501,0.88207,26,9
0.705549,0.321835,-0.150739,39,2
20.0465,9.13996,1.92754,35,10
5.60286,2.55337,-0.975213,28,3
21.1903,9.65249,2.85906,7,11
6.27267,2.85598,-0.846261,23,4
27.9688,12.7284,4.86699,15,12
7.10502,3.23345,-0.682952,21,5
41.7366,18.9853,8.91269,20,13
8.20895,3.73239,-0.472594,47,6
9.7387,4.42382,-0.186706,100,7
45.6467,20.7255,13.4327,18,15
11.8737,5.37115,0.227475,43,8
0.506065,0.228817,-0.128222,14,1
15.3519,6.93809,0.882908,25,9
0.724559,0.327455,-0.154555,36,2
20.1582,9.10601,1.93521,49,10
5.61174,2.5338,-0.975213,31,3
27.8244,12.5573,3.74821,12,11
6.27898,2.83243,-0.845773,23,4
27.8654,12.5642,4.84133,36,12
7.11444,3.20782,-0.682778,20,5
33.6712,15.1749,7.179,14,13
8.21829,3.70207,-0.472384,47,6
42.8541,19.2954,10.8503,18,14
9.75773,4.39144,-0.186776,21,7
42.0226,18.9033,12.3467,15,15
11.8796,5.32395,0.22723,48,8
0.503304,0.225455,-0.127322,15,1
15.3797,6.88609,0.883117,26,9
0.711363,0.318506,-0.151502,38,2
18.5895,8.31939,1.78181,3,10
5.61514,2.51177,-0.974274,36,3
25.0446,11.1978,3.36847,10,11
6.28339,2.80807,-0.845042,25,4
27.8496,12.4402,4.83101,7,12
7.12924,3.18458,-0.683127,20,5
33.8728,15.1236,7.21067,35,13
8.24028,3.67743,-0.472908,54,6
42.1417,18.798,10.6532,18,14
9.74743,4.34595,-0.186287,20,7
33.0326,14.7209,9.69019,8,15
11.9164,5.29056,0.227579,51,8
0.518338,0.23002,-0.130922,14,1
15.4255,6.84209,0.884373,25,9
0.701702,0.311245,-0.149213,30,2
20.2614,8.98283,1.93904,63,10
5.62929,2.49456,-0.975213,30,3
28.1655,12.4753,3.78234,12,11
6.30223,2.79013,-0.846261,27,4
27.4828,12.1615,4.75999,7,12
7.15306,3.16532,-0.684347,16,5
31.4458,13.9086,6.68366,6,13
8.27316,3.65753,-0.474059,54,6
32.4231,14.3273,8.18372,48,14
9.78631,4.32241,-0.186741,21,7
33.0837,14.6055,9.69019,8,15
11.9311,5.24733,0.22751,51,8
0.510218,0.224289,-0.128672,14,1
15.4493,6.7882,0.884373,24,9
0.702785,0.308794,-0.149213,40,2
20.4495,8.98096,1.95403,36,10
5.6452,2.47807,-0.976464,31,3
28.1179,12.3371,3.77015,12,11
6.29739,2.76174,-0.844311,29,4
27.5106,12.0591,4.75749,14,12
7.16589,3.14113,-0.684521,16,5
31.1309,13.6396,6.60657,23,13
8.29502,3.63263,-0.474583,43,6
32.5765,14.2594,8.20981,60,14
9.79402,4.28501,-0.186601,21,7
32.9805,14.4225,9.64515,17,15
11.9567,5.20884,0.227649,47,8
0.510998,0.222506,-0.128672,14,1
15.4912,6.7422,0.88542,25,9
0.72186,0.314173,-0.153029,37,2
20.4277,8.88647,1.94898,18,10
5.63932,2.45205,-0.973961,28,3
30.2982,13.1678,4.0563,13,11
6.30335,2.73816,-0.843823,25,4
26.7208,11.6019,4.61388,16,12
7.17682,3.1161,-0.684521,16,5
30.5066,13.2393,6.46423,28,13
8.26917,3.58697,-0.472384,43,6
32.4097,14.0518,8.15538,48,14
9.80891,4.25079,-0.186601,24,7
33.4189,14.4755,9.75851,35,15
11.9913,5.1742,0.227963,45,8
0.522508,0.225352,-0.131371,14,1
15.5146,6.68809,0.88542,25,9
0.71574,0.308543,-0.151502,38,2
18.2135,7.84774,1.7351,3,10
5.66599,2.44016,-0.97709,31,3
24.2431,10.4357,3.24075,9,11
6.31469,2.71692,-0.844067,24,4
25.8502,11.1168,4.45682,3,12
7.19734,3.09371,-0.685393,20,5
30.9945,13.3227,6.55772,23,13
8.29265,3.56281,-0.473012,47,6
32.5212,13.9655,8.17112,48,14
9.82369,4.21653,-0.186601,21,7
33.3396,14.3032,9.72073,17,15
12.0019,5.12917,0.227824,41,8
0.508954,0.217403,-0.127772,14,1
15.5342,6.63232,0.885211,27,9
0.698809,0.298212,-0.147686,41,2
5.66218,2.41395,-0.9749,30,3
24.1296,10.2872,3.22076,9,11
6.32779,2.69642,-0.844555,24,4
26.8012,11.4151,4.61388,16,12
7.2081,3.06857,-0.685393,23,5
24.8034,10.554,5.23962,39,13
8.31668,3.53708,-0.47364,47,6
31.7096,13.4795,7.95472,11,14
9.83467,4.18065,-0.186531,20,7
33.3342,14.1633,9.70468,35,15
12.0354,5.09138,0.228103,41,8
0.509748,0.215536,-0.127772,14,1
15.5971,6.59167,0.887409,32,9
0.699846,0.295771,-0.147686,41,2
18.6968,7.89784,1.77571,7,10
5.68512,2.40032,-0.977403,33,3
26.5411,11.2005,3.53714,11,11
6.33946,2.67398,-0.844798,25,4
26.7646,11.2838,4.60043,26,12
7.21195,3.03903,-0.684695,17,5
24.8799,10.4841,5.24801,29,13
8.33082,3.5088,-0.473745,54,6
31.7133,13.3506,7.94392,23,14
9.86283,4.15,-0.186776,100,7
33.3378,14.0208,9.6907,17,15
12.0383,5.04316,0.227824,43,8
0.514092,0.21526,-0.128672,14,1
15.6918,6.56726,0.891491,25,9
0.700925,0.293204,-0.147686,41,2
5.67384,2.37109,-0.973961,32,3
23.0121,9.61673,3.06233,8,11
6.36707,2.65949,-0.847236,31,4
26.0838,10.8897,4.47684,6,12
7.21516,3.01077,-0.683998,23,5
24.9436,10.4035,5.25335,39,13
8.33994,3.4767,-0.473536,58,6
25.1117,10.4633,6.28063,68,14
9.90494,4.12709,-0.187299,21,7
32.5787,13.5679,9.45621,33,15
12.1085,5.02045,0.228801,47,8
0.504076,0.208898,-0.125973,15,1
15.7663,6.53385,0.894422,27,9
0.691062,0.286247,-0.145396,43,2
18.1951,7.53293,1.72289,3,10
5.66565,2.34447,-0.971145,37,3
33.5692,13.8842,4.46042,14,11
6.38045,2.63765,-0.847723,25,4
25.7894,10.6612,4.4199,6,12
7.24036,2.99165,-0.685393,18,5
25.3336,10.4624,5.32777,18,13
8.35202,3.44757,-0.473536,58,6
25.0652,10.3414,6.25994,68,14
9.93408,4.09859,-0.187578,20,7
33.3438,13.7501,9.6643,8,15
12.1158,4.97647,0.228627,43,8
0.490344,0.201305,-0.122373,15,1
15.8334,6.49697,0.896934,25,9
0.713854,0.292773,-0.149976,40,2
19.2204,7.87896,1.81737,15,10
5.66974,2.32417,-0.97052,46,3
21.1022,8.64604,2.80007,21,11
6.37814,2.61197,-0.846261,25,4
25.49,10.4335,4.36233,15,12
7.2692,2.9739,-0.687136,15,5
24.9429,10.2044,5.23847,39,13
8.36711,3.42137,-0.473745,58,6
25.094,10.256,6.25859,59,14
9.93166,4.05708,-0.187264,23,7
34.2465,13.9827,9.91173,9,15
12.1368,4.93565,0.228696,45,8
0.512707,0.208397,-0.127772,14,1
15.0944,6.13533,0.853913,6,9
0.703907,0.285971,-0.147686,41,2
17.8213,7.23649,1.6828,3,10
5.70161,2.31402,-0.974587,52,3
21.1378,8.57457,2.8008,64,11
6.37618,2.58521,-0.844798,25,4
25.5227,10.3481,4.36202,15,12
7.26978,2.94604,-0.686264,15,5
24.9893,10.1217,5.24076,39,13
8.3753,3.39064,-0.473536,58,6
25.3211,10.2458,6.30628,51,14
9.92838,4.01737,-0.18695,22,7
32.9244,13.3157,9.51626,8,15
12.1735,4.90359,0.22908,43,8
0.527857,0.212519,-0.131371,14,1
0.69033,0.277651,-0.144633,44,2
17.6062,7.07763,1.66014,3,10
5.70925,2.2951,-0.974587,30,3
25.8244,10.3761,3.41722,10,11
6.39577,2.56849,-0.846261,25,4
25.7145,10.3215,4.38861,15,12
7.26893,2.9162,-0.685218,16,5
24.9881,10.0249,5.23351,25,13
8.39947,3.36806,-0.474268,50,6
25.3875,10.1748,6.31438,60,14
9.95534,3.9879,-0.187195,23,7
32.7304,13.1045,9.44689,8,15
12.2044,4.86413,0.229325,45,8
0.521391,0.207698,-0.129572,14,1
16.2642,6.47562,0.917449,32,9
0.707711,0.281776,-0.148068,41,2
18.5804,7.39406,1.74956,7,10
5.71579,2.27343,-0.974274,46,3
21.3281,8.47885,2.81811,50,11
6.44019,2.55896,-0.850892,23,4
25.7448,10.2243,4.38736,21,12
7.2624,2.88419,-0.68365,17,5
25.0959,9.9615,5.24839,18,13
8.41361,3.33799,-0.474373,65,6
27.747,11.0026,6.89115,10,14
9.9736,3.95286,-0.187264,22,7
33.2164,13.158,9.5732,8,15
12.2008,4.81342,0.228941,45,8
0.493107,0.194439,-0.122373,15,1
16.3964,6.46201,0.923625,46,9
0.699557,0.275704,-0.14616,42,2
19.0306,7.49637,1.78948,11,10
5.72921,2.25564,-0.975213,32,3
21.3077,8.38472,2.81153,43,11
6.45462,2.53864,-0.851623,23,4
25.9789,10.2124,4.42115,15,12
7.26686,2.85664,-0.683127,20,5
25.0391,9.83795,5.22931,21,13
8.42894,3.31006,-0.474583,61,6
25.5377,10.0235,6.33372,43,14
9.98548,3.91729,-0.187229,24,7
41.3952,16.2309,11.914,14,15
12.2511,4.7839,0.229569,43,8
0.508305,0.198385,-0.125973,15,1
16.3035,6.35973,0.917135,63,9
0.716977,0.279682,-0.149594,40,2
18.8042,7.33147,1.76578,29,10
5.73705,2.23563,-0.975213,33,3
26.3478,10.262,3.47181,10,11
6.4616,2.51538,-0.851379,25,4
26.4396,10.2871,4.49342,25,12
7.30142,2.83937,-0.685393,18,5
25.0221,9.73055,5.21863,36,13
8.43671,3.27917,-0.474373,61,6
27.785,10.7938,6.8817,10,14
10.0065,3.8853,-0.187369,21,7
34.2998,13.3109,9.85842,27,15
12.3218,4.76201,0.230581,45,8
0.523538,0.202226,-0.129572,14,1
15.489,5.97982,0.870138,30,9
0.690523,0.266451,-0.14387,44,2
17.5539,6.76997,1.64602,6,10
5.75626,2.21885,-0.97709,21,3
26.6464,10.2713,3.50643,11,11
6.45922,2.48852,-0.849917,24,4
26.5085,10.2075,4.49906,29,12
7.3243,2.81888,-0.686613,20,5
25.25,9.71279,5.2587,29,13
8.45241,3.24965,-0.474583,72,6
27.9008,10.7213,6.9006,30,14
10.0107,3.84677,-0.187195,22,7
34.2108,13.1392,9.8196,8,15
12.3429,4.71824,0.230651,40,8
0.542479,0.207261,-0.134071,14,1
15.1544,5.78691,0.850145,28,9
0.713458,0.272443,-0.148449,41,2
17.691,6.75199,1.65666,3,10
5.78796,2.2079,-0.981157,27,3
30.8462,11.7605,4.05337,13,11
6.47572,2.46766,-0.850892,25,4
26.5476,10.111,4.49937,16,12
7.3341,2.79329,-0.686613,20,5
25.5204,9.71469,5.30792,26,13
8.4861,3.22865,-0.475839,65,6
10.049,3.81928,-0.187648,20,7
33.6809,12.7942,9.65395,8,15
12.3631,4.67654,0.230721,45,8
0.521326,0.197097,-0.128672,14,1
15.1577,5.72763,0.849203,23,9
0.703385,0.265787,-0.14616,42,2
18.6538,7.04497,1.74451,10,10
5.7864,2.18419,-0.979593,27,3
22.9638,8.66355,3.01359,16,11
6.49173,2.44784,-0.851867,28,4
26.5107,9.99111,4.48717,12,12
7.33635,2.76486,-0.685916,16,5
25.6277,9.65323,5.32319,18,13
8.50105,3.20042,-0.476048,72,6
27.5937,10.3828,6.80657,70,14
10.0586,3.78277,-0.187578,24,7
34.1015,12.8179,9.76162,8,15
12.3924,4.63827,0.230965,45,8
0.520185,0.194593,-0.128222,14,1
15.1608,5.66839,0.848261,9,9
0.71902,0.268831,-0.149213,40,2
18.5663,6.93798,1.73405,17,10
5.79583,2.16467,-0.979906,28,3
26.3191,9.82461,3.44939,10,11
6.48349,2.41892,-0.849673,31,4
26.5084,9.88472,4.48091,12,12
7.35529,2.74272,-0.686787,17,5
27.1016,10.1006,5.622,37,13
8.5234,3.1749,-0.476676,68,6
27.8709,10.3762,6.86596,10,14
10.0848,3.75252,-0.187823,23,7
34.7127,12.9095,9.92364,18,15
12.431,4.60331,0.231384,41,8
0.520862,0.192776,-0.128222,14,1
0.705223,0.26087,-0.14616,42,2
18.4727,6.82959,1.72307,24,10
5.81818,2.1499,-0.982409,28,3
22.0721,8.15161,2.88903,15,11
6.48631,2.39421,-0.848942,23,4
26.1832,9.65948,4.42021,12,12
7.35547,2.71358,-0.685916,30,5
27.3228,10.0745,5.66054,25,13
8.54193,3.1479,-0.477095,72,6
36.7978,13.5535,9.05338,13,14
10.0922,3.71523,-0.187718,24,7
34.7068,12.7696,9.90915,18,15
12.4639,4.56608,0.231698,38,8
0.532511,0.194977,-0.130922,14,1
15.2619,5.58506,0.851715,20,9
0.695068,0.254359,-0.14387,44,2
18.5058,6.7685,1.72394,45,10
5.82565,2.12958,-0.982409,28,3
22.0874,8.06974,2.88733,15,11
6.50581,2.37564,-0.850404,22,4
26.3243,9.60731,4.43836,12,12
7.37613,2.69198,-0.686962,23,5
27.2674,9.94609,5.64184,4,13
8.53786,3.11259,-0.476257,72,6
27.7815,10.1226,6.82636,40,14
10.1183,3.68476,-0.187962,23,7
34.1049,12.4132,9.72487,17,15
12.4948,4.528,0.231977,45,8
0.536853,0.194444,-0.131821,14,1
15.163,5.48891,0.845121,24,9
0.703335,0.254604,-0.145396,43,2
18.297,6.61981,1.70233,52,10
5.82747,2.10721,-0.98147,37,3
23.0974,8.34748,3.01554,16,11
6.529,2.35831,-0.852354,24,4
26.4209,9.53816,4.449,9,12
7.37798,2.66351,-0.686264,21,5
30.4118,10.9729,6.28449,5,13
8.54303,3.08074,-0.475943,76,6
27.857,10.0401,6.83626,40,14
10.1405,3.65281,-0.188137,24,7
33.7682,12.1573,9.61668,8,15
12.5256,4.48975,0.232257,45,8
0.544866,0.195198,-0.133621,14,1
14.9075,5.33766,0.829839,7,9
0.706112,0.252686,-0.145778,43,2
18.2712,6.53844,1.69779,14,10
5.80317,2.07555,-0.976151,35,3
21.2796,7.60664,2.77472,7,11
6.54093,2.33684,-0.852842,25,4
30.1431,10.7631,5.06942,8,12
7.37831,2.63311,-0.685393,28,5
27.2621,9.72368,5.62619,20,13
8.56744,3.05409,-0.476676,76,6
33.4501,11.9242,8.19857,48,14
10.1589,3.6194,-0.188242,23,7
33.7958,12.0342,9.61254,8,15
12.5439,4.44449,0.232292,38,8
0.527209,0.186694,-0.129122,14,1
15.3619,5.43692,0.854018,10,9
0.701481,0.248132,-0.144633,44,2
18.2406,6.45217,1.69274,14,10
5.81819,2.0569,-0.977403,37,3
21.4346,7.57357,2.7913,35,11
6.56256,2.31748,-0.854548,29,4
30.4897,10.761,5.12104,16,12
7.40295,2.61135,-0.686787,28,5
27.3827,9.65372,5.64375,16,13
8.56915,3.01936,-0.476153,72,6
33.5671,11.8274,8.21656,12,14
10.1626,3.57882,-0.188067,23,7
36.9157,12.9928,10.4863,10,15
12.6073,4.41501,0.233164,49,8
0.524211,0.183473,-0.128222,14,1
14.605,5.10887,0.810893,16,9
0.722728,0.252812,-0.148831,40,2
17.9049,6.25968,1.65945,28,10
5.84247,2.04143,-0.980218,33,3
21.4772,7.50019,2.79325,35,11
6.54664,2.28491,-0.851379,25,4
22.809,7.95634,3.82607,4,12
7.43835,2.59468,-0.689228,25,5
30.6845,10.6975,6.31654,5,13
8.58341,2.99075,-0.476362,68,6
33.3746,11.6223,8.15897,12,14
10.1794,3.54287,-0.188137,23,7
34.5218,12.0082,9.79371,8,15
12.5659,4.35134,0.232117,50,8
0.521165,0.180367,-0.127322,15,1
14.8681,5.14274,0.824501,11,9
0.703196,0.243229,-0.144633,44,2
18.1545,6.27591,1.68054,14,10
5.85703,2.0236,-0.98147,23,3
21.4339,7.4012,2.78423,57,11
6.54895,2.2601,-0.850648,23,4
22.803,7.86507,3.82044,23,12
7.43041,2.56285,-0.687659,30,5
31.2265,10.7644,6.42034,22,13
8.59002,2.95946,-0.476153,79,6
31.6461,10.8966,7.72707,11,14
10.1993,3.50992,-0.188277,23,7
37.2014,12.795,10.5412,10,15
12.6851,4.34307,0.234037,57,8
0.536541,0.183595,-0.130922,14,1
0.700326,0.239502,-0.14387,44,2
17.9745,6.14354,1.66189,14,10
5.86219,2.00251,-0.981157,27,3
21.2792,7.26476,2.76083,77,11
6.56619,2.24043,-0.851867,25,4
22.6901,7.73762,3.79698,30,12
7.43743,2.53626,-0.687485,30,5
32.4272,11.0518,6.65923,12,13
8.6211,2.93654,-0.477304,76,6
31.8352,10.8376,7.76396,11,14
10.2248,3.4788,-0.188521,23,7
33.6756,11.451,9.53075,8,15
12.7778,4.32505,0.235468,45,8
0.529795,0.179223,-0.129122,14,1
14.8961,5.03625,0.824082,47,9
0.704877,0.238313,-0.144633,44,2
18.1941,6.14774,1.68019,17,10
5.86915,1.98203,-0.981157,27,3
21.3251,7.19742,2.76351,35,11
6.58338,2.22067,-0.853086,28,4
22.7619,7.67351,3.80449,33,12
7.45945,2.51473,-0.688705,23,5
31.7326,10.6915,6.50888,5,13
8.64076,2.90962,-0.477827,76,6
37.2549,12.5377,9.07498,13,14
10.2842,3.45902,-0.189394,21,7
31.8256,10.6981,8.99655,15,15
12.8858,4.31151,0.237178,48,8
0.530417,0.177372,-0.129122,14,1
14.3426,4.79618,0.792576,11,9
0.701981,0.234607,-0.14387,44,2
14.5455,4.85838,1.34168,66,10
5.87603,1.96153,-0.981157,30,3
21.3068,7.1085,2.7579,28,11
6.58921,2.19705,-0.852842,31,4
22.8566,7.6211,3.81606,28,12
7.49276,2.49687,-0.690971,28,5
31.7175,10.5633,6.49819,5,13
8.64139,2.87628,-0.477304,72,6
31.7548,10.5634,7.72617,11,14
10.2729,3.41733,-0.188975,24,7
31.8976,10.6047,9.0069,7,15
13.0348,4.31336,0.239656,53,8
0.523602,0.173165,-0.127322,15,1
0.706524,0.233387,-0.144633,44,2
14.604,4.82133,1.34551,24,10
5.88063,1.94142,-0.980844,35,3
21.0211,6.93579,2.71793,40,11
6.60211,2.17705,-0.853573,30,4
22.5716,7.43864,3.76413,9,12
7.51657,2.47568,-0.692365,25,5
31.743,10.455,6.49628,28,13
8.66036,2.85073,-0.477827,76,6
31.873,10.4855,7.74641,11,14
10.2999,3.38645,-0.189254,24,7
13.2645,4.33808,0.243601,41,8
0.527908,0.172547,-0.128222,14,1
14.6909,4.79887,0.809951,40,9
0.692364,0.226166,-0.14158,46,2
21.0936,6.88632,1.94131,40,10
5.87985,1.91843,-0.979593,32,3
21.0565,6.86606,2.71939,27,11
6.61156,2.15461,-0.853817,31,4
22.8304,7.43565,3.80292,4,12
7.52095,2.44951,-0.692017,25,5
31.4863,10.2487,6.43637,11,13
8.69305,2.8279,-0.479083,79,6
32.2763,10.4934,7.83549,11,14
10.3003,3.34676,-0.189044,24,7
31.8716,10.3496,8.97895,7,15
13.1768,4.25854,0.241716,64,8
0.543342,0.175495,-0.131821,14,1
14.5859,4.7083,0.803252,64,9
0.696886,0.224954,-0.142344,45,2
19.7239,6.36303,1.81319,3,10
5.89028,1.8991,-0.980218,38,3
21.3298,6.87288,2.75157,68,11
6.63982,2.13821,-0.856498,34,4
22.8637,7.35834,3.80417,21,12
7.51997,2.42019,-0.691145,30,5
35.3009,11.3543,7.208,7,13
8.71048,2.79998,-0.479502,83,6
31.7933,10.2138,7.70952,11,14
10.3252,3.31507,-0.189289,22,7
32.0639,10.2884,9.02295,15,15
13.1059,4.18515,0.240145,45,8
0.5291,0.168857,-0.128222,14,1
14.4443,4.60699,0.794565,26,9
0.693926,0.221327,-0.14158,46,2
21.9594,6.99967,2.01644,43,10
5.8931,1.87733,-0.979593,33,3
20.5611,6.54606,2.64944,31,11
6.65481,2.11742,-0.857473,40,4
21.1385,6.72179,3.51321,22,12
7.52499,2.3914,-0.690796,27,5
23.4872,7.46412,4.79045,15,13
8.7202,2.76956,-0.479502,79,6
31.3346,9.94597,7.58985,11,14
10.3768,3.2917,-0.190022,22,7
31.9155,10.1181,8.97119,15,15
13.1719,4.15562,0.241088,28,8
0.540837,0.170525,-0.130922,14,1
14.7422,4.64538,0.810056,23,9
0.709713,0.223499,-0.144633,44,2
21.0498,6.62487,1.93067,4,10
5.9169,1.86106,-0.982409,37,3
20.6538,6.4963,2.65846,63,11
6.64133,2.08763,-0.854792,38,4
21.0431,6.61065,3.49349,24,12
7.5466,2.3693,-0.692017,28,5
23.7392,7.44852,4.83625,12,13
8.72839,2.73698,-0.479397,76,6
31.8581,9.98372,7.70772,11,14
10.4225,3.26623,-0.19065,24,7
28.3372,8.87492,7.95661,11,15
13.4276,4.18224,0.245486,30,8
0.530294,0.165067,-0.128222,14,1
13.0713,4.06626,0.717421,19,9
0.704865,0.219271,-0.143488,44,2
21.0481,6.54366,1.92841,52,10
5.9328,1.84332,-0.983973,28,3
20.6415,6.40935,2.65383,51,11
6.63188,2.05799,-0.852598,37,4
21.7747,6.75291,3.61082,31,12
7.55143,2.34044,-0.691668,27,5
23.9151,7.4121,4.86677,15,13
8.72453,2.70237,-0.478665,79,6
32.5369,10.0719,7.86339,11,14
10.4478,3.23214,-0.190894,25,7
27.9857,8.65231,7.84895,16,15
12.9528,3.98482,0.23655,57,8
0.542043,0.166651,-0.130922,14,1
13.0683,4.01534,0.716479,10,9
0.692527,0.212652,-0.140817,46,2
15.3235,4.70241,1.40234,6,10
5.95462,1.8262,-0.986476,28,3
20.6827,6.3431,2.65626,38,11
6.6542,2.03948,-0.854548,40,4
21.8265,6.68553,3.61551,21,12
7.56526,2.31582,-0.692191,28,5
35.3847,10.8249,7.19274,7,13
8.74202,2.6727,-0.479083,79,6
31.761,9.70426,7.66723,11,14
10.459,3.19565,-0.190894,23,7
28.0139,8.55401,7.84843,5,15
13.2932,4.04131,0.242519,30,8
0.542593,0.164852,-0.130922,14,1
13.0395,3.95921,0.714177,2,9
0.689434,0.209335,-0.140054,47,2
21.0921,6.40024,1.92841,8,10
5.95844,1.8069,-0.986163,27,3
20.7416,6.28598,2.66114,12,11
6.66093,2.0174,-0.854548,33,4
22.463,6.7991,3.7172,20,12
7.56909,2.28957,-0.691842,30,5
31.5512,9.5439,6.40737,5,13
8.75802,2.64754,-0.479502,79,6
33.4702,10.1116,8.07214,11,14
10.4753,3.16268,-0.190999,23,7
27.9551,8.43484,7.8241,22,15
11.8152,3.54698,0.215328,7,8
0.543165,0.162958,-0.130922,14,1
13.0379,3.90908,0.713339,31,9
0.701481,0.210187,-0.142344,45,2
25.4309,7.61514,2.32253,25,10
5.95367,1.78166,-0.984286,33,3
18.9587,5.67345,2.42983,51,11
6.70217,2.00437,-0.858935,37,4
19.1915,5.73584,3.17249,26,12
7.59612,2.26883,-0.693585,32,5
26.3015,7.85083,5.3354,11,13
8.77532,2.61771,-0.479921,68,6
34.5492,10.2995,8.32319,12,14
10.5265,3.13809,-0.191732,22,7
28.3362,8.442,7.92245,11,15
13.1894,3.90689,0.24011,44,8
0.525073,0.155434,-0.126422,15,1
12.9468,3.83011,0.707582,26,9
0.717271,0.212193,-0.145396,43,2
14.6049,4.31786,1.33244,11,10
5.94469,1.75639,-0.981783,46,3
18.9432,5.59325,2.4252,56,11
6.71518,1.98148,-0.859666,38,4
19.1916,5.6593,3.16905,11,12
7.59101,2.23704,-0.692365,30,5
23.1048,6.80888,4.68207,31,13
8.79781,2.59101,-0.480653,61,6
27.9091,8.21408,6.71659,9,14
10.5552,3.10457,-0.192046,23,7
28.3892,8.34463,7.92866,11,15
13.9438,4.07747,0.253583,45,8
0.544317,0.159067,-0.130922,14,1
12.8048,3.73954,0.699104,39,9
0.706736,0.206263,-0.143107,45,2
15.424,4.49861,1.40565,12,10
5.95489,1.73569,-0.982409,46,3
19.0274,5.54597,2.43349,56,11
6.69537,1.95026,-0.856254,40,4
26.263,7.64502,4.3323,27,12
7.61025,2.21386,-0.693411,28,5
23.2276,6.75265,4.70192,31,13
8.82643,2.56432,-0.4817,58,6
27.9259,8.10794,6.71344,58,14
10.5871,3.07384,-0.19243,22,7
29.24,8.48395,8.15798,6,15
13.3304,3.84511,0.24217,37,8
0.544897,0.15707,-0.130922,14,1
13.1018,3.77669,0.714595,17,9
0.68104,0.196186,-0.137764,49,2
25.4914,7.33844,2.32078,18,10
5.9704,1.71763,-0.983973,45,3
21.0222,6.0439,2.68576,13,11
6.7174,1.93126,-0.858204,40,4
23.6429,6.79289,3.89616,2,12
7.61985,2.18784,-0.693585,31,5
23.1491,6.64228,4.68131,31,13
8.84493,2.53624,-0.482224,72,6
28.3516,8.1297,6.80927,10,14
10.6151,3.04182,-0.192744,21,7
29.1228,8.33982,8.11708,18,15
13.6181,3.87922,0.247161,79,8
0.549163,0.15633,-0.131821,14,1
13.1085,3.73159,0.714281,14,9
0.700571,0.199299,-0.14158,46,2
25.5041,7.25059,2.31974,25,10
5.97796,1.69836,-0.984286,41,3
21.5558,6.12,2.75132,41,11
6.73332,1.91169,-0.859423,31,4
23.4999,6.66753,3.86894,22,12
7.63473,2.16473,-0.694283,30,5
23.1843,6.56923,4.68398,31,13
8.84752,2.50526,-0.48191,65,6
28.5134,8.07386,6.84166,40,14
10.6713,3.01968,-0.193582,21,7
29.18,8.25162,8.12537,12,15
13.7175,3.85841,0.248732,30,8
0.572191,0.160836,-0.13722,13,1
13.5099,3.79491,0.735425,29,9
0.697482,0.195791,-0.140817,34,2
21.751,6.10573,1.97652,9,10
5.97595,1.67639,-0.983034,36,3
20.0755,5.62785,2.55999,35,11
6.74951,1.89085,-0.860641,33,4
19.2088,5.37765,3.15935,21,12
7.65567,2.14182,-0.695503,28,5
23.2505,6.50042,4.69276,14,13
8.84852,2.47222,-0.481491,65,6
31.2591,8.73359,7.49312,11,14
10.755,3.00284,-0.194908,22,7
28.5071,7.95397,7.93022,23,15
12.0493,3.34158,0.21826,31,8
0.531462,0.147288,-0.127322,15,1
13.4871,3.73524,0.733436,7,9
0.709547,0.196375,-0.143107,45,2
16.3813,4.5337,1.48705,13,10
5.99348,1.65764,-0.984912,42,3
21.5329,5.95138,2.74304,34,11
6.76404,1.86821,-0.861616,38,4
19.2493,5.31299,3.16279,6,12
7.64618,2.10898,-0.693934,28,5
19.2428,5.30397,3.87991,35,13
8.88448,2.44719,-0.482956,68,6
28.1741,7.76042,6.74673,9,14
10.8045,2.97402,-0.195607,23,7
28.5342,7.84891,7.9297,11,15
10.4528,2.8576,0.189149,22,8
0.535758,0.146366,-0.128222,14,1
0.706441,0.192863,-0.142344,45,2
19.8019,5.40233,1.79576,3,10
6.00714,1.63773,-0.986163,46,3
19.3424,5.26974,2.46152,32,11
6.7418,1.83676,-0.85796,37,4
7.66888,2.08646,-0.695328,28,5
19.3351,5.25686,3.89479,14,13
8.91031,2.42088,-0.483898,72,6
32.0486,8.70742,7.66723,11,14
10.7144,2.90904,-0.193792,100,7
28.636,7.7695,7.9504,11,15
10.4719,2.82552,0.189324,42,8
0.540003,0.145603,-0.129122,14,1
10.4345,2.8135,0.56638,47,9
0.68812,0.185411,-0.138527,36,2
19.4522,5.2377,1.76246,29,10
6.00681,1.61627,-0.985224,50,3
21.3362,5.73699,2.71281,13,11
6.74785,1.8144,-0.85796,34,4
19.0981,5.13161,3.13213,14,12
7.67768,2.06154,-0.695503,28,5
26.5446,7.12255,5.34227,18,13
8.94337,2.39804,-0.485259,76,6
32.5065,8.71617,7.76981,11,14
10.697,2.86624,-0.193303,30,7
28.4937,7.62954,7.90382,11,15
12.0271,3.2024,0.217248,7,8
0.548016,0.145816,-0.130922,14,1
13.3396,3.5469,0.723388,23,9
0.696352,0.185025,-0.140054,47,2
19.5485,5.19413,1.76961,14,10
6.02169,1.59887,-0.986789,46,3
19.4671,5.16527,2.47297,10,11
6.77525,1.79642,-0.860641,45,4
19.0681,5.05226,3.12431,6,12
7.67327,2.03167,-0.694457,28,5
19.3742,5.12613,3.89556,56,13
8.9401,2.36375,-0.484631,79,6
28.7725,7.60738,6.8709,10,14
10.821,2.85903,-0.195362,100,7
26.6784,7.04377,7.39343,24,15
10.441,2.73915,0.188416,15,8
0.541006,0.14183,-0.129122,14,1
13.4433,3.52176,0.728307,19,9
0.71222,0.186449,-0.143107,45,2
24.0274,6.29004,2.17297,22,10
6.02369,1.57579,-0.986163,46,3
19.9046,5.20331,2.52611,22,11
6.77026,1.76857,-0.859179,40,4
19.5433,5.10159,3.19909,19,12
7.69223,2.00654,-0.695503,27,5
19.4043,5.05806,3.89785,40,13
8.94484,2.32996,-0.484422,76,6
27.0275,7.04014,6.448,9,14
10.9765,2.85712,-0.19798,100,7
25.5243,6.63908,7.0668,4,15
10.4394,2.69787,0.188207,33,8
0.515107,0.133024,-0.122823,15,1
13.5837,3.5054,0.735216,4,9
0.701461,0.181018,-0.140817,46,2
22.3892,5.77358,2.02288,9,10
6.03325,1.55469,-0.986789,41,3
19.8774,5.11845,2.52026,28,11
6.78247,1.74523,-0.85991,32,4
18.9229,4.86563,3.09459,33,12
7.69533,1.97869,-0.695154,28,5
8.97226,2.30369,-0.485468,76,6
25.4486,6.52938,6.06558,31,14
11.1051,2.84717,-0.200109,48,7
25.571,6.55123,7.07301,4,15
10.4468,2.66092,0.188172,13,8
0.515568,0.131225,-0.122823,15,1
13.6694,3.47668,0.739193,23,9
0.705893,0.179537,-0.14158,46,2
22.2664,5.65907,2.00999,34,10
6.04438,1.53508,-0.987727,33,3
20.0279,5.08274,2.53708,46,11
6.78659,1.72105,-0.859666,38,4
17.9804,4.55643,2.93784,25,12
7.72537,1.95769,-0.697246,27,5
26.8406,6.79672,5.38196,19,13
9.00155,2.27774,-0.48662,72,6
28.4356,7.19003,6.77148,40,14
11.2448,2.8412,-0.202448,26,7
25.5206,6.4435,7.05282,30,15
0.542486,0.136062,-0.129122,14,1
13.6854,3.42991,0.739402,10,9
0.69509,0.174208,-0.139291,48,2
21.1302,5.29186,1.90575,35,10
6.06312,1.51733,-0.989917,42,3
20.1553,5.04024,2.55097,40,11
6.79834,1.6988,-0.860398,42,4
17.9905,4.49221,2.9369,9,12
7.72829,1.92975,-0.696897,26,5
21.0925,5.26286,4.22566,24,13
9.03658,2.25307,-0.488085,70,6
30.9471,7.71025,7.3631,10,14
11.1227,2.76909,-0.200074,29,7
25.6123,6.37162,7.07197,39,15
11.8337,2.92635,0.21278,53,8
0.565659,0.139777,-0.134521,14,1
13.7477,3.39457,0.742124,8,9
0.699506,0.172722,-0.140054,47,2
22.2067,5.47916,2.0011,19,10
6.07029,1.49663,-0.99023,33,3
20.647,5.08667,2.61093,36,11
6.80808,1.67601,-0.860885,46,4
18.8539,4.63794,3.07519,7,12
7.73885,1.90371,-0.697246,25,5
29.7796,7.32008,5.96087,4,13
9.05796,2.22485,-0.488818,70,6
26.6379,6.53797,6.33237,8,14
11.2955,2.77026,-0.203006,35,7
26.066,6.38795,7.19103,18,15
11.9079,2.90064,0.213932,37,8
0.535849,0.130428,-0.127322,15,1
15.2382,3.70623,0.821884,7,9
0.696289,0.169351,-0.139291,36,2
23.1511,5.62651,2.08442,15,10
6.06012,1.4717,-0.987727,45,3
20.6588,5.01316,2.6102,36,11
6.81775,1.65317,-0.861373,46,4
19.6264,4.75537,3.19846,17,12
7.7419,1.8744,-0.696897,25,5
26.023,6.30045,5.20451,14,13
9.06373,2.19275,-0.488713,73,6
26.3348,6.36618,6.25499,51,14
11.342,2.73974,-0.20367,25,7
26.2308,6.33137,7.23037,41,15
11.1305,2.67014,0.199795,10,8
0.540091,0.129465,-0.128222,14,1
13.7264,3.28781,0.739716,11,9
0.700724,0.167712,-0.140054,47,2
23.22,5.55321,2.08877,25,10
6.07124,1.45085,-0.988666,46,3
21.3616,5.10481,2.69672,13,11
