x, y, z, intensity, ring
0.510802,-0.375771,-0.123263,15,2
16.6679,-12.2662,1.81057,7,10
4.88752,-3.59681,-0.961133,27,3
8.13693,-5.9903,1.24063,14,11
4.87514,-3.59032,-0.743403,29,4
6.79727,-5.00772,1.3372,81,12
11.3009,-8.32866,-1.2282,27,5
6.63458,-4.88965,1.60203,22,13
14.9216,-11.0011,-0.971565,43,6
26.2146,-19.3341,7.52011,22,14
16.0671,-11.8544,-0.348525,36,7
8.64366,-6.37964,2.87859,26,15
7.68432,-5.68817,0.16688,25,8
0.427546,-0.316599,-0.122823,15,1
17.3119,-12.8242,1.1291,22,9
0.512708,-0.3798,-0.124026,14,2
28.4296,-21.0676,3.09577,9,10
4.87018,-3.61032,-0.960195,37,3
8.04103,-5.96309,1.22917,28,11
6.80989,-5.05378,1.34315,86,12
11.2845,-8.37756,-1.22959,12,5
6.60171,-4.90107,1.59822,44,13
14.9793,-11.1246,-0.977845,18,6
17.3213,-12.8686,4.98177,19,14
8.80007,-6.54028,-0.191383,74,7
8.68335,-6.45588,2.89929,23,15
8.47558,-6.31981,0.184542,21,8
0.426439,-0.318089,-0.122823,15,1
15.9208,-11.88,1.04107,18,9
0.511313,-0.381676,-0.124026,14,2
24.4554,-18.2617,2.67028,39,10
4.86166,-3.6317,-0.961133,31,3
8.05515,-6.01726,1.23454,5,11
14.8552,-11.101,-2.27701,12,4
6.66564,-4.98291,1.31812,30,12
8.81078,-6.58891,-0.962548,8,5
6.49252,-4.85703,1.57608,57,13
14.9,-11.1507,-0.975333,21,6
6.46468,-4.83972,1.86439,5,14
17.263,-12.9238,-0.376413,100,7
8.5185,-6.37961,2.85167,22,15
0.386167,-0.290048,-0.12941,15,0
6.64742,-4.99465,0.145134,28,8
0.409692,-0.307941,-0.118324,16,1
15.8325,-11.9047,1.03814,9,9
0.525669,-0.395258,-0.127842,14,2
6.71606,-5.05173,0.735246,15,10
4.85211,-3.65102,-0.961759,23,3
7.99498,-6.01809,1.22869,5,11
9.54324,-7.18612,-1.46682,1,4
6.57317,-4.95144,1.30341,76,12
11.2671,-8.48731,-1.23413,10,5
6.43633,-4.85012,1.56654,37,13
14.9025,-11.2339,-0.978054,25,6
15.4467,-11.6526,-0.337739,21,7
6.61879,-5.00938,0.14489,10,8
0.408615,-0.309369,-0.118324,16,1
15.767,-11.9418,1.03657,46,9
0.508636,-0.385237,-0.124026,14,2
4.85665,-3.68106,-0.965201,8,3
7.96443,-6.03876,1.22722,8,11
5.47551,-4.15313,-0.843823,15,4
6.53854,-4.96122,1.29997,122,12
11.3231,-8.59162,-1.24354,2,5
6.41311,-4.86781,1.56502,52,13
14.9077,-11.3197,-0.980985,7,6
6.37797,-4.84466,1.8491,13,14
9.84607,-7.4817,-0.215851,9,7
6.16877,-4.68914,2.07625,47,15
6.59967,-5.03124,0.144855,10,8
0.392037,-0.298977,-0.113825,16,1
0.491679,-0.375102,-0.12021,15,2
7.12094,-5.43453,0.783704,28,10
5.55346,-4.2398,-1.10662,17,3
9.33476,-7.12922,1.4422,20,11
5.47045,-4.17945,-0.845286,27,4
6.61221,-5.05359,1.31812,57,12
8.97875,-6.86229,-0.988695,4,5
6.33213,-4.84128,1.54937,59,13
14.5413,-11.1217,-0.959423,7,6
6.4415,-4.92847,1.87249,5,14
6.92505,-5.30035,-0.15222,33,7
6.14929,-4.70829,2.07521,83,15
6.51704,-5.00432,0.143424,6,8
0.421899,-0.324086,-0.122823,15,1
0.496594,-0.381601,-0.121736,15,2
6.84129,-5.259,0.754943,11,10
14.5583,-11.1952,-2.90874,28,3
9.27835,-7.13756,1.43733,27,11
5.48886,-4.22394,-0.850404,43,4
6.59296,-5.07543,1.3178,65,12
8.84738,-6.81094,-0.976842,23,5
6.33541,-4.87893,1.55433,54,13
14.4581,-11.1383,-0.956492,14,6
6.83022,-5.26377,1.99082,43,14
9.35333,-7.21084,-0.206148,48,7
6.14506,-4.73917,2.07935,13,15
6.54382,-5.06129,0.144401,1,8
0.405353,-0.313631,-0.118324,16,1
7.7534,-6.00116,0.513834,39,9
0.510784,-0.395349,-0.125552,14,2
6.61967,-5.1255,0.732457,13,10
14.4894,-11.223,-2.9028,18,3
7.97451,-6.17898,1.23868,2,11
7.64709,-5.92741,-1.18798,16,4
6.53306,-5.06573,1.30936,28,12
8.88061,-6.8885,-0.983291,25,5
14.9493,-11.6001,-0.991662,14,6
6.81796,-5.29236,1.99262,70,14
15.0583,-11.693,-0.332782,22,7
6.16357,-4.78785,2.09126,10,15
6.39045,-4.97841,0.141399,6,8
0.398107,-0.310253,-0.116525,16,1
7.70878,-6.00977,0.512264,35,9
0.509331,-0.397218,-0.125552,14,2
16.8964,-13.1819,1.87489,16,10
14.5074,-11.3222,-2.91469,16,3
9.17039,-7.15697,1.42831,20,11
7.49335,-5.85024,-1.16726,9,4
6.56515,-5.12741,1.31937,48,12
15.2906,-11.9549,-1.0172,7,6
6.83842,-5.34853,2.00431,67,14
8.49944,-6.64766,-0.188346,9,7
8.28019,-6.4995,0.183739,41,8
0.418425,-0.328559,-0.122823,15,1
7.60345,-5.97259,0.506717,25,9
0.501766,-0.394143,-0.124026,14,2
7.28152,-5.72177,0.8102,5,10
8.99189,-7.0683,-1.81151,13,3
9.13942,-7.18685,1.42758,6,11
11.0791,-8.71524,-1.73079,7,4
6.54011,-5.14656,1.31812,40,12
8.75751,-6.89395,-0.975098,8,5
7.36912,-5.80101,1.82299,27,13
13.2026,-10.3969,-0.88071,13,6
6.80134,-5.3579,1.99892,81,14
15.059,-11.8673,-0.334667,7,7
6.20956,-4.89522,2.11869,26,15
8.01588,-6.33737,0.178364,51,8
0.401991,-0.317929,-0.118324,16,1
7.59039,-6.00529,0.50724,16,9
0.49416,-0.391105,-0.122499,15,2
16.7923,-13.2951,1.87385,12,10
8.81881,-6.98469,-1.78179,5,3
7.69664,-6.09591,1.20553,30,11
7.35794,-5.82974,-1.15264,45,4
8.62286,-6.83439,1.74268,54,12
8.7412,-6.93067,-0.97597,17,5
7.32166,-5.80724,1.8165,42,13
13.2333,-10.4999,-0.885315,6,6
6.78929,-5.38885,2.00116,56,14
9.0719,-7.20061,-0.202169,100,7
6.15763,-4.88923,2.10679,28,15
8.05829,-6.41904,0.17983,60,8
7.58082,-6.04303,0.508078,21,9
0.47744,-0.38059,-0.118683,15,2
7.73887,-6.17123,0.865979,16,10
4.58636,-3.65862,-0.929221,6,3
6.48106,-5.17191,1.0181,6,11
7.35049,-5.86782,-1.15483,9,4
8.73513,-6.97566,1.77053,34,12
8.71228,-6.95741,-0.975447,10,5
7.04365,-5.6269,1.75239,25,13
14.4385,-11.5385,-0.968634,14,6
8.3565,-6.68046,2.46996,18,14
9.03139,-7.22258,-0.201855,21,7
8.01244,-6.42836,0.179306,50,8
0.396666,-0.318358,-0.117424,16,1
15.3296,-12.3077,1.03029,9,9
0.49448,-0.397004,-0.123263,15,2
16.9569,-13.6191,1.90278,34,10
6.751,-5.42407,-1.37162,13,3
6.46297,-5.1945,1.0181,31,11
13.2892,-10.6848,-2.09372,29,4
8.77643,-7.05896,-0.985383,4,5
7.06068,-5.68099,1.76155,66,13
13.3246,-10.7247,-0.89641,3,6
6.73633,-5.42389,1.99667,28,14
9.04973,-7.28918,-0.202832,25,7
6.53617,-5.26649,2.24914,43,15
8.02728,-6.48645,0.180144,22,8
0.431925,-0.349142,-0.128222,14,1
15.3378,-12.4026,1.03374,12,9
0.508357,-0.411072,-0.127079,14,2
16.9216,-13.6882,1.90418,39,10
6.80727,-5.50849,-1.38695,11,3
13.1485,-10.6474,-2.07739,24,4
8.61705,-6.98044,-0.970218,2,5
10.7069,-8.67958,-0.722341,6,6
6.74006,-5.46579,2.00341,26,14
8.94814,-7.259,-0.201122,21,7
6.51325,-5.28562,2.24758,59,15
7.92859,-6.45258,0.178433,60,8
0.412568,-0.335884,-0.122823,15,1
15.4679,-12.5973,1.04546,23,9
0.491696,-0.400446,-0.123263,15,2
16.7147,-13.6176,1.88622,42,10
6.75738,-5.50725,-1.38069,22,3
6.38039,-5.20186,1.01078,18,11
13.1405,-10.7171,-2.08202,22,4
8.43661,-6.88318,1.72453,50,12
8.56484,-6.98781,-0.96708,25,5
13.6083,-11.1105,-0.920694,17,6
6.71943,-5.48805,2.00296,45,14
8.64091,-7.05992,-0.194769,93,7
8.30617,-6.78884,2.87444,32,15
7.64001,-6.26219,0.17243,30,8
0.411394,-0.337322,-0.122823,15,1
15.4145,-12.6436,1.04484,10,9
0.497885,-0.408386,-0.125171,14,2
20.858,-17.1147,2.36053,13,10
6.75796,-5.5471,-1.38476,35,3
6.36066,-5.22284,1.01054,15,11
9.14386,-7.51085,-1.45293,8,4
8.30112,-6.82104,1.70169,42,12
8.56072,-7.03686,-0.96952,17,5
6.75814,-5.55515,1.70049,10,13
13.5263,-11.1225,-0.917763,33,6
6.76344,-5.56346,2.02186,17,14
8.72739,-7.18152,-0.197282,100,7
8.32269,-6.85094,2.88842,11,15
0.380161,-0.313938,-0.113825,16,1
7.58815,-6.26854,0.515823,13,9
0.475198,-0.392699,-0.119828,15,2
8.51033,-7.03535,0.966034,17,10
12.7901,-10.5772,-2.62873,15,3
6.35769,-5.25767,1.01298,24,11
8.29622,-6.86323,-1.32204,6,4
8.26356,-6.83864,1.69888,50,12
8.57908,-7.10228,-0.974401,8,5
6.74227,-5.58364,1.70163,19,13
13.4731,-11.1618,-0.916926,16,6
6.7235,-5.57205,2.01601,11,14
8.71458,-7.22215,-0.197561,100,7
8.20652,-6.80351,2.85633,25,15
8.02549,-6.67473,0.182203,33,8
0.390992,-0.3253,-0.117424,16,1
7.58201,-6.31037,0.516975,21,9
0.500986,-0.416962,-0.126697,14,2
8.3816,-6.97833,0.954181,17,10
6.7014,-5.58141,-1.38132,5,3
6.3887,-5.32287,1.02102,4,11
7.44757,-6.20729,-1.19042,33,4
7.83941,-6.53619,1.61659,58,12
8.50068,-7.08752,-0.9683,23,5
6.70464,-5.59205,1.69706,39,13
8.53891,-7.12446,-0.582813,20,6
6.69952,-5.59174,2.01466,18,14
8.55758,-7.1451,-0.194594,20,7
8.14594,-6.80382,2.8439,11,15
8.07725,-6.76562,0.183913,20,8
0.407779,-0.341682,-0.122823,15,1
7.56147,-6.33808,0.517079,56,9
0.481472,-0.403574,-0.122118,15,2
6.82896,-5.72611,0.779695,18,10
12.7538,-10.6979,-2.63655,13,3
7.7843,-6.53181,1.2477,8,11
7.42282,-6.23069,-1.18993,15,4
7.70763,-6.47206,1.59407,42,12
8.47894,-7.11972,-0.968649,27,5
6.68659,-5.61668,1.69744,7,13
11.2021,-9.41304,-0.766827,13,6
6.42487,-5.40067,1.93773,76,14
8.50963,-7.15562,-0.194071,21,7
7.21295,-6.06741,2.52556,3,15
6.54039,-5.51728,0.149358,20,8
0.406584,-0.343104,-0.122823,15,1
7.54235,-6.36701,0.517289,28,9
0.480061,-0.405252,-0.122118,15,2
6.68106,-5.64194,0.765053,37,10
12.309,-10.3982,-2.55207,16,3
7.84182,-6.62685,1.26062,11,11
10.8317,-9.15673,-1.74151,20,4
7.79661,-6.59331,1.61722,40,12
8.42665,-7.12611,-0.965511,24,5
6.65195,-5.62731,1.69362,5,13
13.5445,-11.4622,-0.929905,17,6
6.38813,-5.40795,1.93233,71,14
8.54106,-7.2331,-0.195362,100,7
8.10856,-6.86927,2.84753,7,15
6.48299,-5.50771,0.148485,60,8
0.387565,-0.329377,-0.117424,16,1
7.5216,-6.39459,0.517393,30,9
0.457702,-0.389122,-0.116775,16,2
6.69471,-5.69362,0.768888,9,10
12.2395,-10.4129,-2.54519,16,3
6.46867,-5.50527,1.04296,4,11
7.33228,-6.24247,-1.18238,5,4
7.80212,-6.64482,1.62316,42,12
6.72492,-5.72943,1.71728,26,13
13.4801,-11.4887,-0.928231,17,6
8.54467,-7.28753,-0.196025,100,7
13.5751,-11.582,4.78142,9,15
9.45096,-8.08615,0.217108,13,8
0.404179,-0.345934,-0.122823,15,1
7.49013,-6.41302,0.516765,58,9
0.486168,-0.416255,-0.124407,14,2
11.0026,-9.42371,1.26742,22,10
10.7675,-9.22561,-2.24577,22,3
6.46147,-5.53815,1.04491,7,11
7.31798,-6.27449,-1.1836,1,4
7.76988,-6.6643,1.62129,21,12
8.37393,-7.18493,-0.965337,4,5
6.68849,-5.73881,1.71308,19,13
9.51465,-8.16657,-0.65713,13,6
8.02686,-6.89201,2.44252,19,14
8.45243,-7.25998,-0.19449,65,7
0.402969,-0.347342,-0.122823,15,1
7.49493,-6.4626,0.518649,41,9
0.487612,-0.420598,-0.125171,14,2
7.313,-6.31018,0.845062,34,10
6.64384,-5.73481,-1.39008,18,3
6.45863,-5.57494,1.04759,11,11
10.7217,-9.25798,-1.73932,7,4
8.16963,-7.05681,1.70983,34,12
8.31865,-7.18807,-0.961851,8,5
9.46652,-8.18571,-0.655874,22,6
6.35525,-5.49733,1.93998,17,14
8.49812,-7.35093,-0.19613,100,7
7.1027,-6.14604,2.51676,34,15
6.41795,-5.57117,0.148345,92,8
0.381093,-0.330929,-0.116525,16,1
7.46968,-6.48872,0.518545,60,9
0.500962,-0.435173,-0.128987,13,2
7.22776,-6.28078,0.837741,72,10
10.7415,-9.33742,-2.25422,34,3
6.45013,-5.60899,1.04954,4,11
10.7221,-9.32718,-1.74493,11,4
6.49858,-5.6551,1.36442,79,12
12.8325,-11.167,-1.48827,12,5
6.59543,-5.74141,1.69973,20,13
9.40174,-8.18722,-0.653362,13,6
8.25358,-7.18992,2.5271,13,14
8.45303,-7.36626,-0.195711,100,7
6.42255,-5.6146,0.148904,65,8
0.400473,-0.350217,-0.122823,15,1
7.41842,-6.48977,0.516556,65,9
0.481708,-0.421407,-0.124407,14,2
7.1818,-6.28498,0.834952,38,10
12.1847,-10.6669,-2.5649,15,3
8.76766,-7.67821,1.43099,6,11
7.21344,-6.31934,-1.1775,11,4
6.42086,-5.62698,1.35222,40,12
8.10344,-7.10152,-0.942677,4,5
6.48086,-5.68156,1.6753,44,13
9.15387,-8.02773,-0.63808,6,6
13.4391,-11.79,4.1274,28,14
8.46334,-7.42738,-0.196549,100,7
13.4623,-11.8186,4.80006,18,15
8.94246,-7.87275,0.207963,12,8
0.416797,-0.367068,-0.128222,14,1
0.462557,-0.407512,-0.119828,15,2
6.79809,-5.99122,0.792769,60,10
10.6508,-9.38997,-2.2489,12,3
10.3368,-9.11633,1.69228,22,11
7.81208,-6.89212,-1.27914,11,4
6.16717,-5.44283,1.30279,85,12
8.01436,-7.07307,-0.935181,22,5
6.52281,-5.75872,1.69133,57,13
17.4282,-15.3921,-1.21859,5,6
7.82932,-6.91706,2.41193,28,14
7.13977,-6.31007,-0.166321,69,7
13.79,-12.1918,4.93206,6,15
6.34728,-5.62746,0.148066,52,8
0.398018,-0.353004,-0.122823,15,1
7.39833,-6.56393,0.518335,6,9
0.464069,-0.41173,-0.120591,15,2
7.04834,-6.25561,0.824493,22,10
12.1365,-10.7753,-2.57053,16,3
10.2856,-9.13522,1.68911,30,11
12.6495,-11.2387,-2.07763,18,4
6.44343,-5.72678,1.36536,84,12
8.02388,-7.13145,-0.93919,10,5
6.54375,-5.81798,1.70202,50,13
8.03502,-7.14637,-0.563554,13,6
7.79493,-6.93528,2.40878,40,14
8.4307,-7.50356,-0.197003,93,7
0.382249,-0.34141,-0.118324,16,1
0.474341,-0.423812,-0.123644,14,2
6.73382,-6.01861,0.790154,39,10
12.7895,-11.4351,-2.71727,7,3
10.1427,-9.07182,1.67083,18,11
5.58761,-4.99941,-0.920601,23,4
6.36011,-5.69259,1.35191,56,12
7.8819,-7.05714,-0.925594,1,5
6.37567,-5.70852,1.66347,30,13
7.88506,-7.06245,-0.554761,7,6
7.7968,-6.98585,2.41687,21,14
12.9879,-11.6411,-0.30444,76,7
6.9947,-6.27157,2.51727,21,15
8.10711,-7.28943,0.190301,6,8
0.395544,-0.355774,-0.122823,15,1
6.70202,-6.03029,0.472489,48,9
0.478621,-0.430801,-0.125171,14,2
6.728,-6.05792,0.792071,11,10
8.53503,-7.68767,-1.81933,15,3
10.1877,-9.17625,1.6835,11,11
5.56717,-5.01622,-0.920114,21,4
6.15972,-5.55208,1.31342,82,12
7.94008,-7.15933,-0.935355,2,5
5.98296,-5.39654,1.56616,22,13
7.97478,-7.19566,-0.562926,3,6
7.76825,-7.01177,2.41597,57,14
6.85509,-6.18753,-0.16119,8,7
8.66576,-7.84937,0.204088,60,8
0.37402,-0.338903,-0.116525,16,1
0.462569,-0.419284,-0.121355,15,2
7.07433,-6.41461,0.835475,16,10
8.56959,-7.77316,-1.83247,3,3
10.2098,-9.26422,1.69277,3,11
12.5291,-11.3727,-2.07763,9,4
6.29096,-5.7103,1.34565,63,12
8.15695,-7.40666,-0.963942,2,5
5.98443,-5.43587,1.5715,31,13
7.80623,-7.09317,-0.552772,7,6
7.79132,-7.0821,2.43082,26,14
9.11669,-8.28683,-0.215049,100,7
12.6737,-11.5241,4.5899,8,15
8.78892,-8.01415,0.207614,52,8
0.393051,-0.358527,-0.122823,15,1
6.52255,-5.95173,0.462755,8,9
0.458202,-0.418249,-0.120591,15,2
7.16077,-6.53868,0.848374,38,10
15.0614,-13.7529,-3.23037,15,3
6.42549,-5.86934,1.06855,11,11
5.49391,-5.02015,-0.913776,35,4
6.27099,-5.73222,1.34565,79,12
8.19574,-7.49424,-0.971612,2,5
5.93449,-5.42654,1.56311,30,13
9.02058,-8.25137,-0.640697,45,6
7.76779,-7.1079,2.43082,21,14
8.24841,-7.55033,-0.195188,9,7
12.5921,-11.5304,4.57489,5,15
7.76521,-7.13047,0.184018,8,8
0.391797,-0.359897,-0.122823,15,1
6.41056,-5.89068,0.456265,12,9
0.477051,-0.438364,-0.125934,14,2
7.15225,-6.57453,0.849943,22,10
8.52957,-7.84334,-1.83529,6,3
6.47071,-5.95221,1.07952,55,11
5.4749,-5.03795,-0.913533,11,4
6.15647,-5.66712,1.32531,76,12
5.54602,-5.10698,-0.659595,13,5
7.81611,-7.19736,2.06532,18,13
8.93444,-8.23003,-0.636615,42,6
7.83895,-7.22345,2.46096,56,14
8.14702,-7.50996,-0.193408,21,7
6.90929,-6.37124,2.51831,1,15
0.425512,-0.393477,-0.155291,12,0
8.69606,-8.04137,0.206741,25,8
0.390538,-0.361262,-0.122823,15,1
0.466797,-0.432107,-0.123644,14,2
7.46726,-6.91476,0.890383,2,10
4.89091,-4.53062,-1.05593,22,3
6.42077,-5.94778,1.07464,80,11
5.54027,-5.13394,-0.927426,31,4
6.01786,-5.57845,1.29966,39,12
8.85032,-8.20697,-1.05598,11,5
7.80983,-7.24465,2.07066,43,13
8.0595,-7.48149,2.5388,39,14
8.12515,-7.54243,-0.193512,100,7
8.21147,-7.64929,0.195886,13,8
0.389211,-0.362691,-0.122823,15,1
6.11696,-5.70216,0.438261,65,9
0.459541,-0.428379,-0.122118,15,2
8.10344,-7.55923,-1.75519,65,3
6.39457,-5.96721,1.07391,27,11
5.3618,-5.00521,-0.900615,32,4
6.00026,-5.60317,1.30028,38,12
8.69496,-8.12238,-1.04099,11,5
10.3181,-9.63864,2.7446,17,13
7.02933,-6.56873,-0.504205,56,6
7.95646,-7.43772,2.5145,22,14
8.12082,-7.59401,-0.194071,92,7
6.78608,-6.36587,0.162412,60,8
0.387943,-0.364048,-0.122823,15,1
6.41592,-6.02284,0.461184,25,9
0.452244,-0.424685,-0.120591,15,2
8.08,-7.59294,-1.75613,27,3
5.33851,-5.01846,-0.89964,15,4
5.98642,-5.62949,1.30153,63,12
8.61286,-8.10217,-1.03454,36,5
7.74492,-7.28824,2.06722,25,13
7.95469,-7.49088,2.5226,61,14
8.12775,-7.65385,-0.194874,75,7
8.14319,-7.67107,2.99764,9,15
0.386606,-0.365467,-0.122823,15,1
6.08135,-5.74884,0.438575,22,9
0.459317,-0.434355,-0.122881,15,2
6.74769,-6.3832,0.81264,42,10
7.0534,-6.67474,-1.53806,57,3
6.41081,-6.06876,1.08391,30,11
5.27972,-4.99977,-0.892815,21,4
8.51655,-8.06779,-1.02635,29,5
7.7123,-7.30848,2.06532,43,13
7.18073,-6.80711,-0.518545,7,6
7.94263,-7.53201,2.5271,37,14
8.50436,-8.0647,-0.204577,100,7
8.09254,-7.67685,2.98884,3,15
6.68207,-6.35658,0.160981,5,8
0.385392,-0.366747,-0.122823,15,1
6.67172,-6.35117,0.482747,4,9
0.463485,-0.441371,-0.124407,14,2
10.1544,-9.67329,1.22698,49,10
7.00262,-6.67084,-1.53181,58,3
6.40215,-6.10095,1.08586,27,11
5.26599,-5.01999,-0.893302,13,4
8.25911,-7.8788,-0.99863,36,5
7.28382,-6.95085,-0.527651,28,6
7.98386,-7.62155,2.54825,45,14
8.45013,-8.06947,-0.203949,100,7
8.05452,-7.69437,2.9847,8,15
6.70028,-6.4186,0.161958,13,8
0.384109,-0.36809,-0.122823,15,1
0.447847,-0.429319,-0.120591,15,2
6.80331,-6.52414,0.824668,26,10
5.50532,-5.28126,-1.2083,58,3
6.52261,-6.25933,1.10999,20,11
5.22265,-5.0136,-0.888915,49,4
6.47535,-6.21615,1.42168,48,12
6.92952,-6.65447,-0.84053,45,5
7.88324,-7.57298,2.12485,16,13
6.86925,-6.60119,-0.499285,49,6
6.68299,-6.42445,2.14018,22,14
12.8246,-12.3284,-0.310513,30,7
8.05402,-7.74514,2.99402,10,15
6.99995,-6.75033,0.169742,43,8
0.363251,-0.35042,-0.116525,16,1
6.25179,-6.03306,0.455323,78,9
0.45482,-0.439061,-0.122881,15,2
6.77333,-6.54093,0.823796,16,10
12.8896,-12.4473,-2.83803,20,3
6.85018,-6.61745,1.16946,27,11
5.24882,-5.07227,-0.896227,35,4
6.3826,-6.17006,1.40603,87,12
6.91055,-6.68277,-0.841053,26,5
7.83127,-7.57315,2.1176,24,13
6.86454,-6.6406,-0.500541,77,6
6.55242,-6.34087,2.10509,45,14
9.30735,-9.01,-0.226113,18,7
12.2416,-11.8547,4.56609,28,15
8.12268,-7.89345,0.197701,31,8
0.361903,-0.351813,-0.116525,16,1
6.20567,-6.03475,0.453648,36,9
0.456023,-0.443463,-0.123644,14,2
10.3382,-10.057,1.26184,22,10
5.50703,-5.35909,-1.21706,11,3
6.49756,-6.32523,1.1134,27,11
5.25775,-5.12009,-0.901102,71,4
6.29377,-6.13112,1.39164,60,12
5.37089,-5.23392,-0.656108,33,5
7.80354,-7.60453,2.11798,39,13
6.83042,-6.65854,-0.499913,100,6
6.58662,-6.42312,2.12399,56,14
6.19085,-6.03929,-0.150963,100,7
14.0363,-13.6974,5.25506,22,15
8.11223,-7.93854,0.19812,36,8
0.380169,-0.372159,-0.122823,15,1
6.89806,-6.75507,0.505984,60,9
0.44037,-0.431393,-0.119828,15,2
5.60101,-5.48875,0.68609,3,10
12.2838,-12.0417,-2.72446,5,3
6.69233,-6.56048,1.15069,28,11
5.22993,-5.12868,-0.899396,21,4
6.36963,-6.2485,1.41323,29,12
5.35685,-5.25682,-0.656631,47,5
7.83726,-7.6936,2.13477,10,13
8.06712,-7.922,-0.592548,54,6
6.56303,-6.44722,2.12399,16,14
5.87587,-5.77219,-0.143773,40,7
8.19701,-8.08052,0.200912,17,8
0.378802,-0.37355,-0.122823,15,1
6.31981,-6.23218,0.465162,35,9
0.464019,-0.457745,-0.126697,14,2
7.39447,-7.29958,-1.64569,47,3
6.75299,-6.66866,1.16531,18,11
7.41416,-7.32413,-1.27963,11,4
6.25503,-6.17907,1.39258,86,12
8.10478,-8.00916,-0.996887,21,5
7.78662,-7.69744,2.12828,17,13
7.35775,-7.27602,-0.542305,31,6
6.46429,-6.39471,2.09924,35,14
6.09168,-6.02611,-0.149567,100,7
7.83113,-7.74955,2.95209,7,15
6.72236,-6.67093,0.165309,52,8
0.377561,-0.374804,-0.122823,15,1
6.29094,-6.24717,0.464639,72,9
0.456847,-0.453827,-0.125171,14,2
6.4529,-6.41249,0.795906,26,10
7.55238,-7.50508,-1.68636,57,3
6.52811,-6.48949,1.13022,39,11
5.60501,-5.57379,-0.970568,25,4
6.26563,-6.23291,1.39978,54,12
5.63213,-5.60468,-0.695154,33,5
7.78471,-7.74676,2.13477,14,13
7.28121,-7.24824,-0.538432,17,6
6.44995,-6.42299,2.10149,35,14
5.95727,-5.93444,-0.146775,65,7
7.98192,-7.95411,3.01938,37,15
6.70045,-6.69577,0.165344,88,8
0.376251,-0.376119,-0.122823,15,1
6.62075,-6.62075,0.490702,69,9
0.458116,-0.458116,-0.125934,14,2
7.63645,-7.64178,-1.71108,37,3
6.61906,-6.62599,1.14996,15,11
5.25869,-5.26604,-0.913776,25,4
6.50621,-6.51757,1.4586,47,12
5.62337,-5.63319,-0.696374,31,5
7.7604,-7.77667,2.13553,14,13
7.97948,-7.999,-0.592129,54,6
6.47153,-6.48962,2.11589,17,14
7.95818,-7.98322,-0.196758,100,7
6.23729,-6.2591,2.36768,4,15
7.92026,-7.97018,0.19613,53,8
0.358455,-0.36084,-0.117424,16,1
6.49064,-6.53611,0.482747,54,9
0.445447,-0.448568,-0.122881,15,2
7.64312,-7.70204,-1.71859,26,3
5.26125,-5.30551,-0.917432,46,4
6.43335,-6.48974,1.44733,82,12
5.65697,-5.70656,-0.702998,21,5
9.69276,-9.78113,2.67667,25,13
11.6778,-11.7883,-0.869614,39,6
6.44609,-6.5094,2.11499,13,14
5.8763,-5.93609,-0.145797,65,7
9.53508,-9.63546,3.63227,20,15
7.88958,-7.99493,0.19606,66,8
0.354456,-0.359315,-0.116525,16,1
6.24481,-6.33261,0.466104,56,9
0.430094,-0.436141,-0.119065,15,2
5.53471,-5.6145,0.689751,30,10
7.53022,-7.64144,-1.69919,25,3
5.29144,-5.37334,-0.925963,83,4
6.43976,-6.54172,1.4539,86,12
5.55497,-5.64489,-0.692888,47,5
6.2256,-6.32638,1.7253,51,13
11.6211,-11.8134,-0.868463,35,6
6.44792,-6.55688,2.12309,34,14
7.95132,-8.08849,-0.19798,100,7
7.167,-7.29319,2.73986,7,15
7.85602,-8.01671,0.195921,68,8
0.355927,-0.363334,-0.117424,16,1
6.43647,-6.5727,0.482119,28,9
0.414758,-0.423685,-0.115249,16,2
5.535,-5.65611,0.692365,50,10
6.99106,-7.14652,-1.58343,65,3
7.82502,-7.99902,1.37396,35,11
5.1991,-5.31656,-0.913045,56,4
6.38789,-6.5345,1.44733,79,12
5.51573,-5.64429,-0.690448,57,5
6.21472,-6.36179,1.72873,64,13
8.32923,-8.52932,-0.624787,43,6
6.05903,-6.20675,2.00251,41,14
6.03447,-6.18159,-0.150789,57,7
6.41426,-6.57294,2.46085,21,15
0.404191,-0.415348,-0.155291,12,0
7.84193,-8.06121,0.196305,58,8
0.370896,-0.381401,-0.122823,15,1
6.99844,-7.19916,0.526186,52,9
0.44612,-0.458916,-0.124407,14,2
5.54022,-5.70111,0.695503,39,10
6.95231,-7.15671,-1.5803,22,3
7.81916,-8.05186,1.3781,29,11
5.16851,-5.32419,-0.911095,22,4
6.3694,-6.56353,1.44858,71,12
5.41871,-5.58582,-0.680861,42,5
11.6183,-11.9808,-0.874639,35,6
6.05225,-6.24325,2.00746,45,14
6.03265,-6.22521,-0.151312,100,7
8.47646,-8.77457,0.212954,23,8
0.356025,-0.368675,-0.118324,16,1
6.86368,-7.11003,0.517917,30,9
0.438982,-0.454897,-0.122881,15,2
5.67006,-5.87768,0.714503,18,10
4.19319,-4.34825,-0.956753,27,3
7.81857,-8.10768,1.38297,35,11
7.57467,-7.85751,-1.34008,42,4
6.29436,-6.53168,1.43669,84,12
5.40609,-5.61187,-0.681732,47,5
8.62984,-8.96147,2.41831,32,13
11.325,-11.7643,-0.855798,32,6
6.07527,-6.31314,2.02276,12,14
7.70113,-8.00266,-0.193861,26,7
11.2982,-11.7817,0.284928,47,8
0.368157,-0.384045,-0.122823,15,1
0.440108,-0.459261,-0.123644,14,2
5.81628,-6.07152,0.735594,26,10
6.83261,-7.13494,-1.56466,28,3
5.91641,-6.18036,1.05051,19,11
7.54308,-7.87961,-1.33934,6,4
6.24967,-6.53077,1.43169,41,12
5.35754,-5.60048,-0.678072,45,5
7.32305,-7.65778,2.05959,13,13
8.42427,-8.81242,-0.638917,13,6
6.05699,-6.33606,2.02366,53,14
7.39408,-7.73746,-0.186811,82,7
6.30656,-6.60174,2.44636,45,15
11.2205,-11.7785,0.283951,17,8
0.366882,-0.385264,-0.122823,15,1
0.425046,-0.446499,-0.119828,15,2
5.59421,-5.87861,0.709971,30,10
6.82388,-7.1733,-1.5681,18,3
5.91093,-6.21577,1.05319,45,11
8.63043,-9.07552,-1.53775,12,4
6.07963,-6.39541,1.39759,83,12
5.29228,-5.56911,-0.672145,56,5
6.20101,-6.52765,1.7501,18,13
8.5738,-9.02858,-0.652525,13,6
6.01045,-6.32927,2.01511,27,14
10.7566,-11.3311,-0.272711,40,7
7.33384,-7.72826,2.85477,19,15
8.55609,-9.04149,0.217282,18,8
0.365602,-0.386478,-0.122823,15,1
6.93831,-7.33705,0.529221,37,9
0.439669,-0.4651,-0.124407,14,2
5.59932,-5.92319,0.713108,28,10
4.23986,-4.48666,-0.977716,18,3
5.89574,-6.24111,1.05417,26,11
8.5469,-9.05074,-1.52849,37,4
6.03964,-6.39792,1.39352,40,12
5.27281,-5.58755,-0.672145,62,5
6.16208,-6.53447,-0.47071,79,6
5.9696,-6.33036,2.00881,26,14
11.6291,-12.3362,-0.295923,31,7
7.21805,-7.65961,2.82009,20,15
8.74333,-9.30744,0.222902,6,8
0.364183,-0.387816,-0.122823,15,1
7.77802,-8.28565,0.595583,51,9
0.435275,-0.463845,-0.123644,14,2
5.67029,-6.04247,0.724961,22,10
4.2369,-4.51658,-0.980844,25,3
5.83752,-6.22503,1.04783,26,11
8.45665,-9.02118,-1.51825,15,4
6.49161,-6.92738,1.50365,68,12
5.27817,-5.63446,-0.675457,32,5
6.07631,-6.48874,1.72797,29,13
6.13399,-6.55263,-0.470396,79,6
5.91573,-6.31947,1.99847,36,14
11.1439,-11.9086,-0.284684,7,7
6.09059,-6.51082,2.3889,20,15
8.66006,-9.28678,0.221646,5,8
0.362759,-0.389148,-0.122823,15,1
0.433653,-0.465361,-0.123644,14,2
5.72415,-6.14485,0.734723,54,10
5.3417,-5.7363,-1.24146,12,3
5.84172,-6.27544,1.05271,26,11
7.94076,-8.53332,-1.43123,5,4
6.53748,-7.02779,1.52023,63,12
5.53395,-5.94899,-0.710842,41,5
5.67126,-6.09873,1.61882,24,13
7.92918,-8.52982,-0.610342,20,6
5.86467,-6.31114,1.98902,68,14
10.2781,-11.0644,-0.263601,100,7
6.07589,-6.54301,2.39252,10,15
12.4509,-13.4458,0.319868,20,8
0.361399,-0.390412,-0.122823,15,1
7.51099,-8.11681,0.579568,8,9
0.43736,-0.472636,-0.125171,14,2
5.64178,-6.09898,0.726879,71,10
5.59658,-6.05223,-1.3056,12,3
6.44231,-6.96925,1.16531,89,11
11.9472,-12.9289,-2.16147,30,4
6.4164,-6.94609,1.4977,49,12
5.68456,-6.15599,1.62875,61,13
7.93051,-8.5912,-0.612749,13,6
5.81882,-6.30579,1.98092,63,14
12.0346,-13.0463,-0.309815,15,7
7.14129,-7.74437,2.82268,15,15
12.2821,-13.3567,0.316726,33,8
0.360034,-0.391671,-0.122823,15,1
7.43937,-8.09592,0.576219,14,9
0.422423,-0.459704,-0.121355,15,2
5.69864,-6.20374,0.736989,20,10
5.62352,-6.1241,-1.31687,18,3
6.08906,-6.63341,1.1056,60,11
5.36584,-5.84758,-0.974467,17,4
6.49093,-7.07616,1.52086,52,12
5.5704,-6.07264,-0.720952,11,5
5.67631,-6.19027,1.63256,10,13
8.41872,-9.1842,-0.652943,39,6
5.84022,-6.37348,1.99577,32,14
11.2906,-12.3259,-0.291769,25,7
5.60605,-6.12222,2.22429,14,15
9.55746,-10.4667,0.247405,9,8
0.358664,-0.392925,-0.122823,15,1
7.67088,-8.40658,0.596421,35,9
0.428756,-0.469877,-0.123644,14,2
5.7132,-6.26333,0.741695,9,10
6.61365,-7.25304,-1.55465,10,3
5.31865,-5.83693,-0.969593,60,4
5.84434,-6.41609,-0.759301,5,5
7.18928,-7.89538,2.07562,45,13
11.222,-12.3285,-0.873697,13,6
11.2772,-12.3978,-0.292537,100,7
5.59114,-6.1489,2.22688,58,15
8.41672,-9.28235,0.218714,27,8
0.338968,-0.373961,-0.116525,16,1
6.71883,-7.41504,0.524406,8,9
0.413931,-0.456822,-0.119828,15,2
5.69665,-6.28914,0.742393,9,10
6.63072,-7.32294,-1.56466,17,3
6.32635,-6.98924,1.15752,18,11
5.08248,-5.617,-0.930107,73,4
5.96109,-6.59264,-0.777604,3,5
5.65797,-6.25741,1.63981,52,13
4.93924,-5.46445,-0.38603,38,6
5.51991,-6.109,1.90084,60,14
11.3705,-12.5884,-0.296098,85,7
5.62143,-6.22573,2.24758,64,15
8.36286,-9.2879,0.218155,17,8
0.355913,-0.39542,-0.122823,15,1
6.65817,-7.39984,0.521685,7,9
0.428008,-0.475852,-0.124407,14,2
6.34629,-7.05817,0.83042,44,10
6.62497,-7.3707,-1.56966,41,3
6.30988,-7.02014,1.15898,13,11
5.66276,-6.30461,1.34221,87,12
5.07682,-5.65423,-0.664824,5,5
5.3006,-5.90554,1.5425,33,13
8.21642,-9.15735,-0.644779,19,6
5.51049,-6.1437,1.90534,61,14
11.2224,-12.5119,-0.293375,85,7
5.61643,-6.26401,2.25431,17,15
8.36474,-9.35874,0.219098,37,8
0.354461,-0.396722,-0.122823,15,1
6.7095,-7.51208,0.527861,7,9
0.402804,-0.450987,-0.117538,16,2
6.43839,-7.21107,0.845759,18,10
6.30261,-7.06395,1.16239,13,11
5.18222,-5.81026,-0.955943,18,4
5.66722,-6.35628,1.34878,86,12
5.03451,-5.64664,-0.661861,35,5
5.24991,-5.8903,1.53372,66,13
4.93057,-5.53395,-0.388438,28,6
5.45143,-6.1207,1.89229,57,14
11.2802,-12.6695,-0.296098,100,7
7.0345,-7.90368,2.8351,51,15
7.46391,-8.40976,0.19627,13,8
0.373767,-0.42128,-0.130022,14,1
0.41686,-0.470016,-0.122118,15,2
6.38806,-7.20517,0.842447,14,10
6.54059,-7.37981,-1.56184,45,3
6.45562,-7.2865,1.19529,33,11
5.06451,-5.71835,-0.937907,43,4
5.63845,-6.36863,1.34721,70,12
4.9725,-5.61644,-0.656283,40,5
5.23972,-5.92035,1.53678,73,13
4.91387,-5.55412,-0.388647,28,6
5.22088,-5.90321,1.8194,58,14
11.4478,-12.9485,-0.301682,62,7
5.47935,-6.19982,2.21704,20,15
7.36311,-8.35475,0.194385,17,8
0.333648,-0.378715,-0.116525,16,1
6.46813,-7.3444,0.512892,60,9
0.420407,-0.477362,-0.123644,14,2
6.62223,-7.52203,0.876787,12,10
4.26489,-4.84609,-1.02246,18,3
6.44457,-7.32538,1.19798,22,11
5.06811,-5.76282,-0.942294,33,4
5.56271,-6.32745,1.33439,79,12
4.96471,-5.64723,-0.657852,23,5
5.22292,-5.94303,1.53792,42,13
4.82196,-5.48872,-0.38289,45,6
5.2131,-5.93604,1.8239,25,14
11.1294,-12.6773,-0.294457,77,7
6.93583,-7.90323,2.8175,20,15
7.35497,-8.40448,0.194943,6,8
0.350287,-0.400412,-0.122823,15,1
6.36225,-7.27522,0.506507,65,9
0.405814,-0.464048,-0.119828,15,2
6.61954,-7.5721,0.879924,12,10
7.11285,-8.13926,-1.71202,6,3
6.13426,-7.02193,1.14484,13,11
5.1002,-5.84029,-0.952043,56,4
7.62432,-8.73377,1.83623,19,12
4.97641,-5.70055,-0.662035,18,5
5.18407,-5.94051,1.53258,25,13
4.81721,-5.52207,-0.384041,31,6
5.26536,-6.03792,1.84955,37,14
7.54381,-8.65373,-0.200389,100,7
7.21661,-8.2813,2.94329,48,15
0.348887,-0.401632,-0.122823,15,1
6.43372,-7.40898,0.514253,58,9
0.426075,-0.490662,-0.126316,14,2
7.75939,-8.93876,1.03558,17,10
6.19556,-7.14227,1.16093,57,11
5.09799,-5.87905,-0.955456,32,4
4.97375,-5.73983,-0.664475,10,5
5.17358,-5.97044,1.53563,68,13
4.80183,-5.54338,-0.384355,38,6
5.19833,-6.00323,1.83335,40,14
7.50571,-8.67094,-0.200179,20,7
5.43688,-6.28315,2.22636,35,15
8.42222,-9.76068,0.225031,15,8
0.347483,-0.402847,-0.122823,15,1
6.36869,-7.38602,0.511113,63,9
0.406328,-0.471401,-0.120973,15,2
7.7864,-9.03657,1.0436,51,10
7.67065,-8.90537,-1.86157,6,3
6.08768,-7.06759,1.14533,31,11
5.13442,-5.963,-0.96618,23,4
5.45104,-6.33295,1.32344,70,12
4.89261,-5.68617,-0.656283,12,5
5.25665,-6.11141,1.56692,33,13
4.82575,-5.61243,-0.387914,35,6
5.45701,-6.34885,1.93278,90,14
7.04004,-8.19058,-0.188521,100,7
5.41618,-6.30356,2.22688,6,15
4.89499,-5.71512,0.131347,23,8
0.32826,-0.383394,-0.116525,16,1
6.23116,-7.27773,0.502111,56,9
0.41234,-0.481766,-0.123263,15,2
7.65508,-8.94712,1.03018,34,10
7.19912,-8.41719,-1.75426,36,3
6.04625,-7.07175,1.1424,15,11
5.08803,-5.95311,-0.961549,26,4
5.51361,-6.45105,1.34408,70,12
4.86755,-5.69716,-0.655585,13,5
6.59319,-7.71963,1.97335,39,13
4.84244,-5.67177,-0.390845,49,6
6.80889,-7.97782,-0.183076,99,7
5.43677,-6.3724,2.24448,11,15
4.84361,-5.69324,0.130474,30,8
0.344662,-0.405263,-0.122823,15,1
6.15915,-7.24466,0.498343,56,9
0.413199,-0.486194,-0.124026,14,2
7.60316,-8.94949,1.02739,46,10
7.24024,-8.52231,-1.77115,6,3
6.0202,-7.08874,1.14192,28,11
7.41675,-8.73625,-1.4071,4,4
5.61504,-6.61635,1.37443,93,12
4.85279,-5.72019,-0.656283,27,5
6.68313,-7.87769,2.00807,37,13
7.1401,-8.4223,2.54915,24,14
5.41574,-6.39281,2.245,7,15
8.37504,-9.91402,0.226532,6,8
0.343246,-0.406464,-0.122823,15,1
6.14413,-7.27832,0.49918,60,9
0.409051,-0.484561,-0.123263,15,2
7.57729,-8.97922,1.02791,40,10
5.05279,-5.98976,-1.24115,36,3
5.98774,-7.1006,1.14045,39,11
7.40412,-8.78333,-1.41052,9,4
5.60337,-6.6495,1.37725,63,12
5.04435,-5.98612,-0.68487,30,5
6.79725,-8.06914,2.05082,42,13
11.3107,-13.4319,-0.920276,13,6
7.11693,-8.45462,2.55139,24,14
6.31141,-7.50035,-0.171103,100,7
7.13751,-8.50917,0.193861,28,8
0.341825,-0.40766,-0.122823,15,1
6.19567,-7.39156,0.505461,56,9
0.39979,-0.476958,-0.120973,15,2
7.59837,-9.06823,1.03506,17,10
10.982,-13.1111,-2.70882,9,3
5.0787,-6.0676,-0.971543,43,4
5.53449,-6.61448,1.36599,11,12
5.0605,-6.048,-0.689925,16,5
6.76275,-8.08529,2.04891,40,13
4.78506,-5.72287,-0.39095,28,6
11.6515,-13.94,4.19444,15,14
5.78771,-6.92693,-0.15756,8,7
5.44033,-6.51349,2.27398,19,15
5.9048,-7.08967,0.161051,52,8
0.3404,-0.40885,-0.122823,15,1
6.19538,-7.44385,0.507554,58,9
0.403147,-0.484387,-0.122499,15,2
7.61509,-9.1529,1.04169,6,10
6.8765,-8.26809,-1.70326,15,3
12.423,-14.9424,2.38596,20,11
5.05876,-6.08681,-0.971786,28,4
4.97084,-5.98528,-0.680686,61,5
6.76333,-8.14358,2.05768,26,13
7.15715,-8.62083,-0.587209,6,6
6.99924,-8.43362,2.53025,20,14
6.24868,-7.53192,-0.170824,35,7
5.41386,-6.52798,2.27243,10,15
5.84306,-7.06555,0.160039,50,8
0.33897,-0.410036,-0.122823,15,1
6.17572,-7.47313,0.508078,51,9
0.381363,-0.461644,-0.116393,16,2
7.53201,-9.12084,1.03489,17,10
7.3127,-8.85841,-1.81933,13,3
6.24036,-7.55941,1.20358,2,11
5.09434,-6.17333,-0.982754,16,4
5.37002,-6.50972,1.33658,14,12
4.97527,-6.03334,-0.684173,27,5
5.08505,-6.16865,1.55395,72,13
4.88752,-5.93114,-0.402778,14,6
6.98563,-8.48028,2.53655,18,14
6.8695,-8.3393,-0.188591,100,7
5.82727,-7.09929,0.160318,51,8
0.337465,-0.411276,-0.122823,15,1
6.38515,-7.78448,0.527651,21,9
0.384729,-0.469044,-0.11792,16,2
7.13252,-8.69873,0.984163,17,10
7.41698,-9.04888,-1.85312,2,3
6.43656,-7.85554,1.24697,31,11
5.03142,-6.14282,-0.974955,37,4
7.18197,-8.77153,1.79555,10,12
4.96806,-6.06762,-0.68609,8,5
5.0498,-6.16966,1.54975,68,13
4.84402,-5.92034,-0.400893,18,6
4.86228,-5.94478,1.77306,15,14
6.76801,-8.27773,-0.186636,100,7
5.39513,-6.60096,2.28434,22,15
5.91615,-7.25909,0.163459,50,8
0.336028,-0.412451,-0.122823,15,1
6.22677,-7.64566,0.516765,41,9
0.397967,-0.488652,-0.122499,15,2
7.00399,-8.60306,0.970566,36,10
4.66712,-5.7347,-1.17107,5,3
6.41912,-7.89028,1.24892,31,11
4.98365,-6.12801,-0.969836,6,4
8.65534,-10.6466,2.17319,7,12
4.94182,-6.07874,-0.685393,11,5
5.05919,-6.22533,1.55929,41,13
4.85103,-5.97132,-0.403196,21,6
4.7985,-5.90877,1.75732,60,14
6.23998,-7.68651,-0.172814,35,7
6.63442,-8.17531,2.82113,15,15
5.90336,-7.29524,0.163808,10,8
0.334586,-0.413622,-0.122823,15,1
6.14227,-7.59591,0.51195,53,9
0.396259,-0.490038,-0.122499,15,2
4.65825,-5.76479,-1.17388,45,3
6.38655,-7.90647,1.24794,11,11
5.02957,-6.22876,-0.982998,45,4
6.58457,-8.15743,1.6604,11,12
12.0812,-14.967,-1.6828,3,5
6.92616,-8.58368,2.14393,9,13
4.87279,-6.04107,-0.406755,25,6
4.74115,-5.87997,1.74382,45,14
5.57435,-6.91578,-0.155047,8,7
6.55373,-8.13373,2.79887,7,15
5.80521,-7.22539,0.161784,38,8
0.33314,-0.414787,-0.122823,15,1
6.10697,-7.60641,0.511218,43,9
0.384713,-0.479171,-0.119446,15,2
7.35904,-9.16917,1.02861,10,10
4.63809,-5.78101,-1.17388,46,3
6.24341,-7.78469,1.22527,14,11
9.02844,-11.2613,-1.77222,22,4
5.26757,-6.57265,1.33407,46,12
4.903,-6.11776,-0.685916,31,5
4.89911,-6.11728,-0.410733,25,6
4.70477,-5.87671,1.73797,52,14
5.5102,-6.88523,-0.15393,8,7
0.301245,-0.377498,-0.12941,15,0
5.76998,-7.2331,0.161505,55,8
0.33169,-0.415947,-0.122823,15,1
0.387933,-0.486652,-0.120973,15,2
7.17675,-9.00626,1.00752,36,10
4.62035,-5.80026,-1.17451,37,3
6.23228,-7.82663,1.22844,31,11
4.67442,-5.87234,-0.921576,31,4
5.23107,-6.574,1.33063,7,12
4.89295,-6.15128,-0.687659,21,5
5.01572,-6.30563,1.56616,46,13
4.86778,-6.12184,-0.409895,21,6
4.71454,-5.93123,1.74922,38,14
4.76709,-5.99949,-0.133755,7,7
6.15074,-7.74363,2.64979,19,15
5.77325,-7.28926,0.162307,35,8
0.330236,-0.417103,-0.122823,15,1
0.395892,-0.500387,-0.124026,14,2
7.21043,-9.11689,1.01693,17,10
4.63336,-5.86054,-1.18327,36,3
6.232,-7.88259,1.23381,8,11
4.65266,-5.88706,-0.921332,60,4
5.19094,-6.57052,1.32625,6,12
4.85046,-6.14174,-0.684695,10,5
5.36605,-6.79703,1.68332,22,13
4.81067,-6.09574,-0.406964,36,6
4.74708,-6.01732,1.76946,39,14
5.07061,-6.42743,-0.1429,72,7
6.14759,-7.79538,2.66014,7,15
5.82929,-7.4157,0.164646,11,8
0.30944,-0.393794,-0.115625,16,1
6.12311,-7.79507,0.519487,11,9
0.382015,-0.486327,-0.12021,15,2
6.9903,-8.90226,0.990264,42,10
4.60068,-5.86114,-1.18014,48,3
6.31581,-8.04906,1.25623,8,11
4.63595,-5.91032,-0.922307,18,4
5.16926,-6.59261,1.32688,9,12
4.86479,-6.20652,-0.689925,13,5
5.34834,-6.82345,1.68523,41,13
4.79183,-6.11564,-0.407174,18,6
4.65876,-5.94794,1.74427,16,14
6.59047,-8.41723,-0.186601,100,7
6.0785,-7.76614,2.64254,4,15
5.83536,-7.47699,0.165554,30,8
0.327243,-0.419455,-0.122823,15,1
7.58574,-9.72679,0.646454,14,9
0.38023,-0.487724,-0.12021,15,2
6.7188,-8.62137,0.956273,25,10
4.57552,-5.87329,-1.1792,32,3
14.2162,-18.2484,2.84029,44,11
4.64335,-5.96249,-0.927913,42,4
10.375,-13.3272,2.67503,10,12
4.82107,-6.19516,-0.686787,6,5
6.19243,-7.96026,1.96037,36,13
4.79145,-6.16154,-0.409058,3,6
7.072,-9.09748,2.66027,36,14
4.50903,-5.80046,-0.12824,56,7
6.05254,-7.78884,2.64306,11,15
5.8018,-7.49042,0.165379,52,8
6.65519,-8.59839,0.569834,25,9
0.380929,-0.492153,-0.120973,15,2
6.75938,-8.73616,0.966383,38,10
4.56466,-5.90172,-1.18171,33,3
6.11598,-7.91031,1.22771,23,11
4.67245,-6.04544,-0.93815,15,4
4.58137,-5.92974,-0.655585,36,5
6.19341,-8.01912,1.96953,34,13
7.03769,-9.11557,-0.603538,16,6
7.04496,-9.12828,2.66207,32,14
4.62699,-5.99744,-0.132219,59,7
6.33069,-8.20871,2.77765,12,15
5.75245,-7.48051,0.164716,50,8
0.30048,-0.390886,-0.113825,16,1
6.7018,-8.72134,0.576428,33,9
0.379208,-0.49348,-0.120973,15,2
6.72885,-8.75971,0.966383,25,10
4.55245,-5.92859,-1.1839,42,3
6.10284,-7.9505,1.23064,31,11
8.01805,-10.4493,-1.61721,6,4
6.26017,-8.16136,1.62911,47,12
4.53881,-5.91724,-0.652448,13,5
6.21078,-8.09989,1.98403,33,13
4.76776,-6.2202,-0.410733,36,6
6.98461,-9.11569,2.65127,36,14
4.50024,-5.87544,-0.129183,57,7
6.32079,-8.2553,2.78593,6,15
8.01489,-10.4982,0.230546,20,8
0.322759,-0.422915,-0.122823,15,1
6.73431,-8.82726,0.581871,11,9
0.38701,-0.507288,-0.124026,14,2
6.64145,-8.70868,0.95819,10,10
5.31856,-6.97655,-1.38945,8,3
13.689,-17.9629,2.77302,42,11
4.69509,-6.16318,-0.951312,28,4
6.17898,-8.11401,1.61534,42,12
4.89121,-6.42528,-0.706484,10,5
5.37621,-7.0624,1.7253,10,13
5.33874,-7.01825,2.03581,19,14
4.63827,-6.09963,-0.133755,22,7
6.32584,-8.32191,2.80094,22,15
4.84973,-6.39855,0.140143,46,8
0.32128,-0.424039,-0.122823,15,1
4.72944,-6.24437,0.410523,20,9
0.382778,-0.505572,-0.123263,15,2
6.69485,-8.84576,0.970566,19,10
3.82103,-5.05048,-1.00306,11,3
7.71079,-10.1918,1.56919,97,11
4.62804,-6.11937,-0.94205,30,4
6.00647,-7.94487,1.57749,28,12
4.96365,-6.56788,-0.720255,26,5
7.00961,-9.2852,2.68592,42,14
6.38565,-8.45868,-0.184996,63,7
4.85148,-6.44984,0.140876,65,8
0.303328,-0.403408,-0.116525,16,1
4.73762,-6.30075,0.41314,6,9
0.381011,-0.506906,-0.123263,15,2
6.94758,-9.24659,1.01188,23,10
3.77491,-5.02588,-0.995549,1,3
7.59234,-10.112,1.55262,39,11
4.55302,-6.06405,-0.931082,58,4
4.90083,-6.52967,1.29309,70,12
4.90841,-6.54214,-0.715549,32,5
5.91098,-7.88128,1.91496,43,13
4.9277,-6.57263,-0.430516,21,6
6.62692,-8.83907,2.55049,18,14
4.50323,-6.00865,-0.131068,36,7
6.17376,-8.24064,2.75901,20,15
5.09335,-6.81835,0.148555,30,8
0.318312,-0.426272,-0.122823,15,1
6.67771,-8.94254,0.584907,3,9
0.358189,-0.479847,-0.116393,16,2
6.96692,-9.33664,1.0192,42,10
3.7783,-5.06529,-1.00087,17,3
7.53859,-10.1101,1.54847,7,11
4.8579,-6.51737,1.28746,111,12
3.66531,-4.91919,-0.536705,7,5
5.80389,-7.7922,1.88863,32,13
4.90946,-6.59374,-0.43083,18,6
6.58942,-8.85006,2.54735,28,14
4.49044,-6.03317,-0.131277,36,7
6.13026,-8.23937,2.75176,37,15
4.91225,-6.6216,0.143913,48,8
0.316897,-0.427325,-0.122823,15,1
0.36361,-0.490495,-0.118683,15,2
6.84458,-9.23643,1.00578,23,10
3.84849,-5.19525,-1.02402,13,3
7.77437,-10.4988,1.60404,39,11
4.59776,-6.20898,-0.948631,43,4
4.84331,-6.54297,1.28933,69,12
3.63476,-4.91209,-0.534613,13,5
5.2398,-7.08377,1.7127,6,13
7.4109,-10.0226,-0.653257,26,6
5.32149,-7.19683,2.0664,9,14
4.49062,-6.07537,-0.13187,14,7
6.03976,-8.1742,2.72329,30,15
5.01125,-6.80207,0.147473,66,8
0.315478,-0.428374,-0.122823,15,1
6.57917,-8.93356,0.581453,16,9
0.359654,-0.488537,-0.11792,16,2
6.94264,-9.43399,1.02478,42,10
4.27137,-5.80627,-1.14166,33,3
7.7007,-10.4717,1.596,36,11
4.62183,-6.28496,-0.957893,45,4
4.90466,-6.672,1.31155,87,12
3.59249,-4.8888,-0.530778,10,5
4.91408,-6.69216,-0.435121,43,6
4.95441,-6.74955,-0.146146,89,7
5.99319,-8.1677,2.71449,30,15
0.313756,-0.429637,-0.122823,15,1
6.63237,-9.08525,0.589512,21,9
0.385472,-0.528033,-0.127079,14,2
6.87183,-9.41672,1.0199,44,10
6.93227,-9.50652,1.44464,3,11
3.57113,-4.89904,-0.744378,7,4
4.82781,-6.62544,1.29841,42,12
4.7508,-6.52214,1.56845,36,13
4.8672,-6.68439,-0.433342,39,6
4.95903,-6.81551,-0.147124,89,7
5.88279,-8.08806,2.67981,11,15
7.35028,-10.1354,0.218539,33,8
0.312254,-0.430729,-0.122823,15,1
4.93054,-6.80377,0.440355,20,9
0.365194,-0.50394,-0.120973,15,2
6.77697,-9.35513,1.01066,23,10
4.18597,-5.78057,-1.1304,28,3
7.80348,-10.7801,1.63402,22,11
8.80705,-12.1709,-1.84461,8,4
4.82549,-6.67106,1.30404,27,12
4.65102,-6.42986,-0.694283,11,5
4.82511,-6.67544,-0.431667,43,6
4.95629,-6.86196,-0.147752,40,7
5.85,-8.10228,2.67774,11,15
4.61136,-6.40559,0.137769,44,8
0.310749,-0.431817,-0.122823,15,1
4.93945,-6.86385,0.443181,56,9
0.372604,-0.517961,-0.124026,14,2
6.87222,-9.55667,1.02983,21,10
4.11503,-5.72457,-1.11663,41,3
7.20167,-10.0222,1.51532,66,11
3.51947,-4.89967,-0.740722,6,4
5.85897,-8.15663,1.59063,50,12
4.63552,-6.45577,-0.695328,10,5
5.72975,-7.98261,1.91,10,13
5.00438,-6.9746,-0.44988,39,6
7.02713,-9.79731,2.78354,17,14
4.81696,-6.71587,-0.144262,40,7
5.81747,-8.11378,2.67515,23,15
4.75872,-6.65673,0.14283,43,8
0.309315,-0.432845,-0.122823,15,1
13.9685,-19.5543,1.25941,24,9
0.352539,-0.493695,-0.11792,16,2
7.19998,-10.0865,1.08422,9,10
3.90896,-5.47611,-1.06563,37,3
3.53894,-4.96141,-0.748278,1,4
5.48871,-7.69773,1.49739,10,12
3.41491,-4.79106,-0.514742,40,5
5.7135,-8.01595,1.91343,48,13
4.91632,-6.90007,-0.444018,39,6
5.06952,-7.12034,-0.152569,66,7
9.94612,-13.9749,4.59611,12,15
4.66139,-6.56893,0.140597,36,8
0.307803,-0.433922,-0.122823,15,1
6.47413,-9.13022,0.586581,21,9
0.359985,-0.507673,-0.120973,15,2
6.50284,-9.1741,0.983814,17,10
3.72765,-5.26085,-1.0212,17,3
7.55323,-10.6639,1.60453,18,11
6.04178,-8.53311,-1.28377,5,4
3.40852,-4.81759,-0.516311,26,5
5.64353,-7.97655,1.89931,49,13
5.09749,-7.20744,-0.46265,68,6
6.71053,-9.49166,2.68367,34,14
4.92461,-6.96816,-0.148939,65,7
9.91065,-14.0284,4.60232,16,15
6.63867,-9.42488,0.201226,13,8
0.306286,-0.434993,-0.122823,15,1
7.25727,-10.3107,0.660794,10,9
0.355863,-0.505778,-0.12021,15,2
6.42332,-9.13269,0.976842,36,10
3.89126,-5.53465,-1.07158,25,3
5.62184,-7.9961,1.20017,27,11
3.46541,-4.93078,-0.739991,21,4
5.49729,-7.82476,1.5146,28,12
4.31346,-6.14199,-0.656631,47,5
5.61313,-7.99557,1.89893,38,13
4.71193,-6.71436,-0.429888,36,6
6.68912,-9.53534,2.68906,38,14
4.99442,-7.11954,-0.151801,41,7
4.67071,-6.66056,2.17977,4,15
4.81016,-6.88239,0.146565,6,8
0.30469,-0.436113,-0.122823,15,1
12.6823,-18.1594,1.16081,37,9
0.363088,-0.519894,-0.123263,15,2
6.46668,-9.26287,0.988346,36,10
3.8787,-5.55792,-1.07345,20,3
5.53343,-7.93199,1.18749,44,11
3.42574,-4.91251,-0.73536,43,4
5.71371,-8.19651,1.58249,44,12
4.27839,-6.13978,-0.654714,43,5
5.59529,-8.02961,1.90237,38,13
4.67134,-6.70619,-0.428317,39,6
6.68698,-9.60341,2.70166,25,14
5.05969,-7.2691,-0.154593,67,7
4.81574,-6.94186,0.147473,38,8
0.303165,-0.437174,-0.122823,15,1
6.25708,-9.02627,0.575591,9,9
0.341052,-0.492175,-0.116393,16,2
6.31016,-9.10963,0.96952,14,10
3.93365,-5.68091,-1.09442,36,3
5.5577,-8.02633,1.19871,33,11
3.39162,-4.89995,-0.731704,33,4
5.60976,-8.10756,1.56153,41,12
5.63281,-8.14696,1.92526,13,13
4.65922,-6.74134,-0.429469,39,6
6.67278,-9.65832,2.71021,48,14
4.99905,-7.23572,-0.153511,24,7
4.61415,-6.6811,2.17563,51,15
4.7177,-6.85404,0.145239,21,8
0.301561,-0.438282,-0.122823,15,1
6.08248,-8.84345,0.562507,13,9
0.34712,-0.504685,-0.119065,15,2
6.6813,-9.71772,1.03175,29,10
3.95183,-5.74995,-1.10505,11,3
5.49115,-7.99265,1.19066,35,11
3.36914,-4.9058,-0.730729,52,4
5.30944,-7.73396,1.48581,57,12
3.6186,-5.27101,-0.559366,12,5
5.57879,-8.12934,1.91649,48,13
4.61646,-6.72956,-0.427689,50,6
6.63572,-9.67673,2.70886,44,14
4.84473,-7.06761,-0.149567,90,7
4.51756,-6.59279,2.14147,23,15
4.66555,-6.82919,0.144366,27,8
0.300029,-0.439332,-0.122823,15,1
0.345356,-0.505894,-0.119065,15,2
6.59118,-9.65869,1.02303,40,10
3.77367,-5.53199,-1.06063,15,3
5.48223,-8.03966,1.19481,22,11
3.36318,-4.93394,-0.733166,60,4
5.33803,-7.83407,1.50146,42,12
3.59682,-5.27867,-0.558843,13,5
5.32712,-7.82099,1.8394,26,13
4.61767,-6.78195,-0.429992,14,6
6.57888,-9.666,2.69941,40,14
4.84253,-7.11755,-0.150265,66,7
4.45866,-6.5558,2.12439,22,15
4.72697,-6.97122,0.147019,52,8
0.298494,-0.440377,-0.122823,15,1
5.98922,-8.8394,0.559576,36,9
0.347993,-0.513598,-0.120591,15,2
6.61888,-9.77237,1.03262,42,10
3.74437,-5.53041,-1.05781,27,3
7.41125,-10.9505,1.62354,39,11
3.35706,-4.96209,-0.735603,50,4
5.26418,-7.78393,1.48832,24,12
3.43327,-5.07664,-0.536182,17,5
5.35917,-7.92737,1.86001,26,13
6.67512,-9.87766,-0.624787,20,6
6.57346,-9.73089,2.71111,25,14
4.8792,-7.22555,-0.152185,8,7
4.50925,-6.68021,2.15959,27,15
4.59766,-6.83173,0.143738,28,8
0.296955,-0.441416,-0.122823,15,1
6.04527,-8.98952,0.56774,34,9
0.346198,-0.514809,-0.120591,15,2
6.62585,-9.8566,1.03907,31,10
3.72724,-5.54672,-1.05844,10,3
5.6573,-8.42213,1.24575,11,11
3.36738,-5.01498,-0.741697,26,4
5.3889,-8.0286,1.53149,27,12
3.4122,-5.08363,-0.535659,40,5
5.32709,-7.93951,1.85848,13,13
4.48677,-6.68962,-0.422142,58,6
6.45589,-9.62914,2.67647,44,14
5.67445,-8.4668,-0.17791,71,7
9.23954,-13.7915,4.44806,16,15
0.295412,-0.44245,-0.122823,15,1
4.66672,-6.99216,0.440564,39,9
0.34004,-0.509483,-0.119065,15,2
6.45098,-9.66918,1.01693,23,10
2.91762,-4.37479,-0.832857,6,3
5.67963,-8.51946,1.2572,28,11
3.44013,-5.16216,-0.761683,26,4
5.22066,-7.83693,1.49145,58,12
3.39796,-5.10274,-0.536356,56,5
5.27105,-7.91557,1.84856,24,13
4.35936,-6.54896,-0.412303,39,6
6.47406,-9.7295,2.69806,31,14
4.70571,-7.07462,-0.148311,65,7
9.21167,-13.8542,4.4579,30,15
4.55759,-6.87533,0.143982,38,8
0.293866,-0.443478,-0.122823,15,1
5.99339,-9.04816,0.568787,33,9
0.33817,-0.510726,-0.119065,15,2
2.90484,-4.3904,-0.833796,5,3
5.70243,-8.6187,1.2689,33,11
3.48122,-5.26354,-0.774845,20,4
5.07561,-7.67714,1.45766,61,12
3.37024,-5.09961,-0.534788,48,5
6.64665,-10.0611,2.3439,35,13
4.34523,-6.57989,-0.413245,39,6
6.44587,-9.76454,2.70121,48,14
4.87268,-7.38139,-0.154384,41,7
6.16487,-9.34242,2.9992,21,15
4.43017,-6.7366,0.140736,70,8
0.292239,-0.444553,-0.122823,15,1
5.95141,-9.05671,0.56795,26,9
0.319135,-0.485651,-0.112959,16,2
6.31818,-9.61851,1.00682,23,10
3.68641,-5.61416,-1.06375,10,3
4.99871,-7.61561,1.11852,15,11
3.4826,-5.3078,-0.779476,29,4
5.02361,-7.65936,1.45077,63,12
3.34586,-5.10134,-0.533742,20,5
6.62118,-10.099,2.34733,33,13
4.36056,-6.65349,-0.416908,50,6
6.36476,-9.71526,2.68142,44,14
4.84888,-7.40422,-0.154489,75,7
6.10837,-9.33102,2.98832,22,15
4.7039,-7.20752,0.15023,47,8
0.290685,-0.44557,-0.122823,15,1
5.95904,-9.13766,0.571718,39,9
0.330307,-0.506496,-0.117538,16,2
6.30197,-9.66721,1.00961,57,10
3.63012,-5.57072,-1.05312,6,3
4.94718,-7.59475,1.11291,27,11
3.38173,-5.1935,-0.760952,20,4
5.09059,-7.82088,1.47799,56,12
3.32912,-5.11466,-0.533916,47,5
6.61158,-10.1615,2.35649,38,13
4.55292,-7.00018,-0.437633,47,6
6.40197,-9.84688,2.71156,25,14
4.91018,-7.55523,-0.157281,8,7
5.91263,-9.10118,2.90809,24,15
4.36347,-6.73716,0.140108,25,8
0.289128,-0.446582,-0.122823,15,1
5.92928,-9.16176,0.571927,35,9
0.315737,-0.487868,-0.112959,16,2
6.37425,-9.85309,1.02669,44,10
3.53235,-5.46227,-1.03028,5,3
4.96267,-7.67699,1.12242,18,11
3.40128,-5.26363,-0.769483,18,4
5.13614,-7.95143,1.49927,54,12
3.33089,-5.15863,-0.537228,41,5
6.7028,-10.3808,2.4019,24,13
4.46564,-6.9187,-0.431562,18,6
6.38764,-9.90028,2.72011,55,14
4.86535,-7.54376,-0.156688,92,7
5.92375,-9.18833,2.92931,22,15
6.18661,-9.62555,0.199725,41,8
0.287567,-0.447589,-0.122823,15,1
6.48116,-10.0916,0.628555,43,9
0.341523,-0.531976,-0.122881,15,2
6.28213,-9.78919,1.01763,38,10
3.40138,-5.30227,-0.997739,6,3
4.93691,-7.69594,1.12266,26,11
3.32717,-5.18857,-0.756809,45,4
4.8685,-7.59513,1.42887,77,12
3.34403,-5.21888,-0.542283,11,5
6.49634,-10.1424,2.34123,41,13
4.38748,-6.8526,-0.426433,29,6
6.21894,-9.71682,2.66342,36,14
4.15879,-6.49792,-0.134663,30,7
5.90517,-9.23011,2.93604,16,15
6.14376,-9.63635,0.199481,18,8
0.285925,-0.448639,-0.122823,15,1
5.86088,-9.19619,0.571509,38,9
0.329115,-0.516607,-0.119065,15,2
6.17943,-9.7035,1.00647,23,10
2.78987,-4.3826,-0.822845,6,3
4.90334,-7.70561,1.12144,34,11
3.28789,-5.16891,-0.752178,31,4
4.88013,-7.67208,1.44014,49,12
3.35038,-5.26919,-0.546292,5,5
4.35496,-6.85439,-0.425596,43,6
6.17036,-9.71544,2.65712,46,14
5.36469,-8.44688,-0.174664,62,7
5.83357,-9.18869,2.91637,6,15
4.56645,-7.21505,0.149044,35,8
0.284436,-0.449585,-0.122823,15,1
5.81273,-9.19127,0.569939,53,9
0.323114,-0.511115,-0.117538,16,2
5.14823,-8.14685,0.843145,38,10
2.7616,-4.37011,-0.818778,8,3
4.81416,-7.62113,1.10682,30,11
3.28557,-5.20328,-0.75559,36,4
4.74999,-7.52536,1.40947,57,12
6.41516,-10.1674,-1.0518,26,5
9.11535,-14.447,3.32046,27,13
4.38122,-6.9465,-0.430411,21,6
6.15474,-9.76222,2.66432,36,14
4.40333,-6.98695,-0.144157,8,7
9.22838,-14.6487,4.63907,5,15
4.48062,-7.13442,0.147054,51,8
0.282865,-0.450575,-0.122823,15,1
5.76999,-9.19459,0.568892,23,9
0.338114,-0.53879,-0.123644,14,2
6.31652,-10.0694,1.03994,17,10
2.75053,-4.38642,-0.82003,5,3
4.75484,-7.58574,1.09926,42,11
3.26528,-5.21135,-0.755103,38,4
6.36448,-10.1616,-1.04901,47,5
9.07737,-14.4987,3.32504,15,13
4.21814,-6.73996,-0.416699,39,6
6.18781,-9.89103,2.69356,34,14
4.38209,-7.00737,-0.144262,32,7
8.96317,-14.3385,4.53089,6,15
4.36473,-7.00406,0.144052,50,8
0.28129,-0.45156,-0.122823,15,1
4.26724,-6.85294,0.423084,26,9
0.327929,-0.526635,-0.120591,15,2
6.27923,-10.088,1.03959,25,10
3.19542,-5.13565,-0.958005,6,3
4.81535,-7.74221,1.11949,27,11
3.23973,-5.21092,-0.753396,35,4
3.23495,-5.20526,-0.536182,18,5
10.0492,-16.1762,3.70169,11,13
4.19459,-6.75464,-0.416699,47,6
6.16146,-9.92581,2.69716,46,14
4.05712,-6.53836,-0.134314,37,7
8.94972,-14.4288,4.54952,8,15
0.279712,-0.452539,-0.122823,15,1
