x, y, z, intensity, ring
7.74003,-3.81024,-0.754769,15,5
20.1152,-9.90661,4.35846,16,13
6.34404,-3.12578,-0.370643,35,6
20.0452,-9.88084,5.15948,26,14
6.42422,-3.16807,-0.125029,6,7
31.2972,-15.4409,9.35113,16,15
7.00345,-3.46741,0.136408,15,8
0.497686,-0.246512,-0.128222,14,1
7.09035,-3.51351,0.41471,33,9
0.594582,-0.294636,-0.128987,27,2
6.91179,-3.42653,0.674934,16,10
7.19196,-3.56699,-1.2715,10,3
11.9159,-5.9125,1.63329,41,11
3.9651,-1.96829,-0.543537,2,4
17.494,-8.6879,3.09365,9,12
4.19882,-2.08522,-0.410155,20,5
20.0541,-9.96366,4.35274,9,13
7.01093,-3.48483,-0.410314,29,6
19.9774,-9.93426,5.15093,57,14
9.83094,-4.89082,-0.191662,37,7
31.4281,-15.6421,9.40652,8,15
7.00025,-3.4963,0.136583,38,8
0.475903,-0.237795,-0.122823,15,1
7.56754,-3.78293,0.44339,131,9
0.575989,-0.287931,-0.125171,29,2
8.91163,-4.45678,0.871732,14,10
6.73428,-3.36934,-1.19266,30,3
11.9538,-5.98338,1.64134,22,11
3.95643,-1.98123,-0.543294,29,4
17.4512,-8.74272,3.09146,7,12
8.49629,-4.25833,-0.831466,14,5
19.9929,-10.0204,4.34701,30,13
6.9898,-3.50481,-0.409791,21,6
19.9635,-10.0144,5.15633,57,14
6.86842,-3.44695,-0.134139,37,7
19.6386,-9.85999,5.88813,11,15
6.96479,-3.50902,0.136129,15,8
0.47507,-0.239455,-0.122823,15,1
7.49365,-3.77875,0.439831,46,9
0.595964,-0.300652,-0.12975,27,2
8.73338,-4.40772,0.855869,30,10
6.23167,-3.14648,-1.10568,30,3
19.8856,-10.0406,2.73524,20,11
3.96189,-2.00129,-0.545,41,4
17.3289,-8.75725,3.07519,12,12
4.08599,-2.06577,-0.400568,6,5
7.0072,-3.54573,-0.41157,3,6
6.59586,-3.33904,-0.129043,35,7
32.1523,-16.2836,9.65706,8,15
7.42069,-3.77287,0.145309,40,8
0.491559,-0.25003,-0.127322,15,1
7.78948,-3.9638,0.458044,78,9
0.580913,-0.295607,-0.126697,28,2
7.86212,-4.0025,0.771851,5,10
6.73464,-3.42999,-1.19704,10,3
11.847,-6.03633,1.63256,3,11
3.91208,-1.99417,-0.53915,82,4
22.6499,-11.5506,4.02694,13,12
3.99711,-2.03839,-0.392549,23,5
22.2098,-11.3311,4.84655,15,13
6.62654,-3.38222,-0.389903,7,6
37.1168,-18.9528,9.62161,15,14
6.59248,-3.36774,-0.129218,71,7
19.6828,-10.0592,5.92282,24,15
8.01601,-4.11083,0.157246,25,8
0.473345,-0.242848,-0.122823,15,1
7.80403,-4.00556,0.459719,45,9
0.579878,-0.297633,-0.126697,28,2
6.90697,-3.54665,0.679292,1,10
3.96575,-2.03724,-0.706145,36,3
7.12232,-3.66038,0.983242,38,11
3.90686,-2.00872,-0.539394,84,4
17.0445,-8.76718,3.03577,10,12
3.9191,-2.01587,-0.385577,36,5
36.6052,-18.8367,8.00215,8,13
6.74433,-3.47207,-0.397544,7,6
19.8835,-10.2407,5.16353,5,14
6.63224,-3.41729,-0.13023,78,7
19.6115,-10.1092,5.91194,11,15
8.06911,-4.1737,0.158573,60,8
0.46211,-0.239126,-0.120124,15,1
8.53926,-4.41877,0.503891,48,9
0.571862,-0.296045,-0.125171,29,2
7.43769,-3.85204,0.732805,3,10
3.91477,-2.02836,-0.698324,52,3
7.03196,-3.64502,0.972517,42,11
3.8963,-2.02051,-0.538906,70,4
6.79524,-3.52382,1.21237,15,12
3.88374,-2.01486,-0.382788,36,5
14.6164,-7.58612,3.20101,4,13
10.6176,-5.51305,-0.626985,19,6
41.2188,-21.4114,10.7234,18,14
6.59603,-3.42636,-0.129741,35,7
19.6035,-10.1876,5.91971,24,15
8.06586,-4.20598,0.158782,55,8
0.471681,-0.246065,-0.122823,15,1
0.591708,-0.308943,-0.12975,27,2
7.46658,-3.90012,0.736989,84,10
3.93428,-2.05505,-0.703017,25,3
6.95122,-3.63246,0.963012,45,11
3.88606,-2.03158,-0.538419,64,4
6.75139,-3.53104,1.20674,24,12
3.86786,-2.02379,-0.381916,32,5
14.1215,-7.3888,3.09797,9,13
6.50997,-3.40767,-0.385088,31,6
36.8697,-19.3078,9.60856,15,14
6.64425,-3.48092,-0.130928,79,7
19.7852,-10.3698,5.98545,14,15
0.470819,-0.24771,-0.122823,15,1
0.590681,-0.310904,-0.12975,27,2
7.45537,-3.92578,0.737163,16,10
3.89213,-2.05035,-0.696759,10,3
6.88054,-3.62616,0.954968,33,11
3.85963,-2.03495,-0.535738,53,4
6.57129,-3.46612,1.1767,68,12
3.85372,-2.03356,-0.381219,32,5
6.50333,-3.43317,-0.385402,42,6
30.9501,-16.3458,8.08069,11,14
6.4747,-3.42095,-0.127821,70,7
31.262,-16.5245,9.47485,33,15
6.85797,-3.63724,0.1355,37,8
0.469951,-0.249352,-0.122823,15,1
7.87331,-4.17927,0.467151,14,9
0.579134,-0.307542,-0.12746,28,2
9.028,-4.79623,0.894392,8,10
3.87761,-2.0609,-0.695508,33,3
6.90991,-3.67252,0.960818,51,11
3.84725,-2.04562,-0.535006,48,4
6.53997,-3.47883,1.17326,72,12
3.83253,-2.03951,-0.379825,46,5
13.8585,-7.37803,3.0518,19,13
6.42724,-3.42318,-0.381634,31,6
31.0671,-16.5535,8.12703,35,14
6.43095,-3.4266,-0.127193,89,7
19.356,-10.3178,5.87726,2,15
6.70002,-3.58499,0.132638,22,8
0.444981,-0.238197,-0.116525,16,1
7.8192,-4.18735,0.464848,41,9
0.560749,-0.300293,-0.123644,29,2
6.53844,-3.50294,0.648962,22,10
3.84428,-2.06042,-0.690815,30,3
6.86142,-3.67906,0.955943,27,11
3.85022,-2.06534,-0.536469,16,4
6.52544,-3.50184,1.17295,113,12
3.8303,-2.05637,-0.380348,26,5
13.7964,-7.40686,3.04379,19,13
6.56305,-3.52498,-0.390426,42,6
18.7919,-10.0973,4.92508,4,14
6.3796,-3.42932,-0.126425,13,7
20.0582,-10.7867,6.10244,6,15
6.68218,-3.60551,0.132534,17,8
0.468155,-0.252708,-0.122823,15,1
7.75533,-4.18805,0.461917,105,9
0.580373,-0.313545,-0.128224,28,2
6.62546,-3.58088,0.658897,13,10
4.17033,-2.25489,-0.750886,10,3
37.8119,-20.4448,5.27792,18,11
6.49927,-3.51708,1.17044,77,12
3.81083,-2.06309,-0.379128,31,5
13.8175,-7.48355,3.05447,12,13
6.55887,-3.55377,-0.39095,49,6
37.3125,-20.2253,9.79842,15,14
7.57185,-4.10433,-0.150335,90,7
36.0466,-19.5473,10.9874,11,15
6.65487,-3.62233,0.132254,35,8
0.467226,-0.254422,-0.122823,15,1
6.95594,-3.78935,0.415129,20,9
0.582723,-0.317447,-0.128987,27,2
4.16764,-2.27227,-0.751824,36,3
6.53691,-3.56552,0.914264,6,11
4.26575,-2.3277,-0.596672,29,4
6.53662,-3.56832,1.17952,79,12
3.798,-2.07418,-0.378605,17,5
6.62705,-3.62069,-0.395765,36,6
35.9096,-19.6274,9.44794,14,14
6.76546,-3.69938,-0.134593,7,7
35.934,-19.657,10.975,11,15
8.21289,-4.50761,0.163529,81,8
0.466335,-0.256052,-0.122823,15,1
6.83414,-3.75399,0.408639,32,9
0.584996,-0.321472,-0.12975,27,2
6.4984,-3.57253,0.648787,69,10
4.17486,-2.2961,-0.75464,57,3
6.5279,-3.59023,0.914751,65,11
4.18977,-2.30525,-0.587167,12,4
6.50855,-3.58255,1.1767,109,12
6.26728,-3.45116,-0.625953,31,5
6.77517,-3.73239,1.50357,18,13
6.10822,-3.36635,-0.365514,30,6
30.8458,-17.0067,8.13198,11,14
7.55804,-4.1671,-0.150649,90,7
35.8821,-19.7916,10.9801,23,15
8.26534,-4.57401,0.16489,13,8
0.451799,-0.250127,-0.119224,16,1
0.570188,-0.3158,-0.126697,28,2
10.4687,-5.80051,1.04709,22,10
4.48857,-2.48806,-0.812834,17,3
6.52748,-3.61973,0.916458,18,11
6.38451,-3.54191,-0.896471,13,4
6.43037,-3.56882,1.16481,117,12
6.2099,-3.44788,-0.62142,13,5
6.70955,-3.72529,1.49174,18,13
6.2786,-3.48745,-0.3764,35,6
36.0324,-20.0224,9.51678,14,14
7.48053,-4.15848,-0.149393,40,7
14.1836,-7.88802,4.34868,13,15
8.50254,-4.74412,0.169952,32,8
0.484955,-0.270699,-0.128222,14,1
10.3041,-5.75403,0.618506,12,9
0.565599,-0.315973,-0.125934,29,2
6.6594,-3.72181,0.667439,46,10
4.71391,-2.6356,-0.855384,40,3
6.46629,-3.61537,0.909633,76,11
6.44141,-3.60293,-0.90622,30,4
6.40926,-3.58642,1.16325,63,12
6.69242,-3.74794,1.49098,34,13
6.08631,-3.40989,-0.365619,37,6
36.0097,-20.1829,9.53028,14,14
6.86939,-3.85019,-0.137455,23,7
19.8481,-11.1291,6.09726,18,15
7.93092,-4.46337,0.158852,41,8
0.497544,-0.280123,-0.131821,14,1
6.9243,-3.90005,0.41649,38,9
0.574756,-0.323726,-0.128224,28,2
6.52139,-3.67461,0.654888,16,10
4.69952,-2.64913,-0.854445,50,3
6.45992,-3.64295,0.910608,36,11
4.02841,-2.27267,-0.567911,8,4
6.42703,-3.62736,1.16888,72,12
6.03646,-3.40693,-0.60643,32,5
6.11263,-3.45273,-0.367922,45,6
19.8095,-11.194,5.25306,16,14
6.79953,-3.84385,-0.136338,53,7
19.8004,-11.198,6.09519,6,15
0.442331,-0.251075,-0.117424,16,1
0.573622,-0.32573,-0.128224,28,2
9.96114,-5.65872,1.00229,21,10
4.67307,-2.65575,-0.851316,10,3
4.00664,-2.27887,-0.565961,35,4
6.45554,-3.67322,1.17639,79,12
6.10765,-3.47527,-0.614797,33,5
6.59102,-3.75183,1.47419,13,13
6.15781,-3.50666,-0.371376,14,6
12.6164,-7.18749,3.35222,33,14
6.74611,-3.84479,-0.135535,83,7
36.6157,-20.8768,11.2938,12,15
0.478663,-0.273911,-0.127322,15,1
0.572482,-0.327731,-0.128224,28,2
6.57857,-3.76758,0.663255,43,10
3.9199,-2.24586,-0.715531,13,3
13.5128,-7.7451,1.91237,24,11
3.98833,-2.28691,-0.564499,52,4
6.37071,-3.65445,1.16325,106,12
6.18819,-3.55118,-0.624209,27,5
6.68176,-3.83443,1.49747,32,13
6.22521,-3.57387,-0.376191,28,6
12.5574,-7.21207,3.34322,24,14
6.62341,-3.80555,-0.133336,44,7
6.09427,-3.51427,0.122795,20,8
0.48108,-0.277528,-0.128222,14,1
6.32261,-3.64889,0.382576,51,9
0.557675,-0.321974,-0.125171,29,2
6.34043,-3.66212,0.640595,100,10
3.90822,-2.25823,-0.714906,53,3
13.5733,-7.84288,1.9248,8,11
3.97001,-2.29486,-0.563036,82,4
6.33398,-3.66282,1.15887,119,12
6.01365,-3.47898,-0.607824,30,5
6.18096,-3.57865,-0.374307,42,6
6.81264,-3.94597,1.8176,31,14
6.51146,-3.77152,-0.131347,58,7
36.3287,-21.0505,11.2503,12,15
0.459846,-0.267529,-0.122823,15,1
8.12341,-4.72794,0.492586,43,9
0.536186,-0.312068,-0.120591,31,2
6.21569,-3.61907,0.629264,63,10
3.87813,-2.25894,-0.710838,46,3
6.52783,-3.80387,0.92767,49,11
3.95129,-2.3034,-0.561574,80,4
6.31539,-3.68303,1.15793,21,12
5.9877,-3.49192,-0.60643,13,5
12.9691,-7.56641,2.91861,28,13
6.2702,-3.65961,-0.380482,28,6
6.79377,-3.96678,1.81625,49,14
6.2075,-3.62592,-0.125483,54,7
36.308,-21.2167,11.2679,12,15
0.41669,-0.244177,-0.12941,15,0
6.08622,-3.56791,0.123144,60,8
0.485805,-0.284906,-0.130022,14,1
8.90789,-5.22623,0.541259,19,9
0.54864,-0.321885,-0.123644,29,2
6.23223,-3.65789,0.632228,73,10
3.8617,-2.26746,-0.709274,28,3
6.51965,-3.82965,0.928401,24,11
3.93295,-2.31114,-0.560112,13,4
6.48811,-3.81417,1.19203,28,12
6.78617,-3.98939,-0.688705,13,5
12.9156,-7.59572,2.91251,27,13
6.21779,-3.65818,-0.378075,28,6
6.66568,-3.92325,1.78566,56,14
6.18619,-3.64249,-0.125308,67,7
36.2437,-21.3492,11.2711,12,15
6.16325,-3.64203,0.124959,60,8
0.457967,-0.270733,-0.122823,15,1
6.57805,-3.8887,0.400475,3,9
0.554273,-0.327796,-0.125171,14,2
6.37203,-3.76991,0.647741,24,10
6.28807,-3.72172,-1.1573,20,3
6.41913,-3.8008,0.91597,31,11
6.35527,-3.76449,-0.906952,31,4
6.574,-3.89405,1.21018,61,12
3.9903,-2.36456,-0.405797,17,5
13.0004,-7.70683,2.9377,27,13
6.25309,-3.70839,-0.381006,7,6
6.64022,-3.93954,1.78251,51,14
6.18612,-3.67013,-0.125553,74,7
36.1461,-21.4535,11.2628,12,15
6.18894,-3.68496,0.125727,44,8
0.477158,-0.284217,-0.128222,14,1
0.583479,-0.347824,-0.13204,26,2
6.29039,-3.75131,0.640769,75,10
6.29775,-3.7557,-1.16137,11,3
6.33489,-3.77935,0.905733,58,11
6.35639,-3.79368,-0.908902,30,4
6.55189,-3.91191,1.20861,74,12
3.98374,-2.3795,-0.405971,13,5
6.64416,-3.96858,1.50434,19,13
7.17344,-4.28642,-0.437947,43,6
6.60203,-3.94654,1.77576,24,14
6.09432,-3.64449,-0.123947,72,7
23.1317,-13.8385,7.2226,23,15
6.20004,-3.72094,0.126216,66,8
0.456114,-0.273844,-0.122823,15,1
6.56786,-3.94481,0.401522,47,9
0.551971,-0.331657,-0.125171,29,2
6.17886,-3.71263,0.630659,88,10
3.87709,-2.33051,-0.71647,6,3
6.36249,-3.82599,0.911583,58,11
3.93106,-2.36482,-0.56328,13,4
6.22508,-3.74632,1.15073,66,12
3.95322,-2.38003,-0.403705,23,5
6.58248,-3.96454,1.49365,6,13
7.16624,-4.31783,-0.438471,47,6
6.59322,-3.97258,1.77711,51,14
6.03703,-3.6389,-0.123039,33,7
35.8747,-21.6325,11.225,25,15
6.04436,-3.65771,0.123319,75,8
0.455107,-0.275514,-0.122823,15,1
6.59265,-3.99265,0.403929,48,9
0.547393,-0.331644,-0.124407,29,2
6.06979,-3.67744,0.620898,73,10
3.8719,-2.34675,-0.717096,32,3
6.36709,-3.86061,0.914264,42,11
6.30871,-3.82671,-0.905977,12,4
6.17753,-3.74862,1.14447,65,12
3.94617,-2.39554,-0.40388,33,5
6.63335,-4.02838,1.50854,13,13
6.64511,-4.03711,-0.407488,39,6
6.53864,-3.97243,1.76632,49,14
6.16891,-3.74928,-0.126006,48,7
22.9495,-13.9535,7.19672,27,15
6.01043,-3.66734,0.1229,82,8
0.474054,-0.289364,-0.128222,14,1
7.04749,-4.3018,0.432714,33,9
0.552934,-0.337645,-0.125934,14,2
6.02226,-3.67889,0.617411,75,10
3.85821,-2.35784,-0.716157,28,3
6.32241,-3.86528,0.909877,24,11
4.02369,-2.4609,-0.579123,14,4
6.188,-3.78459,1.14885,66,12
3.94118,-2.41138,-0.404228,58,5
6.50873,-3.98387,1.48335,30,13
6.82686,-4.18023,-0.419525,39,6
6.53401,-4.00248,1.76902,50,14
6.03812,-3.69872,-0.123598,53,7
22.7327,-13.9306,7.14392,9,15
6.01697,-3.69877,0.123284,66,8
0.426613,-0.262351,-0.115625,16,1
0.568472,-0.349863,-0.12975,27,2
6.00938,-3.69989,0.617411,60,10
3.8386,-2.36337,-0.713967,18,3
6.46337,-3.98096,0.932057,49,11
4.01382,-2.47318,-0.578879,28,4
6.21175,-3.82897,1.15574,14,12
3.95479,-2.43871,-0.406494,48,5
6.52556,-4.02398,1.49022,31,13
5.94604,-3.66805,-0.366142,37,6
6.0473,-3.73343,-0.124052,46,7
12.8681,-7.94748,4.05259,27,15
6.10942,-3.78505,0.125448,67,8
0.419069,-0.259733,-0.113825,16,1
6.17025,-3.82572,0.380482,77,9
0.540553,-0.335288,-0.123644,29,2
6.05634,-3.75655,0.623512,16,10
6.39171,-3.96612,-1.19141,43,3
6.40558,-3.97627,0.92572,56,11
3.98324,-2.47357,-0.575711,22,4
3.9581,-2.45987,-0.407715,32,5
6.36238,-3.95561,1.45625,22,13
5.95291,-3.70248,-0.367398,21,6
12.8213,-7.97433,3.48584,27,14
6.23967,-3.88234,-0.128275,56,7
12.7943,-7.96376,4.03809,12,15
6.30921,-3.9409,0.129846,44,8
0.451167,-0.28192,-0.122823,15,1
6.41869,-4.0124,0.396707,44,9
0.545979,-0.341431,-0.125171,29,2
6.1638,-3.85756,0.892815,26,11
6.42055,-4.0198,-0.930107,27,4
6.10551,-3.82404,1.14103,113,12
6.44106,-4.03577,-0.664998,25,5
6.42103,-4.02478,1.47305,30,13
6.23372,-3.90889,-0.385611,52,6
12.8365,-8.04922,3.49799,13,14
6.32704,-3.96894,-0.130369,78,7
12.7127,-7.97774,4.02153,9,15
6.65514,-4.19097,0.137281,77,8
0.483107,-0.304347,-0.131821,14,1
6.3465,-3.9997,0.393148,55,9
0.551428,-0.347521,-0.126697,28,2
6.30673,-3.97617,0.652274,75,10
3.91973,-2.47221,-0.733991,2,3
6.10933,-3.8547,0.886965,68,11
6.51321,-4.11112,-0.945706,6,4
6.09145,-3.84639,1.14103,23,12
6.45894,-4.07844,-0.66831,16,5
6.27416,-3.96329,1.44252,36,13
6.03769,-3.8154,-0.374307,17,6
12.0525,-7.61929,3.29193,31,14
6.64539,-4.20267,-0.137246,7,7
22.0134,-13.9271,6.97983,17,15
6.76035,-4.29025,0.139759,26,8
0.426105,-0.270519,-0.116525,16,1
6.21448,-3.94687,0.385821,33,9
0.546897,-0.347339,-0.125934,29,2
6.20032,-3.9394,0.642686,58,10
3.90608,-2.4827,-0.733052,13,3
6.15781,-3.91541,0.895983,15,11
3.79042,-2.41105,-0.551581,7,4
9.34113,-5.94408,1.75363,42,12
7.20444,-4.58443,-0.747099,35,5
6.25697,-3.98306,1.44175,35,13
6.03613,-3.84396,-0.375039,21,6
12.1919,-7.76707,3.33737,18,14
6.04552,-3.85291,-0.125134,54,7
12.5315,-7.98958,3.98219,6,15
6.40503,-4.09619,0.132708,27,8
0.428441,-0.274105,-0.117424,16,1
6.11051,-3.90933,0.380168,55,9
0.542374,-0.347129,-0.125171,29,2
6.1815,-3.9578,0.642164,71,10
4.6243,-2.96191,-0.869776,32,3
6.0104,-3.8512,0.876484,16,11
3.79535,-2.43283,-0.553531,40,4
6.96869,-4.46867,-0.724264,13,5
6.24634,-4.007,1.44252,26,13
6.70176,-4.3008,-0.417327,50,6
12.2483,-7.86327,3.36032,29,14
6.07647,-3.90102,-0.126041,34,7
12.5082,-8.03318,3.98323,16,15
8.25404,-5.31732,0.171383,32,8
0.466843,-0.30086,-0.128222,14,1
0.547758,-0.353277,-0.126697,28,2
6.18439,-3.99015,0.643907,71,10
7.51758,-4.85032,-1.41698,6,3
5.99593,-3.87004,0.876241,68,11
3.7856,-2.44433,-0.553287,52,4
6.29544,-4.06647,1.18702,20,12
7.26095,-4.69193,-0.756338,24,5
6.27918,-4.05752,1.4532,32,13
6.00983,-3.88496,-0.375039,49,6
12.9094,-8.3483,3.54928,15,14
6.1115,-3.95371,-0.127054,27,7
17.1607,-11.106,5.47713,10,15
6.43068,-4.17453,0.133825,15,8
0.446178,-0.289751,-0.122823,15,1
0.536706,-0.348674,-0.124407,14,2
6.2346,-4.05189,0.65053,60,10
3.7031,-2.40758,-0.699575,13,3
5.98072,-3.88986,0.875997,59,11
3.76373,-2.44887,-0.551337,48,4
6.33087,-4.12075,1.19641,24,12
6.87554,-4.47698,-0.717815,18,5
6.26663,-4.08049,1.45358,32,13
6.0046,-3.91136,-0.375563,24,6
13.0778,-8.52205,3.60372,26,14
6.8515,-4.46643,-0.142761,88,7
17.1509,-11.1848,5.48645,17,15
5.66635,-3.70654,0.118188,8,8
0.464731,-0.304112,-0.128222,14,1
6.91645,-4.52772,0.433237,58,9
0.532139,-0.348488,-0.123644,14,2
6.22804,-4.08018,0.651402,65,10
5.76111,-3.77571,-1.09097,65,3
5.98702,-3.92377,0.878922,87,11
3.76346,-2.46743,-0.552556,47,4
6.76159,-4.43647,-0.70753,30,5
6.21552,-4.07973,1.44519,32,13
6.00692,-3.94431,-0.37661,14,6
13.1393,-8.63091,3.62936,16,14
6.3846,-4.1939,-0.133336,44,7
13.2532,-8.70903,4.24929,15,15
5.63603,-3.71628,0.117839,45,8
0.424572,-0.28006,-0.117424,16,1
6.89981,-4.55304,0.433237,56,9
0.537474,-0.354668,-0.125171,14,2
6.22873,-4.11177,0.652971,31,10
5.73471,-3.78709,-1.08847,62,3
5.92954,-3.91724,0.872585,95,11
3.74611,-2.47574,-0.551337,31,4
6.05076,-4.00035,1.14885,115,12
6.56913,-4.34472,-0.689053,13,5
6.26511,-4.14364,1.46007,15,13
6.9592,-4.60445,-0.437319,36,6
7.68638,-5.0875,2.12804,15,14
5.83064,-3.86068,-0.122062,71,7
13.3259,-8.82689,4.28294,15,15
5.62969,-3.74036,0.117978,85,8
0.423592,-0.281541,-0.117424,16,1
0.536171,-0.356636,-0.125171,29,2
9.41829,-6.26698,0.989741,17,10
5.74546,-3.82451,-1.09316,35,3
5.91418,-3.93681,0.872341,78,11
6.05155,-4.03131,1.15167,124,12
6.45113,-4.29912,-0.678246,22,5
6.34625,-4.23083,1.48259,15,13
6.14802,-4.10022,-0.387286,17,6
12.4061,-8.27695,3.4431,18,14
5.82211,-3.88434,-0.122167,97,7
13.6951,-9.14039,4.41183,11,15
5.60099,-3.75095,0.117664,66,8
0.441985,-0.296107,-0.122823,15,1
0.536554,-0.359598,-0.125552,29,2
7.49656,-5.02609,0.789631,20,10
6.18158,-4.14603,-1.17889,10,3
5.92279,-3.97395,0.875753,71,11
6.28635,-4.21948,-0.929619,10,4
6.17121,-4.14376,1.17733,55,12
5.93489,-3.98508,-0.62543,15,5
6.37708,-4.2836,1.49327,30,13
6.30608,-4.23751,-0.398172,25,6
7.65624,-5.14672,2.12984,37,14
6.02356,-4.05072,-0.126704,20,7
7.78527,-5.2374,2.51417,4,15
0.480473,-0.324083,-0.155291,12,0
5.59118,-3.77272,0.117734,22,8
0.440949,-0.297648,-0.122823,15,1
5.68733,-3.84049,0.359653,72,9
0.525533,-0.354877,-0.123263,30,2
6.10865,-4.12655,0.644952,3,10
5.65479,-3.82139,-1.08096,36,3
5.97795,-4.04129,0.88599,78,11
6.17621,-4.1769,-0.915483,62,4
6.08309,-4.11546,1.16325,115,12
6.16848,-4.17323,-0.651576,5,5
6.26313,-4.24046,-0.396393,47,6
6.14844,-4.16594,-0.129636,7,7
7.8373,-5.31224,2.53694,21,15
0.399449,-0.271465,-0.12941,15,0
6.09228,-4.14186,0.128589,52,8
0.423794,-0.288226,-0.118324,16,1
5.66398,-3.85357,0.359025,80,9
0.53403,-0.363335,-0.125552,29,2
6.12221,-4.1669,0.647916,37,10
5.65938,-3.85333,-1.0844,60,3
5.95888,-4.05878,0.885259,57,11
6.92277,-4.71708,-1.02858,19,4
6.03441,-4.11331,1.15668,105,12
6.11693,-4.17112,-0.647741,23,5
6.33891,-4.32249,1.49136,14,13
6.07835,-4.14637,-0.385611,70,6
7.47687,-5.10229,2.0898,48,14
6.13717,-4.18963,-0.129706,64,7
7.7198,-5.27201,2.50485,44,15
0.398452,-0.272928,-0.12941,15,0
6.06459,-4.15406,0.12831,30,8
0.41314,-0.283094,-0.115625,16,1
5.8696,-4.02351,0.372946,63,9
0.506789,-0.347525,-0.119446,15,2
6.27777,-4.30653,0.666044,18,10
5.66476,-3.88746,-1.08816,60,3
5.95123,-4.08405,0.886234,38,11
6.33347,-4.34799,-0.943269,10,4
6.00536,-4.12428,1.15386,126,12
7.03016,-4.82989,-0.746227,35,5
6.24213,-4.29009,1.47228,16,13
6.05653,-4.16409,-0.385193,56,6
7.38105,-5.07665,2.0682,64,14
6.23289,-4.28695,-0.132045,36,7
7.68543,-5.28798,2.49967,56,15
6.05755,-4.18194,0.128485,11,8
0.45379,-0.3134,-0.127322,15,1
5.65173,-3.90324,0.359967,39,9
0.524955,-0.362684,-0.124026,29,2
6.41349,-4.43263,0.682081,7,10
5.7129,-3.9499,-1.10005,36,3
7.21946,-4.9934,1.07781,47,11
6.46767,-4.47509,-0.965693,43,4
6.06077,-4.19355,1.16731,45,12
10.1095,-6.99755,-1.07568,14,5
7.81537,-5.41162,1.84779,7,13
6.10271,-4.22729,-0.389066,31,6
7.34406,-5.08906,2.0628,64,14
9.07947,-6.29161,-0.192814,100,7
7.44743,-5.17802,0.158328,43,8
0.43675,-0.303776,-0.122823,15,1
5.87907,-4.09063,0.375354,112,9
0.536577,-0.373486,-0.127079,28,2
6.46174,-4.4994,0.688879,7,10
5.69815,-3.96769,-1.09973,62,3
7.61985,-5.30778,1.14021,31,11
6.45443,-4.49765,-0.965937,26,4
6.19518,-4.31861,1.1961,35,12
10.0769,-7.0271,-1.0748,9,5
6.21478,-4.33549,-0.397125,14,6
7.35431,-5.13235,2.07045,67,14
6.9259,-4.83517,-0.147438,73,7
7.66575,-5.35367,2.50537,14,15
5.61293,-3.93167,0.119619,79,8
0.451647,-0.316481,-0.127322,15,1
5.93344,-4.15927,0.37975,48,9
0.509614,-0.357233,-0.120973,15,2
5.57106,-3.90815,-1.07783,50,3
5.99425,-4.20658,0.899152,31,11
6.06663,-4.25896,-0.91012,11,4
7.80147,-5.4789,1.50991,32,12
7.3884,-5.19073,-0.78998,28,5
7.82494,-5.49742,1.85886,43,13
6.28132,-4.41458,-0.402359,43,6
7.35229,-5.16919,2.07495,67,14
6.05844,-4.26111,-0.129287,14,7
7.63754,-5.37373,2.50226,20,15
5.57466,-3.93395,0.119095,67,8
0.434619,-0.306817,-0.122823,15,1
5.83079,-4.11774,0.374097,47,9
0.521129,-0.368161,-0.124026,29,2
6.02991,-4.26152,0.645998,71,10
5.53896,-3.916,-1.07439,53,3
5.99736,-4.24009,0.901833,24,11
6.03714,-4.26979,-0.907927,5,4
7.20822,-5.09993,1.39852,50,12
10.1528,-7.1859,-1.08823,23,5
7.80794,-5.52833,1.85962,39,13
6.28465,-4.45143,-0.403615,36,6
7.28718,-5.16343,2.0619,53,14
6.83324,-4.84178,-0.146181,97,7
7.53835,-5.34338,2.47586,9,15
5.63517,-4.00767,0.120701,27,8
0.433491,-0.308408,-0.122823,15,1
5.7701,-4.10666,0.371167,106,9
0.529437,-0.376808,-0.126316,14,2
7.79711,-5.55136,0.837392,22,10
5.57835,-3.97313,-1.08472,40,3
7.70357,-5.48882,1.16141,28,11
6.90244,-4.91983,-1.04076,48,4
7.17018,-5.11255,1.39477,84,12
10.1215,-7.2196,-1.0877,23,5
7.72146,-5.50767,1.8436,23,13
6.24631,-4.4571,-0.40215,29,6
7.66881,-5.47415,2.17528,24,14
6.81056,-4.86331,-0.146077,89,7
5.65853,-4.0541,0.121504,60,8
0.400734,-0.287215,-0.113825,16,1
5.68431,-4.07557,0.366561,45,9
0.547197,-0.392477,-0.130895,13,2
6.31655,-4.53222,0.680163,13,10
5.53326,-3.97166,-1.07877,35,3
7.6392,-5.48326,1.15459,47,11
7.07711,-5.08167,-1.06977,55,4
7.78441,-5.59161,1.51804,48,12
10.059,-7.22814,-1.08369,16,5
7.71079,-5.54281,1.84589,4,13
5.48889,-3.94708,-0.354314,30,6
7.24531,-5.21203,2.06055,45,14
7.07763,-5.09141,-0.152185,33,7
7.51404,-5.40734,2.48052,14,15
5.6258,-4.06193,0.12112,50,8
0.409157,-0.295528,-0.116525,16,1
8.26117,-5.96911,0.534141,23,9
0.536275,-0.387486,-0.128605,28,2
5.57059,-4.02799,-1.08878,36,3
7.63514,-5.52286,1.15703,52,11
7.30771,-5.28796,-1.10755,27,4
7.76227,-5.61894,1.51773,79,12
11.5332,-8.35172,-1.2458,15,5
11.3582,-8.22499,2.7259,15,13
5.48479,-3.97324,-0.354943,30,6
7.19393,-5.21328,2.0511,52,14
7.08158,-5.13375,-0.152674,100,7
7.53952,-5.46774,2.49553,19,15
7.72847,-5.62124,0.16681,55,8
0.430184,-0.313006,-0.122823,15,1
5.84393,-4.25366,0.378808,60,9
0.50311,-0.366336,-0.120973,15,2
5.91839,-4.31102,0.640595,18,10
5.62923,-4.10189,-1.10318,18,3
8.03615,-5.85577,1.22089,28,11
9.95689,-7.25803,-1.51289,15,4
7.5415,-5.49936,1.47831,22,12
5.9025,-4.30575,-0.6392,15,5
12.3763,-9.03154,2.97815,26,13
5.68151,-4.14759,-0.368654,42,6
7.42343,-5.4212,2.12219,63,14
8.92884,-6.52058,-0.192989,46,7
12.8475,-9.38576,4.26327,11,15
0.403889,-0.296143,-0.115625,16,1
5.84193,-4.28348,0.379645,78,9
0.517658,-0.379702,-0.124789,14,2
7.61084,-5.58459,0.825888,8,10
5.64035,-4.14022,-1.10818,23,3
7.28341,-5.34824,1.1095,7,11
5.93381,-4.35882,-0.904027,36,4
11.6185,-8.53464,2.28332,11,12
5.85211,-4.30037,-0.635365,10,5
7.1325,-5.24318,1.72072,14,13
5.50288,-4.0467,-0.357978,64,6
7.08737,-5.21381,2.03131,68,14
8.92697,-6.56711,-0.193442,100,7
0.388584,-0.286803,-0.12941,15,0
0.421717,-0.311371,-0.121024,15,1
5.82694,-4.30385,0.379645,65,9
0.525804,-0.388507,-0.127079,14,2
5.94903,-4.39723,0.647219,15,10
9.6853,-7.1589,-1.90756,37,3
7.60083,-5.62021,1.16068,44,11
5.9321,-4.38792,-0.905977,61,4
16.1253,-11.9321,3.17718,19,12
5.83386,-4.31841,-0.635017,13,5
7.0993,-5.25512,1.7169,17,13
5.45251,-4.03759,-0.355571,27,6
7.51632,-5.56788,2.15953,34,14
7.73757,-5.73386,-0.168102,100,7
7.05616,-5.2461,0.153476,60,8
0.426882,-0.317493,-0.122823,15,1
5.72055,-4.25621,0.373679,42,9
0.524513,-0.390248,-0.127079,14,2
6.20293,-4.61679,0.676503,20,10
9.65867,-7.19148,-1.90725,13,3
7.18953,-5.35501,1.10072,30,11
5.90242,-4.39792,-0.903783,15,4
7.21267,-5.37616,1.42481,35,12
10.0448,-7.48713,-1.09607,9,5
7.11081,-5.30217,1.72415,30,13
14.5941,-10.8861,-0.954189,21,6
6.983,-5.21066,2.01151,28,14
11.6882,-8.72801,3.90869,9,15
5.74452,-4.30215,0.125273,17,8
0.413295,-0.309634,-0.119224,16,1
5.82552,-4.36598,0.381529,36,9
0.520005,-0.389722,-0.126316,14,2
5.50102,-4.12578,-1.0891,41,3
7.16762,-5.37769,1.10024,27,11
5.88068,-4.41373,-0.902808,52,4
11.4163,-8.57163,2.2611,28,12
11.2295,-8.43132,-1.22855,2,5
7.08441,-5.32106,1.72224,42,13
13.5629,-10.1907,-0.889083,6,6
6.99592,-5.25842,2.02051,20,14
5.85453,-4.4021,-0.127856,77,7
11.6469,-8.76062,3.90506,13,15
7.02574,-5.30005,0.153616,21,8
0.424655,-0.320466,-0.122823,15,1
5.96806,-4.50542,0.391892,53,9
0.512307,-0.386892,-0.124789,14,2
6.03381,-4.55672,0.661512,46,10
5.4661,-4.12948,-1.08503,46,3
7.18364,-5.42901,1.1056,35,11
5.86365,-4.43304,-0.902564,31,4
7.19702,-5.44306,1.42919,13,12
9.99411,-7.56123,-1.09642,23,5
7.08365,-5.36121,1.72682,102,13
5.94584,-4.5017,-0.390845,14,6
6.97597,-5.28163,2.02006,27,14
5.83912,-4.42251,-0.127856,77,7
6.66578,-5.05044,2.24086,10,15
7.02378,-5.33908,0.154,51,8
0.407966,-0.310225,-0.118324,16,1
5.84023,-4.44262,0.384565,39,9
0.520259,-0.395901,-0.127079,14,2
6.0678,-4.61741,0.66709,39,10
10.1615,-7.73542,-2.0227,26,3
7.17633,-5.46492,1.10755,62,11
5.86158,-4.46532,-0.904758,7,4
7.21001,-5.49455,1.43576,9,12
13.6455,-10.4026,-1.50117,12,5
7.08424,-5.40261,1.73178,66,13
10.1182,-7.7192,-0.666969,35,6
6.94882,-5.30125,2.01781,23,14
5.8658,-4.47663,-0.128799,7,7
7.00734,-5.36721,0.15407,55,8
0.422295,-0.32357,-0.122823,15,1
5.93012,-4.54541,0.391578,49,9
0.490827,-0.376216,-0.12021,15,2
6.11725,-4.69054,0.674411,9,10
7.22563,-5.54242,-1.44233,18,3
7.1531,-5.48877,1.10706,55,11
10.6101,-8.14437,-1.64231,1,4
6.93096,-5.32215,-0.76453,5,5
7.03887,-5.40698,1.7253,70,13
10.3589,-7.96014,-0.684659,35,6
6.81656,-5.23998,1.98497,37,14
5.88898,-4.52858,-0.129671,28,7
6.6393,-5.10741,2.24448,59,15
10.0474,-7.75155,0.221506,46,8
0.421163,-0.325042,-0.122823,15,1
5.96006,-4.60147,0.394613,102,9
0.517482,-0.399523,-0.127079,14,2
6.11503,-4.72282,0.67598,1,10
6.21519,-4.80191,-1.24397,45,3
7.1716,-5.54284,1.11291,30,11
10.5534,-8.1595,-1.63792,29,4
7.12832,-5.51337,1.42731,85,12
5.80598,-4.49061,-0.642164,1,5
5.8881,-4.55741,-0.390217,21,6
6.83829,-5.29477,1.99667,51,14
5.87946,-4.554,-0.129811,78,7
6.59089,-5.10689,2.23413,78,15
6.96497,-5.41232,0.153965,47,8
0.401563,-0.312158,-0.117424,16,1
5.8604,-4.55727,0.389066,72,9
0.491288,-0.382044,-0.120973,15,2
6.06548,-4.71845,0.672319,15,10
6.20462,-4.82843,-1.24522,62,3
7.24932,-5.64344,1.12802,28,11
7.19039,-5.59958,-1.119,22,4
7.09657,-5.52851,1.42481,106,12
5.75884,-4.48636,-0.638677,6,5
15.6248,-12.1767,3.85053,10,13
10.2904,-8.02244,-0.683822,45,6
6.84281,-5.33658,2.00341,50,14
5.85249,-4.56589,-0.129567,14,7
6.67353,-5.20831,2.26829,33,15
6.92871,-5.42304,0.153581,66,8
0.437296,-0.342391,-0.128222,14,1
5.80829,-4.54937,0.386658,77,9
0.496134,-0.388599,-0.122499,15,2
6.72962,-5.2729,0.747971,48,10
6.14264,-4.81472,-1.23615,22,3
7.20302,-5.64789,1.12388,47,11
7.06459,-5.54133,-1.10243,24,4
7.07256,-5.54958,1.42387,53,12
6.82155,-5.35262,-0.758604,26,5
15.5189,-12.1815,3.83488,19,13
7.2432,-5.68756,-0.482642,50,6
6.87931,-5.40377,2.01961,50,14
6.42614,-5.04962,-0.142656,64,7
6.66898,-5.24232,2.27295,30,15
6.92073,-5.45586,0.153826,80,8
0.429977,-0.339088,-0.126422,15,1
5.83628,-4.60426,0.389589,38,9
0.50094,-0.395193,-0.124026,14,2
6.71743,-5.3013,0.748668,73,10
6.19092,-4.88754,-1.24929,21,3
7.15055,-5.64716,1.11876,37,11
5.8723,-4.63933,-0.918895,10,4
7.03455,-5.55954,1.42011,71,12
6.78719,-5.36405,-0.75686,16,5
12.0342,-9.51425,2.98196,8,13
7.2374,-5.72396,-0.483584,29,6
6.8329,-5.40599,2.01151,57,14
6.4712,-5.12166,-0.144052,88,7
11.4747,-9.08493,3.92163,14,15
7.06295,-5.60807,0.157421,21,8
0.416583,-0.330891,-0.122823,15,1
5.96247,-4.73767,0.399114,6,9
0.514928,-0.409152,-0.127842,14,2
6.73787,-5.35571,0.753026,76,10
6.97699,-5.54975,1.09463,30,11
13.733,-10.9277,-2.15489,19,4
7.03365,-5.59882,1.42387,111,12
10.0638,-8.01084,-1.12535,33,5
15.6147,-12.4338,3.87991,19,13
9.0186,-7.184,-0.604271,6,6
6.83837,-5.44924,2.01871,25,14
6.12804,-4.88495,-0.136792,85,7
11.2798,-8.99485,3.86572,13,15
5.87361,-4.69724,0.131277,53,8
0.415426,-0.332343,-0.122823,15,1
0.48284,-0.386413,-0.12021,15,2
6.74402,-5.39912,0.755815,46,10
5.88528,-4.71331,-1.19422,12,3
6.84448,-5.48346,1.07684,52,11
9.05861,-7.25991,-1.42538,11,4
7.34234,-5.88653,1.49051,83,12
10.4088,-8.34502,-1.16719,17,5
15.5666,-12.4846,3.87877,21,13
8.96387,-7.19169,-0.602282,20,6
6.79803,-5.456,2.01241,36,14
5.99088,-4.80991,-0.134104,82,7
10.9455,-8.79101,3.76168,12,15
5.85562,-4.71645,0.131242,66,8
0.414263,-0.333791,-0.122823,15,1
6.60568,-5.3244,0.444646,78,9
0.512059,-0.412737,-0.127842,14,2
6.7422,-5.43638,0.757732,48,10
5.88724,-4.74871,-1.19798,13,3
6.94735,-5.6058,1.09609,27,11
9.37922,-7.57078,-1.47998,40,4
7.24951,-5.8538,1.4758,68,12
10.0743,-8.13472,-1.13285,26,5
7.19026,-5.80803,1.79666,18,13
8.91851,-7.20662,-0.600922,13,6
6.69711,-5.41354,1.98812,81,14
5.97561,-4.83205,-0.134139,82,7
6.66122,-5.38838,2.29573,2,15
0.37512,-0.3042,-0.12941,15,0
5.97578,-4.84773,0.134314,45,8
0.413096,-0.335235,-0.122823,15,1
6.57775,-5.33988,0.444018,17,9
0.477082,-0.3873,-0.119446,15,2
6.82216,-5.54027,0.768888,13,10
7.69974,-6.25518,-1.57123,25,3
6.98474,-5.67634,1.10511,27,11
9.34965,-7.60097,-1.47949,16,4
6.898,-5.60985,1.40822,50,12
10.0892,-8.20805,-1.13791,33,5
7.68317,-6.25063,1.92526,6,13
7.71135,-6.27579,-0.521057,3,6
6.65852,-5.42089,1.98227,26,14
6.04088,-4.91981,-0.135989,83,7
6.61841,-5.39208,2.28744,8,15
5.95727,-4.86729,0.134279,71,8
0.396834,-0.324343,-0.118324,16,1
6.55289,-5.35775,0.4436,39,9
0.481738,-0.394017,-0.120973,15,2
11.5682,-9.46507,1.30768,11,10
7.6844,-6.28961,-1.57279,37,3
14.8115,-12.1231,2.35013,20,11
12.1906,-9.98147,-1.93455,25,4
6.84323,-5.60511,1.40103,82,12
12.3198,-10.0944,-1.39345,19,5
7.62984,-6.25385,1.91763,21,13
5.54768,-4.54882,-0.375982,38,6
6.70189,-5.49716,2.00116,8,14
5.98038,-4.90535,-0.135012,75,7
6.02122,-4.95645,0.136129,55,8
0.434756,-0.358003,-0.130022,14,1
0.495513,-0.408179,-0.124789,14,2
6.78081,-5.58768,0.768714,33,10
14.8252,-12.2253,2.35939,20,11
9.06992,-7.48198,-1.44366,17,4
6.81502,-5.62387,1.39946,28,12
9.92717,-8.19206,-1.12605,9,5
7.60342,-6.2767,1.91649,35,13
5.55179,-4.58469,-0.377342,14,6
6.12268,-5.05972,-0.138642,78,7
7.1931,-5.94642,2.50071,45,15
5.94538,-4.92894,0.134802,26,8
0.409503,-0.339614,-0.122823,15,1
7.61036,-6.31375,0.518231,9,9
0.494085,-0.409906,-0.124789,14,2
13.593,-11.2812,1.54545,16,10
14.1716,-11.7696,2.2619,9,11
11.7005,-9.72087,-1.86777,21,4
6.80902,-5.65899,1.40228,49,12
9.96593,-8.28269,-1.13372,9,5
7.54222,-6.27057,1.90656,43,13
6.46785,-5.37925,-0.440878,39,6
6.63339,-5.51889,1.99217,23,14
6.09883,-5.07594,-0.138502,94,7
7.15894,-5.96037,2.49605,31,15
5.9573,-4.97402,0.135466,9,8
0.390367,-0.326051,-0.117424,16,1
11.8322,-9.88628,0.808067,10,9
0.501691,-0.419181,-0.127079,14,2
9.4444,-7.89394,1.0769,6,10
5.71018,-4.77445,-1.17889,57,3
14.2979,-11.9591,2.28871,14,11
9.01594,-7.54385,-1.44342,37,4
6.82558,-5.71315,1.40979,38,12
9.92168,-8.30464,-1.13198,4,5
8.69211,-7.28063,-0.594222,16,6
7.64025,-6.40185,2.30125,84,14
6.38605,-5.35283,-0.145448,100,7
7.14993,-5.99526,2.50019,34,15
5.88328,-4.94716,0.134174,42,8
0.389227,-0.327411,-0.117424,16,1
13.0172,-10.9537,0.891595,27,9
0.473186,-0.398177,-0.12021,15,2
12.9729,-10.9203,1.48357,52,10
9.06072,-7.63253,1.45463,16,11
11.6187,-9.7908,-1.86558,24,4
6.82523,-5.75349,1.41385,42,12
8.73184,-7.36071,-0.999153,36,5
7.48351,-6.31287,-0.513102,10,6
7.62531,-6.43476,2.3035,43,14
6.39483,-5.39831,-0.146077,89,7
10.9842,-9.27581,3.85226,23,15
5.89039,-4.98835,0.134733,60,8
0.405924,-0.343884,-0.122823,15,1
6.55037,-5.55119,0.449985,6,9
0.482277,-0.408711,-0.122881,15,2
12.8967,-10.9333,1.47921,100,10
5.75656,-4.88191,-1.19547,36,3
7.16606,-6.07941,1.15386,13,11
10.9216,-9.26871,-1.75882,20,4
6.84276,-5.80924,1.42168,33,12
9.85435,-8.36597,-1.13093,19,5
6.93443,-5.88916,1.76842,51,13
8.74609,-7.43036,-0.601445,13,6
7.56716,-6.43106,2.2927,74,14
6.347,-5.39599,-0.145413,100,7
7.12409,-6.05879,2.50589,9,15
7.91021,-6.74641,0.18147,11,8
0.404721,-0.345298,-0.122823,15,1
13.0832,-11.1662,0.901435,25,9
0.495781,-0.423137,-0.126697,14,2
12.8614,-10.9808,1.47956,62,10
5.71995,-4.8853,-1.19141,50,3
7.13423,-6.09536,1.15215,60,11
8.9772,-7.67267,-1.45,15,4
12.768,-10.9165,2.66064,13,12
8.32134,-7.11463,-0.957842,20,5
6.92875,-5.92609,1.77223,66,13
6.37997,-5.45864,-0.440041,18,6
7.5269,-6.44222,2.2873,19,14
6.32053,-5.41161,-0.145239,100,7
10.8957,-9.33216,3.84398,7,15
0.366425,-0.31462,-0.12941,15,0
0.403514,-0.346709,-0.122823,15,1
9.03032,-7.76181,0.624054,4,9
0.479412,-0.412068,-0.122881,15,2
10.7198,-9.22051,-2.23952,15,3
7.07981,-6.09174,1.14679,63,11
6.08125,-5.23439,-0.985192,16,4
10.1037,-8.70283,-1.16667,5,5
6.9348,-5.9733,1.7791,21,13
10.2494,-8.83147,-0.709048,16,6
8.08447,-6.96848,2.46411,36,14
5.59738,-4.82642,-0.129008,14,7
10.7812,-9.29947,3.81499,4,15
7.74193,-6.69681,0.178678,31,8
0.402301,-0.348115,-0.122823,15,1
0.477899,-0.413823,-0.122881,15,2
14.7192,-12.7502,1.70372,28,10
10.7263,-9.29466,-2.24796,30,3
7.0585,-6.11642,1.14679,63,11
6.05844,-5.25169,-0.984461,39,4
7.42329,-6.43706,1.55621,18,12
9.55703,-8.29024,-1.10688,11,5
6.92769,-6.01154,1.78292,71,13
7.36637,-6.39446,-0.511218,14,6
8.09565,-7.03001,2.47536,28,14
5.5805,-4.84593,-0.129008,84,7
10.7968,-9.37886,3.83207,13,15
7.70376,-6.71332,0.178364,60,8
0.401022,-0.349588,-0.122823,15,1
6.49632,-5.66311,0.451659,20,9
0.467573,-0.407746,-0.120591,15,2
14.6716,-12.7989,1.70337,14,10
9.17714,-8.00855,-1.92915,8,3
7.04351,-6.14878,1.14801,84,11
6.01224,-5.25035,-0.980073,8,4
7.30555,-6.37977,1.53619,7,12
12.493,-10.9137,-1.45132,14,5
6.99241,-6.11062,1.80505,55,13
8.90182,-7.78198,-0.619658,43,6
8.01239,-7.00691,2.45737,52,14
5.55001,-4.85353,-0.128694,35,7
10.6636,-9.32872,3.79636,21,15
7.68897,-6.74542,0.178538,52,8
0.399861,-0.350916,-0.122823,15,1
0.472048,-0.414558,-0.122118,15,2
7.88819,-6.92995,0.918622,14,10
6.97686,-6.13148,1.14045,44,11
5.43273,-4.77614,-0.888184,12,4
9.30744,-8.18831,-1.08457,26,5
6.99274,-6.15193,1.8104,53,13
8.89396,-7.82729,-0.620914,23,6
6.99595,-6.15909,2.15188,12,14
5.60056,-4.93235,-0.130265,7,7
0.434396,-0.383646,-0.155291,12,0
0.398634,-0.352309,-0.122823,15,1
7.07161,-6.25203,0.49468,108,9
0.473539,-0.418804,-0.122881,15,2
7.88308,-6.97191,0.920713,16,10
5.15003,-4.55637,-1.0891,26,3
6.91676,-6.12159,1.13412,52,11
5.40265,-4.78323,-0.88599,13,4
7.18098,-6.3599,1.51929,85,12
8.74194,-7.7451,-1.02181,11,5
6.95839,-6.1671,1.80734,55,13
6.04066,-5.35561,-0.423084,43,6
6.97879,-6.18735,2.15323,24,14
5.55339,-4.92533,-0.129567,7,7
8.48553,-7.52851,3.03957,22,15
6.36485,-5.6649,0.148729,27,8
0.39734,-0.353768,-0.122823,15,1
7.03672,-6.26728,0.493842,44,9
0.474932,-0.423149,-0.123644,14,2
7.89913,-7.03786,0.925594,34,10
5.95026,-5.30335,-1.26243,28,3
6.85131,-6.10859,1.12705,31,11
8.45762,-7.54341,-1.3915,35,4
7.18268,-6.40853,1.52461,57,12
10.0424,-8.96316,-1.17765,12,5
8.14247,-7.26998,2.1218,39,13
6.02396,-5.38037,-0.423293,83,6
6.97786,-6.23236,2.15998,58,14
6.23765,-5.57318,-0.146007,100,7
8.13667,-7.27247,2.92414,40,15
6.37382,-5.71489,0.149428,38,8
0.39604,-0.355222,-0.122823,15,1
7.01034,-6.28781,0.493528,120,9
0.476375,-0.427427,-0.124407,14,2
7.84659,-7.04281,0.922456,26,10
6.01016,-5.39639,-1.27932,100,3
6.83183,-6.13631,1.12754,57,11
9.17855,-8.24702,-1.51508,13,4
7.15291,-6.42696,1.52305,119,12
5.34484,-4.80408,-0.628742,32,5
5.99475,-5.39202,-0.422561,21,6
8.57312,-7.71385,2.66252,36,14
6.20775,-5.58556,-0.145763,24,7
8.06816,-7.26205,2.90861,23,15
6.31772,-5.7025,0.148555,77,8
0.39486,-0.356533,-0.122823,15,1
7.02243,-6.34303,0.495936,83,9
0.460313,-0.415925,-0.120591,15,2
14.5294,-13.133,1.71348,17,10
5.54673,-5.01361,-1.18421,15,3
6.78788,-6.13763,1.12364,31,11
6.5704,-5.94306,-1.08781,11,4
7.16999,-6.48768,1.53149,60,12
5.32952,-4.82404,-0.628916,10,5
8.0957,-7.32787,2.12256,12,13
5.9798,-5.41455,-0.42277,87,6
8.54027,-7.7357,2.66027,26,14
6.19711,-5.61525,-0.145972,100,7
8.17301,-7.40824,2.95571,50,15
6.34513,-5.76756,0.149672,60,8
0.364777,-0.331689,-0.113825,16,1
7.02094,-6.38632,0.497401,63,9
0.453122,-0.412165,-0.119065,15,2
7.4448,-6.77424,0.880622,8,10
10.867,-9.8917,-2.32743,13,3
6.81485,-6.20539,1.13168,28,11
6.532,-5.94992,-1.08488,38,4
7.19402,-6.55524,1.54151,46,12
6.09255,-5.55157,-0.721127,25,5
8.27756,-7.54521,2.17713,33,13
5.97857,-5.45154,-0.424026,100,6
6.88342,-6.27882,2.15098,78,14
6.23508,-5.68942,-0.147333,100,7
8.11286,-7.40547,2.94329,33,15
6.16566,-5.64385,0.145902,86,8
0.392361,-0.359281,-0.122823,15,1
7.00154,-6.41349,0.49761,30,9
0.463262,-0.424353,-0.122118,15,2
7.50043,-6.87287,0.890034,42,10
5.32229,-4.87869,-1.14354,5,3
6.85314,-6.28415,1.14167,100,11
6.50973,-5.97134,-1.08464,71,4
7.16382,-6.57363,1.53994,10,12
8.26563,-7.58734,2.18095,16,13
6.03012,-5.53722,-0.42905,68,6
6.87151,-6.31204,2.15413,73,14
6.25788,-5.75039,-0.148345,73,7
8.13532,-7.47819,2.96089,15,15
6.14886,-5.66804,0.145972,71,8
0.391105,-0.360649,-0.122823,15,1
0.456006,-0.420643,-0.120591,15,2
7.20843,-6.65175,0.858135,24,10
5.29362,-4.88652,-1.14103,12,3
6.84575,-6.3215,1.14411,68,11
6.47427,-5.98056,-1.0822,42,4
6.08144,-5.61966,-0.724438,23,5
8.13386,-7.51886,2.15309,49,13
6.01662,-5.56366,-0.429469,39,6
6.87232,-6.35716,2.16133,39,14
6.20842,-5.74503,-0.147647,56,7
8.19706,-7.58791,2.99298,29,15
6.25361,-5.80511,0.148939,77,8
0.412692,-0.383228,-0.130022,14,1
7.65021,-7.10653,0.547225,7,9
0.451658,-0.41956,-0.119828,15,2
7.22312,-6.71214,0.862668,18,10
10.6051,-9.85836,-2.29333,8,3
6.7117,-6.24127,1.12534,60,11
10.5681,-9.83079,-1.77222,11,4
7.56026,-7.03527,1.63568,12,12
8.23402,-7.66492,2.18667,11,13
5.91677,-5.50976,-0.423712,79,6
7.63434,-7.11167,2.40878,61,14
9.50486,-8.85722,-0.226777,100,7
8.01791,-7.47421,2.93708,24,15
6.16173,-5.75999,0.147229,100,8
0.388578,-0.36337,-0.122823,15,1
0.453058,-0.423816,-0.120591,15,2
25.1675,-23.5513,3.01559,76,10
8.59209,-8.04315,-1.86407,10,3
6.77247,-6.342,1.13923,31,11
6.54101,-6.1274,-1.10048,44,4
5.92519,-5.55634,-0.425701,83,6
7.62369,-7.15161,2.41328,19,14
9.57158,-8.98203,-0.229115,55,7
7.93684,-7.45058,2.91689,35,15
6.16342,-5.80203,0.147752,92,8
0.367445,-0.346021,-0.116525,16,1
0.448718,-0.422703,-0.119828,15,2
25.6477,-24.1692,3.08322,78,10
8.5769,-8.08529,-1.86689,12,3
6.9727,-6.57534,1.17677,2,11
6.56002,-6.18833,-1.1073,52,4
7.52533,-7.10143,1.63881,12,12
5.93532,-5.60099,-0.71398,46,5
8.41158,-7.94054,2.24849,29,13
5.91301,-5.58385,-0.426224,100,6
7.61001,-7.18888,2.41687,61,14
9.56633,-9.0401,-0.229743,27,7
7.915,-7.48223,2.91844,15,15
6.10149,-5.78605,0.146775,75,8
0.385968,-0.366141,-0.122823,15,1
0.458558,-0.435156,-0.122881,15,2
31.5759,-29.9749,3.80905,14,10
8.54578,-8.11531,-1.86658,13,3
7.41774,-7.04655,1.25623,2,11
6.53873,-6.2137,-1.10755,72,4
10.3941,-9.88093,2.27143,26,12
5.93785,-5.64467,-0.716769,52,5
8.20032,-7.79815,2.19965,36,13
5.90119,-5.61374,-0.426852,100,6
8.017,-7.62915,2.55499,33,14
9.57658,-9.11647,-0.230791,21,7
8.02882,-7.64574,2.97073,30,15
6.04799,-5.77555,0.145972,100,8
0.384687,-0.367487,-0.122823,15,1
10.5972,-10.1269,0.768187,44,9
0.465553,-0.444892,-0.125171,14,2
8.05643,-7.70159,0.975098,46,10
8.41603,-8.04816,-1.84436,28,3
7.37588,-7.05594,1.2533,2,11
6.48832,-6.20904,-1.10267,53,4
10.0671,-9.63712,2.20729,8,12
6.07643,-5.81692,-0.735943,55,5
8.11491,-7.77105,2.184,25,13
5.84406,-5.59838,-0.424131,100,6
8.0072,-7.67327,2.56039,54,14
9.52882,-9.13462,-0.230407,100,7
8.08574,-7.75395,3.00178,7,15
6.04653,-5.81464,0.146426,85,8
0.383402,-0.368827,-0.122823,15,1
0.461168,-0.443792,-0.124407,14,2
8.02376,-7.72413,0.974401,17,10
8.43484,-8.1227,-1.85469,16,3
7.34835,-7.07889,1.25282,31,11
6.07228,-5.85575,-0.738035,39,5
7.47582,-7.20924,2.01876,39,13
5.85754,-5.65064,-0.426538,100,6
10.0599,-9.70799,3.2276,22,14
7.16474,-6.91649,-0.173826,52,7
8.16841,-7.88814,3.04268,24,15
6.04918,-5.85797,0.146984,77,8
0.354119,-0.343045,-0.113825,16,1
0.442623,-0.429081,-0.119828,15,2
7.71076,-7.47747,0.939713,6,10
8.2845,-8.03665,-1.82809,37,3
7.04575,-6.83497,1.20529,30,11
8.3566,-8.10943,-1.42977,12,4
7.62687,-7.40386,1.68355,43,12
7.42541,-7.21333,2.01227,28,13
5.87976,-5.71383,-0.429678,68,6
10.2353,-9.94991,3.29553,18,14
10.3409,-10.0526,-0.251734,86,7
10.7376,-10.4419,4.01325,22,15
6.01765,-5.87033,0.14674,26,8
0.380753,-0.371561,-0.122823,15,1
7.0928,-6.92158,0.519382,57,9
0.449551,-0.438852,-0.122118,15,2
24.6917,-24.1124,3.01942,38,10
8.34966,-8.15663,-1.84874,23,3
7.01355,-6.85381,1.20407,22,11
6.37074,-6.22781,-1.0939,37,4
7.92586,-7.74804,1.75551,42,12
12.0853,-11.8183,-1.47886,15,5
7.88857,-7.71697,2.14507,8,13
5.87406,-5.74829,-0.430725,94,6
8.19382,-8.02118,2.64722,26,14
12.9651,-12.6919,-0.316691,37,7
8.05103,-7.88415,3.01938,40,15
6.12514,-6.01495,0.149846,15,8
0.379519,-0.372822,-0.122823,15,1
10.4676,-10.2864,0.769129,35,9
0.448017,-0.440418,-0.122118,15,2
27.4997,-27.0427,3.37432,44,10
6.9922,-6.87842,1.20431,16,11
12.4681,-12.2695,-2.14783,26,4
10.0315,-9.87513,2.2295,16,12
5.3065,-5.22562,-0.651576,13,5
7.81538,-7.69625,2.1321,33,13
5.90619,-5.81819,-0.434493,29,6
8.13386,-8.01548,2.63643,28,14
12.9691,-12.7848,-0.317878,82,7
7.99045,-7.87965,3.00696,28,15
8.40469,-8.31133,0.206322,5,8
0.36159,-0.357698,-0.117424,16,1
7.33533,-7.25892,0.54084,41,9
0.460508,-0.455711,-0.125934,14,2
27.8346,-27.5543,3.42662,22,10
5.47409,-5.42084,-1.22019,32,3
6.96956,-6.90418,1.20456,19,11
6.27039,-6.21374,-1.08391,11,4
7.04949,-6.98824,1.57217,29,12
5.29905,-5.25301,-0.652797,22,5
7.86095,-7.79537,2.15194,49,13
5.84614,-5.79939,-0.431562,39,6
7.98134,-7.92028,2.59594,30,14
12.9287,-12.8342,-0.317983,100,7
7.66406,-7.61074,2.89411,40,15
8.38413,-8.34909,0.206532,12,8
0.360339,-0.358958,-0.117424,16,1
7.34957,-7.32395,0.543771,120,9
0.439446,-0.437914,-0.120591,15,2
12.7756,-12.7355,1.57822,10,10
5.44953,-5.43434,-1.21894,30,3
7.33471,-7.31681,1.27207,30,11
6.23321,-6.22017,-1.08122,37,4
6.89923,-6.8872,1.54401,23,12
5.28914,-5.27992,-0.653842,33,5
6.83069,-6.82116,1.87642,10,13
11.7549,-11.7426,-0.870766,29,6
10.0875,-10.0804,3.29238,15,14
12.9672,-12.9627,-0.320042,100,7
7.90382,-7.90382,2.99505,34,15
8.30834,-8.33157,0.20538,16,8
0.375594,-0.376776,-0.122823,15,1
6.81783,-6.84167,0.506193,83,9
0.44338,-0.445086,-0.122118,15,2
12.672,-12.7207,1.5709,6,10
5.43611,-5.45893,-1.22019,15,3
7.33013,-7.36347,1.27573,21,11
6.93645,-6.97286,1.55777,44,12
5.26975,-5.29927,-0.653842,23,5
6.82364,-6.86425,1.88138,18,13
6.06212,-6.10033,-0.450717,47,6
10.0385,-10.1018,3.28788,24,14
12.4667,-12.5496,-0.308768,53,7
7.4787,-7.5311,2.8439,13,15
5.88896,-5.94888,0.146112,41,8
0.37421,-0.37815,-0.122823,15,1
6.66349,-6.73599,0.496564,18,9
0.414137,-0.418789,-0.114485,16,2
12.184,-12.3209,1.51599,13,10
5.4244,-5.48724,-1.22207,11,3
7.27937,-7.36628,1.27158,27,11
9.44324,-9.55932,-1.64987,21,4
6.78465,-6.87524,1.87756,33,13
6.0243,-6.10687,-0.449566,100,6
7.27388,-7.37358,2.39123,31,14
12.891,-13.0722,-0.320461,37,7
7.45783,-7.56533,2.84649,22,15
5.88534,-5.98897,0.146565,62,8
0.372822,-0.379519,-0.122823,15,1
0.434681,-0.442644,-0.120591,15,2
12.1527,-12.3796,1.51773,29,10
5.41808,-5.52119,-1.22519,26,3
13.5065,-13.7684,2.36817,10,11
5.27045,-5.37449,-0.924257,6,4
5.37257,-5.48054,-0.671448,13,5
6.75374,-6.89187,1.87565,8,13
5.90231,-6.02514,-0.44203,43,6
9.88646,-10.0957,3.26224,13,14
11.2637,-11.5061,-0.281054,70,7
7.66515,-7.83286,2.93656,30,15
5.85602,-6.00089,0.146356,91,8
0.371495,-0.380818,-0.122823,15,1
6.73085,-6.90218,0.505251,72,9
0.438616,-0.449781,-0.122118,15,2
12.6198,-12.9456,1.5817,10,10
5.35328,-5.49338,-1.21487,11,3
6.99238,-7.17788,1.23039,37,11
5.25027,-5.39144,-0.924013,50,4
6.91846,-7.10696,1.57092,52,12
5.89795,-6.06288,-0.443286,58,6
11.1649,-11.4851,-0.279588,100,7
7.69296,-7.91638,2.95778,18,15
5.74736,-5.93082,0.144157,73,8
0.348469,-0.359717,-0.115625,16,1
6.71071,-6.92733,0.505461,34,9
0.431581,-0.445668,-0.120591,15,2
6.54227,-6.75817,0.822924,46,10
5.60881,-5.79594,-1.27744,27,3
7.00041,-7.23649,1.23624,31,11
12.5328,-12.96,-2.21363,35,4
5.15969,-5.33742,-0.649485,37,5
7.26345,-7.51627,2.03173,31,13
5.91839,-6.12653,-0.446426,76,6
6.42199,-6.65017,2.13434,35,14
11.1629,-11.5595,-0.280495,70,7
10.5098,-10.887,4.05466,20,15
0.401938,-0.417529,-0.155291,12,0
5.69161,-5.91239,0.143249,100,8
0.368894,-0.383338,-0.122823,15,1
6.46909,-6.72473,0.489027,33,9
0.419136,-0.435851,-0.117538,16,2
6.61943,-6.88582,0.835649,40,10
5.34452,-5.5596,-1.22144,22,3
6.97637,-7.25966,1.23624,2,11
5.14103,-5.3554,-0.649485,28,5
7.19905,-7.49924,2.02067,39,13
6.34864,-6.61799,2.11724,53,14
12.3404,-12.8685,-0.311211,22,7
7.56671,-7.89325,2.92983,4,15
5.67646,-5.938,0.143389,71,8
0.389095,-0.407165,-0.130022,14,1
6.64149,-6.95235,0.503891,118,9
0.439386,-0.459952,-0.123644,14,2
5.66335,-5.93257,-1.29903,22,3
13.0687,-13.6948,2.32429,10,11
7.74581,-8.1197,-1.37785,9,4
6.63906,-6.96196,1.52367,14,12
5.23874,-5.49354,-0.664127,23,5
7.34081,-7.70053,2.06799,53,13
11.4899,-12.0572,-0.872859,19,6
6.27846,-6.59073,2.10149,66,14
9.72215,-10.2093,-0.246079,8,7
7.47118,-7.84825,2.90343,33,15
5.64331,-5.94473,0.143075,86,8
0.347429,-0.366114,-0.116525,16,1
6.81099,-7.1798,0.518649,13,9
0.426969,-0.450088,-0.120591,15,2
7.16467,-7.55526,0.910952,10,10
5.61407,-5.9222,-1.29246,35,3
9.53898,-10.066,1.70276,15,11
5.90035,-6.22855,-1.05344,8,4
9.09626,-9.60558,2.09528,15,12
5.61408,-5.92843,-0.714328,15,5
5.94971,-6.28724,-0.453648,14,6
6.28086,-6.6395,2.11004,56,14
11.191,-11.8341,-0.2843,100,7
7.45701,-7.88832,2.90861,30,15
5.65956,-6.00368,0.144017,62,8
0.36486,-0.38718,-0.122823,15,1
6.76124,-7.17736,0.516765,16,9
0.432046,-0.458797,-0.122499,15,2
11.7946,-12.5249,1.50518,16,10
9.45617,-10.0487,1.69423,45,11
6.25942,-6.65396,-1.12169,37,4
9.01531,-9.58691,2.08433,33,12
5.1993,-5.53088,-0.664127,12,5
9.35864,-9.95897,2.65644,11,13
5.93756,-6.32065,-0.454485,29,6
6.19627,-6.59605,2.08935,67,14
5.84514,-6.22444,-0.149044,32,7
5.66211,-6.05066,0.144646,75,8
0.363438,-0.388514,-0.122823,15,1
0.430361,-0.460377,-0.122499,15,2
11.599,-12.408,1.48601,16,10
7.85087,-8.40138,-1.82121,18,3
6.60203,-7.06743,1.18749,16,11
6.24041,-6.68266,-1.12266,8,4
7.47309,-8.0055,1.73455,35,12
5.2021,-5.57466,-0.66709,32,5
22.5091,-24.1296,6.41424,22,13
12.014,-12.8834,-0.923206,7,6
6.25977,-6.71278,2.11904,70,14
9.58292,-10.28,-0.245311,35,7
5.70522,-6.1417,0.146321,96,8
0.362012,-0.389844,-0.122823,15,1
6.42581,-6.92226,0.494994,30,9
0.434094,-0.467632,-0.124026,14,2
6.54853,-7.05693,0.842273,24,10
5.85998,-6.31714,-1.36473,38,3
6.56798,-7.08285,1.18603,16,11
5.18484,-5.59324,-0.936444,10,4
8.8696,-9.5716,2.06681,18,12
5.52252,-5.9596,-0.710842,41,5
9.27913,-10.017,2.65415,10,13
6.96423,-7.52068,-0.537176,28,6
6.34235,-6.85151,2.15548,37,14
8.27529,-8.94276,-0.212675,100,7
10.0998,-10.9183,3.9853,10,15
5.60782,-6.07927,0.144366,83,8
0.360649,-0.391105,-0.122823,15,1
0.421814,-0.457596,-0.120973,15,2
6.66427,-7.23212,0.860402,100,10
5.80176,-6.29833,-1.35629,32,3
6.52305,-7.08383,1.18238,24,11
10.0388,-10.9057,-1.82,50,4
5.50708,-5.98471,-0.71154,47,5
9.22418,-10.0277,2.64843,17,13
11.9792,-13.0272,-0.927498,7,6
6.22476,-6.77175,2.12354,70,14
7.50662,-8.16911,-0.193652,64,7
6.57491,-7.15768,2.60424,6,15
5.52984,-6.03687,0.1429,83,8
0.359281,-0.392361,-0.122823,15,1
6.64974,-7.26455,0.516137,80,9
0.436122,-0.476444,-0.125552,14,2
6.6874,-7.30826,0.866677,84,10
5.51175,-6.02557,-1.2934,57,3
6.5157,-7.1256,1.18555,13,11
11.3414,-12.4073,-2.06398,20,4
9.0091,-9.85931,2.11531,15,12
5.5305,-6.05243,-0.717292,27,5
9.111,-9.97432,2.62591,20,13
5.83954,-6.39511,-0.453857,3,6
6.2024,-6.79487,2.12399,41,14
7.52524,-8.24696,-0.194874,20,7
5.62176,-6.1804,0.145832,62,8
0.357909,-0.393613,-0.122823,15,1
6.62568,-7.28919,0.516242,38,9
0.423892,-0.466341,-0.122499,15,2
6.65917,-7.32861,0.866328,58,10
5.51592,-6.07256,-1.29934,41,3
6.47344,-7.1292,1.18238,30,11
5.72904,-6.31161,-1.04661,11,4
8.94808,-9.86144,2.10905,35,12
5.55085,-6.11744,-0.722695,26,5
9.16054,-10.0991,2.65034,11,13
6.15247,-6.78761,2.11499,52,14
9.45275,-10.4322,-0.24573,52,7
6.53775,-7.21772,2.60941,44,15
5.61623,-6.21779,0.146251,60,8
0.356533,-0.39486,-0.122823,15,1
6.60154,-7.31376,0.516347,31,9
0.438047,-0.485306,-0.127079,14,2
6.74967,-7.4805,0.881493,78,10
5.47352,-6.0683,-1.29434,60,3
9.26134,-10.2713,1.69813,33,11
5.04776,-5.60021,-0.92572,5,4
8.98237,-9.96893,2.12532,9,12
5.54813,-6.1575,-0.725136,41,5
6.76673,-7.51258,1.96533,9,13
5.76668,-6.40455,-0.451659,65,6
6.14438,-6.82642,2.12039,13,14
7.06622,-7.85334,-0.184402,24,7
