x, y, z, intensity, ring
-0.103651,-0.787308,-0.125773,17,3
-0.210673,-1.59807,0.197916,100,11
-0.110412,-0.836408,-0.103589,11,4
-0.212786,-1.60976,0.257178,77,12
-0.132288,-0.999432,-0.0882016,5,5
-1.3177,-9.95522,1.95198,34,13
-1.30192,-9.80968,2.2846,47,14
-0.212592,-1.59969,-0.0281682,12,7
-1.2869,-9.6706,2.61407,75,15
-0.213505,-1.58746,0.0279588,84,8
-0.0710054,-0.527246,-0.122823,15,1
-0.2162,-1.60327,0.0847843,100,9
-0.216735,-1.60512,-0.314835,2,2
-0.216232,-1.59928,0.141192,100,10
-0.107596,-0.794753,-0.127025,34,3
-0.215718,-1.59339,0.197428,100,11
-0.113065,-0.83405,-0.103345,11,4
-0.218935,-1.61292,0.257804,77,12
-0.132019,-0.971325,-0.0857612,4,5
-0.147783,-1.08448,-0.0573602,10,6
-0.219256,-1.60686,-0.0283078,9,7
-1.37321,-10.0508,2.71812,18,15
-0.219596,-1.58865,0.0279937,12,8
-0.0729374,-0.526983,-0.122823,15,1
-0.222891,-1.61042,0.0852029,59,9
-0.218564,-1.57713,-0.309492,1,2
-0.222908,-1.60641,0.14189,100,10
-0.109826,-0.790459,-0.126399,34,3
-0.221556,-1.59259,0.197428,100,11
-0.116121,-0.83363,-0.103345,5,4
-0.224564,-1.61215,0.257804,80,12
-0.138711,-0.994538,-0.087853,2,5
-1.37804,-9.86776,1.93671,8,13
-0.151015,-1.08,-0.0571509,17,6
-1.32858,-9.4894,2.21217,48,14
-0.224309,-1.60213,-0.028238,5,7
-1.32193,-9.42989,2.55144,44,15
-0.226545,-1.59979,0.0282031,6,8
-0.0746845,-0.526738,-0.122823,15,1
-0.227388,-1.60172,0.0847843,12,9
-0.2202,-1.54914,-0.30415,1,2
-0.225426,-1.58393,0.139972,81,10
-0.109942,-0.77249,-0.123583,37,3
-0.227396,-1.59577,0.197916,100,11
-0.114959,-0.805728,-0.0999329,6,4
-0.228514,-1.59962,0.255927,80,12
-0.136258,-0.952629,-0.0841924,4,5
-0.151198,-1.05576,-0.0558948,10,6
-1.36281,-9.50423,2.21667,42,14
-0.230468,-1.60529,-0.0283078,5,7
-1.36721,-9.51127,2.57473,13,15
-0.230691,-1.5891,0.0280286,5,8
-0.0765227,-0.526474,-0.122823,15,1
-0.232698,-1.60096,0.0847843,6,9
-0.114348,-0.783829,-0.12546,35,3
-0.234974,-1.60872,0.199622,100,11
-0.118345,-0.80925,-0.10042,6,4
-0.234389,-1.60276,0.256553,75,12
-0.139705,-0.954143,-0.0843668,2,5
-1.41101,-9.62505,1.89092,48,13
-0.150241,-1.02361,-0.0542201,8,6
-1.47134,-10.0123,2.33634,43,14
-0.227068,-1.54517,-0.0272607,6,7
-0.234491,-1.57843,0.027854,7,8
-0.240639,-1.61594,0.0856216,5,9
-0.234732,-1.5725,0.139101,5,10
-0.114322,-0.765862,-0.122645,38,3
-0.237666,-1.59026,0.197428,28,11
-0.119853,-0.801001,-0.0994454,6,4
-0.24086,-1.60779,0.257491,45,12
-0.143034,-0.95365,-0.0843668,2,5
-1.45253,-9.68439,1.90351,40,13
-0.150076,-0.999408,-0.052964,8,6
-1.47353,-9.80114,2.2882,47,14
-0.170253,-1.13108,-0.0199656,3,7
-1.41176,-9.36802,2.5385,78,15
-0.242081,-1.58943,0.0280635,11,8
-0.244148,-1.59925,0.0847843,8,9
-0.243531,-1.59334,0.141018,5,10
-0.11414,-0.745912,-0.119516,20,3
-0.240788,-1.57172,0.195235,6,11
-0.122186,-0.796632,-0.0989579,6,4
-0.142733,-0.929513,-0.082275,2,5
-1.49219,-9.70617,1.90885,32,13
-0.1507,-0.979111,-0.0519173,10,6
-1.48036,-9.60693,2.24411,54,14
-0.172263,-1.11662,-0.0197212,16,7
-1.43547,-9.29405,2.51986,41,15
-1.38875,-8.90904,0.157386,26,8
-0.0820316,-0.525644,-0.122823,15,1
-1.8369,-11.757,0.623635,30,9
-0.248475,-1.58854,0.140669,7,10
-0.117966,-0.753315,-0.120767,29,3
-0.249962,-1.59441,0.19816,6,11
-0.123735,-0.788356,-0.097983,6,4
-0.253586,-1.61383,0.258743,5,12
-0.142885,-0.909326,-0.0805319,3,5
-1.53094,-9.73193,1.91496,52,13
-0.150388,-0.954904,-0.0506612,6,6
-1.52724,-9.6864,2.26391,63,14
-0.176472,-1.11799,-0.0197561,28,7
-1.47183,-9.31379,2.52659,27,15
-1.70072,-10.6656,0.188521,26,8
-0.083866,-0.525354,-0.122823,15,1
-1.70259,-10.6415,0.942851,42,10
-0.116533,-0.727542,-0.1167,21,3
-0.256469,-1.5994,0.198891,7,11
-0.129003,-0.803599,-0.0999329,6,4
-1.36285,-8.48012,1.36035,7,12
-0.144793,-0.900954,-0.0798347,3,5
-1.56864,-9.74979,1.91954,18,13
-0.15245,-0.946486,-0.0502425,7,6
-1.56632,-9.71372,2.27156,21,14
-0.175911,-1.08972,-0.0192675,22,7
-1.68925,-10.4529,2.83717,10,15
-0.0856993,-0.525058,-0.122823,15,1
-1.73084,-10.5928,0.562507,83,9
-0.120349,-0.734928,-0.117952,21,3
-1.56909,-9.5714,1.19091,13,11
-0.12795,-0.779637,-0.097008,7,4
-0.142123,-0.865054,-0.0766971,4,5
-1.60745,-9.77331,1.92526,28,13
-0.157051,-0.95383,-0.0506612,6,6
-2.04203,-12.3886,2.89872,27,14
-0.175482,-1.06345,-0.0188137,12,7
-0.119327,-0.713073,-0.11451,11,3
-1.47458,-8.80232,1.09585,27,11
-0.128044,-0.763524,-0.0950581,7,4
-1.43052,-8.52105,1.36849,9,12
-0.1491,-0.888131,-0.0787888,3,5
-1.64351,-9.77925,1.92755,34,13
-0.156403,-0.929642,-0.0494052,8,6
-2.07652,-12.3295,2.88657,23,14
-0.174539,-1.03523,-0.018325,7,7
-1.70077,-10.077,2.73831,0,15
-0.195962,-1.15126,0.0203844,1,8
-2.06502,-12.1063,0.643628,32,9
-2.06846,-12.1137,1.07515,20,10
-0.124478,-0.728229,-0.117013,10,3
-1.49592,-8.74233,1.08902,32,11
-0.136741,-0.798291,-0.0994454,6,4
-0.160954,-0.938663,-0.0833209,2,5
-1.67697,-9.76959,1.92679,39,13
-0.157956,-0.919248,-0.0488818,8,6
-0.176794,-1.02673,-0.0181854,7,7
-0.190734,-1.09738,0.019442,5,8
-0.0911929,-0.524132,-0.122823,15,1
-0.124982,-0.716114,-0.115136,11,3
-1.51311,-8.66079,1.07952,20,11
-0.131319,-0.750879,-0.0935957,7,4
-1.47465,-8.4233,1.35441,111,12
-0.16423,-0.938095,-0.0833209,2,5
-1.70055,-9.70373,1.91496,45,13
-0.159093,-0.906888,-0.0482538,9,6
-1.87571,-10.6813,2.50371,61,14
-0.174837,-0.994596,-0.0176269,6,7
-0.199104,-1.1223,0.0198957,13,8
-0.0930219,-0.52381,-0.122823,15,1
-2.15892,-12.1447,0.646454,7,9
-2.40988,-13.5427,1.20345,31,10
-0.122631,-0.688447,-0.110756,12,3
-1.55483,-8.71995,1.08756,10,11
-0.131847,-0.738691,-0.0921332,8,4
-0.167504,-0.937516,-0.0833209,2,5
-1.74133,-9.73639,1.92259,43,13
-0.160498,-0.896497,-0.0477304,10,6
-1.75073,-9.7693,2.29135,16,14
-0.17513,-0.976265,-0.0173128,3,7
-1.64949,-9.18585,2.50071,6,15
-0.201596,-1.11373,0.0197561,17,8
-1.69907,-9.35868,0.832163,54,10
-0.131391,-0.722998,-0.116387,10,3
-1.54973,-8.51916,1.06319,26,11
-0.132291,-0.726508,-0.0906708,8,4
-3.80644,-20.8833,3.36209,20,12
-0.152911,-0.838921,-0.0746053,4,5
-1.77072,-9.70514,1.91763,34,13
-0.161114,-0.882178,-0.0469977,11,6
-1.77081,-9.68645,2.27336,35,14
-0.175657,-0.959912,-0.0170335,2,7
-1.68293,-9.18764,2.50278,1,15
-0.2004,-1.08549,0.0192675,13,8
-1.74805,-9.44086,0.840007,52,10
-0.134634,-0.72642,-0.117013,10,3
-1.61458,-8.70302,1.08683,20,11
-0.139175,-0.749463,-0.0935957,7,4
-2.55372,-13.7385,2.21324,8,12
-0.160936,-0.865806,-0.0770457,4,5
-1.81465,-9.75294,1.92832,53,13
-0.160901,-0.863938,-0.0460556,6,6
-1.79747,-9.6419,2.26436,32,14
-0.17754,-0.95143,-0.0168939,2,7
-1.88064,-10.0685,2.74452,9,15
-0.197159,-1.04744,0.0186043,7,8
-0.098502,-0.522808,-0.122823,15,1
-0.215961,-1.14623,0.0611284,1,9
-1.73554,-9.19389,0.818567,18,10
-0.126899,-0.671597,-0.108253,12,3
-2.00648,-10.6088,1.32569,25,11
-0.146087,-0.772403,-0.0965205,7,4
-1.85856,-9.79863,1.93862,54,13
-0.159446,-0.839825,-0.0447996,7,6
-1.85778,-9.78522,2.29945,45,14
-0.180694,-0.950836,-0.0168939,2,7
-0.195738,-1.02125,0.0181505,6,8
-0.100235,-0.522478,-0.122823,15,1
-0.221266,-1.15336,0.0615471,5,9
-0.128471,-0.669026,-0.132421,13,2
-1.76226,-9.16851,0.816824,20,10
-0.135843,-0.706089,-0.113884,11,3
-2.03902,-10.5885,1.32399,15,11
-0.141515,-0.734878,-0.0918895,16,4
-1.76319,-9.1475,1.47549,39,12
-1.8754,-9.71145,1.92259,43,13
-0.158439,-0.819682,-0.0437529,7,6
-1.88467,-9.7503,2.2927,43,14
-0.183846,-0.950231,-0.0168939,2,7
-2.07115,-10.695,2.91896,46,15
-0.19606,-1.0049,0.0178713,6,8
-0.101967,-0.522143,-0.122823,15,1
-0.220693,-1.12905,0.060291,12,9
-1.79342,-9.16653,0.817172,2,10
-0.13211,-0.674617,-0.108878,12,3
-1.72322,-8.79143,1.09999,35,11
-0.142551,-0.726588,-0.0909145,25,4
-1.81718,-9.25371,1.49364,65,12
-1.9129,-9.73215,1.92793,17,13
-0.161928,-0.823071,-0.0439622,7,6
-1.84786,-9.36668,2.55817,44,15
-0.195669,-0.984593,0.0175222,3,8
-0.224243,-1.12632,0.0601864,13,9
-1.8402,-9.23446,0.823796,2,10
-0.134464,-0.674152,-0.108878,12,3
-1.76516,-8.84181,1.10706,12,11
-0.145475,-0.728032,-0.0911583,16,4
-1.81461,-9.07298,1.46548,54,12
-0.167939,-0.838168,-0.0447996,7,6
-1.90337,-9.47381,2.58923,44,15
-0.192362,-0.950584,0.0169288,3,8
-0.225792,-1.11378,0.0595583,11,9
-0.135353,-0.667668,-0.132421,13,2
-0.138389,-0.681422,-0.11013,12,3
-1.80155,-8.86283,1.11047,15,11
-0.148411,-0.729465,-0.091402,16,4
-1.84351,-9.05304,1.46329,21,12
-2.00981,-9.86091,1.95617,80,13
-0.169267,-0.829749,-0.0443809,7,6
-0.173767,-0.850294,-0.0151487,3,7
-1.94146,-9.49171,2.59596,49,15
-0.200117,-0.971451,0.0173128,1,8
-0.107429,-0.521046,-0.122823,15,1
-0.223624,-1.08365,0.0579882,9,9
-0.147206,-0.713337,-0.14158,11,2
-0.246642,-1.19414,0.106679,1,10
-0.143966,-0.696411,-0.112633,11,3
-1.91373,-9.24916,1.15971,13,11
-0.151762,-0.732831,-0.0918895,16,4
-1.8747,-9.04462,1.46298,15,12
-2.02228,-9.74811,1.93518,39,13
-0.169726,-0.81742,-0.0437529,7,6
-0.167775,-0.806611,-0.0143808,4,7
-1.98167,-9.51892,2.60527,45,15
-0.198583,-0.947261,0.0168939,2,8
-0.109248,-0.520668,-0.122823,15,1
-0.217554,-1.03595,0.0554761,7,9
-0.144853,-0.689763,-0.137001,12,2
-0.235645,-1.12113,0.100229,2,10
-0.143956,-0.684305,-0.110756,12,3
-1.81103,-8.6014,1.07927,30,11
-0.152272,-0.722584,-0.0906708,34,4
-1.97352,-9.35694,1.5146,38,12
-2.03643,-9.64686,1.91649,57,13
-0.16845,-0.797281,-0.0427061,8,6
-1.92917,-9.12298,2.15278,18,14
-0.158996,-0.751242,-0.0134034,16,7
-2.02129,-9.54219,2.61355,31,15
-0.208563,-0.977853,0.0174524,1,8
-0.111064,-0.520284,-0.122823,15,1
-0.222003,-1.03909,0.0556855,5,9
-0.146559,-0.685387,-0.136238,12,2
-0.244756,-1.14364,0.102321,12,10
-0.148946,-0.695363,-0.112633,11,3
-1.84229,-8.60085,1.08001,15,11
-0.154378,-0.720107,-0.0904271,34,4
-2.02399,-9.43305,1.52805,44,12
-2.04042,-9.49346,1.88748,41,13
-0.175571,-0.816184,-0.0437529,7,6
-1.96956,-9.14823,2.16043,10,14
-0.160776,-0.746773,-0.0133336,16,7
-2.08226,-9.66349,2.64875,45,15
-0.219868,-1.01095,0.0542201,4,9
-0.14144,-0.65034,-0.129368,13,2
-0.244086,-1.12136,0.100403,15,10
-0.151372,-0.694838,-0.112633,11,3
-1.88607,-8.65028,1.08707,2,11
-0.154477,-0.7079,-0.0889646,26,4
-3.14599,-14.4047,2.33525,15,12
-2.16829,-9.91974,1.97373,21,13
-0.173297,-0.792153,-0.0424968,8,6
-2.12527,-9.70669,2.29405,40,14
-0.164368,-0.750085,-0.0134034,10,7
-2.10194,-9.58409,2.62908,8,15
-0.222533,-1.00627,0.0540107,3,9
-0.147101,-0.665178,-0.132421,13,2
-0.245415,-1.10883,0.0993576,13,10
-0.14867,-0.671162,-0.108878,12,3
-0.159097,-0.717046,-0.0901833,34,4
-2.6447,-11.9098,1.93228,3,12
-2.12539,-9.56331,1.90427,9,13
-0.172592,-0.775946,-0.0416594,8,6
-2.14602,-9.64024,2.2801,9,14
-0.165246,-0.741699,-0.0132638,11,7
-0.116597,-0.519072,-0.122823,15,1
-0.225606,-1.00354,0.053906,2,9
-0.1477,-0.656999,-0.130895,13,2
-0.241412,-1.07298,0.0962199,8,10
-0.157231,-0.697122,-0.0877459,18,4
-2.31234,-10.2357,2.03975,8,13
-0.173537,-0.767547,-0.0412407,9,6
-0.168717,-0.745019,-0.0133336,16,7
-2.19698,-9.69353,2.66325,66,15
-0.118408,-0.518662,-0.122823,15,1
-0.224659,-0.983277,0.0528593,2,9
-0.154365,-0.675619,-0.134711,12,2
-0.240271,-1.05076,0.0943025,6,10
-0.144539,-0.631596,-0.102621,14,3
-0.280085,-1.22291,0.154043,2,11
-0.160551,-0.700439,-0.0882334,9,4
-3.29269,-14.3536,2.33244,9,12
-0.179793,-0.782509,-0.0420781,8,6
-2.66396,-11.585,2.7444,17,14
-0.159656,-0.693757,-0.0124261,6,7
-2.23817,-9.7178,2.67205,35,15
-0.120218,-0.518245,-0.122823,15,1
-0.227186,-0.978596,0.05265,2,9
-0.149619,-0.644477,-0.128605,28,2
-0.238075,-1.02469,0.0920365,5,10
-0.146743,-0.631088,-0.102621,14,3
-0.269954,-1.16006,0.146243,4,11
-0.162094,-0.696007,-0.0877459,9,4
-3.32484,-14.2651,2.31992,5,12
-2.70618,-11.6016,2.31566,14,13
-0.182524,-0.781876,-0.0420781,8,6
-0.16663,-0.712668,-0.0127752,5,7
-2.258,-9.64974,2.65548,18,15
-0.230142,-0.975853,0.0525453,1,9
-0.150966,-0.640129,-0.127842,14,2
-0.234328,-0.992825,0.0892475,5,10
-0.271718,-1.14945,0.145025,16,11
-3.11657,-13.1635,2.14253,3,12
-0.18433,-0.777348,-0.0418688,8,6
-2.35015,-9.90323,2.34984,17,14
-0.179744,-0.75683,-0.013578,20,7
-2.43506,-10.2451,2.82165,21,15
-0.231349,-0.967355,0.0521266,1,9
-0.150346,-0.628169,-0.125552,14,2
-0.229729,-0.959104,0.0862842,4,10
-0.151035,-0.630074,-0.102621,14,3
-0.275992,-1.15047,0.145268,22,11
-2.71659,-11.3154,1.84311,0,12
-2.40551,-10.0043,2.00006,40,13
-0.186907,-0.776732,-0.0418688,8,6
-2.37157,-9.84802,2.33859,29,14
-0.171821,-0.713491,-0.0128101,23,7
-0.125458,-0.517002,-0.122823,15,1
-0.246979,-1.017,0.0548481,1,9
-0.160884,-0.66198,-0.132421,13,2
-0.233076,-0.958296,0.0862842,3,10
-0.271355,-1.11483,0.140881,12,11
-2.42843,-9.95429,1.99166,33,13
-0.183797,-0.752825,-0.0406127,9,6
-2.39358,-9.79656,2.32824,24,14
-0.18286,-0.747851,-0.0134384,21,7
-0.127262,-0.516561,-0.122823,15,1
-0.259133,-1.05104,0.0567322,1,9
-0.158378,-0.642381,-0.128605,28,2
-0.234343,-0.94978,0.0855869,3,10
-0.15532,-0.629032,-0.102621,14,3
-0.268578,-1.0869,0.137469,10,11
-0.301333,-1.21763,0.198672,1,12
-2.4391,-9.84856,1.9722,42,13
-0.186424,-0.752179,-0.0406127,9,6
-2.86265,-11.5415,2.7453,12,14
-0.17728,-0.714215,-0.012845,17,7
-0.140403,-0.562291,-0.155291,12,0
-0.129064,-0.516113,-0.122823,15,1
-0.272498,-1.08888,0.0588256,1,9
-0.165386,-0.660869,-0.132421,13,2
-0.240077,-0.95862,0.0864585,1,10
-0.267541,-1.0667,0.135031,8,11
-0.290664,-1.15718,0.188973,3,12
-2.49117,-9.91043,1.98632,33,13
-0.186125,-0.739902,-0.0399847,10,6
-2.45763,-9.7626,2.32419,13,14
-0.187588,-0.744618,-0.0134034,5,7
-2.44349,-9.69213,2.67826,25,15
-0.276297,-1.08792,0.0588256,1,9
-0.161893,-0.637454,-0.127842,14,2
-0.234588,-0.923018,0.0833209,2,10
-0.159708,-0.627932,-0.102621,14,3
-0.268325,-1.05422,0.133569,8,11
-0.295189,-1.15807,0.189286,8,12
-0.190683,-0.746988,-0.0404034,9,6
-2.50279,-9.79739,2.33454,26,14
-0.177309,-0.693586,-0.0124959,6,7
-2.4888,-9.72846,2.69068,77,15
-0.156962,-0.609559,-0.145318,12,1
-0.160198,-0.621676,-0.124789,29,2
-0.237809,-0.922193,0.0833209,2,10
-0.161899,-0.627371,-0.102621,14,3
-0.262076,-1.01483,0.128694,4,11
-0.302197,-1.16851,0.191163,11,12
-2.49045,-9.62291,1.93213,6,13
-0.191286,-0.738584,-0.0399847,10,6
-2.98433,-11.5147,2.7462,74,14
-2.50138,-9.63744,2.66791,41,15
-0.154163,-0.590152,-0.140819,13,1
-0.167444,-0.640078,-0.128605,28,2
-0.25817,-0.986894,0.0892475,1,10
-0.164088,-0.626802,-0.102621,14,3
-0.255556,-0.975508,0.123819,4,11
-0.302264,-1.15216,0.18866,11,12
-0.186882,-0.710836,-0.0385193,10,6
-3.05076,-11.6041,2.77005,19,14
-0.182146,-0.692331,-0.0124959,6,7
-3.39772,-12.9055,3.57584,18,15
-0.186292,-0.702602,-0.167813,9,1
-0.163743,-0.61669,-0.124026,29,2
-0.166384,-0.626196,-0.102621,14,3
-0.25913,-0.974565,0.123819,4,11
-0.295812,-1.11096,0.18209,8,12
-0.190516,-0.714005,-0.0387286,10,6
-3.39014,-12.6876,3.5189,12,15
-0.163548,-0.607824,-0.145318,12,1
-0.291838,-1.08386,0.0588256,1,9
-0.164873,-0.612323,-0.123263,15,2
-0.265398,-0.984975,0.0892475,1,10
-0.168678,-0.625582,-0.102621,14,3
-0.261666,-0.969775,0.123332,2,11
-0.289576,-1.07173,0.175832,7,12
-0.336153,-1.24325,0.250341,1,13
-0.195094,-0.721048,-0.0391473,10,6
-2.54547,-9.4013,2.24861,76,14
-0.158488,-0.580929,-0.13902,13,1
-0.169078,-0.619319,-0.124789,14,2
-0.268834,-0.984042,0.0892475,1,10
-0.179195,-0.655477,-0.107627,12,3
-0.271335,-0.991833,0.126257,2,11
-0.287574,-1.04976,0.172391,5,12
-0.32492,-1.18527,0.238893,2,13
-0.196553,-0.71651,-0.038938,10,6
-2.58291,-9.40927,2.25266,50,14
-2.70203,-9.82977,2.73158,20,15
-0.176476,-0.637647,-0.128605,14,2
-0.173041,-0.624389,-0.102621,14,3
-0.265246,-0.956448,0.121869,2,11
-0.288941,-1.04118,0.171139,5,12
-0.330107,-1.18791,0.239656,9,13
-0.18407,-0.661941,-0.0360071,12,6
-3.29177,-11.8376,2.83663,10,14
-2.71441,-9.74818,2.71139,21,15
-0.283399,-1.01161,0.0550574,1,9
-0.175409,-0.625716,-0.126316,14,2
-0.175111,-0.623812,-0.102621,14,3
-0.266269,-0.947918,0.120894,2,11
-0.289719,-1.03071,0.169575,4,12
-0.332448,-1.18114,0.238511,12,13
-0.181933,-0.645947,-0.0351698,13,6
-2.74672,-9.73912,2.71139,11,15
-0.306566,-1.07978,0.0588256,1,9
-0.177483,-0.62513,-0.126316,14,2
-0.177178,-0.623228,-0.102621,14,3
-0.267239,-0.939393,0.119919,2,11
-0.291151,-1.02209,0.168324,4,12
-0.33152,-1.16304,0.235077,9,13
-0.182978,-0.641499,-0.0349604,26,6
-2.79874,-9.79263,2.72899,9,15
-0.28935,-1.00577,0.0548481,1,9
-0.194981,-0.677301,-0.137001,12,2
-0.179461,-0.622574,-0.102621,14,3
-0.278214,-0.965158,0.123332,2,11
-0.287048,-0.9945,0.163943,4,12
-0.328694,-1.1373,0.230116,5,13
-0.181999,-0.629312,-0.0343324,40,6
-0.36187,-1.25045,0.300535,1,14
-3.60777,-12.4586,3.47542,12,15
-0.314285,-1.07756,0.0588256,1,9
-0.18525,-0.635153,-0.128605,14,2
-0.181633,-0.621944,-0.102621,14,3
-0.286253,-0.978274,0.16144,3,12
-0.324938,-1.10976,0.224773,5,13
-0.187564,-0.640173,-0.0349604,26,6
-0.360202,-1.22861,0.295586,5,14
-3.00206,-10.2265,2.85581,26,15
-0.318044,-1.07646,0.0588256,1,9
-0.187577,-0.63447,-0.128605,14,2
-0.180548,-0.609909,-0.100744,14,3
-0.285175,-0.962118,0.158937,2,12
-0.317832,-1.07092,0.217141,5,13
-0.18536,-0.624164,-0.034123,40,6
-0.363592,-1.22354,0.294686,10,14
-0.189791,-0.633811,-0.128605,14,2
-0.181541,-0.605491,-0.100118,14,3
-0.292507,-0.97436,0.161128,2,12
-0.315917,-1.05101,0.213324,4,13
-0.185237,-0.615863,-0.0337044,42,6
-0.362596,-1.20554,0.290637,11,14
-3.74076,-12.4213,3.47594,6,15
-0.169115,-0.558023,-0.113341,16,2
-0.181253,-0.597325,-0.0988666,15,3
-0.2854,-0.939363,0.155496,2,12
-0.317686,-1.04432,0.21218,4,13
-0.186696,-0.613335,-0.0335997,56,6
-0.358647,-1.17823,0.284338,11,14
-3.8405,-12.601,3.52977,2,15
-0.170965,-0.557459,-0.113341,16,2
-0.190191,-0.619381,-0.102621,14,3
-0.286354,-0.930809,0.154244,2,12
-0.314216,-1.02074,0.2076,4,13
-0.192845,-0.626074,-0.0343324,27,6
-0.350704,-1.13786,0.27489,8,14
-0.188046,-0.605608,-0.123263,15,2
-0.192352,-0.618713,-0.102621,14,3
-0.291951,-0.937348,0.155496,1,12
-0.31252,-1.00277,0.204166,3,13
-0.192651,-0.61777,-0.0339137,13,6
-0.352932,-1.13105,0.27354,7,14
-0.385983,-1.23545,0.346818,1,15
-0.198511,-0.631134,-0.128605,14,2
-0.175534,-0.557741,-0.0926092,16,3
-0.297598,-0.943859,0.156747,1,12
-0.310283,-0.982896,0.200349,2,13
-0.204539,-0.647532,-0.0355885,25,6
-0.351008,-1.11123,0.269041,7,14
-0.38272,-1.21015,0.340088,4,15
-0.184776,-0.579679,-0.0963636,15,3
-0.315477,-0.987924,0.164256,1,12
-0.310296,-0.970532,0.19806,2,13
-0.206911,-0.646778,-0.0355885,25,6
-0.34736,-1.0858,0.263193,6,14
-0.388331,-1.21242,0.341124,7,15
-0.19054,-0.590277,-0.0982409,15,3
-0.309371,-0.956689,0.15925,1,12
-0.309618,-0.956314,0.195388,2,13
-0.207433,-0.640315,-0.0352744,26,6
-0.340527,-1.05115,0.255094,5,14
-0.389792,-1.2018,0.338535,11,15
-0.211535,-0.647575,-0.132421,13,2
-0.186566,-0.570799,-0.0951122,15,3
-0.325169,-0.993094,0.165508,1,12
-0.313733,-0.957038,0.19577,2,13
-0.215381,-0.65663,-0.0362165,24,6
-0.338303,-1.03138,0.250595,5,14
-0.387564,-1.18017,0.332841,11,15
-0.204735,-0.620879,-0.127079,14,2
-0.193213,-0.585249,-0.0976151,15,3
-0.318871,-0.963614,0.197297,2,13
-0.214703,-0.648442,-0.0357978,12,6
-0.336459,-1.01557,0.246996,4,14
-0.375251,-1.13134,0.319383,8,15
-0.215712,-0.646196,-0.132421,13,2
-0.191599,-0.573296,-0.0957379,15,3
-0.313047,-0.934515,0.191572,2,13
-0.219617,-0.655226,-0.0362165,12,6
-0.336461,-1.00325,0.244297,4,14
-0.373052,-1.11171,0.314206,6,15
-0.212942,-0.630558,-0.129368,13,2
-0.183477,-0.542682,-0.090732,16,3
-0.308746,-0.911103,0.186993,1,13
-0.218055,-0.643106,-0.0355885,25,6
-0.339961,-1.00207,0.244297,4,14
-0.369669,-1.08839,0.307995,5,15
-0.171887,-0.503473,-0.122823,15,1
-0.213981,-0.626058,-0.128605,14,2
-0.194418,-0.568172,-0.0951122,15,3
-0.314631,-0.917394,0.188519,1,13
-0.217817,-0.634746,-0.0351698,13,6
-0.334139,-0.973169,0.237548,3,14
-0.370955,-1.07978,0.305924,5,15
-0.173731,-0.50284,-0.122823,15,1
-0.202054,-0.584486,-0.12021,15,2
-0.191878,-0.554423,-0.0929221,32,3
-0.308824,-0.890323,0.183177,1,13
-0.222651,-0.641529,-0.0355885,12,6
-0.337534,-0.971997,0.237548,3,14
-0.367932,-1.05834,0.30023,4,15
-0.175485,-0.50223,-0.122823,15,1
-0.202797,-0.580071,-0.119446,15,2
-0.191854,-0.548156,-0.0919835,33,3
-0.344422,-0.981868,0.202258,1,13
-0.226212,-0.644517,-0.0357978,12,6
-0.336405,-0.957942,0.234399,1,14
-0.362654,-1.03154,0.292983,4,15
-0.186975,-0.529176,-0.129572,14,1
-0.204821,-0.579359,-0.119446,15,2
-0.19113,-0.540034,-0.090732,16,3
-0.364912,-1.02877,0.21218,1,13
-0.227124,-0.639959,-0.0355885,12,6
-0.336973,-0.949475,0.232599,1,14
-0.357665,-1.00666,0.286254,4,15
-0.186108,-0.521212,-0.127772,14,1
-0.209383,-0.586072,-0.120973,15,2
-0.200903,-0.561717,-0.0944864,32,3
-0.218457,-0.609123,-0.0339137,13,6
-0.341435,-0.952021,0.233499,1,14
-0.361654,-1.00729,0.286772,4,15
-0.179899,-0.498595,-0.122373,15,1
-0.198088,-0.548408,-0.113341,16,2
-0.19605,-0.54247,-0.0913577,33,3
-0.228752,-0.630888,-0.0351698,26,6
-0.330807,-0.912351,0.224051,1,14
-0.36319,-1.00057,0.285219,3,15
-0.181725,-0.497933,-0.122373,15,1
-0.217614,-0.595623,-0.123263,15,2
-0.204819,-0.560301,-0.0944864,32,3
-0.23175,-0.63192,-0.0352744,26,6
-0.330794,-0.901984,0.221802,1,14
-0.357534,-0.973847,0.277972,3,15
-0.183549,-0.497263,-0.122373,15,1
-0.207448,-0.56171,-0.116393,16,2
-0.205502,-0.555841,-0.0938607,16,3
-0.229789,-0.619871,-0.0346464,26,6
-0.338004,-0.911788,0.224501,1,14
-0.352866,-0.950859,0.27176,2,15
-0.185197,-0.496652,-0.122373,15,1
-0.20382,-0.546303,-0.113341,16,2
-0.212873,-0.569961,-0.0963636,15,3
-0.231844,-0.619106,-0.0346464,26,6
-0.332825,-0.888762,0.219102,1,14
-0.353304,-0.942448,0.269689,2,15
-0.186843,-0.496035,-0.122373,15,1
-0.20563,-0.545624,-0.113341,16,2
-0.228707,-0.606216,-0.102621,14,3
-0.231069,-0.610861,-0.0342277,27,6
-0.341444,-0.902175,0.222702,1,14
-0.351117,-0.926756,0.265548,2,15
-0.207985,-0.546375,-0.134971,14,1
-0.232689,-0.610952,-0.127079,14,2
-0.231774,-0.60632,-0.0340184,27,6
-0.369652,-0.966504,0.238898,1,14
-0.357112,-0.932742,0.267619,2,15
-0.190301,-0.494718,-0.122373,15,1
-0.238926,-0.618549,-0.0347511,26,6
-0.356163,-0.921582,0.2281,1,14
-0.363154,-0.938696,0.269689,2,15
-0.240465,-0.615809,-0.0346464,26,6
-0.341109,-0.872649,0.251054,2,15
-0.233818,-0.592671,-0.0333903,28,6
-0.346435,-0.876783,0.252607,2,15
-0.235146,-0.589995,-0.0332857,28,6
-0.345913,-0.866597,0.250019,2,15
-0.233474,-0.579907,-0.0327623,29,6
-0.355437,-0.88151,0.254678,2,15
-0.24603,-0.604991,-0.0342277,27,6
-0.358512,-0.880264,0.254678,1,15
-0.245105,-0.596738,-0.033809,27,6
-0.349676,-0.850482,0.246396,1,15
-0.243258,-0.586697,-0.0332857,14,6
-0.351013,-0.84575,0.24536,1,15
-0.245202,-0.585887,-0.0332857,28,6
-0.37173,-0.887344,0.257784,1,15
-0.246366,-0.583231,-0.033181,28,6
-0.385204,-0.911018,0.265031,1,15
-0.253892,-0.596107,-0.102621,14,3
-0.244683,-0.573097,-0.0326576,29,6
-0.58025,-1.35841,0.341026,1,14
-0.23256,-0.540777,-0.0932349,16,3
-0.258542,-0.599751,-0.0342277,27,6
-0.580358,-1.34564,0.338326,1,14
-0.230355,-0.531809,-0.155291,12,0
-0.258048,-0.59432,-0.102621,14,3
-0.249475,-0.573206,-0.0327623,29,6
-0.594387,-1.36504,0.343725,1,14
-0.306561,-0.704035,-0.0134034,5,7
-0.260017,-0.593461,-0.102621,14,3
-0.251374,-0.572375,-0.0327623,29,6
-0.605966,-1.37912,0.347774,1,14
-0.262087,-0.59255,-0.102621,14,3
-0.23799,-0.536803,-0.0307735,31,6
-0.608406,-1.37165,0.346425,1,14
-0.262707,-0.587014,-0.0337044,28,6
-0.610801,-1.36419,0.345075,1,14
-0.252421,-0.558791,-0.0321343,29,6
-0.627598,-1.38868,0.351823,1,14
-0.259341,-0.56881,-0.0327623,29,6
-0.259656,-0.564272,-0.032553,29,6
-0.321238,-0.69746,-0.0134034,5,7
-0.261624,-0.563363,-0.032553,29,6
-0.260198,-0.555212,-0.0321343,29,6
-0.248634,-0.527419,-0.113341,16,2
-0.262892,-0.556152,-0.032239,29,6
-0.328403,-0.694115,-0.0134034,5,7
-0.250382,-0.526592,-0.113341,16,2
-0.259672,-0.544414,-0.0316109,30,6
-0.330824,-0.692964,-0.0134034,5,7
-0.252219,-0.525714,-0.113341,16,2
-0.259839,-0.539905,-0.0314016,30,6
-0.333241,-0.691805,-0.0134034,5,7
-0.254052,-0.524831,-0.113341,16,2
-0.259977,-0.535402,-0.0311922,31,6
-0.318057,-0.654723,-0.0127054,6,7
-0.255883,-0.523941,-0.113341,16,2
-0.259116,-0.529155,-0.0308782,31,6
-0.337942,-0.689521,-0.0134034,5,7
-0.257619,-0.523089,-0.113341,16,2
-0.265385,-0.537201,-0.0314016,30,6
-0.329711,-0.666827,-0.0129846,5,7
-0.259534,-0.522142,-0.113341,16,2
-0.267352,-0.536225,-0.0314016,15,6
-0.31597,-0.633462,-0.0123563,6,7
-0.274606,-0.545994,-0.0320296,15,6
-0.345144,-0.685945,-0.0134034,5,7
-0.774016,-1.52699,0.332771,1,13
-0.269189,-0.53083,-0.0311922,15,6
-0.760314,-1.4877,0.324757,2,13
-0.267311,-0.522821,-0.0307735,31,6
-0.243179,-0.473175,-0.122823,15,1
-0.766401,-1.48679,0.325139,3,13
-0.270965,-0.525435,-0.0309829,31,6
-0.262765,-0.506926,-0.131821,14,1
-0.774303,-1.48933,0.326283,3,13
-0.282014,-0.542205,-0.0320296,15,6
-0.246476,-0.471466,-0.122823,15,1
-0.769469,-1.46749,0.322086,2,13
-0.280193,-0.534143,-0.0316109,15,6
-0.248038,-0.470646,-0.122823,15,1
-0.78534,-1.48576,0.326665,1,13
-0.278228,-0.526148,-0.0311922,15,6
-0.24968,-0.469777,-0.122823,15,1
-0.265113,-0.49693,-0.0295175,16,6
-0.2514,-0.468859,-0.122823,15,1
-0.266846,-0.496002,-0.0295175,16,6
-0.252953,-0.468023,-0.122823,15,1
-0.278937,-0.508015,-0.155291,12,0
-0.235324,-0.421753,-0.12941,15,0
-0.286151,-0.508043,-0.113341,16,2
-0.288011,-0.506991,-0.113341,16,2
-0.289779,-0.505982,-0.113341,16,2
-0.934745,-1.62952,0.297538,1,12
-0.289515,-0.502061,-0.155291,12,0
-0.291543,-0.504968,-0.113341,16,2
-0.924605,-1.59888,0.292533,2,12
-0.291178,-0.501099,-0.155291,12,0
-0.293216,-0.503998,-0.113341,16,2
-0.925207,-1.58711,0.290968,3,12
-0.292926,-0.500079,-0.155291,12,0
-0.294974,-0.502972,-0.113341,16,2
-0.94275,-1.60431,0.294723,3,12
-0.296728,-0.501939,-0.113341,16,2
-0.957406,-1.61631,0.297538,2,12
-0.29641,-0.498022,-0.155291,12,0
-0.278378,-0.467169,-0.105708,18,2
-1.00152,-1.67741,0.309427,1,12
-0.300225,-0.499855,-0.113341,16,2
-0.275533,-0.455138,-0.103418,18,2
-0.283174,-0.464278,-0.105708,18,2
-1.06337,-1.73119,0.0354633,1,8
-0.305356,-0.496737,-0.113341,16,2
-1.03678,-1.67476,0.0343812,6,8
-1.0642,-1.71838,0.105928,1,9
-0.286409,-0.46229,-0.105708,18,2
-0.306603,-0.491812,-0.155291,12,0
-1.05396,-1.68998,0.0347652,7,8
-1.05615,-1.69282,0.104567,5,9
-0.294177,-0.47133,-0.107998,17,2
-1.0585,-1.68478,0.0347303,4,8
-1.06707,-1.69776,0.105091,5,9
-0.285288,-0.453732,-0.104182,18,2
-1.05869,-1.68313,0.173963,2,10
-1.06386,-1.69004,0.245201,1,11
-1.10902,-1.75159,0.108649,1,9
-0.286791,-0.452784,-0.104182,18,2
-1.06533,-1.68129,0.174137,5,10
-0.288449,-0.451729,-0.104182,18,2
-1.10259,-1.72607,0.179192,1,10
-0.302772,-0.470532,-0.108761,17,2
-0.31723,-0.489239,-0.113341,16,2
-0.318936,-0.488129,-0.113341,16,2
-0.318358,-0.484286,-0.155291,12,0
-0.320553,-0.487069,-0.113341,16,2
-1.14355,-1.72445,0.10844,1,9
-0.300551,-0.453223,-0.105708,18,2
-1.12293,-1.68059,0.105928,1,9
-0.308675,-0.461965,-0.107998,17,2
-1.12049,-1.6763,0.176403,1,10
-1.11619,-1.65919,0.0349048,1,8
-1.10648,-1.64352,0.103835,1,9
-0.32572,-0.483628,-0.113341,16,2
-1.04394,-1.54538,0.430556,1,14
-1.15144,-1.69812,0.0358123,1,8
-1.15258,-1.69915,0.107603,1,9
-0.327406,-0.482488,-0.113341,16,2
-1.13245,-1.66823,0.176403,1,10
-1.04933,-1.54173,0.430556,1,14
-1.15625,-1.69182,0.107393,1,9
-0.329089,-0.481342,-0.113341,16,2
-1.13827,-1.66427,0.176403,1,10
-1.05444,-1.53824,0.430556,1,14
-1.20292,-1.747,0.111162,1,9
-0.330683,-0.480249,-0.113341,16,2
-1.0598,-1.53455,0.430556,1,14
-0.310054,-0.446775,-0.105708,18,2
-1.04761,-1.50506,0.423358,1,14
-0.334111,-0.47787,-0.113341,16,2
-1.07049,-1.52711,0.430556,1,14
-0.306307,-0.435023,-0.103418,18,2
-1.07555,-1.52355,0.430556,1,14
-0.310019,-0.437208,-0.104182,18,2
-1.20711,-1.69105,0.0362661,1,8
-0.316185,-0.442458,-0.105708,18,2
-1.22783,-1.71311,-0.0367897,1,7
-1.20396,-1.67363,0.0359869,5,8
-1.23895,-1.72164,0.111162,1,9
-0.306257,-0.425418,-0.101892,19,2
-1.22443,-1.69585,-0.0365104,1,7
-1.22358,-1.68906,0.0364057,6,8
-1.22619,-1.69143,0.109487,1,9
-0.310046,-0.427525,-0.102655,18,2
-1.23064,-1.6864,0.0364406,6,8
-0.343881,-0.470888,-0.113341,16,2
-1.04478,-1.42594,-0.0308559,1,7
-1.27324,-1.73204,0.0375227,1,8
-0.315275,-0.428568,-0.103418,18,2
-0.995125,-1.34828,-0.0292502,2,7
-1.38178,-1.86464,0.121629,1,9
-0.34716,-0.468476,-0.113341,16,2
-0.986701,-1.32714,-0.0288663,5,7
-1.31181,-1.75737,0.11493,1,9
-0.348793,-0.467261,-0.113341,16,2
-0.999718,-1.33489,-0.0291106,7,7
-1.32034,-1.75597,0.115139,1,9
-0.350422,-0.466041,-0.113341,16,2
-1.3318,-1.77057,0.193834,1,10
-0.998351,-1.32341,-0.0289361,6,7
-1.32646,-1.75135,0.115139,1,9
-1.33797,-1.76591,0.193834,1,10
-1.35767,-1.79061,0.275912,1,11
-0.998124,-1.31355,-0.0287965,5,7
-1.33226,-1.74695,0.115139,1,9
-0.353586,-0.463645,-0.113341,16,2
-1.31482,-1.72345,0.189651,1,10
-1.33951,-1.75454,0.271037,1,11
-1.00612,-1.315,-0.0289012,5,7
-1.34322,-1.74862,0.115558,1,9
-0.355203,-0.462408,-0.113341,16,2
-1.32082,-1.71885,0.189651,1,10
-1.36983,-1.78133,0.275912,1,11
-1.01681,-1.3194,-0.0290757,5,7
-1.36856,-1.76943,0.117233,1,9
-1.35608,-1.75204,0.193834,1,10
-1.34686,-1.73887,0.270062,1,11
-1.37082,-1.76917,0.354481,1,12
-1.00892,-1.30022,-0.0287267,5,7
-1.42596,-1.83107,0.121629,1,9
-0.358342,-0.459979,-0.113341,16,2
-1.36189,-1.74753,0.193834,1,10
-1.35751,-1.74066,0.271037,1,11
-1.37668,-1.76461,0.354481,1,12
-1.00091,-1.28111,-0.0283776,5,7
-1.36767,-1.74301,0.193834,1,10
-1.37308,-1.74864,0.272987,1,11
-1.3926,-1.77222,0.356983,1,12
-1.00662,-1.27918,-0.0284125,5,7
-0.361465,-0.45753,-0.113341,16,2
-1.37375,-1.73822,0.193834,1,10
-1.39395,-1.76252,0.275912,1,11
-1.37426,-1.73637,0.350726,1,12
-1.40878,-1.77935,0.44115,1,13
-1.01356,-1.27879,-0.0284823,4,7
-1.28905,-1.62579,0.555943,1,15
-1.11887,-1.40711,0.0313794,1,8
-1.44506,-1.81604,0.121629,1,9
-1.37981,-1.73342,0.193834,1,10
-1.4001,-1.75764,0.275912,1,11
-1.37046,-1.7192,0.348223,1,12
-1.36112,-1.70688,0.424359,1,13
-1.03174,-1.29244,-0.0288663,5,7
-1.31159,-1.64241,0.56319,1,15
-1.03627,-1.29394,0.0289361,1,8
-1.40622,-1.75274,0.275912,1,11
-1.40861,-1.75446,0.356358,1,12
-1.3892,-1.72967,0.431228,1,13
-1.02873,-1.27948,-0.0286569,5,7
-1.02822,-1.27475,0.028587,3,8
-1.39188,-1.72374,0.193834,1,10
-1.39733,-1.72803,0.351978,1,12
-1.40264,-1.73397,0.433518,1,13
-1.41862,-1.75247,0.520537,1,14
-1.02689,-1.26811,-0.0284823,7,7
-1.03393,-1.2727,0.0286219,4,8
-1.464,-1.8008,0.121629,1,9
-1.40835,-1.72927,0.353229,1,12
-1.3938,-1.7108,0.428939,1,13
-1.39517,-1.71126,0.509739,1,14
-1.02373,-1.25522,-0.0282729,7,7
-1.0371,-1.26754,0.028587,5,8
-1.48546,-1.81423,0.122885,1,9
-1.45185,-1.77255,0.200458,1,10
-1.45196,-1.77016,0.362615,1,12
-1.40226,-1.70896,0.429702,1,13
-1.40856,-1.71542,0.512438,1,14
-1.03953,-1.26555,-0.028587,9,7
-1.03643,-1.25774,0.0284474,5,8
-1.48924,-1.80595,0.122675,1,9
-0.370967,-0.449859,-0.113341,16,2
-1.44789,-1.75518,0.199064,1,10
-1.52103,-1.84123,0.378259,1,12
-1.40321,-1.698,0.428175,1,13
-1.40709,-1.70148,0.509739,1,14
-1.04649,-1.26499,-0.0286569,9,7
-1.02804,-1.23872,0.0280984,5,8
-1.50319,-1.80996,0.123304,1,9
-1.47947,-1.78076,0.20255,1,10
-1.48197,-1.78124,0.366995,1,12
-1.40913,-1.69309,0.428175,1,13
-1.40054,-1.68158,0.50524,1,14
-1.05602,-1.26747,-0.0287965,10,7
-1.40754,-1.68879,0.589072,1,15
-1.03749,-1.24127,0.028238,5,8
-1.489,-1.78019,0.121629,1,9
-1.47545,-1.76336,0.201155,1,10
-1.51908,-1.81423,0.290537,1,11
-1.53385,-1.83056,0.378259,1,12
-1.42008,-1.69418,0.429702,1,13
-1.42644,-1.70057,0.512438,1,14
-1.04116,-1.2408,-0.0282729,11,7
-1.41343,-1.68386,0.589072,1,15
-1.0547,-1.25293,0.028587,5,8
-1.48233,-1.75971,0.120582,1,9
-1.48416,-1.76125,0.201504,1,10
-1.51261,-1.79374,0.288099,1,11
-1.54023,-1.8252,0.378259,1,12
-1.46397,-1.73422,0.44115,1,13
-1.42231,-1.68367,0.508839,1,14
-1.05452,-1.24785,-0.0285172,12,7
-1.4193,-1.67892,0.589072,1,15
-1.04225,-1.22942,0.0281333,4,8
-1.47813,-1.74234,0.119745,1,9
-1.4671,-1.72872,0.198366,1,10
-1.51886,-1.78845,0.288099,1,11
-1.47002,-1.7291,0.44115,1,13
-1.43323,-1.68464,0.510639,1,14
-1.06016,-1.24569,-0.0285521,12,7
-1.42515,-1.67395,0.589072,1,15
-1.05692,-1.23794,0.0284125,4,8
-1.4852,-1.73894,0.119849,2,9
-0.378762,-0.443316,-0.113341,16,2
-1.46018,-1.70844,0.196623,1,10
-1.50961,-1.76503,0.285174,1,11
-1.51923,-1.77565,0.370124,1,12
-1.47604,-1.72396,0.44115,1,13
-1.42642,-1.66482,0.50614,1,14
-1.06299,-1.24065,-0.0285172,22,7
-1.43069,-1.66922,0.589072,1,15
-0.377774,-0.439513,-0.155291,12,0
-1.06884,-1.24352,0.0286219,5,8
-1.47954,-1.72012,0.118907,2,9
-1.48173,-1.72145,0.198715,1,10
-1.531,-1.77807,0.288099,1,11
-1.53831,-1.7853,0.373253,1,12
-1.43321,-1.66156,0.50659,1,14
-1.07123,-1.24147,-0.0286219,79,7
-1.43651,-1.66421,0.589072,1,15
-1.08234,-1.25037,0.0288663,12,8
-0.34698,-0.400706,-0.122373,15,1
-1.49599,-1.72702,0.119745,1,9
-0.38177,-0.440728,-0.113341,16,2
-1.48743,-1.71653,0.198715,1,10
-1.51639,-1.74872,0.284199,1,11
-1.54971,-1.78588,0.374504,1,12
-1.43389,-1.65066,0.50479,1,14
-1.44231,-1.65919,0.589072,1,15
-1.10247,-1.26467,0.0292851,25,8
-1.49676,-1.71577,0.119326,1,9
-0.383307,-0.439393,-0.113341,16,2
-1.48031,-1.69631,0.196972,1,10
-1.5042,-1.72248,0.280787,1,11
-1.55594,-1.78046,0.374504,1,12
-1.44991,-1.65738,0.508389,1,14
-1.43282,-1.6367,0.582861,1,15
-1.1016,-1.2548,0.0291455,71,8
-0.349769,-0.398274,-0.122373,15,1
-1.48692,-1.69253,0.11807,1,9
-1.50201,-1.7091,0.199064,1,10
-1.52594,-1.73511,0.283712,1,11
-1.5517,-1.76316,0.372001,1,12
-1.45311,-1.64939,0.50749,1,14
-1.07492,-1.21968,-0.0283776,183,7
-1.46152,-1.65777,0.592178,1,15
-0.351157,-0.397051,-0.122373,15,1
-1.47165,-1.66339,0.116395,1,9
-1.4974,-1.69191,0.197669,1,10
-1.51619,-1.71194,0.280787,1,11
-1.55785,-1.75773,0.372001,1,12
-1.46661,-1.65305,0.510189,1,14
-1.42626,-1.60643,0.575614,1,15
-0.385311,-0.43292,-0.155291,12,0
-1.10634,-1.2426,0.0290408,187,8
-1.35787,-1.52404,0.106975,1,9
-1.5086,-1.69262,0.198366,1,10
-1.53273,-1.71849,0.282737,1,11
-1.54819,-1.7346,0.368247,1,12
-1.50354,-1.6828,0.520987,1,14
-1.47564,-1.65041,0.593213,1,15
-0.32235,-0.359644,-0.12941,15,0
-1.12002,-1.24916,0.0292851,184,8
-0.329198,-0.367026,-0.113825,16,1
-1.34851,-1.50294,0.105823,2,9
-1.51716,-1.69031,0.198715,1,10
-1.53607,-1.71017,0.282249,1,11
-1.54895,-1.72331,0.366995,1,12
-1.55156,-1.7256,0.451072,1,13
-1.5094,-1.67754,0.520987,1,14
-1.08897,-1.20985,-0.0284125,5,7
-1.46329,-1.62515,0.585966,1,15
-1.12571,-1.24672,0.02932,187,8
-1.36312,-1.50859,0.106556,2,9
-1.51771,-1.67909,0.198018,1,10
-1.5367,-1.69891,0.281274,1,11
-1.54965,-1.71203,0.365744,1,12
-1.5892,-1.7551,0.460231,1,13
-1.09318,-1.20604,-0.0284125,10,7
-1.45079,-1.6,0.578719,1,15
-1.13006,-1.24279,0.02932,190,8
-1.37106,-1.50678,0.106765,3,9
-1.49166,-1.63816,0.193834,1,10
-1.55064,-1.70234,0.282737,1,11
-1.56094,-1.71245,0.366995,2,12
-1.56122,-1.71155,0.450309,1,13
-1.10952,-1.21551,-0.0287267,12,7
-1.45636,-1.59492,0.578719,1,15
-0.326161,-0.356191,-0.12941,15,0
-1.1373,-1.24158,0.0293899,197,8
-0.333087,-0.363501,-0.113825,16,1
-1.37227,-1.49757,0.106451,4,9
-1.49737,-1.63294,0.193834,1,10
-1.55687,-1.69665,0.282737,1,11
-1.56424,-1.70408,0.36637,1,12
-1.58047,-1.72055,0.454125,1,13
-1.1124,-1.21015,-0.0286918,14,7
-1.48023,-1.60974,0.585966,1,15
-0.392882,-0.426061,-0.155291,12,0
-1.14684,-1.24369,0.0295295,203,8
-1.37884,-1.49424,0.106556,3,9
-1.50306,-1.62771,0.193834,1,10
-1.5571,-1.68564,0.281762,1,11
-1.57018,-1.69861,0.36637,1,12
-1.58083,-1.70954,0.452599,1,13
-0.673776,-0.727867,-0.0173128,29,7
-1.49372,-1.61307,0.589072,1,15
-0.346978,-0.373785,-0.136656,14,0
-1.15117,-1.23968,0.0295295,203,8
-0.335554,-0.361225,-0.113825,16,1
-1.37563,-1.48088,0.105928,4,9
-1.49759,-1.61104,0.19244,1,10
-1.54675,-1.66276,0.278837,1,11
-1.57311,-1.6905,0.365744,2,12
-1.62158,-1.74136,0.462521,1,13
-1.10562,-1.18646,-0.0283078,15,7
-1.50959,-1.61941,0.593213,1,15
-1.15528,-1.23585,0.0295295,190,8
-0.36337,-0.388578,-0.122823,15,1
-1.39034,-1.48627,0.106661,4,9
-1.5141,-1.61744,0.193834,1,10
-1.53597,-1.64023,0.275912,1,11
-1.5655,-1.67059,0.362615,1,12
-1.58975,-1.69587,0.451836,1,13
-1.51259,-1.61131,0.592178,1,15
-1.1541,-1.22599,0.0293899,100,8
-0.338005,-0.358933,-0.113825,16,1
-1.39663,-1.48311,0.106765,4,9
-1.50306,-1.59501,0.191743,1,10
-1.53079,-1.6233,0.273962,1,11
-1.58458,-1.67975,0.365744,1,12
-1.58487,-1.67889,0.448783,1,13
-1.50201,-1.58944,0.585966,1,15
-0.332205,-0.350561,-0.12941,15,0
-0.349918,-0.369124,-0.117424,16,1
-1.40593,-1.48257,0.107079,4,9
-1.50587,-1.58686,0.191394,1,10
-1.50064,-1.58079,0.267625,1,11
-1.58771,-1.67135,0.365118,1,12
-1.59043,-1.67363,0.448783,1,13
-1.62223,-1.70589,0.543482,1,14
-1.50222,-1.57859,0.583896,1,15
-0.333366,-0.349457,-0.12941,15,0
-1.39316,-1.45888,0.105719,3,9
-1.51388,-1.58474,0.191743,1,10
-1.55278,-1.62433,0.275912,1,11
-1.55804,-1.62868,0.356983,1,12
-1.59627,-1.66806,0.448783,1,13
-1.62009,-1.69177,0.540782,1,14
-1.52109,-1.58728,0.589072,1,15
-0.334583,-0.348292,-0.12941,15,0
-1.17221,-1.21981,0.0295295,5,8
-1.40794,-1.46408,0.106451,4,9
-1.50559,-1.56509,0.19,1,10
-1.55844,-1.6189,0.275912,1,11
-1.55549,-1.6147,0.355106,1,12
-1.60208,-1.66248,0.448783,1,13
-1.62057,-1.6805,0.538983,1,14
-1.52125,-1.5764,0.587002,1,15
-1.17507,-1.21427,0.0294946,6,8
-0.342921,-0.354238,-0.113825,16,1
-1.40331,-1.44912,0.105719,4,9
-1.54154,-1.5913,0.193834,1,10
-1.53092,-1.57924,0.270062,1,11
-1.55011,-1.59792,0.352603,1,12
-1.58053,-1.6287,0.44115,1,13
-1.61828,-1.66644,0.536283,1,14
-1.51867,-1.56277,0.583896,1,15
-1.16674,-1.19727,0.0291804,5,8
-1.42231,-1.45851,0.106765,4,9
-1.53874,-1.57736,0.192788,1,10
-1.53643,-1.57389,0.270062,1,11
-1.5612,-1.59815,0.353855,1,12
-1.5862,-1.62317,0.44115,1,13
-1.62409,-1.66078,0.536283,1,14
-1.53762,-1.57127,0.589072,1,15
-1.16951,-1.19176,0.0291455,5,8
-1.41759,-1.44356,0.106033,4,9
-1.55261,-1.5805,0.193834,1,10
-1.57531,-1.60249,0.275912,1,11
-1.57231,-1.59832,0.355106,1,12
-1.59186,-1.61763,0.44115,1,13
-1.63534,-1.66066,0.538083,1,14
-1.5431,-1.56589,0.589072,1,15
-0.358421,-0.362827,-0.136656,14,0
-1.17647,-1.19052,0.0292153,5,8
-0.357572,-0.361715,-0.117424,16,1
-1.41279,-1.42866,0.1053,3,9
-1.48806,-1.50425,0.185119,1,10
-1.58089,-1.59698,0.275912,1,11
-1.589,-1.60405,0.357609,1,12
-1.5975,-1.61206,0.44115,1,13
-1.61094,-1.6245,0.528185,1,14
-1.54856,-1.56049,0.589072,1,15
-1.18767,-1.19349,0.0293899,4,8
-0.375331,-0.377038,-0.122823,15,1
-1.41752,-1.42397,0.1053,3,9
-1.19802,-1.20263,0.148513,1,10
-1.54442,-1.54927,0.2686,1,11
-1.55247,-1.55681,0.348223,1,12
-1.58092,-1.58424,0.435045,1,13
-1.60008,-1.60232,0.522786,1,14
-1.19304,-1.19096,0.0294248,2,8
-0.357267,-0.35652,-0.116525,16,1
-1.39703,-1.39362,0.103416,2,9
-1.19939,-1.19562,0.148165,2,10
-1.61423,-1.6086,0.279812,1,11
-1.58589,-1.57926,0.354481,1,12
-1.58339,-1.57622,0.434281,1,13
-1.6192,-1.61074,0.527285,1,14
-1.19151,-1.18116,0.0292851,3,8
-0.350204,-0.34704,-0.113825,16,1
-1.29383,-1.28214,0.0954608,1,9
-1.18919,-1.17762,0.146422,2,10
-1.59726,-1.58062,0.275912,1,11
-1.60235,-1.58511,0.356983,1,12
-1.61401,-1.59552,0.44115,1,13
-1.64117,-1.6218,0.532684,1,14
-1.633,-1.61261,0.614954,1,15
-1.1769,-1.15896,0.0288314,3,8
-0.351353,-0.345877,-0.113825,16,1
-1.15574,-1.13773,0.0849936,1,9
-1.18741,-1.16808,0.145724,1,10
-1.60196,-1.57424,0.355732,2,12
-1.61929,-1.59016,0.44115,1,13
-1.6521,-1.62181,0.534484,1,14
-1.19503,-1.16903,0.0291804,2,8
-0.352498,-0.34471,-0.113825,16,1
-1.14685,-1.12112,0.0840516,2,9
-1.20267,-1.17528,0.147119,1,10
-1.18163,-1.15391,0.202791,1,11
-1.61593,-1.57692,0.357609,1,12
-1.62456,-1.58479,0.44115,1,13
-1.63542,-1.59427,0.527285,1,14
-1.21058,-1.176,0.0294597,1,8
-0.38166,-0.37063,-0.122823,15,1
-1.16509,-1.13102,0.0850983,2,9
-1.16816,-1.13361,0.142412,2,10
-1.2056,-1.16913,0.206203,1,11
-1.57887,-1.53003,0.348223,1,12
-1.63008,-1.5791,0.44115,1,13
-1.64098,-1.58855,0.527285,1,14
-0.382951,-0.369295,-0.122823,15,1
-1.16471,-1.12279,0.0847843,2,9
-1.14629,-1.10464,0.139275,2,10
-1.19538,-1.15114,0.203766,1,11
-1.60697,-1.54643,0.353229,1,12
-1.61294,-1.55163,0.435045,1,13
-1.64932,-1.58552,0.528185,1,14
-1.15522,-1.10666,0.0279239,1,8
-0.384238,-0.367956,-0.122823,15,1
-1.18305,-1.13253,0.085831,2,9
-1.14457,-1.09492,0.138578,2,10
-1.19365,-1.14148,0.202791,1,11
-1.60442,-1.53215,0.431228,1,13
-1.65512,-1.57946,0.528185,1,14
-1.64105,-1.56549,0.607707,1,15
-1.20274,-1.14375,0.028971,1,8
-0.385584,-0.366545,-0.122823,15,1
-1.16982,-1.11167,0.0845749,2,9
-1.15272,-1.09504,0.139101,3,10
-1.15752,-1.09883,0.195966,3,11
-1.24539,-1.18141,0.271883,1,12
-1.62401,-1.54005,0.435045,1,13
-1.63799,-1.55223,0.520987,1,14
-1.16311,-1.09836,0.0279239,1,8
-0.386861,-0.365197,-0.122823,15,1
-1.1737,-1.10758,0.0845749,3,9
-1.16252,-1.09627,0.139798,4,10
-1.1599,-1.09342,0.195722,4,11
-1.64107,-1.54485,0.438097,1,13
-1.64367,-1.54621,0.520987,1,14
-1.14906,-1.07828,0.027505,1,8
-0.388006,-0.36398,-0.122823,15,1
-1.17134,-1.09843,0.0841562,3,9
-1.15705,-1.08464,0.138752,4,10
-1.17202,-1.09791,0.197185,4,11
-1.64565,-1.53997,0.438097,1,13
-1.66533,-1.5573,0.526385,1,14
-1.67685,-1.56697,0.614954,1,15
-1.14989,-1.07154,0.0274352,1,8
-0.389275,-0.362623,-0.122823,15,1
-1.18102,-1.09978,0.0845749,3,9
-1.15956,-1.07904,0.138578,4,10
-1.17149,-1.08976,0.196453,4,11
-1.65128,-1.53393,0.438097,1,13
-1.66246,-1.54323,0.523686,1,14
-1.66814,-1.54797,0.609778,1,15
-1.13766,-1.05238,0.0270512,2,8
-0.390601,-0.361194,-0.122823,15,1
-1.17898,-1.09022,0.0841562,3,9
-1.15454,-1.06687,0.137532,3,10
-1.16964,-1.08007,0.195478,6,11
-1.66817,-1.53881,0.44115,1,13
-1.67616,-1.54564,0.526385,1,14
-1.67638,-1.54475,0.610813,1,15
-1.14114,-1.0486,0.0270512,2,8
-0.391797,-0.359897,-0.122823,15,1
-1.18259,-1.08631,0.0841562,3,9
-1.15807,-1.06304,0.137532,2,10
-1.16736,-1.07082,0.194503,6,11
-1.17785,-1.08006,0.253111,1,12
-1.68703,-1.54534,0.528185,1,14
-1.71284,-1.56788,0.622201,1,15
-1.15052,-1.0502,0.0271908,2,8
-0.392988,-0.358596,-0.122823,15,1
-1.18638,-1.08217,0.0841562,3,9
-1.17189,-1.06859,0.138752,2,10
-1.17971,-1.07496,0.195966,6,11
-1.75094,-1.59379,0.460231,1,13
-1.69241,-1.53944,0.528185,1,14
-1.68971,-1.53591,0.611848,1,15
-1.16751,-1.05827,0.027505,2,8
-0.394237,-0.357222,-0.122823,15,1
-1.18126,-1.06998,0.0835282,3,9
-1.16971,-1.05914,0.138055,2,10
-1.1864,-1.0735,0.196453,6,11
-1.75649,-1.58767,0.460231,1,13
-1.68621,-1.52307,0.524586,1,14
-1.68646,-1.52223,0.608742,1,15
-1.15039,-1.03546,0.0270163,1,8
-0.394033,-0.35454,-0.122373,15,1
-1.18648,-1.06718,0.0836329,4,9
-1.14969,-1.03374,0.135266,2,10
-1.19014,-1.06935,0.196453,6,11
-1.71763,-1.5406,0.532684,1,14
-1.7004,-1.52407,0.611848,1,15
-1.17487,-1.05009,0.027505,1,8
-0.395268,-0.353162,-0.122373,15,1
-1.2036,-1.07501,0.0845749,3,9
-1.14735,-1.02441,0.134568,2,10
-1.19683,-1.06784,0.196941,6,11
-1.6855,-1.50015,0.604601,1,15
-1.19648,-1.06191,0.0279239,1,8
-0.396499,-0.351781,-0.122373,15,1
-1.20137,-1.0655,0.0841562,2,9
-1.1703,-1.03758,0.136835,2,10
-1.19461,-1.05839,0.195966,6,11
-1.70231,-1.50449,0.608742,1,15
-1.20018,-1.05773,0.0279239,1,8
-0.397724,-0.350394,-0.122373,15,1
-1.21557,-1.07054,0.0848889,2,9
-1.20233,-1.0585,0.140146,3,10
-1.19233,-1.04896,0.194991,6,11
-1.71045,-1.50108,0.609778,1,15
-1.22794,-1.0746,0.0284823,1,8
-0.398945,-0.349004,-0.122373,15,1
-1.22062,-1.06782,0.0849936,3,9
-1.20002,-1.04906,0.139449,3,10
-1.20795,-1.05524,0.196941,6,11
-1.70086,-1.48271,0.604601,1,15
-1.20735,-1.04953,0.0279239,1,8
-0.4001,-0.347679,-0.122373,15,1
-1.22434,-1.06355,0.0849936,4,9
-1.20668,-1.04747,0.139798,4,10
-1.21743,-1.05644,0.197916,6,11
-1.72063,-1.48941,0.609778,1,15
-1.2655,-1.09235,0.0291804,1,8
-1.23088,-1.0621,0.0852029,4,9
-1.20109,-1.03566,0.138752,3,10
-1.21961,-1.05088,0.197672,6,11
-1.23762,-1.06039,0.0854123,4,9
-1.20621,-1.03276,0.138926,2,10
-1.2246,-1.04812,0.197916,6,11
-1.22762,-1.04442,0.0844702,4,9
-1.22936,-1.04553,0.141192,2,10
-1.21615,-1.03356,0.195966,6,11
-1.4294,-1.20836,0.0326709,1,8
-1.23584,-1.04399,0.0847843,3,9
-1.21644,-1.02688,0.139275,2,10
-1.2243,-1.03315,0.196697,6,11
-2.57622,-2.17092,0.654857,1,13
-2.32241,-1.95565,0.700947,1,14
-2.12527,-1.78901,0.744364,1,15
-1.47671,-1.23911,0.0336482,1,8
-1.25018,-1.04866,0.085517,2,9
-1.22002,-1.02263,0.139275,2,10
-1.22808,-1.02866,0.196697,4,11
-2.57927,-2.15813,0.653712,2,13
-2.34417,-1.96003,0.705446,1,14
-2.09148,-1.74813,0.730387,2,15
-1.48695,-1.23932,0.0337879,1,8
-1.26151,-1.05068,0.0860403,2,9
-1.22817,-1.02219,0.139798,2,10
-1.22843,-1.02204,0.19621,3,11
-2.92098,-2.42849,0.601647,1,12
-2.57886,-2.14329,0.651804,2,13
-2.36865,-1.96719,0.710845,1,14
-2.11541,-1.75562,0.736599,2,15
-1.47895,-1.22393,0.0335086,1,8
-1.29423,-1.07068,0.0880291,2,9
-1.2592,-1.04096,0.142935,2,10
-1.23811,-1.0228,0.197185,3,11
-2.90008,-2.3949,0.595703,3,12
-2.57421,-2.12428,0.648751,1,13
-2.36798,-1.95271,0.708596,1,14
-2.11525,-1.74368,0.734528,2,15
-1.52625,-1.25457,0.034486,1,8
-1.30876,-1.07503,0.0887618,2,9
-1.26898,-1.04161,0.143633,1,10
-1.22769,-1.00736,0.194991,1,11
-2.9069,-2.38351,0.59539,5,12
-2.66627,-2.18543,0.670121,1,13
-2.3669,-1.93867,0.706346,1,14
-2.13628,-1.74852,0.739705,2,15
-1.54921,-1.26441,0.0349048,1,8
-1.31696,-1.07447,0.0890758,4,9
-1.28478,-1.04747,0.145027,1,10
-1.31738,-1.07328,0.20864,1,11
-2.90866,-2.36886,0.594138,8,12
-2.3661,-1.92425,0.704097,1,14
-2.13906,-1.73899,0.73867,2,15
-1.33157,-1.07867,0.0898085,3,9
-1.25746,-1.01791,0.141541,1,10
-2.91998,-2.36118,0.594764,10,12
-2.37853,-1.92129,0.705896,1,14
-2.1331,-1.72181,0.734528,2,15
-1.34759,-1.08426,0.0906459,1,9
-2.93087,-2.35396,0.59539,11,12
-2.61208,-2.09641,0.65104,1,13
-2.3837,-1.91176,0.705446,1,14
-2.13729,-1.71351,0.734011,2,15
-2.94928,-2.35606,0.19783,0,9
-2.9329,-2.33879,0.594138,10,12
-2.6052,-2.07673,0.647606,2,13
-2.39612,-1.9087,0.707246,1,14
-2.15988,-1.71928,0.739705,2,15
-2.93285,-2.32538,0.196155,0,9
-2.98232,-2.36376,0.332935,1,10
-3.00334,-2.37871,0.470416,1,11
-2.9461,-2.3317,0.595077,10,12
-2.62511,-2.07691,0.650659,2,13
-2.3924,-1.89144,0.704097,1,14
-2.13888,-1.68979,0.730387,2,15
-2.91898,-2.29784,0.19469,0,9
-2.99096,-2.35281,0.332935,1,10
-3.01162,-2.36821,0.470416,1,11
-2.94334,-2.31286,0.592887,11,12
-2.63734,-2.07091,0.651804,2,13
-2.39779,-1.88146,0.703647,1,14
-2.18733,-1.7157,0.744881,2,15
-2.94272,-2.29993,0.195736,0,9
-2.99916,-2.34235,0.332935,1,10
-3.02028,-2.35716,0.470416,1,11
-2.94673,-2.29892,0.591948,11,12
-2.63681,-2.05566,0.649895,2,13
-2.41971,-1.88505,0.708146,1,14
-2.14148,-1.6677,0.727282,2,15
-0.418714,-0.325022,-0.122373,15,1
-2.94126,-2.2823,0.195108,1,9
-3.00731,-2.33187,0.332935,1,10
-3.02808,-2.34713,0.470416,1,11
-2.95786,-2.29104,0.592574,10,12
-2.64827,-2.05051,0.65104,2,13
-2.43057,-1.8806,0.709496,1,14
-2.14729,-1.66021,0.727282,2,15
-0.419846,-0.323559,-0.122373,15,1
-2.95831,-2.27985,0.195736,0,9
-3.01503,-2.32189,0.332935,1,10
-3.03626,-2.33655,0.470416,1,11
-2.97014,-2.28484,0.593512,11,12
-2.64918,-2.03646,0.649514,2,13
-2.42167,-1.86023,0.704997,1,14
-2.15585,-1.65544,0.728317,2,15
-0.420917,-0.322165,-0.122373,15,1
-2.96625,-2.26951,0.195736,0,9
-3.02312,-2.31135,0.332935,1,10
-3.04399,-2.32646,0.470416,1,11
-2.97652,-2.27326,0.5932,10,12
-2.66684,-2.03601,0.652185,2,13
-2.41853,-1.8451,0.702297,1,14
-2.19234,-1.67133,0.73867,2,15
-0.422039,-0.320693,-0.122373,15,1
-2.96779,-2.25431,0.195318,0,9
-3.03076,-2.30131,0.332935,1,10
-3.05209,-2.31582,0.470416,1,11
-2.975,-2.25569,0.591322,11,12
-2.66142,-2.0172,0.649132,2,13
-2.4234,-1.83547,0.701847,1,14
-2.18892,-1.65667,0.735564,2,15
-0.423156,-0.319218,-0.122373,15,1
-2.97564,-2.24393,0.195318,0,9
-2.95923,-2.23075,0.324219,1,10
-3.06016,-2.30516,0.470416,1,11
-2.98285,-2.24529,0.591322,10,12
-2.6653,-2.00554,0.648369,2,13
-2.42045,-1.81997,0.699148,1,14
-2.16071,-1.62349,0.724176,2,15
-0.424267,-0.317739,-0.122373,15,1
-2.99305,-2.24072,0.195946,0,9
-2.98614,-2.23473,0.326311,1,10
-3.06818,-2.29446,0.470416,1,11
-2.99225,-2.23605,0.591635,11,12
-2.68015,-2.00209,0.650277,2,13
-2.44709,-1.82666,0.704997,1,14
-2.19579,-1.63788,0.734011,2,15
-0.425374,-0.316256,-0.122373,15,1
-2.99123,-2.22311,0.195318,0,9
-3.0547,-2.26945,0.332935,1,10
-3.07618,-2.28374,0.470416,1,11
-3.00639,-2.2303,0.592887,11,12
-2.69028,-1.99507,0.65104,2,13
-2.45188,-1.81695,0.704547,1,14
-2.19062,-1.62216,0.730387,2,15
-0.426475,-0.31477,-0.122373,15,1
-2.97609,-2.19657,0.193852,0,9
-3.0626,-2.25877,0.332935,1,10
-3.08413,-2.27298,0.470416,1,11
-3.01377,-2.22032,0.592887,11,12
-2.67351,-1.9682,0.645316,2,13
-2.45507,-1.80607,0.703647,1,14
