x, y, z, intensity, ring
3.75484,-10.8679,-0.602596,60,6
3.93019,-11.3818,2.77995,38,14
4.28012,-12.4022,-0.22901,100,7
4.70917,-13.6532,3.86986,11,15
3.84567,-11.2004,0.206706,55,8
3.42434,-9.98463,0.553191,56,9
3.6339,-10.6017,0.980502,59,10
0.224705,-0.655936,-0.109817,24,3
4.14353,-12.1023,1.57065,7,11
1.70631,-4.98657,-0.647126,9,4
4.22196,-12.3454,2.0665,46,12
3.55043,-10.3818,-0.959933,34,5
3.64149,-10.6541,2.18858,42,13
3.91058,-11.4545,2.79434,29,14
4.32849,-12.6858,-0.233967,45,7
4.01427,-11.7716,3.33255,22,15
3.80012,-11.1948,0.206357,52,8
3.42538,-10.1024,0.559053,58,9
0.187234,-0.552208,-0.113341,16,2
3.61031,-10.6539,0.984163,53,10
0.22178,-0.654845,-0.109504,25,3
4.11654,-12.1618,1.5765,14,11
1.93062,-5.70705,-0.739747,16,4
4.12886,-12.2122,2.04178,16,12
1.87801,-5.55472,-0.512999,11,5
3.58354,-10.6054,2.17599,45,13
3.59772,-10.6535,-0.589303,64,6
4.1697,-12.3543,3.0103,34,14
3.62778,-10.7549,-0.19812,46,7
4.04166,-11.9888,3.39001,32,15
3.43403,-10.2336,0.188416,31,8
3.44469,-10.2772,0.568054,56,9
0.185306,-0.552858,-0.113341,16,2
3.60727,-10.7685,0.993575,46,10
0.213222,-0.636884,-0.106375,26,3
4.06839,-12.1591,1.57431,14,11
4.64973,-13.9127,2.32336,31,12
3.72985,-11.1603,-1.02948,9,5
3.54526,-10.6141,2.17522,43,13
3.76604,-11.2817,-0.623321,30,6
4.04699,-12.1304,2.95226,23,14
3.57061,-10.7087,-0.197038,20,7
3.40584,-10.2683,0.188835,32,8
0.167399,-0.504983,-0.122823,15,1
3.4559,-10.4314,0.575905,36,9
4.25791,-12.8597,1.18514,20,10
0.207274,-0.626372,-0.104498,27,3
4.0228,-12.1638,1.57309,7,11
1.79915,-5.44332,-0.703917,13,4
3.51312,-10.6352,1.77397,30,12
3.90584,-11.824,-1.08945,45,5
3.48726,-10.563,2.16225,45,13
3.9735,-12.05,2.92931,76,14
3.5282,-10.7059,-0.196758,26,7
3.81765,-11.591,3.26992,24,15
3.37123,-10.2839,0.188905,37,8
3.39585,-10.3712,0.571927,51,9
0.213069,-0.651499,-0.108566,25,3
3.98957,-12.2061,1.57675,39,11
3.40057,-10.4164,1.73548,10,12
5.38316,-16.4893,-1.51756,21,5
3.44671,-10.564,2.15996,42,13
3.54602,-10.8748,-0.599456,57,6
3.95496,-12.1361,2.94686,38,14
3.49515,-10.7315,-0.197003,24,7
3.7377,-11.483,3.23576,28,15
3.59415,-11.0946,0.203565,58,8
3.32642,-10.2804,0.566275,47,9
0.179506,-0.554768,-0.113341,16,2
0.212616,-0.657878,-0.109504,25,3
3.92864,-12.1633,1.56943,39,11
1.84648,-5.72022,-0.738041,30,4
4.04771,-12.5469,2.08809,3,12
4.37313,-13.5556,-1.24615,15,5
3.40018,-10.546,2.15385,62,13
3.46884,-10.7654,-0.592757,33,6
3.85404,-11.968,2.90277,55,14
3.45889,-10.7474,-0.197073,21,7
3.73309,-11.6063,3.26681,8,15
3.27557,-10.2329,0.187544,15,8
0.162101,-0.506709,-0.122823,15,1
3.30633,-10.3414,0.568997,51,9
0.177568,-0.555391,-0.113341,16,2
4.04054,-12.6454,1.16144,47,10
0.203107,-0.636035,-0.10575,13,3
3.88253,-12.1656,1.56797,54,11
1.82047,-5.70772,-0.735603,19,4
3.32657,-10.4361,1.73486,21,12
3.36006,-10.5412,-0.967952,23,5
3.29898,-10.3558,2.11264,47,13
3.50092,-10.9963,-0.604794,87,6
3.76497,-11.8328,2.86678,70,14
3.4159,-10.7423,-0.196758,20,7
3.66915,-11.5456,3.24611,15,15
3.22838,-10.208,0.18688,11,8
0.160331,-0.507271,-0.122823,15,1
3.26901,-10.3491,0.568787,30,9
0.175629,-0.556008,-0.113341,16,2
3.95259,-12.5208,1.14871,30,10
0.205046,-0.649927,-0.10794,25,3
3.90033,-12.3703,1.59259,18,11
1.80829,-5.73865,-0.738772,20,4
3.31547,-10.5281,-0.965686,28,5
3.24513,-10.3111,2.10119,46,13
3.3912,-10.7817,-0.592338,54,6
3.80545,-12.1062,2.92976,44,14
3.41554,-10.8724,-0.198923,20,7
3.67512,-11.7058,3.28752,41,15
3.19272,-10.2192,0.18688,3,8
3.23168,-10.3566,0.568578,56,9
0.173687,-0.556617,-0.113341,16,2
3.85963,-12.3766,1.13424,49,10
0.202188,-0.648753,-0.107627,25,3
3.96811,-12.7401,1.63841,41,11
1.72276,-5.53454,-0.711717,33,4
3.2349,-10.3989,-0.952787,24,5
3.21145,-10.3298,2.10272,47,13
3.77068,-12.1436,2.93561,25,14
3.38468,-10.9072,-0.199341,76,7
3.61249,-11.6485,3.26785,24,15
3.43376,-11.1201,0.203146,17,8
3.17377,-10.2909,0.564391,48,9
0.17184,-0.55719,-0.113341,16,2
3.77749,-12.2561,1.12204,23,10
0.201199,-0.653196,-0.108253,12,3
3.68756,-11.9791,1.53897,17,11
1.67579,-5.44726,-0.699774,6,4
3.20732,-10.432,1.7286,7,12
3.21094,-10.4438,-0.955924,46,5
3.17084,-10.3198,2.09852,28,13
3.86473,-12.5859,-0.689997,6,6
3.66579,-11.9455,2.88477,48,14
3.3309,-10.861,-0.198294,21,7
3.56026,-11.6161,3.25543,19,15
3.08926,-10.1298,0.184856,35,8
3.13899,-10.3058,0.5646,45,9
0.169894,-0.557787,-0.113341,16,2
3.75383,-12.3321,1.1278,42,10
0.197768,-0.650114,-0.107627,12,3
3.75081,-12.3376,1.58333,7,11
1.68909,-5.55944,-0.713423,9,4
3.14378,-10.3539,-0.946686,36,5
3.14278,-10.3571,2.10386,21,13
1.7394,-5.73584,-0.31412,6,6
3.65233,-12.0515,2.90727,42,14
4.1868,-13.8324,3.87245,18,15
3.05388,-10.1405,0.184856,52,8
3.10242,-10.3148,0.564496,41,9
0.167849,-0.558406,-0.113341,16,2
3.72338,-12.3871,1.13163,42,10
0.185268,-0.616747,-0.101995,14,3
3.36297,-11.2023,1.43611,3,11
1.65313,-5.51016,-0.706355,13,4
3.14985,-10.5123,-0.960108,34,5
3.08452,-10.3008,2.09012,27,13
1.71436,-5.72878,-0.313388,25,6
3.53035,-11.7972,2.84293,53,14
3.06649,-10.2537,-0.186811,100,7
3.00074,-10.098,0.183879,36,8
3.09074,-10.4141,0.569311,85,9
0.165801,-0.559017,-0.113341,16,2
0.189742,-0.640149,-0.10575,13,3
3.31061,-11.1764,1.43123,13,11
1.65433,-5.58851,-0.715617,5,4
3.38075,-11.4279,1.88754,40,12
3.11186,-10.5257,-0.960282,22,5
3.07623,-10.4119,2.11035,7,13
3.16047,-10.7038,-0.584907,16,6
3.51026,-11.8885,2.86183,19,14
3.54446,-12.0121,-0.218609,100,7
4.20246,-14.2512,3.98115,10,15
2.99474,-10.228,0.558529,56,9
0.163848,-0.559592,-0.113341,16,2
3.49707,-11.9513,1.08945,74,10
0.188504,-0.644632,-0.106375,13,3
3.27742,-11.2152,1.43465,37,11
1.66111,-5.68791,-0.72756,25,4
3.32833,-11.4042,1.88159,14,12
3.06003,-10.4849,-0.955576,28,5
1.65208,-5.66804,-0.30941,18,6
3.03149,-10.4141,-0.189324,100,7
3.38394,-11.6324,3.24611,11,15
3.02124,-10.44,0.189708,43,8
2.95015,-10.2077,0.556855,69,9
0.177157,-0.612971,-0.124026,14,2
3.49624,-12.1051,1.10235,26,10
0.190087,-0.658572,-0.108566,25,3
3.67398,-12.7372,1.62769,41,11
1.58846,-5.51056,-0.704161,17,4
3.28412,-11.4005,1.87909,30,12
1.63414,-5.67277,-0.516485,13,5
3.22669,-11.2085,2.26719,14,13
1.62677,-5.65457,-0.308363,12,6
2.97118,-10.3345,2.48256,26,14
2.98297,-10.3823,-0.188556,100,7
3.32572,-11.5829,3.22903,25,15
2.96885,-10.3947,0.188695,52,8
2.91176,-10.2083,0.556331,58,9
3.52879,-12.3797,1.12623,28,10
0.187787,-0.659231,-0.108566,25,3
4.82629,-16.9541,2.1644,27,11
1.62624,-5.71655,-0.729754,42,4
3.25241,-11.4404,1.88378,37,12
1.60888,-5.65927,-0.514742,35,5
3.18325,-11.2046,2.26414,19,13
3.23803,-11.405,-0.621333,43,6
2.94467,-10.3786,2.49066,65,14
2.93144,-10.3388,-0.187578,100,7
3.27473,-11.5573,3.21867,10,15
2.92116,-10.3646,0.187962,61,8
2.86529,-10.1799,0.554238,58,9
0.157979,-0.561278,-0.113341,16,2
3.43862,-12.2251,1.11106,23,10
0.187088,-0.665588,-0.109504,12,3
3.54578,-12.623,1.60989,50,11
1.61701,-5.76042,-0.734628,20,4
3.24714,-11.5753,1.90412,16,12
1.59073,-5.67061,-0.515265,52,5
3.25208,-11.6085,-0.6318,22,6
2.91735,-10.4207,2.49831,50,14
2.89641,-10.3528,-0.187648,22,7
3.91631,-14.0077,3.8973,20,15
3.02479,-10.8776,0.197073,30,8
2.83828,-10.2207,0.555913,42,9
0.156019,-0.561826,-0.113341,16,2
3.30322,-11.903,1.08073,49,10
0.177373,-0.639587,-0.105124,13,3
3.4736,-12.5339,1.59698,39,11
2.52409,-9.11392,-1.16117,26,4
1.56827,-5.66653,-0.514393,30,5
3.01913,-10.9162,2.20155,33,13
3.17377,-11.4831,-0.624368,40,6
2.89186,-10.4703,2.50775,52,14
2.84748,-10.3166,-0.186811,100,7
3.86327,-14.0064,3.89316,12,15
2.78781,-10.1766,0.552982,72,9
2.93391,-10.7172,0.972135,12,10
0.17097,-0.624959,-0.102621,14,3
3.42878,-12.5421,1.59649,39,11
2.52051,-9.22608,-1.17433,15,4
3.13035,-11.4662,1.88253,34,12
2.91016,-10.6597,-0.966731,46,5
2.97997,-10.9229,2.20079,17,13
3.11895,-11.4402,-0.621437,67,6
2.83019,-10.3882,2.48571,65,14
2.7999,-10.284,-0.186043,9,7
3.82856,-14.072,3.90765,13,15
2.8109,-10.3888,0.187858,33,8
2.84813,-10.541,0.572241,40,9
0.152093,-0.562901,-0.113341,16,2
3.27977,-12.1469,1.10078,21,10
0.172904,-0.64081,-0.105124,13,3
3.38653,-12.5598,1.59722,39,11
2.59003,-9.61241,-1.22235,26,4
3.14577,-11.6831,1.91632,37,12
2.87967,-10.6948,-0.968998,23,5
2.10167,-7.8108,1.57227,27,13
3.08522,-11.4741,-0.622693,60,6
2.82071,-10.4977,2.50955,28,14
2.76243,-10.288,-0.185938,100,7
3.79344,-14.1376,3.92214,27,15
2.62305,-9.83052,0.177596,65,8
2.81286,-10.5567,0.572555,48,9
3.22813,-12.1237,1.09764,30,10
0.170666,-0.64141,-0.105124,13,3
3.33298,-12.5351,1.59259,39,11
2.47847,-9.32786,-1.18506,26,4
3.15263,-11.8735,1.94573,40,12
2.61121,-9.83437,-0.890209,15,5
2.17761,-8.20709,1.6505,26,13
3.05795,-11.5331,-0.62531,57,6
2.80451,-10.5847,2.528,56,14
2.72803,-10.3033,-0.186043,91,7
3.73813,-14.1283,3.91593,18,15
2.56888,-9.76419,0.176234,37,8
2.77143,-10.5491,0.571613,54,9
0.14816,-0.563949,-0.113341,16,2
3.19641,-12.1753,1.1013,42,10
0.168426,-0.642001,-0.105124,13,3
4.2809,-16.3294,2.07275,9,11
2.42979,-9.27501,-1.17726,53,4
3.01561,-11.5194,1.88597,32,12
2.56274,-9.78946,-0.885328,17,5
2.91461,-11.1415,2.23857,14,13
3.03232,-11.5998,-0.628346,29,6
2.17257,-8.31681,1.98452,15,14
2.68296,-10.278,-0.185414,100,7
3.68294,-14.1188,3.90972,21,15
2.53427,-9.77116,0.176199,70,8
2.7401,-10.5799,0.572765,47,9
3.13941,-12.1305,1.09624,33,10
0.164205,-0.634935,-0.103873,13,3
3.24986,-12.5753,1.59478,18,11
1.62458,-6.29082,-0.797757,10,4
3.03362,-11.7555,1.92289,66,12
2.52457,-9.78291,-0.883933,3,5
2.1232,-8.2335,1.65279,19,13
2.37481,-9.21588,-0.498762,31,6
2.78206,-10.8041,2.57569,16,14
2.64408,-10.2757,-0.185205,100,7
3.65913,-14.2308,3.93716,11,15
2.49669,-9.76639,0.175955,62,8
2.75551,-10.7946,0.58386,16,9
0.1617,-0.633451,-0.127079,14,2
3.11576,-12.2147,1.10287,45,10
0.161988,-0.635505,-0.103873,13,3
3.20153,-12.5693,1.59259,14,11
1.59869,-6.28107,-0.795807,11,4
3.02812,-11.9058,1.94573,34,12
2.78453,-10.9561,2.19736,23,13
2.97437,-11.7116,-0.633265,32,6
1.89155,-7.45345,1.77531,12,14
2.87166,-11.3238,-0.203914,57,7
2.94554,-11.6236,3.21298,11,15
2.46453,-9.7828,0.176095,61,8
2.70271,-10.7441,0.580615,9,9
0.142246,-0.56547,-0.113341,16,2
3.04931,-12.1308,1.09433,49,10
0.162656,-0.647562,-0.10575,13,3
3.13299,-12.4822,1.58016,29,11
1.32756,-5.29307,-0.670038,13,4
3.01583,-12.0332,1.96482,40,12
2.42037,-9.65729,-0.871035,21,5
2.77727,-11.0895,2.22216,44,13
2.94123,-11.7529,-0.63494,32,6
2.07543,-8.2994,1.97507,17,14
4.28696,-17.1558,-0.308663,100,7
2.88529,-11.5551,3.19124,18,15
2.427,-9.77776,0.17585,63,8
3.00455,-12.1317,1.09346,31,10
0.16514,-0.667301,-0.108878,12,3
3.08749,-12.4853,1.57918,36,11
1.31194,-5.30924,-0.6715,35,4
2.88857,-11.6985,1.9085,39,12
2.38066,-9.64868,-0.869466,24,5
1.89859,-7.69489,1.54059,8,13
2.92648,-11.8698,-0.640697,71,6
2.68555,-10.9008,2.59189,24,14
3.3781,-13.7222,-0.246672,100,7
2.84725,-11.5745,3.19383,12,15
2.3919,-9.78229,0.175781,68,8
2.62243,-10.7413,0.579464,26,9
4.06614,-16.68,1.50204,29,10
0.158018,-0.648709,-0.10575,13,3
2.85738,-11.7303,1.48242,28,11
2.39102,-9.82327,-1.24136,22,4
2.85893,-11.7545,1.91601,38,12
2.33709,-9.61628,-0.865805,43,5
2.92017,-12.0338,-0.648966,52,6
1.91771,-7.90876,1.87879,10,14
4.84048,-19.9624,-0.358542,14,7
2.81047,-11.5994,3.19797,30,15
2.35322,-9.77932,0.175571,48,8
3.23255,-13.4439,0.724644,16,9
0.136218,-0.566952,-0.113341,16,2
3.8744,-16.138,1.45201,25,10
0.155753,-0.649257,-0.10575,13,3
2.97864,-12.426,1.56895,39,11
2.36055,-9.85513,-1.24429,19,4
2.79349,-11.6626,1.89943,34,12
2.26965,-9.48293,-0.85308,22,5
2.69741,-11.2789,2.25422,38,13
2.87722,-12.04,-0.648757,48,6
2.02452,-8.47835,2.01241,12,14
3.2251,-13.5062,-0.242379,23,7
2.7583,-11.5602,3.18451,27,15
2.73419,-11.5305,0.206846,8,8
3.19158,-13.4803,0.726004,14,9
0.134238,-0.567424,-0.113341,16,2
2.95039,-12.481,1.12204,45,10
0.151781,-0.64208,-0.104498,13,3
2.92281,-12.374,1.56115,39,11
2.61537,-11.0897,1.80463,17,12
2.20226,-9.34535,-0.840007,35,5
2.64964,-11.2438,2.24544,21,13
5.45024,-23.1463,-1.24622,22,6
2.56456,-10.8998,2.58514,26,14
3.18983,-13.568,-0.243287,21,7
2.706,-11.519,3.17053,36,15
3.88904,-16.6595,0.298611,61,8
3.14134,-13.4778,0.725272,10,9
2.92751,-12.5703,1.12919,45,10
0.146853,-0.631062,-0.102621,14,3
3.85745,-16.5895,2.09128,31,11
1.40615,-6.05213,-0.762902,19,4
2.56503,-11.0488,1.79649,12,12
2.14756,-9.25788,-0.831466,45,5
2.60239,-11.2186,2.23857,22,13
5.35137,-23.0874,-1.24204,32,6
1.86431,-8.04959,1.90758,40,14
3.14741,-13.6004,-0.243671,44,7
2.67666,-11.5754,3.18347,25,15
5.51771,-24.0145,0.430097,23,8
3.10141,-13.5198,0.726946,24,9
0.130273,-0.568347,-0.113341,16,2
2.87342,-12.546,1.12605,52,10
0.148064,-0.647001,-0.105124,13,3
2.64726,-11.5678,1.45707,13,11
1.29121,-5.64675,-0.71123,5,4
2.52469,-11.05,1.79524,8,12
2.21811,-9.71596,-0.871906,24,5
2.58701,-11.341,2.26109,31,13
3.00442,-13.1814,-0.708524,13,6
1.95034,-8.56369,2.02771,31,14
3.13056,-13.7459,-0.246079,22,7
2.62895,-11.5527,3.17467,9,15
5.41863,-23.9858,0.429224,43,8
4.21413,-18.6844,1.0038,7,9
0.128289,-0.568799,-0.113341,16,2
2.83618,-12.5851,1.12867,23,10
0.144069,-0.639805,-0.103873,13,3
2.59657,-11.5407,1.45244,37,11
1.26571,-5.63015,-0.708548,14,4
2.09566,-9.33716,-0.837218,35,5
2.52849,-11.2656,2.2443,35,13
3.1909,-14.2286,-0.76421,29,6
1.9166,-8.55333,2.02366,11,14
3.08714,-13.7885,-0.246637,61,7
2.60388,-11.6396,3.1959,10,15
3.01559,-13.5688,0.242623,15,8
2.79951,-12.6382,1.1325,45,10
0.140016,-0.632614,-0.102621,14,3
2.54855,-11.5148,1.44805,40,11
1.94044,-8.77451,-1.10341,20,4
2.41998,-10.952,1.77647,29,12
2.08625,-9.44948,-0.846631,26,5
2.51552,-11.4033,2.26986,31,13
2.01195,-9.12807,-0.489865,17,6
3.07555,-13.9652,-0.249604,24,7
2.96906,-13.5832,0.242693,15,8
3.6071,-16.5298,0.886676,17,9
0.124315,-0.56968,-0.113341,16,2
0.137917,-0.633075,-0.102621,14,3
2.49947,-11.4829,1.44293,30,11
2.07897,-9.55907,-1.20114,44,4
2.37754,-10.9411,1.77334,23,12
1.98213,-9.12147,-0.816649,37,5
2.48186,-11.4307,2.27368,15,13
2.00326,-9.23424,-0.495203,56,6
1.86716,-8.61412,2.03491,50,14
3.02552,-13.97,-0.2495,100,7
1.65597,-7.65268,2.09799,28,15
3.85741,-17.9473,0.320426,9,8
2.69252,-12.5488,0.672622,6,9
0.122325,-0.570111,-0.113341,16,2
2.54929,-11.8914,1.064,51,10
0.139844,-0.652868,-0.10575,13,3
2.46519,-11.5187,1.44635,37,11
2.04767,-9.57598,-1.20236,49,4
2.3414,-10.959,1.77491,12,12
1.94737,-9.11469,-0.815429,45,5
2.43415,-11.4029,2.26643,13,13
1.97268,-9.24899,-0.495622,91,6
1.86754,-8.76353,2.06865,35,14
2.98298,-14.0098,-0.250023,43,7
1.80129,-8.46714,2.31954,31,15
5.36844,-25.4091,0.453309,3,8
2.65158,-12.5718,0.673354,23,9
0.120334,-0.570534,-0.113341,16,2
2.4108,-11.4401,1.02286,25,10
0.137564,-0.653352,-0.10575,13,3
2.41761,-11.4923,1.44196,47,11
2.38385,-11.3613,2.25651,20,13
1.95555,-9.32814,-0.499494,100,6
1.8677,-8.91686,2.10329,52,14
2.92996,-14.0005,-0.249674,43,7
2.44546,-11.6956,3.20159,12,15
3.67714,-17.7095,0.315714,9,8
0.118342,-0.570951,-0.113341,16,2
2.37126,-11.4504,1.02303,23,10
0.132881,-0.642222,-0.103873,13,3
2.37025,-11.4656,1.43757,30,11
2.94404,-14.2538,-1.78709,16,4
2.26883,-10.9944,1.77803,23,12
1.901,-9.21197,-0.822924,47,5
2.3422,-11.36,2.2546,15,13
1.93909,-9.41316,-0.503681,94,6
1.70339,-8.27626,1.95078,15,14
1.96798,-9.57027,-0.170545,100,7
2.41629,-11.7608,3.21712,20,15
4.15169,-20.3517,0.362556,22,8
2.47846,-12.1712,0.650955,24,9
2.33167,-11.4605,1.02321,46,10
0.129064,-0.634939,-0.102621,14,3
2.32507,-11.4486,1.4344,30,11
1.81267,-8.9335,-1.11925,42,4
2.23201,-11.01,1.77929,21,12
1.87158,-9.24035,-0.824842,47,5
2.30838,-11.3969,2.26032,9,13
2.00724,-9.91906,-0.530373,66,6
1.79807,-8.89339,2.09474,26,14
1.94841,-9.64568,-0.171767,100,7
2.37904,-11.7881,3.2223,8,15
4.09752,-20.4504,0.364057,11,8
2.52371,-12.6184,0.674401,16,9
0.114254,-0.571783,-0.113341,16,2
2.29199,-11.4807,1.02425,12,10
0.126736,-0.635408,-0.102621,14,3
2.2785,-11.4235,1.43026,37,11
1.77333,-8.89889,-1.11413,8,4
2.19433,-11.0216,1.77991,11,12
1.83542,-9.22729,-0.823099,50,5
2.51581,-12.6709,-0.677018,58,6
2.61179,-13.1664,3.09893,14,14
2.2657,-11.4217,-0.203251,20,7
4.60105,-23.4085,0.416414,30,8
2.47398,-12.61,0.673459,9,9
0.112257,-0.572179,-0.113341,16,2
2.25037,-11.4808,1.02356,8,10
0.126036,-0.6436,-0.103873,13,3
2.23623,-11.4298,1.43001,37,11
1.74299,-8.91702,-1.11559,22,4
2.14332,-10.9753,1.77115,3,12
1.80702,-9.25319,-0.824842,56,5
2.2606,-11.5866,2.29467,36,13
6.10908,-31.37,7.3784,54,14
2.22305,-11.426,-0.203181,20,7
1.57177,-8.08607,2.20721,43,15
4.96934,-25.757,0.457881,6,8
3.18038,-16.5155,0.881442,12,9
0.110259,-0.572567,-0.113341,16,2
2.20878,-11.4808,1.02286,4,10
0.126772,-0.659555,-0.106375,13,3
2.53773,-13.2155,1.6523,30,11
1.72456,-8.98933,-1.12388,23,4
2.11169,-11.0176,1.77678,18,12
1.75821,-9.17335,-0.817172,52,5
2.22125,-11.6002,2.29581,21,13
2.20963,-11.5504,-0.616308,37,6
1.7545,-9.18,2.15773,7,14
2.46239,-13.007,0.23107,21,8
3.12828,-16.5559,0.883012,9,9
2.32576,-12.3205,1.09694,19,10
0.120076,-0.6367,-0.102621,14,3
2.471,-13.115,1.63866,22,11
1.69575,-9.00895,-1.12559,19,4
1.55993,-8.29539,1.33689,22,12
1.72397,-9.16768,-0.816126,50,5
2.30399,-12.2639,2.42556,33,13
1.81634,-9.67751,-0.516033,52,6
7.53157,-40.167,9.4349,14,14
1.87777,-10.0241,-0.178015,17,7
3.76931,-20.2978,0.360357,18,8
3.06828,-16.555,0.882384,12,9
0.106259,-0.573323,-0.113341,16,2
2.286,-12.3462,1.09851,33,10
0.117852,-0.637115,-0.102621,14,3
2.40717,-13.026,1.62647,37,11
1.65204,-8.94844,-1.1173,63,4
2.0426,-11.0748,1.78367,21,12
1.72701,-9.3637,-0.833035,27,5
2.26757,-12.3066,2.43243,31,13
1.78147,-9.6779,-0.515719,35,6
1.79188,-9.74401,2.2873,9,14
2.10003,-11.4309,-0.202867,22,7
1.44481,-7.87217,2.14457,51,15
3.721,-20.4348,0.362556,22,8
2.30625,-12.6904,0.675971,23,9
0.104257,-0.57369,-0.113341,16,2
2.24894,-12.3874,1.10147,38,10
0.119858,-0.660847,-0.106375,13,3
2.31603,-12.7823,1.59503,29,11
1.6215,-8.95806,-1.11779,13,4
2.00499,-11.0877,1.7846,45,12
1.71417,-9.47946,-0.842796,21,5
2.34885,-13.0022,2.56829,7,13
2.03393,-11.2702,-0.600189,50,6
1.81006,-10.0398,2.35524,4,14
2.05444,-11.4067,-0.202308,27,7
1.41083,-7.84104,2.13474,31,15
1.88017,-10.5339,0.186776,40,8
2.26018,-12.6886,0.675448,9,9
2.20778,-12.407,1.10252,19,10
0.116859,-0.657371,-0.10575,13,3
2.30263,-12.9662,1.61696,14,11
2.22097,-12.519,-1.56115,9,4
1.96869,-11.1083,1.78679,27,12
1.66438,-9.39122,-0.834429,19,5
2.19769,-12.413,2.45037,28,13
1.69681,-9.59373,-0.51059,77,6
1.72245,-9.7486,2.2855,27,14
2.00732,-11.3724,-0.201575,100,7
1.45893,-8.27398,2.25121,30,15
2.24078,-12.8259,0.682356,24,9
0.10025,-0.574404,-0.113341,16,2
2.16788,-12.4342,1.10426,19,10
0.111174,-0.638314,-0.102621,14,3
2.33358,-13.4123,1.67156,18,11
2.23436,-12.8553,-1.60209,6,4
4.16879,-23.985,3.8558,45,12
1.98026,-11.4051,-1.01275,22,5
2.15904,-12.4477,2.45571,32,13
1.66195,-9.59172,-0.510171,73,6
1.70237,-9.8352,2.3044,19,14
1.98971,-11.4953,-0.203635,100,7
1.45288,-8.40251,2.28485,63,15
1.80504,-10.5267,0.186427,8,8
2.90138,-16.956,0.901539,9,9
0.098244,-0.57475,-0.113341,16,2
2.12715,-12.4574,1.10566,9,10
0.111052,-0.650363,-0.104498,13,3
2.26439,-13.2751,1.65352,22,11
2.23873,-13.1385,-1.63646,8,4
2.31599,-13.6063,2.18602,19,12
1.5754,-9.26512,-0.822227,16,5
2.14967,-12.6425,2.49273,20,13
1.69485,-9.98873,2.33904,16,14
1.70229,-10.0432,-0.177805,79,7
1.77193,-10.5547,0.186811,10,8
2.18451,-13.0401,0.692928,7,9
2.12594,-12.7041,1.12692,26,10
0.109432,-0.654643,-0.105124,13,3
2.29978,-13.7724,1.71446,23,11
2.19416,-13.1541,-1.63744,87,4
2.27367,-13.6454,2.19102,33,12
1.54239,-9.26663,-0.821879,11,5
2.2393,-13.4536,2.6511,10,13
1.91438,-11.5139,-0.611703,27,6
1.64943,-9.93115,2.32419,21,14
1.89796,-11.4399,-0.202413,21,7
1.56822,-9.46257,2.57007,4,15
1.93121,-11.7546,0.207928,55,8
0.094229,-0.575422,-0.113341,16,2
2.23472,-13.6616,1.21112,21,10
0.104484,-0.639444,-0.102621,14,3
2.11532,-12.9458,1.61063,25,11
2.11274,-12.9442,-1.61038,9,4
2.21458,-13.5831,2.17976,26,12
2.39876,-14.7289,-1.30559,13,5
3.31318,-20.3661,4.01081,24,13
1.86544,-11.4795,-0.609505,27,6
1.62458,-10.0083,2.34084,24,14
1.8641,-11.4839,-0.203076,66,7
2.5073,-15.4634,4.19753,6,15
1.87639,-11.6885,0.206636,48,8
2.09967,-13.1087,0.695754,14,9
0.0922198,-0.575748,-0.113341,16,2
2.16183,-13.5119,1.19717,36,10
0.102251,-0.639804,-0.102621,14,3
2.06003,-12.9045,1.60453,21,11
2.09091,-13.1126,-1.63037,14,4
2.16354,-13.5833,2.17851,14,12
2.0822,-13.0726,-1.15813,11,5
2.27099,-14.274,2.80947,14,13
1.82661,-11.4938,-0.609923,43,6
1.58291,-9.97157,2.33094,53,14
1.80352,-11.3741,-0.201017,25,7
2.44668,-15.4477,4.1908,40,15
1.84984,-11.7859,0.208242,46,8
0.0902096,-0.576066,-0.113341,16,2
1.80429,-11.5351,1.02147,31,10
0.103066,-0.659674,-0.10575,13,3
1.99018,-12.7527,1.58479,7,11
1.61372,-10.3523,-1.28645,15,4
2.11672,-13.5947,2.17913,11,12
2.01786,-12.9597,-1.14749,26,5
1.97436,-12.6949,2.49731,24,13
2.0388,-13.1244,-0.696068,58,6
1.24959,-8.05326,1.88149,11,14
1.69949,-10.9654,-0.193687,23,7
1.62103,-10.5688,0.186636,12,8
2.18937,-14.3076,0.758557,24,9
0.0880975,-0.576393,-0.113341,16,2
1.76221,-11.5296,1.02042,42,10
0.0948007,-0.620975,-0.0994923,14,3
1.94625,-12.7635,1.58528,18,11
1.97272,-12.9522,-1.60868,17,4
2.07341,-13.6293,2.18351,16,12
1.97693,-13.0104,-1.15133,49,5
2.15023,-14.1676,2.78543,22,13
2.00265,-13.2107,-0.700255,74,6
1.54539,-10.1943,2.38043,29,14
1.67228,-11.0444,-0.194978,27,7
2.11114,-13.9592,3.7829,14,15
1.75953,-11.7593,0.207544,41,8
1.62296,-10.8724,0.576114,18,9
0.0983432,-0.660395,-0.10575,13,3
1.73066,-11.6357,1.4444,3,11
1.53552,-10.3361,-1.28304,11,4
2.02373,-13.6388,2.18383,33,12
1.92485,-12.988,-1.14871,54,5
2.09829,-14.1753,2.78543,35,13
1.92647,-13.0303,-0.690311,55,6
1.71807,-11.6207,2.71201,44,14
1.6277,-11.0228,-0.19449,24,7
2.05827,-13.9554,3.77979,25,15
1.72046,-11.7934,0.208033,48,8
1.58298,-10.8642,0.575382,59,9
0.0839707,-0.577008,-0.113341,16,2
1.69542,-11.6644,1.03123,8,10
0.0930842,-0.641202,-0.102621,14,3
1.80592,-12.4552,1.5453,21,11
1.82529,-12.5888,-1.56188,1,4
1.96366,-13.5598,2.17006,22,12
1.88749,-13.0498,-1.15359,35,5
2.04964,-14.1884,2.78657,25,13
1.87555,-12.9994,-0.688323,74,6
1.14959,-7.96774,1.85855,13,14
1.60291,-11.1234,-0.196165,21,7
1.90992,-13.2703,3.59241,11,15
1.68135,-11.799,0.208033,15,8
1.54638,-10.8654,0.575172,30,9
0.0820569,-0.577284,-0.113341,16,2
0.0909574,-0.641507,-0.102621,14,3
1.69113,-11.9423,1.48096,7,11
1.766,-12.471,-1.54652,13,4
1.91923,-13.5701,2.17068,28,12
1.76924,-12.5253,-1.1067,11,5
1.7009,-12.0567,2.36679,12,13
1.83773,-13.0431,-0.690311,45,6
1.1237,-7.97537,1.85945,31,14
1.57186,-11.1702,-0.196898,30,7
1.39405,-9.91917,2.68395,11,15
1.63918,-11.7827,0.207649,62,8
1.6835,-12.1168,0.641116,22,9
0.0801421,-0.577553,-0.113341,16,2
1.70362,-12.2931,1.08579,58,10
0.0888296,-0.641805,-0.102621,14,3
1.751,-12.6675,1.57016,18,11
1.11932,-8.09762,-1.00372,5,4
1.68388,-12.2134,-1.07864,11,5
1.65823,-12.0428,2.36298,20,13
1.76916,-12.8651,-0.680577,16,6
1.09805,-7.98484,1.8608,40,14
1.53971,-11.211,-0.197526,30,7
1.60345,-11.6903,3.16173,31,15
1.59956,-11.7841,0.207579,47,8
1.56167,-11.5504,1.01972,17,10
0.0840575,-0.62252,-0.0994923,14,3
1.68538,-12.4982,1.54847,29,11
1.31742,-9.76954,-1.21041,2,4
1.70449,-12.6566,2.0227,20,12
1.65904,-12.3354,-1.08892,23,5
1.61306,-12.0094,2.35535,32,13
1.71109,-12.7561,-0.674506,6,6
1.5734,-11.7296,2.73226,23,14
1.50199,-11.2121,-0.197457,100,7
1.5575,-11.6419,3.14724,32,15
1.55714,-11.7959,0.207684,31,8
0.0853333,-0.648171,-0.127079,14,2
1.75671,-13.3615,1.17904,82,10
0.087947,-0.66983,-0.107001,13,3
1.56136,-11.9079,1.47462,24,11
1.27423,-9.73123,-1.20504,1,4
1.65767,-12.6767,2.02489,31,12
1.61175,-12.3256,-1.08753,45,5
1.56013,-11.9471,2.34199,45,13
1.68757,-12.9405,-0.683926,29,6
1.46022,-11.2277,-0.197631,23,7
1.50657,-11.5999,3.1343,35,15
1.51749,-11.8131,0.207893,51,8
1.54578,-12.0667,0.637557,43,9
1.70551,-13.332,1.17591,60,10
0.0806019,-0.630944,-0.100744,14,3
1.61072,-12.6261,1.56285,39,11
1.04935,-8.23707,-1.01956,9,4
1.59795,-12.5609,2.00549,35,12
1.81387,-14.2582,-1.25748,15,5
1.51991,-11.9641,2.34428,35,13
1.65898,-13.0771,-0.690835,19,6
1.34851,-10.6447,2.47716,24,14
1.41901,-11.2169,-0.197352,20,7
1.46389,-11.5879,3.12964,33,15
1.48665,-11.9017,0.209359,54,8
1.50464,-12.0799,0.637975,43,9
1.65921,-13.3399,1.17608,17,10
0.0822946,-0.662586,-0.10575,13,3
1.47672,-11.9067,1.47316,66,11
1.02083,-8.24265,-1.0198,6,4
1.55919,-12.6076,2.01206,34,12
1.57188,-12.7103,-1.12047,9,5
1.38983,-11.2543,2.20423,7,13
1.85019,-15.0036,-0.792262,26,6
1.31468,-10.6764,2.48346,20,14
1.45453,-11.8291,-0.208033,20,7
1.42602,-11.614,3.13533,35,15
1.4504,-11.9505,0.210127,33,8
1.4531,-12.0078,0.633893,43,9
0.0700502,-0.578863,-0.113341,16,2
1.38007,-11.421,1.00647,31,10
0.077615,-0.643258,-0.102621,14,3
1.45082,-12.0418,1.48924,59,11
0.992529,-8.25011,-1.02029,2,4
1.51069,-12.5757,2.00612,41,12
1.42556,-11.867,-1.04569,26,5
1.44698,-12.081,-0.637661,61,6
1.42829,-11.9425,2.7768,57,14
1.41512,-11.85,-0.208312,100,7
1.59065,-13.3396,3.59966,12,15
1.40142,-11.8939,0.209045,29,8
1.41235,-12.0227,0.634417,41,9
0.0680292,-0.579104,-0.113341,16,2
1.33973,-11.4218,1.00613,10,10
0.0716925,-0.612134,-0.0976151,15,3
1.41339,-12.0863,1.49412,45,11
1.37192,-11.7493,-1.45244,5,4
1.46656,-12.5789,2.0058,42,12
1.3786,-11.8425,-1.04308,29,5
1.32802,-11.408,2.23247,39,13
1.42002,-12.2169,-0.64457,71,6
1.38502,-11.9339,2.77365,46,14
1.37835,-11.8946,-0.20901,22,7
1.58582,-13.7058,3.69697,19,15
1.36625,-11.9543,0.210022,52,8
0.0600961,-0.52664,-0.122373,15,1
1.37195,-12.0415,0.635149,43,9
0.0659062,-0.57935,-0.113341,16,2
1.53463,-13.5112,1.18968,30,10
0.07301,-0.643797,-0.102621,14,3
1.38685,-12.2292,1.51118,38,11
1.22436,-10.8132,-1.33618,11,4
1.42841,-12.635,2.01394,40,12
1.33949,-11.867,-1.04482,16,5
1.35854,-12.0546,2.35802,40,13
1.37591,-12.2279,-0.644884,91,6
1.34671,-11.9873,2.78489,46,14
1.3395,-11.9232,-0.209429,100,7
1.03601,-9.23622,2.49036,22,15
1.32463,-11.9792,0.210371,45,8
1.33022,-12.0682,0.636301,25,9
0.0638835,-0.579576,-0.113341,16,2
1.48462,-13.4907,1.18741,27,10
0.0686049,-0.624412,-0.0994923,14,3
1.32189,-12.0507,1.48851,38,11
1.18602,-10.8294,-1.33764,11,4
1.37179,-12.5459,1.99892,24,12
1.29145,-11.8303,-1.04116,29,5
1.31815,-12.0749,2.36107,35,13
1.33711,-12.2684,-0.646768,55,6
1.30739,-12.0152,2.79029,42,14
1.36534,-12.5681,-0.220668,100,7
1.00152,-9.23419,2.4888,41,15
1.2711,-11.8743,0.208452,31,8
1.29762,-12.1622,0.641011,7,9
1.64585,-15.4773,1.36172,42,10
0.0700696,-0.660018,-0.105124,13,3
1.3144,-12.3809,1.52873,59,11
0.0882915,-0.833043,-0.102858,5,4
1.32778,-12.5487,1.99861,26,12
1.27204,-12.0621,2.35764,25,13
1.30155,-12.3626,-0.651478,48,6
0.926626,-8.81626,2.0466,11,14
1.23325,-11.7336,-0.205938,27,7
0.934005,-8.9014,2.39822,10,15
2.17784,-21.0745,0.369816,19,8
1.25569,-12.1927,0.642372,7,9
1.59181,-15.4829,1.36172,72,10
0.0661517,-0.644538,-0.102621,14,3
1.28398,-12.5318,1.54677,54,11
0.827735,-8.09269,-0.998841,6,4
1.34638,-13.1862,2.09935,11,12
1.22554,-12.0235,2.34924,17,13
1.24929,-12.2777,-0.646768,84,6
0.889347,-8.75546,2.03176,15,14
1.19548,-11.7897,-0.206846,29,7
1.33309,-13.1697,3.54686,11,15
1.24667,-12.49,0.219098,18,8
0.0577095,-0.580224,-0.113341,16,2
1.5415,-15.5261,1.36503,42,10
0.0639015,-0.644765,-0.102621,14,3
1.24199,-12.554,1.54896,29,11
0.993985,-10.0651,-1.24185,5,4
1.01366,-10.2827,-0.903979,69,5
1.36871,-13.9092,2.71674,14,13
1.20486,-12.2661,-0.64593,94,6
1.07785,-10.9927,2.55005,13,14
1.15802,-11.8317,-0.207509,22,7
1.2764,-13.0647,3.51735,26,15
1.19271,-12.3868,0.217213,40,8
0.0507117,-0.527626,-0.122373,15,1
1.37369,-14.2924,0.752486,14,9
0.0556838,-0.580422,-0.113341,16,2
1.23128,-12.8578,1.13006,30,10
0.0616504,-0.644984,-0.102621,14,3
1.20174,-12.5958,1.55359,39,11
0.081676,-0.85765,-0.105783,5,4
0.975312,-10.2604,-0.901713,15,5
0.779593,-8.21662,1.60432,8,13
1.16072,-12.2563,-0.645198,100,6
0.820315,-8.67803,2.01241,37,14
1.12743,-11.927,-0.209115,22,7
1.22345,-12.967,3.48992,21,15
1.14867,-12.3588,0.216654,65,8
1.1518,-12.4396,0.654723,43,9
1.07531,-11.6578,1.02425,57,10
0.0595114,-0.645185,-0.102621,14,3
2.21293,-24.0371,2.96386,16,11
0.859154,-9.3501,-1.15288,1,4
1.24932,-13.6223,2.16662,10,12
0.943124,-10.3034,-0.9052,46,5
1.28653,-14.0551,2.74345,32,13
1.10644,-12.1109,-0.637347,74,6
1.12457,-12.3331,2.85913,29,14
1.11552,-12.2575,-0.214839,37,7
1.1663,-12.8403,3.45472,23,15
1.10428,-12.3488,0.21641,75,8
0.0471191,-0.527959,-0.122373,15,1
1.10306,-12.3839,0.651583,75,9
1.03629,-11.6573,1.02391,44,10
0.0590045,-0.665065,-0.10575,13,3
1.82384,-20.5981,2.53903,57,11
0.959835,-10.8618,-1.33886,4,4
1.83171,-20.7695,3.30233,15,12
1.02552,-11.6283,-1.02129,56,5
1.02763,-11.6755,2.27826,23,13
1.0701,-12.1823,-0.640906,97,6
1.08338,-12.3583,2.86408,23,14
1.07743,-12.3151,-0.215782,34,7
1.11374,-12.7558,3.43091,26,15
1.06014,-12.3407,0.2162,71,8
1.05676,-12.3519,0.649699,68,9
0.049704,-0.580964,-0.113341,16,2
0.9922,-11.6212,1.02042,46,10
0.0563473,-0.66133,-0.105124,13,3
1.05852,-12.4493,1.53409,38,11
0.786472,-9.26884,-1.14216,5,4
1.00308,-11.8462,-1.04012,24,5
0.700894,-8.29464,1.61806,12,13
1.01985,-12.0944,-0.636091,78,6
1.03844,-12.3406,2.85913,27,14
0.814396,-9.69839,-0.169882,78,7
0.880631,-10.5091,2.82579,45,15
1.01673,-12.3403,0.216131,73,8
1.01429,-12.3634,0.650117,70,9
0.0476758,-0.581134,-0.113341,16,2
0.95748,-11.696,1.02669,51,10
0.0501785,-0.614271,-0.0976151,15,3
1.01167,-12.4113,1.52897,73,11
0.762321,-9.37243,-1.15459,4,4
1.01056,-12.4513,1.97858,45,12
0.959658,-11.8498,-1.04012,40,5
0.954658,-11.7881,2.29887,40,13
0.949956,-11.7555,-0.618088,87,6
0.994418,-12.3325,2.85643,19,14
0.783745,-9.74103,-0.17058,100,7
0.975216,-12.3637,0.21648,62,8
0.0415878,-0.528423,-0.122373,15,1
0.917653,-11.6859,0.61432,63,9
0.0455455,-0.581305,-0.113341,16,2
0.918022,-11.7432,1.03053,51,10
0.048234,-0.61839,-0.0982409,15,3
0.967109,-12.3989,1.52702,73,11
0.729754,-9.37702,-1.15483,4,4
0.964339,-12.4193,1.97295,56,12
0.930907,-12.016,-1.05441,30,5
0.9296,-12.0264,2.34466,43,13
0.787074,-10.2056,-0.536444,56,6
0.947117,-12.3089,2.85013,68,14
0.746669,-9.70383,-0.169882,100,7
0.872602,-11.3664,3.05458,4,15
0.937392,-12.4669,0.218225,66,8
0.869832,-11.5955,0.6094,11,9
0.878213,-11.7622,1.03192,44,10
0.0493033,-0.661893,-0.105124,13,3
0.920187,-12.3826,1.52459,63,11
0.693914,-9.35983,-1.1524,1,4
0.920106,-12.4108,1.97107,67,12
0.654411,-8.84794,-0.776209,27,5
0.911164,-12.3487,2.40686,39,13
0.896161,-12.1743,-0.639755,61,6
0.910283,-12.3957,2.86948,61,14
0.880922,-11.9959,-0.209952,100,7
0.913673,-12.7153,0.222518,56,8
0.830776,-11.6184,0.610447,37,9
0.0414862,-0.581609,-0.113341,16,2
0.841107,-11.8208,1.0368,46,10
0.0459865,-0.64629,-0.102621,14,3
0.881229,-12.4153,1.52824,56,11
0.0563609,-0.796014,-0.097983,13,4
0.874411,-12.3805,1.96576,71,12
0.625201,-8.87402,-0.778301,37,5
0.815157,-11.5702,2.2546,11,13
0.722349,-10.2785,-0.540002,73,6
0.869853,-12.4084,2.87173,51,14
0.888842,-12.711,-0.222413,26,7
0.788928,-11.3106,3.03802,10,15
0.853329,-12.485,0.218434,66,8
0.036052,-0.52883,-0.122373,15,1
0.872868,-12.8367,0.674297,70,9
0.0394558,-0.58175,-0.113341,16,2
0.802444,-11.8315,1.0375,42,10
0.0437303,-0.646446,-0.102621,14,3
0.841761,-12.4757,1.53531,42,11
0.055048,-0.817993,-0.100664,12,4
0.831456,-12.3874,1.96638,63,12
0.589697,-8.80856,-0.772374,9,5
0.680824,-10.2233,-0.536967,70,6
0.819285,-12.3024,2.84653,63,14
0.945585,-14.2365,-0.249046,77,7
0.639369,-9.65163,2.59181,27,15
0.78524,-12.1428,0.212396,48,8
0.0341135,-0.528958,-0.122373,15,1
0.828249,-12.8777,0.676285,60,9
0.768256,-11.9775,1.05005,27,10
0.0403518,-0.630831,-0.100118,14,3
0.811068,-12.7145,1.56431,43,11
0.0524276,-0.824133,-0.101395,12,4
0.790676,-12.4633,1.97796,49,12
0.545835,-8.62773,-0.756338,13,5
0.782982,-12.4106,2.41717,33,13
0.638833,-10.154,-0.533199,100,6
0.78887,-12.5387,2.90052,57,14
0.885512,-14.1141,-0.246847,96,7
0.6023,-9.62691,2.58457,52,15
0.745476,-12.2234,0.213757,28,8
0.821299,-13.5445,0.711141,10,9
0.0352918,-0.582018,-0.113341,16,2
0.723148,-11.9604,1.04831,24,10
0.0373262,-0.619144,-0.0982409,15,3
0.774943,-12.8917,1.58576,36,11
0.0479816,-0.800541,-0.0984704,13,4
0.742867,-12.4306,1.97233,44,12
0.515358,-8.62362,-0.755815,28,5
0.720623,-12.0938,2.35496,30,13
0.606821,-10.2139,-0.536234,100,6
0.749361,-12.6505,2.92571,27,14
0.8425,-14.265,-0.24943,100,7
0.563379,-9.56734,2.568,27,15
0.705788,-12.2779,0.214665,81,8
0.0303275,-0.529189,-0.122373,15,1
0.775611,-13.5752,0.712606,4,9
0.0332601,-0.582137,-0.113341,16,2
0.680601,-11.9489,1.04709,58,10
0.0356127,-0.62716,-0.0994923,14,3
0.728817,-12.8745,1.58333,18,11
0.0448513,-0.794757,-0.0977392,13,4
0.732538,-13.0208,2.06556,38,12
0.487044,-8.65719,-0.758604,30,5
0.681371,-12.1492,2.36527,32,13
0.522691,-9.37837,2.16853,40,14
0.779831,-14.0362,-0.245381,100,7
0.657967,-12.1884,0.213059,57,8
0.784161,-14.6209,0.76735,22,9
0.63942,-11.9612,1.04796,24,10
0.0334233,-0.62728,-0.0994923,14,3
0.683344,-12.8671,1.58211,21,11
0.0410275,-0.775086,-0.0953018,22,4
0.735893,-13.9485,2.2123,9,12
0.457137,-8.66481,-0.759126,13,5
0.693699,-13.1925,2.56791,11,13
0.542085,-10.3436,-0.542829,35,6
0.690304,-13.2159,3.05529,14,14
0.508879,-9.77527,-0.170859,96,7
0.634304,-12.2257,3.28027,15,15
0.616627,-12.2146,0.213478,62,8
0.627018,-12.5071,0.656293,18,9
0.0291952,-0.582355,-0.113341,16,2
0.592295,-11.8559,1.03855,36,10
0.0318227,-0.63923,-0.10137,14,3
0.599674,-12.0882,1.48607,10,11
0.0394979,-0.799017,-0.0982267,20,4
0.427573,-8.68028,-0.760347,6,5
0.591823,-12.0575,2.34657,3,13
0.507635,-10.3793,-0.544608,52,6
0.629843,-12.9243,2.98735,42,14
0.471262,-9.70508,-0.169602,21,7
0.592371,-12.2433,3.28441,24,15
0.574549,-12.2286,0.213687,68,8
0.0248754,-0.531424,-0.122823,15,1
0.585682,-12.5591,0.65891,44,9
0.0271622,-0.582454,-0.113341,16,2
0.555715,-11.9614,1.04761,45,10
0.0279473,-0.603819,-0.0957379,15,3
0.562229,-12.1934,1.49875,38,11
0.0380748,-0.828895,-0.101883,23,4
0.596418,-13.0337,2.0665,24,12
0.399731,-8.73546,-0.765053,9,5
0.546959,-11.9987,2.33474,1,13
0.537448,-11.8355,-0.620914,27,6
0.434405,-9.60332,2.21937,55,14
0.436932,-9.69668,-0.169428,100,7
0.551709,-12.2916,3.29684,13,15
0.545587,-12.5462,0.219202,45,8
0.544593,-12.6249,0.662259,42,9
0.0251288,-0.582545,-0.113341,16,2
0.510024,-11.8717,1.03959,34,10
0.0263461,-0.615754,-0.0976151,15,3
0.518648,-12.1715,1.49582,52,11
0.0341712,-0.805223,-0.0989579,26,4
0.55175,-13.0555,2.06963,44,12
0.365701,-8.65319,-0.757732,15,5
0.400554,-9.59699,2.21757,27,14
0.421518,-10.1417,-0.177177,100,7
0.438181,-10.5871,2.83925,8,15
0.473743,-11.8467,0.206951,35,8
0.0211648,-0.531585,-0.122823,15,1
0.507246,-12.7964,0.671156,37,9
0.0230953,-0.582629,-0.113341,16,2
0.469682,-11.9012,1.04203,46,10
0.0237312,-0.603999,-0.0957379,15,3
0.475849,-12.1653,1.49485,59,11
0.0308196,-0.791452,-0.0972517,35,4
0.506329,-13.0613,2.07025,9,12
0.334646,-8.63252,-0.755815,42,5
0.503228,-13.04,2.53661,36,13
0.365948,-9.52589,-0.499599,100,6
0.479202,-12.531,2.89512,53,14
0.486369,-12.7768,-0.223181,100,7
0.431148,-11.8143,0.206357,47,8
0.0193091,-0.531656,-0.122823,15,1
0.471304,-13.0396,0.683822,24,9
0.0227533,-0.635664,-0.100744,14,3
0.432251,-12.1351,1.49095,63,11
0.0289005,-0.815361,-0.100177,43,4
0.305073,-8.64956,-0.757209,17,5
0.458394,-13.0613,2.54043,8,13
0.332555,-9.52312,-0.49939,94,6
0.435188,-12.5248,2.89332,53,14
0.384974,-11.1356,-0.19449,9,7
0.383837,-11.6319,0.203146,58,8
0.40949,-12.5421,0.657654,28,9
0.0190272,-0.582776,-0.113341,16,2
0.418466,-12.886,1.12797,47,10
0.0198965,-0.615996,-0.0976151,15,3
0.389124,-12.1127,1.48802,63,11
0.0254837,-0.7976,-0.097983,27,4
0.434141,-13.6627,2.16505,38,12
0.271967,-8.55897,-0.749191,41,5
0.298684,-9.50426,-0.498343,70,6
0.391464,-12.5262,2.89332,51,14
0.377593,-12.1503,-0.212186,20,7
0.324904,-10.5139,2.81854,9,15
0.343292,-11.6352,0.203181,55,8
0.371295,-12.7351,0.667702,31,9
0.0169928,-0.582839,-0.113341,16,2
0.369733,-12.7579,1.11664,19,10
0.0175187,-0.608164,-0.0963636,15,3
0.345817,-12.0783,1.48364,59,11
0.0228123,-0.801653,-0.0984704,6,4
0.394155,-13.9366,2.20823,46,12
0.235218,-8.31689,-0.727925,30,5
0.402778,-14.33,2.78657,29,13
0.270134,-9.67095,-0.507031,100,6
0.348117,-12.5412,2.89647,17,14
0.334903,-12.1415,-0.212012,21,7
0.35198,-12.842,3.44229,25,15
0.305379,-11.7402,0.204996,56,8
0.0137407,-0.531829,-0.122823,15,1
0.322485,-12.5666,0.658805,40,9
0.0149583,-0.582895,-0.113341,16,2
1.21276,-47.5827,4.1643,16,10
0.0150959,-0.596373,-0.0944864,16,3
0.302256,-12.0239,1.47681,52,11
0.0212028,-0.849355,-0.10432,5,4
0.347217,-14.007,2.21918,29,12
0.351208,-14.2685,2.77436,27,13
0.23374,-9.56402,-0.501379,31,6
0.300556,-12.3864,2.86048,14,14
0.294879,-12.2406,-0.213722,19,7
0.304981,-12.7524,3.41796,15,15
0.264936,-11.7652,0.205415,55,8
0.0118841,-0.531873,-0.122823,15,1
0.278706,-12.5717,0.659014,45,9
0.274995,-12.6028,1.10287,9,10
0.0133374,-0.616173,-0.0976151,15,3
0.259726,-11.9991,1.47364,59,11
0.15525,-7.35028,-0.643209,6,5
0.293442,-14.0087,2.72361,23,13
0.197606,-9.51289,-0.498657,49,6
0.254232,-12.3427,2.85013,23,14
0.251202,-12.1956,-0.212919,22,7
0.258652,-12.6645,3.39415,14,15
0.222981,-11.8281,0.206497,36,8
0.235545,-12.7303,0.667284,19,9
0.0107868,-0.582987,-0.113341,16,2
0.229651,-12.53,1.09642,42,10
0.011545,-0.635967,-0.100744,14,3
0.215459,-11.9841,1.47169,49,11
0.0130749,-0.734368,-0.0901833,8,4
0.418919,-23.7621,3.76413,2,12
0.127064,-7.20735,-0.630659,1,5
0.167343,-9.58707,1.86382,10,13
0.210581,-12.3103,2.84248,29,14
0.21466,-12.6783,-0.221331,20,7
0.214755,-12.816,3.43453,11,15
0.182369,-11.8728,0.207265,36,8
0.188828,-12.5793,0.659328,70,9
0.00875171,-0.583021,-0.113341,16,2
0.186266,-12.5547,1.09851,28,10
0.00920914,-0.628102,-0.0994923,14,3
0.171843,-11.8617,1.45658,27,11
0.0101705,-0.71059,-0.0872585,9,4
0.184615,-13.0579,2.06838,4,12
0.101707,-7.1938,-0.629439,32,5
0.184698,-13.2271,2.57134,25,13
0.119678,-8.67926,-0.454904,21,6
0.167421,-12.2974,2.83933,59,14
0.163471,-12.163,-0.212326,48,7
0.169582,-12.7839,3.42573,19,15
0.140803,-11.8634,0.20709,38,8
0.144343,-12.53,0.656712,44,9
0.00671658,-0.583048,-0.113341,16,2
0.128585,-11.334,0.991658,10,10
0.00688419,-0.616279,-0.0976151,15,3
0.131093,-11.9217,1.46389,38,11
0.00820551,-0.758261,-0.0931082,15,4
0.139033,-13.0585,2.06838,12,12
0.0772316,-7.25388,-0.634668,31,5
0.138298,-13.2061,2.56714,22,13
0.129383,-12.5641,-0.658491,19,6
0.124495,-12.2979,2.83933,61,14
0.118763,-11.9376,-0.208382,77,7
0.125033,-12.7921,3.4278,23,15
0.100113,-11.9498,0.208591,52,8
0.100891,-12.5663,0.658596,52,9
0.00468124,-0.583068,-0.113341,16,2
0.0888035,-11.3065,0.989218,55,10
0.00473299,-0.616299,-0.0976151,15,3
0.0974314,-12.9821,1.59405,39,11
0.00582063,-0.794016,-0.0974955,27,4
0.0933516,-13.0451,2.06619,17,12
0.050799,-7.0987,-0.621072,46,5
0.0922141,-13.2085,2.56753,18,13
0.0855524,-12.5685,-0.6587,32,6
0.0815149,-12.2904,2.83753,27,14
0.0652905,-10.1102,-0.176479,97,7
0.0804763,-12.8079,3.43194,17,15
0.058468,-11.964,0.208835,42,8
0.00250703,-0.532,-0.122823,15,1
0.0592855,-12.5806,0.659328,43,9
0.00264598,-0.583081,-0.113341,16,2
0.0575337,-13.1855,1.15359,27,10
0.00271405,-0.647918,-0.102621,14,3
0.0469362,-11.6921,1.43562,3,11
0.00297263,-0.77418,-0.0950581,22,4
0.0501811,-13.069,2.06994,20,12
0.0264275,-7.21041,-0.630833,30,5
0.046088,-13.2028,2.56638,23,13
0.0417192,-12.5807,-0.659328,52,6
0.0385144,-12.2595,2.83033,10,14
0.031229,-9.94044,-0.173512,100,7
0.0386291,-13.0187,3.48836,22,15
0.0156971,-9.99247,0.174419,10,8
0.000742816,-0.532006,-0.122823,15,1
0.0153703,-12.5807,0.659328,27,9
0.000610683,-0.583086,-0.113341,16,2
0.0116965,-13.4028,1.17259,50,10
0.000565435,-0.647923,-0.102621,14,3
0.00811735,-11.6267,1.42758,10,11
0.000428168,-0.817858,-0.10042,18,4
0.00455855,-13.0572,2.06806,24,12
0.00126241,-7.23038,-0.632576,21,5
0.002177,-12.4686,2.42366,22,13
-4.27261e-07,-9.77459,-0.512264,42,6
-0.00175755,-10.075,2.32599,19,14
-0.00346892,-9.94049,-0.173512,28,7
-0.0384384,-20.0209,0.349467,24,8
-0.0011101,-0.530056,-0.122373,15,1
-0.0285753,-12.5947,0.660061,40,9
-0.00132293,-0.583085,-0.113341,16,2
-0.0325644,-13.3271,1.16597,37,10
-0.00169626,-0.647921,-0.102621,14,3
-0.0372446,-13.3378,1.63768,37,11
-0.00257386,-0.867482,-0.106514,19,4
-0.0412001,-13.1145,2.07714,46,12
-0.0433679,-13.078,-1.14418,16,5
-0.0440944,-13.297,2.5847,22,13
-0.0336939,-9.65269,-0.505879,100,6
-0.0368404,-10.0515,2.3206,17,14
-0.0382459,-9.96041,-0.173861,24,7
-0.0525619,-13.094,3.50855,12,15
-0.0537933,-9.94234,0.173547,35,8
-0.0614155,-10.6632,0.558843,11,9
-0.00346004,-0.583076,-0.113341,16,2
-0.0816418,-13.3647,1.16928,20,10
-0.00407101,-0.647911,-0.102621,14,3
-0.0870218,-13.8497,1.70056,41,11
-0.00567876,-0.879378,-0.107976,18,4
-0.0838339,-12.6402,2.00205,41,12
-0.0541652,-7.95742,-0.6962,5,5
-0.0939269,-13.4539,2.61523,31,13
-0.0723456,-10.1099,-0.529849,100,6
-0.0731382,-9.97728,2.3035,9,14
-0.0729105,-9.94622,-0.173617,28,7
-0.0972971,-12.9643,3.47387,20,15
-0.188924,-20.816,0.363359,18,8
-0.00490307,-0.530035,-0.122373,15,1
-0.1008,-10.6948,0.560518,21,9
-0.126398,-13.1671,1.15202,55,10
-0.00633256,-0.647893,-0.102621,14,3
-0.137072,-13.7778,1.69179,30,11
-0.00922332,-0.911111,-0.111876,10,4
-0.134086,-13.021,2.06243,48,12
-0.0823305,-7.99504,-0.699512,20,5
-0.140622,-13.4279,2.61027,32,13
-0.110081,-10.3392,-0.541887,45,6
-0.219049,-20.2423,4.67358,15,14
-0.108661,-9.8819,-0.1725,78,7
-0.143562,-12.8518,3.44385,22,15
-0.244649,-19.4675,0.339833,2,8
-0.0062566,-0.491043,-0.113375,16,1
-0.137666,-10.6585,0.558634,18,9
-0.0075306,-0.583038,-0.113341,16,2
-0.172386,-13.1686,1.1522,50,10
-0.150937,-11.2306,1.37907,35,11
-0.0130792,-0.960696,-0.11797,8,4
-0.179458,-13.0145,2.06149,50,12
-0.114827,-8.3274,-0.728622,15,5
-0.1209,-8.55141,-0.448205,32,6
-0.143656,-10.0369,2.31745,17,14
-0.14495,-10.0054,-0.174664,100,7
-0.187459,-12.7856,3.42625,24,15
-0.157777,-9.82524,0.171522,28,8
-0.00816047,-0.502709,-0.116075,16,1
-0.204686,-12.4752,0.653885,16,9
-0.00956568,-0.583008,-0.113341,16,2
-0.216964,-13.0842,1.14488,20,10
-0.191618,-11.3174,1.3898,39,11
-0.0165005,-0.964614,-0.118457,8,4
-0.215157,-12.4509,1.97233,42,12
-0.144375,-8.35483,-0.731062,6,5
-0.150749,-8.55093,-0.448205,39,6
-0.178273,-10.013,2.31205,8,14
-0.175922,-9.78493,-0.170824,22,7
-0.230931,-12.7211,3.40916,21,15
-0.196333,-10.0426,0.175327,47,8
-0.268062,-13.4708,0.706117,46,9
-0.260836,-12.9937,1.13703,54,10
-0.231446,-11.3325,1.39175,35,11
-0.0197858,-0.960581,-0.11797,6,4
-0.258658,-12.4521,1.97264,47,12
-0.212432,-10.2267,-0.894915,5,5
-0.259108,-12.3697,2.40496,44,13
-0.181609,-8.59828,-0.450717,21,6
-0.420185,-19.7304,4.55616,38,14
-0.210204,-9.79025,-0.170929,25,7
-0.274623,-12.6874,3.40036,26,15
-0.230051,-9.98383,0.174315,97,8
-0.0113984,-0.49095,-0.113375,16,1
-0.317323,-13.5657,0.711141,38,9
-0.0136356,-0.582927,-0.113341,16,2
-0.487755,-20.6972,1.81127,34,10
-0.486094,-20.3255,2.49637,27,11
-0.024047,-0.998212,-0.122601,1,4
-0.299919,-12.3602,1.95825,21,12
-0.255026,-10.435,-0.913218,11,5
-0.301518,-12.3373,2.39885,44,13
-0.210344,-8.54568,-0.447996,25,6
-0.483596,-19.5087,4.50532,30,14
-0.244677,-9.80145,-0.171138,70,7
-0.322064,-12.8119,3.43401,23,15
-0.264794,-9.97897,0.174245,65,8
-0.0131121,-0.490907,-0.113375,16,1
-0.367788,-13.6803,0.717212,52,9
-0.0157721,-0.582873,-0.113341,16,2
-0.30483,-11.1931,0.979631,12,10
-0.314634,-11.4794,1.41003,6,11
-0.0297207,-1.0775,-0.13235,1,4
-0.359395,-12.9476,2.05148,7,12
-0.231313,-8.28113,-0.724787,6,5
-0.347066,-12.3479,2.40114,44,13
-0.277574,-9.8146,-0.514567,87,6
-0.552601,-19.4191,4.48507,29,14
-0.343279,-12.0633,-0.210651,100,7
-0.367946,-12.8512,3.44488,24,15
-0.302211,-10.0059,0.174733,71,8
-0.0160947,-0.529813,-0.122373,15,1
-0.0178066,-0.582815,-0.113341,16,2
-0.396952,-12.9185,1.13076,52,10
-0.346471,-11.1489,1.36957,19,11
-0.0320577,-1.02579,-0.126013,4,4
-0.2616,-8.27823,-0.724613,8,5
-0.392769,-12.429,2.41717,42,13
-0.322046,-10.135,-0.531419,87,6
-0.316507,-9.90624,2.2882,14,14
-0.379913,-11.8261,-0.206532,19,7
-0.414983,-12.8478,3.44436,33,15
-0.338822,-10.0548,0.175606,73,8
-0.0179439,-0.529754,-0.122373,15,1
-0.720049,-21.1487,1.109,16,9
-0.0199426,-0.582745,-0.113341,16,2
-0.442861,-12.8752,1.1271,45,10
-0.385659,-11.1555,1.37054,42,11
-0.0366031,-1.05345,-0.129425,15,4
-0.482301,-13.8113,2.18883,23,12
-0.437768,-12.4118,2.41412,27,13
-0.468732,-13.1593,3.03999,21,14
-0.420197,-11.7967,-0.206043,21,7
-0.460034,-12.8521,3.44592,10,15
-0.435631,-11.7681,0.205554,27,8
-0.0197006,-0.529691,-0.122373,15,1
-0.756542,-20.2461,1.06179,11,9
-0.0217732,-0.58268,-0.113341,16,2
-0.479048,-12.7602,1.11716,57,10
-0.427312,-11.2772,1.38565,26,11
-0.0393412,-1.03348,-0.126988,33,4
-0.772596,-20.2032,3.20221,37,12
-0.0668472,-1.74804,-0.153045,1,5
-0.477814,-12.4379,2.41946,45,13
-0.393566,-10.1984,-0.534873,3,6
-0.503426,-12.9864,3.0004,29,14
-0.459002,-11.7873,-0.205903,100,7
-0.501669,-12.8254,3.43919,19,15
-0.478731,-11.8165,0.206427,35,8
-0.0199649,-0.490676,-0.113375,16,1
-0.023807,-0.5826,-0.113341,16,2
-0.521951,-12.7187,1.11368,59,10
-0.463225,-11.1923,1.37542,45,11
-0.0436079,-1.04921,-0.128938,60,4
-0.854978,-20.4846,3.24727,29,12
-0.0687946,-1.64826,-0.14433,5,5
-0.52057,-12.4204,2.41641,24,13
-0.551717,-13.0547,3.01659,12,14
-0.499382,-11.7676,-0.205589,28,7
-0.546434,-12.8236,3.43919,20,15
-0.51549,-11.7129,0.204647,45,8
-0.0258406,-0.582514,-0.113341,16,2
-0.562886,-12.6391,1.10688,52,10
-0.5006,-11.1529,1.37079,55,11
-0.0471807,-1.04707,-0.128694,61,4
-0.936027,-20.6926,3.28074,24,12
-0.0741874,-1.64005,-0.143633,21,5
-0.937613,-20.6479,4.01767,44,13
-0.0760342,-1.66798,-0.0875057,1,6
-1.5752,-34.4235,7.95562,11,14
-0.591729,-12.8332,3.44229,20,15
-0.553907,-11.6591,0.203739,13,8
-0.0252463,-0.529456,-0.122373,15,1
-2.28246,-47.6919,2.50229,7,9
-0.0278738,-0.58242,-0.113341,16,2
-0.606048,-12.6172,1.10513,16,10
-0.537225,-11.1035,1.36494,42,11
-0.0497763,-1.02508,-0.126013,50,4
-0.0795239,-1.63182,-0.142935,37,5
-0.99779,-20.4013,3.97035,11,13
-0.0803872,-1.63778,-0.0859357,15,6
-1.02145,-20.7367,4.79326,37,14
-0.084908,-1.71764,-0.0300181,1,7
-0.636904,-12.8388,3.44436,20,15
-0.0270944,-0.529364,-0.122373,15,1
-1.76114,-34.2917,1.79952,7,9
-0.0299066,-0.582319,-0.113341,16,2
-0.988458,-19.1812,1.68036,10,10
-0.574747,-11.0778,1.36201,37,11
-0.0537669,-1.03283,-0.126988,29,4
-1.05388,-20.1766,3.20002,6,12
-0.0851915,-1.62555,-0.142412,48,5
-1.0915,-20.8271,4.05393,10,13
-0.0859986,-1.63549,-0.085831,42,6
-1.10009,-20.8518,4.8207,46,14
-0.0874151,-1.65144,-0.0288663,12,7
-0.0978453,-1.79506,0.0313794,1,8
-0.028942,-0.529267,-0.122373,15,1
-0.0320407,-0.582206,-0.113341,16,2
-1.07468,-19.4659,1.70564,24,10
-0.615277,-11.1094,1.36616,26,11
-0.0569316,-1.02471,-0.126013,11,4
-1.17234,-21.0347,3.33675,26,12
-0.0896417,-1.60336,-0.140495,52,5
-1.14584,-20.4309,3.9776,11,13
-0.0913195,-1.6232,-0.0852029,56,6
-1.24997,-22.1492,5.12169,46,14
-0.0919398,-1.62916,-0.0284823,34,7
-1.64761,-29.105,7.81116,5,15
-0.0945506,-1.625,0.0284125,5,8
-0.0308817,-0.529157,-0.122373,15,1
-0.100604,-1.7187,0.0902272,1,9
-0.0340728,-0.58209,-0.113341,16,2
-1.20299,-20.4903,1.79576,3,10
-0.774433,-13.1125,1.61282,36,11
-0.061039,-1.03044,-0.126744,6,4
-1.24123,-20.8923,3.31485,57,12
-0.0953563,-1.60503,-0.140669,52,5
-1.89071,-31.7308,6.17878,10,13
-0.0966276,-1.61689,-0.0848889,59,6
-1.32541,-22.1136,5.11449,25,14
-0.0980302,-1.63081,-0.0285172,46,7
-0.673575,-11.1729,2.9992,10,15
-0.100961,-1.63664,0.0286219,22,8
-0.0327286,-0.529046,-0.122373,15,1
-0.103882,-1.67448,0.0879244,5,9
-0.821189,-13.1256,1.61477,7,11
-0.0641383,-1.0223,-0.125769,6,4
-1.26615,-20.1249,3.19377,19,12
-0.100708,-1.60071,-0.140321,51,5
-1.34333,-21.2924,4.14704,6,13
-0.101514,-1.60459,-0.0842609,60,6
-1.34991,-21.2784,4.92238,45,14
-0.103342,-1.62447,-0.0284125,51,7
-0.715155,-11.2109,3.01007,9,15
-0.106413,-1.63229,0.0285521,41,8
-0.0345751,-0.528929,-0.122373,15,1
-0.108262,-1.65619,0.0869824,21,9
-0.111057,-1.68989,0.148165,1,10
-0.0675281,-1.02208,-0.125769,6,4
-1.33014,-20.0792,3.1872,16,12
-0.106691,-1.60631,-0.140844,52,5
-1.36716,-20.5294,3.99936,20,13
-0.106849,-1.60024,-0.0840516,63,6
-1.42488,-21.3399,4.93768,41,14
-0.108995,-1.62811,-0.0284823,52,7
-0.760477,-11.3299,3.04268,10,15
-0.111962,-1.63392,0.028587,57,8
-0.112932,-1.64386,0.0863543,46,9
-0.114739,-1.66168,0.145724,11,10
-0.0447456,-0.646377,-0.102621,14,3
-0.0700925,-1.00997,-0.124307,6,4
