x, y, z, intensity, ring
9.37859,-5.633,2.52575,20,14
10.9678,-6.58751,-0.223321,9,7
9.6358,-5.78977,3.01214,26,15
0.413632,-0.249322,-0.12941,15,0
11.9358,-7.1973,0.243287,28,8
0.453871,-0.273792,-0.122373,15,1
6.59106,-3.97598,0.403406,25,9
0.559737,-0.337788,-0.127079,28,2
7.04949,-4.25588,0.720429,43,10
4.32029,-2.60925,-0.79938,53,3
10.0771,-6.08848,1.44561,20,11
4.16394,-2.51681,-0.597404,53,4
6.10461,-3.6898,1.12977,16,12
12.4853,-7.54944,-1.27648,27,5
13.0775,-7.91065,2.9709,16,13
9.01021,-5.45248,-0.551935,56,6
7.31987,-4.43132,-0.149358,40,7
9.13137,-5.53015,2.86047,11,15
11.999,-7.28979,0.245067,22,8
0.469613,-0.285417,-0.126872,15,1
6.64029,-4.03736,0.407278,28,9
0.545136,-0.331578,-0.124026,29,2
7.06693,-4.30014,0.723741,58,10
4.22724,-2.57222,-0.783737,27,3
9.23276,-5.62023,1.32716,6,11
4.13862,-2.52028,-0.594966,40,4
9.00174,-5.48391,1.66947,46,12
12.0948,-7.37108,-1.23918,25,5
9.44399,-5.75785,-0.579673,16,6
9.30176,-5.67336,2.5154,75,14
7.24119,-4.41831,-0.148066,73,7
9.20105,-5.61634,2.88842,11,15
6.62372,-4.05584,0.13557,50,8
0.451997,-0.276875,-0.122373,15,1
8.57091,-5.25226,0.526814,36,9
0.545708,-0.33441,-0.124407,29,2
7.21739,-4.42456,0.740649,39,10
4.28222,-2.62621,-0.795626,13,3
9.31968,-5.71782,1.34251,18,11
8.08702,-4.9635,-1.16507,16,4
9.00274,-5.5277,1.67322,9,12
9.29081,-5.70457,-0.953832,22,5
8.94988,-5.49739,2.04166,29,13
9.40341,-5.77823,-0.578417,20,6
9.32341,-5.73131,2.52665,37,14
11.8146,-7.26556,-0.2421,35,7
9.29986,-5.72131,2.92569,12,15
6.57208,-4.05583,0.134802,15,8
0.451027,-0.278451,-0.122373,15,1
8.60521,-5.31468,0.530059,51,9
0.56124,-0.346629,-0.128224,28,2
6.6307,-4.0968,0.681907,31,10
4.38057,-2.70761,-0.815649,28,3
7.46945,-4.61863,1.0783,32,11
4.33532,-2.68173,-0.625921,30,4
8.99851,-5.56845,1.67604,37,12
8.74394,-5.41091,-0.899622,22,5
8.68358,-5.37566,1.98518,4,13
9.04528,-5.60176,-0.557587,81,6
9.49054,-5.8798,2.57749,22,14
11.6634,-7.2288,-0.239517,79,7
9.22729,-5.72116,2.90913,17,15
6.6275,-4.12205,0.136233,9,8
0.450053,-0.280024,-0.122373,15,1
0.556633,-0.346608,-0.12746,28,2
6.67894,-4.15889,0.688356,15,10
3.89324,-2.42521,-0.726482,43,3
7.20225,-4.48824,1.04198,38,11
4.16759,-2.59813,-0.60301,45,4
10.3585,-6.46013,1.93353,45,12
8.73757,-5.45136,-0.901016,22,5
8.67048,-5.41161,1.9867,6,13
9.22121,-5.75758,-0.569729,100,6
9.36582,-5.84787,2.54915,22,14
7.73387,-4.83078,-0.159166,58,7
9.42024,-5.88642,2.97642,11,15
11.9761,-7.50968,0.246742,6,8
0.449023,-0.281672,-0.122373,15,1
10.2553,-6.43564,0.634521,3,9
0.538732,-0.338208,-0.123644,29,2
7.16313,-4.49691,0.739952,35,10
3.886,-2.44052,-0.726795,60,3
7.23786,-4.54735,1.04954,26,11
4.43367,-2.78663,-0.642983,28,4
4.31407,-2.71356,-0.445889,3,5
9.76981,-6.15,2.66522,28,14
7.71441,-4.85803,-0.159131,67,7
9.39697,-5.91988,2.9759,4,15
11.9029,-7.52467,0.2458,15,8
0.447988,-0.283316,-0.122373,15,1
0.55082,-0.348483,-0.126697,28,2
7.13986,-4.51887,0.739255,22,10
3.86701,-2.4484,-0.724917,40,3
7.23792,-4.58447,1.05198,26,11
4.04111,-2.56061,-0.58741,33,4
8.94873,-5.67027,1.67792,8,12
4.27765,-2.71154,-0.4431,26,5
9.34779,-5.92771,2.15156,57,13
11.2694,-7.14901,-0.699418,48,6
9.7143,-6.16488,2.65622,26,14
7.83924,-4.97493,-0.162063,93,7
11.3921,-7.23243,3.6157,10,15
6.5765,-4.18808,0.136094,9,8
0.447046,-0.2848,-0.122373,15,1
7.14305,-4.55238,0.443914,8,9
0.542979,-0.346182,-0.125171,29,2
7.04174,-4.49127,0.730714,24,10
4.06206,-2.59081,-0.763087,26,3
7.4168,-4.7323,1.08025,27,11
4.07109,-2.59857,-0.593016,49,4
7.41049,-4.73192,1.39258,20,12
7.94697,-5.07644,-0.825016,8,5
9.41908,-6.01681,2.17255,23,13
11.2439,-7.18526,-0.699313,29,6
16.4453,-10.5132,4.50622,16,14
7.86899,-5.03243,-0.16304,100,7
9.33263,-5.97076,2.96865,8,15
6.40701,-4.11165,0.132883,15,8
0.43293,-0.277936,-0.118774,16,1
0.558347,-0.35859,-0.128987,27,2
11.0515,-7.10036,1.14924,12,10
4.20587,-2.70323,-0.791871,47,3
7.22825,-4.64758,1.05514,9,11
4.24731,-2.73196,-0.620071,43,4
4.1217,-2.65219,-0.428806,13,5
9.38811,-6.04327,2.17026,74,13
7.44392,-4.7936,-0.464011,43,6
12.1426,-7.82235,3.33467,31,14
11.2581,-7.25257,-0.233758,100,7
9.96534,-6.44194,0.207125,38,8
0.445097,-0.287836,-0.122373,15,1
6.1879,-4.00313,0.386239,10,9
0.547203,-0.354137,-0.126697,28,2
8.99957,-5.82654,0.93797,34,10
3.91001,-2.53144,-0.737745,15,3
7.23279,-4.68448,1.05807,26,11
4.24989,-2.75359,-0.621777,25,4
8.92633,-5.78576,1.6848,113,12
3.95695,-2.56575,-0.412595,25,5
9.40756,-6.10001,2.17942,28,13
7.16994,-4.65088,-0.447891,50,6
9.59091,-6.22365,2.63958,24,14
7.06469,-4.58611,-0.147019,8,7
9.25613,-6.011,2.95727,19,15
10.0365,-6.54524,0.20915,12,8
0.463523,-0.302398,-0.127772,14,1
9.1523,-5.97314,0.572765,37,9
0.539263,-0.351943,-0.125171,29,2
8.98881,-5.86868,0.93919,85,10
4.14129,-2.70482,-0.783424,40,3
7.19731,-4.70262,1.05563,54,11
4.06932,-2.65984,-0.596916,64,4
8.83029,-5.77398,1.67103,49,12
3.83368,-2.50678,-0.400742,45,5
9.71323,-6.35374,2.25613,74,13
7.23478,-4.7343,-0.453125,43,6
11.2729,-7.37961,3.11062,14,14
9.32302,-6.10546,-0.194525,84,7
9.11558,-5.97189,2.92,61,15
7.3615,-4.83744,0.153756,62,8
0.420127,-0.276182,-0.116075,16,1
6.1727,-4.05934,0.387181,7,9
0.53475,-0.351666,-0.124407,29,2
9.41269,-6.19239,0.985731,19,10
4.03611,-2.65628,-0.765278,57,3
7.19246,-4.73535,1.05734,52,11
4.00032,-2.63472,-0.588142,34,4
11.154,-7.34915,2.11562,16,12
3.83156,-2.52453,-0.401439,53,5
9.80246,-6.46108,2.28208,25,13
7.1315,-4.70236,-0.447682,47,6
9.61714,-6.34374,2.65982,50,14
8.45211,-5.57737,-0.176758,100,7
9.16561,-6.0505,2.94277,12,15
7.32123,-4.84765,0.153267,12,8
0.441905,-0.292713,-0.122373,15,1
0.530246,-0.351362,-0.123644,29,2
7.42314,-4.92072,0.779172,9,10
3.99389,-2.64851,-0.75902,51,3
7.1825,-4.76482,1.05831,28,11
3.83067,-2.5422,-0.564499,47,4
9.20119,-6.10863,1.74925,29,12
3.84762,-2.55442,-0.404054,38,5
7.50988,-4.98766,1.75239,42,13
7.05183,-4.68522,-0.443704,39,6
9.59493,-6.37727,2.65982,18,14
8.42925,-5.60463,-0.176688,8,7
7.84987,-5.2372,0.164716,18,8
0.440881,-0.294253,-0.122373,15,1
0.545344,-0.364112,-0.12746,14,2
3.85158,-2.57354,-0.733678,33,3
7.23019,-4.83288,1.06782,35,11
3.80527,-2.54452,-0.562061,29,4
9.15354,-6.12314,1.74424,77,12
3.93804,-2.6343,-0.414513,35,5
7.48752,-5.01057,1.75125,55,13
7.03709,-4.71092,-0.443809,54,6
9.55966,-6.40205,2.65622,60,14
9.15225,-6.13153,-0.192291,74,7
6.00269,-4.03516,0.126251,34,8
0.439851,-0.29579,-0.122373,15,1
10.7235,-7.21406,0.677332,21,9
0.540812,-0.363822,-0.126697,28,2
9.22005,-6.20497,0.972309,19,10
3.79669,-2.55608,-0.724917,27,3
7.22151,-4.86364,1.06904,30,11
3.85727,-2.59883,-0.57108,40,4
9.13867,-6.15947,1.7455,109,12
3.85402,-2.59859,-0.406669,12,5
7.48627,-5.04765,1.75506,24,13
7.01564,-4.73211,-0.443495,32,6
9.55341,-6.44628,2.66072,32,14
9.36118,-6.31895,-0.197142,18,7
12.5231,-8.45649,4.04897,34,15
7.86445,-5.32663,0.165798,32,8
0.422683,-0.286393,-0.117874,16,1
6.79492,-4.6057,0.430202,54,9
0.526475,-0.356987,-0.123644,14,2
7.33076,-4.97263,0.774989,15,10
3.79384,-2.57442,-0.726169,41,3
7.28005,-4.94009,1.08025,20,11
3.85803,-2.61896,-0.572542,49,4
9.1743,-6.23017,1.75645,35,12
8.27986,-5.62488,-0.875741,40,5
10.928,-7.42664,2.56829,8,13
7.33189,-4.98462,-0.464639,29,6
7.48326,-5.08944,2.08935,27,14
9.10757,-6.19415,-0.192256,100,7
12.575,-8.55557,4.07536,13,15
7.69788,-5.25508,0.162691,58,8
0.447379,-0.305524,-0.125073,15,1
0.512258,-0.349963,-0.120591,15,2
7.21137,-4.92849,0.764182,39,10
3.76526,-2.57427,-0.722414,30,3
7.37003,-5.0407,1.09634,12,11
3.84677,-2.63197,-0.572298,43,4
9.15141,-6.26375,1.75645,14,12
9.84678,-6.73971,-1.04395,19,5
8.88312,-6.08468,-0.564286,37,6
7.47992,-5.12544,2.09339,38,14
8.04735,-5.51632,-0.170301,35,7
10.4564,-7.17037,3.39726,18,15
7.79318,-5.36011,0.1651,13,8
10.7201,-7.37878,0.682042,10,9
0.517502,-0.356201,-0.122118,15,2
7.18263,-4.94572,0.762961,46,10
8.23968,-5.67569,-1.58468,13,3
7.41778,-5.11145,1.10609,10,11
3.84246,-2.64876,-0.57303,37,4
7.52605,-5.18994,1.44796,46,12
8.66029,-5.9721,-0.920365,3,5
7.45635,-5.14379,1.76079,64,13
10.8952,-7.51892,-0.693766,32,6
7.5582,-5.21795,2.12039,22,14
6.41717,-4.43187,-0.136129,22,7
12.4626,-8.6102,4.0588,12,15
0.476421,-0.330012,-0.155291,12,0
7.84838,-5.43853,0.16667,32,8
0.435625,-0.301979,-0.122373,15,1
0.524322,-0.363599,-0.124026,14,2
7.21444,-5.00483,0.768191,28,10
8.31394,-5.76974,-1.60283,37,3
7.46022,-5.1792,1.1151,5,11
3.89841,-2.70745,-0.582779,11,4
9.0231,-6.26888,1.74018,11,12
8.65248,-6.01139,-0.921759,1,5
7.45608,-5.18211,1.76498,41,13
10.5459,-7.3323,-0.673145,26,6
10.7188,-7.4553,3.01434,25,14
6.40822,-4.45881,-0.136268,61,7
10.4061,-7.2432,3.39726,6,15
6.77669,-4.731,0.144262,17,8
0.415397,-0.290108,-0.116975,16,1
7.19084,-5.02386,0.459719,45,9
0.532706,-0.372174,-0.126316,14,2
8.90838,-6.22614,0.950869,100,10
3.79476,-2.65317,-0.733365,11,3
7.26479,-5.08119,1.08854,27,11
6.71252,-4.69667,-1.00591,15,4
9.76913,-6.83788,-1.04325,29,5
7.43473,-5.20585,1.76422,11,13
10.4793,-7.34042,-0.670528,61,6
11.0502,-7.74317,3.11512,42,14
7.2703,-5.09639,-0.154977,100,7
7.37708,-5.17316,2.41426,14,15
7.2312,-5.08595,0.154314,35,8
0.433507,-0.305013,-0.122373,15,1
6.99196,-4.92133,0.448101,40,9
0.508927,-0.358211,-0.120973,30,2
8.81817,-6.20902,0.943548,23,10
3.74349,-2.63683,-0.72523,47,3
7.50827,-5.29061,1.12778,15,11
3.71879,-2.62137,-0.558649,11,4
9.11472,-6.42735,1.76646,67,12
8.213,-5.79149,-0.879227,8,5
7.36517,-5.19556,1.75201,21,13
10.4096,-7.34586,-0.667702,29,6
10.7477,-7.58726,3.03729,38,14
7.13322,-5.03753,-0.152429,100,7
10.3363,-7.30229,3.39105,3,15
7.1873,-5.09266,0.153756,8,8
0.461057,-0.326809,-0.130472,14,1
9.34039,-6.62316,0.600084,19,9
0.50447,-0.357714,-0.12021,15,2
9.26608,-6.5729,0.993924,19,10
3.66982,-2.60415,-0.712716,46,3
7.39425,-5.24899,1.1134,15,11
6.64396,-4.71813,-1.00055,38,4
7.51083,-5.3357,1.45922,56,12
9.76339,-6.93591,-1.04779,16,5
7.3774,-5.24284,1.75926,26,13
10.5808,-7.52218,-0.680368,16,6
7.44491,-5.29473,2.10914,16,14
7.21499,-5.13311,-0.154559,100,7
0.412336,-0.294442,-0.116975,16,1
0.531908,-0.380107,-0.127079,14,2
7.64313,-5.46186,0.821879,16,10
3.67999,-2.63073,-0.71647,12,3
7.57449,-5.4168,1.14338,15,11
6.69042,-4.78634,-1.01005,11,4
7.49216,-5.36188,1.45922,39,12
8.19403,-5.86635,-0.881667,19,5
10.7499,-7.69901,2.5702,37,13
7.09174,-5.08093,-0.457207,39,6
7.41688,-5.31388,2.10644,13,14
7.17264,-5.14079,-0.154035,90,7
10.8126,-7.7525,3.56497,26,15
7.42014,-5.33781,0.15955,30,8
0.3986,-0.286845,-0.113375,16,1
7.06885,-5.08884,0.456474,34,9
0.524138,-0.377465,-0.125552,29,2
7.61983,-5.48751,0.82153,32,10
3.70879,-2.67191,-0.723979,30,3
7.45635,-5.37373,1.12851,10,11
7.45964,-5.38006,1.45672,33,12
16.458,-11.8743,-1.77554,8,5
10.7423,-7.75329,2.57516,16,13
7.30888,-5.27715,2.08125,37,14
7.2494,-5.23613,-0.156094,75,7
10.6636,-7.70496,3.52512,54,15
7.73081,-5.6044,0.16667,47,8
0.413322,-0.299745,-0.117874,16,1
6.99033,-5.07132,0.452601,34,9
0.525996,-0.381598,-0.126316,14,2
7.56419,-5.48966,0.817695,22,10
3.70217,-2.68781,-0.724605,30,3
7.47836,-5.43135,1.13485,28,11
3.62308,-2.63232,-0.549874,58,4
7.41111,-5.38646,1.45109,33,12
8.37641,-6.09029,-0.906071,20,5
7.37581,-5.36277,1.77262,42,13
7.02613,-5.1104,-0.455323,18,6
7.27688,-5.29473,2.07765,75,14
7.11052,-5.17558,-0.153511,90,7
10.7274,-7.81108,3.55566,33,15
8.03903,-5.87076,0.173756,33,8
0.428008,-0.312681,-0.122373,15,1
6.95808,-5.08508,0.451659,72,9
0.530933,-0.388158,-0.127842,14,2
7.43466,-5.43737,0.805842,43,10
3.67635,-2.6897,-0.721476,40,3
8.92527,-6.52992,1.35787,56,11
3.61707,-2.64729,-0.550362,52,4
6.56771,-4.81036,-0.712237,23,5
7.41312,-5.43154,1.78635,30,13
6.99768,-5.12904,-0.454695,36,6
7.27785,-5.33634,2.0835,17,14
7.50041,-5.49953,-0.162342,76,7
10.7001,-7.84848,3.55566,35,15
7.33296,-5.39645,0.158922,47,8
0.395473,-0.291142,-0.113375,16,1
6.97084,-5.13184,0.453648,43,9
0.497959,-0.366725,-0.12021,15,2
7.47178,-5.50465,0.811943,20,10
3.66217,-2.699,-0.720537,21,3
7.63743,-5.6308,1.16507,7,11
3.61899,-2.66815,-0.552068,44,4
10.1379,-7.47705,1.99517,12,12
6.5124,-4.80486,-0.708053,23,5
10.5981,-7.82505,-0.690416,42,6
10.8972,-8.04588,3.12727,70,14
7.24471,-5.35103,-0.157211,92,7
10.7643,-7.95352,3.5862,39,15
7.34716,-5.44455,0.15962,37,8
0.403898,-0.299415,-0.116075,16,1
6.92651,-5.13471,0.451869,65,9
0.512509,-0.380068,-0.124026,14,2
7.46949,-5.54126,0.813686,26,10
3.58182,-2.65815,-0.706458,7,3
7.68088,-5.70224,1.17458,30,11
6.31174,-4.6858,-0.965205,40,4
7.47895,-5.55436,1.47549,35,12
6.49483,-4.82525,-0.707879,28,5
10.6343,-7.9064,3.05933,27,14
7.18361,-5.3428,-0.156269,92,7
10.6681,-7.93728,3.5629,10,15
7.06141,-5.26917,0.153791,20,8
0.393533,-0.293758,-0.113375,16,1
7.03017,-5.24968,0.459824,38,9
0.530123,-0.395862,-0.128605,28,2
7.42872,-5.54931,0.811246,22,10
3.58248,-2.67711,-0.708335,21,3
7.66987,-5.73362,1.1758,30,11
6.46068,-4.83144,-0.990554,26,4
6.43731,-4.81573,-0.703347,7,5
10.5863,-7.92245,2.5702,19,13
9.91607,-7.42357,-0.649175,6,6
10.9093,-8.1701,3.14662,36,14
7.25773,-5.43739,-0.158293,92,7
10.6805,-8.00459,3.57636,29,15
7.37067,-5.54009,0.160946,88,8
0.404966,-0.304499,-0.116975,16,1
6.97828,-5.24897,0.457626,43,9
0.494221,-0.371746,-0.12021,31,2
10.2288,-7.69676,1.11995,35,10
3.63308,-2.73474,-0.720224,16,3
7.718,-5.81171,1.18628,41,11
6.38352,-4.80858,-0.981292,39,4
10.8082,-8.14455,2.14347,15,12
6.43001,-4.84536,-0.704393,40,5
10.5931,-7.98535,2.57859,20,13
6.67845,-5.03623,-0.438366,50,6
10.8776,-8.20578,3.14572,29,14
7.20359,-5.43619,-0.157525,100,7
10.5816,-7.98828,3.55255,24,15
6.71995,-5.08779,0.147124,30,8
0.447397,-0.338855,-0.129572,14,1
6.96151,-5.2745,0.45773,105,9
0.483467,-0.36644,-0.11792,16,2
8.67277,-6.57346,0.952089,85,10
3.56212,-2.70086,-0.708022,10,3
7.66762,-5.81582,1.18165,33,11
6.24967,-4.74204,-0.963255,38,4
7.36688,-5.59176,1.46485,46,12
6.38206,-4.846,-0.701081,22,5
10.5762,-8.03362,2.58165,41,13
6.76013,-5.1368,-0.44496,39,6
12.0017,-9.11971,3.47999,72,14
7.17343,-5.45283,-0.157281,83,7
9.12102,-6.95842,0.200249,15,8
0.421366,-0.321576,-0.122373,15,1
7.05008,-5.3824,0.464848,70,9
0.513326,-0.392042,-0.125552,14,2
8.69612,-6.64148,0.957319,68,10
4.21147,-3.21758,-0.839427,51,3
7.66833,-5.86076,1.18506,22,11
6.24171,-4.77215,-0.964718,56,4
7.34006,-5.61393,1.4636,11,12
6.55889,-5.01828,-0.722521,13,5
10.5888,-8.10455,2.59195,54,13
6.73967,-5.16033,-0.444856,39,6
12.0626,-9.23591,3.50744,40,14
7.06449,-5.41099,-0.155326,75,7
30.6447,-23.4805,10.3445,9,15
0.404737,-0.311239,-0.117874,16,1
0.502551,-0.386737,-0.123263,15,2
8.67172,-6.67331,0.957319,53,10
3.96329,-3.05104,-0.792184,43,3
7.63579,-5.88035,1.18335,33,11
6.24148,-4.80832,-0.967399,30,4
6.4868,-5.00092,-0.716594,38,5
10.6508,-8.21405,2.61446,42,13
6.61792,-5.10569,-0.438052,47,6
11.9762,-9.23958,3.49214,27,14
7.01137,-5.41119,-0.154593,100,7
32.4454,-25.0495,10.9832,11,15
17.1796,-13.3163,1.13914,18,9
0.516645,-0.400606,-0.127079,14,2
3.9474,-3.06192,-0.791246,45,3
7.61732,-5.91073,1.18384,49,11
6.23165,-4.83725,-0.968618,31,4
10.3645,-8.04826,2.07839,24,12
6.34098,-4.92566,-0.702475,22,5
10.4904,-8.15184,2.58241,10,13
6.6102,-5.1385,-0.438785,18,6
11.9992,-9.32767,3.50879,29,14
7.01359,-5.45404,-0.155082,92,7
30.8987,-24.0367,10.4894,10,15
9.52578,-7.42898,0.21086,6,8
0.417919,-0.326044,-0.122373,15,1
17.1574,-13.3904,1.14061,27,9
0.496811,-0.387733,-0.122499,15,2
14.9334,-11.6589,1.65753,45,10
4.16452,-3.25251,-0.836924,28,3
18.1581,-14.1867,2.82932,36,11
8.25042,-6.44825,-1.28572,15,4
10.3627,-8.10205,2.08339,45,12
6.31048,-4.93561,-0.700907,20,5
6.60032,-5.16416,-0.439203,21,6
10.0607,-7.87444,2.94956,27,14
7.01751,-5.49452,-0.155571,100,7
30.6637,-24.0175,10.4366,10,15
8.49808,-6.67533,0.188626,41,8
0.416778,-0.327501,-0.122373,15,1
9.14017,-7.18486,0.609295,22,9
0.489214,-0.384697,-0.120973,15,2
14.9094,-11.7283,1.65962,38,10
4.2007,-3.30562,-0.846623,52,3
17.5656,-13.8228,2.7445,48,11
8.19979,-6.45491,-1.28133,31,4
10.3111,-8.11984,2.0787,22,12
6.26818,-4.93788,-0.698117,30,5
7.10549,-5.5995,1.7585,35,13
6.06689,-4.78275,-0.404871,18,6
9.91549,-7.81955,2.91537,17,14
6.74392,-5.31838,-0.149916,66,7
30.7131,-24.2297,10.4822,10,15
6.50413,-5.14772,0.144785,67,8
0.427798,-0.338704,-0.125973,15,1
8.56266,-6.78181,0.572451,28,9
0.50018,-0.396154,-0.124026,14,2
9.91797,-7.85807,1.10705,11,10
4.1721,-3.30677,-0.843182,8,3
17.6252,-13.9746,2.7618,56,11
8.23206,-6.52933,-1.29011,53,4
7.16468,-5.68477,1.44858,35,12
6.32582,-5.01918,-0.706484,31,5
7.07821,-5.61817,1.75659,68,13
6.00636,-4.76912,-0.40194,21,6
11.5209,-9.15101,3.39676,24,14
6.25469,-4.96986,-0.139445,39,7
9.43526,-7.49977,3.22954,12,15
6.47674,-5.16291,0.144576,60,8
0.414424,-0.330475,-0.122373,15,1
9.11507,-7.27125,0.611075,56,9
0.498794,-0.397897,-0.124026,29,2
9.86556,-7.87275,1.10426,52,10
4.14355,-3.30775,-0.83974,2,3
16.8861,-13.4848,2.65334,44,11
6.62259,-5.29053,-1.04076,13,4
10.3484,-8.26988,2.0981,48,12
6.37519,-5.09471,-0.71398,16,5
6.04895,-4.83746,-0.405918,21,6
9.87435,-7.89954,2.91941,23,14
6.26541,-5.01415,-0.140073,64,7
6.4883,-5.20927,0.145239,77,8
0.398074,-0.319717,-0.117874,16,1
8.43103,-6.77388,0.566799,60,9
0.488219,-0.392258,-0.121736,15,2
9.83957,-7.90839,1.10444,52,10
16.7724,-13.4902,2.64286,57,11
6.69688,-5.38828,-1.05539,11,4
10.3256,-8.3109,2.09935,48,12
6.20836,-4.99701,-0.697246,20,5
6.97153,-5.61327,1.7398,8,13
6.04291,-4.86731,-0.40665,58,6
9.86341,-7.94741,2.92436,40,14
6.35374,-5.12133,-0.142447,64,7
17.8104,-14.3609,6.13039,30,15
0.375598,-0.303611,-0.12941,15,0
6.44209,-5.20926,0.144611,47,8
0.412107,-0.33336,-0.122373,15,1
8.40112,-6.79824,0.56638,39,9
0.489899,-0.39643,-0.122499,15,2
9.88159,-7.9991,1.11228,21,10
5.64784,-4.57353,-1.15104,10,3
16.8424,-13.6436,2.66138,51,11
6.67803,-5.41162,-1.05539,15,4
16.8197,-13.6349,3.42936,16,12
6.96104,-5.64499,1.74209,26,13
5.99486,-4.86321,-0.404557,54,6
10.0202,-8.1316,2.97925,40,14
6.69756,-5.43714,-0.150579,24,7
17.5472,-14.25,6.05688,36,15
6.42697,-5.23424,0.14468,70,8
0.426048,-0.347105,-0.126872,15,1
8.20549,-6.68747,0.554761,112,9
0.482425,-0.393176,-0.120973,15,2
9.89531,-8.06754,1.11699,42,10
5.09147,-4.1525,-1.0406,1,3
16.7055,-13.6295,2.64725,51,11
6.98052,-5.69723,-1.10633,9,4
16.723,-13.6536,3.41935,28,12
6.01814,-4.91527,-0.679815,2,5
6.98691,-5.70651,1.75353,6,13
6.05364,-4.94603,-0.409686,65,6
9.7413,-7.96181,2.90457,38,14
6.23733,-5.09974,-0.140631,40,7
17.3269,-14.1718,5.99787,31,15
6.44113,-5.28327,0.145413,61,8
0.424834,-0.34859,-0.126872,15,1
8.06168,-6.61723,0.546597,51,9
0.490085,-0.402417,-0.123263,15,2
9.84104,-8.08352,1.1142,28,10
6.14304,-5.04775,-1.2593,28,3
16.6394,-13.6726,2.64432,12,11
8.26407,-6.79302,-1.31351,45,4
17.3543,-14.2702,3.55857,27,12
5.94709,-4.89195,-0.673714,32,5
6.03855,-4.97072,-0.409895,58,6
9.74214,-8.02223,2.91357,34,14
6.19324,-5.09987,-0.140038,32,7
17.2519,-14.2113,5.98907,31,15
6.57741,-5.4355,0.148939,52,8
0.408534,-0.337729,-0.122373,15,1
7.01539,-5.80157,0.477095,43,9
0.491703,-0.406628,-0.124026,29,2
9.80508,-8.11147,1.11333,59,10
5.97624,-4.94574,-1.22864,55,3
22.4242,-18.5641,3.57443,45,11
6.5543,-5.42797,-1.04491,16,4
5.75046,-4.76396,-0.653319,41,5
16.5598,-13.7238,4.18063,21,13
5.98119,-4.95863,-0.407174,54,6
9.78307,-8.11341,2.93426,53,14
6.53618,-5.42259,-0.148241,89,7
17.2562,-14.3213,6.00874,31,15
6.78433,-5.64648,0.15407,51,8
0.407353,-0.339153,-0.122373,15,1
7.4555,-6.20948,0.508496,43,9
0.496315,-0.413367,-0.125552,14,2
9.7415,-8.11631,1.10932,26,10
5.89066,-4.90965,-1.21456,11,3
22.373,-18.6537,3.57662,57,11
7.50638,-6.26074,-1.20017,1,4
5.73074,-4.78146,-0.652971,46,5
21.9424,-18.3142,5.55559,24,13
6.0405,-5.04348,-0.412407,68,6
9.77414,-8.16376,2.94011,34,14
6.61542,-5.52743,-0.150475,100,7
17.1661,-14.348,5.99477,25,15
7.17223,-6.01182,0.163355,55,8
0.406166,-0.340573,-0.122373,15,1
7.36951,-6.18156,0.5041,78,9
0.485844,-0.407527,-0.123263,15,2
9.63985,-8.0888,1.10095,42,10
9.18999,-7.71405,-1.90037,20,3
33.7186,-28.3133,5.40612,19,11
7.42368,-6.23584,-1.19042,6,4
17.714,-14.8849,3.66463,24,12
5.80554,-4.87833,-0.663429,38,5
16.5027,-13.8719,4.19055,24,13
6.05649,-5.09281,-0.41471,58,6
9.7247,-8.18026,2.93381,25,14
5.99171,-5.04192,-0.136687,69,7
17.1233,-14.4141,5.99735,25,15
6.62403,-5.5918,0.151312,38,8
0.390086,-0.329415,-0.117874,16,1
7.36467,-6.22142,0.505251,65,9
0.499416,-0.42189,-0.127079,14,2
9.59482,-8.10825,1.09903,66,10
5.85624,-4.95066,-1.21456,21,3
33.8529,-28.6282,5.44366,39,11
7.41096,-6.2694,-1.19188,5,4
22.8944,-19.3746,4.75029,38,12
5.79912,-4.90758,-0.66465,31,5
16.4556,-13.9307,4.19093,24,13
6.03258,-5.10876,-0.414291,65,6
10.1451,-8.59457,3.06968,12,14
6.29902,-5.33818,-0.144122,88,7
17.2674,-14.6387,6.06568,33,15
6.67608,-5.67576,0.152953,75,8
0.403779,-0.3434,-0.122373,15,1
7.34291,-6.24709,0.505251,63,9
0.479996,-0.408364,-0.122499,15,2
9.53156,-8.11199,1.09502,45,10
6.44765,-5.4932,-1.04003,63,4
9.38291,-7.99679,1.95262,18,12
5.81142,-4.95465,-0.668136,21,5
16.3785,-13.9639,4.18368,24,13
9.69553,-8.27198,2.94236,23,14
6.2043,-5.29522,-0.142377,32,7
17.106,-14.6048,6.02686,23,15
0.402578,-0.344807,-0.122373,15,1
7.32712,-6.27788,0.50567,61,9
0.478496,-0.410121,-0.122499,15,2
9.51235,-8.15595,1.09624,45,10
6.57186,-5.63675,-1.3713,8,3
6.70413,-5.75223,-1.08464,27,4
9.35944,-8.03335,1.95355,32,12
5.80769,-4.98659,-0.669705,36,5
5.92315,-5.08932,-0.409267,54,6
9.66958,-8.31128,2.94371,19,14
6.36775,-5.47327,-0.146565,32,7
17.1545,-14.75,6.06206,15,15
6.5505,-5.65025,0.150998,18,8
0.401311,-0.34628,-0.122373,15,1
7.3717,-6.36083,0.510276,72,9
0.488951,-0.422051,-0.125552,14,2
9.49438,-8.19822,1.09747,45,10
7.81085,-6.74691,-1.63474,8,3
53.9708,-46.6357,8.75802,48,11
5.8219,-5.0342,-0.673365,28,5
9.43758,-8.16356,2.42556,12,13
5.86759,-5.07729,-0.40665,32,6
9.67881,-8.37814,2.95541,70,14
6.2972,-5.45096,-0.145379,73,7
23.2513,-20.1338,8.24132,12,15
6.54984,-5.68767,0.151417,16,8
0.400161,-0.347609,-0.122373,15,1
7.53488,-6.54766,0.52315,63,9
0.475622,-0.413451,-0.122499,15,2
9.44917,-8.21693,1.09555,23,10
5.14686,-4.47883,-0.83773,32,4
5.82211,-5.0718,-0.404662,54,6
9.61425,-8.37818,2.94416,46,14
5.92391,-5.16412,-0.137176,15,7
23.1474,-20.1856,8.22941,25,15
5.89171,-5.15235,0.136617,33,8
7.54505,-6.60286,0.525453,78,9
0.465383,-0.407269,-0.12021,15,2
9.37239,-8.20491,1.0898,29,10
7.96239,-6.973,-1.67635,10,3
5.04013,-4.41696,-0.822862,6,4
9.28371,-8.13873,1.95543,14,12
5.0601,-4.43759,-0.588824,6,5
9.39508,-8.23926,2.429,32,13
5.84791,-5.13029,-0.407697,47,6
9.5908,-8.41683,2.94596,27,14
6.03208,-5.29558,-0.140108,24,7
22.605,-19.852,8.06118,29,15
9.98106,-8.79021,0.232152,16,8
0.397724,-0.350394,-0.122373,15,1
7.68827,-6.77574,0.537072,66,9
0.478614,-0.421955,-0.124026,14,2
9.39755,-8.28797,1.09624,49,10
8.04196,-7.09493,-1.69857,3,3
10.6195,-9.36897,1.73883,3,11
5.77629,-5.09787,-0.94595,20,4
5.05055,-4.4605,-0.589521,2,5
8.91313,-7.87458,2.31184,35,13
5.79016,-5.1173,-0.404976,32,6
9.58325,-8.47258,2.95316,23,14
5.91468,-5.22919,-0.137804,85,7
22.524,-19.9206,8.05704,11,15
8.5397,-7.57657,0.199272,5,8
0.396437,-0.35185,-0.122373,15,1
7.65443,-6.79592,0.536444,63,9
0.471266,-0.418409,-0.122499,15,2
9.3194,-8.27706,1.09049,49,10
6.26722,-5.56821,-1.32782,20,3
10.9917,-9.76917,1.80562,28,11
5.03954,-4.48061,-0.82798,25,4
10.5611,-9.39303,2.23858,25,12
5.03715,-4.48163,-0.58987,13,5
8.85038,-7.87433,2.30268,45,13
5.78569,-5.14943,-0.405918,25,6
9.51868,-8.47488,2.94236,46,14
5.94475,-5.29472,-0.138956,86,7
22.536,-20.0788,8.08758,6,15
6.88035,-6.14742,0.161051,21,8
0.395207,-0.353231,-0.122373,15,1
7.69617,-6.88117,0.541049,60,9
0.487289,-0.43584,-0.127079,14,2
9.2697,-8.29389,1.08823,47,10
10.5404,-9.43413,1.73688,3,11
8.06452,-7.22065,-1.32911,22,4
10.487,-9.39294,2.22982,28,12
5.04373,-4.51913,-0.592485,13,5
8.83316,-7.91719,2.30574,38,13
5.74001,-5.1466,-0.404034,18,6
9.66309,-8.66715,2.9968,23,14
5.9173,-5.30743,-0.138747,86,7
22.4384,-20.1328,8.07774,12,15
6.02693,-5.42477,0.141539,7,8
0.393909,-0.354678,-0.122373,15,1
7.6798,-6.91735,0.541677,61,9
0.46826,-0.421771,-0.122499,15,2
9.25105,-8.33554,1.08945,49,10
6.19787,-5.58647,-1.32156,1,3
8.00263,-7.21825,-1.32326,5,4
9.11642,-8.22577,1.94479,36,12
5.04636,-4.55494,-0.594751,5,5
8.77486,-7.92036,2.29772,48,13
5.72053,-5.16526,-0.403929,47,6
9.58072,-8.65381,2.9806,55,14
5.92007,-5.34919,-0.13927,70,7
22.3616,-20.2124,8.07671,36,15
5.95462,-5.39743,0.140282,52,8
0.392669,-0.35605,-0.122373,15,1
7.71478,-6.99779,0.545864,56,9
0.466711,-0.423484,-0.122499,15,2
9.14815,-8.30377,1.08091,27,10
6.19344,-5.62375,-1.325,11,3
9.39684,-8.5325,1.55847,3,11
4.97098,-4.51532,-0.824568,2,4
9.05988,-8.2323,1.93885,34,12
5.79266,-5.26538,-0.68487,32,5
8.79371,-7.99605,2.31032,47,13
5.65723,-5.14588,-0.400789,47,6
9.51723,-8.66001,2.9707,36,14
6.21935,-5.65917,-0.146775,73,7
22.4524,-20.4372,8.1352,6,15
9.97649,-9.10979,0.235817,33,8
0.391361,-0.357487,-0.122373,15,1
7.75248,-7.08395,0.550365,51,9
0.476824,-0.435706,-0.125552,14,2
8.94705,-8.17838,1.06051,63,10
6.17814,-5.64934,-1.32594,47,3
9.38308,-8.58296,1.56139,3,11
6.20801,-5.68063,-1.03321,5,4
10.3192,-9.44585,2.21574,15,12
5.86149,-5.3673,-0.695328,13,5
8.82366,-8.07973,2.32558,38,13
7.51701,-6.88566,-0.534245,38,6
9.48694,-8.69318,2.9707,25,14
5.67379,-5.20089,-0.134349,82,7
22.4542,-20.5899,8.16315,24,15
5.87463,-5.402,0.139305,9,8
0.378637,-0.348297,-0.118774,16,1
7.83206,-7.20699,0.557797,61,9
0.46078,-0.424154,-0.121736,15,2
8.18419,-7.5363,0.973355,44,10
6.15304,-5.66793,-1.325,20,3
9.50783,-8.75822,1.58723,21,11
3.83347,-3.53247,-0.640058,35,4
5.86762,-5.41069,-0.698292,8,5
8.83728,-8.15195,2.33703,45,13
5.68338,-5.24447,-0.40529,21,6
9.41922,-8.69485,2.95946,29,14
5.7658,-5.32239,-0.136966,69,7
5.68261,-5.26215,0.135186,60,8
0.388856,-0.360211,-0.122373,15,1
7.63105,-7.07138,0.545236,56,9
0.462251,-0.428348,-0.122499,15,2
8.19276,-7.59455,0.977364,53,10
7.57253,-7.02206,-1.63568,10,3
10.6124,-9.84438,1.77734,15,11
3.80656,-3.53233,-0.63762,19,4
50.2732,-46.6677,10.8644,22,12
5.8438,-5.4247,-0.697595,13,5
8.8476,-8.21595,2.34695,45,13
5.60157,-5.20348,-0.400684,25,6
9.37463,-8.71144,2.95451,25,14
5.84532,-5.43371,-0.139305,86,7
19.9473,-18.5492,7.2987,4,15
5.94646,-5.54517,0.141923,18,8
0.387596,-0.361566,-0.122373,15,1
7.34932,-6.85815,0.526814,65,9
0.477977,-0.446033,-0.127079,14,2
8.14436,-7.60271,0.97475,44,10
3.85483,-3.59973,-0.83536,15,3
10.5257,-9.83258,1.76857,3,11
3.81742,-3.56728,-0.64152,11,4
49.0479,-45.8501,10.6341,43,12
5.86122,-5.47908,-0.701952,38,5
8.81313,-8.24142,2.34542,40,13
5.8182,-5.44267,-0.417536,32,6
9.70415,-9.08099,3.06833,23,14
5.81756,-5.44588,-0.139096,47,7
19.9854,-18.7151,7.33648,9,15
5.80754,-5.45364,0.139061,41,8
0.386332,-0.362917,-0.122373,15,1
7.27705,-6.83599,0.523255,58,9
0.46211,-0.434254,-0.123263,15,2
8.03212,-7.55058,0.964465,63,10
7.45281,-7.00845,-1.62035,18,3
9.45608,-8.89539,1.59405,3,11
3.81361,-3.58874,-0.642983,11,4
5.8203,-5.47902,-0.699338,26,5
8.84291,-8.32731,2.36107,44,13
5.81225,-5.47527,-0.418478,47,6
9.70927,-9.14955,3.08003,51,14
8.36811,-7.88571,-0.200703,9,7
20.3182,-19.1536,7.48194,20,15
5.8243,-5.50584,0.139898,45,8
0.385126,-0.364196,-0.122373,15,1
7.26475,-6.87233,0.524092,65,9
0.469147,-0.443961,-0.125552,14,2
8.04767,-7.61829,0.96952,53,10
7.65044,-7.24226,-1.66853,41,3
9.41212,-8.91305,1.59161,10,11
3.8089,-3.6082,-0.644201,28,4
8.51269,-8.06695,1.8575,9,12
5.80114,-5.4993,-0.699338,17,5
8.70554,-8.25259,2.33169,46,13
5.81725,-5.51651,-0.420153,25,6
9.68029,-9.18304,3.08048,42,14
6.32575,-6.00291,-0.15222,49,7
9.15608,-8.69183,3.38277,11,15
5.66021,-5.38826,0.136408,27,8
0.366918,-0.349411,-0.116975,16,1
7.36363,-7.01475,0.532989,46,9
0.456301,-0.434681,-0.122499,15,2
7.89832,-7.52673,0.95453,46,10
7.42637,-7.07946,-1.62504,8,3
9.391,-8.95544,1.59332,32,11
5.96517,-5.69049,-1.01225,15,4
8.53878,-8.14844,1.86939,7,12
5.76557,-5.502,-0.697246,16,5
8.69372,-8.2992,2.33627,45,13
5.82251,-5.56023,-0.421933,39,6
9.63127,-9.20062,3.07508,12,14
5.87538,-5.61464,-0.141853,88,7
9.13965,-8.73709,3.38794,40,15
0.382574,-0.366876,-0.122373,15,1
7.16471,-6.87311,0.520324,63,9
0.463281,-0.444426,-0.124789,14,2
7.96688,-7.6453,0.966034,46,10
7.40019,-7.10397,-1.62473,22,3
9.36684,-8.99504,1.59454,3,11
3.82656,-3.67596,-0.651514,12,4
5.7334,-5.50967,-0.695677,31,5
8.66187,-8.32677,2.3355,45,13
7.70336,-7.40793,-0.560099,27,6
9.60331,-9.23824,3.07643,23,14
5.89609,-5.67394,-0.14283,48,7
9.04786,-8.70999,3.36517,43,15
5.52174,-5.33042,0.133965,37,8
0.381291,-0.368209,-0.122373,15,1
7.11338,-6.87171,0.518335,69,9
0.453255,-0.437856,-0.122499,15,2
7.77968,-7.518,0.946511,61,10
3.80911,-3.68227,-0.839115,8,3
9.30685,-9.00008,1.58966,14,11
5.67562,-5.49046,-0.969593,15,4
8.3369,-8.06774,1.83748,57,12
5.75325,-5.56945,-0.700558,15,5
8.62852,-8.35286,2.33436,43,13
5.93277,-5.74524,-0.432818,47,6
9.53741,-9.23916,3.06563,6,14
5.87912,-5.69727,-0.1429,56,7
9.04792,-8.7711,3.37655,27,15
5.52318,-5.36918,0.134453,15,8
0.380004,-0.369538,-0.122373,15,1
7.1008,-6.90764,0.519173,63,9
0.462903,-0.450468,-0.125552,14,2
7.75207,-7.54646,0.946511,59,10
3.81681,-3.71688,-0.843808,36,3
9.27253,-9.02975,1.58918,39,11
5.66353,-5.51717,-0.970811,10,4
8.23936,-8.02923,1.82215,54,12
5.7994,-5.65347,-0.708576,15,5
8.68218,-8.46667,2.35725,26,13
7.61012,-7.42381,-0.557169,35,6
9.39609,-9.16926,3.03099,2,14
5.75473,-5.6158,-0.140352,40,7
9.06424,-8.84851,3.39415,16,15
9.41389,-9.21876,0.229988,36,8
0.378647,-0.370928,-0.122373,15,1
7.30921,-7.1602,0.536234,42,9
0.436088,-0.427347,-0.118683,15,2
7.71572,-7.56371,0.945291,51,10
7.10976,-6.97213,-1.57717,55,3
9.24079,-9.06506,1.58942,47,11
5.66311,-5.55735,-0.974224,32,4
8.20706,-8.05379,1.82121,39,12
7.05357,-6.92427,-0.864759,19,5
8.79685,-8.63861,2.39656,35,13
7.60696,-7.47272,-0.558843,81,6
8.82195,-8.6693,2.85553,29,14
5.5568,-5.46065,-0.135989,53,7
8.77155,-8.62278,3.2958,28,15
7.3212,-7.21716,0.179446,10,8
0.405166,-0.399548,-0.131371,14,1
7.33393,-7.23476,0.539898,51,9
0.434594,-0.428867,-0.118683,15,2
7.71054,-7.6116,0.947906,57,10
7.17798,-7.08587,-1.59751,20,3
9.14853,-9.03428,1.5787,43,11
5.62205,-5.55378,-0.970324,15,4
8.19013,-8.0935,1.82371,47,12
8.75559,-8.65531,2.39313,34,13
7.60202,-7.51757,-0.560309,77,6
7.70284,-7.61993,2.50146,56,14
5.95701,-5.89496,-0.146286,89,7
8.76885,-8.68053,3.30615,28,15
7.57696,-7.52162,0.186357,40,8
0.376113,-0.373497,-0.122373,15,1
7.27888,-7.23076,0.5377,63,9
0.45824,-0.455211,-0.125552,14,2
7.72766,-7.67926,0.953135,53,10
3.75872,-3.73648,-0.839427,16,3
9.09442,-9.04377,1.5748,43,11
3.80827,-3.78838,-0.659557,30,4
8.04561,-8.00639,1.79775,35,12
6.98952,-6.95788,-0.862842,31,5
8.70306,-8.66366,2.38702,15,13
6.07275,-6.04737,-0.449147,39,6
7.6044,-7.57526,2.47806,63,14
5.95623,-5.93548,-0.146775,89,7
9.02445,-8.99614,3.41434,27,15
8.11635,-8.11352,0.200319,7,8
0.374807,-0.374807,-0.122373,15,1
7.24512,-7.24765,0.537072,61,9
0.453793,-0.45411,-0.124789,14,2
7.68679,-7.69484,0.951566,55,10
7.3253,-7.33553,-1.64194,40,3
9.17641,-9.18923,1.59454,54,11
7.03187,-7.04415,-1.22211,8,4
8.10971,-8.12671,1.81839,45,12
6.96942,-6.98647,-0.863365,40,5
9.05961,-9.08811,-0.672517,13,6
7.6206,-7.64725,2.49246,78,14
5.85078,-5.87124,-0.14468,65,7
9.05025,-9.08507,3.43608,25,15
5.59535,-5.63455,0.138607,13,8
0.373431,-0.376178,-0.122373,15,1
7.21851,-7.27416,0.537072,39,9
0.43561,-0.438968,-0.12021,15,2
7.67672,-7.7386,0.953658,55,10
6.89767,-6.9557,-1.55152,26,3
9.1245,-9.20448,1.59137,43,11
7.06888,-7.13333,-1.23307,8,4
8.48164,-8.56196,1.90881,34,12
6.98582,-7.05443,-0.868594,29,5
7.86448,-7.94172,2.17255,20,13
5.4181,-5.47323,-0.403615,14,6
7.5829,-7.66272,2.48886,56,14
5.92204,-5.98647,-0.146984,48,7
8.97614,-9.07697,3.42055,12,15
7.49505,-7.60043,0.186322,41,8
0.372116,-0.37748,-0.122373,15,1
0.442265,-0.448954,-0.122499,15,2
7.63013,-7.74823,0.951392,53,10
6.86381,-6.97249,-1.54964,15,3
9.11878,-9.26315,1.596,43,11
3.77329,-3.83437,-0.660532,2,4
8.5459,-8.68727,1.93009,46,12
7.13717,-7.25777,-0.890557,20,5
5.70038,-5.80075,-0.426224,36,6
7.57252,-7.70854,2.49471,67,14
5.81703,-5.92152,-0.14489,65,7
8.95794,-9.12203,3.42573,12,15
7.48812,-7.64929,0.186845,17,8
0.34347,-0.350985,-0.113375,16,1
0.440695,-0.450495,-0.122499,15,2
7.59468,-7.76627,0.950346,53,10
4.12327,-4.2179,-0.934227,68,3
9.07366,-9.28515,1.59405,29,11
3.77863,-3.86805,-0.663944,27,4
8.49606,-8.70016,1.92602,19,12
5.51515,-5.64764,-0.690622,10,5
7.79511,-7.98515,2.16912,35,13
5.40949,-5.54331,-0.405918,50,6
7.61224,-7.80328,2.51675,48,14
7.31426,-7.50044,-0.182866,81,7
8.648,-8.87122,3.31961,9,15
7.48786,-7.70262,0.187509,13,8
0.369405,-0.380133,-0.122373,15,1
7.36471,-7.58124,0.553924,65,9
0.43912,-0.45203,-0.122499,15,2
7.58973,-7.8156,0.953135,40,10
4.10026,-4.22376,-0.93235,53,3
9.05226,-9.32816,1.596,50,11
6.99115,-7.20676,-1.23283,27,4
3.84762,-3.96766,-0.48354,13,5
7.72756,-7.97144,2.15805,25,13
5.39427,-5.56646,-0.406232,32,6
8.91374,-9.20148,2.95766,27,14
5.8858,-6.07791,-0.147682,40,7
5.75402,-5.96055,0.144611,36,8
0.368076,-0.38142,-0.122373,15,1
7.3493,-7.6184,0.554761,45,9
0.453896,-0.470516,-0.127079,14,2
7.54857,-7.8277,0.951392,51,10
4.0759,-4.22809,-0.930159,50,3
9.00311,-9.34255,1.59308,36,11
6.96871,-7.23398,-1.23332,30,4
8.50363,-8.8304,1.94166,39,12
3.78883,-3.9358,-0.477962,6,5
5.82851,-6.06095,-0.146775,89,7
8.53766,-8.88124,3.30098,26,15
7.42975,-7.75038,0.187404,7,8
0.382922,-0.399586,-0.127772,14,1
7.31852,-7.63968,0.554447,39,9
0.425011,-0.443818,-0.119446,15,2
7.48401,-7.8179,0.94686,55,10
4.08359,-4.26727,-0.935478,66,3
8.91417,-9.31512,1.58308,47,11
6.91186,-7.22527,-1.22771,33,4
8.44545,-8.83148,1.93541,44,12
3.76956,-3.94325,-0.477265,13,5
5.31981,-5.56881,-0.403615,36,6
8.83152,-9.24812,2.95226,10,14
7.1787,-7.51733,-0.181435,63,7
8.52661,-8.93195,3.30874,30,15
5.67814,-5.9668,0.143773,28,8
0.365337,-0.384044,-0.122373,15,1
7.28083,-7.65632,0.553715,38,9
0.453223,-0.476597,-0.127842,14,2
7.40451,-7.7891,0.940236,46,10
4.06867,-4.2815,-0.935478,66,3
8.91142,-9.38083,1.58869,29,11
5.32154,-5.60381,-0.948875,37,4
8.40758,-8.85664,1.93416,35,12
8.59247,-9.05141,-1.09189,26,5
7.72604,-8.14155,2.18171,8,13
5.55189,-5.85251,-0.42277,29,6
5.68043,-5.9922,-0.144122,64,7
8.48452,-8.95333,3.30512,25,15
9.43154,-9.98055,0.239691,8,8
0.363994,-0.385317,-0.122373,15,1
0.438078,-0.463902,-0.124026,14,2
7.51815,-7.96413,0.95819,59,10
4.09844,-4.34308,-0.945803,43,3
7.63768,-8.09641,1.36664,39,11
5.30875,-5.62957,-0.950094,12,4
8.83416,-9.3713,-1.12675,4,5
7.81202,-8.28992,2.21415,14,13
7.03103,-7.46376,-0.537386,17,6
8.15486,-8.65978,2.7462,21,14
5.64851,-6.00035,-0.143843,96,7
8.48764,-9.01947,3.31858,25,15
8.30468,-8.84977,0.211837,13,8
0.362647,-0.386585,-0.122373,15,1
0.425712,-0.453972,-0.120973,15,2
7.42081,-7.91619,0.9493,48,10
4.09136,-4.36601,-0.94768,45,3
7.5958,-8.10854,1.36421,58,11
5.304,-5.66401,-0.952775,36,4
8.76599,-9.36426,-1.12222,11,5
7.69182,-8.21966,2.1882,10,13
6.99948,-7.48242,-0.536967,7,6
8.10861,-8.67112,2.7408,46,14
5.59476,-5.98497,-0.143005,64,7
8.49567,-9.09138,3.33411,24,15
7.00998,-7.52254,0.179481,33,8
0.361295,-0.387849,-0.122373,15,1
7.60315,-8.1648,0.584697,60,9
0.44018,-0.472697,-0.125552,14,2
7.38499,-7.9333,0.948254,17,10
4.06802,-4.37159,-0.945803,15,3
7.52148,-8.08558,1.35592,59,11
6.82119,-7.33534,-1.22991,22,4
7.8571,-8.45228,1.82778,41,12
9.00048,-9.68228,-1.15656,23,5
6.98691,-7.52144,-0.538014,10,6
8.06371,-8.68366,2.73585,38,14
5.68947,-6.12904,-0.145972,81,7
8.32854,-8.97513,3.28079,21,15
0.373172,-0.403413,-0.126872,15,1
7.55561,-8.17076,0.583232,35,9
0.422533,-0.456933,-0.120973,15,2
7.29774,-7.89465,0.940585,44,10
4.06882,-4.40317,-0.949557,6,3
7.47435,-8.09138,1.35251,53,11
5.39765,-5.84528,-0.976905,39,4
7.81817,-8.4695,1.82559,27,12
8.90447,-9.6463,-1.14854,19,5
9.17867,-9.94683,2.63087,18,13
9.68256,-10.4966,-0.748404,68,6
7.94748,-8.61864,2.70661,59,14
5.48778,-5.95331,-0.14133,88,7
8.3037,-9.01125,3.28338,23,15
0.358579,-0.390361,-0.122373,15,1
7.41357,-8.07351,0.57444,34,9
0.436869,-0.475758,-0.125552,14,2
7.24589,-7.89366,0.937447,17,10
3.48982,-3.80314,-0.817527,12,3
7.45948,-8.13204,1.35494,46,11
5.3477,-5.8319,-0.971543,18,4
7.83928,-8.55207,1.83748,42,12
11.0046,-12.0052,-1.42482,5,5
7.93577,-8.66645,2.71291,48,14
5.48992,-5.9975,-0.141923,72,7
8.16786,-8.92616,3.24197,43,15
7.17344,-7.86143,0.185763,51,8
0.357214,-0.391611,-0.122373,15,1
6.89685,-7.56361,0.536444,22,9
0.404781,-0.443914,-0.116775,16,2
7.21829,-7.9189,0.937447,36,10
3.48185,-3.82114,-0.818778,12,3
7.41902,-8.14483,1.35275,40,11
6.75469,-7.41811,-1.23186,45,4
7.82533,-8.59691,1.84123,33,12
9.23614,-10.1504,-1.20066,10,5
8.68487,-9.54455,2.50838,25,13
6.90776,-7.59419,-0.538014,17,6
8.45227,-9.2987,-0.219342,93,7
8.13795,-8.95605,3.24249,35,15
7.15535,-7.89679,0.186008,43,8
0.340146,-0.375523,-0.116975,16,1
0.421596,-0.465772,-0.122118,15,2
7.68917,-8.49784,1.00264,14,10
8.47542,-9.37006,-2.00111,16,3
7.33062,-8.10443,1.34178,46,11
6.8832,-7.61244,-1.26013,28,4
8.45625,-9.35544,1.99736,20,12
10.662,-11.7998,-1.39135,13,5
9.02751,-9.99445,2.6179,38,13
7.0753,-7.83589,-0.553296,52,6
7.89967,-8.75194,2.72191,10,14
8.72123,-9.66214,-0.227195,46,7
8.15841,-9.04177,3.26319,31,15
7.17718,-7.97946,0.187334,58,8
0.354403,-0.394157,-0.122373,15,1
6.7037,-7.45829,0.525558,72,9
0.414718,-0.461401,-0.120591,15,2
7.14413,-7.95109,0.935181,4,10
5.2562,-5.85197,-1.24584,45,3
7.37646,-8.21543,1.35567,46,11
6.8579,-7.64057,-1.26062,22,4
8.58945,-9.5731,2.03709,46,12
7.97684,-8.89034,-1.045,19,5
9.01223,-10.0478,2.62362,16,13
7.3279,-8.17282,-0.575277,54,6
6.96568,-7.77429,-0.182203,99,7
8.17935,-9.13205,3.28493,20,15
7.1333,-7.98657,0.186915,13,8
0.327067,-0.366319,-0.113375,16,1
6.6989,-7.50548,0.527232,72,9
0.431407,-0.483351,-0.125934,14,2
7.23571,-8.10978,0.950869,21,10
5.21734,-5.84964,-1.24146,36,3
7.3451,-8.23817,1.35519,40,11
8.37785,-9.39979,-1.54603,48,4
8.16701,-9.16645,1.94448,23,12
7.0657,-7.93036,-0.929255,16,5
9.42237,-10.5792,2.75376,22,13
6.89558,-7.74487,-0.543457,56,6
7.43156,-8.34979,2.58064,45,14
6.92255,-7.78063,-0.181784,100,7
8.17053,-9.18653,3.29425,45,15
7.04168,-7.93961,0.18524,13,8
0.351642,-0.396621,-0.122373,15,1
6.7177,-7.57697,0.530687,21,9
0.40107,-0.452531,-0.117538,16,2
7.09373,-8.00673,0.935878,40,10
8.34409,-9.42133,-1.99329,26,3
7.03338,-7.9442,1.30278,45,11
8.34367,-9.42749,-1.54579,50,4
8.34211,-9.42572,1.9936,14,12
7.34426,-8.30117,-0.969695,23,5
8.87423,-10.034,2.60378,19,13
6.81956,-7.71353,-0.539584,31,6
7.43721,-8.41511,2.59279,26,14
8.19448,-9.27196,-0.215991,100,7
8.14898,-9.22371,3.29787,24,15
7.08273,-8.03944,0.18702,41,8
0.350325,-0.397785,-0.122373,15,1
6.71628,-7.62886,0.532675,58,9
0.402082,-0.456875,-0.118302,15,2
7.01573,-7.9746,0.929255,48,10
5.13564,-5.83756,-1.23145,26,3
6.90606,-7.8527,1.28402,57,11
7.76319,-8.83043,-1.44366,8,4
7.04567,-8.01991,-0.933961,22,5
7.57237,-8.61945,2.23018,10,13
6.81108,-7.75561,-0.540945,45,6
7.53397,-8.58178,2.63643,60,14
8.20296,-9.3471,-0.217073,25,7
7.80332,-8.89485,3.17053,51,15
8.35943,-9.55563,0.221611,30,8
0.348934,-0.399006,-0.122373,15,1
6.60811,-7.55903,0.526186,75,9
0.369479,-0.422797,-0.109143,17,2
6.94205,-7.94381,0.922979,66,10
8.30576,-9.50766,-1.99955,31,3
6.81724,-7.80649,1.27256,60,11
8.28584,-9.49154,-1.54701,53,4
8.43846,-9.66978,2.03271,26,12
7.01632,-8.04296,-0.933787,26,5
6.79179,-7.79106,-0.541677,31,6
7.40921,-8.49932,2.60313,24,14
7.66842,-8.79978,-0.203739,25,7
7.72528,-8.86814,3.15138,37,15
6.91489,-7.96309,0.184088,13,8
0.329585,-0.379679,-0.116075,16,1
6.56204,-7.56208,0.52472,76,9
0.406521,-0.468639,-0.120591,15,2
6.93508,-7.99479,0.925943,32,10
5.65928,-6.52634,-1.36818,25,3
6.75217,-7.78942,1.26574,69,11
8.27049,-9.54435,-1.55067,47,4
7.00096,-8.08213,1.69356,37,12
6.98679,-8.06862,-0.933787,24,5
6.74228,-7.79174,-0.540002,56,6
7.40096,-8.55295,2.61123,70,14
7.62435,-8.81421,-0.203425,100,7
7.66619,-8.86571,3.14051,25,15
6.78252,-7.86872,0.181331,52,8
0.346,-0.401553,-0.122373,15,1
6.54342,-7.59402,0.525348,65,9
0.404883,-0.470055,-0.120591,15,2
6.90963,-8.02468,0.926466,10,10
5.66883,-6.58597,-1.37631,35,3
6.74429,-7.83819,1.26963,60,11
10.9267,-12.7034,-2.0574,27,4
6.9352,-8.06576,-0.930649,40,5
7.19273,-8.37119,-0.578417,64,6
7.18037,-8.35975,2.5442,30,14
7.63262,-8.88628,-0.204472,57,7
7.70189,-8.9701,3.16795,12,15
6.76549,-7.9018,0.181575,60,8
0.344667,-0.402698,-0.122373,15,1
6.69216,-7.82169,0.539479,51,9
0.403239,-0.471466,-0.120591,15,2
7.37747,-8.62875,0.993227,2,10
5.65209,-6.61074,-1.37756,28,3
6.74922,-7.89673,1.27548,54,11
7.84003,-9.17625,-1.48193,9,4
8.49796,-9.94983,2.07244,4,12
7.11577,-8.33444,2.13019,22,13
7.16234,-8.39195,-0.578208,74,6
7.03498,-8.24564,2.50236,76,14
7.58598,-8.89461,-0.204054,100,7
7.67179,-8.9984,3.16846,29,15
6.67181,-7.84767,0.179795,55,8
0.343259,-0.403899,-0.122373,15,1
8.20883,-9.66241,0.664457,26,9
0.391505,-0.460831,-0.117538,16,2
5.60341,-6.60031,-1.3713,37,3
6.57647,-7.74922,1.24794,40,11
16.5302,-19.4849,-3.1374,20,4
9.45359,-11.1473,-1.27875,13,5
6.82638,-8.05224,2.05196,29,13
7.13429,-8.41843,-0.578312,64,6
7.00868,-8.27312,2.50326,54,14
7.59624,-8.96987,-0.20517,100,7
7.61911,-9.00005,3.15966,12,15
6.67275,-7.90453,0.180563,58,8
0.341847,-0.405094,-0.122373,15,1
8.15315,-9.66505,0.662678,75,9
0.397489,-0.471198,-0.119828,15,2
5.46066,-6.47785,-1.34189,60,3
6.41122,-7.60818,1.22162,69,11
8.74135,-10.377,-1.66595,7,4
8.43084,-10.0119,2.07307,30,12
6.8351,-8.11694,-0.928383,28,5
6.87662,-8.16914,2.07562,35,13
7.08043,-8.41424,-0.576324,57,6
7.05878,-8.39149,2.5316,61,14
7.534,-8.9596,-0.204333,96,7
7.55657,-8.98963,3.14672,9,15
6.64897,-7.93237,0.180667,61,8
0.340431,-0.406285,-0.122373,15,1
8.11808,-9.69192,0.662573,35,9
0.403322,-0.481683,-0.122118,15,2
6.37062,-7.61377,1.21894,48,11
8.85408,-10.5856,-1.69447,36,4
6.83223,-8.17125,1.68699,41,12
6.80019,-8.13582,-0.927686,20,5
6.88062,-8.23497,2.08592,45,13
6.97657,-8.35276,-0.570357,84,6
6.97448,-8.35027,2.5118,67,14
7.45782,-8.93212,-0.203111,21,7
7.5598,-9.05748,3.16122,37,15
6.61346,-7.949,0.180493,62,8
0.314017,-0.377565,-0.113375,16,1
7.42493,-8.93067,0.608667,7,9
0.394024,-0.474099,-0.119828,15,2
8.09422,-9.73915,1.10792,83,10
5.42553,-6.53044,-1.34471,37,3
6.31223,-7.60042,1.21309,55,11
8.46906,-10.201,-1.62793,10,4
8.1319,-9.7984,2.01675,39,12
6.78432,-8.17756,-0.929603,24,5
6.84036,-8.24804,2.08287,42,13
6.91531,-8.34137,-0.567845,60,6
6.96,-8.39528,2.51765,52,14
7.4429,-8.98095,-0.2036,25,7
7.36018,-8.88429,3.09133,50,15
6.63521,-8.03486,0.181889,63,8
0.337443,-0.40877,-0.122373,15,1
6.53916,-7.92417,0.538432,15,9
0.387369,-0.469415,-0.118302,15,2
8.06227,-9.77337,1.10845,64,10
5.41287,-6.564,-1.34753,13,3
6.23635,-7.56529,1.20383,49,11
10.4477,-12.6786,-2.01718,18,4
7.36245,-8.93772,1.83404,50,12
6.7532,-8.19811,-0.929255,34,5
6.74788,-8.19457,2.06341,52,13
6.88488,-8.36392,-0.56774,60,6
6.90566,-8.39214,2.5091,30,14
7.40993,-9.00817,-0.2036,20,7
7.26622,-8.8366,3.06545,32,15
6.59445,-8.04251,0.18154,57,8
0.336014,-0.409945,-0.122373,15,1
8.56337,-10.4512,0.708106,24,9
0.385728,-0.470764,-0.118302,15,2
8.07103,-9.85385,1.11437,30,10
6.70017,-8.18309,-1.6751,10,3
6.30294,-7.70069,1.22186,60,11
10.4059,-12.718,-2.01767,11,4
7.3237,-8.95419,1.83216,56,12
6.74725,-8.2494,-0.932392,24,5
6.6919,-8.18464,2.05501,36,13
6.82657,-8.35233,-0.565333,50,6
6.81344,-8.33923,2.48616,37,14
9.08486,-11.1233,-0.250686,22,7
7.18279,-8.79756,3.04319,37,15
6.57391,-8.07478,0.181749,36,8
0.334581,-0.411116,-0.122373,15,1
8.5085,-10.4548,0.706431,56,9
0.402667,-0.494952,-0.124026,14,2
8.62868,-10.61,1.19647,63,10
5.31707,-6.54032,-1.33501,36,3
6.20466,-7.63484,1.20797,60,11
7.76167,-9.55414,-1.51142,6,4
7.32013,-9.01063,1.83873,61,12
6.74227,-8.30228,-0.935704,16,5
6.68308,-8.23234,2.06112,43,13
6.79486,-8.37301,-0.565124,47,6
6.75237,-8.32362,2.47446,39,14
8.06527,-9.94203,-0.223461,56,7
7.2278,-8.91286,3.07477,37,15
6.57979,-8.13697,0.182657,56,8
0.333216,-0.412223,-0.122373,15,1
8.37655,-10.3664,0.698476,56,9
0.396002,-0.490245,-0.122499,15,2
8.55654,-10.5967,1.19159,47,10
5.28294,-6.54254,-1.33188,11,3
6.16435,-7.63683,1.20504,63,11
6.56192,-8.13227,-1.28304,19,4
7.27871,-9.02382,1.83623,52,12
6.72701,-8.34283,-0.937621,20,5
6.60276,-8.18874,2.04471,45,13
6.78085,-8.4126,-0.566275,37,6
8.03299,-9.96963,2.95586,53,14
8.79945,-10.9248,-0.244857,21,7
7.16272,-8.8959,3.06028,15,15
6.56386,-8.17548,0.183006,52,8
0.331775,-0.413384,-0.122373,15,1
8.31282,-10.3613,0.696173,42,9
0.382088,-0.476242,-0.118683,15,2
9.0287,-11.2576,1.26254,52,10
5.31073,-6.62413,-1.34471,32,3
6.10165,-7.61338,1.19798,55,11
7.6071,-9.49521,-1.49387,10,4
7.24099,-9.04146,1.83466,47,12
6.6829,-8.3476,-0.93553,20,5
6.55941,-8.19334,2.04013,43,13
6.82257,-8.52511,-0.572241,27,6
7.99814,-9.99761,2.95586,25,14
8.01705,-10.0284,3.44022,36,15
6.70854,-8.41569,0.187858,15,8
0.33033,-0.414539,-0.122373,15,1
8.28158,-10.3965,0.696592,19,9
0.39257,-0.492998,-0.122499,15,2
8.15477,-10.2446,1.14558,17,10
8.9628,-11.2637,-2.27988,8,3
6.07998,-7.64085,1.19895,55,11
7.89891,-9.93029,-1.55798,21,4
7.2143,-9.07287,1.83592,56,12
6.65744,-8.37555,-0.936053,10,5
6.56109,-8.25729,2.05005,13,13
9.14655,-11.5153,-0.770699,35,6
6.84175,-8.61669,2.54015,35,14
8.67074,-10.9202,-0.243391,97,7
7.97238,-10.0442,3.43608,42,15
6.6913,-8.45747,0.188242,40,8
0.328809,-0.415747,-0.122373,15,1
8.96754,-11.3386,0.757615,10,9
0.390847,-0.494365,-0.122499,15,2
9.00968,-11.4,1.27125,24,10
7.66334,-9.7,-1.95793,2,3
6.1356,-7.76902,1.21553,33,11
7.92273,-10.0355,-1.56992,32,4
7.32825,-9.2825,1.87315,10,12
7.58351,-9.60928,-1.07097,11,5
6.45319,-8.17996,2.02525,33,13
8.99375,-11.4044,-0.761174,58,6
6.78268,-8.60379,2.52935,45,14
8.52858,-10.8184,-0.240459,71,7
7.93967,-10.075,3.43712,38,15
0.327428,-0.416835,-0.122373,15,1
8.88104,-11.3101,0.753638,15,9
0.381845,-0.486461,-0.12021,15,2
8.99074,-11.4581,1.27422,22,10
6.46293,-8.23656,-1.65821,6,3
6.16738,-7.86273,1.22698,48,11
7.83061,-9.98675,-1.55822,30,4
7.30677,-9.32202,1.87596,21,12
9.27151,-11.8329,-1.31518,21,5
6.38486,-8.14877,2.01227,41,13
6.77814,-8.65692,2.53835,18,14
8.48953,-10.8466,-0.240424,79,7
7.94254,-10.1514,3.45368,22,15
0.31159,-0.399535,-0.116975,16,1
8.83734,-11.3317,0.753114,26,9
0.375402,-0.481531,-0.118683,15,2
8.84737,-11.3527,1.25923,41,10
8.82813,-11.3321,-2.27518,1,3
7.71888,-9.91534,-1.54287,16,4
8.20895,-10.5449,2.11656,49,12
9.06214,-11.645,-1.29095,13,5
6.28164,-8.07493,1.98861,43,13
6.68449,-8.59588,-0.570671,33,6
6.74549,-8.67745,2.53745,41,14
6.91205,-8.89172,-0.196584,56,7
8.19807,-10.5499,3.57999,29,15
8.06653,-10.4106,0.229883,56,8
0.324583,-0.419054,-0.122373,15,1
8.78306,-11.3435,0.751858,30,9
0.385735,-0.498364,-0.122499,15,2
8.86255,-11.4544,1.26707,71,10
8.75665,-11.3175,-2.26642,6,3
8.44189,-10.9147,1.69423,30,11
11.4039,-14.7496,-2.28919,7,4
8.1117,-10.4953,2.10091,27,12
9.08112,-11.7538,-1.29949,28,5
6.12159,-7.92327,1.94625,54,13
8.94499,-11.5818,-0.766931,45,6
6.63927,-8.59951,2.5082,60,14
6.88219,-8.91737,-0.196619,75,7
7.96531,-10.3245,3.49406,8,15
0.323045,-0.420241,-0.122373,15,1
8.74386,-11.3788,0.752068,17,9
0.37673,-0.490433,-0.12021,15,2
8.81523,-11.4758,1.26602,19,10
13.1268,-17.0948,-3.41371,5,3
8.4393,-10.9943,1.70178,26,11
13.4005,-17.4638,-2.70282,3,4
7.16667,-9.34316,1.86501,10,12
8.94827,-11.67,-1.28659,31,5
6.08396,-7.93737,1.94396,41,13
8.90896,-11.6272,-0.767664,26,6
6.83053,-8.9146,2.59279,28,14
8.63934,-11.2794,-0.247999,100,7
8.35843,-10.9166,3.68403,16,15
8.29936,-10.8748,0.238784,68,8
0.321503,-0.421422,-0.122373,15,1
6.32946,-8.29958,0.547015,17,9
0.382072,-0.501178,-0.122499,15,2
7.62438,-10.0012,1.10025,19,10
7.16362,-9.4002,-1.8719,5,3
8.36045,-10.9747,1.69398,45,11
13.4302,-17.636,-2.72183,13,4
7.12879,-9.36465,1.86407,11,12
11.3342,-14.8944,-1.63748,18,5
6.11307,-8.03618,1.96266,48,13
8.76594,-11.5278,-0.758976,48,6
6.59374,-8.67121,2.51495,56,14
8.14052,-10.7092,-0.234805,100,7
8.19213,-10.781,3.62813,9,15
0.319956,-0.422598,-0.122373,15,1
8.74579,-11.5556,0.759499,13,9
0.385059,-0.50877,-0.124026,14,2
8.78977,-11.6179,1.27457,22,10
15.8073,-20.901,-4.15052,3,3
8.32137,-11.0068,1.69423,41,11
6.55407,-8.67232,-1.33471,5,4
8.84242,-11.7045,2.32336,16,12
15.7234,-20.8127,-2.28209,13,5
6.0412,-7.9995,1.94854,52,13
6.66757,-8.83532,2.55544,22,14
8.06267,-10.6879,-0.233688,100,7
8.04555,-10.6691,3.5805,11,15
7.34765,-9.77193,0.213408,5,8
