x, y, z, intensity, ring
-1.35392,0.740942,-0.356322,4,1
-1.37698,0.753877,0.0822721,100,9
-0.616498,0.337523,-0.136619,12,2
-1.37,0.750364,0.13666,100,10
-0.940673,0.515431,-0.169888,35,3
-1.36994,0.750955,0.191822,100,11
-1.37155,0.752149,-0.192066,100,4
-17.5767,9.64291,3.17531,11,12
-1.35376,0.742696,-0.135091,100,5
-18.0162,9.88811,3.99478,22,13
-1.36381,0.748829,-0.0815394,125,6
-20.7935,11.4219,5.47711,24,14
-1.37572,0.755998,-0.0274003,100,7
-20.7227,11.3924,6.33641,16,15
-1.33649,0.736868,-0.408934,2,0
-1.35878,0.749465,0.0270861,100,8
-1.37085,0.756748,0.0820628,100,9
-0.611878,0.337775,-0.135856,12,2
-1.36912,0.756105,0.136835,100,10
-0.942326,0.520621,-0.170514,48,3
-1.36384,0.753812,0.191335,100,11
-1.34807,0.745405,-0.189141,100,4
-17.2888,9.56365,3.12932,17,12
-1.35464,0.749345,-0.13544,100,5
-23.5798,13.049,5.23847,18,13
-1.3507,0.747782,-0.0809114,128,6
-20.6682,11.4472,5.45461,12,14
-1.36608,0.756919,-0.0272607,100,7
-21.1221,11.7082,6.47099,17,15
-1.32378,0.735897,-0.405828,2,0
-1.36139,0.75712,0.0271908,100,8
-1.36296,0.758614,0.0817488,100,9
-0.579818,0.322722,-0.128987,13,2
-1.36821,0.761849,0.137009,100,10
-0.940503,0.523907,-0.170514,65,3
-1.3664,0.761467,0.192066,121,11
-1.3472,0.751072,-0.189385,100,4
-18.0231,10.0521,3.26854,21,12
-1.35202,0.754069,-0.13544,100,5
-18.1147,10.1074,4.03218,22,13
-1.35855,0.758332,-0.0815394,125,6
-20.6332,11.5221,5.45596,30,14
-1.35645,0.757782,-0.027121,100,7
-20.8383,11.6461,6.39645,14,15
-1.30435,0.731068,-0.400652,2,0
-1.36572,0.76578,0.0273305,100,8
-1.36205,0.764345,0.0818534,100,9
-0.609505,0.342038,-0.135856,12,2
-1.35512,0.760768,0.135963,100,10
-0.935224,0.525252,-0.169888,65,3
-1.3672,0.768177,0.192554,100,11
-1.34803,0.757716,-0.189872,100,4
-17.8518,10.0385,3.24383,24,12
-1.33896,0.752925,-0.134394,100,5
-1.35589,0.76307,-0.0815394,128,6
-23.5408,13.2537,6.23699,41,14
-1.35031,0.760549,-0.0270512,100,7
-23.588,13.2912,7.2547,9,15
-1.30852,0.739418,-0.402722,2,0
-1.34215,0.758733,0.0269116,100,8
-1.35192,0.764569,-0.358572,5,1
-1.36646,0.77279,0.0822721,100,9
-0.536541,0.30356,-0.119828,15,2
-1.35072,0.764512,0.135789,100,10
-0.923071,0.522674,-0.168011,35,3
-1.3576,0.769031,0.191579,100,11
-1.35574,0.768289,-0.191335,100,4
-17.5504,9.94569,3.19502,14,12
-1.32939,0.753663,-0.133697,100,5
-18.0506,10.2375,4.0337,22,13
-1.35669,0.769769,-0.0817488,128,6
-23.5283,13.3551,6.24599,41,14
-1.35126,0.766997,-0.027121,100,7
-23.4397,13.3102,7.2226,9,15
-1.35005,0.769119,0.027121,100,8
-1.36375,0.777556,0.0822721,100,9
-0.552532,0.315159,-0.123644,14,2
-1.35324,0.772185,0.136312,100,10
-0.947069,0.540417,-0.172704,13,3
-1.34814,0.769592,0.190604,100,11
-1.33594,0.762936,-0.188898,100,4
-17.7454,10.1382,3.23694,31,12
-1.33367,0.762254,-0.134394,100,5
-23.2664,13.2978,5.20909,3,13
-1.33679,0.764351,-0.0807021,125,6
-23.6023,13.5007,6.27748,8,14
-1.35204,0.773696,-0.0271908,100,7
-21.8909,12.5319,6.7588,20,15
-1.32021,0.757926,-0.407899,2,0
-1.34389,0.771835,0.0270512,100,8
-1.3281,0.763075,-0.353623,5,1
-1.35237,0.777335,0.0817488,100,9
-0.5651,0.324816,-0.126697,14,2
-1.35067,0.776668,0.136312,100,10
-1.26024,0.72496,-0.230272,6,3
-1.35061,0.777264,0.191335,100,11
-1.32295,0.761652,-0.187435,100,4
-17.7989,10.2514,3.25321,19,12
-1.34149,0.772639,-0.13544,100,5
-24.9821,14.3944,5.60444,16,13
-1.33412,0.769012,-0.0807021,131,6
-23.5061,13.5548,6.26444,25,14
-1.34587,0.776412,-0.027121,100,7
-21.8102,12.587,6.74741,24,15
-1.29414,0.748982,-0.400652,2,0
-1.33946,0.775519,0.0270163,100,8
-1.35311,0.784053,0.0819581,100,9
-0.587745,0.340567,-0.13204,13,2
-1.34967,0.782377,0.136486,100,10
-1.29016,0.748183,-0.236216,11,3
-1.35132,0.783966,0.191822,100,11
-1.33059,0.772244,-0.188898,100,4
-17.341,10.0684,3.17593,42,12
-1.32845,0.771315,-0.134394,100,5
-24.93,14.4805,5.60406,20,13
-1.34179,0.779685,-0.0813301,131,6
-21.8109,12.679,5.82443,49,14
-1.33797,0.778089,-0.0270163,100,7
-28.3485,16.4926,8.78794,14,15
-1.30821,0.76323,-0.405828,2,0
-1.3402,0.782206,0.0270861,100,8
-1.3505,0.788536,0.0819581,100,9
-0.576381,0.336675,-0.12975,13,2
-1.34005,0.783063,0.135789,100,10
-1.3046,0.762651,-0.239345,15,3
-1.35201,0.790682,0.19231,100,11
-1.32103,0.772875,-0.187923,100,4
-17.3382,10.1438,3.18156,21,12
-1.31715,0.770915,-0.133523,100,5
-20.8539,12.2105,4.69734,31,13
-1.3425,0.786383,-0.0815394,134,6
-21.7816,12.7639,5.82848,36,14
-1.3371,0.783533,-0.0270512,100,7
-28.2004,16.5318,8.75896,21,15
-1.29721,0.762895,-0.40324,2,0
-1.32553,0.77955,0.0268418,100,8
-1.32689,0.780663,-0.355423,5,1
-1.34946,0.794258,0.0820628,100,9
-0.554901,0.326731,-0.125171,14,2
-1.34074,0.789758,0.136137,100,10
-1.29185,0.760958,-0.237468,16,3
-1.34767,0.794154,0.192066,100,11
-1.33385,0.786324,-0.190116,100,4
-15.9994,9.43563,2.94191,6,12
-1.31617,0.77652,-0.133697,100,5
-17.5549,10.3572,3.96196,18,13
-1.33989,0.79083,-0.0815394,134,6
-21.3482,12.6052,5.72365,34,14
-1.33092,0.786161,-0.0269814,100,7
-28.2656,16.7029,8.79726,14,15
-1.30797,0.775071,-0.407381,2,0
-1.32624,0.786211,0.0269116,100,8
-1.32416,0.78529,-0.355423,5,1
-1.34682,0.798729,0.0820628,100,9
-0.584207,0.346601,-0.13204,13,2
-1.3364,0.793183,0.135963,100,10
-1.2773,0.758403,-0.235277,11,3
-1.33806,0.794798,0.191091,100,11
-1.31929,0.783646,-0.18841,100,4
-1.31701,0.782917,-0.134046,100,5
-17.1458,10.1966,3.87762,50,13
-1.31996,0.785291,-0.0804927,131,6
-20.2964,12.0751,5.45236,42,14
-1.35064,0.803866,-0.0274352,100,7
-28.1005,16.7313,8.7631,14,15
-1.31368,0.784357,-0.409969,2,0
-1.32191,0.78958,0.0268767,100,8
-1.31318,0.784679,-0.353173,5,1
-1.3373,0.799093,0.0816441,100,9
-0.603276,0.360624,-0.136619,12,2
-1.33719,0.799655,0.136312,100,10
-0.918787,0.549665,-0.169575,8,3
-1.34223,0.803308,0.192066,100,11
-1.32179,0.791075,-0.189141,100,4
-15.7381,9.42281,2.9053,46,12
-1.32466,0.793422,-0.135091,100,5
-17.3594,10.4017,3.93372,15,13
-1.32077,0.791718,-0.0807021,140,6
-20.278,12.1554,5.45821,49,14
-1.33253,0.799085,-0.027121,100,7
-27.8361,16.6992,8.69787,28,15
-1.30114,0.782734,-0.406864,1,0
-1.33299,0.802208,0.0271559,100,8
-1.32894,0.800085,-0.358122,4,1
-1.33793,0.805817,0.0818534,100,9
-0.551623,0.332235,-0.125171,14,2
-1.33965,0.80717,0.136835,100,10
-0.901733,0.543531,-0.166759,19,3
-1.34296,0.809805,0.192554,100,11
-1.30712,0.788507,-0.187435,100,4
-15.6307,9.43278,2.89154,33,12
-1.30497,0.787516,-0.133348,164,5
-17.0643,10.302,3.87457,21,13
-1.3284,0.802288,-0.0813301,138,6
-20.2238,12.219,5.45506,6,14
-1.31947,0.797525,-0.0269116,100,7
-27.5181,16.6393,8.6166,13,15
-1.2951,0.785267,-0.405828,1,0
-1.32163,0.801671,0.0269814,100,8
-1.31281,0.796632,-0.354523,4,1
-1.33852,0.812555,0.0820628,100,9
-0.563886,0.342309,-0.128224,14,2
-1.3266,0.805636,0.135789,100,10
-0.893077,0.542572,-0.165508,29,3
-1.3503,0.820674,0.194016,100,11
-1.30945,0.796158,-0.188166,100,4
-1.30221,0.792067,-0.133348,100,5
-1.32559,0.80692,-0.0813301,134,6
-20.2193,12.3128,5.46541,30,14
-1.32009,0.804206,-0.0269814,100,7
-16.6448,10.1441,5.22297,21,15
-1.29565,0.791798,-0.406864,1,0
-1.32224,0.808365,0.0270512,100,8
-1.32,0.80731,-0.357222,2,1
-1.3476,0.824519,0.0827955,91,9
-0.569386,0.348374,-0.12975,13,2
-1.32378,0.810262,0.135789,88,10
-0.874331,0.535371,-0.162379,17,3
-1.34912,0.826419,0.19426,100,11
-1.31005,0.802799,-0.188654,100,4
-15.6757,9.60981,2.91218,19,12
-1.30439,0.799959,-0.133871,100,5
-1.31936,0.809454,-0.0811207,125,6
-16.5123,10.1346,4.47293,9,14
-1.3258,0.814041,-0.0271559,100,7
-16.6291,10.2143,5.22918,31,15
-1.31576,0.810729,-0.41411,1,0
-1.31771,0.811927,0.0270163,100,8
-1.29726,0.799642,-0.351823,2,1
-1.34472,0.829218,0.0827955,84,9
-0.588156,0.362827,-0.13433,12,2
-1.33776,0.825572,0.137532,94,10
-0.843789,0.520931,-0.15706,14,3
-1.33441,0.823824,0.192554,87,11
-1.31062,0.809453,-0.189141,100,4
-15.7109,9.70704,2.92501,7,12
-1.31007,0.809745,-0.134743,100,5
-16.1689,9.99778,3.69521,43,13
-1.30959,0.810081,-0.0807021,122,6
-16.4137,10.1571,4.45628,65,14
-1.32635,0.820769,-0.0272258,100,7
-16.5999,10.2763,5.23125,19,15
-1.31292,0.815317,-0.41411,1,0
-1.32152,0.820972,0.0271559,100,8
-1.31253,0.815706,-0.356772,2,1
-1.33503,0.82969,0.0823768,72,9
-0.57855,0.359695,-0.132421,13,2
-1.33656,0.831289,0.137706,78,10
-0.831902,0.517612,-0.155183,16,3
-1.34149,0.835003,0.194016,66,11
-1.29262,0.804582,-0.186948,100,4
-20.2916,12.6353,3.78603,21,12
-1.30385,0.812206,-0.134394,100,5
-16.0822,10.022,3.68338,19,13
-1.31014,0.816761,-0.0809114,125,6
-16.3948,10.2208,4.46033,29,14
-1.32178,0.824335,-0.0271908,100,7
-16.518,10.3056,5.21676,19,15
-1.31021,0.819666,-0.41411,1,0
-1.32048,0.826411,0.0271908,100,8
-1.30486,0.816952,-0.355423,1,1
-1.32889,0.831993,0.0821675,67,9
-0.567371,0.355359,-0.130132,13,2
-1.33886,0.83889,0.138229,69,10
-0.790011,0.495188,-0.147674,30,3
-1.35553,0.849993,0.196453,30,11
-1.30003,0.815192,-0.18841,100,4
-16.5933,10.4089,3.10241,24,12
-1.3079,0.820762,-0.135091,100,5
-16.3,10.2329,3.741,47,13
-1.31081,0.823225,-0.0811207,100,6
-23.2409,14.5959,6.33597,8,14
-1.31565,0.826586,-0.027121,100,7
-16.4331,10.3284,5.20071,38,15
-1.30749,0.824007,-0.41411,1,0
-1.31773,0.830785,0.0271908,94,8
-1.32522,0.835829,-0.361721,1,1
-1.3378,0.844087,0.0829002,58,9
-0.559548,0.353048,-0.128605,14,2
-1.32765,0.838008,0.137357,54,10
-0.7583,0.478821,-0.142043,45,3
-1.35438,0.855543,0.196697,6,11
-1.30389,0.823966,-0.189385,100,4
-1.3018,0.822965,-0.134743,100,5
-16.2842,10.2984,3.7452,34,13
-1.30638,0.8265,-0.0810161,100,6
-15.765,9.97779,4.30736,56,14
-1.31107,0.830104,-0.0270861,100,7
-16.2157,10.271,5.14325,34,15
-1.31145,0.833235,0.027121,76,8
-1.30914,0.832087,-0.358122,1,1
-1.34327,0.85411,0.0834235,50,9
-0.564939,0.359213,-0.130132,13,2
-1.3348,0.849053,0.138403,33,10
-0.721625,0.459195,-0.135472,58,3
-16.3925,10.4351,2.38596,56,11
-1.3077,0.832778,-0.19036,100,4
-16.7685,10.6827,3.14903,27,12
-1.29556,0.825363,-0.134394,100,5
-16.0644,10.2381,3.70284,56,13
-1.31023,0.835349,-0.0814348,100,6
-15.7958,10.0747,4.32536,18,14
-1.31828,0.841129,-0.0272956,88,7
-16.1603,10.315,5.13704,17,15
-1.31527,0.84212,0.0272607,67,8
-1.33248,0.853469,-0.365321,1,1
-1.35052,0.865023,0.0840516,39,9
-0.557069,0.356946,-0.128605,14,2
-1.34693,0.863384,0.139972,9,10
-0.710041,0.455313,-0.133595,49,3
-16.1254,10.3444,2.35232,45,11
-1.29476,0.830905,-0.188898,93,4
-16.6731,10.6998,3.13776,26,12
-1.30273,0.836339,-0.13544,96,5
-16.9073,10.8585,3.90586,26,13
-1.3073,0.839918,-0.0814348,100,6
-15.7638,10.1319,4.32626,50,14
-1.33062,0.855227,-0.0276097,82,7
-15.7945,10.1554,5.03144,42,15
-1.31751,0.849729,0.0273654,57,8
-1.35085,0.871898,0.0842609,16,9
-0.552521,0.356758,-0.127842,14,2
-16.2323,10.4851,1.69065,42,10
-0.70189,0.453378,-0.132344,29,3
-16.1543,10.4387,2.36158,10,11
-1.28867,0.833038,-0.18841,81,4
-20.5719,13.3034,3.8802,20,12
-1.30315,0.843045,-0.135789,77,5
-16.1493,10.4474,3.73871,47,13
-1.30116,0.842078,-0.0812254,91,6
-15.7989,10.2286,4.34515,56,14
-1.32931,0.860953,-0.0276446,71,7
-15.7378,10.1969,5.02471,24,15
-1.33466,0.867399,0.0277842,42,8
-14.8425,9.6499,0.927812,31,9
-0.544752,0.354307,-0.126316,14,2
-16.1056,10.4791,1.68106,38,10
-0.711892,0.463369,-0.134534,27,3
-16.216,10.559,2.37596,56,11
-1.28243,0.835365,-0.187923,71,4
-16.0752,10.4713,3.03858,16,12
-1.30369,0.849538,-0.136137,70,5
-15.3759,10.0234,3.56775,39,13
-1.31327,0.856434,-0.0821675,78,6
-15.688,10.2347,4.32446,31,14
-1.31304,0.856616,-0.0273654,56,7
-15.6781,10.2321,5.01643,16,15
-1.34014,0.877297,0.0279588,9,8
-14.8906,9.75528,0.932941,72,9
-0.569785,0.373425,-0.132421,13,2
-16.0306,10.5101,1.67705,49,10
-0.728523,0.477641,-0.137975,12,3
-15.9999,10.494,2.3494,50,11
-1.29957,0.852681,-0.190847,70,4
-16.0038,10.5046,3.03201,37,12
-1.30404,0.85627,-0.136486,61,5
-15.4427,10.1401,3.59103,27,13
-1.32377,0.869557,-0.0830048,70,6
-15.4439,10.1486,4.26642,33,14
-1.32508,0.87108,-0.0276795,25,7
-15.7472,10.3558,5.05008,39,15
-13.4174,8.85052,0.280565,8,8
-0.568543,0.375312,-0.132421,13,2
-16.2018,10.6994,1.69867,10,10
-0.707073,0.467115,-0.134221,13,3
-19.8186,13.0978,2.91682,15,11
-1.29989,0.859401,-0.191335,55,4
-1.30286,0.861689,-0.13666,54,5
-15.5611,10.2957,3.6269,7,13
-1.32739,0.878582,-0.0834235,52,6
-15.475,10.2465,4.28487,50,14
-15.5179,10.2788,4.98744,19,15
-15.2568,10.1366,0.319728,28,8
-15.0068,9.97806,0.944455,29,9
-0.577038,0.383818,-0.134711,12,2
-16.1428,10.7415,1.6964,31,10
-0.698942,0.46508,-0.132969,28,3
-16.5974,11.0482,2.44811,26,11
-1.30034,0.865908,-0.191822,52,4
-1.31642,0.877281,-0.138403,40,5
-1.32447,0.882979,-0.0834235,12,6
-15.3744,10.2535,4.26642,36,14
-13.4707,8.98724,-0.282659,31,7
-15.4674,10.3233,4.98278,17,15
-15.2678,10.2209,0.320705,65,8
-14.8708,9.95886,0.937965,24,9
-0.565975,0.379173,-0.132421,13,2
-18.6625,12.5076,1.96554,4,10
-0.717003,0.480717,-0.136724,37,3
-16.3642,10.9755,2.41935,15,11
-1.29401,0.86823,-0.191335,40,4
-15.5309,10.4206,2.96224,25,12
-1.32509,0.889414,-0.139624,10,5
-15.3195,10.2865,3.58683,22,13
-14.6944,9.87048,-0.927707,21,6
-15.3741,10.331,4.27632,25,14
-13.9421,9.36869,-0.2932,93,7
-15.6463,10.5179,5.05163,35,15
-14.9056,10.0502,0.313794,16,8
-15.5064,10.4631,0.980357,7,9
-0.564648,0.381147,-0.132421,13,2
-16.0759,10.8556,1.6971,35,10
-0.723591,0.48862,-0.138288,47,3
-16.5596,11.1864,2.45372,10,11
-1.29935,0.878073,-0.192554,19,4
-15.4339,10.4338,2.95067,25,12
-13.0151,8.80193,-1.37462,13,5
-15.2089,10.2856,3.56889,39,13
-15.219,10.2963,-0.962982,36,6
-16.2113,10.9717,4.51927,40,14
-13.3546,9.04173,-0.281507,24,7
-15.8798,10.7555,5.13911,35,15
-14.7976,10.0527,0.312258,58,8
-15.777,10.7261,0.999826,4,9
-0.57637,0.391848,-0.135474,12,2
-20.5556,13.98,2.17488,22,10
-0.708815,0.482253,-0.135785,52,3
-14.9516,10.1764,2.2207,47,11
-11.637,7.92332,-1.72859,31,4
-15.2145,10.3631,2.91563,45,12
-15.1593,10.3293,-1.60489,35,5
-15.1761,10.3408,3.56965,19,13
-14.3149,9.75766,-0.907924,3,6
-15.78,10.7604,4.40949,45,14
-14.0234,9.56608,-0.296307,100,7
-15.638,10.6715,5.07285,13,15
-14.5859,9.98342,0.308524,22,8
-20.551,14.0768,1.30547,16,9
-0.604081,0.413933,-0.142344,11,2
-15.888,10.891,1.68524,14,10
-0.69401,0.47591,-0.133282,35,3
-15.0208,10.3004,2.2363,9,11
-11.6076,7.96277,-1.72835,48,4
-14.5105,9.96159,-1.53987,16,5
-16.6966,11.4667,3.93715,5,13
-15.0314,10.3269,-0.955759,52,6
-16.0376,11.0223,4.49272,30,14
-13.9487,9.58667,-0.295434,100,7
-19.7905,13.6067,6.43528,28,15
-14.5854,10.0618,0.309292,13,8
-16.3248,11.2659,1.0395,12,9
-0.573551,0.395962,-0.135474,12,2
-15.4958,10.7018,1.64759,37,10
-0.706971,0.488436,-0.136098,25,3
-18.0448,12.4716,2.69331,6,11
-15.1125,10.4488,2.90999,15,12
-14.7476,10.2003,-1.5688,16,5
-16.6791,11.5405,3.9425,13,13
-15.0445,10.4134,-0.958899,45,6
-16.1048,11.1515,4.52242,37,14
-15.7565,10.9103,-0.334528,51,7
-28.7345,19.9041,9.36614,16,15
-14.5224,10.0896,0.308663,60,8
-27.21,18.9185,1.73682,18,9
-0.578612,0.402446,-0.137001,12,2
-15.213,10.5851,1.62145,47,10
-0.70859,0.493034,-0.136724,12,3
-15.3949,10.7157,2.30309,39,11
-15.1471,10.5471,-2.26628,11,4
-15.2316,10.6099,2.94003,18,12
-14.6498,10.2084,-1.56218,35,5
-14.8837,10.3753,-0.95084,52,6
-19.327,13.4777,5.43977,36,14
-15.7773,11.0064,-0.335784,81,7
-28.8344,20.1226,9.42153,16,15
-14.528,10.1689,0.309536,16,8
-26.7757,18.7486,1.71306,3,9
-0.583707,0.408868,-0.138527,12,2
-15.3752,10.7739,1.64254,50,10
-0.711718,0.498906,-0.137662,6,3
-15.3883,10.791,2.30772,24,11
-14.561,10.2109,-2.18366,19,4
-14.5621,10.2192,-1.55643,26,5
-15.951,11.1981,3.78832,26,13
-14.769,10.3721,-0.945816,63,6
-19.2662,13.5305,5.43527,42,14
-15.8258,11.1184,-0.337599,50,7
-29.2733,20.5736,9.58718,8,15
-14.5286,10.2412,0.310269,33,8
-0.512817,0.361619,-0.144868,12,1
-15.3301,10.8102,0.983079,29,9
-0.572722,0.404011,-0.136238,12,2
-15.1457,10.6881,1.62179,60,10
-9.42927,6.65655,-1.82809,5,3
-17.7896,12.5631,2.67406,19,11
-11.537,8.14753,-1.7342,15,4
-14.7071,10.3939,-1.5756,27,5
-15.8673,11.218,3.77726,30,13
-16.1171,11.3989,4.55751,14,14
-16.0354,11.3453,-0.34287,36,7
-19.9535,14.1226,6.55019,25,15
-15.5626,11.0475,0.333132,10,8
-0.432172,0.306901,-0.122373,15,1
-15.219,10.8116,0.978368,21,9
-0.57458,0.408182,-0.137001,12,2
-15.2758,10.856,1.63957,13,10
-9.50374,6.75645,-1.84687,6,3
-15.4879,11.0148,2.33355,5,11
-14.509,10.3224,-2.18634,57,4
-15.0653,10.7222,-1.61778,28,5
-16.0443,11.4232,3.82839,15,13
-15.7215,11.1975,-1.01155,41,6
-16.0899,11.4641,4.56111,31,14
-15.8165,11.2735,-0.33903,58,7
-19.9638,14.2348,6.56986,18,15
-27.998,20.0225,0.600817,9,8
-0.431098,0.308408,-0.122373,15,1
-15.1747,10.86,0.97795,47,9
-0.569959,0.4079,-0.136238,12,2
-18.2316,13.0526,1.9617,9,10
-9.30826,6.66652,-1.81339,5,3
-19.2318,13.7788,2.90488,15,11
-14.3293,10.2701,-2.16464,11,4
-15.1082,10.8324,2.94441,21,12
-14.2085,10.1873,-1.52958,34,5
-15.6964,11.2583,3.75474,11,13
-14.7151,10.5583,-0.949165,14,6
-19.0388,13.6656,5.41052,6,14
-15.4847,11.1187,-0.332748,100,7
-24.21,17.3902,7.98716,11,15
-15.7317,11.3335,0.338437,10,8
-0.430019,0.309911,-0.122373,15,1
-15.9585,11.5011,1.03091,76,9
-0.584457,0.421368,-0.140054,11,2
-21.4324,15.4575,2.31189,25,10
-9.53964,6.88274,-1.86313,2,3
-21.326,15.3921,3.22929,57,11
-11.9017,8.59327,-1.80245,16,4
-14.1599,10.2275,-1.52819,21,5
-15.8098,11.4234,3.79137,16,13
-14.6296,10.5745,-0.946025,28,6
-14.154,10.2345,4.03247,22,14
-20.3739,14.732,-0.438858,45,7
-20.3204,14.6987,6.71998,23,15
-13.8585,10.054,0.298855,35,8
-0.428988,0.311335,-0.122373,15,1
-0.570274,0.414176,-0.137001,12,2
-18.1433,13.1819,1.96205,18,10
-9.54233,6.93291,-1.86814,11,3
-21.1512,15.3729,3.21053,18,11
-11.6307,8.45642,-1.76564,15,4
-26.8812,19.5519,5.26465,8,12
-14.8089,10.7751,-1.60227,38,5
-15.9004,11.5693,3.82229,36,13
-14.328,10.429,-0.928754,7,6
-14.1531,10.3055,4.04192,13,14
-16.8214,12.2529,-0.363254,37,7
-20.0473,14.608,6.64647,22,15
-13.875,10.1401,0.299972,45,8
-0.427899,0.312831,-0.122373,15,1
-14.9879,10.9614,0.973135,29,9
-0.565728,0.413747,-0.136238,12,2
-21.6161,15.8148,2.34327,38,10
-9.52924,6.97434,-1.87033,10,3
-19.9987,14.6422,3.04332,8,11
-9.95641,7.29233,-1.51532,12,4
-26.7634,19.6094,5.25495,8,12
-14.8357,10.87,-1.60907,42,5
-15.7237,11.5249,3.78947,13,13
-14.5895,10.6975,-0.948118,21,6
-14.1139,10.3525,4.04102,30,14
-15.5451,11.4065,-0.336552,66,7
-14.343,10.5283,4.76745,12,15
-13.8524,10.198,0.300251,40,8
-0.458187,0.337435,-0.131371,14,1
-14.9913,11.0445,0.975856,11,9
-0.586409,0.432022,-0.14158,11,2
-16.3723,12.0663,1.77937,7,10
-10.6305,7.8375,-2.09184,11,3
-21.43,15.8053,3.26951,9,11
-11.6768,8.61519,-1.78173,33,4
-20.5424,15.1618,4.04383,18,12
-14.4867,10.6922,-1.57525,27,5
-14.7958,10.9244,3.575,12,13
-14.2453,10.5217,-0.928126,49,6
-14.1482,10.4538,4.06127,57,14
-15.4747,11.4381,-0.335889,100,7
-19.9091,14.7212,6.63457,33,15
-13.8521,10.2725,0.301019,42,8
-0.425705,0.31581,-0.122373,15,1
-14.988,11.1229,0.978159,14,9
-0.584898,0.434067,-0.14158,11,2
-15.0519,11.1744,1.6401,37,10
-9.22023,6.84755,-1.81902,6,3
-15.3036,11.3696,2.34087,65,11
-11.6435,8.65353,-1.78124,35,4
-20.8809,15.5245,4.12111,16,12
-14.6523,10.8937,-1.59739,16,5
-14.7418,10.9642,3.57118,25,13
-14.2197,10.5797,-0.928859,28,6
-13.7943,10.2669,3.96994,27,14
-15.5437,11.5733,-0.338263,25,7
-14.3405,10.6813,4.79126,9,15
-13.8706,10.3614,0.302206,17,8
-0.449576,0.335959,-0.129572,14,1
-21.3174,15.9359,1.39486,21,9
-0.567654,0.424351,-0.137764,12,2
-14.4208,10.7842,1.57543,23,10
-8.89732,6.65605,-1.75989,11,3
-11.6132,8.69412,-1.78124,20,4
-14.7487,11.0455,2.91844,21,12
-14.3399,10.7394,-1.56741,9,5
-13.4983,10.1127,3.27848,13,13
-14.1411,10.5981,-0.926137,14,6
-13.565,10.1701,3.91415,28,14
-14.6554,10.9956,4.90928,18,15
-21.4098,16.11,0.46769,34,8
-0.42349,0.318775,-0.122373,15,1
-14.6837,11.0529,0.963191,43,9
-0.57558,0.433415,-0.140054,11,2
-14.4038,10.8501,1.57769,64,10
-8.93398,6.73224,-1.77178,28,3
-20.6387,15.5581,3.17348,9,11
-11.5114,8.67762,-1.77003,15,4
-14.7073,11.0908,2.9175,7,12
-14.1958,10.709,-1.55573,26,5
-13.4159,10.1243,3.26703,18,13
-15.6709,11.8303,-1.02903,30,6
-12.8826,9.72539,3.72654,32,14
-39.733,30.0062,-0.869095,86,7
-14.5726,11.0092,4.89375,7,15
-0.462,0.349915,-0.155291,12,0
-20.9642,15.8839,0.459103,33,8
-0.465916,0.353137,-0.134971,14,1
-14.5563,11.0328,0.957225,57,9
-0.574139,0.435322,-0.140054,11,2
-14.3471,10.8821,1.57543,87,10
-8.91633,6.76541,-1.77272,16,3
-14.8094,11.2409,2.28286,4,11
-11.5411,8.76015,-1.77905,41,4
-14.543,11.0427,2.89216,37,12
-14.1047,10.7138,-1.54963,39,5
-13.3557,10.1486,3.26054,24,13
-14.9177,11.3396,-0.982032,39,6
-12.8782,9.78928,3.73464,17,14
-15.421,11.7264,-0.338158,7,7
-14.2992,10.8773,4.81403,37,15
-0.460837,0.351445,-0.155291,12,0
-21.2405,16.2044,0.466328,12,8
-0.477135,0.364138,-0.13857,13,1
-14.0319,10.7127,0.925195,21,9
-0.588297,0.449137,-0.14387,11,2
-14.4487,11.0349,1.59059,30,10
-9.06023,6.92206,-1.80588,11,3
-14.6758,11.2165,2.26799,39,11
-11.6476,8.90528,-1.80025,34,4
-14.2001,10.8647,-1.56427,35,5
-13.2487,10.1367,3.24261,34,13
-14.8705,11.3817,-0.981404,7,6
-12.9476,9.91356,3.76478,35,14
-20.1854,15.4608,-0.443815,46,7
-13.3917,10.261,4.52053,15,15
-0.459546,0.353132,-0.155291,12,0
-13.7251,10.5469,0.302136,19,8
-0.438781,0.337297,-0.127772,14,1
-14.0324,10.7908,0.927707,71,9
-0.592872,0.456078,-0.145396,10,2
-14.9181,11.4802,1.64689,74,10
-9.1929,7.07692,-1.83748,60,3
-14.6067,11.2446,2.26336,9,11
-11.3884,8.77026,-1.76491,48,4
-13.475,10.3809,2.69411,13,12
-13.3607,10.3003,3.27924,60,13
-14.5219,11.1995,-0.961098,14,6
-13.064,10.0788,3.80932,30,14
-13.2536,10.2251,-0.292188,100,7
-13.3742,10.3218,4.52675,22,15
-13.7401,10.6387,0.303323,42,8
-0.463733,0.35919,-0.135421,13,1
-13.958,10.8153,0.925404,21,9
-0.563342,0.4365,-0.138527,12,2
-14.289,11.0757,1.5817,37,10
-8.9652,6.95161,-1.79681,6,3
-14.523,11.2652,2.25678,53,11
-11.3782,8.82898,-1.76832,48,4
-13.6007,10.5574,2.72697,37,12
-11.7741,9.14281,-1.3042,10,5
-13.1309,10.1964,3.23154,13,13
-15.6846,12.1837,-1.04086,15,6
-12.7333,9.89475,3.72294,22,14
-16.2473,12.63,-0.359205,36,7
-13.7328,10.71,0.303986,8,8
-0.419455,0.327243,-0.122823,15,1
-13.873,10.8271,0.922264,29,9
-0.567928,0.443395,-0.140054,11,2
-14.3928,11.2408,1.59774,70,10
-10.4278,8.14708,-2.09591,5,3
-14.4132,11.2608,2.24581,71,11
-11.3989,8.90898,-1.77637,24,4
-13.5046,10.5586,2.71508,66,12
-14.3944,11.2583,-1.59879,37,5
-13.0826,10.2359,3.22887,32,13
-14.5294,11.3721,-0.966959,54,6
-13.0084,10.1852,3.81427,10,14
-17.7272,13.8799,-0.392993,40,7
-19.7697,15.4847,6.72878,31,15
-0.455885,0.357845,-0.155291,12,0
-20.6567,16.2203,0.45844,15,8
-0.461277,0.362338,-0.135421,13,1
-13.9645,10.9693,0.930638,24,9
-0.549552,0.431833,-0.135856,12,2
-14.3418,11.2737,1.596,37,10
-8.95183,7.03934,-1.80369,18,3
-14.2791,11.2325,2.2307,23,11
-8.75003,6.8856,-1.36713,31,4
-13.206,10.3921,2.66158,62,12
-14.3871,11.3256,-1.60192,16,5
-12.8822,10.1446,3.18727,33,13
-14.525,11.4424,-0.969053,47,6
-13.7569,10.8412,4.04372,22,14
-16.3092,12.8525,-0.362452,67,7
-19.1597,15.1043,6.53725,25,15
-0.454633,0.359434,-0.155291,12,0
-14.2545,11.2696,0.31718,20,8
-0.472301,0.373536,-0.13902,13,1
-13.7962,10.9151,0.92195,46,9
-0.584987,0.462991,-0.145015,10,2
-14.2742,11.3014,1.59286,43,10
-8.88972,7.03833,-1.79587,21,3
-14.3304,11.35,2.24459,57,11
-8.81584,6.98484,-1.38102,63,4
-13.3229,10.5596,2.69255,17,12
-13.8042,10.945,-1.54126,6,5
-12.321,9.77604,3.63116,11,14
-15.8946,12.616,-0.354214,7,7
-12.1171,9.6211,4.14576,7,15
-15.8138,12.5924,0.352853,15,8
-0.4588,0.365469,-0.135421,13,1
-13.6333,10.86,0.913472,49,9
-0.565024,0.450246,-0.140435,11,2
-14.3348,11.4269,1.60384,16,10
-8.7122,6.94739,-1.76489,47,3
-14.269,11.3826,2.24118,42,11
-9.0769,7.2434,-1.42587,17,4
-13.2059,10.5384,2.67597,47,12
-13.405,10.7011,-1.50065,21,5
-17.0996,13.6602,-1.14699,9,6
-12.2884,9.8202,3.63161,16,14
-17.6492,14.1043,-0.394355,56,7
-12.1741,9.7324,4.1763,15,15
-20.3667,16.3285,0.455647,12,8
-0.451505,0.362112,-0.133621,14,1
-0.542014,0.435012,-0.135093,12,2
-19.8272,15.9187,2.22456,47,10
-8.71222,6.99479,-1.76959,30,3
-14.2451,11.4411,2.24337,19,11
-9.15496,7.35552,-1.44196,39,4
-13.2753,10.6698,2.69756,13,12
-13.4002,10.774,-1.50431,15,5
-12.7116,10.2204,3.17048,34,13
-17.5226,14.0936,-1.1785,9,6
-12.2451,9.85235,3.62846,35,14
-14.5559,11.7158,-0.326151,29,7
-12.0799,9.72638,4.1556,31,15
-0.450972,0.364018,-0.155291,12,0
-20.1711,16.2876,0.452541,15,8
-0.413855,0.334297,-0.122823,15,1
-14.3142,11.5625,0.964342,27,9
-0.561946,0.454082,-0.140435,11,2
-19.8038,16.0082,2.22787,64,10
-8.74612,7.07236,-1.78148,30,3
-14.0816,11.3909,2.22387,28,11
-10.2557,8.299,-1.61989,13,4
-13.1846,10.669,2.68629,33,12
-15.2785,12.3678,-1.71976,19,5
-13.3075,10.7762,3.32847,37,13
-13.8433,11.2141,-0.933674,3,6
-12.2803,9.95147,3.64916,14,14
-14.4176,11.6834,-0.323917,82,7
-11.9485,9.68609,4.12143,13,15
-16.1541,13.1328,0.363394,11,8
-0.455077,0.370095,-0.135421,13,1
-14.2753,11.6136,0.964447,12,9
-0.53904,0.438691,-0.135093,12,2
-14.7819,12.0343,1.66764,35,10
-8.813,7.17491,-1.79994,47,3
-13.6097,11.084,2.15514,50,11
-10.3236,8.4107,-1.635,26,4
-13.1748,10.7375,2.69192,22,12
-15.0684,12.2851,-1.70093,18,5
-12.7893,10.427,3.2075,13,13
-13.8246,11.2751,-0.93493,28,6
-12.2548,9.9983,3.65141,47,14
-14.3287,11.6945,-0.322835,30,7
-11.8892,9.70697,4.11263,29,15
-15.808,12.9433,0.356622,15,8
-0.41157,0.337106,-0.122823,15,1
-14.2347,11.6634,0.964447,5,9
-0.570991,0.46785,-0.143488,11,2
-14.7681,12.1048,1.6706,7,10
-9.0598,7.42857,-1.85563,26,3
-13.5142,11.0849,2.14612,46,11
-10.2849,8.43913,-1.63354,21,4
-12.6975,10.4224,2.60182,25,12
-14.7057,12.0708,-1.6645,25,5
-12.815,10.5226,3.22315,16,13
-13.833,11.3626,-0.938174,21,6
-12.2905,10.0992,3.67255,52,14
-12.743,10.4746,-0.28793,25,7
-11.7702,9.67847,4.08313,29,15
-19.9591,16.4589,0.451564,3,8
-0.410391,0.338541,-0.122823,15,1
-14.0937,11.6304,0.957643,16,9
-0.536041,0.44235,-0.135093,12,2
-12.4778,10.3006,1.41558,46,10
-8.66674,7.15701,-1.78022,28,3
-26.0478,21.518,4.14843,13,11
-8.8767,7.33562,-1.41393,39,4
-12.6397,10.4491,2.59744,10,12
-14.6942,12.1475,-1.66799,29,5
-12.9401,10.7012,3.26398,19,13
-13.7456,11.3713,-0.93493,21,6
-12.8388,10.6287,-0.290932,93,7
-12.0294,9.96224,4.1851,15,15
-14.1527,11.754,0.321124,42,8
-0.409207,0.339971,-0.122823,15,1
-13.6603,11.349,0.930743,25,9
-0.540534,0.449238,-0.136619,12,2
-12.5537,10.4371,1.42831,25,10
-9.45271,7.86174,-1.9473,22,3
-18.4738,15.3699,2.9507,16,11
-8.83402,7.34978,-1.411,8,4
-12.268,10.2104,2.52798,11,12
-15.0498,12.5301,-1.71331,23,5
-14.1677,11.8041,-0.966436,39,6
-18.5426,15.4491,5.57204,52,14
-12.9003,10.7519,-0.293131,100,7
-11.796,9.83506,4.11522,24,15
-0.44468,0.371678,-0.155291,12,0
-20.3038,16.9766,0.461965,18,8
-0.408077,0.341326,-0.122823,15,1
-13.5138,11.3033,0.923311,12,9
-0.530007,0.443469,-0.13433,12,2
-14.0682,11.7753,1.60506,13,10
-8.79805,7.36676,-1.81746,55,3
-12.7647,10.6919,2.04448,21,11
-11.5671,9.68873,-1.85266,20,4
-14.4661,12.1256,-1.65143,14,5
-14.3381,12.0268,-0.980776,32,6
-18.9527,15.8975,5.71106,27,14
-13.1203,11.0093,-0.29896,25,7
-11.6331,9.76483,4.06967,23,15
-14.7032,12.3769,0.33547,4,8
-0.460606,0.387866,-0.13902,13,1
-0.531536,0.447754,-0.135093,12,2
-14.6476,12.3432,1.67583,14,10
-12.7686,10.7674,2.05082,26,11
-8.75799,7.38798,-1.40686,15,4
-11.8467,9.99349,2.45477,28,12
-14.1152,11.9114,-1.61587,3,5
-12.6166,10.6505,3.20941,29,13
-13.5107,11.4094,-0.926765,38,6
-18.7899,15.873,5.67866,6,14
-13.015,10.9947,-0.297389,100,7
-11.5668,9.77467,4.05777,9,15
-15.8002,13.39,0.361509,9,8
-19.394,16.4473,1.33268,10,9
-0.544941,0.462307,-0.138909,12,2
-8.64508,7.33675,-1.79587,32,3
-11.7659,9.98878,1.89507,8,11
-9.7699,8.2972,-1.57382,52,4
-11.884,10.0962,2.46979,40,12
-13.9992,11.8974,-1.60733,38,5
-14.2358,12.0985,3.63148,12,13
-13.2263,11.2445,-0.909808,23,6
-14.1323,12.019,4.28307,21,14
-12.9903,11.0517,-0.297703,100,7
-11.4693,9.76115,4.03551,36,15
-13.8946,11.8588,0.318855,13,8
-0.558334,0.476862,-0.142725,11,2
-14.4891,12.3792,1.66729,28,10
-8.67798,7.41693,-1.80807,37,3
-13.4117,11.4668,2.16659,37,11
-8.80254,7.52871,-1.42222,15,4
-11.8411,10.1312,2.46822,10,12
-14.6197,12.5085,-1.68333,41,5
-12.0367,10.3021,3.07966,11,13
-13.2143,11.314,-0.911692,16,6
-14.0917,12.0695,4.28352,25,14
-12.944,11.0905,-0.297529,100,7
-11.485,9.84387,4.05311,33,15
-13.9896,12.0245,0.321997,6,8
-0.403393,0.34685,-0.122823,15,1
-0.547735,0.471126,-0.140435,11,2
-14.5424,12.5129,1.67845,45,10
-12.3457,10.6302,2.00036,51,11
-8.83486,7.60992,-1.43172,1,4
-17.5761,15.1446,3.67465,22,12
-14.5473,12.5347,-1.68001,15,5
-11.9783,10.3248,3.07393,35,13
-13.9265,12.0083,-0.963714,58,6
-14.3299,12.3605,4.369,3,14
-11.4053,9.84477,4.03706,10,15
-15.461,13.3833,0.356937,20,8
-12.3896,10.7322,0.859043,11,9
-0.519376,0.449898,-0.133566,13,2
-27.2868,23.6449,3.15887,40,10
-8.54688,7.40876,-1.79149,21,3
-8.77526,7.6121,-1.42636,6,4
-11.7731,10.2162,2.46885,15,12
-15.4665,13.4211,-1.79157,12,5
-11.5517,10.0347,3.53263,20,14
-13.6331,11.8469,-0.31526,90,7
-11.5064,10.0024,4.0852,29,15
-13.9189,12.1337,0.322311,22,8
-0.400961,0.349658,-0.122823,15,1
-12.34,10.7649,0.858205,50,9
-0.52668,0.459452,-0.135856,12,2
-11.8772,10.3648,1.37915,39,10
-8.49567,7.41647,-1.78617,41,3
-11.8122,10.3153,1.92554,24,11
-8.7875,7.67664,-1.4327,15,4
-11.6571,10.187,2.45195,52,12
-13.2262,11.5583,-1.53673,13,5
-18.3211,16.022,-1.27553,5,6
-14.2417,12.4589,4.36855,28,14
-17.9361,15.6963,-0.41603,94,7
-11.4482,10.0221,4.07692,22,15
-15.7775,13.8511,0.366466,11,8
-0.440737,0.387061,-0.135421,13,1
-12.3057,10.807,0.85831,46,9
-0.522123,0.458696,-0.135093,12,2
-13.6728,12.016,1.59251,27,10
-8.49198,7.46564,-1.79086,7,3
-11.7433,10.3276,1.92017,24,11
-8.77258,7.71775,-1.43465,15,4
-11.9584,10.5205,2.52266,47,12
-13.2037,11.6202,-1.53882,6,5
-18.1901,16.0198,-1.2703,11,6
-13.5694,11.9546,4.17509,27,14
-12.9534,11.4119,-0.301333,25,7
-11.6859,10.2989,4.17372,13,15
-15.4992,13.6981,0.361055,18,8
-0.398572,0.352379,-0.122823,15,1
-12.1318,10.7295,0.848785,27,9
-0.546985,0.483932,-0.141962,11,2
-11.821,10.462,1.38107,48,10
-11.7714,10.4218,1.93041,28,11
-9.58804,8.49174,-1.5726,19,4
-11.5549,10.2373,2.44507,45,12
-13.7207,12.1604,-1.60401,14,5
-11.6541,10.3288,3.02699,0,13
-16.4721,14.604,-1.15369,9,6
-11.4157,10.1246,3.52273,9,14
-12.9165,11.4598,-0.301403,25,7
-11.6383,10.3294,4.16957,51,15
-13.13,11.6861,0.306813,19,8
-0.39734,0.353768,-0.122823,15,1
-12.1107,10.7864,0.849936,5,9
-0.52192,0.464851,-0.135856,12,2
-13.6442,12.1565,1.59879,16,10
-8.82291,7.86368,-1.8719,20,3
-11.4905,10.2448,1.89019,37,11
-11.3331,10.1081,-1.8646,30,4
-11.4321,10.2,2.42661,54,12
-15.9252,14.2088,-1.86722,13,5
-23.3708,20.8592,6.0891,5,13
-13.048,11.6499,-0.916717,3,6
-11.3483,10.1359,3.51284,27,14
-17.9957,16.0787,-0.421231,87,7
-11.425,10.2116,4.10591,28,15
-13.1383,11.7759,0.307965,46,8
-0.396102,0.355153,-0.122823,15,1
-0.517372,0.464048,-0.135093,12,2
-11.8162,10.6021,1.38891,30,10
-8.50433,7.63318,-1.80995,37,3
-11.4738,10.3021,1.89336,20,11
-9.47831,8.51336,-1.56431,34,4
-11.5023,10.3349,2.44914,46,12
-15.0441,13.5173,-1.76944,33,5
-12.5089,11.2433,3.26932,7,13
-18.0331,16.2143,-1.27093,33,6
-11.3273,10.1884,3.51733,40,14
-17.9053,16.1107,-0.420428,43,7
-11.3376,10.2049,4.08727,5,15
-13.0452,11.7748,0.306743,66,8
-0.39486,0.356533,-0.122823,15,1
-12.415,11.2099,0.876627,20,9
-0.533232,0.481643,-0.139672,11,2
-15.7144,14.199,1.85293,16,10
-8.42341,7.61381,-1.79837,31,3
-16.6708,15.0738,2.75961,7,11
-10.9237,9.88069,-1.80854,16,4
-14.3129,12.9463,3.05673,21,12
-14.7737,13.3678,-1.74311,16,5
-12.4478,11.2672,3.2636,14,13
-13.7718,12.4699,-0.973658,21,6
-11.3249,10.258,3.52768,36,14
-16.9225,15.3282,-0.398543,33,7
-11.2794,10.2204,4.07847,6,15
-13.3923,12.169,0.315854,22,8
-0.445589,0.405028,-0.13902,13,1
-12.1733,11.0691,0.862287,31,9
-0.522833,0.475575,-0.137382,12,2
-11.8348,10.7688,1.3999,43,10
-7.65737,6.96766,-1.63975,32,3
-12.3767,11.2659,2.05496,17,11
-10.9055,9.93023,-1.81098,36,4
-11.0125,10.0312,2.35934,31,12
-9.44882,8.60983,-1.11838,11,5
-14.4681,13.1834,3.80473,13,13
-17.7511,16.1806,-1.25878,22,6
-11.7646,10.7275,3.6757,11,14
-16.5734,15.1177,-0.391562,32,7
-17.0603,15.5673,6.18836,21,15
-13.3232,12.1913,0.315225,9,8
-0.429798,0.393423,-0.134521,14,1
-12.415,11.3643,0.88207,16,9
-0.521253,0.477306,-0.137382,12,2
-16.7912,15.3809,1.99221,19,10
-7.64902,7.00903,-1.64319,37,3
-15.9415,14.6128,2.65529,31,11
-8.69079,7.96922,-1.44781,20,4
-11.0258,10.1104,2.36936,61,12
-15.1552,13.9017,-1.79924,21,5
-12.5371,11.5043,3.30748,15,13
-17.6828,16.2317,-1.25795,11,6
-11.5936,10.6459,3.63386,23,14
-17.8723,16.4114,-0.423535,61,7
-11.2978,10.3779,4.11056,16,15
-17.6936,16.2986,0.419905,22,8
-0.419893,0.386923,-0.131821,14,1
-12.3224,11.3588,0.878302,28,9
-0.522471,0.481784,-0.138146,12,2
-15.8075,14.5816,1.88152,21,10
-14.3495,13.2413,2.39741,5,11
-8.61909,7.95626,-1.44025,6,4
-11.0717,10.2238,2.38688,31,12
-13.7059,12.6608,-1.63243,35,5
-12.845,11.8655,3.39907,6,13
-18.1848,16.8039,-1.29762,11,6
-14.9096,13.7823,4.68753,15,14
-16.3541,15.1229,-0.388805,40,7
-0.425031,0.393997,-0.155291,12,0
-13.2171,12.2563,0.314632,24,8
-0.418607,0.388313,-0.131821,14,1
-12.2202,11.3399,0.873697,19,9
-0.509442,0.47274,-0.135093,25,2
-15.6463,14.5241,1.86775,20,10
-7.58499,7.04348,-1.63943,6,3
-13.7063,12.7322,2.29699,4,11
-8.62175,8.01182,-1.44513,35,4
-11.0204,10.2444,2.38312,54,12
-14.1199,13.1256,-1.68664,15,5
-12.0379,11.1941,3.19529,11,13
-12.9039,12.0037,-0.923625,17,6
-11.3858,10.5951,3.59067,24,14
-16.9933,15.8188,-0.405245,58,7
-13.9343,12.9757,5.10184,17,15
-12.1176,11.3156,0.289396,1,8
-0.417249,0.389772,-0.131821,14,1
-17.2603,16.1293,1.23806,16,9
-0.507788,0.474516,-0.135093,12,2
-15.5416,14.5283,1.8613,33,10
-8.51839,7.96579,-1.84718,30,3
-15.9174,14.8901,2.67625,6,11
-8.4053,7.86554,-1.41344,24,4
-11.2167,10.5001,2.43349,39,12
-14.9249,13.9714,-1.78861,33,5
-12.7525,11.9419,3.39602,6,13
-12.7526,11.9462,-0.915775,20,6
-14.3875,13.4824,4.55211,17,14
-12.7217,11.9256,-0.30437,100,7
-17.378,16.2962,6.38351,3,15
-16.3813,15.4046,0.392505,27,8
-0.410208,0.385885,-0.130022,14,1
-12.1582,11.4413,0.874953,12,9
-0.520426,0.489739,-0.138909,24,2
-15.3573,14.4569,1.84526,16,10
-8.38124,7.89256,-1.8234,60,3
-11.0465,10.4061,1.86338,24,11
-9.91062,9.33929,-1.67205,35,4
-11.0449,10.4118,2.40409,58,12
-14.8374,13.9918,-1.78425,20,5
-15.2228,14.3603,-1.09675,17,6
-17.5406,16.5525,5.56799,31,14
-12.664,11.9548,-0.303986,25,7
-11.0637,10.4478,4.07744,10,15
-16.3579,15.4905,0.393238,10,8
-0.425836,0.403397,-0.135421,13,1
-12.1603,11.5235,0.877988,8,9
-0.50438,0.478137,-0.135093,25,2
-15.1235,14.3417,1.82347,8,10
-8.34509,7.91642,-1.82184,41,3
-10.9943,10.4295,1.8607,16,11
-12.454,11.8184,-2.1081,11,4
-10.752,10.2069,2.34808,43,12
-10.1393,9.62852,-1.22332,10,5
-10.5686,10.0398,2.83351,13,13
-12.758,12.1238,-0.922369,14,6
-12.052,11.4569,3.83901,28,14
-12.3352,11.7262,-0.297075,100,7
-13.5303,12.8667,5.00297,3,15
-12.2279,11.6648,0.294981,38,8
-0.413076,0.394192,-0.131821,14,1
-16.29,15.5453,1.18007,19,9
-0.522589,0.498874,-0.140435,11,2
-16.4538,15.7126,1.99046,52,10
-15.5628,14.8722,2.6431,12,11
-10.28,9.8238,-1.7459,13,4
-10.7492,10.2757,2.35528,18,12
-14.0568,13.4424,-1.70163,15,5
-10.5917,10.1323,2.84916,4,13
-17.4429,16.6921,-1.26527,16,6
-13.1079,12.5437,4.18859,72,14
-12.2928,11.7678,-0.29704,27,7
-12.6369,12.1015,4.68825,7,15
-16.1931,15.5503,0.391876,15,8
-0.411766,0.39556,-0.131821,14,1
-13.9972,13.4463,1.0172,10,9
-0.512438,0.492442,-0.138146,12,2
-11.2983,10.8612,1.37113,24,10
-8.12584,7.81421,-1.78554,33,3
-16.1543,15.5402,2.7523,6,11
-9.94697,9.56884,-1.69472,19,4
-10.2228,9.84102,-1.24145,10,5
-10.5679,10.1769,2.85183,10,13
-11.5878,11.1628,-0.843237,16,6
-11.434,11.0224,4.2555,2,15
-12.7944,12.3683,0.310618,20,8
-0.437069,0.422662,-0.140369,13,1
-15.9627,15.442,1.16395,8,9
-0.49387,0.477758,-0.133566,26,2
-11.3037,10.9388,1.37619,45,10
-8.22904,7.96614,-1.81401,60,3
-12.0385,11.658,2.05764,4,11
-9.83936,9.53168,-1.68204,43,4
-10.2084,9.89605,-1.24389,22,5
-13.1011,12.7002,3.54676,6,13
-11.489,11.1414,-0.838736,29,6
-13.6362,13.2283,4.3861,3,14
-11.7302,11.3832,-0.285312,100,7
-12.5487,12.1818,4.68618,55,15
-16.0869,15.6602,0.391876,15,8
-0.430006,0.418747,-0.13857,13,1
-16.2349,15.8153,1.18782,30,9
-0.517424,0.504228,-0.140435,23,2
-18.3555,17.8936,2.24269,29,10
-7.44034,7.25565,-1.646,41,3
-11.0868,10.8116,1.90141,45,11
-9.8515,9.61032,-1.68984,17,4
-11.2974,11.0246,2.50014,13,12
-9.97274,9.73539,-1.21931,22,5
-12.605,12.3093,3.42464,5,13
-11.4667,11.2016,-0.840097,35,6
-12.3598,12.0782,3.98973,35,14
-11.6646,11.399,-0.284684,70,7
-11.4783,11.2208,4.30105,17,15
-12.8883,12.6388,0.315086,11,8
-0.378388,0.371192,-0.122373,15,1
-19.8353,19.4581,1.4562,20,9
-0.504451,0.495031,-0.137382,24,2
-19.9166,19.5515,2.44176,27,10
-8.50022,8.34731,-1.88691,16,3
-11.0513,10.8563,1.90214,20,11
-9.8618,9.68777,-1.6974,42,4
-11.1278,10.9353,2.47104,13,12
-9.7682,9.60253,-1.19839,27,5
-11.925,11.7268,3.251,33,13
-16.7725,16.4996,-1.23304,21,6
-12.3141,12.1137,3.98793,11,14
-11.6276,11.4424,-0.284753,30,7
-14.0989,13.8792,5.30113,9,15
-12.7054,12.5424,0.31163,20,8
-0.421526,0.416262,-0.13677,13,1
-18.2955,18.067,1.34755,21,9
-0.516773,0.510498,-0.141199,23,2
-12.5887,12.4402,1.54841,9,10
-7.33599,7.25197,-1.6338,11,3
-12.4352,12.2971,2.14734,18,11
-8.21346,8.12222,-1.41832,41,4
-12.691,12.5544,2.8274,42,12
-9.72072,9.61946,-1.19647,42,5
-14.5975,14.4555,-1.07666,20,6
-14.5738,14.4321,4.73522,4,14
-10.7883,10.6908,4.06967,10,15
-15.8779,15.7785,0.390724,27,8
-0.4312,0.428648,-0.140369,13,1
-11.5611,11.4927,0.854332,7,9
-0.503941,0.501134,-0.138146,24,2
-24.3179,24.1909,3.00095,9,10
-7.38051,7.34453,-1.64913,16,3
-10.844,10.7949,1.87874,45,11
-9.71545,9.67484,-1.6835,45,4
-12.4548,12.4027,2.78391,33,12
-9.741,9.70367,-1.20292,40,5
-12.7968,12.7522,3.51165,45,13
-16.1535,16.1028,-1.19535,20,6
-12.2272,12.1931,3.98658,30,14
-12.6984,12.663,-0.313026,53,7
-12.3133,12.2833,4.6603,27,15
-11.597,11.6011,0.286324,35,8
-0.410491,0.410778,-0.134071,14,1
-0.502189,0.50289,-0.138146,12,2
-24.5824,24.6253,3.04418,28,10
-10.731,10.7535,1.86533,36,11
-9.69172,9.71543,-1.68497,21,4
-12.6164,12.6517,2.8299,19,12
-9.67894,9.70939,-1.19944,60,5
-11.762,11.799,3.23841,5,13
-12.6262,12.6704,-0.937442,17,6
-13.9471,14.0008,4.56246,21,14
-12.6259,12.6789,-0.312328,53,7
-12.2322,12.2879,4.6458,11,15
-11.5621,11.6471,0.286464,53,8
-0.400819,0.403909,-0.131371,14,1
-11.4637,11.5562,0.853076,40,9
-0.503283,0.50734,-0.138909,24,2
-26.6961,26.9207,3.31697,21,10
-10.6529,10.75,1.85826,24,11
-9.5432,9.63356,-1.66498,21,4
-10.6846,10.7896,2.40502,20,12
-9.74202,9.8377,-1.21129,27,5
-11.6917,11.8107,3.2304,5,13
-11.2417,11.36,-0.837585,26,6
-13.7268,13.8762,4.50622,27,14
-12.5633,12.7044,-0.311875,91,7
-14.3908,14.5575,5.48489,8,15
-11.5003,11.6661,0.28594,35,8
-0.393935,0.399753,-0.129572,14,1
-11.157,11.3258,0.833189,45,9
-0.501509,0.509094,-0.138909,24,2
-14.8912,15.1217,1.85677,33,10
-9.4497,9.59931,-2.13345,51,3
-10.6432,10.8155,1.86314,8,11
-9.6,9.7588,-1.68082,22,4
-10.6275,10.8071,2.40064,12,12
-9.70343,9.86738,-1.21077,32,5
-11.048,11.2425,-0.826071,16,6
-17.7862,18.1057,5.85952,36,14
-17.8739,18.2013,-0.445281,46,7
-16.5932,16.9031,6.34676,13,15
-11.4525,11.699,0.285766,68,8
-0.397989,0.406697,-0.131371,14,1
-11.1747,11.4232,0.83748,49,9
-0.507967,0.519262,-0.141199,23,2
-14.8244,15.1593,1.85502,74,10
-8.98116,9.18728,-2.0349,20,3
-10.5318,10.7773,1.85022,44,11
-9.80585,10.0379,-1.72299,9,4
-9.70094,9.93398,-1.21478,42,5
-10.9613,11.2324,-0.822512,48,6
-13.6392,13.9814,4.50937,3,14
-17.1443,17.5807,-0.428631,26,7
-11.4165,11.7112,4.38232,16,15
-11.2095,11.531,0.280705,30,8
-0.423729,0.436035,-0.140369,13,1
-11.1125,11.4392,0.835805,45,9
-0.495207,0.509766,-0.138146,24,2
-13.0391,13.4272,1.63748,27,10
-11.5628,11.9152,2.03863,8,11
-9.93662,10.2431,-1.75224,20,4
-10.6879,11.0214,2.43162,14,12
-9.71198,10.015,-1.22053,52,5
-11.2422,11.597,3.13957,11,13
-10.9164,11.2649,-0.822093,39,6
-12.3002,12.7017,-0.308628,30,7
-11.0867,11.4525,4.27103,6,15
-11.1692,11.57,0.280705,42,8
-0.411379,0.426293,-0.13677,13,1
-10.4587,10.8379,0.789331,17,9
-0.496151,0.514318,-0.138909,24,2
-14.7389,15.284,1.85764,16,10
-7.57736,7.8603,-1.72923,16,3
-11.5073,11.9412,2.03619,48,11
-9.99308,10.3735,-1.76857,65,4
-10.6582,11.0639,2.43318,29,12
-9.6272,9.99716,-1.21425,20,5
-11.188,11.622,3.13576,29,13
-9.632,10.0091,-0.727993,68,6
-12.2132,12.6958,4.06711,34,14
-11.4789,11.9325,-0.289012,70,7
-11.3753,11.829,4.39734,10,15
-0.401135,0.4183,-0.155291,12,0
-11.1307,11.607,0.280705,30,8
-0.423448,0.441722,-0.141269,13,1
-10.4277,10.8815,0.789854,22,9
-0.494353,0.516046,-0.138909,24,2
-14.5918,15.2375,1.84578,32,10
-7.63186,7.96956,-1.74769,30,3
-14.6922,15.3477,2.60874,36,11
-10.0492,10.5012,-1.78465,13,4
-10.6728,11.1567,2.44538,11,12
-9.57848,10.0163,-1.21251,15,5
-11.1155,11.6236,3.12621,7,13
-9.61946,10.0627,-0.729563,71,6
-11.6432,12.184,3.89075,28,14
-11.3281,11.8583,-0.286254,100,7
-11.2673,11.7988,4.37145,15,15
-11.1315,11.6892,0.281752,13,8
-0.400406,0.420614,-0.134071,14,1
-10.369,10.8961,0.788284,51,9
-0.495345,0.520527,-0.139672,23,2
-15.6068,16.406,1.98105,23,10
-7.81771,8.22089,-1.79681,26,3
-14.6727,15.4348,2.61483,67,11
-9.75677,10.2671,-1.73908,7,4
-10.6514,11.2125,2.44945,12,12
-9.9459,10.4698,-1.26341,35,5
-14.7453,15.5275,4.16231,8,13
-9.73279,10.2526,-0.740868,71,6
-11.8944,12.5341,3.98928,22,14
-11.2026,11.8093,-0.284125,100,7
-11.3497,11.9684,4.41959,23,15
-0.398279,0.421021,-0.155291,12,0
-11.261,11.9082,0.28608,13,8
-0.390903,0.413513,-0.131371,14,1
-0.482738,0.510838,-0.136619,25,2
-12.7871,13.5361,1.62912,27,10
-7.76727,8.22515,-1.7918,37,3
-14.6515,15.5206,2.62068,43,11
-9.69226,10.2708,-1.73396,50,4
-10.6393,11.2784,2.45571,9,12
-10.18,10.7914,-1.29792,13,5
-14.6371,15.5217,4.14704,23,13
-10.0285,10.6382,-0.766198,100,6
-13.6335,14.4675,4.58945,14,14
-11.8908,12.6226,-0.302695,100,7
-10.5582,11.2119,4.12661,12,15
-11.0935,11.8133,0.282869,43,8
-0.397459,0.423399,-0.134071,14,1
-11.4333,12.1795,0.875476,12,9
-0.486326,0.518246,-0.138146,24,2
-10.9077,11.6277,1.39484,18,10
-7.6723,8.18161,-1.77647,41,3
-25.4745,27.1751,4.57351,14,11
-9.61156,10.2568,-1.72591,22,4
-11.8594,12.6555,2.74699,17,12
-10.0374,10.7149,-1.2845,52,5
-11.0214,11.7694,3.13423,7,13
-9.99401,10.6761,-0.766408,81,6
-13.5416,14.4709,4.5755,17,14
-11.2491,12.021,-0.287371,100,7
-9.3411,9.98561,3.66384,28,15
-10.8046,11.5825,0.276481,21,8
-0.404027,0.433266,-0.13677,13,1
-10.3175,11.0681,0.792994,7,9
-0.487191,0.522813,-0.138909,24,2
-10.7652,11.5564,1.38177,57,10
-7.75554,8.32553,-1.80213,57,3
-25.3788,27.2536,4.57254,14,11
-9.56803,10.2784,-1.72421,50,4
-11.9053,12.7937,2.76795,59,12
-9.54803,10.2641,-1.22646,20,5
-10.9529,11.7743,3.12583,14,13
-14.5457,15.6475,4.93228,9,14
-11.1717,12.0221,-0.286464,32,7
-9.32985,10.0436,3.67316,13,15
-0.386624,0.417516,-0.131371,14,1
-0.496123,0.535952,-0.141962,23,2
-7.63253,8.25104,-1.78022,28,3
-14.6176,15.8076,2.64359,31,11
-12.7404,13.7825,-2.30455,12,4
-11.8843,12.8563,2.77296,17,12
-9.51124,10.2928,-1.22611,12,5
-10.8344,11.7288,3.1037,31,13
-10.0092,10.8393,-0.773212,42,6
-13.493,14.6171,4.5926,18,14
-11.2158,12.1502,-0.288628,86,7
-9.30436,10.083,3.67627,30,15
-0.411623,0.44748,-0.140369,13,1
-16.5864,18.0376,1.28422,16,9
-0.49425,0.53768,-0.141962,23,2
-10.0176,10.9017,1.29531,63,10
-7.26029,7.90104,-1.6995,57,3
-14.6805,15.9817,2.66455,12,11
-12.8316,13.9738,-2.32941,27,4
-11.8567,12.9167,2.77702,11,12
-9.39038,10.2335,-1.21513,27,5
-10.5897,11.5405,3.04455,27,13
-9.63026,10.4985,-0.746625,35,6
-13.4194,14.6345,4.58405,42,14
-11.1869,12.204,-0.288977,100,7
-9.243,10.087,3.66591,25,15
-0.391094,0.427703,-0.155291,12,0
-11.2764,12.3362,0.291734,8,8
-0.383846,0.420071,-0.131371,14,1
-11.3432,12.418,0.881442,33,9
-0.500502,0.547928,-0.144252,22,2
-11.3806,12.4633,1.47659,87,10
-7.62425,8.35255,-1.79117,23,3
-10.5531,11.5653,1.92237,24,11
-9.62536,10.5522,-1.7537,15,4
-9.2575,10.1525,-1.20205,35,5
-10.6559,11.6901,3.0747,11,13
-10.6465,11.6881,3.65006,14,14
-13.1653,14.4635,5.24057,38,15
-11.2252,12.3666,0.291525,13,8
-0.382378,0.421408,-0.131371,14,1
-11.3159,12.4753,0.882698,13,9
-0.488035,0.538038,-0.141199,34,2
-11.7867,12.9989,1.53516,94,10
-7.71046,8.50644,-1.81839,25,3
-10.538,11.63,1.927,8,11
-11.133,12.2909,-2.03619,11,4
-9.35574,10.3324,-1.21948,30,5
-8.78633,9.70698,2.54501,4,13
-9.39777,10.3861,-0.734064,35,6
-10.6501,11.7743,3.66535,14,14
-17.1616,18.9798,-0.446642,100,7
-9.25185,10.2356,3.69697,60,15
-0.388099,0.430423,-0.155291,12,0
-11.2074,12.434,0.292188,42,8
-0.388731,0.431427,-0.134071,14,1
-10.223,11.3498,0.800531,5,9
-0.492723,0.547032,-0.143107,45,2
-7.15079,7.94455,-1.69293,13,3
-10.5518,11.7272,1.93699,45,11
-9.53686,10.6029,-1.75102,15,4
-10.4261,11.5956,2.46979,12,12
-9.2237,10.2584,-1.20693,57,5
-9.37347,10.4322,-0.735006,84,6
-13.0857,14.5689,4.52107,43,14
-9.8208,10.9378,-0.256585,93,7
-9.15929,10.2046,3.6742,41,15
-11.1586,12.4671,0.292049,45,8
-0.405415,0.453113,-0.140369,13,1
-0.503899,0.563382,-0.146923,52,2
-10.9971,12.2996,1.44347,25,10
-7.3139,8.18302,-1.7383,18,3
-11.8691,13.2842,2.18731,50,11
-9.3821,10.5044,-1.72933,43,4
-10.3132,11.5509,2.45258,5,12
-9.09362,10.185,-1.19456,42,5
-8.95628,10.0347,2.61446,56,13
-9.36227,10.4932,-0.736995,58,6
-13.0517,14.6334,4.52692,74,14
-9.79986,10.9914,-0.257039,35,7
-9.21102,10.3346,3.70939,24,15
-11.1004,12.4895,0.291665,24,8
-0.377944,0.425389,-0.131371,14,1
-10.0248,11.2832,0.791006,61,9
-0.499322,0.562202,-0.14616,53,2
-10.9753,12.3617,1.44626,46,10
-7.27742,8.19963,-1.73642,30,3
-11.7924,13.2914,2.18171,50,11
-9.35986,10.5534,-1.73201,67,4
-10.1385,11.4313,2.42004,12,12
-9.06066,10.2196,-1.19491,25,5
-8.78838,9.916,2.57554,41,13
-9.26201,10.4541,-0.731971,84,6
-9.77529,11.0373,-0.257353,100,7
-9.12163,10.3029,3.68714,31,15
-0.38357,0.434463,-0.155291,12,0
-11.0788,12.5487,0.292188,45,8
-0.373952,0.423718,-0.130472,14,1
-9.99457,11.3286,0.791738,19,9
-0.496058,0.562469,-0.145778,53,2
-11.1758,12.6765,1.47851,28,10
-7.22145,8.19112,-1.72954,27,3
-16.9654,19.2503,3.15057,18,11
-9.2802,10.5337,-1.72372,26,4
-10.032,11.391,2.40409,55,12
-8.87485,10.0807,-1.17503,20,5
-12.8497,14.5957,3.77993,24,13
-9.19826,10.4517,-0.729668,55,6
-9.22789,10.4891,3.22535,24,14
-9.76444,11.1029,-0.258086,100,7
-9.1175,10.3709,3.70008,29,15
-11.0613,12.6174,0.292886,42,8
-0.393021,0.44847,-0.13767,13,1
-9.97339,11.3845,0.793204,5,9
-0.482547,0.55082,-0.142344,56,2
-11.0851,12.658,1.47206,15,10
-7.32944,8.37234,-1.76239,13,3
-10.2152,11.6729,1.90457,4,11
-6.92207,7.91259,-1.29084,31,4
-12.9102,14.7628,3.10616,27,12
-8.98564,10.2751,-1.19421,27,5
-8.93905,10.2254,2.64003,10,13
-9.02503,10.3274,-0.718782,81,6
-8.96429,10.2615,3.14572,55,14
-10.6411,12.1852,-0.28238,100,7
-9.13969,10.4696,3.72389,16,15
-11.0447,12.6876,0.293619,35,8
-0.381219,0.438079,-0.134071,14,1
-14.4796,16.6451,1.15621,19,9
-0.483198,0.555464,-0.143107,56,2
-9.5963,11.0432,1.79635,16,11
-11.2668,12.9747,2.72165,38,12
-9.08688,10.4643,-1.21251,27,5
-9.17743,10.576,-0.733855,42,6
-8.93225,10.2971,3.14707,51,14
-10.0312,11.5681,-0.267266,100,7
-9.09549,10.4927,3.72078,13,15
-0.379076,0.43839,-0.155291,12,0
-11.0527,12.7866,0.295015,59,8
-0.387332,0.448254,-0.13677,13,1
-14.0744,16.2881,1.12815,16,9
-0.48254,0.558633,-0.143488,44,2
-9.90531,11.4714,1.32599,43,10
-7.12624,8.25583,-1.72735,50,3
-9.61216,11.1397,1.80659,56,11
-6.86935,7.96103,-1.29108,15,4
-11.2185,13.006,2.7204,38,12
-8.86685,10.2832,-1.18793,30,5
-9.18739,10.6625,-0.737623,65,6
-8.90823,10.3385,3.15066,24,14
-9.29853,10.7953,-0.248697,48,7
-9.12241,10.5946,3.74615,27,15
-0.37762,0.439645,-0.155291,12,0
-14.8023,17.2397,0.396623,17,8
-0.360459,0.419961,-0.127772,14,1
-15.1325,17.6304,1.21765,19,9
-0.479406,0.55874,-0.143107,22,2
-9.79718,11.4225,1.31657,14,10
-7.13226,8.31841,-1.73548,33,3
-9.53383,11.1233,1.79879,32,11
-6.86488,8.00939,-1.29523,15,4
-11.2191,13.0941,2.73103,19,12
-8.87029,10.3565,-1.19299,57,5
-9.13509,10.6732,-0.736262,42,6
-10.914,12.7516,3.87501,21,14
-9.26658,10.8306,-0.248801,29,7
-9.15127,10.6996,3.77255,23,15
-9.52985,11.1738,0.256341,12,8
-0.396994,0.465642,-0.141269,13,1
-11.6234,13.6382,0.939116,12,9
-0.482644,0.566304,-0.144633,22,2
-12.8267,15.0553,1.73039,17,10
-7.09566,8.33149,-1.73329,81,3
-12.7783,15.0092,2.42033,10,11
-6.91793,8.12854,-1.31058,17,4
