x, y, z, intensity, ring
-17.6583,8.56677,-2.40984,45,4
-33.1397,16.0846,5.83438,16,12
-18.9837,9.218,-1.84631,40,5
-24.6507,11.9697,5.32662,30,13
-20.4621,9.94027,-1.19221,20,6
-24.4818,11.8983,6.28423,42,14
-20.5142,9.97442,-0.398159,90,7
-33.4873,16.3473,0.650451,5,8
-25.8051,12.6083,1.50518,8,9
-24.1648,11.8121,2.3532,6,10
-0.883726,0.432168,-0.155809,13,3
-17.6407,8.63447,-2.41155,12,4
-35.6717,17.4677,6.29086,6,12
-19.2143,9.40883,-1.87176,4,5
-24.3884,11.9477,5.27892,36,13
-20.5277,10.0609,-1.19807,20,6
-24.6466,12.0849,6.33732,69,14
-32.9872,16.1817,-0.641341,24,7
-28.9451,14.2553,0.563189,4,8
-0.662114,0.326375,-0.143488,11,2
-0.926499,0.4571,-0.16363,17,3
-15.7932,7.79862,-2.16269,9,4
-24.1926,11.9515,4.27379,40,12
-19.5958,9.68057,-1.9122,9,5
-24.3606,12.0397,5.28197,41,13
-33.3688,16.4991,-1.95088,9,6
-24.3912,12.0655,6.28243,42,14
-1.42007,0.705857,0.0831095,1,9
-0.696128,0.346167,-0.151121,9,2
-1.44847,0.720604,0.141541,1,10
-0.942583,0.469133,-0.166759,24,3
-1.4056,0.699888,0.192797,6,11
-24.1705,12.0404,4.27692,23,12
-19.5832,9.75958,-1.91429,4,5
-24.5626,12.2465,5.33502,18,13
-24.4657,12.2088,6.31258,51,14
-1.42852,0.715659,0.0278889,1,8
-1.39025,0.696793,-0.359022,1,1
-1.43545,0.719761,0.0841562,5,9
-0.642271,0.322186,-0.139672,11,2
-1.41211,0.708676,0.138229,11,10
-0.960442,0.482002,-0.170201,24,3
-1.42456,0.715233,0.195722,16,11
-23.9783,12.0493,4.25033,31,12
-24.6657,12.4002,5.36631,30,13
-24.7855,12.4712,6.40571,44,14
-1.46108,0.735484,-0.0285521,1,7
-1.4153,0.71523,0.0276795,7,8
-1.34259,0.678781,-0.347324,1,1
-1.41702,0.716407,0.0832142,15,9
-0.658718,0.333175,-0.143488,11,2
-1.41509,0.716054,0.138752,15,10
-0.94818,0.479999,-0.168324,21,3
-1.42737,0.722892,0.196453,9,11
-1.46456,0.741727,-0.201572,1,4
-24.0792,12.2002,4.27535,31,12
-1.41814,0.718843,-0.139101,1,5
-24.1285,12.2358,5.2587,39,13
-1.42848,0.724711,-0.0839469,1,6
-24.2278,12.2915,6.27209,34,14
-1.41583,0.718604,-0.0277144,16,7
-1.33928,0.682105,-0.402722,1,0
-1.40223,0.714472,0.0274701,25,8
-1.42531,0.726545,0.0838422,11,9
-0.626128,0.319303,-0.136619,12,2
-1.40028,0.714404,0.137532,6,10
-0.951861,0.485835,-0.169262,27,3
-1.41612,0.723107,0.195235,16,11
-1.3896,0.709566,-0.191579,4,4
-23.984,12.2521,4.26566,11,12
-1.39624,0.713568,-0.137183,12,5
-24.0301,12.2862,5.2461,43,13
-1.39584,0.713982,-0.0821675,16,6
-24.6762,12.622,6.39896,35,14
-1.40988,0.721473,-0.0276446,20,7
-24.8535,12.7236,7.48142,20,15
-1.35764,0.697132,-0.408934,1,0
-1.39985,0.719118,0.0274701,12,8
-1.40739,0.723301,-0.365321,1,1
-1.42276,0.731515,0.0838422,10,9
-0.621574,0.319583,-0.135856,12,2
-1.41562,0.728157,0.139275,22,10
-0.96254,0.495316,-0.171452,32,3
-1.41006,0.726229,-0.194747,14,4
-26.0483,13.4215,4.6411,27,12
-1.37792,0.709981,-0.135614,21,5
-24.1254,12.436,5.27587,32,13
-1.39702,0.720437,-0.0823768,19,6
-23.9964,12.3801,6.23384,41,14
-1.40558,0.725473,-0.0276097,6,7
-24.9805,12.8989,7.53319,10,15
-1.36892,0.708974,-0.413075,2,0
-1.40266,0.72676,0.0275748,12,8
-1.36507,0.707583,-0.354973,2,1
-1.40602,0.729122,0.0830048,33,9
-0.637883,0.330788,-0.139672,11,2
-1.41131,0.732177,0.139101,87,10
-0.973078,0.505042,-0.173642,35,3
-1.40764,0.730901,0.194747,124,11
-1.39695,0.725656,-0.193285,14,4
-24.0504,12.4985,4.29288,24,12
-1.40372,0.729486,-0.138403,7,5
-23.4495,12.1914,5.13734,10,13
-1.39627,0.726231,-0.0824815,6,6
-23.8683,12.4198,6.2118,33,14
-1.40836,0.733145,-0.0277144,10,7
-1.34589,0.703016,-0.406864,2,0
-1.40898,0.736282,0.0277493,21,8
-1.37122,0.716858,-0.357222,5,1
-0.643683,0.336653,-0.141199,11,2
-1.40874,0.737098,0.139101,100,10
-0.973059,0.509352,-0.173955,37,3
-1.40333,0.734889,0.194503,100,11
-1.36803,0.716709,-0.189629,8,4
-23.7424,12.4439,4.24563,23,12
-1.40457,0.736477,-0.138752,5,5
-23.4051,12.2723,5.13696,14,13
-1.38311,0.725534,-0.0818534,7,6
-23.8231,12.5021,6.21135,50,14
-1.38809,0.728761,-0.0273654,28,7
-1.32792,0.699837,-0.402205,2,0
-1.37633,0.725347,0.0271559,63,8
-1.37906,0.727093,-0.359922,5,1
-1.39559,0.736124,0.0826908,100,9
-0.600773,0.31702,-0.13204,13,2
-1.38489,0.731095,0.137009,100,10
-0.964199,0.509225,-0.172704,35,3
-1.39549,0.737002,0.193772,100,11
-1.36903,0.723335,-0.190116,8,4
-23.7757,12.5673,4.2594,34,12
-1.37557,0.727405,-0.136137,6,5
-23.3894,12.3736,5.14345,35,13
-1.38221,0.731533,-0.0819581,19,6
-23.9407,12.676,6.25409,34,14
-1.34424,0.714441,-0.407899,2,0
-1.37895,0.733203,0.0272607,100,8
-1.3609,0.723906,-0.355873,5,1
-1.39478,0.74193,0.0827955,99,9
-0.599663,0.319115,-0.13204,13,2
-1.38409,0.736861,0.137183,100,10
-0.957185,0.509802,-0.171765,35,3
-1.39102,0.741178,0.193529,100,11
-1.3665,0.728109,-0.190116,8,4
-25.6405,13.6677,4.60199,13,12
-1.36247,0.726577,-0.135091,18,5
-23.398,12.4829,5.1549,10,13
-24.2407,12.9379,6.34362,61,14
-1.38826,0.74126,-0.0274701,100,7
-24.3362,12.9998,7.39291,19,15
-1.33505,0.715246,-0.405828,2,0
-1.3818,0.740606,0.0273654,100,8
-1.35677,0.727494,-0.355423,5,1
-1.39055,0.745607,0.0826908,100,9
-0.598601,0.321102,-0.13204,13,2
-1.37637,0.73862,0.13666,100,10
-0.946787,0.508301,-0.170201,32,3
-1.37807,0.740151,0.192066,100,11
-1.38331,0.742969,-0.192797,18,4
-23.6374,12.7008,4.25001,11,12
-23.3669,12.566,5.15719,35,13
-1.36137,0.732407,-0.0810161,100,6
-24.4019,13.1281,6.39716,44,14
-1.38931,0.747755,-0.0275399,100,7
-24.3474,13.1097,7.40947,19,15
-1.31567,0.71049,-0.400652,2,0
-1.37054,0.740431,0.0271908,100,8
-1.38104,0.746416,0.0822721,100,9
-0.683882,0.369773,-0.151121,9,2
-1.38618,0.749816,0.13788,100,10
-0.948571,0.513318,-0.170826,35,3
-1.37386,0.743772,0.191822,100,11
-1.36675,0.74023,-0.190847,73,4
-23.7862,12.8826,4.28443,11,12
-1.37164,0.74319,-0.136486,100,5
-23.3734,12.6696,5.16787,31,13
-1.36771,0.741678,-0.0815394,122,6
-24.3079,13.1871,6.38456,44,14
-1.38331,0.750451,-0.0274701,100,7
-24.3361,13.2079,7.41931,29,15
-1.38037,0.751666,0.0274352,100,8
-1.35705,0.739273,-0.356772,5,1
-1.37492,0.74932,0.0820628,100,9
-0.613639,0.334567,-0.135856,12,2
-1.38005,0.752742,0.137532,100,10
-0.955534,0.521191,-0.172391,35,3
-1.37487,0.750225,0.19231,100,11
-1.35383,0.739051,-0.189385,100,4
-23.7203,12.9542,4.28067,11,12
-1.36204,0.744153,-0.135789,100,5
-24.0118,13.1189,5.31861,15,13
-1.36875,0.748125,-0.0817488,125,6
-24.2435,13.2565,6.37916,43,14
-1.36665,0.747597,-0.0271908,100,7
-1.32605,0.727794,-0.405311,2,0
-1.36722,0.750705,0.0272258,100,8
-1.34934,0.741191,-0.355423,4,1
-1.3793,0.757962,0.0824815,100,9
-0.59532,0.327145,-0.13204,13,2
-1.36533,0.750595,0.136312,100,10
-0.945055,0.519763,-0.170826,45,3
-1.37398,0.755977,0.192554,100,11
-1.35646,0.746644,-0.190116,100,4
-24.6145,13.5543,4.45056,65,12
-1.34897,0.743134,-0.134743,100,5
-23.9831,13.2121,5.32243,3,13
-1.37312,0.756755,-0.0821675,125,6
-24.1544,13.3175,6.36791,70,14
-1.36403,0.752363,-0.0271908,100,7
-1.31492,0.727971,-0.402722,2,0
-1.3541,0.749662,0.0270163,100,8
-1.35356,0.749673,-0.357222,4,1
-1.37664,0.762772,0.0824815,100,9
-0.58038,0.32171,-0.128987,13,2
-1.36431,0.756561,0.136486,100,10
-0.934507,0.518432,-0.169262,60,3
-1.37828,0.76462,0.193529,100,11
-1.36079,0.755228,-0.191091,100,4
-24.6154,13.667,4.45932,21,12
-1.34462,0.746871,-0.134568,100,5
-23.9997,13.3361,5.33693,3,13
-1.36685,0.759842,-0.0819581,122,6
-24.2128,13.4656,6.39626,79,14
-1.36139,0.75712,-0.0271908,100,7
-1.33767,0.74668,-0.410487,2,0
-1.35483,0.75657,0.0270861,100,8
-1.344,0.750828,-0.355423,4,1
-1.37746,0.769522,0.0826908,100,9
-0.644377,0.36013,-0.143488,11,2
-1.36514,0.763263,0.136835,100,10
-0.924071,0.516869,-0.167698,53,3
-1.36507,0.763851,0.192066,100,11
-1.35628,0.75924,-0.190847,100,4
-28.47,15.9374,5.16766,42,12
-1.34375,0.752534,-0.134743,100,5
-23.9462,13.416,5.3354,30,13
-1.35025,0.756796,-0.0811207,134,6
-24.1639,13.5491,6.39581,53,14
-1.36223,0.763824,-0.0272607,100,7
-1.33001,0.748503,-0.408934,2,0
-1.35232,0.761059,0.0270861,100,8
-1.3415,0.75528,-0.355423,4,1
-1.35736,0.764523,0.0816441,100,9
-0.591803,0.333464,-0.13204,13,2
-1.36941,0.771937,0.137532,100,10
-0.930956,0.524781,-0.169262,30,3
-1.3608,0.767398,0.191822,100,11
-1.33819,0.754955,-0.188654,100,4
-23.8158,13.4414,4.33136,12,12
-1.34805,0.761138,-0.13544,100,5
-23.8349,13.4577,5.32052,18,13
-1.35121,0.763234,-0.0813301,122,6
-24.0578,13.5946,6.37961,70,14
-1.35956,0.768574,-0.0272607,100,7
-1.32416,0.751003,-0.407899,2,0
-1.35139,0.766761,0.027121,100,8
-1.3583,0.770992,0.0818534,100,9
-0.577037,0.327669,-0.128987,13,2
-1.35818,0.771554,0.13666,100,10
-0.941141,0.534859,-0.171452,11,3
-1.35984,0.773125,0.192066,100,11
-1.34072,0.762566,-0.189385,100,4
-23.0963,13.1365,4.2084,2,12
-1.34552,0.765604,-0.13544,100,5
-24.245,13.8011,5.42279,19,13
-1.34854,0.767946,-0.0813301,128,6
-1.3431,0.765159,-0.0269814,100,7
-1.30811,0.747949,-0.403758,2,0
-1.35058,0.772231,0.0271559,100,8
-1.33464,0.763426,-0.354973,5,1
-1.35906,0.777713,0.0820628,100,9
-0.606558,0.347238,-0.135856,12,2
-1.35375,0.775299,0.136486,100,10
-1.2582,0.720575,-0.229646,6,3
-1.35899,0.778617,0.19231,100,11
-1.34163,0.768982,-0.189872,100,4
-28.4346,16.3044,5.19143,4,12
-1.33247,0.764348,-0.134394,100,5
-23.93,13.7271,5.3625,11,13
-1.35292,0.77639,-0.0817488,134,6
-1.34736,0.773826,-0.027121,100,7
-1.30562,0.752283,-0.403758,2,0
-1.33401,0.768951,0.0268767,100,8
-1.34041,0.772948,-0.357222,5,1
-1.3634,0.786206,0.0824815,100,9
-0.588398,0.339438,-0.13204,13,2
-1.34427,0.775801,0.135789,100,10
-1.28818,0.743729,-0.23559,8,3
-1.36314,0.787327,0.193285,100,11
-1.35097,0.780613,-0.191579,100,4
-23.15,13.3764,4.23468,2,12
-1.32648,0.766768,-0.134046,100,5
-23.8854,13.8125,5.36326,18,13
-1.34674,0.779108,-0.0815394,131,6
-1.34478,0.77829,-0.027121,100,7
-1.31301,0.762658,-0.406864,2,0
-1.33491,0.77538,0.0269465,100,8
-1.32773,0.771514,-0.354523,5,1
-1.35892,0.789957,0.0823768,100,9
-0.560055,0.325698,-0.125934,14,2
-1.34844,0.784496,0.136486,100,10
-1.28912,0.749984,-0.236216,12,3
-1.34851,0.784853,0.191579,100,11
-1.32951,0.774101,-0.188898,100,4
-23.0964,13.4532,4.23343,20,12
-1.33068,0.775406,-0.134743,100,5
-23.8852,13.9183,5.37356,3,13
-1.33725,0.779546,-0.0811207,125,6
-1.34551,0.784995,-0.0271908,100,7
-1.31548,0.769935,-0.408416,2,0
-1.3322,0.780035,0.0269465,100,8
-1.32502,0.776144,-0.354523,5,1
-1.34767,0.789412,0.0818534,100,9
-0.57591,0.337479,-0.12975,13,2
-1.35271,0.792994,0.137183,100,10
-1.2899,0.756478,-0.236842,15,3
-1.34577,0.789555,0.191579,100,11
-1.31481,0.771703,-0.187191,100,4
-23.2066,13.6207,4.2619,25,12
-1.33154,0.781833,-0.135091,100,5
-23.8297,13.9976,5.37204,41,13
-1.33107,0.782185,-0.0809114,131,6
-1.34635,0.79148,-0.0272607,100,7
-1.29947,0.766669,-0.404275,2,0
-1.34338,0.792577,0.0272258,100,8
-1.3258,0.782515,-0.355423,5,1
-1.34319,0.793095,0.0817488,100,9
-0.574729,0.339487,-0.12975,13,2
-1.34993,0.797711,0.137183,100,10
-1.28398,0.758741,-0.236216,13,3
-1.34997,0.798055,0.192554,100,11
-1.3225,0.782122,-0.188654,100,4
-23.295,13.7821,4.28693,12,12
-1.32537,0.784446,-0.134743,100,5
-24.4657,14.4805,5.52621,8,13
-1.33191,0.78863,-0.0811207,128,6
-1.32982,0.788019,-0.0269814,100,7
-1.3019,0.773936,-0.405828,2,0
-1.32686,0.789085,0.0269465,100,8
-1.33646,0.795109,-0.359022,4,1
-1.3457,0.800609,0.0820628,100,9
-0.546607,0.325326,-0.123644,14,2
-1.33872,0.797087,0.136312,100,10
-1.25757,0.749066,-0.231836,8,3
-1.354,0.806827,0.193529,100,11
-1.31805,0.785718,-0.18841,100,4
-23.0608,13.747,4.2522,28,12
-1.31934,0.786796,-0.134394,100,5
-1.33258,0.795322,-0.0813301,139,6
-1.32376,0.790374,-0.0269116,100,7
-1.28925,0.772518,-0.402722,1,0
-1.32424,0.79348,0.0269465,100,8
-1.32379,0.793525,-0.356322,4,1
-1.34633,0.807356,0.0822721,100,9
-0.575772,0.345412,-0.130513,13,2
-1.3291,0.797654,0.135614,100,10
-0.890918,0.534683,-0.164569,13,3
-1.35302,0.812334,0.193772,100,11
-1.31204,0.78804,-0.187923,100,4
-22.757,13.6738,4.20496,28,12
-1.30463,0.784211,-0.133174,100,5
-39.201,23.5636,8.89055,20,13
-1.32651,0.797678,-0.0811207,139,6
-1.3347,0.803239,-0.0271908,100,7
-1.30653,0.78877,-0.408934,1,0
-1.32488,0.800165,0.0270163,100,8
-1.32101,0.798141,-0.356322,2,1
-1.35034,0.816183,0.0826908,100,9
-0.564542,0.341226,-0.128224,14,2
-1.33156,0.805149,0.136137,100,10
-0.883976,0.534722,-0.16363,24,3
-1.33999,0.810886,0.19231,100,11
-1.31098,0.793643,-0.188166,100,4
-22.9001,13.8688,4.24031,5,12
-1.31566,0.79679,-0.134568,165,5
-39.0866,23.681,8.8833,30,13
-1.3203,0.800233,-0.0809114,134,6
-1.33531,0.809967,-0.0272607,100,7
-1.31037,0.797342,-0.411005,1,0
-1.32379,0.805825,0.0270512,100,8
-1.32487,0.806802,-0.358122,2,1
-1.33554,0.813617,0.0819581,99,9
-0.600233,0.365665,-0.136619,12,2
-1.33554,0.81394,0.136835,100,10
-0.877044,0.53472,-0.162692,26,3
-1.34223,0.818659,0.193041,100,11
-1.30312,0.795113,-0.187435,100,4
-22.8835,13.9682,4.24626,31,12
-1.31457,0.802416,-0.134743,100,5
-1.31409,0.802754,-0.0807021,134,6
-1.32906,0.812538,-0.0271908,100,7
-1.31746,0.807971,-0.41411,1,0
-1.33119,0.816716,0.0272607,100,8
-1.33283,0.818042,0.0819581,89,9
-0.562146,0.345159,-0.128224,14,2
-1.34118,0.823811,0.137706,94,10
-0.866757,0.532607,-0.161128,16,3
-1.34613,0.827498,0.194016,85,11
-1.30033,0.799656,-0.187435,100,4
-22.8068,14.0254,4.24063,8,12
-1.31515,0.809087,-0.135091,100,5
-48.8284,30.0512,11.1448,36,13
-1.32149,0.813619,-0.0813301,122,6
-1.32125,0.813794,-0.0270861,100,7
-1.26533,0.782095,-0.398581,1,0
-1.32678,0.820074,0.0272258,100,8
-1.31603,0.813751,-0.357222,2,1
-1.34696,0.833196,0.0830048,80,9
-0.560938,0.347119,-0.128224,14,2
-1.33152,0.824293,0.137009,78,10
-0.84987,0.52612,-0.158312,16,3
-1.35688,0.840318,0.195966,66,11
-1.29767,0.803964,-0.187435,100,4
-22.9911,14.2495,4.28411,31,12
-1.30216,0.807374,-0.134046,100,5
-38.7455,24.0232,8.86155,10,13
-1.32218,0.820103,-0.0815394,100,6
-1.31331,0.815237,-0.0269814,100,7
-1.31193,0.81692,-0.41411,1,0
-1.31203,0.817299,0.0269814,100,8
-1.30988,0.816279,-0.356322,1,1
-1.34065,0.83578,0.0827955,65,9
-0.559784,0.348977,-0.128224,14,2
-1.32709,0.827649,0.136835,72,10
-0.817861,0.510263,-0.15268,20,3
-1.36068,0.849254,0.196941,28,11
-1.3117,0.819003,-0.189872,100,4
-23.3165,14.5641,4.3542,15,12
-1.29948,0.811687,-0.134046,100,5
-38.8329,24.2655,8.90086,20,13
-1.31761,0.823654,-0.0814348,100,6
-1.32402,0.828301,-0.0272607,100,7
-1.31933,0.828253,0.0271908,91,8
-1.32682,0.833283,-0.361721,1,1
-1.34618,0.845767,0.0833189,56,9
-0.588485,0.369729,-0.135093,12,2
-1.33263,0.837578,0.137706,57,10
-0.765907,0.481571,-0.143294,42,3
-1.34762,0.847657,0.195478,6,11
-1.31051,0.824633,-0.190116,100,4
-22.8927,14.4107,4.28443,23,12
-1.30675,0.822587,-0.135091,100,5
-38.7264,24.3873,8.8959,20,13
-1.30459,0.821861,-0.0808067,100,6
-1.32281,0.833984,-0.0272956,100,7
-1.31981,0.834992,0.0272607,76,8
-1.31732,0.833741,-0.359922,1,1
-1.34337,0.850227,0.0833189,54,9
-0.587191,0.371781,-0.135093,12,2
-1.34316,0.850753,0.139101,45,10
-0.745866,0.472611,-0.139852,49,3
-23.0234,14.5942,3.34702,10,11
-1.29756,0.822824,-0.188654,100,4
-22.7547,14.4294,4.26753,11,12
-1.3106,0.831413,-0.135789,100,5
-38.7405,24.5855,8.91879,10,13
-1.30508,0.828551,-0.0810161,100,6
-1.32679,0.842655,-0.0274352,92,7
-1.33389,0.850111,0.0276097,67,8
-1.31126,0.836009,-0.359022,1,1
-1.33366,0.850615,0.0829002,45,9
-0.59251,0.378052,-0.136619,12,2
-1.34354,0.85758,0.139449,9,10
-0.725979,0.46339,-0.136411,31,3
-22.9649,14.6641,3.34556,30,11
-1.30152,0.831397,-0.189629,100,4
-22.9572,14.6705,4.31509,12,12
-1.31105,0.838129,-0.136137,92,5
-37.6001,24.037,8.67456,38,13
-1.30906,0.837178,-0.0814348,100,6
-1.31205,0.839735,-0.0271908,85,7
-1.32251,0.849359,0.0274352,57,8
-1.35924,0.873623,0.0846796,23,9
-0.571434,0.367277,-0.13204,13,2
-24.8045,15.9487,2.57998,52,10
-0.72768,0.468059,-0.137037,30,3
-38.4953,24.7705,5.62061,20,11
-1.2936,0.832712,-0.188898,83,4
-22.9109,14.7537,4.31603,33,12
-1.29486,0.833842,-0.134743,83,5
-1.32292,0.852562,-0.0824815,100,6
-1.31751,0.849729,-0.0273654,68,7
-1.32625,0.858316,0.0275748,49,8
-25.4171,16.462,1.58704,15,9
-0.563558,0.365,-0.130513,13,2
-24.538,15.8986,2.55802,73,10
-0.702835,0.455555,-0.132656,21,3
-22.8952,14.8456,3.35043,10,11
-1.29235,0.838303,-0.189141,71,4
-22.8509,14.8282,4.31446,33,12
-1.29529,0.840526,-0.135091,73,5
-24.4224,15.854,5.65978,4,13
-1.31491,0.853911,-0.0821675,81,6
-1.33298,0.866309,-0.0277493,60,7
-1.32492,0.864033,0.0276097,14,8
-23.9673,15.636,1.49974,22,9
-0.552415,0.360527,-0.128224,14,2
-24.6408,16.0877,2.57458,7,10
-0.721087,0.470968,-0.136411,25,3
-25.1848,16.4553,3.69386,48,11
-1.30951,0.855613,-0.192066,70,4
-22.8116,14.9104,4.31634,33,12
-1.30902,0.855946,-0.136835,59,5
-24.3751,15.9445,5.66168,42,13
-1.31192,0.858496,-0.0821675,73,6
-1.34014,0.877297,-0.0279588,31,7
-23.3556,15.3418,0.48776,26,8
-25.2874,16.617,1.58578,30,9
-0.56106,0.368828,-0.130513,13,2
-24.4592,16.085,2.56116,73,10
-0.724472,0.476613,-0.137349,12,3
-24.8863,16.3784,3.65803,36,11
-1.2934,0.85122,-0.190116,64,4
-24.9465,16.4242,4.73058,28,12
-1.31117,0.86357,-0.137357,54,5
-23.7204,15.6289,5.52163,20,13
-1.3174,0.868338,-0.0826908,58,6
-24.1753,15.9346,6.68465,39,14
-1.32721,0.875131,-0.0277493,5,7
-24.1568,15.983,0.505596,3,8
-23.1126,15.3037,1.45274,30,9
-0.586025,0.388028,-0.136619,12,2
-24.6565,16.3322,2.58748,22,10
-0.732767,0.48556,-0.139227,22,3
-23.586,15.6349,3.4745,43,11
-1.28711,0.853536,-0.189629,52,4
-24.9219,16.533,4.73684,21,12
-1.32324,0.877826,-0.138926,47,5
-23.3511,15.4968,5.4476,19,13
-1.32616,0.880435,-0.0834235,21,6
-22.7868,15.1338,6.31528,34,14
-37.0027,24.5845,-0.775445,33,7
-24.2525,16.1194,7.80288,5,15
-23.2207,15.4804,0.487132,13,8
-23.0557,15.3821,1.45253,30,9
-0.597732,0.398788,-0.139672,11,2
-24.6391,16.4447,2.59166,52,10
-0.722854,0.48263,-0.137662,30,3
-23.2671,15.5407,3.4355,21,11
-1.29733,0.866847,-0.191579,47,4
-23.4665,15.6857,4.47058,15,12
-1.30857,0.874689,-0.137706,20,5
-23.0798,15.4331,5.39684,31,13
-21.0166,14.0588,-1.32515,55,6
-23.9015,15.9946,6.63966,38,14
-24.4455,16.3648,-0.513485,96,7
-24.2282,16.2255,7.81323,22,15
-23.1217,15.5313,0.486189,3,8
-23.0129,15.464,1.45306,10,9
-0.573526,0.385538,-0.13433,12,2
-24.7337,16.6329,2.6077,15,10
-0.693301,0.466406,-0.132344,43,3
-22.9937,15.4744,3.40308,21,11
-1.30911,0.881347,-0.193772,31,4
-23.2455,15.6498,4.43836,34,12
-16.9419,11.4102,-1.78704,28,5
-23.4084,15.7714,5.48652,32,13
-21.0601,14.1945,-1.33101,24,6
-23.3317,15.7315,6.49659,45,14
-24.4359,16.476,-0.514427,32,7
-23.6024,15.9201,7.62843,10,15
-24.0323,16.2589,0.506469,27,8
-22.8893,15.4972,1.44866,7,9
-0.572176,0.387538,-0.13433,12,2
-24.7134,16.7448,2.61171,30,10
-0.698292,0.473135,-0.133595,49,3
-22.87,15.5016,3.39236,31,11
-1.30783,0.886798,-0.194016,6,4
-23.1646,15.7131,4.43335,34,12
-19.5134,13.2414,-2.06315,16,5
-23.1578,15.7144,5.43996,42,13
-21.5583,14.6345,-1.36555,32,6
-23.2004,15.7551,6.47454,63,14
-24.1847,16.4297,-0.510343,42,7
-22.8853,15.5528,7.41413,48,15
-23.8152,16.2334,0.503083,20,8
-22.8978,15.6198,1.45264,20,9
-0.577376,0.393859,-0.135856,12,2
-22.1019,15.0826,2.341,51,10
-0.698268,0.476683,-0.133908,34,3
-22.8419,15.5992,3.39626,21,11
-13.1357,8.97404,-1.95332,42,4
-23.0917,15.7816,4.42991,12,12
-19.4901,13.3252,-2.06559,28,5
-23.1612,15.835,5.4537,38,13
-21.6785,14.8269,-1.37644,26,6
-23.3077,15.9472,6.51998,46,14
-24.2196,16.5773,-0.512298,85,7
-23.0093,15.7548,7.47211,25,15
-23.2902,15.9949,0.49317,13,8
-22.932,15.7607,1.45829,25,9
-0.546808,0.375951,-0.128987,13,2
-22.0826,15.1883,2.34484,25,10
-0.722554,0.497155,-0.138914,23,3
-22.6222,15.5652,3.37164,62,11
-12.9817,8.93543,-1.93504,23,4
-22.9518,15.8039,4.41364,34,12
-19.345,13.3253,-2.05513,27,5
-23.1288,15.9376,5.45981,19,13
-21.7375,14.9845,-1.38366,59,6
-23.0598,15.902,6.46689,72,14
-43.5952,30.0631,-0.924349,24,7
-22.8779,15.7824,7.44726,25,15
-23.2446,16.0893,0.493449,10,8
-25.2777,17.5096,1.61153,9,9
-0.580998,0.402452,-0.137382,12,2
-24.3516,16.8745,2.59201,7,10
-0.719191,0.498549,-0.138601,11,3
-22.6335,15.6956,3.38187,41,11
-12.3503,8.56769,-1.84559,14,4
-22.6893,15.746,4.37422,15,12
-19.0865,13.2507,-2.03282,26,5
-22.8086,15.8347,5.39722,38,13
-21.6506,15.0364,-1.38146,72,6
-22.8073,15.8456,6.41155,62,14
-24.6209,17.1119,-0.523363,10,7
-22.7977,15.8507,7.44001,20,15
-23.29,16.2413,0.495613,3,8
-23.5049,16.4033,1.50215,30,9
-0.579519,0.404579,-0.137382,12,2
-21.9603,15.3368,2.34344,12,10
-0.707643,0.494393,-0.136724,12,3
-22.1359,15.4652,3.31558,50,11
-12.3235,8.61302,-1.84608,10,4
-22.6989,15.8704,4.38674,33,12
-13.5626,9.48604,-1.44801,20,5
-23.0319,16.1151,5.46401,31,13
-21.5872,15.1099,-1.38094,59,6
-22.706,15.8989,6.39941,71,14
-27.0689,18.9538,-0.576802,45,7
-23.0887,16.1729,7.55338,20,15
-22.8166,16.0179,0.486608,6,8
-0.433773,0.304634,-0.122373,15,1
-23.4941,16.5058,1.50476,22,9
-0.57189,0.401782,-0.135856,12,2
-21.9326,15.4145,2.34536,25,10
-12.1197,8.52101,-2.34652,1,3
-22.1311,15.5655,3.32216,20,11
-13.0643,9.19199,-1.96137,38,4
-22.5407,15.8654,4.36577,33,12
-13.5116,9.51018,-1.44557,25,5
-22.6517,15.9494,5.38501,23,13
-13.6049,9.583,-0.872127,16,6
-22.9311,16.1581,6.47634,9,14
-23.8514,16.8129,-0.509366,53,7
-22.7868,16.0683,7.47107,35,15
-23.3956,16.5466,0.500186,6,8
-23.2635,16.4654,1.49367,13,9
-0.573689,0.406044,-0.136619,12,2
-21.7145,15.3747,2.32776,18,10
-11.9851,8.48904,-2.32618,6,3
-22.0005,15.5887,3.3107,20,11
-13.0727,9.26625,-1.96746,24,4
-22.453,15.9211,4.35952,33,12
-13.4377,9.52847,-1.44121,31,5
-22.455,15.9284,5.35143,18,13
-21.6862,15.3888,-1.3936,33,6
-22.8491,16.22,6.46914,9,14
-23.7551,16.8694,-0.508563,31,7
-22.7652,16.1724,7.48246,35,15
-23.7107,16.8939,0.508179,3,8
-23.4853,16.7395,1.51146,22,9
-0.569071,0.405765,-0.135856,12,2
-23.8261,16.995,2.56046,29,10
-12.0969,8.6318,-2.35371,6,3
-21.9395,15.6608,3.30973,60,11
-13.1889,9.41795,-1.98988,74,4
-22.3181,15.937,4.34356,27,12
-13.3865,9.56258,-1.43929,37,5
-22.5797,16.1357,5.39455,31,13
-21.7461,15.5457,-1.40093,27,6
-22.8352,16.3303,6.48129,45,14
-44.2555,31.6488,-0.94969,25,7
-22.7931,16.3063,7.50938,30,15
-25.2792,18.1382,0.543084,19,8
-0.487606,0.349993,-0.13857,13,1
-23.451,16.8389,1.51303,30,9
-0.551706,0.396295,-0.13204,13,2
-21.9011,15.7375,2.35948,13,10
-11.9992,8.6223,-2.34026,6,3
-22.0083,15.8204,3.32801,10,11
-12.9835,9.33647,-1.96356,54,4
-22.2126,15.979,4.33386,42,12
-13.2382,9.52663,-1.42691,13,5
-22.3524,16.0855,5.35296,41,13
-21.5453,15.5104,-1.3913,19,6
-23.0229,16.5802,6.55013,18,14
-44.1383,31.7984,-0.949551,25,7
-22.5323,16.2389,7.44208,20,15
-23.224,16.7867,0.500186,27,8
-0.429531,0.310586,-0.122373,15,1
-23.342,16.8843,1.50979,13,9
-0.598111,0.432642,-0.143488,11,2
-21.802,15.7762,2.35443,25,10
-12.1834,8.81934,-2.38218,8,3
-22.0671,15.9798,3.34531,30,11
-12.9862,9.40735,-1.96892,24,4
-22.395,16.2292,4.38048,18,12
-13.2162,9.57749,-1.42796,30,5
-22.126,16.0401,5.31212,30,13
-15.9226,11.5473,-1.03081,18,6
-23.2314,16.8538,6.62616,57,14
-21.015,15.2515,-0.453239,37,7
-22.9195,16.6398,7.58909,30,15
-23.9202,17.4173,0.516487,3,8
-0.472549,0.34421,-0.134971,14,1
-23.115,16.8434,1.4989,7,9
-0.548996,0.400041,-0.13204,13,2
-21.6035,15.7477,2.33891,51,10
-11.72,8.5464,-2.2974,3,3
-21.6359,15.783,3.28828,19,11
-12.6887,9.25955,-1.9287,36,4
-22.3973,16.3503,4.39205,12,12
-12.9558,9.45792,-1.40338,27,5
-21.7893,15.9123,5.24458,39,13
-15.6984,11.4685,-1.01888,45,6
-22.6123,16.5255,6.46599,45,14
-21.1198,15.4404,-0.45666,100,7
-22.013,16.0993,7.3075,19,15
-24.0011,17.6048,0.519558,3,8
-0.458776,0.336634,-0.131371,14,1
-23.6629,17.363,1.53815,25,9
-0.566588,0.415896,-0.136619,12,2
-16.0994,11.8219,1.74747,50,10
-11.9146,8.75215,-2.34151,3,3
-21.9694,16.144,3.34751,10,11
-12.6387,9.28747,-1.92578,53,4
-22.1854,16.3087,4.36108,6,12
-12.8601,9.45706,-1.39658,30,5
-21.7716,16.0162,5.25374,39,13
-15.7548,11.5942,-1.02516,37,6
-22.5229,16.575,6.4561,72,14
-21.0202,15.4748,-0.455613,100,7
-22.6688,16.6946,7.54354,30,15
-24.3753,18.0039,0.528948,7,8
-0.42631,0.314993,-0.122373,15,1
-23.067,17.0438,1.50309,5,9
-0.606254,0.448113,-0.146541,10,2
-15.9544,11.797,1.73597,42,10
-11.8585,8.77165,-2.33619,11,3
-23.1413,17.1236,3.5347,22,11
-12.3845,9.16402,-1.89166,44,4
-22.0137,16.2952,4.33793,33,12
-16.529,12.2397,-1.79942,29,5
-21.7704,16.1269,5.26633,39,13
-15.7323,11.6583,-1.0262,18,6
-22.5555,16.7145,6.48129,45,14
-21.2049,15.7194,-0.460744,96,7
-22.5916,16.7536,7.53629,35,15
-23.1393,17.2099,0.503362,3,8
-0.425263,0.316405,-0.122373,15,1
-21.0944,15.7004,1.37811,24,9
-0.585866,0.436055,-0.141962,11,2
-15.9775,11.8963,1.74277,29,10
-11.8262,8.80856,-2.33557,11,3
-22.7119,16.9228,3.47766,21,11
-12.4527,9.28193,-1.90701,23,4
-21.7286,16.2019,4.29288,30,12
-17.049,12.7125,-1.8606,18,5
-21.6995,16.1861,5.26213,21,13
-15.5863,11.6304,-1.01919,45,6
-21.6365,16.1509,6.23339,33,14
-20.799,15.5313,-0.453099,100,7
-22.5082,16.8138,7.52801,41,15
-22.4678,16.8325,0.490029,9,8
-0.424156,0.317887,-0.122373,15,1
-21.057,15.7871,1.37926,24,9
-0.559207,0.419255,-0.135856,12,2
-21.1512,15.8634,2.31311,50,10
-12.0751,9.05963,-2.39094,19,3
-22.3256,16.7565,3.42745,10,11
-12.4075,9.31581,-1.90506,46,4
-21.8046,16.3773,4.31916,24,12
-16.5043,12.3962,-1.80587,12,5
-21.6381,16.2582,5.26099,39,13
-15.3365,11.5275,-1.00548,45,6
-21.5052,16.1701,6.2118,58,14
-20.9188,15.7349,-0.456904,19,7
-22.3846,16.8435,7.50627,35,15
-15.59,11.765,0.340915,38,8
-0.466593,0.352242,-0.134971,14,1
-15.8224,11.9447,1.03897,13,9
-0.573407,0.433036,-0.139672,11,2
-21.102,15.942,2.31381,18,10
-12.078,9.12792,-2.39783,21,3
-21.3296,16.1256,3.28316,49,11
-10.6143,8.02753,-1.63402,36,4
-21.7297,16.434,4.31509,33,12
-12.9669,9.81036,-1.42256,30,5
-21.6486,16.3846,5.2774,39,13
-15.2818,11.5701,-1.00454,48,6
-21.4487,16.245,6.2118,8,14
-16.5896,12.5648,-0.363254,100,7
-22.3224,16.913,7.5042,30,15
-15.5079,11.7839,0.339973,61,8
-0.446805,0.339635,-0.129572,14,1
-15.6327,11.8874,1.02924,33,9
-0.593768,0.451675,-0.145015,10,2
-22.1545,16.8589,2.43565,34,10
-11.9157,9.06744,-2.37155,17,3
-21.0154,15.9978,3.24294,57,11
-10.6224,8.08914,-1.63939,52,4
-21.6691,16.5074,4.31446,24,12
-12.95,9.86884,-1.42447,11,5
-21.4786,16.3682,5.24916,39,13
-15.2751,11.6449,-1.00663,52,6
-22.0424,16.81,6.39986,71,14
-16.5027,12.5899,-0.362312,75,7
-22.1926,16.9369,7.48039,20,15
-15.3793,11.7711,0.338053,61,8
-0.42086,0.322238,-0.122373,15,1
-15.5991,11.948,1.02976,36,9
-0.551743,0.422603,-0.135093,12,2
-22.1855,16.9989,2.44524,27,10
-11.55,8.85302,-2.30491,17,3
-21.1815,16.2414,3.27731,58,11
-10.6382,8.16,-1.64621,52,4
-21.8041,16.7308,4.35295,33,12
-15.2345,11.6898,-1.68001,15,5
-22.1859,17.03,5.43653,34,13
-15.5338,11.9281,-1.02641,45,6
-21.9419,16.8548,6.38771,44,14
-16.4159,12.6146,-0.36137,100,7
-23.0569,17.7242,7.79252,5,15
-15.4252,11.8919,0.339973,59,8
-0.462941,0.357028,-0.134971,14,1
-15.4655,11.9316,1.02369,36,9
-0.550265,0.424526,-0.135093,12,2
-22.0929,17.0507,2.44158,27,10
-11.9365,9.2156,-2.38844,22,3
-21.0383,16.2485,3.26391,39,11
-12.5701,9.71174,-1.9504,13,4
-21.7221,16.7887,4.34825,9,12
-12.8573,9.93727,-1.42168,13,5
-15.7537,12.1803,3.87075,19,13
-15.5584,12.0336,-1.03081,41,6
-22.6504,17.5252,6.61176,38,14
-16.2342,12.5653,-0.358333,100,7
-22.998,17.8069,7.79356,5,15
-15.3031,11.8831,0.338193,44,8
-0.418601,0.325168,-0.122373,15,1
-15.5032,12.0428,1.02882,20,9
-0.54878,0.426445,-0.135093,12,2
-22.4029,17.4151,2.48254,21,10
-11.8341,9.20263,-2.37436,14,3
-21.0848,16.4023,3.27999,19,11
-10.7893,8.39621,-1.67863,22,4
-21.5291,16.7539,4.32072,33,12
-15.1494,11.7935,-1.67967,15,5
-22.4243,17.4631,5.52468,20,13
-15.4217,12.0142,-1.02453,67,6
-15.9566,12.4353,4.67043,31,14
-15.1924,11.8397,-0.336203,27,7
-0.456571,0.356969,-0.155291,12,0
-15.2447,11.919,0.337774,65,8
-0.41752,0.326555,-0.122373,15,1
-15.3163,11.9837,1.01919,37,9
-0.5813,0.454979,-0.143488,11,2
-16.191,12.6771,1.79907,50,10
-10.7194,8.39303,-2.15629,7,3
-21.1413,16.559,3.2973,39,11
-11.7677,9.22041,-1.8356,26,4
-21.4114,16.7827,4.30883,27,12
-12.1025,9.48955,-1.34551,21,5
-15.5345,12.1806,3.83717,19,13
-15.3425,12.0344,-1.02191,41,6
-15.8263,12.4183,4.64434,48,14
-15.1809,11.9162,-0.336866,66,7
-15.1841,11.9573,0.337355,44,8
-0.416378,0.32801,-0.122373,15,1
-15.0736,11.8788,1.00579,45,9
-0.568994,0.448398,-0.140817,11,2
-15.7201,12.3927,1.75131,32,10
-10.7056,8.44263,-2.15942,24,3
-15.6536,12.3491,2.44811,26,11
-15.6109,12.3199,-2.44177,7,4
-15.8998,12.5524,3.20847,40,12
-12.0928,9.54692,-1.34795,21,5
-21.8289,17.2394,5.40676,19,13
-15.2064,12.0136,-1.01563,45,6
-15.7217,12.4252,4.62634,94,14
-15.067,11.912,-0.335261,28,7
-29.9926,23.7207,10.2461,9,15
-15.0906,11.9692,0.336203,12,8
-0.470187,0.373067,-0.13857,13,1
-14.9069,11.832,0.997419,22,9
-0.573576,0.455263,-0.142344,11,2
-15.3257,12.1688,1.71209,49,10
-9.28856,7.37787,-1.87878,6,3
-15.6057,12.4,2.44738,31,11
-10.494,8.34135,-1.64597,21,4
-15.7755,12.5439,3.1922,19,12
-14.9601,11.8955,-1.67217,22,5
-15.7871,12.5576,3.92113,20,13
-15.1722,12.0728,-1.01616,60,6
-15.7621,12.5467,4.65109,45,14
-14.797,11.7827,-0.330165,100,7
-29.9262,23.8385,10.2518,28,15
-15.0581,12.0293,0.336413,74,8
-0.414078,0.330909,-0.122373,15,1
-14.8816,11.8926,0.998361,49,9
-0.584251,0.46707,-0.145396,10,2
-15.2784,12.2185,1.71156,56,10
-10.4983,8.39869,-2.12939,28,3
-15.5422,12.4383,2.44421,57,11
-10.4711,8.38289,-1.64694,52,4
-15.6366,12.5184,3.17249,47,12
-14.6743,11.7521,-1.6448,18,5
-15.0458,12.0583,-1.0105,60,6
-15.5768,12.4883,4.60925,54,14
-15.0511,12.0669,-0.336727,25,7
-15.72,12.6076,5.39948,8,15
-14.853,11.9463,0.332713,56,8
-0.412978,0.33228,-0.122373,15,1
-15.1839,12.2212,1.02149,24,9
-0.561209,0.451869,-0.140054,11,2
-14.8881,11.9918,1.67252,28,10
-10.4904,8.44957,-2.13345,16,3
-14.9289,12.0289,2.35403,5,11
-10.4015,8.38393,-1.64036,42,4
-15.4114,12.4265,3.13557,43,12
-14.4641,11.6669,-1.6258,21,5
-15.4125,12.4318,3.849,47,13
-15.1549,12.2285,-1.02055,45,6
-15.5929,12.5864,4.62634,47,14
-14.9669,12.0854,-0.335784,100,7
-15.733,12.7085,5.41915,8,15
-14.4289,11.6885,0.324126,30,8
-0.442096,0.358258,-0.131371,14,1
-14.837,12.0277,1.00098,51,9
-0.553607,0.448782,-0.138527,12,2
-14.8808,12.0674,1.67618,59,10
-9.16914,7.43828,-1.87002,45,3
-15.36,12.465,2.42886,30,11
-15.371,12.4828,3.1362,43,12
-14.065,11.4222,-1.58519,30,5
-15.3994,12.5103,3.85663,45,13
-14.7712,12.0042,-0.997523,50,6
-15.5051,12.6051,4.6133,43,14
-15.0146,12.2107,-0.337809,100,7
-14.3044,11.6705,0.322241,60,8
-0.410648,0.335155,-0.122373,15,1
-15.5654,12.7084,1.0531,33,9
-0.561162,0.458162,-0.140817,11,2
-14.7583,12.0538,1.66711,56,10
-9.2089,7.52399,-1.88347,65,3
-15.6208,12.7672,2.47712,53,11
-11.6274,9.50679,-1.84413,26,4
-15.3074,12.5201,3.13213,39,12
-14.0914,11.5254,-1.59268,37,5
-15.3511,12.5603,3.85549,43,13
-14.757,12.0785,-0.999408,58,6
-15.4564,12.6555,4.61195,65,14
-14.9116,12.2137,-0.336448,26,7
-14.228,11.6912,0.321438,52,8
-0.409476,0.336587,-0.122373,15,1
-15.2772,12.5622,1.03657,41,9
-0.544395,0.447648,-0.137001,12,2
-14.7654,12.1457,1.67269,38,10
-9.0514,7.44814,-1.85656,38,3
-15.4611,12.7271,2.45884,31,11
-11.4655,9.44133,-1.82365,12,4
-15.2301,12.5458,3.12525,52,12
-13.9496,11.491,-1.58118,27,5
-15.4632,12.7424,3.89479,35,13
-14.2663,11.7602,-0.968948,32,6
-15.4708,12.7577,4.62949,45,14
-14.6837,12.1129,-0.332259,25,7
-14.6647,12.136,0.332259,16,8
-0.462338,0.382751,-0.13857,13,1
-14.6395,12.1238,0.996163,30,9
-0.554925,0.459564,-0.140054,11,2
-14.7198,12.1946,1.67234,45,10
-8.78808,7.28305,-1.80776,45,3
-15.1461,12.5567,2.41569,41,11
-11.5638,9.59027,-1.84461,32,4
-14.9795,12.4274,3.0827,43,12
-14.2237,11.8004,-1.61691,17,5
-15.4126,12.7913,3.89327,21,13
-14.2866,11.861,-0.973135,29,6
-15.5101,12.8813,4.65469,33,14
-14.5998,12.1296,-0.331317,100,7
-14.5669,12.141,0.331002,10,8
-14.6314,12.1991,0.998361,48,9
-0.568394,0.474073,-0.14387,11,2
-14.5808,12.1655,1.66136,66,10
-8.89757,7.42634,-1.8356,41,3
-14.6634,12.2431,2.3455,45,11
-11.6463,9.72399,-1.86289,22,4
-14.9382,12.477,3.0827,28,12
-8.99933,7.51927,-1.026,24,5
-15.2323,12.7317,3.85892,38,13
-14.2329,11.9005,-0.972297,39,6
-29.335,24.5279,8.82798,12,14
-14.6408,12.246,-0.333166,100,7
-14.4607,12.134,0.329501,66,8
-14.5771,12.236,0.997419,43,9
-0.557798,0.46838,-0.14158,11,2
-14.992,12.5931,1.71296,42,10
-8.64907,7.26773,-1.7893,37,3
-14.7777,12.4219,2.37036,45,11
-11.6459,9.78937,-1.86801,12,4
-14.8332,12.473,3.06956,43,12
-8.98807,7.56061,-1.02757,27,5
-15.1344,12.7353,3.8448,35,13
-14.2606,12.0042,-0.976903,39,6
-29.2789,24.6463,8.83563,12,14
-14.7286,12.4026,-0.336098,26,7
-14.5854,12.3212,0.333271,62,8
-0.404856,0.34213,-0.122373,15,1
-14.5258,12.2753,0.996686,34,9
-0.547246,0.462623,-0.139291,12,2
-15.0475,12.7251,1.72411,66,10
-8.361,7.0731,-1.73455,56,3
-14.7788,12.5068,2.37718,56,11
-12.2904,10.4046,-1.97721,18,4
-14.8596,12.5796,3.08364,40,12
-9.00096,7.62257,-1.03192,45,5
-15.2419,12.9124,3.88296,52,13
-14.1795,12.0166,-0.974077,39,6
-14.6325,12.4049,-0.334842,26,7
-14.485,12.319,0.33191,58,8
-0.403719,0.34347,-0.122373,15,1
-14.4905,12.3324,0.997209,50,9
-0.542638,0.461985,-0.138527,12,2
-14.4933,12.3435,1.66555,35,10
-8.28938,7.0598,-1.72453,16,3
-14.8022,12.6111,2.38766,56,11
-12.07,10.2869,-1.94723,45,4
-15.0231,12.8082,3.12681,48,12
-8.99703,7.67333,-1.03454,31,5
-15.2483,13.0049,3.89556,63,13
-14.1837,12.1012,-0.977112,43,6
-12.3763,10.5666,-0.284055,100,7
-0.440237,0.376929,-0.155291,12,0
-14.5467,12.4593,0.334318,34,8
-14.8689,12.7442,1.02631,29,9
-0.535141,0.458671,-0.137001,12,2
-14.7503,12.647,1.69989,35,10
-8.2272,7.05654,-1.71671,43,3
-14.7461,12.6523,2.38571,35,11
-12.3097,10.5656,-1.99183,11,4
-14.9842,12.8658,3.12806,39,12
-8.97171,7.70599,-1.03471,60,5
-15.1388,13.003,3.87915,43,13
-14.1913,12.1935,-0.980567,54,6
-11.3068,9.72194,-0.260285,25,7
-14.5213,12.5256,0.334737,63,8
-14.3572,12.3928,0.993965,55,9
-0.545344,0.470894,-0.140054,11,2
-14.7129,12.7088,1.70093,63,10
-10.4732,9.04978,-2.19227,21,3
-14.864,12.8439,2.41204,56,11
-12.3928,10.7123,-2.01133,22,4
-14.8137,12.8094,3.10178,16,12
-8.9342,7.72814,-1.03349,38,5
-15.1177,13.0815,3.88602,15,13
-14.2583,12.3422,-0.988312,61,6
-11.2879,9.77444,-0.260634,36,7
-14.4678,12.5722,0.334563,48,8
-0.452986,0.393775,-0.13857,13,1
-14.6168,12.7062,1.015,29,9
-0.549623,0.477948,-0.14158,11,2
-14.7225,12.8071,1.70721,38,10
-9.18831,7.99573,-1.92915,37,3
-14.7914,12.8761,2.40789,56,11
-11.5227,10.0342,-1.87606,10,4
-22.2741,19.3967,4.67802,16,12
-8.88914,7.74357,-1.0314,51,5
-23.8343,20.77,6.1452,10,13
-14.2332,12.4076,-0.989568,47,6
-14.4787,12.6662,0.335784,53,8
-0.451677,0.395275,-0.13857,13,1
-14.5558,12.7426,1.01385,34,9
-0.539089,0.472103,-0.139291,12,2
-14.6343,12.8204,1.70215,66,10
-9.11865,7.9884,-1.92008,18,3
-14.6128,12.806,2.38571,15,11
-11.5177,10.0972,-1.88069,8,4
-15.0195,13.1717,3.16404,3,12
-8.84409,7.75879,-1.02931,49,5
-17.7616,15.582,4.59277,22,13
-11.8652,10.4128,-0.827327,26,6
-12.0278,10.5629,-0.279413,100,7
-14.4659,12.7444,0.336517,25,8
-0.397663,0.350464,-0.122373,15,1
-14.8956,13.1276,1.04054,30,9
-0.511013,0.450518,-0.132421,13,2
-15.2238,13.4263,1.77589,41,10
-9.04924,7.98359,-1.91132,8,3
-19.0479,16.8107,3.11937,35,11
-8.88558,7.84473,-1.45536,5,4
-14.9135,13.1666,3.1509,35,12
-8.86759,7.83159,-1.03506,27,5
-17.7086,15.6452,4.59315,30,13
-11.7973,10.4264,-0.825129,26,6
-11.7305,10.371,-0.273305,23,7
-11.6454,10.3283,0.271699,46,8
-0.446061,0.395753,-0.13767,13,1
-14.9692,13.2856,1.04892,30,9
-0.518246,0.46012,-0.134711,12,2
-14.7731,13.1208,1.72865,31,10
-15.0773,13.3957,2.47639,43,11
-10.8018,9.60037,-1.77442,41,4
-14.9088,13.2553,3.15966,45,12
-8.74641,7.77908,-1.02408,38,5
-17.7241,15.7638,4.61071,13,13
-11.5612,10.2862,-0.810998,42,6
-11.9302,10.6219,-0.27882,39,7
-14.2684,12.744,0.333934,12,8
-0.456302,0.407695,-0.141269,13,1
-14.0262,12.5365,0.985905,57,9
-0.522572,0.467069,-0.136238,12,2
-14.7696,13.2056,1.73335,31,10
-9.10217,8.14114,-1.93416,12,3
-14.9432,13.3701,2.462,48,11
-10.6735,9.55328,-1.75882,18,4
-14.8301,13.2783,3.15278,35,12
-8.73095,7.81735,-1.0253,51,5
-14.9093,13.3539,3.8906,14,13
-11.2069,10.0413,-0.788598,84,6
-11.8901,10.6608,-0.27875,47,7
-17.942,16.0928,6.45805,3,15
-14.3562,12.9128,0.337041,63,8
-0.431698,0.38843,-0.134071,14,1
-13.8785,12.4918,0.978578,28,9
-0.523857,0.471517,-0.137001,12,2
-15.1735,13.6623,1.78634,41,10
-8.84913,7.97059,-1.88629,45,3
-14.7504,13.2907,2.43787,57,11
-10.764,9.70212,-1.77929,20,4
-24.4047,22.0049,5.20458,25,12
-8.87526,8.00254,-1.04552,47,5
-14.8583,13.4019,3.88945,31,13
-11.2534,10.1539,-0.794355,58,6
-23.3409,21.068,7.25917,10,14
-11.5262,10.4075,-0.271071,100,7
-17.8155,16.0919,6.43269,28,15
-14.2369,12.8957,0.335296,48,8
-0.433228,0.392551,-0.134971,14,1
-13.7837,12.4895,0.97481,29,9
-0.545482,0.494439,-0.143107,11,2
-15.0593,13.655,1.7785,30,10
-8.7876,7.9709,-1.87909,31,3
-14.6231,13.2687,2.42447,46,11
-10.7785,9.78367,-1.78734,48,4
-23.4072,21.2467,5.00684,8,12
-8.95052,8.12723,-1.05772,33,5
-17.9576,16.3116,4.71565,40,13
-11.4485,10.4027,-0.810684,48,6
-19.4761,17.7033,6.07638,63,14
-11.6855,10.6218,-0.275643,88,7
-17.6534,16.0521,6.39335,37,15
-13.8542,12.6329,0.327268,18,8
-0.391611,0.357214,-0.122373,15,1
-13.8448,12.6331,0.982241,43,9
-0.503152,0.45928,-0.132421,13,2
-15.5001,14.1535,1.83637,20,10
-8.64296,7.89211,-1.85375,33,3
-14.6582,13.3894,2.43763,52,11
-8.5215,7.78666,-1.41734,15,4
-23.3154,21.3122,5.00309,40,12
-8.74124,7.99305,-1.03628,58,5
-17.831,16.3048,4.69657,37,13
-11.2916,10.3287,-0.801996,35,6
-17.6087,16.1128,5.5104,25,14
-14.0468,12.858,-0.332399,81,7
-17.5488,16.0693,6.37575,20,15
-11.8231,10.8567,0.280181,17,8
-0.390362,0.358579,-0.122373,15,1
-13.8182,12.6976,0.983497,48,9
-0.507409,0.46626,-0.133948,13,2
-15.4897,14.2385,1.84073,32,10
-8.57319,7.88345,-1.84468,56,3
-14.7983,13.6125,2.46883,53,11
-10.8183,9.95493,-1.80513,58,4
-18.6395,17.1579,4.01254,13,12
-8.73522,8.04088,-1.03872,54,5
-17.7278,16.3244,4.68436,25,13
-11.1658,10.2855,-0.795611,35,6
-17.5237,16.1478,5.5014,62,14
-13.5093,12.4529,-0.320705,100,7
-17.5892,16.2195,6.41095,14,15
-11.7337,10.8503,0.278959,39,8
-13.9688,12.9262,0.997419,27,9
-0.517306,0.478695,-0.137001,12,2
-21.5281,19.9283,2.56656,29,10
-8.52823,7.89722,-1.84092,38,3
-14.2803,13.2284,2.3901,30,11
-10.5724,9.79699,-1.76979,20,4
-17.5683,16.2855,3.79416,2,12
-8.67787,8.04424,-1.03524,36,5
-17.7686,16.4769,4.71031,60,13
-12.0216,11.1516,-0.859356,32,6
-17.4387,16.1823,5.4924,31,14
-11.1501,10.3504,-0.265556,99,7
-22.7689,21.1433,8.32569,25,15
-11.0782,10.3162,0.264229,9,8
-0.427774,0.398487,-0.134971,14,1
-13.9711,13.0146,1.00066,18,9
-0.515632,0.480498,-0.137001,24,2
-14.4266,13.4483,1.72551,14,10
-8.10043,7.55377,-1.75426,12,3
-22.0667,20.5848,3.70532,48,11
-8.78927,8.20186,-1.47608,19,4
-17.8045,16.6145,3.85705,38,12
-8.61041,8.03777,-1.03053,31,5
-17.5459,16.3848,4.66643,34,13
-11.8469,11.0667,-0.849622,26,6
-22.9236,21.4215,7.24342,42,14
-11.4824,10.73,-0.274317,88,7
-22.6704,21.1923,8.31534,25,15
-11.2672,10.5621,0.26957,13,8
-0.409393,0.383907,-0.129572,14,1
-13.7931,12.939,0.991138,47,9
-0.516815,0.484982,-0.137764,12,2
-14.0876,13.2245,1.69047,28,10
-8.10126,7.60493,-1.75989,13,3
-18.4371,17.3136,3.10547,44,11
-9.00798,8.46202,-1.51752,15,4
-17.2123,16.1747,3.74097,11,12
-8.65779,8.13874,-1.03959,27,5
-17.3699,16.3286,4.63399,27,13
-10.9633,10.3096,-0.788703,6,6
-17.1904,16.1711,5.44876,67,14
-11.4027,10.7303,-0.273305,35,7
-18.3243,17.2499,6.74327,8,15
-13.964,13.182,0.335191,19,8
-0.38538,0.363927,-0.122373,15,1
-13.7507,12.9898,0.991348,21,9
-0.500932,0.473211,-0.133948,13,2
-14.0842,13.3094,1.69535,77,10
-21.7862,20.6022,3.68167,24,11
-8.78515,8.31061,-1.48486,42,4
-17.1744,16.2524,3.74504,36,12
-11.7016,11.0734,-1.40948,13,5
-17.3513,16.4255,4.64429,46,13
-10.1833,9.64335,-0.735006,68,6
-17.1975,16.2913,5.46901,67,14
-11.1547,10.5706,-0.268243,22,7
-22.4504,21.2823,8.28894,25,15
-11.6265,11.0524,0.280006,43,8
-0.434946,0.413614,-0.13857,13,1
-13.714,13.046,0.991976,13,9
-0.519192,0.493901,-0.139291,12,2
-14.0781,13.397,1.70023,59,10
-9.27126,8.82582,-2.02739,13,3
-17.0594,16.2454,2.89245,45,11
-17.159,16.3517,3.75411,13,12
-10.9359,10.4214,-1.32163,13,5
-17.1589,16.3573,4.60804,35,13
-10.1684,9.69675,-0.736367,32,6
-17.18,16.3889,5.48161,67,14
-11.0382,10.5336,-0.266324,99,7
-17.1387,16.3609,6.34883,6,15
-0.41872,0.400697,-0.155291,12,0
-13.9222,13.3276,0.336413,34,8
-0.419425,0.401652,-0.134071,14,1
-14.5333,13.9174,1.05457,41,9
-0.508958,0.487562,-0.137001,24,2
-14.1477,13.5577,1.71435,31,10
-8.99228,8.62027,-1.97295,25,3
-17.1416,16.4382,2.91609,47,11
-8.29139,7.95115,-1.41052,41,4
-17.0762,16.3812,3.74786,27,12
-10.5415,10.116,-1.27823,28,5
-17.0691,16.3858,4.59926,13,13
-10.1532,9.75017,-0.737728,48,6
-17.1903,16.5079,5.5023,37,14
-10.7176,10.2958,-0.259413,27,7
-17.0397,16.3748,6.33227,30,15
-0.417389,0.402083,-0.155291,12,0
-11.3091,10.8982,0.274142,39,8
-0.409672,0.394926,-0.131371,14,1
-14.3634,13.8463,1.04557,33,9
-0.527123,0.508326,-0.142344,22,2
-17.8037,17.1748,2.16425,44,10
-9.5905,9.25497,-2.11093,48,3
-16.907,16.3212,2.88538,38,11
-17.1425,16.5544,3.77445,47,12
-10.1153,9.77163,-1.23046,27,5
-17.561,16.9703,4.74695,33,13
-10.1538,9.81571,-0.740135,81,6
-17.1116,16.5418,5.49465,62,14
-9.77062,9.44857,-0.237248,40,7
-17.0298,16.4742,6.34883,27,15
-11.3116,10.9732,0.275085,19,8
-0.419548,0.407139,-0.134971,14,1
-14.3804,13.9551,1.05017,20,9
-0.516983,0.501866,-0.140054,23,2
-17.6323,17.1227,2.15031,44,10
-9.61643,9.34177,-2.12344,12,3
-16.9012,16.4242,2.89367,31,11
-8.39222,8.15538,-1.43684,28,4
-17.2632,16.7819,3.81325,21,12
-10.2,9.91902,-1.24476,32,5
-17.5356,17.0586,4.75534,36,13
-10.3059,10.029,-0.753638,68,6
-17.0231,16.5658,5.48386,68,14
-9.81661,9.55624,-0.239133,25,7
-16.2734,15.8473,6.08639,3,15
-10.6743,10.4239,0.260425,16,8
-0.415408,0.405804,-0.134071,14,1
-14.1726,13.845,1.03835,38,9
-0.520932,0.509067,-0.14158,23,2
-16.7305,16.3552,2.04694,10,10
-8.75495,8.56152,-1.93947,1,3
-16.8864,16.519,2.90049,46,11
-8.34385,8.16234,-1.43318,23,4
-15.7561,15.4187,3.49162,18,12
-10.0972,9.8845,-1.23622,27,5
-17.3906,17.0301,4.7313,34,13
-10.2526,10.0436,-0.752172,65,6
-16.7871,16.4449,5.42537,66,14
-9.71203,9.51736,-0.237353,34,7
-17.0002,16.6652,6.37885,20,15
-0.413155,0.406432,-0.155291,12,0
-13.291,13.0793,0.325487,20,8
-0.377739,0.371852,-0.122373,15,1
-14.108,13.8881,1.03751,23,9
-0.495193,0.487645,-0.135093,25,2
-15.1233,14.898,1.85729,57,10
-8.19017,8.07097,-1.82121,11,3
-15.5618,15.3407,2.68308,45,11
-8.94719,8.82004,-1.54262,43,4
-17.1539,16.9161,3.81575,26,12
-10.0635,9.92739,-1.23674,27,5
-17.1993,16.9726,4.69695,34,13
-10.1173,9.98745,-0.745055,71,6
-16.6906,16.4764,5.41457,66,14
-9.84615,9.7232,-0.241541,35,7
-16.8934,16.6883,6.36281,37,15
-11.189,11.084,0.27491,36,8
-0.426336,0.422484,-0.13857,13,1
-11.155,11.0542,0.823035,27,9
-0.504727,0.500342,-0.138146,24,2
-14.5476,14.4262,1.79245,41,10
-15.5517,15.4327,2.69014,39,11
-8.96157,8.89301,-1.55018,17,4
-15.6201,15.506,3.48599,24,12
-9.98526,9.91578,-1.23116,27,5
-17.3003,17.1859,4.74008,30,13
-9.91269,9.8506,-0.732389,58,6
-16.7229,16.6182,5.44292,24,14
-11.1994,11.1332,-0.275643,72,7
-16.8846,16.7905,6.38041,37,15
-11.3688,11.3371,0.280251,13,8
-0.375265,0.374349,-0.122373,15,1
-11.5362,11.5121,0.854123,7,9
-0.522521,0.521428,-0.143488,22,2
-14.4108,14.3857,1.78146,33,10
-8.29301,8.28144,-1.85625,28,3
-15.426,15.4099,2.67723,6,11
-8.93609,8.92985,-1.55115,47,4
-15.5254,15.52,3.47691,36,12
-10.8894,10.8856,-1.34708,15,5
-14.9873,14.9873,4.11995,42,13
-9.5312,9.53452,-0.706536,65,6
-16.7006,16.7123,5.45461,6,14
-10.9853,10.9968,-0.271315,50,7
-16.0983,16.1208,6.10451,6,15
-0.40902,0.410594,-0.155291,12,0
-11.5056,11.5539,0.284614,24,8
-0.395953,0.397754,-0.129572,14,1
-11.5171,11.5735,0.855693,11,9
-0.49854,0.500983,-0.137382,24,2
-14.3999,14.4755,1.78634,7,10
-11.3396,11.4031,-2.54707,24,3
-15.5373,15.6297,2.70599,39,11
-8.65999,8.71458,-1.5085,40,4
-16.3858,16.4948,3.68247,27,12
-8.80684,8.86545,-1.09328,2,5
-14.9654,15.0702,4.12834,42,13
-9.57243,9.64286,-0.712083,84,6
-16.4336,16.5602,5.38623,58,14
-10.637,10.7227,-0.263636,100,7
-16.0283,16.1632,6.09933,6,15
-11.2796,11.4063,0.280006,24,8
-0.411002,0.415764,-0.134971,14,1
-16.021,16.2122,1.19452,8,9
-0.502308,0.508306,-0.138909,24,2
-14.6335,14.8134,1.82173,50,10
-8.29607,8.40098,-1.87002,16,3
-15.1842,15.3816,2.65383,31,11
-8.84564,8.96376,-1.54628,9,4
-16.3128,16.5364,3.67903,27,12
-8.71988,8.8394,-1.08631,26,5
-14.9416,15.1517,4.13636,38,13
-9.57938,9.71746,-0.715119,39,6
-16.507,16.7508,5.42942,48,14
-10.5518,10.7113,-0.262449,92,7
-15.3971,15.6354,5.87985,22,15
-15.0325,15.3078,0.374494,9,8
-0.398627,0.406071,-0.131371,14,1
-14.1779,14.4477,1.06085,13,9
-0.492281,0.501648,-0.136619,25,2
-14.5901,14.8729,1.82278,54,10
-8.15189,8.31282,-1.84405,41,3
-14.8163,15.1141,2.59874,12,11
-8.68231,8.85989,-1.52312,36,4
-15.1892,15.5053,3.4378,43,12
-8.69454,8.87548,-1.08701,45,5
-14.6304,14.9401,4.06461,44,13
-9.95197,10.1662,-0.745578,68,6
-16.4075,16.7665,5.41592,54,14
-9.92001,10.1406,-0.247615,100,7
-14.9993,15.3382,5.74837,30,15
-14.9636,15.3445,0.37411,28,8
-0.413531,0.424205,-0.13677,13,1
-14.0184,14.3802,1.05248,38,9
-0.493267,0.506176,-0.137382,24,2
-14.6062,14.9937,1.83132,40,10
-7.58259,7.78647,-1.72141,20,3
-14.7012,15.1017,2.58777,48,11
-8.65271,8.89157,-1.52337,51,4
-15.1749,15.5938,3.44625,12,12
-8.68574,8.92862,-1.0898,35,5
-14.5699,14.9826,4.06232,40,13
-9.73266,10.0118,-0.731761,78,6
-16.3258,16.7999,5.40827,66,14
-10.3894,10.6911,-0.260215,28,7
-14.9013,15.3394,5.73025,27,15
-11.117,11.4758,0.278889,21,8
-0.403988,0.417175,-0.134071,14,1
-13.7903,14.2454,1.03908,13,9
-0.50788,0.524824,-0.141962,23,2
-14.6521,15.1462,1.84369,52,10
-7.70506,7.9649,-1.75519,58,3
-14.9201,15.4286,2.6353,37,11
-8.62318,8.92021,-1.52337,34,4
-15.8342,16.3853,3.60894,53,12
-8.58669,8.88867,-1.08125,26,5
-14.5652,15.0774,4.07492,40,13
-9.48297,9.8199,-0.715433,32,6
-15.7624,16.3282,5.23956,44,14
-10.3965,10.7734,-0.261332,31,7
-14.7618,15.3023,5.69712,28,15
-11.1614,11.6025,0.281019,17,8
-0.402529,0.418582,-0.134071,14,1
-10.7202,11.1517,0.810684,10,9
-0.497974,0.518014,-0.139672,23,2
-14.628,15.222,1.847,52,10
-9.72447,10.1229,-2.22325,24,3
-14.9047,15.5207,2.64213,31,11
-14.6458,15.2618,3.3502,15,12
-8.53648,8.89553,-1.07864,28,5
-14.6226,15.2429,4.10583,12,13
-9.49702,9.90339,-0.719096,35,6
-15.085,15.736,5.03261,34,14
-10.3145,10.7634,-0.260215,92,7
-14.7724,15.4207,5.72197,27,15
-13.918,14.5694,0.351701,24,8
-0.4226,0.442534,-0.141269,13,1
-16.2211,16.9923,1.23115,8,9
-0.498874,0.522589,-0.140435,23,2
-14.5611,15.2586,1.84526,48,10
-9.57863,10.041,-2.1979,42,3
-14.612,15.3227,2.59972,30,11
-9.34691,9.80493,-1.66327,43,4
-14.6019,15.3228,3.35239,30,12
-8.0298,8.42622,-1.01833,15,5
-14.6167,15.3436,4.11918,42,13
-9.41418,9.88586,-0.715433,52,6
-15.0528,15.8126,5.04025,53,14
-9.83714,10.3372,-0.249081,25,7
-14.8903,15.6527,5.78875,31,15
-0.39894,0.420395,-0.155291,12,0
-13.8464,14.5962,0.351177,56,8
-0.418371,0.441179,-0.140369,13,1
-16.0493,16.9242,1.22236,29,9
-0.497046,0.524327,-0.140435,23,2
-7.92011,8.36065,-1.82403,37,3
-14.396,15.2021,2.57071,47,11
-9.37713,9.90218,-1.67448,45,4
-14.5769,15.3984,3.35834,33,12
-7.87845,8.32541,-1.00281,17,5
-14.9448,15.7982,4.22718,29,13
-9.31923,9.85481,-0.710827,29,6
-14.8437,15.6967,4.98761,52,14
-9.82204,10.3902,-0.249569,100,7
-14.7985,15.6599,5.77322,30,15
-0.384836,0.40852,-0.129572,14,1
-16.0876,17.0777,1.22958,35,9
-0.489921,0.520255,-0.138909,24,2
-13.8041,14.6639,1.76194,36,10
-8.24431,8.76089,-1.90537,60,3
-14.3374,15.2411,2.56925,52,11
-9.34016,9.92888,-1.67375,28,4
-14.431,15.346,3.33643,31,12
-7.91221,8.41681,-1.01066,9,5
-14.7552,15.7017,4.18826,47,13
-7.71938,8.21743,-0.590873,50,6
-14.7488,15.7004,4.97322,52,14
-9.6616,10.2886,-0.246358,22,7
-14.8284,15.7962,5.80531,28,15
-14.4558,15.4424,0.369223,40,8
-0.396794,0.424023,-0.134071,14,1
-15.9176,17.0099,1.22089,28,9
-0.49624,0.530479,-0.141199,23,2
-13.8357,14.7955,1.77222,60,10
-8.14507,8.71315,-1.8891,47,3
-14.2542,15.2537,2.5634,58,11
-9.18078,9.82797,-1.65133,63,4
-14.5378,15.5626,3.37304,13,12
-7.79179,8.34398,-0.998805,44,5
-9.57253,10.2581,-0.73532,29,6
-14.6275,15.6805,4.95072,50,14
-9.66016,10.3556,-0.247196,29,7
-14.743,15.81,5.79237,28,15
-14.2942,15.3717,0.366396,47,8
-0.382118,0.411064,-0.129572,14,1
-16.1708,17.4018,1.24497,28,9
-0.502403,0.540839,-0.143488,22,2
-13.7758,14.8349,1.77118,60,10
-7.86611,8.47087,-1.83091,16,3
-14.2981,15.4027,2.58046,48,11
-14.6983,15.845,3.4231,28,12
-7.80055,8.41203,-1.00369,25,5
