x, y, z, intensity, ring
2.01829,12.3928,-1.09851,28,5
3.61314,22.1611,4.36456,26,13
2.11153,12.9368,-0.686962,45,6
4.8508,29.6871,6.94469,10,14
2.18545,13.3604,-0.236306,26,7
4.83308,29.5139,8.01356,11,15
0.0786307,0.476519,-0.12941,15,0
2.18102,13.203,0.233583,19,8
0.10365,0.626777,-0.146668,24,1
2.33707,14.1324,0.750707,11,9
1.21495,7.33888,-1.44595,26,2
3.42138,20.6445,1.83079,44,10
1.42127,8.56666,-1.37537,42,3
3.02996,18.2432,2.27067,39,11
1.69825,10.214,-1.27134,16,4
3.1466,18.9251,3.03858,40,12
2.04289,12.2736,-1.08858,26,5
3.74856,22.497,4.43326,30,13
2.14978,12.888,-0.684764,74,6
4.9531,29.6623,6.94289,30,14
2.23501,13.3846,-0.236864,100,7
3.67917,22.0094,5.97924,5,15
0.088002,0.521961,-0.141833,14,0
2.34746,13.9233,0.246463,11,8
0.105403,0.624508,-0.146218,25,1
2.79931,16.5681,0.880605,20,9
1.2399,7.33073,-1.44519,26,2
3.62845,21.43,1.90156,8,10
1.4467,8.54437,-1.37256,27,3
3.09807,18.2781,2.27628,53,11
1.72215,10.1496,-1.26403,17,4
3.71379,21.8644,3.51258,16,12
2.12981,12.5257,-1.11158,47,5
5.07141,29.8257,5.88073,50,13
2.18647,12.8454,-0.68288,68,6
5.27207,30.9405,7.24612,95,14
2.27701,13.3491,-0.236375,100,7
3.93871,23.0667,6.27015,6,15
0.0851474,0.495012,-0.134586,15,0
2.38315,13.8402,0.245136,41,8
0.107583,0.624136,-0.146218,25,1
2.8573,16.5765,0.881547,30,9
1.25886,7.29562,-1.43908,26,2
3.83921,22.2267,1.97338,46,10
1.4772,8.54316,-1.37318,35,3
3.16524,18.2867,2.27871,53,11
1.74502,10.0712,-1.25501,17,4
3.38427,19.5319,3.13964,40,12
2.12809,12.2692,-1.08945,19,5
3.80992,21.9429,4.32907,19,13
2.2607,13.0069,-0.691881,48,6
3.77933,21.7217,5.09019,25,14
2.3151,13.306,-0.235747,99,7
5.28972,30.3713,8.26047,6,15
0.0868749,0.494711,-0.134586,15,0
2.42488,13.8086,0.244718,22,8
0.114038,0.648727,-0.152067,23,1
2.91963,16.592,0.882908,19,9
1.27989,7.26605,-1.43412,28,2
3.89533,22.0915,1.96257,60,10
1.49728,8.49152,-1.36567,30,3
3.23413,18.323,2.28456,43,11
1.7722,10.0302,-1.25062,22,4
3.45656,19.5433,3.14339,17,12
2.14833,12.1342,-1.07812,30,5
3.7721,21.3057,4.20581,31,13
2.32648,13.1271,-0.698685,68,6
3.88231,21.8837,5.13113,5,14
2.34265,13.1916,-0.233862,100,7
5.15732,29.0117,7.89553,16,15
0.0919193,0.513437,-0.139762,14,0
2.41029,13.4497,0.238505,37,8
0.114581,0.638735,-0.149817,24,1
3.00895,16.7566,0.892223,40,9
1.30329,7.2579,-1.43336,26,2
3.94214,21.9314,1.9495,22,10
1.52167,8.45708,-1.36098,30,3
3.31778,18.421,2.29821,39,11
1.80121,9.99069,-1.24648,27,4
3.53177,19.57,3.14965,40,12
2.19173,12.1447,-1.07969,38,5
3.84051,21.2595,4.19932,24,13
2.3922,13.229,-0.704547,42,6
4.00171,22.1078,5.18692,21,14
2.33235,12.8724,-0.228347,100,7
5.17341,28.524,7.76768,11,15
0.0902403,0.494109,-0.134586,15,0
2.41729,13.2228,0.23463,11,8
0.111899,0.611494,-0.143519,25,1
3.07067,16.7637,0.893165,25,9
1.32614,7.23979,-1.43069,26,2
4.02261,21.9391,1.95142,31,10
1.54869,8.43812,-1.35879,31,3
4.03237,21.9491,2.74011,27,11
1.83212,9.96287,-1.2438,27,4
3.62689,19.7032,3.17312,22,12
2.2471,12.2075,-1.08596,35,5
3.94708,21.4217,4.23405,65,13
2.40792,13.0556,-0.695754,78,6
4.07781,22.0879,5.18557,26,14
2.37,12.8249,-0.227649,22,7
4.22544,22.843,6.2246,19,15
0.0990386,0.531775,-0.144939,14,0
2.44731,13.1278,0.233094,15,8
0.116536,0.624509,-0.146668,24,1
3.13834,16.8182,0.89662,67,9
1.34707,7.21195,-1.42611,26,2
3.88057,20.7557,1.84735,8,10
1.57559,8.41907,-1.3566,36,3
4.0958,21.8646,2.73134,33,11
1.85957,9.91739,-1.23892,33,4
4.09703,21.8501,3.52103,16,12
2.30587,12.2857,-1.09363,45,5
4.05445,21.5815,4.2684,27,13
2.44905,13.0235,-0.694498,71,6
3.98222,21.1562,4.97007,38,14
2.54643,13.5283,-0.240285,100,7
4.28007,22.7169,6.19406,3,15
0.0900843,0.474487,-0.12941,15,0
2.74671,14.4673,0.257039,43,8
0.117878,0.620291,-0.145768,25,1
3.25673,17.1211,0.913367,10,9
1.3671,7.18021,-1.42076,23,2
4.21037,22.0925,1.96763,37,10
1.60387,8.41574,-1.35691,33,3
4.16939,21.8568,2.73207,20,11
1.88649,9.87997,-1.23502,20,4
2.35697,12.3207,-1.09747,28,5
4.09574,21.4098,4.2371,49,13
2.50124,13.0624,-0.69701,58,6
4.06702,21.2194,4.98806,4,14
2.5616,13.3524,-0.237318,100,7
4.36481,22.7302,6.20182,12,15
0.0916571,0.474186,-0.12941,15,0
2.83593,14.6579,0.260599,10,8
0.123747,0.639007,-0.150267,24,1
3.36094,17.339,0.925614,20,9
1.38605,7.15058,-1.4158,26,2
4.12573,21.2647,1.89511,4,10
1.62984,8.39264,-1.3541,42,3
4.33317,22.2922,2.78837,14,11
1.91566,9.84605,-1.23161,24,4
3.84657,19.7521,3.1872,50,12
2.40569,12.3417,-1.10008,45,5
4.17572,21.4223,4.24245,33,13
2.57628,13.2046,-0.70507,26,6
4.13471,21.1726,4.98042,52,14
2.87903,14.729,-0.261961,92,7
5.45529,27.8831,7.6129,15,15
0.103107,0.523127,-0.142868,14,0
2.89481,14.6872,0.261297,7,8
0.125977,0.638571,-0.150267,24,1
3.43034,17.3723,0.928021,12,9
1.41224,7.14545,-1.4158,26,2
3.97089,20.0728,1.79018,3,10
1.6556,8.36142,-1.35003,32,3
4.66928,23.5816,2.95168,16,11
1.94693,9.82372,-1.22966,23,4
5.44065,27.427,4.42866,25,12
2.43595,12.2687,-1.09433,35,5
4.26606,21.4666,4.25428,20,13
2.70336,13.5907,-0.726214,35,6
4.22864,21.2395,4.99976,19,14
2.92144,14.6737,-0.261158,100,7
5.51255,27.6631,7.55803,20,15
0.095048,0.473518,-0.12941,15,0
2.70363,13.457,0.239587,19,8
0.12678,0.630463,-0.148468,24,1
3.4697,17.2544,0.922369,34,9
1.42982,7.10391,-1.40855,23,2
4.48673,22.2718,1.98767,61,10
1.6801,8.33235,-1.34628,33,3
4.75294,23.5507,2.94997,16,11
1.97624,9.78344,-1.22552,26,4
4.44277,21.9941,3.55388,19,12
2.46455,12.1898,-1.08805,28,5
4.3106,21.3015,4.22451,2,13
2.83801,14.0119,-0.749242,19,6
4.29231,21.173,4.98761,52,14
2.63454,12.9956,-0.231454,100,7
5.60678,27.6323,7.55493,20,15
0.106757,0.522394,-0.142868,14,0
2.73303,13.3735,0.23826,16,8
0.12848,0.62813,-0.148018,24,1
4.56342,22.2904,1.19242,9,9
1.455,7.1008,-1.40893,26,2
4.11252,20.0524,1.79088,30,10
1.70216,8.29964,-1.34189,38,3
4.37877,21.3317,2.67381,32,11
1.99988,9.73406,-1.22016,31,4
4.52986,22.0287,3.56201,23,12
2.49544,12.1246,-1.083,26,5
4.36341,21.2005,4.20734,24,13
2.67733,12.9969,-0.69544,16,6
4.28576,20.7865,4.89988,31,14
3.08161,14.933,-0.266149,66,7
5.79268,28.0458,7.67347,5,15
0.0982689,0.47286,-0.12941,15,0
2.7854,13.3913,0.238749,31,8
0.130671,0.627678,-0.148018,24,1
4.57216,21.9623,1.17568,9,9
1.47333,7.07095,-1.40397,26,2
4.2213,20.2415,1.809,42,10
1.72547,8.26658,-1.33751,33,3
4.23196,20.2573,2.54098,17,11
2.02735,9.69593,-1.21626,27,4
4.59319,21.9672,3.5545,14,12
2.50951,11.9914,-1.07184,28,5
4.41605,21.0833,4.18711,18,13
2.72883,13.0168,-0.69701,35,6
4.3715,20.8344,4.91473,58,14
3.18942,15.2006,-0.271106,89,7
4.59688,21.8895,5.99321,2,15
0.0999188,0.472514,-0.12941,15,0
2.82772,13.3722,0.238574,39,8
0.130735,0.617709,-0.145768,25,1
4.08674,19.2928,1.03353,11,9
1.49516,7.05232,-1.4013,26,2
4.29193,20.2267,1.809,69,10
1.74795,8.23762,-1.33376,33,3
4.31231,20.3053,2.54878,63,11
2.05206,9.6542,-1.21187,27,4
6.0164,28.2807,4.57946,16,12
2.55052,11.9787,-1.07149,26,5
4.48022,21.0417,4.18177,23,13
2.73743,12.8455,-0.688323,13,6
4.43691,20.8026,4.91068,49,14
3.2433,15.1933,-0.271176,100,7
4.47387,20.9401,5.7375,2,15
0.10798,0.5024,-0.137692,14,0
3.92698,18.2556,0.325941,14,8
0.134531,0.624869,-0.147568,24,1
4.19319,19.46,1.04326,37,9
1.51151,7.01469,-1.39481,26,2
4.40476,20.4246,1.828,32,10
1.76878,8.19478,-1.32782,41,3
4.42215,20.4705,2.57144,41,11
2.07778,9.61011,-1.20724,27,4
4.74769,21.9404,3.55544,29,12
2.57632,11.9059,-1.06574,23,5
4.55531,21.0336,4.1833,58,13
3.57724,16.5036,-0.885001,6,6
4.61031,21.2517,5.02046,19,14
3.29504,15.176,-0.271071,100,7
4.56293,20.9979,5.75769,10,15
0.107258,0.490696,-0.134586,15,0
3.98,18.1929,0.325069,26,8
0.137545,0.628203,-0.148468,24,1
4.21877,19.2521,1.0329,39,9
1.52842,6.97486,-1.38794,26,2
4.54134,20.7069,1.85467,57,10
1.79356,8.17119,-1.325,33,3
4.49698,20.4705,2.57339,41,11
2.10961,9.59505,-1.20626,27,4
4.78265,21.7346,3.52478,18,12
2.60246,11.8268,-1.05947,26,5
4.72328,21.447,4.26878,18,13
2.84768,12.9197,-0.693347,13,6
4.68992,21.2602,5.02631,24,14
3.48379,15.7795,-0.282066,31,7
4.62078,20.9121,5.73854,30,15
4.71906,21.2162,0.37938,11,8
0.136349,0.612502,-0.144868,25,1
4.27075,19.1691,1.02924,28,9
1.54934,6.95415,-1.38489,26,2
4.67213,20.9534,1.87821,51,10
1.81519,8.13404,-1.31999,33,3
4.51389,20.2105,2.54268,63,11
2.14092,9.57794,-1.20504,27,4
2.62936,11.7535,-1.05371,26,5
6.32214,28.2373,5.62467,33,13
2.867,12.7947,-0.687171,35,6
4.79948,21.4015,5.06365,10,14
4.21983,18.8013,-0.336343,29,7
4.7128,20.9806,5.76183,12,15
0.114938,0.508779,-0.139762,14,0
4.81117,21.2796,0.380812,23,8
0.136766,0.604419,-0.143069,25,1
4.34468,19.1852,1.03091,27,9
1.57057,6.9353,-1.38222,26,2
4.74348,20.9292,1.87751,21,10
1.84095,8.11609,-1.31812,28,3
4.59452,20.2392,2.54829,57,11
2.16862,9.54524,-1.20188,23,4
4.85017,21.3309,3.46471,26,12
2.65933,11.6957,-1.04936,26,5
5.48321,24.0955,4.80343,54,13
2.92849,12.8586,-0.691149,13,6
4.96035,21.7627,5.15318,26,14
3.06776,13.4484,-0.240773,17,7
4.78773,20.9716,5.7639,15,15
0.107986,0.470736,-0.12941,15,0
5.28173,23.0059,0.412016,23,8
0.144006,0.626753,-0.148468,24,1
4.3671,18.9916,1.02128,13,9
1.59257,6.9202,-1.38031,23,2
4.73957,20.5949,1.84892,76,10
1.86741,8.10802,-1.3178,33,3
4.67542,20.2838,2.55584,64,11
2.19625,9.52059,-1.19968,19,4
4.88444,21.1568,3.43906,37,12
2.68938,11.6397,-1.04517,26,5
5.01306,21.6795,4.32526,9,13
3.12061,13.4846,-0.725376,32,6
5.07291,21.9208,5.19457,26,14
3.64159,15.7233,-0.281717,63,7
5.40076,23.3005,6.40888,14,15
0.10971,0.470337,-0.12941,15,0
5.49829,23.5531,0.422174,35,8
0.146302,0.626221,-0.148468,24,1
4.42304,18.9171,1.01814,33,9
1.61344,6.89521,-1.3765,26,2
4.54901,19.4406,1.74678,36,10
1.88586,8.05303,-1.30998,28,3
4.79549,20.4617,2.58046,48,11
2.22705,9.49508,-1.19749,16,4
4.96827,21.1657,3.44344,43,12
2.72564,11.6026,-1.04273,20,5
6.3519,27.0179,5.39493,19,13
3.01997,12.8354,-0.691044,16,6
5.03494,21.3994,5.07535,30,14
3.70652,15.741,-0.282275,63,7
4.95484,21.026,5.78823,2,15
0.115891,0.488729,-0.134586,15,0
5.60169,23.6047,0.423465,27,8
0.145895,0.614305,-0.145768,25,1
4.47105,18.8258,1.01406,36,9
1.63841,6.89335,-1.37726,26,2
4.6124,19.3908,1.74381,7,10
1.91124,8.02877,-1.30717,30,3
4.9505,20.78,2.62287,56,11
2.25604,9.46987,-1.19529,23,4
5.09527,21.3711,3.47973,28,12
2.74948,11.5233,-1.03646,24,5
6.41882,26.881,5.37204,41,13
3.26577,13.6659,-0.736367,52,6
5.09241,21.3097,5.05825,30,14
4.33726,18.1357,-0.325487,59,7
5.01517,20.9541,5.77322,27,15
0.122031,0.507124,-0.139762,14,0
5.17148,21.4747,0.385559,10,8
0.148388,0.615712,-0.146218,25,1
4.48244,18.5992,1.00265,28,9
1.6562,6.86689,-1.37306,26,2
4.87816,20.2102,1.81894,42,10
1.93043,7.99167,-1.30216,30,3
5.02265,20.777,2.62458,43,11
2.2753,9.41217,-1.18896,19,4
5.27108,21.788,3.55044,19,12
2.78392,11.4986,-1.03506,24,5
6.57358,27.1305,5.42623,38,13
3.33319,13.7462,-0.741287,48,6
5.21309,21.4991,5.10729,15,14
4.55347,18.7645,-0.337041,100,7
5.98868,24.66,6.79969,16,15
4.6005,18.8292,0.338332,23,8
0.15228,0.622789,-0.148018,24,1
4.57583,18.6999,1.00893,39,9
1.6729,6.83657,-1.3681,26,2
4.68782,19.1431,1.72429,49,10
1.9541,7.97371,-1.30028,27,3
5.10806,20.8277,2.63311,50,11
2.30105,9.37525,-1.1853,20,4
5.33626,21.7254,3.54324,22,12
2.80636,11.4255,-1.02931,22,5
6.63117,26.977,5.39989,42,13
3.3611,13.6634,-0.737414,68,6
5.29928,21.5262,5.11809,41,14
4.37498,17.7582,-0.319239,67,7
7.58832,30.7781,8.49392,13,15
4.63924,18.7043,0.336378,48,8
0.153984,0.620362,-0.147568,24,1
4.66803,18.7923,1.01479,39,9
1.69249,6.81354,-1.36467,26,2
4.72625,19.0125,1.714,31,10
1.97764,7.94959,-1.29747,27,3
5.17737,20.7963,2.6314,31,11
2.32176,9.31901,-1.17921,27,4
5.36572,21.5207,3.51289,22,12
2.8308,11.3537,-1.02373,24,5
6.72102,26.9366,5.39646,42,13
3.73199,14.946,-0.807335,32,6
5.38148,21.5359,5.12484,30,14
4.52961,18.1134,-0.325906,36,7
7.75761,30.9988,8.56225,13,15
0.11782,0.468371,-0.12941,15,0
4.69718,18.6589,0.335854,17,8
0.154244,0.612262,-0.145768,25,1
4.73898,18.7972,1.01595,25,9
1.71674,6.80949,-1.36505,26,2
5.47398,21.6966,1.95769,23,10
1.99086,7.88518,-1.28808,37,3
5.26891,20.8531,2.64091,37,11
2.35525,9.31469,-1.1797,23,4
5.4723,21.6263,3.53323,24,12
2.85821,11.2873,-1.01868,24,5
5.49982,21.7191,4.35502,26,13
3.5506,14.0113,-0.757511,35,6
5.38141,21.2204,5.0542,24,14
4.55149,17.9347,-0.322974,82,7
0.130055,0.509115,-0.140798,14,0
4.91522,19.2411,0.34664,14,8
0.155415,0.607944,-0.144868,25,1
4.76695,18.6335,1.00799,55,9
1.73731,6.78604,-1.36161,26,2
4.87999,19.0477,1.72028,45,10
2.01779,7.87018,-1.28683,27,3
5.50288,21.4634,2.72061,40,11
2.38183,9.28334,-1.17677,34,4
5.6131,21.8616,3.57484,17,12
2.89165,11.2541,-1.01658,20,5
5.58036,21.7026,4.35579,11,13
3.55764,13.826,-0.748195,48,6
5.48151,21.2874,5.0749,25,14
4.6021,17.8722,-0.322137,37,7
8.58845,33.3291,9.22224,7,15
0.133771,0.516138,-0.142868,14,0
5.06805,19.5404,0.352364,4,8
0.162048,0.624346,-0.148918,24,1
1.75802,6.76853,-1.35932,26,2
4.95346,19.0576,1.72272,17,10
2.04127,7.84779,-1.28433,35,3
5.61301,21.5641,2.73597,41,11
2.40683,9.23997,-1.17238,30,4
5.65003,21.6908,3.55012,31,12
2.91784,11.1938,-1.01205,24,5
7.00197,26.8426,5.39226,31,13
3.60537,13.8116,-0.74809,71,6
5.63508,21.5717,5.14733,42,14
4.99398,19.1175,-0.344894,58,7
5.85626,22.4024,6.20441,3,15
0.1228,0.46709,-0.12941,15,0
5.19281,19.7517,0.356483,27,8
0.160151,0.608728,-0.145318,25,1
4.93556,18.7466,1.01595,3,9
1.77764,6.74716,-1.35627,26,2
6.54682,24.8314,2.2467,29,10
2.06325,7.8257,-1.28182,25,3
5.65816,21.4456,2.72329,27,11
2.43239,9.21275,-1.16995,23,4
2.94875,11.1527,-1.00926,24,5
5.55533,21.0112,4.22451,38,13
3.65627,13.8189,-0.749137,55,6
5.533,20.8973,4.99076,38,14
5.94235,22.4117,6.21269,12,15
0.124348,0.46668,-0.12941,15,0
5.18033,19.4282,0.350968,22,8
0.162275,0.608166,-0.145318,25,1
4.97195,18.6336,1.01071,15,9
1.79646,6.72795,-1.3536,26,2
7.29724,27.3099,2.47313,14,10
2.08597,7.80127,-1.27901,27,3
5.72168,21.3835,2.71793,40,11
2.46505,9.20612,-1.17019,28,4
5.6085,20.9458,3.43436,15,12
2.96922,11.0813,-1.00369,23,5
5.63625,21.0201,4.23024,11,13
3.72104,13.8678,-0.752486,39,6
5.60895,20.8891,4.99346,4,14
4.71329,17.5535,-0.31725,37,7
6.37406,23.7221,6.58177,22,15
5.47057,20.2468,0.366082,9,8
0.167343,0.618911,-0.148018,24,1
5.04427,18.6431,1.01218,28,9
1.81634,6.70838,-1.35093,26,2
5.13955,18.969,1.71941,14,10
2.10201,7.75809,-1.27306,26,3
5.80763,21.42,2.725,13,11
2.48984,9.17682,-1.16751,27,4
5.63656,20.7603,3.40714,26,12
2.98855,10.9997,-0.997236,23,5
5.74145,21.1321,4.25657,24,13
3.75495,13.811,-0.750079,35,6
10.6345,39.0876,9.35211,14,14
4.74511,17.4289,-0.315295,82,7
5.68901,20.8814,5.7991,10,15
0.131603,0.48073,-0.133551,15,0
5.42182,19.7917,0.358193,54,8
0.167441,0.610806,-0.146218,25,1
5.12243,18.686,1.01542,27,9
1.83754,6.69853,-1.35016,26,2
5.21033,18.9807,1.72202,31,10
2.12018,7.71832,-1.26775,28,3
6.15544,22.393,2.8515,30,11
2.51555,9.1451,-1.16458,27,4
5.6886,20.6805,3.39713,9,12
3.01232,10.9436,-0.993053,23,5
5.85272,21.2482,4.28404,21,13
4.58755,16.6436,-0.904784,16,6
7.47127,27.0874,6.48714,9,14
4.8066,17.4265,-0.31554,67,7
6.43567,23.3169,6.48135,14,15
0.129147,0.465375,-0.12941,15,0
5.53072,19.9297,0.36102,13,8
0.169466,0.610247,-0.146218,25,1
5.22559,18.8047,1.02285,12,9
1.8546,6.66938,-1.34559,26,2
5.86889,21.091,1.91533,39,10
2.14418,7.70554,-1.26681,25,3
6.89688,24.7686,3.1569,18,11
2.5368,9.1042,-1.16044,28,4
5.63607,20.2134,3.32361,1,12
3.03283,10.8697,-0.9873,23,5
5.97644,21.4196,4.32259,26,13
4.35805,15.6088,-0.849308,3,6
6.36862,22.7945,5.46406,6,14
4.86256,17.3923,-0.315225,60,7
6.07097,21.6999,6.03773,28,15
0.13069,0.464944,-0.12941,15,0
5.56073,19.7697,0.358472,20,8
0.171067,0.607776,-0.145768,25,1
5.25925,18.6729,1.01668,29,9
1.87041,6.63641,-1.34024,23,2
5.2259,18.5421,1.68542,14,10
2.16677,7.6828,-1.2643,27,3
6.16052,21.829,2.78496,7,11
2.55939,9.06282,-1.1563,31,4
5.69962,20.1689,3.31954,7,12
3.06696,10.8456,-0.98608,23,5
6.10194,21.5638,4.35617,47,13
3.98535,14.0746,-0.766617,6,6
6.47258,22.8584,5.48476,43,14
4.81258,16.9847,-0.30814,76,7
6.14508,21.673,6.03618,28,15
0.132393,0.464462,-0.12941,15,0
6.09335,21.3626,0.387758,25,8
0.173293,0.607145,-0.145768,25,1
5.31559,18.6112,1.01438,20,9
1.88986,6.61252,-1.33681,26,2
5.31737,18.6051,1.69291,14,10
2.18405,7.63682,-1.25805,27,3
5.85599,20.4627,2.61337,6,11
2.59095,9.04765,-1.15557,28,4
6.00095,20.9416,3.45032,22,12
3.08747,10.7673,-0.979979,23,5
9.37348,32.6677,6.60619,29,13
4.12841,14.3785,-0.783993,19,6
6.27612,21.8586,5.25036,33,14
3.84605,13.3863,-0.243112,100,7
6.00404,20.8835,5.82239,2,15
0.144822,0.501092,-0.139762,14,0
6.17051,21.3363,0.387688,25,8
0.174434,0.602762,-0.144868,25,1
5.37886,18.5868,1.01406,18,9
1.9113,6.60022,-1.33566,26,2
7.08348,24.4452,2.22665,47,10
2.20543,7.606,-1.25429,28,3
5.82917,20.0903,2.56852,29,11
2.6169,9.01331,-1.1524,26,4
6.06521,20.8902,3.44531,22,12
3.12281,10.7488,-0.979282,23,5
9.52526,32.7649,6.63252,6,13
4.1663,14.3218,-0.78169,61,6
6.16229,21.1694,5.09019,40,14
4.35608,14.9645,-0.272048,73,7
6.13523,21.0628,5.8783,11,15
0.140056,0.478335,-0.133551,15,0
6.2755,21.4328,0.389817,20,8
0.170953,0.583479,-0.140369,26,1
1.93433,6.59351,-1.33566,26,2
5.54914,18.9031,1.72359,10,10
2.22452,7.57779,-1.25085,27,3
5.90248,20.0937,2.57144,35,11
2.63222,8.95506,-1.14606,31,4
5.91959,20.126,3.32267,22,12
3.15244,10.7111,-0.976842,23,5
8.17549,27.7779,5.62848,16,13
4.14493,14.0742,-0.76892,42,6
6.19445,21.0198,5.05915,65,14
4.98351,16.8999,-0.307546,61,7
6.18686,20.9671,5.85759,10,15
0.13725,0.46305,-0.12941,15,0
5.99489,20.2125,0.368001,26,8
0.185186,0.623979,-0.150267,24,1
5.61492,18.9193,1.03426,16,9
1.95059,6.56824,-1.33185,26,2
5.62598,18.9323,1.72795,17,10
2.24251,7.54158,-1.24616,25,3
6.04166,20.3051,2.60118,18,11
2.65723,8.92489,-1.14338,28,4
6.06408,20.3675,3.36584,33,12
3.16348,10.6185,-0.969346,23,5
8.25334,27.6853,5.61551,57,13
4.18661,14.0348,-0.767559,35,6
8.2019,27.4777,6.62031,38,14
4.51161,15.1146,-0.275329,56,7
7.0619,23.6434,6.61179,7,15
0.147753,0.492173,-0.137692,14,0
6.06591,20.2059,0.368246,26,8
0.180527,0.600965,-0.144868,25,1
5.67747,18.8881,1.03364,20,9
1.97068,6.55199,-1.32994,26,2
6.31562,20.9845,1.91725,21,10
2.26637,7.53032,-1.24553,26,3
6.09406,20.2356,2.59484,36,11
2.67479,8.87612,-1.13826,26,4
6.10549,20.2479,3.34958,30,12
3.19995,10.6054,-0.969172,23,5
6.42995,21.3105,4.32679,21,13
4.23717,14.0342,-0.768292,48,6
6.8756,22.7587,5.48881,31,14
5.31658,17.5872,-0.320705,7,7
6.51793,21.5476,6.03204,28,15
0.140398,0.462105,-0.12941,15,0
6.11953,20.1291,0.367234,23,8
0.185459,0.609653,-0.147118,24,1
5.74163,18.8624,1.03332,27,9
1.98725,6.52852,-1.3265,26,2
6.26848,20.5803,1.88222,12,10
2.28342,7.49213,-1.24053,28,3
6.16698,20.2218,2.59582,42,11
2.6988,8.84394,-1.13533,26,4
6.24131,20.4399,3.38493,48,12
3.2223,10.5529,-0.965337,22,5
7.24376,23.7081,4.81869,48,13
4.2838,14.0117,-0.767873,61,6
7.17561,23.4558,5.66292,33,14
4.5977,15.0197,-0.274177,40,7
6.58858,21.51,6.0279,23,15
0.159052,0.517006,-0.144939,14,0
6.10857,19.8439,0.362417,49,8
0.186439,0.605277,-0.146218,25,1
5.88274,19.0866,1.04672,38,9
2.00887,6.51779,-1.32574,26,2
6.27745,20.3546,1.86356,16,10
2.29733,7.44447,-1.23396,26,3
6.26975,20.3044,2.60922,18,11
2.72028,8.80412,-1.13144,31,4
6.30271,20.386,3.37961,33,12
3.2497,10.5111,-0.962548,22,5
6.50836,21.0381,4.28061,38,13
4.31673,13.9451,-0.765047,45,6
6.50732,21.0088,5.0776,30,14
5.10239,16.4628,-0.300845,85,7
6.67506,21.5238,6.03825,14,15
0.149366,0.479559,-0.134586,15,0
6.17721,19.8206,0.362382,42,8
0.183329,0.58788,-0.142169,26,1
5.99633,19.2166,1.05499,32,9
2.02868,6.50137,-1.32383,26,2
6.38172,20.4391,1.87333,8,10
2.32095,7.42887,-1.2327,26,3
6.92222,22.143,2.84857,15,11
2.74507,8.77563,-1.129,26,4
6.54672,20.9162,3.47128,10,12
3.26793,10.4407,-0.957144,24,5
6.56767,20.9703,4.27145,27,13
4.35105,13.8842,-0.762535,42,6
6.57187,20.958,5.07085,40,14
5.74471,18.309,-0.334947,100,7
6.77214,21.5704,6.05792,18,15
0.160334,0.508513,-0.142868,14,0
0.188313,0.596528,-0.144419,25,1
6.20776,19.6526,1.08011,10,9
2.04841,6.48488,-1.32192,26,2
6.50107,20.5687,1.88727,46,10
2.34567,7.41695,-1.23208,27,3
6.42632,20.3075,2.61532,12,11
2.77089,8.75085,-1.12705,27,4
6.492,20.4902,3.40433,26,12
3.30916,10.4445,-0.958539,22,5
9.51657,30.0182,6.12115,40,13
4.33186,13.6557,-0.750812,35,6
9.47783,29.8599,7.23263,10,14
5.21356,16.4153,-0.300635,85,7
6.81171,21.4343,6.02634,11,15
0.15271,0.478504,-0.134586,15,0
6.36653,19.937,0.365314,38,8
0.190988,0.597723,-0.144868,25,1
6.30124,19.7088,1.0844,16,9
2.06505,6.45899,-1.31811,26,2
6.58557,20.5857,1.89093,34,10
2.36553,7.38991,-1.22895,25,3
6.48504,20.2471,2.61044,30,11
2.78991,8.70521,-1.12242,20,4
6.41993,20.0197,3.32986,29,12
3.34013,10.4158,-0.95697,22,5
9.61531,29.9661,6.11734,5,13
4.27753,13.323,-0.733332,35,6
6.74603,20.9988,5.09199,5,14
5.26349,16.3742,-0.300216,85,7
6.83266,21.243,5.97924,17,15
0.154379,0.477968,-0.134586,15,0
6.16674,19.0812,0.350025,11,8
0.19667,0.608178,-0.147568,24,1
6.37431,19.7,1.08513,30,9
2.07973,6.42746,-1.31315,26,2
6.64205,20.5152,1.88657,25,10
2.384,7.35905,-1.22519,27,3
6.56303,20.247,2.61337,6,11
2.80558,8.6501,-1.11657,24,4
6.60014,20.3373,3.38649,18,12
3.36724,10.3756,-0.954355,22,5
4.25242,13.0876,-0.72119,32,6
6.78976,20.8844,5.06995,40,14
5.1109,15.7111,-0.288384,86,7
8.99716,27.6411,7.7889,16,15
6.19165,18.9322,0.347687,55,8
0.195762,0.598227,-0.145318,25,1
6.41383,19.5884,1.08021,13,9
2.09727,6.40524,-1.31009,28,2
6.69996,20.4502,1.88274,17,10
2.40229,7.32816,-1.22144,25,3
6.9591,21.2161,2.74157,6,11
2.83204,8.62894,-1.1151,24,4
7.7361,23.5572,3.92713,25,12
3.39162,10.3278,-0.951043,22,5
4.26438,12.9702,-0.715537,35,6
7.66465,23.2985,5.66247,6,14
5.22073,15.8603,-0.291455,100,7
7.25818,22.037,6.21683,12,15
0.161352,0.487884,-0.137692,14,0
6.26587,18.9352,0.348141,23,8
0.198462,0.59939,-0.145768,25,1
7.028,21.2135,1.17117,42,9
2.12023,6.39974,-1.31048,26,2
6.97193,21.0319,1.93852,18,10
2.42537,7.31223,-1.22019,26,3
7.79283,23.4808,3.03772,17,11
2.85276,8.59074,-1.11145,19,4
13.6029,40.9395,6.83275,8,12
3.422,10.2989,-0.949475,22,5
17.252,51.8918,10.6296,16,13
4.28316,12.8757,-0.711141,32,6
6.91571,20.7773,5.05555,60,14
5.26216,15.8002,-0.290687,78,7
6.87029,20.6168,5.82291,18,15
0.165506,0.494646,-0.139762,14,0
5.34411,15.9626,0.293829,22,8
0.1956,0.583911,-0.142169,26,1
6.61235,19.7394,1.091,15,9
2.13881,6.38113,-1.30819,26,2
7.14793,21.3135,1.96676,23,10
2.44899,7.2981,-1.21925,25,3
7.06977,21.056,2.72719,13,11
2.86923,8.54548,-1.10682,23,4
8.07556,24.0377,4.0163,5,12
3.44904,10.2605,-0.947034,22,5
4.31598,12.8247,-0.709152,29,6
7.36994,21.8993,5.33449,40,14
5.23987,15.561,-0.286603,86,7
6.96206,20.6635,5.84258,21,15
0.173336,0.512394,-0.144939,14,0
6.33242,18.7083,0.344755,31,8
0.196286,0.579568,-0.141269,13,1
6.66176,19.67,1.08838,23,9
2.15051,6.34612,-1.30246,26,2
6.81871,20.1103,1.85781,16,10
2.46684,7.27123,-1.21612,28,3
7.14912,21.0606,2.73085,33,11
2.88798,8.50772,-1.10316,26,4
8.14442,23.979,4.01098,10,12
3.46894,10.2075,-0.943199,24,5
7.58512,22.3067,4.5798,30,13
4.34819,12.78,-0.707478,29,6
7.83797,23.0371,5.61793,6,14
5.3011,15.5719,-0.287127,55,7
7.22986,21.2255,6.00823,17,15
6.375,18.6305,0.343708,23,8
0.202625,0.59182,-0.144419,25,1
6.7032,19.5673,1.08398,12,9
2.16836,6.32966,-1.30055,26,2
6.77876,19.7766,1.82905,32,10
2.48581,7.24807,-1.21362,26,3
7.17576,20.911,2.71452,27,11
2.90863,8.4713,-1.09975,27,4
11.5315,33.566,5.62132,10,12
3.49307,10.1676,-0.940585,22,5
8.44021,24.5539,5.0469,6,13
4.3756,12.7221,-0.70507,32,6
6.99188,20.3174,4.96062,23,14
5.34437,15.5212,-0.286534,86,7
6.96599,20.2193,5.73025,30,15
0.165453,0.478339,-0.135621,15,0
6.42561,18.5665,0.34294,29,8
0.202777,0.585584,-0.143069,25,1
6.78061,19.5702,1.08545,15,9
2.19109,6.32391,-1.30094,26,2
6.84319,19.7397,1.82783,52,10
2.50074,7.20948,-1.20861,26,3
7.2077,20.7677,2.69916,33,11
2.93168,8.44235,-1.09731,23,4
8.57485,24.6791,4.138,11,12
3.50695,10.0933,-0.934833,22,5
11.1568,32.0921,6.60428,29,13
4.40292,12.6577,-0.702349,26,6
8.46813,24.3308,5.94771,7,14
5.34064,15.3362,-0.283462,86,7
7.03462,20.1894,5.7287,12,15
0.165846,0.474112,-0.134586,15,0
6.48907,18.5402,0.34287,10,8
0.204175,0.583034,-0.142619,26,1
6.81058,19.4371,1.07938,31,9
2.2125,6.31437,-1.30055,26,2
7.57452,21.6053,2.00301,23,10
2.52,7.18394,-1.2058,28,3
7.26109,20.6881,2.69209,39,11
2.95258,8.40771,-1.09414,20,4
8.30339,23.6314,3.96718,27,12
3.54679,10.0941,-0.936053,22,5
11.6399,33.1086,6.8218,12,13
4.40931,12.5349,-0.696382,32,6
7.21829,20.5089,5.01956,43,14
5.42669,15.4099,-0.285172,100,7
7.09094,20.1246,5.71731,12,15
0.161057,0.455317,-0.12941,15,0
6.8086,19.2376,0.356204,15,8
0.203607,0.57497,-0.140819,26,1
6.87104,19.3925,1.07823,15,9
2.22534,6.2807,-1.29521,26,2
7.07071,19.9449,1.85136,16,10
2.54374,7.17137,-1.20517,27,3
7.5663,21.3193,2.77765,14,11
2.96995,8.36368,-1.08976,17,4
8.34087,23.4757,3.9459,32,12
3.56533,10.0348,-0.931695,24,5
11.7159,32.9568,6.79891,12,13
4.43094,12.4573,-0.692928,32,6
7.28658,20.4744,5.01731,53,14
5.4677,15.3551,-0.284509,86,7
7.15271,20.0761,5.71058,30,15
0.169152,0.472942,-0.134586,15,0
5.69462,15.9132,0.295015,26,8
0.205613,0.574255,-0.140819,26,1
7.08352,19.7726,1.10073,16,9
2.24461,6.2655,-1.29369,26,2
7.09995,19.8076,1.8409,52,10
2.56809,7.16059,-1.20486,26,3
8.37953,23.3517,3.04625,17,11
2.98437,8.31216,-1.08439,22,4
8.42543,23.4539,3.94715,32,12
3.59736,10.0085,-0.930475,22,5
7.90498,21.9931,4.54278,36,13
4.4521,12.3797,-0.689474,29,6
7.38836,20.5332,5.038,48,14
5.57139,15.4751,-0.287092,100,7
7.21686,20.0346,5.70592,12,15
0.164311,0.454153,-0.12941,15,0
5.83108,16.117,0.299169,7,8
0.212923,0.588193,-0.144419,25,1
2.26087,6.23878,-1.28987,23,2
2.58758,7.13256,-1.20173,27,3
7.31282,20.1575,2.63287,12,11
3.00117,8.26811,-1.08001,28,4
8.54771,23.5358,3.96593,22,12
3.62139,9.96593,-0.927686,20,5
8.88511,24.4382,5.05453,27,13
4.47491,12.3014,-0.68602,32,6
7.44956,20.4675,5.02856,4,14
5.60075,15.3879,-0.285836,100,7
7.28409,20.002,5.70385,7,15
0.165896,0.453577,-0.12941,15,0
6.22892,17.0213,0.316377,20,8
0.215747,0.589239,-0.144868,25,1
6.24626,17.0595,0.952096,15,9
2.27993,6.22347,-1.28834,26,2
7.27442,19.8461,1.84927,8,10
2.6009,7.09195,-1.19641,28,3
8.49376,23.1477,3.02748,16,11
3.03009,8.25332,-1.07952,24,4
8.58761,23.3908,3.94653,40,12
3.6431,9.91769,-0.924374,22,5
8.22606,22.3819,4.63513,16,13
4.4868,12.2013,-0.68131,35,6
8.83378,24.0095,5.90631,36,14
5.68412,15.449,-0.287336,100,7
8.45572,22.9696,6.55848,3,15
0.174177,0.471115,-0.134586,15,0
6.04332,16.346,0.304195,24,8
0.208235,0.562932,-0.13857,27,1
7.75883,20.9636,1.17149,11,9
2.29687,6.20259,-1.28567,26,2
7.35818,19.8598,1.85293,4,10
2.61548,7.05921,-1.19234,28,3
7.96328,21.4814,2.81299,21,11
3.04916,8.2209,-1.07659,28,4
8.65682,23.3274,3.9409,50,12
3.66938,9.8825,-0.922282,22,5
8.3016,22.3582,4.6359,33,13
4.51541,12.1546,-0.67953,35,6
8.89162,23.9217,5.89192,44,14
5.7666,15.5059,-0.288768,94,7
9.33688,25.0927,7.17395,9,15
0.182497,0.488632,-0.139762,14,0
6.34883,16.9898,0.316587,20,8
0.213611,0.571329,-0.140819,26,1
6.33286,16.938,0.9477,1,9
2.31604,6.19126,-1.28491,26,2
7.40165,19.7756,1.84735,16,10
2.64011,7.05004,-1.19234,31,3
8.19354,21.868,2.86734,45,11
3.0646,8.17489,-1.07196,26,4
9.48371,25.298,4.27911,80,12
3.70003,9.86468,-0.921759,22,5
9.0356,24.0771,4.99881,16,13
4.52973,12.0639,-0.675343,32,6
8.17735,21.767,5.36823,23,14
5.73078,15.2546,-0.284439,86,7
9.38878,24.9784,7.15014,13,15
0.184202,0.487992,-0.139762,14,0
6.41007,16.9817,0.316831,1,8
0.215505,0.570617,-0.140819,26,1
6.73646,17.8276,0.99878,28,9
2.32723,6.15559,-1.27918,23,2
7.48615,19.7906,1.85119,33,10
2.65928,7.03016,-1.19047,26,3
8.27443,21.863,2.87027,7,11
3.08606,8.14983,-1.07001,23,4
3.72738,9.83308,-0.920016,20,5
8.46959,22.3434,4.64467,37,13
4.55058,11.9984,-0.672517,32,6
15.0105,39.5569,9.76782,15,14
5.90395,15.5504,-0.290338,100,7
9.53764,25.1081,7.19672,13,15
6.42727,16.849,0.314772,20,8
0.217495,0.569861,-0.140819,26,1
6.78298,17.7629,0.996477,49,9
2.34413,6.13867,-1.27728,26,2
8.9867,23.5215,2.20295,46,10
2.67604,7.00054,-1.18702,28,3
10.4192,27.2425,3.58125,34,11
3.10456,8.11305,-1.0666,23,4
10.3622,27.0649,4.5901,29,12
3.74216,9.77414,-0.915658,22,5
8.61356,22.486,4.68054,34,13
4.55885,11.8948,-0.667598,35,6
9.29238,24.2328,5.9918,22,14
6.00761,15.6585,-0.292747,85,7
8.81661,22.9681,6.59212,41,15
0.173629,0.450673,-0.12941,15,0
6.87802,17.8434,0.333795,28,8
0.216678,0.561826,-0.13902,26,1
2.3606,6.11763,-1.2746,26,2
8.31673,21.5421,2.02027,19,10
2.68907,6.96167,-1.18202,28,3
10.5422,27.2781,3.59076,11,11
3.1257,8.08365,-1.06416,26,4
10.4587,27.0341,4.59104,35,12
3.76331,9.72757,-0.912521,22,5
10.3836,26.8261,5.59147,12,13
4.59385,11.8621,-0.666655,35,6
8.29615,21.4109,5.3012,5,14
5.97839,15.4212,-0.288698,86,7
8.02207,20.6822,5.94404,16,15
0.182209,0.468067,-0.134586,15,0
6.64053,17.0497,0.319379,37,8
0.216515,0.555619,-0.13767,27,1
6.44395,16.5279,0.929696,11,9
2.38479,6.11667,-1.27613,26,2
9.15649,23.4731,2.20434,46,10
2.70905,6.9412,-1.18014,30,3
11.2128,28.7149,3.78502,24,11
3.13801,8.03201,-1.0588,23,4
9.35273,23.9268,4.06886,10,12
3.78056,9.6717,-0.908511,22,5
10.4636,26.755,5.58422,61,13
4.61776,11.8013,-0.664143,35,6
8.37368,21.3891,5.303,39,14
6.1445,15.687,-0.294073,100,7
19.6043,50.0244,14.3966,20,15
0.183842,0.467428,-0.134586,15,0
6.87208,17.4637,0.327582,44,8
0.217739,0.553046,-0.13722,27,1
6.50819,16.522,0.930638,11,9
2.40037,6.09369,-1.27308,23,2
9.15654,23.2334,2.18482,33,10
2.73254,6.92986,-1.17983,27,3
11.302,28.6479,3.78136,12,11
3.1551,7.99331,-1.05514,27,4
11.3989,28.8639,4.91517,15,12
3.80479,9.63435,-0.906245,22,5
4.64131,11.7406,-0.661631,35,6
9.68396,24.4839,6.07863,100,14
6.10062,15.4163,-0.289396,100,7
8.39243,21.1968,6.10865,30,15
6.6353,16.6907,0.313515,28,8
0.22543,0.566769,-0.140819,26,1
7.56351,19.0063,1.07205,6,9
2.40493,6.04332,-1.2643,26,2
9.27297,23.2901,2.19319,22,10
2.75598,6.91845,-1.17952,27,3
11.4064,28.6193,3.78282,24,11
3.17857,7.97118,-1.05368,24,4
9.49611,23.8022,4.05885,28,12
3.8192,9.5729,-0.901713,22,5
11.9886,30.0344,6.28601,10,13
4.66744,11.6872,-0.659538,35,6
6.19374,15.4933,-0.291246,100,7
8.61846,21.5477,6.21839,18,15
0.179905,0.448205,-0.12941,15,0
6.66519,16.5969,0.312189,37,8
0.223774,0.556938,-0.13857,27,1
7.6678,19.0743,1.07739,13,9
2.43406,6.05493,-1.2685,23,2
9.4122,23.4018,2.20678,11,10
2.77127,6.88679,-1.17576,26,3
11.4803,28.5149,3.77429,24,11
3.19599,7.93426,-1.05027,23,4
9.5976,23.8147,4.06667,15,12
3.8362,9.51885,-0.897878,22,5
12.1462,30.1235,6.31349,16,13
4.69103,11.6282,-0.65713,35,6
15.4577,38.2978,9.53478,14,14
6.32191,15.6551,-0.294701,100,7
8.36435,20.7025,5.98286,31,15
6.69377,16.5013,0.310827,30,8
0.23671,0.583238,-0.145318,12,1
7.63966,18.8142,1.0642,51,9
2.45371,6.04276,-1.26774,23,2
9.36934,23.0624,2.17785,56,10
2.78488,6.85146,-1.17138,30,3
14.5926,35.8834,4.75632,15,11
3.22217,7.91938,-1.04978,24,4
9.5347,23.4225,4.00535,10,12
3.85739,9.47588,-0.895089,22,5
9.55578,23.4625,4.9244,39,13
4.71877,11.5803,-0.655351,35,6
11.5907,28.4305,7.08821,10,14
6.42032,15.7404,-0.296726,100,7
8.49567,20.818,6.02479,31,15
0.194743,0.475542,-0.137692,14,0
6.57696,16.0522,0.302799,38,8
0.22544,0.549952,-0.13722,13,1
7.77122,18.9482,1.07331,33,9
2.4733,6.03052,-1.26697,23,2
9.43315,22.989,2.17401,45,10
2.80803,6.83987,-1.17107,28,3
11.8231,28.7848,3.82085,25,11
3.24376,7.8934,-1.04783,27,4
9.62166,23.4018,4.00754,28,12
3.88439,9.44761,-0.893695,22,5
9.63463,23.4218,4.92287,26,13
4.73256,11.4992,-0.651687,35,6
11.7121,28.4439,7.1017,10,14
6.46075,15.6827,-0.296063,100,7
8.5948,20.8526,6.04342,17,15
0.206826,0.499816,-0.144939,14,0
6.68699,16.1518,0.305138,36,8
0.230437,0.556324,-0.13902,26,1
7.76165,18.7383,1.06294,32,9
2.49388,6.01779,-1.26621,23,2
9.70353,23.4033,2.21654,23,10
2.82626,6.81311,-1.16825,28,3
9.81616,23.6516,3.14423,54,11
3.26048,7.85212,-1.04393,22,4
9.68964,23.3353,4.00191,23,12
3.90828,9.40755,-0.891255,22,5
10.1371,24.3888,5.13391,42,13
4.76394,11.4559,-0.650222,35,6
13.3179,32.0101,8.00421,11,14
6.33034,15.2151,-0.287651,86,7
8.70318,20.908,6.06827,30,15
6.74052,16.1296,0.305138,21,8
0.23228,0.555557,-0.13902,26,1
7.81621,18.6853,1.06148,31,9
2.50881,5.99456,-1.26316,23,2
9.52585,22.75,2.1578,38,10
2.84731,6.80006,-1.16763,30,3
9.86537,23.5493,3.13497,9,11
3.2773,7.8193,-1.04101,22,4
9.73972,23.2266,3.98908,36,12
3.92568,9.35711,-0.887768,21,5
9.99993,23.8355,5.02438,37,13
4.79959,11.4345,-0.649908,35,6
13.4323,31.9855,8.00916,35,14
6.32997,15.0657,-0.285242,94,7
8.76936,20.8615,6.06361,12,15
0.195207,0.462797,-0.134586,15,0
7.52918,17.8414,0.338018,44,8
0.23725,0.561924,-0.140819,26,1
7.91559,18.7388,1.06608,17,9
2.52409,5.97536,-1.26087,23,2
7.9554,18.8239,1.78791,26,10
2.86642,6.77916,-1.16575,28,3
10.6111,25.0834,3.34409,10,11
3.29761,7.79135,-1.03881,26,4
9.81072,23.1688,3.98501,15,12
3.942,9.30482,-0.884108,19,5
10.0877,23.8113,5.02667,23,13
4.82544,11.3846,-0.648024,29,6
13.1939,31.1131,7.8022,46,14
6.25989,14.7545,-0.279762,86,7
8.81496,20.7667,6.04498,2,15
7.53575,17.6844,0.33554,12,8
0.240739,0.564677,-0.141719,13,1
7.99584,18.746,1.06807,38,9
2.54443,5.96245,-1.2601,26,2
7.88821,18.4758,1.75758,32,10
2.88038,6.74317,-1.16137,27,3
10.0857,23.6113,3.15252,18,11
3.32712,7.78527,-1.03955,20,4
9.93814,23.2434,4.00378,2,12
3.958,9.25254,-0.880447,19,5
10.1664,23.7543,5.02247,37,13
4.85692,11.343,-0.646663,26,6
10.876,25.388,6.37646,8,14
6.26253,14.6186,-0.277598,88,7
10.1423,23.6639,6.89856,20,15
0.206149,0.479134,-0.139762,14,0
7.54281,17.5226,0.332992,40,8
0.235099,0.545893,-0.13722,13,1
8.08572,18.7748,1.07132,31,9
2.56212,5.94632,-1.25858,26,2
7.93373,18.4042,1.7534,50,10
2.89608,6.71494,-1.15824,33,3
10.0998,23.4065,3.13009,45,11
3.35035,7.7645,-1.03833,23,4
11.2202,25.9906,4.48373,15,12
3.97131,9.19477,-0.876264,19,5
10.2594,23.7421,5.02744,3,13
4.87588,11.2783,-0.643942,26,6
13.383,30.9559,7.78601,34,14
6.30002,14.5655,-0.277005,80,7
9.62184,22.2348,6.4917,21,15
0.200043,0.460727,-0.134586,15,0
7.59688,17.4883,0.332817,30,8
0.238461,0.548685,-0.13812,27,1
8.20365,18.8761,1.07864,31,9
2.58261,5.93959,-1.25896,26,2
8.00504,18.4016,1.75567,36,10
2.9065,6.67813,-1.15355,27,3
10.8993,25.0309,3.35214,20,11
3.36657,7.73151,-1.0354,27,4
13.7663,31.5999,5.45925,52,12
3.98825,9.1505,-0.873301,19,5
13.6614,31.3293,6.64359,24,13
4.89568,11.2218,-0.641639,35,6
11.0286,25.2795,6.36746,35,14
6.3179,14.4749,-0.275678,88,7
12.0844,27.6733,8.0912,18,15
0.213974,0.488373,-0.142868,14,0
7.64841,17.4484,0.332538,20,8
0.241845,0.551461,-0.13902,26,1
8.19086,18.6682,1.06839,13,9
2.59204,5.90763,-1.254,26,2
8.0396,18.3147,1.74991,25,10
2.93022,6.67207,-1.15417,25,3
10.5008,23.8988,3.20516,9,11
3.38475,7.69972,-1.03272,28,4
10.5165,23.912,4.13738,35,12
4.01295,9.12446,-0.87208,19,5
4.93045,11.2,-0.641325,35,6
11.3736,25.8241,6.51458,46,14
6.34097,14.3905,-0.274491,80,7
9.9335,22.5329,6.59833,18,15
7.74325,17.4984,0.334004,4,8
0.24219,0.547049,-0.13812,13,1
8.35222,18.8568,1.08084,38,9
2.61025,5.89316,-1.25285,23,2
9.98587,22.5344,2.15641,22,10
2.94709,6.64736,-1.15167,27,3
10.2887,23.196,3.11571,26,11
3.40275,7.6679,-1.03004,27,4
10.6104,23.8986,4.14145,33,12
4.01649,9.04666,-0.865979,19,5
13.9046,31.3037,6.65809,66,13
4.93221,11.0988,-0.63651,39,6
15.1126,33.9914,8.58818,12,14
6.36109,14.3007,-0.2732,65,7
9.93904,22.3339,6.55019,39,15
0.204777,0.458643,-0.134586,15,0
7.85567,17.5863,0.336203,46,8
0.242508,0.542642,-0.13722,27,1
2.622,5.86429,-1.24865,26,2
12.4962,27.9356,2.67742,24,10
2.96301,6.6208,-1.14885,25,3
10.3623,23.1436,3.11352,44,11
3.4092,7.61068,-1.02395,24,4
10.6994,23.874,4.14364,33,12
4.04152,9.01804,-0.864585,19,5
11.7246,26.1494,5.57048,16,13
4.96192,11.0614,-0.635359,39,6
15.2503,33.9811,8.59898,12,14
6.38476,14.22,-0.272083,65,7
9.78263,21.7775,6.39697,31,15
0.219076,0.486105,-0.142868,14,0
7.97372,17.6845,0.338612,17,8
0.239593,0.531134,-0.134521,28,1
9.35619,20.7313,1.192,9,9
2.6368,5.84258,-1.24598,26,2
10.1405,22.4587,2.15588,11,10
2.97635,6.58882,-1.1451,25,3
10.4496,23.1218,3.11547,26,11
3.4382,7.60416,-1.02468,27,4
11.8956,26.2968,4.57133,13,12
4.06066,8.97665,-0.86197,21,5
11.7956,26.0636,5.56094,8,13
4.98979,11.0204,-0.633998,35,6
10.1751,22.4622,5.69306,20,14
6.39969,14.1211,-0.270617,65,7
9.96947,21.9878,6.46892,21,15
0.212773,0.467753,-0.137692,14,0
8.0089,17.5983,0.337495,23,8
0.251135,0.551577,-0.13992,13,1
9.44919,20.744,1.19462,3,9
2.65718,5.83334,-1.24598,26,2
10.2601,22.5138,2.1646,44,10
2.99195,6.56221,-1.14228,26,3
10.7741,23.6198,3.18761,74,11
3.45072,7.56141,-1.02053,24,4
12.6748,27.761,4.83351,7,12
4.07201,8.91458,-0.857438,19,5
11.7617,25.7491,5.50255,20,13
5.00914,10.9611,-0.63159,35,6
10.2502,22.4195,5.69126,33,14
6.40153,13.9951,-0.268627,74,7
11.6137,25.3783,7.47832,10,15
8.10951,17.6557,0.339135,31,8
0.251432,0.547156,-0.13902,26,1
9.47066,20.6002,1.18824,1,9
2.67197,5.80929,-1.24293,23,2
10.4325,22.6715,2.18343,22,10
3.01351,6.54582,-1.14135,27,3
10.869,23.6091,3.19127,56,11
3.47294,7.54031,-1.01932,31,4
11.9904,26.0212,4.53785,13,12
4.08809,8.86775,-0.854301,21,5
11.0337,23.923,5.12093,17,13
5.04175,10.9264,-0.630648,35,6
10.2515,22.2066,5.64672,59,14
6.41179,13.8891,-0.267022,74,7
10.3042,22.3105,6.58487,30,15
0.203115,0.438175,-0.12941,15,0
8.15398,17.5823,0.338297,19,8
0.256716,0.553302,-0.140819,26,1
9.52737,20.5344,1.18635,11,9
2.6848,5.7839,-1.2395,26,2
9.41227,20.2677,1.95508,18,10
3.03217,6.5263,-1.13978,28,3
10.9211,23.4953,3.18128,18,11
3.49553,7.51673,-1.01785,26,4
10.8576,23.3479,4.07825,33,12
4.09884,8.81007,-0.850117,19,5
11.1296,23.9111,5.12666,28,13
5.06974,10.887,-0.629392,35,6
10.3956,22.3137,5.68316,33,14
6.4332,13.8087,-0.265905,82,7
11.9212,25.5768,7.56114,15,15
8.22834,17.5896,0.338961,17,8
0.25029,0.534797,-0.13632,13,1
9.24752,19.7503,1.14291,31,9
2.69914,5.76205,-1.23682,26,2
9.62838,20.5451,1.98506,14,10
3.04877,6.50548,-1.1379,27,3
12.1652,25.9465,3.51861,11,11
3.51116,7.48532,-1.01517,23,4
10.9566,23.3475,4.08482,33,12
4.12534,8.78669,-0.849246,17,5
13.0386,27.7713,5.96354,28,13
5.08884,10.8339,-0.627299,35,6
10.6444,22.6513,5.77809,49,14
6.44138,13.7011,-0.264264,66,7
10.2393,21.7695,6.44615,24,15
0.212688,0.45076,-0.133551,15,0
8.31188,17.6078,0.339868,27,8
0.257148,0.544493,-0.13902,26,1
9.45378,20.0087,1.15976,28,9
2.72327,5.76372,-1.23911,26,2
10.6935,22.6223,2.18918,11,10
3.07146,6.4948,-1.1379,28,3
12.2719,25.9379,3.52324,44,11
3.52962,7.45687,-1.01298,23,4
11.328,23.9214,4.19213,34,12
4.13996,8.74235,-0.846282,19,5
12.5185,26.4233,5.68344,21,13
5.10523,10.771,-0.624682,37,6
10.8353,22.8499,5.83838,7,14
6.44717,13.59,-0.262554,83,7
10.4602,22.0391,6.53673,43,15
0.215921,0.453503,-0.134586,15,0
8.33202,17.492,0.338193,23,8
0.25737,0.540074,-0.13812,13,1
8.78609,18.4287,1.06996,25,9
2.73323,5.73291,-1.23453,26,2
9.41033,19.7292,1.91237,8,10
3.08646,6.46799,-1.13509,28,3
13.3707,28.007,3.81061,12,11
3.5428,7.41764,-1.00932,27,4
11.2122,23.4647,4.11892,33,12
4.15413,8.69369,-0.84297,17,5
12.625,26.4096,5.68992,34,13
5.12384,10.7135,-0.622379,37,6
11.5214,24.0794,6.16276,40,14
6.44967,13.4736,-0.260739,83,7
0.209137,0.435333,-0.12941,15,0
8.56367,17.8179,0.345069,10,8
0.264321,0.549709,-0.140819,26,1
2.74131,5.69857,-1.22919,28,2
9.67699,20.1073,1.95229,13,10
3.1073,6.45362,-1.13446,30,3
12.6215,26.2021,3.57102,22,11
3.55747,7.38198,-1.00615,34,4
11.3335,23.5072,4.13331,33,12
4.17904,8.66405,-0.841576,17,5
12.1303,25.1488,5.42737,7,13
5.1369,10.6452,-0.619448,37,6
11.136,23.0668,5.91351,37,14
6.44449,13.3429,-0.258645,85,7
10.5592,21.8524,6.50309,36,15
0.219161,0.451946,-0.134586,15,0
8.53158,17.5935,0.341299,19,8
0.262836,0.54177,-0.13902,13,1
8.91104,18.3597,1.06954,5,9
2.75875,5.68142,-1.22767,23,2
10.9033,22.4445,2.18308,5,10
3.1223,6.42442,-1.13133,27,3
12.6877,26.1062,3.56395,56,11
3.57453,7.35166,-1.00372,28,4
11.565,23.7748,4.18744,34,12
4.19618,8.62253,-0.838961,17,5
12.7097,26.105,5.64375,28,13
5.15227,10.5778,-0.616622,37,6
11.4416,23.4796,6.03004,31,14
6.48401,13.306,-0.258365,85,7
10.632,21.8085,6.50102,25,15
0.220737,0.451178,-0.134586,15,0
8.47117,17.3071,0.336343,29,8
0.266534,0.544304,-0.13992,13,1
8.99967,18.3787,1.07247,1,9
2.77684,5.66823,-1.2269,23,2
10.0197,20.4437,1.99186,9,10
3.13775,6.39929,-1.12883,40,3
12.7641,26.0203,3.55859,34,11
3.6032,7.34208,-1.0042,30,4
4.2122,8.57922,-0.836172,17,5
12.7878,26.034,5.63802,4,13
5.17683,10.5346,-0.615157,37,6
11.4917,23.3748,6.01339,62,14
6.50042,13.2223,-0.257179,100,7
13.6027,27.6566,8.2584,6,15
0.222311,0.450405,-0.134586,15,0
8.4825,17.1857,0.334528,44,8
0.259709,0.525944,-0.135421,27,1
9.22123,18.6659,1.0911,6,9
2.79834,5.66202,-1.22767,23,2
10.0813,20.3889,1.98994,19,10
3.14757,6.36583,-1.12476,27,3
13.6997,27.6948,3.79379,24,11
3.61873,7.3123,-1.00177,30,4
11.7894,23.8121,4.2084,43,12
4.24124,8.56268,-0.835998,17,5
11.5451,23.3086,5.05606,23,13
5.18513,10.4637,-0.612017,37,6
11.538,23.2737,5.9972,62,14
6.55187,13.2102,-0.257388,85,7
13.627,27.4635,8.21492,12,15
0.228968,0.460042,-0.137692,14,0
8.4738,17.0181,0.33184,24,8
0.261543,0.525034,-0.135421,13,1
2.8101,5.63865,-1.22461,23,2
10.1942,20.4463,1.99883,23,10
3.17242,6.36011,-1.1257,28,3
13.2786,26.6095,3.65145,23,11
3.63004,7.2712,-0.997866,27,4
11.8965,23.8295,4.21841,34,12
4.26071,8.53074,-0.834255,17,5
11.6141,23.2436,5.05071,37,13
5.20377,10.4098,-0.609923,37,6
11.6688,23.3326,6.02284,54,14
6.56881,13.1348,-0.256341,76,7
16.7106,33.3994,10.007,9,15
0.230572,0.45924,-0.137692,14,0
8.55442,17.0382,0.332782,22,8
0.268531,0.534612,-0.13812,13,1
10.0341,19.968,1.17117,16,9
2.82095,5.61127,-1.2208,26,2
10.0954,20.0724,1.96571,23,10
3.18816,6.33897,-1.12383,30,3
13.2981,26.4288,3.63268,23,11
3.64521,7.24139,-0.995429,27,4
12.04,23.9078,4.23969,11,12
4.27791,8.49091,-0.831814,17,5
17.0911,33.9228,7.38355,14,13
5.22388,10.364,-0.608249,37,6
11.8295,23.4591,6.06558,39,14
6.58309,13.0493,-0.255119,76,7
13.5438,26.8355,8.05445,5,15
0.235584,0.465367,-0.139762,14,0
8.79454,17.365,0.339763,63,8
0.267753,0.528456,-0.13677,27,1
9.25083,18.2581,1.07268,7,9
2.83421,5.59138,-1.21851,26,2
10.1682,20.0513,1.96693,23,10
3.20759,6.32251,-1.12289,28,3
13.1845,25.9769,3.57687,34,11
3.66777,7.22332,-0.994698,24,4
17.3047,34.0799,6.0537,5,12
4.2889,8.44293,-0.828502,19,5
17.0831,33.6144,7.32936,29,13
5.2392,10.3047,-0.605841,37,6
12.4158,24.4095,6.32247,60,14
6.60004,12.9757,-0.254107,85,7
13.6144,26.7543,8.04358,11,15
0.228421,0.447337,-0.134586,15,0
8.95119,17.5299,0.343568,36,8
0.27837,0.54492,-0.141269,13,1
9.39541,18.384,1.08199,11,9
2.85371,5.58145,-1.21851,26,2
10.2418,20.0228,1.96763,18,10
3.21505,6.28546,-1.11819,27,3
13.38,26.1468,3.60636,46,11
3.68537,7.19875,-0.992992,26,4
17.329,33.8346,6.02085,16,12
4.31108,8.41372,-0.827108,19,5
17.2571,33.6799,7.35607,14,13
5.24965,10.2411,-0.60312,37,6
12.6745,24.715,6.41245,35,14
6.62521,12.9134,-0.253339,94,7
14.4769,28.2053,8.49496,13,15
0.247672,0.480886,-0.144939,14,0
8.85326,17.1823,0.33739,25,8
0.267865,0.519646,-0.134971,14,1
9.62383,18.6618,1.10042,15,9
2.87048,5.56622,-1.21736,26,2
10.8935,21.1148,2.07866,25,10
3.229,6.25608,-1.11506,23,3
13.5459,26.2334,3.62513,23,11
3.70353,7.16931,-0.990798,23,4
12.1455,23.5013,4.18994,17,12
4.33402,8.38623,-0.825888,19,5
14.8847,28.7892,6.29975,10,13
5.2633,10.1757,-0.600398,30,6
17.2538,33.3428,8.66736,12,14
6.65503,12.8553,-0.252676,69,7
0.245787,0.473161,-0.142868,14,0
8.93532,17.1939,0.338228,34,8
0.271475,0.522165,-0.13587,13,1
9.46035,18.1887,1.07446,45,9
2.88717,5.55094,-1.21622,26,2
11.0333,21.2039,2.09121,31,10
3.24353,6.23075,-1.11256,26,3
13.6108,26.1349,3.61806,11,11
3.71936,7.13874,-0.98836,23,4
13.8828,26.6346,4.75717,17,12
4.35406,8.35338,-0.824145,19,5
22.7681,43.6626,9.57174,11,13
5.27569,10.113,-0.597781,33,6
16.7074,32.0126,8.33669,24,14
6.67395,12.7824,-0.251699,94,7
14.4762,27.714,8.37797,13,15
0.242058,0.462033,-0.139762,14,0
8.96094,17.0971,0.336936,36,8
0.2742,0.522941,-0.13632,27,1
9.4941,18.0989,1.07111,27,9
2.89741,5.52344,-1.2124,26,2
11.0897,21.1317,2.0879,30,10
3.26158,6.2124,-1.11131,25,3
13.5985,25.8904,3.59076,11,11
3.73687,7.11166,-0.986411,23,4
12.8452,24.4354,4.37234,30,12
4.36649,8.30639,-0.821007,17,5
13.869,26.3718,5.79182,35,13
5.29608,10.0662,-0.596107,30,6
16.7945,31.9076,8.32454,12,14
6.68871,12.7024,-0.250582,77,7
14.5062,27.5368,8.33967,12,15
0.23645,0.44752,-0.135621,15,0
8.96356,16.9578,0.334807,31,8
0.276935,0.523703,-0.13677,13,1
11.3159,21.39,1.2682,15,9
2.91025,5.50115,-1.20973,26,2
12.9938,24.5514,2.43025,6,10
3.28047,6.19574,-1.11037,26,3
13.673,25.813,3.58662,23,11
3.7533,7.08278,-0.984217,30,4
12.9267,24.3834,4.37109,27,12
4.37214,8.24709,-0.816649,19,5
13.9518,26.3059,5.788,21,13
5.30404,9.99648,-0.593071,37,6
15.0144,28.2857,7.39324,10,14
6.703,12.6224,-0.249465,77,7
14.489,27.2728,8.27496,6,15
0.227109,0.426233,-0.12941,15,0
8.87314,16.6459,0.329257,24,8
0.278762,0.522733,-0.13677,13,1
10.7878,20.2208,1.20111,15,9
2.92481,5.48229,-1.20782,26,2
11.752,22.0188,2.1836,11,10
3.29092,6.16334,-1.10662,28,3
13.7088,25.6635,3.57248,34,11
3.77239,7.05913,-0.982754,31,4
14.0492,26.2788,4.71963,35,12
4.39996,8.23002,-0.816475,19,5
14.0537,26.2761,5.7922,35,13
5.32759,9.95678,-0.591815,33,6
6.70359,12.5179,-0.247859,96,7
14.7136,27.4638,8.34847,25,15
0.256027,0.47649,-0.144939,14,0
8.8384,16.4422,0.325836,30,8
0.275047,0.511459,-0.134071,14,1
10.7448,19.972,1.18855,16,9
2.943,5.47032,-1.20744,26,2
12.9487,24.0583,2.39033,13,10
3.30585,6.13964,-1.10443,27,3
13.8237,25.6627,3.57906,34,11
3.79419,7.04068,-0.982023,28,4
13.9318,25.8418,4.64986,33,12
4.40124,8.16375,-0.81142,18,5
14.1742,26.2804,5.80403,31,13
5.32438,9.86781,-0.587628,37,6
16.6075,30.7662,8.07169,11,14
6.73774,12.4768,-0.24751,96,7
14.4752,26.7936,8.16005,6,15
0.248486,0.458608,-0.139762,14,0
8.92147,16.4587,0.326779,30,8
0.282404,0.520774,-0.13677,13,1
9.92016,18.2859,1.09026,8,9
2.95552,5.44794,-1.20477,26,2
13.1067,24.1496,2.40393,33,10
3.32538,6.12459,-1.1038,27,3
13.9274,25.6405,3.58272,46,11
3.81305,7.01693,-0.980561,28,4
13.9531,25.6663,4.62702,27,12
4.44113,8.16934,-0.813512,19,5
14.3146,26.3204,5.82387,22,13
5.33779,9.81057,-0.585325,37,6
15.2539,28.0242,7.36625,10,14
6.75926,12.4128,-0.246707,100,7
15.7386,28.8906,8.81538,7,15
0.244528,0.447566,-0.136656,14,0
8.93859,16.3538,0.325313,48,8
0.277676,0.507817,-0.133621,28,1
9.94176,18.1741,1.08566,9,9
2.9651,5.42036,-1.20095,26,2
10.8886,19.8968,1.98436,19,10
3.34579,6.11121,-1.10349,28,3
14.0521,25.6561,3.59173,11,11
3.82226,6.97572,-0.976661,28,4
13.9353,25.4217,4.59166,26,12
4.46483,8.14505,-0.81264,17,5
14.4753,26.396,5.85173,36,13
5.36432,9.77787,-0.584488,33,6
15.9311,29.0266,7.64429,11,14
6.77175,12.3331,-0.24559,96,7
14.1698,25.7962,7.88622,22,15
0.246089,0.44671,-0.136656,14,0
9.03229,16.389,0.326639,24,8
0.289797,0.525616,-0.13857,13,1
11.9595,21.6824,1.29772,20,9
2.98306,5.40826,-1.20057,26,2
13.1758,23.8778,2.38598,19,10
3.36042,6.08739,-1.1013,33,3
14.109,25.5478,3.58345,23,11
3.84466,6.95886,-0.976174,28,4
14.0564,25.4317,4.6023,13,12
4.473,8.0928,-0.80898,18,5
14.5987,26.402,5.86432,23,13
5.37135,9.71015,-0.581557,37,6
16.1003,29.0935,7.67668,45,14
6.79636,12.2761,-0.244927,96,7
14.4732,26.1319,8.00424,11,15
0.234514,0.422204,-0.12941,15,0
9.05351,16.2927,0.325348,22,8
0.289736,0.521195,-0.13767,13,1
12.0875,21.7348,1.30337,50,9
3.00096,5.3961,-1.20019,26,2
13.3037,23.9118,2.39399,26,10
3.36724,6.04973,-1.09661,27,3
14.0648,25.2591,3.54981,45,11
3.87376,6.95407,-0.977392,31,4
14.1201,25.3376,4.59417,13,12
4.48958,8.05625,-0.806888,18,5
14.7969,26.5412,5.90668,4,13
5.38964,9.66343,-0.579882,37,6
16.235,29.0967,7.69243,11,14
6.81967,12.2174,-0.244229,96,7
15.5995,27.9349,8.57312,6,15
0.247313,0.44161,-0.135621,15,0
9.06048,16.172,0.323568,22,8
0.295365,0.52698,-0.13947,13,1
11.9963,21.3946,1.28548,52,9
3.01786,5.38216,-1.19943,26,2
13.1317,23.4099,2.34832,25,10
3.37867,6.02072,-1.09348,27,3
14.1325,25.1735,3.54469,22,11
3.87955,6.90762,-0.972761,26,4
14.7407,26.2354,4.76625,14,12
4.50596,8.01969,-0.804796,18,5
14.8481,26.4158,5.89027,23,13
5.39202,9.58885,-0.576533,37,6
16.2877,28.9533,7.66948,11,14
6.84463,12.1621,-0.243601,97,7
16.1044,28.6041,8.79571,7,15
0.260251,0.46093,-0.141833,14,0
9.04705,16.0167,0.321089,22,8
0.285698,0.505587,-0.134071,14,1
11.9922,21.2135,1.2771,24,9
3.03276,5.36476,-1.1979,28,2
13.3055,23.527,2.36471,19,10
3.40161,6.01232,-1.0941,27,3
14.1968,25.0825,3.53884,45,11
3.89679,6.88194,-0.971055,27,4
14.8049,26.1356,4.75749,38,12
4.52607,7.99004,-0.803402,18,5
14.887,26.2699,5.86929,37,13
