x, y, z, intensity, ring
0.828264,0.52685,-0.190809,23,2
20.2445,12.8723,2.09888,21,10
5.21477,3.3145,-0.978654,35,3
5.83478,3.70572,-0.848698,25,4
6.61958,4.20091,-0.685916,15,5
7.62142,4.83484,-0.473012,50,6
9.02749,5.72239,-0.186566,100,7
11.072,6.99402,0.228592,27,8
0.448185,0.283003,-0.122373,15,1
14.297,9.02421,0.886048,12,9
0.83185,0.524858,-0.191191,27,2
20.2191,12.7524,2.09139,21,10
5.21853,3.2901,-0.97709,28,3
36.8403,23.2266,5.34738,19,11
5.85104,3.68745,-0.849186,24,4
6.62745,4.17353,-0.685218,15,5
7.64923,4.81325,-0.47364,39,6
9.03556,5.68339,-0.186322,100,7
11.0874,6.94702,0.228382,21,8
0.44922,0.281358,-0.122373,15,1
14.2927,8.94844,0.883745,12,9
0.840333,0.526119,-0.192717,24,2
20.1858,12.6331,2.08337,20,10
5.2484,3.28339,-0.980531,28,3
36.8815,23.064,5.34105,19,11
5.85946,3.66282,-0.848454,22,4
6.62847,4.14193,-0.683824,15,5
7.65582,4.78017,-0.473012,39,6
9.05802,5.6513,-0.186357,100,7
11.0878,6.89349,0.227894,23,8
0.450199,0.279788,-0.122373,15,1
14.3103,8.89005,0.882908,13,9
0.840497,0.522146,-0.192335,24,2
20.1891,12.5373,2.07919,20,10
5.24305,3.25463,-0.977403,30,3
36.6851,22.7635,5.30107,18,11
5.87559,3.64444,-0.848942,22,4
54.1919,33.6004,10.0991,19,12
6.63611,4.11456,-0.683127,15,5
7.66228,4.74711,-0.472384,43,6
9.06919,5.61438,-0.186182,100,7
11.0914,6.84215,0.227475,20,8
0.451173,0.278215,-0.122373,15,1
14.3089,8.82013,0.880919,12,9
0.822259,0.506847,-0.187756,23,2
20.1972,12.4448,2.07553,20,10
5.2527,3.23527,-0.97709,27,3
36.6427,22.5603,5.28352,18,11
5.8832,3.62079,-0.848211,21,4
6.66133,4.09647,-0.684173,15,5
7.6805,4.72138,-0.472489,39,6
9.08533,5.58059,-0.186112,100,7
11.0947,6.79086,0.227056,25,8
0.452141,0.276639,-0.122373,15,1
14.2936,8.742,0.878093,15,9
0.793961,0.485397,-0.180887,41,2
20.1695,12.326,2.06803,25,10
5.27295,3.22115,-0.978654,28,3
5.87378,3.58678,-0.845042,20,4
6.66878,4.06905,-0.683475,16,5
7.68752,4.68696,-0.471861,39,6
59.7796,36.4324,16.1623,48,14
9.10134,5.54677,-0.186043,100,7
11.1076,6.74289,0.226811,22,8
0.453152,0.27498,-0.122373,15,1
14.3,8.67402,0.876523,16,9
0.792293,0.480586,-0.180124,48,2
20.1204,12.1998,2.05862,30,10
5.28416,3.20272,-0.978654,30,3
36.1852,21.9232,5.1948,18,11
5.88689,3.56523,-0.845042,19,4
54.0396,32.7146,10.0052,18,12
6.68706,4.04664,-0.683824,15,5
57.424,34.7498,13.0468,27,13
7.70042,4.65803,-0.471652,39,6
9.09936,5.49992,-0.185589,100,7
11.1088,6.69066,0.226358,21,8
0.454109,0.273396,-0.122373,15,1
14.2993,8.6055,0.874639,20,9
0.810872,0.487799,-0.18394,65,2
20.1138,12.0952,2.05339,40,10
5.29586,3.18333,-0.978654,28,3
36.2615,21.7967,5.1948,18,11
5.8993,3.54466,-0.845042,22,4
6.67723,4.00892,-0.681384,15,5
7.70887,4.62464,-0.471128,39,6
9.1185,5.46813,-0.185589,100,7
11.1132,6.64057,0.225974,23,8
0.481829,0.287798,-0.129572,14,1
14.3207,8.55042,0.874115,22,9
0.815857,0.48712,-0.184703,52,2
20.1008,11.9967,2.04799,35,10
5.29112,3.15665,-0.975838,35,3
5.91334,3.52506,-0.845286,19,4
48.8873,29.1311,9.01344,14,12
6.69391,3.98879,-0.681732,15,5
52.8378,31.4727,11.9546,22,13
7.72588,4.60007,-0.471233,39,6
9.12035,5.42604,-0.18524,100,7
11.126,6.59561,0.225764,28,8
0.456007,0.270219,-0.122373,15,1
14.3058,8.47392,0.871394,20,9
0.709446,0.420234,-0.16028,64,2
20.1202,11.9133,2.04572,30,10
5.29191,3.13212,-0.973961,23,3
35.9856,21.2903,5.13387,17,11
5.91535,3.49833,-0.843823,21,4
48.516,28.6808,8.92647,14,12
6.70094,3.96134,-0.681035,15,5
7.7247,4.56292,-0.470186,39,6
9.13579,5.39214,-0.18517,100,7
11.1213,6.54052,0.225206,32,8
0.456947,0.268626,-0.122373,15,1
14.3163,8.4128,0.870242,14,9
0.690597,0.405819,-0.1557,88,2
20.0981,11.8056,2.03927,35,10
5.30792,3.11663,-0.9749,23,3
36.1453,21.2148,5.14606,17,11
5.91383,3.46962,-0.841874,22,4
48.5749,28.4873,8.91896,28,12
6.71816,3.93995,-0.681384,15,5
7.73886,4.53491,-0.470082,39,6
9.1442,5.35415,-0.184961,100,7
11.1251,6.49057,0.224822,28,8
0.484817,0.282737,-0.129572,14,1
14.3335,8.35573,0.86951,18,9
0.683529,0.398463,-0.153792,92,2
20.1082,11.7174,2.03613,35,10
5.31877,3.09808,-0.9749,15,3
36.0476,20.9886,5.12168,17,11
5.92762,3.44996,-0.842117,20,4
49.5243,28.8123,9.07476,14,12
6.72498,3.91246,-0.680686,15,5
7.75291,4.50687,-0.469977,39,6
9.14209,5.31015,-0.184542,100,7
56.5421,32.8291,17.5189,38,15
11.1217,6.43667,0.224298,30,8
0.516163,0.298608,-0.13767,13,1
14.3505,8.29865,0.868777,16,9
0.681516,0.394109,-0.153029,100,2
20.1024,11.6202,2.03143,34,10
5.31758,3.07258,-0.97271,11,3
35.9247,20.7495,5.09389,17,11
5.95166,3.4362,-0.843823,25,4
6.74032,3.88996,-0.680861,13,5
49.49,28.5501,11.1058,18,13
7.76168,4.47579,-0.469558,39,6
9.13977,5.26622,-0.184123,99,7
56.8036,32.7163,17.5645,38,15
11.1476,6.39981,0.224368,25,8
0.486779,0.279345,-0.129572,14,1
14.3448,8.22863,0.866684,21,9
0.687997,0.394658,-0.154174,100,2
20.1377,11.547,2.0309,24,10
5.31627,3.04712,-0.97052,6,3
35.5904,20.3911,5.03637,17,11
5.97223,3.42033,-0.845042,16,4
6.7383,3.8575,-0.679292,15,5
57.1244,32.689,12.7934,26,13
7.77378,4.44669,-0.469349,39,6
9.15984,5.23528,-0.184158,99,7
11.149,6.34898,0.223949,33,8
0.477589,0.27186,-0.126872,15,1
14.3251,8.15434,0.863857,26,9
0.696196,0.396138,-0.1557,97,2
20.1103,11.4382,2.0241,39,10
5.32688,3.02855,-0.97052,2,3
35.0815,19.9372,4.95448,16,11
5.97551,3.39456,-0.843823,19,4
50.1207,28.4725,9.12983,14,12
6.76039,3.83888,-0.680163,13,5
49.5618,28.1321,11.0776,18,13
7.77362,4.41065,-0.468407,39,6
9.16671,5.19896,-0.183948,100,7
11.1543,6.30311,0.223635,27,8
0.485275,0.274109,-0.128672,14,1
14.3187,8.08465,0.861764,24,9
0.687316,0.387915,-0.15341,100,2
20.0998,11.3395,2.01905,39,10
35.1924,19.8461,4.96081,16,11
5.97809,3.36985,-0.842605,18,4
6.77027,3.8133,-0.679815,13,5
58.714,33.0702,13.0987,28,13
7.77603,4.37799,-0.467674,39,6
9.17609,5.16203,-0.183774,100,7
11.1885,6.27099,0.223879,30,8
0.479429,0.268603,-0.126872,15,1
14.3242,8.02192,0.860403,31,9
0.685173,0.383715,-0.152647,100,2
20.066,11.2329,2.0119,39,10
35.452,19.8297,4.98763,16,11
5.98288,3.34509,-0.84163,19,4
6.7794,3.78888,-0.679466,13,5
7.7808,4.34498,-0.467046,39,6
9.17659,5.12022,-0.183425,100,7
11.2051,6.22898,0.223775,35,8
0.497398,0.276393,-0.131371,14,1
14.387,7.99128,0.862497,22,9
0.684792,0.380368,-0.152266,100,2
20.0912,11.1551,2.01051,39,10
0.727152,0.403565,-0.131718,14,3
40.4196,22.4234,5.67546,21,11
5.99973,3.32708,-0.842361,19,4
6.77342,3.75457,-0.677549,15,5
50.364,27.9058,11.1921,18,13
7.79417,4.31683,-0.466941,50,6
58.5224,32.3995,15.4433,42,14
9.19266,5.08719,-0.18339,100,7
11.2022,6.17631,0.223286,31,8
0.498359,0.274656,-0.131371,14,1
14.3903,7.92751,0.861031,24,9
0.687901,0.378802,-0.152647,100,2
20.0881,11.0618,2.00633,38,10
0.730287,0.401977,-0.132031,58,3
40.5568,22.3147,5.68374,21,11
6.01305,3.30707,-0.842605,19,4
47.3871,26.0513,8.56479,13,12
6.78015,3.72588,-0.676851,15,5
50.6896,27.8438,11.2417,18,13
7.79943,4.28246,-0.466313,39,6
9.19809,5.04833,-0.183146,100,7
11.223,6.13425,0.223251,30,8
0.489102,0.267221,-0.128672,14,1
14.3965,7.86227,0.859671,23,9
0.692731,0.37816,-0.15341,100,2
20.111,10.9786,2.00458,38,10
0.735223,0.40119,-0.132656,100,3
35.4868,19.3561,4.96325,16,11
6.01293,3.27836,-0.840899,19,4
44.0133,23.9868,7.93905,11,12
6.79026,3.6991,-0.676503,15,5
7.80631,4.24907,-0.46579,39,6
9.21653,5.01459,-0.183146,100,7
11.2155,6.07688,0.222658,32,8
0.486651,0.26357,-0.127772,14,1
14.3989,7.79519,0.8581,24,9
0.6975,0.377609,-0.154174,100,2
20.0705,10.8612,1.99656,42,10
0.736689,0.398492,-0.132656,33,3
35.4702,19.1787,4.95106,16,11
6.01442,3.25063,-0.839436,21,4
39.8637,21.5362,7.17628,9,12
6.79262,3.66969,-0.675457,16,5
50.663,27.3591,11.1921,18,13
7.8246,4.2237,-0.465999,43,6
9.21549,4.97033,-0.182762,100,7
11.2085,6.02255,0.222099,41,8
0.497869,0.267403,-0.130472,14,1
14.4366,7.75055,0.858728,23,9
0.693624,0.372386,-0.153029,100,2
20.0978,10.7854,1.99552,38,10
0.741557,0.397786,-0.133282,46,3
35.5265,19.0491,4.9496,16,11
6.01873,3.22587,-0.838461,21,4
38.8556,20.8167,6.98167,8,12
6.80012,3.64313,-0.674934,18,5
49.9482,26.7484,11.0135,17,13
7.7988,4.17468,-0.463592,58,6
9.2416,4.94285,-0.182936,99,7
11.2012,5.96835,0.221541,36,8
0.488479,0.260167,-0.127772,14,1
14.4393,7.69043,0.857368,25,9
0.691454,0.368117,-0.152266,100,2
20.072,10.6815,1.98924,38,10
0.739453,0.39334,-0.132656,48,3
31.4247,16.7088,4.36999,14,11
6.02414,3.20309,-0.83773,22,4
40.3582,21.4498,7.23885,9,12
6.79344,3.6091,-0.673017,21,5
51.4319,27.3123,11.3196,19,13
7.83802,4.16054,-0.465057,39,6
9.25087,4.90843,-0.182797,99,7
11.221,5.93117,0.221541,37,8
0.503123,0.265828,-0.131371,14,1
14.4506,7.63504,0.85653,25,9
0.690935,0.364906,-0.151884,100,2
20.058,10.5888,1.98436,38,10
0.730271,0.385354,-0.130779,48,3
31.5046,16.6175,4.3734,28,11
6.03824,3.18495,-0.838217,23,4
38.7167,20.413,6.93224,8,12
6.81418,3.59119,-0.673888,17,5
7.85708,4.13731,-0.465371,39,6
9.24586,4.86655,-0.182378,100,7
11.2707,5.90971,0.222134,30,8
0.50055,0.262349,-0.130472,14,1
14.4665,7.57898,0.855902,25,9
0.706054,0.369901,-0.154937,99,2
20.0718,10.5111,1.98227,37,10
0.728044,0.381098,-0.130153,48,3
31.5718,16.5194,4.37511,28,11
6.04756,3.16294,-0.837974,28,4
38.8647,20.318,6.946,8,12
6.82605,3.56858,-0.673888,18,5
46.7539,24.4319,10.2541,14,13
7.85659,4.10384,-0.464534,43,6
45.698,23.8599,11.9017,21,14
9.28052,4.84349,-0.182727,100,7
11.2735,5.86111,0.221785,30,8
0.501463,0.2606,-0.130472,14,1
14.461,7.51187,0.854018,26,9
0.710825,0.369244,-0.1557,97,2
20.0305,10.4006,1.9746,37,10
0.736383,0.382194,-0.131405,46,3
31.4548,16.3186,4.35098,28,11
6.03742,3.13084,-0.835049,23,4
38.8863,20.1568,6.93724,8,12
6.842,3.54656,-0.674237,18,5
7.8691,4.07547,-0.464429,47,6
45.8641,23.7432,11.9233,21,14
9.28316,4.80372,-0.182447,100,7
45.2998,23.4311,13.6656,18,15
11.2921,5.8208,0.22175,32,8
0.519692,0.267774,-0.134971,14,1
14.4658,7.45038,0.852762,26,9
0.691227,0.355853,-0.151121,97,2
19.9764,10.2841,1.96571,41,10
0.737713,0.379622,-0.131405,31,3
31.5045,16.205,4.35,14,11
6.04302,3.10702,-0.834318,23,4
39.0197,20.0534,6.94851,8,12
6.84433,3.51599,-0.673191,18,5
7.88398,4.0466,-0.464429,39,6
45.9987,23.6097,11.9368,22,14
9.28031,4.76124,-0.182064,100,7
45.3057,23.234,13.6429,18,15
11.3134,5.77938,0.22175,30,8
0.499843,0.255233,-0.129572,14,1
14.4983,7.40003,0.853076,28,9
0.704769,0.359563,-0.153792,100,2
20.0352,10.2217,1.9678,37,10
0.73558,0.37512,-0.130779,76,3
28.2406,14.3955,3.89202,12,11
6.06851,3.09206,-0.836268,27,4
39.4485,20.0914,7.01171,8,12
6.84829,3.48637,-0.672319,20,5
45.6017,23.2052,9.94573,13,13
7.89876,4.01768,-0.464429,39,6
45.8279,23.3102,11.8702,21,14
9.28522,4.72085,-0.181819,100,7
45.4043,23.0748,13.647,18,15
11.322,5.73155,0.221506,35,8
0.500776,0.253399,-0.129572,14,1
14.4902,7.33224,0.851087,26,9
0.704268,0.356214,-0.15341,93,2
20.0886,10.1563,1.96937,37,10
5.43192,2.74505,-0.963949,8,3
28.2967,14.2937,3.89251,25,11
6.06917,3.06443,-0.834805,23,4
32.6449,16.483,5.79214,10,12
6.84797,3.45615,-0.671099,23,5
45.3354,22.8708,9.87017,12,13
7.92165,3.99458,-0.464953,43,6
9.29092,4.68301,-0.18161,100,7
45.4604,22.904,13.6398,18,15
11.3159,5.68141,0.221017,30,8
0.522514,0.262226,-0.134971,14,1
14.4997,7.27356,0.850145,29,9
0.717792,0.359913,-0.156082,79,2
20.1061,10.0772,1.96763,37,10
5.43746,2.72525,-0.963324,17,3
28.4717,14.2638,3.91006,12,11
6.09528,3.05229,-0.836999,24,4
32.5344,16.2849,5.76242,21,12
6.8778,3.44115,-0.672842,21,5
45.0036,22.5165,9.78163,12,13
7.91521,3.95846,-0.463801,39,6
45.7768,22.8834,11.8153,21,14
9.32152,4.65771,-0.181889,100,7
45.8685,22.9092,13.7381,19,15
11.3446,5.64634,0.221192,28,8
0.49202,0.244776,-0.126872,15,1
14.5005,7.21387,0.848785,27,9
0.717223,0.356657,-0.1557,88,2
20.0823,9.98205,1.96205,37,10
5.45402,2.70977,-0.964575,33,3
27.5186,13.6663,3.77259,12,11
6.08811,3.02216,-0.834561,25,4
32.5104,16.1383,5.74865,21,12
6.89632,3.42186,-0.67354,15,5
45.2191,22.4273,9.8114,12,13
7.91824,3.92548,-0.463173,47,6
9.33154,4.6241,-0.181784,100,7
45.0336,22.3059,13.4658,18,15
11.3561,5.60514,0.221052,32,8
0.520791,0.256939,-0.134071,14,1
14.5112,7.15614,0.847947,26,9
0.713181,0.351548,-0.154555,82,2
20.0187,9.86347,1.95246,36,10
5.46297,2.69167,-0.964575,37,3
27.7312,13.6574,3.7955,24,11
6.09454,3.00021,-0.834074,24,4
32.5559,16.0195,5.74678,10,12
6.90107,3.39425,-0.672842,18,5
50.6101,24.8923,10.9631,17,13
7.93301,3.90008,-0.463278,39,6
45.5573,22.3874,11.719,21,14
9.32968,4.58268,-0.181435,100,7
45.1459,22.1656,13.4762,18,15
11.3658,5.55821,0.220843,32,8
0.507723,0.248182,-0.130472,14,1
14.514,7.09151,0.846587,28,9
0.70388,0.343762,-0.152266,85,2
20.0387,9.78653,1.95107,36,10
5.4728,2.67163,-0.964575,28,3
27.9095,13.6184,3.81305,12,11
6.10549,2.97785,-0.834074,28,4
37.7299,18.394,6.64815,7,12
6.89018,3.35759,-0.670576,30,5
7.94792,3.8696,-0.463278,39,6
45.8142,22.3055,11.764,21,14
9.3608,4.55546,-0.181714,100,7
45.3519,22.0609,13.5135,18,15
11.3699,5.50867,0.220529,35,8
0.512137,0.248018,-0.131371,14,1
14.5399,7.03827,0.846587,28,9
0.717506,0.347165,-0.154937,81,2
20.1265,9.73819,1.95612,36,10
5.45944,2.64037,-0.960508,27,3
27.4588,13.2741,3.7448,12,11
6.11816,2.95632,-0.834318,25,4
36.8828,17.8139,6.48734,6,12
6.90423,3.33318,-0.670751,15,5
49.0308,23.6602,10.5823,15,13
7.93327,3.82656,-0.461603,50,6
9.38644,4.52547,-0.181889,99,7
45.2167,21.7905,13.4493,18,15
11.3792,5.46177,0.220319,40,8
0.509529,0.244453,-0.130472,14,1
14.5266,6.96933,0.844388,35,9
0.725794,0.348054,-0.156463,70,2
20.1405,9.65402,1.95403,36,10
5.47264,2.62205,-0.961133,27,3
28.2091,13.5095,3.84035,12,11
6.13432,2.93644,-0.835049,20,4
30.2988,14.5037,5.32034,4,12
6.92481,3.31336,-0.671622,15,5
7.93577,3.79367,-0.460975,58,6
9.39496,4.48922,-0.181749,100,7
45.9967,21.9689,13.6584,18,15
11.4081,5.42916,0.220529,38,8
0.496258,0.236066,-0.126872,15,1
14.549,6.91771,0.844284,28,9
0.728778,0.346361,-0.156845,60,2
20.0823,9.54006,1.94514,36,10
5.47774,2.60219,-0.960508,27,3
26.9016,12.7738,3.65657,12,11
6.13864,2.91353,-0.834318,31,4
32.3981,15.3699,5.67951,5,12
6.93634,3.28916,-0.671622,15,5
7.98079,3.78274,-0.462859,43,6
9.38889,4.44613,-0.181331,100,7
45.9492,21.7495,13.6216,18,15
11.4161,5.38418,0.220319,38,8
0.511181,0.24098,-0.130472,14,1
14.5767,6.86859,0.844493,31,9
0.710387,0.334737,-0.152647,47,2
20.0489,9.44284,1.93887,49,10
5.49751,2.58811,-0.962385,40,3
27.0107,12.7103,3.66534,24,11
6.13082,2.88364,-0.83188,22,4
29.8022,14.0112,5.21584,4,12
6.93876,3.2607,-0.670751,17,5
7.97949,3.74806,-0.462022,39,6
45.4582,21.3426,11.594,21,14
9.4134,4.41758,-0.181505,100,7
11.424,5.33922,0.22011,38,8
0.512019,0.239194,-0.130472,14,1
14.5933,6.81429,0.844074,28,9
0.70983,0.331301,-0.152266,38,2
20.1574,9.40384,1.94601,40,10
5.50517,2.5671,-0.962072,28,3
27.1323,12.652,3.67582,36,11
6.15344,2.86809,-0.833586,34,4
30.8304,14.3634,5.38698,18,12
6.94107,3.23225,-0.669879,21,5
30.7227,14.3001,6.58711,23,13
7.9986,3.72132,-0.462336,39,6
9.42151,4.38132,-0.181365,100,7
45.7495,21.2653,13.5181,18,15
11.4235,5.28807,0.219726,43,8
0.512892,0.237316,-0.130472,14,1
14.6001,6.75237,0.843028,28,9
0.716328,0.331293,-0.15341,37,2
20.6621,9.55161,1.99151,23,10
5.50692,2.54456,-0.960821,31,3
27.4957,12.699,3.71872,24,11
6.16031,2.84385,-0.833099,21,4
29.9932,13.8398,5.23179,13,12
6.94326,3.20383,-0.669007,18,5
45.9634,21.1992,9.83888,12,13
8.02061,3.69755,-0.462859,39,6
47.4893,21.8829,12.0718,22,14
9.42479,4.3409,-0.181121,100,7
46.6238,21.4643,13.7531,19,15
11.4564,5.25484,0.220005,37,8
0.524346,0.240397,-0.133171,14,1
14.5618,6.67308,0.839469,31,9
0.710341,0.32552,-0.151884,38,2
21.467,9.83289,2.06577,20,10
5.51757,2.52614,-0.961133,43,3
26.7492,12.2411,3.61196,23,11
6.17922,2.82646,-0.834318,22,4
29.558,13.514,5.14763,8,12
6.96165,3.18289,-0.669705,25,5
45.7693,20.9162,9.78163,12,13
8.01712,3.66207,-0.461917,43,6
46.5692,21.2621,11.8189,21,14
9.44353,4.30963,-0.181191,100,7
11.4565,5.20654,0.219656,36,8
0.503891,0.228893,-0.127772,14,1
14.5832,6.62138,0.839364,35,9
0.725774,0.329531,-0.154937,36,2
22.0382,10.0016,2.11736,48,10
5.53175,2.50931,-0.962072,23,3
26.752,12.1296,3.6066,23,11
6.17278,2.7975,-0.832124,22,4
29.6302,13.4222,5.15201,4,12
6.9769,3.15899,-0.670053,18,5
8.02621,3.63241,-0.461708,47,6
45.9578,20.7894,11.6453,21,14
9.43847,4.26759,-0.180807,100,7
46.85,21.1733,13.7759,19,15
11.4527,5.15667,0.219237,43,8
0.518903,0.233531,-0.131371,14,1
14.5662,6.55241,0.837061,27,9
0.701909,0.315598,-0.149594,40,2
21.8112,9.80235,2.09209,21,10
5.5355,2.48659,-0.961133,30,3
25.1391,11.2927,3.38382,20,11
6.18432,2.77674,-0.832368,22,4
29.767,13.3591,5.16766,4,12
6.99334,3.13707,-0.670576,20,5
45.6491,20.4676,9.72439,12,13
8.03947,3.60297,-0.461708,47,6
9.43688,4.22725,-0.180493,100,7
11.4788,5.11791,0.219377,41,8
0.548236,0.24432,-0.13857,13,1
14.6266,6.51523,0.839155,25,9
0.703006,0.313146,-0.149594,40,2
20.2982,9.03733,1.94392,4,10
5.54596,2.46806,-0.961446,37,3
25.5721,11.3748,3.43647,21,11
6.19264,2.75325,-0.832124,24,4
32.3249,14.365,5.60254,10,12
6.99332,3.10778,-0.66953,20,5
52.4414,23.2936,11.1539,18,13
8.05565,3.5765,-0.461917,50,6
46.0626,20.441,11.6345,21,14
9.47425,4.20237,-0.180912,100,7
46.8237,20.7592,13.7241,19,15
11.4692,5.0657,0.218853,45,8
0.527692,0.23296,-0.133171,14,1
14.6529,6.46575,0.839364,25,9
0.718464,0.31703,-0.152647,38,2
21.633,9.54131,2.06855,61,10
5.55454,2.44869,-0.961446,25,3
25.0485,11.0373,3.36091,41,11
6.19312,2.72762,-0.830905,27,4
30.5995,13.4705,5.29531,9,12
7.00048,3.08174,-0.669182,17,5
8.06991,3.54917,-0.462022,61,6
46.4548,20.4213,11.7155,21,14
9.4852,4.16766,-0.180842,100,7
11.5125,5.03685,0.219342,38,8
0.507077,0.221747,-0.127772,14,1
14.668,6.41136,0.838945,25,9
0.701577,0.306658,-0.148831,40,2
5.55219,2.42454,-0.959569,26,3
25.6054,11.1761,3.43038,21,11
6.20989,2.70916,-0.83188,27,4
30.8002,13.4307,5.3219,18,12
7.02398,3.06286,-0.670402,17,5
53.1427,23.1623,11.2684,18,13
8.05662,3.50981,-0.460556,58,6
45.9219,19.996,11.5634,20,14
9.51802,4.14251,-0.181191,100,7
46.9958,20.4441,13.7324,19,15
11.519,4.99186,0.219132,40,8
0.511424,0.221525,-0.128672,14,1
14.6793,6.35536,0.838317,24,9
0.713453,0.308887,-0.151121,39,2
20.3771,8.81795,1.94253,18,10
5.56787,2.40828,-0.960821,26,3
25.4785,11.015,3.4082,21,11
6.19015,2.67487,-0.82798,29,4
30.1868,13.038,5.20802,17,12
7.02731,3.03517,-0.669705,18,5
8.05965,3.47771,-0.460033,50,6
9.51039,4.09976,-0.180772,100,7
47.216,20.3442,13.7759,19,15
11.5473,4.95636,0.219342,51,8
0.530103,0.227422,-0.133171,14,1
14.65,6.28204,0.835387,24,9
0.700092,0.300205,-0.148068,41,2
19.4481,8.33549,1.85119,4,10
5.5708,2.3865,-0.959882,23,3
25.7047,11.0064,3.4333,10,11
6.20675,2.65637,-0.828955,25,4
30.2866,12.9559,5.2174,17,12
7.03603,3.00984,-0.66953,16,5
50.5989,21.6345,10.6968,16,13
8.09011,3.4574,-0.46108,47,6
47.3363,20.22,11.8837,21,14
9.51177,4.06104,-0.180528,100,7
11.5259,4.89959,0.218609,35,8
0.520132,0.220997,-0.130472,14,1
14.6388,6.21682,0.833503,23,9
0.690294,0.293155,-0.145778,43,2
20.3905,8.65524,1.938,18,10
5.58637,2.37012,-0.961133,22,3
25.6333,10.8701,3.41868,42,11
6.22147,2.63701,-0.829687,30,4
25.839,10.9468,4.44462,15,12
7.02998,2.97826,-0.667962,20,5
48.6855,20.6157,10.277,14,13
8.09477,3.42603,-0.460661,54,6
47.263,19.9939,11.8477,21,14
9.51668,4.02392,-0.180353,100,7
46.8977,19.82,13.6424,18,15
11.5393,4.85777,0.218539,37,8
0.5209,0.21918,-0.130472,14,1
14.6714,6.17032,0.834131,24,9
0.687693,0.289221,-0.145015,43,2
19.392,8.15164,1.84038,8,10
5.57821,2.34372,-0.958318,25,3
25.7882,10.8298,3.43428,21,11
6.2288,2.61451,-0.829443,27,4
25.6385,10.7564,4.40363,25,12
7.04217,2.95448,-0.668136,20,5
8.10668,3.39775,-0.460661,54,6
47.9149,20.0727,11.9935,22,14
9.53435,3.99222,-0.180423,100,7
11.5377,4.80977,0.21819,41,8
0.489283,0.203869,-0.122373,15,1
14.6855,6.116,0.833712,24,9
0.699573,0.291348,-0.147305,42,2
20.386,8.48587,1.93189,58,10
5.58272,2.32272,-0.957692,27,3
25.9102,10.7748,3.44549,10,11
6.23423,2.59123,-0.828955,25,4
25.5317,10.6069,4.37891,12,12
7.05613,2.9314,-0.668485,21,5
8.11296,3.36714,-0.460347,47,6
47.9379,19.8859,11.9818,22,14
9.54823,3.95892,-0.180423,100,7
11.5452,4.76565,0.218015,38,8
0.526021,0.217025,-0.131371,14,1
14.7345,6.07612,0.835282,26,9
0.711475,0.293394,-0.149594,40,2
20.4358,8.42302,1.93381,49,10
5.60175,2.30773,-0.959569,26,3
27.161,11.1839,3.6066,23,11
6.24507,2.57021,-0.829199,20,4
25.5887,10.526,4.38236,15,12
7.07788,2.91007,-0.66953,20,5
50.7145,20.8513,10.6586,16,13
8.1339,3.34259,-0.460871,50,6
47.7618,19.6178,11.9206,21,14
9.56754,3.92784,-0.180528,100,7
47.8748,19.6447,13.866,19,15
11.5636,4.72608,0.21805,37,8
0.526775,0.215187,-0.131371,14,1
14.8092,6.04655,0.838317,25,9
0.694369,0.283367,-0.145778,43,2
18.2712,7.4526,1.72638,3,10
5.60834,2.28644,-0.959256,27,3
23.3378,9.51447,3.09451,17,11
6.26871,2.55439,-0.831149,24,4
23.9312,9.74666,4.09264,2,12
7.08061,2.88234,-0.668833,21,5
8.1535,3.31577,-0.461289,50,6
34.3406,13.9582,8.55804,12,14
9.546,3.88011,-0.179865,100,7
35.7976,14.5432,10.3533,9,15
11.5845,4.68517,0.21812,43,8
0.52756,0.213255,-0.131371,14,1
14.8016,5.98026,0.836643,24,9
0.713557,0.288296,-0.149594,40,2
18.2342,7.36342,1.72045,38,10
5.61812,2.26759,-0.959569,31,3
23.3412,9.41625,3.09036,17,11
6.28355,2.53362,-0.83188,29,4
24.1335,9.72608,4.12111,11,12
7.08139,2.85388,-0.667962,21,5
35.9806,14.4933,7.54001,7,13
8.1502,3.28132,-0.460452,50,6
34.3855,13.8368,8.55714,12,14
9.57128,3.84957,-0.180074,100,7
11.599,4.64396,0.218085,33,8
0.510209,0.204172,-0.126872,15,1
14.8095,5.92336,0.83591,29,9
0.69633,0.278512,-0.145778,43,2
17.9934,7.19322,1.69535,14,10
5.6205,2.24576,-0.958631,26,3
23.4016,9.34576,3.09402,8,11
6.27576,2.50505,-0.829687,23,4
23.8627,9.52027,4.06917,10,12
7.09316,2.82988,-0.668136,21,5
34.5867,13.7917,7.23777,14,13
8.15233,3.24915,-0.459928,65,6
34.3937,13.7008,8.54724,12,14
9.60138,3.8228,-0.180388,100,7
35.6781,14.1981,10.2891,9,15
11.604,4.59902,0.217876,38,8
0.514542,0.203826,-0.127772,14,1
14.8356,5.87383,0.836224,25,9
0.697298,0.27608,-0.145778,43,2
18.1666,7.18902,1.7093,45,10
5.61544,2.22105,-0.95644,27,3
18.374,7.26365,2.42593,10,11
6.28632,2.48385,-0.82993,27,4
23.4347,9.25481,3.99064,18,12
7.11597,2.81023,-0.669356,16,5
34.7296,13.7084,7.25761,14,13
8.1599,3.21921,-0.459719,54,6
34.5682,13.6307,8.57873,12,14
9.63141,3.79586,-0.180702,100,7
35.6772,14.0536,10.2746,9,15
11.6479,4.56944,0.218399,30,8
0.511622,0.200606,-0.126872,15,1
14.8356,5.81399,0.835073,27,9
0.701913,0.275077,-0.146541,42,2
17.9727,7.03982,1.68873,63,10
5.63052,2.20431,-0.957692,26,3
24.2944,9.50621,3.20321,9,11
6.28386,2.45756,-0.828468,31,4
23.3068,9.11037,3.96342,25,12
7.12388,2.78465,-0.669182,15,5
34.7443,13.5742,7.25074,14,13
8.15621,3.1849,-0.458882,72,6
35.0041,13.6616,8.67501,12,14
9.6148,3.75058,-0.180144,100,7
35.7566,13.9409,10.2834,19,15
11.66,4.5273,0.21833,32,8
0.530486,0.205869,-0.131371,14,1
14.8111,5.74485,0.83256,29,9
0.688226,0.266946,-0.143488,44,2
18.1049,7.0188,1.69884,77,10
5.6437,2.18678,-0.958631,25,3
22.5152,8.71953,2.96459,48,11
6.29055,2.43489,-0.828224,28,4
23.4047,9.05462,3.97469,26,12
7.1317,2.75905,-0.669007,16,5
34.9233,13.5038,7.27822,7,13
8.18963,3.16504,-0.460138,58,6
35.1316,13.5702,8.69481,12,14
9.6241,3.71557,-0.180074,100,7
46.1666,17.8142,13.2593,18,15
11.6776,4.4873,0.218365,33,8
0.509371,0.195631,-0.125973,15,1
14.8497,5.70026,0.833607,30,9
0.685488,0.263134,-0.142725,45,2
18.0047,6.90775,1.68716,42,10
5.64208,2.16353,-0.957066,37,3
22.6438,8.67853,2.97751,56,11
6.2953,2.4115,-0.827737,28,4
23.7461,9.09153,4.02725,10,12
7.12826,2.72915,-0.667787,22,5
8.21182,3.14072,-0.460766,54,6
35.2151,13.4614,8.70381,12,14
9.62207,3.67624,-0.179795,100,7
11.7007,4.44935,0.218504,35,8
0.539197,0.204929,-0.133171,14,1
14.9815,5.69095,0.839887,8,9
0.701085,0.266317,-0.145778,43,2
18.2652,6.93468,1.7093,31,10
5.6496,2.14382,-0.957066,33,3
24.6711,9.35689,3.23977,28,11
6.32224,2.39655,-0.830174,34,4
23.8572,9.03867,4.0407,13,12
7.13215,2.70213,-0.667264,21,5
46.0513,17.4381,9.57174,11,13
8.22087,3.11133,-0.460661,50,6
34.8864,13.1964,8.61113,12,14
9.64606,3.64687,-0.180004,100,7
11.6712,4.39158,0.217666,40,8
0.532613,0.200302,-0.131371,14,1
0.705686,0.26525,-0.146541,42,2
17.9928,6.75946,1.68158,66,10
5.66075,2.12548,-0.957692,28,3
22.6295,8.49234,2.96776,16,11
6.33243,2.37516,-0.830418,45,4
23.6185,8.8541,3.99502,13,12
7.15273,2.68142,-0.66831,21,5
26.378,9.88333,5.47546,8,13
8.20736,3.07351,-0.4593,58,6
34.9615,13.0855,8.61832,12,14
9.66623,3.61598,-0.180144,100,7
46.4592,17.3704,13.2904,18,15
11.6621,4.34174,0.217213,32,8
0.555226,0.206597,-0.13677,13,1
16.9509,6.30399,0.947804,24,9
0.702927,0.261416,-0.145778,43,2
18.0443,6.70703,1.6842,66,10
5.66628,2.10502,-0.957379,27,3
24.8549,9.22864,3.25537,19,11
6.32579,2.34752,-0.828468,29,4
23.753,8.81008,4.01254,13,12
7.15645,2.65435,-0.667787,28,5
36.4007,13.4939,7.54611,7,13
8.21055,3.04207,-0.458882,54,6
35.5954,13.1813,8.76319,12,14
9.63941,3.56764,-0.179411,100,7
46.6101,17.2416,13.3162,18,15
11.6472,4.28995,0.216654,41,8
0.497423,0.183115,-0.122373,15,1
17.2052,6.3303,0.960784,41,9
0.70015,0.257605,-0.145015,43,2
15.7563,5.79407,1.46875,21,10
5.67545,2.08591,-0.957692,27,3
18.6354,6.84542,2.43763,57,11
6.32649,2.32268,-0.827493,27,4
23.103,8.47737,3.89772,20,12
7.17128,2.63141,-0.66831,26,5
46.7843,17.1577,9.68623,11,13
8.23237,3.01751,-0.45951,61,6
35.4545,12.9886,8.7173,12,14
9.64617,3.53191,-0.179306,25,7
46.6773,17.0815,13.3183,18,15
11.6771,4.25474,0.216933,41,8
0.534681,0.194714,-0.131371,14,1
17.0621,6.21009,0.951572,23,9
0.693666,0.252474,-0.143488,44,2
17.1845,6.25124,1.59983,40,10
5.68641,2.06744,-0.958318,35,3
24.5754,8.93015,3.21053,9,11
6.33456,2.30059,-0.827493,27,4
23.4537,8.51328,3.95185,27,12
7.17338,2.60239,-0.667613,18,5
22.7816,8.2648,4.71069,2,13
8.2391,2.98739,-0.4593,65,6
36.2582,13.1396,8.90356,13,14
9.69416,3.51115,-0.179969,21,7
50.0681,18.1244,14.2677,20,15
11.7239,4.22548,0.217527,35,8
0.542691,0.195488,-0.133171,14,1
14.761,5.31429,0.822198,11,9
0.70567,0.253918,-0.145778,43,2
15.6736,5.63668,1.45724,25,10
5.67721,2.04057,-0.955502,31,3
23.3772,8.40251,3.05015,8,11
6.3631,2.28584,-0.830174,28,4
17.8295,6.40145,3.00041,6,12
7.17867,2.576,-0.667264,18,5
22.747,8.15805,4.69734,8,13
8.24999,2.95717,-0.4593,61,6
35.5722,12.7437,8.7236,12,14
9.70636,3.4773,-0.179969,100,7
11.7355,4.18114,0.217457,35,8
0.521374,0.185653,-0.127772,14,1
14.9967,5.33715,0.834235,8,9
0.706552,0.251453,-0.145778,43,2
15.7139,5.58928,1.45916,21,10
5.68989,2.02272,-0.95644,32,3
18.4098,6.54096,2.39888,10,11
6.3677,2.26118,-0.829687,24,4
23.3818,8.29832,3.92963,10,12
7.18431,2.54833,-0.666916,18,5
8.25273,2.92569,-0.458882,58,6
36.4688,12.9215,8.93236,13,14
9.74354,3.45037,-0.180423,100,7
11.7764,4.14945,0.217946,35,8
0.525696,0.185127,-0.128672,14,1
14.8457,5.2251,0.824815,10,9
0.700061,0.246256,-0.144252,44,2
17.2924,6.07945,1.60367,27,10
5.70285,2.00382,-0.957379,30,3
24.3732,8.56404,3.17202,9,11
6.36806,2.2363,-0.828712,32,4
22.2308,7.80255,3.73159,2,12
7.19504,2.5239,-0.66709,28,5
22.7529,7.97688,4.68665,5,13
8.25021,2.8908,-0.458149,72,6
9.73288,3.40841,-0.180004,100,7
46.6917,16.342,13.2552,18,15
11.8123,4.1135,0.21833,43,8
0.511647,0.178074,-0.125073,15,1
14.8214,5.15555,0.822407,30,9
0.689791,0.23994,-0.141962,46,2
17.3079,6.0171,1.60314,23,10
5.71914,1.98714,-0.958943,26,3
22.7917,7.91461,2.9624,16,11
6.36684,2.2097,-0.827493,31,4
23.5619,8.17287,3.94997,20,12
7.20193,2.49812,-0.666916,25,5
35.7245,12.3847,7.34958,14,13
8.28289,2.86983,-0.459405,65,6
21.8618,7.57034,5.34124,11,14
9.73775,3.37009,-0.179865,100,7
46.6161,16.1241,13.2169,18,15
11.8399,4.07679,0.218574,38,8
0.527007,0.18136,-0.128672,14,1
0.694337,0.238809,-0.142725,45,2
18.5818,6.38734,1.71906,31,10
5.72231,1.96588,-0.958318,26,3
24.6329,8.45775,3.19785,9,11
6.38953,2.19261,-0.829443,33,4
19.4963,6.6865,3.26447,5,12
7.20118,2.46973,-0.666044,28,5
8.28719,2.83896,-0.459091,65,6
21.7978,7.46304,5.31919,63,14
9.77216,3.34386,-0.180283,100,7
11.8237,4.02514,0.218015,33,8
0.538706,0.183286,-0.131371,14,1
0.684014,0.232591,-0.140435,47,2
19.8452,6.74429,1.83376,32,10
5.7254,1.94462,-0.957692,26,3
23.463,7.9646,3.04235,8,11
6.40655,2.17348,-0.830662,30,4
21.4502,7.27301,3.58736,14,12
7.20976,2.44458,-0.666044,28,5
43.4429,14.7215,8.91612,10,13
8.29705,2.81001,-0.459091,65,6
9.77051,3.30524,-0.180039,100,7
11.8263,3.98001,0.217806,35,8
0.520872,0.175191,-0.126872,15,1
0.699709,0.235207,-0.143488,44,2
20.0953,6.75111,1.85467,20,10
5.74151,1.92777,-0.959256,30,3
16.3241,5.47782,2.11419,18,11
6.4028,2.14732,-0.829199,22,4
21.7246,7.28158,3.62897,25,12
7.23525,2.42509,-0.667613,23,5
43.3079,14.5074,8.87796,10,13
8.28976,2.77533,-0.458149,72,6
21.8493,7.31068,5.31919,51,14
9.81802,3.28316,-0.180702,100,7
21.9593,7.33898,6.20389,15,15
11.8402,3.9387,0.217806,33,8
0.517782,0.172143,-0.125973,15,1
0.707978,0.235239,-0.145015,32,2
15.5769,5.17269,1.43598,12,10
5.74821,1.90772,-0.959256,33,3
16.3243,5.41456,2.11175,27,11
6.41742,2.12857,-0.830174,28,4
16.2416,5.38398,2.71007,39,12
7.24178,2.3992,-0.667439,21,5
43.4738,14.3944,8.90162,20,13
8.28613,2.74198,-0.457416,65,6
21.8217,7.22105,5.3066,5,14
9.81556,3.24619,-0.180458,100,7
21.9175,7.24428,6.18526,15,15
11.8494,3.89817,0.217736,35,8
0.522052,0.171642,-0.126872,15,1
14.2832,4.69607,0.78797,43,9
0.705024,0.231664,-0.144252,44,2
19.4442,6.3854,1.79053,15,10
5.75638,1.88926,-0.959569,33,3
16.461,5.39937,2.12711,9,11
6.41879,2.10543,-0.829443,31,4
16.3551,5.36147,2.72603,17,12
7.25348,2.37641,-0.667787,21,5
21.005,6.87767,4.29626,28,13
8.28568,2.71138,-0.456893,76,6
47.5322,15.5543,11.5463,20,14
9.77686,3.19746,-0.17955,100,7
21.8753,7.14996,6.16662,21,15
11.8622,3.85886,0.217736,35,8
0.548564,0.178345,-0.133171,14,1
14.2539,4.63137,0.785458,42,9
0.69832,0.226898,-0.142725,45,2
15.6165,5.07112,1.4365,15,10
5.76261,1.87016,-0.959569,33,3
16.4958,5.35026,2.1293,4,11
6.43932,2.0873,-0.831149,32,4
7.26132,2.35234,-0.667787,20,5
15.7082,5.08572,3.20941,9,13
8.29843,2.68512,-0.457102,68,6
9.76703,3.15655,-0.179166,100,7
46.9953,15.1791,13.2329,18,15
11.8623,3.81314,0.217492,37,8
0.53063,0.170469,-0.128672,14,1
0.691631,0.222058,-0.141199,46,2
14.3517,4.60507,1.31867,11,10
5.74465,1.84219,-0.955502,36,3
15.8168,5.0691,2.03936,35,11
6.44845,2.06541,-0.831393,33,4
16.236,5.19718,2.70006,27,12
7.26759,2.32638,-0.667613,28,5
15.9933,5.11641,3.26398,4,13
8.35151,2.67013,-0.45951,54,6
9.74941,3.11331,-0.178643,100,7
52.1054,16.629,14.6554,20,15
11.8755,3.7717,0.217492,36,8
0.538651,0.170974,-0.130472,14,1
0.699926,0.221895,-0.142725,45,2
14.3867,4.56096,1.32041,66,10
5.76234,1.82571,-0.957379,36,3
15.7171,4.9767,2.02425,70,11
6.4632,2.04528,-0.832368,38,4
16.2691,5.14524,2.70256,43,12
7.29127,2.30453,-0.669007,25,5
16.0756,5.07786,3.27695,33,13
8.36314,2.6401,-0.459614,54,6
19.0592,6.01665,4.6142,14,14
9.74497,3.07445,-0.178364,100,7
53.3313,16.8153,14.9836,21,15
11.8626,3.71978,0.217003,41,8
0.520679,0.163171,-0.125973,15,1
13.784,4.31699,0.756987,40,9
0.704482,0.220501,-0.143488,44,2
14.4641,4.52725,1.32599,23,10
5.769,1.80458,-0.957379,41,3
15.7295,4.91728,2.02352,48,11
6.44223,2.0127,-0.828712,32,4
16.1653,5.0473,2.68223,52,12
7.30727,2.28016,-0.669705,27,5
16.0716,5.01189,3.27237,27,13
8.36704,2.60764,-0.4593,72,6
22.8355,7.11684,5.5221,50,14
9.77717,3.04525,-0.178748,100,7
52.0386,16.1983,14.6036,20,15
11.8456,3.66682,0.216445,43,8
0.50638,0.156654,-0.122373,15,1
13.7291,4.24461,0.753114,36,9
0.697744,0.215721,-0.141962,34,2
14.3988,4.44892,1.31849,23,10
5.78312,1.78575,-0.958631,42,3
15.8157,4.88067,2.03229,48,11
6.46663,1.99434,-0.830905,38,4
16.1742,4.98511,2.68066,28,12
7.29424,2.24818,-0.667787,38,5
16.0308,4.93784,3.26054,14,13
8.40282,2.58665,-0.460766,58,6
19.0227,5.85213,4.59485,18,14
9.79782,3.01233,-0.178922,100,7
52.4965,16.13,14.7154,20,15
11.8334,3.61784,0.215991,45,8
0.551652,0.168552,-0.133171,14,1
13.5585,4.14009,0.742961,26,9
0.690983,0.210991,-0.140435,47,2
19.4222,5.92686,1.77658,30,10
5.7931,1.76671,-0.959256,35,3
18.8709,5.7514,2.42228,10,11
6.46026,1.96771,-0.829199,45,4
16.1424,4.91366,2.67253,46,12
7.29442,2.22038,-0.66709,30,5
8.40797,2.55614,-0.460556,58,6
15.8564,4.81754,3.82597,2,14
9.85611,2.99264,-0.179795,100,7
21.8747,6.6377,6.12521,18,15
11.8383,3.5742,0.215851,50,8
0.544774,0.164373,-0.131371,14,1
13.2287,3.98894,0.72412,34,9
0.687956,0.207444,-0.139672,47,2
18.054,5.44053,1.64968,13,10
5.78788,1.74306,-0.957379,36,3
16.4881,4.96236,2.11419,4,11
6.47469,1.94743,-0.830174,30,4
16.3297,4.90847,2.70068,55,12
7.28686,2.19033,-0.665696,32,5
15.67,4.70719,3.1804,22,13
8.40154,2.52219,-0.459719,65,6
15.8395,4.75209,3.81787,42,14
9.88566,2.96396,-0.180144,100,7
21.9607,6.58015,6.14281,12,15
12.05,3.59227,0.219481,47,8
0.534139,0.159132,-0.128672,14,1
13.0875,3.89659,0.715642,39,9
0.707492,0.210644,-0.143488,33,2
19.7591,5.87919,1.8036,15,10
5.79014,1.72172,-0.956753,37,3
16.0677,4.77473,2.05813,13,11
6.49668,1.92934,-0.832124,30,4
16.4016,4.86773,2.70976,12,12
7.30974,2.16941,-0.66709,26,5
15.517,4.60223,3.14606,36,13
8.40647,2.49171,-0.45951,54,6
15.8616,4.69843,3.81922,22,14
9.91703,2.93568,-0.180528,21,7
21.8797,6.47277,6.11382,15,15
12.1955,3.59397,0.221925,51,8
0.530898,0.156352,-0.127772,14,1
13.0805,3.8498,0.714595,20,9
0.704419,0.207188,-0.142725,34,2
19.3991,5.70578,1.76909,39,10
5.8069,1.70686,-0.958631,35,3
14.8979,4.37622,1.90652,16,11
6.48747,1.90445,-0.830174,30,4
16.5173,4.84566,2.72634,6,12
7.29778,2.13955,-0.665347,31,5
15.5887,4.56731,3.15751,31,13
8.42235,2.46606,-0.459928,58,6
16.0035,4.68581,3.84981,28,14
9.91661,2.9017,-0.180353,22,7
21.8369,6.38557,6.09622,18,15
12.3449,3.58888,0.224403,48,8
0.542695,0.157668,-0.130472,14,1
13.1118,3.80685,0.715537,56,9
0.69009,0.200228,-0.139672,47,2
14.6457,4.24943,1.33418,40,10
5.80363,1.68282,-0.957066,45,3
14.9139,4.32159,1.90652,8,11
6.50775,1.88452,-0.83188,33,4
16.2181,4.69339,2.67409,6,12
7.31132,2.11445,-0.66587,28,5
15.7826,4.56138,3.19338,55,13
8.42557,2.43351,-0.459614,50,6
15.8558,4.57954,3.81022,32,14
9.91949,2.86312,-0.180214,100,7
21.7729,6.28032,6.0719,36,15
12.3888,3.55243,0.224962,58,8
0.535776,0.15353,-0.128672,14,1
13.0578,3.7418,0.711874,19,9
0.690785,0.197819,-0.139672,47,2
14.5903,4.17544,1.32773,31,10
5.81925,1.66425,-0.958631,41,3
16.0118,4.5762,2.04472,56,11
6.50856,1.86016,-0.831149,32,4
16.7168,4.77454,2.75356,6,12
7.27842,2.07743,-0.662209,32,5
15.7682,4.49765,3.18727,27,13
8.4417,2.40628,-0.460033,54,6
9.94482,2.83285,-0.180493,100,7
22.0493,6.27675,6.14281,12,15
12.3986,3.51078,0.224927,60,8
0.540033,0.152814,-0.129572,14,1
12.8376,3.63268,0.699208,10,9
0.680102,0.192322,-0.137382,49,2
17.783,5.02537,1.61674,16,10
5.81333,1.64172,-0.956753,37,3
16.8503,4.75547,2.14978,23,11
6.52234,1.84072,-0.832124,37,4
16.3523,4.61183,2.69099,28,12
7.34855,2.07112,-0.667962,28,5
15.7981,4.44958,3.19033,32,13
8.44387,2.37664,-0.459719,61,6
15.9673,4.49421,3.82957,26,14
9.9503,2.79878,-0.180423,100,7
22.0774,6.20568,6.14488,6,15
12.4159,3.47126,0.225031,52,8
0.548044,0.15312,-0.131371,14,1
13.235,3.69527,0.720143,14,9
0.699645,0.195345,-0.141199,46,2
18.003,5.02313,1.63522,30,10
5.81494,1.62137,-0.956128,42,3
18.3327,5.10824,2.33672,45,11
6.53829,1.8206,-0.833343,31,4
16.2808,4.53037,2.67659,63,12
7.33618,2.0414,-0.666219,28,5
15.7712,4.3856,3.18193,50,13
8.4517,2.34863,-0.459719,58,6
15.8326,4.39673,3.79357,50,14
9.9735,2.76777,-0.180667,100,7
18.8449,5.22615,5.24005,5,15
12.6246,3.48214,0.228592,60,8
0.526031,0.144992,-0.125973,15,1
13.3672,3.68193,0.726632,4,9
0.696537,0.191858,-0.140435,47,2
14.4743,3.98418,1.31344,28,10
5.82437,1.60211,-0.956753,41,3
16.3291,4.48859,2.07933,45,11
6.53694,1.79567,-0.832368,48,4
16.2165,4.45154,2.66345,53,12
7.38361,2.02685,-0.669879,30,5
16.0231,4.39544,3.22963,16,13
8.43288,2.31173,-0.458254,58,6
16.0114,4.38623,3.83272,23,14
9.95996,2.7266,-0.180248,100,7
18.945,5.18277,5.26283,5,15
12.3723,3.36612,0.22381,45,8
0.526534,0.143155,-0.125973,15,1
0.700992,0.190455,-0.141199,46,2
14.4766,3.9305,1.31239,37,10
5.82993,1.58177,-0.956753,42,3
16.293,4.41755,2.07275,67,11
6.5221,1.76713,-0.829687,30,4
16.1118,4.36239,2.64374,45,12
7.38295,1.99899,-0.669182,25,5
15.701,4.24822,3.16171,23,13
8.42933,2.27914,-0.457626,65,6
16.0755,4.34353,3.84441,39,14
9.95976,2.68922,-0.180074,25,7
27.2778,7.36012,7.57046,10,15
12.6351,3.39029,0.228347,70,8
0.534559,0.143335,-0.127772,14,1
12.7771,3.42362,0.693242,14,9
0.690274,0.184958,-0.138909,48,2
5.84114,1.56295,-0.957692,38,3
16.3083,4.36064,2.07275,13,11
6.55507,1.75153,-0.833099,34,4
16.2395,4.33619,2.6622,38,12
7.40336,1.9768,-0.670402,21,5
15.6664,4.18022,3.15178,36,13
8.44496,2.25176,-0.458044,61,6
16.2186,4.32151,3.87501,21,14
9.98841,2.65958,-0.180423,100,7
27.294,7.26237,7.56787,5,15
12.5076,3.30933,0.225834,32,8
0.531288,0.140472,-0.126872,15,1
13.2524,3.50145,0.718363,63,9
0.698508,0.184554,-0.140435,35,2
15.1124,3.99006,1.36747,33,10
5.84083,1.54103,-0.956753,41,3
16.8033,4.43022,2.13369,4,11
6.55347,1.72661,-0.832124,34,4
16.2393,4.27545,2.6597,17,12
7.42404,1.9532,-0.671622,20,5
8.46049,2.2243,-0.458463,65,6
15.8793,4.17178,3.79043,40,14
9.99763,2.6247,-0.180423,100,7
27.336,7.17147,7.57253,10,15
12.6043,3.28786,0.22737,32,8
0.531775,0.138616,-0.126872,15,1
13.3361,3.47379,0.722236,52,9
0.69918,0.181992,-0.140435,35,2
15.0518,3.91508,1.36068,3,10
5.8407,1.51813,-0.955815,38,3
16.8052,4.36804,2.13198,50,11
6.55369,1.70222,-0.831393,38,4
18.9845,4.92741,3.10648,18,12
7.42695,1.92628,-0.671273,20,5
8.46859,2.19328,-0.458463,58,6
16.0963,4.1658,3.83856,31,14
10.0222,2.59379,-0.180702,100,7
16.2923,4.21348,4.50915,8,15
12.4632,3.20233,0.224612,35,8
0.513405,0.13182,-0.122373,15,1
13.0779,3.3554,0.707582,29,9
0.696008,0.178575,-0.139672,35,2
13.6893,3.50971,1.23639,36,10
5.84979,1.49871,-0.95644,38,3
19.7519,5.05673,2.50344,16,11
6.53489,1.6718,-0.828224,36,4
19.0426,4.86806,3.11305,18,12
7.43203,1.89855,-0.671099,25,5
16.0505,4.10018,3.22009,28,13
8.46845,2.16173,-0.458044,68,6
16.226,4.13896,3.86601,26,14
10.0413,2.55951,-0.180877,100,7
16.2927,4.14993,4.505,5,15
12.5383,3.17501,0.225764,32,8
0.536532,0.135764,-0.127772,14,1
13.1418,3.32295,0.710408,63,9
0.689044,0.174099,-0.138146,24,2
13.5996,3.43367,1.22715,26,10
5.86674,1.48016,-0.958318,38,3
16.1547,4.07576,2.0457,13,11
6.52721,1.64558,-0.826518,33,4
16.3471,4.11825,2.67002,13,12
7.42316,1.8687,-0.669705,27,5
16.2482,4.08729,3.25673,20,13
8.48794,2.1336,-0.458672,65,6
16.396,4.11839,3.9029,28,14
10.0405,2.52201,-0.180702,21,7
27.72,6.95763,7.65794,5,15
12.3791,3.08645,0.222693,43,8
0.548372,0.136623,-0.130472,14,1
13.1655,3.27766,0.711036,23,9
0.682027,0.169796,-0.136619,37,2
5.8757,1.46062,-0.958943,45,3
16.0481,3.98638,2.03034,21,11
6.53898,1.62308,-0.827249,40,4
16.2816,4.03833,2.65688,36,12
7.4277,1.8423,-0.66953,32,5
16.1137,3.99373,3.22696,33,13
8.53411,2.11356,-0.460766,58,6
10.0245,2.47895,-0.180248,21,7
28.051,6.93153,7.74231,10,15
11.78,2.89345,0.211733,28,8
0.54506,0.133779,-0.129572,14,1
13.2991,3.26165,0.717631,54,9
0.705496,0.173026,-0.141199,34,2
5.88077,1.4401,-0.958943,38,3
14.7739,3.61515,1.86753,24,11
6.54267,1.59977,-0.827005,40,4
16.3032,3.98335,2.65813,27,12
7.43022,1.81542,-0.669182,26,5
16.0818,3.92627,3.2178,39,13
8.54919,2.08565,-0.461184,58,6
18.4426,4.49583,4.3825,26,14
10.0039,2.43684,-0.179725,23,7
28.0788,6.83448,7.74335,10,15
12.0447,2.91391,0.216305,25,8
0.515217,0.124549,-0.122373,15,1
13.522,3.26632,0.72904,24,9
0.687012,0.165952,-0.137382,37,2
13.5167,3.26255,1.21652,49,10
5.88768,1.42003,-0.959256,36,3
14.7498,3.55473,1.86289,56,11
6.55787,1.57925,-0.828224,45,4
19.7644,4.75596,3.21973,9,12
7.45426,1.79236,-0.670751,28,5
16.1584,3.88526,3.2304,40,13
8.55642,2.0558,-0.461184,58,6
16.3757,3.93146,3.88805,34,14
9.98902,2.39631,-0.179306,100,7
28.1137,6.73914,7.74645,16,15
11.6735,2.78102,0.209464,22,8
0.515648,0.12275,-0.122373,15,1
13.3565,3.17704,0.719515,104,9
0.676156,0.160709,-0.135093,38,2
13.548,3.21759,1.21826,31,10
5.89669,1.39935,-0.959882,37,3
14.8934,3.53438,1.87947,33,11
6.58652,1.56184,-0.831149,37,4
16.3537,3.8749,2.66189,15,12
7.46047,1.76633,-0.670751,26,5
16.312,3.859,3.25825,37,13
8.55613,2.02258,-0.460766,58,6
9.95646,2.35177,-0.178573,21,7
27.5542,6.50339,7.58599,10,15
0.531274,0.124413,-0.125973,15,1
0.688182,0.161032,-0.137382,37,2
13.5611,3.17073,1.21844,28,10
5.9227,1.3837,-0.963324,38,3
14.9449,3.4888,1.88434,45,11
6.60767,1.5413,-0.833099,37,4
7.47047,1.74118,-0.671099,25,5
16.356,3.80917,3.26436,33,13
8.5748,1.99542,-0.461394,58,6
28.3406,6.58984,6.71749,29,14
9.98449,2.31979,-0.178922,100,7
27.5967,6.40672,7.59116,10,15
0.565886,0.130437,-0.134071,14,1
0.704046,0.162153,-0.140435,47,2
13.6245,3.13545,1.22314,49,10
5.93134,1.36391,-0.963949,52,3
14.1464,3.25035,1.78222,65,11
6.58205,1.51112,-0.829199,34,4
15.7437,3.61158,2.55833,1,12
7.46679,1.71287,-0.670228,28,5
16.3558,3.74898,3.26169,47,13
8.58951,1.96726,-0.461813,65,6
28.1563,6.4435,6.66845,38,14
10.0686,2.30231,-0.180283,99,7
27.7074,6.33058,7.61549,21,15
0.53213,0.120702,-0.125973,15,1
12.1761,2.75963,0.654304,43,9
0.68546,0.155356,-0.136619,37,2
14.2435,3.2256,1.2777,22,10
5.92258,1.34014,-0.961759,42,3
14.1325,3.19526,1.77905,19,11
6.62988,1.49776,-0.834561,34,4
15.7659,3.55877,2.55989,16,12
7.45329,1.6824,-0.668485,22,5
16.3534,3.68841,3.25864,49,13
8.59632,1.93727,-0.461813,65,6
28.6273,6.44619,6.77463,40,14
11.091,2.4954,-0.198434,21,7
27.7519,6.23891,7.6217,5,15
0.543959,0.12139,-0.128672,14,1
12.0998,2.69798,0.649699,129,9
0.693663,0.154671,-0.138146,36,2
15.1201,3.36866,1.35527,33,10
5.91951,1.31775,-0.960508,36,3
14.0718,3.12996,1.77003,31,11
6.64863,1.47762,-0.836268,33,4
16.4261,3.64761,2.66502,15,12
7.43772,1.65163,-0.666567,26,5
16.2148,3.5977,3.22849,32,13
8.58353,1.90292,-0.460766,65,6
28.5659,6.3277,6.75483,40,14
11.2031,2.47957,-0.200284,24,7
27.6623,6.11738,7.59116,20,15
11.7851,2.58898,0.210616,41,8
0.529153,0.116148,-0.125073,15,1
12.2575,2.68824,0.657654,71,9
0.682693,0.149725,-0.135856,37,2
15.1454,3.31885,1.35649,66,10
5.92793,1.29792,-0.961133,37,3
14.2359,3.11433,1.78929,56,11
6.63824,1.45101,-0.834318,31,4
14.4548,3.15696,2.34339,22,12
7.44567,1.62478,-0.666741,21,5
22.4362,4.89598,4.46379,21,13
8.60183,1.8755,-0.461394,61,6
28.5593,6.22172,6.74808,9,14
10.0667,2.19122,-0.17983,45,7
27.5494,5.99164,7.55441,20,15
11.542,2.49335,0.206113,48,8
0.533365,0.115123,-0.125973,15,1
13.2078,2.8484,0.708106,44,9
0.698591,0.15053,-0.138909,24,2
5.9172,1.27286,-0.958631,36,3
14.4757,3.11389,1.81805,52,11
6.6452,1.42825,-0.834561,34,4
7.47273,1.60338,-0.668659,21,5
16.7085,3.582,3.3216,18,13
8.62036,1.84647,-0.462022,65,6
28.9116,6.18756,6.82591,10,14
10.0704,2.15523,-0.17976,30,7
27.608,5.90351,7.56476,20,15
11.5862,2.4585,0.206741,60,8
0.533783,0.113167,-0.125973,15,1
13.4057,2.8397,0.718154,42,9
0.699112,0.148091,-0.138909,36,2
13.202,2.79414,1.18061,12,10
5.91774,1.25138,-0.958005,42,3
14.4812,3.05957,1.81732,44,11
6.65622,1.40511,-0.835293,33,4
7.46686,1.57351,-0.667613,25,5
16.598,3.49774,3.29718,7,13
8.63067,1.81719,-0.462231,68,6
33.5193,7.05142,7.90793,23,14
10.0587,2.11419,-0.179411,100,7
27.7031,5.81778,7.58495,25,15
10.1442,2.11553,0.180877,11,8
0.541806,0.112893,-0.127772,14,1
11.8924,2.47578,0.636615,11,9
0.688117,0.143128,-0.136619,37,2
13.2707,2.75789,1.18584,55,10
5.91455,1.22808,-0.956753,42,3
14.4762,3.00579,1.81537,20,11
6.67275,1.38429,-0.836755,33,4
14.4103,2.98685,2.33087,16,12
7.49962,1.5531,-0.670053,28,5
14.8958,3.08206,2.95678,8,13
8.65096,1.78838,-0.462964,72,6
33.5163,6.92261,7.90118,11,14
10.0581,2.07745,-0.179271,99,7
28.0922,5.79717,7.68589,5,15
10.1789,2.08574,0.181365,13,8
0.519287,0.106311,-0.122373,15,1
11.8755,2.42905,0.635254,13,9
0.703976,0.143993,-0.139672,35,2
5.92246,1.20925,-0.957379,46,3
14.4788,2.95365,1.81439,56,11
6.66198,1.35782,-0.834805,42,4
14.5155,2.95584,2.3462,32,12
7.51254,1.52981,-0.670751,25,5
8.65489,1.75928,-0.462859,61,6
22.579,4.58555,5.31919,5,14
9.96538,2.02205,-0.177491,97,7
11.6819,2.35125,0.207998,26,8
0.546402,0.109876,-0.128672,14,1
13.517,2.71569,0.72255,48,9
0.673677,0.135348,-0.133566,26,2
12.1483,2.43851,1.08404,4,10
5.94214,1.19167,-0.959882,41,3
14.4696,2.89919,1.81195,68,11
6.63553,1.32832,-0.830905,41,4
16.1896,3.23793,2.61496,27,12
7.52174,1.50436,-0.671099,36,5
14.7855,2.95444,2.93083,16,13
8.65314,1.7275,-0.462441,68,6
22.4592,4.47964,5.28725,5,14
10.0724,2.00718,-0.179271,9,7
11.8431,2.34069,0.21072,56,8
0.554429,0.109479,-0.130472,14,1
13.2403,2.61204,0.707268,33,9
0.693407,0.136795,-0.137382,37,2
12.1724,2.39917,1.08544,51,10
5.95596,1.17283,-0.961446,45,3
14.7543,2.90269,1.84632,48,11
6.65766,1.30859,-0.833099,34,4
14.6927,2.88527,2.37155,40,12
7.5504,1.4827,-0.673191,30,5
14.6763,2.87937,2.90717,16,13
8.6748,1.70036,-0.463278,65,6
22.6067,4.42706,5.31829,23,14
11.0037,2.15285,-0.195711,21,7
33.9417,6.63449,9.26676,8,15
11.8001,2.28944,0.209813,23,8
0.573939,0.111251,-0.134971,14,1
13.2807,2.57189,0.708943,14,9
0.670751,0.129895,-0.132803,26,2
12.1788,2.35629,1.08526,54,10
5.96583,1.15316,-0.962385,41,3
14.7916,2.85644,1.84973,32,11
6.68363,1.28949,-0.83578,33,4
14.6445,2.82275,2.36216,52,12
7.55162,1.45558,-0.672842,30,5
22.6598,4.36358,4.48554,21,13
8.69244,1.67233,-0.463906,72,6
14.8504,2.85436,3.49124,2,14
10.0017,1.92059,-0.17777,71,7
11.1087,2.11508,0.197387,7,8
0.539865,0.102692,-0.126872,15,1
0.694345,0.131951,-0.137382,24,2
14.021,2.66197,1.24859,71,10
5.97564,1.13343,-0.963324,33,3
14.8678,2.81736,1.85802,72,11
6.69784,1.26799,-0.836999,34,4
14.6679,2.77418,2.36435,30,12
7.5684,1.43144,-0.673888,30,5
15.022,2.83845,2.97166,15,13
8.70608,1.64346,-0.464325,65,6
14.573,2.74833,3.42375,24,14
10.1007,1.90307,-0.179411,18,7
55.8352,10.5098,15.2237,21,15
0.521063,0.097232,-0.122373,15,1
0.702521,0.130966,-0.138909,36,2
13.2644,2.47038,1.18044,15,10
5.98539,1.11365,-0.964262,31,3
14.9244,2.77415,1.86387,60,11
6.69442,1.24316,-0.836024,37,4
14.5318,2.69594,2.34089,37,12
7.58119,1.40646,-0.674585,30,5
15.0087,2.7817,2.96708,11,13
8.6882,1.6087,-0.463069,65,6
14.6304,2.70631,3.435,54,14
10.127,1.87144,-0.17976,9,7
12.0831,2.2133,0.21442,25,8
0.536735,0.0982187,-0.125973,15,1
16.1793,2.95779,0.861973,14,9
0.691387,0.126395,-0.136619,50,2
12.2008,2.22826,1.08509,27,10
6.00284,1.09523,-0.966452,35,3
6.68505,1.21729,-0.834318,31,4
14.3273,2.6063,2.30647,47,12
7.58605,1.37999,-0.674585,28,5
15.1168,2.7472,2.98654,35,13
8.67804,1.5755,-0.462231,65,6
14.5401,2.63714,3.41161,47,14
11.2353,2.03573,-0.199306,100,7
41.517,7.51498,11.3052,12,15
12.2876,2.20646,0.217911,67,8
0.533238,0.0956565,-0.125073,15,1
12.698,2.27558,0.676076,7,9
0.684094,0.122595,-0.135093,25,2
12.2321,2.18988,1.08718,94,10
6.01635,1.07601,-0.968017,30,3
15.8188,2.82631,1.97306,46,11
6.67557,1.19151,-0.832611,30,4
14.3325,2.55558,2.30584,47,12
7.57513,1.3507,-0.673191,33,5
15.1205,2.69338,2.9854,39,13
8.65989,1.541,-0.460975,68,6
14.5185,2.58091,3.40441,49,14
10.443,1.85454,-0.185135,27,7
41.4517,7.3538,11.2804,12,15
12.3031,2.16494,0.21805,60,8
0.522053,0.0917701,-0.122373,15,1
0.684539,0.120087,-0.135093,38,2
12.222,2.14407,1.08561,60,10
6.02396,1.05568,-0.968642,30,3
14.9761,2.62182,1.86679,53,11
6.69338,1.17059,-0.834318,33,4
7.61143,1.32841,-0.67598,30,5
14.933,2.60355,2.94647,15,13
8.65761,1.50788,-0.460556,68,6
15.1168,2.63287,3.54253,36,14
9.8564,1.7149,-0.174629,35,7
41.4314,7.20115,11.2679,12,15
12.2892,2.1161,0.217666,38,8
0.549273,0.0944811,-0.128672,14,1
12.6116,2.16707,0.670633,18,9
0.683039,0.117245,-0.134711,25,2
14.3073,2.45588,1.27003,46,10
6.02974,1.03393,-0.968955,37,3
15.1597,2.59674,1.88849,33,11
6.70545,1.14739,-0.835293,38,4
7.63589,1.30386,-0.677723,28,5
14.4586,2.46626,2.85107,35,13
8.63354,1.47111,-0.458986,76,6
14.6672,2.49921,3.435,38,14
10.3219,1.75695,-0.182762,36,7
41.3623,7.03303,11.2421,12,15
11.656,1.9631,0.206322,13,8
0.545772,0.0918208,-0.127772,14,1
12.6116,2.11951,0.670214,28,9
0.691189,0.116162,-0.136238,25,2
14.4302,2.42255,1.28014,22,10
6.02569,1.01052,-0.967704,32,3
14.3586,2.40538,1.78758,12,11
6.70374,1.12182,-0.834561,30,4
14.6905,2.45572,2.35903,49,12
7.63276,1.27455,-0.677026,28,5
14.6163,2.44068,2.88045,24,13
8.60908,1.43603,-0.457416,72,6
14.7167,2.45217,3.44445,29,14
10.2455,1.70532,-0.181296,99,7
41.7308,6.93842,11.3352,12,15
0.561472,0.0924478,-0.131371,14,1
14.3788,2.36493,0.763686,36,9
0.69161,0.113628,-0.136238,25,2
14.321,2.35029,1.26968,100,10
6.02546,0.987787,-0.967078,28,3
14.4531,2.36937,1.7983,44,11
6.6939,1.09617,-0.832855,29,4
12.999,2.12635,2.08621,52,12
