x, y, z, intensity, ring
8.65665,-0.377958,-0.758081,13,5
9.22048,-0.402575,1.79399,112,13
15.3442,-0.672625,-0.804927,6,6
11.2548,-0.49533,2.60088,32,14
16.4415,-0.726475,-0.287267,15,7
11.8615,-0.526181,3.1814,33,15
10.0739,-0.460978,0.176025,6,8
0.529499,-0.0243222,-0.122373,15,1
8.9462,-0.412503,0.469349,47,9
0.700132,-0.0324051,-0.136238,25,2
8.74911,-0.406476,0.766273,16,10
6.74845,-0.314708,-1.07001,43,3
11.269,-0.525521,1.38517,68,11
6.96997,-0.326257,-0.856742,29,4
8.909,-0.418579,1.4126,93,12
7.5567,-0.356365,-0.661861,12,5
8.75221,-0.414275,1.70316,37,13
11.6269,-0.552379,-0.610028,10,6
12.8412,-0.612317,2.968,44,14
9.6256,-0.458983,-0.168206,94,7
11.7631,-0.562965,3.15552,47,15
10.0322,-0.495923,0.175327,52,8
0.554709,-0.027518,-0.128222,14,1
8.9965,-0.447872,0.47207,60,9
0.71178,-0.0354345,-0.138527,24,2
7.30367,-0.366154,-1.15824,50,3
8.66984,-0.436161,1.06587,40,11
8.93305,-0.452529,1.41667,79,12
8.64577,-0.439489,-0.757383,9,5
8.72326,-0.443427,1.69782,62,13
15.9134,-0.811709,-0.835073,9,6
11.2548,-0.576054,2.60178,22,14
9.55795,-0.490875,-0.167054,100,7
11.624,-0.599016,3.11877,40,15
9.93258,-0.52576,0.173617,38,8
0.550717,-0.0292474,-0.127322,15,1
11.803,-0.6289,0.619448,30,9
0.695962,-0.0372047,-0.135474,25,2
9.67509,-0.518903,0.847677,66,10
7.251,-0.390161,-1.15011,28,3
8.87839,-0.477728,1.09171,17,11
7.77223,-0.419568,-0.9557,28,4
9.02215,-0.488622,1.43106,61,12
7.28141,-0.395621,-0.63798,5,5
8.71569,-0.475076,1.69667,48,13
8.91842,-0.487688,-0.468093,3,6
9.03442,-0.495612,2.0889,45,14
16.4148,-0.900488,-0.286952,39,7
11.6855,-0.643091,3.13585,17,15
12.3965,-0.697413,0.216724,8,8
0.531161,-0.0299755,-0.122823,15,1
9.30033,-0.526482,0.48819,17,9
0.697801,-0.0395019,-0.135856,25,2
9.01101,-0.511682,0.789631,22,10
6.75472,-0.384743,-1.07158,40,3
8.85495,-0.505922,1.08902,37,11
7.55081,-0.432733,-0.928644,10,4
8.94949,-0.514457,1.4198,115,12
7.25825,-0.417237,-0.636063,25,5
8.7024,-0.501777,1.69438,30,13
15.7839,-0.91286,-0.828583,16,6
9.10674,-0.528281,2.10599,24,14
9.6562,-0.561846,-0.168835,100,7
11.8202,-0.689829,3.1726,26,15
0.531053,-0.0318294,-0.122823,15,1
9.75099,-0.586147,0.51195,17,9
0.705498,-0.0424086,-0.137382,24,2
10.4888,-0.632337,0.919319,22,10
6.61334,-0.399855,-1.04936,33,3
8.76199,-0.531301,1.07781,27,11
7.7256,-0.469811,-0.950337,12,4
8.56907,-0.522605,1.35973,81,12
7.17123,-0.437355,-0.628567,15,5
7.09491,-0.435186,-0.372527,21,6
11.6004,-0.713573,2.68322,34,14
16.4243,-1.01318,-0.287232,47,7
11.7695,-0.728103,3.15966,6,15
16.6182,-1.05135,0.290652,17,8
0.530939,-0.0336829,-0.122823,15,1
0.711224,-0.0452449,-0.138527,24,2
9.7091,-0.619352,0.851163,10,10
6.64739,-0.425207,-1.05499,48,3
8.73829,-0.560485,1.07513,90,11
6.46994,-0.416125,-0.796051,1,4
8.74066,-0.563701,1.38726,92,12
7.15964,-0.462993,-0.627696,10,5
7.13919,-0.462922,-0.374935,17,6
11.66,-0.758107,2.69761,42,14
9.60614,-0.626252,-0.168032,23,7
11.8382,-0.773844,3.17882,21,15
9.77474,-0.652665,0.170999,8,8
0.530818,-0.0355361,-0.122823,15,1
10.205,-0.684972,0.536025,66,9
0.703218,-0.0473241,-0.137001,24,2
9.77833,-0.659762,0.857438,42,10
6.96703,-0.4713,-1.10599,26,3
8.66696,-0.586295,1.0666,33,11
6.46449,-0.438438,-0.795563,4,4
8.64601,-0.58791,1.37256,109,12
10.1277,-0.690439,-0.888117,19,5
9.76796,-0.667626,1.90313,11,13
15.7653,-1.0803,-0.828164,19,6
11.6125,-0.797766,2.68727,38,14
17.4622,-1.19964,-0.305522,45,7
14.5452,-1.0018,3.90661,9,15
9.60074,-0.676401,0.167997,20,8
0.565674,-0.0399527,-0.130922,14,1
9.69439,-0.6864,0.509334,69,9
0.697173,-0.0493625,-0.135856,25,2
9.95285,-0.706445,0.872952,48,10
6.65599,-0.473605,-1.05687,100,3
8.81325,-0.62865,1.08488,67,11
6.4866,-0.463827,-0.798488,1,4
8.77975,-0.62934,1.39414,84,12
9.93235,-0.713702,-0.871209,59,5
8.98425,-0.645575,1.75086,27,13
15.8451,-1.14135,-0.83256,13,6
11.5571,-0.834507,2.67512,24,14
7.58699,-0.549167,-0.132778,66,7
9.57638,-0.708287,0.167613,37,8
0.561645,-0.0416388,-0.130022,14,1
10.1242,-0.752354,0.532047,39,9
0.689156,-0.0513341,-0.13433,25,2
14.0133,-1.04629,1.22942,21,10
6.80195,-0.509054,-1.08034,27,3
8.85653,-0.662817,1.09049,65,11
7.20747,-0.540667,-0.887453,12,4
8.85629,-0.665908,1.40666,35,12
9.91192,-0.747021,-0.86964,43,5
9.03272,-0.682345,1.76079,46,13
16.9362,-1.28236,-0.89013,13,6
12.0884,-0.917415,2.79884,10,14
7.57905,-0.575193,-0.132673,59,7
13.9718,-1.08488,0.244613,15,8
0.553717,-0.0430923,-0.128222,14,1
9.59379,-0.746624,0.504309,65,9
0.692888,-0.0540447,-0.135093,25,2
9.42315,-0.736653,0.826934,22,10
6.54806,-0.513044,-1.04029,55,3
8.84811,-0.694807,1.08976,57,11
6.96005,-0.547768,-0.857229,12,4
8.86967,-0.698058,1.40916,10,12
9.94501,-0.784435,-0.872778,33,5
8.96374,-0.70861,1.74781,46,13
16.8659,-1.33626,-0.886676,6,6
9.02222,-0.716402,-0.157979,33,7
15.9115,-1.28859,0.278645,7,8
0.530263,-0.0430365,-0.122823,15,1
9.5752,-0.778813,0.503472,30,9
0.712262,-0.058058,-0.138909,24,2
9.29343,-0.75916,0.815778,22,10
7.18028,-0.586542,-1.14103,40,3
8.85961,-0.725279,1.09146,65,11
7.17582,-0.588699,-0.88404,49,4
7.33106,-0.604011,-0.643558,10,5
8.86351,-0.730271,1.72873,35,13
7.24935,-0.598553,-0.381215,17,6
9.68915,-0.801701,2.24456,55,14
10.1994,-0.845716,-0.178643,33,7
11.79,-0.979676,3.17002,15,15
11.023,-0.931442,0.193093,10,8
0.545643,-0.0462026,-0.126422,15,1
10.6331,-0.902236,0.559262,9,9
0.696416,-0.0590918,-0.135856,25,2
9.04072,-0.768706,0.793815,24,10
6.94791,-0.591981,-1.10443,62,3
8.83922,-0.75468,1.08927,55,11
7.07483,-0.605283,-0.871853,42,4
9.4137,-0.807038,1.49645,49,12
7.21576,-0.619877,-0.633622,38,5
8.52642,-0.732471,1.66347,5,13
7.41636,-0.638414,-0.390112,21,6
9.69989,-0.83669,2.24771,40,14
14.583,-1.26303,3.92214,5,15
9.80061,-0.862614,0.171732,38,8
0.553244,-0.0487918,-0.128222,14,1
0.700106,-0.0619902,-0.136619,25,2
8.98227,-0.796906,0.788934,58,10
6.83354,-0.607473,-1.08659,43,3
8.62694,-0.766898,1.06343,40,11
7.14583,-0.636491,-0.880872,14,4
8.95828,-0.799506,1.42449,22,12
7.22149,-0.645771,-0.634319,13,5
13.157,-1.18117,-0.6923,29,6
11.6454,-1.04752,2.69941,19,14
11.5994,-1.04338,-0.203286,19,7
14.9326,-1.34583,4.01739,6,15
9.60622,-0.880997,0.168381,27,8
0.568586,-0.0522457,-0.131821,14,1
10.6065,-0.97647,0.558215,72,9
0.70966,-0.0653335,-0.138527,24,2
8.9715,-0.827523,0.788237,48,10
6.794,-0.627868,-1.08065,41,3
8.61616,-0.797781,1.06246,28,11
7.19682,-0.667629,-0.887453,27,4
8.90219,-0.827398,1.41604,45,12
7.25478,-0.67556,-0.637457,13,5
9.36348,-0.87192,1.82795,7,13
7.47325,-0.697219,-0.393357,39,6
9.58888,-0.896286,2.22342,16,14
16.3977,-1.53561,-0.287476,31,7
11.8539,-1.11218,3.1902,27,15
9.71655,-0.925329,0.17037,27,8
0.545121,-0.0520091,-0.126422,15,1
9.88929,-0.945263,0.520638,28,9
0.703553,-0.0673727,-0.137382,24,2
8.95452,-0.859068,0.787016,20,10
6.77002,-0.650687,-1.07721,56,3
8.54417,-0.821205,1.05393,61,11
8.84812,-0.853536,1.40791,84,12
7.08381,-0.684589,-0.622641,11,5
7.32155,-0.710144,-0.385507,42,6
9.6849,-0.941081,-0.169847,35,7
10.131,-1.00228,0.1777,52,8
0.51002,-0.0505472,-0.118324,16,1
0.705267,-0.0700221,-0.137764,24,2
8.84045,-0.879277,0.777255,18,10
6.74019,-0.671573,-1.07283,56,3
8.59443,-0.857838,1.06051,23,11
7.08334,-0.707012,-0.874047,12,4
8.73305,-0.873214,1.39008,65,12
7.02785,-0.703951,-0.617934,13,5
8.83738,-0.886762,1.72644,12,13
13.0999,-1.31678,-0.689997,29,6
9.92171,-0.997314,2.30215,22,14
13.0878,-1.31787,-0.229604,18,7
11.9151,-1.20189,3.20884,40,15
10.1336,-1.03648,0.177805,75,8
0.529235,-0.0542244,-0.122823,15,1
9.02828,-0.92502,0.475629,0,9
0.701125,-0.0719596,-0.137001,24,2
6.76347,-0.696551,-1.07689,15,3
8.49478,-0.876352,1.04856,61,11
7.07504,-0.729886,-0.873316,37,4
8.7026,-0.899326,1.3857,93,12
15.2171,-1.58059,-0.801787,16,6
9.33617,-0.971388,-0.163843,51,7
14.7259,-1.53477,3.96718,13,15
10.14,-1.07113,0.17798,57,8
0.552308,-0.0584398,-0.128222,14,1
9.19183,-0.974211,0.484422,6,9
0.696965,-0.073992,-0.136238,25,2
8.87008,-0.941676,0.780393,20,10
5.32915,-0.5667,-0.848813,10,3
8.57671,-0.913558,1.05904,21,11
7.18496,-0.766582,-0.887209,5,4
8.77208,-0.937465,1.39727,61,12
7.33591,-0.785277,-0.645475,11,5
8.8331,-0.947104,1.72682,60,13
15.2592,-1.63882,-0.804299,32,6
11.3853,-1.22277,2.64362,50,14
16.2239,-1.74529,-0.284823,70,7
15.9363,-1.71717,4.29484,11,15
12.9687,-1.41802,0.227719,47,8
0.528844,-0.0579178,-0.122823,15,1
0.692786,-0.0761172,-0.135474,25,2
8.95767,-0.984189,0.788411,20,10
8.50622,-0.937592,1.05076,42,11
7.12093,-0.786158,-0.879653,4,4
8.6822,-0.960057,1.38351,67,12
7.12307,-0.788911,-0.626998,12,5
8.80225,-0.976442,1.72148,39,13
15.2173,-1.69076,-0.802415,6,6
11.404,-1.26707,2.64902,20,14
16.605,-1.84787,-0.29163,85,7
14.8951,-1.66022,4.01584,12,15
9.25562,-1.04636,0.162587,43,8
0.528628,-0.0598558,-0.122823,15,1
9.25192,-1.04922,0.48798,78,9
0.696418,-0.0789774,-0.136238,25,2
9.00944,-1.02331,0.793292,41,10
6.87148,-0.781691,-1.09535,40,3
8.59542,-0.979325,1.06221,23,11
7.12195,-0.812703,-0.88014,29,4
8.73357,-0.998153,1.39227,84,12
7.09256,-0.810603,-0.624558,20,5
8.88266,-1.01676,1.73789,39,13
7.0858,-0.812336,-0.373783,45,6
11.9665,-1.37399,2.78084,25,14
13.9877,-1.60853,-0.245765,100,7
14.9541,-1.72232,4.03344,4,15
15.5026,-1.80743,0.272432,9,8
0.528416,-0.0617006,-0.122823,15,1
11.3391,-1.32602,0.598305,9,9
0.692238,-0.0809518,-0.135474,25,2
8.59025,-1.00608,0.756686,30,10
6.79023,-0.796467,-1.08284,100,3
8.57224,-1.00701,1.05978,4,11
7.53308,-0.886267,-0.931326,21,4
8.71826,-1.02725,1.39039,79,12
7.09167,-0.835589,-0.624732,25,5
8.98044,-1.05973,1.75773,35,13
15.0941,-1.78383,-0.796553,19,6
12.161,-1.43935,2.82718,21,14
9.36103,-1.10961,-0.164541,43,7
15.3605,-1.82347,4.14473,26,15
10.8622,-1.30486,0.190964,35,8
0.528197,-0.0635448,-0.122823,15,1
0.711443,-0.0857161,-0.139291,48,2
8.57679,-1.03487,0.755815,52,10
6.65797,-0.804524,-1.06219,48,3
8.57655,-1.03788,1.06075,2,11
8.70874,-1.05696,1.38945,55,12
7.07684,-0.858898,-0.623686,26,5
9.41324,-1.14413,1.84322,80,13
15.2147,-1.85196,-0.803252,32,6
12.8233,-1.56314,2.9824,6,14
11.0344,-1.34703,-0.194036,83,7
14.6253,-1.78799,3.94803,13,15
10.9965,-1.35995,0.193408,22,8
0.527972,-0.0653882,-0.122823,15,1
13.3275,-1.65294,0.703814,16,9
0.697501,-0.0865075,-0.136619,25,2
8.43868,-1.0481,0.743961,50,10
6.68453,-0.831417,-1.06688,62,3
8.56894,-1.06732,1.06026,14,11
7.49716,-0.93515,-0.92767,1,4
9.04018,-1.12922,1.44295,82,12
7.00856,-0.875446,-0.617934,32,5
9.37607,-1.17284,1.83673,40,13
12.3207,-1.54336,-0.650745,29,6
13.9199,-1.74615,3.23885,18,14
11.0177,-1.38405,-0.193826,21,7
14.9449,-1.88003,4.03602,22,15
10.9818,-1.39706,0.193233,36,8
0.558671,-0.071171,-0.130022,14,1
12.4519,-1.58849,0.657863,10,9
0.68551,-0.0874511,-0.13433,25,2
8.40532,-1.07376,0.741347,67,10
6.78935,-0.868532,-1.08409,21,3
8.49624,-1.08839,1.05173,26,11
7.28514,-0.934541,-0.901833,13,4
8.69527,-1.11698,1.38851,77,12
7.00728,-0.901382,-0.618109,28,5
9.23367,-1.18778,1.80963,33,13
15.1301,-1.94894,-0.799484,29,6
11.6273,-1.4998,2.70661,68,14
10.8502,-1.40149,-0.190964,100,7
14.9248,-1.93045,4.0324,11,15
10.8242,-1.41542,0.190545,85,8
0.527503,-0.0690725,-0.122823,15,1
9.66787,-1.26765,0.511008,27,9
0.692971,-0.0909853,-0.135856,25,2
8.508,-1.11859,0.75076,41,10
7.05639,-0.928992,-1.12727,18,3
8.48649,-1.11727,1.051,14,11
6.20334,-0.817787,-0.768264,8,4
8.65803,-1.14293,1.38319,57,12
6.90928,-0.913304,-0.609742,35,5
9.17476,-1.2144,1.79895,42,13
9.2602,-1.22735,-0.489551,52,6
11.4092,-1.51421,2.65712,50,14
10.9285,-1.45041,-0.19243,21,7
15.142,-2.01231,4.09296,30,15
0.527246,-0.0710054,-0.122823,15,1
9.63544,-1.29934,0.509543,34,9
0.690704,-0.0931413,-0.135474,25,2
8.51194,-1.14935,0.751457,33,10
8.45676,-1.1449,1.04783,66,11
9.33979,-1.26611,-1.15727,15,4
8.71055,-1.18236,1.39227,14,12
7.03816,-0.9566,-0.62142,12,5
10.5186,-1.42965,2.06341,33,13
11.5776,-1.57771,2.69761,100,14
11.0281,-1.50478,-0.19428,100,7
14.6733,-2.00477,3.96821,7,15
10.9841,-1.51636,0.193547,1,8
0.526995,-0.0728454,-0.122823,15,1
9.52204,-1.3179,0.503786,30,9
0.698136,-0.0967502,-0.137001,24,2
8.77015,-1.21696,0.77464,58,10
7.23153,-1.00603,-0.896471,10,4
8.64963,-1.20485,1.38319,14,12
9.20934,-1.28446,-0.813512,14,5
9.04917,-1.26373,1.77605,36,13
15.4147,-2.15542,-0.815708,26,6
10.3079,-1.44317,-0.18168,99,7
13.9239,-1.95192,3.76737,36,15
9.77497,-1.38422,0.172325,2,8
0.546032,-0.0774202,-0.127322,15,1
9.50156,-1.34889,0.502949,61,9
0.684205,-0.0971332,-0.13433,25,2
8.9219,-1.26819,0.788411,20,10
6.03324,-0.858657,-0.965201,10,3
8.47411,-1.20755,1.051,9,11
11.9404,-1.70788,-1.05528,9,5
7.09379,-1.01591,-0.375563,17,6
11.2172,-1.60843,2.61618,78,14
9.30912,-1.33649,-0.164157,93,7
11.0544,-1.58903,2.99247,10,15
12.4595,-1.80876,0.219761,6,8
0.545759,-0.0793258,-0.127322,15,1
9.70827,-1.41282,0.514148,33,9
0.679959,-0.0990741,-0.133566,26,2
9.00591,-1.31382,0.796255,54,10
6.06133,-0.885332,-0.970207,33,3
9.24376,-1.35017,1.14703,44,11
9.2606,-1.35593,1.48237,81,12
6.96073,-1.02042,-0.615494,8,5
7.07026,-1.039,-0.374516,38,6
14.0338,-2.06482,3.27484,60,14
13.8448,-2.03702,-0.244264,8,7
11.2877,-1.6628,3.05717,9,15
12.8938,-1.92009,0.227544,36,8
0.545464,-0.0813255,-0.127322,15,1
9.71883,-1.45076,0.514986,104,9
0.689318,-0.102896,-0.135474,25,2
6.97445,-1.04358,-1.11694,67,3
9.13274,-1.36816,1.13387,44,11
7.34801,-1.1021,-0.912314,5,4
10.3769,-1.55824,1.66196,35,12
6.95712,-1.04472,-0.615494,13,5
8.85489,-1.33127,1.74056,9,13
7.06264,-1.06308,-0.374307,38,6
12.9158,-1.94872,-0.227998,37,7
12.9464,-1.97413,0.228592,37,8
0.510502,-0.0779353,-0.119224,16,1
9.68409,-1.48014,0.513416,39,9
0.687014,-0.105005,-0.135093,25,2
6.17606,-0.946173,-0.989605,25,3
9.09651,-1.39521,1.12997,65,11
6.88695,-1.05754,-0.855523,32,4
10.2523,-1.57614,1.64287,39,12
6.92784,-1.06506,-0.613228,7,5
7.03322,-1.08377,-0.372946,38,6
11.3034,-1.7438,2.64048,14,14
10.3359,-1.59638,-0.182552,100,7
13.9693,-2.16007,3.78756,23,15
9.24073,-1.4421,0.16325,11,8
0.541032,-0.0845299,-0.126422,15,1
0.675005,-0.105582,-0.132803,26,2
9.157,-1.43395,0.810897,46,10
6.16687,-0.966808,-0.988666,7,3
9.10531,-1.42911,1.13168,44,11
6.90087,-1.08435,-0.857717,24,4
12.922,-2.03278,2.07182,13,12
8.76433,-1.37873,-0.776209,42,5
8.95398,-1.41016,1.76193,24,13
7.02151,-1.10707,-0.372527,28,6
11.1394,-1.75834,2.60358,30,14
10.35,-1.63557,-0.182901,81,7
13.8644,-2.19342,3.76116,6,15
9.41138,-1.50241,0.166356,13,8
0.525339,-0.0839577,-0.122823,15,1
0.684325,-0.109489,-0.134711,25,2
9.11456,-1.45992,0.807585,54,10
6.3702,-1.02148,-1.02183,6,3
9.57067,-1.5364,1.19018,19,11
7.20671,-1.1582,-0.896227,18,4
8.73192,-1.40488,-0.773769,13,5
8.97033,-1.44484,1.76613,32,13
6.99197,-1.12744,-0.371167,17,6
11.0005,-1.77578,2.57254,7,14
9.05512,-1.46337,-0.160108,42,7
14.2781,-2.30999,3.87556,23,15
9.82251,-1.60322,0.173721,55,8
0.561585,-0.0917617,-0.131371,14,1
10.5826,-1.73108,0.561984,120,9
0.682002,-0.11156,-0.13433,25,2
11.2408,-1.84075,0.996539,23,10
6.08784,-0.998013,-0.97709,12,3
8.94232,-1.46757,1.11267,52,11
7.08118,-1.16339,-0.881115,19,4
8.94872,-1.47183,1.43638,68,12
7.22672,-1.1899,-0.640769,1,5
9.44177,-1.55461,1.86001,21,13
6.96828,-1.14859,-0.37012,45,6
15.9337,-2.62924,3.72834,10,14
7.18749,-1.1873,-0.127158,27,7
14.0565,-2.32452,3.81758,18,15
9.46773,-1.57926,0.167543,55,8
0.522818,-0.0873022,-0.122373,15,1
0.679652,-0.113735,-0.133948,26,2
9.16676,-1.53563,0.813163,88,10
5.99842,-1.00594,-0.963324,11,3
9.41092,-1.57823,1.17165,19,11
6.99485,-1.1743,-0.870878,4,4
8.96691,-1.50698,1.44014,77,12
7.20091,-1.21148,-0.638852,16,5
9.39148,-1.58171,1.85123,6,13
6.94433,-1.17081,-0.369073,45,6
14.0812,-2.3766,3.29688,11,14
7.20499,-1.21605,-0.127542,49,7
13.8597,-2.34171,3.76634,13,15
0.571321,-0.0973498,-0.155291,12,0
12.878,-2.19665,0.228033,12,8
0.495602,-0.0846258,-0.116075,16,1
0.690862,-0.118091,-0.136238,25,2
9.15938,-1.56729,0.812989,54,10
6.02992,-1.03288,-0.968955,11,3
10.667,-1.8291,1.32886,34,11
7.03158,-1.20698,-0.875997,31,4
8.98885,-1.54295,1.44452,33,12
7.1122,-1.2221,-0.631356,5,5
6.9343,-1.19402,-0.368759,31,6
11.2779,-1.94398,-0.19976,38,7
14.0437,-2.42325,3.81862,9,15
0.499158,-0.0869375,-0.116975,16,1
0.688511,-0.120164,-0.135856,25,2
8.59253,-1.50118,0.763136,33,10
6.05565,-1.05797,-0.973648,5,3
11.2554,-1.96842,1.40296,45,11
6.97084,-1.22037,-0.868928,30,4
9.01843,-1.58046,1.45015,79,12
6.94305,-1.218,-0.616714,26,5
10.68,-1.87356,2.10768,47,13
6.9244,-1.21597,-0.368445,3,6
11.6483,-2.04762,2.73046,27,14
9.43754,-1.6607,-0.167264,86,7
14.0048,-2.4669,3.81033,20,15
0.570645,-0.101236,-0.155291,12,0
9.86414,-1.75174,0.174873,27,8
0.537225,-0.0955009,-0.125973,15,1
0.678445,-0.120727,-0.133948,26,2
8.61301,-1.53421,0.765402,46,10
6.0772,-1.08361,-0.977716,2,3
6.89032,-1.23108,-0.859423,12,4
8.99147,-1.6081,1.44671,35,12
7.04684,-1.26031,-0.626301,40,5
8.33559,-1.4938,-0.443809,72,6
15.3507,-2.75374,3.60057,30,14
9.34115,-1.67737,-0.165658,34,7
18.143,-3.26117,4.9393,9,15
9.84813,-1.78438,0.174699,31,8
0.521549,-0.0945934,-0.122373,15,1
10.4133,-1.89053,0.554657,33,9
0.664497,-0.12064,-0.131277,27,2
8.55467,-1.55465,0.760695,39,10
6.28133,-1.14264,-1.01119,10,3
9.33133,-1.69916,1.16458,63,11
6.88989,-1.25583,-0.85991,25,4
8.95082,-1.6331,1.44107,54,12
7.13452,-1.30171,-0.634494,18,5
8.37551,-1.53115,-0.446216,32,6
9.98326,-1.82687,2.34309,14,14
17.1244,-3.13674,-0.303881,22,7
15.152,-2.77818,4.12765,36,15
0.55954,-0.103503,-0.131371,14,1
8.87084,-1.64251,0.472803,44,9
0.689168,-0.127605,-0.136238,25,2
8.59621,-1.59321,0.764879,11,10
6.9668,-1.29248,-1.12226,51,3
9.31168,-1.72918,1.16288,49,11
6.90498,-1.2835,-0.862348,13,4
8.914,-1.65855,1.43607,90,12
8.45967,-1.57554,-0.752851,11,5
10.212,-1.9019,2.01914,27,13
8.67837,-1.61784,-0.46265,47,6
9.91936,-1.85098,2.32959,52,14
17.0505,-3.18475,-0.302764,68,7
15.1251,-2.82786,4.12299,16,15
9.22035,-1.7372,0.163773,41,8
0.520875,-0.0982321,-0.122373,15,1
8.75711,-1.65309,0.467046,112,9
0.671333,-0.12685,-0.132803,26,2
6.09055,-1.15302,-0.981783,10,3
9.26658,-1.75429,1.158,26,11
6.94337,-1.31573,-0.86771,32,4
9.00713,-1.70843,1.45202,30,12
6.8686,-1.30404,-0.611659,22,5
10.2242,-1.94298,2.02296,19,13
8.52523,-1.62165,-0.4548,32,6
9.89528,-1.88405,2.32554,19,14
11.423,-2.17493,-0.202971,76,7
15.0981,-2.87738,4.11833,24,15
9.24141,-1.77627,0.164262,48,8
0.489894,-0.09425,-0.115175,16,1
8.82552,-1.69953,0.471024,59,9
0.674742,-0.129935,-0.133566,26,2
11.2511,-2.16866,1.00247,27,10
6.21062,-1.19823,-1.00181,10,3
9.16068,-1.76904,1.14557,68,11
9.48586,-1.83356,-1.18628,24,4
8.98142,-1.73768,1.4489,46,12
6.909,-1.33672,-0.615668,10,5
9.90586,-1.92192,2.32959,19,14
12.7832,-2.48249,-0.2273,100,7
15.0362,-2.92275,4.10435,24,15
9.20964,-1.80352,0.163808,80,8
0.497211,-0.0974588,-0.116975,16,1
9.10568,-1.78646,0.486306,30,9
0.664652,-0.1304,-0.131658,26,2
5.80906,-1.1418,-0.937668,13,3
9.0746,-1.7853,1.13558,55,11
9.4872,-1.86819,-1.18725,34,4
8.98499,-1.77093,1.45046,17,12
8.29609,-1.63515,-0.739778,28,5
8.27465,-1.63392,-0.44203,100,6
11.6617,-2.30485,2.7444,29,14
9.2709,-1.83401,-0.16496,94,7
15.1567,-3.00111,4.14007,15,15
9.20329,-1.83566,0.163808,60,8
0.5198,-0.103772,-0.122373,15,1
9.19731,-1.8378,0.491539,104,9
0.687295,-0.137335,-0.136238,25,2
5.77985,-1.15703,-0.933601,6,3
8.91649,-1.78655,1.11657,60,11
8.3255,-1.67116,-0.742916,45,5
10.1629,-2.04182,2.01494,50,13
8.42358,-1.6939,-0.450299,97,6
9.83297,-1.9791,2.31565,19,14
8.87434,-1.78777,-0.158014,100,7
14.7011,-2.96426,4.01842,32,15
9.16351,-1.86101,0.163215,41,8
0.519435,-0.105586,-0.122373,15,1
9.08515,-1.8484,0.485887,106,9
0.677192,-0.137776,-0.13433,25,2
9.63081,-1.96116,0.859879,48,10
6.15322,-1.25412,-0.99461,15,3
8.7935,-1.79385,1.10194,45,11
16.1529,-3.2981,-2.02425,11,4
10.2614,-2.09703,1.65883,38,12
6.90438,-1.41099,-0.61654,12,5
10.0288,-2.05131,1.98976,12,13
8.24739,-1.68845,-0.441192,87,6
21.647,-4.43562,5.10144,41,14
8.86216,-1.81753,-0.157909,29,7
15.563,-3.19464,4.25706,22,15
9.27837,-1.91808,0.165379,77,8
0.480897,-0.0995014,-0.113375,16,1
9.20381,-1.90602,0.492586,63,9
0.672862,-0.139343,-0.133566,26,2
9.32736,-1.9333,0.833383,60,10
8.57622,-1.77917,-1.38726,13,3
8.88242,-1.84431,1.11389,37,11
16.0033,-3.32578,-2.00694,22,4
10.018,-2.08375,1.62066,68,12
6.89551,-1.43427,-0.616191,47,5
10.1676,-2.11672,2.01876,8,13
8.20038,-1.70867,-0.438994,76,6
16.9938,-3.54399,4.00773,13,14
8.83423,-1.84396,-0.157525,100,7
15.3249,-3.20153,4.19494,12,15
9.12486,-1.91958,0.162761,70,8
0.518685,-0.10921,-0.122373,15,1
9.05835,-1.90889,0.485154,110,9
0.691582,-0.145739,-0.137382,24,2
9.54865,-2.01396,0.853778,46,10
8.90312,-1.88105,1.1173,52,11
9.802,-2.07275,-1.23015,17,4
10.0706,-2.13139,1.63036,28,12
10.3157,-2.18515,2.04967,8,13
8.21977,-1.74267,-0.440355,83,6
14.8748,-3.15632,3.51059,9,14
8.28004,-1.75847,-0.147752,89,7
15.6065,-3.31727,4.27517,7,15
9.17676,-1.96398,0.163808,57,8
0.503056,-0.107754,-0.118774,16,1
9.21762,-1.97609,0.494051,60,9
0.669928,-0.143742,-0.133185,26,2
9.14805,-1.96284,0.818567,58,10
7.03976,-1.51176,-1.14041,5,3
8.89844,-1.91253,1.11754,67,11
15.9448,-3.42991,-2.00256,22,4
9.99166,-2.15115,1.61878,30,12
12.0951,-2.60622,-1.08247,11,5
9.10053,-1.96262,1.80963,15,13
8.21918,-1.77405,-0.440669,76,6
8.38918,-1.81227,-0.149811,90,7
23.6632,-5.11617,6.48704,14,15
9.318,-2.02995,0.166461,57,8
0.51789,-0.112918,-0.122373,15,1
8.69712,-1.89787,0.466523,13,9
0.663643,-0.14494,-0.13204,26,2
9.09603,-1.98658,0.814558,62,10
8.94373,-1.95659,1.12412,42,11
9.66475,-2.11609,-1.21479,39,4
10.6475,-2.33321,1.72641,14,12
14.5921,-3.20028,-1.30699,5,5
9.12971,-2.00396,1.81688,21,13
8.29261,-1.82173,-0.44496,72,6
8.28092,-1.82068,-0.147996,100,7
17.9672,-3.95363,4.92947,3,15
9.3632,-2.07577,0.167403,56,8
0.517473,-0.114816,-0.122373,15,1
0.674606,-0.149927,-0.13433,25,2
9.09841,-2.02207,0.815429,56,10
8.90549,-1.98246,1.12022,44,11
9.24035,-2.05869,-1.16239,37,4
6.85651,-1.5301,-0.614622,5,5
9.08973,-2.03013,1.8104,34,13
8.3307,-1.86213,-0.447368,83,6
8.3581,-1.86979,-0.149497,89,7
8.96026,-2.00614,2.46033,1,15
0.565376,-0.127413,-0.155291,12,0
12.3791,-2.79202,0.221506,23,8
0.532256,-0.120144,-0.125973,15,1
8.62453,-1.94837,0.463383,117,9
0.674052,-0.152399,-0.13433,25,2
8.96073,-2.02596,0.80375,73,10
6.46012,-1.46178,-1.04905,2,3
8.83621,-2.00105,1.11242,27,11
9.58703,-2.17284,-1.20699,8,4
12.2562,-2.78228,-1.09956,26,5
9.11095,-2.06996,1.81612,38,13
8.32967,-1.89398,-0.447682,72,6
8.39214,-1.90973,-0.15023,100,7
8.95473,-2.0394,2.46085,19,15
12.495,-2.85945,0.22374,26,8
0.497684,-0.113985,-0.117874,16,1
8.60279,-1.97188,0.462545,66,9
0.679338,-0.155714,-0.135474,25,2
8.78538,-2.01535,0.788585,75,10
6.4786,-1.48737,-1.0528,5,3
8.87245,-2.03858,1.11779,27,11
7.93574,-1.82482,-0.999816,4,4
10.3183,-2.37458,1.67698,43,12
12.1469,-2.7954,-1.09049,4,5
9.11433,-2.09918,1.81803,17,13
8.21891,-1.89446,-0.44203,90,6
9.2437,-2.13238,2.19012,40,14
8.43091,-1.94643,-0.151033,100,7
14.7362,-3.40484,4.05259,12,15
11.3202,-2.63222,0.202867,33,8
0.516263,-0.120138,-0.122373,15,1
8.62503,-2.00869,0.464115,78,9
0.671142,-0.156303,-0.133948,26,2
8.78217,-2.04691,0.788934,56,10
6.45221,-1.50504,-1.04936,1,3
8.96387,-2.09255,1.13022,39,11
7.91773,-1.8498,-0.998354,44,4
10.2407,-2.3944,1.66571,50,12
14.6902,-3.43473,-1.31989,2,5
8.18114,-1.91586,-0.440355,97,6
18.8557,-4.41908,4.47113,16,14
8.36566,-1.96215,-0.149986,100,7
8.97298,-2.10625,2.46965,7,15
11.2195,-2.65011,0.201226,58,8
0.496876,-0.117456,-0.117874,16,1
8.59853,-2.03419,0.463069,86,9
0.670592,-0.158645,-0.133948,26,2
8.82926,-2.0904,0.793815,22,10
8.67257,-2.0565,1.09439,52,11
7.85714,-1.86459,-0.991529,33,4
10.2938,-2.44473,1.67573,37,12
12.476,-2.963,-1.12187,9,5
9.0517,-2.15141,1.80849,28,13
8.2288,-1.95734,-0.443286,100,6
19.388,-4.6153,4.60115,36,14
14.5136,-3.45762,-0.260425,33,7
8.96181,-2.13666,2.46862,21,15
11.1655,-2.67853,0.200423,66,8
0.492673,-0.11828,-0.116975,16,1
8.55448,-2.05533,0.46108,70,9
0.67767,-0.162819,-0.135474,25,2
8.52939,-2.05087,0.767493,65,10
7.84547,-1.88788,-1.27807,55,3
8.61323,-2.07422,1.08781,60,11
7.85637,-1.8934,-0.99226,37,4
8.96018,-2.16108,1.45985,35,12
9.73268,-2.34739,-0.875915,19,5
9.06322,-2.1876,1.8123,40,13
8.20639,-1.9823,-0.442448,65,6
8.97462,-2.16953,2.13164,34,14
9.67926,-2.34166,-0.173826,26,7
8.94303,-2.1652,2.46551,66,15
11.1619,-2.71891,0.200528,55,8
0.496044,-0.120922,-0.117874,16,1
8.45218,-2.06198,0.455951,83,9
0.66944,-0.163439,-0.133948,26,2
8.64025,-2.10946,0.778126,39,10
7.82156,-1.91103,-1.27525,51,3
9.00895,-2.20281,1.13875,31,11
7.81887,-1.91326,-0.98836,34,4
8.95834,-2.19375,1.46079,40,12
9.73369,-2.38542,-0.876787,10,5
9.28014,-2.27599,1.85733,45,13
8.13118,-1.9957,-0.438785,100,6
8.9916,-2.20688,2.13749,52,14
8.40486,-2.06443,-0.151068,57,7
8.95231,-2.20055,2.47017,31,15
8.61671,-2.13242,0.154942,30,8
0.533429,-0.132109,-0.126872,15,1
8.44068,-2.09199,0.455742,108,9
0.668836,-0.165892,-0.133948,26,2
8.48162,-2.1037,0.76453,78,10
9.49589,-2.35703,-1.54964,15,3
8.83514,-2.19466,1.11779,37,11
7.79639,-1.93808,-0.986411,37,4
8.96174,-2.22943,1.46266,40,12
9.76741,-2.43167,-0.880622,33,5
9.03261,-2.25208,2.14918,51,14
8.50201,-2.12136,-0.152953,49,7
8.63405,-2.17032,0.155396,77,8
0.514043,-0.129309,-0.122373,15,1
7.93326,-1.99711,0.428736,57,9
0.660638,-0.166308,-0.132421,26,2
8.43521,-2.12504,0.761044,26,10
9.15424,-2.30958,1.15922,39,11
7.8412,-1.97976,-0.992992,52,4
8.9018,-2.2492,1.45421,21,12
10.802,-2.72931,-0.97475,40,5
8.08184,-2.04502,-0.436901,39,6
9.05263,-2.29235,2.15593,52,14
12.4873,-3.16442,-0.224857,100,7
18.4655,-4.68277,5.10443,9,15
8.67099,-2.21182,0.156199,71,8
0.513588,-0.131103,-0.122373,15,1
7.90108,-2.01837,0.427375,61,9
0.660053,-0.168614,-0.132421,26,2
8.476,-2.16681,0.765402,9,10
6.45889,-1.65235,-1.05593,2,3
9.18843,-2.35235,1.16458,21,11
8.51113,-2.18054,-1.07879,57,4
10.7615,-2.75908,-0.971961,17,5
8.69629,-2.23121,1.74514,53,13
9.13706,-2.3477,2.17798,16,14
9.67187,-2.48691,-0.174315,100,7
22.9673,-5.90981,6.35453,13,15
8.62449,-2.23205,0.155501,46,8
0.513127,-0.132895,-0.122373,15,1
7.90946,-2.04994,0.428213,54,9
0.674664,-0.174857,-0.135474,25,2
9.04696,-2.34644,0.817695,22,10
9.06681,-2.35497,1.1502,28,11
8.38051,-2.17827,-1.06319,16,4
8.97764,-2.33515,1.46923,35,12
10.8135,-2.81268,-0.977539,10,5
8.82335,-2.29667,1.77223,42,13
8.00358,-2.08478,-0.433446,39,6
9.19104,-2.3958,2.19282,39,14
9.67087,-2.52268,-0.174454,97,7
18.1856,-4.74716,5.0361,8,15
8.82941,-2.318,0.15934,56,8
0.51266,-0.134685,-0.122373,15,1
8.63241,-2.2695,0.467779,72,9
0.670252,-0.176213,-0.134711,25,2
10.7568,-2.83203,-1.76177,23,3
9.08349,-2.39318,1.15337,36,11
9.43739,-2.48994,1.54589,91,12
15.955,-4.20953,-1.44365,25,5
8.92537,-2.35652,1.79437,39,13
14.6833,-3.8795,-0.795925,16,6
15.1285,-3.99995,3.61271,23,14
16.4822,-4.36095,-0.297598,15,7
18.1801,-4.81358,5.03921,13,15
8.78261,-2.33851,0.158642,63,8
0.512187,-0.136474,-0.122373,15,1
7.80425,-2.08093,0.423293,51,9
0.662045,-0.176528,-0.133185,26,2
9.14394,-2.43985,0.82798,40,10
16.0849,-4.29491,-2.63686,7,3
8.75864,-2.34032,1.11315,30,11
8.37469,-2.23929,-1.06441,37,4
9.35613,-2.50347,1.534,49,12
10.7469,-2.87762,-0.973355,23,5
8.87727,-2.377,1.78635,51,13
10.8093,-2.89635,-0.586477,54,6
9.10633,-2.44174,2.17663,13,14
8.48261,-2.27608,-0.153302,49,7
15.0045,-4.02886,4.16285,5,15
0.466265,-0.125895,-0.12941,15,0
8.6547,-2.33684,0.156478,80,8
0.511708,-0.138261,-0.122373,15,1
7.78537,-2.10503,0.422665,78,9
0.657603,-0.177928,-0.132421,26,2
9.10801,-2.46606,0.825539,54,10
18.3037,-4.95928,-3.00354,10,3
8.63354,-2.33921,1.09829,12,11
8.2921,-2.24825,-1.0549,46,4
9.30348,-2.52421,1.5268,65,12
12.5788,-3.41523,-1.14035,11,5
8.76808,-2.38224,1.76613,11,13
14.5874,-3.96879,-0.26388,58,7
15.0518,-4.09796,4.17993,3,15
11.7917,-3.23026,0.213408,15,8
0.511197,-0.140136,-0.122373,15,1
7.81035,-2.14253,0.424445,72,9
0.649405,-0.178145,-0.130895,27,2
9.04747,-2.4836,0.820833,58,10
15.1528,-4.1624,-2.48887,7,3
8.64788,-2.37715,1.10121,17,11
8.85609,-2.43605,-1.12778,71,4
9.33036,-2.56826,1.53275,49,12
14.5531,-4.00586,-1.32058,13,5
12.6811,-3.49532,-0.689369,16,6
8.40635,-2.32023,-0.15222,100,7
15.0888,-4.1675,4.19442,7,15
0.510705,-0.141919,-0.122373,15,1
7.84131,-2.18048,0.426538,72,9
0.667694,-0.18567,-0.134711,25,2
9.10593,-2.53386,0.826934,18,10
15.7205,-4.37742,-2.58461,11,3
8.48081,-2.3631,1.08098,37,11
9.33656,-2.60506,1.53525,74,12
14.516,-4.0502,-1.31849,10,5
8.75691,-2.44497,1.76727,38,13
12.6495,-3.53419,-0.688323,16,6
8.75701,-2.4483,2.09924,15,14
12.269,-3.43248,-0.222379,100,7
15.091,-4.22483,4.19908,23,15
0.557906,-0.156925,-0.155291,12,0
0.510207,-0.143701,-0.122373,15,1
8.00089,-2.25498,0.435645,47,9
0.659483,-0.185869,-0.133185,26,2
17.4385,-4.91817,1.58519,6,10
16.5207,-4.66244,-2.71883,16,3
8.67501,-2.44988,1.10682,15,11
13.8629,-3.91758,-1.76881,9,4
9.05369,-2.56023,1.49019,31,12
14.6245,-4.13555,-1.32965,2,5
8.73699,-2.47232,1.76498,45,13
8.24027,-2.33331,-0.448833,43,6
8.79528,-2.49213,2.11049,37,14
8.44958,-2.39577,-0.153302,74,7
14.9367,-4.23793,4.16026,13,15
0.557355,-0.158872,-0.155291,12,0
9.31693,-2.65751,0.169114,52,8
0.487215,-0.139063,-0.116975,16,1
7.83933,-2.23901,0.427271,65,9
0.670157,-0.191405,-0.135474,25,2
9.21062,-2.63241,0.83809,44,10
15.6231,-4.46805,-2.57366,20,3
8.63015,-2.46976,1.10219,17,11
16.2881,-4.66437,-2.08031,11,4
9.14914,-2.62174,1.5074,38,12
15.0907,-4.32433,-1.3734,26,5
8.73397,-2.50442,1.76613,18,13
10.7969,-3.098,-0.588675,33,6
8.38351,-2.40868,-0.152255,49,7
15.0017,-4.313,4.18252,15,15
9.29799,-2.68724,0.168939,67,8
0.509191,-0.147259,-0.122373,15,1
7.81421,-2.26137,0.426329,40,9
0.644969,-0.186649,-0.130513,27,2
9.67407,-2.80143,0.881145,48,10
15.5808,-4.51486,-2.56928,56,3
9.47752,-2.74809,1.21163,57,11
16.4185,-4.76379,-2.09908,27,4
8.9028,-2.58482,1.46829,23,12
14.8038,-4.2981,-1.34865,5,5
14.1398,-4.10798,2.86214,15,13
15.8108,-4.59646,-0.862915,22,6
17.5741,-5.11239,4.22548,15,14
8.36353,-2.43458,-0.152045,49,7
14.9921,-4.36696,4.18407,6,15
0.463527,-0.135633,-0.12941,15,0
0.508674,-0.149036,-0.122373,15,1
7.76985,-2.27795,0.42434,65,9
0.633009,-0.185585,-0.128224,28,2
11.9713,-3.51427,-1.97608,43,3
11.8728,-3.48985,-1.51947,43,4
14.6931,-4.32164,-1.33993,28,5
8.93098,-2.62853,1.80963,18,13
8.17323,-2.40706,-0.44653,39,6
14.6083,-4.30499,3.51599,18,14
8.32813,-2.45584,-0.151557,82,7
21.1098,-6.22896,5.89745,8,15
0.46305,-0.13725,-0.12941,15,0
11.1981,-3.32127,0.203879,13,8
0.545515,-0.1619,-0.131371,14,1
7.77142,-2.3079,0.424863,60,9
0.639886,-0.190029,-0.12975,27,2
9.5607,-2.84109,0.872603,10,10
6.1499,-1.82869,-1.0162,15,3
9.20505,-2.7389,1.17921,30,11
8.10077,-2.41341,1.33877,19,12
14.7295,-4.38826,-1.34464,13,5
14.423,-4.2997,2.92548,15,13
8.13798,-2.42758,-0.445065,65,6
8.88666,-2.6543,-0.161889,93,7
21.0435,-6.28933,5.88503,11,15
8.29261,-2.49106,0.151138,2,8
0.507621,-0.152583,-0.122373,15,1
7.83217,-2.35573,0.428632,18,9
0.650499,-0.195654,-0.13204,26,2
9.60223,-2.88995,0.87731,2,10
9.65971,-2.90908,-1.59782,43,3
9.26385,-2.79163,1.18798,41,11
10.7249,-3.23395,-1.37542,1,4
15.3264,-4.62439,-1.40059,30,5
14.5076,-4.38009,2.94571,11,13
8.11608,-2.45193,-0.444332,32,6
8.75791,-2.64751,2.11229,28,14
8.5998,-2.60135,-0.156827,92,7
21.1434,-6.39968,5.91919,22,15
8.31065,-2.52814,0.151627,41,8
0.507085,-0.154354,-0.122373,15,1
7.83154,-2.38538,0.42905,16,9
0.653568,-0.199068,-0.132803,26,2
9.54063,-2.90776,0.872603,4,10
7.78649,-2.37462,-1.28933,15,3
8.50978,-2.59683,1.09244,22,11
10.8787,-3.32181,-1.39662,5,4
14.4527,-4.41588,-1.32215,31,5
14.5673,-4.45367,2.96097,24,13
8.13612,-2.48901,-0.445902,47,6
8.73744,-2.67464,2.10959,15,14
8.52949,-2.61261,-0.15571,100,7
17.7723,-5.44709,4.98071,6,15
8.31515,-2.56125,0.151871,12,8
0.506543,-0.156123,-0.122373,15,1
0.645365,-0.199034,-0.131277,27,2
9.53233,-2.94163,0.872778,2,10
5.53398,-1.70882,-0.917332,33,3
8.54618,-2.64058,1.09829,65,11
11.9083,-3.68167,-1.53044,42,4
15.4156,-4.76896,-1.41175,22,5
14.1784,-4.38896,2.88503,7,13
15.3543,-4.75587,-0.8424,26,6
14.2713,-4.42315,3.4494,24,14
8.42864,-2.61394,-0.154035,99,7
17.7181,-5.49822,4.97088,9,15
8.39016,-2.61646,0.153407,1,8
0.505995,-0.157891,-0.122373,15,1
0.640918,-0.200115,-0.130513,27,2
10.4386,-3.26127,0.956796,23,10
5.57135,-1.74168,-0.924528,5,3
8.50849,-2.66151,1.09463,52,11
9.6125,-3.00869,-1.23673,42,4
9.33684,-2.9242,1.54964,20,12
15.1973,-4.75962,-1.39327,5,5
15.0904,-4.72903,3.07393,11,13
11.8843,-3.7266,-0.652734,42,6
14.2223,-4.46244,3.4413,18,14
8.61216,-2.70384,-0.15756,22,7
15.3802,-4.83167,4.31969,6,15
10.8066,-3.41145,0.197806,13,8
0.505441,-0.159656,-0.122373,15,1
7.84422,-2.4793,0.431144,105,9
0.647704,-0.204717,-0.13204,26,2
10.393,-3.28687,0.953658,29,10
5.63491,-1.78317,-0.936104,60,3
9.57213,-3.03462,-0.87853,19,5
15.1262,-4.7983,3.08462,5,13
8.14958,-2.58677,-0.448101,50,6
8.61029,-2.73631,-0.1577,100,7
15.3762,-4.88942,4.32331,13,15
8.24551,-2.63623,0.151103,62,8
0.504853,-0.161507,-0.122373,15,1
7.94731,-2.54396,0.437319,42,9
0.658168,-0.210681,-0.13433,25,2
10.6864,-3.42279,0.981722,34,10
5.43835,-1.74292,-0.904504,46,3
8.45521,-2.71141,1.09024,35,11
11.9175,-3.824,-1.53677,12,4
9.568,-3.07379,-0.879227,19,5
18.7608,-6.02706,3.8303,8,13
8.12293,-2.61112,-0.447158,29,6
8.67464,-2.79013,2.10374,67,14
8.72393,-2.80767,-0.159969,22,7
15.4243,-4.96706,4.34195,15,15
0.551408,-0.178419,-0.155291,12,0
8.20391,-2.65454,0.15051,20,8
0.53395,-0.172873,-0.129572,14,1
7.92128,-2.56614,0.436377,44,9
0.670464,-0.21733,-0.137001,24,2
5.46199,-1.7726,-0.90951,37,3
8.51744,-2.7642,1.09951,42,11
5.55273,-1.80312,-0.716836,23,4
12.0659,-3.92277,-1.11002,16,5
19.0523,-6.19781,3.89441,8,13
8.68288,-2.82794,2.10824,74,14
8.28817,-2.69939,-0.15215,90,7
15.3922,-5.01608,4.33781,13,15
0.550782,-0.180343,-0.155291,12,0
8.20743,-2.68894,0.150754,43,8
0.503684,-0.165116,-0.122373,15,1
7.9365,-2.60325,0.437738,35,9
0.643585,-0.211102,-0.131658,26,2
11.2333,-3.6868,1.03436,29,10
5.437,-1.78549,-0.906381,10,3
8.10367,-2.66278,1.04735,28,11
5.55174,-1.82532,-0.717567,25,4
8.95815,-2.94702,1.49364,60,12
14.8031,-4.87274,-1.36346,5,5
14.3013,-4.70757,2.92663,5,13
8.02247,-2.64231,-0.442658,68,6
8.27632,-2.72912,-0.152115,100,7
15.3921,-5.07852,4.34298,11,15
8.20559,-2.72009,0.150894,52,8
0.503105,-0.166873,-0.122373,15,1
7.89514,-2.62024,0.435959,11,9
0.633491,-0.210366,-0.12975,27,2
10.9682,-3.6444,1.01118,14,10
5.42104,-1.80229,-0.904817,57,3
8.32226,-2.76683,1.07684,60,11
5.389,-1.79268,-0.697336,34,4
8.94593,-2.97765,1.49332,29,12
12.236,-4.07511,-1.12832,26,5
12.075,-4.02383,2.47403,3,13
8.04684,-2.68307,-0.444542,76,6
13.7201,-4.57738,3.33917,33,14
8.23829,-2.7485,-0.151592,100,7
15.2167,-5.07961,4.29847,15,15
8.39272,-2.81631,0.154524,58,8
0.50249,-0.168716,-0.122373,15,1
9.02197,-3.02922,0.498762,19,9
0.632753,-0.212576,-0.12975,27,2
8.31904,-2.79644,0.767842,33,10
9.98128,-3.35713,-1.6679,16,3
8.99501,-3.02716,1.16531,18,11
5.31278,-1.78898,-0.688318,26,4
9.06279,-3.05173,1.5146,10,12
12.0782,-4.06945,-1.11507,16,5
8.0185,-2.70476,-0.443495,72,6
8.71506,-2.94141,2.12354,12,14
8.24001,-2.78108,-0.151801,100,7
15.1805,-5.12651,4.29329,8,15
8.3966,-2.84863,0.154768,21,8
0.501927,-0.170381,-0.122373,15,1
9,-3.05684,0.498134,23,9
0.64316,-0.218574,-0.13204,26,2
8.28848,-2.8184,0.765925,52,10
5.32075,-1.80926,-0.890112,20,3
8.96989,-3.05185,1.16336,39,11
12.1916,-4.15274,2.03991,11,12
14.0803,-4.7988,2.89152,14,13
8.04162,-2.74229,-0.445274,29,6
8.80485,-3.00428,2.14783,22,14
8.24161,-2.8137,-0.15201,41,7
15.1534,-5.17635,4.2907,15,15
8.38282,-2.87662,0.154698,46,8
0.481055,-0.165171,-0.117424,16,1
7.79926,-2.67941,0.43219,4,9
0.642393,-0.220818,-0.13204,26,2
8.24706,-2.83486,0.762961,46,10
5.27891,-1.81561,-0.884168,13,3
9.10747,-3.13417,1.18262,57,11
11.5225,-3.96753,-1.49631,49,4
13.1684,-4.53937,-1.21861,25,5
14.7883,-5.10068,3.04073,7,13
12.3814,-4.27294,-0.686438,16,6
8.78694,-3.03245,2.14603,45,14
11.481,-3.96442,-0.212012,100,7
14.4742,-5.00084,4.10332,10,15
8.42133,-2.92438,0.155606,10,8
0.502536,-0.174608,-0.122823,15,1
0.64158,-0.223171,-0.13204,26,2
5.38602,-1.87456,-0.903253,16,3
9.22527,-3.21258,1.19944,30,11
11.5473,-4.02345,-1.50143,61,4
11.5069,-4.01162,1.93009,26,12
25.9263,-9.04879,5.33769,15,13
8.7169,-3.04408,2.13164,16,14
11.5909,-4.05001,-0.214316,28,7
14.4813,-5.06279,4.11056,9,15
8.50112,-2.98705,0.157281,38,8
0.501893,-0.176449,-0.122823,15,1
7.6268,-2.68283,0.423712,57,9
0.633389,-0.222803,-0.130513,27,2
9.10369,-3.20592,-1.52868,11,3
9.07863,-3.19887,1.18189,22,11
11.525,-4.06311,-1.50046,58,4
9.0275,-3.1844,1.51616,23,12
12.0251,-4.24178,-1.11559,2,5
11.656,-4.11387,2.40267,24,13
14.3907,-5.08469,3.52363,27,14
10.6597,-3.76853,-0.197352,56,7
14.5428,-5.14417,4.13334,5,15
8.51136,-3.02407,0.157665,52,8
0.523308,-0.186033,-0.128222,14,1
7.62115,-2.71077,0.423921,69,9
0.632607,-0.225012,-0.130513,27,2
7.83298,-2.78766,0.727402,33,10
11.029,-3.92942,1.43757,37,11
11.535,-4.11198,-1.50362,70,4
11.3718,-4.05603,1.91226,44,12
12.0196,-4.28708,-1.11646,26,5
11.3309,-4.04367,2.33856,16,13
10.7515,-3.83901,-0.598305,13,6
13.3763,-4.77889,3.27934,24,14
8.42081,-3.01011,-0.156094,92,7
14.4939,-5.18385,4.12454,10,15
0.500649,-0.179949,-0.122823,15,1
7.60225,-2.73398,0.423398,73,9
0.639207,-0.229877,-0.13204,26,2
7.8457,-2.82308,0.729494,15,10
9.07923,-3.26872,-1.52836,46,3
7.36775,-2.65401,0.961549,4,11
11.5187,-4.15155,-1.50338,60,4
11.3539,-4.09436,1.91163,44,12
12.0983,-4.3628,-1.12518,38,5
14.9234,-5.38452,3.08386,11,13
11.7074,-4.22646,-0.652315,68,6
7.7914,-2.8143,1.91253,17,14
8.46291,-3.05852,-0.157072,33,7
14.4212,-5.2147,4.10901,14,15
0.51467,-0.187019,-0.126422,15,1
7.60955,-2.76664,0.42434,63,9
0.645781,-0.23479,-0.133566,26,2
9.6562,-3.51457,-1.62754,20,3
7.31554,-2.66409,0.955943,58,11
11.4408,-4.16862,-1.49509,61,4
7.80403,-2.84506,1.31561,42,12
7.69294,-2.80608,1.59173,8,13
7.77604,-2.83947,1.91118,41,14
11.1944,-4.08994,-0.208033,9,7
8.41353,-3.08891,0.156443,51,8
0.49938,-0.183439,-0.122823,15,1
7.61297,-2.79801,0.425073,56,9
0.630216,-0.231625,-0.130513,27,2
7.6201,-2.80214,0.710319,26,10
7.56753,-2.78431,-1.27713,43,3
7.30247,-2.68823,0.955456,83,11
11.482,-4.22911,-1.50241,13,4
7.78108,-2.86751,1.31342,41,12
12.6601,-4.66555,-1.18044,27,5
11.3506,-4.1852,2.35153,10,13
10.6451,-3.92719,-0.594641,30,6
7.76791,-2.86727,1.91163,16,14
12.9021,-4.76497,-0.240075,22,7
14.794,-5.46658,4.226,5,15
8.47019,-3.1433,0.1577,55,8
0.498737,-0.185181,-0.122823,15,1
8.17793,-3.0381,0.457207,69,9
0.625723,-0.232456,-0.12975,27,2
7.59907,-2.82456,0.709273,37,10
12.5086,-4.65192,-2.11374,11,3
7.347,-2.73378,0.962524,40,11
11.43,-4.25532,-1.49753,18,4
7.79694,-2.9043,1.3178,42,12
7.46267,-2.77979,-0.696723,13,5
10.2253,-3.8129,-0.571927,16,6
7.72134,-2.88075,1.90264,6,14
12.8817,-4.80857,-0.240005,53,7
14.7386,-5.50467,4.21564,42,15
8.4704,-3.17707,0.157909,31,8
0.476193,-0.178705,-0.117424,16,1
9.45931,-3.55175,0.529535,38,9
0.61388,-0.230498,-0.12746,28,2
7.76635,-2.91763,0.725833,39,10
12.4572,-4.68235,-2.1078,19,3
7.96729,-2.99629,1.04515,19,11
13.1262,-4.93905,-1.72201,13,4
7.80339,-2.93776,1.32062,40,12
7.44497,-2.80431,-0.696026,27,5
7.57494,-2.85327,1.57341,62,13
7.8402,-2.95475,-0.439099,32,6
7.71671,-2.90974,1.90399,12,14
8.26596,-3.1185,-0.154209,8,7
14.7952,-5.58474,4.23739,13,15
9.58304,-3.6326,0.178887,41,8
0.497432,-0.188659,-0.122823,15,1
9.24705,-3.50893,0.518335,40,9
0.642398,-0.243896,-0.133566,26,2
7.59915,-2.88665,0.711191,45,10
16.8143,-6.39052,-2.84898,10,3
7.35557,-2.79559,0.96618,42,11
12.8306,-4.879,-1.68545,7,4
7.8097,-2.97131,1.32344,30,12
7.42024,-2.82461,-0.694631,32,5
7.65617,-2.91595,1.59249,33,13
7.77893,-2.96426,-0.436273,3,6
7.6459,-2.9151,1.88914,43,14
8.13357,-3.10103,-0.151941,33,7
14.5861,-5.56405,4.18303,15,15
9.61448,-3.68488,0.179725,62,8
0.478541,-0.183503,-0.118324,16,1
8.0146,-3.07491,0.44988,37,9
0.648874,-0.24895,-0.135093,25,2
7.59461,-2.9153,0.711714,24,10
10.666,-4.09642,-1.80963,6,3
7.36565,-2.83036,0.968861,24,11
9.22915,-3.54828,-1.21406,45,4
7.64389,-2.94034,1.29715,40,12
7.43959,-2.86324,-0.69742,31,5
7.94277,-3.0569,1.65431,44,13
10.9874,-4.23088,-0.617041,37,6
7.65022,-2.94737,1.89274,54,14
8.06058,-3.10709,-0.150789,57,7
14.2484,-5.49513,4.09193,10,15
9.77125,-3.78413,0.182901,43,8
0.481532,-0.186581,-0.119224,16,1
9.35578,-3.62699,0.525872,41,9
0.622332,-0.241387,-0.12975,27,2
7.58202,-2.94239,0.71154,58,10
12.0541,-4.68031,-2.04804,35,3
7.45381,-2.89413,0.98178,31,11
7.60228,-2.95484,1.29184,36,12
11.9419,-4.64394,-1.121,23,5
7.64059,-2.9728,1.59364,44,13
8.9338,-3.47776,-0.502425,38,6
7.70474,-3.00085,1.90893,52,14
8.10372,-3.15625,-0.151801,41,7
14.9923,-5.84224,4.31141,5,15
8.30675,-3.25204,0.15571,70,8
0.477216,-0.186923,-0.118324,16,1
8.00354,-3.13656,0.450508,41,9
0.621486,-0.243558,-0.12975,27,2
7.54758,-2.95939,0.709273,41,10
11.8023,-4.63002,-2.00799,19,3
7.51152,-2.94827,0.990798,27,11
9.20537,-3.61496,-1.21431,8,4
7.5914,-2.98268,1.29184,77,12
11.8941,-4.67321,-1.11803,23,5
7.69595,-3.02531,1.60738,37,13
7.35874,-2.89572,1.8257,33,14
8.08651,-3.18373,-0.151696,90,7
15.4597,-6.08973,4.45221,16,15
8.25072,-3.26336,0.154873,65,8
0.494681,-0.195758,-0.122823,15,1
9.49301,-3.75855,0.535083,42,9
0.616981,-0.24428,-0.128987,27,2
7.74282,-3.06716,0.728622,16,10
10.4877,-4.15661,-1.78679,37,3
10.3061,-4.0867,1.36128,25,11
7.4693,-2.96334,-0.986654,42,4
7.59012,-3.01281,1.2934,41,12
7.42401,-2.94687,-0.698815,22,5
7.96633,-3.16375,1.66614,14,13
7.58776,-3.01493,-0.427899,39,6
7.44638,-2.96026,1.85,13,14
8.07907,-3.21342,-0.151766,100,7
13.8462,-5.51008,3.99306,4,15
0.448518,-0.179122,-0.12941,15,0
7.65805,-3.0599,0.143947,61,8
0.479519,-0.191697,-0.119224,16,1
0.61977,-0.24789,-0.12975,27,2
7.79496,-3.11934,0.734549,43,10
8.94554,-3.58158,-1.52617,17,3
7.40414,-2.96594,0.979342,38,11
7.43495,-2.97979,-0.983486,46,4
8.8416,-3.54355,1.50865,65,12
7.39704,-2.96609,-0.697246,35,5
8.86082,-3.55484,1.85581,9,13
7.6087,-3.05405,-0.429678,50,6
14.2481,-5.72193,3.54478,13,14
8.0294,-3.22454,-0.151033,41,7
13.8494,-5.56461,3.99927,10,15
0.537468,-0.216824,-0.155291,12,0
7.66085,-3.09052,0.144192,32,8
0.493337,-0.199121,-0.122823,15,1
7.81896,-3.15748,0.441925,17,9
0.629823,-0.254465,-0.13204,26,2
9.67738,-3.91188,0.913218,24,10
9.21931,-3.72671,-1.57498,16,3
7.39059,-2.98899,0.978855,20,11
7.46367,-3.02007,-0.988604,26,4
8.7834,-3.55586,1.50083,71,12
7.41988,-3.00536,-0.700384,28,5
7.58557,-3.07401,-0.428946,65,6
10.9892,-4.45555,2.73765,25,14
8.12186,-3.29465,-0.152988,90,7
13.8782,-5.63253,4.01325,23,15
8.3426,-3.39946,0.157246,55,8
0.492639,-0.200842,-0.122823,15,1
7.85469,-3.20224,0.444542,44,9
0.632611,-0.258035,-0.132803,26,2
9.45591,-3.85888,0.893521,42,10
7.9406,-3.24373,1.05319,26,11
7.45125,-3.04535,-0.98836,59,4
8.76791,-3.58347,1.50021,65,12
7.45181,-3.04862,1.56502,28,13
7.57294,-3.09972,-0.428841,76,6
7.35779,-3.01315,1.8356,14,14
8.04983,-3.29655,-0.151836,82,7
13.8952,-5.69317,4.0236,9,15
0.481158,-0.198024,-0.120124,15,1
7.94319,-3.2707,0.450194,47,9
0.602663,-0.248277,-0.126697,28,2
9.41106,-3.87896,0.890557,72,10
13.6207,-5.61407,-2.33338,8,3
7.79583,-3.2148,1.0354,26,11
7.48515,-3.08821,-0.99421,57,4
8.12905,-3.35553,1.39289,104,12
7.36242,-3.04058,-0.696897,3,5
7.45073,-3.07706,1.56692,11,13
10.9775,-4.53582,-0.622484,27,6
7.34956,-3.03828,1.83605,39,14
8.07523,-3.33992,-0.152534,82,7
13.7878,-5.70545,3.99824,13,15
8.51194,-3.53969,0.160911,2,8
0.473197,-0.196876,-0.118324,16,1
8.31041,-3.45929,0.471756,63,9
0.627124,-0.261046,-0.13204,26,2
8.1001,-3.37341,0.767668,24,10
13.559,-5.64961,-2.32649,17,3
7.78893,-3.247,1.03613,30,11
7.49705,-3.12686,-0.997379,63,4
7.93927,-3.31293,1.36254,65,12
8.38214,-3.49945,-0.794686,16,5
10.9518,-4.57224,2.30688,19,13
7.58374,-3.16768,-0.430725,58,6
7.34323,-3.06873,1.8374,29,14
8.06788,-3.37321,-0.152639,90,7
14.0634,-5.88284,4.08468,10,15
8.45344,-3.55003,0.160039,37,8
8.31302,-3.49447,0.472594,42,9
0.633402,-0.266388,-0.133566,26,2
8.09319,-3.40539,0.768191,60,10
12.1709,-5.12367,-2.09153,15,3
7.81414,-3.28958,1.04101,28,11
7.47695,-3.14916,-0.99616,50,4
7.94951,-3.34983,1.3663,58,12
8.35519,-3.5225,-0.793292,27,5
12.6009,-5.31507,2.65835,37,13
7.6144,-3.21332,-0.433132,97,6
7.27628,-3.07213,1.82345,49,14
8.08369,-3.41302,-0.153162,90,7
13.8114,-5.83417,4.01739,23,15
8.49007,-3.60207,0.160981,37,8
0.471776,-0.200257,-0.118324,16,1
8.13838,-3.45621,0.463383,39,9
0.614397,-0.260923,-0.12975,27,2
8.05192,-3.42115,0.765402,39,10
11.5312,-4.90183,-1.98453,11,3
7.94269,-3.37802,1.05978,40,11
7.46353,-3.17577,-0.995916,66,4
7.94626,-3.38281,1.36786,90,12
8.38071,-3.56949,-0.796952,22,5
11.0506,-4.70665,2.33474,32,13
7.59396,-3.23596,-0.432609,68,6
7.26193,-3.09598,1.82255,63,14
8.06193,-3.4387,-0.152988,90,7
13.1876,-5.62771,3.84191,13,15
8.50134,-3.64192,0.161435,12,8
0.488986,-0.209579,-0.122823,15,1
7.81054,-3.34921,0.445379,6,9
0.609829,-0.261625,-0.128987,27,2
9.44177,-4.0526,0.898924,72,10
16.6245,-7.13899,-2.86557,30,3
7.90896,-3.39632,1.05685,30,11
7.44328,-3.19788,-0.994698,70,4
7.97796,-3.42925,1.37537,36,12
10.301,-4.42992,-0.981025,17,5
11.0802,-4.76729,2.34466,26,13
7.55086,-3.25035,-0.43083,25,6
7.31497,-3.15032,1.83875,12,14
7.93968,-3.41937,-0.150894,90,7
13.4961,-5.81513,3.93767,12,15
8.57419,-3.71039,0.163075,36,8
0.470331,-0.203628,-0.118324,16,1
0.612515,-0.265313,-0.12975,27,2
9.41294,-4.0792,0.89753,26,10
13.8283,-5.99552,-2.38719,15,3
10.9323,-4.74216,1.46316,17,11
7.43697,-3.22751,-0.995429,55,4
7.41451,-3.2193,1.28026,65,12
10.2965,-4.47062,-0.982071,6,5
11.1121,-4.82706,2.35496,33,13
7.52115,-3.26873,-0.429783,7,6
7.92709,-3.44844,-0.150894,90,7
13.2515,-5.76742,3.87245,9,15
7.50387,-3.27836,0.142935,48,8
0.487473,-0.213073,-0.122823,15,1
7.76075,-3.39382,0.443914,12,9
0.607987,-0.265876,-0.128987,27,2
7.54958,-3.30304,0.720952,65,10
13.8399,-6.05801,-2.39282,45,3
10.7538,-4.70942,1.44147,23,11
7.50384,-3.28771,-1.00591,20,4
7.47016,-3.27451,1.29184,93,12
7.27538,-3.18913,-0.69498,8,5
11.1401,-4.88553,2.36451,29,13
7.50969,-3.29496,-0.429783,14,6
8.29034,-3.64093,-0.158049,100,7
10.8471,-4.76608,3.17467,5,15
7.51982,-3.31664,0.143459,77,8
0.486727,-0.214774,-0.122823,15,1
0.610647,-0.269582,-0.12975,27,2
7.51613,-3.31971,0.718861,65,10
9.21304,-4.07112,-1.59532,10,3
9.83863,-4.34961,1.32082,18,11
7.51955,-3.32593,-1.00957,15,4
7.36656,-3.2598,1.27588,81,12
7.23449,-3.20287,-0.692191,13,5
11.4749,-5.08017,2.4393,28,13
7.44153,-3.29608,-0.426538,47,6
10.7112,-4.74657,2.70481,10,14
8.33974,-3.6974,-0.159236,100,7
13.3363,-5.91541,3.9092,10,15
7.49359,-3.33636,0.14318,43,8
0.485974,-0.216471,-0.122823,15,1
7.72957,-3.44466,0.443495,39,9
0.616828,-0.275016,-0.131277,27,2
7.53485,-3.36104,0.721824,75,10
9.20708,-4.10889,-1.59688,32,3
9.7128,-4.33458,1.30595,33,11
7.51877,-3.35701,-1.01103,17,4
7.3858,-3.29919,1.2812,51,12
7.11595,-3.18014,-0.681907,13,5
11.1031,-4.96432,2.36412,29,13
7.43123,-3.32415,-0.426643,58,6
10.9321,-4.89246,2.7651,10,14
8.31765,-3.72241,-0.159061,26,7
10.9265,-4.89222,3.2078,8,15
8.53547,-3.83779,0.163355,37,8
0.485177,-0.218251,-0.122823,15,1
7.68229,-3.45739,0.441506,35,9
0.608703,-0.273945,-0.12975,27,2
7.48855,-3.37177,0.718512,78,10
13.4936,-6.07844,-2.34401,60,3
9.6498,-4.34894,1.29961,18,11
7.26935,-3.27766,-0.979098,31,4
7.87964,-3.55448,1.36911,87,12
7.18471,-3.241,-0.689576,23,5
13.2599,-5.98428,2.82779,27,13
10.1136,-4.56648,-0.581557,54,6
10.8226,-4.88888,2.7417,23,14
8.32764,-3.76358,-0.159515,24,7
13.8763,-6.27413,4.08054,13,15
8.5803,-3.894,0.164471,56,8
0.519901,-0.236056,-0.131821,14,1
7.66472,-3.48171,0.441192,31,9
0.600593,-0.27282,-0.128224,28,2
7.50213,-3.40943,0.720952,65,10
13.4436,-6.11243,-2.33901,63,3
9.98149,-4.54041,1.34641,18,11
7.25425,-3.30137,-0.978611,33,4
7.8528,-3.57542,1.36661,103,12
11.0342,-5.02625,2.35687,18,13
7.42238,-3.38257,-0.42748,68,6
13.85,-6.31472,3.51419,13,14
8.52914,-3.89055,-0.163634,76,7
14.1074,-6.43802,4.15508,15,15
8.5612,-3.92143,0.164367,42,8
0.483642,-0.221633,-0.122823,15,1
7.63073,-3.49846,0.439936,69,9
0.596068,-0.273279,-0.12746,28,2
7.45759,-3.42065,0.717815,30,10
8.07735,-3.70663,-1.4076,28,3
6.83375,-3.13739,0.923282,9,11
7.22284,-3.31756,-0.97593,50,4
7.82232,-3.59456,1.36348,81,12
8.24453,-3.78857,-0.793815,21,5
11.013,-5.0631,2.35611,16,13
7.39419,-3.40095,-0.426538,76,6
13.8597,-6.37769,3.52228,18,14
8.62631,-3.97131,-0.165763,43,7
9.08474,-4.19966,0.174699,30,8
