x, y, z, intensity, ring
-7.73462,8.67809,-1.42733,33,4
-18.8778,21.1806,4.49374,3,12
-7.37982,8.28292,-0.970566,31,5
-14.1192,15.8526,4.12644,46,13
-8.41893,9.45584,-0.663515,58,6
-13.5105,15.1799,4.69158,19,14
-9.4805,10.6519,-0.248906,32,7
-12.7539,14.3348,5.14118,9,15
-0.384631,0.433525,-0.155291,12,0
-9.00855,10.1537,0.236934,41,8
-0.373693,0.421345,-0.130022,14,1
-9.06823,10.2282,0.716375,46,9
-0.472689,0.533339,-0.138527,24,2
-13.3392,15.0561,1.75985,43,10
-7.7615,8.76044,-1.85375,11,3
-18.8892,21.3279,3.49814,11,11
-7.06628,7.98136,-1.30888,11,4
-18.7135,21.1443,4.47215,56,12
-7.40367,8.36832,-0.977539,27,5
-8.40209,9.50017,-0.664667,52,6
-13.5298,15.3034,4.71587,32,14
-9.47901,10.7254,-0.249849,27,7
-12.737,14.4168,5.15464,1,15
-9.09599,10.3246,0.24018,45,8
-0.395404,0.448971,-0.13812,13,1
-9.15389,10.3977,0.726004,43,9
-0.485188,0.551113,-0.142725,34,2
-12.9536,14.7188,1.7154,21,10
-7.73478,8.79193,-1.85469,10,3
-18.7006,21.264,3.47693,100,11
-7.04624,8.01492,-1.31034,28,4
-7.42059,8.44371,-0.983465,48,5
-18.1483,20.6578,5.34494,15,13
-8.43082,9.59997,-0.669586,29,6
-16.2443,18.5035,5.68451,13,14
-9.11044,10.3812,-0.241088,100,7
-14.4728,16.4972,5.88037,30,15
-9.05726,10.3533,0.24011,23,8
-0.393834,0.450348,-0.13812,13,1
-9.15172,10.4687,0.728726,36,9
-0.472925,0.540979,-0.139672,47,2
-12.9257,14.7909,1.71854,35,10
-23.8505,27.3115,4.45213,87,11
-7.79367,8.92776,-1.45512,42,4
-18.1147,20.7579,4.36358,15,12
-7.40156,8.48157,-0.98486,25,5
-14.3114,16.4055,4.23176,20,13
-7.35629,8.43565,-0.586581,70,6
-13.3317,15.2932,4.68393,46,14
-9.08729,10.428,-0.241437,35,7
-14.0864,16.1704,5.7463,25,15
-8.9909,10.3501,0.239307,56,8
-0.379482,0.437006,-0.133621,14,1
-9.03002,10.4025,0.721922,48,9
-0.490338,0.564865,-0.145396,54,2
-12.9994,14.9804,1.73527,28,10
-7.66804,8.83975,-1.85344,18,3
-13.2222,15.248,2.47809,32,11
-8.07452,9.31491,-1.51362,19,4
-16.3552,18.8744,3.9556,27,12
-14.2798,16.485,4.23939,20,13
-7.31373,8.44618,-0.585535,20,6
-12.7997,14.792,-0.341439,65,7
-12.5095,14.4618,5.12358,6,15
-8.9521,10.3784,0.239238,35,8
-0.3805,0.44128,-0.134521,14,1
-9.05363,10.5036,0.726737,41,9
-0.4858,0.563599,-0.144633,55,2
-16.4689,19.1131,2.20731,63,10
-13.2829,15.4265,2.49954,33,11
-7.54856,8.76982,-1.42075,30,4
-16.3086,18.9538,3.9603,67,12
-7.36815,8.56324,-0.988346,23,5
-14.5204,16.8816,4.32831,19,13
-7.59932,8.83814,-0.610865,16,6
-14.4491,16.8105,5.11764,100,14
-10.8283,12.6024,-0.290024,32,7
-12.4829,14.5332,5.13342,14,15
-16.5516,19.3248,0.444129,100,8
-0.376422,0.439645,-0.133621,14,1
-9.5981,11.2102,0.773421,14,9
-0.477446,0.557834,-0.142725,56,2
-12.8336,14.9997,1.72708,21,10
-13.3128,15.5708,2.51538,16,11
-7.51017,8.78706,-1.41929,6,4
-7.34081,8.59194,-0.988695,42,5
-14.4308,16.8963,4.31915,26,13
-7.6203,8.92537,-0.615052,33,6
-9.02746,10.5773,-0.242728,100,7
-12.5086,14.6612,5.16396,14,15
-16.4965,19.3902,0.444373,43,8
-0.377487,0.44386,-0.134521,14,1
-0.47931,0.563985,-0.14387,55,2
-12.8147,15.0839,1.73161,31,10
-15.0627,17.7362,2.85711,7,11
-7.47071,8.79981,-1.41734,13,4
-27.8375,32.8016,6.81397,8,12
-6.82871,8.04929,-0.923502,11,5
-14.3849,16.956,4.32221,28,13
-7.68238,9.05875,-0.622484,30,6
-14.2966,16.8639,5.10414,41,14
-8.98272,10.5996,-0.242519,22,7
-12.491,14.7446,5.17793,14,15
-0.374079,0.442662,-0.155291,12,0
-9.27319,10.9772,0.250826,6,8
-0.37845,0.448153,-0.135421,13,1
-9.06481,10.7382,0.736472,11,9
-0.474905,0.562571,-0.143107,45,2
-17.8106,21.1058,2.41613,33,10
-13.2987,15.7703,2.53293,34,11
-7.37469,8.74842,-1.40491,1,4
-14.678,17.4183,3.60769,14,12
-6.83023,8.10541,-0.927337,20,5
-16.961,20.1418,-1.37999,39,6
-14.1874,16.8541,5.08614,5,14
-18.2467,21.684,-0.494671,71,7
-15.5522,18.4884,6.47358,14,15
-9.19497,10.962,0.249744,26,8
-0.341825,0.40766,-0.122823,15,1
-9.52123,11.359,0.77677,10,9
-0.471677,0.562721,-0.142725,45,2
-12.7232,15.1845,1.73318,17,10
-7.62325,9.10114,-1.88034,35,3
-13.1696,15.7284,2.5188,61,11
-7.35812,8.79086,-1.40759,26,4
-6.63568,7.93056,-0.904677,24,5
-7.74834,9.26691,-0.633056,19,6
-14.2285,17.0231,5.12214,20,14
-15.0655,18.0309,-0.410132,27,7
-17.1383,20.5191,7.16359,18,15
-14.9501,17.9501,0.407758,47,8
-0.3404,0.40885,-0.122823,15,1
-9.47769,11.3876,0.776456,8,9
-0.465942,0.559837,-0.14158,23,2
-14.709,17.6794,2.01208,42,10
-7.36786,8.85888,-1.82496,65,3
-13.0284,15.6705,2.50222,60,11
-7.36419,8.86076,-1.41466,55,4
-14.4449,17.3866,3.58016,23,12
-6.77093,8.14983,-0.926988,7,5
-13.5593,16.3264,4.12529,17,13
-7.56158,9.10796,-0.62039,50,6
-17.2256,20.7556,6.2271,8,14
-14.9986,18.0788,-0.410027,93,7
-12.2558,14.7779,5.14429,6,15
-0.369423,0.446555,-0.155291,12,0
-8.83531,10.6839,0.241995,15,8
-0.358837,0.434068,-0.130022,14,1
-0.463985,0.56146,-0.14158,23,2
-7.75826,9.3948,-1.92978,18,3
-12.8295,15.5413,2.47444,59,11
-7.36985,8.93082,-1.42173,22,4
-17.5053,21.2206,4.35701,15,12
-6.59537,7.99513,-0.906768,1,5
-13.5035,16.3752,4.12567,10,13
-7.50433,9.10348,-0.618297,87,6
-13.5095,16.3941,4.90438,27,14
-15.7034,19.0632,-0.431109,100,7
-13.1804,16.0062,5.55581,11,15
-16.2631,19.7991,0.447235,15,8
-0.387075,0.471401,-0.140819,13,1
-13.3422,16.2546,1.10209,15,9
-0.459629,0.55996,-0.140817,23,2
-12.4575,15.1822,1.71819,7,10
-7.43391,9.06309,-1.85656,20,3
-12.8635,15.6882,2.49101,60,11
-7.02309,8.56832,-1.36031,15,4
-13.3535,16.2973,3.33706,14,12
-6.57134,8.02004,-0.907117,20,5
-13.4366,16.4047,4.12186,23,13
-16.607,20.2826,-1.37382,39,6
-13.4205,16.3966,4.89179,22,14
-9.10722,11.1308,-0.251035,100,7
-12.9194,15.7956,5.46781,17,15
-9.1011,11.159,0.25135,12,8
-0.397741,0.487853,-0.145318,12,1
-13.3043,16.3243,1.10366,22,9
-0.44775,0.549386,-0.137764,24,2
-16.0803,19.7375,2.22735,23,10
-6.82093,8.37522,-1.71077,20,3
-12.4966,15.3497,2.43032,30,11
-7.38157,9.07008,-1.43586,30,4
-13.3202,16.373,3.343,20,12
-6.60241,8.11557,-0.91531,33,5
-16.6458,20.468,5.12818,10,13
-7.41447,9.12026,-0.615994,20,6
-14.4029,17.7228,5.2724,5,14
-9.03553,11.1222,-0.250128,35,7
-12.8909,15.8736,5.4792,17,15
-8.78649,10.8504,0.243705,15,8
-0.369061,0.455916,-0.135421,13,1
-16.4734,20.3502,1.37214,9,9
-0.471764,0.582996,-0.145778,32,2
-16.084,19.8834,2.23746,11,10
-6.8078,8.41895,-1.71483,10,3
-12.4292,15.3762,2.42764,25,11
-6.97583,8.62982,-1.3625,55,4
-14.1957,17.5679,3.57734,14,12
-6.58906,8.15717,-0.917401,20,5
-18.2566,22.6094,5.64871,12,13
-7.52435,9.3217,-0.627822,16,6
-13.6427,16.9016,5.01461,9,14
-9.14552,11.3342,-0.254212,100,7
-14.3871,17.8364,6.14022,12,15
-8.75422,10.8842,0.24381,26,8
-0.377316,0.469287,-0.13902,13,1
-15.7162,19.547,1.31447,21,9
-0.479667,0.596799,-0.148831,30,2
-16.033,19.9553,2.23955,29,10
-6.80582,8.47382,-1.72141,45,3
-16.718,20.8227,3.27877,9,11
-6.8055,8.47644,-1.33471,72,4
-30.5634,38.0812,7.73381,11,12
-7.26268,9.05235,-1.01536,27,5
-16.4385,20.4966,5.10719,17,13
-7.28851,9.09104,-0.610656,20,6
-12.7772,15.9372,4.71587,4,14
-8.85902,11.0539,-0.247266,52,7
-12.3022,15.3557,5.27214,7,15
-15.871,19.8671,0.44385,17,8
-0.36603,0.458353,-0.135421,13,1
-15.6803,19.6424,1.31719,14,9
-0.461762,0.57844,-0.14387,44,2
-15.9493,19.9865,2.23711,23,10
-7.73484,9.69621,-1.9645,55,3
-12.6116,15.8153,2.4837,33,11
-6.73875,8.45358,-1.3274,42,4
-18.142,22.7668,4.61075,37,12
-6.97531,8.75662,-0.979456,36,5
-16.4414,20.6401,5.12933,10,13
-7.01322,8.80736,-0.590036,40,6
-12.6681,15.9146,4.69608,42,14
-8.80793,11.0691,-0.246917,27,7
-12.2197,15.3622,5.25972,7,15
-15.8289,19.9568,0.444618,37,8
-0.36927,0.465736,-0.13722,13,1
-15.6662,19.7658,1.3218,40,9
-0.459639,0.580128,-0.14387,55,2
-13.491,17.0336,1.90104,34,10
-7.46627,9.43023,-1.90506,25,3
-12.4405,15.7129,2.46079,26,11
-6.62296,8.36809,-1.31034,56,4
-13.3118,16.8254,3.39807,1,12
-6.95336,8.79185,-0.980676,46,5
-16.2926,20.6078,5.10643,10,13
-7.28183,9.21378,-0.615471,47,6
-12.5746,15.9166,4.68303,34,14
-8.7618,11.0904,-0.246707,100,7
-12.1612,15.3987,5.25765,7,15
-9.01702,11.4545,0.254456,15,8
-0.377202,0.479338,-0.140819,13,1
-15.6035,19.8357,1.32263,17,9
-0.457611,0.581729,-0.14387,44,2
-16.1027,20.4776,2.27912,49,10
-6.9218,8.80553,-1.77397,22,3
-12.5165,15.9285,2.48735,49,11
-6.51377,8.2924,-1.29474,13,4
-14.0454,17.8871,3.60206,23,12
-6.88817,8.77219,-0.975796,42,5
-13.4579,17.145,4.23672,24,13
-15.2785,19.4713,-1.29709,35,6
-17.5536,22.3788,6.56632,28,14
-8.70135,11.0972,-0.246149,31,7
-12.1214,15.4645,5.2649,3,15
-15.5367,19.8789,0.440394,40,8
-0.387524,0.496008,-0.145318,12,1
-15.5809,19.9498,1.32661,10,9
-0.453161,0.580229,-0.143107,56,2
-13.0517,16.7175,1.85555,45,10
-7.96782,10.2094,-2.05117,13,3
-12.4511,15.9596,2.4854,33,11
-6.52507,8.36674,-1.30278,63,4
-13.9623,17.9095,3.59674,23,12
-6.84158,8.77575,-0.97353,51,5
-13.4801,17.2972,4.26267,18,13
-15.2914,19.6285,-1.304,60,6
-16.4169,21.0808,6.16861,24,14
-8.6601,11.1244,-0.246079,61,7
-12.1883,15.6622,5.3177,13,15
-0.355374,0.457815,-0.155291,12,0
-15.4488,19.9093,0.43987,31,8
-0.32607,0.420367,-0.122823,15,1
-13.1399,16.9398,1.12355,15,9
-0.44993,0.580255,-0.142725,45,2
-19.5052,25.1641,2.7855,17,10
-12.3442,15.937,2.47517,10,11
-6.54105,8.44483,-1.31156,38,4
-13.7915,17.812,3.56796,27,12
-6.82311,8.81534,-0.975273,44,5
-13.3607,17.2681,4.24397,24,13
-6.96744,9.00832,-0.596839,27,6
-14.4929,18.7381,5.46901,6,14
-14.3475,18.5568,-0.409433,100,7
-12.1434,15.7117,5.3208,11,15
-14.9579,19.4093,0.427724,8,8
-0.372246,0.483197,-0.140819,13,1
-13.1043,17.0102,1.12533,18,9
-0.448003,0.581744,-0.142725,45,2
-7.73792,10.0552,-2.00956,44,3
-12.2792,15.9622,2.47273,21,11
-6.56505,8.53413,-1.32204,30,4
-13.7047,17.8216,3.56076,17,12
-6.73312,8.75894,-0.966557,55,5
-18.0393,23.4753,5.7548,4,13
-10.4829,13.6468,-0.901853,23,6
-12.4067,16.1512,4.70193,19,14
-14.4064,18.7613,-0.412889,42,7
-12.8911,16.794,5.6728,23,15
-13.8653,18.1153,0.398194,10,8
-0.370642,0.484428,-0.140819,13,1
-15.3404,20.0499,1.32305,8,9
-0.448457,0.586346,-0.143488,44,2
-37.9158,49.5918,5.46153,35,10
-14.0327,18.3673,2.83809,14,11
-6.53522,8.557,-1.32204,64,4
-15.6322,20.4683,4.07919,11,12
-6.74152,8.83031,-0.971961,31,5
-17.5683,23.02,5.62887,8,13
-12.2947,16.1215,4.68078,27,14
-10.7293,14.0689,-0.308838,26,7
-18.0075,23.621,7.95869,11,15
-10.1118,13.3025,0.291665,6,8
-0.361959,0.476345,-0.13812,13,1
-9.97525,13.1324,0.864276,11,9
-0.453531,0.597289,-0.145778,32,2
-20.6492,27.2043,2.98805,9,10
-6.8028,8.96235,-1.7821,37,3
-13.5662,17.8793,2.75571,6,11
-6.74914,8.89811,-1.37127,26,4
-20.158,26.5861,5.28436,8,12
-6.50004,8.57592,-0.941456,24,5
-13.7326,18.1183,4.41914,2,13
-6.97639,9.20772,-0.605422,37,6
-12.6788,16.7401,4.84815,35,14
-14.0213,18.5193,-0.405454,67,7
-12.7042,16.7858,5.6407,14,15
-0.349189,0.462549,-0.155291,12,0
-10.0448,13.3106,0.291071,9,8
-0.357947,0.474494,-0.13722,13,1
-13.0379,17.2893,1.13485,6,9
-0.448002,0.594087,-0.144633,22,2
-20.5637,27.279,2.98874,18,10
-6.83567,9.07123,-1.799,57,3
-13.4607,17.8694,2.74694,34,11
-6.49474,8.62507,-1.32569,38,4
-15.1551,20.1335,3.99127,2,12
-6.84062,9.0877,-0.995144,27,5
-13.661,18.1551,4.41647,25,13
-16.4594,21.89,6.32292,8,14
-10.5996,14.1019,-0.30793,27,7
-13.1492,17.5004,5.86536,18,15
-14.8386,19.8063,0.431982,43,8
-0.330589,0.441425,-0.127322,15,1
-12.9559,17.306,1.13297,18,9
-0.448279,0.59879,-0.145396,21,2
-19.5026,26.0601,2.84773,61,10
-6.70101,8.95743,-1.77178,56,3
-13.3673,17.875,2.7406,48,11
-6.53115,8.73672,-1.33934,52,4
-15.0966,20.2021,3.9944,13,12
-6.8661,9.18814,-1.00351,36,5
-13.3179,17.8284,4.32564,38,13
-6.78646,9.08817,-0.594432,100,6
-16.1229,21.599,6.2226,16,14
-13.7326,18.4036,-0.400812,100,7
-13.0765,17.5307,5.86018,15,15
-0.345951,0.464976,-0.155291,12,0
-14.8243,19.9318,0.433588,14,8
-0.340673,0.458215,-0.131821,14,1
-12.8889,17.336,1.13213,13,9
-0.448528,0.603503,-0.14616,21,2
-12.5437,16.884,1.84021,16,10
-6.72388,9.05371,-1.78617,36,3
-13.3143,17.9343,2.74255,27,11
-6.47374,8.72008,-1.33349,33,4
-15.3968,20.7469,4.09201,22,12
-6.8601,9.24725,-1.00735,36,5
-12.8077,17.2708,4.17948,17,13
-6.788,9.15673,-0.597363,47,6
-15.9815,21.5584,6.1956,16,14
-10.4605,14.1159,-0.306674,15,7
-12.9815,17.5243,5.84362,13,15
-10.1936,13.801,0.299483,19,8
-0.343782,0.465613,-0.133621,14,1
-12.8599,17.4172,1.13464,15,9
-0.446524,0.604987,-0.14616,21,2
-12.4498,16.8742,1.83463,64,10
-6.69969,9.08391,-1.78773,10,3
-16.5037,22.385,3.41478,10,11
-6.36351,8.63125,-1.31668,26,4
-16.7284,22.6981,4.46589,12,12
-6.8684,9.32288,-1.0131,47,5
-12.7189,17.2705,4.16918,21,13
-7.14005,9.6987,-0.631172,84,6
-15.9331,21.6427,6.2046,24,14
-13.8295,18.7922,-0.407269,92,7
-14.0154,19.0518,6.33744,6,15
-0.34286,0.46726,-0.155291,12,0
-15.1944,20.715,0.448422,15,8
-0.335322,0.457321,-0.130922,14,1
-12.8061,17.4717,1.13527,1,9
-0.436391,0.59538,-0.143488,22,2
-12.3632,16.8736,1.8301,64,10
-7.69785,10.5101,-2.06337,59,3
-12.6498,17.2774,2.62921,50,11
-6.70617,9.16282,-1.39419,92,4
-6.77701,9.26639,-1.00438,48,5
-13.481,18.4329,4.43898,22,13
-6.95815,9.51756,-0.617878,74,6
-14.1419,19.3507,5.53335,25,14
-9.84278,13.4731,-0.291246,100,7
-13.4589,18.4297,6.11486,15,15
-0.341145,0.468513,-0.155291,12,0
-15.0443,20.6612,0.446118,33,8
-0.336017,0.46164,-0.131821,14,1
-13.6968,18.8244,1.22006,8,9
-0.431897,0.5938,-0.142725,22,2
-12.2708,16.8769,1.82556,48,10
-12.5579,17.2781,2.62263,6,11
-6.50029,8.94688,-1.35787,34,4
-19.4309,26.7542,5.23711,4,12
-6.55031,9.02235,-0.975447,17,5
-13.3084,18.3376,4.40425,27,13
-6.99477,9.64161,-0.624263,100,6
-15.6828,21.6252,6.16726,32,14
-9.88726,13.6336,-0.293968,54,7
-13.9183,19.1992,6.35401,6,15
-0.339507,0.469701,-0.155291,12,0
-13.8383,19.1521,0.412435,23,8
-0.343451,0.475507,-0.135421,13,1
-9.7204,13.4628,0.870242,9,9
-0.444761,0.615997,-0.147686,41,2
-16.266,22.5534,3.41429,21,11
-6.35252,8.81123,-1.33374,19,4
-12.7795,17.7323,3.4619,16,12
-6.48849,9.00313,-0.970915,25,5
-12.8943,17.8981,4.28786,26,13
-18.1531,25.2162,7.17324,10,14
-14.7488,20.4949,-0.440743,45,7
-14.2664,19.8319,6.54605,14,15
-9.09197,12.6761,0.272292,43,8
-0.348602,0.486205,-0.13812,13,1
-0.426597,0.595205,-0.142344,45,2
-20.0177,27.9399,3.00705,37,10
-6.58945,9.20066,-1.79243,27,3
-16.2357,22.6778,3.42453,10,11
-6.87742,9.60982,-1.45098,46,4
-12.7072,17.7624,3.45908,22,12
-6.63091,9.26879,-0.997062,10,5
-12.8203,17.927,4.28404,54,13
-6.95749,9.73246,-0.626985,26,6
-15.4125,21.5677,6.12002,16,14
-14.6679,20.5333,-0.440464,73,7
-16.6815,23.3608,7.69159,10,15
-0.33622,0.47206,-0.155291,12,0
-9.03259,12.6866,0.271839,16,8
-0.351423,0.49377,-0.13992,13,1
-9.78604,13.75,0.884478,12,9
-0.435898,0.612688,-0.14616,42,2
-13.128,18.4593,1.98175,60,10
-6.53326,9.18979,-1.78586,70,3
-17.2278,24.233,3.65072,11,11
-6.89496,9.70215,-1.46146,19,4
-12.67,17.835,3.46502,14,12
-6.67811,9.40397,-1.00909,58,5
-12.7562,17.9631,4.28252,23,13
-6.9032,9.72453,-0.624996,27,6
-15.4074,21.7125,6.14656,16,14
-13.5885,19.1563,-0.409957,68,7
-13.6305,19.2225,6.31415,13,15
-8.98691,12.7068,0.271664,9,8
-0.34987,0.494871,-0.13992,13,1
-13.602,19.2463,1.23513,21,9
-0.430465,0.60932,-0.145015,54,2
-19.7423,27.9451,2.99345,100,10
-6.4941,9.19575,-1.78304,40,3
-13.5755,19.2302,2.89025,22,11
-6.84558,9.70063,-1.4578,45,4
-12.6264,17.8925,3.46847,10,12
-7.46051,10.5759,-1.13233,47,5
-12.8561,18.2315,4.33633,26,13
-6.64078,9.42088,-0.604062,30,6
-13.7179,19.4679,5.49825,50,14
-9.54064,13.5398,-0.289117,29,7
-16.4235,23.3164,7.64189,10,15
-0.304291,0.433122,-0.141833,14,0
-9.05735,12.8969,0.275085,24,8
-0.332551,0.473699,-0.133621,14,1
-13.1409,18.7185,1.1986,17,9
-0.43306,0.617097,-0.146541,42,2
-12.3586,17.6172,1.88274,21,10
-6.46698,9.22208,-1.78398,81,3
-13.5036,19.2565,2.88782,38,11
-6.80481,9.70746,-1.45561,34,4
-17.3451,24.753,4.78721,7,12
-7.42883,10.6055,-1.13285,38,5
-12.9452,18.4808,4.38594,12,13
-6.95024,9.92597,-0.635045,32,6
-13.6075,19.4407,5.47846,18,14
-14.1848,20.2806,6.63146,7,15
-0.33159,0.475324,-0.155291,12,0
-9.33943,13.3878,0.284928,17,8
-0.331061,0.474742,-0.133621,14,1
-9.30854,13.3534,0.853076,11,9
-0.423154,0.607255,-0.14387,44,2
-11.7963,16.9285,1.80517,34,10
-6.52265,9.36392,-1.80744,17,3
-13.383,19.2197,2.87563,45,11
-6.73403,9.67458,-1.44732,56,4
-17.247,24.7782,4.78158,7,12
-7.37954,10.6059,-1.13041,26,5
-12.9332,18.5946,4.40273,27,13
-7.40869,10.6557,-0.680158,16,6
-13.4595,19.3657,5.44472,49,14
-13.9005,20.0001,-0.425141,87,7
-13.7308,19.7634,6.44822,7,15
-0.274802,0.397161,-0.12941,15,0
-11.2842,16.3148,0.346256,17,8
-0.333586,0.482479,-0.135421,13,1
-9.26515,13.4005,0.853809,24,9
-0.417471,0.60403,-0.142725,45,2
-11.7283,16.9757,1.80517,34,10
-6.46256,9.35752,-1.80119,13,3
-13.3846,19.3877,2.89269,38,11
-6.69626,9.70317,-1.44756,67,4
-17.1429,24.8407,4.78032,7,12
-7.19662,10.4321,-1.1088,26,5
-14.187,20.5729,4.85762,31,13
-7.54495,10.9452,-0.696696,16,6
-13.3673,19.3987,5.43887,48,14
-9.09992,13.2059,-0.279937,7,7
-14.1938,20.6059,6.70445,42,15
-0.328097,0.477741,-0.155291,12,0
-11.0659,16.1131,0.341195,55,8
-0.340808,0.496435,-0.13902,13,1
-9.06801,13.2138,0.839887,17,9
-0.419802,0.611959,-0.144252,44,2
-11.7568,17.1447,1.81877,38,10
-6.39909,9.33166,-1.79211,40,3
-13.5784,19.8085,2.94875,48,11
-6.79421,9.91527,-1.47584,34,4
-17.0482,24.889,4.77813,14,12
-7.4427,10.8698,-1.15255,28,5
-13.3289,19.4664,4.5859,33,13
-9.50987,13.894,-0.882384,27,6
-13.3216,19.4703,5.44652,61,14
-9.34389,13.6617,-0.288907,100,7
-14.8414,21.7079,7.04609,4,15
-0.326511,0.478827,-0.155291,12,0
-8.79418,12.9015,0.272537,13,8
-0.354435,0.520167,-0.145318,12,1
-9.05788,13.2933,0.843028,24,9
-0.416665,0.611725,-0.14387,33,2
-11.6573,17.1211,1.81214,42,10
-6.52209,9.58256,-1.83592,15,3
-13.4891,19.8263,2.94436,48,11
-6.83213,10.0456,-1.49168,27,4
-16.9412,24.9095,4.77125,7,12
-7.55671,11.1152,-1.17591,30,5
-13.4871,19.8457,4.66413,23,13
-8.3053,12.2255,-0.774572,19,6
-13.3072,19.5956,5.46856,42,14
-9.31089,13.7108,-0.289291,70,7
-14.0923,20.7596,6.72308,3,15
-9.23555,13.646,0.287616,6,8
-0.328685,0.485831,-0.135421,13,1
-8.81002,13.027,0.824187,29,9
-0.418926,0.619682,-0.145396,21,2
-11.6231,17.1996,1.81615,42,10
-6.52567,9.65651,-1.84593,35,3
-13.2221,19.5732,2.90025,62,11
-7.61752,11.2807,-1.67132,35,4
-17.7272,26.2619,5.01842,16,12
-7.52901,11.158,-1.17765,35,5
-12.814,18.9904,4.4531,27,13
-10.9809,16.2799,-1.02913,22,6
-13.2378,19.6332,5.46676,24,14
-9.25738,13.735,-0.289117,86,7
-13.8136,20.5026,6.62422,7,15
-0.323244,0.481038,-0.155291,12,0
-13.6379,20.3031,0.426921,24,8
-0.331332,0.493447,-0.13722,13,1
-0.428904,0.638999,-0.149594,20,2
-11.7736,17.5474,1.84875,56,10
-6.47652,9.65626,-1.84155,23,3
-17.675,26.3628,3.89714,100,11
-18.941,28.2618,5.38854,9,12
-7.37997,11.0157,-1.16004,26,5
-12.6821,18.9371,4.4302,40,13
-8.44855,12.6203,-0.795925,32,6
-16.633,24.846,6.90285,10,14
-9.23181,13.7955,-0.289745,86,7
-13.0269,19.4741,6.27792,6,15
-8.77409,13.1562,0.276027,12,8
-0.340504,0.510757,-0.141719,13,1
-0.419161,0.628981,-0.146923,21,2
-11.352,17.0409,1.7914,15,10
-6.43132,9.65796,-1.83779,17,3
-16.9044,25.3951,3.74578,12,11
-6.75275,10.1445,-1.49631,9,4
-13.8025,20.743,3.94622,2,12
-9.84489,14.8009,-1.55521,13,5
-12.6083,18.9627,4.42639,30,13
-8.22313,12.3721,-0.77855,26,6
-13.1591,19.7985,5.48836,43,14
-12.4859,18.7928,-0.393831,97,7
-12.9708,19.5301,6.28206,13,15
-8.72489,13.1769,0.275853,42,8
-0.319448,0.482633,-0.133621,14,1
-0.424656,0.641829,-0.149594,20,2
-9.41374,14.2334,1.49298,42,10
-6.80343,10.2906,-1.95387,41,3
-13.077,19.7871,2.91219,38,11
-9.32697,14.1183,-2.07763,2,4
-13.8388,20.9558,3.9775,18,12
-11.1748,16.9217,-1.77414,20,5
-12.4502,18.8602,4.39281,30,13
-14.502,21.985,6.08043,63,14
-9.11458,13.823,-0.289012,55,7
-13.6394,20.693,6.64078,11,15
-0.318358,0.484286,-0.155291,12,0
-9.71332,14.7815,0.308733,22,8
-0.3306,0.50329,-0.13902,13,1
-9.26331,14.1074,0.884478,11,9
-0.429957,0.654795,-0.152266,19,2
-11.392,17.3559,1.81633,31,10
-6.47163,9.86337,-1.86845,12,3
-12.8794,19.6368,2.88343,30,11
-8.53642,13.0202,-1.91164,23,4
-13.8544,21.1395,4.00316,28,12
-9.34421,14.2577,-1.49141,3,5
-12.3639,18.8724,4.38555,20,13
-12.9629,19.8018,5.46406,6,14
-9.66083,14.7633,-0.307965,83,7
-13.2096,20.1941,6.46582,7,15
-0.316666,0.485394,-0.155291,12,0
-13.4662,20.6493,0.430307,23,8
-0.335226,0.514236,-0.141719,13,1
-9.05917,13.902,0.869614,31,9
-0.425524,0.653002,-0.151502,19,2
-11.2803,17.3171,1.80813,42,10
-7.72632,11.8657,-2.24264,78,3
-12.5649,19.304,2.8281,36,11
-6.58444,10.1198,-1.48242,12,4
-9.90922,15.2356,-1.59007,13,5
-12.315,18.9417,4.39166,2,13
-12.9054,19.8649,5.46901,30,14
-9.56241,14.7248,-0.306464,83,7
-13.1706,20.2887,6.48135,18,15
-10.9071,16.8534,0.350409,11,8
-0.305908,0.472862,-0.130022,14,1
-8.98022,13.8866,0.866684,42,9
-0.408317,0.631404,-0.14616,21,2
-11.1614,17.266,1.79872,50,10
-7.57657,11.725,-2.21105,18,3
-12.4802,19.321,2.8242,58,11
-8.45716,13.0978,-1.91432,23,4
-15.6711,24.2796,4.57696,3,12
-9.20555,14.2623,-1.48513,3,5
-12.0924,18.7421,4.33556,4,13
-7.84501,12.1637,-0.758557,97,6
-13.1474,20.393,5.60173,26,14
-8.32371,12.9159,-0.268209,100,7
-15.6556,24.302,7.74594,5,15
-0.313269,0.487593,-0.155291,12,0
-10.818,16.8443,0.349432,24,8
-0.365318,0.56904,-0.156116,11,1
-8.96326,13.9617,0.86951,9,9
-6.72998,10.4871,-2.42213,5,2
-11.0946,17.2948,1.79767,19,10
-7.70087,12.0092,-2.25954,35,3
-12.327,19.2308,2.8047,58,11
-9.28851,14.4962,-2.11395,19,4
-15.6182,24.3747,4.58509,16,12
-10.8439,16.9301,-1.75898,32,5
-12.7107,19.8523,4.58209,16,13
-7.80142,12.1894,-0.758453,100,6
-12.8157,20.0317,5.49016,50,14
-8.26897,12.9249,-0.267825,22,7
-14.7745,23.1023,7.34787,19,15
-0.311566,0.488683,-0.155291,12,0
-10.8018,16.9424,0.350724,24,8
-0.315251,0.494654,-0.135421,13,1
-8.92305,14.0064,0.870347,25,9
-6.44868,10.1263,-2.33359,5,2
-13.4254,21.0899,2.18726,16,10
-8.83742,13.8827,-2.60651,9,3
-12.2429,19.2397,2.80007,42,11
-8.20693,12.9022,-1.87752,21,4
-14.4954,22.7971,4.2788,25,12
-8.99033,14.1446,-1.46631,3,5
-12.9239,20.3334,4.68322,31,13
-7.79202,12.2641,-0.761488,42,6
-12.7356,20.0527,5.48431,31,14
-8.19166,12.903,-0.266777,90,7
-12.9651,20.4297,6.48342,7,15
-12.805,20.2398,0.418055,13,8
-0.317689,0.502339,-0.13722,13,1
-12.5881,19.9124,1.23461,15,9
-6.8242,10.7948,-2.48242,5,2
-8.86705,14.0317,1.45219,31,10
-8.43655,13.3556,-2.50201,41,3
-12.2382,19.3814,2.81445,36,11
-8.0951,12.825,-1.86216,52,4
-14.1469,22.4215,4.19901,23,12
-8.89021,14.0901,-1.45759,40,5
-12.8832,20.4266,4.69428,11,13
-8.08683,12.8268,-0.794669,35,6
-20.6961,32.8394,8.9616,13,14
-8.02185,12.7336,-0.262694,22,7
-13.6133,21.6175,6.84525,16,15
-12.4621,19.8509,0.409119,15,8
-0.303503,0.483637,-0.131821,14,1
-4.77922,7.61873,-1.74819,4,2
-8.94397,14.2634,1.47293,40,10
-8.33637,13.2996,-2.48606,42,3
-12.1947,19.4627,2.82006,36,11
-8.06081,12.87,-1.8646,56,4
-12.9952,20.7563,3.87864,12,12
-8.84732,14.1312,-1.45864,23,5
-13.9388,22.2721,5.10719,17,13
-15.4399,24.6898,6.72289,9,14
-7.97206,12.753,-0.262519,31,7
-13.2951,21.2766,6.72257,15,15
-0.306517,0.491866,-0.155291,12,0
-8.50498,13.6532,0.280774,24,8
-0.307993,0.494619,-0.134521,14,1
-8.73929,14.0348,0.866474,28,9
-4.73289,7.6037,-1.74094,4,2
-13.2601,21.3116,2.19598,46,10
-8.24504,13.2565,-2.4726,43,3
-12.1204,19.495,2.81859,14,11
-8.00117,12.8744,-1.86119,68,4
-12.4028,19.957,3.72158,11,12
-12.7532,20.5288,-2.1144,29,5
-12.2608,19.7438,4.51759,44,13
-7.99076,12.8727,-0.794041,13,6
-16.5619,26.6908,7.25197,42,14
-7.83589,12.6281,-0.259413,37,7
-13.0168,20.9857,6.61697,15,15
-0.304798,0.492933,-0.155291,12,0
-8.44915,13.6643,0.280425,17,8
-0.314548,0.508899,-0.13812,13,1
-8.58001,13.8868,0.855484,10,9
-5.06945,8.20814,-1.87527,11,2
-9.0106,14.5951,1.50065,16,10
-8.13254,13.1729,-2.45195,63,3
-15.2938,24.7821,3.57565,23,11
-8.07829,13.0952,-1.88922,31,4
-14.1787,22.9931,4.27848,14,12
-7.97899,12.9443,-1.33035,13,5
-12.2344,19.8479,4.5321,21,13
-8.42998,13.6813,-0.84219,22,6
-13.529,21.9653,5.9558,7,14
-7.94797,12.9091,-0.264613,30,7
-12.4513,20.2314,6.3654,6,15
-8.415,13.7159,0.280879,17,8
-0.310732,0.506672,-0.13722,13,1
-8.63833,14.0854,0.865951,2,9
-5.07094,8.27177,-1.88596,9,2
-8.90281,14.5281,1.49071,26,10
-8.0762,13.1843,-2.44883,47,3
-15.2424,24.8929,3.58393,11,11
-7.99833,13.0674,-1.88118,51,4
-14.1869,23.1781,4.30414,6,12
-7.93186,12.9639,-1.32965,13,5
-12.162,19.8854,4.53095,13,13
-8.33738,13.6374,-0.837689,26,6
-12.9655,21.2159,5.7403,49,14
-10.7445,17.5817,-0.359659,100,7
-12.793,20.9419,6.57556,22,15
-10.8573,17.8291,0.364371,13,8
-0.302971,0.497712,-0.134521,14,1
-8.49048,13.9534,0.856007,12,9
-4.91756,8.08479,-1.8394,9,2
-8.86757,14.5846,1.49333,13,10
-8.0119,13.1773,-2.44257,45,3
-12.04,19.8101,2.84638,7,11
-7.94671,13.0803,-1.87923,12,4
-12.2028,20.0938,3.72345,24,12
-7.88035,12.9813,-1.3286,10,5
-12.0817,19.9022,4.52561,23,13
-8.7853,14.4777,-0.887513,47,6
-12.1371,20.0091,5.40287,6,14
-7.70233,12.703,-0.259308,92,7
-12.6698,20.9039,6.54967,10,15
-13.4289,22.2262,0.453274,6,8
-0.309291,0.512111,-0.13812,13,1
-8.43863,13.9778,0.855693,14,9
-4.81259,7.97164,-1.81001,4,2
-8.91181,14.7674,1.50901,29,10
-8.49848,14.0881,-2.60589,50,3
-7.75138,12.8598,-1.84364,16,4
-12.0368,19.9773,3.69404,11,12
-8.41822,13.9716,-1.42709,33,5
-10.2517,17.0213,3.86236,3,13
-8.57195,14.238,-0.870975,35,6
-12.0923,20.0931,5.41412,30,14
-7.69195,12.7864,-0.26046,100,7
-14.0443,23.3552,7.30232,14,15
-8.92206,14.8841,0.302904,22,8
-0.299489,0.499815,-0.134521,14,1
-8.40825,14.038,0.857577,6,9
-0.404529,0.675383,-0.153029,9,2
-8.90523,14.8737,1.51668,35,10
-7.9045,13.2074,-2.43788,22,3
-17.0725,28.5373,4.08311,13,11
-9.79709,16.3827,-2.34379,15,4
-11.9275,19.953,3.68184,20,12
-7.80204,13.0517,-1.33035,7,5
-12.887,21.5668,4.88357,9,13
-7.52259,12.5943,-0.768815,68,6
-12.0251,20.1402,5.41547,36,14
-10.4871,17.5713,-0.357181,100,7
-10.9716,18.3904,5.73802,17,15
-10.7988,18.1584,0.368769,23,8
-0.29575,0.497507,-0.133621,14,1
-11.6364,19.5823,1.19378,35,9
-4.55424,7.66411,-1.73293,11,2
-12.2405,20.6072,2.09697,21,10
-7.84826,13.218,-2.43475,7,3
-13.4499,22.6613,3.23563,19,11
-7.314,12.328,-1.76004,39,4
-11.8849,20.0404,3.69029,2,12
-7.75744,13.0806,-1.33052,28,5
-17.0055,28.6861,6.48216,11,13
-7.53153,12.7098,-0.774258,35,6
-11.9487,20.172,5.41277,36,14
-11.9081,20.1114,-0.407967,85,7
-10.9034,18.422,5.73595,100,15
-8.7214,14.7824,0.299588,43,8
-0.307871,0.522036,-0.13992,13,1
-11.502,19.511,1.18698,19,9
-4.57033,7.75269,-1.74934,16,2
-12.2798,20.8386,2.11614,48,10
-7.82914,13.2912,-2.44319,21,3
-12.1832,20.6913,2.94826,8,11
-7.26388,12.3415,-1.75833,37,4
-16.0921,27.3517,5.02624,32,12
-8.2866,14.0847,-1.4297,31,5
-11.9668,20.3481,4.58857,5,13
-7.42032,12.6224,-0.76735,81,6
-11.8901,20.2338,5.41817,48,14
-11.9867,20.4063,-0.413098,93,7
-10.8185,18.4249,5.72508,75,15
-8.68793,14.8438,0.300216,54,8
-0.295222,0.504606,-0.134971,14,1
-8.27188,14.1443,0.858728,55,9
-4.5581,7.79401,-1.75506,4,2
-13.2316,22.6341,2.29376,30,10
-13.1893,22.5798,3.21077,18,11
-4.83852,8.28678,-1.17823,28,4
-11.5595,19.8056,3.6321,23,12
-7.99635,13.7006,-1.38787,34,5
-11.7493,20.1388,4.5321,28,13
-7.22529,12.3894,-0.751649,91,6
-10.8389,18.5933,4.96872,69,14
-9.80313,16.8232,-0.339868,58,7
-10.7697,18.4893,5.73336,37,15
-0.297372,0.512375,-0.13677,13,1
-8.23349,14.1921,0.85988,40,9
-4.51708,7.7861,-1.74972,16,2
-13.1465,22.6698,2.29272,42,10
-4.91473,8.47835,-1.55214,48,3
-11.4672,19.7899,2.80836,7,11
-7.94563,13.718,-1.9465,76,4
-11.4735,19.8167,3.62678,25,12
-8.00639,13.8284,-1.39798,22,5
-11.7006,20.2171,4.54049,28,13
-7.51504,12.9902,-0.786505,71,6
-10.7623,18.6107,4.96332,100,14
-9.72133,16.8175,-0.339065,7,7
-9.70876,16.8432,0.339345,8,8
-0.303544,0.526814,-0.140369,13,1
-8.18137,14.1991,0.858833,19,9
-4.48868,7.79345,-1.74819,21,2
-14.0266,24.3634,2.45954,27,10
-4.8792,8.47834,-1.54933,62,3
-11.3436,19.7192,2.79325,57,11
-7.33054,12.7482,-1.80562,46,4
-13.0827,22.7516,4.15678,22,12
-7.86858,13.6894,-1.38142,65,5
-10.7724,18.7489,4.20314,31,13
-7.30808,12.7246,-0.769025,48,6
-10.696,18.6309,4.95972,100,14
-10.2419,17.84,-0.359066,81,7
-12.6799,22.0956,6.82609,24,15
-8.51402,14.8844,0.299309,40,8
-0.288253,0.504134,-0.134071,14,1
-8.15158,14.2623,0.860927,42,9
-4.87146,8.52674,-1.90885,19,2
-13.9651,24.4537,2.46372,28,10
-5.8826,10.3007,-1.87878,42,3
-11.3028,19.7998,2.79934,57,11
-8.10973,14.2121,-2.00914,49,4
-11.2719,19.7617,3.60331,19,12
-7.85134,13.7704,-1.38682,31,5
-10.6878,18.7453,4.19436,33,13
-7.12146,12.4954,-0.753743,97,6
-10.6534,18.7002,4.96872,27,14
-11.8806,20.8627,-0.419067,8,7
-10.3587,18.1976,5.61068,13,15
-8.51727,15.0114,0.301263,10,8
-0.309565,0.545819,-0.144868,12,1
-8.21206,14.4853,0.87265,25,9
-5.793,10.2183,-2.28322,4,2
-13.8525,24.4444,2.45814,55,10
-5.83589,10.3023,-1.87534,68,3
-11.6327,20.5439,2.89878,31,11
-7.40397,13.0811,-1.84559,14,4
-11.1951,19.7872,3.60081,23,12
-7.18165,12.6935,-1.27596,17,5
-10.6146,18.7688,4.19131,33,13
-7.32548,12.9583,-0.78012,39,6
-11.6935,20.6934,5.48746,43,14
-10.123,17.9215,-0.359275,36,7
-12.1207,21.4669,6.60558,15,15
-8.47364,15.0567,0.301578,14,8
-0.290459,0.516325,-0.13677,13,1
-8.08313,14.3746,0.864276,33,9
-4.45919,7.92995,-1.76842,11,2
-13.8335,24.6107,2.46999,21,10
-4.84873,8.62974,-1.56779,42,3
-11.5074,20.4892,2.88538,45,11
-7.31453,13.029,-1.83462,18,4
-10.6039,18.8959,3.43186,48,12
-7.04857,12.5604,-1.2601,47,5
-10.5615,18.828,4.19627,18,13
-7.13955,12.7329,-0.765047,100,6
-11.6669,20.8157,5.50905,25,14
-9.58535,17.1089,-0.342312,79,7
-12.1061,21.617,6.63871,18,15
-10.0156,17.9428,0.358682,18,8
-0.298151,0.534353,-0.141269,13,1
-8.0368,14.4097,0.864695,25,9
-0.3873,0.694414,-0.154555,9,2
-15.6578,28.0854,2.81321,17,10
-4.80031,8.61382,-1.56184,57,3
-11.4387,20.5344,2.88611,30,11
-7.15504,12.8498,-1.80586,44,4
-10.5148,18.8914,3.42435,93,12
-7.00855,12.5919,-1.26079,40,5
-11.4922,20.6559,4.59468,46,13
-7.18242,12.9149,-0.774468,35,6
-11.5724,20.8171,5.4987,31,14
-9.97917,17.9585,-0.358612,26,7
-12.2613,22.0745,6.76605,16,15
-13.4561,24.3055,0.484933,16,8
-0.294396,0.531981,-0.140369,13,1
-8.00675,14.4743,0.866893,43,9
-4.42082,7.99182,-1.77529,4,2
-16.598,30.0177,3.00095,9,10
-4.7597,8.61151,-1.5584,21,3
-10.5097,19.0226,2.66845,39,11
-7.06888,12.8,-1.79538,22,4
-10.4488,18.928,3.42435,73,12
-8.16721,14.7949,-1.47851,15,5
-6.9762,12.6478,-0.756987,58,6
-11.4093,20.6936,5.45551,6,14
-9.41162,17.0773,-0.340357,100,7
-9.51077,17.2643,5.28146,22,15
-11.9516,21.7669,0.433448,11,8
-0.292538,0.533005,-0.140369,13,1
-7.88605,14.3744,0.859252,26,9
-5.76686,10.5116,-2.33054,12,2
-13.3547,24.3525,2.4299,13,10
-7.41203,13.5215,-2.44226,14,3
-10.4204,19.0174,2.6626,100,11
-6.94883,12.687,-1.77612,54,4
-10.396,18.9886,3.42873,26,12
-7.38357,13.4864,-1.34516,31,5
-11.1931,20.4532,4.5321,28,13
-6.92722,12.6633,-0.756464,26,6
-11.0154,20.1451,5.30075,28,14
-9.67516,17.7014,-0.35212,26,7
-9.85391,18.0959,0.359659,29,8
-0.290675,0.534023,-0.140369,13,1
-11.296,20.7615,1.23869,13,9
-4.74962,8.72954,-1.93175,11,2
-12.8489,23.6253,2.35286,19,10
-7.55253,13.8927,-2.50452,33,3
-10.3492,19.0449,2.66138,100,11
-6.96893,12.8298,-1.7927,46,4
-11.0281,20.3111,3.66057,29,12
-7.12729,13.1268,-1.30681,28,5
-11.5178,21.222,4.69352,17,13
-6.86488,12.6541,-0.754475,35,6
-9.53858,17.5898,4.6196,58,14
-9.61427,17.7368,-0.352155,100,7
-11.4368,21.1079,6.43269,21,15
-13.2684,24.57,0.487411,13,8
-0.288809,0.535034,-0.140369,13,1
-11.4112,21.1398,1.25899,31,9
-6.32262,11.7179,-2.58813,23,2
-7.78053,14.4319,-2.59681,28,3
-10.3024,19.1177,2.6665,84,11
-11.1827,20.7598,3.73472,27,12
-7.11355,13.2113,-1.31274,28,5
-9.58833,17.8149,3.93257,20,13
-6.79984,12.6393,-0.752172,32,6
-11.4634,21.3165,5.58778,32,14
-7.25676,13.4942,-0.267441,100,7
-9.29316,17.2882,5.2592,7,15
-9.65969,18.0303,0.357041,31,8
-0.288873,0.539425,-0.141269,13,1
-6.25388,11.6879,-2.57668,14,2
-10.2414,19.1483,1.89982,48,10
-7.7289,14.4507,-2.59556,65,3
-11.5474,21.5991,3.00725,33,11
-7.55321,14.134,-1.9677,18,4
-9.63492,18.037,3.23882,14,12
-6.9238,12.9671,-1.28607,18,5
-11.0975,20.7838,4.5798,8,13
-9.48607,17.7733,-1.05583,34,6
-11.2486,21.0845,5.51715,18,14
-9.41521,17.6554,-0.349258,100,7
-9.93338,18.6349,5.6583,4,15
-9.56572,18.0057,0.355889,18,8
-0.279677,0.526661,-0.13767,13,1
-10.2342,19.2802,1.14396,40,9
-4.5794,8.62712,-1.89855,28,2
-10.1853,19.1962,1.90122,100,10
-7.04811,13.2891,-2.3825,21,3
-9.67553,18.2508,2.53635,11,11
-7.34953,13.8691,-1.92724,61,4
-9.57283,18.0723,3.23913,29,12
-7.17827,13.5517,-1.34168,21,5
-11.679,22.0578,4.85151,25,13
-11.7463,22.2036,5.79924,42,14
-9.40962,17.7942,-0.351352,100,7
-9.78793,18.5174,5.61223,23,15
-9.58576,18.1964,0.358996,20,8
-0.265125,0.503494,-0.131371,14,1
-10.1492,19.2822,1.14197,79,9
-4.53097,8.6083,-1.89092,30,2
-4.60741,8.76095,-1.56779,42,3
-9.61269,18.2862,2.53659,100,11
-7.52822,14.327,-1.9872,13,4
-10.8811,20.7166,3.70625,27,12
-7.15871,13.6296,-1.3469,18,5
-11.4231,21.7577,4.77671,33,13
-11.5139,21.9494,5.7223,41,14
-9.31401,17.7632,-0.350095,100,7
-9.73668,18.5771,5.62,21,15
-10.148,19.4279,0.382592,70,8
-0.27419,0.525146,-0.13677,13,1
-10.0879,19.3211,1.14228,82,9
-4.46001,8.54575,-1.87374,14,2
-14.291,27.3944,2.70322,8,10
-7.09856,13.613,-2.43162,22,3
-11.4866,22.0374,3.05136,59,11
-7.51118,14.4166,-1.99598,63,4
-10.8643,20.8524,3.72408,9,12
-6.79083,13.0395,-1.28624,49,5
-10.7596,20.669,4.52942,26,13
-9.26624,17.8079,-1.05206,23,6
-11.4831,22.0776,5.74525,35,14
-9.2366,17.7585,-0.349397,29,7
-9.83721,18.9213,5.71421,15,15
-10.0569,19.41,0.381579,100,8
-0.268862,0.51913,-0.134971,14,1
-10.0516,19.4165,1.14584,40,9
-4.53392,8.76178,-1.91763,40,2
-9.58741,18.5356,1.82574,88,10
-7.27482,14.0646,-2.50796,35,3
-11.5512,22.3417,3.08817,8,11
-10.9093,21.1184,3.76475,11,12
-6.81018,13.1888,-1.29862,18,5
-10.6667,20.6575,4.51912,5,13
-10.8203,20.9639,-1.23638,10,6
-11.4188,22.1329,5.74975,21,14
-9.24879,17.9346,-0.352224,100,7
-9.79412,19.0002,5.72767,5,15
-9.97994,19.4272,0.38123,100,8
-0.270609,0.527,-0.13677,13,1
-10.9898,21.4113,1.2613,15,9
-9.53408,18.5832,1.82731,20,10
-4.33757,8.45815,-1.50553,57,3
-11.4278,22.2935,3.07598,43,11
-6.60723,12.895,-1.77905,46,4
-10.8554,21.195,3.77164,11,12
-6.82816,13.3319,-1.31047,23,5
-10.5981,20.7016,4.52065,2,13
-6.56542,12.8299,-0.755313,19,6
-9.64111,18.8485,4.88774,18,14
-9.17248,17.94,-0.351701,100,7
-9.36377,18.3221,5.51336,4,15
-9.93385,19.5047,0.382068,97,8
-0.284681,0.559201,-0.144868,12,1
-9.55353,18.7741,1.10397,56,9
-4.37712,8.60172,-1.87603,30,2
-9.4818,18.6412,1.82975,16,10
-4.30086,8.45915,-1.50302,35,3
-11.2969,22.2289,3.0616,51,11
-6.5415,12.8773,-1.77344,58,4
-10.7187,21.1095,3.74973,20,12
-6.76535,13.3237,-1.30734,28,5
-12.8156,25.2499,5.50408,28,13
-9.12666,17.9896,-1.05719,15,6
-9.56467,18.8612,4.88234,43,14
-9.17038,18.0914,-0.35404,58,7
-11.397,22.4939,6.75673,8,15
-0.275703,0.546274,-0.141269,13,1
-9.49661,18.8164,1.1046,30,9
-4.33911,8.60117,-1.8726,26,2
-12.7117,25.2085,2.46999,28,10
-6.78038,13.452,-2.38594,14,3
-11.2362,22.3018,3.06623,69,11
-6.4099,12.7281,-1.7498,52,4
-10.6602,21.1678,3.7538,20,12
-6.64355,13.1977,-1.29269,21,5
-12.7079,25.2559,5.49568,16,13
-9.52329,18.9432,4.89493,22,14
-9.85224,19.5975,-0.382871,46,7
-9.29435,18.4958,5.54649,27,15
-9.50806,18.9872,0.370654,68,8
-0.27389,0.547185,-0.141269,13,1
-13.3273,26.6371,1.56097,11,9
-4.30204,8.60221,-1.86955,49,2
-11.2107,22.4263,2.19354,45,10
-6.75252,13.508,-2.39188,12,3
-14.2233,28.4653,3.90713,12,11
-10.5739,21.1802,3.74942,9,12
-6.55919,13.1442,-1.2852,47,5
-12.7056,25.4613,5.53117,16,13
-6.51141,13.0541,-0.764524,94,6
-9.81053,19.6855,-0.383918,63,7
-9.1281,18.3241,5.48541,42,15
-9.44618,19.0292,0.370829,66,8
-0.285837,0.576068,-0.148468,12,1
-10.6207,21.4141,1.25271,9,9
-4.27261,8.61468,-1.86917,11,2
-10.9593,22.1063,2.15867,33,10
-6.73076,13.5828,-2.40096,14,3
-11.011,22.2302,3.046,25,11
-6.31696,12.7589,-1.74809,58,4
-10.52,21.2577,3.75662,11,12
-6.34677,12.8248,-1.25191,37,5
-12.7159,25.7061,5.57468,12,13
-6.70482,13.5602,-0.792785,42,6
-10.1125,20.4611,5.26925,44,14
-7.38315,14.9452,-0.290967,85,7
-0.268343,0.545586,-0.140369,13,1
-10.5336,21.4259,1.25125,13,9
-4.24858,8.64187,-1.87184,40,2
-7.77839,15.8287,1.54301,26,10
-7.11267,14.4804,-2.5552,41,3
-8.03048,16.3561,2.23728,14,11
-6.26713,12.7702,-1.74663,54,4
-10.424,21.2499,3.7488,11,12
-6.25546,12.7521,-1.24267,27,5
-12.6918,25.8843,5.60368,16,13
-6.726,13.7234,-0.80095,74,6
-9.10567,18.587,4.77841,70,14
-9.41167,19.2201,-0.373551,31,7
-11.0051,22.4841,6.70755,15,15
-6.78232,13.9058,0.270059,10,8
-0.261314,0.536009,-0.13767,13,1
-14.7738,30.3176,1.76749,3,9
-4.19431,8.60723,-1.86115,28,2
-10.1773,20.8944,2.03334,19,10
-4.13158,8.48602,-1.49489,52,3
-18.1652,37.3268,5.09706,17,11
-6.20514,12.7563,-1.74176,41,4
-10.2289,21.0375,3.70499,9,12
-6.37209,13.1053,-1.27491,57,5
-9.65097,19.8578,4.29168,2,13
-6.56373,13.5115,-0.787238,61,6
-9.02797,18.5924,4.77166,37,14
-9.05797,18.6707,5.56047,9,15
-10.5188,21.7592,0.42186,30,8
-0.281485,0.582539,-0.149367,12,1
-12.4355,25.7469,1.49848,13,9
-4.0558,8.3973,-1.81269,38,2
-7.69022,15.9293,1.54754,13,10
-4.0942,8.48438,-1.49207,87,3
-7.88936,16.3563,2.22972,33,11
-6.18558,12.8298,-1.74883,71,4
-10.1639,21.0908,3.70812,4,12
-6.21818,12.9031,-1.25313,20,5
-6.42381,13.3417,-0.776038,87,6
-8.91992,18.5342,4.74872,52,14
-6.58042,13.6792,-0.264962,40,7
-8.87471,18.4568,5.48748,17,15
-10.4333,21.7759,0.421476,19,8
-0.27945,0.583518,-0.149367,12,1
-12.4024,25.9091,1.50539,5,9
-4.12225,8.61151,-1.85581,14,2
-10.3872,21.709,2.10551,42,10
-4.04411,8.45585,-1.48456,16,3
-10.6935,22.3692,3.0443,42,11
-6.20666,12.9892,-1.76759,73,4
-9.01755,18.8802,3.31391,15,12
-6.36689,13.3424,-0.774782,71,6
-8.9164,18.6936,4.78156,33,14
-7.12557,14.9458,-0.289012,46,7
-8.83683,18.5434,5.50405,10,15
-0.248683,0.52349,-0.155291,12,0
-6.61146,13.9237,0.269046,30,8
-0.257357,0.542238,-0.13857,13,1
-12.2725,25.8692,1.50058,22,9
-4.09301,8.62762,-1.85619,23,2
-10.1612,21.4283,2.07483,46,10
-4.04079,8.52525,-1.49426,53,3
-10.5958,22.3651,3.03869,51,11
-6.10946,12.9013,-1.75273,46,4
-6.41521,13.5531,-1.31187,36,5
-9.32411,19.7075,4.23787,9,13
-6.36723,13.4639,-0.780538,71,6
-8.98518,19.0083,4.85399,35,14
-8.75554,18.5392,5.49369,4,15
-6.54212,13.8901,0.267999,70,8
-0.249012,0.528938,-0.134971,14,1
-12.2065,25.9402,1.50246,16,9
-4.06337,8.63511,-1.85505,26,2
-9.83684,20.9138,2.02201,39,10
-4.01567,8.54148,-1.49489,16,3
-8.9898,19.1303,2.59533,100,11
-6.04949,12.8791,-1.74712,84,4
-6.37446,13.5833,-1.31274,47,5
-10.2964,21.9405,4.71107,28,13
-6.25196,13.3283,-0.771537,58,6
-10.3119,21.9936,5.60803,6,14
-7.63133,16.2838,-0.313899,100,7
-10.6722,22.7828,6.7412,15,15
-6.45807,13.8368,0.266533,25,8
-0.252108,0.5404,-0.13767,13,1
-12.0636,25.8704,1.49597,7,9
-4.0881,8.77095,-1.881,33,2
-9.80977,21.0563,2.0323,53,10
-5.79722,12.4492,-2.17507,82,3
-8.93385,19.1849,2.5985,30,11
-5.95758,12.7994,-1.73347,90,4
-9.82423,21.1162,3.68873,29,12
-6.36145,13.6796,-1.31989,21,5
-10.2854,22.1277,4.74313,21,13
-6.42439,13.8275,-0.799065,35,6
-8.91879,19.2051,4.88864,4,14
-6.41381,13.8111,-0.2658,33,7
-11.2677,24.2743,7.17084,13,15
-6.37543,13.7914,0.265207,57,8
-0.253395,0.548397,-0.13947,13,1
-11.9556,25.8743,1.49377,10,9
-4.05005,8.76912,-1.87756,52,2
-8.91115,19.3032,1.86008,90,10
-5.78684,12.5411,-2.18758,19,3
-7.74609,16.7949,2.27091,53,11
-5.84636,12.6759,-1.71397,60,4
-9.74467,21.1378,3.68654,13,12
-6.29449,13.6601,-1.31588,34,5
-10.1777,22.0974,4.72901,23,13
-6.31094,13.7084,-0.790901,100,6
-8.82817,19.1762,4.87379,8,14
-7.36617,16.0078,-0.307581,30,7
-10.4564,22.7338,6.70497,23,15
-0.241534,0.526826,-0.155291,12,0
-6.38048,13.9233,0.267336,66,8
-0.254821,0.556321,-0.141269,13,1
-11.468,25.0367,1.44322,17,9
-4.04301,8.8307,-1.88786,23,2
-8.83631,19.3091,1.85781,49,10
-3.87095,8.4627,-1.47393,41,3
-7.67963,16.797,2.26775,53,11
-5.85299,12.8017,-1.72835,80,4
-10.3716,22.6954,3.95216,10,12
-6.03558,13.2133,-1.27091,60,5
-10.2063,22.3543,4.77671,18,13
-6.27622,13.7528,-0.792262,58,6
-8.76857,19.2142,4.87604,17,14
-6.43501,14.1073,-0.270652,29,7
-10.8666,23.8336,7.01866,8,15
-6.29623,13.8607,0.26573,36,8
-0.251364,0.553614,-0.140369,13,1
-11.3607,25.033,1.4407,7,9
-4.02831,8.87624,-1.89473,49,2
-7.68907,16.9505,1.62842,81,10
-5.73943,12.6584,-2.20135,16,3
-7.64027,16.8585,2.27262,53,11
-5.85004,12.9143,-1.74078,60,4
-9.92648,21.9235,3.81168,19,12
-5.99337,13.2369,-1.27125,15,5
-13.1571,29.0721,6.20282,10,13
-6.22647,13.7645,-0.791738,94,6
-11.603,25.662,6.50199,63,14
-6.4162,14.1971,-0.271943,89,7
-11.1381,24.6566,7.24952,18,15
-6.4497,14.3311,0.274317,24,8
-0.257424,0.57226,-0.144868,12,1
-8.758,19.4783,1.11926,56,9
-5.5133,12.2619,-2.61332,23,2
-7.62905,16.9754,1.62824,100,10
-7.66187,17.0644,2.29675,87,11
-5.87563,13.0922,-1.76199,71,4
-9.83937,21.9346,3.80762,4,12
-5.91369,13.1832,-1.26411,27,5
-10.4122,23.2222,4.94691,29,13
-6.12039,13.6567,-0.784307,52,6
-8.60075,19.2003,4.85714,4,14
-6.32084,14.1172,-0.269989,40,7
-11.0448,24.6795,7.24486,18,15
-6.40451,14.3645,0.274526,18,8
-0.246699,0.553576,-0.13992,13,1
-7.62427,17.1083,0.981613,55,9
-3.94228,8.85034,-1.88328,71,2
-5.66617,12.7324,-2.20729,54,3
-5.7928,13.0292,-1.75078,16,4
-9.75134,21.9328,3.80167,14,12
-5.93965,13.3658,-1.27962,34,5
-10.3533,23.3087,4.9576,6,13
-6.14967,13.8514,-0.794251,65,6
-10.0561,22.6608,5.72365,48,14
-6.56275,14.7888,-0.282415,63,7
-11.0499,24.912,7.30232,9,15
-0.234247,0.530106,-0.155291,12,0
-6.32856,14.3217,0.273305,12,8
-0.25431,0.575782,-0.145318,12,1
-7.55967,17.1239,0.980985,67,9
-3.91929,8.88201,-1.8871,59,2
-9.89186,22.4278,2.14455,60,10
-5.66538,12.8451,-2.22356,72,3
-13.0403,29.5804,3.96928,78,11
-6.06734,13.7695,-1.84754,4,4
-9.6166,21.8347,3.77883,19,12
-5.89939,13.401,-1.28102,31,5
-11.8976,27.0264,5.73992,26,13
-5.9203,13.4549,-0.770385,78,6
-10.028,22.8011,5.75065,14,14
-6.58432,14.9782,-0.285591,100,7
-8.77758,19.9769,5.84672,21,15
-6.32904,14.4591,0.275504,1,8
-0.241363,0.551671,-0.13902,13,1
-3.86228,8.832,-1.87374,66,2
-9.38652,21.4747,2.05043,95,10
-5.72806,13.111,-2.26611,29,3
-10.472,23.9807,3.21296,19,11
-6.03036,13.8161,-1.85095,16,4
-9.51504,21.8102,3.76882,23,12
-6.04134,13.8478,-1.3218,31,5
-11.7482,26.9418,5.7132,38,13
-5.86213,13.4499,-0.76892,65,6
-12.0746,27.7168,6.97978,41,14
-8.70009,19.9897,5.84155,26,15
-6.3374,14.6169,0.278087,7,8
-0.256484,0.591848,-0.148918,12,1
-9.75321,22.5168,1.286,8,9
-3.83923,8.86345,-1.87756,30,2
-7.48293,17.2837,1.64777,40,10
-5.88545,13.6005,-2.34714,91,3
-10.389,24.019,3.21321,19,11
-6.09868,14.1067,-1.88703,12,4
-13.1545,30.442,5.25244,17,12
-5.85861,13.5579,-1.29217,31,5
-11.5965,26.8493,5.68496,38,13
-5.73203,13.2777,-0.757929,100,6
-11.5609,26.7926,6.73683,9,14
-6.03532,13.9937,-0.26601,46,7
-11.9355,27.6874,8.07878,12,15
-6.33605,14.7546,0.280286,6,8
-0.239044,0.556924,-0.13992,13,1
-12.9346,30.1495,1.71934,10,9
-5.51347,12.8515,-2.71827,36,2
-7.44846,17.3702,1.65352,91,10
-5.59281,13.049,-2.24859,34,3
-10.2902,24.0204,3.20858,9,11
-6.34632,14.8214,-1.97965,27,4
-9.98666,23.3344,4.02005,28,12
-5.8136,13.5838,-1.29269,28,5
-11.5336,26.9618,5.70023,21,13
-5.83169,13.6392,-0.777398,45,6
-8.65294,20.2473,5.08344,100,14
-5.99586,14.0367,-0.266428,26,7
-11.8358,27.7218,8.07671,12,15
-6.23911,14.6699,0.278261,3,8
-0.241672,0.568516,-0.142619,13,1
-9.18807,21.6248,1.23136,29,9
-5.46397,12.8598,-2.71598,30,2
-13.0466,30.721,2.92007,72,10
-5.60048,13.1939,-2.27018,91,3
-10.1877,24.0123,3.20273,9,11
-5.46685,12.8916,-1.71933,15,4
-9.9013,23.36,4.01849,18,12
-5.74905,13.5636,-1.28886,15,5
-11.5351,27.2279,5.74793,35,13
-5.77237,13.6319,-0.775828,16,6
-11.7547,27.8003,8.08758,6,15
-6.02099,14.2954,0.270757,33,8
-0.239686,0.569356,-0.142619,13,1
-12.7197,30.2148,1.71809,14,9
-3.79189,9.01174,-1.90046,54,2
-10.8306,25.7525,2.4442,55,10
-5.59649,13.3135,-2.28738,56,3
-9.95002,23.6817,3.15398,54,11
-5.45563,12.9911,-1.73006,39,4
-9.76641,23.2561,3.99502,23,12
-5.65154,13.4642,-1.27753,18,5
-11.4438,27.277,5.74984,17,13
-5.74174,13.6925,-0.778131,9,6
-8.49706,20.2731,5.0749,20,14
-5.93728,14.1657,-0.268104,66,7
-9.64484,23.0228,6.6884,11,15
-6.01128,14.4057,0.272467,34,8
-0.242298,0.580939,-0.145318,12,1
-12.874,30.8821,1.75346,43,9
-5.76252,13.8368,1.31135,20,10
-5.38448,12.929,-2.21824,21,3
-9.8722,23.7164,3.15422,18,11
-9.6647,23.2408,3.98658,28,12
-5.57468,13.4121,-1.27073,27,5
-11.2442,27.079,6.76923,80,14
-5.89699,14.2085,-0.268523,100,7
-9.27869,22.3676,6.48859,10,15
-9.01704,21.8229,0.412156,15,8
-0.235805,0.570974,-0.142619,13,1
-7.28917,17.6499,1.00077,56,9
-5.39718,13.0751,-2.74956,30,2
-5.80171,14.0621,1.33087,46,10
-9.80221,23.7819,3.15837,54,11
-9.52512,23.1211,3.96061,20,12
-5.90113,14.3314,-1.35597,21,5
-9.42802,22.9081,4.81526,30,13
-6.22965,15.1443,-0.858205,61,6
-17.0317,41.4042,10.3361,17,14
-9.19198,22.3679,6.47979,77,15
-6.1714,15.0774,0.284369,16,8
-0.225056,0.55011,-0.13722,13,1
-7.23967,17.6961,1.00202,12,9
-3.70939,9.07147,-1.90504,30,2
-5.30979,12.9983,-2.22387,28,3
-9.72554,23.8198,3.1591,36,11
-5.34413,13.0889,-1.73591,54,4
-5.4224,13.2938,-1.25609,10,5
-10.2206,25.0699,5.26251,18,13
-5.50788,13.5169,-0.764942,26,6
-9.14872,22.4519,5.59723,32,14
-9.11848,22.4,6.48031,56,15
-6.10934,15.0681,0.283811,35,8
-0.229086,0.565301,-0.140819,13,1
-10.7402,26.5162,1.49932,11,9
-3.6815,9.08918,-1.90618,16,2
-16.2869,40.2305,3.7972,14,10
-5.19108,12.829,-2.19196,52,3
-6.09856,15.0793,1.99719,80,11
-5.27312,13.0449,-1.72762,67,4
-5.35665,13.2582,-1.25103,27,5
-10.072,24.9417,5.22855,18,13
-5.45705,13.5202,-0.764105,32,6
-9.06082,22.4602,5.59138,91,14
-5.69678,14.1284,-0.265905,33,7
-5.95019,14.824,0.27882,66,8
-0.22566,0.562481,-0.13992,13,1
-9.86258,24.5959,1.38879,90,9
-5.20682,12.9851,-2.71941,36,2
-5.75024,14.3476,1.35231,12,10
-5.13305,12.8141,-2.18633,51,3
-6.04293,15.0931,1.99622,68,11
-5.28361,13.2033,-1.74614,71,4
-10.1404,25.3529,4.32479,33,12
-9.73493,24.3514,5.09765,27,13
-6.1872,15.4848,-0.873906,35,6
-8.9773,22.479,5.58823,97,14
-5.61332,14.0628,-0.264299,31,7
-16.2873,40.8244,11.7773,14,15
-5.59566,14.0827,0.264509,27,8
-0.228011,0.574132,-0.142619,13,1
-6.81007,17.1565,0.967378,6,9
-5.08686,12.8153,-2.6801,72,2
-5.09557,12.8503,-2.18946,51,3
-5.38662,13.5981,-1.79587,24,4
-10.1079,25.5296,4.34888,30,12
-5.86538,14.8143,-1.39397,22,5
-8.95636,22.6327,4.7313,11,13
-6.16911,15.5973,-0.879035,33,6
-8.94464,22.6262,5.61703,53,14
-6.5048,16.4628,-0.308977,100,7
-9.38155,23.7556,6.84369,8,15
-0.227431,0.578551,-0.143519,12,1
-11.6451,29.6387,1.66889,16,9
-4.91646,12.5132,-2.61332,23,2
-6.00387,15.2886,1.43702,100,10
-5.03914,12.8386,-2.18445,58,3
-8.97572,22.8798,3.01773,75,11
-9.97906,25.4635,4.33167,18,12
-5.56501,14.2002,-1.33435,5,5
-5.88891,15.0422,-0.846587,16,6
-8.89685,22.7371,5.63682,66,14
-6.00373,15.3512,-0.28772,86,7
-9.15087,23.4104,6.73499,7,15
-0.215517,0.553916,-0.13722,13,1
-4.92825,12.673,-2.64309,51,2
-5.94253,15.2891,1.43511,31,10
-8.94107,23.0276,3.03308,51,11
-5.16516,13.3097,-1.75297,26,4
-8.91189,22.9643,3.90148,20,12
-5.28845,13.6344,-1.27945,36,5
-8.77685,22.6398,4.71985,80,13
-5.9244,15.2898,-0.859356,32,6
-8.92299,23.0406,5.70431,6,14
-6.34853,16.3929,-0.306848,24,7
-11.274,29.1264,8.36866,13,15
-5.73732,14.8841,0.278436,33,8
-0.22629,0.58736,-0.145318,12,1
-5.9627,15.4849,0.869614,81,9
-4.85578,12.6168,-2.62782,34,2
-8.52217,22.1548,2.07675,41,10
-4.94738,12.8615,-2.18257,13,3
-8.81692,22.933,3.01675,50,11
-5.52686,14.3829,-1.8919,61,4
-5.61205,14.6122,2.47917,18,12
-5.27081,13.7309,-1.28677,23,5
-5.93663,15.4735,-0.868568,48,6
-8.80328,22.9573,5.67641,27,14
-6.31489,16.4766,-0.308,100,7
-11.1985,29.2342,8.38832,13,15
-5.66395,14.848,0.277389,49,8
-0.215907,0.566295,-0.13992,13,1
-5.93124,15.5568,0.872545,30,9
-4.4392,11.6495,-2.42327,7,2
-8.08487,21.2277,1.98733,23,10
-5.23274,13.7464,-2.32962,17,3
-8.77988,23.0768,3.03162,93,11
-5.24801,13.801,-1.81293,44,4
-8.64233,22.7272,3.8511,78,12
-5.45742,14.3592,-1.34394,44,5
-8.7557,23.0495,4.79274,18,13
-7.3673,19.415,4.79416,16,14
-5.9885,15.7814,-0.294632,25,7
-7.29461,19.2335,5.51181,8,15
-5.59207,14.8068,0.276272,33,8
-0.215405,0.570655,-0.140819,13,1
-8.42478,22.3309,1.25083,15,9
-4.39089,11.6447,-2.41908,34,2
-8.54964,22.6858,2.12102,59,10
-8.59695,22.8234,2.99457,90,11
-8.57617,22.7923,3.85705,30,12
-5.41849,14.408,-1.34673,21,5
-9.01509,23.9715,4.97821,13,13
-5.85225,15.5696,-0.871708,29,6
-8.79895,23.4216,5.77629,7,14
-7.21453,19.2245,5.50198,38,15
-5.55806,14.8815,0.277284,22,8
-0.210586,0.564138,-0.13902,13,1
-8.31046,22.2629,1.24539,46,9
-4.37767,11.7336,-2.43434,28,2
-8.42864,22.6035,2.11056,78,10
-3.48859,9.36053,-1.58218,55,3
-8.50146,22.8231,2.99043,90,11
