x, y, z, intensity, ring
7.10681,13.232,-0.26217,92,7
17.4327,32.4439,9.86877,27,15
0.242024,0.448925,-0.136656,14,0
9.6986,17.9822,0.356622,58,8
0.276686,0.512789,-0.134521,14,1
10.564,19.5703,1.16552,19,9
3.00939,5.57505,-1.23148,26,2
11.4694,21.2388,2.11178,68,10
3.39987,6.29317,-1.1329,41,3
12.7986,23.6805,3.3051,10,11
3.91259,7.23619,-1.01005,27,4
15.6164,28.8699,5.19863,34,12
4.59843,8.50107,-0.845585,19,5
16.3618,30.2353,6.68251,12,13
5.60915,10.3609,-0.61746,37,6
18.7423,34.6053,9.08577,13,14
7.13811,13.1742,-0.261542,92,7
17.5478,32.373,9.8667,18,15
0.252817,0.46505,-0.141833,14,0
9.77086,17.9658,0.356972,27,8
0.287788,0.528938,-0.13902,13,1
10.5157,19.3193,1.15275,33,9
3.0232,5.55416,-1.22919,26,2
11.553,21.2161,2.11353,31,10
3.41898,6.27606,-1.13196,35,3
11.6207,21.3226,2.98166,24,11
3.92547,7.19983,-1.00688,27,4
15.9838,29.3042,5.28686,17,12
4.62044,8.47098,-0.844191,19,5
17.7904,32.6028,7.21945,14,13
5.6204,10.2957,-0.614738,37,6
18.4884,33.8539,8.90536,39,14
7.16584,13.1158,-0.260879,92,7
21.1732,38.7379,11.8291,14,15
0.254438,0.464164,-0.141833,14,0
9.78928,17.8509,0.355366,36,8
0.284009,0.517679,-0.13632,13,1
10.3928,18.9358,1.13203,34,9
3.03596,5.53153,-1.22652,26,2
11.5953,21.118,2.10777,68,10
3.43706,6.25716,-1.13071,30,3
12.7964,23.2861,3.26244,19,11
3.93623,7.15999,-1.00323,34,4
15.8185,28.7619,5.19894,38,12
4.62886,8.41639,-0.840356,19,5
21.4834,39.0459,8.66273,9,13
5.63222,10.2323,-0.612121,37,6
18.6055,33.7874,8.90491,13,14
7.16817,13.0119,-0.259308,92,7
25.4316,46.1454,14.1181,19,15
0.246712,0.446365,-0.136656,14,0
9.85734,17.8271,0.355575,51,8
0.29336,0.530327,-0.13992,13,1
10.4502,18.8837,1.13108,28,9
3.05715,5.52433,-1.22728,26,2
11.6854,21.1071,2.11074,36,10
3.46175,6.25031,-1.13165,31,3
12.8189,23.1354,3.24757,9,11
3.95447,7.13405,-1.00152,28,4
16.279,29.356,5.31658,22,12
4.64275,8.3723,-0.837567,19,5
17.8395,32.1568,7.14809,41,13
5.65725,10.1934,-0.61097,37,6
16.0652,28.9347,7.64069,33,14
7.19315,12.9501,-0.258575,93,7
21.4216,38.5503,11.8172,28,15
0.257673,0.462377,-0.141833,14,0
10.0266,17.9847,0.359415,49,8
0.289514,0.519088,-0.13722,13,1
10.8435,19.442,1.16667,13,9
3.07737,5.51534,-1.22767,26,2
12.1601,21.7846,2.18273,22,10
3.47681,6.22612,-1.12946,28,3
11.6952,20.9346,2.94436,48,11
3.98322,7.12713,-1.0025,31,4
15.8327,28.3293,5.14012,20,12
4.66125,8.33692,-0.835649,19,5
18.1251,32.4045,7.21716,7,13
5.66451,10.123,-0.607935,37,6
16.1747,28.8938,7.64474,11,14
7.21749,12.893,-0.257912,93,7
18.3314,32.733,10.0525,9,15
0.236574,0.421053,-0.12941,15,0
10.0049,17.8067,0.356518,47,8
0.291234,0.518125,-0.13722,13,1
10.7028,19.0332,1.14438,18,9
3.09179,5.49601,-1.22576,23,2
12.5712,22.3376,2.24252,35,10
3.48678,6.19562,-1.12602,28,3
11.8054,20.9684,2.9546,48,11
3.99806,7.09832,-1.0003,26,4
17.0011,30.1721,5.48522,19,12
4.67565,8.29456,-0.833035,19,5
18.62,33.0317,7.37057,7,13
5.68039,10.0729,-0.60605,37,6
19.843,35.1725,9.32332,14,14
7.23297,12.8155,-0.256865,93,7
0.266525,0.470698,-0.144939,14,0
9.92705,17.5246,0.351561,27,8
0.296884,0.523887,-0.13902,13,1
11.0361,19.4666,1.17274,21,9
3.10806,5.48231,-1.22499,26,2
11.8215,20.8435,2.09644,10,10
3.50936,6.18513,-1.12633,28,3
11.9001,20.965,2.95996,40,11
4.01105,7.06361,-0.997379,30,4
18.044,31.7632,5.78589,26,12
4.69231,8.25995,-0.831117,26,5
18.5237,32.5944,7.28738,14,13
5.69676,10.02,-0.604062,37,6
21.5794,37.9403,10.0769,16,14
7.22426,12.6963,-0.25498,93,7
0.26242,0.459699,-0.141833,14,0
9.90882,17.3509,0.348769,29,8
0.29291,0.512695,-0.13632,13,1
11.1179,19.4522,1.17421,26,9
3.12426,5.46632,-1.22385,26,2
11.997,20.982,2.11457,42,10
3.52602,6.16427,-1.12476,27,3
12.5056,21.8538,3.09158,8,11
4.02385,7.02889,-0.994454,31,4
18.2039,31.7857,5.80153,10,12
4.71913,8.24007,-0.830769,24,5
5.70191,9.94804,-0.600922,37,6
19.9707,34.8286,9.26888,14,14
7.25858,12.6537,-0.254631,93,7
0.264023,0.45878,-0.141833,14,0
9.90548,17.2053,0.346535,23,8
0.300534,0.521802,-0.13902,13,1
11.1937,19.4271,1.17505,17,9
3.13744,5.44517,-1.22156,26,2
3.5416,6.14165,-1.12289,28,3
18.0564,31.2998,4.43678,29,11
4.04638,7.01136,-0.993966,27,4
17.4347,30.1977,5.52276,14,12
4.73392,8.19939,-0.828328,21,5
19.1416,33.1409,7.43926,7,13
5.69663,9.8589,-0.596735,37,6
7.26167,12.5573,-0.2532,94,7
19.1329,33.0726,10.2378,9,15
0.242357,0.417752,-0.12941,15,0
9.8641,16.9959,0.34301,55,8
0.295504,0.508952,-0.13587,27,1
11.2915,19.4398,1.17819,8,9
3.15347,5.42909,-1.22041,23,2
12.1382,20.8891,2.1137,57,10
3.54713,6.10193,-1.11788,27,3
18.446,31.7188,4.50527,14,11
4.06883,6.99376,-0.993479,26,4
18.6866,32.1069,5.88381,21,12
4.73745,8.13976,-0.82397,21,5
19.0813,32.7719,7.37133,29,13
5.70588,9.79581,-0.594118,40,6
27.9624,47.9864,12.8222,24,14
7.29236,12.5094,-0.252746,94,7
25.6871,44.0464,13.6625,18,15
0.273071,0.466931,-0.144939,14,0
9.89609,16.9148,0.342067,25,8
0.296295,0.506236,-0.135421,13,1
11.327,19.3451,1.17484,9,9
3.1724,5.41805,-1.22041,23,2
12.3128,21.0203,2.13131,26,10
3.55942,6.07417,-1.11506,27,3
12.3182,21.0126,2.99067,8,11
4.07514,6.9487,-0.989092,26,4
19.2534,32.8167,6.02617,11,12
4.76987,8.13005,-0.824668,19,5
19.1897,32.6949,7.36904,14,13
5.72385,9.74828,-0.592443,37,6
20.358,34.6578,9.27968,56,14
7.31572,12.4494,-0.252048,94,7
19.428,33.0481,10.272,9,15
0.25704,0.43602,-0.135621,15,0
9.88194,16.7561,0.339554,23,8
0.294099,0.498485,-0.133621,14,1
11.5386,19.5497,1.1897,9,9
3.18131,5.39004,-1.2166,26,2
12.9037,21.8538,2.22038,23,10
3.57658,6.0549,-1.11381,26,3
12.9671,21.9436,3.1296,45,11
4.08624,6.91221,-0.985923,33,4
19.2211,32.501,5.98049,5,12
4.77997,8.08248,-0.82153,19,5
20.7012,34.9899,7.90255,33,13
5.73852,9.69558,-0.590454,40,6
19.6489,33.1847,8.90356,13,14
7.33059,12.3756,-0.25107,94,7
20.142,33.9906,10.5867,10,15
0.276324,0.465014,-0.144939,14,0
9.87394,16.6098,0.337285,23,8
0.303806,0.510855,-0.13722,13,1
11.5891,19.4872,1.18824,8,9
3.18907,5.36034,-1.2124,28,2
12.929,21.7231,2.21166,23,10
3.59668,6.04069,-1.1135,28,3
12.9694,21.7737,3.11181,35,11
4.10526,6.88938,-0.984704,30,4
19.3247,32.4303,5.97924,5,12
4.77142,8.00414,-0.815255,19,5
19.692,33.0205,7.47323,15,13
5.76005,9.65491,-0.589198,37,6
19.2562,32.2642,8.67456,12,14
7.29986,12.2311,-0.248627,96,7
19.7951,33.1539,10.3466,9,15
0.248166,0.414327,-0.12941,15,0
9.88068,16.4963,0.335645,27,8
0.309505,0.516531,-0.13902,26,1
11.5749,19.3096,1.17986,19,9
3.20675,5.34749,-1.21202,26,2
12.5609,20.938,2.13619,10,10
3.61162,6.02026,-1.11194,27,3
13.1121,21.848,3.12863,18,11
4.11787,6.85871,-0.982267,30,4
19.7632,32.9046,6.07936,11,12
4.79933,7.98743,-0.815255,19,5
19.9793,33.2512,7.54039,15,13
5.77968,9.61521,-0.587942,37,6
20.6947,34.4146,9.27113,14,14
7.31467,12.1592,-0.247685,96,7
0.261516,0.43335,-0.135621,15,0
9.87929,16.3642,0.333655,22,8
0.299217,0.49543,-0.133621,14,1
11.6391,19.264,1.17955,17,9
3.22243,5.33347,-1.21126,23,2
12.4067,20.5262,2.09836,36,10
3.6183,5.98395,-1.10756,33,3
13.3865,22.13,3.17567,18,11
4.13357,6.83071,-0.980317,28,4
19.5291,32.2591,5.97267,22,12
4.81548,7.95443,-0.813512,19,5
20.1207,33.2232,7.54993,30,13
5.79769,9.56936,-0.586372,37,6
19.4774,32.1357,8.67546,51,14
7.33426,12.096,-0.246917,96,7
20.2866,33.4444,10.4811,10,15
0.275075,0.45224,-0.141833,14,0
9.8823,16.2408,0.33184,22,8
0.304997,0.501041,-0.135421,13,1
11.7105,19.2301,1.17997,17,9
3.24205,5.32386,-1.21164,21,2
12.4616,20.4556,2.09557,21,10
3.6258,5.94935,-1.10349,30,3
13.6683,22.4187,3.22393,19,11
4.14705,6.79929,-0.97788,28,4
19.5912,32.1082,5.95734,5,12
4.82868,7.91376,-0.811071,18,5
25.9114,42.4498,9.66715,11,13
5.80399,9.50474,-0.583651,37,6
19.4869,31.8996,8.63002,12,14
7.3535,12.0328,-0.246149,96,7
20.2813,33.1739,10.4185,20,15
0.266555,0.434808,-0.136656,14,0
9.85948,16.0766,0.329187,22,8
0.298592,0.486685,-0.131821,14,1
12.0345,19.6078,1.20572,7,9
3.25753,5.3075,-1.21049,23,2
12.5423,20.4272,2.09714,31,10
3.65172,5.94508,-1.10505,27,3
18.3183,29.8109,4.29614,14,11
4.15516,6.75941,-0.974224,25,4
19.4693,31.6593,5.88663,5,12
4.86601,7.90959,-0.812466,18,5
26.508,43.0881,9.83353,25,13
5.8319,9.47592,-0.583127,37,6
19.5409,31.7384,8.60483,50,14
7.35876,11.9475,-0.244927,96,7
20.3027,32.95,10.3704,9,15
0.253927,0.410822,-0.12941,15,0
9.83984,15.9196,0.326674,22,8
0.304388,0.49227,-0.133621,14,1
12.7848,20.668,1.27365,22,9
3.26354,5.27382,-1.20553,21,2
13.1708,21.2756,2.18918,39,10
3.67452,5.93333,-1.10537,26,3
18.6793,30.1619,4.3561,14,11
4.18396,6.7533,-0.975442,34,4
19.6806,31.754,5.91698,22,12
4.88099,7.87223,-0.810374,18,5
19.9372,32.1429,7.35225,29,13
5.84764,9.42393,-0.581243,37,6
19.6417,31.6417,8.59808,12,14
7.36666,11.8673,-0.24381,97,7
20.9557,33.7454,10.6437,10,15
0.255359,0.409933,-0.12941,15,0
9.80293,15.7307,0.323533,32,8
0.314438,0.50438,-0.13722,13,1
12.1891,19.5521,1.2075,17,9
3.27257,5.2474,-1.2021,23,2
12.569,20.1459,2.07744,5,10
3.69312,5.91712,-1.10474,28,3
18.7477,30.0259,4.34635,14,11
4.20237,6.72782,-0.97398,23,4
19.6679,31.4874,5.88006,32,12
4.89577,7.83487,-0.808282,18,5
22.1212,35.3877,8.11205,25,13
5.85826,9.3679,-0.579045,37,6
21.4625,34.3072,9.34267,14,14
7.3635,11.7703,-0.242344,97,7
20.9862,33.5329,10.5997,21,15
0.269114,0.428673,-0.135621,15,0
9.80295,15.6151,0.321822,28,8
0.320254,0.509936,-0.13902,13,1
12.3869,19.7158,1.22027,19,9
3.29296,5.23927,-1.20286,21,2
12.6828,20.1711,2.08459,25,10
3.70326,5.88979,-1.10192,27,3
18.7457,29.8023,4.32295,28,11
4.22255,6.71048,-0.973492,23,4
19.7314,31.345,5.86629,21,12
4.91459,7.80425,-0.806888,18,5
22.8892,36.3474,8.34942,18,13
5.87226,9.32138,-0.57737,37,6
20.2649,32.1552,8.77489,12,14
7.39174,11.7243,-0.241925,97,7
21.0661,33.4006,10.581,21,15
0.278795,0.44084,-0.139762,14,0
9.82319,15.5267,0.320705,24,8
0.307442,0.485762,-0.132721,14,1
12.5593,19.8361,1.23042,26,9
3.31137,5.22998,-1.20324,26,2
12.9841,20.4992,2.12294,43,10
3.71745,5.86681,-1.10005,22,3
18.8645,29.7601,4.32636,28,11
4.24169,6.689,-0.972517,25,4
19.9211,31.4027,5.89007,21,12
4.93511,7.77949,-0.806016,16,5
20.5249,32.342,7.44575,15,13
5.85981,9.23001,-0.572974,40,6
20.4167,32.1468,8.79199,25,14
7.40045,11.6478,-0.240878,97,7
21.1069,33.2078,10.5433,10,15
0.272026,0.426831,-0.135621,15,0
9.81281,15.3912,0.318611,28,8
0.317519,0.49783,-0.13632,13,1
12.752,19.9858,1.24246,16,9
3.32538,5.21177,-1.20172,23,2
12.9688,20.3177,2.10882,42,10
3.73259,5.84548,-1.09848,27,3
19.1115,29.9182,4.35902,28,11
4.24363,6.6407,-0.967643,27,4
20.1529,31.5244,5.92605,27,12
4.95151,7.74543,-0.804273,16,5
21.4881,33.6,7.75257,16,13
5.90059,9.22296,-0.573811,37,6
20.699,32.3412,8.86487,52,14
7.41088,11.5747,-0.239901,97,7
21.2279,33.1421,10.5458,20,15
0.260987,0.406373,-0.12941,15,0
9.8146,15.2761,0.316936,31,8
0.317148,0.49344,-0.135421,13,1
15.2348,23.6942,1.47629,15,9
3.33187,5.18196,-1.19752,23,2
12.9868,20.1902,2.10028,42,10
3.74442,5.81912,-1.09598,27,3
21.1283,32.8225,4.79288,15,11
4.26142,6.6175,-0.966424,26,4
20.1976,31.3526,5.90697,22,12
4.96772,7.71135,-0.80253,16,5
20.6991,32.1187,7.42743,22,13
5.9176,9.17881,-0.572346,37,6
20.798,32.2475,8.85902,13,14
7.42196,11.5034,-0.238958,99,7
21.2743,32.9607,10.5117,20,15
0.287595,0.444384,-0.141833,14,0
9.82222,15.1712,0.31547,28,8
0.316749,0.489058,-0.134521,14,1
12.6523,19.5275,1.21943,7,9
3.3414,5.15712,-1.19446,21,2
13.637,21.0393,2.19354,11,10
3.76471,5.80602,-1.09598,27,3
20.4671,31.5528,4.61787,15,11
4.27476,6.5876,-0.96423,23,4
20.2348,31.1709,5.886,10,12
4.98159,7.67391,-0.800438,16,5
21.7211,33.4475,7.75219,32,13
5.9224,9.11623,-0.569729,43,6
20.3317,31.2842,8.61383,12,14
7.43809,11.4405,-0.23819,99,7
22.6963,34.896,11.1541,12,15
0.284923,0.436904,-0.139762,14,0
9.84999,15.0983,0.314667,31,8
0.329105,0.504269,-0.13902,13,1
12.9387,19.8177,1.24036,7,9
3.3626,5.15036,-1.19561,21,2
14.8663,22.7614,2.37848,13,10
3.76875,5.76803,-1.09129,23,3
16.1144,24.6535,3.61635,23,11
4.29447,6.56765,-0.963499,25,4
22.8934,34.9981,6.62375,7,12
4.98763,7.6248,-0.797126,18,5
21.8076,33.3255,7.7415,32,13
5.9531,9.09382,-0.569625,37,6
20.5999,31.4559,8.68086,63,14
7.45387,11.3777,-0.237423,90,7
0.286446,0.435907,-0.139762,14,0
9.87298,15.0187,0.313724,37,8
0.318014,0.483579,-0.133621,14,1
12.9002,19.6089,1.2301,5,9
3.37732,5.13367,-1.19446,23,2
15.8723,24.1173,2.52595,50,10
3.78125,5.7433,-1.0891,27,3
16.1949,24.5888,3.61513,11,11
4.31191,6.54433,-0.96228,25,4
21.2825,32.2889,6.12504,5,12
5.01202,7.60401,-0.796778,18,5
21.7573,32.9967,7.68273,15,13
5.96281,9.03964,-0.567531,37,6
20.7332,31.4196,8.69076,51,14
7.46159,11.3032,-0.23641,99,7
21.8397,33.0714,10.6193,21,15
0.319962,0.483227,-0.155291,12,0
9.88669,14.9258,0.312503,31,8
0.326159,0.492212,-0.13632,13,1
13.7322,20.7157,1.30254,52,9
3.38871,5.11203,-1.19217,23,2
16.3319,24.628,2.58539,15,10
3.80346,5.73335,-1.08972,20,3
20.5966,31.0357,4.57351,14,11
4.32046,6.50774,-0.959112,25,4
23.4803,35.3541,6.72199,7,12
5.01208,7.54664,-0.792594,18,5
21.7094,32.6753,7.62549,31,13
5.9689,8.98052,-0.565124,37,6
23.5628,35.4381,9.82496,15,14
7.44231,11.1889,-0.23456,99,7
22.2611,33.4549,10.7674,22,15
0.268039,0.401756,-0.12941,15,0
9.88433,14.8097,0.310792,33,8
0.317054,0.474864,-0.131821,14,1
13.8289,20.7042,1.30484,42,9
3.39781,5.08711,-1.18912,21,2
16.2318,24.2926,2.5561,29,10
3.82345,5.72004,-1.08972,20,3
20.835,31.1583,4.60227,15,11
4.33321,6.47777,-0.956918,26,4
23.6739,35.377,6.74201,7,12
5.02177,7.50426,-0.78998,21,5
24.1758,36.1134,8.4475,9,13
5.99355,8.94967,-0.564496,37,6
21.6017,32.2439,8.96025,13,14
7.44124,11.103,-0.233304,100,7
21.7968,32.5106,10.4879,20,15
0.295307,0.439297,-0.141833,14,0
9.9103,14.737,0.30999,31,8
0.327412,0.48669,-0.135421,13,1
13.9869,20.7834,1.3129,46,9
3.40569,5.06056,-1.18569,23,2
15.6221,23.2044,2.44733,13,10
3.83457,5.69355,-1.08722,25,3
20.9792,31.1381,4.61007,15,11
4.35136,6.45602,-0.955943,30,4
23.7486,35.2221,6.72825,15,12
5.04125,7.47677,-0.788934,18,5
25.1471,37.2821,8.74134,19,13
6.01692,8.91711,-0.563763,37,6
21.8548,32.3767,9.01829,13,14
7.42736,10.9991,-0.231663,100,7
26.0811,38.6087,12.4844,16,15
0.283838,0.419069,-0.135621,15,0
9.90672,14.6212,0.308279,35,8
0.326922,0.482318,-0.134521,14,1
14.3284,21.1312,1.33802,27,9
3.42333,5.04864,-1.18569,23,2
15.9021,23.4433,2.47836,21,10
3.84777,5.67032,-1.08534,18,3
23.7457,34.9802,5.19115,36,11
4.36718,6.43094,-0.954481,25,4
23.8082,35.0458,6.71041,30,12
5.05724,7.4443,-0.787365,18,5
24.274,35.7181,8.39445,18,13
6.01882,8.8531,-0.561041,37,6
22.1518,32.5709,9.09387,13,14
7.44546,10.9433,-0.231035,100,7
21.7189,31.9104,10.3429,19,15
0.272232,0.398927,-0.12941,15,0
9.91937,14.5303,0.307093,37,8
0.335197,0.490829,-0.13722,13,1
14.7622,21.6163,1.37183,36,9
3.43761,5.0318,-1.18454,23,2
16.293,23.84,2.5263,36,10
3.86084,5.64708,-1.08347,22,3
23.861,34.8872,5.18968,18,11
4.38512,6.4091,-0.953506,22,4
23.893,34.921,6.70165,30,12
5.07419,7.41345,-0.785971,18,5
24.9786,36.4803,8.59404,19,13
6.02034,8.7892,-0.55832,50,6
23.9441,34.9433,9.77952,15,14
7.45909,10.8856,-0.230337,100,7
21.8672,31.9004,10.3631,9,15
0.306457,0.445732,-0.144939,14,0
9.91651,14.4232,0.305522,28,8
0.341241,0.496137,-0.13902,13,1
14.661,21.3079,1.3555,18,9
3.45515,5.01977,-1.18454,23,2
15.862,23.0363,2.44698,13,10
3.87059,5.62123,-1.08096,22,3
25.7985,37.453,5.58405,20,11
4.39283,6.37491,-0.950581,21,4
23.9923,34.8049,6.6954,30,12
5.09891,7.39405,-0.785796,18,5
26.633,38.6212,9.11914,10,13
6.04265,8.75932,-0.557692,40,6
7.48569,10.843,-0.229988,100,7
22.344,32.3532,10.5355,20,15
0.301335,0.435183,-0.141833,14,0
9.92922,14.3343,0.30437,26,8
0.320772,0.462908,-0.130022,14,1
14.494,20.9087,1.33331,21,9
3.46059,4.99215,-1.18073,26,2
16.0291,23.1145,2.46093,6,10
3.89019,5.60768,-1.08096,20,3
25.8453,37.242,5.56602,20,11
4.41052,6.35301,-0.949606,26,4
24.1317,34.7469,6.7004,22,12
5.11317,7.36237,-0.784227,18,5
24.6461,35.4743,8.39636,9,13
6.05267,8.70866,-0.555808,38,6
23.1145,33.2451,9.34807,14,14
7.49381,10.7741,-0.22908,100,7
22.3972,32.1894,10.5075,30,15
0.276325,0.396103,-0.12941,15,0
9.89108,14.1733,0.301682,33,8
0.344696,0.493743,-0.13902,13,1
14.4434,20.6811,1.32201,23,9
3.47238,4.97199,-1.17882,26,2
16.7624,23.9927,2.56064,36,10
3.90181,5.58274,-1.07877,22,3
23.9186,34.2102,5.12534,35,11
4.42812,6.33107,-0.948631,32,4
24.2664,34.6819,6.70416,22,12
5.11485,7.3102,-0.780567,22,5
24.9037,35.5794,8.44177,18,13
6.0647,8.6613,-0.554133,38,6
23.6664,33.7867,9.52353,29,14
7.52104,10.7332,-0.228766,100,7
22.3952,31.9481,10.4542,40,15
0.291036,0.414102,-0.135621,15,0
9.88529,14.0601,0.300007,35,8
0.335207,0.476597,-0.134521,14,1
14.3477,20.3921,1.30672,22,9
3.48971,4.95984,-1.17882,26,2
16.611,23.6,2.5249,36,10
3.91445,5.55939,-1.07689,22,3
24.134,34.2628,5.14581,17,11
4.44905,6.31395,-0.948387,21,4
25.0941,35.5996,6.89845,16,12
5.13919,7.29067,-0.780393,21,5
25.064,35.5436,8.45398,37,13
6.09835,8.64497,-0.554447,38,6
23.5247,33.336,9.4196,14,14
7.53079,10.6677,-0.227928,100,7
22.4854,31.8397,10.4444,20,15
0.279084,0.394164,-0.12941,15,0
9.8823,13.9521,0.298436,33,8
0.339122,0.478604,-0.135421,13,1
14.316,20.1968,1.29741,22,9
3.507,4.94763,-1.17882,23,2
16.6391,23.4655,2.51671,7,10
3.93155,5.54247,-1.07627,22,3
21.5916,30.4274,4.58107,30,11
4.45268,6.27249,-0.944488,23,4
25.32,35.6551,6.92629,33,12
5.14038,7.23857,-0.776732,22,5
25.2118,35.4895,8.462,18,13
6.09841,8.5813,-0.551726,42,6
23.4715,33.0155,9.35211,14,14
7.55059,10.6169,-0.227405,100,7
23.8339,33.5004,11.0164,11,15
0.280527,0.393139,-0.12941,15,0
9.90781,13.88,0.297668,31,8
0.338608,0.474186,-0.134521,14,1
14.2181,19.9111,1.28223,20,9
3.51941,4.92675,-1.17691,26,2
19.1044,26.7339,2.87474,17,10
3.94609,5.51999,-1.0747,21,3
21.7481,30.411,4.59057,30,11
4.46525,6.24159,-0.942294,25,4
25.5098,35.6581,6.94413,42,12
5.17383,7.2294,-0.777778,18,5
25.3165,35.3618,8.4536,9,13
6.0961,8.5118,-0.54869,38,6
23.9045,33.3649,9.47584,14,14
7.55616,10.5466,-0.226462,100,7
23.7932,33.1972,10.9439,11,15
0.338277,0.470589,-0.155291,12,0
9.91526,13.7935,0.296516,29,8
0.333353,0.463568,-0.131821,14,1
14.2327,19.7851,1.27731,22,9
3.52397,4.89691,-1.17271,21,2
19.279,26.7803,2.88695,35,10
3.96092,5.50206,-1.07377,22,3
21.7676,30.2259,4.57351,14,11
4.47664,6.21387,-0.940344,18,4
27.1795,37.713,7.36275,19,12
5.18855,7.19676,-0.776209,18,5
26.2362,36.3908,8.72035,19,13
6.1278,8.4964,-0.549004,45,6
23.7266,32.8856,9.36201,14,14
7.55548,10.4682,-0.225345,100,7
23.9349,33.15,10.9558,23,15
0.299055,0.413128,-0.136656,14,0
9.91174,13.6875,0.294981,28,8
0.346401,0.478183,-0.13632,13,1
14.1716,19.5558,1.26569,20,9
3.53904,4.8836,-1.17233,23,2
19.6952,27.1679,2.93575,36,10
3.97198,5.47701,-1.07158,21,3
21.9056,30.1948,4.58034,15,11
4.50413,6.20624,-0.941563,17,4
27.2843,37.5812,7.35555,19,12
5.19834,7.16016,-0.774117,16,5
29.0662,40.0209,9.61448,11,13
6.14802,8.46203,-0.548167,38,6
23.8824,32.8593,9.37821,14,14
7.56022,10.3981,-0.224403,100,7
24.0732,33.0975,10.9662,34,15
0.28456,0.390229,-0.12941,15,0
9.90643,13.5801,0.29341,33,8
0.350366,0.480119,-0.13722,13,1
14.1668,19.4062,1.2592,22,9
3.54796,4.86012,-1.16966,26,2
19.4938,26.6935,2.89183,8,10
3.98059,5.44875,-1.06876,22,3
21.8726,29.929,4.55158,14,11
4.53045,6.19689,-0.942538,16,4
27.1086,37.0664,7.27326,9,12
5.20214,7.11302,-0.77098,16,5
29.1663,39.8653,9.60151,11,13
6.15983,8.41635,-0.546597,42,6
24.248,33.1185,9.47629,14,14
7.57757,10.3459,-0.223845,100,7
24.0196,32.7826,10.8896,34,15
0.28592,0.389233,-0.12941,15,0
9.89338,13.4633,0.29163,35,8
0.342806,0.466332,-0.133621,14,1
14.0818,19.149,1.2457,18,9
3.56374,4.84613,-1.16928,23,2
18.0496,24.5357,2.66487,39,10
3.98904,5.42051,-1.06594,25,3
21.9193,29.7741,4.53963,29,11
4.54264,6.16825,-0.940588,17,4
28.1213,38.1707,7.50917,20,12
5.21275,7.07557,-0.768888,23,5
30.696,41.6503,10.0572,13,13
6.16547,8.36264,-0.544503,38,6
28.0706,38.0602,10.9182,18,14
7.6077,10.3113,-0.22367,100,7
24.1258,32.6877,10.8859,11,15
0.314856,0.425503,-0.141833,14,0
9.91057,13.3885,0.290757,19,8
0.344431,0.465133,-0.133621,14,1
13.9952,18.8927,1.2322,24,9
3.57947,4.83208,-1.1689,21,2
18.1435,24.4838,2.66609,15,10
4.00794,5.40655,-1.06594,26,3
26.5744,35.8346,5.47778,19,11
4.54285,6.12365,-0.9362,18,4
28.3155,38.1548,7.52544,21,12
5.2481,7.07173,-0.770457,16,5
29.211,39.347,9.52557,22,13
6.18629,8.32984,-0.543771,38,6
28.2126,37.9745,10.9218,18,14
7.62695,10.2622,-0.223181,100,7
27.6009,37.124,12.3954,16,15
0.311721,0.418206,-0.139762,14,0
9.93334,13.3217,0.290059,22,8
0.353044,0.4733,-0.13632,13,1
14.0121,18.7782,1.22791,21,9
3.58457,4.80382,-1.16508,21,2
19.6948,26.3841,2.8805,35,10
4.02561,5.39094,-1.06563,25,3
4.55707,6.09822,-0.934738,18,4
28.4356,38.0383,7.522,21,12
5.26918,7.04858,-0.769934,16,5
30.906,41.328,10.0312,26,13
6.20695,8.297,-0.543038,38,6
28.3648,37.9023,10.9295,18,14
7.62198,10.1811,-0.221995,100,7
27.6863,36.9687,12.3757,15,15
0.30622,0.407846,-0.136656,14,0
9.93535,13.2278,0.288768,24,8
0.34767,0.462717,-0.133621,14,1
13.9924,18.6158,1.22047,21,9
3.59188,4.77872,-1.16203,26,2
20.6441,27.4554,3.0053,37,10
4.03371,5.36265,-1.06282,25,3
23.809,31.6415,4.8621,15,11
4.57594,6.0791,-0.93425,17,4
28.6097,37.994,7.53295,21,12
5.27217,7.0015,-0.766796,16,5
31.0029,41.1572,10.0159,13,13
6.20823,8.2386,-0.540631,45,6
28.5767,37.9089,10.9601,19,14
7.62736,10.1145,-0.221122,100,7
27.8675,36.9412,12.399,32,15
9.92234,13.1149,0.287057,27,8
0.358692,0.473931,-0.13722,13,1
13.9379,18.4092,1.21011,21,9
3.62158,4.78337,-1.16622,23,2
19.834,26.1872,2.87405,8,10
4.04287,5.33594,-1.06031,21,3
23.9984,31.6626,4.87819,16,11
4.59713,6.06309,-0.93425,18,4
28.8186,37.9946,7.55297,10,12
5.29297,6.97829,-0.766273,16,5
32.2607,42.5173,10.3743,29,13
6.23815,8.21847,-0.540735,38,6
28.5439,37.5916,10.8971,18,14
7.64085,10.0592,-0.220494,100,7
27.8549,36.6576,12.3364,15,15
0.306718,0.402625,-0.135621,15,0
9.9123,13.0071,0.285452,32,8
0.339078,0.444781,-0.129122,14,1
13.9706,18.3191,1.20739,22,9
3.6323,4.7629,-1.16432,35,2
20.7639,27.2171,2.99502,18,10
4.05787,5.31708,-1.05937,22,3
29.45,38.5747,5.95892,23,11
4.61466,6.04228,-0.933519,20,4
29.7713,38.9675,7.76697,11,12
5.30883,6.94869,-0.765053,16,5
31.8665,41.6947,10.2006,14,13
6.26074,8.18871,-0.540212,45,6
28.8502,37.7208,10.9637,19,14
7.63825,9.9832,-0.219412,100,7
27.7408,36.2441,12.2297,15,15
0.30577,0.398487,-0.134586,15,0
9.88215,12.874,0.283287,34,8
0.347749,0.452868,-0.131821,14,1
13.9992,18.2243,1.20436,19,9
3.64531,4.74552,-1.16317,19,2
21.4367,27.8965,3.07799,29,10
4.074,5.29976,-1.05875,22,3
27.5055,35.7682,5.54018,20,11
4.61514,5.99938,-0.929376,17,4
29.9361,38.9009,7.77448,11,12
5.31847,6.91117,-0.762961,16,5
34.3208,44.5825,10.9364,17,13
6.27223,8.14465,-0.538746,35,6
29.0578,37.7187,10.9925,19,14
7.66573,9.94697,-0.219202,100,7
27.8317,36.1011,12.2142,15,15
0.295345,0.382132,-0.12941,15,0
9.88912,12.7904,0.282205,35,8
0.349328,0.451652,-0.131821,14,1
14.0028,18.0979,1.19923,19,9
3.66306,4.73432,-1.16355,23,2
21.512,27.7931,3.07485,39,10
4.08522,5.27613,-1.05687,23,3
27.6958,35.7567,5.55334,20,11
4.62876,5.97382,-0.927913,18,4
30.062,38.7837,7.77198,11,12
5.33768,6.88626,-0.762264,16,5
32.9484,42.4921,10.4518,15,13
6.28593,8.10377,-0.53749,45,6
29.7507,38.3406,11.2039,19,14
7.67343,9.88539,-0.218434,100,7
33.5927,43.2607,14.6761,20,15
0.325158,0.417684,-0.141833,14,0
9.90913,12.7243,0.281507,32,8
0.360483,0.462728,-0.135421,13,1
13.9984,17.9623,1.19347,21,9
3.67232,4.71221,-1.16126,23,2
21.8661,28.0478,3.11146,39,10
4.09632,5.25249,-1.05499,23,3
4.64348,5.9498,-0.926695,20,4
31.8748,40.8272,8.20374,12,12
5.35188,6.85503,-0.76087,16,5
33.198,42.5068,10.4838,15,13
6.30188,8.06604,-0.536444,35,6
7.65369,9.78924,-0.216899,100,7
34.2077,43.7366,14.878,21,15
9.90536,12.6282,0.280146,32,8
0.362096,0.461467,-0.135421,13,1
13.9981,17.8332,1.18813,19,9
3.68511,4.69473,-1.16012,23,2
22.3982,28.5245,3.17299,50,10
4.09511,5.21331,-1.04999,33,3
29.9268,38.0849,5.94722,22,11
4.66545,5.93512,-0.926938,18,4
32.1685,40.9083,8.24253,12,12
5.35853,6.81438,-0.758429,16,5
33.283,42.3104,10.464,15,13
6.31024,8.01888,-0.534769,38,6
34.5765,43.9231,12.9054,24,14
7.70761,9.7876,-0.217457,100,7
33.234,42.1874,14.3903,20,15
0.29933,0.379018,-0.12941,15,0
9.92458,12.5622,0.279448,32,8
0.366122,0.463258,-0.13632,13,1
14.0119,17.7231,1.18405,17,9
3.70147,4.68184,-1.16012,23,2
22.4878,28.4337,3.1716,50,10
4.11941,5.20673,-1.05155,26,3
30.1926,38.1483,5.97355,23,11
4.66888,5.89701,-0.923526,21,4
32.5196,41.059,8.29572,12,12
5.37981,6.7925,-0.758081,15,5
35.1813,44.4037,11.012,17,13
6.32827,7.98428,-0.533931,38,6
34.5649,43.5944,12.8443,24,14
7.70072,9.70893,-0.216305,100,7
33.3955,42.0893,14.3966,20,15
0.329514,0.414256,-0.141833,14,0
9.9335,12.4837,0.278471,30,8
0.367736,0.461977,-0.13632,13,1
13.9754,17.5507,1.17578,17,9
3.71535,4.66582,-1.15936,21,2
22.4863,28.2288,3.15748,40,10
4.12894,5.1815,-1.04936,23,3
4.68449,5.87447,-0.922551,23,4
33.1727,41.5845,8.42525,13,12
5.40349,6.77368,-0.758081,15,5
34.0674,42.6908,10.6166,16,13
6.33865,7.94029,-0.532466,38,6
37.003,46.3363,13.6901,28,14
7.73332,9.68043,-0.21627,100,7
34.3526,42.9866,14.7444,20,15
9.94701,12.4115,0.277633,34,8
0.364471,0.454609,-0.134521,14,1
13.9586,17.4107,1.1695,17,9
3.71933,4.63751,-1.15554,21,2
22.1596,27.6202,3.09804,29,10
4.14948,5.17014,-1.04999,23,3
4.69027,5.84187,-0.91987,21,4
33.0234,41.117,8.35266,12,12
5.41962,6.74546,-0.757035,15,5
34.29,42.6635,10.6395,16,13
6.3413,7.88699,-0.530373,45,6
7.72402,9.60331,-0.215118,100,7
34.1656,42.4631,14.6036,20,15
0.317772,0.39396,-0.135621,15,0
9.93286,12.3099,0.276097,34,8
0.363528,0.450365,-0.133621,14,1
13.9259,17.2524,1.16196,19,9
3.73222,4.62209,-1.15478,23,2
21.9068,27.1203,3.0501,28,10
4.1666,5.15635,-1.04999,22,3
30.9582,38.2985,6.04667,23,11
4.70962,5.82629,-0.91987,20,4
33.2143,41.0748,8.36643,12,12
5.42065,6.70112,-0.754071,15,5
34.2881,42.3725,10.5952,15,13
6.35988,7.8566,-0.529745,45,6
7.76841,9.59318,-0.215467,100,7
34.367,42.4246,14.6295,20,15
0.304462,0.374908,-0.12941,15,0
9.92824,12.2211,0.274841,34,8
0.379768,0.467305,-0.13902,13,1
13.8828,17.0767,1.15338,19,9
3.74877,4.61121,-1.15516,21,2
21.9802,27.0274,3.04784,38,10
4.16996,5.12565,-1.04655,22,3
34.2201,42.0478,6.6565,34,11
4.73494,5.81597,-0.920845,20,4
35.9272,44.1139,9.01094,14,12
5.44159,6.68156,-0.753897,15,5
35.5568,43.6436,10.9425,17,13
6.3758,7.82308,-0.528907,38,6
7.77404,9.53192,-0.2147,100,7
35.2452,43.1995,14.939,21,15
0.322892,0.394778,-0.136656,14,0
9.93664,12.1445,0.273898,37,8
0.361648,0.441848,-0.131821,14,1
13.8638,16.9323,1.14689,18,9
3.76235,4.59506,-1.15439,23,2
21.9533,26.8025,3.0311,19,10
4.18532,5.10801,-1.04592,23,3
30.5915,37.3223,5.92529,22,11
4.74137,5.78252,-0.918164,16,4
40.438,49.3002,10.0991,19,12
5.45603,6.65175,-0.752677,15,5
34.5508,42.1078,10.5876,15,13
6.39167,7.78688,-0.527965,38,6
7.79077,9.48463,-0.214246,100,7
35.4081,43.0911,14.9442,21,15
0.321811,0.390667,-0.135621,15,0
9.9421,12.065,0.272886,34,8
0.370626,0.449605,-0.134521,14,1
13.8314,16.7728,1.13935,18,9
3.78336,4.58796,-1.15592,21,2
21.8679,26.509,3.00652,18,10
4.19684,5.08575,-1.04436,20,3
4.75268,5.75522,-0.916458,18,4
5.47541,6.62805,-0.752154,15,5
34.7551,42.0565,10.6052,15,13
6.40354,7.74605,-0.526709,38,6
7.79069,9.41732,-0.213338,100,7
34.9005,42.1725,14.6678,20,15
0.370046,0.446039,-0.155291,12,0
9.94457,11.9825,0.271804,36,8
0.374682,0.451307,-0.135421,13,1
13.8145,16.6338,1.13318,18,9
3.78054,4.55207,-1.1502,23,2
21.6764,26.0908,2.96765,18,10
4.22214,5.08018,-1.04623,21,3
4.76385,5.72791,-0.914751,20,4
5.49087,6.59971,-0.751108,15,5
35.4015,42.5355,10.757,16,13
6.42543,7.71751,-0.52629,38,6
7.80047,9.36242,-0.21271,100,7
35.1416,42.1632,14.7071,20,15
9.96324,11.9201,0.271176,34,8
0.371256,0.444017,-0.133621,14,1
13.7867,16.4828,1.12617,19,9
3.79641,4.53884,-1.1502,21,2
21.6292,25.85,2.94883,18,10
4.23605,5.06087,-1.0453,22,3
4.78509,5.71277,-0.914995,16,4
5.50107,6.56523,-0.749365,15,5
36.4402,43.4739,11.0265,17,13
6.44591,7.68739,-0.525767,38,6
7.81768,9.31675,-0.212291,100,7
0.340811,0.405013,-0.141833,14,0
9.96873,11.8425,0.270198,33,8
0.382845,0.454643,-0.13722,13,1
13.7811,16.3598,1.12104,22,9
3.8097,4.52256,-1.14943,21,2
21.487,25.4985,2.91728,18,10
4.24096,5.03095,-1.04217,22,3
4.80244,5.693,-0.914508,16,4
42.2665,50.0865,10.3801,20,12
5.50597,6.52467,-0.746925,15,5
36.7703,43.558,11.0803,18,13
6.46497,7.65569,-0.525139,38,6
7.83208,9.26802,-0.211802,100,7
0.342223,0.403821,-0.141833,14,0
9.98415,11.7771,0.2695,33,8
0.376867,0.444387,-0.134521,14,1
13.7645,16.2247,1.11507,16,9
3.82546,4.50924,-1.14943,23,2
21.3541,25.1621,2.8873,17,10
4.25338,5.01009,-1.04092,22,3
4.80944,5.66107,-0.91207,17,4
41.8168,49.2041,10.2274,19,12
5.52613,6.50237,-0.746576,15,5
37.1281,43.6717,11.1421,18,13
6.48001,7.61938,-0.524197,35,6
7.8592,9.23453,-0.211663,100,7
0.376237,0.440829,-0.155291,12,0
9.96677,11.6737,0.267929,34,8
0.370822,0.434177,-0.131821,14,1
13.738,16.0794,1.10837,16,9
3.8348,4.48839,-1.14753,21,2
21.2787,24.8966,2.86533,26,10
4.27212,4.99671,-1.04123,20,3
34.845,40.7406,6.58241,33,11
4.8111,5.62313,-0.908658,21,4
5.53843,6.47094,-0.745182,15,5
6.49358,7.58154,-0.52315,35,6
7.85886,9.16908,-0.21079,100,7
0.377774,0.439513,-0.155291,12,0
9.98269,11.61,0.267266,33,8
0.382502,0.4447,-0.135421,13,1
13.7132,15.9375,1.10188,20,9
3.84277,4.46605,-1.14524,21,2
21.3369,24.7889,2.8615,26,10
4.28438,4.97578,-1.03998,21,3
4.82681,5.60179,-0.907927,21,4
44.816,51.9933,10.8719,22,12
5.55708,6.44704,-0.744659,15,5
6.50435,7.54068,-0.521894,35,6
7.87383,9.12192,-0.210336,100,7
0.316088,0.36516,-0.12941,15,0
10.0022,11.5509,0.266708,28,8
0.389156,0.449253,-0.13722,13,1
13.6472,15.7492,1.09215,19,9
3.85319,4.44667,-1.14371,21,2
21.2693,24.5366,2.84093,17,10
4.29784,4.95632,-1.03904,18,3
35.5656,41.0002,6.6643,35,11
4.84634,5.58491,-0.907927,18,4
5.5678,6.41406,-0.74309,15,5
6.53063,7.51793,-0.521894,35,6
7.88594,9.07174,-0.209813,100,7
0.317361,0.364054,-0.12941,15,0
10.0109,11.4798,0.26587,33,8
0.383035,0.439081,-0.134521,14,1
13.6364,15.6262,1.08691,19,9
3.87127,4.43616,-1.14447,21,2
21.1976,24.2821,2.82001,25,10
4.32032,4.94724,-1.04029,21,3
4.86841,5.57095,-0.908414,16,4
5.58097,6.38408,-0.74187,15,5
6.54631,7.48306,-0.521057,35,6
7.88989,9.01256,-0.20908,100,7
0.382356,0.435533,-0.155291,12,0
9.99287,11.3787,0.264334,37,8
0.384565,0.437742,-0.134521,14,1
13.6289,15.508,1.08199,15,9
3.88673,4.42262,-1.14447,21,2
21.1099,24.012,2.79718,25,10
4.32973,4.92323,-1.03841,21,3
4.87603,5.54051,-0.90622,17,4
5.60059,6.36157,-0.741521,15,5
6.55787,7.44368,-0.519905,35,6
7.90412,8.96546,-0.208626,100,7
0.350604,0.396565,-0.141833,14,0
10.0339,11.3452,0.264369,34,8
0.380926,0.430558,-0.132721,14,1
13.6181,15.387,1.07686,17,9
3.90214,4.40902,-1.14447,21,2
20.9968,23.7159,2.7712,25,10
4.34689,4.90808,-1.03841,23,3
36.4063,41.0921,6.74084,36,11
4.88744,5.51454,-0.904758,25,4
5.61483,6.33304,-0.740475,15,5
6.57453,7.41029,-0.519173,35,6
7.92209,8.92286,-0.208277,100,7
10.0402,11.2728,0.263496,33,8
0.377241,0.423406,-0.130922,14,1
13.6146,15.2753,1.07236,18,9
3.90837,4.38511,-1.1418,23,2
20.9893,23.5413,2.75935,33,10
4.35347,4.88109,-1.03591,22,3
4.89344,5.48264,-0.902321,27,4
5.617,6.29111,-0.737861,15,5
6.59371,7.37985,-0.518649,31,6
7.93586,8.87578,-0.207823,100,7
0.340468,0.379724,-0.136656,14,0
10.0514,11.2064,0.262763,28,8
0.396937,0.442393,-0.13722,13,1
13.5958,15.1474,1.06671,15,9
3.91972,4.36706,-1.14066,23,2
20.9542,23.3374,2.74401,33,10
4.36389,4.85851,-1.03434,21,3
35.9626,40.0247,6.60678,34,11
4.91653,5.46995,-0.903052,15,4
5.62427,6.25517,-0.735943,15,5
6.61542,7.35233,-0.518335,35,6
7.97081,8.85248,-0.207928,100,7
0.341791,0.378534,-0.136656,14,0
10.0516,11.1282,0.261751,33,8
0.377575,0.41787,-0.130022,14,1
13.5936,15.0391,1.06242,20,9
3.92703,4.34461,-1.13837,23,2
20.9233,23.14,2.72937,33,10
4.3742,4.83593,-1.03278,17,3
4.94225,5.46011,-0.904271,17,4
5.63538,6.22368,-0.734549,18,5
6.61556,7.30107,-0.516347,31,6
7.98017,8.80091,-0.20737,100,7
0.340511,0.37448,-0.135621,15,0
10.0285,11.025,0.260146,37,8
0.400016,0.439611,-0.13722,13,1
13.5761,14.9148,1.05698,20,9
3.94746,4.33669,-1.13989,23,2
20.8751,22.9254,2.71264,24,10
4.39637,4.82647,-1.03403,25,3
4.95593,5.43696,-0.903296,18,4
5.65949,6.20446,-0.734723,16,5
6.61947,7.25433,-0.514672,38,6
7.98792,8.74789,-0.206776,100,7
0.326223,0.356135,-0.12941,15,0
10.0574,10.9796,0.259901,33,8
0.385749,0.420971,-0.131821,14,1
13.5741,14.8084,1.05279,22,9
3.95139,4.30917,-1.13646,26,2
20.7745,22.6476,2.68875,32,10
4.40602,4.80159,-1.03215,21,3
4.96951,5.41378,-0.902321,16,4
5.66764,6.16999,-0.73298,15,5
6.6379,7.2212,-0.514044,38,6
8.00081,8.70082,-0.206322,100,7
0.345802,0.374873,-0.136656,14,0
10.0813,10.925,0.259482,31,8
0.39522,0.428146,-0.134521,14,1
13.5526,14.6817,1.04714,22,9
3.96108,4.28958,-1.13493,26,2
20.6871,22.3949,2.66731,31,10
4.42007,4.78328,-1.03153,21,3
4.97895,5.38619,-0.900615,15,4
5.68914,6.15017,-0.73298,13,5
6.65493,7.18919,-0.513416,38,6
8.02298,8.66403,-0.206113,100,7
0.344414,0.370893,-0.135621,15,0
10.093,10.8652,0.258854,36,8
0.391332,0.421123,-0.132721,14,1
13.5726,14.6059,1.04494,21,9
3.96593,4.26635,-1.13226,26,2
20.5605,22.1103,2.64152,31,10
4.42783,4.75992,-1.02965,18,3
4.99678,5.36965,-0.900615,17,4
5.69864,6.1196,-0.731585,15,5
6.67328,7.16124,-0.512997,38,6
8.02303,8.60666,-0.20538,100,7
0.348281,0.372572,-0.136656,14,0
10.0948,10.7951,0.257981,37,8
0.411364,0.439747,-0.13902,13,1
13.5758,14.5074,1.04128,22,9
3.9808,4.25248,-1.13226,26,2
20.4717,21.8689,2.62077,31,10
4.4409,4.74233,-1.02903,25,3
5.01142,5.34783,-0.899883,17,4
5.72269,6.10258,-0.731934,13,5
6.68594,7.12479,-0.512055,38,6
8.04344,8.5684,-0.205136,100,7
0.397322,0.421924,-0.155291,12,0
10.0987,10.7202,0.257074,33,8
0.399608,0.424054,-0.134521,14,1
13.5604,14.3849,1.03604,18,9
3.99636,4.23786,-1.13226,26,2
20.3767,21.6081,2.59846,30,10
4.44334,4.71021,-1.02558,22,3
35.4339,37.5489,6.33916,28,11
5.02963,5.32799,-0.89964,17,4
5.73818,6.07432,-0.731062,13,5
6.68457,7.07121,-0.509962,38,6
8.06518,8.52869,-0.204891,100,7
0.398866,0.420464,-0.155291,12,0
10.1049,10.6483,0.256236,33,8
0.390426,0.41128,-0.130922,14,1
13.5087,14.2303,1.0283,20,9
4.01383,4.22674,-1.13302,26,2
20.2884,21.3571,2.5772,30,10
4.42111,4.65237,-1.01651,27,3
35.3661,37.203,6.3026,28,11
5.03315,5.29457,-0.896958,16,4
5.75385,6.04848,-0.730365,13,5
6.69957,7.03771,-0.509229,38,6
8.07283,8.47731,-0.204333,96,7
0.352227,0.368843,-0.136656,14,0
10.078,10.5497,0.254666,39,8
0.389095,0.407165,-0.130022,14,1
13.5145,14.1421,1.02516,15,9
4.0129,4.19779,-1.12883,23,2
20.1925,21.1154,2.5561,29,10
4.46792,4.67051,-1.02371,25,3
5.04656,5.27355,-0.896227,16,4
5.76975,6.02505,-0.729842,13,5
6.71044,7.00247,-0.508287,38,6
8.08153,8.43029,-0.203844,95,7
0.334705,0.348175,-0.12941,15,0
10.1282,10.5321,0.255049,34,8
0.393145,0.408681,-0.130922,14,1
13.5236,14.0531,1.02212,20,9
4.02135,4.1788,-1.1273,23,2
20.0938,20.8733,2.53484,29,10
4.47653,4.64856,-1.02214,26,3
35.0419,36.3758,6.20169,26,11
5.05667,5.24732,-0.894765,16,4
5.78416,6.00015,-0.729145,13,5
6.73085,6.97731,-0.508078,38,6
8.09563,8.3862,-0.20346,100,7
10.1301,10.4607,0.254177,33,8
0.394569,0.407306,-0.130922,14,1
13.5448,13.9771,1.02003,21,9
4.04001,4.16897,-1.12844,21,2
20.0403,20.6728,2.51898,29,10
4.48173,4.62156,-1.01964,26,3
34.7733,35.8457,6.13198,24,11
5.07081,5.22537,-0.894034,16,4
5.79397,5.96848,-0.72775,13,5
6.74542,6.94374,-0.507345,38,6
8.09977,8.33208,-0.202832,100,7
0.35331,0.36243,-0.135621,15,0
10.1484,10.4067,0.253723,30,8
0.393267,0.403137,-0.130022,14,1
13.5418,13.8769,1.01616,20,9
4.0518,4.15203,-1.12768,23,2
20.0205,20.5086,2.50747,28,10
4.50059,4.60871,-1.02027,26,3
34.7928,35.6162,6.11345,24,11
5.08347,5.20196,-0.893059,16,4
5.82034,5.95392,-0.728448,13,5
6.75426,6.90445,-0.506193,38,6
8.13159,8.30662,-0.202902,100,7
0.338333,0.344651,-0.12941,15,0
10.1664,10.3527,0.253269,26,8
0.391941,0.398981,-0.129122,14,1
13.5454,13.7839,1.01281,18,9
4.06489,4.13646,-1.1273,21,2
20.0082,20.3534,2.49701,28,10
4.50557,4.58171,-1.01776,27,3
34.6051,35.1775,6.05886,23,11
5.08628,5.16862,-0.890377,14,4
5.8327,5.92505,-0.727402,13,5
6.76991,6.87229,-0.505565,38,6
8.1465,8.26394,-0.202553,100,7
0.372129,0.376441,-0.141833,14,0
10.18,10.2944,0.252711,22,8
0.412518,0.417006,-0.135421,13,1
13.5091,13.6514,1.00653,22,9
4.06964,4.11248,-1.12463,23,2
19.9361,20.139,2.47923,28,10
4.52432,4.56876,-1.01839,26,3
34.4678,34.7942,6.01352,23,11
5.09311,5.13955,-0.888428,18,4
5.84914,5.90041,-0.726879,13,5
6.79104,6.84578,-0.505356,35,6
8.1429,8.20281,-0.20175,100,7
0.340731,0.34228,-0.12941,15,0
10.199,10.2418,0.252292,20,8
0.400218,0.401758,-0.130922,14,1
13.4834,13.5306,1.00108,23,9
4.07843,4.09269,-1.1231,26,2
19.8825,19.9451,2.46389,28,10
4.54024,4.55294,-1.01839,25,3
5.11102,5.12174,-0.888428,18,4
5.85422,5.86444,-0.724961,13,5
6.80925,6.81638,-0.504937,35,6
8.16159,8.16444,-0.201505,100,7
0.358336,0.357461,-0.135621,15,0
10.1879,10.1595,0.25114,19,8
0.404378,0.40311,-0.131821,14,1
13.5334,13.4862,1.00129,20,9
4.0913,4.07704,-1.12272,26,2
19.8518,19.7757,2.45152,27,10
4.5519,4.53288,-1.01745,26,3
34.1303,33.9757,5.9131,22,11
5.13028,5.10527,-0.888671,20,4
5.86013,5.82749,-0.723044,13,5
6.82592,6.78553,-0.504414,35,6
8.16876,8.11476,-0.200982,100,7
0.411805,0.4078,-0.155291,12,0
10.2148,10.1154,0.250931,20,8
0.411322,0.40718,-0.133621,14,1
13.5264,13.3855,0.997314,23,9
4.1104,4.06616,-1.12387,26,2
19.8193,19.5992,2.43862,27,10
4.56146,4.50922,-1.01589,28,3
5.13254,5.07198,-0.88599,23,4
5.88327,5.8098,-0.723393,12,5
6.83226,6.74223,-0.503053,35,6
8.1771,8.06653,-0.200493,100,7
0.344355,0.338633,-0.12941,15,0
10.2247,10.0513,0.250268,17,8
0.401693,0.394742,-0.130022,14,1
13.5104,13.2766,0.992709,21,9
4.12037,4.04766,-1.12272,26,2
19.7853,19.4294,2.42607,27,10
4.57718,4.49327,-1.01589,25,3
33.7349,33.105,5.80342,22,11
5.15251,5.05453,-0.886234,22,4
5.8964,5.78226,-0.722521,13,5
6.84149,6.70436,-0.502007,35,6
8.18664,8.01975,-0.200039,100,7
0.373178,0.364424,-0.139762,14,0
10.2379,9.99777,0.249779,20,8
0.416944,0.407021,-0.134521,14,1
13.4938,13.168,0.988103,23,9
4.11901,4.01817,-1.11852,19,2
19.7374,19.2475,2.41195,33,10
4.59347,4.47945,-1.0162,26,3
5.16924,5.03741,-0.886234,24,4
5.90799,5.7533,-0.721475,13,5
6.87513,6.69278,-0.502844,35,6
8.19451,7.97161,-0.199551,100,7
0.346652,0.336282,-0.12941,15,0
10.2426,9.93274,0.249046,19,8
0.418362,0.405563,-0.134521,14,1
13.488,13.0708,0.984335,23,9
4.12808,4.00039,-1.11738,23,2
19.6938,19.078,2.39887,26,10
4.60482,4.45926,-1.01526,27,3
5.18965,5.0221,-0.886721,22,4
5.90842,5.71567,-0.719209,13,5
6.89127,6.6618,-0.502321,38,6
8.21366,7.93462,-0.199341,100,7
0.347824,0.335069,-0.12941,15,0
10.2513,9.87196,0.248418,19,8
0.411352,0.395991,-0.131821,14,1
13.522,13.0125,0.983497,18,9
4.13636,3.98051,-1.11585,26,2
19.6914,18.9428,2.39051,26,10
4.60469,4.4281,-1.01182,26,3
33.41,32.1175,5.69032,21,11
5.19999,4.99708,-0.885503,21,4
5.92259,5.68949,-0.718512,15,5
6.91016,6.63356,-0.502007,38,6
8.24708,7.91143,-0.199481,100,7
0.368535,0.352549,-0.136656,14,0
10.2713,9.82229,0.248069,20,8
0.407097,0.389167,-0.130022,14,1
13.5587,12.957,0.982869,18,9
4.1403,3.95655,-1.11318,26,2
19.6652,18.7859,2.37935,32,10
4.62012,4.412,-1.01182,30,3
33.1831,31.6772,5.6328,20,11
5.21453,4.97615,-0.885015,22,4
5.94097,5.6674,-0.718338,15,5
6.91882,6.59562,-0.50096,38,6
8.26162,7.87018,-0.199167,100,7
0.420186,0.39916,-0.155291,12,0
10.2823,9.76435,0.24751,20,8
0.41128,0.390426,-0.130922,14,1
13.5459,12.8546,0.978682,23,9
4.15693,3.94478,-1.11394,21,2
19.6425,18.6335,2.36872,32,10
4.63119,4.39177,-1.01088,31,3
33.1494,31.4246,5.60843,20,11
5.2189,4.94563,-0.882822,23,4
5.94625,5.63293,-0.716594,15,5
6.92875,6.55907,-0.500018,38,6
8.28759,7.83992,-0.199132,100,7
0.38504,0.363224,-0.141833,14,0
10.2945,9.70782,0.246986,23,8
0.438164,0.413049,-0.13902,13,1
13.5413,12.7607,0.975124,23,9
4.15353,3.91409,-1.10936,26,2
19.6146,18.4774,2.35756,32,10
4.64793,4.37693,-1.01119,36,3
33.042,31.1046,5.57187,20,11
5.23035,4.92194,-0.881847,23,4
5.95717,5.60395,-0.715549,15,5
6.94432,6.528,-0.499494,38,6
8.29449,7.79178,-0.198643,100,7
10.2889,9.63492,0.246044,22,8
0.428222,0.400863,-0.135421,13,1
13.5682,12.6969,0.973868,20,9
4.17577,3.90762,-1.11165,21,2
19.5247,18.2645,2.33909,31,10
4.65597,4.35393,-1.00963,28,3
32.8604,30.718,5.52312,20,11
5.24895,4.90501,-0.88209,24,4
5.9665,5.5736,-0.714328,15,5
6.96123,6.49827,-0.499076,38,6
8.30995,7.75187,-0.198364,100,7
0.353619,0.328948,-0.12941,15,0
10.2961,9.57444,0.245416,23,8
0.432473,0.40202,-0.13632,13,1
13.5803,12.6196,0.971565,20,9
4.19801,3.90103,-1.11394,23,2
19.4949,18.1095,2.32793,31,10
4.6639,4.33093,-1.00806,33,3
5.25148,4.87316,-0.879653,21,4
5.97862,5.54596,-0.713457,15,5
6.97508,6.46579,-0.498448,38,6
8.33696,7.72281,-0.198364,100,7
0.371794,0.343442,-0.135621,15,0
10.3133,9.52351,0.245032,27,8
0.405235,0.374071,-0.127322,15,1
13.5934,12.5437,0.969367,13,9
4.2116,3.88636,-1.11394,21,2
19.5155,18.0021,2.32287,25,10
4.65866,4.29588,-1.00368,31,3
32.7821,30.2187,5.47437,19,11
5.26846,4.85479,-0.879653,25,4
5.99794,5.52506,-0.713457,15,5
6.9741,6.41976,-0.496773,38,6
8.35797,7.68825,-0.198224,100,7
0.355907,0.326471,-0.12941,15,0
10.3332,9.47529,0.244718,26,8
0.418031,0.383189,-0.130922,14,1
13.5856,12.4489,0.965703,19,9
4.2237,3.87031,-1.11356,21,2
19.4886,17.8518,2.31224,31,10
4.68819,4.29293,-1.00681,33,3
32.5975,29.8387,5.42611,19,11
5.27366,4.82565,-0.877703,25,4
6.02845,5.51245,-0.714677,13,5
6.98909,6.38863,-0.49625,38,6
8.36704,7.64284,-0.197806,100,7
0.357101,0.325165,-0.12941,15,0
10.3559,9.42974,0.244473,16,8
0.419366,0.381727,-0.130922,14,1
13.5965,12.3718,0.9634,15,9
4.23204,3.84951,-1.11203,21,2
19.4478,17.6838,2.29969,30,10
4.68197,4.25579,-1.00212,33,3
5.2846,4.80188,-0.876728,25,4
6.04322,5.48736,-0.714154,15,5
7.0095,6.36029,-0.49604,38,6
8.38182,7.60284,-0.197526,100,7
0.358234,0.323916,-0.12941,15,0
10.3741,9.37697,0.244089,24,8
0.438113,0.395866,-0.13632,13,1
13.6121,12.2951,0.961307,18,9
4.24109,3.83077,-1.11089,23,2
19.4429,17.5557,2.29185,24,10
4.70267,4.24471,-1.00337,32,3
5.30216,4.78248,-0.876728,25,4
6.04163,5.44755,-0.711714,15,5
7.03018,6.33445,-0.495936,38,6
8.40369,7.56671,-0.197387,100,7
0.431235,0.387197,-0.155291,12,0
10.3725,9.30998,0.243287,16,8
0.427889,0.383923,-0.132721,28,1
13.6133,12.2102,0.958376,22,9
4.26466,3.82512,-1.11356,19,2
19.4373,17.4278,2.284,30,10
4.71451,4.22564,-1.00275,30,3
5.30995,4.75599,-0.875266,25,4
6.06357,5.42908,-0.712062,15,5
7.04183,6.30055,-0.495203,38,6
8.4062,7.51601,-0.196828,100,7
0.380674,0.339406,-0.136656,14,0
10.3975,9.26707,0.243112,20,8
0.426316,0.379834,-0.131821,14,1
13.606,12.1225,0.955027,21,9
4.28972,3.82065,-1.11661,19,2
19.4296,17.2989,2.27599,30,10
4.72776,4.20784,-1.00243,28,3
5.31317,4.72555,-0.873072,31,4
6.0676,5.39465,-0.710319,15,5
7.05482,6.26797,-0.494575,38,6
8.4236,7.48146,-0.196654,100,7
0.433927,0.384177,-0.155291,12,0
10.4192,9.22458,0.242903,24,8
0.421736,0.373252,-0.130022,14,1
13.5974,12.0299,0.951468,18,9
4.29126,3.79526,-1.11356,19,2
19.4062,17.1571,2.26622,30,10
4.75204,4.2013,-1.00462,31,3
5.3065,4.6882,-0.869416,24,4
6.08938,5.37607,-0.710668,15,5
7.06958,6.23925,-0.494156,38,6
8.43917,7.44275,-0.196409,100,7
0.435199,0.382736,-0.155291,12,0
10.4333,9.17231,0.242484,17,8
0.428892,0.376923,-0.131821,14,1
13.6123,11.9587,0.949584,16,9
4.29792,3.77582,-1.11203,19,2
19.3852,17.0243,2.25716,30,10
4.77707,4.19381,-1.00681,33,3
5.32731,4.67357,-0.870147,27,4
6.08863,5.33771,-0.708402,17,5
44.6279,39.1239,11.5363,15,13
7.0853,6.20927,-0.493737,38,6
8.4335,7.38558,-0.195676,100,7
0.436599,0.381138,-0.155291,12,0
10.4517,9.124,0.24217,20,8
0.430205,0.375424,-0.131821,14,1
13.6464,11.9045,0.94906,14,9
4.2999,3.74972,-1.10898,21,2
19.3904,16.9034,2.25054,30,10
4.78199,4.16719,-1.00462,26,3
5.35257,4.66277,-0.87161,25,4
37.0504,32.2643,7.78136,11,12
6.08619,5.29811,-0.705962,15,5
7.10349,6.17933,-0.493423,38,6
8.45471,7.35215,-0.195572,100,7
10.4578,9.06206,0.241541,19,8
0.446308,0.386604,-0.13632,13,1
13.6592,11.8319,0.947072,18,9
4.31593,3.73726,-1.10975,19,2
19.3679,16.7652,2.24112,41,10
4.78455,4.14013,-1.00212,27,3
5.36512,4.63922,-0.870878,24,4
33.3795,28.8633,6.98918,8,12
6.09711,5.27031,-0.70509,23,5
7.10537,6.13752,-0.492063,38,6
8.48183,7.3239,-0.195607,100,7
0.401181,0.345314,-0.141833,14,0
10.4757,9.01689,0.241262,22,8
0.444633,0.38258,-0.135421,13,1
13.6853,11.7712,0.946025,18,9
4.32299,3.71705,-1.10822,19,2
19.2269,16.526,2.21811,40,10
4.79826,4.12424,-1.00212,26,3
5.38499,4.62529,-0.87161,25,4
37.2958,32.0228,7.78574,11,12
6.10942,5.24381,-0.704393,16,5
7.11204,6.10222,-0.491121,38,6
8.49216,7.28124,-0.195258,100,7
0.367084,0.313852,-0.12941,15,0
10.4904,8.96599,0.240878,26,8
0.434113,0.370898,-0.131821,14,1
13.6954,11.7011,0.944036,13,9
4.34425,3.71034,-1.11051,19,2
19.2603,16.4441,2.21567,40,10
4.81713,4.11131,-1.00306,26,3
5.39204,4.59873,-0.870147,22,4
37.4017,31.899,7.78574,11,12
6.13739,5.23257,-0.705613,17,5
45.2385,38.5555,11.5539,60,13
7.12874,6.07347,-0.490807,38,6
8.50865,7.24655,-0.195083,100,7
0.388795,0.330072,-0.136656,14,0
10.5003,8.91432,0.240424,31,8
0.432368,0.366935,-0.130922,14,1
13.7041,11.6261,0.941838,13,9
4.3452,3.685,-1.10746,19,2
19.2796,16.3445,2.21132,34,10
4.82772,4.09276,-1.00243,27,3
5.41786,4.58981,-0.871853,21,4
37.5129,31.7682,7.78574,11,12
6.16322,5.21755,-0.706484,16,5
45.3781,38.4154,11.5569,81,13
7.14122,6.04335,-0.490283,38,6
8.52473,7.20906,-0.194874,100,7
0.369266,0.311281,-0.12941,15,0
10.5283,8.87191,0.24032,23,8
0.445634,0.375392,-0.134521,14,1
13.7283,11.5603,0.940582,12,9
4.34903,3.66222,-1.10517,23,2
19.271,16.222,2.20382,28,10
4.84118,4.07377,-1.00212,27,3
5.43313,4.56864,-0.87161,23,4
6.16004,5.17806,-0.704044,16,5
45.5307,38.259,11.56,81,13
7.1465,6.003,-0.489132,45,6
8.53425,7.16362,-0.19449,100,7
10.5285,8.80944,0.239622,19,8
0.446941,0.373834,-0.134521,14,1
13.7303,11.4803,0.937965,12,9
4.36781,3.65205,-1.10669,19,2
19.3413,16.1661,2.20539,23,10
4.84324,4.04671,-0.999616,26,3
5.44295,4.54456,-0.870635,20,4
6.17808,5.15653,-0.704044,15,5
45.6685,38.1036,11.5611,100,13
7.15053,5.96395,-0.48798,42,6
8.54845,7.12483,-0.194245,100,7
10.5484,8.76369,0.239377,27,8
0.445245,0.369781,-0.133621,14,1
13.7365,11.4042,0.935662,15,9
4.38355,3.63929,-1.10746,19,2
19.3731,16.0781,2.2026,23,10
4.84974,4.02347,-0.998052,26,3
5.45572,4.523,-0.870147,22,4
6.20064,5.13874,-0.704567,15,5
45.8072,37.9489,11.5626,11,13
7.17285,5.94023,-0.488085,42,6
8.54862,7.07455,-0.193687,100,7
10.5666,8.71664,0.239098,26,8
0.448037,0.369465,-0.134071,28,1
13.7253,11.3143,0.932208,18,9
4.38411,3.61398,-1.1044,21,2
19.3906,15.9787,2.19824,28,10
4.86375,4.00652,-0.998052,27,3
31.6411,26.0551,5.03272,17,11
5.45155,4.48753,-0.866979,19,4
36.2315,29.8139,7.43158,10,12
6.21854,5.11707,-0.704567,15,5
7.19817,5.91896,-0.488399,38,6
8.54082,7.018,-0.192954,100,7
10.5861,8.67083,0.238854,19,8
0.453847,0.371602,-0.135421,13,1
13.7586,11.2613,0.931789,15,9
4.38302,3.58746,-1.10097,21,2
19.3661,15.8453,2.18918,39,10
4.8823,3.99327,-0.998991,35,3
5.46565,4.46721,-0.866735,20,4
36.3109,29.6672,7.42657,10,12
6.22645,5.08542,-0.703347,15,5
7.22497,5.89885,-0.488818,38,6
8.53737,6.9654,-0.192326,100,7
0.395678,0.321788,-0.136656,14,0
10.5869,8.60985,0.23819,17,8
0.46119,0.374933,-0.13722,13,1
13.7807,11.1993,0.930638,12,9
4.39462,3.57014,-1.10059,23,2
19.3576,15.7203,2.18168,45,10
4.8785,3.96041,-0.995236,28,3
31.3661,25.4633,4.96057,16,11
5.47659,4.44435,-0.866004,19,4
36.1228,29.3039,7.36713,9,12
6.23024,5.05236,-0.701778,13,5
45.0328,36.5059,11.2684,18,13
7.24499,5.87107,-0.488713,38,6
8.57096,6.9431,-0.192535,100,7
0.396799,0.320405,-0.136656,14,0
10.5981,8.55466,0.237737,22,8
0.454978,0.367121,-0.134971,14,1
13.8058,11.1398,0.929696,12,9
4.41316,3.55971,-1.10211,19,2
19.3968,15.6401,2.17994,33,10
4.88768,3.93963,-0.994298,28,3
31.3201,25.236,4.93863,16,11
5.49593,4.42674,-0.866491,21,4
35.8248,28.8554,7.28578,9,12
6.24163,5.02558,-0.701081,15,5
7.25455,5.83698,-0.48798,38,6
8.60605,6.92191,-0.192779,100,7
0.452176,0.362521,-0.155291,12,0
10.6124,8.50821,0.237423,23,8
0.444028,0.355861,-0.131371,14,1
13.8087,11.0629,0.927289,13,9
4.42556,3.54428,-1.10211,19,2
19.414,15.5424,2.17576,33,10
4.89455,3.91847,-0.993046,26,3
31.4811,25.1941,4.95082,16,11
5.50438,4.40353,-0.865516,22,4
6.2638,5.00749,-0.701604,15,5
7.25827,5.80042,-0.486934,39,6
8.63172,6.89308,-0.192814,100,7
0.453376,0.361019,-0.155291,12,0
10.6279,8.45991,0.237108,27,8
0.460516,0.366443,-0.13587,13,1
13.7972,10.9748,0.923939,22,9
