x, y, z, intensity, ring
0.363398,17.4941,2.77139,15,12
0.25786,12.3103,-1.07724,45,5
0.402757,19.0688,3.70742,37,13
0.252044,11.8351,-0.62039,40,6
0.402262,18.8888,4.3618,34,14
0.272786,12.7051,-0.22182,100,7
0.408564,18.8756,5.05888,17,15
0.0110414,0.482837,-0.12941,15,0
0.343512,14.9078,0.260285,18,8
0.0151524,0.652652,-0.150717,23,1
0.380051,16.2473,0.851715,45,9
0.197143,8.42791,-1.63867,26,2
0.389604,16.5322,1.44679,31,10
0.237323,9.99654,-1.58374,26,3
0.422213,17.6543,2.1683,50,11
0.269968,11.2066,-1.37639,44,4
0.437387,18.0259,2.85587,6,12
0.31772,13.0941,-1.14592,19,5
0.463165,18.9515,3.6849,19,13
0.28765,11.6864,-0.612645,70,6
0.421677,17.0112,3.92855,28,14
0.319732,12.8081,-0.223635,100,7
0.453482,18.0397,4.83526,13,15
0.0131339,0.498245,-0.133551,15,0
0.467365,17.6131,0.307546,20,8
0.017951,0.672076,-0.155216,22,1
0.440309,16.3776,0.858624,33,9
0.225877,8.40166,-1.63371,26,2
0.500822,18.5085,1.61988,40,10
0.271627,9.97393,-1.5803,26,3
0.485309,17.7063,2.17488,46,11
0.309849,11.2333,-1.3798,52,4
0.359835,12.9635,-1.13459,45,5
0.540448,19.3482,3.76237,19,13
0.481004,17.0076,3.9281,28,14
0.360915,12.6829,-0.221471,24,7
0.515672,18.011,4.82801,12,15
0.0155647,0.521368,-0.139762,14,0
0.0193554,0.640843,-0.148018,24,1
0.495402,16.3081,0.855065,16,9
0.254244,8.36942,-1.6276,26,2
0.514564,16.8418,1.47415,15,10
0.30571,9.94923,-1.57655,25,3
0.548695,17.7561,2.18122,46,11
0.349555,11.2481,-1.38175,46,4
0.550581,17.6177,2.79173,39,12
0.382683,12.2452,-1.07184,40,5
0.597557,19.0145,3.69788,17,13
0.415281,13.1414,-0.689055,52,6
0.541363,17.037,3.93529,30,14
0.446179,13.9647,-0.24388,71,7
0.57904,18.0245,4.83215,16,15
0.0167408,0.502002,-0.134586,15,0
0.50121,14.9513,0.261123,16,8
0.0219206,0.65051,-0.150267,24,1
0.631436,18.6417,0.977531,27,9
0.282462,8.33905,-1.62188,26,2
0.572533,16.816,1.47206,68,10
0.3399,9.93231,-1.57404,27,3
0.615112,17.883,2.19706,33,11
0.387853,11.219,-1.37834,55,4
0.618039,17.7874,2.81895,12,12
0.424799,12.2259,-1.07027,28,5
0.657893,18.8397,3.6643,31,13
0.459677,13.0979,-0.686857,39,6
0.601308,17.0487,3.93844,30,14
0.48819,13.7733,-0.240564,100,7
0.689272,19.3507,5.18829,21,15
0.0196309,0.53283,-0.142868,14,0
0.554429,14.9775,0.261612,42,8
0.0240464,0.646535,-0.149367,24,1
0.686432,18.37,0.9634,23,9
0.309661,8.287,-1.61195,26,2
0.63825,17.001,1.48845,39,10
0.373231,9.89553,-1.56841,26,3
0.684218,18.0573,2.21875,38,11
0.427468,11.2295,-1.3798,20,4
0.682243,17.8404,2.82771,11,12
0.468466,12.2502,-1.07254,40,5
0.727868,18.9471,3.68567,29,13
0.523112,13.5553,-0.710932,48,6
0.661499,17.064,3.94249,35,14
0.534239,13.7195,-0.239656,26,7
0.765795,19.5779,5.24989,15,15
0.0204008,0.505734,-0.135621,15,0
0.610596,15.0713,0.263287,10,8
0.0267783,0.65813,-0.152067,23,1
0.75977,18.5929,0.975228,57,9
0.337787,8.26626,-1.60814,26,2
0.693103,16.8892,1.47886,71,10
0.405084,9.82903,-1.55809,23,3
0.751026,18.1461,2.22997,28,11
0.501861,12.0748,-1.48388,16,4
0.73413,17.5892,2.78829,22,12
0.795157,18.9719,3.69101,30,13
0.575882,13.6831,-0.717735,68,6
0.724759,17.1492,3.96274,30,14
0.566783,13.3559,-0.233339,32,7
0.82549,19.3724,5.19553,21,15
0.0233503,0.53268,-0.142868,14,0
0.782773,17.7861,0.310758,30,8
0.0295918,0.669713,-0.154766,22,1
0.82901,18.7619,0.98423,19,9
0.365424,8.23757,-1.6028,26,2
0.751251,16.8688,1.47729,40,10
0.436659,9.76638,-1.54839,37,3
0.838935,18.6907,2.29724,43,11
0.526401,11.6823,-1.43586,33,4
0.791117,17.5571,2.7836,8,12
0.625014,13.817,-1.21007,37,5
0.861916,18.9808,3.6933,19,13
0.596354,13.0824,-0.686334,35,6
0.633286,13.8394,-0.241821,100,7
0.885389,19.275,5.17017,19,15
0.0255751,0.540314,-0.144939,14,0
0.84043,17.7554,0.310269,9,8
0.0300553,0.632627,-0.146218,25,1
0.898859,18.8507,0.989045,61,9
0.393799,8.2284,-1.60127,26,2
0.810421,16.872,1.47781,71,10
0.468662,9.75699,-1.54714,28,3
0.878149,18.2159,2.23923,47,11
0.587014,12.1326,-1.49144,16,4
0.865528,17.8246,2.82646,20,12
0.656363,13.4685,-1.17974,30,5
0.923513,18.9504,3.68796,30,13
0.636225,13.0086,-0.682566,55,6
0.821506,16.7371,3.86871,28,14
0.663092,13.4616,-0.235258,21,7
0.952948,19.2776,5.17172,15,15
0.0256073,0.505497,-0.135621,15,0
0.714698,14.0597,0.24573,2,8
0.0329581,0.646142,-0.149367,24,1
0.966661,18.9513,0.994488,37,9
0.419676,8.1996,-1.59593,26,2
0.863816,16.8195,1.47345,43,10
0.502512,9.75135,-1.54651,25,3
0.931893,18.0224,2.21583,47,11
0.625456,12.0551,-1.48218,45,4
0.904576,17.4349,2.76514,12,12
0.991393,18.9804,3.69444,19,13
0.686755,13.104,-0.687694,58,6
0.876851,16.6757,3.85521,31,14
0.711927,13.5392,-0.236655,100,7
1.00811,19.1084,5.12721,24,15
0.0282076,0.520837,-0.139762,14,0
0.845233,15.6067,0.272816,69,8
0.035312,0.649921,-0.150267,24,1
1.02955,18.888,0.991348,39,9
0.44594,8.15496,-1.58753,26,2
0.918473,16.7428,1.46701,53,10
0.532355,9.70426,-1.53932,23,3
1.00049,18.1798,2.23557,28,11
0.645949,11.7002,-1.43879,17,4
0.984316,17.7729,2.81926,15,12
0.685358,12.3358,-1.08091,4,5
1.00652,18.1165,3.52691,5,13
0.723979,12.99,-0.681833,74,6
0.941932,16.8478,3.8957,28,14
0.790203,14.0897,-0.246323,43,7
1.05398,18.7345,5.02782,14,15
0.0291357,0.505306,-0.135621,15,0
0.914548,15.8132,0.276481,36,8
0.0376943,0.649787,-0.150267,24,1
0.473261,8.13375,-1.58371,26,2
0.965655,16.5465,1.4501,43,10
0.563771,9.63125,-1.52805,26,3
1.06688,18.172,2.23508,28,11
0.695593,11.8127,-1.45293,68,4
1.03817,17.5779,2.78891,15,12
0.728887,12.3413,-1.0816,42,5
1.0714,18.0872,3.52195,19,13
0.79847,13.4398,-0.705593,45,6
0.992676,16.6595,3.85296,28,14
0.88168,14.7534,-0.257981,42,7
1.11963,18.6803,5.01436,8,15
0.031843,0.520627,-0.139762,14,0
0.958842,15.6322,0.273374,16,8
0.0403207,0.655487,-0.151617,23,1
1.09791,17.7977,0.934511,5,9
0.500564,8.11441,-1.58028,28,2
1.03018,16.6524,1.45968,56,10
0.595301,9.59571,-1.52273,28,3
1.13179,18.1919,2.23801,23,11
0.741647,11.8874,-1.46243,36,4
1.1111,17.7595,2.81832,11,12
0.770709,12.3188,-1.07986,54,5
1.11893,17.8345,3.47349,15,13
0.844379,13.421,-0.704756,65,6
1.06431,16.8698,3.90245,34,14
0.949717,15.0117,-0.262554,100,7
1.05995,16.7078,4.48585,15,15
0.0326624,0.50509,-0.135621,15,0
1.01328,15.6268,0.27334,33,8
0.0423558,0.651452,-0.150717,23,1
1.16352,17.8476,0.937337,9,9
0.527859,8.09694,-1.57723,26,2
1.08739,16.6348,1.45846,37,10
0.627891,9.57978,-1.52054,22,3
1.18305,18.0017,2.2151,28,11
0.78196,11.867,-1.46024,37,4
1.19145,18.0334,2.86244,22,12
0.818699,12.3915,-1.08648,59,5
1.16924,17.6502,3.43838,13,13
0.889234,13.3881,-0.703186,39,6
1.10908,16.6541,3.85341,31,14
1.08152,16.1975,-0.283357,86,7
1.12097,16.7445,4.49672,16,15
0.0367906,0.539666,-0.144939,14,0
1.07628,15.7469,0.275504,10,8
0.0446294,0.651301,-0.150717,23,1
1.225,17.8314,0.936709,12,9
0.554103,8.06567,-1.5715,26,2
1.14518,16.6269,1.45812,34,10
0.659147,9.546,-1.51554,26,3
1.18226,17.0786,2.102,49,11
0.800842,11.5394,-1.42027,42,4
1.25069,17.9759,2.85399,30,12
0.863191,12.4065,-1.08805,66,5
1.23452,17.6989,3.44868,15,13
0.884834,12.6537,-0.664771,39,6
1.17034,16.6948,3.86376,31,14
1.13804,16.1936,-0.283357,100,7
1.18485,16.8176,4.51743,28,15
0.0372931,0.520265,-0.139762,14,0
0.958246,13.3356,0.233374,15,8
0.0460628,0.639479,-0.148018,24,1
1.35513,18.7673,0.986114,37,9
0.580276,8.03627,-1.56616,26,2
1.20507,16.6487,1.46038,53,10
0.690323,9.51408,-1.51084,25,3
1.24533,17.1219,2.10785,49,11
0.840537,11.5286,-1.41929,39,4
1.30407,17.8434,2.83365,16,12
0.93496,12.7929,-1.12222,33,5
1.37648,18.789,3.66201,16,13
0.945671,12.8776,-0.676704,100,6
1.23762,16.8131,3.8921,28,14
1.27138,17.2305,-0.301578,100,7
1.21276,16.3972,4.40562,15,15
0.0391088,0.520132,-0.139762,14,0
1.18933,15.7808,0.276237,30,8
0.0506435,0.670405,-0.155216,22,1
1.36212,17.9897,0.945501,9,9
0.605507,7.997,-1.55891,26,2
1.2665,16.6881,1.46422,25,10
0.722034,9.49192,-1.50772,26,3
1.30056,17.058,2.10054,49,11
0.879864,11.5137,-1.41783,56,4
1.38008,18.018,2.86213,17,12
0.971701,12.6862,-1.11315,33,5
1.36121,17.731,3.4567,9,13
1.00057,13.0037,-0.683508,71,6
1.29046,16.7329,3.87456,36,14
1.05118,13.5994,-0.238086,72,7
1.27626,16.4738,4.42736,22,15
0.0397117,0.504585,-0.135621,15,0
1.05022,13.3146,0.233129,48,8
0.0519082,0.656626,-0.152067,23,1
1.41359,17.8816,0.940059,24,9
0.631869,7.97527,-1.55509,28,2
1.32869,16.7332,1.46857,40,10
0.750616,9.43223,-1.49864,25,3
1.35821,17.0296,2.09762,49,11
0.920727,11.5444,-1.42197,46,4
1.4362,17.968,2.85493,23,12
0.996566,12.4405,-1.09189,42,5
1.48217,18.4619,3.60018,16,13
1.03539,12.8687,-0.676599,68,6
1.34063,16.6624,3.85926,31,14
1.09355,13.5619,-0.237492,54,7
1.33353,16.5022,4.43616,16,15
0.047387,0.577615,-0.155291,12,0
1.38635,16.8625,0.29533,31,8
0.051845,0.62926,-0.145768,25,1
1.47042,17.847,0.938488,8,9
0.655888,7.94378,-1.54937,28,2
1.37842,16.6592,1.46247,53,10
0.780092,9.40804,-1.4952,21,3
1.42124,17.1042,2.10736,49,11
0.957029,11.5175,-1.41905,28,4
1.46397,17.5812,2.79423,15,12
1.03516,12.4053,-1.0891,54,5
1.49381,17.8641,3.48455,5,13
1.06655,12.7279,-0.669377,55,6
1.384,16.5161,3.82642,28,14
1.44723,17.2347,-0.301892,85,7
1.397,16.6016,4.46411,26,15
0.0460155,0.538958,-0.144939,14,0
1.13355,13.2496,0.232117,46,8
0.0537652,0.627143,-0.145318,25,1
1.52553,17.7581,0.934092,7,9
0.679372,7.90831,-1.54288,26,2
1.42579,16.5632,1.45446,37,10
0.807215,9.35817,-1.48769,25,3
1.48428,17.1725,2.11638,45,11
0.987804,11.4053,-1.40564,30,4
1.5624,18.0031,2.86213,15,12
1.07475,12.384,-1.08753,61,5
1.5311,17.6068,3.43533,15,13
1.10268,12.6546,-0.665713,52,6
1.43689,16.4569,3.81382,27,14
1.21058,13.837,-0.242449,100,7
1.45645,16.614,4.46877,22,15
0.0468701,0.527248,-0.141833,14,0
1.20783,13.5602,0.237632,15,8
0.0585523,0.656067,-0.152067,23,1
1.59373,17.8223,0.937756,27,9
0.704349,7.87656,-1.53716,26,2
1.49516,16.6872,1.46579,34,10
0.838461,9.33955,-1.48519,25,3
1.56129,17.357,2.13978,50,11
1.01995,11.3168,-1.39516,23,4
1.61866,17.9247,2.85055,15,12
1.11904,12.392,-1.08858,49,5
1.61502,17.8496,3.48379,13,13
1.15082,12.6945,-0.668016,26,6
1.50421,16.5604,3.83901,36,14
1.21628,13.3647,-0.234246,100,7
1.50181,16.4703,4.4315,23,15
0.0479993,0.519387,-0.139762,14,0
1.25498,13.554,0.237597,15,8
0.0594019,0.640335,-0.148468,24,1
1.64781,17.7292,0.93315,25,9
0.730388,7.85841,-1.5341,26,2
1.55968,16.7493,1.47171,40,10
0.868119,9.3051,-1.48018,25,3
1.61115,17.2369,2.12565,36,11
1.04131,11.1195,-1.37127,17,4
1.70151,18.1353,2.88496,11,12
1.21163,12.8897,-1.13268,47,5
1.67236,17.7911,3.47349,15,13
1.5468,16.394,3.80167,30,14
1.60468,16.9757,-0.297633,38,7
1.5613,16.4861,4.43719,16,15
0.0491632,0.511515,-0.137692,14,0
1.67324,17.4091,0.305277,3,8
0.0631311,0.655642,-0.152067,35,1
1.80307,18.6915,0.984125,22,9
0.757673,7.84005,-1.53105,26,2
1.61088,16.6383,1.46247,40,10
0.898029,9.2586,-1.4733,26,3
1.69393,17.4643,2.15441,27,11
1.07071,11.019,-1.35933,19,4
1.83639,18.8646,3.00198,18,12
1.24482,12.7645,-1.12204,33,5
1.89676,19.4145,3.79176,17,13
1.24863,12.7575,-0.671784,29,6
1.60784,16.398,3.80392,30,14
1.37825,14.0564,-0.246533,96,7
1.62884,16.5824,4.46463,27,15
0.0497993,0.499807,-0.134586,15,0
1.69076,16.9392,0.297145,19,8
0.0643703,0.643772,-0.149367,24,1
1.88977,18.8997,0.99543,11,9
0.782689,7.81392,-1.52647,26,2
1.67392,16.6822,1.46683,34,10
0.927768,9.22986,-1.46923,23,3
1.76926,17.5705,2.1683,23,11
1.10559,10.9796,-1.35494,16,4
1.8931,18.7676,2.98759,37,12
1.26653,12.5341,-1.10217,49,5
1.8022,17.8041,3.47845,8,13
1.2855,12.6775,-0.667807,48,6
1.66142,16.3848,3.80212,30,14
1.34768,13.2677,-0.23278,73,7
1.67694,16.4805,4.43875,17,15
0.0494773,0.480422,-0.12941,15,0
1.75266,16.9892,0.298122,19,8
0.0649024,0.628047,-0.145768,25,1
1.76315,17.0616,0.898922,25,9
0.806371,7.7898,-1.52227,26,2
1.78718,17.2354,1.51599,29,10
0.955719,9.20119,-1.46517,26,3
1.78232,17.1302,2.11468,18,11
1.12905,10.8515,-1.33959,17,4
1.96331,18.8379,2.99979,16,12
1.29961,12.4485,-1.09502,47,5
2.00967,19.2176,3.75588,43,13
1.42303,13.5849,-0.715851,68,6
1.71918,16.4121,3.80977,37,14
1.38562,13.2055,-0.231768,100,7
1.73683,16.5248,4.45221,27,15
0.0531131,0.499465,-0.134586,15,0
1.81768,17.0649,0.299553,19,8
0.0688452,0.645268,-0.149817,24,1
1.80699,16.9084,0.891177,14,9
0.826985,7.73828,-1.51273,26,2
1.80403,16.853,1.48287,48,10
0.981381,9.15279,-1.45797,25,3
1.83764,17.1104,2.11297,40,11
1.1614,10.7962,-1.33325,19,4
1.95563,18.1494,2.89122,13,12
1.35518,12.5769,-1.1067,30,5
2.01841,18.7013,3.65628,22,13
1.45047,13.4173,-0.707268,58,6
1.78675,16.501,3.83182,28,14
1.42675,13.1548,-0.230965,36,7
1.79074,16.4841,4.44289,22,15
0.0527461,0.480074,-0.12941,15,0
1.91311,17.3844,0.305277,35,8
0.0710974,0.645024,-0.149817,24,1
1.87322,16.9675,0.894631,51,9
0.850755,7.70607,-1.50701,26,2
1.86089,16.8288,1.4813,42,10
1.00854,9.10612,-1.45109,30,3
1.90872,17.2064,2.12565,18,11
1.19645,10.7684,-1.33033,19,4
2.01679,18.1228,2.88809,23,12
1.39026,12.4929,-1.09973,59,5
2.1202,19.022,3.72039,9,13
1.51237,13.5471,-0.714386,48,6
1.84152,16.4695,3.82597,28,14
1.51783,13.5532,-0.238051,100,7
1.84461,16.4451,4.43409,27,15
0.0565985,0.499082,-0.134586,15,0
1.92345,16.9345,0.297494,19,8
0.0733484,0.644772,-0.149817,24,1
1.95369,17.1474,0.90447,12,9
0.872539,7.65819,-1.49823,28,2
1.92504,16.8697,1.48548,42,10
1.03651,9.06918,-1.44577,28,3
1.97171,17.2253,2.12881,27,11
1.23358,10.7602,-1.32984,17,4
2.07891,18.1059,2.88653,11,12
1.42749,12.4325,-1.09485,47,5
2.13882,18.599,3.63911,9,13
1.55897,13.5358,-0.714072,74,6
1.89743,16.4494,3.82282,28,14
1.56743,13.5677,-0.2384,22,7
1.91067,16.5134,4.45428,19,15
0.060584,0.51807,-0.139762,14,0
1.67504,14.3021,0.25135,44,8
0.0737826,0.629028,-0.146218,25,1
1.9667,16.7417,0.883431,34,9
0.89789,7.6434,-1.49594,26,2
2.05724,17.4861,1.54039,42,10
1.06585,9.04589,-1.44264,31,3
2.07463,17.5811,2.17366,9,11
1.27019,10.7479,-1.32886,17,4
2.13908,18.073,2.88246,15,12
1.47159,12.4334,-1.09537,45,5
2.16005,18.223,3.56698,19,13
1.61021,13.564,-0.715851,91,6
1.95071,16.4078,3.81472,25,14
1.68051,14.1141,-0.248103,100,7
1.98523,16.6486,4.49258,22,15
0.0633165,0.525527,-0.141833,14,0
1.72567,14.3021,0.251454,27,8
0.0766791,0.634571,-0.147568,36,1
0.922209,7.62073,-1.49213,26,2
2.11851,17.4808,1.54056,32,10
1.09337,9.00877,-1.43732,27,3
2.18844,18.0053,2.22704,19,11
1.30579,10.7277,-1.32691,17,4
1.51377,12.4183,-1.0945,54,5
2.24482,18.3888,3.60095,25,13
1.53006,12.5155,-0.660794,35,6
2.26609,18.5093,4.30511,50,14
2.09212,17.0636,-0.300077,38,7
2.04238,16.6339,4.49051,22,15
0.0594441,0.479291,-0.12941,15,0
2.12582,17.1159,0.301054,10,8
0.0796151,0.640101,-0.148918,24,1
2.37015,19.0286,1.00496,2,9
0.944924,7.58629,-1.48602,26,2
2.18568,17.5228,1.54492,35,10
1.1182,8.95198,-1.42887,28,3
2.2471,17.964,2.2229,23,11
1.3415,10.7093,-1.32521,16,4
2.19243,17.4775,2.78985,37,12
1.57299,12.5395,-1.10566,26,5
2.26447,18.0263,3.53149,20,13
1.70735,13.5723,-0.716898,68,6
1.67138,13.249,-0.233094,9,7
2.1198,16.78,4.53192,22,15
0.0640502,0.502076,-0.135621,15,0
1.67192,13.0876,0.230302,43,8
0.0816019,0.637886,-0.148468,24,1
2.19419,17.1283,0.904993,11,9
0.968903,7.56347,-1.4822,26,2
2.26838,17.683,1.55974,6,10
1.14365,8.90296,-1.42168,28,3
2.29889,17.8714,2.21242,38,11
1.37253,10.6553,-1.31911,17,4
2.26908,17.5912,2.80925,42,12
1.62592,12.605,-1.11193,28,5
2.40257,18.6004,3.6456,40,13
2.45658,18.9665,4.41534,26,14
1.71659,13.2351,-0.232955,9,7
2.18284,16.807,4.54124,15,15
0.0678118,0.517173,-0.139762,14,0
1.71629,13.0718,0.230127,18,8
0.0861141,0.654986,-0.152517,23,1
2.26023,17.1681,0.907506,4,9
0.992482,7.53863,-1.47801,26,2
2.32748,17.6552,1.558,26,10
1.17214,8.87933,-1.41855,28,3
2.35658,17.8279,2.20803,42,11
1.40399,10.6071,-1.31375,17,4
2.32632,17.5518,2.80424,31,12
1.66598,12.5696,-1.10932,33,5
2.31687,17.4105,4.05497,14,14
1.84942,13.8792,-0.244403,27,7
2.2507,16.8682,4.55987,24,15
0.0721947,0.536079,-0.144939,14,0
1.94711,14.4391,0.254316,22,8
0.0865747,0.641163,-0.149367,24,1
1.01668,7.51956,-1.47495,26,2
2.372,17.5206,1.54684,32,10
1.20206,8.86735,-1.4173,33,3
2.35684,17.3632,2.15148,37,11
1.43379,10.5491,-1.30717,16,4
2.38784,17.5455,2.80456,33,12
1.71522,12.6032,-1.1128,28,5
2.44488,17.9413,3.51966,12,13
1.79322,13.142,-0.695126,74,6
2.37156,17.3579,4.04462,30,14
1.8347,13.411,-0.236271,100,7
2.3093,16.8583,4.55936,16,15
0.0740657,0.535824,-0.144939,14,0
1.8448,13.3289,0.234874,38,8
0.0906847,0.654369,-0.152517,23,1
2.63449,18.9858,1.00454,28,9
1.03618,7.46735,-1.46541,26,2
2.42053,17.4215,1.53882,39,10
1.22648,8.81614,-1.40979,30,3
2.41909,17.3666,2.15294,37,11
1.46156,10.4791,-1.29913,17,4
2.43213,17.4158,2.78516,24,12
1.75672,12.5794,-1.11124,28,5
2.49336,17.8315,3.49982,15,13
1.82829,13.0585,-0.691044,55,6
2.45838,17.5367,4.08826,25,14
1.89734,13.5174,-0.23826,27,7
2.37916,16.9286,4.58058,12,15
0.070425,0.49732,-0.134586,15,0
1.91341,13.495,0.237911,53,8
0.0923062,0.650206,-0.151617,23,1
2.70222,19.0106,1.00632,30,9
1.05735,7.4386,-1.46045,26,2
2.48137,17.435,1.54074,35,10
1.25515,8.80812,-1.40916,27,3
2.31797,16.2462,2.01499,8,11
1.49237,10.4467,-1.29571,17,4
2.50357,17.5035,2.80049,15,12
1.80035,12.5712,-1.11106,14,5
2.52382,17.623,3.46051,15,13
1.88235,13.1275,-0.695022,52,6
2.51042,17.486,4.07836,31,14
1.91058,13.2913,-0.234386,25,7
2.45097,17.0296,4.61009,30,15
0.0728029,0.500882,-0.135621,15,0
2.0304,13.9691,0.246393,11,8
0.0937336,0.644095,-0.150267,24,1
2.50738,17.2084,0.911378,19,9
1.08233,7.41914,-1.4574,26,2
2.53316,17.343,1.53342,35,10
1.28028,8.75459,-1.40134,25,3
1.52479,10.4139,-1.2923,24,4
2.5787,17.5904,2.81582,22,12
1.9342,13.1779,-1.16527,50,5
2.56926,17.4835,3.43494,16,13
1.90545,12.9506,-0.68602,58,6
2.61484,17.7505,4.14225,14,14
1.97387,13.3993,-0.23641,22,7
2.52421,17.1146,4.63545,15,15
0.0779655,0.523554,-0.141833,14,0
1.96215,13.1605,0.232257,57,8
0.0955181,0.639892,-0.149367,24,1
2.566,17.1695,0.909808,30,9
1.10591,7.39978,-1.45435,26,2
2.58307,17.2631,1.52714,29,10
1.30614,8.71881,-1.39633,26,3
2.54311,16.9556,2.10517,45,11
1.55706,10.369,-1.28743,15,4
2.65079,17.6316,2.82396,17,12
1.97752,13.1534,-1.1637,30,5
2.49118,16.5503,3.25329,5,13
2.0069,13.3171,-0.705803,35,6
2.67212,17.7104,4.13505,25,14
2.06,13.6372,-0.240738,22,7
2.55139,16.8703,4.57178,16,15
0.0786274,0.51564,-0.139762,14,0
2.07477,13.5904,0.239971,57,8
0.0977513,0.639555,-0.149367,24,1
2.13076,13.9246,0.738251,16,9
1.13054,7.38811,-1.45282,26,2
2.66926,17.4234,1.54213,26,10
1.33238,8.68687,-1.39195,27,3
2.50194,16.2932,2.02401,4,11
1.58781,10.3282,-1.28304,17,4
2.88871,18.7683,3.00761,9,12
2.04858,13.3098,-1.17817,42,5
2.04758,13.2726,-0.703814,61,6
2.75386,17.83,4.16519,30,14
2.12562,13.7465,-0.242798,88,7
2.62326,16.9453,4.59456,16,15
0.080427,0.515362,-0.139762,14,0
2.12745,13.6167,0.240564,30,8
0.097875,0.625732,-0.146218,25,1
2.69785,17.2281,0.91389,22,9
1.1548,7.37442,-1.45091,23,2
2.75229,17.5557,1.55468,16,10
1.36055,8.6685,-1.38976,27,3
2.68452,17.0845,2.12345,22,11
1.61676,10.2775,-1.27743,19,4
3.02612,19.2147,3.08082,7,12
2.08975,13.2691,-1.17521,37,5
2.57853,16.3541,3.21818,30,13
2.06806,13.1016,-0.695126,48,6
2.79509,17.6875,4.13415,31,14
2.23076,14.1005,-0.249185,69,7
2.68482,16.9513,4.5987,26,15
0.0797893,0.499817,-0.135621,15,0
2.28163,14.2766,0.252362,61,8
0.103137,0.644629,-0.150717,23,1
2.74376,17.1298,0.90918,19,9
1.1765,7.34515,-1.44595,26,2
2.81197,17.5361,1.55381,32,10
1.38767,8.6442,-1.38664,30,3
2.6065,16.2185,2.01694,39,11
1.64853,10.2463,-1.27427,19,4
2.79476,17.3513,2.7836,22,12
2.13574,13.2598,-1.17503,35,5
2.64466,16.4012,3.22925,31,13
2.08608,12.9227,-0.68602,78,6
2.7937,17.2871,4.04282,30,14
2.22536,13.755,-0.243217,23,7
2.76065,17.0448,4.62665,16,15
0.0815333,0.499535,-0.135621,15,0
0.106331,0.650035,-0.152067,23,1
1.19769,7.31387,-1.44061,26,2
2.85511,17.4161,1.54405,39,10
1.4124,8.60616,-1.38132,28,3
2.6824,16.3269,2.03156,35,11
1.67977,10.2131,-1.27085,17,4
2.84523,17.299,2.77671,31,12
2.16551,13.152,-1.16614,30,5
2.68018,16.2601,3.2033,25,13
2.15426,13.0553,-0.693452,74,6
2.83657,17.1715,4.01808,30,14
2.28107,13.8087,-0.244299,96,7
2.80833,16.9822,4.61216,30,15
0.0794625,0.476381,-0.12941,15,0
2.89301,17.3437,0.306918,19,8
0.107202,0.64199,-0.150267,24,1
2.45097,14.6622,0.779073,22,9
1.22095,7.29609,-1.43794,26,2
2.88857,17.2429,1.52958,35,10
1.43179,8.54688,-1.37256,31,3
2.72668,16.2591,2.02425,43,11
1.70542,10.1585,-1.26476,17,4
2.90625,17.2929,2.77734,42,12
2.14001,12.72,-1.12849,26,5
2.72041,16.1699,3.18727,25,13
2.24863,13.3514,-0.709571,29,6
2.79273,16.5644,3.87816,28,14
2.31428,13.712,-0.242728,100,7
2.84506,16.8389,4.57592,17,15
0.0888217,0.521822,-0.141833,14,0
2.48965,14.6111,0.258714,21,8
0.108131,0.633928,-0.148468,24,1
2.49844,14.6319,0.777922,37,9
1.24381,7.28426,-1.43641,26,2
2.9172,17.0663,1.51477,35,10
1.45695,8.51457,-1.36818,26,3
2.7613,16.1204,2.00816,34,11
1.73348,10.1094,-1.2594,16,4
3.13235,18.2483,2.93252,12,12
2.17476,12.6696,-1.12466,33,5
2.79845,16.286,3.21208,16,13
2.40864,14.0029,-0.744636,35,6
2.83532,16.4662,3.85746,34,14
2.35874,13.6841,-0.242379,100,7
2.87065,16.6366,4.52364,22,15
0.0893193,0.513896,-0.139762,14,0
2.62531,15.089,0.267336,43,8
0.110009,0.631627,-0.148018,24,1
2.88808,16.565,0.881233,26,9
1.26552,7.2586,-1.43221,26,2
2.98566,17.1071,1.5193,35,10
1.47987,8.47051,-1.36192,28,3
2.8343,16.2065,2.02011,21,11
1.76055,10.0564,-1.25355,19,4
3.17626,18.1244,2.91437,19,12
2.2145,12.6364,-1.12239,23,5
2.8875,16.4599,3.24833,13,13
2.45406,13.9747,-0.743589,71,6
2.90561,16.5291,3.87456,31,14
2.40371,13.66,-0.2421,53,7
2.98099,16.9233,4.60439,17,15
0.0911127,0.513581,-0.139762,14,0
2.64964,14.9202,0.264509,25,8
0.11426,0.642751,-0.150717,23,1
2.9409,16.5436,0.880605,28,9
1.28638,7.22901,-1.42725,26,2
3.04256,17.0809,1.5179,26,10
1.50491,8.44002,-1.35785,28,3
3.08968,17.3104,2.15904,27,11
1.7911,10.0248,-1.25038,20,4
3.07514,17.2115,2.7692,16,12
2.25228,12.5933,-1.11925,26,5
3.00134,16.7647,3.31054,15,13
2.41933,13.5001,-0.718782,32,6
2.96122,16.5074,3.87186,36,14
2.44052,13.6047,-0.241262,88,7
3.02548,16.8487,4.58679,22,15
0.0860229,0.47524,-0.12941,15,0
2.58904,14.3034,0.253723,30,8
0.114653,0.632781,-0.148468,24,1
3.30623,18.2292,0.970937,7,9
1.3081,7.20516,-1.42344,23,2
3.45128,18.9912,1.68873,3,10
1.53219,8.43109,-1.35723,27,3
3.15169,17.3254,2.16221,27,11
1.81793,9.98363,-1.24599,17,4
3.19647,17.5369,2.82333,15,12
2.27835,12.4874,-1.11054,26,5
3.04882,16.7102,3.30176,24,13
2.56204,14.0284,-0.747358,84,6
3.01313,16.4821,3.86826,28,14
2.47936,13.5489,-0.240424,8,7
3.08079,16.819,4.58161,22,15
0.0875983,0.474952,-0.12941,15,0
2.50064,13.545,0.240424,16,8
0.120403,0.65154,-0.152967,23,1
3.42578,18.52,0.987056,5,9
1.32913,7.18534,-1.42038,26,2
3.56068,19.2304,1.71104,14,10
1.55369,8.38296,-1.35034,27,3
3.14406,16.9474,2.11638,22,11
1.84951,9.95966,-1.2438,22,4
3.4147,18.3704,2.95943,13,12
2.28406,12.2878,-1.09346,26,5
3.09133,16.6146,3.28497,27,13
2.61355,14.0331,-0.74809,74,6
3.05744,16.4006,3.85161,23,14
2.52041,13.5068,-0.239831,21,7
3.12919,16.7531,4.5666,13,15
0.0963963,0.512615,-0.139762,14,0
2.53126,13.4478,0.238854,57,8
0.119068,0.631965,-0.148468,24,1
3.49559,18.5354,0.988522,5,9
1.3502,7.15943,-1.41618,23,2
3.54944,18.8028,1.67409,14,10
1.57597,8.34061,-1.3444,28,3
3.19915,16.9148,2.1137,31,11
1.87688,9.91413,-1.23892,19,4
3.33022,17.5743,2.83303,15,12
2.27723,12.0174,-1.0701,19,5
3.14161,16.5632,3.27695,21,13
2.62527,13.8277,-0.737623,26,6
3.15396,16.5966,3.9002,36,14
2.72485,14.3249,-0.254526,93,7
3.18079,16.706,4.55677,5,15
0.0967306,0.504686,-0.137692,14,0
2.65994,13.865,0.246428,42,8
0.117231,0.610494,-0.143519,25,1
3.09583,16.1067,0.859566,12,9
1.37111,7.13347,-1.41199,26,2
3.09296,16.0766,1.43232,28,10
1.59985,8.3079,-1.34002,27,3
3.25555,16.8899,2.112,27,11
1.90282,9.86269,-1.23332,17,4
3.38818,17.5451,2.83021,39,12
2.24701,11.6358,-1.0368,24,5
3.21059,16.6099,3.2884,14,13
2.56615,13.2635,-0.708001,29,6
3.2782,16.928,3.98073,30,14
2.7189,14.0267,-0.249395,94,7
3.42011,17.6278,4.81145,31,15
0.0925673,0.474009,-0.12941,15,0
2.70525,13.8399,0.246149,60,8
0.123478,0.631119,-0.148468,24,1
3.15241,16.0977,0.859671,11,9
1.39072,7.10167,-1.40664,26,2
3.16975,16.1713,1.44173,59,10
1.62276,8.27125,-1.33501,26,3
3.30836,16.8473,2.1081,45,11
1.92882,9.81313,-1.22796,17,4
3.44827,17.5274,2.82927,31,12
2.28262,11.6024,-1.03454,27,5
2.66882,13.5406,-0.723283,6,6
3.34632,16.9623,3.99153,30,14
2.67371,13.5404,-0.240913,79,7
3.53107,17.866,4.87977,12,15
0.0942214,0.473683,-0.12941,15,0
2.84804,14.305,0.254596,52,8
0.127203,0.638328,-0.150267,24,1
2.86736,14.389,0.76892,6,9
1.41127,7.07559,-1.40245,26,2
3.22931,16.1758,1.44312,46,10
1.64116,8.21323,-1.32656,28,3
3.35547,16.7773,2.10078,45,11
1.95395,9.7697,-1.22332,19,4
3.52343,17.601,2.84304,42,12
2.3227,11.5924,-1.03436,24,5
3.65267,18.2137,3.61087,45,13
2.71843,13.5429,-0.723911,16,6
3.42633,17.0696,4.01943,41,14
2.72372,13.557,-0.241367,97,7
3.59563,17.8807,4.88702,18,15
0.0996233,0.492303,-0.134586,15,0
2.87244,14.1818,0.252571,61,8
0.128545,0.634083,-0.149367,24,1
2.91506,14.3794,0.76892,13,9
1.43434,7.06895,-1.40206,26,2
3.28253,16.163,1.44295,37,10
1.66367,8.18452,-1.32281,30,3
3.41425,16.7816,2.10273,36,11
1.98277,9.74566,-1.22113,20,4
3.58256,17.5931,2.84367,19,12
2.36074,11.5827,-1.03419,24,5
3.73895,18.3284,3.63606,22,13
2.94992,14.4477,-0.772793,29,6
3.53672,17.3216,4.08151,31,14
2.99087,14.6352,-0.260739,83,7
3.64755,17.8327,4.87719,19,15
0.097361,0.473048,-0.12941,15,0
2.84077,13.7903,0.245765,31,8
0.130253,0.631745,-0.148918,24,1
2.95071,14.2987,0.765152,29,9
1.455,7.05069,-1.39939,26,2
3.30991,16.0252,1.43162,43,10
1.6856,8.15381,-1.31874,28,3
3.46265,16.7352,2.09835,22,11
2.00873,9.6998,-1.21626,23,4
3.44189,16.6057,2.68598,5,12
2.4044,11.59,-1.03558,24,5
3.80848,18.3582,3.64445,18,13
2.75784,13.2821,-0.710932,39,6
3.55394,17.1012,4.03247,30,14
2.93566,14.1137,-0.251629,21,7
3.71804,17.8596,4.88806,18,15
0.1094,0.521847,-0.142868,14,0
2.86756,13.6785,0.24395,57,8
0.132458,0.631287,-0.148918,24,1
3.66763,17.4646,0.935244,14,9
1.47598,7.02226,-1.39481,26,2
3.37888,16.0617,1.43598,40,10
1.70734,8.10891,-1.31249,27,3
3.8102,18.0963,2.27067,24,11
2.02825,9.62474,-1.20773,24,4
3.48189,16.5085,2.67221,18,12
2.44689,11.5913,-1.03646,24,5
3.87574,18.3441,3.64445,30,13
2.79907,13.2367,-0.709048,9,6
3.6529,17.2596,4.07296,31,14
2.98863,14.121,-0.251943,100,7
3.76315,17.7652,4.8658,18,15
0.100744,0.472339,-0.12941,15,0
2.91892,13.6738,0.244054,16,8
0.134364,0.628891,-0.148468,24,1
3.06005,14.3104,0.766931,18,9
1.49392,6.98634,-1.38871,26,2
3.42659,16.0109,1.43249,40,10
1.73191,8.08552,-1.30967,30,3
3.65347,17.0419,2.14003,4,11
2.0581,9.59201,-1.20456,23,4
3.53699,16.4705,2.66815,46,12
2.48316,11.5632,-1.03471,20,5
3.93934,18.3286,3.64407,28,13
3.02502,14.0626,-0.753847,42,6
3.76194,17.4735,4.1265,23,14
3.06312,14.2155,-0.253828,100,7
3.93575,18.2498,5.00245,19,15
0.108945,0.502191,-0.137692,14,0
3.12363,14.3866,0.256969,49,8
0.136558,0.628418,-0.148468,24,1
3.10659,14.284,0.766094,12,9
1.51913,6.98492,-1.38947,26,2
3.46932,15.9385,1.42709,37,10
1.7555,8.0582,-1.30623,26,3
3.7493,17.1958,2.16099,9,11
2.08437,9.5518,-1.20041,20,4
3.57001,16.3461,2.65,51,12
2.51713,11.5253,-1.0321,20,5
3.79748,17.3441,4.09906,51,14
3.11015,14.193,-0.253618,21,7
4.00481,18.2605,5.00918,19,15
4.02182,18.2165,0.325627,12,8
0.143796,0.650772,-0.153867,46,1
3.16376,14.3062,0.767873,29,9
1.54435,6.98341,-1.39023,23,2
3.5245,15.9243,1.42691,40,10
1.77592,8.0173,-1.3006,26,3
3.81704,17.2175,2.16537,27,11
2.10996,9.50958,-1.19603,20,4
3.61976,16.3008,2.64468,38,12
2.55173,11.4911,-1.02983,20,5
4.51571,20.3187,4.04591,22,13
3.8093,17.112,4.04732,31,14
3.16837,14.2211,-0.254316,42,7
3.94409,17.6883,4.85596,7,15
0.116675,0.520269,-0.142868,14,0
3.34179,14.8893,0.266359,24,8
0.139233,0.619844,-0.146668,24,1
3.84142,17.0875,0.917868,26,9
1.56699,6.97032,-1.38871,21,2
4.20328,18.6818,1.67531,17,10
1.79435,7.96866,-1.29371,27,3
3.88758,17.2506,2.17122,23,11
2.13616,9.47118,-1.19213,23,4
3.69491,16.369,2.65782,36,12
2.57647,11.4141,-1.02373,22,5
4.5814,20.2798,4.04133,22,13
3.06861,13.5723,-0.729249,35,6
3.83891,16.9655,4.01583,38,14
3.38273,14.9374,-0.267336,100,7
4.12964,18.2208,5.00608,19,15
0.107246,0.470905,-0.12941,15,0
3.38492,14.8508,0.26587,16,8
0.142588,0.625079,-0.148018,24,1
3.98965,17.4758,0.93943,25,9
1.58617,6.94786,-1.38527,23,2
3.95145,17.2946,1.55207,13,10
1.81725,7.94726,-1.29121,27,3
3.97709,17.3788,2.18902,27,11
2.15825,9.42341,-1.18701,20,4
3.73417,16.2912,2.64718,45,12
2.60382,11.3507,-1.01885,24,5
4.64556,20.2511,4.03866,30,13
3.16008,13.7645,-0.740135,39,6
3.85719,16.7875,3.97668,33,14
3.3946,14.7624,-0.264404,90,7
4.18223,18.1731,4.99676,14,15
0.115946,0.500621,-0.137692,14,0
4.43569,19.1521,0.343149,12,8
0.143889,0.62078,-0.147118,24,1
4.00188,17.2516,0.928126,25,9
1.60541,6.91522,-1.37993,23,2
4.00309,17.2295,1.54754,19,10
1.84055,7.91553,-1.28714,27,3
4.03774,17.3649,2.18902,9,11
2.18528,9.39068,-1.18384,20,4
4.23279,18.175,2.95567,13,12
2.62941,11.2814,-1.01345,24,5
4.74206,20.3295,4.05774,16,13
3.16873,13.5739,-0.730505,29,6
3.90893,16.7315,3.96679,33,14
3.35513,14.361,-0.257423,100,7
4.29667,18.3766,5.05681,19,15
0.114153,0.485169,-0.133551,15,0
3.45994,14.6938,0.263496,16,8
0.148398,0.629733,-0.149367,24,1
4.06344,17.2434,0.92844,32,9
1.62773,6.90193,-1.3784,23,2
4.17122,17.6731,1.58867,23,10
1.86771,7.90714,-1.28683,31,3
4.26529,18.0435,2.27652,24,11
2.21165,9.35595,-1.18043,20,4
4.72643,19.9786,3.25165,12,12
2.65409,11.2101,-1.00787,22,5
16.3428,68.9736,13.7783,31,13
3.21472,13.5569,-0.730191,48,6
3.96484,16.7203,3.96724,30,14
3.39832,14.3201,-0.256899,26,7
4.37284,18.4123,5.07078,16,15
0.11935,0.49982,-0.137692,14,0
3.45474,14.4567,0.259447,60,8
0.149126,0.623551,-0.148018,24,1
4.08855,17.0958,0.921218,26,9
1.64695,6.88122,-1.37535,23,2
4.15277,17.3375,1.55974,29,10
1.88425,7.86056,-1.28026,26,3
4.31353,17.981,2.27043,39,11
2.23479,9.31575,-1.17628,20,4
3.95199,16.4612,2.68129,10,12
2.68054,11.1567,-1.00386,23,5
16.6705,69.3313,13.8607,32,13
3.29097,13.6763,-0.737204,39,6
4.05538,16.853,4.00188,30,14
3.44578,14.3087,-0.256899,23,7
4.44609,18.4484,5.08476,16,15
0.125557,0.518197,-0.142868,14,0
3.62941,14.9679,0.268837,40,8
0.149355,0.615478,-0.146218,25,1
3.33468,13.7315,0.740554,17,9
1.66976,6.87572,-1.37535,23,2
4.22153,17.3701,1.56392,32,10
1.90564,7.83507,-1.27713,26,3
4.3628,17.9241,2.26506,29,11
2.26025,9.27896,-1.17263,28,4
4.66909,19.1534,3.12243,6,12
2.7223,11.1589,-1.00491,21,5
16.9702,69.5618,13.918,32,13
3.38083,13.8477,-0.747044,26,6
3.66764,14.9998,-0.269535,56,7
4.50909,18.4271,5.08321,17,15
0.115448,0.468961,-0.12941,15,0
3.67781,14.9396,0.268558,58,8
0.151502,0.614953,-0.146218,25,1
4.22407,17.1327,0.924776,33,9
1.68555,6.83143,-1.36772,26,2
4.2885,17.368,1.56514,16,10
1.92961,7.80886,-1.274,22,3
4.44535,17.9897,2.2753,39,11
2.28119,9.22476,-1.16678,17,4
16.7698,67.7636,11.0565,23,12
2.74783,11.0951,-1.00003,23,5
4.28479,17.2623,4.10626,31,14
3.59955,14.5017,-0.260809,50,7
0.117085,0.468556,-0.12941,15,0
0.157067,0.627627,-0.149367,24,1
1.69937,6.78552,-1.3597,26,2
4.25514,16.978,1.53133,26,10
1.95397,7.79058,-1.27213,26,3
4.59196,18.2949,2.31601,30,11
2.3087,9.19131,-1.16361,19,4
5.81442,23.1311,3.77758,9,12
2.77779,11.0507,-0.996887,23,5
17.0365,67.725,13.5745,30,13
3.44863,13.6992,-0.740345,39,6
4.46165,17.7102,4.21648,33,14
3.90785,15.5005,-0.279029,70,7
0.122518,0.483125,-0.133551,15,0
5.05814,19.9311,0.358926,31,8
0.159736,0.628964,-0.149817,24,1
5.40822,21.2794,1.15066,54,9
1.71676,6.75481,-1.35474,26,2
4.31781,16.9766,1.53255,35,10
1.97774,7.77031,-1.26994,25,3
4.66119,18.2999,2.31869,30,11
2.33096,9.14473,-1.15873,17,4
5.89659,23.1164,3.77852,28,12
2.80896,11.012,-0.994273,21,5
17.2543,67.5928,13.56,30,13
3.51718,13.7684,-0.744741,55,6
4.52103,17.6851,4.21423,12,14
3.88859,15.2001,-0.273863,88,7
18.0161,70.3719,19.4642,53,15
0.124204,0.482694,-0.133551,15,0
5.14115,19.9656,0.359869,29,8
0.161444,0.626515,-0.149367,24,1
4.74812,18.426,0.997209,14,9
1.74033,6.74877,-1.35474,26,2
4.37655,16.9595,1.53237,6,10
1.99941,7.74232,-1.26649,26,3
4.63712,17.9433,2.27554,29,11
2.35342,9.10002,-1.1541,23,4
5.98262,23.1331,3.78446,40,12
2.84039,10.9751,-0.991832,23,5
17.6506,68.1518,13.6844,31,13
3.56673,13.7618,-0.745055,39,6
4.59154,17.7032,4.22233,33,14
4.05745,15.6439,-0.282101,94,7
0.129792,0.497211,-0.137692,14,0
4.09212,15.6762,0.282799,21,8
0.162536,0.622205,-0.148468,24,1
4.72805,18.0866,0.979729,28,9
1.76586,6.75025,-1.35627,26,2
4.84392,18.5034,1.67339,38,10
2.02008,7.71654,-1.26336,26,3
4.69257,17.9125,2.27359,24,11
2.37352,9.05376,-1.14923,24,4
2.86705,10.9208,-0.987823,23,5
4.96877,18.9264,3.80359,1,13
3.70725,14.1111,-0.764628,35,6
4.12627,15.6838,-0.283078,100,7
0.127487,0.481837,-0.133551,15,0
4.14937,15.6715,0.282973,37,8
0.164707,0.621634,-0.148468,24,1
1.78572,6.73487,-1.35436,26,2
4.87255,18.364,1.66223,38,10
2.04345,7.69608,-1.26117,25,3
4.72448,17.7809,2.25897,34,11
2.39694,9.01473,-1.14533,22,4
17.9381,67.4638,11.0565,23,12
2.8884,10.8554,-0.982768,23,5
4.68828,17.6075,3.5418,1,13
3.73899,14.0325,-0.76107,42,6
4.58476,17.1945,-0.310618,61,7
0.133173,0.496316,-0.137692,14,0
4.20702,15.6789,0.283357,66,8
0.166262,0.619202,-0.148018,24,1
4.63234,17.24,0.935558,12,9
1.80616,6.71722,-1.35207,26,2
4.95164,18.4027,1.66729,45,10
2.06075,7.65874,-1.25617,26,3
4.77723,17.7421,2.25605,34,11
2.42218,8.98948,-1.14313,19,4
18.3761,68.1522,11.1797,24,12
2.91953,10.8202,-0.980502,23,5
4.7354,17.5501,3.5334,28,13
3.74386,13.8657,-0.752696,29,6
21.5616,79.8001,19.0839,63,14
4.57847,16.9333,-0.306185,91,7
0.137859,0.507057,-0.140798,14,0
0.171494,0.6299,-0.150717,23,1
4.69564,17.2353,0.936186,29,9
1.82584,6.70173,-1.35016,23,2
5.07343,18.6091,1.68751,31,10
2.08071,7.62672,-1.2521,27,3
4.84017,17.7292,2.25653,29,11
2.44832,8.96182,-1.1407,19,4
18.5087,67.7027,11.1165,24,12
2.94331,10.7663,-0.976493,19,5
4.78833,17.5032,3.5273,34,13
3.75691,13.7235,-0.745683,32,6
4.46572,16.2904,-0.294841,85,7
4.38017,15.8805,0.287546,53,8
0.169544,0.61427,-0.147118,24,1
4.73292,17.136,0.931685,38,9
1.84504,6.68017,-1.34711,23,2
5.13729,18.5875,1.68716,38,10
2.09732,7.58324,-1.24616,28,3
4.90679,17.7294,2.25873,14,11
2.47216,8.92644,-1.13728,19,4
18.8209,67.9118,11.1616,24,12
2.97076,10.7195,-0.973181,21,5
4.83943,17.4504,3.52004,33,13
3.75564,13.5333,-0.736053,35,6
4.39942,15.8316,-0.286813,63,7
0.134118,0.480034,-0.133551,15,0
4.47758,16.0153,0.290268,40,8
0.164862,0.589277,-0.141269,26,1
4.78731,17.1001,0.930638,33,9
1.86623,6.66613,-1.34559,26,2
5.20161,18.5675,1.68699,42,10
2.11365,7.53973,-1.24021,25,3
4.97723,17.7427,2.26263,24,11
2.49418,8.88526,-1.13314,22,4
19.1198,68.0663,11.1979,24,12
3.00493,10.6975,-0.972135,21,5
4.91094,17.4712,3.52768,42,13
3.73094,13.2644,-0.722132,42,6
4.39176,15.5929,-0.282764,100,7
0.147372,0.520456,-0.144939,14,0
4.61033,16.2709,0.29519,35,8
0.173297,0.611196,-0.146668,24,1
4.85679,17.1179,0.932522,33,9
1.88735,6.65202,-1.34406,26,2
6.58326,23.1875,2.10882,36,10
2.13563,7.51711,-1.23771,25,3
5.04782,17.7558,2.26653,39,11
2.50672,8.81158,-1.12485,23,4
9.18238,32.2564,5.31189,31,12
3.03461,10.6601,-0.969695,21,5
4.94393,17.3558,3.50783,37,13
3.76299,13.2013,-0.71941,45,6
4.41214,15.4582,-0.2806,100,7
0.133204,0.464231,-0.12941,15,0
4.59038,15.9875,0.290338,55,8
0.17812,0.619952,-0.148918,24,1
4.91542,17.097,0.932313,9,9
1.90296,6.61897,-1.33872,23,2
6.31822,21.9619,1.99935,19,10
2.16131,7.50771,-1.2374,27,3
5.11692,17.7629,2.26969,4,11
2.52811,8.77035,-1.12071,17,4
9.30752,32.2678,5.31909,49,12
3.05855,10.6035,-0.965511,22,5
5.00286,17.3328,3.50669,33,13
3.77579,13.073,-0.71313,35,6
19.6808,68.0965,16.3647,50,14
4.45885,15.4177,-0.280146,94,7
0.139137,0.478603,-0.133551,15,0
4.65008,15.9848,0.290583,40,8
0.180283,0.619327,-0.148918,24,1
5.86874,20.1479,1.09979,28,9
1.92276,6.60098,-1.33643,26,2
6.42161,22.0316,2.00772,4,10
2.18308,7.48495,-1.23489,27,3
7.52917,25.7979,3.29973,9,11
2.5487,8.72717,-1.11632,19,4
7.30681,25.0035,4.1258,30,12
3.07375,10.5182,-0.958713,22,5
5.05561,17.2888,3.50135,33,13
3.7311,12.7511,-0.696278,32,6
4.69594,16.0277,-0.291525,100,7
0.140807,0.478115,-0.133551,15,0
4.69058,15.9167,0.28964,43,8
0.185751,0.629909,-0.151617,23,1
6.00292,20.3437,1.11162,11,9
1.93968,6.57352,-1.33223,26,2
8.58376,29.0715,2.65197,7,10
2.20472,7.46213,-1.23239,26,3
9.49837,32.1277,4.11358,26,11
2.57126,8.69158,-1.11291,19,4
3.10196,10.4788,-0.956098,22,5
5.10868,17.2466,3.49638,11,13
3.75458,12.6671,-0.692405,35,6
4.74047,15.9729,-0.290827,100,7
0.14358,0.481323,-0.134586,15,0
4.67576,15.6646,0.285347,56,8
0.17791,0.595646,-0.143519,25,1
6.02241,20.1504,1.1022,15,9
1.95924,6.55542,-1.32994,26,2
7.66563,25.6321,2.34065,38,10
2.23019,7.45249,-1.23208,25,3
9.55977,31.9251,4.09189,26,11
2.59133,8.64832,-1.10852,20,4
7.4948,24.9973,4.13331,13,12
3.1288,10.4354,-0.953135,22,5
5.15925,17.1967,3.4899,16,13
3.7982,12.6521,-0.6923,35,6
20.6888,68.8721,16.6023,52,14
4.9614,16.5058,-0.300845,100,7
0.139672,0.462325,-0.12941,15,0
4.78885,15.8415,0.288872,17,8
0.177167,0.585695,-0.141269,26,1
6.13322,20.2631,1.10952,34,9
1.97756,6.53351,-1.32689,26,2
6.76921,22.3502,2.0431,60,10
2.25504,7.44088,-1.23145,23,3
9.6919,31.96,4.10066,26,11
2.61458,8.61643,-1.1056,19,4
7.56422,24.9124,4.12361,5,12
3.15362,10.3863,-0.949649,20,5
3.84409,12.6444,-0.692614,29,6
4.492,14.7571,-0.269256,8,7
0.146937,0.480309,-0.134586,15,0
4.81485,15.7291,0.287127,53,8
0.182634,0.596253,-0.143969,25,1
6.20743,20.253,1.11015,13,9
1.99403,6.50592,-1.32269,26,2
6.67543,21.7664,1.99186,42,10
2.27636,7.41786,-1.22895,25,3
8.03549,26.1685,3.36116,10,11
2.6289,8.55601,-1.09902,22,4
20.9222,68.0509,11.2761,24,12
3.16937,10.3086,-0.943548,22,5
21.0613,68.4609,13.923,32,13
3.89407,12.65,-0.693661,32,6
4.50579,14.6191,-0.267022,16,7
0.142897,0.461339,-0.12941,15,0
4.90525,15.8268,0.289221,37,8
0.1876,0.604919,-0.146218,25,1
6.24849,20.1358,1.10492,16,9
2.00741,6.46892,-1.31658,26,2
6.75374,21.7506,1.99255,38,10
2.29638,7.391,-1.22582,23,3
7.97709,25.6588,3.29925,9,11
2.65168,8.52404,-1.09609,20,4
21.0692,67.687,11.2279,24,12
3.19467,10.2632,-0.94041,22,5
21.3224,68.4582,13.9375,32,13
3.93167,12.6154,-0.692509,32,6
4.56691,14.6357,-0.267615,90,7
0.151442,0.482958,-0.135621,15,0
5.00058,15.9374,0.29156,56,8
0.188544,0.600541,-0.145318,25,1
6.21699,19.79,1.08712,15,9
2.02763,6.45438,-1.31506,26,2
6.69817,21.3087,1.95421,9,10
2.31387,7.35656,-1.22144,23,3
8.20606,26.0739,3.35628,10,11
2.67724,8.50148,-1.09439,20,4
7.9535,25.2407,4.19151,14,12
3.22629,10.2387,-0.93919,22,5
21.7017,68.829,14.0283,32,13
3.94864,12.5159,-0.687799,35,6
4.64448,14.7036,-0.269151,65,7
0.155465,0.489791,-0.137692,14,0
5.07797,15.9884,0.292816,40,8
0.187098,0.588736,-0.142619,26,1
5.23124,16.4611,0.905203,19,9
2.04301,6.42481,-1.31048,23,2
6.79124,21.3441,1.95961,18,10
2.33174,7.32397,-1.21737,26,3
8.24881,25.8938,3.33678,30,11
2.70208,8.47695,-1.09244,19,4
8.04797,25.248,4.19714,28,12
3.2499,10.1894,-0.935704,22,5
3.97165,12.4373,-0.68424,35,6
4.67252,14.6233,-0.267964,100,7
0.168991,0.526031,-0.148044,13,0
5.18234,16.1314,0.295748,52,8
0.189645,0.589968,-0.143069,25,1
6.31301,19.6274,1.08053,15,9
2.06241,6.4083,-1.30857,26,2
6.88403,21.3771,1.96484,37,10
2.3536,7.30867,-1.21612,26,3
8.30968,25.7888,3.32679,20,11
2.72225,8.44338,-1.08927,17,4
7.89225,24.464,4.07136,13,12
3.27382,10.142,-0.932392,22,5
3.99507,12.369,-0.681205,32,6
4.75306,14.6982,-0.26964,100,7
0.149244,0.459325,-0.12941,15,0
5.26705,16.2007,0.297354,50,8
0.194115,0.596715,-0.144868,25,1
5.34604,16.4241,0.905203,25,9
2.08001,6.39022,-1.30628,26,2
8.19876,25.1734,2.31625,6,10
2.35828,7.23656,-1.20548,26,3
8.22488,25.2237,3.25757,29,11
2.74309,8.40741,-1.08586,16,4
7.9788,24.4401,4.07199,5,12
3.29815,10.1027,-0.929777,22,5
22.2106,67.9935,13.9039,32,13
4.02085,12.3018,-0.678274,32,6
4.81803,14.7234,-0.270408,100,7
5.24109,15.9315,0.292747,34,8
0.196196,0.596034,-0.144868,25,1
5.43144,16.4907,0.909913,16,9
2.09677,6.36614,-1.30284,23,2
8.27224,25.1011,2.31224,12,10
2.37425,7.20014,-1.20079,28,3
8.23761,24.9667,3.22808,38,11
2.7662,8.37893,-1.08342,19,4
8.08204,24.4665,4.08106,22,12
3.3159,10.0381,-0.924897,20,5
22.4256,67.8485,13.8901,32,13
4.04244,12.2232,-0.674715,32,6
4.90711,14.8204,-0.272502,100,7
5.32067,15.9852,0.294073,49,8
0.199507,0.599043,-0.145768,25,1
2.11402,6.34388,-1.29979,26,2
8.87218,26.6087,2.45396,6,10
2.40062,7.19556,-1.20142,30,3
8.35487,25.0282,3.23977,19,11
2.79292,8.36169,-1.08244,17,4
8.10979,24.2658,4.05228,26,12
3.34524,10.0095,-0.923328,20,5
22.6486,67.7288,13.8817,32,13
4.07305,12.173,-0.672726,29,6
4.95753,14.7994,-0.272432,100,7
0.160207,0.476047,-0.134586,15,0
5.43004,16.1257,0.297005,22,8
0.199731,0.592803,-0.144419,25,1
5.49221,16.2915,0.901016,13,9
2.13489,6.33274,-1.29903,23,2
8.93889,26.5002,2.44681,34,10
2.42319,7.17965,-1.20017,28,3
8.47141,25.0854,3.25099,19,11
2.81573,8.33308,-1.08001,20,4
8.25139,24.4057,4.08044,8,12
3.3674,9.95999,-0.919842,20,5
22.9251,67.7684,13.9062,32,13
4.11039,12.1436,-0.671889,29,6
24.2044,71.4677,17.4202,58,14
5.0496,14.9013,-0.274631,100,7
0.161868,0.475484,-0.134586,15,0
5.59977,16.4398,0.303148,40,8
0.199913,0.586568,-0.143069,25,1
5.52583,16.2042,0.897248,12,9
2.15318,6.3141,-1.29674,26,2
8.86212,25.9729,2.40097,6,10
2.45271,7.18423,-1.20236,26,3
8.63528,25.2792,3.27999,19,11
2.83132,8.28376,-1.07489,17,4
8.58263,25.0964,4.20089,28,12
3.36282,9.83318,-0.909209,28,5
4.13075,12.065,-0.66833,29,6
5.11584,14.9252,-0.275399,80,7
0.163527,0.474916,-0.134586,15,0
5.63171,16.3464,0.301787,17,8
0.195608,0.567443,-0.13857,27,1
6.36515,18.4543,1.02306,13,9
2.16881,6.28799,-1.29292,23,2
8.79154,25.4747,2.35774,39,10
2.47648,7.17189,-1.20173,27,3
8.74098,25.2995,3.28657,9,11
2.85373,8.25506,-1.07245,22,4
8.7425,25.2754,4.23593,2,12
3.40428,9.8421,-0.911126,18,5
9.0207,26.0649,5.36135,18,13
4.1637,12.024,-0.666865,32,6
5.24062,15.1169,-0.279273,100,7
0.175349,0.503533,-0.142868,14,0
5.62821,16.153,0.298576,52,8
0.206569,0.592519,-0.144868,25,1
5.68158,16.2878,0.904051,33,9
2.18299,6.25813,-1.28834,26,2
8.90273,25.5078,2.36366,39,10
2.49759,7.15201,-1.19985,27,3
8.96543,25.6587,3.33727,10,11
2.87205,8.21507,-1.06855,16,4
8.81827,25.2093,4.22999,11,12
3.41691,9.76809,-0.905374,20,5
9.14665,26.1333,5.38196,19,13
4.1832,11.9453,-0.663306,35,6
5.27219,15.0382,-0.278156,100,7
0.173255,0.491985,-0.139762,14,0
5.63539,15.9936,0.295993,35,8
0.209284,0.593632,-0.145318,25,1
6.34434,17.9857,0.999512,15,9
2.19829,6.23196,-1.28453,23,2
9.00697,25.5198,2.36767,26,10
2.51465,7.1209,-1.1961,28,3
9.27583,26.2524,3.41868,21,11
2.89211,8.18066,-1.06538,20,4
8.98987,25.4148,4.26972,5,12
3.45098,9.75611,-0.905374,20,5
9.03345,25.5238,5.26289,14,13
4.21087,11.8911,-0.661108,35,6
26.2145,73.9865,18.1216,63,14
5.31262,14.9857,-0.277528,100,7
0.17886,0.502297,-0.142868,14,0
5.89923,16.5578,0.306813,59,8
0.203502,0.570871,-0.13992,26,1
6.45472,18.097,1.00694,7,9
2.21937,6.2224,-1.28414,26,2
9.14354,25.6214,2.38005,13,10
2.53617,7.10278,-1.19453,40,3
9.38011,26.2553,3.42331,21,11
2.90928,8.13874,-1.06124,17,4
9.00137,25.1675,4.23343,5,12
3.47227,9.70835,-0.902062,20,5
9.11059,25.4589,5.25602,18,13
4.23148,11.8181,-0.657863,29,6
5.13751,14.3327,-0.265765,33,7
0.170142,0.472587,-0.134586,15,0
5.96852,16.5691,0.307407,56,8
0.208137,0.57749,-0.141719,26,1
5.88842,16.3289,0.909704,9,9
2.23175,6.18876,-1.2788,23,2
9.17545,25.4301,2.36523,13,10
2.55089,7.06601,-1.18984,23,3
8.96792,24.8278,3.24124,38,11
2.93026,8.108,-1.05856,19,4
9.31823,25.7694,4.34012,12,12
3.49123,9.65495,-0.898227,20,5
4.26183,11.7732,-0.656188,29,6
5.17456,14.279,-0.265102,90,7
0.178398,0.490144,-0.139762,14,0
6.00988,16.5031,0.306569,52,8
0.208817,0.573098,-0.140819,26,1
2.24527,6.1588,-1.27422,23,2
6.03342,16.5407,1.54039,16,10
2.57283,7.04964,-1.18859,28,3
9.66121,26.4577,3.45841,21,11
2.95309,8.0828,-1.05661,17,4
9.07173,24.8165,4.18494,28,12
3.50576,9.59031,-0.893346,20,5
4.28506,11.7095,-0.653467,32,6
26.6126,72.6832,17.8697,62,14
5.19617,14.1839,-0.263671,22,7
6.15174,16.7109,0.310827,45,8
0.214858,0.583337,-0.143519,25,1
5.9484,16.1412,0.901539,17,9
2.262,6.13803,-1.27155,23,2
6.4516,17.4972,1.63156,37,10
2.59195,7.02579,-1.18609,27,3
9.20152,24.9284,3.26269,19,11
2.97509,8.05569,-1.05441,22,4
9.33222,25.2553,4.2644,11,12
3.51574,9.51447,-0.88742,19,5
4.31412,11.6626,-0.651687,26,6
5.24079,14.1525,-0.263427,100,7
0.168347,0.452672,-0.12941,15,0
6.09637,16.3839,0.305138,28,8
0.211453,0.567974,-0.13992,13,1
6.15171,16.5238,0.924044,19,9
2.28547,6.13561,-1.2727,26,2
6.42984,17.2524,1.61081,16,10
2.60472,6.98524,-1.18077,22,3
9.36898,25.1119,3.29096,9,11
2.99487,8.02294,-1.05149,24,4
9.48983,25.4223,4.29788,15,12
3.53637,9.46855,-0.884282,19,5
9.35382,25.0313,5.1942,21,13
4.34082,11.61,-0.649594,26,6
5.32201,14.2268,-0.265137,24,7
0.169927,0.452082,-0.12941,15,0
6.19218,16.474,0.307197,41,8
0.215393,0.572741,-0.141269,26,1
6.07853,16.1546,0.904575,44,9
2.30273,6.11657,-1.27041,26,2
6.46403,17.1609,1.60436,6,10
2.61952,6.95438,-1.17701,26,3
9.65381,25.6157,3.36116,10,11
3.02006,8.00925,-1.051,27,4
9.36584,24.8253,4.20246,5,12
3.549,9.40209,-0.879227,19,5
9.41389,24.9395,5.18161,3,13
4.36236,11.5507,-0.647082,26,6
5.5838,14.7693,-0.275608,80,7
0.185139,0.487637,-0.139762,14,0
6.22549,16.3887,0.30601,49,8
0.215314,0.566521,-0.13992,26,1
6.19097,16.2807,0.912844,23,9
2.3216,6.10524,-1.26964,26,2
6.52303,17.145,1.60489,13,10
2.64167,6.93965,-1.17607,26,3
9.59763,25.1997,3.31095,20,11
3.04163,7.98196,-1.04881,23,4
9.53056,24.9973,4.23718,23,12
3.57164,9.36793,-0.877135,15,5
9.50719,24.923,5.18504,17,13
4.38271,11.4832,-0.644151,32,6
5.54254,14.5069,-0.271071,89,7
0.189608,0.494203,-0.141833,14,0
6.29485,16.3986,0.306604,19,8
0.215893,0.562128,-0.13902,26,1
6.24203,16.2441,0.912006,20,9
2.33374,6.07327,-1.26468,26,2
6.87527,17.8827,1.67618,28,10
2.65737,6.90826,-1.17232,26,3
3.06377,7.95648,-1.04686,19,4
9.65114,25.0505,4.25189,20,12
3.59358,9.32752,-0.874521,19,5
4.41198,11.4399,-0.642581,35,6
5.55425,14.3867,-0.269186,81,7
0.174573,0.450308,-0.12941,15,0
6.45546,16.6432,0.311595,20,8
0.212214,0.546837,-0.135421,27,1
2.34924,6.05045,-1.26163,23,2
7.01989,18.0703,1.69605,14,10
2.67574,6.88422,-1.16982,26,3
8.67253,22.3014,2.93803,8,11
3.08216,7.92168,-1.04369,23,4
9.69188,24.9098,4.23343,31,12
3.60154,9.25179,-0.868594,19,5
4.43666,11.3853,-0.640383,32,6
5.4937,14.0906,-0.263985,90,7
0.183189,0.467684,-0.134586,15,0
6.356,16.2269,0.304195,24,8
0.219714,0.560645,-0.13902,26,1
6.47202,16.5062,0.929173,28,9
2.37178,6.04586,-1.26239,23,2
7.06328,17.9956,1.69134,56,10
2.69062,6.85508,-1.16638,27,3
10.0598,25.6169,3.37919,10,11
3.10188,7.89479,-1.0415,19,4
9.78601,24.8942,4.23656,5,12
3.62288,9.21135,-0.865979,19,5
4.45026,11.3092,-0.636929,32,6
5.5128,13.9951,-0.262554,83,7
0.21316,0.538932,-0.155291,12,0
6.20069,15.6691,0.294143,26,8
0.22454,0.567122,-0.140819,26,1
6.62816,16.7323,0.943199,25,9
2.39037,6.03432,-1.26163,26,2
8.99486,22.6953,2.13584,21,10
2.70579,6.82361,-1.16262,26,3
9.86363,24.862,3.28414,19,11
3.1221,7.86546,-1.03906,20,4
3.64765,9.18013,-0.864236,19,5
4.46758,11.2379,-0.633788,35,6
5.56901,13.9943,-0.262903,83,7
0.18645,0.466394,-0.134586,15,0
6.1685,15.4302,0.290059,43,8
0.220728,0.55186,-0.13722,27,1
6.35262,15.8746,0.896096,20,9
2.40882,6.0164,-1.25972,26,2
9.17651,22.9081,2.15902,33,10
2.73372,6.82098,-1.16387,26,3
9.99614,24.9416,3.29925,9,11
3.13476,7.81767,-1.03418,23,4
27.403,68.3048,11.6566,26,12
3.67374,9.15255,-0.862842,17,5
4.49161,11.1789,-0.631381,32,6
5.632,14.0101,-0.263566,92,7
0.188077,0.46574,-0.134586,15,0
6.69845,16.5792,0.312119,20,8
0.229322,0.567308,-0.141269,26,1
6.34785,15.6957,0.887304,85,9
2.42024,5.9843,-1.25476,26,2
7.42248,18.3436,1.73126,28,10
2.74862,6.78942,-1.16012,26,3
10.0808,24.8883,3.29705,29,11
3.14326,7.75645,-1.0276,26,4
10.5545,26.0316,4.449,12,12
3.69827,9.11687,-0.86075,19,5
4.52009,11.1372,-0.629916,32,6
5.68406,13.9912,-0.263601,83,7
0.182483,0.447161,-0.12941,15,0
6.76911,16.5872,0.312712,33,8
0.224672,0.550267,-0.13722,27,1
6.36031,15.5699,0.881442,15,9
2.43473,5.95721,-1.25094,26,2
7.49267,18.3237,1.73196,7,10
2.7675,6.76468,-1.15762,26,3
10.2292,25.0036,3.31704,30,11
3.16806,7.73992,-1.02687,28,4
10.6153,25.9215,4.43648,12,12
3.71496,9.06703,-0.857264,19,5
4.54193,11.0744,-0.627299,29,6
5.71541,13.9287,-0.262798,67,7
0.183887,0.446586,-0.12941,15,0
6.79971,16.5055,0.311595,16,8
0.225752,0.547717,-0.13677,27,1
6.48881,15.7352,0.892014,14,9
2.45493,5.95316,-1.25171,26,2
10.5761,25.634,2.42607,6,10
2.77969,6.73404,-1.15386,25,3
