x, y, z, intensity, ring
2.9767,-11.4687,1.03663,34,10
0.167624,-0.646293,-0.10575,13,3
3.36798,-12.9856,1.64719,37,11
3.40655,-13.1438,-1.66717,1,4
2.96662,-11.4546,1.87409,47,12
2.21042,-8.5409,-0.771851,8,5
2.95329,-11.4195,2.29276,6,13
1.80855,-6.99817,-0.378808,70,6
2.85733,-11.0644,2.63823,50,14
2.81455,-10.8987,-0.196479,24,7
2.90017,-11.2384,3.10997,38,15
2.78608,-10.8668,0.195816,58,8
2.93991,-11.4751,0.620809,13,9
0.144613,-0.564869,-0.113341,16,2
3.05911,-11.9578,1.07986,20,10
0.168303,-0.658358,-0.107627,12,3
4.01411,-15.7136,1.99135,8,11
3.00435,-11.7694,-1.49144,12,4
2.90463,-11.3787,1.86001,35,12
1.85951,-7.28984,-0.6582,1,5
3.15393,-12.3734,2.48204,10,13
1.76833,-6.9425,-0.375458,49,6
2.81917,-11.0762,2.63868,64,14
2.7099,-10.6469,-0.191767,22,7
2.86425,-11.2615,3.11359,40,15
2.7466,-10.8624,0.195572,60,8
2.88859,-11.4408,0.618402,25,9
0.142641,-0.56537,-0.113341,16,2
2.90727,-11.5317,1.04047,31,10
0.160324,-0.635927,-0.103873,13,3
3.10509,-12.3254,1.56066,18,11
2.93429,-11.6561,-1.47584,28,4
2.86345,-11.3831,1.85907,50,12
1.75698,-6.99482,-0.37797,38,6
2.81516,-11.2159,2.66972,46,14
2.67272,-10.6563,-0.191767,21,7
2.84183,-11.3389,3.13223,21,15
2.72124,-10.9224,0.196479,56,8
0.128524,-0.516248,-0.122823,15,1
2.8361,-11.4004,0.61568,17,9
0.140765,-0.56584,-0.113341,16,2
2.85508,-11.4852,1.03541,51,10
0.159056,-0.640317,-0.104498,13,3
3.06396,-12.3439,1.56163,36,11
6.76874,-27.2899,-3.45232,19,4
2.88262,-11.6307,1.89786,43,12
1.78924,-7.21917,-0.650705,52,5
3.06728,-12.385,2.48014,38,13
1.73207,-6.99897,-0.377866,63,6
2.79003,-11.2824,2.68322,44,14
2.80409,-11.3563,3.1343,28,15
2.70788,-11.0328,0.198294,55,8
3.63156,-14.8186,0.799589,17,9
0.138789,-0.566328,-0.113341,16,2
2.80834,-11.468,1.03297,10,10
0.157758,-0.644706,-0.105124,13,3
2.76672,-11.3152,1.43026,37,11
3.38195,-13.8418,-1.74956,15,4
2.79516,-11.4488,1.86658,50,12
1.76592,-7.23311,-0.651402,32,5
3.03147,-12.4262,2.48624,36,13
1.69296,-6.94482,-0.374621,45,6
2.76032,-11.3319,2.69266,46,14
3.12131,-12.8236,-0.230372,100,7
2.81283,-11.565,3.18917,24,15
2.64633,-10.947,0.196584,55,8
0.136811,-0.566809,-0.113341,16,2
2.7113,-11.2415,1.0117,12,10
0.156433,-0.649093,-0.10575,13,3
2.72627,-11.3209,1.42977,20,11
3.09955,-12.8808,-1.62671,42,4
2.71084,-11.2741,1.83654,49,12
1.74638,-7.26859,-0.654017,15,5
2.99954,-12.4844,2.49578,30,13
1.6426,-6.84193,-0.368759,56,6
2.71893,-11.3338,2.69086,38,14
1.55085,-6.46971,-0.116128,66,7
2.73239,-11.4075,3.1431,26,15
2.60208,-10.9308,0.19613,47,8
0.134733,-0.567307,-0.113341,16,2
3.69091,-15.553,1.3985,12,10
0.155876,-0.65735,-0.107001,13,3
2.68445,-11.3207,1.42855,37,11
3.06692,-12.9437,-1.63329,42,4
2.60321,-10.9952,1.78961,49,12
2.54755,-10.7685,-0.968126,10,5
2.9759,-12.5889,2.51448,30,13
1.63175,-6.90816,-0.372004,70,6
2.95401,-12.5159,2.9689,40,14
1.53423,-6.50038,-0.116582,72,7
2.68723,-11.3944,3.13689,32,15
1.71849,-7.33832,0.131556,22,8
2.60872,-11.1574,0.600503,16,9
0.132752,-0.567774,-0.113341,16,2
2.6607,-11.3886,1.02321,23,10
0.147293,-0.630959,-0.102621,14,3
2.6506,-11.3633,1.4327,57,11
3.01991,-12.9568,-1.63354,50,4
2.55303,-10.9623,1.78273,16,12
1.67435,-7.18941,-0.645824,15,5
3.02093,-12.9817,2.5908,10,13
1.63567,-7.03443,-0.378494,56,6
2.8812,-12.4008,2.93921,48,14
1.52441,-6.56635,-0.117664,55,7
2.6389,-11.376,3.12912,38,15
1.70139,-7.3813,0.132219,16,8
2.56976,-11.1664,0.600503,37,9
0.130769,-0.568233,-0.113341,16,2
3.01831,-13.126,1.17835,57,10
0.151283,-0.658423,-0.107001,13,3
2.61137,-11.3744,1.43294,40,11
2.9538,-12.8763,-1.62208,48,4
2.44605,-10.6714,-0.957842,16,5
3.13382,-13.683,2.72857,35,13
1.59595,-6.9739,-0.374935,45,6
2.82703,-12.3633,2.92796,42,14
1.51173,-6.61646,-0.118467,18,7
2.59445,-11.3644,3.12343,39,15
1.68225,-7.41644,0.132743,37,8
2.48797,-10.9864,0.59035,51,9
0.128785,-0.568686,-0.113341,16,2
3.08152,-13.6184,1.22157,31,10
0.147241,-0.65124,-0.10575,13,3
2.56158,-11.339,1.42733,30,11
2.89048,-12.8052,-1.61184,19,4
2.5086,-11.1225,1.80588,48,12
2.42807,-10.7654,-0.965511,36,5
2.91599,-12.9392,2.57821,7,13
1.5444,-6.85862,-0.368445,45,6
2.87412,-12.7742,3.02289,25,14
1.48511,-6.60609,-0.118188,6,7
2.56365,-11.413,3.1343,23,15
1.65897,-7.43398,0.132952,24,8
2.42529,-10.8858,0.584488,33,9
0.126799,-0.569133,-0.113341,16,2
2.50363,-11.2467,1.00804,61,10
0.144109,-0.647893,-0.105124,13,3
2.49356,-11.2199,1.41125,6,11
2.29193,-10.3212,-1.29815,15,4
2.5194,-11.3549,1.84217,50,12
2.37364,-10.698,-0.958713,40,5
3.28595,-14.822,2.95105,9,13
1.52434,-6.88152,-0.369387,42,6
2.75329,-12.4398,2.94146,36,14
1.4547,-6.57804,-0.117594,30,7
2.45669,-11.1181,3.05096,48,15
1.62315,-7.3948,0.13215,60,8
2.38172,-10.8688,0.583127,69,9
0.124812,-0.569572,-0.113341,16,2
2.46393,-11.2534,1.00787,53,10
0.141847,-0.648392,-0.105124,13,3
2.65658,-12.1536,1.52751,10,11
2.27199,-10.4028,-1.30741,23,4
2.54208,-11.6492,1.88848,43,12
2.32312,-10.6459,-0.95331,46,5
1.51774,-6.96681,-0.373679,56,6
2.78196,-12.7807,3.01974,27,14
2.24981,-10.3446,-0.184786,54,7
2.42484,-11.1588,3.05976,30,15
1.52434,-7.06226,0.126111,61,8
2.34376,-10.8771,0.583127,54,9
0.122823,-0.570004,-0.113341,16,2
2.42254,-11.2522,1.007,27,10
0.137921,-0.641159,-0.103873,13,3
2.43812,-11.3438,1.42465,20,11
2.38279,-11.0958,-1.39345,15,4
2.51258,-11.7102,1.89692,47,12
2.27842,-10.6188,-0.950172,48,5
2.83918,-13.2436,2.63278,46,13
1.49676,-6.98769,-0.374516,80,6
2.7512,-12.8551,3.03504,17,14
1.48861,-6.96154,-0.124261,100,7
2.36126,-11.0519,3.02818,29,15
1.50175,-7.07732,0.126286,60,8
0.109934,-0.518532,-0.122373,15,1
2.30602,-10.877,0.582709,40,9
0.120832,-0.570429,-0.113341,16,2
2.37995,-11.245,1.0056,55,10
0.134047,-0.633906,-0.102621,14,3
2.54582,-12.0495,1.51215,7,11
1.47276,-6.9767,-0.875509,39,4
2.4717,-11.7088,1.89536,44,12
2.25121,-10.6735,-0.954355,34,5
3.16862,-15.0362,2.98692,10,13
1.46783,-6.97137,-0.373365,77,6
2.71474,-12.9047,3.04449,17,14
1.46881,-6.98209,-0.12454,81,7
2.31148,-10.9973,3.0111,22,15
1.49911,-7.1821,0.128066,94,8
2.26152,-10.8537,0.581034,13,9
2.34108,-11.2552,1.00578,51,10
0.131944,-0.634347,-0.102621,14,3
2.40689,-11.5817,1.45244,30,11
1.45002,-6.98349,-0.875753,45,4
2.42519,-11.6903,1.89098,63,12
2.21879,-10.7047,-0.956447,42,5
1.44146,-6.96056,-0.372527,21,6
2.71181,-13.1063,3.08993,34,14
1.37561,-6.65427,-0.118607,43,7
2.28206,-11.0488,3.02301,23,15
1.55519,-7.58299,0.135117,44,8
0.131311,-0.642545,-0.103873,13,3
2.37638,-11.6387,1.45853,20,11
1.42643,-6.9924,-0.876241,41,4
2.37727,-11.6638,1.88535,47,12
2.18686,-10.7296,-0.958016,30,5
1.41716,-6.96555,-0.372527,38,6
2.79647,-13.7574,3.24109,20,14
1.36113,-6.70214,-0.119374,43,7
2.23388,-11.0094,3.01007,35,15
1.54924,-7.69031,0.136932,44,8
0.114952,-0.571643,-0.113341,16,2
2.26717,-11.2845,1.007,23,10
0.132178,-0.658493,-0.106375,13,3
2.32676,-11.6021,1.45293,27,11
2.04706,-10.2167,-1.27938,11,4
2.31367,-11.5578,1.86689,46,12
2.19828,-10.9814,-0.979805,19,5
2.66786,-13.3392,2.64423,47,13
1.39714,-6.99199,-0.373679,66,6
1.41987,-7.11867,-0.126704,75,7
1.42421,-7.19936,0.128101,45,8
2.31682,-11.733,0.626776,8,9
0.123605,-0.625971,-0.124026,14,2
2.2455,-11.3823,1.01502,17,10
0.129114,-0.655075,-0.10575,13,3
2.27474,-11.5517,1.44561,27,11
2.00794,-10.2062,-1.27719,39,4
2.29883,-11.6956,1.88785,42,12
1.29611,-6.60025,-0.588476,13,5
2.62128,-13.3484,2.64423,60,13
1.34235,-6.842,-0.36541,27,6
2.44184,-12.4692,-0.221785,20,7
1.45701,-7.50267,0.133406,45,8
2.20415,-11.3924,1.01519,17,10
0.122964,-0.636149,-0.102621,14,3
2.28074,-11.7993,1.47559,3,11
1.96816,-10.1917,-1.27451,42,4
2.23479,-11.5833,1.86845,56,12
2.08005,-10.7914,-0.961502,6,5
2.57197,-13.356,2.64385,52,13
1.28783,-6.69389,-0.357245,50,6
2.37868,-12.3756,-0.21997,24,7
2.24197,-11.6753,3.18554,37,15
1.35395,-7.11115,0.126355,64,8
0.10886,-0.572835,-0.113341,16,2
2.31636,-12.2006,1.08648,18,10
0.122951,-0.648219,-0.104498,13,3
2.21198,-11.673,1.45878,16,11
1.93005,-10.195,-1.27402,6,4
2.25253,-11.9098,1.91976,39,12
1.27444,-6.73834,-0.59998,26,5
2.53481,-13.4151,2.65377,47,13
1.28113,-6.78666,-0.361956,37,6
2.53201,-13.4259,3.15426,47,14
2.337,-12.4038,-0.220319,100,7
2.2081,-11.7309,3.19849,38,15
2.14605,-11.4895,0.204019,27,8
2.12662,-11.4075,0.608144,11,9
0.106859,-0.573211,-0.113341,16,2
2.2909,-12.3007,1.09468,51,10
0.122133,-0.656412,-0.10575,13,3
2.45599,-13.2128,1.65011,18,11
1.89155,-10.1861,-1.27207,37,4
2.13419,-11.5039,1.85312,52,12
1.24837,-6.72904,-0.59876,6,5
2.38063,-12.8447,2.53929,12,13
1.25525,-6.77931,-0.361327,50,6
2.29515,-12.4198,-0.220459,20,7
2.17625,-11.7879,3.21194,35,15
2.12107,-11.5795,0.205485,26,8
0.104858,-0.573581,-0.113341,16,2
2.28232,-12.4968,1.11141,99,10
0.119132,-0.652948,-0.105124,13,3
2.39562,-13.1431,1.64036,41,11
1.85883,-10.2082,-1.27402,8,4
2.10852,-11.5909,1.86595,54,12
2.34772,-12.9187,2.55226,30,13
1.22123,-6.72666,-0.358292,70,6
2.43022,-13.3992,3.14392,10,14
2.27317,-12.5458,-0.222553,26,7
2.12683,-11.7498,3.19952,36,15
2.07604,-11.5613,0.205031,52,8
2.03918,-11.3789,0.605841,47,9
2.25518,-12.5968,1.1196,38,10
0.117547,-0.657249,-0.10575,13,3
2.71005,-15.1681,1.8919,24,11
1.46218,-8.19204,-1.02175,35,4
1.95327,-10.9545,1.76239,45,12
1.19507,-6.70228,-0.595622,12,5
2.30433,-12.9364,2.55417,33,13
1.19774,-6.73088,-0.358292,94,6
2.06009,-11.5887,2.71741,10,14
2.25978,-12.7249,-0.22559,100,7
2.09357,-11.8009,3.21143,23,15
2.03775,-11.5803,0.20524,52,8
2.4506,-13.955,0.742543,30,9
0.11457,-0.653763,-0.105124,13,3
2.69302,-15.3828,1.91749,41,11
1.40587,-8.0387,-1.00201,42,4
1.9174,-10.9749,1.76458,65,12
1.35855,-7.78415,-0.691319,12,5
2.2757,-13.0392,2.57287,22,13
2.21538,-12.7066,-0.675971,26,6
2.03768,-11.6995,2.7417,8,14
1.28438,-7.38196,-0.130788,79,7
2.07023,-11.911,3.23938,29,15
2.00411,-11.6267,0.205938,52,8
1.9492,-11.3318,0.602596,52,9
0.0987454,-0.574664,-0.113341,16,2
3.21967,-18.757,1.66502,73,10
0.113509,-0.661967,-0.106375,13,3
2.21257,-12.9034,1.60746,29,11
1.37881,-8.04943,-1.00274,41,4
1.88341,-11.0068,1.76865,63,12
1.32499,-7.75153,-0.688007,25,5
1.18011,-6.91844,-0.367817,17,6
2.25862,-13.2553,3.10432,23,14
1.15615,-6.78516,-0.120142,51,7
2.03707,-11.9676,3.25284,23,15
1.96946,-11.6813,0.206776,28,8
1.90533,-11.3251,0.601864,51,9
0.0967389,-0.575006,-0.113341,16,2
2.39337,-14.2411,1.26341,13,10
0.109889,-0.654567,-0.105124,13,3
2.16033,-12.882,1.6038,25,11
1.34044,-8.00157,-0.99616,15,4
1.83556,-10.9688,1.76145,49,12
1.24498,-7.43974,-0.659943,23,5
2.17068,-12.9854,2.55913,31,13
1.16648,-6.98556,-0.371167,52,6
2.21041,-13.2515,3.10163,23,14
1.13029,-6.78343,-0.120038,70,7
2.00778,-12.0627,3.27665,22,15
1.92574,-11.6704,0.206462,42,8
1.86903,-11.3514,0.60291,37,9
2.30775,-14.0312,1.24406,13,10
0.110166,-0.67054,-0.107627,12,3
2.20794,-13.4536,1.674,41,11
1.82697,-11.1444,-1.38663,6,4
1.87898,-11.4742,1.84155,37,12
1.21514,-7.42044,-0.657852,23,5
2.13675,-13.0627,2.57287,28,13
1.14047,-6.97973,-0.370643,87,6
2.52327,-15.4594,3.61631,19,14
1.21408,-7.44653,-0.131696,58,7
2.00292,-12.2984,3.33877,29,15
1.88754,-11.6928,0.206741,51,8
1.81034,-11.2395,0.59663,60,9
0.0927222,-0.575667,-0.113341,16,2
2.27585,-14.1454,1.25347,41,10
0.101556,-0.631913,-0.10137,14,3
2.1833,-13.6004,1.6913,41,11
1.82043,-11.3526,-1.41173,15,4
1.86203,-11.6251,1.8647,71,12
1.8516,-11.5599,-1.02425,18,5
2.08308,-13.0196,2.56295,45,13
1.11011,-6.9462,-0.368654,77,6
2.4871,-15.5797,3.64241,9,14
1.1251,-7.05577,-0.124715,54,7
1.81169,-11.3743,3.08616,24,15
1.84079,-11.6618,0.206078,13,8
1.78011,-11.303,0.599665,61,9
2.08682,-13.2656,1.17486,50,10
0.100576,-0.64007,-0.102621,14,3
1.76369,-11.237,1.39662,35,11
1.78448,-11.3824,-1.41466,35,4
1.8135,-11.5808,1.85656,42,12
1.80168,-11.5053,-1.01885,24,5
2.12682,-13.5971,2.67514,16,13
1.08247,-6.92833,-0.367503,80,6
2.07363,-13.2874,3.10477,36,14
1.19841,-7.68797,-0.135815,61,7
1.72799,-11.0981,3.00955,39,15
1.02565,-6.64833,0.11742,30,8
1.75296,-11.3759,0.603224,58,9
0.0887011,-0.5763,-0.113341,16,2
2.18431,-14.2082,1.25766,63,10
0.0971415,-0.632607,-0.10137,14,3
1.71964,-11.2117,1.39272,42,11
1.73001,-11.2925,-1.40272,20,4
1.78376,-11.6433,1.86564,57,12
1.11025,-7.25551,-0.642164,17,5
1.89395,-12.3915,2.43663,10,13
1.06069,-6.94786,-0.36834,80,6
2.02576,-13.285,3.10252,25,14
1.06861,-7.00792,-0.123738,53,7
1.67605,-11.0044,2.98263,33,15
1.00479,-6.6596,0.117559,15,8
1.73435,-11.5222,0.610656,37,9
0.0866889,-0.576606,-0.113341,16,2
2.14476,-14.2827,1.26358,44,10
0.0979766,-0.652461,-0.104498,13,3
1.69334,-11.29,1.40174,19,11
1.75685,-11.7413,1.88034,48,12
1.71984,-11.5077,-1.01798,38,5
1.03823,-6.95529,-0.36855,59,6
1.95009,-13.0796,3.05304,12,14
1.03501,-6.95029,-0.122656,26,7
1.62342,-10.9147,2.95675,36,15
0.985329,-6.68879,0.118013,41,8
1.71241,-11.6527,0.61725,47,9
0.0847763,-0.576891,-0.113341,16,2
1.98049,-13.4933,1.19316,30,10
0.0922603,-0.629345,-0.100744,14,3
1.65651,-11.3135,1.40393,35,11
0.932401,-6.37579,-0.791176,28,4
1.71756,-11.7591,1.88222,37,12
1.68513,-11.537,-1.02007,49,5
1.83535,-12.5809,2.47136,32,13
1.00646,-6.90748,-0.365828,70,6
1.88562,-12.9571,3.02289,25,14
1.01477,-6.98156,-0.123144,13,7
0.960552,-6.68229,0.117839,30,8
1.67853,-11.706,0.619762,41,9
0.0827621,-0.577183,-0.113341,16,2
1.98112,-13.8335,1.22262,60,10
0.0900628,-0.629663,-0.100744,14,3
1.62824,-11.3978,1.41368,37,11
1.62148,-11.3647,-1.40954,20,4
1.68514,-11.8256,1.89192,39,12
1.01131,-7.09692,-0.627173,7,5
1.80138,-12.6572,2.4851,27,13
0.986841,-6.94259,-0.367503,35,6
2.16934,-15.2808,3.56322,9,14
1.12093,-7.90571,-0.139375,63,7
1.62126,-11.5651,0.203844,7,8
1.6407,-11.7336,0.620914,65,9
1.94218,-13.9074,1.22855,18,10
0.0911388,-0.653451,-0.104498,13,3
1.59118,-11.4231,1.41612,40,11
1.58235,-11.3742,-1.41003,17,4
1.66044,-11.9508,1.911,44,12
1.6929,-12.2001,-1.07759,11,5
1.81547,-13.0834,2.56753,57,13
1.04293,-7.52565,-0.398172,43,6
1.79004,-12.9333,3.01434,31,14
1.58509,-11.4672,-0.202064,100,7
1.65011,-11.953,3.23317,18,15
0.909546,-6.65713,0.11728,55,8
1.61564,-11.856,0.62709,56,9
1.81982,-13.3893,1.18218,100,10
0.0903374,-0.665525,-0.106375,13,3
1.8904,-13.9267,1.72567,7,11
1.54344,-11.3856,-1.41076,30,4
1.61977,-11.9644,1.91226,50,12
1.6511,-12.2118,-1.07812,28,5
1.78327,-13.2067,2.59042,24,13
1.61964,-12.0107,-0.635149,19,6
1.74783,-12.9784,3.02334,34,14
0.923186,-6.85506,-0.120736,31,7
1.48864,-11.0684,2.99247,7,15
0.887511,-6.67826,0.117594,38,8
1.58136,-11.9311,0.630753,49,9
0.0766125,-0.578032,-0.113341,16,2
2.25726,-17.0536,1.50501,19,10
0.0885314,-0.669753,-0.107001,13,3
1.49563,-11.3299,1.4032,19,11
1.50611,-11.4246,-1.4149,20,4
1.58364,-12.029,1.92164,42,12
0.978084,-7.43932,-0.656457,18,5
1.74254,-13.2537,2.59844,35,13
1.01869,-7.75867,-0.410105,72,6
1.71569,-13.0849,3.04674,34,14
0.894679,-6.83262,-0.120282,19,7
1.46623,-11.3358,0.199516,22,8
1.5305,-11.8653,0.626985,49,9
2.18584,-16.9925,1.4989,16,10
0.0855727,-0.666154,-0.106375,13,3
1.45709,-11.3429,1.40418,35,11
1.42909,-11.1404,-1.37907,19,4
1.51981,-11.864,1.89442,57,12
0.954891,-7.46443,-0.658374,20,5
1.69046,-13.2328,2.59309,18,13
0.978877,-7.6732,-0.405394,94,6
1.64605,-12.921,3.00715,42,14
0.867287,-6.80793,-0.119793,68,7
1.37477,-10.8066,2.91896,37,15
1.41517,-11.2496,0.19791,55,8
1.49902,-11.9498,0.631172,32,9
0.0725753,-0.578552,-0.113341,16,2
2.1379,-17.0669,1.50483,16,10
0.080421,-0.642913,-0.102621,14,3
1.41773,-11.3499,1.40442,35,11
1.39928,-11.2182,-1.38809,27,4
1.47228,-11.8202,1.8866,48,12
0.923174,-7.42224,-0.654365,15,5
1.64851,-13.2539,2.59615,29,13
0.960565,-7.73388,-0.40843,79,6
1.58376,-12.7697,2.9707,42,14
0.846958,-6.8387,-0.120282,100,7
1.34748,-10.8957,2.94174,8,15
1.37832,-11.2743,0.198259,57,8
1.65523,-13.5787,0.716898,56,9
0.0704543,-0.578814,-0.113341,16,2
1.64863,-13.564,1.19543,10,10
0.078064,-0.643204,-0.102621,14,3
1.39963,-11.5321,1.42636,10,11
1.36418,-11.2565,-1.39224,16,4
1.42983,-11.8154,1.88504,49,12
0.86786,-7.18212,-0.632925,15,5
1.6051,-13.3027,2.60454,10,13
0.932212,-7.73735,-0.40843,94,6
1.5544,-12.9205,3.00445,46,14
0.82738,-6.87735,-0.12091,38,7
1.30206,-10.839,2.92517,4,15
0.789012,-6.65638,0.117001,9,8
1.60054,-13.5229,0.713653,35,9
0.0684335,-0.579057,-0.113341,16,2
1.63022,-13.815,1.21704,60,10
0.0781299,-0.66309,-0.10575,13,3
1.37359,-11.6752,1.44342,37,11
0.869102,-7.38719,-0.913289,13,4
1.38604,-11.7988,1.88159,49,12
1.39868,-11.9244,-1.0504,35,5
1.51608,-12.9643,3.01344,25,14
0.808935,-6.92787,-0.121748,100,7
1.33321,-11.5757,0.20339,13,8
1.5582,-13.55,0.714805,50,9
0.0665129,-0.579281,-0.113341,16,2
1.59825,-13.9411,1.22768,39,10
0.0736841,-0.64372,-0.102621,14,3
1.33486,-11.6797,1.44342,13,11
0.843926,-7.38412,-0.912558,10,4
1.33526,-11.7013,1.86532,47,12
1.3677,-12.0042,-1.05702,52,5
1.44794,-12.7281,2.49006,20,13
1.73941,-15.3141,3.55828,31,14
0.782352,-6.89872,-0.12119,44,7
1.35823,-11.9955,3.23472,15,15
1.30882,-11.7053,0.205589,32,8
1.51112,-13.5573,0.714909,31,9
0.0645915,-0.579498,-0.113341,16,2
1.55134,-13.9404,1.22715,21,10
0.074603,-0.671447,-0.107001,13,3
1.29394,-11.6643,1.44098,16,11
1.28884,-11.6369,-1.43757,6,4
1.3057,-11.8079,1.88159,42,12
1.40982,-12.77,2.49731,33,13
0.871347,-7.90521,-0.416804,87,6
1.68573,-15.3182,3.55783,29,14
0.758703,-6.90539,-0.121259,6,7
1.39661,-12.7318,3.43194,17,15
1.25138,-11.5567,0.202902,27,8
1.41556,-13.1157,0.691358,21,9
0.0624671,-0.579731,-0.113341,16,2
1.48916,-13.843,1.21809,100,10
0.0712978,-0.66386,-0.10575,13,3
1.2477,-11.6174,1.43465,6,11
1.2535,-11.6907,-1.44366,5,4
1.25312,-11.7064,1.8647,30,12
0.715823,-6.69813,-0.589347,13,5
1.36217,-12.7672,2.49578,12,13
0.839194,-7.87856,-0.415234,32,6
1.63081,-15.3359,3.56053,18,14
0.878383,-8.26016,-0.144995,24,7
1.20963,-11.5672,0.203006,28,8
1.36334,-13.0811,0.689265,39,9
1.2899,-12.3975,1.09049,11,10
0.0669392,-0.644456,-0.102621,14,3
1.20961,-11.6654,1.44001,3,11
0.84457,-8.1588,-1.00713,1,4
1.20086,-11.6205,1.85031,44,12
1.262,-12.2121,-1.07411,21,5
0.807186,-7.83773,-0.412931,54,6
1.58006,-15.3686,3.56682,24,14
1.18497,-11.5456,-0.202588,9,7
1.34229,-13.1008,3.52874,12,15
1.16724,-11.5514,0.202657,42,8
0.0533931,-0.52932,-0.122823,15,1
0.0584183,-0.580153,-0.113341,16,2
1.24941,-12.4296,1.09293,31,10
0.0646892,-0.644686,-0.102621,14,3
1.16731,-11.6537,1.43806,16,11
1.17594,-11.7606,-1.45122,4,4
1.15696,-11.5912,1.84499,52,12
1.20788,-12.1014,-1.064,9,5
1.25062,-12.5518,2.4519,4,13
0.701741,-7.05546,-0.371585,10,6
1.82964,-18.4283,4.27542,34,14
1.22355,-12.3456,-0.216549,66,7
1.07916,-10.9081,2.93708,10,15
1.12264,-11.5116,0.201889,10,8
0.0515451,-0.529503,-0.122823,15,1
1.21005,-12.4756,1.09659,11,10
0.0624384,-0.644908,-0.102621,14,3
1.12127,-11.6024,1.43123,3,11
1.1284,-11.6974,-1.44293,6,4
1.11005,-11.5283,1.83435,49,12
0.685456,-7.13177,-0.626824,18,5
0.748825,-7.8054,-0.410942,72,6
1.28362,-13.4045,3.10882,21,14
0.652444,-6.82585,-0.119689,81,7
1.25575,-13.1618,3.54272,10,15
0.615335,-6.54614,0.114767,45,8
1.12423,-12.0049,0.631904,8,9
0.0542654,-0.580556,-0.113341,16,2
1.19171,-12.7735,1.12239,4,10
0.0619058,-0.664801,-0.10575,13,3
1.0815,-11.6142,1.43221,6,11
1.08333,-11.6559,-1.43733,8,4
1.05521,-11.3748,1.80932,58,12
0.660005,-7.12817,-0.626301,13,5
1.125,-12.1733,2.37634,38,13
0.653071,-7.08019,-0.372632,17,6
1.42082,-15.4331,3.57807,18,14
0.630814,-6.85198,-0.120107,70,7
0.998737,-10.8692,2.92466,24,15
0.593136,-6.56827,0.115116,66,8
1.08286,-12.0147,0.632218,7,9
1.1505,-12.8153,1.1257,4,10
0.057822,-0.645338,-0.102621,14,3
1.03963,-11.626,1.43318,23,11
1.04219,-11.6775,-1.43952,5,4
1.0162,-11.3862,1.81057,63,12
1.08658,-12.1989,-1.07149,23,5
1.07763,-12.1224,2.36565,38,13
0.704248,-7.93788,-0.417641,39,6
1.36573,-15.4243,3.57492,11,14
0.606717,-6.85214,-0.120073,95,7
1.03782,-11.7443,3.15915,8,15
0.56702,-6.5204,0.114243,20,8
0.0459974,-0.530014,-0.122823,15,1
0.050211,-0.580921,-0.113341,16,2
1.18812,-13.774,1.20955,21,10
0.053305,-0.617974,-0.0982409,15,3
1.10254,-12.8081,1.57845,39,11
1.00091,-11.6513,-1.43586,5,4
0.979482,-11.4252,1.8162,52,12
1.04569,-12.2225,-1.07324,19,5
1.03809,-12.1337,2.36718,39,13
0.666198,-7.80287,-0.410419,97,6
1.31756,-15.4637,3.58302,18,14
0.579575,-6.81636,-0.119409,100,7
0.544091,-6.52034,0.114209,61,8
1.10927,-13.3496,0.702035,33,9
0.0482843,-0.581084,-0.113341,16,2
1.60326,-19.3355,1.69745,14,10
0.0547312,-0.661466,-0.105124,13,3
1.04885,-12.7031,1.56505,39,11
0.961379,-11.6685,-1.43757,6,4
0.941376,-11.4502,1.81965,35,12
1.01005,-12.2855,-1.07847,26,5
0.99445,-12.1216,2.36412,37,13
0.639609,-7.81311,-0.410837,39,6
1.06143,-12.9938,3.00985,29,14
0.946659,-11.6137,-0.20339,100,7
0.934196,-11.4856,3.08771,23,15
0.909773,-11.382,0.199306,61,8
0.0422961,-0.530322,-0.122823,15,1
1.06076,-13.3295,0.700778,44,9
0.0462557,-0.581249,-0.113341,16,2
1.09638,-13.8076,1.21181,21,10
0.0524218,-0.661653,-0.105124,13,3
1.02984,-13.0272,1.60453,36,11
0.925325,-11.7312,-1.44488,5,4
0.900935,-11.4475,1.81871,46,12
0.977476,-12.42,-1.08997,26,5
0.954439,-12.1544,2.36985,27,13
0.943693,-12.0445,-0.63316,65,6
1.188,-15.1967,3.51913,20,14
0.900826,-11.5492,-0.202204,100,7
0.884355,-11.3636,3.05406,37,15
0.874608,-11.4449,0.200354,43,8
0.909243,-11.953,0.628241,7,9
0.0442265,-0.581407,-0.113341,16,2
1.03778,-13.6743,1.19979,42,10
0.0474274,-0.626377,-0.0994923,14,3
0.966117,-12.7892,1.5748,29,11
0.880193,-11.6789,-1.43806,1,4
0.863934,-11.4899,1.82496,46,12
0.941287,-12.5187,-1.09834,26,5
0.895996,-11.9443,2.32825,7,13
0.865274,-11.5618,-0.607621,23,6
1.14032,-15.2726,3.53578,27,14
0.868231,-11.6559,-0.204019,100,7
0.841533,-11.3242,3.04268,16,15
0.839742,-11.5177,0.201575,72,8
0.0421967,-0.581558,-0.113341,16,2
1.49807,-20.6966,1.81545,19,10
0.0449562,-0.622598,-0.0988666,15,3
0.923323,-12.8183,1.57796,7,11
0.840274,-11.6938,-1.43952,2,4
0.913108,-12.7385,-1.11734,9,5
0.574951,-8.06043,-0.423503,18,6
1.10041,-15.4651,3.57942,11,14
0.827964,-11.6649,-0.204123,67,7
0.797362,-11.2615,3.02508,19,15
0.785689,-11.321,0.198085,58,8
0.0367403,-0.530736,-0.122823,15,1
0.923046,-13.3678,0.702244,26,9
0.0401665,-0.581701,-0.113341,16,2
0.937497,-13.6116,1.19369,27,10
0.0438656,-0.638517,-0.10137,14,3
0.869617,-12.6907,1.56188,10,11
0.0579351,-0.847642,-0.10432,5,4
0.783563,-11.4937,1.82465,7,12
0.457627,-6.71272,-0.58865,23,5
0.818183,-12.0325,2.34428,41,13
1.05551,-15.5628,-0.817488,13,6
1.05129,-15.5408,3.59607,19,14
0.784683,-11.6298,-0.20346,100,7
0.758304,-11.2681,3.02611,25,15
0.762075,-11.5652,0.202308,22,8
0.909032,-13.8692,0.728412,44,9
0.0381357,-0.581838,-0.113341,16,2
0.890237,-13.6188,1.19403,52,10
0.0400945,-0.615012,-0.0976151,15,3
0.782037,-12.0281,1.47998,38,11
0.808582,-12.47,-1.53434,3,4
0.802557,-12.4106,-1.08805,19,5
0.778956,-12.0784,2.35268,13,13
0.73954,-11.4984,-0.603852,30,6
0.998158,-15.5618,3.60012,26,14
0.71051,-11.1076,-0.19428,93,7
0.718107,-11.2572,3.02249,35,15
0.733654,-11.7593,0.205659,42,8
0.8621,-13.8962,0.729668,27,9
0.0361045,-0.581968,-0.113341,16,2
0.799144,-12.9179,1.13233,30,10
0.0408664,-0.662467,-0.105124,13,3
0.744923,-12.11,1.48973,38,11
0.0520161,-0.848026,-0.10432,5,4
0.757283,-12.3815,-1.08526,11,5
0.699036,-11.495,-0.603538,33,6
0.945835,-15.5983,3.60776,26,14
0.681146,-11.2657,-0.197003,9,7
0.67811,-11.2481,3.01938,23,15
0.66733,-11.3326,0.198155,58,8
0.805418,-13.7595,0.722341,56,9
0.0340728,-0.58209,-0.113341,16,2
0.78562,-13.4616,1.17974,42,10
0.0362589,-0.623165,-0.0988666,15,3
0.706555,-12.1799,1.49802,45,11
0.0485971,-0.840275,-0.103345,5,4
0.383409,-6.64951,-0.582723,2,5
0.688081,-11.9698,2.33054,38,13
0.657305,-11.4694,-0.602073,20,6
0.89116,-15.5976,3.60687,19,14
0.637747,-11.2311,3.01421,37,15
0.770553,-14.0016,0.734902,27,9
0.0338677,-0.619343,-0.0982409,15,3
0.663062,-12.1645,1.49582,42,11
0.0452329,-0.832511,-0.10237,5,4
0.67685,-12.4977,1.98234,14,12
0.638674,-11.831,2.30306,47,13
0.61512,-11.4318,-0.599979,30,6
0.885342,-16.5074,3.81652,25,14
0.588498,-11.0086,-0.19243,100,7
0.760915,-14.666,0.256341,16,8
0.0274721,-0.531296,-0.122823,15,1
0.71191,-13.8147,0.724958,37,9
0.0300083,-0.582314,-0.113341,16,2
0.728105,-14.1771,1.24197,26,10
0.0323114,-0.631294,-0.100118,14,3
0.758731,-14.8748,1.82877,16,11
0.0429314,-0.844559,-0.103833,10,4
0.636219,-12.5591,1.99172,26,12
0.355625,-7.02015,-0.614971,41,5
0.611131,-12.1057,2.35611,32,13
0.78013,-15.5071,-0.81372,32,6
0.829375,-16.5435,3.82417,34,14
0.549867,-11.0066,-0.19236,100,7
0.576741,-11.9202,0.208312,28,8
0.658892,-13.7173,0.719724,43,9
0.0279754,-0.582415,-0.113341,16,2
0.686613,-14.3467,1.25661,44,10
0.0293549,-0.615618,-0.0976151,15,3
0.706805,-14.8774,1.82877,24,11
0.0395137,-0.834789,-0.102614,11,4
0.591446,-12.5416,1.9886,49,12
0.56454,-12.0156,2.33817,50,13
0.721884,-15.4219,-0.809114,35,6
0.770623,-16.5249,3.81922,17,14
0.317668,-6.83758,-0.119479,31,7
0.524033,-11.3221,3.03698,24,15
0.658508,-14.671,0.256341,33,8
0.0237624,-0.531475,-0.122823,15,1
0.610205,-13.7016,0.718782,16,9
0.0259422,-0.582509,-0.113341,16,2
0.0280778,-0.635451,-0.100744,14,3
0.658621,-14.965,1.83925,24,11
0.0366865,-0.836905,-0.102858,16,4
0.548955,-12.5731,1.99329,22,12
0.308519,-7.06625,-0.618806,2,5
0.523107,-12.0293,2.34046,31,13
0.667012,-15.4004,-0.807858,42,6
0.569156,-13.1943,3.04899,17,14
0.291224,-6.77871,-0.118432,68,7
0.482858,-11.2852,3.02663,16,15
0.566585,-13.8063,0.241192,34,8
0.561244,-13.7936,0.723492,13,9
0.0237054,-0.582604,-0.113341,16,2
0.516341,-12.7448,1.11594,40,10
0.0256377,-0.635554,-0.100744,14,3
0.493766,-12.2937,1.51069,21,11
0.0331554,-0.829106,-0.101883,11,4
0.503974,-12.6581,2.00643,37,12
0.286615,-7.19878,-0.63031,18,5
0.476914,-12.0312,2.34046,30,13
0.60622,-15.3609,-0.80566,48,6
0.522391,-13.2957,3.07193,17,14
0.264412,-6.7598,-0.118083,100,7
0.664057,-17.0531,4.57281,17,15
0.51854,-13.8122,0.241262,15,8
0.487335,-13.1029,0.687171,28,9
0.0216716,-0.582684,-0.113341,16,2
0.471039,-12.7246,1.11402,26,10
0.023128,-0.627744,-0.0994923,14,3
0.451359,-12.3092,1.5124,14,11
0.0302611,-0.829217,-0.101883,5,4
0.459379,-12.7097,2.47212,26,13
0.472911,-13.2118,3.05214,57,14
0.23996,-6.7367,-0.117664,100,7
0.597954,-16.8699,4.52312,15,15
0.465764,-13.68,0.238923,48,8
0.508856,-15.1007,0.791843,25,9
0.0196374,-0.582756,-0.113341,16,2
0.426352,-12.7182,1.11333,14,10
0.0206734,-0.619924,-0.0982409,15,3
0.407007,-12.2691,1.50728,17,11
0.0277592,-0.841221,-0.103345,11,4
0.420455,-12.8093,2.02989,7,12
0.23668,-7.21056,-0.631182,22,5
0.416356,-12.7524,2.48014,33,13
0.494881,-15.239,-0.799065,29,6
0.425907,-13.1861,3.04584,23,14
0.215287,-6.70152,-0.117036,100,7
0.539127,-16.8738,4.52364,16,15
0.405856,-13.2838,0.231977,30,8
0.381738,-12.6389,0.662678,7,9
0.0176032,-0.582821,-0.113341,16,2
0.381238,-12.6958,1.11124,52,10
0.0181555,-0.608145,-0.0963636,15,3
0.362883,-12.2268,1.50192,35,11
0.0254081,-0.861155,-0.105783,5,4
0.213027,-7.26312,-0.635714,21,5
0.371382,-12.7381,2.47708,18,13
0.4359,-15.041,-0.788598,16,6
0.381842,-13.2557,3.06158,48,14
0.19195,-6.70423,-0.117071,73,7
0.477365,-16.7752,4.49672,6,15
0.371925,-13.7449,0.240005,11,8
0.0142976,-0.531814,-0.122823,15,1
0.338417,-12.6701,0.664248,30,9
0.0155686,-0.582879,-0.113341,16,2
0.335174,-12.6313,1.10548,52,10
0.0165532,-0.627952,-0.0994923,14,3
0.319941,-12.218,1.5007,38,11
0.0220923,-0.849332,-0.10432,5,4
0.329845,-12.7666,2.0227,37,12
0.270883,-10.4844,-0.917576,9,5
0.327823,-12.7746,2.48395,11,13
0.376064,-14.755,-0.773526,16,6
0.336507,-13.2939,3.07013,25,14
0.175532,-6.98273,-0.121923,26,7
0.439005,-17.586,4.71361,18,15
0.335628,-14.2419,0.248662,9,8
0.0124412,-0.531861,-0.122823,15,1
0.294002,-12.6632,0.663829,9,9
0.0135339,-0.582929,-0.113341,16,2
0.291585,-12.6543,1.1074,28,10
0.0142709,-0.624056,-0.0988666,15,3
0.277785,-12.2409,1.50338,31,11
0.0191274,-0.849404,-0.10432,5,4
0.285543,-12.7795,2.02457,39,12
0.233882,-10.4674,-0.916007,22,5
0.28262,-12.7482,2.47861,20,13
0.323768,-14.7202,-0.771641,16,6
0.2881,-13.2035,3.04899,57,14
0.480519,-22.1994,-0.387583,24,7
0.378572,-17.6318,4.72552,13,15
0.280255,-13.9611,0.24374,15,8
0.0105845,-0.531901,-0.122823,15,1
0.249759,-12.6622,0.663725,28,9
0.0114991,-0.582973,-0.113341,16,2
0.246673,-12.6174,1.10409,42,10
0.0123985,-0.639902,-0.10137,14,3
0.235092,-12.2438,1.50362,38,11
0.0139721,-0.734351,-0.0901833,8,4
0.241566,-12.814,2.02989,21,12
0.239438,-12.8198,2.49235,18,13
0.489268,-26.4432,-1.38607,19,6
0.242439,-13.2278,3.05439,36,14
0.268441,-14.7873,-0.258156,76,7
0.305317,-16.9821,4.55107,1,15
0.232448,-14.0179,0.244718,15,8
0.00872777,-0.531934,-0.122823,15,1
0.205558,-12.663,0.663725,16,9
0.00946402,-0.58301,-0.113341,16,2
0.00978829,-0.61624,-0.0976151,15,3
0.192509,-12.2544,1.50484,38,11
0.0119636,-0.770123,-0.0945706,7,4
0.146232,-9.52019,1.50803,7,12
0.109548,-7.13191,-0.624035,6,5
0.259373,-17.0803,3.32046,35,13
0.188978,-12.5893,-0.659852,35,6
0.196322,-13.2324,3.05529,27,14
0.216587,-14.7722,-0.257877,100,7
0.182415,-13.9347,0.243252,42,8
0.16385,-12.6855,0.664876,15,9
0.00742886,-0.583039,-0.113341,16,2
0.176057,-14.0094,1.22576,23,10
0.00778401,-0.628122,-0.0994923,14,3
0.149853,-12.265,1.50606,38,11
0.0090363,-0.75031,-0.0921332,8,4
0.120251,-9.98481,1.58155,9,12
0.127993,-10.784,-0.943548,22,5
0.199706,-17.0772,3.31969,23,13
0.144481,-12.542,-0.65734,52,6
0.188044,-16.5749,3.82687,13,14
0.173974,-15.3347,-0.267685,33,7
0.188834,-16.9046,4.52985,11,15
0.136304,-13.9452,0.243426,9,8
0.128394,-13.6227,0.713967,19,9
0.00539361,-0.583062,-0.113341,16,2
0.133249,-14.6813,1.2845,22,10
0.00588037,-0.647897,-0.102621,14,3
0.108597,-12.1999,1.49802,35,11
0.00672134,-0.770186,-0.0945706,7,4
0.09035,-10.7844,-0.943548,56,5
0.179966,-21.4812,4.17566,12,13
0.103003,-12.5563,-0.658072,48,6
0.122064,-15.2036,3.51014,11,14
0.10207,-12.9956,-0.226846,100,7
0.171544,-22.3373,5.98545,5,15
0.0916328,-14.5835,0.254561,17,8
0.083475,-13.665,0.716165,30,9
0.00346013,-0.583076,-0.113341,16,2
0.0839429,-14.5741,1.27509,5,10
0.00361865,-0.647913,-0.102621,14,3
0.0662477,-12.2439,1.50338,28,11
0.00454212,-0.867473,-0.106514,19,4
0.0487155,-9.3039,1.47361,44,12
0.0547682,-10.8205,-0.946686,34,5
0.104376,-21.358,4.15162,23,13
0.059389,-12.6026,-0.66048,16,6
0.0691977,-15.2487,3.52048,33,14
0.058802,-12.9579,-0.226183,100,7
0.096963,-22.2219,5.95439,16,15
0.0432551,-14.5777,0.254456,39,8
0.00148565,-0.532004,-0.122823,15,1
0.0385578,-14.7277,0.771851,6,9
0.00142478,-0.583085,-0.113341,16,2
0.0321151,-14.1539,1.23831,21,10
0.00138049,-0.608415,-0.0963636,15,3
0.0257195,-12.2798,1.50777,31,11
0.00175307,-0.913141,-0.11212,14,4
0.0165624,-9.4897,1.50302,42,12
0.0165318,-10.5238,-0.920713,39,5
0.0221374,-14.0922,2.73925,10,13
0.0175882,-12.5967,-0.660166,45,6
0.0185086,-15.1495,3.49754,11,14
0.0135483,-12.936,-0.225799,100,7
0.0129309,-14.8173,3.97028,13,15
-0.00760377,-14.5218,0.253479,68,8
-0.000371411,-0.532006,-0.122823,15,1
-0.0125856,-14.4242,0.755941,10,9
-0.0147528,-14.0882,1.23256,26,10
-0.000791568,-0.647923,-0.102621,14,3
-0.0206469,-14.7889,1.81585,44,11
-0.00147173,-0.936962,-0.115045,13,4
-0.0157967,-9.05116,1.43357,41,12
-0.0182521,-10.458,-0.914961,50,5
-0.0269653,-14.0451,2.7301,17,13
-0.027515,-13.1379,-0.688532,19,6
-0.0264,-11.6359,2.68637,12,14
-0.0313255,-12.82,-0.223775,100,7
-0.0432979,-16.5385,4.4315,11,15
-0.0576106,-14.3517,0.250512,15,8
-0.00222841,-0.532001,-0.122823,15,1
-0.062894,-14.4141,0.755417,30,9
-0.0025442,-0.583081,-0.113341,16,2
-0.0635577,-14.0064,1.22541,10,10
-0.00305326,-0.647916,-0.102621,14,3
-0.0722622,-14.7868,1.81561,44,11
-0.00474236,-0.936952,-0.115045,11,4
-0.0467501,-8.92858,1.41417,63,12
-0.0546742,-10.442,-0.913566,18,5
-0.0537372,-9.93196,1.93061,17,13
-0.0598558,-10.7171,-0.56167,40,6
-0.0867147,-15.0557,3.47594,11,14
-0.0761217,-12.8278,-0.223914,100,7
-0.0913279,-14.9503,4.006,2,15
-0.113756,-14.4837,0.759081,25,9
-0.111075,-13.8347,1.21042,31,10
-0.123593,-14.7527,1.81147,16,11
-0.00804688,-0.940899,-0.115532,10,4
-0.082002,-9.39651,1.48832,45,12
-0.0932814,-10.4796,-0.916878,15,5
-0.121196,-13.3535,2.59577,8,13
-0.100392,-10.8526,-0.568787,20,6
-0.13707,-14.8176,3.42106,22,14
-0.120882,-12.8255,-0.223879,20,7
-0.143271,-14.9248,3.99927,14,15
-0.16196,-14.4989,0.253095,38,8
-0.00603533,-0.531972,-0.122823,15,1
-0.167554,-14.5451,0.762326,16,9
-0.00681825,-0.583047,-0.113341,16,2
-0.162455,-13.892,1.21547,13,10
-0.164922,-13.6942,1.68155,7,11
-0.0116166,-0.950788,-0.116751,11,4
-0.112599,-9.08604,1.4392,32,12
-0.137801,-10.9652,-0.95941,38,5
-0.134618,-10.5654,2.05387,21,13
-0.144992,-11.2257,-0.588361,81,6
-0.186999,-14.4779,3.34277,36,14
-0.153386,-11.7172,-0.204542,24,7
-0.196973,-14.8488,3.97908,12,15
-0.214923,-14.4862,0.252885,60,8
-0.330582,-21.7696,1.14103,18,9
-0.00885344,-0.583019,-0.113341,16,2
-0.211902,-13.7957,1.20711,36,10
-0.215364,-13.7093,1.6835,18,11
-0.0158895,-1.00036,-0.122844,9,4
-0.174795,-10.885,-0.952438,44,5
-0.168408,-10.3744,2.01685,16,13
-0.20544,-12.5211,-0.656293,61,6
-0.240418,-14.4986,3.34772,27,14
-0.216802,-12.9382,-0.225869,100,7
-0.275008,-16.2426,4.35282,10,15
-0.265303,-14.4754,0.252711,57,8
-0.00984181,-0.531915,-0.122823,15,1
-0.251678,-13.4752,0.706326,25,9
-0.0108885,-0.582985,-0.113341,16,2
-0.276504,-14.6674,1.28346,30,10
-0.261882,-13.639,1.67497,37,11
-0.0191892,-0.990375,-0.121626,8,4
-0.213413,-10.9162,-0.955227,46,5
-0.203574,-10.3208,2.00655,9,13
-0.221729,-11.1425,-0.584069,13,6
-0.288601,-14.3769,3.31983,24,14
-0.238037,-11.7558,-0.20524,100,7
-0.306656,-15.0151,4.02412,1,15
-0.316006,-14.4823,0.25285,63,8
-0.0108414,-0.492912,-0.113825,16,1
-0.296543,-13.3764,0.701197,66,9
-0.0129234,-0.582943,-0.113341,16,2
-0.311547,-13.9432,1.22018,31,10
-0.310119,-13.6658,1.67838,7,11
-0.0221922,-0.970456,-0.119188,7,4
-0.341563,-14.8232,2.34839,11,12
-0.24991,-10.8457,-0.949126,50,5
-0.29383,-12.5613,-0.658491,52,6
-0.339471,-14.405,3.32658,11,14
-0.307597,-12.9564,-0.226218,100,7
-0.417862,-17.4725,4.68307,12,15
-0.0121369,-0.48281,-0.12941,15,0
-0.339788,-13.4237,0.234386,15,8
-0.345541,-13.4651,0.705907,14,9
-0.0131451,-0.512241,-0.0996023,19,2
-0.351518,-13.6055,1.19072,40,10
-0.248127,-9.47557,1.16385,44,11
-0.27698,-10.5074,-1.2906,2,4
-0.459064,-17.3002,2.74104,12,12
-0.287028,-10.8169,-0.946686,40,5
-0.339207,-12.6997,2.46945,12,13
-0.335528,-12.4804,-0.654304,68,6
-0.308576,-11.4038,2.63373,28,14
-0.352439,-12.9412,-0.225974,100,7
-0.389136,-14.1976,3.80568,21,15
-0.351923,-12.2171,0.213338,13,8
-0.0154114,-0.531783,-0.122823,15,1
-0.369188,-12.7392,0.667912,16,9
-0.0169928,-0.582839,-0.113341,16,2
-0.404793,-13.8013,1.20798,47,10
-0.406636,-13.701,1.68302,18,11
-0.0312769,-1.04766,-0.128694,1,4
-0.442925,-14.8364,2.3509,12,12
-0.324186,-10.7959,-0.944943,22,5
-0.340339,-11.2035,-0.587419,40,6
-0.311008,-10.1794,2.35119,11,14
-0.396085,-12.964,-0.226393,100,7
-0.414626,-12.7677,0.669482,46,9
-0.0190271,-0.582776,-0.113341,16,2
-0.454403,-13.8436,1.21181,47,10
-0.452134,-13.7016,1.68326,41,11
-0.0348826,-1.05152,-0.129182,5,4
-0.491747,-14.7459,2.33682,25,12
-0.361401,-10.7807,-0.943722,2,5
-0.362036,-10.7997,2.10043,24,13
-0.428073,-12.7033,-0.666132,35,6
-0.486362,-14.212,3.81033,12,15
-0.429309,-12.0525,0.210511,18,8
-0.0190307,-0.531666,-0.122823,15,1
-0.456748,-12.7603,0.669168,42,9
-0.0209596,-0.58271,-0.113341,16,2
-0.492104,-13.6151,1.19194,30,10
-0.483164,-13.2397,1.62671,37,11
-0.0386255,-1.05338,-0.129425,21,4
-0.537097,-14.6475,2.32149,24,12
-0.395592,-10.6865,2.07867,6,13
-0.382617,-10.2393,2.36559,43,14
-0.485512,-12.993,-0.226951,20,7
-0.469195,-12.049,0.210476,48,8
-0.0192703,-0.492655,-0.113825,16,1
-0.501287,-12.7586,0.669168,77,9
-0.0229935,-0.582633,-0.113341,16,2
-0.540651,-13.6391,1.19421,27,10
-0.547204,-13.7438,1.68887,26,11
-0.0418012,-1.04531,-0.12845,43,4
-0.532174,-13.25,2.10029,12,12
-0.0665734,-1.65035,-0.144504,2,5
-0.417836,-10.2692,2.37278,12,14
-0.53266,-13.0351,-0.227719,64,7
-0.41476,-10.1067,2.71035,35,15
-0.516311,-12.0671,0.210825,13,8
-0.0228347,-0.531516,-0.122823,15,1
-0.0251289,-0.582545,-0.113341,16,2
-0.567274,-13.0976,1.14697,20,10
-0.600319,-13.7495,1.68984,26,11
-0.0457275,-1.04316,-0.128207,64,4
-0.583742,-13.2637,2.10279,41,12
-0.0722712,-1.64213,-0.143807,13,5
-0.412689,-9.3399,1.81726,46,13
-0.0780678,-1.75985,-0.0923206,1,6
-0.45313,-10.0954,2.70777,45,15
-0.555195,-11.9953,0.209603,13,8
-0.684489,-14.6779,0.770071,11,9
-0.0271622,-0.582454,-0.113341,16,2
-0.440459,-9.40971,0.824145,42,10
-0.64728,-13.7256,1.68716,33,11
-0.0492747,-1.04101,-0.127963,55,4
-0.560576,-11.7994,1.87096,21,12
-0.0771521,-1.62396,-0.142238,34,5
-0.444727,-9.32664,1.81498,48,13
-0.0790546,-1.65184,-0.0866684,8,6
-0.457948,-9.53394,2.20362,33,14
-0.0851204,-1.76568,-0.0308559,1,7
-0.485193,-10.0281,2.69017,42,15
-0.655626,-13.1697,0.230162,1,8
-0.0246001,-0.492417,-0.113825,16,1
-0.0291951,-0.582355,-0.113341,16,2
-0.686028,-13.6366,1.19456,31,10
-0.693781,-13.6955,1.68375,33,11
-0.0537145,-1.05669,-0.129913,47,4
-0.603168,-11.825,1.87534,10,12
-0.0825157,-1.61771,-0.141715,45,5
-0.465239,-9.08975,1.76918,15,13
-0.08482,-1.65155,-0.0866684,28,6
-0.506368,-9.82615,2.27156,56,14
-0.0853976,-1.65154,-0.0288663,4,7
-0.528202,-10.1807,2.73158,20,15
-0.679657,-12.6724,0.665085,1,9
-0.0312278,-0.58225,-0.113341,16,2
-0.499181,-9.27709,0.812814,22,10
-0.773682,-14.2856,1.75662,27,11
-0.0569719,-1.04857,-0.128938,29,4
-0.726582,-13.3298,2.11437,35,12
-0.0881619,-1.61741,-0.141715,50,5
-0.504147,-9.21941,1.79475,33,13
-0.0887247,-1.61735,-0.0848889,45,6
-0.548269,-9.96247,2.3035,39,14
-0.091713,-1.66122,-0.0290408,24,7
-0.56662,-10.2309,2.74555,42,15
-0.0947758,-1.66906,0.0291804,1,8
-0.0302536,-0.531145,-0.122823,15,1
-0.03326,-0.582137,-0.113341,16,2
-0.529851,-9.24546,0.8102,13,10
-0.822628,-14.267,1.75467,23,11
-0.0601059,-1.04243,-0.128207,20,4
-0.765422,-13.2346,2.09966,42,12
-0.0934613,-1.61113,-0.141192,52,5
-0.538719,-9.25875,1.80276,64,13
-0.0940207,-1.61104,-0.0845749,56,6
-0.584367,-10.0131,2.31565,21,14
-0.0958191,-1.63695,-0.0286219,42,7
-0.603941,-10.2868,2.76108,37,15
-0.0993501,-1.65276,0.0289012,12,8
-0.0320148,-0.531042,-0.122823,15,1
-0.0991568,-1.64475,0.0863543,2,9
-0.0351903,-0.582024,-0.113341,16,2
-0.837144,-13.8058,1.21007,2,10
-0.878273,-14.4009,1.77149,11,11
-0.0650125,-1.066,-0.131131,24,4
-0.810392,-13.2498,2.10248,16,12
-0.0986813,-1.60882,-0.141018,51,5
-0.560621,-9.11387,1.77491,26,13
-0.0997316,-1.6167,-0.0848889,57,6
-0.60725,-9.84386,2.27695,42,14
-0.10063,-1.62664,-0.0284474,49,7
-0.660896,-10.653,2.85995,7,15
-0.103944,-1.63846,0.0286569,34,8
-0.0337756,-0.530933,-0.122823,15,1
-0.10566,-1.65636,0.0869824,11,9
-0.0371201,-0.581904,-0.113341,16,2
-0.0414734,-0.646595,-0.102621,14,3
-0.945008,-14.6931,1.80781,4,11
-0.068733,-1.06577,-0.131131,22,4
-0.792388,-12.2533,1.94479,7,12
-0.103887,-1.6065,-0.140844,52,5
-0.587157,-9.05515,1.76384,45,13
-0.104574,-1.60839,-0.0844702,61,6
-0.641734,-9.84363,2.2774,48,14
-0.106176,-1.62429,-0.0284125,52,7
-0.696563,-10.6275,2.85374,11,15
-0.109262,-1.6321,0.0285521,50,8
-0.0356287,-0.530812,-0.122823,15,1
-0.111441,-1.65598,0.0869824,31,9
-0.111592,-1.65391,0.145027,3,10
-0.0437302,-0.646446,-0.102621,14,3
-0.073261,-1.0774,-0.132594,22,4
-0.108952,-1.59817,-0.140146,54,5
-0.616352,-9.01778,1.75697,39,13
-0.110188,-1.60802,-0.0844702,66,6
-0.680365,-9.90354,2.2918,40,14
-0.111983,-1.6259,-0.0284474,54,7
-0.72221,-10.4593,2.80922,27,15
-0.114677,-1.62772,0.0284823,61,8
-0.11708,-1.65359,0.0868777,49,9
-0.116941,-1.64755,0.144504,18,10
-0.0459865,-0.64629,-0.102621,14,3
-0.0767381,-1.07318,-0.132106,22,4
-0.889494,-12.4091,1.97045,50,12
-0.114103,-1.59182,-0.139624,63,5
-0.646982,-9.00383,1.75468,11,13
-0.114365,-1.5877,-0.0834235,73,6
-0.711142,-9.84863,2.27965,47,14
-0.117658,-1.6255,-0.0284474,56,7
-0.759135,-10.4625,2.81078,36,15
-0.119916,-1.62132,0.0283776,75,8
-0.120631,-1.62329,0.0853076,55,9
-0.122396,-1.64315,0.144156,39,10
-0.0482422,-0.646125,-0.102621,14,3
-0.123111,-1.64501,0.202547,8,11
-0.0798899,-1.06499,-0.131131,21,4
-0.937395,-12.467,1.98015,29,12
-0.119958,-1.59539,-0.139972,82,5
-1.03694,-13.7587,2.68201,33,13
-0.119455,-1.58132,-0.0831095,88,6
-0.749046,-9.89272,2.29045,26,14
-0.121666,-1.60315,-0.0280635,66,7
-0.762829,-10.0282,2.69482,41,15
-0.125266,-1.61691,0.0283078,88,8
-0.126762,-1.62883,0.0856216,71,9
-0.127976,-1.64073,0.143981,61,10
-0.0504973,-0.645953,-0.102621,14,3
-0.129938,-1.65842,0.204253,31,11
-0.0826744,-1.05283,-0.129669,14,4
-0.986952,-12.5404,1.99235,23,12
-0.125804,-1.59493,-0.139972,74,5
-1.08318,-13.702,2.67171,35,13
-0.125881,-1.58883,-0.0835282,100,6
-0.78265,-9.87839,2.28775,47,14
-0.12742,-1.6047,-0.0280984,91,7
-0.859283,-10.7978,2.9024,24,15
-0.13103,-1.61444,0.0282729,95,8
-0.131919,-1.6184,0.0850983,69,9
-0.047473,-0.581151,-0.113341,16,2
-0.131393,-1.60848,0.141192,64,10
-0.057055,-0.696952,-0.110756,12,3
-0.13634,-1.66189,0.204741,64,11
-0.0850688,-1.03471,-0.127475,11,4
-0.131485,-1.59248,-0.139798,19,5
-1.06411,-12.8605,2.50838,10,13
-0.132694,-1.6003,-0.0841562,100,6
-0.822877,-9.92401,2.299,19,14
-0.13297,-1.60024,-0.0280286,100,7
-0.989908,-11.888,3.19642,8,15
-0.135762,-1.60001,0.0280286,100,8
-0.13785,-1.61791,0.0850983,78,9
-0.137457,-1.60997,0.141367,81,10
-0.0619665,-0.724293,-0.115136,11,3
-0.140735,-1.64161,0.202303,75,11
-0.0878411,-1.02253,-0.126013,5,4
-0.141464,-1.64336,0.261246,1,12
-0.13636,-1.58407,-0.139101,23,5
-0.137935,-1.59585,-0.0839469,100,6
-0.858236,-9.90927,2.2963,42,14
-0.138488,-1.59576,-0.0279588,100,7
-1.51415,-17.4118,4.68307,15,15
-0.142051,-1.60749,0.0281682,100,8
-0.143674,-1.61941,0.0852029,97,9
-0.0515289,-0.580805,-0.113341,16,2
-0.143252,-1.61147,0.141541,88,10
-0.0750097,-0.842127,-0.133908,6,3
-0.145053,-1.62529,0.200353,97,11
-0.0898187,-1.00442,-0.123819,6,4
-0.148257,-1.65466,0.263123,5,12
-0.140999,-1.57366,-0.138229,47,5
-1.22759,-13.674,2.66865,42,13
-0.142431,-1.58343,-0.0833189,100,6
-0.886523,-9.83635,2.2801,48,14
-0.145856,-1.61518,-0.0283078,100,7
-0.147478,-1.60499,0.0281333,100,8
-0.147395,-1.60102,0.0842609,99,9
-0.053556,-0.580622,-0.113341,16,2
-0.149427,-1.61691,0.142064,100,10
-0.0779488,-0.84186,-0.133908,6,3
-0.149442,-1.61093,0.198647,100,11
-0.0914987,-0.986326,-0.121626,10,4
-0.152281,-1.63843,0.26062,11,12
-0.147785,-1.58705,-0.139449,58,5
-1.22535,-13.1341,2.56409,37,13
-0.147957,-1.58292,-0.0833189,100,6
-0.917504,-9.81589,2.27605,58,14
-0.150466,-1.60672,-0.0281682,100,7
-0.949764,-10.1229,2.72433,40,15
-0.153179,-1.60848,0.0282031,100,8
-0.153272,-1.60649,0.0845749,100,9
-0.0554812,-0.580441,-0.113341,16,2
-0.153838,-1.60649,0.141192,100,10
-0.0830037,-0.865193,-0.137662,6,3
-0.155353,-1.61636,0.199378,100,11
-0.0928698,-0.966257,-0.119188,9,4
-0.156956,-1.63005,0.259368,26,12
-0.151516,-1.57068,-0.138055,100,5
-1.26568,-13.0967,2.5576,44,13
-0.154746,-1.59832,-0.0841562,100,6
-0.939346,-9.70223,2.25041,43,14
-0.154828,-1.59626,-0.0279937,100,7
-0.973611,-10.0197,2.69741,20,15
-0.158119,-1.60398,0.0281333,100,8
-0.0522843,-0.529431,-0.122823,15,1
-0.159273,-1.60992,0.0847843,100,9
-0.0574057,-0.580254,-0.113341,16,2
-0.157396,-1.58812,0.139624,100,10
-0.0876289,-0.882605,-0.140478,10,3
-0.161694,-1.62571,0.200597,100,11
-0.0952579,-0.956051,-0.11797,8,4
-0.162252,-1.62556,0.258743,43,12
-0.156922,-1.57215,-0.138229,84,5
-1.03799,-10.381,2.02792,6,13
-0.160443,-1.60178,-0.0843656,41,6
-0.980406,-9.77064,2.26706,39,14
-0.160799,-1.59969,-0.0280635,100,7
-1.00935,-10.0239,2.69948,57,15
-0.163108,-1.59745,0.0280286,100,8
-0.165909,-1.61929,0.0853076,100,9
-0.0594308,-0.58005,-0.113341,16,2
-0.163956,-1.59747,0.140495,100,10
-0.0832343,-0.809588,-0.128902,16,3
-0.165944,-1.61131,0.198891,100,11
-0.0971688,-0.94189,-0.116263,10,4
-0.168332,-1.62891,0.259368,50,12
-0.142543,-1.37936,-0.121321,50,5
-0.166651,-1.60717,-0.0846796,15,6
-1.03766,-9.99006,2.3188,48,14
-0.166795,-1.6031,-0.0281333,100,7
-1.08499,-10.4104,2.80456,35,15
-0.168263,-1.59289,0.0279588,100,8
-0.170297,-1.60678,0.0846796,100,9
-0.170162,-1.60284,0.141018,100,10
-0.0894019,-0.840721,-0.133908,13,3
-0.170306,-1.59888,0.197428,100,11
-0.0981393,-0.919832,-0.113582,12,4
-0.173807,-1.62635,0.259056,56,12
-0.119393,-1.11534,-0.0981374,53,5
-1.34101,-12.5069,2.44503,11,13
-0.168275,-1.56683,-0.0825861,36,6
-1.07523,-10.0116,2.32464,22,14
-0.17239,-1.60251,-0.0281333,100,7
-1.12815,-10.4699,2.82165,26,15
-0.174535,-1.59624,0.0280286,100,8
-0.0579179,-0.528844,-0.122823,15,1
-0.17575,-1.60218,0.0844702,100,9
-0.176906,-1.61012,0.141715,100,10
-0.093131,-0.846278,-0.134847,13,3
-0.176818,-1.60416,0.19816,100,11
-0.100857,-0.913547,-0.112851,13,4
-0.179766,-1.6257,0.259056,62,12
-0.12326,-1.11292,-0.0979631,46,5
-1.11627,-10.0628,1.968,21,13
-0.173796,-1.56421,-0.0824815,79,6
-1.10137,-9.91265,2.3026,32,14
-0.178263,-1.60187,-0.0281333,100,7
-1.54787,-13.8871,3.74408,11,15
-0.17971,-1.58963,0.0279239,100,8
-0.0598558,-0.528628,-0.122823,15,1
-0.179993,-1.58965,0.0838422,100,9
-0.182131,-1.60353,0.141192,100,10
-0.0937761,-0.824341,-0.131405,15,3
-0.183146,-1.60745,0.198647,100,11
-0.101503,-0.889504,-0.109926,16,4
-0.184544,-1.61722,0.257804,65,12
-0.126466,-1.10654,-0.0974401,11,5
-0.17971,-1.56757,-0.0826908,100,6
-1.11547,-9.71495,2.25761,34,14
-0.182256,-1.58733,-0.0278889,100,7
-1.32951,-11.5613,3.11825,27,15
-0.185674,-1.59498,0.0280286,100,8
-0.0616085,-0.528427,-0.122823,15,1
-0.187394,-1.60488,0.0846796,100,9
-0.185391,-1.58532,-0.310255,3,2
-0.187264,-1.59892,0.140844,100,10
-0.097888,-0.835798,-0.133282,21,3
-0.188706,-1.60881,0.198891,121,11
-0.100978,-0.85959,-0.10627,19,4
-0.189958,-1.6146,0.257491,70,12
-0.125432,-1.06454,-0.0937796,5,5
-1.73795,-14.75,2.88694,10,13
-0.187716,-1.59076,-0.0839469,100,6
-1.1415,-9.65894,2.24546,27,14
-0.188971,-1.59661,-0.0280635,100,7
-1.36303,-11.499,3.10272,7,15
-0.19005,-1.5844,0.027854,100,8
-0.192953,-1.60623,0.0847843,100,9
-0.192804,-1.60027,0.141018,100,10
-0.101278,-0.839373,-0.133908,20,3
-0.194559,-1.61011,0.199135,100,11
-0.105171,-0.869085,-0.107489,18,4
-0.195311,-1.61396,0.257491,72,12
-0.12944,-1.06808,-0.0941282,6,5
-3.93838,-32.4501,6.35394,22,13
-0.193268,-1.5901,-0.0839469,100,6
-1.17662,-9.66651,2.24816,17,14
-0.195231,-1.60392,-0.0282031,100,7
-0.195548,-1.58575,0.0278889,100,8
-0.064965,-0.526061,-0.122373,15,1
-0.198804,-1.60753,0.0848889,100,9
-0.198591,-1.60351,-0.314072,2,2
-0.198389,-1.59959,0.141018,100,10
-0.10163,-0.819429,-0.130779,15,3
-0.198429,-1.59763,0.197672,100,11
-0.106092,-0.852973,-0.105539,15,4
-0.201432,-1.61719,0.258117,72,12
-0.132181,-1.05971,-0.093431,6,5
-1.67015,-13.3897,2.62286,5,13
-0.198787,-1.59143,-0.0840516,86,6
-1.36565,-10.9175,2.54015,48,14
-0.200829,-1.60322,-0.0282031,100,7
-1.43526,-11.4416,3.08978,30,15
-0.201837,-1.591,0.0279937,100,8
-0.0668009,-0.525831,-0.122373,15,1
-0.20265,-1.59296,0.0841562,100,9
-0.203907,-1.60284,-0.314072,2,2
-0.204447,-1.60485,0.141541,100,10
-0.104989,-0.822989,-0.131405,15,3
-0.203251,-1.59102,0.196941,100,11
-0.106802,-0.834876,-0.103345,11,4
-0.207577,-1.6204,0.258743,72,12
-0.132838,-1.03553,-0.0913392,5,5
-1.72537,-13.45,2.63584,27,13
-1.74487,-13.5645,3.15741,18,14
-0.206935,-1.60648,-0.0282729,75,7
-1.47618,-11.4441,3.09185,22,15
-0.209199,-1.60417,0.028238,100,8
-0.068636,-0.525595,-0.122373,15,1
-0.208209,-1.59224,0.0841562,100,9
-0.207741,-1.58651,-0.311019,3,2
-0.210328,-1.60409,0.141541,100,10
-0.105433,-0.803013,-0.128276,16,3
-0.210353,-1.60211,0.198403,100,11
-0.10661,-0.81088,-0.10042,12,4
-0.211428,-1.60595,0.256553,75,12
-0.132806,-1.0074,-0.0888989,3,5
-1.77825,-13.4708,2.64118,11,13
-1.79406,-13.5541,3.15651,36,14
-0.20913,-1.57998,-0.0278191,15,7
-1.50393,-11.347,3.06701,32,15
-0.213217,-1.58952,0.0279937,88,8
-0.0705619,-0.52534,-0.122373,15,1
-0.214563,-1.59744,0.0844702,96,9
-0.214325,-1.59356,-0.312545,2,2
-0.213799,-1.58755,0.140146,100,10
-0.1085,-0.804597,-0.128589,32,3
-0.217021,-1.60723,0.199135,100,11
-0.109848,-0.812451,-0.100664,6,4
-0.217561,-1.60912,0.257178,80,12
-0.132045,-0.975343,-0.0861099,4,5
-0.147215,-1.08455,-0.0573602,10,6
-1.83795,-13.5227,3.15066,54,14
-0.217068,-1.59707,-0.0281333,7,7
-1.53754,-11.2976,3.0551,24,15
-0.216852,-1.57692,0.0277842,12,8
-0.0723036,-0.525103,-0.122373,15,1
-0.222593,-1.61449,0.0854123,67,9
-0.219349,-1.58891,-0.311782,1,2
-0.219884,-1.59074,0.140495,100,10
-0.108733,-0.786622,-0.125773,35,3
-0.22235,-1.60651,0.199135,100,11
-0.117446,-0.847476,-0.105051,5,4
-0.223992,-1.61422,0.258117,72,12
-0.134626,-0.968956,-0.0855869,3,5
