x, y, z, intensity, ring
23.9386,6.34272,5.71736,41,14
9.93605,2.63079,-0.179411,23,7
22.7061,6.0077,6.29344,13,15
9.95951,2.62027,0.17976,10,8
0.527714,0.138739,-0.125973,15,1
13.3964,3.51948,0.7259,9,9
0.698765,0.183578,-0.140435,47,2
11.2773,2.96066,1.02007,29,10
5.82578,1.52837,-0.953938,50,3
17.6486,4.62673,2.2402,19,11
6.50211,1.70337,-0.825299,34,4
7.16043,1.8745,-0.647567,20,5
17.36,4.54135,3.48799,26,13
8.45972,2.21147,-0.458254,68,6
23.8191,6.22219,5.68361,47,14
9.98388,2.60619,-0.180109,24,7
22.598,5.89475,6.25773,6,15
11.3487,2.94344,0.204647,35,8
0.54706,0.141785,-0.130472,14,1
0.6918,0.179169,-0.138909,36,2
11.2586,2.91378,1.01746,40,10
5.82152,1.50555,-0.952373,48,3
16.892,4.36543,2.14222,27,11
6.51762,1.68315,-0.826518,42,4
7.16501,1.84899,-0.647393,23,5
17.2559,4.44985,3.46395,16,13
8.45772,2.17945,-0.45773,72,6
23.8955,6.15309,5.69666,33,14
10.2873,2.64706,-0.185414,23,7
15.5012,3.9858,4.28863,11,15
11.4577,2.92906,0.206427,48,8
0.513565,0.131193,-0.122373,15,1
14.7598,3.76771,0.798333,44,9
0.70003,0.178696,-0.140435,35,2
11.2301,2.86461,1.01397,63,10
5.81717,1.48278,-0.950809,45,3
17.6016,4.48332,2.23021,52,11
6.50615,1.65598,-0.824324,36,4
17.1169,4.35351,2.79736,28,12
7.27182,1.84951,-0.656457,23,5
17.1896,4.36879,3.44754,26,13
8.42075,2.1386,-0.455323,72,6
23.182,5.88319,5.52165,6,14
10.3837,2.63326,-0.186985,32,7
23.5693,5.9727,6.51499,3,15
11.5067,2.89882,0.207125,20,8
0.551816,0.138914,-0.131371,14,1
14.7767,3.71714,0.798542,61,9
0.685418,0.172419,-0.137382,37,2
11.1821,2.81083,1.00874,34,10
5.82997,1.46439,-0.95206,45,3
16.8547,4.23047,2.13369,9,11
6.51574,1.63422,-0.824812,34,4
16.858,4.22505,2.75262,19,12
7.29369,1.82799,-0.657852,22,5
14.2585,3.57091,2.85717,11,13
8.43785,2.11162,-0.455846,76,6
23.0455,5.76299,5.48431,25,14
10.711,2.6765,-0.192709,33,7
15.4986,3.86999,4.28035,3,15
10.327,2.56333,0.185729,52,8
0.559863,0.138863,-0.133171,14,1
14.9447,3.70398,0.806916,45,9
0.686015,0.170026,-0.137382,49,2
11.188,2.77081,1.00839,61,10
5.8408,1.44545,-0.952999,36,3
16.8713,4.1721,2.13393,9,11
6.5214,1.61147,-0.824812,32,4
17.0721,4.21543,2.78516,22,12
7.33098,1.81016,-0.660641,23,5
8.4316,2.0788,-0.455114,72,6
14.038,3.45845,3.33782,6,14
10.3319,2.5435,-0.185729,100,7
15.4708,3.80571,4.26896,13,15
10.3242,2.52442,0.185519,35,8
0.560344,0.136908,-0.133171,14,1
12.7689,3.11745,0.688846,29,9
0.690419,0.168562,-0.138146,24,2
11.4957,2.80447,1.03524,29,10
5.84773,1.42552,-0.953312,45,3
16.959,4.13103,2.14319,18,11
6.51734,1.58635,-0.823593,31,4
24.2672,5.90226,3.9556,15,12
7.32951,1.78268,-0.659943,25,5
8.44851,2.05171,-0.455637,79,6
16.4816,3.99949,3.9155,10,14
10.0978,2.44851,-0.181365,100,7
23.1518,5.60955,6.383,16,15
10.3408,2.49024,0.185659,8,8
0.530504,0.127657,-0.125973,15,1
11.2068,2.69465,0.604062,35,9
0.687186,0.165233,-0.137382,37,2
11.2923,2.71313,1.01606,44,10
5.83538,1.40095,-0.950496,42,3
16.9154,4.05792,2.13588,9,11
6.50933,1.56035,-0.821887,32,4
24.2992,5.82027,3.95748,12,12
7.37475,1.76508,-0.663429,18,5
22.5339,5.39329,4.50386,21,13
8.47893,2.02779,-0.456893,79,6
14.0959,3.36851,3.34592,9,14
9.85538,2.35334,-0.176863,100,7
15.3654,3.66623,4.23273,13,15
11.2717,2.67282,0.202204,55,8
0.515777,0.12221,-0.122373,15,1
14.5279,3.4396,0.782423,17,9
0.683966,0.161809,-0.136619,50,2
11.18,2.64284,1.00508,34,10
5.8424,1.38001,-0.950809,45,3
16.9353,4.00022,2.13661,18,11
6.48769,1.53123,-0.818475,30,4
21.1586,4.98998,3.44312,9,12
7.41383,1.74709,-0.666393,20,5
22.3662,5.26655,4.46646,5,13
8.52713,2.0063,-0.459091,76,6
14.1195,3.31951,3.34862,24,14
9.94335,2.33769,-0.178294,100,7
21.5279,5.05725,5.9254,5,15
11.3087,2.63785,0.202692,37,8
0.537098,0.125184,-0.127322,15,1
0.703647,0.163874,-0.140435,23,2
14.1834,3.30059,1.27404,27,10
5.87027,1.36497,-0.954563,38,3
16.7797,3.89859,2.11516,31,11
6.47972,1.5043,-0.816768,29,4
7.42601,1.72126,-0.666916,26,5
22.3252,5.17471,4.45463,5,13
8.59829,1.9914,-0.462545,65,6
14.1101,3.26536,3.34367,29,14
9.91288,2.29222,-0.177596,22,7
21.4766,4.96221,5.90625,11,15
11.308,2.59612,0.202518,18,8
0.518537,0.118951,-0.122823,15,1
11.2991,2.58991,0.607516,45,9
0.688934,0.157787,-0.137382,49,2
12.7621,2.92056,1.1454,5,10
5.87331,1.34301,-0.95425,36,3
16.9944,3.88601,2.14051,27,11
6.4559,1.47504,-0.813112,32,4
16.123,3.68082,2.61934,32,12
7.43586,1.69621,-0.667264,26,5
22.411,5.10812,4.46798,5,13
8.6659,1.97362,-0.46579,72,6
14.027,3.19201,3.32118,29,14
9.97347,2.26958,-0.178538,71,7
21.5484,4.89964,5.92126,5,15
10.1335,2.28739,0.181331,52,8
0.541782,0.122195,-0.128222,14,1
11.2788,2.54386,0.605946,19,9
0.681819,0.153655,-0.135856,25,2
12.815,2.88562,1.14924,12,10
5.88952,1.3251,-0.956128,41,3
20.8608,4.68971,2.62531,31,11
6.4632,1.4518,-0.813356,31,4
16.1975,3.63837,2.62935,20,12
7.43396,1.6685,-0.666567,25,5
22.2793,4.99635,4.43822,7,13
8.73511,1.95733,-0.46914,79,6
13.7528,3.07916,3.25369,20,14
10.1355,2.26926,-0.181296,100,7
21.5277,4.81596,5.91091,13,15
10.1527,2.25638,0.18154,65,8
0.538379,0.119553,-0.127322,15,1
11.4904,2.54947,0.616832,69,9
0.697685,0.154673,-0.138909,36,2
14.1263,3.12915,1.26585,8,10
5.87845,1.30215,-0.953625,42,3
16.6316,3.68104,2.09152,49,11
6.46604,1.42994,-0.813112,32,4
13.4132,2.96382,2.17569,21,12
7.43973,1.64254,-0.666567,26,5
13.6094,3.00468,2.70911,10,13
8.67719,1.91416,-0.465685,50,6
20.8347,4.59225,4.92553,18,14
10.1687,2.23946,-0.181749,29,7
13.8334,3.044,3.79532,13,15
11.3346,2.47757,0.202518,25,8
0.557832,0.121831,-0.131821,14,1
11.5871,2.5285,0.621542,36,9
0.686686,0.149847,-0.136619,37,2
17.4206,3.79831,1.55991,16,10
5.88103,1.2812,-0.953312,45,3
16.6851,3.63183,2.09664,22,11
6.471,1.40736,-0.813112,37,4
16.1703,3.51389,2.6209,8,12
7.45293,1.61955,-0.667264,28,5
13.6121,2.95548,2.70758,11,13
8.56866,1.85887,-0.45951,65,6
20.7878,4.50588,4.91068,40,14
10.8957,2.35971,-0.194594,32,7
13.8779,3.00305,3.80464,7,15
0.539201,0.115791,-0.127322,15,1
11.5743,2.48344,0.62039,39,9
0.691043,0.148273,-0.137382,24,2
14.1122,3.0254,1.26271,35,10
5.89513,1.26273,-0.954876,41,3
21.1098,4.51786,2.65066,12,11
6.47781,1.38517,-0.813356,29,4
16.2327,3.46815,2.62904,13,12
7.46633,1.59519,-0.667962,28,5
13.678,2.91984,2.71865,12,13
8.57118,1.82812,-0.4593,47,6
20.8301,4.43897,4.91698,36,14
10.0159,2.13261,-0.178748,39,7
13.9167,2.96062,3.8124,3,15
0.558669,0.117934,-0.131821,14,1
11.6103,2.44879,0.621856,47,9
0.683873,0.144239,-0.135856,37,2
12.3135,2.59486,1.10095,57,10
5.9053,1.24337,-0.955815,38,3
21.2595,4.47234,2.66748,6,11
6.49815,1.36582,-0.815306,29,4
20.9637,4.40247,3.39275,11,12
7.4738,1.56953,-0.668136,30,5
22.1731,4.65241,4.40387,25,13
8.61856,1.80679,-0.461499,32,6
20.9713,4.3926,4.94667,27,14
13.9231,2.91122,3.81137,12,15
12.2684,2.54737,0.218714,58,8
0.532363,0.110441,-0.125523,15,1
11.3156,2.34542,0.605632,30,9
0.695907,0.144242,-0.138146,24,2
12.4103,2.57005,1.1088,59,10
5.9096,1.22274,-0.955815,38,3
21.2828,4.3997,2.66845,6,11
6.52037,1.34675,-0.8175,28,4
7.47533,1.54263,-0.667787,22,5
22.1758,4.5722,4.4012,27,13
8.54853,1.76098,-0.457416,36,6
20.935,4.30876,4.93453,37,14
10.1324,2.08357,-0.180563,24,7
13.9218,2.86028,3.80826,27,15
12.4888,2.5477,0.222483,13,8
0.559478,0.114031,-0.131821,14,1
11.3962,2.32065,0.609505,69,9
0.696406,0.141812,-0.138146,36,2
12.4563,2.53426,1.11211,19,10
5.90416,1.20014,-0.95425,36,3
18.6873,3.79519,2.34135,35,11
6.55032,1.32911,-0.820668,31,4
20.8061,4.21794,3.3624,20,12
7.47091,1.51454,-0.666916,28,5
22.2493,4.50646,4.41265,5,13
8.59377,1.73905,-0.45951,68,6
20.6653,4.17811,4.86749,35,14
10.1573,2.05176,-0.180877,100,7
13.9942,2.82428,3.82535,13,15
11.3173,2.26759,0.201471,26,8
0.533122,0.106722,-0.125523,15,1
11.3474,2.26949,0.606469,25,9
0.689196,0.13784,-0.136619,50,2
19.1586,3.82828,1.7093,28,10
5.90637,1.17914,-0.953938,38,3
23.104,4.60824,2.89269,46,11
6.58997,1.31322,-0.825056,25,4
20.7781,4.1368,3.35552,20,12
7.4742,1.48807,-0.666741,31,5
13.6174,2.70866,2.6988,17,13
8.59979,1.70905,-0.45951,83,6
20.5708,4.08433,4.84185,35,14
14.0703,2.78856,3.84346,9,15
9.63776,1.89609,0.171452,36,8
0.522018,0.102605,-0.122823,15,1
11.2553,2.21024,0.601131,21,9
0.674261,0.132407,-0.133566,39,2
12.4717,2.44685,1.11193,85,10
5.90658,1.15775,-0.953312,38,3
18.7737,3.67646,2.34891,40,11
6.59256,1.28983,-0.824812,28,4
20.647,4.03582,3.33205,24,12
7.47373,1.45952,-0.666219,30,5
13.698,2.67503,2.71292,29,13
8.39399,1.63771,-0.448205,76,6
20.3516,3.96701,4.78696,37,14
8.84448,1.7224,-0.157281,8,7
21.4148,4.16651,5.84569,13,15
9.66592,1.86661,0.171836,62,8
0.560642,0.108166,-0.131821,14,1
11.2237,2.16338,0.599037,29,9
0.690165,0.132905,-0.136619,37,2
12.4454,2.39435,1.1088,83,10
5.87392,1.12901,-0.947367,42,3
18.8937,3.63152,2.36232,30,11
6.64186,1.27541,-0.830418,31,4
18.5153,3.5521,2.98602,13,12
7.46313,1.43042,-0.664824,30,5
16.0274,3.06898,3.17201,9,13
8.4431,1.61519,-0.450508,76,6
20.5382,3.92532,4.82745,38,14
10.4041,1.98845,-0.184891,32,7
21.3344,4.07361,5.81981,21,15
9.66091,1.82894,0.171627,37,8
0.561035,0.10611,-0.131821,14,1
11.2669,2.1289,0.600922,19,9
0.690647,0.130374,-0.136619,37,2
12.4948,2.35865,1.11246,47,10
5.872,1.1074,-0.946429,45,3
12.9453,2.43902,1.61745,21,11
6.6621,1.254,-0.832368,38,4
7.46832,1.40306,-0.664824,28,5
20.1041,3.77328,3.97608,11,13
8.44307,1.58313,-0.450194,79,6
20.5537,3.85395,4.8279,25,14
21.0871,3.94635,5.74837,15,15
10.9809,2.03718,0.194943,22,8
0.538426,0.0997916,-0.126422,15,1
0.685329,0.126771,-0.135474,25,2
12.852,2.37735,1.14348,47,10
5.83135,1.07762,-0.939233,36,3
12.716,2.34759,1.58771,39,11
6.68031,1.2321,-0.834074,43,4
14.8887,2.74333,2.39783,20,12
7.4401,1.36954,-0.661861,30,5
14.6476,2.69363,2.89495,8,13
8.494,1.56047,-0.452601,90,6
20.6559,3.79479,4.8486,17,14
10.3574,1.90094,-0.183809,90,7
21.0672,3.86277,5.73905,12,15
11.0041,1.99978,0.195223,55,8
0.538789,0.0978173,-0.126422,15,1
0.697358,0.12648,-0.137764,24,2
5.82359,1.05413,-0.937355,36,3
12.916,2.33559,1.6116,39,11
6.70041,1.21043,-0.836024,42,4
14.9239,2.6933,2.4019,42,12
7.51738,1.35666,-0.66831,33,5
14.1237,2.54634,2.78963,15,13
8.42666,1.51772,-0.448729,65,6
13.8169,2.48604,3.24109,36,14
11.0846,1.99244,-0.196584,33,7
21.5908,3.87703,5.87778,16,15
0.523778,0.0932048,-0.122823,15,1
13.71,2.43718,0.729773,28,9
0.684264,0.12164,-0.135093,25,2
13.0041,2.30936,1.15551,57,10
5.82724,1.03379,-0.937355,37,3
12.9319,2.29187,1.61258,18,11
6.69482,1.1853,-0.834805,38,4
14.7776,2.61366,2.37687,31,12
7.5515,1.33561,-0.670925,31,5
14.7009,2.59746,2.90182,7,13
8.43978,1.48968,-0.449147,79,6
13.8792,2.44727,3.25369,11,14
9.43528,1.662,-0.167229,100,7
13.5733,2.38846,3.69283,13,15
0.550977,0.096062,-0.129122,14,1
9.41093,1.64078,0.500646,29,9
0.682751,0.118913,-0.134711,25,2
12.8177,2.23014,1.13825,76,10
5.84443,1.01582,-0.939546,32,3
12.2063,2.11937,1.52117,31,11
6.70067,1.16343,-0.835049,37,4
14.7589,2.55992,2.37249,23,12
7.59146,1.31537,-0.674062,32,5
20.2599,3.50678,3.99669,9,13
8.28748,1.43299,-0.440773,32,6
13.9218,2.40721,3.26179,24,14
8.31755,1.43669,-0.147333,32,7
13.6097,2.34836,3.70059,10,15
12.7152,2.17575,0.225171,56,8
0.543609,0.0929209,-0.127322,15,1
9.24504,1.58028,0.491539,108,9
0.677336,0.115657,-0.133566,26,2
12.6404,2.15613,1.12187,47,10
5.84388,0.995764,-0.93892,32,3
18.7749,3.19577,2.33843,35,11
6.70645,1.14154,-0.835293,38,4
18.9251,3.21792,3.04046,12,12
7.69988,1.30787,-0.683301,28,5
20.4669,3.47275,4.03523,22,13
8.50486,1.44154,-0.452078,39,6
20.5756,3.48748,4.818,34,14
8.35578,1.41478,-0.147927,8,7
13.7126,2.31932,3.72648,12,15
12.6849,2.12728,0.224508,20,8
0.543914,0.0911178,-0.127322,15,1
9.31747,1.55921,0.495098,102,9
0.697079,0.116651,-0.137382,24,2
12.5001,2.08957,1.1088,28,10
5.82961,0.973453,-0.936104,36,3
15.1317,2.52404,1.88361,45,11
6.7241,1.12041,-0.836999,40,4
18.8251,3.13337,3.02263,21,12
7.81839,1.29993,-0.693411,28,5
14.7593,2.45398,2.90831,10,13
10.5134,1.74613,-0.558529,37,6
20.5703,3.41278,4.81395,21,14
9.44768,1.56575,-0.167159,100,7
13.7588,2.27775,3.73683,13,15
11.1333,1.82715,0.196933,43,8
0.548075,0.089849,-0.128222,14,1
9.29724,1.52249,0.493737,73,9
0.697501,0.114095,-0.137382,37,2
12.7024,2.07554,1.12605,64,10
5.88773,0.960991,-0.944864,36,3
18.8805,3.08166,2.34891,40,11
6.7221,1.09597,-0.836268,39,4
18.8886,3.07621,3.03107,27,12
7.92711,1.2896,-0.70265,30,5
20.8182,3.383,4.09972,10,13
8.78875,1.42662,-0.466627,54,6
21.0578,3.41441,4.92508,27,14
8.74445,1.41786,-0.154628,8,7
13.82,2.23836,3.75132,5,15
12.6998,2.03646,0.224508,36,8
0.544552,0.0872233,-0.127322,15,1
14.3436,2.29491,0.761279,27,9
0.686264,0.109799,-0.135093,25,2
12.8119,2.04754,1.13512,45,10
5.9086,0.943234,-0.94768,45,3
18.8975,3.01336,2.34964,30,11
6.72411,1.07101,-0.836024,50,4
18.8744,3.00292,3.02701,31,12
8.08133,1.28429,-0.715897,22,5
14.8095,2.35354,2.9148,8,13
8.78973,1.3953,-0.466418,25,6
15.7806,2.50223,3.68875,14,14
8.78514,1.39143,-0.155257,8,7
13.9961,2.21426,3.79688,4,15
0.544853,0.0853218,-0.127322,15,1
14.3062,2.23774,0.758871,27,9
0.682782,0.106677,-0.13433,25,2
12.7799,1.99442,1.13163,38,10
5.9491,0.927353,-0.953625,42,3
15.3107,2.38665,1.90262,45,11
6.72192,1.04662,-0.835293,41,4
18.8789,2.93611,3.02607,34,12
8.12317,1.26189,-0.719209,25,5
14.8898,2.31039,2.92892,6,13
8.50268,1.3178,-0.450927,14,6
20.8583,3.22904,4.87289,26,14
9.62783,1.49047,-0.170056,87,7
0.525899,0.08038,-0.122823,15,1
9.47309,1.4462,0.502216,17,9
0.675387,0.103107,-0.132803,26,2
13.2753,2.02429,1.17486,20,10
5.97574,0.910149,-0.957379,37,3
13.2097,2.00957,1.64061,48,11
6.7159,1.02048,-0.834074,37,4
18.8016,2.85356,3.01199,18,12
8.18465,1.2422,-0.724264,30,5
14.8609,2.2528,2.92167,17,13
8.81529,1.33476,-0.467255,21,6
20.4263,3.0892,4.76941,24,14
9.60159,1.45039,-0.169498,8,7
11.0911,1.65758,0.195746,60,8
0.55316,0.0825718,-0.129122,14,1
0.695161,0.103644,-0.136619,37,2
15.0322,2.23853,1.32965,66,10
5.98279,0.889867,-0.958005,35,3
13.3187,1.97861,1.65328,26,11
6.75084,1.00169,-0.837974,34,4
21.424,3.17509,3.4303,15,12
8.27368,1.22618,-0.73176,30,5
18.4654,2.73332,3.62842,15,13
8.89102,1.3145,-0.471024,21,6
20.4813,3.02442,4.77976,33,14
9.57099,1.41161,-0.168869,23,7
15.586,2.29599,4.22134,2,15
11.0652,1.61424,0.195188,20,8
0.526447,0.0767066,-0.122823,15,1
14.2877,2.07926,0.756673,41,9
0.685805,0.0998037,-0.134711,25,2
6.02105,0.874084,-0.963636,37,3
13.1978,1.9136,1.63744,15,11
6.75036,0.977555,-0.837486,34,4
18.7937,2.71827,3.00761,16,12
9.3601,1.35048,-0.495622,77,6
20.4937,2.95319,4.78021,33,14
9.55804,1.37563,-0.168555,34,7
15.6207,2.24541,4.22859,7,15
9.6374,1.3716,0.169917,52,8
0.526712,0.0748683,-0.122823,15,1
17.4429,2.47629,0.923311,37,9
0.695868,0.0987891,-0.136619,25,2
12.7966,1.8144,1.13076,54,10
6.04362,0.85583,-0.966765,42,3
18.189,2.5725,2.25556,24,11
6.74194,0.952318,-0.836024,46,4
20.9312,2.95287,3.34801,20,12
7.42977,1.04815,-0.656457,12,5
15.1603,2.13064,3.53443,9,14
9.72715,1.36534,-0.171452,78,7
22.3551,3.13385,6.0486,6,15
9.62454,1.3338,0.169602,15,8
0.561729,0.0777465,-0.130922,14,1
13.7522,1.90094,0.727575,31,9
0.682612,0.094356,-0.133948,26,2
14.1946,1.95957,1.25365,30,10
6.05259,0.834484,-0.967704,50,3
18.6585,2.56917,2.31259,29,11
6.71392,0.923275,-0.832124,42,4
18.8241,2.58194,3.6933,30,13
9.45065,1.29458,-0.499913,38,6
15.28,2.09039,3.56053,4,14
9.72615,1.32886,-0.171348,96,7
13.6744,1.86587,3.69801,13,15
9.64301,1.30207,0.169847,6,8
0.550409,0.0742225,-0.128222,14,1
13.828,1.86225,0.731238,17,9
0.680991,0.0917108,-0.133566,26,2
13.2595,1.78333,1.1705,12,10
6.05938,0.813875,-0.968329,52,3
19.0471,2.55497,2.35963,40,11
6.7112,0.899041,-0.831393,38,4
18.665,2.49707,2.98258,12,12
7.37191,0.986241,-0.650705,11,5
18.9187,2.52766,3.71009,13,13
9.46699,1.26317,-0.500541,31,6
14.8429,1.97783,3.45705,9,14
9.98247,1.3284,-0.175781,35,7
9.61974,1.26476,0.169358,5,8
0.566122,0.0743304,-0.131821,14,1
9.61242,1.26038,0.508078,19,9
0.683254,0.0895882,-0.133948,26,2
12.9417,1.69462,1.14191,4,10
6.06218,0.79272,-0.968329,52,3
18.5284,2.41957,2.29431,19,11
6.73792,0.878688,-0.834318,45,4
12.9949,1.69236,2.07557,14,12
7.33382,0.955101,-0.647044,5,5
19.1084,2.48514,3.74558,17,13
9.49907,1.23371,-0.502007,35,6
13.5549,1.75807,3.15561,11,14
9.82641,1.27274,-0.172953,100,7
13.5894,1.75772,3.67161,20,15
9.63599,1.23269,0.169568,1,8
0.562512,0.0718598,-0.130922,14,1
11.7267,1.49599,0.619553,22,9
0.687457,0.0876997,-0.134711,25,2
12.9653,1.6517,1.14348,100,10
6.06883,0.772052,-0.968955,50,3
18.4422,2.34288,2.28261,29,11
6.70943,0.85117,-0.830418,40,4
7.38257,0.935253,-0.651053,8,5
18.5736,2.34969,3.63911,12,13
7.15721,0.904169,-0.378075,14,6
15.448,1.94879,3.59472,11,14
12.5033,1.57509,-0.21997,100,7
9.63032,1.19781,0.169393,15,8
0.52795,0.0655727,-0.122823,15,1
15.482,1.92015,0.817592,15,9
0.695553,0.0862659,-0.136238,25,2
12.9789,1.60741,1.14418,64,10
6.07541,0.751352,-0.969581,50,3
18.8935,2.33322,2.33745,10,11
6.74389,0.83163,-0.834318,49,4
12.8868,1.58688,2.05649,27,12
7.20402,0.885819,-0.635017,31,5
16.4928,2.02798,3.23002,14,13
7.17024,0.880395,-0.378598,14,6
15.4025,1.88847,3.58257,18,14
9.53137,1.16693,-0.167613,100,7
12.6253,1.54349,3.40813,26,15
9.59672,1.15963,0.16873,35,8
0.547522,0.0660637,-0.127322,15,1
15.4549,1.86203,0.815813,14,9
0.672474,0.0809021,-0.131658,26,2
12.9768,1.55888,1.14348,19,10
6.08989,0.730487,-0.971458,52,3
18.7143,2.24479,2.3143,20,11
6.76646,0.810447,-0.836755,49,4
13.2512,1.58481,2.11374,35,12
7.26444,0.867516,-0.640072,10,5
16.734,1.99542,3.27581,11,13
9.08329,1.08151,-0.479397,76,6
15.4345,1.83498,3.58842,18,14
9.59694,1.14097,-0.168695,94,7
9.56714,1.12049,0.168136,55,8
0.545825,0.0638302,-0.126872,15,1
16.2789,1.90081,0.858938,21,9
0.672752,0.0785541,-0.131658,26,2
13.0118,1.51703,1.1461,35,10
6.0924,0.709229,-0.971458,50,3
18.6337,2.16588,2.30333,29,11
6.81868,0.791361,-0.842848,43,4
13.0077,1.50735,2.07401,8,12
16.6687,1.92864,3.26169,5,13
8.53147,0.985616,-0.450089,14,6
14.9703,1.72684,3.47909,9,14
9.65072,1.11151,-0.169568,100,7
14.6493,1.68462,3.95113,2,15
10.4194,1.18346,0.183041,62,8
0.577026,0.0654379,-0.134071,14,1
12.3977,1.40377,0.653885,28,9
0.665219,0.0753219,-0.130132,27,2
12.9873,1.46824,1.14348,42,10
6.08503,0.686848,-0.969894,42,3
18.6865,2.10593,2.30894,29,11
6.93384,0.780208,-0.856742,47,4
18.2189,2.0468,2.90374,23,12
16.57,1.85862,3.24108,11,13
9.54316,1.06875,-0.503263,87,6
15.0828,1.68648,3.50384,18,14
9.62871,1.07493,-0.169114,25,7
15.2445,1.69917,4.11005,1,15
9.92456,1.09217,0.17428,27,8
0.550132,0.0604438,-0.127772,14,1
0.677187,0.0742839,-0.132421,26,2
17.5734,1.9246,1.54667,16,10
6.09328,0.666249,-0.970832,45,3
18.7174,2.04329,2.31186,9,11
6.96021,0.758578,-0.859666,25,4
17.8233,1.93939,2.8396,19,12
7.34457,0.797875,-0.646347,21,5
19.4104,2.10864,3.79519,13,13
9.91616,1.07549,-0.522732,100,6
15.077,1.63256,3.50114,24,14
10.3223,1.11589,-0.181226,24,7
15.2292,1.64367,4.10435,5,15
19.3715,2.06337,0.340043,12,8
0.565842,0.0601715,-0.131371,14,1
0.67355,0.0713874,-0.131658,26,2
17.5407,1.85599,1.54318,35,10
6.10354,0.64474,-0.972084,56,3
19.0778,2.01526,2.35549,15,11
6.64102,0.700345,-0.819937,56,4
17.7593,1.86971,2.82834,15,12
7.27201,0.764321,-0.639723,10,5
19.1719,2.01167,3.74711,17,13
10.0333,1.051,-0.528698,100,6
14.9995,1.56858,3.48179,24,14
10.4176,1.08942,-0.182831,22,7
15.3252,1.59993,4.12868,13,15
10.5587,1.08555,0.185275,36,8
0.566059,0.0580973,-0.131371,14,1
12.3324,1.26356,0.649699,23,9
0.673795,0.069036,-0.131658,26,2
17.553,1.79535,1.5437,26,10
6.10182,0.623031,-0.971458,45,3
19.1739,1.95438,2.36646,30,11
7.159,0.728446,-0.883553,38,4
18.3654,1.8655,2.92376,28,12
8.23203,0.836183,-0.723916,10,5
18.6144,1.88749,3.63682,22,13
9.86796,0.99887,-0.519801,73,6
15.0727,1.52307,3.49754,24,14
10.3559,1.04461,-0.18168,72,7
15.4078,1.55148,4.14939,18,15
12.7533,1.26621,0.223705,13,8
0.566258,0.0561209,-0.131371,14,1
12.2115,1.20811,0.643104,46,9
0.674032,0.0666834,-0.131658,26,2
17.6464,1.74269,1.55137,39,10
6.11772,0.603082,-0.973648,46,3
21.3616,2.10206,2.63555,25,11
7.13779,0.701125,-0.880628,42,4
18.2617,1.79058,2.90624,15,12
6.26392,0.614184,-0.55065,10,5
18.5368,1.81429,3.62041,22,13
13.1771,1.28738,-0.69387,19,6
15.1381,1.4763,3.51149,4,14
9.83799,0.957691,-0.172534,96,7
15.3458,1.49116,4.13127,9,15
17.4037,1.66659,0.305173,14,8
0.558691,0.0534023,-0.129572,14,1
12.1163,1.156,0.637871,45,9
0.662535,0.0632115,-0.129368,27,2
17.7873,1.69392,1.56323,16,10
6.13355,0.583031,-0.975838,52,3
18.7345,1.77754,2.31064,4,11
6.81806,0.645696,-0.840899,16,4
18.3819,1.7376,2.92439,22,12
6.26404,0.592125,-0.550476,6,5
18.5079,1.74626,3.61354,18,13
10.0576,0.947183,-0.529431,17,6
14.629,1.37512,3.39226,2,14
9.82734,0.922039,-0.17229,43,7
15.3702,1.43938,4.13645,7,15
12.7001,1.17146,0.222623,15,8
0.551112,0.0507371,-0.127772,14,1
12.1342,1.11497,0.638603,59,9
0.674481,0.0619761,-0.131658,26,2
17.8962,1.64129,1.57229,27,10
6.13555,0.561618,-0.975838,56,3
19.5927,1.78997,2.41569,30,11
6.57712,0.599725,-0.810919,11,4
17.7957,1.61954,2.83021,30,12
9.27212,0.84383,-0.814558,32,5
18.4376,1.67471,3.59866,12,13
16.0253,1.44996,3.71484,17,14
12.3777,1.11775,-0.216933,76,7
15.4097,1.38884,4.14576,18,15
9.91952,0.880061,0.173826,17,8
0.555168,0.0491566,-0.128672,14,1
12.1221,1.07121,0.637766,42,9
0.690339,0.0610041,-0.134711,25,2
18.3564,1.61889,1.61221,16,10
6.11386,0.538118,-0.972084,47,3
15.2286,1.33769,1.87703,20,11
6.52182,0.571734,-0.80385,3,4
17.876,1.56395,2.8421,12,12
6.55781,0.573732,-0.575925,10,5
19.2609,1.68172,3.75817,17,13
10.0779,0.878163,-0.530163,100,6
14.6111,1.27059,3.38596,11,14
12.28,1.06572,-0.215153,23,7
15.401,1.33388,4.14214,15,15
11.0901,0.944909,0.19428,6,8
0.551452,0.0468886,-0.127772,14,1
12.1775,1.03327,0.640487,27,9
0.670985,0.0569339,-0.130895,27,2
20.8753,1.76762,1.83289,16,10
6.11767,0.516944,-0.972397,48,3
15.2569,1.28652,1.87996,45,11
6.6306,0.557952,-0.817012,45,4
18.2456,1.53213,2.89998,30,12
9.42272,0.791252,-0.827282,14,5
18.3393,1.53677,3.57729,4,13
9.99336,0.835653,-0.525558,100,6
15.7923,1.3178,3.6586,30,14
12.3135,1.02534,-0.215677,31,7
15.4056,1.28011,4.14214,23,15
11.1213,0.908473,0.194769,50,8
0.551613,0.0449632,-0.127772,14,1
12.1093,0.984927,0.636719,79,9
0.673137,0.0547503,-0.131277,27,2
21.7829,1.76792,1.91202,17,10
6.11353,0.495106,-0.971458,50,3
15.2929,1.23581,1.88386,41,11
6.4287,0.518372,-0.791907,33,4
17.6857,1.42296,2.81019,15,12
6.2578,0.503492,-0.549255,10,5
18.2349,1.46394,3.55592,5,13
10.0818,0.807625,-0.530059,100,6
14.6837,1.17369,3.40081,24,14
12.2433,0.976464,-0.214385,34,7
18.0194,1.43398,4.84354,6,15
12.3903,0.968609,0.216933,20,8
0.547881,0.0427345,-0.126872,15,1
11.8937,0.925614,0.625205,58,9
0.679196,0.0528578,-0.132421,26,2
19.0775,1.48133,1.67409,3,10
6.0975,0.472391,-0.968642,53,3
15.315,1.18381,1.88605,45,11
18.3779,1.4141,2.91938,16,12
8.39105,0.645656,-0.736292,5,5
18.1988,1.39714,3.5479,13,13
9.99098,0.765256,-0.525139,42,6
15.8186,1.20884,3.66265,33,14
12.2286,0.932361,-0.214071,22,7
18.2477,1.38807,4.90359,15,15
14.6031,1.09033,0.255608,6,8
0.528593,0.0393741,-0.122373,15,1
11.9267,0.886308,0.626776,40,9
0.67546,0.0501955,-0.131658,26,2
29.5914,2.19384,2.59602,15,10
6.08926,0.450374,-0.967078,45,3
15.3329,1.13136,1.88776,33,11
6.44206,0.474207,-0.793126,14,4
15.4198,1.13236,2.44883,28,12
7.70584,0.56453,-0.67598,5,5
22.2214,1.62794,4.33098,11,13
9.89997,0.723536,-0.520219,42,6
15.9529,1.16311,3.6928,21,14
10.2992,0.749101,-0.180248,21,7
18.4104,1.33582,4.94603,13,15
0.528727,0.0375286,-0.122373,15,1
10.7224,0.759191,0.563344,40,9
0.679556,0.0479962,-0.132421,26,2
10.8694,0.765783,0.95331,14,10
6.10269,0.428885,-0.968955,50,3
15.3664,1.07992,1.89141,20,11
6.53675,0.458243,-0.804581,11,4
15.4216,1.07838,2.44851,34,12
6.37013,0.444328,-0.558668,12,5
18.6745,1.2993,3.63873,27,13
9.88861,0.686276,-0.519487,70,6
13.56,0.938702,3.13807,8,14
9.7791,0.676966,-0.171103,27,7
15.2157,1.05065,4.08675,27,15
13.0862,0.882954,0.228941,2,8
0.552193,0.0371607,-0.127772,14,1
0.667967,0.0448348,-0.130132,27,2
10.9237,0.731299,0.957842,48,10
6.11992,0.408631,-0.971458,56,3
15.398,1.02544,1.89482,45,11
6.40171,0.425202,-0.787763,8,4
15.4235,1.02173,2.4482,27,12
9.31791,0.617262,-0.816998,17,5
18.9061,1.24912,3.683,18,13
9.9049,0.652675,-0.520219,84,6
13.5827,0.892637,3.14257,8,14
9.59196,0.628692,-0.167787,23,7
8.98227,0.574563,0.157107,15,8
0.528982,0.0337441,-0.122373,15,1
0.672038,0.0427523,-0.130895,27,2
10.9282,0.693292,0.958016,40,10
6.11342,0.386765,-0.970207,47,3
15.4371,0.973933,1.89921,45,11
15.4368,0.968497,2.44976,25,12
18.8555,1.17969,3.67231,16,13
10.3277,0.64434,-0.542305,94,6
13.6401,0.848604,3.15516,24,14
10.2328,0.63483,-0.178957,71,7
14.9105,0.922413,4.0029,20,15
0.568001,0.0342429,-0.131371,14,1
12.1753,0.731876,0.639231,43,9
0.676102,0.0406416,-0.131658,26,2
6.14628,0.36731,-0.975213,63,3
15.4682,0.92169,1.90262,28,11
6.58881,0.391448,-0.810431,1,4
15.4796,0.916946,2.45602,40,12
7.76468,0.459947,-0.680512,5,5
18.8772,1.1149,3.67574,19,13
9.74971,0.574118,-0.511846,100,6
13.6255,0.79996,3.15111,31,14
10.0293,0.587069,-0.175362,97,7
14.9387,0.871826,4.00962,5,15
8.99605,0.51241,0.157281,100,8
0.529205,0.0300505,-0.122373,15,1
11.3343,0.641625,0.594955,51,9
0.688001,0.0389472,-0.133948,26,2
18.3486,1.03549,1.60785,3,10
6.13372,0.345078,-0.973022,52,3
15.4872,0.868583,1.90457,20,11
15.4925,0.863452,2.45759,32,12
9.45317,0.526857,-0.828328,17,5
19.0201,1.05674,3.70284,43,13
10.32,0.57156,-0.541677,100,6
13.7664,0.760017,3.18306,24,14
22.1077,1.2128,5.93265,8,15
13.4928,0.718941,0.235852,34,8
0.552663,0.0293507,-0.127772,14,1
11.2727,0.596697,0.591606,51,9
0.672455,0.0355949,-0.130895,27,2
15.521,0.818864,1.3598,21,10
6.2395,0.32809,-0.989605,52,3
18.5312,0.97118,2.27847,29,11
7.76106,0.405385,-0.954237,22,4
9.91465,0.516135,-0.868594,45,5
13.7567,0.711336,-0.721922,55,6
13.664,0.704143,3.15876,18,14
14.0802,0.720673,3.77772,14,15
13.4793,0.671039,0.235573,57,8
0.529406,0.0262629,-0.122373,15,1
11.2708,0.557149,0.591396,34,9
0.682379,0.0337322,-0.132803,26,2
15.681,0.77242,1.37357,30,10
6.34517,0.311439,-1.00619,53,3
18.4691,0.903292,2.27043,14,11
7.70691,0.375584,-0.947412,38,4
19.3951,0.941788,3.0755,12,12
10.5512,0.512346,-0.924199,61,5
22.6275,1.0948,4.40349,10,13
12.6579,0.610221,-0.664143,29,6
13.2401,0.635963,3.06023,19,14
9.13815,0.437341,-0.15969,100,7
18.9145,0.901917,5.07389,6,15
14.4583,0.669191,0.252641,23,8
0.584002,0.0269281,-0.134971,14,1
11.2905,0.520601,0.592338,47,9
0.672687,0.0308994,-0.130895,27,2
15.5841,0.71312,1.36486,69,10
6.46659,0.29478,-1.02527,41,3
15.5907,0.70797,1.91627,57,11
6.68491,0.302391,-0.821643,11,4
9.77471,0.440452,-0.856044,17,5
15.5588,0.698359,3.02738,16,13
12.7936,0.572006,-0.671156,26,6
13.2422,0.589752,3.06023,29,14
9.13555,0.406859,-0.15962,29,7
18.7032,0.829681,5.01643,13,15
12.061,0.518167,0.21072,13,8
0.560724,0.0239916,-0.129572,14,1
11.1925,0.476933,0.587105,149,9
0.680637,0.0288846,-0.132421,26,2
15.5765,0.6583,1.36399,75,10
6.42214,0.271414,-1.01808,42,3
15.5553,0.654683,1.91164,61,11
7.80845,0.327269,-0.959599,38,4
15.4597,0.645252,2.4507,47,12
9.80405,0.407485,-0.858484,56,5
15.4846,0.643584,3.01249,30,13
13.2363,0.545511,3.05843,34,14
9.18487,0.376933,-0.160457,22,7
14.7856,0.604188,3.96511,24,15
12.0388,0.475114,0.210301,13,8
0.529649,0.0208099,-0.122373,15,1
11.216,0.438722,0.588256,39,9
0.694461,0.0271643,-0.135093,25,2
15.5707,0.606335,1.36329,69,10
6.06578,0.235143,-0.961446,28,3
15.5436,0.599848,1.90994,61,11
9.0513,0.347719,-1.11218,26,4
15.4895,0.592336,2.45508,42,12
9.87709,0.375991,-0.864759,19,5
15.4789,0.589233,3.01097,34,13
10.1647,0.385164,-0.533094,73,6
15.4328,0.582077,3.56547,27,14
9.28604,0.348618,-0.162203,25,7
15.3379,0.573143,4.11263,22,15
12.0644,0.433947,0.21072,28,8
0.529718,0.0189613,-0.122373,15,1
11.1317,0.396508,0.583755,72,9
0.67886,0.0240622,-0.13204,26,2
15.6285,0.551232,1.36817,63,10
6.1732,0.216652,-0.978341,62,3
15.5893,0.547115,1.9153,49,11
7.67168,0.267902,-0.942538,13,4
15.4993,0.538549,2.45633,45,12
9.81064,0.339168,-0.858833,75,5
15.4947,0.532965,3.01364,29,13
9.97846,0.341482,-0.523255,100,6
15.4446,0.525844,3.56772,18,14
9.52903,0.324437,-0.166426,27,7
15.3629,0.520381,4.11885,24,15
12.0019,0.387663,0.209603,38,8
0.529784,0.0170193,-0.122373,15,1
11.1769,0.359056,0.586058,21,9
0.671091,0.0214418,-0.130513,27,2
10.9208,0.347018,0.955924,68,10
6.46613,0.204335,-1.02465,47,3
18.0296,0.56661,2.21485,33,11
7.88689,0.24648,-0.968861,13,4
15.4833,0.483884,2.45352,40,12
9.75003,0.302999,-0.853429,54,5
15.5651,0.481001,3.02699,6,13
9.50047,0.291929,-0.498134,73,6
15.3567,0.469188,3.54703,20,14
10.0118,0.305887,-0.174838,100,7
15.4091,0.468104,4.13075,23,15
11.0577,0.320458,0.193093,55,8
0.529838,0.0152624,-0.122373,15,1
11.0663,0.316846,0.580196,33,9
0.684898,0.0194899,-0.133185,26,2
11.0135,0.311483,0.963942,59,10
6.58722,0.186299,-1.04373,42,3
16.0471,0.451047,1.97111,42,11
6.68914,0.186845,-0.821643,1,4
15.5422,0.431419,2.46259,7,12
9.99998,0.275832,-0.875218,45,5
19.8154,0.546575,3.8532,10,13
9.45347,0.259107,-0.495622,100,6
13.2933,0.362028,3.07013,6,14
9.91886,0.268397,-0.173198,30,7
21.5517,0.579409,5.77684,12,15
13.0738,0.333218,0.228277,42,8
0.529888,0.013413,-0.122373,15,1
13.8187,0.347377,0.724434,42,9
0.677112,0.0169032,-0.131658,26,2
11.0125,0.274912,0.963768,31,10
6.42195,0.159194,-1.01745,31,3
15.5068,0.38169,1.90457,45,11
7.69788,0.18813,-0.945462,6,4
19.0469,0.462175,3.01762,16,12
19.676,0.470559,3.82572,3,13
9.64604,0.229009,-0.50567,56,6
18.5429,0.440231,4.28217,15,14
9.94173,0.234293,-0.173582,30,7
21.6076,0.505436,5.79134,10,15
13.1069,0.285992,0.228836,25,8
0.549416,0.0118926,-0.126872,15,1
13.7919,0.296123,0.722969,42,9
0.700723,0.0149227,-0.136238,25,2
18.2103,0.38781,1.59356,30,10
6.34745,0.134071,-1.00556,17,3
19.013,0.398266,2.33502,5,11
8.7484,0.181725,-1.0744,45,4
15.9103,0.327724,2.52047,15,12
8.93799,0.182542,-0.782136,16,5
21.2341,0.429962,4.12834,23,13
9.64083,0.19353,-0.505356,70,6
18.6379,0.374138,4.30376,15,14
10.0265,0.199521,-0.175048,79,7
21.7774,0.429556,5.83637,15,15
13.1298,0.238354,0.22922,38,8
0.553353,0.00994873,-0.127772,14,1
13.9546,0.248454,0.731447,44,9
0.700771,0.0124768,-0.136238,25,2
10.9246,0.192598,0.955924,36,10
19.0441,0.329096,2.33867,25,11
8.75099,0.149696,-1.07464,26,4
19.0636,0.322776,3.01981,18,12
8.92662,0.151141,-0.78109,18,5
21.4181,0.358902,4.16383,25,13
10.4283,0.172925,-0.546597,17,6
21.1527,0.34707,4.88414,26,14
9.5073,0.154334,-0.165972,100,7
18.3406,0.294526,4.91497,17,15
13.1466,0.192751,0.229499,26,8
0.530002,0.00767847,-0.122373,15,1
13.9334,0.199424,0.730296,50,9
0.696884,0.00997422,-0.135474,25,2
10.8833,0.153869,0.952264,74,10
6.99018,0.0976105,-1.10724,15,3
19.0412,0.262557,2.33819,30,11
8.06865,0.10985,-0.990798,55,4
18.9797,0.255092,3.00636,16,12
19.1754,0.254366,3.72764,6,13
13.3926,0.172987,3.09218,27,14
9.93168,0.126546,-0.173372,25,7
17.451,0.219307,4.67634,6,15
9.90187,0.110611,0.172849,67,8
0.553409,0.00608536,-0.127772,14,1
13.8542,0.149924,0.726109,64,9
0.700841,0.00758421,-0.136238,25,2
10.9037,0.116093,0.954007,65,10
19.1174,0.19687,2.34745,40,11
8.72999,0.0883774,-1.07196,49,4
19.1207,0.19023,3.02857,12,12
10.2165,0.0998594,-0.893869,63,5
19.5158,0.190754,3.79366,22,13
10.5171,0.100962,-0.551202,100,6
9.95406,0.0920776,-0.173756,24,7
17.4806,0.158657,4.68411,18,15
9.8882,0.0759358,0.172604,77,8
0.561221,0.00421218,-0.129572,14,1
13.8167,0.101288,0.72412,47,9
0.716569,0.00512766,-0.139291,24,2
10.9858,0.0766951,0.961154,42,10
6.45341,0.04393,-1.02214,36,3
22.3159,0.15191,2.74011,6,11
8.82751,0.0585463,-1.08391,9,4
19.1133,0.123429,3.02732,21,12
6.61062,0.0415389,-0.578366,7,5
19.267,0.117696,3.7452,16,13
10.5893,0.0628382,-0.554971,28,6
13.1187,0.0755648,3.02874,10,14
10.0363,0.0578099,-0.175187,44,7
17.2917,0.0965757,4.63338,11,15
9.79843,0.0393342,0.171034,71,8
0.530053,0.00203531,-0.122373,15,1
13.9068,0.0509791,0.728831,14,9
0.716583,0.00262683,-0.139291,24,2
11.0736,0.0386554,0.968823,23,10
6.64118,0.0220237,-1.05187,16,3
23.2354,0.0730101,2.85296,15,11
9.50259,0.028196,-1.16678,17,4
19.1117,0.0533726,3.02701,9,12
6.56889,0.0171952,-0.574705,12,5
18.9395,0.0495772,3.68147,16,13
12.4069,0.0303178,-0.650222,35,6
13.0994,0.0297238,3.02424,23,14
9.96846,0.0208749,-0.174,35,7
17.3596,0.0333313,4.6515,15,15
9.8365,0.00514835,0.171697,86,8
0.530057,0.000185174,-0.122373,15,1
18.4027,0.00321725,0.964447,11,9
0.712661,-0,-0.138527,24,2
14.132,-0.0024665,1.23639,57,10
22.0782,-0.00770674,2.71086,6,11
6.6838,-0.00349963,-0.820668,1,4
22.1736,-0.0154801,3.51195,20,12
6.62469,-0.00578114,-0.579586,2,5
19.0121,-0.0199095,3.69559,17,13
13.4116,-0.0163853,-0.702872,68,6
22.1844,-0.0309753,5.12169,20,14
10.9843,-0.015337,-0.191732,20,7
13.6678,-0.0214694,3.66229,5,15
9.73848,-0.027195,0.169986,80,8
0.530055,-0.00157271,-0.122373,15,1
18.4266,-0.0578891,0.965703,19,9
0.681246,-0.0021402,-0.132421,26,2
14.126,-0.0468436,1.23587,15,10
6.59179,-0.0230098,-1.04404,42,3
23.2612,-0.085257,2.85613,7,11
6.67383,-0.0256258,-0.81945,4,4
25.1938,-0.101135,3.99033,10,12
10.1312,-0.0424378,-0.886374,19,5
20.1526,-0.0844156,3.91731,22,13
13.4993,-0.0589024,-0.707478,26,6
21.3911,-0.0970704,4.93858,4,14
10.6383,-0.050132,-0.185694,82,7
13.5866,-0.0663969,3.64055,6,15
9.61235,-0.0603969,0.167787,100,8
0.553431,-0.00357395,-0.127772,14,1
13.7928,-0.0914784,0.722864,8,9
0.693013,-0.00471726,-0.134711,25,2
17.1282,-0.119579,1.49856,13,10
6.58376,-0.0471132,-1.04279,38,3
25.9862,-0.185956,3.19078,18,11
6.69951,-0.0491108,-0.822618,15,4
25.2644,-0.18961,4.00159,21,12
20.1757,-0.158463,3.92189,22,13
13.541,-0.108716,-0.709676,16,6
22.2129,-0.182218,5.12843,20,14
10.2841,-0.0843627,-0.179515,100,7
9.924,-0.0987309,0.173233,87,8
0.553414,-0.00560235,-0.127772,14,1
17.571,-0.180942,0.920904,8,9
0.712624,-0.00733846,-0.138527,24,2
17.2033,-0.18016,1.50518,16,10
21.9419,-0.237444,2.69429,13,11
6.68936,-0.0735563,-0.821399,9,4
25.299,-0.282605,4.00723,5,12
10.0629,-0.112409,-0.880447,15,5
20.1849,-0.229,3.9238,16,13
13.2829,-0.153015,-0.696173,52,6
17.9447,-0.20985,4.14315,23,14
10.2777,-0.121984,-0.179411,30,7
13.4287,-0.18048,0.234421,17,8
0.580671,-0.00790549,-0.134071,14,1
14.0374,-0.193561,0.735739,22,9
0.704741,-0.00971766,-0.137001,24,2
14.2641,-0.199178,1.24807,8,10
25.8194,-0.369545,3.17055,9,11
6.73471,-0.0975674,-0.827005,2,4
25.7719,-0.377864,4.08231,8,12
8.49663,-0.124576,-0.743438,2,5
20.1997,-0.29969,3.92685,24,13
13.0247,-0.195513,-0.68267,58,6
23.1737,-0.351905,5.35069,23,14
10.5292,-0.161729,-0.183809,35,7
13.2992,-0.206599,3.56394,4,15
13.8059,-0.233752,0.241018,24,8
0.568949,-0.00973238,-0.131371,14,1
11.0332,-0.190659,0.578312,22,9
0.688999,-0.0119062,-0.133948,26,2
14.1996,-0.247855,1.24249,28,10
6.62241,-0.116751,-1.04905,25,3
22.1898,-0.395073,2.725,6,11
8.00061,-0.143842,-0.982511,8,4
25.6302,-0.465276,4.0601,26,12
11.3169,-0.207416,-0.990264,55,5
20.1239,-0.368831,3.91235,26,13
12.96,-0.239794,-0.679321,58,6
23.0379,-0.430283,5.31964,28,14
10.2446,-0.193129,-0.178852,23,7
13.3814,-0.254601,3.5862,12,15
11.5118,-0.235109,0.200982,47,8
0.561118,-0.0115578,-0.129572,14,1
14.481,-0.300805,0.759081,45,9
0.708579,-0.0148426,-0.137764,24,2
14.1607,-0.299098,1.23918,28,10
7.02285,-0.14956,-1.11256,10,3
25.9611,-0.552874,3.18835,18,11
7.04148,-0.151187,-0.864785,12,4
25.6028,-0.554184,4.05603,10,12
11.3539,-0.247743,-0.993575,40,5
20.2245,-0.444831,3.93219,15,13
12.9431,-0.286939,-0.678483,55,6
21.7172,-0.485247,5.01506,4,14
10.3518,-0.231301,-0.180737,29,7
13.4094,-0.301961,3.59396,18,15
11.5409,-0.278022,0.201505,36,8
0.592243,-0.0143707,-0.13677,13,1
14.3181,-0.349926,0.750602,45,9
0.696747,-0.0170281,-0.135474,25,2
12.7873,-0.314747,1.11908,2,10
31.6285,-0.789556,3.88471,12,11
9.76754,-0.245537,-1.19968,15,4
25.5611,-0.64702,4.04978,28,12
14.6473,-0.37332,-1.28189,21,5
21.8223,-0.556193,4.24321,24,13
12.8621,-0.330067,-0.674297,71,6
17.3575,-0.448459,4.00863,22,14
10.3949,-0.270385,-0.181505,27,7
13.246,-0.34686,3.55048,8,15
0.529853,-0.0147076,-0.122373,15,1
11.6415,-0.325176,0.610342,38,9
0.700605,-0.019692,-0.136238,25,2
12.8,-0.362007,1.1203,52,10
26.0001,-0.739874,3.19371,37,11
8.07006,-0.231056,-0.991285,2,4
25.8252,-0.743919,4.09201,11,12
14.6021,-0.423176,-1.27805,10,5
21.8476,-0.636973,4.24855,27,13
9.0397,-0.265134,-0.473954,94,6
17.3051,-0.51058,3.99693,22,14
14.0138,-0.413471,-0.244718,70,7
13.3297,-0.395616,3.57326,8,15
0.549274,-0.0172616,-0.126872,15,1
13.7962,-0.433564,0.723388,14,9
0.724079,-0.0228816,-0.140817,23,2
12.7787,-0.406052,1.11856,59,10
7.4493,-0.238008,-1.18045,13,3
17.9479,-0.576578,2.20486,33,11
22.2331,-0.718126,3.52322,10,12
14.5149,-0.471364,-1.27056,15,5
21.7413,-0.709836,4.22833,27,13
9.16648,-0.30088,-0.480653,87,6
22.9086,-0.755954,5.29175,50,14
13.4107,-0.442534,-0.234211,27,7
12.4188,-0.411975,3.32945,1,15
11.7572,-0.406461,0.205345,37,8
0.529738,-0.0184063,-0.122373,15,1
11.6649,-0.407346,0.611703,15,9
0.708299,-0.0248581,-0.137764,24,2
12.7035,-0.448057,1.11211,49,10
17.8864,-0.633982,2.19755,33,11
11.4289,-0.407094,-1.40418,20,4
18.152,-0.649741,2.87683,9,12
8.35466,-0.300511,-0.731411,26,5
21.7761,-0.78327,4.23558,24,13
9.02571,-0.326226,-0.473326,94,6
22.9956,-0.835171,5.31244,28,14
9.22046,-0.336487,-0.161051,22,7
12.4154,-0.455252,3.32893,15,15
11.7137,-0.445901,0.204612,13,8
0.545249,-0.020851,-0.125973,15,1
14.192,-0.545203,0.744322,23,9
0.692518,-0.0266039,-0.134711,25,2
12.6024,-0.48634,1.10339,64,10
9.09965,-0.352755,-1.44233,32,3
13.7899,-0.536986,1.69447,48,11
8.48574,-0.331922,-1.04271,11,4
16.833,-0.661371,2.66815,13,12
8.32768,-0.328651,-0.729145,32,5
21.7673,-0.859046,4.23443,18,13
8.82695,-0.349898,-0.462964,36,6
14.2204,-0.566178,3.28564,18,14
8.81961,-0.35269,-0.15407,22,7
13.0083,-0.522466,3.48836,32,15
0.529596,-0.0221041,-0.122373,15,1
17.0875,-0.71618,0.896306,9,9
0.700262,-0.0294721,-0.136238,25,2
12.6026,-0.532611,1.10357,64,10
7.9319,-0.336606,-1.25742,28,3
13.7086,-0.581752,1.68472,45,11
8.39726,-0.357822,-1.03199,48,4
13.9512,-0.596924,2.21167,21,12
13.2926,-0.573395,2.58623,10,13
23.5147,-1.02256,5.43392,30,14
8.80234,-0.382779,-0.153791,100,7
13.016,-0.568291,3.49095,16,15
11.5324,-0.521668,0.201505,50,8
0.552872,-0.0251058,-0.127772,14,1
16.9491,-0.772619,0.889188,26,9
0.708,-0.0322739,-0.137764,24,2
12.5529,-0.574413,1.09938,54,10
7.37223,-0.338639,-1.16888,10,3
13.6945,-0.631444,1.68326,45,11
16.6818,-0.775024,2.64499,30,12
8.35902,-0.388353,-0.732108,13,5
13.2239,-0.616682,2.57325,10,13
8.72646,-0.408476,-0.457835,58,6
14.2257,-0.668379,3.28788,11,14
8.71499,-0.410988,-0.15229,100,7
12.9367,-0.61234,3.47025,36,15
11.5326,-0.562018,0.20154,58,8
0.548889,-0.0268451,-0.126872,15,1
16.8984,-0.829428,0.886676,17,9
0.721609,-0.0354188,-0.140435,35,2
12.5508,-0.618227,1.09938,45,10
8.88033,-0.438981,-1.40822,13,3
13.6129,-0.675309,1.67351,45,11
6.67356,-0.332229,-0.820424,11,4
13.8814,-0.693488,2.20135,11,12
8.86902,-0.443078,-0.776906,31,5
21.8354,-1.09467,4.2497,15,13
8.74493,-0.439938,-0.458882,79,6
11.3564,-0.573305,2.62518,34,14
8.7155,-0.441508,-0.152325,22,7
12.7801,-0.649647,3.42883,21,15
11.5505,-0.603314,0.201889,63,8
0.531277,-0.027843,-0.122823,15,1
13.7921,-0.722814,0.723806,11,9
0.71952,-0.0378344,-0.140054,23,2
12.8072,-0.67568,1.12204,54,10
8.31457,-0.440114,-1.31874,27,3
13.4142,-0.7124,1.64938,48,11
11.7331,-0.625174,-1.44269,26,4
22.0455,-1.17465,3.49662,24,12
12.2636,-0.655585,-1.07446,14,5
8.80915,-0.474003,-0.462336,65,6
11.3758,-0.614098,2.63013,44,14
9.16326,-0.49466,-0.160178,32,7
12.8049,-0.693487,3.43608,25,15
11.5544,-0.641946,0.201994,61,8
0.55453,-0.030906,-0.128222,14,1
13.5063,-0.755122,0.708943,48,9
0.713503,-0.040016,-0.138909,24,2
13.0435,-0.733811,1.14296,57,10
7.93834,-0.446602,-1.2593,55,3
12.2087,-0.688987,1.50143,38,11
11.7488,-0.665089,-1.44488,16,4
22.0709,-1.25328,3.50132,30,12
8.85775,-0.504531,-0.776209,27,5
8.72578,-0.498541,-0.458044,83,6
11.4359,-0.655387,2.64452,48,14
9.24932,-0.531693,-0.161714,100,7
11.8998,-0.686136,3.19383,12,15
11.5142,-0.680035,0.201331,58,8
0.531075,-0.0314587,-0.122823,15,1
13.5036,-0.802263,0.708943,56,9
0.695721,-0.0414553,-0.135474,25,2
12.6989,-0.756677,1.11298,54,10
7.93476,-0.474191,-1.25898,82,3
12.2142,-0.732075,1.50241,45,11
12.004,-0.721581,-1.47657,21,4
22.1689,-1.33649,3.51759,10,12
8.75451,-0.529315,-0.767319,27,5
8.72588,-0.530641,-0.458149,100,6
11.3032,-0.687376,2.61438,64,14
9.31727,-0.568236,-0.162936,22,7
11.8877,-0.72708,3.19124,32,15
11.6593,-0.731498,0.203914,55,8
0.554295,-0.0348733,-0.128222,14,1
13.5006,-0.851751,0.708943,42,9
0.70928,-0.0448727,-0.138146,24,2
12.5151,-0.791768,1.09712,57,10
7.862,-0.498768,-1.24772,32,3
12.0212,-0.764738,1.47901,49,11
8.35217,-0.532792,-1.0276,11,4
24.3166,-1.55544,3.85924,11,12
6.0345,-0.387061,-0.529035,12,5
8.72986,-0.563005,-0.458463,100,6
11.2559,-0.725915,2.60403,52,14
9.16346,-0.592574,-0.160283,27,7
11.9697,-0.776146,3.21402,35,15
11.6984,-0.77701,0.204647,60,8
0.53083,-0.0353508,-0.122823,15,1
13.5394,-0.901659,0.711141,8,9
0.716955,-0.0478715,-0.139672,23,2
12.5678,-0.841359,1.102,42,10
6.17496,-0.414471,-0.980218,37,3
11.9332,-0.803062,1.46853,52,11
6.14577,-0.414666,-0.756321,29,4
16.932,-1.14243,2.68786,17,12
6.051,-0.409333,-0.530604,26,5
11.156,-0.760538,2.58154,44,14
9.1773,-0.625645,-0.160562,34,7
11.8301,-0.80857,3.17726,32,15
11.7078,-0.816634,0.204856,47,8
0.55015,-0.0384702,-0.127322,15,1
13.4923,-0.945842,0.708838,12,9
0.718742,-0.0505114,-0.140054,23,2
12.3262,-0.868421,1.08108,58,10
6.1637,-0.434251,-0.978654,57,3
12.0889,-0.853818,1.48802,42,11
6.11466,-0.432941,-0.752665,19,4
11.9683,-0.849502,1.90037,19,12
6.08134,-0.432715,-0.533393,28,5
13.5221,-0.962159,2.63507,15,13
8.93501,-0.637334,-0.469454,36,6
11.0951,-0.793359,2.56804,39,14
10.7905,-0.775369,2.89877,5,15
11.665,-0.854574,0.204158,47,8
0.530577,-0.0389632,-0.122823,15,1
13.469,-0.991467,0.707792,29,9
0.697033,-0.0513092,-0.135856,25,2
12.1882,-0.899322,1.06923,49,10
7.46825,-0.552366,-1.18609,51,3
12.3273,-0.913916,1.51776,24,11
6.22793,-0.462815,-0.766802,23,4
11.9889,-0.893035,1.90412,17,12
8.68257,-0.648274,-0.761741,11,5
12.9333,-0.965647,2.52097,6,13
8.96061,-0.670606,-0.470919,29,6
11.1253,-0.834561,2.57569,30,14
5.99018,-0.450404,-0.104854,20,7
11.6719,-0.896052,0.204333,55,8
0.511008,-0.0393199,-0.118324,16,1
13.4217,-1.0351,0.705489,40,9
0.702712,-0.0543175,-0.137001,24,2
12.1371,-0.940294,1.06504,49,10
12.5002,-0.970618,1.53945,3,11
11.7044,-0.910883,-1.44147,50,4
16.8876,-1.31722,2.68285,15,12
6.03248,-0.471589,-0.529384,32,5
17.1632,-1.34474,3.34641,8,13
9.01783,-0.708135,-0.474059,39,6
11.3572,-0.893832,2.63013,56,14
9.18021,-0.722498,-0.160737,68,7
10.7637,-0.849011,2.89308,27,15
11.6546,-0.937703,0.204088,27,8
0.530285,-0.0427589,-0.122823,15,1
13.4737,-1.08644,0.70842,35,9
0.698605,-0.0564538,-0.136238,25,2
12.1219,-0.98169,1.064,40,10
10.1085,-0.822186,1.24526,5,11
11.7248,-0.955711,-1.4444,42,4
16.7293,-1.36364,2.65845,26,12
8.66394,-0.707738,-0.760521,89,5
17.1153,-1.40112,3.33801,15,13
11.3443,-0.932673,2.62788,58,14
13.5622,-1.11501,-0.237527,72,7
10.7414,-0.884992,2.8879,32,15
11.7171,-0.981857,0.20524,41,8
0.506837,-0.0425603,-0.117424,16,1
13.3922,-1.12693,0.704337,20,9
0.712097,-0.0600468,-0.138909,24,2
12.2057,-1.03138,1.07167,24,10
7.48962,-0.63287,-1.19047,43,3
10.0859,-0.854027,1.24282,37,11
8.77632,-0.744681,-1.08147,52,4
12.0498,-1.02456,1.91538,9,12
8.91552,-0.759627,-0.782833,60,5
10.89,-0.927857,2.12447,21,13
9.769,-0.834064,-0.513834,100,6
11.3373,-0.969954,2.62698,46,14
13.5343,-1.1603,-0.237108,36,7
10.7248,-0.921323,2.88428,30,15
12.0204,-1.04954,0.210616,28,8
0.529982,-0.0463674,-0.122823,15,1
10.5411,-0.924076,0.554552,39,9
0.71385,-0.0625793,-0.139291,24,2
12.23,-1.07429,1.07411,33,10
7.2591,-0.638919,-1.15417,33,3
10.1343,-0.893763,1.24916,23,11
8.78977,-0.779827,-0.772026,52,5
13.1317,-1.16504,2.56256,7,13
8.79918,-0.78221,-0.462964,65,6
11.3222,-1.00849,2.62428,56,14
9.21596,-0.822503,-0.161505,68,7
10.733,-0.959786,2.88739,24,15
11.9609,-1.08643,0.209638,12,8
0.529817,-0.0482171,-0.122823,15,1
16.1826,-1.47558,0.851611,10,9
0.707751,-0.0646595,-0.138146,36,2
13.1069,-1.19974,1.1515,60,10
13.4106,-1.2299,1.65352,15,11
6.16158,-0.566169,-0.759734,22,4
9.79792,-0.902027,1.5584,23,12
9.16815,-0.84889,-0.482538,79,6
11.3145,-1.04962,2.62338,22,14
9.19312,-0.85282,-0.161156,100,7
11.2959,-1.06778,0.19805,13,8
0.552917,-0.0523634,-0.128222,14,1
10.5004,-0.996275,0.552772,12,9
0.691885,-0.065646,-0.135093,25,2
12.468,-1.18516,1.09572,47,10
6.12362,-0.583166,-0.974274,26,3
10.2027,-0.973423,1.25842,25,11
6.18515,-0.591204,-0.762902,11,4
10.0069,-0.958268,1.59219,60,12
6.13242,-0.587244,-0.538971,13,5
10.7857,-1.03474,2.10615,42,13
9.05976,-0.87076,-0.47699,65,6
11.3612,-1.09396,2.63508,46,14
16.5486,-1.59637,-0.290199,31,7
11.9162,-1.15159,3.2078,2,15
9.40944,-0.922603,0.16503,13,8
0.541094,-0.0531501,-0.125523,15,1
10.5286,-1.03605,0.554447,7,9
0.713143,-0.0701757,-0.139291,24,2
12.5133,-1.23356,1.10008,26,10
6.1471,-0.607062,-0.978341,41,3
10.1973,-1.00884,1.25818,63,11
6.19095,-0.613574,-0.763877,31,4
10.2099,-1.01369,1.62504,38,12
6.1105,-0.606678,-0.537228,2,5
10.8054,-1.07472,2.11073,47,13
8.98114,-0.894854,-0.473012,43,6
11.2817,-1.12606,2.61753,18,14
9.44545,-0.944447,-0.165693,94,7
12.3638,-1.23843,3.32945,1,15
9.40417,-0.955241,0.164995,57,8
0.529273,-0.0538549,-0.122823,15,1
0.714847,-0.0728636,-0.139672,35,2
12.7587,-1.30273,1.12204,30,10
6.14887,-0.628917,-0.978967,38,3
12.903,-1.32202,1.59259,18,11
6.18679,-0.634978,-0.763633,6,4
10.2654,-1.05359,1.63443,56,12
7.28562,-0.74904,-0.640769,2,5
10.7411,-1.10619,2.0989,39,13
11.0243,-1.1373,-0.580824,54,6
9.28712,-0.959731,-0.162971,68,7
11.5487,-1.19548,3.11101,19,15
10.7991,-1.13312,0.189533,25,8
0.529092,-0.0556098,-0.122823,15,1
11.8581,-1.24843,0.624891,40,9
0.714589,-0.0753585,-0.139672,23,2
16.3383,-1.72588,1.43737,15,10
7.35882,-0.777339,-1.17201,42,3
10.2593,-1.08553,1.26671,36,11
7.35328,-0.77935,-0.907927,15,4
10.7354,-1.1416,2.09852,43,13
14.6013,-1.55527,-0.769548,13,6
9.39904,-1.00447,-0.164995,100,7
11.5464,-1.23599,3.11152,28,15
10.809,-1.17232,0.189777,36,8
0.552143,-0.0599819,-0.128222,14,1
12.1299,-1.31773,0.639441,21,9
0.698721,-0.0760288,-0.136619,25,2
12.292,-1.33968,1.08178,31,10
7.38159,-0.805808,-1.17607,23,3
10.4922,-1.14723,1.29596,24,11
9.16184,-1.005,-0.806365,28,5
10.7626,-1.1825,2.10462,44,13
9.17792,-1.01001,-0.483898,58,6
11.4361,-1.26054,2.65622,28,14
10.8804,-1.19929,-0.191069,64,7
11.5461,-1.2747,3.11256,29,15
9.43774,-1.05528,0.165763,11,8
0.579053,-0.0648489,-0.134521,14,1
16.0532,-1.80065,0.846587,15,9
0.706255,-0.079344,-0.138146,36,2
12.2298,-1.37612,1.07672,33,10
7.39654,-0.83227,-1.17889,6,3
9.865,-1.11177,1.21894,60,11
8.29859,-0.936702,-1.02541,74,4
10.3051,-1.16501,1.64256,56,12
8.38222,-0.949106,-0.738035,48,5
10.8093,-1.22392,2.11455,42,13
9.14674,-1.03729,-0.482433,50,6
11.1317,-1.26436,2.58649,58,14
13.5923,-1.54624,-0.238784,99,7
11.5224,-1.31281,3.10738,36,15
7.32784,-0.849156,0.128764,42,8
0.567174,-0.0658249,-0.131821,14,1
9.44338,-1.09765,0.498238,32,9
0.709846,-0.0825086,-0.138909,24,2
12.1928,-1.41938,1.07393,20,10
7.40688,-0.863556,-1.18108,12,3
10.2785,-1.20017,1.27061,33,11
8.29476,-0.970007,-1.02541,71,4
10.3474,-1.21188,1.65007,47,12
8.47547,-0.99264,-0.746576,33,5
10.7926,-1.26593,2.11226,35,13
9.30317,-1.09287,-0.490911,94,6
11.1091,-1.30699,2.58244,56,14
9.65572,-1.1377,-0.169707,8,7
11.4767,-1.3543,3.09651,39,15
7.32682,-0.874967,0.128799,41,8
0.547591,-0.0654902,-0.127322,15,1
11.7181,-1.40352,0.618506,32,9
0.701756,-0.084052,-0.137382,24,2
12.1858,-1.46169,1.07376,49,10
10.7985,-1.29911,1.33544,65,11
8.33468,-1.00418,-1.03077,64,4
9.69594,-1.1699,1.54682,35,12
8.41262,-1.01506,-0.741347,22,5
10.0377,-1.21292,1.96533,35,13
14.3059,-1.7312,-0.755208,35,6
11.0542,-1.33967,2.57074,26,14
9.63581,-1.16947,-0.169428,22,7
11.4048,-1.38619,3.07839,25,15
14.0996,-1.73372,0.247964,13,8
0.528018,-0.0650195,-0.122823,15,1
11.6635,-1.4383,0.61589,31,9
0.705355,-0.0869816,-0.138146,36,2
12.1134,-1.49592,1.06783,27,10
8.45539,-1.04568,-1.3494,67,3
10.1497,-1.25701,1.25574,43,11
8.47296,-1.05086,-1.04832,11,4
9.50557,-1.18061,1.5171,13,12
8.26648,-1.02818,-0.728796,28,5
10.1016,-1.25644,1.97869,41,13
9.35081,-1.16471,-0.493842,35,6
11.1075,-1.38548,2.58424,24,14
9.63564,-1.2036,-0.169498,22,7
11.35,-1.41976,3.06494,34,15
7.33243,-0.927602,0.129008,38,8
