x, y, z, intensity, ring
-3.4452,-1.50016,0.328751,1,10
-3.38965,-1.47316,0.585378,5,12
-0.507984,-0.220772,-0.0484586,11,5
-2.7226,-1.18156,0.685201,4,14
-2.90591,-1.26051,-0.0552892,1,7
-2.44595,-1.06049,0.714341,1,15
-3.39965,-1.46764,0.194062,1,9
-3.45748,-1.49189,0.329449,1,10
-3.38,-1.45566,0.582875,5,12
-0.508713,-0.219086,-0.0484586,11,5
-2.73545,-1.17637,0.68745,4,14
-2.88067,-1.23823,-0.0547307,1,7
-2.44946,-1.05237,0.714341,1,15
-2.93961,-1.2581,0.0558128,1,8
-0.48734,-0.208472,-0.122373,15,1
-3.42128,-1.46283,0.195004,1,9
-3.4993,-1.49547,0.332935,1,10
-3.52352,-1.50436,0.470416,1,11
-3.38869,-1.4454,0.583501,5,12
-0.472822,-0.201676,-0.0449724,12,5
-2.76106,-1.17598,0.692849,4,14
-2.84082,-1.20937,-0.053893,3,7
-2.46023,-1.04684,0.716411,2,15
-2.94398,-1.24783,0.0558128,1,8
-0.488065,-0.206769,-0.122373,15,1
-3.43005,-1.45244,0.195213,1,9
-3.44946,-1.45995,0.327706,1,10
-3.52875,-1.49205,0.470416,1,11
-3.401,-1.43664,0.584752,5,12
-2.76155,-1.16482,0.691949,5,14
-2.87082,-1.21032,-0.0543817,3,7
-2.46386,-1.03824,0.716411,2,15
-3.0147,-1.2654,0.0570694,1,8
-0.488784,-0.205064,-0.122373,15,1
-3.44431,-1.44432,0.195736,0,9
-3.45453,-1.4479,0.327706,1,10
-3.39688,-1.42095,0.583188,4,12
-0.510979,-0.213747,-0.0484586,11,5
-2.7656,-1.15517,0.691949,5,14
-2.87134,-1.19875,-0.0543119,3,7
-2.46747,-1.02964,0.716411,1,15
-0.489496,-0.203357,-0.122373,15,1
-3.4417,-1.42982,0.195318,0,9
-3.47797,-1.44347,0.329449,1,10
-3.53908,-1.46738,0.470416,1,11
-3.39427,-1.40665,0.581936,4,12
-0.511722,-0.211962,-0.0484586,11,5
-2.76241,-1.14254,0.69015,5,14
-2.86421,-1.18464,-0.0541025,3,7
-2.48516,-1.02735,0.720552,1,15
-0.490168,-0.201733,-0.122373,15,1
-3.45221,-1.42008,0.195632,1,9
-3.51984,-1.44646,0.332935,1,10
-3.54393,-1.45564,0.470416,1,11
-3.39185,-1.39179,0.580685,4,12
-0.512459,-0.210175,-0.0484586,11,5
-2.76258,-1.13189,0.68925,4,14
-2.89424,-1.18524,-0.0545911,1,7
-2.47442,-1.01282,0.716411,1,15
-0.490869,-0.20002,-0.122373,15,1
-3.4458,-1.4041,0.195004,1,9
-3.52462,-1.43478,0.332935,1,10
-3.54899,-1.44326,0.470416,1,11
-3.38547,-1.37607,0.578808,4,12
-2.7936,-1.13323,0.695999,1,14
-2.91668,-1.18316,-0.0549402,1,7
-2.57445,-1.0438,0.744364,1,15
-0.466231,-0.18818,-0.116075,16,1
-3.48032,-1.40402,0.196679,1,9
-3.52961,-1.42247,0.332935,1,10
-3.55375,-1.43148,0.470416,1,11
-3.39758,-1.3672,0.580059,2,12
-0.513878,-0.206682,-0.0484586,11,5
-2.92822,-1.17595,-0.0550798,1,7
-3.47592,-1.38816,0.196155,1,9
-3.4973,-1.39599,0.329449,1,10
-3.55873,-1.41907,0.470416,1,11
-3.40233,-1.35533,0.580059,2,12
-0.51456,-0.204977,-0.0484586,11,5
-2.94345,-1.17015,-0.0552892,1,7
-3.34506,-1.32373,0.0627938,1,8
-0.45666,-0.18062,-0.113375,16,1
-3.46403,-1.36941,0.195213,1,9
-3.48362,-1.37645,0.327706,1,10
-3.37948,-1.33258,0.575366,2,12
-0.515273,-0.203179,-0.0484586,11,5
-2.94752,-1.15987,-0.0552892,1,7
-3.53585,-1.38497,0.0662842,1,8
-0.49358,-0.193233,-0.122373,15,1
-3.46855,-1.35791,0.195213,1,9
-3.50696,-1.37154,0.329449,1,10
-3.37284,-1.31705,0.573489,2,12
-0.515979,-0.201379,-0.0484586,11,5
-2.95135,-1.15009,-0.0552892,1,7
-3.48822,-1.35299,0.0653069,1,8
-0.457879,-0.177508,-0.113375,16,1
-3.48607,-1.35146,0.195946,1,9
-3.52263,-1.36422,0.330495,1,10
-3.3735,-1.30443,0.572863,2,12
-0.516644,-0.199667,-0.0484586,11,5
-3.07122,-1.18632,0.639973,1,13
-3.48522,-1.33855,0.0651673,1,8
-3.48331,-1.33642,0.195527,1,9
-3.50853,-1.3454,0.328751,1,10
-3.38173,-1.29406,0.573489,2,12
-3.0568,-1.16911,0.636157,2,13
-2.85985,-1.09264,0.706796,1,14
-2.53042,-0.965768,0.725729,1,15
-3.48614,-1.32496,0.0650975,1,8
-0.495511,-0.188227,-0.122373,15,1
-3.49356,-1.32638,0.195841,1,9
-3.55815,-1.34948,0.332935,1,10
-3.38622,-1.28225,0.573489,2,12
-0.518025,-0.196056,-0.0484586,11,5
-3.04638,-1.15234,0.633104,2,13
-2.80368,-1.05942,0.691949,3,14
-2.50847,-0.947373,0.718482,1,15
-3.49471,-1.31358,0.0651673,1,8
-0.472482,-0.1775,-0.116525,16,1
-3.50961,-1.31778,0.196469,1,9
-3.52553,-1.32306,0.329449,1,10
-3.3983,-1.2726,0.57474,2,12
-3.05222,-1.14239,0.633486,2,13
-2.80736,-1.04963,0.691949,4,14
-2.50107,-0.934118,0.715376,1,15
-3.51052,-1.30555,0.0653767,1,8
-0.498672,-0.185355,-0.122823,15,1
-3.51419,-1.30552,0.196469,1,9
-3.56749,-1.32461,0.332935,1,10
-3.3879,-1.25524,0.572237,2,12
-3.08196,-1.14128,0.638829,2,13
-0.52821,-0.195496,-0.0295175,16,6
-2.80735,-1.03847,0.69105,4,14
-2.50069,-0.924042,0.714341,1,15
-3.5038,-1.28915,0.0651673,1,8
-0.47371,-0.174198,-0.116525,16,1
-3.49038,-1.28352,0.194899,1,9
-3.57209,-1.31215,0.332935,1,10
-3.39576,-1.24536,0.572863,2,12
-3.0804,-1.12849,0.637684,2,13
-2.81261,-1.02982,0.6915,4,14
-2.52552,-0.923707,0.720552,1,15
-3.5306,-1.28573,0.0655861,1,8
-3.52465,-1.28287,0.196574,1,9
-3.53897,-1.28668,0.329449,1,10
-3.60109,-1.30784,0.470416,1,11
-3.38873,-1.23005,0.570986,2,12
-0.520679,-0.188895,-0.0484586,11,5
-3.08781,-1.1196,0.638447,2,13
-0.529529,-0.191896,-0.0295175,16,6
-2.80502,-1.01651,0.6888,3,14
-2.51403,-0.910067,0.716411,1,15
-3.52535,-1.2692,0.196365,1,9
-3.58071,-1.28843,0.332935,1,10
-3.4339,-1.2329,0.577869,2,12
-0.521303,-0.187167,-0.0484586,11,5
-3.08412,-1.1067,0.63692,2,13
-2.81222,-1.00803,0.6897,1,14
-2.52447,-0.90389,0.718482,1,15
-0.471778,-0.168085,-0.115625,16,1
-3.52787,-1.25622,0.19626,1,9
-3.58519,-1.27592,0.332935,1,10
-3.60991,-1.2833,0.470416,1,11
-3.42701,-1.21694,0.575992,2,12
-0.521953,-0.185346,-0.0484586,11,5
-3.10091,-1.10053,0.639592,2,13
-2.80653,-0.994948,0.68745,1,14
-2.51668,-0.891204,0.715376,1,15
-0.46501,-0.163847,-0.113825,16,1
-3.54897,-1.25049,0.197202,1,9
-3.58962,-1.2634,0.332935,1,10
-3.37512,-1.18592,0.566606,2,12
-3.07324,-1.07864,0.633104,2,13
-2.8043,-0.983701,0.686101,1,14
-1.72479,-0.604691,-0.031903,1,7
-2.51962,-0.882853,0.715376,1,15
-1.69742,-0.592101,0.0313794,1,8
-0.476591,-0.166153,-0.116525,16,1
-3.55122,-1.23805,0.197097,1,9
-3.59379,-1.25149,0.332935,1,10
-3.37717,-1.17407,0.566293,4,12
-3.13986,-1.09034,0.646079,1,13
-2.82043,-0.978869,0.68925,1,14
-1.71168,-0.593725,-0.0316238,4,7
-2.53349,-0.87829,0.718482,1,15
-1.69937,-0.586469,0.0313794,1,8
-0.466086,-0.160759,-0.113825,16,1
-3.53831,-1.22041,0.196155,1,9
-3.59792,-1.23957,0.332935,1,10
-3.62271,-1.24669,0.470416,1,11
-3.3661,-1.15773,0.56379,4,12
-2.81814,-0.967612,0.6879,1,14
-1.70985,-0.586747,-0.031554,4,7
-2.56197,-0.878658,0.725729,1,15
-1.70131,-0.580831,0.0313794,1,8
-0.473994,-0.16173,-0.115625,16,1
-3.61039,-1.23189,0.199923,0,9
-3.60201,-1.22763,0.332935,1,10
-3.62683,-1.23467,0.470416,1,11
-3.38114,-1.15038,0.565667,4,12
-2.82871,-0.960769,0.6897,1,14
-1.70611,-0.579146,-0.0314492,4,7
-2.50267,-0.849055,0.708129,1,15
-1.69206,-0.570756,0.03117,1,8
-0.467197,-0.157502,-0.113825,16,1
-3.60649,-1.21442,0.332935,1,10
-3.38179,-1.13613,0.565041,4,12
-0.525046,-0.176392,-0.0484586,11,5
-2.8176,-0.944943,0.686101,1,14
-1.69126,-0.566871,-0.0311351,1,7
-1.67128,-0.557256,0.0307511,1,8
-3.6107,-1.20182,0.332935,1,10
-3.38198,-1.12307,0.564416,4,12
-3.13783,-1.04138,0.642645,1,13
-2.83013,-0.938167,0.68835,1,14
-1.67804,-0.555933,-0.0308559,1,7
-1.65042,-0.543908,0.0303323,1,8
-0.479391,-0.157894,-0.116525,16,1
-1.73008,-0.569825,0.0954608,1,9
-3.61488,-1.18921,0.332935,1,10
-3.38569,-1.11185,0.564416,4,12
-3.12838,-1.02614,0.639973,2,13
-2.84248,-0.931813,0.6906,1,14
-1.65707,-0.542894,-0.030437,1,7
-1.6294,-0.530997,0.0299134,1,8
-1.73196,-0.564084,0.0954608,1,9
-3.6188,-1.17722,0.332935,1,10
-3.38184,-1.09817,0.563164,4,12
-0.526835,-0.170976,-0.0484586,11,5
-3.11496,-1.01031,0.636539,2,13
-2.8437,-0.921781,0.69015,1,14
-1.63603,-0.530001,-0.0300181,1,7
-1.62925,-0.524977,0.0298785,2,8
-0.480427,-0.154711,-0.116525,16,1
-1.74532,-0.561706,0.0960888,1,9
-3.62268,-1.16521,0.332935,1,10
-3.40823,-1.09361,0.566919,4,12
-0.478101,-0.153317,-0.0439265,12,5
-3.09399,-0.992181,0.631578,2,13
-2.8469,-0.911848,0.69015,1,14
-1.62644,-0.520629,-0.0298087,1,7
-1.66346,-0.5296,0.0304719,1,8
-0.484679,-0.154215,-0.117424,16,1
-1.70159,-0.541084,0.0935767,1,9
-3.62693,-1.15192,0.332935,1,10
-3.65169,-1.15909,0.470416,1,11
-3.41579,-1.0829,0.567544,3,12
-3.11632,-0.986761,0.635394,2,13
-2.84279,-0.899057,0.68835,1,14
-1.62444,-0.513743,-0.0297389,1,7
-1.62724,-0.511506,0.0297738,1,8
-0.485241,-0.152437,-0.117424,16,1
-1.7149,-0.538733,0.0942047,1,9
-3.63093,-1.13926,0.332935,1,10
-3.65591,-1.14569,0.470416,1,11
-3.44028,-1.07746,0.570986,2,12
-3.12537,-0.977636,0.636539,2,13
-2.83475,-0.885642,0.685651,1,14
-1.61095,-0.503298,-0.0294597,1,7
-1.63657,-0.508481,0.0299134,3,8
-1.70151,-0.528008,0.0933674,1,9
-3.63488,-1.12657,0.332935,1,10
-3.65969,-1.13356,0.470416,1,11
-3.45912,-1.07012,0.573489,2,12
-3.17361,-0.981184,0.645698,1,13
-2.84698,-0.879111,0.6879,1,14
-1.60888,-0.496493,-0.0293899,1,7
-1.63833,-0.502765,0.0299134,4,8
-0.478815,-0.146845,-0.115625,16,1
-1.70325,-0.522363,0.0933674,1,9
-3.6386,-1.11451,0.332935,1,10
-3.66363,-1.12078,0.470416,1,11
-3.46265,-1.05864,0.573489,2,12
-0.52971,-0.161848,-0.0484586,11,5
-3.13946,-0.958633,0.638065,1,13
-0.538703,-0.16439,-0.0295175,16,6
-1.59521,-0.486488,-0.0291106,1,7
-1.63808,-0.496749,0.0298785,4,8
-1.71645,-0.520187,0.0939954,1,9
-3.64228,-1.10244,0.332935,1,10
-3.66732,-1.10863,0.470416,1,11
-3.46614,-1.04715,0.573489,2,12
-3.15766,-0.952753,0.641118,1,13
-1.60831,-0.484658,-0.02932,2,7
-1.6378,-0.49074,0.0298436,4,8
-0.509647,-0.152611,-0.122823,15,1
-1.68764,-0.505031,0.0923206,1,9
-3.67098,-1.09646,0.470416,1,11
-3.45842,-1.03166,0.571612,2,12
-0.530772,-0.158331,-0.0484586,11,5
-3.15328,-0.940033,0.639592,1,13
-2.20951,-0.657843,0.532234,1,14
-1.60232,-0.476759,-0.0291804,3,7
-1.64909,-0.487857,0.0300181,5,8
-0.487752,-0.144201,-0.117424,16,1
-1.70088,-0.502533,0.0929487,1,9
-3.67478,-1.08364,0.470416,1,11
-3.47716,-1.02404,0.574115,2,12
-0.531322,-0.156477,-0.0484586,11,5
-3.16031,-0.930129,0.640355,1,13
-0.540339,-0.158928,-0.0295175,16,6
-2.18562,-0.642433,0.525936,1,14
-1.60781,-0.472291,-0.0292502,2,7
-1.63735,-0.478173,0.0297738,5,8
-1.72171,-0.502486,0.0939954,1,9
-3.65344,-1.06488,0.332935,1,10
-3.48433,-1.01361,0.57474,2,12
-3.13337,-0.910328,0.634249,2,13
-2.21779,-0.643488,0.533134,1,14
-1.60937,-0.466956,-0.0292502,1,7
-1.63124,-0.470524,0.0296342,4,8
-1.73113,-0.498684,0.0944141,1,9
-3.48785,-1.00144,0.57474,2,12
-0.532401,-0.152764,-0.0484586,11,5
-3.2194,-0.923758,0.65104,1,13
-2.27986,-0.653308,0.547531,1,14
-1.61099,-0.461336,-0.0292502,1,7
-1.63287,-0.464827,0.0296342,4,8
-0.489211,-0.139171,-0.117424,16,1
-1.71365,-0.487176,0.0933674,1,9
-3.49512,-0.990338,0.575366,2,12
-2.19962,-0.622015,0.527735,1,14
-1.60489,-0.453534,-0.0291106,2,7
-1.65373,-0.464532,0.0299832,1,8
-1.71149,-0.480112,0.093158,1,9
-3.33875,-0.933454,0.549085,2,12
-2.18581,-0.610701,0.44115,1,13
-2.17174,-0.605952,0.520537,1,14
-1.60647,-0.447929,-0.0291106,2,7
-0.465398,-0.129066,-0.12941,15,0
-1.66691,-0.461961,0.0301927,1,8
-0.512707,-0.141994,-0.122823,15,1
-1.69768,-0.47017,0.0923206,1,9
-3.26376,-0.900828,0.536257,3,12
-0.533946,-0.147274,-0.0484586,11,5
-2.21821,-0.611415,0.447256,1,13
-0.543005,-0.149568,-0.0295175,16,6
-2.17374,-0.598748,0.520537,1,14
-1.61951,-0.445784,-0.02932,3,7
-0.465823,-0.127522,-0.12941,15,0
-1.63757,-0.447988,0.0296342,1,8
-0.486858,-0.133098,-0.116525,16,1
-1.71849,-0.469804,0.0933674,1,9
-3.24386,-0.883769,0.532503,4,12
-2.23538,-0.608179,0.450309,1,13
-0.543498,-0.147767,-0.0295175,16,6
-2.2058,-0.599716,0.527735,1,14
-1.61712,-0.439362,-0.0292502,2,7
-1.64677,-0.44464,0.0297738,1,8
-0.487297,-0.131483,-0.116525,16,1
-1.73169,-0.466923,0.0939954,1,9
-3.28317,-0.88218,0.538447,1,12
-2.2298,-0.598726,0.448783,1,13
-0.543985,-0.145964,-0.0295175,16,6
-2.23423,-0.599079,0.534034,1,14
-1.61865,-0.433715,-0.0292502,2,7
-0.46668,-0.124348,-0.12941,15,0
-1.64831,-0.438889,0.0297738,3,8
-0.483986,-0.128779,-0.115625,16,1
-1.85685,-0.493721,0.100694,1,9
-2.19392,-0.580889,0.44115,1,13
-0.544491,-0.144064,-0.0295175,16,6
-2.24384,-0.593269,0.535833,1,14
-1.65108,-0.436235,-0.0298087,2,7
-0.49327,-0.129591,-0.136656,14,0
-1.65757,-0.435165,0.0299134,4,8
-0.488203,-0.128078,-0.116525,16,1
-2.23032,-0.583034,0.365118,1,12
-2.19594,-0.573227,0.44115,1,13
-2.2195,-0.578551,0.529535,1,14
-1.65639,-0.431766,-0.0298785,1,7
-0.467537,-0.121088,-0.12941,15,0
-1.66675,-0.431671,0.030053,4,8
-0.488625,-0.126458,-0.116525,16,1
-2.22851,-0.574258,0.364492,1,12
-0.536387,-0.13812,-0.0484586,11,5
-2.19783,-0.565942,0.44115,1,13
-2.24783,-0.577981,0.535833,1,14
-1.65401,-0.424986,-0.0298087,1,7
-1.66824,-0.42585,0.030053,3,8
-0.490952,-0.125233,-0.116975,16,1
-3.40998,-0.869826,0.184432,0,9
-2.21892,-0.563946,0.362615,1,12
-0.536842,-0.13634,-0.0484586,11,5
-2.19979,-0.558267,0.44115,1,13
-2.37451,-0.601726,0.565527,1,14
-1.65929,-0.420481,-0.0298785,2,7
-1.66383,-0.418851,0.0299483,2,8
-0.483805,-0.121703,-0.115175,16,1
-3.413,-0.857919,0.184432,0,9
-2.19788,-0.550438,0.358861,1,12
-0.537314,-0.134466,-0.0484586,11,5
-2.20163,-0.550969,0.44115,1,13
-2.23281,-0.557943,0.531334,1,14
-1.68403,-0.420501,-0.0302974,2,7
-0.562487,-0.139618,-0.155291,12,0
-1.69439,-0.420262,0.0304719,1,8
-0.48801,-0.120951,-0.116075,16,1
-2.25732,-0.556959,0.368247,1,12
-0.487464,-0.120274,-0.0439265,12,5
-2.23404,-0.5508,0.447256,1,13
-2.23853,-0.551078,0.532234,1,14
-1.69325,-0.41653,-0.030437,1,7
-1.74636,-0.426685,0.0313794,1,8
-2.2247,-0.540679,0.362615,1,12
-0.538217,-0.130805,-0.0484586,11,5
-2.25121,-0.546705,0.450309,1,13
-2.3124,-0.560711,0.54933,1,14
-1.74912,-0.423802,-0.0314143,1,7
-2.13671,-0.51732,0.589072,1,15
-2.18522,-0.523819,0.275912,1,11
-2.22658,-0.53291,0.362615,1,12
-0.538671,-0.128926,-0.0484586,11,5
-2.24546,-0.537016,0.448783,1,13
-0.547802,-0.130909,-0.0295175,16,6
-2.26506,-0.540868,0.537633,1,14
-1.95676,-0.466889,-0.0351142,1,7
-2.13851,-0.509859,0.589072,1,15
-0.485457,-0.114936,-0.115175,16,1
-2.18703,-0.516187,0.275912,1,11
-2.18612,-0.515167,0.355732,1,12
-2.20911,-0.520175,0.44115,1,13
-0.548256,-0.128996,-0.0295175,16,6
-2.27832,-0.535635,0.540332,1,14
-2.02457,-0.475604,-0.036301,2,7
-2.14027,-0.502391,0.589072,1,15
-2.18882,-0.50855,0.275912,1,11
-2.27633,-0.528464,0.370124,1,12
-0.539558,-0.125162,-0.0484586,11,5
-2.26063,-0.523987,0.451072,1,13
-2.28018,-0.527678,0.540332,1,14
-2.03003,-0.46979,-0.0363708,3,7
-2.12687,-0.491809,0.584931,1,15
-0.490027,-0.112501,-0.116075,16,1
-2.1905,-0.501288,0.275912,1,11
-2.25891,-0.516114,0.366995,1,12
-0.539991,-0.123278,-0.0484586,11,5
-2.2815,-0.520857,0.454889,1,13
-2.27051,-0.517515,0.537633,1,14
-2.02776,-0.461813,-0.036301,3,7
-2.13234,-0.485239,0.585966,1,15
-0.486615,-0.109931,-0.115175,16,1
-2.16125,-0.487455,0.193834,1,10
-2.19223,-0.49364,0.275912,1,11
-2.27988,-0.512957,0.370124,1,12
-0.540397,-0.121486,-0.0484586,11,5
-2.2833,-0.51289,0.454889,1,13
-0.549555,-0.123344,-0.0295175,16,6
-2.28363,-0.512544,0.540332,1,14
-2.03709,-0.456836,-0.0364406,3,7
-2.1641,-0.484924,0.594249,1,15
-0.479368,-0.106624,-0.113375,16,1
-2.16285,-0.480285,0.193834,1,10
-2.19386,-0.486367,0.275912,1,11
-2.33171,-0.516501,0.378259,1,12
-0.540797,-0.119694,-0.0484586,11,5
-2.28883,-0.506164,0.455652,1,13
-0.549961,-0.121521,-0.0295175,16,6
-2.28151,-0.504127,0.539433,1,14
-2.01906,-0.445767,-0.0360916,3,7
-2.12042,-0.467757,0.581825,1,15
-2.1839,-0.477365,0.195577,1,10
-2.19546,-0.479089,0.275912,1,11
-2.25243,-0.490699,0.365118,1,12
-0.541191,-0.1179,-0.0484586,11,5
-2.26364,-0.492724,0.450309,1,13
-0.550361,-0.119696,-0.0295175,16,6
-2.02842,-0.440414,-0.0362312,4,7
-2.12959,-0.461991,0.583896,1,15
-0.491513,-0.10582,-0.116075,16,1
-2.16607,-0.465552,0.193834,1,10
-2.27345,-0.48697,0.368247,1,12
-0.541599,-0.11601,-0.0484586,11,5
-2.25766,-0.483177,0.448783,1,13
-2.03777,-0.435001,-0.0363708,3,7
-2.1123,-0.450525,0.578719,1,15
-0.51857,-0.109753,-0.122373,15,1
-2.16768,-0.457989,0.193834,1,10
-2.33691,-0.492464,0.378259,1,12
-0.542001,-0.114119,-0.0484586,11,5
-2.25165,-0.473676,0.447256,1,13
-0.551183,-0.115851,-0.0295175,16,6
-2.05486,-0.431529,-0.0366501,3,7
-2.13647,-0.448278,0.584931,1,15
-0.488406,-0.101678,-0.115175,16,1
-2.24872,-0.467734,0.120373,1,9
-2.13806,-0.443938,0.191045,1,10
-2.20028,-0.456456,0.275912,1,11
-2.29219,-0.474689,0.37075,1,12
-0.542396,-0.112226,-0.0484586,11,5
-2.27628,-0.47098,0.451836,1,13
-2.05243,-0.423545,-0.0365802,3,7
-2.14559,-0.442378,0.587002,1,15
-0.488758,-0.099972,-0.115175,16,1
-2.19946,-0.449485,0.117651,1,9
-2.17075,-0.443223,0.193834,1,10
-2.20186,-0.448774,0.275912,1,11
-2.28221,-0.464322,0.368872,1,12
-2.2933,-0.46616,0.454889,1,13
-0.551959,-0.112097,-0.0295175,16,6
-2.20966,-0.448356,0.520537,1,14
-2.03822,-0.413199,-0.036301,2,7
-2.10547,-0.426449,0.575614,1,15
-2.24801,-0.451238,0.120163,1,9
-2.17228,-0.435642,0.193834,1,10
-2.20341,-0.441085,0.275912,1,11
-2.28382,-0.456352,0.368872,1,12
-0.543147,-0.108531,-0.0484586,11,5
-2.28336,-0.455847,0.452599,1,13
-0.552347,-0.110169,-0.0295175,16,6
-2.09064,-0.416235,-0.0372085,1,7
-2.1221,-0.422112,0.579755,1,15
-0.520034,-0.102592,-0.122373,15,1
-2.21038,-0.435664,0.11807,1,9
-2.17379,-0.428058,0.193834,1,10
-2.30233,-0.452533,0.288099,1,11
-2.30866,-0.452942,0.372627,1,12
-0.543523,-0.106635,-0.0484586,11,5
-2.34274,-0.459202,0.464048,1,13
-2.12741,-0.415839,-0.0378368,1,7
-2.12356,-0.414702,0.579755,1,15
-0.520389,-0.100776,-0.122373,15,1
-2.20012,-0.425668,0.117442,1,9
-2.19875,-0.425004,0.195926,1,10
-2.33118,-0.449758,0.291512,1,11
-2.29859,-0.442639,0.37075,1,12
-0.543892,-0.104737,-0.0484586,11,5
-2.32505,-0.447312,0.460231,1,13
-0.553103,-0.106311,-0.0295175,16,6
-2.14776,-0.411651,0.585966,1,15
-0.493935,-0.093866,-0.116075,16,1
-2.1819,-0.414642,0.116395,1,9
-2.23154,-0.423267,0.198715,1,10
-2.27422,-0.430541,0.284199,1,11
-2.29616,-0.43428,0.370124,1,12
-0.544254,-0.102838,-0.0484586,11,5
-2.30344,-0.434824,0.455652,1,13
-0.553471,-0.104379,-0.0295175,16,6
-2.21367,-0.416676,0.603566,1,15
-0.521063,-0.0972321,-0.122373,15,1
-2.23439,-0.41654,0.119117,1,9
-2.21733,-0.41256,0.197321,1,10
-2.30686,-0.428802,0.288099,1,11
-2.27436,-0.421938,0.36637,1,12
-0.544609,-0.100937,-0.0484586,11,5
-2.32804,-0.431476,0.460231,1,13
-0.553814,-0.102543,-0.0295175,16,6
-2.17331,-0.401231,0.592178,1,15
-0.521399,-0.0954126,-0.122373,15,1
-2.22797,-0.407301,0.118698,1,9
-2.27749,-0.415943,0.20255,1,10
-2.25757,-0.411491,0.281762,1,11
-2.32635,-0.423189,0.374504,1,12
-0.544941,-0.0991309,-0.0484586,11,5
-2.30249,-0.418433,0.454889,1,13
-0.554168,-0.10061,-0.0295175,16,6
-2.2185,-0.40237,0.520537,1,14
-2.13668,-0.38676,0.581825,1,15
-0.521729,-0.0935919,-0.122373,15,1
-2.20579,-0.395294,0.117442,1,9
-2.29461,-0.4108,0.203944,1,10
-2.3098,-0.412686,0.288099,1,11
-2.35115,-0.419227,0.378259,1,12
-0.545284,-0.0972281,-0.0484586,11,5
-0.554516,-0.0986745,-0.0295175,16,6
-2.21989,-0.394623,0.520537,1,14
-2.15894,-0.383011,0.587519,2,15
-0.522053,-0.0917701,-0.122373,15,1
-2.25036,-0.395584,0.119745,1,9
-2.28033,-0.400033,0.20255,1,10
-2.29167,-0.401198,0.285662,1,11
-2.35252,-0.411427,0.378259,1,12
-0.554857,-0.0967383,-0.0295175,16,6
-2.19822,-0.382859,0.515138,1,14
-2.17733,-0.37883,0.592178,1,15
-0.522354,-0.0900384,-0.122373,15,1
-2.28716,-0.393828,0.121629,1,9
-2.2503,-0.386672,0.199761,1,10
-2.26169,-0.388223,0.281762,1,11
-2.35395,-0.403213,0.378259,1,12
-0.545949,-0.093419,-0.0484586,11,5
-0.555175,-0.0948978,-0.0295175,16,6
-2.17258,-0.370976,0.508839,1,14
-2.17864,-0.371227,0.592178,1,15
-0.522665,-0.0882146,-0.122373,15,1
-2.28845,-0.386241,0.121629,1,9
-2.29479,-0.386487,0.203596,1,10
-2.31393,-0.38888,0.288099,1,11
-2.33969,-0.392788,0.375756,1,12
-0.555503,-0.0929592,-0.0295175,16,6
-2.18924,-0.36596,0.512438,1,14
-2.19129,-0.36591,0.595284,1,15
-0.522955,-0.0864809,-0.122373,15,1
-2.30555,-0.380854,0.122466,1,9
-2.26074,-0.372642,0.200458,1,10
-2.32935,-0.382698,0.373878,1,12
-0.546573,-0.0897007,-0.0484586,11,5
-2.17505,-0.356179,0.508839,1,14
-1.08541,-0.177548,-0.0191976,1,7
-2.16967,-0.35452,0.589072,1,15
-2.29885,-0.372332,0.122047,1,9
-2.2501,-0.363631,0.199412,1,10
-2.38124,-0.383545,0.382013,1,12
-0.528499,-0.0848411,-0.0280521,17,6
-2.21856,-0.355752,0.518737,1,14
-1.1215,-0.179836,-0.0198259,1,7
-2.2013,-0.352591,0.597354,1,15
-2.29689,-0.364613,0.0405943,1,8
-0.523517,-0.0830107,-0.122373,15,1
-2.27646,-0.360556,0.120791,1,9
-2.25136,-0.355775,0.199412,1,10
-2.34513,-0.370174,0.291512,1,11
-2.35915,-0.371543,0.378259,1,12
-0.547156,-0.0860737,-0.0484586,11,5
-0.516939,-0.0812279,-0.027424,17,6
-2.20432,-0.345976,0.515138,1,14
-1.11817,-0.175301,-0.0197561,1,7
-2.17198,-0.340123,0.589072,1,15
-2.29024,-0.355367,0.0404547,1,8
-0.523804,-0.0811827,-0.122373,15,1
-2.2935,-0.355052,0.121629,1,9
-2.28797,-0.353787,0.20255,1,10
-2.29933,-0.354722,0.285662,1,11
-2.36044,-0.363306,0.378259,1,12
-0.547453,-0.0841632,-0.0484586,11,5
-2.24317,-0.344856,0.44115,1,13
-0.540909,-0.0830607,-0.0286801,17,6
-2.20937,-0.33887,0.516038,1,14
-1.13854,-0.174425,-0.0201052,1,7
-2.13496,-0.326695,0.578719,1,15
-2.28751,-0.346771,0.0403849,1,8
-0.524084,-0.0793537,-0.122373,15,1
-2.2651,-0.342564,0.120059,2,9
-2.32471,-0.350749,0.205688,1,10
-2.32018,-0.349652,0.288099,1,11
-2.36169,-0.355064,0.378259,1,12
-2.24442,-0.336632,0.44115,1,13
-0.509606,-0.076343,-0.0270054,18,6
-2.18361,-0.326733,0.509739,1,14
-1.15496,-0.172817,-0.0203844,1,7
-2.1743,-0.324951,0.589072,1,15
-2.30459,-0.340724,0.0406641,1,8
-0.524371,-0.0774325,-0.122373,15,1
-2.27814,-0.336406,0.120687,2,9
-2.38899,-0.351924,0.211266,1,10
-2.34894,-0.345186,0.291512,1,11
-2.36291,-0.346818,0.378259,1,12
-2.22615,-0.325951,0.437334,1,13
-0.525679,-0.0768759,-0.0278427,17,6
-2.20397,-0.32231,0.514238,1,14
-2.13719,-0.311782,0.578719,1,15
-2.27404,-0.328505,0.0401056,1,8
-0.524625,-0.0756931,-0.122373,15,1
-2.3168,-0.334269,0.122675,1,9
-2.31915,-0.333782,0.20499,1,10
-2.29366,-0.328887,0.366995,1,12
-0.497011,-0.0711778,-0.0439265,12,5
-2.20001,-0.314675,0.431992,1,13
-0.573384,-0.0819111,-0.0303549,16,6
-2.20117,-0.314449,0.513338,1,14
-2.13821,-0.304693,0.578719,1,15
-2.29492,-0.323756,0.0404547,1,8
-0.524873,-0.073953,-0.122373,15,1
-2.33377,-0.328406,0.123513,1,9
-2.29263,-0.322208,0.20255,1,10
-0.548548,-0.0767029,-0.0484586,11,5
-2.20104,-0.307378,0.431992,1,13
-2.19453,-0.305688,0.511539,1,14
-2.11247,-0.293506,0.571472,1,15
-2.37528,-0.32664,0.0418509,1,8
-0.525128,-0.0721204,-0.122373,15,1
-2.31116,-0.317001,0.122257,1,9
-2.34111,-0.320693,0.206733,1,10
-0.548812,-0.0747877,-0.0484586,11,5
-2.20599,-0.300223,0.432755,1,13
-0.530389,-0.0720885,-0.0280521,17,6
-2.2342,-0.303268,0.520537,1,14
-2.14028,-0.289759,0.578719,1,15
-2.37641,-0.318347,0.0418509,1,8
-0.525377,-0.070287,-0.122373,15,1
-2.34783,-0.314102,0.124141,1,9
-2.39356,-0.31937,0.211266,1,10
-2.23035,-0.296403,0.356358,1,12
-0.54907,-0.0728715,-0.0484586,11,5
-2.21092,-0.293037,0.433518,1,13
-0.510837,-0.0676159,-0.0270054,18,6
-2.23525,-0.295467,0.520537,1,14
-2.17954,-0.287716,0.589072,1,15
-0.525607,-0.0685444,-0.122373,15,1
-2.32515,-0.302809,0.122885,1,9
-2.20394,-0.285069,0.351978,1,12
-0.549321,-0.0709544,-0.0484586,11,5
-2.19631,-0.283691,0.430465,1,13
-0.511059,-0.0659215,-0.0270054,18,6
-2.23622,-0.288053,0.520537,1,14
-0.525843,-0.0667092,-0.122373,15,1
-2.37765,-0.301633,0.125606,1,9
-2.21663,-0.27924,0.353855,1,12
-2.20507,-0.277002,0.431992,1,13
-0.519213,-0.0651317,-0.027424,17,6
-0.526061,-0.0649651,-0.122373,15,1
-2.30332,-0.284445,0.121629,1,9
-2.24107,-0.274773,0.357609,1,12
-2.21767,-0.271117,0.434281,1,13
-0.526274,-0.0632202,-0.122373,15,1
-2.23127,-0.266458,0.275912,1,11
-2.22633,-0.26508,0.355106,1,12
-2.25365,-0.267934,0.44115,1,13
-0.5117,-0.0607449,-0.0270054,18,6
-2.18325,-0.258019,0.589072,1,15
-0.526491,-0.0613828,-0.122373,15,1
-2.20072,-0.2558,0.193834,1,10
-2.23219,-0.258668,0.275912,1,11
-2.21939,-0.256399,0.353855,1,12
-0.559528,-0.0644428,-0.0295175,16,6
-2.10353,-0.241155,0.567331,1,15
-0.526702,-0.0595446,-0.122373,15,1
-2.2016,-0.248116,0.193834,1,10
-2.23308,-0.250875,0.275912,1,11
-2.22023,-0.249039,0.353855,1,12
-0.55975,-0.0624893,-0.0295175,16,6
-2.06592,-0.229905,0.556979,1,15
-0.526897,-0.0577978,-0.122373,15,1
-2.20775,-0.241788,0.116395,1,9
-2.20245,-0.24043,0.193834,1,10
-2.19443,-0.239166,0.271037,1,11
-2.24858,-0.244274,0.358235,1,12
-0.550655,-0.0597231,-0.0484586,11,5
-0.559954,-0.0606328,-0.0295175,16,6
-2.08976,-0.225176,0.56319,1,15
-0.527095,-0.0559581,-0.122373,15,1
-2.20858,-0.23408,0.116395,1,9
-2.20324,-0.233125,0.193834,1,10
-2.23473,-0.235669,0.275912,1,11
-2.27692,-0.239314,0.362615,1,12
-0.560172,-0.05858,-0.0295175,16,6
-2.079,-0.216678,0.560084,1,15
-0.527297,-0.0540259,-0.122373,15,1
-2.18161,-0.223139,0.11493,1,9
-2.20408,-0.225048,0.193834,1,10
-2.21583,-0.225467,0.273475,1,11
-0.508717,-0.0513149,-0.026796,18,6
-2.09132,-0.210216,0.56319,1,15
-0.527491,-0.0520928,-0.122373,15,1
-2.18635,-0.215914,0.115139,1,9
-2.20489,-0.216969,0.193834,1,10
-2.2364,-0.219281,0.275912,4,11
-0.560577,-0.05457,-0.0295175,16,6
-2.15751,-0.209645,-0.0378368,1,7
-2.19902,-0.209418,0.115767,1,9
-2.20563,-0.20927,0.193834,1,10
-2.25292,-0.213361,0.277862,1,11
-0.560755,-0.0527109,-0.0295175,16,6
-2.18212,-0.20435,-0.0382557,1,7
-0.527834,-0.0485012,-0.122373,15,1
-2.19572,-0.201759,0.115558,1,9
-2.20631,-0.201955,0.193834,1,10
-2.23784,-0.204054,0.275912,1,11
-0.560936,-0.050753,-0.0295175,16,6
-2.15889,-0.194954,-0.0378368,1,7
-0.527992,-0.0467505,-0.122373,15,1
-2.24015,-0.198352,0.117861,1,9
-2.20697,-0.194638,0.193834,1,10
-0.561101,-0.0488927,-0.0295175,16,6
-2.19936,-0.191259,-0.0385349,1,7
-0.530085,-0.0451649,-0.122823,15,1
-2.24477,-0.191262,0.11807,1,9
-0.56126,-0.0470317,-0.0295175,16,6
-0.530232,-0.0434068,-0.122823,15,1
-0.561413,-0.0451702,-0.0295175,16,6
-0.590011,-0.0473675,-0.0103318,8,7
-0.561575,-0.0431123,-0.0295175,16,6
-0.57423,-0.043983,-0.0100526,8,7
-0.561714,-0.0412497,-0.0295175,16,6
-0.57438,-0.0419783,-0.0100526,8,7
-0.566537,-0.0395168,-0.00991297,8,7
-0.53078,-0.0360918,-0.122823,15,1
-2.01766,-0.134721,0.393067,1,13
-0.562674,-0.0373728,-0.00984316,17,7
-0.530897,-0.0343315,-0.122823,15,1
-2.06904,-0.131261,0.402989,1,13
-0.562103,-0.0355616,-0.0295175,16,6
-0.55881,-0.0351574,-0.00977335,17,7
-0.531014,-0.0324782,-0.122823,15,1
-1.9127,-0.114641,0.372459,1,13
-0.562922,-0.0334438,-0.00984316,17,7
-0.531124,-0.0306244,-0.122823,15,1
-1.87585,-0.105862,0.365208,4,13
-0.567023,-0.0318008,-0.00991297,8,7
-0.531223,-0.028863,-0.122823,15,1
-1.86443,-0.0990158,0.362919,10,13
-0.575118,-0.0302413,-0.0100526,8,7
-0.53132,-0.0270085,-0.122823,15,1
-1.88241,-0.0933826,0.366353,8,13
-0.575215,-0.028334,-0.0100526,8,7
-0.531407,-0.0252464,-0.122823,15,1
-2.11872,-0.100287,0.111162,1,9
-2.1173,-0.0983677,0.335708,1,12
-1.89055,-0.0875032,0.36788,1,13
-0.562629,-0.0259425,-0.0295175,16,6
-0.56732,-0.0259604,-0.00991297,8,7
-2.06718,-0.0906166,0.10844,1,9
-2.01438,-0.0879495,0.176403,1,10
-1.87516,-0.0802315,0.364827,1,13
-0.562716,-0.0239783,-0.0295175,16,6
-0.563411,-0.0238109,-0.00984316,8,7
-2.0595,-0.0830777,0.108021,1,9
-2.05449,-0.0825171,0.179889,1,10
-0.562797,-0.0220141,-0.0295175,16,6
-0.595462,-0.0230835,-0.0104016,8,7
-2.04779,-0.0758048,0.107393,1,9
-2.01494,-0.0738848,0.176403,1,10
-1.87567,-0.067139,0.364827,1,13
-0.587542,-0.0208254,-0.010262,8,7
-1.81095,-0.063873,0.485545,1,15
-2.03606,-0.0682547,0.106765,1,9
-2.04705,-0.0679078,0.179192,1,10
-0.562934,-0.0181827,-0.0295175,16,6
-0.567624,-0.0181359,-0.00991297,8,7
-2.12013,-0.0636648,0.111162,1,9
-2.08709,-0.0623081,0.182678,1,10
-0.55569,-0.0158131,-0.00970354,17,7
-0.567737,-0.0141727,-0.00991297,8,7
-0.595813,-0.010712,-0.0104016,8,7
-0.57585,-0.00844314,-0.0100526,8,7
-2.06108,-0.0197856,0.108021,1,9
-2.06403,-0.0190934,0.180587,1,10
-0.563208,-0.0046202,-0.0295175,16,6
-0.587892,-0.00472008,-0.010262,8,7
-2.03717,-0.0124445,0.106765,4,9
-2.00033,-0.0115213,0.175009,4,10
-0.591904,-0.00268606,-0.0103318,8,7
-2.04519,-0.00571121,0.107184,5,9
-2.02825,-0.00495596,0.177449,4,10
-0.607907,-0.000742746,-0.0106111,7,7
-2.03321,0.00141906,0.106556,1,9
-0.623903,0.00141541,-0.0108903,7,7
-0.563205,0.0050132,-0.0295175,16,6
-0.66787,0.00617814,-0.0116582,7,7
-0.509958,0.00720981,-0.136656,14,0
-1.91341,0.028722,0.234964,1,11
-0.502205,0.00876602,-0.134586,15,0
-1.93116,0.0357314,0.237158,2,11
-0.553786,0.0104399,-0.0484586,11,5
-0.521486,0.0109236,-0.139762,14,0
-1.91317,0.0420794,0.234964,2,11
-0.579383,0.0141597,-0.155291,12,0
-1.92491,0.0490604,0.236427,1,11
-0.50981,0.0142402,-0.136656,14,0
-1.92076,0.0556644,0.235939,1,11
-0.553646,0.0162384,-0.0484586,11,5
-0.562979,0.0167088,-0.0295175,16,6
-0.57927,0.0182043,-0.155291,12,0
-0.562917,0.0186739,-0.0295175,16,6
-0.625198,0.0227065,-0.0547338,9,5
-0.634706,0.0231627,-0.0332857,14,6
-0.634621,0.025378,-0.0332857,14,6
-0.578964,0.0261893,-0.155291,12,0
-0.578873,0.0281091,-0.155291,12,0
-0.5531,0.0294707,-0.0484586,11,5
-0.634217,0.0340149,-0.0332857,14,6
-0.652453,0.037049,-0.0571742,9,5
-0.56231,0.0321271,-0.0295175,16,6
-0.552881,0.0333314,-0.0484586,11,5
-0.552761,0.035261,-0.0484586,11,5
-1.79161,0.119941,0.284398,1,12
-0.661586,0.0446384,-0.0347511,13,6
-1.72418,0.121474,0.27376,2,12
-0.552508,0.0390227,-0.0484586,11,5
-0.761048,0.0538852,-0.0399847,10,6
-0.578036,0.0419412,-0.155291,12,0
-1.70996,0.126471,0.27157,2,12
-0.60801,0.0449695,-0.0533393,10,5
-0.577886,0.0439585,-0.155291,12,0
-1.71738,0.13305,0.272822,3,12
-0.623741,0.0483228,-0.0547338,9,5
-0.760653,0.0591968,-0.0399847,10,6
-0.577729,0.0459756,-0.155291,12,0
-1.71494,0.138884,0.272509,2,12
-0.552077,0.0447099,-0.0484586,11,5
-0.760442,0.0618516,-0.0399847,10,6
-0.577565,0.047992,-0.155291,12,0
-1.73019,0.146201,0.275012,1,12
-0.603536,0.0509986,-0.0529907,10,5
-0.665487,0.0567014,-0.0116582,7,7
-0.538917,0.0464857,-0.144939,14,0
-0.52808,0.0457367,-0.122373,15,1
-1.78878,0.156498,0.284398,1,12
-0.551768,0.0483704,-0.0484586,11,5
-0.519511,0.0466392,-0.139762,14,0
-0.651114,0.0587977,-0.127079,14,2
-0.630962,0.057533,-0.0554311,9,5
-0.759789,0.0694137,-0.0399847,10,6
-1.48898,0.136818,0.400652,1,15
-0.519353,0.0483618,-0.139762,14,0
-0.580546,0.0543667,-0.113341,16,2
-0.614889,0.0582324,-0.0540366,10,5
-1.42978,0.135909,0.331578,1,14
-0.764425,0.0727979,-0.0134034,5,7
-1.48849,0.142015,0.400652,1,15
-0.576858,0.05585,-0.155291,12,0
-0.635056,0.0618202,-0.124026,14,2
-0.606751,0.0595993,-0.0533393,10,5
-1.45642,0.14383,0.337876,1,14
-0.664665,0.0656394,-0.0116582,7,7
-0.57666,0.0578633,-0.155291,12,0
-0.580143,0.0585196,-0.113341,16,2
-0.606539,0.0617169,-0.0533393,10,5
-1.51797,0.154993,0.352273,1,14
-0.576465,0.0597752,-0.155291,12,0
-0.579945,0.0604431,-0.113341,16,2
-0.606331,0.063728,-0.0533393,10,5
-1.47606,0.155401,0.288503,1,13
-0.576263,0.0616866,-0.155291,12,0
-0.610974,0.0657257,-0.119446,15,2
-0.550655,0.059723,-0.0484586,11,5
-0.576044,0.0636976,-0.155291,12,0
-0.634155,0.0704595,-0.124026,14,2
-0.621724,0.0696276,-0.0547338,9,5
-0.525914,0.0600133,-0.141833,14,0
-0.6105,0.0699894,-0.119446,15,2
-0.605643,0.0699681,-0.0533393,10,5
-0.575586,0.0677176,-0.155291,12,0
-0.579057,0.0684334,-0.113341,16,2
-0.629136,0.0749085,-0.0554311,9,5
-0.575358,0.069626,-0.155291,12,0
-0.629498,0.0765121,-0.123263,15,2
-0.605153,0.0740889,-0.0533393,10,5
-0.601968,0.0751924,-0.11792,16,2
-0.648394,0.0815662,-0.0571742,9,5
-0.574884,0.0734404,-0.155291,12,0
-0.617293,0.0791866,-0.120973,15,2
-0.648119,0.0837159,-0.0571742,9,5
-0.574624,0.0754465,-0.155291,12,0
-0.609228,0.0803144,-0.119446,15,2
-0.54907,0.0728714,-0.0484586,11,5
-1.53745,0.20432,0.301478,1,13
-0.574357,0.0774519,-0.155291,12,0
-0.577815,0.0782263,-0.113341,16,2
-0.604088,0.08232,-0.0533393,10,5
-1.55229,0.211809,0.304531,1,13
-0.574083,0.0794563,-0.155291,12,0
-0.577539,0.0802428,-0.113341,16,2
-0.619583,0.0866355,-0.0547338,9,5
-1.54575,0.21614,0.303386,2,13
-1.2894,0.181213,0.348888,1,15
-0.573816,0.0813596,-0.155291,12,0
-0.600594,0.0854771,-0.11792,16,2
-0.611403,0.0875598,-0.0540366,10,5
-1.54693,0.221813,0.303768,2,13
-1.34229,0.193428,0.363382,1,15
-0.573529,0.083362,-0.155291,12,0
-0.627489,0.0915407,-0.123263,15,2
-0.646576,0.0949015,-0.0571742,9,5
-1.55974,0.22921,0.306439,2,13
-1.31486,0.194161,0.356135,1,15
-0.573234,0.0853636,-0.155291,12,0
-0.576682,0.0861857,-0.113341,16,2
-0.614717,0.0924187,-0.0543852,9,5
-1.52593,0.229685,0.299952,1,13
-1.2951,0.195635,0.350959,1,15
-0.572933,0.0873641,-0.155291,12,0
-0.615191,0.0941374,-0.120973,15,2
-0.602576,0.0927452,-0.0533393,10,5
-1.5174,0.23355,0.298425,1,13
-0.556657,0.0857771,-0.0295175,16,6
-1.29441,0.200154,0.350959,1,15
-0.57264,0.0892635,-0.155291,12,0
-0.599358,0.0937498,-0.11792,16,2
-0.645565,0.101555,-0.0571742,9,5
-1.51269,0.238234,0.297662,1,13
-1.28607,0.203464,0.348888,1,15
-0.572325,0.0912618,-0.155291,12,0
-0.606781,0.0970819,-0.119446,15,2
-0.546852,0.0879831,-0.0484586,11,5
-1.31205,0.212271,0.356135,1,15
-0.572003,0.093259,-0.155291,12,0
-0.621939,0.101735,-0.122499,15,2
-0.585861,0.0963584,-0.0519448,10,5
-1.3113,0.21685,0.356135,1,15
-0.598343,0.100021,-0.11792,16,2
-0.668044,0.112272,-0.0592659,8,5
-0.571355,0.0971504,-0.155291,12,0
-0.524447,0.0893627,-0.122823,15,1
-0.628973,0.107286,-0.124026,14,2
-0.644103,0.110446,-0.0571742,9,5
-0.68107,0.117029,-0.0362165,12,6
-0.57103,0.0990445,-0.155291,12,0
-0.562547,0.0977755,-0.131821,14,1
-0.605404,0.105333,-0.119446,15,2
-0.643733,0.112581,-0.0571742,9,5
-0.570698,0.100938,-0.155291,12,0
-0.546869,0.0969199,-0.128222,14,1
-0.58572,0.103911,-0.11563,16,2
-0.627665,0.111917,-0.0557797,9,5
-0.577228,0.104276,-0.135421,13,1
-0.608536,0.110151,-0.12021,15,2
-0.642952,0.11696,-0.0571742,9,5
-0.569194,0.104878,-0.133621,14,1
-0.619752,0.114305,-0.122499,15,2
-0.642561,0.119092,-0.0571742,9,5
-0.569628,0.106809,-0.155291,12,0
-0.568825,0.106864,-0.133621,14,1
-0.627067,0.117919,-0.124026,14,2
-0.642141,0.121334,-0.0571742,9,5
-0.569252,0.108797,-0.155291,12,0
-0.560792,0.107383,-0.131821,14,1
-0.60737,0.116411,-0.12021,15,2
-0.688668,0.132617,-0.0613576,8,5
-0.568869,0.110783,-0.155291,12,0
-0.575716,0.112325,-0.135421,13,1
-0.626228,0.122294,-0.124026,14,2
-0.680381,0.133485,-0.0606604,8,5
-0.568479,0.112768,-0.155291,12,0
-0.586788,0.116613,-0.13812,13,1
-0.608468,0.121032,-0.120591,15,2
-0.621298,0.124148,-0.0554311,9,5
-0.568082,0.114752,-0.155291,12,0
-0.574938,0.116241,-0.135421,13,1
-0.619587,0.125493,-0.122881,15,2
-0.597432,0.121549,-0.0533393,10,5
-0.567698,0.116635,-0.155291,12,0
-0.559259,0.115104,-0.131821,14,1
-0.63455,0.130716,-0.125934,14,2
-0.600928,0.124337,-0.0536879,10,5
-0.585556,0.122649,-0.13812,13,1
-0.607189,0.127291,-0.120591,15,2
-0.577094,0.121508,-0.0515962,21,5
-0.558441,0.119006,-0.131821,14,1
-0.580563,0.124356,-0.0519448,21,5
-1.205,0.25899,0.330253,1,15
-0.57328,0.124157,-0.135421,13,1
-0.560658,0.122141,-0.0502017,33,5
-0.940581,0.20508,-0.0504519,3,6
-1.16635,0.254944,0.3199,1,15
-0.57665,0.126996,-0.13632,13,1
-0.575812,0.127444,-0.0515962,31,5
-0.93986,0.208362,-0.0504519,3,6
-1.18058,0.262161,0.324041,1,15
-0.564815,0.126355,-0.133621,14,1
-0.565667,0.127167,-0.0507246,21,5
-1.00931,0.227272,-0.0542201,2,6
-1.22493,0.276275,0.336465,1,15
-0.556792,0.1265,-0.131821,14,1
-0.59047,0.13491,-0.0529907,20,5
-1.00076,0.228837,-0.0538014,2,6
-1.27104,0.29134,0.349406,3,15
-0.563942,0.130196,-0.133621,14,1
-0.572529,0.132916,-0.0514219,21,5
-0.992134,0.230694,-0.0533827,2,6
-1.2813,0.298404,0.352512,8,15
-0.601404,0.141169,-0.142619,13,1
-0.587575,0.138572,-0.0528164,20,5
-1.00299,0.236911,-0.0540107,2,6
-1.24598,0.294538,0.295586,1,14
-1.27649,0.301985,0.351476,11,15
-0.574393,0.13684,-0.13632,13,1
-0.5929,0.142014,-0.0533393,10,5
-1.06154,0.254266,0.21218,1,13
-0.982772,0.23558,-0.052964,2,6
-1.18815,0.28503,0.282089,1,14
-1.28294,0.308244,0.353547,8,15
-0.611794,0.148008,-0.145318,12,1
-0.611787,0.148685,-0.0550824,9,5
-0.989706,0.240898,-0.0533827,2,6
-1.16064,0.282719,0.27579,1,14
-18.2013,4.44036,5.02005,6,15
-0.754975,0.185579,-0.151121,9,2
-0.615133,0.151774,-0.0554311,19,5
-1.05974,0.261671,0.21218,1,13
-0.984981,0.243393,-0.0531733,2,6
-1.17478,0.290511,0.279389,1,14
-17.2256,4.26609,4.75502,19,15
-0.562389,0.140011,-0.155291,12,0
-0.65908,0.164449,-0.13204,13,2
-0.62233,0.155857,-0.0561283,18,5
-1.12738,0.28255,0.225918,1,13
-1.0035,0.251689,-0.0542201,2,6
-1.26259,0.316908,0.300535,5,14
-16.9314,4.25602,4.6779,30,15
-0.685146,0.173496,-0.137382,12,2
-0.635299,0.161463,-0.0573485,18,5
-1.12639,0.286484,0.225918,1,13
-0.932934,0.237455,-0.0504519,3,6
-1.27092,0.323718,0.302784,11,14
-17.0175,4.34088,4.70585,28,15
-0.657974,0.168817,-0.13204,13,2
-0.6075,0.156319,-0.0770214,11,4
-1.16505,0.299785,0.190537,1,12
-0.650224,0.167433,-0.058743,17,5
-1.12548,0.290021,0.225918,1,13
-0.932183,0.240385,-0.0504519,3,6
-1.27556,0.32917,0.304134,11,14
-16.9878,4.387,4.70119,18,15
-0.68398,0.178036,-0.137382,12,2
-0.591612,0.154324,-0.0750715,12,4
-0.972867,0.253956,0.15925,1,12
-0.655419,0.171212,-0.0592659,17,5
-1.15111,0.300699,0.231261,1,13
-1.30274,0.340796,0.310882,6,14
-17.2527,4.51971,4.77883,34,15
-0.630234,0.16628,-0.126697,14,2
-0.579582,0.15324,-0.0736091,12,4
-1.09424,0.289518,0.179274,1,12
-0.660626,0.174915,-0.0597888,17,5
-15.3405,4.06745,3.664,21,14
-17.2675,4.58483,4.78712,28,15
-0.702243,0.18764,-0.167813,9,1
-0.629679,0.168369,-0.126697,14,2
-0.582905,0.156189,-0.0740966,12,4
-1.04748,0.280867,0.171765,1,12
-0.663891,0.178137,-0.0601375,16,5
-1.22488,0.328892,0.246525,1,13
-15.3175,4.11577,3.66175,47,14
-17.2484,4.64106,4.78608,9,15
-0.607567,0.164503,-0.145318,12,1
-0.629117,0.170456,-0.126697,14,2
-0.561285,0.152498,-0.0714154,13,4
-1.06556,0.289704,0.174894,1,12
-0.657528,0.17877,-0.0596145,8,5
-1.19536,0.325221,0.240801,4,13
-15.5343,4.23222,3.71709,32,14
-24.4616,6.67357,6.794,8,15
-0.622023,0.17075,-0.148918,12,1
-0.609587,0.16745,-0.122881,15,2
-0.595198,0.163945,-0.0758027,12,4
-1.06454,0.293422,0.174894,1,12
-0.695316,0.191652,-0.0631008,7,5
-1.2245,0.337744,0.246907,10,13
-15.5457,4.29368,3.72339,50,14
-17.1448,4.7418,4.76641,39,15
-0.568855,0.158292,-0.13632,13,1
-0.680869,0.18959,-0.137382,12,2
-0.586974,0.163886,-0.0748278,12,4
-1.07497,0.300138,0.176771,1,12
-1.23655,0.345716,0.249578,12,13
-0.932017,0.260926,-0.0168939,2,7
-17.1327,4.79967,4.76745,10,15
-0.57583,0.162292,-0.13812,13,1
-0.567325,0.16043,-0.0723904,12,4
-1.09673,0.310343,0.180525,1,12
-1.25429,0.355164,0.253394,11,13
-14.5337,4.12085,3.48764,29,14
-17.2107,4.88635,4.79385,6,15
-0.577134,0.164837,-0.13857,27,1
-0.653135,0.186667,-0.13204,13,2
-0.62401,0.178814,-0.0797026,11,4
-1.09944,0.315258,0.181151,1,12
-15.4479,4.43252,3.12393,12,13
-14.6185,4.20007,3.51149,51,14
-17.0413,4.90261,4.7514,15,15
-0.595274,0.172267,-0.143069,25,1
-0.652446,0.189059,-0.13204,13,2
-1.14955,0.333974,0.189599,3,12
-15.5069,4.51104,3.13919,8,13
-14.5488,4.23782,3.49844,27,14
-0.929234,0.270671,-0.0168939,2,7
-17.0129,4.95881,4.74829,18,15
-0.603988,0.177191,-0.145318,12,1
-1.1749,0.345793,0.193979,6,12
-20.6152,6.07521,4.17757,8,13
-20.6607,6.09645,4.97322,52,14
-0.928284,0.273913,-0.0168939,2,7
-16.9751,5.01215,4.7426,28,15
-0.594057,0.176419,-0.143069,25,1
-1.20966,0.360614,0.199923,11,12
-19.8763,5.92916,4.03179,8,13
-24.4738,7.3099,5.89687,44,14
-0.927322,0.277152,-0.0168939,2,7
-0.955611,0.287242,0.0174175,1,8
-0.591571,0.17793,-0.142619,26,1
-0.621453,0.187509,-0.0797026,11,4
-1.21224,0.365765,0.200549,11,12
-32.1352,9.70832,6.52529,11,13
-17.1456,5.18635,4.1355,31,14
-0.926398,0.280225,-0.0168939,2,7
-33.4171,10.1147,9.35527,16,15
-0.954653,0.29041,0.0174175,1,8
-0.605892,0.184431,-0.146218,25,1
-0.649778,0.198037,-0.13204,13,2
-0.609436,0.186091,-0.0782401,11,4
-1.21851,0.372303,0.2018,9,12
-16.3734,5.00586,3.32809,13,13
-17.5289,5.36582,4.23223,18,14
-0.925414,0.283457,-0.0168939,2,7
-32.8571,10.0705,9.20826,15,15
-0.953634,0.29374,0.0174175,1,8
-0.603383,0.18597,-0.145768,37,1
-1.12659,0.348093,0.144781,2,11
-0.580335,0.179422,-0.074584,24,4
-30.5999,9.47225,6.22648,42,13
-0.919577,0.284832,-0.0504519,3,6
-15.6394,4.84718,3.78008,37,14
-0.924469,0.286525,-0.0168939,2,7
-21.5496,6.68307,6.0455,14,15
-0.952654,0.296901,0.0174175,1,8
-0.597181,0.18623,-0.144419,25,1
-0.742116,0.231712,-0.151121,9,2
-0.712719,0.22267,-0.118264,10,3
-1.13491,0.354788,0.145999,4,11
-0.551319,0.172456,-0.070928,13,4
-15.6401,4.89832,3.18575,1,13
-15.521,4.86694,3.75533,65,14
-27.6233,8.67249,7.75784,26,15
-0.85626,0.270142,0.0156723,3,8
-0.598386,0.1889,-0.144868,12,1
-0.741344,0.234172,-0.151121,9,2
-0.693103,0.2192,-0.115136,11,3
-1.15827,0.366533,0.149168,12,11
-30.4385,9.63813,5.0569,20,12
-16.0908,5.10121,3.28115,9,13
-15.4806,4.91073,3.74948,15,14
-0.872941,0.277081,-0.0159864,2,7
-23.1644,7.35707,6.5124,10,15
-0.950611,0.303379,0.0174175,1,8
-0.605182,0.193254,-0.146668,12,1
-0.740563,0.236629,-0.151121,9,2
-0.711187,0.227516,-0.118264,10,3
-1.17217,0.375214,0.151118,22,11
-30.4196,9.74324,5.05909,16,12
-15.3659,4.93048,3.72564,42,14
-0.921521,0.295868,-0.0168939,2,7
-33.1142,10.6382,9.31956,8,15
-0.877286,0.283187,0.0160911,2,8
-0.604538,0.19526,-0.146668,12,1
-1.0654,0.344526,0.0979631,1,10
-0.616456,0.199466,-0.102621,14,3
-1.19169,0.385825,0.153799,18,11
-34.9236,11.3137,5.81436,15,12
-15.3264,4.97099,3.13194,22,13
-15.3745,4.99251,3.73194,52,14
-0.920535,0.298922,-0.0168939,2,7
-28.7335,9.33609,8.09534,36,15
-0.948578,0.309677,0.0174175,1,8
-0.615001,0.200895,-0.149367,12,1
-1.06692,0.348722,0.0588256,1,9
-0.738935,0.241664,-0.151121,9,2
-1.05283,0.344525,0.0969172,1,10
-0.683378,0.223626,-0.113884,11,3
-17.758,5.81449,2.29431,19,11
-31.8805,10.451,5.31377,9,12
-15.3864,5.04687,3.14759,25,13
-15.493,5.08785,3.76478,15,14
-0.919486,0.302134,-0.0168939,2,7
-28.6898,9.43271,8.09224,30,15
-0.890528,0.294169,0.0163704,2,8
-0.595794,0.196924,-0.144868,12,1
-0.73813,0.244113,-0.151121,9,2
-1.08006,0.357403,0.0995319,2,10
-0.675092,0.223527,-0.112633,11,3
-35.136,11.6405,4.54475,14,11
-31.8982,10.5802,5.32284,4,12
-15.2289,5.05417,3.11896,36,13
-15.5713,5.17386,3.78818,25,14
-0.888064,0.295248,-0.0163355,2,7
-24.2866,8.07906,6.85819,12,15
-0.946393,0.316291,0.0174175,1,8
-0.595103,0.199003,-0.144868,12,1
-0.737273,0.246688,-0.151121,9,2
-1.10903,0.371292,0.102321,6,10
-0.614369,0.205804,-0.102621,14,3
-29.8438,10.003,3.86472,25,11
-31.7824,10.6651,5.3097,9,12
-15.2186,5.1098,3.12049,16,13
-0.912557,0.306578,-0.0504519,3,6
-16.5026,5.54734,4.01943,38,14
-0.917354,0.308545,-0.0168939,2,7
-26.8911,9.04986,7.60255,30,15
-0.945284,0.319593,0.0174175,1,8
-0.594404,0.201079,-0.144868,12,1
-1.06321,0.359875,0.0588256,1,9
-0.736408,0.24926,-0.151121,9,2
-1.14547,0.387943,0.105807,15,10
-0.651065,0.220627,-0.108878,12,3
-28.7804,9.75843,3.7314,48,11
-15.2713,5.18688,3.13499,31,13
-0.911482,0.309761,-0.0504519,3,6
-16.3282,5.55221,3.98163,24,14
-0.878409,0.298864,-0.0161958,2,7
-18.2458,6.21138,5.16448,9,15
-0.944162,0.322891,0.0174175,1,8
-0.593699,0.203153,-0.144868,12,1
-1.06194,0.363584,0.0588256,1,9
-0.698385,0.239111,-0.143488,11,2
-1.15353,0.395167,0.106679,16,10
-0.612918,0.210088,-0.102621,14,3
-29.9611,10.2755,3.88909,25,11
-32.3723,11.1151,5.42108,4,12
-15.2995,5.25611,3.14453,30,13
-0.910395,0.312941,-0.0504519,3,6
-16.2718,5.59649,3.97264,24,14
-0.915178,0.314942,-0.0168939,2,7
-18.2569,6.28635,5.17379,10,15
-0.615122,0.212765,-0.150267,12,1
-1.03053,0.356652,0.0571509,1,9
-0.734694,0.254267,-0.151121,9,2
-1.13904,0.394427,0.105458,9,10
-0.612218,0.212119,-0.102621,14,3
-15.7343,5.45463,2.04472,91,11
-30.5064,10.5877,5.11447,8,12
-15.1188,5.25014,3.11095,46,13
-0.909352,0.315958,-0.0504519,3,6
-16.2624,5.65362,3.97488,46,14
-0.895241,0.311406,-0.0165449,2,7
-18.3162,6.3748,5.19657,10,15
-0.581265,0.203329,-0.142169,13,1
-1.09338,0.38268,0.0607097,2,9
-0.678211,0.237373,-0.139672,11,2
-15.6169,5.46895,1.44766,6,10
-0.641301,0.224706,-0.107627,12,3
-28.6389,10.0517,4.80723,39,12
-15.1708,5.3276,3.12545,26,13
-0.908244,0.31913,-0.0504519,3,6
-0.882831,0.310547,-0.0163355,2,7
-18.3011,6.44126,5.19864,21,15
-0.628319,0.222253,-0.153867,11,1
-1.13353,0.400957,0.0630125,5,9
-0.677378,0.239739,-0.139672,11,2
-15.5545,5.50814,1.44365,37,10
-0.610722,0.216388,-0.102621,14,3
-15.6528,5.54909,2.03912,8,11
-28.4341,10.0858,4.77845,39,12
-15.0189,5.33322,3.09797,43,13
-0.907124,0.322299,-0.0504519,3,6
-17.6915,6.28921,4.33481,40,14
-0.900638,0.320171,-0.0166845,2,7
-22.699,8.07382,6.45546,17,15
-0.590878,0.211216,-0.144868,12,1
-1.12083,0.400876,0.0623845,12,9
-0.695022,0.248717,-0.143488,11,2
-15.5539,5.56911,1.44539,87,10
-0.610001,0.218412,-0.102621,14,3
-28.5906,10.2425,3.72896,100,11
-15.0362,5.39559,3.10523,43,13
-0.860936,0.309108,-0.0479397,5,6
-0.929624,0.334135,-0.017243,1,7
-16.0663,5.7779,4.57489,12,15
-0.61213,0.221225,-0.150267,12,1
-1.13453,0.410021,0.0632218,21,9
-0.668345,0.241674,-0.138146,12,2
-15.4586,5.59287,1.43824,31,10
-27.0466,9.79607,3.53202,33,11
-38.4159,13.9215,6.47169,13,12
-15.0431,5.45742,3.11057,41,13
-0.867361,0.314837,-0.0483584,4,6
-33.445,12.1399,8.21431,24,14
-0.924752,0.335851,-0.0171732,1,7
-15.9581,5.79882,4.54952,33,15
-0.615054,0.224591,-0.151167,11,1
-1.14817,0.419261,0.0640592,15,9
-0.6491,0.237152,-0.13433,12,2
-28.2488,10.3264,2.63141,62,10
-42.5024,15.5621,7.16877,9,12
-0.781995,0.286479,-0.0728622,5,5
-0.926317,0.339717,-0.0517079,2,6
-30.9602,11.3543,7.61324,11,14
-0.927387,0.340293,-0.017243,3,7
-15.8409,5.81575,4.52157,5,15
-1.05631,0.389484,0.0196514,1,8
-18.0792,6.67337,1.00998,25,9
-0.666728,0.246101,-0.138146,12,2
-28.321,10.4594,2.64134,85,10
-30.0476,11.109,3.93346,12,11
-42.5293,15.7405,7.18253,9,12
-0.799726,0.295986,-0.0746053,4,5
-38.4159,14.2257,7.96284,8,13
-0.928931,0.344175,-0.0519173,2,6
-33.2812,12.3375,8.19452,12,14
-0.944943,0.350483,-0.017592,3,7
-15.8187,5.87034,4.52105,16,15
-1.03621,0.386186,0.0193024,2,8
-18.0502,6.73434,1.00967,18,9
-0.684259,0.255289,-0.141962,23,2
-28.4224,10.6098,2.65424,63,10
-29.6739,11.0887,3.88958,12,11
-0.793956,0.296848,-0.104076,5,4
-37.6471,14.0831,6.36626,26,12
-0.798688,0.298776,-0.0746053,4,5
-30.4468,11.3957,6.31921,26,13
-0.901538,0.337609,-0.0504519,3,6
-33.3255,12.4864,8.21611,12,14
-0.939968,0.352375,-0.0175222,3,7
-17.3971,6.52527,4.97864,16,15
-1.05918,0.398964,0.0197561,6,8
-17.5905,6.62934,0.985172,4,9
-0.666831,0.251442,-0.138527,24,2
-28.5884,10.7856,2.67324,8,10
-29.5236,11.1502,3.87496,12,11
-22.9263,8.66314,3.88177,57,12
-0.820004,0.310017,-0.0766971,4,5
-42.5574,16.0981,8.84438,10,13
-0.911562,0.344996,-0.0510799,3,6
-33.2398,12.5868,8.20576,12,14
-0.946275,0.358323,-0.0176618,3,7
-21.0733,7.98397,6.03825,11,15
-1.08589,0.41314,0.0202797,13,8
-28.2714,10.7675,1.58547,45,9
-0.673287,0.256565,-0.140054,23,2
-28.3439,10.8065,2.65389,31,10
-30.8553,11.7701,4.05484,13,11
-0.791917,0.302245,-0.104076,5,4
-28.4986,10.8826,4.83164,21,12
-0.818917,0.312878,-0.0766971,4,5
-38.2729,14.6226,7.96399,16,13
-0.893622,0.341599,-0.0501379,7,6
-30.1764,11.5413,7.45893,11,14
-0.986107,0.377346,-0.0184297,1,7
-16.0533,6.1462,4.60594,12,15
-1.10684,0.425539,0.0206986,12,8
-0.643117,0.247514,-0.133948,26,2
-39.2649,15.1196,3.68111,13,10
-38.9306,15.0064,5.1229,17,11
-0.790857,0.305008,-0.104076,5,4
-31.1585,12.0231,5.28968,21,12
-0.858769,0.331371,-0.0805319,3,5
-38.1795,14.7399,7.95521,16,13
-0.916645,0.354071,-0.0514986,2,6
-27.702,10.706,6.85651,10,14
-1.01836,0.393768,-0.019058,1,7
-16.0227,6.19871,4.60336,11,15
-1.07738,0.418538,0.020175,5,8
-0.682504,0.265411,-0.142344,11,2
-29.2278,11.372,2.74384,16,10
-37.302,14.5284,4.91523,32,11
-0.789787,0.307766,-0.104076,5,4
-31.2746,12.1935,5.31658,4,12
-0.835331,0.325682,-0.0784402,3,5
-30.0307,11.7145,6.26579,21,13
-0.930288,0.363078,-0.052336,2,6
-21.0842,8.23309,5.22561,75,14
-1.08775,0.424972,-0.0203844,1,7
-32.342,12.6421,9.30454,16,15
-16.8126,6.59893,0.31526,5,8
-15.9209,6.25216,0.89641,12,9
-0.685228,0.269228,-0.143107,11,2
-28.4203,11.1721,2.67167,16,10
-22.8316,8.98441,3.01261,92,11
-0.788708,0.310521,-0.104076,5,4
-31.109,12.2479,5.29531,4,12
-0.845312,0.332977,-0.079486,3,5
-21.0342,8.28984,4.39471,37,13
-0.916009,0.361195,-0.0516033,5,6
-21.0335,8.29806,5.22021,59,14
-1.05472,0.416102,-0.019791,6,7
-16.1023,6.35586,4.63856,8,15
-15.506,6.14553,0.291141,9,8
-15.9101,6.31212,0.897038,6,9
-0.669686,0.265823,-0.140054,11,2
-30.6884,12.1876,2.88886,44,10
