x, y, z, intensity, ring
8.43631,-1.85639,0.452706,47,9
0.667249,-0.146826,-0.132803,26,2
17.2686,-3.80308,1.54701,6,10
8.10094,-1.78704,1.01858,24,11
7.45901,-1.64679,-0.937907,27,4
12.7825,-2.82445,2.07338,43,12
9.39658,-2.07629,-0.841924,3,5
12.8684,-2.84579,2.5618,20,13
9.58458,-2.12134,-0.514463,45,6
11.1925,-2.48132,-0.200109,100,7
12.555,-2.78568,3.44592,23,15
17.0727,-3.81307,0.305347,17,8
0.547721,-0.12243,-0.129572,14,1
11.1975,-2.50499,0.60134,27,9
0.68206,-0.152583,-0.135856,25,2
8.2067,-1.83742,0.735769,7,10
7.2901,-1.63354,-1.18327,31,3
8.14501,-1.8266,1.02492,26,11
7.45709,-1.67369,-0.938394,22,4
17.6507,-3.96481,2.86525,23,12
10.5323,-2.36584,-0.94442,8,5
12.7013,-2.85538,2.53051,23,13
16.7718,-3.77662,3.96904,24,14
11.1428,-2.51114,-0.199376,100,7
14.147,-3.19077,3.88591,23,15
17.0398,-3.86822,0.304998,19,8
0.516885,-0.117433,-0.122373,15,1
11.1302,-2.53077,0.5982,58,9
0.666208,-0.151481,-0.132803,26,2
8.21189,-1.86871,0.736815,20,10
7.29591,-1.66161,-1.18515,57,3
12.3037,-2.80436,1.54945,3,11
7.47055,-1.70413,-0.940831,28,4
8.3812,-1.91339,1.36161,7,12
10.4075,-2.37598,-0.933961,2,5
10.0933,-2.30796,-0.542619,14,6
14.8247,-3.39259,3.51104,18,14
11.0658,-2.5344,-0.198155,100,7
13.8967,-3.18532,3.82017,13,15
0.564747,-0.130174,-0.155291,12,0
10.9721,-2.5311,0.196549,16,8
0.516472,-0.119237,-0.122373,15,1
10.7263,-2.47833,0.576952,51,9
0.661849,-0.152922,-0.13204,26,2
8.23638,-1.90455,0.739604,48,10
6.99176,-1.61803,-1.13665,12,3
8.18814,-1.8964,1.03199,14,11
11.1002,-2.57288,-1.39906,15,4
16.1582,-3.74824,2.62716,17,12
9.37627,-2.17503,-0.842099,17,5
14.9153,-3.46815,3.53533,27,14
10.9536,-2.54899,-0.196305,22,7
14.2881,-3.32758,3.93094,7,15
0.470241,-0.110121,-0.12941,15,0
10.9243,-2.56026,0.195851,37,8
0.49708,-0.116589,-0.117874,16,1
16.8743,-3.95783,0.908343,12,9
0.668957,-0.157026,-0.133566,26,2
8.24907,-1.93784,0.741347,45,10
6.29766,-1.48058,-1.02465,3,3
8.04814,-1.8936,1.01517,20,11
7.17637,-1.68981,-0.905246,13,4
16.2053,-3.81584,2.63686,15,12
9.37056,-2.2082,-0.842273,6,5
12.5504,-2.95984,2.50647,42,13
10.075,-2.37791,-0.542515,38,6
14.7381,-3.48122,3.49619,31,14
10.984,-2.59449,-0.197003,100,7
14.089,-3.3305,3.87918,10,15
10.9021,-2.59323,0.195607,16,8
0.515648,-0.12275,-0.122373,15,1
0.677953,-0.161636,-0.135474,25,2
8.01164,-1.9116,0.720604,22,10
7.15736,-1.70776,-1.16544,27,3
7.90473,-1.88755,0.997866,54,11
9.12848,-2.18145,-1.1524,28,4
16.3667,-3.91419,2.66533,5,12
11.2636,-2.69585,-1.01327,18,5
12.5195,-2.99642,2.50227,38,13
10.7663,-2.57879,-0.580196,70,6
10.8893,-2.61229,-0.195467,26,7
14.0904,-3.38281,3.8828,12,15
0.515217,-0.124549,-0.122373,15,1
7.97081,-1.92834,0.429783,43,9
0.675505,-0.163422,-0.135093,25,2
7.97621,-1.93112,0.717989,9,10
7.45661,-1.8067,-1.21518,6,3
7.99455,-1.93852,1.01005,31,11
9.07452,-2.20206,-1.14655,20,4
16.3721,-3.97596,2.66846,6,12
11.1578,-2.70967,-1.00456,4,5
12.5147,-3.04149,2.50341,22,13
13.3243,-3.24318,3.16596,20,14
10.9093,-2.65738,-0.195991,93,7
14.0673,-3.42923,3.8797,9,15
10.6934,-2.6226,0.192186,28,8
0.514779,-0.126347,-0.122373,15,1
7.94463,-1.95139,0.428736,28,9
0.663491,-0.162969,-0.132803,26,2
10.7381,-2.63952,0.967429,8,10
7.77956,-1.91516,0.983729,20,11
11.1484,-2.74657,-1.40978,11,4
16.3236,-4.02457,2.66283,13,12
11.4114,-2.81347,-1.02826,22,5
17.1415,-4.22939,3.43189,15,13
9.38487,-2.31731,-0.506612,7,6
13.311,-3.2892,3.16551,31,14
10.9718,-2.71321,-0.197282,26,7
14.0383,-3.47414,3.87504,18,15
10.6745,-2.65749,0.192011,55,8
0.514335,-0.128143,-0.122373,15,1
8.26334,-2.06028,0.446321,44,9
0.65527,-0.163499,-0.131277,27,2
7.24066,-1.80798,-1.18202,31,3
7.77091,-1.94183,0.983486,24,11
9.13017,-2.28318,-1.15557,45,4
7.51949,-1.88179,1.2277,12,12
11.1285,-2.78703,-1.00369,25,5
8.22682,-2.06185,1.64859,22,13
9.44993,-2.37015,-0.51059,3,6
13.6982,-3.43568,3.26044,42,14
11.1232,-2.7919,-0.200179,95,7
17.1664,-4.31189,4.7426,12,15
10.7093,-2.70787,0.192814,63,8
0.513862,-0.130027,-0.122373,15,1
8.32737,-2.1087,0.450194,44,9
0.669891,-0.169757,-0.13433,25,2
8.23911,-2.08787,0.743613,24,10
7.67138,-1.94686,0.971786,22,11
9.05056,-2.29855,-1.14655,11,4
7.52403,-1.91226,1.22958,9,12
8.20018,-2.08715,1.64477,41,13
8.98828,-2.28941,-0.486096,39,6
13.6818,-3.4849,3.25954,24,14
9.1093,-2.32193,-0.164088,93,7
17.8674,-4.55766,4.94086,4,15
10.9646,-2.81524,0.197596,55,8
0.494507,-0.12706,-0.117874,16,1
8.45306,-2.17352,0.457416,35,9
0.6769,-0.17405,-0.135856,25,2
8.42242,-2.16721,0.76087,20,10
11.9182,-3.07117,1.51118,21,11
7.43318,-1.91682,-0.942538,10,4
13.7486,-3.54795,2.2489,8,12
10.6279,-2.74262,-0.960282,20,5
12.2931,-3.17463,2.46792,15,13
9.31477,-2.40723,-0.504205,38,6
13.4953,-3.49013,3.21815,47,14
9.19946,-2.38085,-0.165868,100,7
13.4931,-3.49458,3.73476,9,15
0.467389,-0.121659,-0.12941,15,0
11.0592,-2.88071,0.199481,27,8
0.512918,-0.133701,-0.122373,15,1
8.42029,-2.19646,0.456056,30,9
0.683887,-0.178394,-0.137382,24,2
6.21345,-1.62311,-1.01714,25,3
7.52473,-1.96706,0.954968,29,11
10.2418,-2.67926,-1.29986,17,4
7.4146,-1.94104,1.21393,8,12
10.6684,-2.79283,-0.964814,22,5
8.18731,-2.14485,1.64516,21,13
9.34688,-2.45037,-0.506403,14,6
9.03829,-2.37284,-0.16311,100,7
12.0832,-3.17449,3.34757,12,15
7.73341,-2.04325,0.139619,57,8
0.512448,-0.13549,-0.122373,15,1
8.2137,-2.17322,0.445274,56,9
0.649097,-0.171741,-0.130513,27,2
10.8127,-2.86289,0.978585,4,10
6.99827,-1.85425,-1.14666,37,3
13.7098,-3.63508,1.74151,46,11
10.1902,-2.70379,-1.2945,22,4
11.2074,-2.97577,-1.01449,29,5
16.9705,-4.50916,3.41319,8,13
9.29581,-2.47169,-0.5041,21,6
13.4763,-3.58576,3.2195,24,14
9.08213,-2.41827,-0.164053,93,7
12.0553,-3.21217,3.34291,30,15
7.40366,-1.9838,0.13379,49,8
0.511972,-0.137278,-0.122373,15,1
8.2215,-2.20602,0.446112,34,9
0.656079,-0.176041,-0.13204,26,2
10.7083,-2.8753,0.970043,8,10
7.06616,-1.89866,-1.15887,66,3
13.7047,-3.68497,1.74249,100,11
10.1654,-2.73522,-1.29255,15,4
7.31504,-1.96964,1.19985,24,12
10.2696,-2.76519,-0.930475,12,5
13.4844,-3.63837,3.22445,87,14
9.0968,-2.45621,-0.164471,17,7
13.2115,-3.56968,3.66695,34,15
7.99491,-2.17217,0.144611,52,8
0.51149,-0.139065,-0.122373,15,1
8.29276,-2.2562,0.450403,28,9
0.651671,-0.177299,-0.131277,27,2
8.45094,-2.30082,0.766273,61,10
7.25008,-1.97524,-1.19015,20,3
10.7883,-2.94122,1.37298,22,11
10.1692,-2.77435,-1.29425,37,4
7.37672,-2.01389,1.21112,45,12
10.2407,-2.79577,-0.928732,2,5
13.2589,-3.62224,2.67171,13,13
13.4923,-3.69107,3.2294,31,14
10.2338,-2.80158,-0.185205,22,7
13.1933,-3.61424,3.6654,28,15
8.01041,-2.20644,0.14503,38,8
0.511001,-0.140849,-0.122373,15,1
8.19627,-2.26071,0.445588,28,9
0.658619,-0.181661,-0.132803,26,2
7.80138,-2.15325,0.708053,20,10
7.91939,-2.1888,1.00883,4,11
10.148,-2.80665,-1.29279,15,4
7.42105,-2.05385,1.21956,30,12
7.13164,-1.97376,-0.647393,6,5
16.5818,-4.59231,3.3445,31,13
9.20013,-2.54969,-0.500332,7,6
16.2285,-4.50057,3.88805,28,14
8.95804,-2.48597,-0.162272,68,7
17.6201,-4.89311,4.89996,9,15
0.465194,-0.129797,-0.12941,15,0
11.535,-3.22063,0.209045,7,8
0.510507,-0.142632,-0.122373,15,1
7.79017,-2.17798,0.423921,56,9
0.663653,-0.185545,-0.133948,26,2
8.15454,-2.28139,0.740824,33,10
7.03638,-1.96989,-1.1573,27,3
7.82377,-2.1918,0.997623,4,11
7.18498,-2.01419,-0.916214,28,4
7.4747,-2.09682,1.22958,35,12
7.01728,-1.96851,-0.637631,5,5
16.5127,-4.6353,3.33381,16,13
9.19502,-2.58287,-0.500541,28,6
16.1658,-4.544,3.87681,28,14
9.00898,-2.53401,-0.163355,8,7
18.3077,-5.15296,5.09615,4,15
0.464739,-0.13142,-0.12941,15,0
11.5391,-3.26523,0.209324,47,8
0.510006,-0.144413,-0.122373,15,1
7.74408,-2.19427,0.421828,43,9
0.64789,-0.183579,-0.130895,27,2
7.80533,-2.2131,0.709796,37,10
6.95154,-1.97233,-1.14447,100,3
8.59711,-2.44084,1.09731,7,11
7.01368,-1.99261,-0.895252,7,4
7.31343,-2.07914,1.20423,78,12
10.5386,-2.99602,-0.958539,36,5
12.1118,-3.44555,2.4477,17,13
9.23589,-2.62917,-0.503263,45,6
16.9089,-4.81662,4.05902,14,14
8.91546,-2.54132,-0.161819,100,7
16.5173,-4.71132,4.60232,11,15
11.5565,-3.31376,0.209848,38,8
0.509498,-0.146193,-0.122373,15,1
7.74789,-2.2246,0.422456,48,9
0.643471,-0.184756,-0.130132,27,2
7.87607,-2.26289,0.716943,56,10
6.70731,-1.92836,-1.10537,45,3
7.77585,-2.23703,0.993479,24,11
10.1409,-2.91935,-1.29571,37,4
7.02899,-2.02483,1.15855,30,12
10.5453,-3.03775,-0.960108,16,5
12.16,-3.50521,2.45991,17,13
9.20555,-2.6553,-0.502111,38,6
12.5164,-3.61267,3.0076,61,14
8.66447,-2.50251,-0.157421,33,7
13.0024,-3.75787,3.62657,11,15
8.86984,-2.57693,0.161225,47,8
0.482787,-0.140354,-0.116075,16,1
7.74583,-2.2533,0.42277,40,9
0.665444,-0.193581,-0.134711,25,2
7.74951,-2.25584,0.706136,50,10
6.91674,-2.01474,-1.14103,52,3
7.74131,-2.25639,0.990067,31,11
10.0735,-2.93806,-1.2884,13,4
7.0124,-2.04658,1.15699,26,12
10.5346,-3.07454,-0.960108,38,5
12.1647,-3.55259,2.46334,26,13
9.32467,-2.72496,-0.509124,38,6
11.2823,-3.29918,2.71381,19,14
8.59811,-2.51589,-0.156374,8,7
16.217,-4.74834,4.52778,15,15
8.90491,-2.62086,0.162028,41,8
0.508465,-0.149746,-0.122373,15,1
7.72643,-2.27694,0.422142,15,9
0.651582,-0.192018,-0.13204,26,2
7.85052,-2.315,0.716072,16,10
6.95703,-2.05285,-1.14885,12,3
7.35452,-2.17153,0.941563,18,11
10.1679,-3.00414,-1.30181,19,4
7.19085,-2.12593,1.18765,65,12
8.15919,-2.41377,1.65393,26,13
9.21551,-2.72801,-0.503681,17,6
11.2707,-3.33854,2.71381,57,14
8.35729,-2.47713,-0.15215,41,7
12.937,-3.83701,3.6157,8,15
16.747,-4.9925,0.305033,19,8
0.50794,-0.15152,-0.122373,15,1
8.57008,-2.55811,0.468721,19,9
0.667839,-0.199345,-0.135474,25,2
7.86912,-2.35037,0.718512,41,10
7.08988,-2.11898,-1.17201,65,3
7.57702,-2.26601,0.971055,11,11
8.90026,-2.66343,-1.1407,1,4
7.65648,-2.29268,1.26587,35,12
10.6827,-3.19888,-0.975621,23,5
8.15824,-2.44449,1.65546,17,13
8.42729,-2.52671,-0.46108,7,6
12.4517,-3.7357,3.0013,40,14
8.79484,-2.64025,-0.160283,100,7
13.0086,-3.90772,3.63951,13,15
7.55976,-2.28243,0.137839,8,8
0.507408,-0.153292,-0.122373,15,1
8.58022,-2.59379,0.469768,17,9
0.652104,-0.19713,-0.132421,26,2
7.90282,-2.39052,0.722347,54,10
6.83476,-2.06874,-1.13102,88,3
7.63556,-2.31258,0.979586,18,11
8.87381,-2.6893,-1.1385,5,4
7.97924,-2.41972,1.32062,27,12
10.69,-3.2438,-0.977364,23,5
8.95926,-2.72032,-0.490702,70,6
12.4946,-3.79614,3.01479,17,14
8.31874,-2.52901,-0.151766,100,7
12.9542,-3.94073,3.62813,22,15
7.58617,-2.31932,0.138467,22,8
0.506869,-0.155062,-0.122373,15,1
10.5649,-3.23406,0.579045,17,9
0.645746,-0.197794,-0.131277,27,2
7.65018,-2.34473,0.700035,31,10
6.75348,-2.07119,-1.11882,16,3
7.55722,-2.31769,0.970568,24,11
8.94217,-2.74414,-1.1485,1,4
7.6705,-2.35536,1.27087,8,12
13.5773,-4.17173,-1.24267,5,5
8.367,-2.57403,-0.458777,36,6
12.2701,-3.77712,2.96396,23,14
8.37676,-2.57863,-0.152988,66,7
16.1898,-4.98681,4.53917,15,15
7.59099,-2.35125,0.138712,22,8
0.506298,-0.156919,-0.122373,15,1
0.656303,-0.203536,-0.133566,26,2
6.77994,-2.10393,0.621072,35,10
5.11625,-1.58864,-0.848501,11,3
7.67569,-2.38483,0.986898,18,11
8.81832,-2.74154,-1.13387,1,4
13.5094,-4.20253,-1.23779,27,5
7.41381,-2.30772,1.5093,1,13
8.35224,-2.60143,-0.458463,14,6
12.2866,-3.8292,2.97115,59,14
8.16489,-2.54621,-0.149288,100,7
12.898,-4.0247,3.62036,12,15
7.60372,-2.38432,0.139096,22,8
0.505747,-0.158685,-0.122373,15,1
7.59553,-2.38466,0.417222,38,9
0.640603,-0.201121,-0.130513,27,2
6.77446,-2.12818,0.621246,22,10
5.11256,-1.60708,-0.848813,36,3
7.34351,-2.30976,0.945219,2,11
9.96943,-3.13761,-1.28328,34,4
7.64968,-2.409,1.27025,44,12
8.36169,-2.63322,-0.766971,6,5
8.32216,-2.62397,-0.457312,54,6
14.4122,-4.54693,3.48899,11,14
8.11782,-2.56265,-0.14859,100,7
18.4729,-5.83513,5.19088,19,15
7.6106,-2.41569,0.139375,20,8
0.50519,-0.16045,-0.122373,15,1
7.53386,-2.39422,0.414291,55,9
0.64551,-0.20514,-0.131658,26,2
6.78218,-2.15665,0.622641,61,10
5.12574,-1.63091,-0.851942,41,3
7.04032,-2.24144,0.907195,13,11
12.9412,-4.1226,-1.66766,19,4
7.73345,-2.46508,1.28558,26,12
9.25224,-2.94921,-0.849594,1,5
7.4424,-2.37374,1.51846,6,13
8.37193,-2.67182,-0.460556,32,6
14.426,-4.60669,3.49619,13,14
8.11454,-2.5928,-0.148695,23,7
13.6516,-4.36467,3.84036,12,15
8.19041,-2.63123,0.150161,57,8
0.504627,-0.162212,-0.122373,15,1
7.56539,-2.43335,0.41649,55,9
0.642921,-0.206791,-0.131277,27,2
6.77271,-2.1797,0.622466,18,10
8.39736,-2.70418,-1.39727,12,3
7.06457,-2.27635,0.911339,36,11
13.1062,-4.22562,-1.69082,3,4
7.74735,-2.49934,1.28933,48,12
10.5427,-3.40112,-0.969172,8,5
8.35495,-2.69858,-0.460138,18,6
18.137,-5.86158,4.40049,26,14
8.11495,-2.62419,-0.148869,97,7
12.5335,-4.05546,3.52977,4,15
10.488,-3.40977,0.1925,15,8
0.504057,-0.163973,-0.122373,15,1
7.56065,-2.46098,0.416699,66,9
0.647796,-0.210857,-0.132421,26,2
8.01161,-2.60931,0.737163,41,10
5.06352,-1.65013,-0.843495,32,3
7.04149,-2.29607,0.909389,33,11
8.72634,-2.84715,-1.12705,1,4
7.14894,-2.33387,1.19109,21,12
8.82181,-2.88171,-0.811943,16,5
7.43872,-2.42991,1.52113,28,13
8.27714,-2.70539,-0.45637,47,6
18.1164,-5.92485,4.40049,9,14
8.13615,-2.66245,-0.149428,97,7
12.5523,-4.11001,3.53909,6,15
10.476,-3.44636,0.1925,36,8
0.466461,-0.153545,-0.113375,16,1
7.47423,-2.46174,0.412407,36,9
0.648884,-0.213844,-0.132803,26,2
8.18931,-2.70043,0.75442,48,10
5.03868,-1.66248,-0.840366,12,3
7.60462,-2.5091,0.983242,18,11
5.44206,-1.79663,-0.703674,4,4
7.75598,-2.56204,1.29371,25,12
13.7075,-4.53067,-1.26306,27,5
7.4484,-2.46332,1.52495,9,13
8.32784,-2.75578,-0.459719,14,6
14.3558,-4.75328,3.49124,22,14
8.23311,-2.72603,-0.151382,66,7
12.5471,-4.15684,3.54168,13,15
7.79577,-2.59633,0.143424,15,8
0.502871,-0.167575,-0.122373,15,1
7.33821,-2.44679,0.405394,25,9
0.646271,-0.215487,-0.132421,26,2
8.19496,-2.73404,0.755815,20,10
5.00849,-1.67193,-0.836299,28,3
7.47487,-2.49671,0.967643,24,11
5.46556,-1.82663,-0.707573,11,4
7.04588,-2.35615,1.1767,14,12
13.6179,-4.55385,-1.25626,15,5
8.01878,-2.68304,1.64363,47,13
4.85416,-1.62512,-0.268274,42,6
14.6033,-4.89187,3.55558,24,14
8.20031,-2.74856,-0.150963,49,7
13.7205,-4.60145,3.87763,13,15
0.502283,-0.16933,-0.122373,15,1
8.0677,-2.72135,0.446216,28,9
0.641794,-0.216487,-0.131658,26,2
6.78275,-2.28924,0.626301,9,10
4.92963,-1.66475,-0.824097,43,3
7.07494,-2.39061,0.916945,11,11
5.22597,-1.76686,-0.67735,22,4
8.80247,-2.97776,-0.812989,16,5
7.53144,-2.54925,1.54555,26,13
4.85981,-1.6459,-0.268902,57,6
14.9516,-5.06665,3.64466,26,14
8.38952,-2.84459,-0.154628,83,7
12.0907,-4.1019,3.42107,32,15
7.46136,-2.54296,0.137595,22,8
0.501689,-0.171082,-0.122373,15,1
7.61772,-2.59922,0.421828,65,9
0.648467,-0.221261,-0.133185,26,2
6.79546,-2.31998,0.628219,15,10
4.93688,-1.68642,-0.826287,22,3
8.48287,-2.89937,1.10072,32,11
4.86853,-1.66497,-0.631771,48,4
7.01244,-2.39953,1.17388,36,12
8.83863,-3.02614,-0.817347,21,5
7.93484,-2.7167,1.63027,33,13
4.84648,-1.66027,-0.268483,60,6
14.7993,-5.07269,3.61181,26,14
8.73893,-2.99712,-0.16126,100,7
12.1293,-4.16227,3.43608,33,15
7.11592,-2.45299,0.131382,12,8
0.501089,-0.172832,-0.122373,15,1
7.36128,-2.54044,0.408116,12,9
0.629094,-0.217229,-0.129368,27,2
6.82458,-2.35789,0.631705,24,10
4.99974,-1.72838,-0.837863,10,3
4.87207,-1.6852,-0.632989,51,4
6.95922,-2.40848,1.16638,73,12
8.79412,-3.04524,-0.814209,19,5
7.80981,-2.70592,1.60661,35,13
4.84791,-1.68063,-0.268902,60,6
15.0217,-5.21056,3.67075,21,14
8.72841,-3.0276,-0.16126,76,7
12.2881,-4.26475,3.48526,28,15
8.14346,-2.84064,0.150544,20,8
0.53725,-0.187511,-0.131371,14,1
7.86291,-2.74585,0.436482,28,9
0.639453,-0.223307,-0.131658,26,2
6.87649,-2.40272,0.637283,37,10
5.0403,-1.76212,-0.845685,23,3
10.1445,-3.54859,1.3196,34,11
4.88647,-1.71026,-0.635671,17,4
11.945,-4.18307,2.00455,28,12
4.8496,-1.69831,-0.449549,15,5
7.51869,-2.63448,1.54861,59,13
4.8684,-1.7068,-0.270368,21,6
12.5559,-4.4044,3.07193,21,14
8.57386,-3.00924,-0.158607,41,7
12.5331,-4.4013,3.55928,22,15
14.2228,-5.017,0.263252,16,8
0.477787,-0.16863,-0.116975,16,1
7.32031,-2.58507,0.40686,48,9
0.642372,-0.226845,-0.132421,26,2
6.86243,-2.42472,0.63676,43,10
5.1738,-1.82909,-0.86915,6,3
7.02172,-2.48376,0.914508,18,11
4.86176,-1.72068,-0.633233,11,4
6.90829,-2.44635,1.16074,8,12
4.85679,-1.71988,-0.45077,17,5
7.57052,-2.68235,1.5612,13,13
4.91324,-1.7418,-0.273194,35,6
10.6818,-3.78892,2.61663,8,14
8.20713,-2.91275,-0.15201,66,7
6.98205,-2.49032,0.129392,57,8
0.49922,-0.178157,-0.122373,15,1
7.1382,-2.54882,0.39723,55,9
0.630483,-0.225125,-0.130132,27,2
6.79763,-2.42855,0.631531,26,10
4.80094,-1.71615,-0.807515,36,3
7.5588,-2.70347,0.985679,15,11
4.83703,-1.73096,-0.630796,35,4
6.90157,-2.47112,1.16106,6,12
10.4756,-3.75285,-0.97353,10,5
4.91465,-1.76163,-0.273612,30,6
12.4863,-4.47813,3.06248,23,14
8.15174,-2.92517,-0.151173,41,7
12.5584,-4.50892,3.57533,4,15
0.54519,-0.196603,-0.155291,12,0
14.1836,-5.11482,0.263182,12,8
0.476598,-0.171962,-0.116975,16,1
6.94327,-2.50658,0.386867,33,9
0.640732,-0.231436,-0.132421,26,2
6.80743,-2.46022,0.633274,58,10
4.73145,-1.71089,-0.796877,35,3
7.13676,-2.58065,0.931813,9,11
4.88323,-1.76674,-0.63762,59,4
6.8929,-2.49519,1.16106,6,12
4.92491,-1.78377,-0.458265,38,5
8.5414,-3.097,-0.476153,29,6
10.5756,-3.83668,2.59728,16,14
4.97399,-1.80449,-0.0923581,16,7
12.4917,-4.53428,3.56083,12,15
8.53833,-3.11445,0.158642,40,8
0.497933,-0.181725,-0.122373,15,1
7.08976,-2.58887,0.395555,21,9
0.636232,-0.232324,-0.131658,26,2
4.79967,-1.75453,-0.809392,8,3
7.01912,-2.56724,0.917676,18,11
4.86926,-1.7819,-0.636646,26,4
4.85099,-1.77713,-0.45199,30,5
13.8185,-5.06231,2.86061,7,13
4.96943,-1.8215,-0.277381,13,6
10.5658,-3.87491,2.59818,66,14
4.9542,-1.81788,-0.0921138,20,7
12.4188,-4.55939,3.54479,9,15
6.98328,-2.57488,0.129916,38,8
0.497295,-0.183462,-0.122373,15,1
6.73967,-2.48773,0.376505,60,9
0.62801,-0.231934,-0.130132,27,2
6.76722,-2.50059,0.631182,16,10
4.77653,-1.76594,-0.806576,37,3
7.87777,-2.91251,1.03126,21,11
4.89839,-1.81197,-0.641277,11,4
7.76224,-2.87288,1.31092,10,12
4.77189,-1.76707,-0.445192,35,5
10.8359,-4.01476,2.2462,7,13
8.27369,-3.0671,-0.462441,36,6
10.5004,-3.89464,2.58559,22,14
9.20944,-3.41582,-0.171452,17,7
12.3666,-4.58927,3.53443,26,15
7.93551,-2.9575,0.147822,43,8
0.478393,-0.178388,-0.117874,16,1
6.86799,-2.56101,0.384146,45,9
0.645631,-0.240878,-0.133948,26,2
8.7692,-3.27344,0.818915,24,10
5.18701,-1.93728,-0.876972,13,3
7.54586,-2.81978,0.989092,2,11
4.68564,-1.75189,-0.614222,35,4
4.70256,-1.75915,-0.439265,40,5
10.4546,-3.91713,2.57749,11,14
7.76367,-2.9089,-0.144715,32,7
12.5394,-4.70078,3.58827,7,15
8.52827,-3.21066,0.159061,62,8
0.459562,-0.173104,-0.113375,16,1
6.84966,-2.58144,0.383623,38,9
0.637439,-0.24036,-0.132421,26,2
8.68874,-3.278,0.812466,16,10
4.73329,-1.78573,-0.801257,25,3
7.91533,-2.9878,1.03881,14,11
4.57581,-1.72814,-0.600572,73,4
8.37263,-3.16375,1.41761,49,12
4.65911,-1.76146,-0.435779,52,5
10.9706,-4.14764,2.27979,31,13
10.4251,-3.94557,2.57344,18,14
9.14483,-3.46284,-0.170685,17,7
12.5175,-4.74247,3.58671,12,15
10.5542,-4.01549,0.197107,13,8
0.49538,-0.188573,-0.122373,15,1
6.77528,-2.58046,0.379959,30,9
0.636638,-0.242472,-0.132421,26,2
8.16956,-3.11312,0.764879,15,10
4.60336,-1.75509,-0.780295,60,3
7.83994,-2.99065,1.03028,26,11
4.55306,-1.73773,-0.598379,54,4
7.72302,-2.94914,1.30936,22,12
4.66628,-1.78188,-0.436999,50,5
10.9047,-4.16629,2.2691,49,13
4.86548,-1.85989,-0.272984,22,6
19.0061,-7.26912,4.69788,15,14
8.28479,-3.17028,-0.154838,8,7
14.1751,-5.42714,4.06708,10,15
12.2218,-4.69887,0.228557,10,8
0.494718,-0.190301,-0.122373,15,1
6.82961,-2.62848,0.383518,34,9
0.632123,-0.243282,-0.131658,26,2
7.88718,-3.03709,0.739429,61,10
4.61195,-1.77683,-0.782798,30,3
10.2077,-3.93475,1.34324,31,11
4.58401,-1.7679,-0.603253,39,4
4.65445,-1.796,-0.436476,43,5
10.9707,-4.23544,2.28589,47,13
4.90554,-1.89486,-0.275601,41,6
19.3423,-7.47522,4.78741,33,14
9.13349,-3.53165,-0.170929,70,7
14.0444,-5.43337,4.03499,5,15
15.5512,-6.04129,0.291211,8,8
0.472255,-0.183555,-0.116975,16,1
6.7962,-2.6429,0.382157,37,9
0.645864,-0.251293,-0.134711,25,2
7.70756,-2.99886,0.723567,18,10
4.78981,-1.86458,-0.814085,6,3
7.2547,-2.82557,0.955943,2,11
4.846,-1.8884,-0.638595,47,4
4.7128,-1.83839,-0.442577,26,5
10.8691,-4.24207,2.26796,44,13
4.93577,-1.92735,-0.277695,24,6
13.9702,-5.45518,3.46245,18,14
9.16022,-3.57879,-0.171662,96,7
10.1641,-3.97304,2.92414,33,15
8.23819,-3.23515,0.154489,13,8
0.493344,-0.193836,-0.122373,15,1
6.76044,-2.65756,0.380692,27,9
0.630323,-0.24791,-0.131658,26,2
13.7521,-5.40879,1.29287,11,10
4.65978,-1.83366,-0.793123,33,3
8.59636,-3.38446,1.13436,28,11
4.90554,-1.93234,-0.64737,33,4
6.50948,-2.56547,1.10818,8,12
4.77276,-1.88197,-0.448852,12,5
6.53804,-2.57936,1.36619,21,13
15.204,-6.00129,-0.856635,16,6
13.7942,-5.44481,3.42375,24,14
10.5941,-4.18379,-0.198818,18,7
10.1423,-4.00743,2.92207,12,15
7.91775,-3.14285,0.148695,31,8
0.494441,-0.196362,-0.122823,15,1
7.30934,-2.90431,0.412198,21,9
0.618507,-0.245759,-0.129368,27,2
8.36115,-3.32393,0.787191,5,10
4.64385,-1.84707,-0.791559,30,3
7.61374,-3.02988,1.00615,2,11
4.87445,-1.94076,-0.644201,49,4
8.72532,-3.47575,-0.821704,14,5
13.658,-5.44623,-0.770595,19,6
10.6791,-4.26051,2.65442,30,14
10.0159,-3.99797,-0.188242,45,7
10.1365,-4.04816,2.92466,17,15
8.17029,-3.27616,0.153651,48,8
0.479284,-0.192282,-0.119224,16,1
10.0943,-4.05173,0.570043,44,9
0.628577,-0.252304,-0.131658,26,2
11.2337,-4.51138,1.05912,4,10
4.6777,-1.87948,-0.798442,28,3
7.63627,-3.06976,1.01054,11,11
4.83633,-1.94517,-0.640058,46,4
7.08654,-2.85165,1.20986,20,12
4.89628,-1.97028,-0.461751,23,5
10.6631,-4.29302,2.23437,21,13
8.06996,-3.25065,-0.455951,43,6
10.581,-4.26425,2.63373,52,14
9.99448,-4.02992,-0.188102,73,7
10.0811,-4.06689,2.91275,10,15
8.03648,-3.25511,0.151347,13,8
0.471386,-0.191027,-0.117424,16,1
6.62626,-2.6866,0.374725,30,9
0.629512,-0.255234,-0.13204,26,2
6.81088,-2.76284,0.643035,20,10
4.67843,-1.89876,-0.799693,43,3
7.62183,-3.0949,1.01005,24,11
4.79273,-1.9471,-0.635183,31,4
6.43971,-2.61751,1.10099,18,12
4.8783,-1.98286,-0.460705,15,5
10.1116,-4.11204,2.1218,8,13
15.4641,-6.2919,-0.874953,35,6
6.90022,-2.80891,1.71998,10,14
8.07466,-3.28863,-0.152185,57,7
10.0364,-4.08967,2.90395,35,15
8.78204,-3.59283,0.165623,10,8
0.510393,-0.208911,-0.127322,15,1
8.46327,-3.46587,0.479293,7,9
0.635884,-0.260406,-0.133566,26,2
7.71195,-3.15976,0.729145,15,10
4.62425,-1.8956,-0.791559,16,3
6.85062,-2.80964,0.909145,2,11
4.63164,-1.90052,-0.614709,41,4
7.13773,-2.93031,1.22207,39,12
8.70871,-3.57526,-0.823622,32,5
15.4624,-6.35419,-0.876104,13,6
6.82188,-2.80482,1.70288,28,14
8.15745,-3.3556,-0.153965,33,7
9.99888,-4.11512,2.89722,22,15
8.32959,-3.44172,0.157316,30,8
0.473642,-0.195802,-0.118324,16,1
8.06723,-3.33661,0.457521,12,9
0.613201,-0.25362,-0.128987,27,2
7.82422,-3.2377,0.740824,31,10
4.7691,-1.97445,-0.817527,42,3
6.8261,-2.82746,0.907195,2,11
4.61948,-1.91439,-0.613978,34,4
7.14023,-2.9605,1.22426,22,12
8.85998,-3.67355,-0.839135,29,5
6.89642,-2.86082,1.45129,15,13
13.4478,-5.58127,-0.763058,39,6
6.84985,-2.84431,1.71233,11,14
9.03394,-3.75307,-0.170754,26,7
10.4857,-4.35835,3.04268,11,15
15.9651,-6.662,0.301962,10,8
0.490939,-0.204962,-0.122823,15,1
0.612312,-0.255759,-0.128987,27,2
7.84596,-3.27882,0.743961,41,10
4.651,-1.9446,-0.798442,42,3
6.80337,-2.84591,0.905489,9,11
7.92539,-3.31689,-1.0549,23,4
8.05869,-3.37433,-0.764356,15,5
6.91537,-2.89702,1.4574,9,13
13.3767,-5.60656,-0.760128,35,6
7.98446,-3.3498,-0.151138,33,7
9.97347,-4.18632,2.89826,15,15
7.66223,-3.22878,0.145134,13,8
0.490221,-0.206674,-0.122823,15,1
7.71491,-3.25256,0.438785,9,9
0.615033,-0.259421,-0.12975,27,2
7.84916,-3.31239,0.745356,20,10
4.71698,-1.99156,-0.810956,37,3
6.81533,-2.87891,0.908414,29,11
8.27581,-3.49754,-1.10316,15,4
8.05421,-3.40554,-0.765053,8,5
6.71175,-2.83929,1.41657,21,13
8.62449,-3.65022,-0.490807,38,6
10.0559,-4.25814,-0.190615,46,7
9.98266,-4.22916,2.90499,42,15
7.62572,-3.24321,0.144646,55,8
0.489533,-0.208299,-0.122823,15,1
0.596061,-0.253873,-0.125934,29,2
4.75942,-2.0281,-0.819404,26,3
6.82401,-2.90928,0.910852,18,11
8.47597,-3.61531,-1.13144,23,4
8.00871,-3.41766,1.37913,49,12
5.28822,-2.2578,-0.503063,3,5
10.7305,-4.58139,2.26796,10,13
8.70601,-3.71882,-0.496145,31,6
10.6012,-4.53056,2.66162,16,14
13.54,-5.78928,-0.257039,93,7
10.4563,-4.47293,3.04734,21,15
7.62721,-3.27533,0.14489,13,8
0.460155,-0.197698,-0.115625,16,1
0.624028,-0.268362,-0.13204,26,2
8.07718,-3.47357,0.769237,22,10
5.00272,-2.15244,-0.86258,37,3
6.81199,-2.9323,0.910608,36,11
4.82419,-2.07762,-0.644933,11,4
8.11828,-3.49796,1.40009,40,12
4.83205,-2.08301,-0.460357,13,5
10.7479,-4.63546,2.27521,7,13
8.02114,-3.46109,-0.457835,39,6
13.4702,-5.81511,-0.256097,42,7
9.91564,-4.28267,2.89411,47,15
7.56563,-3.28178,0.143947,32,8
0.509481,-0.221106,-0.128222,14,1
7.70183,-3.34405,0.440041,41,9
0.619439,-0.269083,-0.131277,27,2
7.70988,-3.34915,0.73542,41,10
4.65963,-2.0251,-0.804699,48,3
6.8103,-2.9612,0.911826,18,11
4.58536,-1.99472,-0.613978,44,4
7.39177,-3.2171,1.27682,60,12
4.80246,-2.09116,-0.458265,15,5
8.48078,-3.69635,-0.48484,25,6
9.76286,-4.25515,2.45871,35,14
12.6569,-5.51914,-0.241018,100,7
9.93175,-4.33288,2.90343,31,15
7.47662,-3.27578,0.142481,55,8
0.469402,-0.20576,-0.118324,16,1
7.55599,-3.3137,0.4324,105,9
0.618496,-0.271243,-0.131277,27,2
8.12813,-3.56631,0.776558,39,10
4.78241,-2.09933,-0.827226,41,3
6.80849,-2.99013,0.913045,18,11
4.56166,-2.00433,-0.611784,52,4
7.41248,-3.25848,1.28245,23,12
4.87538,-2.14319,-0.465935,13,5
6.90277,-3.03585,1.46579,30,13
8.65064,-3.80637,-0.495308,17,6
10.0254,-4.41338,2.5289,52,14
7.94247,-3.49808,-0.151487,66,7
9.89813,-4.36147,2.89826,45,15
7.88393,-3.4871,0.150475,60,8
0.486501,-0.215283,-0.122823,15,1
7.83476,-3.46862,0.449043,25,9
0.599594,-0.265453,-0.12746,28,2
8.16482,-3.61645,0.781264,20,10
4.63599,-2.05439,-0.803135,38,3
6.73449,-2.98572,0.904514,13,11
4.62541,-2.05163,-0.62129,44,4
7.31981,-3.24828,1.26837,7,12
9.53178,-4.22988,-0.912346,20,5
7.07515,-3.14119,1.50472,15,13
10.3786,-4.61001,-0.595165,13,6
10.0117,-4.44914,2.52935,54,14
12.8747,-5.72412,-0.245939,70,7
9.99051,-4.44389,2.92983,46,15
7.27828,-3.24963,0.139131,33,8
0.460837,-0.205853,-0.116525,16,1
7.6822,-3.4332,0.440983,21,9
0.598663,-0.267544,-0.12746,28,2
8.13759,-3.63842,0.77987,45,10
4.61076,-2.06249,-0.800006,33,3
8.1935,-3.66684,1.10219,5,11
4.67076,-2.09129,-0.628358,29,4
7.38414,-3.30773,1.28151,7,12
4.69811,-2.1055,-0.450421,5,5
10.8031,-4.84153,2.30116,24,13
7.65431,-3.43196,-0.439622,39,6
10.8318,-4.85893,2.7408,40,14
11.2565,-5.05179,-0.215363,66,7
9.98023,-4.48111,2.93138,20,15
0.484987,-0.218674,-0.122823,15,1
0.601258,-0.271352,-0.128224,28,2
4.59597,-2.07613,-0.798755,45,3
8.14085,-3.67744,1.09682,10,11
4.69599,-2.1223,-0.632746,31,4
10.3532,-4.6812,1.79962,9,12
10.8139,-4.89405,2.30726,25,13
8.64237,-3.91308,-0.497192,21,6
10.8477,-4.91388,2.74935,70,14
8.00377,-3.62562,-0.153372,90,7
12.7429,-5.77508,3.74874,7,15
13.8071,-6.28354,0.264788,3,8
0.484182,-0.22045,-0.122823,15,1
0.60388,-0.275077,-0.128987,27,2
7.47136,-3.4049,0.718338,18,10
4.52219,-2.06183,-0.787178,37,3
7.93226,-3.61828,1.0705,4,11
4.71347,-2.15103,-0.636158,29,4
7.89038,-3.60251,1.37381,22,12
11.2022,-5.11693,2.39389,37,13
12.7777,-5.83929,-0.736262,3,6
10.0666,-4.60248,2.55544,16,14
13.2749,-6.07214,-0.254805,51,7
10.0393,-4.59421,2.9583,7,15
9.69827,-4.45456,0.186287,38,8
0.462161,-0.212375,-0.117424,16,1
10.9552,-5.0365,0.631904,12,9
0.602916,-0.277183,-0.128987,27,2
7.32729,-3.37018,0.705613,15,10
4.51676,-2.07843,-0.787491,38,3
7.75549,-3.57041,1.04832,26,11
4.54546,-2.09356,-0.614465,24,4
7.90467,-3.64243,1.3785,50,12
4.8079,-2.21545,-0.463146,31,5
9.79891,-4.51736,2.09737,7,13
4.59579,-2.11966,-0.265239,28,6
9.8346,-4.53798,2.50056,22,14
13.0721,-6.03463,-0.251315,34,7
10.1792,-4.70132,3.00437,11,15
7.98634,-3.70205,0.153651,47,8
0.503846,-0.233664,-0.128222,14,1
12.251,-5.68415,0.707792,6,9
0.594821,-0.275981,-0.12746,28,2
7.56307,-3.51066,0.729494,24,10
4.46648,-2.07422,-0.779982,21,3
7.95001,-3.69365,1.07635,5,11
4.86035,-2.25919,-0.658094,47,4
10.3261,-4.80199,1.80369,23,12
4.48037,-2.08352,-0.432292,35,5
7.70222,-3.58342,1.65126,7,13
11.1939,-5.21028,-0.647082,35,6
7.52968,-3.50795,-0.144995,24,7
10.0507,-4.68459,2.97124,25,15
0.503027,-0.235421,-0.128222,14,1
7.26596,-3.40208,0.420467,33,9
0.59741,-0.27972,-0.128224,28,2
9.3081,-4.36023,0.899273,22,10
4.50751,-2.11243,-0.78843,38,3
8.03592,-3.76772,1.08976,5,11
4.48041,-2.10164,-0.607641,36,4
7.87726,-3.69669,1.37819,16,12
4.48028,-2.10253,-0.43299,30,5
11.1865,-5.25441,-0.64771,81,6
11.039,-5.18986,-0.212919,22,7
10.0815,-4.74184,2.98522,32,15
10.9974,-5.19375,0.212291,28,8
0.502161,-0.237263,-0.128222,14,1
7.12705,-3.36894,0.41314,24,9
0.603481,-0.285264,-0.12975,27,2
4.51581,-2.13654,-0.791246,27,3
8.04359,-3.80734,1.09268,5,11
4.47806,-2.1206,-0.608372,43,4
6.82469,-3.23331,1.1961,3,12
4.52296,-2.14282,-0.43787,43,5
9.76445,-4.62815,2.10043,41,13
10.1027,-4.79277,2.58154,54,14
11.0416,-5.24058,-0.213338,21,7
9.81973,-4.66275,2.91275,43,15
10.9593,-5.22264,0.211907,58,8
0.480221,-0.228951,-0.122823,15,1
10.9135,-5.20548,0.633684,19,9
0.62729,-0.299202,-0.135093,25,2
8.01256,-3.82351,0.776732,26,10
4.3461,-2.07485,-0.762775,43,3
7.96935,-3.80631,1.08439,2,11
4.45988,-2.13108,-0.606909,38,4
4.53702,-2.16891,-0.439962,36,5
9.81731,-4.69524,2.11531,33,13
4.55095,-2.17752,-0.264401,31,6
9.92063,-4.74891,2.53925,67,14
9.92187,-4.75376,2.94795,22,15
11.9431,-5.74267,0.231314,27,8
0.479419,-0.230626,-0.122823,15,1
7.06615,-3.39919,0.410942,39,9
0.594399,-0.286065,-0.128224,28,2
7.3601,-3.54376,0.714677,15,10
4.36374,-2.10201,-0.767155,30,3
7.92561,-3.81945,1.08025,15,11
4.46136,-2.15094,-0.608128,36,4
10.525,-5.07438,1.85062,9,12
4.63351,-2.23494,-0.450072,38,5
9.86098,-4.75849,2.12828,21,13
13.5472,-6.54024,-0.788389,35,6
9.87066,-4.76741,2.5307,39,14
11.924,-5.75916,-0.23114,91,7
9.92866,-4.79756,2.95468,50,15
6.82114,-3.30776,0.132324,46,8
0.478651,-0.232214,-0.122823,15,1
7.08299,-3.43779,0.412617,38,9
0.589864,-0.286423,-0.12746,28,2
7.36023,-3.57552,0.715897,16,10
4.45803,-2.16566,-0.784988,47,3
7.83078,-3.8058,1.06904,14,11
4.54168,-2.20826,-0.620071,48,4
6.78926,-3.30255,1.19579,21,12
4.58089,-2.2293,-0.445714,31,5
12.5881,-6.12875,-0.73375,16,6
10.3543,-5.04565,-0.201052,95,7
9.94311,-4.84743,2.964,16,15
6.81135,-3.33243,0.132359,13,8
0.477838,-0.233884,-0.122823,15,1
7.16602,-3.50905,0.418164,27,9
0.588911,-0.288377,-0.12746,28,2
13.1883,-6.4609,1.28485,38,10
4.50188,-2.20642,-0.794061,53,3
7.79605,-3.82262,1.06611,26,11
4.40919,-2.1629,-0.60301,64,4
7.89489,-3.8745,1.39289,28,12
4.41391,-2.16713,-0.430201,38,5
12.2708,-6.02737,-0.716479,45,6
9.58088,-4.70815,2.46456,14,14
8.70716,-4.28068,-0.169358,17,7
9.85852,-4.84886,2.94381,40,15
6.77637,-3.34467,0.131905,42,8
0.477019,-0.23555,-0.122823,15,1
7.09643,-3.50573,0.414815,8,9
0.59489,-0.294013,-0.128987,27,2
7.25829,-3.58885,0.708402,26,10
4.36274,-2.1581,-0.770909,36,3
9.56375,-4.73085,1.3101,3,11
4.43186,-2.19325,-0.607153,41,4
10.5845,-5.24041,1.87064,24,12
4.39203,-2.17545,-0.428806,17,5
10.5442,-5.22499,2.28742,9,13
10.6901,-5.29962,-0.62531,43,6
7.89318,-3.91477,-0.153791,49,7
10.025,-4.97426,2.99868,21,15
6.84998,-3.41229,0.133581,37,8
0.476152,-0.237297,-0.122823,15,1
10.1722,-5.07166,0.595688,17,9
0.576291,-0.287328,-0.125171,29,2
7.25998,-3.62127,0.709796,26,10
4.39407,-2.19272,-0.777792,30,3
7.79337,-3.89072,1.06953,4,11
4.46108,-2.2281,-0.612272,48,4
7.83516,-3.91501,1.38726,45,12
4.4557,-2.22639,-0.435779,25,5
12.1274,-6.06499,-0.710618,29,6
10.1953,-5.10095,2.63193,42,14
7.88593,-3.94726,-0.15393,49,7
10.1604,-5.08795,3.04475,27,15
12.7559,-6.40995,0.249185,22,8
0.461392,-0.231955,-0.119224,16,1
7.31561,-3.67937,0.429155,32,9
0.589316,-0.296395,-0.128224,28,2
9.81197,-4.93705,0.960979,25,10
4.45343,-2.24179,-0.789681,52,3
12.9976,-6.54562,1.78685,20,11
4.97448,-2.50626,-0.683931,15,4
7.81791,-3.94055,1.38664,44,12
4.31803,-2.17646,-0.423054,52,5
10.6897,-5.39041,2.32711,21,13
10.8008,-5.44879,-0.633998,6,6
14.2466,-7.19024,3.68425,21,14
7.9203,-3.9991,-0.154873,33,7
9.80807,-4.95441,2.94433,25,15
0.491864,-0.249429,-0.127322,15,1
7.35437,-3.73109,0.43219,26,9
0.588277,-0.29845,-0.128224,28,2
9.61346,-4.87929,0.943199,12,10
4.52132,-2.29578,-0.803135,40,3
9.09516,-4.62023,1.25257,5,11
4.6684,-2.37251,-0.642983,11,4
9.52623,-4.84339,1.69262,21,12
4.30292,-2.18866,-0.422357,57,5
12.1363,-6.17578,-0.713653,22,6
10.0865,-5.13487,2.61303,24,14
7.92411,-4.03579,-0.155222,67,7
9.90087,-5.04475,2.97745,11,15
12.6841,-6.48519,0.248662,15,8
0.456291,-0.233396,-0.118324,16,1
7.07816,-3.62208,0.416699,27,9
0.587179,-0.300604,-0.128224,28,2
9.38626,-4.80732,0.922631,10,10
4.49354,-2.30243,-0.799693,36,3
8.5154,-4.36318,1.17482,16,11
5.11585,-2.62242,-0.705867,9,4
9.30888,-4.77385,1.65695,32,12
4.29525,-2.20367,-0.422357,51,5
9.48939,-4.8706,2.07333,15,13
12.5241,-6.43096,-0.737832,26,6
10.097,-5.18694,2.62068,14,14
7.97401,-4.09632,-0.156478,41,7
10.177,-5.23028,3.06597,26,15
12.8362,-6.6224,0.252117,48,8
0.490067,-0.252942,-0.127322,15,1
9.85102,-5.08667,0.581034,35,9
0.600082,-0.309858,-0.131277,27,2
8.01525,-4.14052,0.789282,7,10
4.41703,-2.28273,-0.787491,21,3
8.37063,-4.32781,1.15703,28,11
4.33745,-2.24352,-0.599597,17,4
9.65273,-4.99495,1.72141,21,12
4.29953,-2.22581,-0.423577,20,5
9.39038,-4.86128,2.05539,29,13
9.70469,-5.02614,-0.572765,27,6
10.1983,-5.28402,2.65172,18,14
12.0654,-6.25408,-0.237213,100,7
9.78735,-5.07545,2.95416,45,15
6.90229,-3.59158,0.135815,22,8
0.461524,-0.240254,-0.120124,15,1
7.02549,-3.6588,0.415129,30,9
0.581531,-0.302984,-0.12746,28,2
8.05833,-4.20026,0.795035,50,10
4.83251,-2.51993,-0.863205,37,3
8.0492,-4.19729,1.11462,35,11
8.13295,-4.24277,-1.12632,4,4
9.48113,-4.94819,1.69387,7,12
7.36483,-3.84533,-0.726879,13,5
9.49084,-4.95747,2.08134,30,13
9.65257,-5.0441,-0.570776,47,6
10.2185,-5.34213,2.66207,70,14
10.6116,-5.54759,-0.20901,9,7
6.90325,-3.62429,0.136094,24,8
0.491695,-0.258255,-0.128222,14,1
9.51821,-4.99929,0.563449,69,9
0.601325,-0.315971,-0.13204,26,2
8.04714,-4.23022,0.795383,39,10
4.79571,-2.52208,-0.8582,26,3
8.01093,-4.21475,1.11145,42,11
5.37526,-2.82926,-0.74584,11,4
8.94151,-4.70834,-0.884108,10,5
9.74618,-5.13423,2.14126,20,13
9.63844,-5.07962,-0.570985,84,6
10.1464,-5.34959,2.64812,26,14
7.86096,-4.14461,-0.155117,8,7
9.89692,-5.22026,2.99816,17,15
6.85054,-3.62564,0.135291,53,8
0.470169,-0.248942,-0.122823,15,1
6.92212,-3.66662,0.410523,11,9
0.575932,-0.305198,-0.126697,28,2
7.96543,-4.22282,0.788759,45,10
4.34402,-2.30295,-0.778731,65,3
7.89695,-4.18828,1.09756,52,11
4.35055,-2.30836,-0.604716,7,4
9.87558,-5.2421,1.77084,35,12
8.90039,-4.72644,-0.881667,26,5
9.36324,-4.97224,2.06074,45,13
9.65153,-5.12749,-0.572765,40,6
10.1596,-5.39967,2.65622,14,14
11.9586,-6.35849,-0.23641,99,7
9.86499,-5.24752,2.99402,50,15
6.69671,-3.57421,0.132499,57,8
0.450388,-0.240485,-0.117874,16,1
6.81943,-3.64277,0.405185,19,9
0.56799,-0.303406,-0.125171,29,2
7.96896,-4.2586,0.790503,15,10
4.75753,-2.54348,-0.854445,12,3
7.85777,-4.20271,1.09414,32,11
8.2456,-4.41199,-1.14825,35,4
9.93036,-5.31569,1.78398,65,12
8.88735,-4.75936,-0.882016,35,5
10.2458,-5.48684,2.25918,34,13
11.512,-6.16753,-0.68445,35,6
10.3863,-5.56674,2.72056,31,14
11.9804,-6.42382,-0.237283,100,7
8.42744,-4.53581,0.167054,15,8
0.497588,-0.267924,-0.130472,14,1
9.60601,-5.17447,0.571823,58,9
0.573788,-0.309211,-0.126697,28,2
4.78121,-2.57872,-0.86039,38,3
7.84131,-4.22917,1.0939,45,11
5.02439,-2.71101,-0.700993,20,4
9.35549,-5.05006,1.68386,14,12
8.51305,-4.59723,-0.846457,11,5
10.2515,-5.53835,2.2649,44,13
11.5227,-6.22773,-0.686438,16,6
10.3761,-5.61033,2.72326,51,14
11.8647,-6.41519,-0.235433,100,7
8.54783,-4.64109,0.169777,52,8
0.465779,-0.253003,-0.122373,15,1
0.589955,-0.320586,-0.130513,27,2
7.85251,-4.26889,0.781961,16,10
4.83638,-2.63032,-0.871966,25,3
7.78913,-4.23796,1.08878,35,11
4.95165,-2.69525,-0.692218,31,4
8.70259,-4.74087,-0.867025,24,5
10.1235,-5.51494,2.24086,58,13
18.2458,-9.94379,-1.08901,12,6
10.3325,-5.63346,2.71696,23,14
11.8305,-6.45289,-0.235224,99,7
10.085,-5.50308,3.07839,37,15
8.70347,-4.76501,0.173198,65,8
0.481985,-0.263988,-0.126872,15,1
0.564674,-0.309534,-0.125171,29,2
7.68133,-4.21238,0.766448,37,10
4.87693,-2.67558,-0.881039,6,3
7.92571,-4.34819,1.10999,40,11
9.84031,-5.40305,1.77803,34,12
8.16036,-4.48249,-0.814558,27,5
10.148,-5.57659,2.25078,39,13
9.49315,-5.2189,-0.56774,6,6
10.4911,-5.7699,2.7642,31,14
11.7554,-6.46524,-0.234176,36,7
9.96077,-5.48051,3.0463,12,15
8.70696,-4.80848,0.173617,70,8
0.463957,-0.256329,-0.122373,15,1
0.594519,-0.328598,-0.13204,26,2
4.77422,-2.64095,-0.864144,37,3
8.04693,-4.45315,1.12924,21,11
4.6509,-2.57485,-0.652732,35,4
7.95243,-4.40448,1.43982,65,12
7.97037,-4.41441,-0.797126,36,5
10.3654,-5.74328,2.30345,15,13
9.41897,-5.22102,-0.564391,50,6
10.4146,-5.77529,2.74935,12,14
8.16962,-4.53222,-0.163075,85,7
8.61325,-4.79604,0.172081,31,8
0.463059,-0.257947,-0.122373,15,1
8.35508,-4.65611,0.501274,44,9
0.583079,-0.324937,-0.12975,27,2
11.5794,-6.45561,1.15987,15,10
4.59591,-2.5633,-0.833483,30,3
9.32973,-5.20567,1.3118,6,11
4.66441,-2.60365,-0.655901,24,4
7.9508,-4.43991,1.44233,54,12
7.85924,-4.38878,-0.787539,34,5
8.65275,-4.83586,-0.519487,52,6
10.7023,-5.98375,2.83078,10,14
8.0089,-4.47969,-0.160178,68,7
8.50229,-4.77322,0.170196,17,8
0.462156,-0.259562,-0.122373,15,1
7.6388,-4.29196,0.459196,33,9
0.575094,-0.323124,-0.128224,28,2
7.62291,-4.28478,0.765053,9,10
4.69368,-2.63936,-0.852881,46,3
9.85995,-5.54673,1.38907,6,11
7.53566,-4.24093,-1.06173,37,4
7.96452,-4.48411,1.44764,20,12
7.84387,-4.41619,-0.787539,27,5
8.61668,-4.85525,-0.518335,45,6
13.1734,-7.42586,3.49124,18,14
7.93921,-4.47717,-0.159096,83,7
6.95414,-3.93606,0.13948,35,8
0.481596,-0.272696,-0.127772,14,1
8.34671,-4.72811,0.502739,53,9
0.560297,-0.317388,-0.125171,29,2
7.58883,-4.30055,0.763136,26,10
4.69647,-2.66255,-0.855071,23,3
8.16044,-4.62824,1.15191,28,11
7.93164,-4.50214,1.44452,39,12
8.27892,-4.69926,-0.83286,8,5
10.0179,-5.68865,2.23933,6,13
8.82891,-5.01552,-0.532152,28,6
10.2536,-5.82723,2.72281,10,14
7.80533,-4.43765,-0.156723,100,7
8.24124,-4.70263,0.165623,60,8
0.460333,-0.262782,-0.122373,15,1
7.66242,-4.37589,0.462441,30,9
0.576234,-0.329078,-0.128987,27,2
4.59111,-2.62403,-0.83755,15,3
7.83577,-4.48033,1.10828,52,11
4.62828,-2.64742,-0.654682,35,4
7.9073,-4.52489,1.44295,41,12
8.24344,-4.71724,-0.830943,30,5
8.76455,-5.01951,-0.529326,77,6
15.0539,-8.62494,4.00548,24,14
7.88174,-4.51757,-0.158573,100,7
9.93636,-5.69752,3.06908,26,15
8.27157,-4.75829,0.166566,35,8
0.459413,-0.264387,-0.122373,15,1
0.554665,-0.319333,-0.124407,29,2
7.50683,-4.3236,0.757906,46,10
4.55282,-2.62328,-0.832231,30,3
7.87684,-4.54036,1.11632,20,11
4.60009,-2.65265,-0.652001,57,4
7.88119,-4.54654,1.44107,56,12
8.49615,-4.9013,-0.858135,19,5
8.17552,-4.71824,1.83482,18,13
8.76946,-5.06305,-0.530687,70,6
8.35813,-4.82751,2.22837,16,14
9.78609,-5.65456,-0.197282,9,7
13.3719,-7.72958,4.13852,10,15
8.50488,-4.93407,0.171627,77,8
0.458441,-0.26607,-0.122373,15,1
7.53246,-4.37344,0.456474,72,9
0.556886,-0.323335,-0.125171,29,2
7.92337,-4.60226,0.801659,61,10
4.52781,-2.63102,-0.829416,28,3
7.92879,-4.60911,1.12607,10,11
7.42004,-4.3151,-1.05393,19,4
8.35793,-4.86248,1.53149,42,12
8.19487,-4.76953,-0.829548,17,5
8.20229,-4.77385,1.84474,38,13
11.6108,-6.76038,-0.704128,29,6
7.8233,-4.55875,-0.158049,83,7
10.0622,-5.86577,3.12084,18,15
8.7051,-5.09093,0.176025,40,8
0.457509,-0.267668,-0.122373,15,1
7.5068,-4.39365,0.455846,39,9
0.562474,-0.329342,-0.126697,28,2
7.88754,-4.62019,0.799741,15,10
9.37201,-5.49193,-1.72047,21,3
7.99829,-4.68694,1.13826,15,11
4.90808,-2.87725,-0.698555,4,4
8.34942,-4.89662,1.53306,14,12
7.81042,-4.58234,-0.792246,28,5
10.8904,-6.39192,2.45457,27,13
11.7462,-6.89694,-0.713862,35,6
8.24522,-4.84325,2.20767,63,14
6.92108,-4.06544,-0.140108,8,7
10.0134,-5.88422,3.11204,10,15
8.71222,-5.13804,0.176549,62,8
0.476666,-0.281226,-0.127772,14,1
7.93097,-4.68103,0.482642,40,9
0.574847,-0.339287,-0.12975,27,2
7.75298,-4.5778,0.787714,43,10
9.1708,-5.41712,-1.68699,12,3
8.04941,-4.75662,1.14801,28,11
4.89409,-2.8932,-0.698068,17,4
7.60058,-4.49497,-0.772548,16,5
11.554,-6.83576,2.6095,28,13
9.13182,-5.40485,-0.556122,38,6
8.20815,-4.86009,2.20227,61,14
7.60982,-4.50761,-0.154384,90,7
8.0273,-4.75679,2.50019,14,15
8.05136,-4.78625,0.163494,57,8
0.455582,-0.270935,-0.122373,15,1
8.03817,-4.78221,0.490179,17,9
0.553413,-0.329246,-0.125171,29,2
10.5653,-6.28821,1.07568,18,10
5.67237,-3.37739,-1.04561,11,3
8.03958,-4.78875,1.14898,5,11
4.86349,-2.89807,-0.695143,11,4
9.72928,-5.79981,1.79399,40,12
7.59341,-4.52658,-0.77342,15,5
10.9045,-6.50299,2.46792,33,13
9.08203,-5.41827,-0.554238,38,6
8.10579,-4.83777,2.17933,31,14
7.63181,-4.5567,-0.155152,67,7
9.62273,-5.74768,3.00334,15,15
8.17527,-4.89861,0.166356,71,8
0.454633,-0.272524,-0.122373,15,1
0.55226,-0.331176,-0.125171,29,2
9.46524,-5.6783,0.965686,38,10
5.69781,-3.41953,-1.05249,1,3
8.01431,-4.81168,1.14777,15,11
4.84824,-2.91197,-0.694412,22,4
9.69881,-5.82763,1.79211,42,12
7.236,-4.34783,-0.738558,27,5
10.8835,-6.54202,2.46831,25,13
9.04766,-5.44068,-0.553296,63,6
10.7206,-6.44921,2.88837,19,14
7.56446,-4.55238,-0.154105,41,7
9.64895,-5.80914,3.01783,40,15
8.28478,-5.00362,0.168939,41,8
0.453679,-0.274109,-0.122373,15,1
7.62171,-4.60678,0.466732,23,9
0.561182,-0.339195,-0.12746,28,2
7.81203,-4.72368,0.798695,35,10
5.68584,-3.4394,-1.05249,15,3
7.99746,-4.83962,1.14777,31,11
5.73128,-3.46962,-0.822618,27,4
7.95157,-4.81564,1.47236,50,12
7.41165,-4.48865,-0.758081,12,5
8.16556,-4.94719,1.85581,41,13
8.97566,-5.44014,-0.550051,73,6
7.56562,-4.58912,-0.154454,100,7
11.4173,-6.92816,3.57843,16,15
8.46541,-5.15312,0.172988,23,8
0.45272,-0.275691,-0.122373,15,1
0.546581,-0.33298,-0.124407,29,2
7.8074,-4.75818,0.799915,22,10
5.9892,-3.65152,-1.111,15,3
7.85342,-4.78998,1.12949,21,11
5.71744,-3.48857,-0.822374,21,4
7.87233,-4.80529,1.46079,50,12
7.36114,-4.49502,-0.754594,38,5
8.16667,-4.98692,1.86001,21,13
9.0282,-5.51516,-0.554447,28,6
7.76369,-4.74456,2.10059,20,14
7.57344,-4.63011,-0.154942,33,7
9.55542,-5.8441,3.00127,19,15
8.07409,-4.95363,0.165344,43,8
0.451755,-0.27727,-0.122373,15,1
7.98083,-4.90024,0.490807,37,9
0.555394,-0.341147,-0.126697,28,2
10.0052,-6.148,1.02739,23,10
5.8462,-3.59379,-1.08691,53,3
7.85694,-4.82984,1.13241,34,11
7.36234,-4.52757,-1.06124,27,4
8.07591,-4.96833,1.50177,42,12
6.91951,-4.25857,-0.710842,10,5
7.9845,-4.91594,1.82261,33,13
7.97908,-4.91452,-0.491121,14,6
13.2411,-8.15874,3.59067,24,14
8.51572,-5.2471,-0.174594,8,7
12.7369,-7.8511,4.00911,13,15
7.45726,-4.61289,0.153058,47,8
0.424222,-0.262516,-0.115175,16,1
7.9416,-4.91441,0.489446,34,9
0.549192,-0.339983,-0.125552,29,2
8.00013,-4.95449,0.823273,54,10
5.79835,-3.59233,-1.08034,33,3
8.10241,-5.02175,1.17043,30,11
7.10107,-4.40285,-1.0259,20,4
8.08706,-5.01419,1.50709,22,12
7.97564,-4.94896,1.82452,15,13
7.87523,-4.89046,2.14018,16,14
8.45998,-5.25359,-0.173826,26,7
12.6569,-7.86289,3.99254,24,15
7.53017,-4.69259,0.154873,62,8
0.449808,-0.280417,-0.122373,15,1
7.50411,-4.67999,0.463487,35,9
0.538008,-0.335663,-0.123263,30,2
7.72588,-4.82204,0.796778,26,10
5.85679,-3.65547,-1.09348,50,3
8.17327,-5.10326,1.18311,30,11
7.0999,-4.43479,-1.02785,28,4
8.06281,-5.0382,1.50584,38,12
6.78993,-4.24447,-0.700558,32,5
7.90924,-4.94416,1.81307,9,13
11.4622,-7.1707,3.12142,23,14
18.1494,-11.3586,-0.373726,38,7
11.0132,-6.89519,3.48163,11,15
7.39521,-4.6444,0.152429,15,8
0.468628,-0.294426,-0.127772,14,1
7.44376,-4.67852,0.460766,57,9
0.540157,-0.339629,-0.124026,29,2
5.72528,-3.60121,-1.07126,57,3
8.26461,-5.20048,1.19895,24,11
6.93822,-4.36754,-1.00664,39,4
8.0669,-5.08,1.50991,35,12
6.88465,-4.33717,-0.711888,15,5
7.90269,-4.98044,1.81574,20,13
6.93037,-4.36935,-0.429364,21,6
8.48737,-5.35306,-0.175152,26,7
11.1182,-7.01503,3.52253,9,15
0.467545,-0.296141,-0.127772,14,1
7.45018,-4.72074,0.462231,43,9
0.545542,-0.345811,-0.125552,14,2
7.63313,-4.83853,0.790677,26,10
5.72705,-3.63169,-1.07408,22,3
8.19856,-5.20096,1.19213,13,11
6.93222,-4.39932,-1.0081,11,4
8.16663,-5.1847,1.53212,57,12
6.97971,-4.43288,-0.723393,20,5
7.87776,-5.00516,1.81421,15,13
6.90925,-4.39151,-0.42905,36,6
11.4846,-7.29958,3.14167,42,14
7.78089,-4.94743,-0.160946,100,7
11.2488,-7.15527,3.57222,19,15
7.65931,-4.88892,0.158607,71,8
0.446747,-0.285268,-0.122373,15,1
7.43956,-4.75231,0.46265,43,9
0.541022,-0.345599,-0.124789,29,2
7.67243,-4.90295,0.796603,33,10
4.785,-3.05896,-0.899498,5,3
8.38013,-5.35931,1.22137,23,11
6.92775,-4.43219,-1.00981,31,4
8.14092,-5.21034,1.53087,28,12
6.72086,-4.30148,-0.698117,28,5
7.83213,-5.01464,1.80772,15,13
6.8922,-4.41453,-0.428946,39,6
11.1329,-7.13345,3.05259,51,14
7.86372,-5.04067,-0.16304,68,7
11.2892,-7.23921,3.59344,48,15
8.01052,-5.15254,0.166252,32,8
0.445749,-0.286825,-0.122373,15,1
7.41789,-4.77501,0.462336,16,9
0.55632,-0.358112,-0.128605,28,2
7.75075,-4.99119,0.806539,52,10
4.77263,-3.07457,-0.899185,25,3
8.3597,-5.38746,1.22113,2,11
6.8455,-4.41332,-1.00006,15,4
8.14426,-5.25264,1.53494,28,12
6.70079,-4.32167,-0.697595,10,5
7.86572,-5.07494,1.81955,45,13
6.90024,-4.45372,-0.430411,36,6
11.0882,-7.15959,3.04719,36,14
7.89311,-5.09847,-0.164018,93,7
0.486386,-0.315139,-0.155291,12,0
8.03443,-5.20766,0.167124,55,8
0.464366,-0.301102,-0.127772,14,1
12.4867,-8.09964,0.780015,22,9
0.545185,-0.353641,-0.126316,28,2
7.79512,-5.05834,0.812989,34,10
4.94247,-3.20845,-0.933288,6,3
9.38802,-6.09665,1.37444,45,11
8.528,-5.54026,-1.24867,45,4
11.2994,-7.34351,2.13439,22,12
7.871,-5.11735,1.8249,35,13
6.86958,-4.46798,-0.429469,47,6
11.3605,-7.39168,3.12907,23,14
7.48812,-4.874,-0.155955,58,7
0.485283,-0.316835,-0.155291,12,0
9.43428,-6.16187,0.196689,16,8
0.424159,-0.277139,-0.116975,16,1
7.31249,-4.77969,0.457835,114,9
0.534087,-0.349097,-0.124026,29,2
7.64901,-5.00156,0.799567,54,10
4.9643,-3.24731,-0.939546,33,3
9.38496,-6.14134,1.37712,61,11
7.23473,-4.73608,-1.06173,12,4
11.8455,-7.75736,2.24264,38,12
6.86046,-4.49278,-0.717466,18,5
7.85801,-5.14802,1.82604,9,13
6.8506,-4.48974,-0.42926,39,6
11.6198,-7.61827,3.2078,54,14
7.16004,-4.69612,-0.149462,40,7
11.5762,-7.59548,3.70991,19,15
7.94109,-5.22625,0.165937,32,8
0.468763,-0.308623,-0.129572,14,1
7.22737,-4.76014,0.453543,75,9
0.532865,-0.35096,-0.124026,29,2
7.62485,-5.02385,0.798869,45,10
4.92655,-3.24722,-0.93454,6,3
7.1121,-4.69135,-1.04613,6,4
11.0401,-7.28513,2.09497,19,12
6.76658,-4.46513,-0.709273,25,5
7.82525,-5.16568,1.82261,18,13
6.85489,-4.52684,-0.430516,58,6
11.3785,-7.51699,3.14841,31,14
7.59572,-5.01987,-0.158922,100,7
12.2426,-8.09397,3.9325,5,15
0.48306,-0.320215,-0.155291,12,0
7.4795,-4.95996,0.156653,13,8
0.441701,-0.293021,-0.122373,15,1
7.5036,-4.97972,0.471966,30,9
0.551266,-0.365845,-0.128605,28,2
9.39663,-6.23838,0.986777,14,10
6.26287,-4.15946,-1.19078,30,3
9.85772,-6.54946,1.45317,37,11
8.52573,-5.66662,-1.25696,35,4
11.0179,-7.32581,2.0956,33,12
6.79907,-4.52071,-0.714328,26,5
10.4406,-6.94461,2.43739,21,13
6.76921,-4.50427,-0.426119,54,6
13.2664,-8.83087,3.6793,19,14
7.2902,-4.85461,-0.152883,74,7
12.7464,-8.49117,4.10384,13,15
7.42057,-4.95827,0.15578,6,8
0.440675,-0.294561,-0.122373,15,1
0.53693,-0.359036,-0.125552,29,2
9.33836,-6.24677,0.982942,46,10
6.26144,-4.19009,-1.19328,40,3
8.2776,-5.54137,1.22308,2,11
7.62512,-5.1065,-1.1268,15,4
10.9758,-7.35323,2.09247,44,12
6.6666,-4.46796,-0.702127,15,5
12.9215,-8.66654,3.59202,56,14
7.00254,-4.69842,-0.147194,89,7
10.5561,-7.08538,3.40658,4,15
7.4845,-5.03886,0.157491,33,8
0.439644,-0.296097,-0.122373,15,1
0.516074,-0.347834,-0.120973,30,2
9.3121,-6.27873,0.982594,40,10
6.23949,-4.20859,-1.19203,42,3
8.2796,-5.58466,1.22625,51,11
8.66532,-5.84703,-1.28353,20,4
11.2006,-7.56059,2.14034,27,12
6.62785,-4.47559,-0.699686,38,5
7.78283,-5.25749,1.82566,12,13
4.59711,-3.10663,-0.290779,31,6
12.5878,-8.50975,3.50789,24,14
6.99438,-4.72843,-0.147368,97,7
11.4258,-7.72715,3.69594,1,15
7.50073,-5.08984,0.158224,21,8
0.422433,-0.286762,-0.117874,16,1
7.11309,-4.83042,0.450613,120,9
0.521354,-0.354046,-0.122499,15,2
9.94111,-6.75344,1.05145,54,10
6.24437,-4.24367,-1.19579,66,3
8.28206,-5.63059,1.22966,20,11
8.6504,-5.88322,-1.2845,12,4
11.1875,-7.61159,2.14315,32,12
6.59406,-4.48637,-0.697769,25,5
11.2117,-7.63089,2.63622,7,13
6.5855,-4.4839,-0.417536,29,6
12.4468,-8.47794,3.47684,49,14
6.92743,-4.72026,-0.146321,81,7
33.2856,-22.6889,10.7938,11,15
7.42844,-5.07874,0.157072,28,8
