x, y, z, intensity, ring
6.95708,-1.66126,-0.625778,13,5
14.9074,-3.56244,2.97929,7,13
14.0397,-3.36028,3.33287,54,14
8.61338,-2.06153,-0.154593,100,7
11.5447,-2.76524,3.18089,41,15
12.9312,-3.11883,0.232187,18,8
0.51526,-0.124369,-0.122373,15,1
10.0566,-2.42922,0.542201,9,9
0.660295,-0.159498,-0.13204,26,2
9.49518,-2.29537,0.854649,20,10
5.98461,-1.44783,-0.975213,32,3
9.95352,-2.40985,1.25745,31,11
6.02897,-1.46079,-0.761683,10,4
13.6513,-3.31017,2.22481,29,12
6.89703,-1.67239,-0.620898,17,5
7.05304,-1.71283,-0.380378,10,6
13.9673,-3.39454,3.31848,67,14
11.3902,-2.7703,-0.204612,96,7
11.4894,-2.79657,3.16846,51,15
9.98539,-2.44526,0.179446,36,8
0.514823,-0.126167,-0.122373,15,1
0.663548,-0.162737,-0.132803,26,2
9.45228,-2.31995,0.851512,10,10
6.01021,-1.47625,-0.980218,16,3
12.2506,-3.0113,1.54896,47,11
6.40743,-1.57619,-0.810187,33,4
13.2426,-3.26005,2.16005,28,12
6.65125,-1.6374,-0.599283,11,5
12.3239,-3.03618,2.46716,23,13
7.10519,-1.75178,-0.383518,24,6
15.3763,-3.79386,3.65635,26,14
8.63918,-2.13318,-0.155326,58,7
13.8201,-3.41502,3.81448,23,15
11.9407,-2.9683,0.214769,22,8
0.51438,-0.127963,-0.122373,15,1
13.3264,-3.3177,0.719724,33,9
0.674406,-0.167898,-0.135093,25,2
9.61812,-2.39628,0.8672,40,10
10.3063,-2.57155,1.30425,12,11
6.47315,-1.61634,-0.819206,30,4
12.8709,-3.21623,2.10123,43,12
7.0661,-1.76833,-0.381738,42,6
15.5369,-3.89106,3.69775,26,14
8.53858,-2.13999,-0.153651,23,7
13.8718,-3.47922,3.83207,27,15
0.468289,-0.118147,-0.12941,15,0
8.98891,-2.26787,0.161819,33,8
0.491256,-0.124033,-0.116975,16,1
13.1676,-3.32701,0.711769,17,9
0.65856,-0.166519,-0.13204,26,2
9.50304,-2.40464,0.857612,16,10
5.99566,-1.51825,-0.979593,17,3
12.1215,-3.06946,1.53531,38,11
6.34046,-1.60674,-0.803119,17,4
12.6547,-3.20918,2.06775,64,12
6.61619,-1.67907,-0.597191,23,5
12.1592,-3.08804,2.43854,37,13
7.0344,-1.78782,-0.380378,38,6
12.0475,-3.06414,2.86993,2,14
8.54268,-2.17274,-0.15386,100,7
8.79845,-2.25415,0.158538,23,8
0.536103,-0.137448,-0.127772,14,1
10.294,-2.64113,0.556959,41,9
0.663679,-0.17028,-0.133185,26,2
15.9748,-4.10164,1.44295,25,10
6.05346,-1.55539,-0.989917,27,3
10.2741,-2.64177,1.30254,33,11
6.29993,-1.62106,-0.798732,31,4
12.6543,-3.2585,2.06963,25,12
6.74698,-1.73861,-0.609567,31,5
11.9696,-3.08442,2.40267,36,13
7.01845,-1.80987,-0.379854,45,6
11.9405,-3.08134,2.84698,53,14
8.51723,-2.19953,-0.153546,100,7
14.2132,-3.67313,3.93353,11,15
8.81182,-2.29038,0.158922,60,8
0.486584,-0.126564,-0.116075,16,1
0.661151,-0.172217,-0.132803,26,2
9.90396,-2.58163,0.895438,26,10
6.05919,-1.58056,-0.991795,57,3
10.3148,-2.69065,1.30888,33,11
6.15978,-1.60795,-0.78167,15,4
11.8096,-3.08497,1.93322,7,12
6.56353,-1.71579,-0.593531,10,5
11.5689,-3.02641,2.32444,28,13
7.12963,-1.86643,-0.386239,56,6
13.686,-3.58535,3.26629,15,14
8.53659,-2.23635,-0.154035,100,7
16.9921,-4.45463,4.70688,9,15
0.493179,-0.129935,-0.136656,14,0
8.87531,-2.33999,0.160213,75,8
0.512519,-0.135222,-0.122373,15,1
9.54729,-2.52072,0.517498,13,9
0.641594,-0.169397,-0.128987,27,2
10.1689,-2.68673,0.92019,38,10
6.04819,-1.59913,-0.990856,37,3
10.6584,-2.82006,1.35372,3,11
6.42087,-1.70006,-0.81555,43,4
6.79662,-1.80082,-0.615145,35,5
12.2552,-3.24942,2.46449,35,13
7.09252,-1.88187,-0.384565,56,6
11.9507,-3.17313,2.85463,25,14
8.61956,-2.29027,-0.155675,92,7
14.331,-3.81049,3.97339,13,15
8.82652,-2.36011,0.15948,90,8
0.534634,-0.143055,-0.127772,14,1
9.4902,-2.54112,0.514881,59,9
0.671342,-0.17976,-0.135093,25,2
10.2691,-2.75161,0.930126,10,10
6.00822,-1.61102,-0.985224,47,3
12.0251,-3.22662,1.52873,49,11
6.47624,-1.73894,-0.823349,25,4
11.8068,-3.17246,1.93635,33,12
6.53823,-1.75681,-0.59231,43,5
12.2286,-3.2881,2.46144,50,13
7.05697,-1.89883,-0.382995,31,6
11.8718,-3.19658,2.83843,17,14
8.67716,-2.33803,-0.156862,100,7
14.4463,-3.8952,4.00911,6,15
0.49226,-0.133375,-0.136656,14,0
8.75068,-2.37259,0.158258,63,8
0.511563,-0.138797,-0.122373,15,1
8.51368,-2.31152,0.462336,30,9
0.659343,-0.179016,-0.132803,26,2
16.1698,-4.39324,1.46596,9,10
6.2294,-1.69366,-1.02246,66,3
11.9985,-3.26441,1.52678,31,11
6.74786,-1.83715,-0.858692,19,4
8.97493,-2.44516,1.4733,37,12
6.4494,-1.7571,-0.584815,51,5
12.1982,-3.3256,2.45762,31,13
11.2103,-3.05839,-0.608981,6,6
11.8211,-3.22723,2.82898,17,14
8.96795,-2.44999,-0.162272,100,7
15.9457,-4.35926,4.42943,16,15
8.8214,-2.42485,0.15969,20,8
0.511075,-0.140582,-0.122373,15,1
8.50941,-2.34228,0.462545,7,9
0.651142,-0.179232,-0.131277,27,2
16.1486,-4.44807,1.46544,28,10
6.36628,-1.75476,-1.04592,20,3
11.9277,-3.28991,1.51922,63,11
6.51944,-1.79943,-0.830418,25,4
11.7825,-3.25429,1.93603,49,12
6.49124,-1.79286,-0.589173,43,5
11.1573,-3.08579,-0.606678,16,6
10.6321,-2.94455,-0.19257,20,7
13.4153,-3.71786,3.7301,34,15
0.510581,-0.142365,-0.122373,15,1
0.650513,-0.181504,-0.131277,27,2
14.4539,-4.03559,1.31291,23,10
6.2022,-1.73285,-1.01995,60,3
11.8932,-3.32511,1.5163,42,11
6.7387,-1.88528,-0.859179,47,4
12.5909,-3.52492,2.07088,30,12
6.53482,-1.82947,-0.593705,35,5
14.6455,-4.10287,2.95639,1,13
6.63092,-1.85887,-0.360909,37,6
11.8583,-3.32652,2.84338,23,14
9.06999,-2.54604,-0.164437,34,7
13.7184,-3.85348,3.8181,21,15
8.1692,-2.30703,0.148171,46,8
0.483827,-0.136727,-0.116075,16,1
8.54474,-2.41631,0.465371,112,9
0.646097,-0.182705,-0.130513,27,2
12.6261,-3.57283,1.14802,55,10
6.30255,-1.78463,-1.03747,57,3
9.07968,-2.57271,1.15873,5,11
6.8734,-1.94886,-0.877216,34,4
8.96783,-2.5444,1.47643,5,12
6.5284,-1.85227,-0.593705,33,5
6.50336,-1.84762,-0.354314,67,6
11.8897,-3.38015,2.85373,48,14
9.08413,-2.58425,-0.164855,34,7
13.4577,-3.831,3.74925,10,15
8.16494,-2.33663,0.148241,91,8
0.509575,-0.145926,-0.122373,15,1
8.51705,-2.44062,0.464325,59,9
0.645455,-0.184959,-0.130513,27,2
9.29067,-2.66406,0.845585,42,10
6.24122,-1.79082,-1.0284,21,3
9.07827,-2.60658,1.15971,2,11
6.75208,-1.93995,-0.862591,40,4
6.46987,-1.86132,-0.588998,50,5
11.1355,-3.20356,2.25231,13,13
6.54677,-1.88468,-0.357036,54,6
11.8348,-3.40922,2.84338,27,14
9.69184,-2.79374,-0.17606,88,7
13.9046,-4.01073,3.87763,12,15
8.15673,-2.36512,0.148241,100,8
0.509062,-0.147704,-0.122373,15,1
8.52766,-2.4759,0.465371,78,9
0.665511,-0.193349,-0.134711,25,2
9.29615,-2.70254,0.846979,24,10
6.20616,-1.80541,-1.02371,52,3
9.11487,-2.65156,1.16556,13,11
6.71477,-1.95464,-0.858692,48,4
9.79382,-2.85278,1.61566,71,12
6.74833,-1.96696,-0.614971,41,5
11.1708,-3.2581,2.26185,37,13
6.65869,-1.94335,-0.363526,33,6
11.7661,-3.43619,2.82988,59,14
9.6206,-2.80962,-0.174943,79,7
13.9276,-4.07008,3.88798,9,15
8.17871,-2.40402,0.148799,63,8
0.508518,-0.149568,-0.122373,15,1
8.47446,-2.49417,0.462964,80,9
0.640348,-0.188465,-0.12975,27,2
9.24462,-2.72259,0.843145,18,10
6.25098,-1.84214,-1.03215,38,3
9.04797,-2.66811,1.15825,13,11
6.74183,-1.98935,-0.863079,45,4
9.82308,-2.90041,1.62223,30,12
6.85226,-2.02323,-0.625081,36,5
11.0916,-3.27705,2.24811,50,13
6.75146,-1.99603,-0.368969,73,6
11.6737,-3.45347,2.81054,40,14
6.82611,-2.02069,-0.124261,72,7
13.7904,-4.08489,3.85382,13,15
8.0706,-2.40288,0.146984,58,8
0.507992,-0.151343,-0.122373,15,1
8.40446,-2.50548,0.459614,112,9
0.647212,-0.192942,-0.131277,27,2
15.1881,-4.53066,1.38665,15,10
6.10444,-1.82213,-1.009,33,3
10.5355,-3.14678,1.35007,31,11
6.90412,-2.06346,-0.884771,57,4
9.62175,-2.87751,1.59063,15,12
6.93487,-2.07397,-0.633274,20,5
11.1459,-3.33544,2.26147,39,13
6.82481,-2.04365,-0.373365,38,6
11.6858,-3.50146,2.81639,14,14
9.51023,-2.8514,-0.173302,96,7
13.813,-4.1441,3.86417,10,15
0.462423,-0.13935,-0.12941,15,0
8.05834,-2.42989,0.146914,77,8
0.507461,-0.153115,-0.122373,15,1
8.2274,-2.484,0.450403,112,9
0.642776,-0.194065,-0.130513,27,2
15.2943,-4.62052,1.3978,34,10
6.05834,-1.83143,-1.00243,37,3
8.70041,-2.63178,1.11608,5,11
6.85128,-2.07374,-0.878922,38,4
6.58973,-1.99709,-0.60242,33,5
11.1492,-3.37888,2.26452,57,13
7.46939,-2.2651,-0.409058,100,6
11.6549,-3.53658,2.81189,8,14
9.6265,-2.92292,-0.175606,71,7
13.7264,-4.17039,3.84398,12,15
8.10718,-2.47552,0.147962,75,8
0.506923,-0.154885,-0.122373,15,1
8.39822,-2.56759,0.460242,72,9
0.660834,-0.202163,-0.13433,25,2
15.5954,-4.77394,1.42691,65,10
5.76638,-1.76626,-0.955189,23,3
8.67978,-2.65864,1.11462,67,11
6.92371,-2.12208,-0.889159,33,4
9.03864,-2.77202,1.49739,42,12
6.62271,-2.03235,-0.606081,23,5
11.2587,-3.45718,2.28933,42,13
6.96657,-2.14053,-0.381948,24,6
12.5694,-3.86447,3.03594,29,14
6.9422,-2.13437,-0.126774,6,7
18.0195,-5.54353,5.05163,6,15
8.10952,-2.50876,0.148171,77,8
0.506352,-0.156742,-0.122373,15,1
8.37158,-2.59304,0.4593,29,9
0.648872,-0.200984,-0.13204,26,2
16.1248,-4.99763,1.47694,25,10
5.86395,-1.81856,-0.972397,46,3
8.60551,-2.67044,1.10633,50,11
6.56137,-2.03736,-0.84358,31,4
9.05671,-2.81392,1.50208,57,12
6.47098,-2.01053,-0.592833,38,5
11.2091,-3.48481,2.28169,31,13
7.19363,-2.23781,-0.394822,29,6
12.301,-3.82897,2.9743,55,14
8.645,-2.69262,-0.158049,100,7
14.9467,-4.65823,4.19494,20,15
8.11788,-2.54243,0.148485,80,8
0.505802,-0.158509,-0.122373,15,1
8.2386,-2.5834,0.452497,73,9
0.63318,-0.198548,-0.128987,27,2
8.37775,-2.62864,0.768191,24,10
6.05734,-1.90174,-1.00556,37,3
10.7949,-3.39119,1.38931,19,11
9.0148,-2.83544,1.49677,67,12
6.61597,-2.08093,-0.606778,20,5
9.40094,-2.9587,1.91572,56,13
6.76666,-2.13092,-0.371795,49,6
12.3284,-3.88477,2.9842,57,14
8.63745,-2.72338,-0.158084,92,7
13.742,-4.33547,3.86106,4,15
8.11659,-2.57317,0.148625,56,8
0.505246,-0.160273,-0.122373,15,1
8.29091,-2.63003,0.455846,63,9
0.643711,-0.204321,-0.131277,27,2
8.32675,-2.6446,0.764356,65,10
6.15609,-1.95638,-1.02308,48,3
10.9135,-3.47036,1.40613,45,11
6.72102,-2.13849,-0.866004,49,4
9.13147,-2.90545,1.51773,35,12
9.35876,-2.98136,1.90923,39,13
6.69258,-2.1333,-0.368131,87,6
12.3018,-3.92364,2.98105,14,14
8.59599,-2.74168,-0.157491,16,7
17.7433,-5.66261,4.99055,13,15
8.0585,-2.5842,0.147717,15,8
0.504711,-0.161948,-0.122373,15,1
8.22273,-2.64003,0.452601,106,9
0.618694,-0.19876,-0.126316,28,2
8.33454,-2.67914,0.765925,91,10
6.08939,-1.95744,-1.01307,57,3
11.0739,-3.56184,1.42831,33,11
6.60996,-2.12732,-0.852598,50,4
6.3794,-2.05557,-0.586384,61,5
9.31518,-3.00154,1.90237,46,13
6.71589,-2.16529,-0.369806,17,6
8.57495,-2.76798,-0.157281,25,7
17.7712,-5.73995,5.00401,4,15
11.1022,-3.60304,0.203739,27,8
0.504143,-0.163709,-0.122373,15,1
8.0596,-2.61872,0.444123,112,9
0.634836,-0.206271,-0.12975,27,2
8.30856,-2.70122,0.764356,86,10
6.00551,-1.95363,-1.00024,47,3
9.86656,-3.21155,1.27402,18,11
6.05512,-1.9721,-0.781914,21,4
8.89122,-2.89751,1.48112,48,12
6.48053,-2.1119,-0.59632,31,5
11.9682,-3.90256,2.44693,10,13
7.48488,-2.4421,-0.412617,76,6
11.1429,-3.63776,2.70616,34,14
8.7059,-2.84384,-0.159864,8,7
12.5269,-4.09443,3.53133,4,15
8.12006,-2.6666,0.149183,7,8
0.503569,-0.165468,-0.122373,15,1
8.0599,-2.64996,0.444646,60,9
0.656493,-0.215844,-0.13433,25,2
8.31043,-2.73394,0.765402,86,10
5.85417,-1.92702,-0.976151,57,3
9.87225,-3.25156,1.27622,6,11
6.06517,-1.99882,-0.784107,28,4
8.8923,-2.93224,1.483,56,12
6.40121,-2.1108,-0.589696,28,5
7.51424,-2.48073,-0.41471,43,6
11.0691,-3.65646,2.69131,74,14
10.4332,-3.44843,-0.191802,100,7
12.5181,-4.13996,3.53288,8,15
15.1075,-5.01973,0.277877,16,8
0.502988,-0.167224,-0.122373,15,1
7.96532,-2.64971,0.439936,82,9
0.63707,-0.212048,-0.130513,27,2
6.04232,-2.01236,-1.00869,77,3
9.80623,-3.2678,1.26915,12,11
6.34628,-2.11605,-0.821399,58,4
8.87827,-2.96201,1.48237,19,12
6.45769,-2.1557,-0.595622,12,5
12.0051,-4.00987,2.46029,21,13
10.5359,-3.52118,-0.582185,33,6
14.616,-4.88477,3.55783,24,14
15.5776,-5.20917,-0.286708,31,7
13.8171,-4.62314,3.90403,14,15
8.69212,-2.92353,0.160073,25,8
0.502372,-0.169067,-0.122373,15,1
8.03316,-2.70502,0.444228,62,9
0.640009,-0.215636,-0.131277,27,2
6.18653,-2.0856,-1.03403,63,3
8.31575,-2.80502,1.07757,25,11
6.53597,-2.20595,-0.846992,27,4
9.34567,-3.1597,1.91763,34,13
12.2635,-4.14859,-0.678483,16,6
15.7289,-5.32393,-0.28985,31,7
13.8989,-4.70721,3.93198,11,15
8.70406,-2.9631,0.160492,46,8
0.501749,-0.170907,-0.122373,15,1
7.98964,-2.72145,0.442344,106,9
0.624386,-0.212802,-0.128224,28,2
8.35391,-2.84878,0.7722,71,10
5.94141,-2.02725,-0.994298,28,3
9.23721,-3.1536,1.19846,16,11
6.63492,-2.26647,-0.860885,52,4
7.43377,-2.5408,-0.68731,30,5
12.0226,-4.11156,2.46983,19,13
12.2112,-4.17844,-0.67639,16,6
11.0952,-3.79875,2.70751,23,14
9.52185,-3.26006,-0.175676,71,7
13.7398,-4.70686,3.8916,43,15
8.45027,-2.90801,0.15599,47,8
0.501179,-0.17257,-0.122373,15,1
8.00464,-2.75778,0.443704,72,9
0.636632,-0.219459,-0.130895,27,2
8.33638,-2.87533,0.771503,46,10
5.972,-2.05982,-1.00055,97,3
8.16648,-2.81833,1.06075,4,11
6.48851,-2.24051,-0.842848,34,4
6.40236,-2.21326,-0.592659,15,5
9.10685,-3.14819,1.87298,30,13
10.4154,-3.60259,-0.57758,50,6
11.0807,-3.83488,2.70706,82,14
15.9351,-5.51802,-0.294352,46,7
13.8328,-4.79274,3.92266,13,15
8.01702,-2.79025,0.148171,57,8
0.500574,-0.174318,-0.122373,15,1
8.13126,-2.8316,0.451241,34,9
0.637755,-0.222215,-0.131277,27,2
8.34185,-2.9082,0.772897,82,10
6.15502,-2.14702,-1.03247,28,3
8.19783,-2.86121,1.06611,61,11
6.49939,-2.26969,-0.845286,40,4
8.59547,-3.00167,1.44201,33,12
6.38746,-2.23185,-0.591962,3,5
8.99388,-3.14432,1.85199,23,13
7.25442,-2.53762,-0.402778,21,6
11.0654,-3.87289,2.70661,63,14
10.2695,-3.59432,-0.189917,37,7
13.784,-4.8271,3.91334,11,15
8.02848,-2.82412,0.148555,60,8
0.499993,-0.175977,-0.122373,15,1
8.05538,-2.83675,0.447577,48,9
0.624014,-0.219872,-0.128605,28,2
8.31285,-2.93068,0.771154,75,10
8.20327,-2.89366,1.06806,28,11
6.53676,-2.30709,-0.851136,32,4
9.0357,-3.19084,1.51773,47,12
11.9563,-4.22455,2.46487,14,13
7.19136,-2.54236,-0.399742,29,6
11.1426,-3.94141,2.72866,87,14
9.38597,-3.3219,-0.173791,70,7
13.7252,-4.86035,3.90144,13,15
8.1198,-2.88974,0.15044,26,8
0.499344,-0.177809,-0.122373,15,1
7.99225,-2.84749,0.444646,78,9
0.619505,-0.220839,-0.127842,28,2
8.32885,-2.96905,0.773594,60,10
8.13652,-2.90369,1.06075,59,11
6.59743,-2.35573,-0.860154,33,4
7.05987,-2.52363,-0.655934,56,5
17.7168,-6.33654,3.65743,16,13
7.23608,-2.58947,-0.402778,39,6
13.7683,-4.92706,3.37607,29,14
9.40009,-3.36572,-0.17428,100,7
13.7,-4.90802,3.89937,20,15
8.05648,-2.90051,0.149462,47,8
0.498689,-0.179638,-0.122373,15,1
7.86715,-2.83545,0.438261,70,9
0.635313,-0.229103,-0.131277,27,2
11.1068,-4.00526,1.03297,12,10
6.05749,-2.18561,-1.01995,40,3
8.17811,-2.95236,1.06758,21,11
6.02117,-2.17488,-0.786057,30,4
15.1074,-5.45987,2.54425,15,12
7.37471,-2.6667,-0.68609,20,5
12.9341,-4.67951,2.67362,11,13
7.22278,-2.61461,-0.402568,79,6
17.6238,-6.37973,4.32716,15,14
9.33881,-3.38245,-0.173372,43,7
13.8218,-5.00888,3.93923,6,15
8.17168,-2.97586,0.151801,45,8
0.498028,-0.181464,-0.122373,15,1
7.84357,-2.85948,0.437529,51,9
0.63082,-0.229974,-0.130513,27,2
17.3849,-6.34133,1.619,27,10
6.05872,-2.21118,-1.02152,38,3
8.17655,-2.98572,1.06879,68,11
6.57066,-2.40062,-0.858935,30,4
9.88319,-3.61282,1.66665,22,12
7.23624,-2.64522,-0.674062,33,5
12.8918,-4.71519,2.66827,20,13
7.22299,-2.64324,-0.403092,29,6
13.7373,-5.02986,3.37742,24,14
8.60721,-3.1532,-0.160004,8,7
13.8396,-5.0728,3.94958,12,15
8.54031,-3.14392,0.158852,41,8
0.497391,-0.183201,-0.122373,15,1
7.76045,-2.8599,0.433446,65,9
0.633698,-0.233532,-0.131277,27,2
9.5244,-3.51185,0.888117,10,10
6.12139,-2.2583,-1.03341,56,3
8.16608,-3.01425,1.06879,26,11
6.579,-2.42973,-0.861129,45,4
9.87237,-3.64798,1.66697,9,12
7.45871,-2.7561,-0.695677,22,5
11.5439,-4.26794,2.39236,17,13
8.83967,-3.26989,-0.493947,21,6
8.58302,-3.17836,-0.159759,93,7
18.001,-6.66948,5.14377,4,15
8.06075,-2.99937,0.150126,72,8
0.496749,-0.184937,-0.122373,15,1
7.98625,-2.97482,0.446635,39,9
0.62552,-0.233002,-0.12975,27,2
10.6565,-3.9716,0.99497,23,10
6.28005,-2.34177,-1.06156,41,3
8.39357,-3.13155,1.09999,90,11
6.55002,-2.44504,-0.858448,64,4
9.11752,-3.40527,1.54151,16,12
7.44157,-2.77933,-0.69498,28,5
11.5143,-4.30272,2.38931,47,13
7.35964,-2.75166,-0.411779,7,6
11.3473,-4.24485,2.79704,42,14
18.9154,-7.07972,-0.352539,29,7
18.0174,-6.74718,5.15516,11,15
7.98659,-3.00355,0.148939,47,8
0.4961,-0.186669,-0.122373,15,1
7.85619,-2.95764,0.439936,72,9
0.613679,-0.231033,-0.12746,28,2
8.10873,-3.05433,0.758081,35,10
6.0796,-2.29123,-1.02903,28,3
8.4216,-3.17554,1.10511,42,11
9.08155,-3.42801,1.53744,7,12
7.23238,-2.73,-0.676329,40,5
11.5028,-4.34427,2.39007,44,13
16.4637,-6.2211,-0.922369,14,6
11.4345,-4.32303,2.82224,68,14
8.64853,-3.27146,-0.1614,25,7
12.1669,-4.60476,3.48577,19,15
7.78726,-2.95966,0.145413,77,8
0.51366,-0.195326,-0.126872,15,1
7.73754,-2.94385,0.433865,54,9
0.616538,-0.23457,-0.128224,28,2
8.03099,-3.0571,0.751805,15,10
5.94234,-2.26322,-1.00713,62,3
8.48095,-3.23178,1.11437,52,11
6.67932,-2.54658,-0.877703,37,4
14.9406,-5.69927,2.53267,13,12
7.03665,-2.68422,-0.658897,41,5
7.28241,-2.78088,-0.408534,47,6
11.3083,-4.32049,2.79479,65,14
16.0282,-6.127,-0.299518,62,7
11.9504,-4.5706,3.42832,13,15
8.11477,-3.11659,0.151731,42,8
0.512975,-0.197118,-0.126872,15,1
8.1765,-3.14358,0.459091,35,9
0.626711,-0.240948,-0.130513,27,2
6.04502,-2.32652,-1.0259,27,3
8.39552,-3.23283,1.10462,62,11
6.60186,-2.54347,-0.868685,6,4
7.17782,-2.76681,-0.673017,27,5
11.9925,-4.6251,2.49845,10,13
7.30806,-2.81994,-0.410523,39,6
11.5132,-4.44486,2.84923,57,14
17.1167,-6.61163,-0.320287,7,7
11.9506,-4.61855,3.43298,9,15
0.450278,-0.174651,-0.12941,15,0
7.80743,-3.02987,0.146181,51,8
0.494118,-0.191854,-0.122373,15,1
8.97905,-3.48815,0.504833,17,9
0.622206,-0.241713,-0.12975,27,2
8.14316,-3.16507,0.764356,46,10
5.93376,-2.30751,-1.00838,20,3
8.15663,-3.17358,1.07464,47,11
6.44865,-2.51033,-0.849673,9,4
8.11745,-3.1616,1.37975,63,12
7.32914,-2.85604,-0.688182,10,5
11.9415,-4.65339,2.4912,3,13
7.34469,-2.86358,-0.41314,32,6
11.6446,-4.54239,2.88567,25,14
8.34555,-3.25715,-0.156374,67,7
12.2026,-4.76494,3.5101,10,15
8.34042,-3.27025,0.156374,66,8
0.507959,-0.199271,-0.125973,15,1
8.92963,-3.50488,0.502739,63,9
0.628625,-0.246862,-0.131277,27,2
8.28727,-3.25609,0.778998,35,10
6.13117,-2.41019,-1.04342,42,3
8.16213,-3.20857,1.07684,40,11
6.38812,-2.51248,-0.842848,9,4
14.2934,-5.62745,-1.34394,10,5
15.3744,-6.05923,-0.866055,3,6
11.4394,-4.51069,2.83888,76,14
8.30808,-3.27599,-0.155885,83,7
14.6101,-5.7639,4.2084,11,15
8.18709,-3.24481,0.153721,36,8
0.470994,-0.186765,-0.116975,16,1
8.93343,-3.54421,0.503681,42,9
0.62776,-0.249055,-0.131277,27,2
10.5129,-4.17296,0.989566,17,10
6.21818,-2.46949,-1.05969,22,3
8.5986,-3.41659,1.13607,15,11
11.876,-4.72123,-1.56919,6,4
8.09095,-3.21814,1.37913,42,12
14.9947,-5.9671,-1.41192,11,5
11.4719,-4.56523,2.4,22,13
8.23696,-3.27955,-0.464639,58,6
11.3511,-4.52175,2.82089,25,14
7.57899,-3.02064,-0.142412,8,7
11.7249,-4.6754,3.38225,19,15
0.492048,-0.197104,-0.122373,15,1
10.2373,-4.10291,0.577998,57,9
0.619554,-0.248431,-0.12975,27,2
10.5178,-4.21962,0.991484,44,10
6.24392,-2.50624,-1.06563,52,3
8.21634,-3.29795,1.08707,27,11
11.8797,-4.77079,-1.57187,30,4
8.10349,-3.25594,1.38319,46,12
11.9014,-4.78432,-1.12222,11,5
7.44853,-2.99731,-0.420781,29,6
11.1465,-4.48763,2.7741,10,14
9.84819,-3.96494,-0.18531,45,7
11.6691,-4.70042,3.37086,40,15
7.28687,-2.94852,0.137211,68,8
0.491322,-0.198906,-0.122373,15,1
10.3814,-4.20489,0.587,16,9
0.625961,-0.25354,-0.131277,27,2
10.612,-4.30046,1.00177,25,10
6.2571,-2.53693,-1.06939,48,3
8.20971,-3.33028,1.08781,72,11
13.4587,-5.46228,-1.78344,30,4
8.08967,-3.28488,1.38288,87,12
14.2198,-5.77406,-1.34272,21,5
11.439,-4.6472,2.4,1,13
7.40842,-3.01126,-0.419106,39,6
11.2896,-4.59111,2.81369,57,14
15.4533,-6.28751,-0.291211,31,7
8.7074,-3.55874,0.164192,23,8
0.490625,-0.20062,-0.122373,15,1
7.71582,-3.15663,0.436901,25,9
0.61417,-0.251264,-0.128987,27,2
10.6707,-4.36766,1.00874,61,10
6.37434,-2.61041,-1.09097,15,3
8.17967,-3.35139,1.08537,60,11
7.54357,-3.0923,-1.00103,15,4
8.08547,-3.31609,1.38413,46,12
10.0464,-4.12033,-0.949998,4,5
7.4459,-3.05682,-0.421828,36,6
11.2681,-4.62827,2.81234,48,14
15.5293,-6.3817,-0.293061,15,7
14.5225,-5.97093,4.20736,13,15
7.24947,-2.99246,0.136897,46,8
0.464705,-0.191917,-0.116075,16,1
7.71768,-3.18888,0.437633,112,9
0.613289,-0.253406,-0.128987,27,2
10.6443,-4.40032,1.00769,55,10
6.54956,-2.7089,-1.12257,11,3
8.17709,-3.38372,1.08659,65,11
7.47037,-3.0928,-0.992748,45,4
8.06837,-3.34203,1.38319,23,12
7.41208,-3.0717,-0.701952,40,5
11.2648,-4.66832,2.37023,26,13
7.36693,-3.05449,-0.417955,43,6
11.2375,-4.66161,2.80874,51,14
16.7924,-6.96938,-0.317355,30,7
11.4489,-4.754,3.32168,10,15
7.25005,-3.02236,0.137106,97,8
0.510795,-0.213042,-0.127772,14,1
0.60511,-0.252627,-0.12746,28,2
8.22158,-3.43411,0.779521,9,10
5.78684,-2.41831,-0.993359,12,3
8.19271,-3.42372,1.09024,60,11
7.54743,-3.15561,-1.00445,67,4
8.0767,-3.37856,1.38664,42,12
7.39212,-3.09371,-0.701081,48,5
11.2657,-4.71716,2.37405,8,13
7.387,-3.09459,-0.419734,18,6
7.05243,-2.95588,-0.133476,51,7
36.4257,-15.2746,10.5836,10,15
7.39742,-3.11567,0.140108,68,8
0.488461,-0.205832,-0.122373,15,1
0.607842,-0.256263,-0.128224,28,2
8.21689,-3.46588,0.780218,84,10
5.782,-2.44004,-0.993985,8,3
8.09049,-3.41589,1.0783,42,11
7.58519,-3.20411,-1.01103,17,4
7.36109,-3.11096,-0.699163,50,5
11.2944,-4.77557,2.38359,12,13
7.32464,-3.09857,-0.416804,39,6
7.04023,-2.9797,-0.133441,36,7
15.5639,-6.59047,4.52882,2,15
7.45882,-3.17069,0.141469,70,8
0.487776,-0.20745,-0.122373,15,1
0.610557,-0.259921,-0.128987,27,2
8.17358,-3.48127,0.777255,80,10
7.48322,-3.19032,-0.998841,63,4
7.33002,-3.12803,-0.697246,35,5
8.87325,-3.78659,1.87527,17,13
6.69531,-2.85856,-0.381529,38,6
6.9452,-2.96811,-0.131835,100,7
24.4294,-10.4452,7.11908,22,15
0.487049,-0.209152,-0.122373,15,1
0.624122,-0.268144,-0.13204,26,2
8.17663,-3.51465,0.778649,46,10
8.29863,-3.57052,1.10925,27,11
7.56868,-3.25802,-1.01176,50,4
7.32144,-3.15311,-0.69742,23,5
11.2706,-4.85622,2.38549,42,13
6.68713,-2.8827,-0.381634,66,6
6.98437,-3.01373,-0.132778,88,7
14.0241,-6.05426,4.09296,12,15
7.12642,-3.08831,0.13557,27,8
0.486316,-0.210851,-0.122373,15,1
0.597967,-0.259383,-0.126697,28,2
8.21001,-3.563,0.783007,24,10
6.08816,-2.64342,-1.05124,13,3
9.07085,-3.94035,1.21431,60,11
7.60823,-3.30658,-1.01858,34,4
7.32318,-3.18421,-0.69864,36,5
11.2428,-4.89083,2.3832,33,13
6.67885,-2.90682,-0.381738,94,6
10.5952,-4.6135,2.66792,32,14
7.01231,-3.05486,-0.133511,59,7
13.9799,-6.09314,4.08624,29,15
7.12475,-3.11717,0.135745,57,8
0.503429,-0.220361,-0.126872,15,1
9.35614,-4.09732,0.535292,57,9
0.597058,-0.261469,-0.126697,28,2
8.27599,-3.62602,0.790503,9,10
5.98843,-2.625,-1.0356,10,3
7.77479,-3.41128,-1.04247,39,4
8.88834,-3.90171,1.53744,49,12
7.36801,-3.23586,-0.704044,21,5
11.1915,-4.91505,2.37595,35,13
6.69792,-2.94297,-0.383413,100,6
6.78195,-2.98271,-0.129322,78,7
14.1672,-6.23371,4.14732,8,15
7.12115,-3.14525,0.135884,78,8
0.484832,-0.214241,-0.122373,15,1
9.34544,-4.13157,0.535502,17,9
0.610459,-0.270009,-0.12975,27,2
8.259,-3.65471,0.790154,43,10
8.5857,-3.80107,1.15288,49,11
8.18573,-3.62571,-1.09926,46,4
8.21006,-3.6382,1.4223,90,12
7.4696,-3.31163,-0.714851,31,5
11.1644,-4.95206,2.37405,12,13
6.71448,-2.97965,-0.384983,91,6
16.1955,-7.19037,4.09096,20,14
6.7386,-2.99176,-0.128694,100,7
16.0574,-7.13243,4.70792,3,15
7.05843,-3.14852,0.134907,48,8
0.484043,-0.216016,-0.122373,15,1
0.602342,-0.268936,-0.128224,28,2
8.2662,-3.69246,0.792071,50,10
6.93255,-3.09818,-1.20267,58,3
8.57353,-3.83333,1.15313,21,11
8.25393,-3.69216,-1.11023,9,4
7.43377,-3.3284,-0.712585,43,5
6.71133,-3.00634,-0.385402,94,6
15.8964,-7.12413,4.02167,2,14
6.72576,-3.01562,-0.128659,98,7
22.2903,-9.99894,6.54605,3,15
7.08022,-3.18792,0.135535,31,8
0.483286,-0.217705,-0.122373,15,1
0.608511,-0.27437,-0.12975,27,2
8.14183,-3.67276,0.781438,61,10
6.66368,-3.00736,-1.15793,20,3
8.59809,-3.88038,1.15825,31,11
5.97404,-2.69738,-0.804825,10,4
8.20002,-3.70417,1.42512,5,12
7.47294,-3.3773,-0.717466,28,5
8.47399,-3.83149,1.80772,60,13
6.71846,-3.03915,-0.386449,91,6
12.3549,-5.59145,3.13087,2,14
6.80264,-3.07866,-0.130335,49,7
11.9759,-5.42241,3.52253,11,15
0.527624,-0.239785,-0.155291,12,0
8.04239,-3.65665,0.154209,67,8
0.464747,-0.211406,-0.117874,16,1
9.35835,-4.25893,0.538851,43,9
0.589681,-0.26836,-0.125934,29,2
8.09451,-3.68547,0.778126,52,10
6.12822,-2.7915,-1.06657,41,3
8.04732,-3.66738,1.08586,27,11
6.67396,-3.04291,-0.900615,10,4
7.4297,-3.39061,-0.714503,20,5
8.50879,-3.88306,1.81803,37,13
6.75686,-3.08498,-0.389275,52,6
12.3336,-5.63373,3.13042,23,14
7.44425,-3.40196,-0.142865,48,7
11.9594,-5.46788,3.52356,12,15
8.03321,-3.68637,0.154279,61,8
0.499426,-0.229288,-0.126872,15,1
9.22546,-4.23739,0.532047,40,9
0.595829,-0.273799,-0.12746,28,2
8.07551,-3.71261,0.777604,80,10
6.56302,-3.01865,-1.14416,27,3
8.06874,-3.7112,1.09049,85,11
6.66149,-3.06535,-0.900371,5,4
8.84618,-4.07253,1.54244,56,12
7.47211,-3.44153,-0.719732,30,5
8.53551,-3.93312,1.82681,46,13
6.72556,-3.10053,-0.388123,80,6
12.3765,-5.70828,3.14662,9,14
6.87486,-3.17081,-0.13215,29,7
14.3399,-6.61685,4.23169,3,15
8.24826,-3.82172,0.158677,56,8
0.502118,-0.232756,-0.127772,14,1
0.59487,-0.275877,-0.12746,28,2
8.05347,-3.73659,0.776732,61,10
6.50227,-3.01825,-1.1354,65,3
8.07668,-3.75079,1.09341,62,11
7.58636,-3.52469,-1.02711,15,4
11.4823,-5.33724,2.00549,9,12
7.48173,-3.47767,-0.721824,8,5
8.58225,-3.99103,1.83978,25,13
6.79256,-3.16021,-0.392624,65,6
8.80893,-4.10019,2.24321,13,14
13.2623,-6.17587,-0.255364,100,7
14.3611,-6.69058,4.24515,8,15
8.10444,-3.7895,0.156164,66,8
0.480121,-0.224599,-0.122373,15,1
9.17862,-4.29567,0.531105,9,9
0.604572,-0.282945,-0.12975,27,2
8.08368,-3.78495,0.780915,33,10
8.11567,-3.80339,1.10048,47,11
7.67286,-3.5975,-1.04052,15,4
8.76316,-4.11056,1.53306,21,12
7.37936,-3.46146,-0.713108,25,5
8.50429,-3.99094,1.82604,15,13
6.75256,-3.17032,-0.39095,87,6
8.82279,-4.14417,2.25041,8,14
9.89069,-4.64788,-0.190755,46,7
14.4443,-6.7908,4.27673,5,15
8.04415,-3.79558,0.155257,32,8
0.479334,-0.226273,-0.122373,15,1
9.19607,-4.34304,0.532989,0,9
0.60358,-0.285053,-0.12975,27,2
8.07402,-3.81485,0.781264,11,10
5.95063,-2.81285,-1.04248,6,3
8.06287,-3.81302,1.09512,55,11
10.3375,-4.89092,-1.40418,11,4
8.74341,-4.13859,1.53212,19,12
7.38344,-3.49487,-0.714677,7,5
8.5666,-4.05673,1.84245,42,13
6.81185,-3.22722,-0.395032,43,6
11.3898,-5.39854,2.90997,38,14
9.27995,-4.40049,-0.179271,36,7
15.3822,-7.29743,4.56194,11,15
8.11751,-3.8649,0.156932,13,8
0.513728,-0.244706,-0.131371,14,1
9.22053,-4.39401,0.535292,0,9
0.595493,-0.28378,-0.128224,28,2
10.6918,-5.09743,1.03628,48,10
8.05488,-3.84371,1.09585,40,11
5.89914,-2.81627,-0.802632,5,4
7.35142,-3.51117,-0.71276,13,5
8.60553,-4.112,1.8539,40,13
6.78973,-3.24581,-0.394404,54,6
11.4852,-5.49292,2.93921,10,14
9.77863,-4.67884,-0.189219,37,7
15.2974,-7.32272,4.54434,8,15
8.08414,-3.88369,0.156548,35,8
0.477743,-0.229614,-0.122373,15,1
0.594498,-0.285857,-0.128224,28,2
8.8749,-4.26929,0.861622,22,10
5.87389,-2.82691,-1.03247,1,3
8.06288,-3.88213,1.09877,37,11
9.40352,-4.52965,-1.28158,15,4
8.67871,-4.18238,1.52586,35,12
9.16806,-4.4182,-0.890383,22,5
8.6035,-4.14799,1.85657,19,13
6.83233,-3.29552,-0.397544,39,6
11.6607,-5.62699,2.98915,17,14
9.42008,-4.54776,-0.182587,99,7
11.4638,-5.53688,3.41124,34,15
7.46772,-3.61969,0.144855,35,8
0.476938,-0.23128,-0.122373,15,1
10.0216,-4.86191,0.583755,13,9
0.59703,-0.289645,-0.128987,13,2
8.88862,-4.31416,0.864411,26,10
5.94573,-2.88709,-1.04686,1,3
8.14927,-3.95883,1.11242,20,11
7.55047,-3.66957,-1.03077,17,4
8.52904,-4.147,1.50208,83,12
10.3692,-5.04174,-1.00874,18,5
8.15996,-3.96931,1.76384,51,13
6.92854,-3.37179,-0.403824,68,6
14.6266,-7.12125,3.75578,12,14
9.3628,-4.56048,-0.181784,36,7
11.3993,-5.55486,3.39778,23,15
7.9724,-3.89874,0.154908,27,8
0.476128,-0.232944,-0.122373,15,1
8.99103,-4.40077,0.524616,6,9
0.599542,-0.293453,-0.12975,27,2
8.95582,-4.38547,0.872429,44,10
5.84337,-2.86264,-1.03059,37,3
8.23166,-4.03443,1.12559,34,11
12.6869,-6.22072,-1.73493,18,4
9.12459,-4.47602,1.60971,55,12
5.91365,-2.90091,-0.576274,1,5
8.1161,-3.98306,1.75735,46,13
7.0225,-3.44789,-0.41,36,6
11.4288,-5.61375,2.93966,34,14
7.1878,-3.53216,-0.139794,32,7
11.4578,-5.63297,3.42107,11,15
7.4082,-3.65493,0.144192,6,8
0.440363,-0.217354,-0.113375,16,1
0.605555,-0.299021,-0.131277,27,2
8.84221,-4.36817,0.862842,32,10
5.81563,-2.87426,-1.02746,30,3
8.1766,-4.0429,1.11998,45,11
12.6829,-6.27377,-1.73737,15,4
7.84482,-3.88226,1.38632,49,12
5.88563,-2.91269,-0.574531,13,5
8.16196,-4.04099,1.77033,42,13
6.98179,-3.4582,-0.408325,47,6
11.3829,-5.64063,2.93291,55,14
7.16646,-3.55279,-0.139619,72,7
7.30051,-3.63354,0.142342,43,8
0.502402,-0.25016,-0.129572,14,1
0.565798,-0.281973,-0.122881,30,2
7.65825,-3.81826,-1.35535,22,3
8.26546,-4.12281,1.13412,31,11
7.44946,-3.71741,-1.02224,15,4
7.88247,-3.93521,1.3954,12,12
7.16718,-3.57967,-0.700907,13,5
8.30691,-4.15073,1.80505,66,13
7.01373,-3.50609,-0.410942,14,6
11.3562,-5.67684,2.93111,59,14
7.17012,-3.58583,-0.139933,88,7
7.13526,-3.58398,0.139375,17,8
0.473621,-0.238,-0.122373,15,1
0.571776,-0.287574,-0.124407,29,2
5.99608,-3.01702,-1.06313,6,3
8.26448,-4.16022,1.13607,21,11
7.44465,-3.74915,-1.02346,41,4
7.0953,-3.57632,-0.695154,13,5
8.27762,-4.17408,1.802,20,13
13.6842,-6.90342,-0.803252,35,6
14.4584,-7.29395,3.73869,15,14
6.94448,-3.50487,-0.13578,45,7
12.3664,-6.24399,3.71198,45,15
0.472746,-0.239734,-0.122373,15,1
0.581274,-0.294897,-0.126697,28,2
6.02725,-3.06044,-1.07064,5,3
8.61553,-4.37658,1.18652,16,11
7.38308,-3.75213,-1.01688,31,4
8.98389,-4.56765,1.59626,79,12
7.12654,-3.62489,-0.699512,23,5
8.25425,-4.19849,1.80009,6,13
14.0179,-7.13321,-0.824291,45,6
14.3065,-7.28324,3.70629,11,14
6.98327,-3.55662,-0.136792,85,7
0.471906,-0.241383,-0.122373,15,1
7.28974,-3.73035,0.429155,6,9
0.587179,-0.300604,-0.128224,28,2
9.40931,-4.81913,0.924897,44,10
7.02511,-3.59957,-1.25022,37,3
8.1762,-4.18938,1.12802,57,11
7.34697,-3.76611,-1.01371,39,4
7.06598,-3.62519,-0.694806,7,5
8.30169,-4.26099,1.81383,14,13
12.8601,-6.60634,3.33782,2,14
6.68621,-3.43477,-0.131207,79,7
13.7492,-7.06613,4.14214,13,15
7.2791,-3.75541,0.14297,16,8
0.488335,-0.252048,-0.126872,15,1
0.57566,-0.297248,-0.125934,29,2
9.34109,-4.82543,0.919842,46,10
6.9072,-3.56966,-1.23145,70,3
8.31773,-4.30046,1.14972,18,11
6.917,-3.57778,-0.956187,36,4
9.11671,-4.71556,1.62567,27,12
7.02674,-3.63609,-0.692191,25,5
11.1931,-5.79454,2.44999,10,13
14.0959,-7.30039,-0.831932,22,6
14.2229,-7.36929,3.6982,21,14
6.89435,-3.57216,-0.135535,83,7
13.6936,-7.09808,4.13282,10,15
7.25064,-3.77123,0.142656,8,8
0.452922,-0.235676,-0.117874,16,1
7.25466,-3.77654,0.428632,120,9
0.571136,-0.297442,-0.125171,29,2
9.29239,-4.84143,0.916704,12,10
6.79722,-3.54143,-1.21393,30,3
8.47769,-4.41885,1.17385,35,11
7.31874,-3.81639,-1.01347,27,4
7.04756,-3.67811,-0.695503,27,5
8.26727,-4.31468,1.81269,18,13
12.9757,-6.77489,-0.767141,19,6
11.2931,-5.89885,2.94146,10,14
6.90665,-3.60917,-0.136024,100,7
13.7047,-7.16463,4.14369,26,15
7.25868,-3.80766,0.143075,32,8
0.448646,-0.235444,-0.116975,16,1
7.36345,-3.8659,0.435854,54,9
0.573623,-0.301159,-0.125934,14,2
9.1828,-4.82312,0.907466,42,10
8.49384,-4.46504,1.17823,22,11
7.14373,-3.75691,-0.991042,9,4
18.6391,-9.80653,3.33581,7,12
7.04879,-3.71012,-0.696897,35,5
14.9407,-7.86404,3.28191,13,13
6.80382,-3.58269,-0.402987,90,6
11.2862,-5.9455,2.94506,27,14
6.92408,-3.64911,-0.136617,100,7
13.5207,-7.12863,4.09555,5,15
7.25242,-3.83672,0.143214,56,8
0.46849,-0.247948,-0.122373,15,1
9.47334,-5.01588,0.561774,21,9
0.569046,-0.301422,-0.125171,29,2
5.76992,-3.05888,-1.03434,1,3
8.47821,-4.49466,1.17823,30,11
5.64518,-2.99402,-0.784595,18,4
18.7235,-9.93449,3.35708,20,12
6.98124,-3.70574,-0.691494,27,5
8.21711,-4.3636,1.80849,6,13
6.58604,-3.49891,-0.390845,45,6
11.2678,-5.98866,2.94596,51,14
6.93073,-3.68358,-0.137001,100,7
13.5076,-7.18213,4.09918,6,15
7.24007,-3.86421,0.143249,66,8
0.446949,-0.238649,-0.116975,16,1
9.02681,-4.82189,0.536339,65,9
0.599161,-0.320056,-0.13204,26,2
9.65413,-5.15915,0.957667,48,10
5.77836,-3.08925,-1.03779,27,3
11.7,-6.25772,1.62915,71,11
8.12133,-4.3455,-1.13095,35,4
18.7514,-10.0375,3.36866,20,12
6.94302,-3.71814,-0.689053,32,5
15.0675,-8.06899,3.32237,6,13
6.55442,-3.5115,-0.389694,31,6
11.2382,-6.02335,2.94371,59,14
6.77619,-3.63336,-0.134209,60,7
14.0873,-7.55669,4.28346,10,15
6.75991,-3.63832,0.134,15,8
0.466704,-0.251294,-0.122373,15,1
8.96948,-4.83159,0.533931,85,9
0.553048,-0.298035,-0.122118,15,2
9.65971,-5.20774,0.960108,51,10
11.6746,-6.29664,1.62866,30,11
6.60893,-3.56598,-0.922064,12,4
25.9944,-14.0317,4.67864,10,12
6.77222,-3.65714,-0.673365,13,5
19.3129,-10.4338,4.26687,18,13
6.57489,-3.55355,-0.391682,38,6
13.7925,-7.45758,3.61991,21,14
6.92178,-3.74259,-0.13735,100,7
14.0472,-7.59846,4.27931,2,15
6.68502,-3.62967,0.132778,48,8
0.431531,-0.2344,-0.113375,16,1
8.97362,-4.87431,0.535188,72,9
0.552005,-0.299964,-0.122118,30,2
9.70799,-5.27759,0.966731,36,10
5.83073,-3.1711,-1.05124,30,3
9.72116,-5.28915,1.35884,87,11
5.41892,-2.94959,-0.75754,14,4
13.1461,-7.15561,2.37061,12,12
6.8959,-3.75508,-0.686962,27,5
17.6368,-9.60794,3.90395,8,13
6.50632,-3.54589,-0.388333,56,6
11.1726,-6.09148,2.93786,38,14
6.90341,-3.76386,-0.137246,77,7
14.1274,-7.70573,4.31193,1,15
6.67295,-3.65182,0.132778,33,8
0.464938,-0.254546,-0.122373,15,1
9.14924,-5.01114,0.546701,68,9
0.564728,-0.309436,-0.125171,29,2
9.72445,-5.3306,0.970218,42,10
5.93451,-3.25309,-1.07189,33,3
8.31809,-4.56157,1.16483,21,11
13.1107,-7.19575,2.36873,29,12
6.94736,-3.81461,-0.693411,23,5
14.2526,-7.8257,3.16056,9,13
6.52254,-3.58283,-0.390008,52,6
11.1728,-6.13976,2.94326,17,14
6.96733,-3.83032,-0.138782,86,7
19.0669,-10.4865,5.83068,5,15
7.18716,-3.96589,0.143284,21,8
0.443574,-0.244866,-0.116975,16,1
9.10459,-5.026,0.545027,32,9
0.556824,-0.30751,-0.123644,29,2
9.79566,-5.41195,0.979108,21,10
6.29137,-3.47732,-1.13853,25,3
9.70752,-5.36768,1.36201,46,11
6.06053,-3.3525,-0.850404,33,4
11.8025,-6.52875,2.13627,10,12
6.79347,-3.75949,-0.679292,17,5
14.2166,-7.87064,3.15865,11,13
6.61308,-3.66267,-0.396183,32,6
18.6207,-10.3174,4.91473,22,14
7.11551,-3.94257,-0.141993,88,7
14.1676,-7.85323,4.3404,7,15
7.1862,-3.9965,0.143529,47,8
0.449571,-0.250125,-0.118774,16,1
7.14988,-3.97957,0.428841,24,9
0.552317,-0.307542,-0.122881,30,2
12.0429,-6.7085,1.20606,42,10
6.2798,-3.49816,-1.13853,55,3
8.06143,-4.49246,1.13314,10,11
6.06672,-3.38224,-0.852842,58,4
13.5393,-7.55136,2.4554,19,12
6.70201,-3.73949,-0.671448,28,5
15.7368,-8.78059,3.50287,4,13
6.56427,-3.66414,-0.393985,39,6
18.8025,-10.4998,4.97187,19,14
7.18201,-4.01224,-0.143598,80,7
12.6156,-7.05064,3.87245,30,15
6.85449,-3.84814,0.137211,15,8
0.479147,-0.269105,-0.126872,15,1
7.11992,-4.00041,0.428003,69,9
0.568248,-0.319277,-0.126697,28,2
7.14007,-4.01338,0.716594,9,10
6.25538,-3.51753,-1.13665,23,3
9.70251,-5.45816,1.36689,42,11
6.06001,-3.41046,-0.853817,48,4
13.1474,-7.40213,2.38969,39,12
12.2905,-6.92253,2.74193,14,13
6.86968,-3.87086,-0.413245,21,6
12.6302,-7.11964,3.34727,11,14
7.14146,-4.02729,-0.14311,56,7
12.5973,-7.10692,3.87556,4,15
6.80621,-3.85234,0.136513,13,8
0.44429,-0.251572,-0.117874,16,1
9.46064,-5.35911,0.569834,25,9
0.577379,-0.327065,-0.128987,13,2
8.06379,-4.56971,0.810897,5,10
6.41834,-3.63872,-1.16857,11,3
6.08433,-3.45217,-0.858935,27,4
13.1558,-7.46748,2.39595,25,12
14.9893,-8.51165,3.35061,13,13
7.06452,-4.0132,-0.425805,21,6
12.6815,-7.20701,3.36752,27,14
8.77187,-4.98716,-0.17613,44,7
13.9158,-7.91493,4.28967,10,15
6.74236,-3.84733,0.1355,15,8
0.443409,-0.253121,-0.117874,16,1
9.79048,-5.59119,0.590873,35,9
0.555776,-0.317395,-0.124407,29,2
8.04779,-4.59783,0.810897,39,10
5.52579,-3.15825,-1.00806,6,3
7.91504,-4.52565,1.11949,7,11
6.38757,-3.65376,-0.903539,36,4
11.9072,-6.81383,2.17287,15,12
6.92746,-3.96419,-0.698292,15,5
18.7539,-10.7361,4.20047,11,13
6.62064,-3.79168,-0.399847,21,6
12.6731,-7.26092,3.37202,24,14
6.92753,-3.97065,-0.139375,31,7
18.4583,-10.584,5.70127,22,15
8.61651,-4.95671,0.173512,32,8
0.459413,-0.264387,-0.122373,15,1
8.92277,-5.13704,0.539584,28,9
0.541054,-0.311497,-0.121355,30,2
11.8041,-6.79863,1.19177,52,10
5.65509,-3.25839,-1.03372,45,3
9.75145,-5.62093,1.382,35,11
5.2656,-3.03642,-0.746328,6,4
13.0983,-7.55618,2.39501,6,12
6.61157,-3.81411,-0.667787,53,5
15.0111,-8.66319,3.36892,5,13
13.4759,-7.78032,-0.815499,35,6
12.5887,-7.271,3.35627,27,14
8.7126,-5.03428,-0.175641,88,7
18.3526,-10.6087,5.68004,21,15
8.56456,-4.9667,0.172814,38,8
0.458487,-0.26599,-0.122373,15,1
6.36204,-3.6924,0.385507,33,9
0.560339,-0.325209,-0.125934,29,2
11.844,-6.8768,1.19822,28,10
9.68543,-5.62801,1.37542,45,11
5.99464,-3.48477,-0.851379,12,4
6.5631,-3.81828,-0.664301,11,5
14.8213,-8.62273,3.33305,6,13
8.63436,-5.02532,-0.523569,14,6
18.1661,-10.5772,4.85309,35,14
6.56443,-3.82366,-0.132603,59,7
18.3522,-10.6941,5.69143,28,15
0.500335,-0.292489,-0.155291,12,0
6.23731,-3.64625,0.126111,35,8
0.477742,-0.279394,-0.127772,14,1
9.27801,-5.42815,0.563344,33,9
0.555754,-0.325277,-0.125171,29,2
11.8497,-6.93829,1.20135,23,10
8.41704,-4.93035,1.19773,11,11
6.08692,-3.56689,-0.866247,12,4
7.85267,-4.60345,1.4417,14,12
6.63223,-3.88955,-0.672668,16,5
6.64191,-3.89834,-0.403615,47,6
17.6231,-10.3477,4.71812,4,14
6.55794,-3.8506,-0.132743,81,7
12.4381,-7.30612,3.8652,10,15
8.6046,-5.07254,0.17435,62,8
0.436429,-0.257384,-0.116975,16,1
9.21677,-5.43776,0.560832,57,9
0.557997,-0.32921,-0.125934,29,2
8.39378,-4.95419,0.852732,30,10
8.2396,-4.86513,-1.51554,32,3
8.37328,-4.94603,1.19408,5,11
6.10798,-3.60937,-0.871122,14,4
11.6771,-6.90306,2.14847,42,12
8.59099,-5.07867,-0.873126,33,5
11.6701,-6.9017,2.63545,20,13
6.48215,-3.83506,-0.394718,58,6
17.5332,-10.3774,4.70373,3,14
6.49044,-3.84302,-0.131661,94,7
0.455629,-0.270856,-0.122373,15,1
6.52665,-3.88141,0.397963,14,9
0.570344,-0.339184,-0.128987,13,2
8.39527,-4.99466,0.854649,50,10
7.75916,-4.61805,-1.43012,21,3
8.35255,-4.9732,1.19359,5,11
6.13116,-3.65201,-0.876241,23,4
11.6241,-6.92659,2.14315,22,12
7.90741,-4.71189,-0.805319,13,5
11.5971,-6.91324,2.62439,6,13
8.40025,-5.00954,-0.512578,31,6
17.3931,-10.3766,4.67583,3,14
6.2984,-3.75907,-0.128031,42,7
12.4352,-7.42465,3.88073,30,15
6.2496,-3.74327,0.127158,57,8
0.437965,-0.262428,-0.117874,16,1
6.52848,-3.91341,0.398905,60,9
0.569157,-0.341173,-0.128987,13,2
8.37608,-5.02291,0.854475,58,10
7.73791,-4.64206,-1.42919,67,3
8.3011,-4.98189,1.18871,27,11
6.15242,-3.69382,-0.881115,40,4
11.5609,-6.94373,2.13596,36,12
6.57064,-3.94648,-0.670576,10,5
11.5157,-6.9193,2.61141,32,13
8.36217,-5.02649,-0.511322,31,6
12.679,-7.62433,3.41566,24,14
6.32294,-3.80371,-0.128799,49,7
12.3894,-7.45606,3.87452,12,15
6.26389,-3.7816,0.127717,61,8
0.453727,-0.27403,-0.122373,15,1
8.73879,-5.2799,0.535083,112,9
0.544437,-0.328944,-0.123644,29,2
8.35508,-5.05006,0.854126,22,10
6.90351,-4.17433,-1.27776,31,3
12.479,-7.54862,1.79075,24,11
6.19383,-3.74816,-0.888915,22,4
6.59773,-3.99415,-0.67476,8,5
11.473,-6.94827,2.60721,20,13
8.36678,-5.0691,-0.512683,35,6
12.4173,-7.52612,3.35222,40,14
6.30621,-3.82369,-0.128729,91,7
19.6144,-11.8976,6.14695,18,15
6.31898,-3.84502,0.129113,64,8
0.452768,-0.275612,-0.122373,15,1
8.73054,-5.31661,0.535711,56,9
0.5567,-0.339012,-0.126697,28,2
7.71881,-4.70419,-1.43169,15,3
8.26951,-5.04179,1.1892,16,11
10.1989,-6.22057,-1.46682,9,4
11.4868,-7.00884,2.13126,10,12
6.56944,-4.01,-0.673365,13,5
11.3313,-6.91668,2.5805,26,13
6.76718,-4.13233,-0.415548,32,6
12.3594,-7.55012,3.34367,56,14
6.28599,-3.84151,-0.128589,100,7
20.204,-12.3519,6.34521,13,15
6.42485,-3.94024,0.131556,78,8
0.451803,-0.277191,-0.122373,15,1
8.96556,-5.50272,0.551307,72,9
0.555454,-0.34105,-0.126697,28,2
25.7185,-15.7974,2.64064,15,10
7.75032,-4.76244,-1.44076,17,3
11.4569,-7.04005,1.65109,7,11
6.29097,-3.8672,-0.906708,40,4
9.51492,-5.85362,-0.977364,23,5
11.3126,-6.96228,2.58203,22,13
6.78601,-4.17805,-0.417641,7,6
12.3449,-7.60354,3.34727,29,14
6.24871,-3.84874,-0.128101,100,7
19.5687,-12.0576,6.15886,12,15
6.38995,-3.95114,0.131137,34,8
0.470672,-0.291147,-0.127772,14,1
6.35531,-3.93279,0.391682,34,9
0.534226,-0.330589,-0.122118,30,2
19.0547,-11.796,1.96066,9,10
7.73197,-4.78842,-1.44045,56,3
13.7091,-8.49337,1.98013,4,11
6.40836,-3.9718,-0.92572,50,4
11.3843,-7.05859,2.12156,61,12
6.55582,-4.06636,-0.674934,2,5
11.2365,-6.96964,2.5702,42,13
9.39508,-5.82974,-0.579464,20,6
17.8681,-11.0917,4.85534,17,14
6.22607,-3.86635,-0.127926,98,7
19.8017,-12.3015,6.24634,16,15
6.24035,-3.88881,0.128345,71,8
0.469652,-0.292788,-0.127772,14,1
6.37375,-3.97503,0.393671,51,9
0.546337,-0.340859,-0.125171,29,2
25.2566,-15.7637,2.60474,15,10
7.03408,-4.39197,-1.31342,11,3
13.5952,-8.48861,1.96795,8,11
6.37594,-3.98258,-0.923038,16,4
11.3563,-7.09619,2.12094,30,12
6.51962,-4.07549,-0.672668,20,5
11.2275,-7.02119,2.57401,43,13
9.29915,-5.81753,-0.574858,13,6
9.18624,-5.74912,2.50191,16,14
6.3634,-3.98247,-0.131033,100,7
19.7652,-12.3746,6.24841,16,15
6.05843,-3.80634,0.124889,22,8
0.448777,-0.282063,-0.122373,15,1
0.541819,-0.340674,-0.124407,29,2
25.1727,-15.8337,2.60177,30,10
7.92656,-4.98776,-1.48331,16,3
13.5724,-8.54367,1.96917,8,11
6.20508,-3.90755,-0.900371,37,4
11.3335,-7.13987,2.12156,5,12
6.60481,-4.16088,-0.682952,16,5
11.2528,-7.09174,2.58546,34,13
13.9469,-8.79303,-0.864067,29,6
6.37582,-4.02284,-0.131591,65,7
19.2427,-12.1459,6.09726,6,15
6.2394,-3.95048,0.128903,57,8
0.44779,-0.283628,-0.122373,15,1
6.2979,-3.99061,0.39074,31,9
0.53731,-0.340461,-0.123644,29,2
18.2347,-11.5587,1.88884,25,10
6.22585,-3.948,-1.16763,30,3
19.1462,-12.1458,2.78398,7,11
6.14279,-3.89833,-0.893302,58,4
12.8395,-8.15132,2.40878,9,12
6.60707,-4.19459,-0.684695,13,5
10.2187,-6.48998,2.35306,10,13
5.99464,-3.80872,-0.372213,17,6
9.18042,-5.83506,2.51135,82,14
6.33305,-4.02683,-0.130998,79,7
19.1545,-12.184,6.08277,6,15
6.08734,-3.88404,0.126041,33,8
0.446797,-0.28519,-0.122373,15,1
8.41673,-5.37445,0.52336,50,9
0.539428,-0.344448,-0.124407,14,2
6.28974,-4.01782,0.652971,5,10
6.25531,-3.99736,-1.17576,60,3
6.05891,-3.87483,-0.883065,59,4
13.9524,-8.92638,2.62341,2,12
6.54707,-4.18864,-0.679989,35,5
10.1927,-6.52349,2.35229,2,13
6.06709,-3.88454,-0.377552,31,6
9.19281,-5.88809,2.52035,58,14
6.28023,-4.0241,-0.130195,92,7
9.5665,-6.13216,3.04475,10,15
5.98964,-3.85119,0.124296,66,8
0.445799,-0.286747,-0.122373,15,1
6.24637,-4.01934,0.389275,50,9
0.531618,-0.342079,-0.122881,15,2
11.9399,-7.68588,1.24232,26,10
5.24982,-3.38068,-0.988979,17,3
28.523,-18.3747,4.16598,13,11
5.97193,-3.84864,-0.872341,50,4
13.8813,-8.94934,2.6159,13,12
6.5659,-4.23306,-0.683475,13,5
9.35464,-6.03559,-0.583441,37,6
8.8693,-5.72464,2.43712,47,14
6.2443,-4.0319,-0.129741,78,7
8.14443,-5.27694,0.169393,63,8
0.444795,-0.288302,-0.122373,15,1
8.31291,-5.38816,0.519173,78,9
0.546894,-0.354614,-0.126697,14,2
6.26321,-4.06271,0.653145,67,10
6.19577,-4.0205,-1.16982,63,3
28.6967,-18.6288,4.20084,27,11
6.13327,-3.98299,-0.897933,18,4
6.47256,-4.20494,-0.675283,25,5
10.0925,-6.55919,2.3397,16,13
6.03815,-3.92572,-0.377447,21,6
9.09104,-5.91282,2.50371,33,14
6.27281,-4.07984,-0.130614,100,7
9.50511,-6.18449,3.03854,16,15
8.24411,-5.38042,0.171836,68,8
0.443837,-0.289775,-0.122373,15,1
8.37934,-5.47285,0.524511,34,9
0.545652,-0.356521,-0.126697,28,2
6.23898,-4.07801,0.652099,46,10
6.18406,-4.04211,-1.17013,57,3
21.798,-14.2534,3.19785,9,11
5.94892,-3.89138,-0.872828,51,4
13.8532,-9.06526,2.62215,47,12
6.4095,-4.19586,-0.670228,32,5
13.1637,-8.61739,3.05829,11,13
8.81041,-5.76976,-0.551935,56,6
9.1643,-6.0038,2.52935,76,14
8.72715,-5.71959,-0.182133,99,7
9.44145,-6.19009,3.02508,27,15
8.23697,-5.41685,0.172081,55,8
0.442823,-0.291323,-0.122373,15,1
18.9226,-12.4535,1.18719,14,9
0.534627,-0.351853,-0.124407,14,2
8.20738,-5.40355,0.859704,40,10
6.24085,-4.11039,-1.18358,55,3
37.8371,-24.93,5.56358,20,11
5.88557,-3.87935,-0.865516,10,4
13.7126,-9.04179,2.60151,50,12
6.41145,-4.22918,-0.671971,27,5
11.4521,-7.55417,2.66675,11,13
9.17906,-6.05937,2.53925,61,14
8.64372,-5.70815,-0.180807,27,7
9.36499,-6.1868,3.00748,15,15
8.21968,-5.44668,0.172116,68,8
0.458046,-0.303634,-0.126872,15,1
14.7826,-9.80297,0.929591,12,9
0.536606,-0.355981,-0.125171,14,2
6.28169,-4.17039,-1.19422,48,3
37.7796,-25.0817,5.56797,20,11
5.88688,-3.90975,-0.86771,39,4
9.17438,-6.09544,1.74456,15,12
6.52773,-4.33866,-0.685741,15,5
9.39716,-6.24819,2.19354,22,13
6.03662,-4.01528,-0.379959,24,6
9.14706,-6.0865,2.53655,73,14
8.66204,-5.76376,-0.18161,72,7
9.34494,-6.22053,3.008,30,15
8.20964,-5.48343,0.172325,58,8
0.440727,-0.294484,-0.122373,15,1
8.39532,-5.61169,0.529221,11,9
0.528831,-0.353487,-0.123644,14,2
14.3711,-9.60969,1.5125,35,10
6.28187,-4.20217,-1.19704,10,3
21.9849,-14.712,3.24806,9,11
5.86261,-3.92468,-0.866247,16,4
9.21271,-6.1697,1.75613,39,12
6.46047,-4.32817,-0.680338,16,5
9.31494,-6.24052,2.17942,17,13
6.0292,-4.04077,-0.380378,38,6
8.91534,-5.97731,2.47806,45,14
6.32578,-4.24274,-0.132952,59,7
11.9145,-7.99413,3.8445,9,15
8.28999,-5.57904,0.174419,63,8
0.455861,-0.306904,-0.126872,15,1
0.550327,-0.370781,-0.128987,13,2
8.21782,-5.53881,0.867025,8,10
6.73158,-4.5388,-1.28589,10,3
12.899,-8.69721,1.91018,24,11
6.76719,-4.56452,-1.00225,49,4
9.1862,-6.1985,1.75519,49,12
6.4222,-4.33509,-0.677897,23,5
8.8706,-5.99006,2.08058,9,13
5.91009,-3.99241,-0.373783,28,6
8.93535,-6.03832,2.48976,69,14
6.37057,-4.3051,-0.134209,37,7
11.8657,-8.02161,3.83777,13,15
6.1926,-4.20059,0.130614,45,8
0.438608,-0.29763,-0.122373,15,1
8.56977,-5.81745,0.542829,43,9
0.532786,-0.361673,-0.125171,14,2
14.0052,-9.51081,1.48112,26,10
9.49838,-6.45267,-1.81871,27,3
12.8342,-8.72211,1.90531,24,11
6.45492,-4.3884,-0.958381,18,4
9.20589,-6.26101,1.76333,35,12
6.41121,-4.36197,-0.67842,25,5
5.75247,-3.91525,-0.364677,40,6
8.91905,-6.07276,2.49111,65,14
6.52333,-4.44324,-0.137769,62,7
9.12701,-6.21903,2.95934,11,15
6.24724,-4.26957,0.13208,60,8
0.415045,-0.283762,-0.116075,16,1
0.534697,-0.365841,-0.125934,14,2
8.47721,-5.80229,0.89875,16,10
11.3523,-7.7731,-2.17913,16,3
22.1186,-15.1449,3.29145,9,11
6.27251,-4.29648,-0.933519,38,4
13.2871,-9.10469,2.55113,23,12
8.99914,-6.17107,2.12103,35,13
5.75125,-3.94534,-0.365514,37,6
6.52757,-4.47957,-0.138188,100,7
8.84883,-6.07481,2.876,10,15
8.30324,-5.71947,0.17599,47,8
0.417211,-0.287492,-0.116975,16,1
0.533417,-0.367705,-0.125934,14,2
11.3446,-7.82614,-2.18289,7,3
12.8139,-8.84304,1.91164,37,11
5.87609,-4.05667,-0.876728,29,4
9.27138,-6.40306,1.7846,27,12
6.40192,-4.42134,-0.680686,20,5
8.75949,-6.0518,2.06951,27,13
5.72102,-3.95404,-0.364468,23,6
9.33059,-6.45118,2.61888,40,14
6.50288,-4.49777,-0.138014,100,7
6.17545,-4.28566,0.131207,33,8
0.409802,-0.284502,-0.115175,16,1
9.01097,-6.25812,0.574963,30,9
0.535355,-0.371805,-0.126697,14,2
8.0307,-5.57941,0.855521,40,10
4.97492,-3.45766,-0.959569,13,3
5.77878,-4.01935,-0.864297,52,4
9.22465,-6.41846,1.77991,35,12
6.17874,-4.29914,-0.658549,21,5
8.59168,-5.98027,2.03479,26,13
6.36608,-4.43278,-0.406546,25,6
9.38317,-6.53606,2.64003,12,14
6.4855,-4.5193,-0.137979,62,7
8.81464,-6.14461,2.8791,7,15
8.42699,-5.89188,0.179481,47,8
0.434357,-0.303801,-0.122373,15,1
8.36721,-5.85443,0.535188,69,9
0.514751,-0.360165,-0.122118,15,2
8.00955,-5.60626,0.855346,60,10
7.45798,-5.22213,-1.44201,12,3
17.4979,-12.2567,2.62312,12,11
4.93724,-3.45966,-0.740234,16,4
8.74119,-6.12747,1.69074,31,12
6.17436,-4.32976,-0.659769,28,5
8.65112,-6.06659,2.05387,18,13
6.51898,-4.57312,-0.417327,39,6
9.24545,-6.48817,2.60763,22,14
6.53843,-4.59017,-0.139445,39,7
9.51563,-6.68273,3.11566,12,15
6.42985,-4.52904,0.137281,41,8
0.414178,-0.291846,-0.116975,16,1
8.84462,-6.23457,0.567112,43,9
0.513427,-0.362049,-0.122118,15,2
4.79026,-3.38041,-0.928595,10,3
18.5481,-13.0891,2.7874,28,11
8.57614,-6.05653,1.6629,70,12
6.33984,-4.4789,-0.679118,33,5
8.67051,-6.12771,2.06379,35,13
6.58535,-4.65579,-0.422665,39,6
10.2844,-7.27369,2.90817,27,14
6.52073,-4.61181,-0.13941,7,7
9.08221,-6.4258,2.98108,13,15
8.05523,-5.71821,0.17243,13,8
0.419461,-0.297875,-0.118774,16,1
8.3707,-5.94655,0.538118,30,9
0.518562,-0.368387,-0.123644,14,2
13.8824,-9.8657,1.49001,9,10
10.8416,-7.7076,-2.10686,28,3
9.11737,-6.48417,1.37371,6,11
6.45868,-4.59504,-0.973249,41,4
8.55227,-6.08677,1.66259,39,12
6.3104,-4.49286,-0.677723,30,5
8.64267,-6.15339,2.06226,35,13
6.57556,-4.68338,-0.423084,18,6
10.2939,-7.33442,2.91807,27,14
8.18102,-5.83116,-0.175362,88,7
8.96579,-6.39288,2.95054,17,15
8.03034,-5.7428,0.172325,62,8
0.412079,-0.294802,-0.116975,16,1
0.520401,-0.372571,-0.124407,14,2
8.15899,-5.84342,0.878007,26,10
9.31352,-6.67274,-1.81464,43,3
9.08016,-6.50555,1.37152,26,11
