x, y, z, intensity, ring
0.199229,21.5373,5.77115,30,15
0.00546226,0.521571,-0.139762,14,0
0.148087,13.9091,0.242798,27,8
0.00678991,0.627458,-0.144868,25,1
0.164028,14.9166,0.781795,51,9
0.0913789,8.30995,-1.61539,26,2
0.157962,14.1411,1.23726,39,10
0.110432,9.73403,-1.54182,28,3
0.156362,13.5732,1.66669,7,11
0.13665,11.6854,-1.43489,22,4
0.22679,19.1084,3.02669,22,12
0.159037,13.3999,-1.17242,35,5
0.233025,19.3484,3.76123,17,13
0.165213,13.5224,-0.708734,6,6
0.345211,27.8571,6.4318,54,14
0.199094,15.8423,-0.276551,100,7
0.274403,21.5365,5.77115,15,15
0.00701277,0.502233,-0.134586,15,0
0.195341,13.8165,0.241192,46,8
0.0091476,0.639121,-0.147568,24,1
0.21976,15.1696,0.795088,41,9
0.120095,8.28995,-1.61157,26,2
0.244334,16.6645,1.45812,15,10
0.144148,9.71581,-1.539,27,3
0.203582,13.5626,1.66547,22,11
0.176628,11.6313,-1.42831,27,4
0.2931,19.0819,3.02263,24,12
0.205049,13.3494,-1.16806,50,5
0.429477,27.6471,5.37471,19,13
0.212856,13.5497,-0.710199,52,6
0.433913,27.3179,6.30763,8,14
0.244237,15.2097,-0.265521,22,7
0.497017,30.6177,8.20508,12,15
0.00876598,0.502205,-0.134586,15,0
0.242854,13.7758,0.240494,53,8
0.0110315,0.619601,-0.143069,25,1
0.270102,15.1708,0.795193,30,9
0.148611,8.26593,-1.60699,26,2
0.308221,16.9783,1.48566,39,10
0.177481,9.68365,-1.534,28,3
0.320002,17.2951,2.12394,9,11
0.203444,10.9955,-1.35031,31,4
0.433221,23.1948,3.67433,24,12
0.257164,13.6415,-1.19369,42,5
0.367901,19.3365,3.75932,11,13
0.258737,13.475,-0.706326,87,6
0.531167,27.6631,6.38771,44,14
0.612776,31.3441,8.40023,26,15
0.0106722,0.513762,-0.137692,14,0
0.0133329,0.631251,-0.145768,25,1
0.321587,15.2257,0.798123,15,9
0.17573,8.25165,-1.60432,23,2
0.366049,17.0489,1.49193,6,10
0.208692,9.64153,-1.52743,26,3
0.371555,17.028,2.09128,9,11
0.240082,11.0027,-1.35129,31,4
0.381851,17.3613,2.75043,34,12
0.301645,13.6067,-1.19072,42,5
0.611617,27.3727,5.32204,30,13
0.339659,15.0835,-0.790692,26,6
0.710066,31.5324,7.28167,10,14
0.344199,15.1678,-0.264823,100,7
0.716678,31.34,8.39971,26,15
0.0116313,0.482823,-0.12941,15,0
0.335135,13.8118,0.241157,19,8
0.0156167,0.638996,-0.147568,24,1
0.368937,14.9889,0.785772,11,9
0.20285,8.24121,-1.60241,26,2
0.399276,16.1075,1.40966,50,10
0.239877,9.60919,-1.52242,27,3
0.43974,17.4931,2.14856,18,11
0.278284,10.9939,-1.35031,63,4
0.350421,13.6553,-1.19508,15,5
0.552898,21.5455,4.1894,18,13
0.389312,15.0683,-0.789959,29,6
0.930487,35.7726,8.26155,12,14
0.515186,19.6743,-0.343533,36,7
0.831765,31.5536,8.45769,33,15
0.382184,13.7686,0.240424,20,8
0.0175208,0.62725,-0.144868,25,1
0.231831,8.19724,-1.59402,23,2
0.436956,15.3551,1.34394,33,10
0.274245,9.57863,-1.51773,27,3
0.499603,17.4498,2.14344,27,11
0.316941,11.0028,-1.35153,50,4
0.501281,17.297,2.74073,17,12
0.401159,13.7596,-1.20432,40,5
0.619829,21.1332,4.10964,14,13
0.495905,16.8076,-0.881233,54,6
0.626095,21.0956,4.87244,48,14
0.483481,16.2903,-0.284474,55,7
0.942357,31.5659,8.46183,26,15
0.0168963,0.540655,-0.144939,14,0
0.429446,13.6652,0.238644,38,8
0.019758,0.625234,-0.144419,25,1
0.260071,8.1846,-1.59173,26,2
0.492904,15.4272,1.35039,33,10
0.307047,9.55787,-1.5146,28,3
0.561253,17.3764,2.13466,18,11
0.35458,10.9778,-1.34861,48,4
0.562486,17.3209,2.7448,22,12
0.444379,13.6107,-1.19142,40,5
0.689348,21.0014,4.08446,22,13
0.491727,14.9014,-0.781376,29,6
0.512765,15.4571,-0.269954,32,7
1.05454,31.6223,8.47788,6,15
0.0173541,0.501982,-0.134586,15,0
0.538223,15.4903,0.270547,45,8
0.0223072,0.638797,-0.147568,24,1
0.286452,8.16211,-1.58753,26,2
0.540264,15.3179,1.34098,43,10
0.337479,9.52126,-1.50897,28,3
0.657955,18.4715,2.26945,43,11
0.423773,11.8971,-1.4617,24,4
0.70026,19.5635,3.10053,19,12
0.491156,13.655,-1.19543,50,5
0.745307,20.6203,4.01081,20,13
1.32935,36.6024,8.45591,12,14
0.703234,19.2702,-0.336587,59,7
0.0191648,0.505782,-0.135621,15,0
0.588223,15.4525,0.269919,18,8
0.0244256,0.63872,-0.147568,24,1
0.584529,15.2159,0.798019,53,9
0.31246,8.13365,-1.58219,26,2
0.604123,15.6545,1.37061,18,10
0.367982,9.49246,-1.50459,28,3
0.664119,17.0549,2.09567,22,11
0.45715,11.6872,-1.43611,42,4
0.835788,21.2722,3.37179,9,12
0.537691,13.6851,-1.19822,55,5
1.42024,35.9879,7.00078,33,13
0.551783,13.92,-0.730087,61,6
0.833412,20.9324,4.83645,42,14
0.61549,15.3914,-0.268872,100,7
0.021889,0.528875,-0.141833,14,0
0.629616,15.1486,0.264648,16,8
0.0258422,0.61916,-0.143069,25,1
0.637057,15.1998,0.797286,26,9
0.340688,8.12859,-1.58142,26,2
0.658593,15.6483,1.37026,33,10
0.399195,9.44572,-1.49739,40,3
0.746629,17.5939,2.16221,18,11
0.495067,11.6181,-1.42782,26,4
0.837075,19.564,3.10147,7,12
0.585965,13.6951,-1.19926,55,5
0.887829,20.6658,4.02073,10,13
0.601744,13.9499,-0.731761,68,6
0.90411,20.8748,4.82385,42,14
0.648445,14.9116,-0.26053,100,7
0.0233886,0.521075,-0.139762,14,0
0.706161,15.6717,0.273828,10,8
0.0282676,0.624907,-0.144419,25,1
0.68495,15.0837,0.79132,118,9
0.368171,8.10774,-1.57761,26,2
0.710577,15.5882,1.36521,51,10
0.431534,9.43046,-1.4952,26,3
0.807497,17.5793,2.16074,9,11
0.528485,11.4617,-1.40881,39,4
0.939159,20.2911,3.21723,17,12
0.637455,13.7726,-1.20624,52,5
0.962062,20.7077,4.0295,24,13
0.647733,13.8898,-0.728726,39,6
0.984904,21.0409,4.86299,21,14
0.706315,15.0331,-0.262694,23,7
0.0252072,0.52099,-0.139762,14,0
0.759605,15.6432,0.273374,16,8
0.0301641,0.618965,-0.143069,25,1
0.739839,15.1271,0.793727,45,9
0.395126,8.07895,-1.57227,23,2
0.770069,15.6891,1.37427,36,10
0.46299,9.3993,-1.49051,28,3
0.835431,16.9003,2.07763,4,11
0.564461,11.3785,-1.39882,27,4
0.852927,17.133,2.71695,22,12
0.688396,13.828,-1.21129,62,5
1.04697,20.9571,4.07873,8,13
0.693217,13.8276,-0.725586,74,6
1.05316,20.9342,4.83915,46,14
0.712708,14.1179,-0.246742,96,7
0.0275182,0.528612,-0.141833,14,0
0.945333,18.0986,0.316342,54,8
0.0327386,0.624688,-0.144419,25,1
0.806811,15.3437,0.805241,24,9
0.422671,8.03824,-1.56463,26,2
0.820741,15.5569,1.36294,27,10
0.49556,9.36203,-1.48488,30,3
0.973802,18.3363,2.25458,34,11
0.596864,11.2019,-1.37737,41,4
0.914772,17.112,2.71414,45,12
0.740992,13.8612,-1.21443,47,5
1.10643,20.6297,4.01577,18,13
0.771792,14.3435,-0.7528,81,6
0.805004,14.864,-0.259831,100,7
1.76455,32.4768,8.71496,14,15
0.0293634,0.528512,-0.141833,14,0
0.0349186,0.62457,-0.144419,25,1
0.830062,14.8004,0.776875,18,9
0.44963,8.01711,-1.56082,26,2
0.89239,15.8622,1.38996,24,10
0.527006,9.33855,-1.48143,35,3
1.03555,18.2931,2.24971,28,11
0.624036,10.9896,-1.35153,31,4
0.973026,17.083,2.71007,50,12
0.796387,13.9818,-1.22524,27,5
1.16925,20.465,3.98447,20,13
0.817402,14.263,-0.748718,45,6
2.00258,34.8366,8.05595,47,14
0.852277,14.7812,-0.258435,100,7
1.87289,32.3836,8.69166,21,15
0.0307526,0.520693,-0.139762,14,0
0.88779,14.9874,0.262065,16,8
0.0372143,0.62639,-0.144868,12,1
0.881029,14.8295,0.77855,22,9
0.475629,7.98218,-1.55433,26,2
0.928972,15.5448,1.36242,63,10
0.556648,9.28736,-1.47361,26,3
1.02639,17.0747,2.1003,36,11
0.658096,10.9479,-1.34666,46,4
1.03193,17.1172,2.71602,11,12
0.836053,13.8278,-1.21199,60,5
1.2408,20.4627,3.98486,15,13
0.850694,13.9889,-0.734483,78,6
1.22641,20.1673,4.66458,3,14
0.874626,14.3412,-0.250791,100,7
2.08041,34.0143,9.13114,7,15
0.0317572,0.509019,-0.136656,14,0
0.0394134,0.628208,-0.145318,25,1
0.926578,14.7687,0.775514,7,9
0.500122,7.94921,-1.54822,30,2
0.964204,15.2831,1.33976,51,10
0.586323,9.26772,-1.4708,27,3
1.08326,17.0752,2.10078,45,11
0.690499,10.8842,-1.3391,24,4
1.08856,17.1117,2.7157,16,12
0.874677,13.7116,-1.20205,37,5
1.23997,19.3848,3.77573,6,13
0.908965,14.1714,-0.744217,42,6
1.29415,20.1767,4.66773,18,14
0.923979,14.3661,-0.25128,29,7
2.19057,33.9667,9.12027,23,15
0.0331916,0.505056,-0.135621,15,0
0.993614,15.079,0.263776,36,8
0.0412394,0.624185,-0.144419,25,1
0.523757,7.90637,-1.54021,28,2
1.02518,15.4349,1.35335,24,10
0.615082,9.23616,-1.4661,27,3
1.25309,18.767,2.30942,9,11
0.716021,10.6956,-1.31619,27,4
1.3204,19.672,3.12275,37,12
0.93605,13.9093,-1.21966,27,5
1.39429,20.7185,4.03637,12,13
0.964025,14.2879,-0.750498,61,6
2.51609,37.1944,8.60663,12,14
2.31345,34.0225,9.13735,7,15
0.0401251,0.578165,-0.155291,12,0
1.04168,15.0096,0.262624,54,8
0.0442294,0.635701,-0.147118,24,1
0.551634,7.88873,-1.53716,26,2
1.01069,14.4174,1.26446,11,10
0.646436,9.19837,-1.46047,28,3
1.12027,15.9407,1.9621,17,11
0.749308,10.6356,-1.30912,24,4
1.38392,19.5943,3.11117,27,12
1.23808,17.4428,3.39907,20,13
1.0273,14.4376,-0.758557,52,6
1.4776,20.7151,4.79461,20,14
1.0951,15.3527,-0.268662,25,7
2.51708,35.2012,9.45621,8,15
1.10222,15.0815,0.26395,90,8
0.0457049,0.623874,-0.144419,25,1
0.577009,7.85738,-1.53143,26,2
1.06306,14.4416,1.2669,22,10
0.677816,9.18621,-1.45891,26,3
1.53918,20.8104,2.56218,41,11
0.787402,10.6209,-1.30766,38,4
1.45201,19.5854,3.11054,16,12
1.07181,14.423,-1.26533,20,5
1.29895,17.4384,3.39907,13,13
1.08513,14.5335,-0.763791,29,6
2.66728,35.6402,8.2512,12,14
1.14869,15.3487,-0.268662,90,7
1.43891,19.1816,5.15412,3,15
0.040333,0.527789,-0.141833,14,0
1.1379,14.8903,0.260669,49,8
0.0482201,0.629548,-0.145768,25,1
1.14063,14.8578,0.780957,24,9
0.602925,7.83575,-1.52762,26,2
1.49892,19.4358,1.70546,24,10
0.706606,9.16225,-1.45547,28,3
1.62867,21.0704,2.59484,36,11
0.823075,10.6241,-1.30839,27,4
1.33319,17.1697,2.72759,19,12
0.987501,12.689,-1.1135,2,5
1.34946,17.34,3.38075,43,13
1.14,14.6155,-0.768292,35,6
1.50588,19.263,4.46078,26,14
1.18195,15.0855,-0.264125,90,7
2.70424,34.4374,9.25589,16,15
0.0420831,0.527652,-0.141833,14,0
1.21361,15.1833,0.26587,19,8
0.0496392,0.619663,-0.143519,25,1
1.18243,14.7283,0.774363,19,9
0.627337,7.81413,-1.5238,26,2
1.19904,14.9027,1.30803,23,10
0.736677,9.1361,-1.45171,27,3
1.6768,20.75,2.55609,58,11
0.86128,10.6351,-1.3101,33,4
1.39216,17.1531,2.72571,41,12
1.11726,13.766,-1.20833,42,5
1.56134,19.1961,3.74367,19,13
1.59104,19.4771,4.51162,27,14
1.2315,15.0434,-0.263462,83,7
2.73391,33.3245,8.95928,7,15
0.0439246,0.527502,-0.141833,14,0
0.0534257,0.638906,-0.148018,24,1
1.24084,14.8077,0.778759,45,9
0.653464,7.7982,-1.52113,26,2
1.25572,14.954,1.31291,48,10
0.768566,9.13347,-1.45171,27,3
1.80276,21.379,2.63433,6,11
0.898897,10.6379,-1.31083,31,4
1.63753,19.3389,3.07394,31,12
1.64743,19.4155,3.78756,17,13
1.24369,14.6271,-0.769339,29,6
2.93522,34.4497,7.98216,11,14
1.34338,15.7344,-0.275643,64,7
1.65351,19.3271,5.1976,5,15
0.046768,0.538893,-0.144939,14,0
0.0558246,0.640657,-0.148468,24,1
1.29565,14.8692,0.782213,34,9
0.677776,7.76262,-1.51464,26,2
1.29646,14.8186,1.30141,20,10
0.800437,9.13073,-1.45171,26,3
1.70055,19.3595,2.3862,30,11
0.936376,10.6387,-1.31131,31,4
1.54525,17.5564,2.79142,30,12
1.13457,12.8647,-1.12989,26,5
1.55534,17.6007,3.43456,4,13
1.30672,14.7579,-0.776456,48,6
1.70373,19.2035,4.45088,26,14
1.2653,14.2618,-0.249918,26,7
2.84009,31.9485,8.59435,27,15
0.0455212,0.504094,-0.135621,15,0
1.39615,15.4607,0.270966,42,8
0.0567197,0.626882,-0.145318,25,1
1.33727,14.7512,0.776247,75,9
0.702029,7.72893,-1.50854,23,2
0.828923,9.10835,-1.44858,28,3
1.6326,17.9047,2.20754,9,11
0.972556,10.6454,-1.31253,38,4
1.57123,17.1654,2.73009,42,12
1.30938,14.2773,-1.25435,42,5
1.35676,14.7654,-0.777084,78,6
1.78562,19.3956,4.49677,16,14
1.31379,14.2434,-0.249674,30,7
2.93951,31.8076,8.55915,13,15
0.0450313,0.480859,-0.12941,15,0
1.41704,15.1034,0.264788,72,8
0.0598196,0.636381,-0.147568,24,1
1.35205,14.3567,0.755731,38,9
0.725629,7.70506,-1.50434,23,2
1.39036,14.736,1.29496,28,10
0.856067,9.05624,-1.44076,43,3
1.39489,14.729,1.81658,12,11
1.01101,10.6558,-1.31424,23,4
1.62591,17.1047,2.72133,50,12
1.3407,14.1043,-1.23953,27,5
1.60736,16.8783,3.29565,18,13
1.41245,14.8044,-0.779387,39,6
1.84293,19.2807,4.47158,26,14
1.35931,14.1949,-0.248906,22,7
3.13297,32.6568,8.79053,7,15
0.0467094,0.480699,-0.12941,15,0
1.4717,15.1182,0.265137,42,8
0.0609059,0.624532,-0.144868,25,1
1.41361,14.4692,0.761907,123,9
0.751373,7.69075,-1.50205,23,2
1.41598,14.4673,1.27178,77,10
0.882472,9.00011,-1.43231,38,3
1.66849,16.9861,2.09567,18,11
1.04937,10.664,-1.3157,26,4
1.69123,17.156,2.73041,39,12
1.3782,13.9806,-1.22907,47,5
1.64484,16.6557,3.25329,4,13
1.42795,14.4336,-0.760128,61,6
3.24041,32.6956,7.58535,11,14
1.41932,14.2955,-0.250756,100,7
3.2154,32.3284,8.70512,21,15
0.0483872,0.480533,-0.12941,15,0
1.50559,14.926,0.261856,57,8
0.0623015,0.61656,-0.143069,25,1
1.47317,14.5536,0.766617,32,9
0.776833,7.67441,-1.49938,21,2
1.49482,14.7418,1.29635,28,10
0.915074,9.00877,-1.43419,33,3
1.72195,16.9229,2.0886,27,11
1.08639,10.6583,-1.31546,27,4
1.76494,17.2855,2.752,15,12
1.49929,14.6332,-0.770909,26,6
3.3336,32.4805,7.53811,33,14
1.46451,14.2447,-0.249953,94,7
3.48182,33.8083,9.10681,15,15
0.0520665,0.499576,-0.134586,15,0
1.5525,14.8709,0.260983,66,8
0.066683,0.637658,-0.148018,24,1
1.50647,14.3815,0.757825,58,9
0.800339,7.64041,-1.49327,23,2
1.75647,16.7398,1.47258,25,10
0.942801,8.97016,-1.42856,33,3
1.56838,14.8972,1.83925,24,11
1.12213,10.6406,-1.31375,26,4
1.82299,17.2577,2.74855,24,12
1.31837,12.4806,-1.09799,23,5
2.1657,20.3998,4.73612,40,14
1.52438,14.335,-0.251629,21,7
3.45473,32.4339,8.7398,28,15
0.0542241,0.503232,-0.135621,15,0
1.5999,14.8236,0.26025,58,8
0.0674422,0.62386,-0.144868,25,1
1.62693,15.0495,0.793308,46,9
0.822779,7.59853,-1.48564,23,2
1.62799,15.0103,1.32093,2,10
0.973038,8.957,-1.427,35,3
1.61908,14.8798,1.83779,28,11
1.15762,10.6388,-1.314,24,4
2.10023,19.2703,3.07018,42,12
1.36366,12.4918,-1.09938,26,5
2.10063,19.2118,3.75665,8,13
1.77123,16.173,-0.852658,29,6
2.22294,20.2975,4.71407,28,14
1.64342,14.9818,-0.263078,26,7
3.57386,32.5279,8.76827,14,15
0.0563194,0.50689,-0.136656,14,0
1.65324,14.856,0.260913,66,8
0.0710216,0.63719,-0.148018,24,1
1.62992,14.6233,0.771118,20,9
0.845578,7.5743,-1.48144,23,2
1.67886,15.0147,1.3218,20,10
1.00097,8.93801,-1.42449,30,3
1.66754,14.8664,1.83681,44,11
1.19135,10.6211,-1.31229,19,4
2.14912,19.1297,3.04891,48,12
1.39639,12.41,-1.09258,28,5
1.92402,17.0724,3.33954,13,13
1.60509,14.2201,-0.749974,29,6
1.92335,17.013,-0.298855,77,7
3.68889,32.5792,8.78535,7,15
0.0575605,0.502862,-0.135621,15,0
1.71252,14.9379,0.262449,30,8
0.0718006,0.625335,-0.145318,25,1
0.868895,7.55585,-1.47839,26,2
1.71816,14.918,1.31379,28,10
1.02971,8.9268,-1.42324,26,3
2.22531,19.2623,2.38084,5,11
1.22249,10.5656,-1.30595,17,4
2.1986,18.973,3.02513,42,12
1.44797,12.4763,-1.09886,30,5
1.97429,17.0113,3.32885,32,13
1.65316,14.2226,-0.750393,42,6
3.99404,34.3097,7.97451,23,14
2.00495,17.1969,-0.302206,46,7
3.80798,32.6122,8.79778,7,15
0.0566823,0.479625,-0.12941,15,0
1.77474,15.0172,0.26395,46,8
0.0758155,0.640562,-0.148918,24,1
1.77311,14.9586,0.789436,56,9
0.894733,7.53702,-1.47534,26,2
1.78764,15.0363,1.32477,40,10
1.06125,8.91316,-1.42168,26,3
1.76259,14.8035,1.83048,4,11
1.25442,10.5199,-1.30083,20,4
2.0697,17.3313,2.76451,45,12
1.50547,12.5879,-1.10914,21,5
2.32801,19.4367,3.80511,13,13
3.83412,31.917,7.42159,43,14
2.04327,17.0091,-0.29903,100,7
3.98778,33.1472,8.94582,7,15
0.0639585,0.525449,-0.141833,14,0
1.80315,14.7922,0.260111,63,8
0.0776904,0.636411,-0.148018,24,1
1.85362,15.1622,0.800531,43,9
0.918891,7.51631,-1.4719,21,2
1.82171,14.8796,1.31152,23,10
1.08971,8.88783,-1.41823,25,3
1.81586,14.789,1.8295,8,11
1.28788,10.4739,-1.29571,19,4
2.12765,17.2785,2.75731,44,12
1.54721,12.5647,-1.10758,33,5
2.4475,19.8474,3.88716,15,13
1.73751,14.0697,-0.742961,48,6
3.94215,31.8763,7.41529,43,14
1.87972,15.1777,-0.266952,82,7
4.07977,32.8947,8.88163,7,15
0.0648317,0.517555,-0.139762,14,0
0.0806402,0.641937,-0.149367,24,1
1.8806,14.9495,0.789645,48,9
0.94218,7.48968,-1.46732,21,2
1.86194,14.7803,1.30333,54,10
1.11826,8.86437,-1.41511,26,3
2.44468,19.3517,2.39498,10,11
1.3217,10.4476,-1.29303,22,4
2.19019,17.2886,2.76013,13,12
1.58931,12.5454,-1.10635,47,5
1.80524,14.2101,-0.750707,9,6
4.05463,31.872,7.41754,43,14
1.94557,15.2722,-0.268732,41,7
0.0617019,0.479005,-0.12941,15,0
1.90459,14.7654,0.259866,46,8
0.0818818,0.63392,-0.147568,24,1
1.92894,14.9131,0.788075,33,9
0.965802,7.46688,-1.46351,23,2
1.92299,14.8468,1.30978,34,10
1.14437,8.82319,-1.40916,26,3
2.09241,16.1107,1.99476,4,11
1.35355,10.4075,-1.28865,17,4
2.15231,16.5267,2.63968,6,12
1.66062,12.7512,-1.12501,28,5
2.0785,15.9382,3.12431,19,13
1.68207,12.8808,-0.680786,16,6
4.18127,31.9755,7.44498,10,14
2.20943,16.8734,-0.29704,100,7
4.38516,33.4439,9.03796,7,15
0.0694575,0.524751,-0.141833,14,0
1.99579,15.058,0.265137,12,8
0.0830688,0.625904,-0.145768,25,1
1.92599,14.4925,0.766198,51,9
0.989276,7.444,-1.45969,21,2
1.17099,8.78782,-1.40416,30,3
2.15179,16.1269,1.99768,25,11
1.38645,10.3772,-1.28548,19,4
2.58273,19.3052,3.08489,16,12
1.68557,12.5992,-1.11211,38,5
4.14781,30.9627,6.07231,30,13
4.2677,31.7734,7.40134,43,14
2.26486,16.8398,-0.296586,85,7
4.31698,32.0556,8.66681,14,15
0.0779529,0.574289,-0.155291,12,0
2.00693,14.766,0.260111,60,8
0.0833042,0.612108,-0.142619,26,1
1.99656,14.6704,0.775933,23,9
1.00944,7.40761,-1.4532,23,2
2.01377,14.7583,1.30315,31,10
1.19825,8.77019,-1.40197,31,3
2.20741,16.1354,1.99963,25,11
1.41062,10.2978,-1.27622,23,4
2.49993,18.25,2.9175,18,12
1.72896,12.6054,-1.11315,47,5
4.27318,31.1141,6.10474,25,13
2.06602,15.0238,-0.794774,58,6
4.68538,34.0274,7.92998,11,14
2.34066,16.999,-0.299518,100,7
4.4198,32.0572,8.67096,14,15
0.0730276,0.524266,-0.141833,14,0
2.05285,14.7374,0.259727,61,8
0.0901792,0.646569,-0.150717,23,1
1.03258,7.3846,-1.44939,23,2
2.0639,14.7414,1.30228,23,10
1.22486,8.74856,-1.39915,27,3
2.30279,16.4268,2.03668,30,11
1.43869,10.2498,-1.27085,26,4
2.26341,16.105,2.57585,15,12
1.78045,12.6525,-1.11786,30,5
4.39929,31.2631,6.1368,25,13
2.11833,15.0347,-0.795716,48,6
4.51046,31.9721,7.45443,44,14
2.07304,14.6761,-0.258714,76,7
4.49351,31.7719,8.59797,27,15
0.068217,0.478121,-0.12941,15,0
2.10118,14.7084,0.259343,34,8
0.0907796,0.634676,-0.148018,24,1
2.08562,14.5632,0.771013,52,9
1.05556,7.36151,-1.44557,23,2
2.12323,14.8074,1.30873,28,10
1.25258,8.72468,-1.39602,26,3
2.30447,16.0316,1.98866,17,11
1.47022,10.2152,-1.2672,17,4
1.79729,12.4569,-1.10113,28,5
2.30956,15.9877,3.13995,32,13
1.95099,13.4889,-0.714281,74,6
4.6753,32.3245,7.54036,22,14
2.11479,14.6034,-0.257563,93,7
4.59941,31.7216,8.58865,27,15
0.0755663,0.516097,-0.139762,14,0
2.22816,15.1992,0.268139,63,8
0.0939547,0.640123,-0.149367,24,1
2.19212,14.9171,0.790168,21,9
1.07997,7.34012,-1.44213,23,2
2.19837,14.9415,1.32128,2,10
1.28024,8.69071,-1.39133,27,3
2.35395,15.9602,1.98086,8,11
1.50243,10.1744,-1.26281,16,4
2.32197,15.7054,2.51453,35,12
1.77408,11.9851,-1.05999,40,5
2.32986,15.7208,3.0892,11,13
2.00482,13.5113,-0.715851,26,6
2.74469,18.4976,4.31726,25,14
2.14626,14.4472,-0.254945,51,7
4.68977,31.5306,8.54155,27,15
0.0786051,0.523458,-0.141833,14,0
2.2895,15.2285,0.268802,24,8
0.0925293,0.614723,-0.143519,25,1
2.25816,15.0022,0.795088,9,9
1.10529,7.33436,-1.44175,23,2
2.24835,14.9018,1.31849,23,10
1.30736,8.65471,-1.38632,27,3
2.40145,15.8788,1.97185,25,11
1.53525,10.1394,-1.25915,23,4
2.76418,18.2558,2.92439,19,12
1.8174,11.9887,-1.06086,54,5
2.39916,15.8077,3.1079,8,13
2.05406,13.5181,-0.716584,39,6
4.84033,31.8174,7.43013,43,14
2.19337,14.4179,-0.254561,24,7
4.80185,31.5274,8.54517,27,15
0.082193,0.534637,-0.144939,14,0
2.64931,17.2329,0.304335,10,8
0.0945671,0.614413,-0.143519,25,1
1.12819,7.31299,-1.43832,23,2
2.2882,14.8151,1.31152,17,10
1.33303,8.6308,-1.38319,27,3
2.48686,16.0827,1.99817,29,11
1.56097,10.0833,-1.25282,20,4
1.86199,12,-1.06243,33,5
2.45458,15.8191,3.11171,3,13
2.21753,14.275,-0.757092,26,6
2.89591,18.6205,4.35055,25,14
4.87884,31.2986,8.48771,33,15
0.074969,0.477109,-0.12941,15,0
2.70852,17.2176,0.30423,1,8
0.0988333,0.627554,-0.146668,24,1
2.4238,15.3727,0.815604,9,9
1.14754,7.27818,-1.43221,26,2
2.33421,14.7877,1.30978,37,10
1.35544,8.57732,-1.37537,27,3
2.49675,15.7817,1.96185,34,11
1.58933,10.0346,-1.24745,17,4
1.94857,12.2889,-1.08858,23,5
2.47161,15.57,3.06439,4,13
2.39525,15.0719,-0.799798,71,6
2.8277,17.7731,4.15485,8,14
2.30121,14.4477,-0.255364,51,7
5.0118,31.4302,8.52809,27,15
0.0796995,0.495918,-0.134586,15,0
2.97317,18.4795,0.326709,36,8
0.101953,0.632977,-0.148018,24,1
2.52069,15.6323,0.829839,31,9
1.17044,7.25863,-1.42916,23,2
2.39915,14.8621,1.3171,57,10
1.37655,8.51793,-1.36661,28,3
2.57275,15.9023,1.97794,38,11
1.61768,9.98786,-1.24234,22,4
1.96531,12.1208,-1.07428,26,5
2.44592,15.0516,-0.79917,65,6
5.30601,32.616,7.62899,11,14
2.68238,16.4705,-0.291281,100,7
5.12054,31.4068,8.52654,6,15
0.0845619,0.5147,-0.139762,14,0
2.34152,14.2365,0.251838,11,8
0.104479,0.63454,-0.148468,24,1
2.57881,15.6451,0.83099,60,9
1.19321,7.239,-1.42611,23,2
2.53891,15.3864,1.36434,69,10
1.40209,8.48774,-1.36254,26,3
2.57156,15.5504,1.93529,28,11
1.64929,9.96257,-1.2399,23,4
1.98025,11.9488,-1.05964,30,5
2.56482,15.4594,3.04607,24,13
2.47227,14.8854,-0.790796,29,6
5.39107,32.4243,7.5885,44,14
2.41514,14.5101,-0.25676,27,7
5.39875,32.4006,8.8014,14,15
0.0799613,0.476298,-0.12941,15,0
2.39751,14.2657,0.252501,57,8
0.105076,0.624563,-0.146218,25,1
2.63208,15.6282,0.830572,22,9
1.21587,7.2193,-1.42305,23,2
2.58963,15.3597,1.36277,33,10
1.42809,8.46137,-1.3591,27,3
2.60235,15.4024,1.91798,37,11
1.68108,9.93913,-1.23771,20,4
2.01329,11.8907,-1.05511,28,5
2.68374,15.8336,3.12164,13,13
2.51719,14.8353,-0.788598,61,6
5.64453,33.2314,7.78196,11,14
5.60841,32.9491,8.95566,29,15
0.0881531,0.514097,-0.139762,14,0
2.44627,14.2514,0.252397,56,8
0.107256,0.624193,-0.146218,25,1
1.23707,7.1918,-1.41847,21,2
2.62666,15.2544,1.35423,75,10
1.45494,8.44076,-1.3566,27,3
2.64497,15.3287,1.90994,45,11
1.71066,9.91394,-1.23527,20,4
2.86331,16.5768,2.66439,16,12
2.04868,11.8483,-1.05197,26,5
2.71254,15.6713,3.09149,44,13
2.56487,14.8028,-0.787342,35,6
5.31653,30.6837,7.18944,42,14
2.5142,14.4953,-0.256795,42,7
5.61685,32.3497,8.79778,7,15
0.0871949,0.498578,-0.135621,15,0
0.108652,0.619995,-0.145318,25,1
2.62087,14.9552,0.795716,20,9
1.25718,7.16639,-1.41428,26,2
2.67724,15.2456,1.35423,45,10
1.47916,8.41449,-1.35316,27,3
2.73362,15.5349,1.93675,8,11
1.73835,9.87889,-1.23161,22,4
3.06768,17.4155,2.8008,39,12
2.07239,11.7531,-1.04413,23,5
2.74981,15.5791,3.07508,33,13
2.60873,14.7647,-0.785772,78,6
5.7302,32.4314,7.60335,11,14
2.5236,14.2683,-0.25292,94,7
5.72847,32.3557,8.80451,14,15
0.0847785,0.475464,-0.12941,15,0
2.65142,14.8549,0.263392,4,8
0.111736,0.625386,-0.146668,24,1
2.67305,14.946,0.795716,41,9
1.27921,7.15251,-1.41237,23,2
2.70285,15.0974,1.34185,48,10
1.50148,8.37842,-1.34815,27,3
2.80089,15.6136,1.94772,25,11
1.77002,9.85713,-1.22966,24,4
2.07681,11.554,-1.02704,24,5
2.78721,15.4907,3.05943,40,13
2.41623,13.4154,-0.714386,32,6
6.13036,34.003,7.97676,11,14
2.5748,14.2673,-0.25306,22,7
5.83382,32.2937,8.79312,14,15
0.0898954,0.494172,-0.134586,15,0
0.115665,0.634578,-0.148918,24,1
2.76644,15.1625,0.807753,22,9
1.30276,7.14028,-1.41084,23,2
2.7337,14.9683,1.33122,69,10
1.5197,8.31289,-1.33845,22,3
2.82108,15.4163,1.92432,16,11
1.8055,9.85675,-1.23039,23,4
2.10814,11.4977,-1.02269,27,5
2.84658,15.5098,3.06516,12,13
2.43526,13.2557,-0.706326,71,6
6.28847,34.196,8.02715,11,14
2.62532,14.2622,-0.25313,21,7
5.95912,32.3415,8.81175,14,15
0.0951433,0.512849,-0.139762,14,0
2.58602,13.9258,0.247231,17,8
0.117168,0.630338,-0.148018,24,1
2.74519,14.7542,0.786505,7,9
1.3266,7.1299,-1.4097,23,2
2.80708,15.0723,1.34133,69,10
1.54509,8.28812,-1.33532,22,3
3.42,18.3276,2.28919,19,11
1.83625,9.83088,-1.22796,31,4
3.14642,16.829,2.71164,13,12
2.14826,11.4903,-1.02269,27,5
4.34673,23.2265,4.59315,30,13
2.47453,13.2098,-0.704337,61,6
6.0149,32.0785,7.53496,22,14
6.06055,32.2597,8.79519,14,15
0.096933,0.512514,-0.139762,14,0
2.64094,13.9501,0.247824,30,8
0.11719,0.618438,-0.145318,25,1
2.98499,15.7374,0.839469,38,9
1.34928,7.11365,-1.40741,23,2
3.5877,18.897,1.6828,17,10
1.56995,8.26133,-1.33188,21,3
3.24802,17.0753,2.13418,4,11
1.86238,9.7815,-1.22259,26,4
2.19209,11.5023,-1.02443,27,5
3.27631,17.175,3.39869,41,13
2.50152,13.101,-0.698999,71,6
6.10966,31.9673,7.51381,44,14
2.68424,14.0314,-0.24936,100,7
5.9922,31.2935,8.53741,13,15
0.0987216,0.512172,-0.139762,14,0
2.68885,13.9368,0.247754,8,8
0.121565,0.629505,-0.148018,24,1
3.19925,16.5668,0.884268,5,9
1.37038,7.08962,-1.40359,23,2
3.26382,16.8695,1.50326,6,10
1.59691,8.2461,-1.33032,23,3
3.4572,17.8356,2.2307,28,11
1.89197,9.75156,-1.21967,27,4
2.23527,11.5102,-1.02582,27,5
4.51326,23.2187,4.59773,16,13
2.5583,13.1491,-0.702035,58,6
6.20108,31.8425,7.48952,44,14
2.73687,14.0538,-0.249918,100,7
6.49289,33.3099,9.09335,15,15
0.100509,0.511825,-0.139762,14,0
2.72118,13.8572,0.246498,12,8
0.122525,0.623362,-0.146668,24,1
1.38905,7.05398,-1.39749,23,2
3.40052,17.2529,1.53847,35,10
1.61927,8.21557,-1.32625,20,3
3.59202,18.2077,2.27871,19,11
1.92007,9.72381,-1.21699,24,4
3.6179,18.3053,2.95536,18,12
2.27621,11.5062,-1.02617,27,5
4.59366,23.2209,4.60117,30,13
2.58947,13.0778,-0.698685,68,6
5.77512,29.1398,6.85831,10,14
2.86918,14.4639,-0.257388,100,7
6.22951,31.3751,8.57105,27,15
0.102205,0.511489,-0.139762,14,0
2.78287,13.9143,0.247685,6,8
0.12776,0.638217,-0.150267,24,1
3.26499,16.2953,0.870975,32,9
1.40934,7.03393,-1.39443,26,2
3.48005,17.3529,1.54841,42,10
1.63745,8.15757,-1.3178,23,3
3.69465,18.3897,2.30309,29,11
1.94618,9.67812,-1.21211,27,4
3.69192,18.3429,2.96349,43,12
2.31789,11.5162,-1.02774,27,5
5.74711,28.5282,5.65672,17,13
2.64537,13.1196,-0.701407,52,6
5.68058,28.1472,6.62931,47,14
2.88639,14.2892,-0.254456,100,7
5.79269,28.6511,7.83238,22,15
2.83701,13.9319,0.248173,38,8
0.128041,0.62822,-0.148018,24,1
3.26517,16.0059,0.856112,41,9
1.43193,7.01935,-1.39252,23,2
3.69884,18.1156,1.61761,30,10
1.66196,8.13245,-1.31468,22,3
3.73176,18.2444,2.28651,39,11
1.97756,9.6596,-1.21065,23,4
4.69609,22.9182,3.70531,18,12
2.36327,11.5334,-1.03001,24,5
4.74698,23.146,4.59277,13,13
2.68754,13.0927,-0.700464,65,6
5.76781,28.0737,6.61671,38,14
2.96404,14.4142,-0.256865,100,7
5.87009,28.521,7.80236,27,15
0.104207,0.503196,-0.137692,14,0
2.88035,13.8965,0.247719,37,8
0.129046,0.622045,-0.146668,24,1
1.45363,7.00085,-1.38985,23,2
3.77664,18.1728,1.62389,40,10
1.68591,8.10533,-1.31123,21,3
3.79542,18.2313,2.28651,43,11
2.00803,9.6371,-1.2087,22,4
4.79058,22.9713,3.71657,11,12
2.40677,11.5407,-1.0314,24,5
4.83577,23.1677,4.60041,13,13
2.73853,13.1086,-0.701825,45,6
6.02053,28.7935,6.79127,50,14
3.00697,14.3685,-0.256236,100,7
5.96762,28.4909,7.79977,22,15
0.103572,0.491487,-0.134586,15,0
2.93709,13.9255,0.248418,33,8
0.132826,0.629217,-0.148468,24,1
1.47238,6.96884,-1.38451,23,2
3.75596,17.7619,1.58833,40,10
1.70969,8.07813,-1.30779,23,3
3.90758,18.4471,2.31527,30,11
2.03548,9.6009,-1.20504,15,4
4.94044,23.2829,3.76976,19,12
2.44745,11.5342,-1.03158,24,5
5.90768,27.8173,5.52774,20,13
2.79964,13.1713,-0.705698,52,6
6.10883,28.7152,6.77778,40,14
3.10208,14.5691,-0.260006,25,7
6.15722,28.8931,7.91572,11,15
0.101238,0.472233,-0.12941,15,0
2.9861,13.9171,0.248452,8,8
0.135022,0.62875,-0.148468,24,1
3.22318,14.9965,0.80388,39,9
1.49298,6.94639,-1.38108,26,2
3.82464,17.7798,1.59112,43,10
1.73331,8.05087,-1.30435,18,3
4.00625,18.5924,2.33526,30,11
2.06814,9.58985,-1.20456,17,4
3.95642,18.3301,2.97006,16,12
2.48266,11.5022,-1.02948,24,5
5.95169,27.5509,5.47889,40,13
2.84137,13.1419,-0.704651,52,6
6.17524,28.5375,6.74088,39,14
3.13176,14.4605,-0.258261,25,7
6.04196,27.8746,7.64241,5,15
0.106178,0.486977,-0.133551,15,0
3.04106,13.9359,0.248976,48,8
0.140126,0.641602,-0.151617,23,1
3.20087,14.6437,0.785563,20,9
1.51596,6.93538,-1.37993,21,2
3.8803,17.7372,1.5885,30,10
1.75337,8.00811,-1.29841,20,3
3.86758,17.6495,2.21851,14,11
2.09693,9.56125,-1.20188,22,4
5.1287,23.3656,3.78884,33,12
2.51937,11.4779,-1.02809,24,5
6.07393,27.6489,5.50255,8,13
2.84863,12.9563,-0.695231,74,6
6.24299,28.3711,6.70669,39,14
3.16587,14.3753,-0.256934,100,7
6.13549,27.8363,7.63775,26,15
0.115404,0.520552,-0.142868,14,0
3.09575,13.9525,0.249465,74,8
0.136028,0.612573,-0.144868,25,1
3.26324,14.6831,0.788284,34,9
1.53803,6.92046,-1.37802,23,2
3.69994,16.6344,1.49089,26,10
1.77573,7.97688,-1.29434,22,3
3.83161,17.198,2.16342,23,11
2.12424,9.52674,-1.19846,26,4
4.1927,18.7879,3.04891,9,12
2.55725,11.4593,-1.02722,22,5
6.26114,28.0337,5.58345,37,13
2.89341,12.9444,-0.695126,55,6
6.38792,28.5545,6.75528,50,14
3.15749,14.1027,-0.252257,25,7
6.23516,27.826,7.64086,26,15
0.109575,0.486224,-0.133551,15,0
3.3213,14.7258,0.263496,33,8
0.139024,0.615896,-0.145768,25,1
3.60493,15.9574,0.857368,12,9
1.56001,6.90548,-1.37611,23,2
4.0405,17.8709,1.60297,37,10
1.79616,7.93787,-1.28902,22,3
4.0683,17.9648,2.26165,24,11
2.1452,9.46506,-1.19164,20,4
4.26132,18.7866,3.0511,12,12
2.58622,11.4017,-1.02286,24,5
6.34679,27.9581,5.57277,28,13
2.92707,12.8835,-0.692405,39,6
6.48886,28.5378,6.75663,40,14
3.20359,14.0779,-0.252013,100,7
6.29535,27.6421,7.59634,30,15
0.111272,0.485838,-0.133551,15,0
3.28467,14.3301,0.25662,49,8
0.140737,0.613508,-0.145318,25,1
3.60252,15.6917,0.84376,22,9
1.57664,6.86746,-1.36963,26,2
3.90075,16.9771,1.52401,45,10
1.82075,7.91808,-1.28683,21,3
4.10472,17.8363,2.24727,28,11
2.17333,9.43624,-1.18896,19,4
4.14895,17.9998,2.92564,1,12
2.61257,11.3344,-1.01763,24,5
6.42359,27.8458,5.55483,32,13
2.97158,12.8713,-0.6923,35,6
6.49761,28.1219,6.6635,28,14
3.27748,14.1738,-0.253933,100,7
6.39355,27.6275,7.59841,20,15
3.32786,14.2894,0.256097,16,8
0.14509,0.622502,-0.147568,24,1
3.41727,14.6501,0.788389,7,9
1.59838,6.85235,-1.36772,23,2
3.95862,16.9576,1.52348,16,10
1.84164,7.88282,-1.28214,22,3
4.14211,17.7156,2.23387,38,11
2.20263,9.41313,-1.18701,19,4
6.50749,27.7885,4.52033,6,12
2.64031,11.2747,-1.0131,24,5
6.62961,28.2877,5.64756,20,13
3.19663,13.6289,-0.733645,68,6
6.5904,28.0763,6.6581,38,14
3.38959,14.429,-0.258714,100,7
6.63672,28.2294,7.77027,11,15
0.114661,0.48505,-0.133551,15,0
3.33905,14.1142,0.253165,15,8
0.14816,0.625784,-0.148468,24,1
1.62047,6.83909,-1.36619,23,2
4.02423,16.9708,1.52592,3,10
1.86413,7.8552,-1.2787,21,3
4.20667,17.7126,2.23533,47,11
2.23108,9.39419,-1.18555,19,4
4.49292,18.9032,3.07738,16,12
2.67136,11.2306,-1.00996,24,5
6.71194,28.1956,5.63383,20,13
3.25807,13.676,-0.736786,65,6
6.54708,27.4818,6.52223,37,14
3.4263,14.3709,-0.257877,93,7
6.61732,27.7337,7.63982,31,15
0.11717,0.488424,-0.134586,15,0
0.146592,0.610131,-0.144868,25,1
3.41357,14.2076,0.76578,47,9
1.63947,6.81841,-1.36314,23,2
4.31635,17.9375,1.61412,47,10
1.88231,7.81633,-1.27338,30,3
4.25096,17.6387,2.22777,23,11
2.25617,9.36165,-1.18238,20,4
6.58466,27.3011,4.44806,15,12
2.70017,11.1868,-1.00682,24,5
6.75654,27.9709,5.59338,20,13
3.32171,13.7408,-0.740868,58,6
6.65283,27.5205,6.53663,46,14
3.39635,14.0388,-0.252117,100,7
6.75561,27.9031,7.69262,31,15
0.123358,0.506803,-0.139762,14,0
0.150461,0.617215,-0.146668,24,1
3.4532,14.1549,0.763582,45,9
1.65649,6.79005,-1.35856,23,2
4.38667,17.9676,1.61813,37,10
1.90728,7.80621,-1.27275,22,3
4.28209,17.5127,2.21363,4,11
2.27468,9.29587,-1.17506,20,4
6.65971,27.1954,4.4346,25,12
2.7254,11.1294,-1.00247,23,5
4.4076,17.9852,3.59942,19,13
3.38438,13.7995,-0.744636,58,6
6.72703,27.4082,6.51548,55,14
3.41194,13.8909,-0.249674,100,7
6.80225,27.673,7.63568,26,15
0.120492,0.487615,-0.134586,15,0
3.53216,14.2835,0.25683,34,8
0.150742,0.609119,-0.144868,25,1
3.49155,14.0981,0.761174,39,9
1.67546,6.76517,-1.35474,23,2
4.44888,17.9503,1.61796,81,10
1.93071,7.78417,-1.27025,22,3
4.6067,18.5592,2.34793,45,11
2.29659,9.24549,-1.1697,22,4
4.66207,18.7543,3.0608,25,12
2.75798,11.0947,-1.0002,23,5
6.84773,27.5261,5.51362,36,13
3.22216,12.9426,-0.698999,13,6
6.83819,27.4469,6.53033,46,14
3.50927,14.0749,-0.2532,22,7
6.90815,27.6866,7.64603,21,15
0.117493,0.468453,-0.12941,15,0
3.59271,14.3138,0.257598,63,8
0.152392,0.606699,-0.144419,25,1
3.74767,14.9091,0.80566,7,9
1.6962,6.74785,-1.35245,26,2
3.70711,14.7368,1.32947,34,10
1.95112,7.75056,-1.26587,22,3
4.66078,18.5007,2.34257,45,11
2.32108,9.20662,-1.1658,20,4
6.93397,27.4835,4.48936,15,12
2.78646,11.0444,-0.996539,23,5
6.97501,27.6258,5.53842,44,13
3.25851,12.8965,-0.697115,45,6
7.11932,28.156,6.70489,48,14
3.57849,14.1421,-0.254631,100,7
7.18592,28.3777,7.84377,33,15
0.123893,0.486762,-0.134586,15,0
3.51186,13.7876,0.248348,26,8
0.153065,0.600498,-0.143069,25,1
1.71828,6.73619,-1.35131,26,2
4.23161,16.5771,1.49681,16,10
1.97229,7.72074,-1.26211,23,3
4.7209,18.467,2.34038,20,11
2.34042,9.14846,-1.15947,17,4
5.88737,22.9964,3.75975,16,12
2.81017,10.9767,-0.991309,23,5
7.144,27.8846,5.59528,33,13
3.29756,12.8618,-0.695859,71,6
7.19479,28.0422,6.68375,48,14
3.62982,14.1372,-0.25477,100,7
7.13109,27.7537,7.67813,26,15
0.131388,0.508772,-0.140798,14,0
3.86017,14.9369,0.269291,31,8
0.154672,0.598074,-0.142619,26,1
3.80962,14.7202,0.796867,46,9
1.73342,6.69784,-1.34482,26,2
4.30443,16.6201,1.50204,35,10
1.99626,7.70233,-1.26024,22,3
4.77288,18.4024,2.33429,40,11
2.36685,9.1191,-1.15678,20,4
5.94675,22.8954,3.74661,31,12
2.84086,10.9297,-0.987997,23,5
7.28623,28.0324,5.63001,37,13
3.3369,12.8289,-0.694708,78,6
7.14194,27.438,6.54563,37,14
3.76433,14.4515,-0.260669,22,7
7.2289,27.7323,7.67916,26,15
0.130312,0.497075,-0.137692,14,0
3.80427,14.5113,0.261856,58,8
0.160715,0.61261,-0.146218,25,1
3.87924,14.7763,0.800636,51,9
1.75647,6.68574,-1.34368,26,2
4.39014,16.6986,1.51058,13,10
2.02046,7.67968,-1.25773,25,3
4.82698,18.3472,2.32941,30,11
2.39159,9.0839,-1.15337,24,4
6.10514,23.1725,3.79541,26,12
2.87087,10.8889,-0.985209,25,5
7.44603,28.222,5.67351,21,13
3.38544,12.8224,-0.695022,65,6
7.23448,27.3814,6.53843,64,14
3.80709,14.4093,-0.260146,100,7
7.46048,28.2168,7.82048,27,15
0.129068,0.485415,-0.134586,15,0
3.66873,13.7881,0.249046,12,8
0.162458,0.610134,-0.145768,25,1
4.00069,15.0252,0.814871,21,9
1.77827,6.67388,-1.34253,23,2
4.45302,16.7005,1.51215,61,10
2.04369,7.65922,-1.25554,21,3
5.06267,18.9604,2.4096,25,11
2.4115,9.03139,-1.14777,22,4
6.12888,22.9373,3.76037,16,12
2.90063,10.848,-0.982419,25,5
7.59725,28.393,5.7132,29,13
7.34289,27.4232,6.55417,46,14
3.98935,14.8884,-0.269046,100,7
7.5479,28.1495,7.80909,11,15
3.71443,13.7758,0.249046,57,8
0.161435,0.598303,-0.143069,25,1
3.8991,14.4507,0.784411,8,9
1.79681,6.65468,-1.33986,26,2
4.51617,16.7145,1.51477,13,10
2.06702,7.64477,-1.25429,25,3
5.14523,19.0163,2.41886,5,11
2.43263,8.99077,-1.14362,16,4
6.19149,22.8673,3.75224,11,12
2.92981,10.8133,-0.980153,23,5
7.38415,27.2346,5.485,40,13
3.69647,13.6241,-0.739821,35,6
7.48277,27.5792,6.59736,47,14
3.98211,14.6667,-0.265277,100,7
7.5703,27.8634,7.73662,26,15
0.131267,0.480821,-0.133551,15,0
3.75693,13.7519,0.248836,31,8
0.168557,0.616562,-0.147568,24,1
4.60617,16.8374,0.914833,14,9
1.81783,6.64489,-1.3391,26,2
4.64839,16.98,1.54022,9,10
2.084,7.60739,-1.24929,25,3
5.17152,18.8651,2.4018,30,11
2.45507,8.94968,-1.13948,26,4
6.26657,22.8284,3.74942,22,12
2.95985,10.7824,-0.978236,23,5
7.53214,27.4201,5.52736,32,13
3.71887,13.5289,-0.73532,35,6
7.64929,27.8085,6.65855,38,14
4.05503,14.7318,-0.266708,100,7
7.6783,27.8759,7.74749,5,15
0.133975,0.484084,-0.134586,15,0
3.79956,13.7194,0.248487,48,8
0.165503,0.59719,-0.143069,25,1
4.66012,16.8039,0.91389,33,9
1.83945,6.63283,-1.33795,26,2
4.73532,17.0635,1.54928,39,10
2.10579,7.58294,-1.24647,26,3
5.23203,18.8278,2.39936,10,11
2.47832,8.91236,-1.13582,19,4
6.35469,22.8369,3.75443,24,12
2.98305,10.7202,-0.97353,23,5
7.60833,27.3236,5.51324,28,13
3.7457,13.4427,-0.731343,35,6
7.74422,27.7741,6.65675,48,14
4.10536,14.7137,-0.266638,23,7
11.9379,42.7567,11.8948,14,15
0.130446,0.465013,-0.12941,15,0
3.84149,13.6849,0.248103,42,8
0.16706,0.594733,-0.142619,26,1
4.72739,16.8183,0.915565,11,9
1.85834,6.61125,-1.3349,26,2
4.83856,17.2022,1.5634,29,10
2.12743,7.55843,-1.24365,21,3
5.19708,18.4521,2.35378,40,11
2.49918,8.86736,-1.13119,16,4
7.86333,27.8813,4.58822,32,12
3.02015,10.7015,-0.972832,23,5
7.82097,27.7126,5.59719,20,13
3.76111,13.3181,-0.725272,42,6
10.28,36.377,8.7272,12,14
4.0495,14.3202,-0.259762,50,7
10.1877,36.0025,10.0256,18,15
0.136379,0.479397,-0.133551,15,0
3.87939,13.6368,0.247475,15,8
0.170202,0.597894,-0.143519,25,1
1.88148,6.60062,-1.33414,26,2
4.98136,17.4641,1.58885,43,10
2.14969,7.53159,-1.24053,25,3
5.18137,18.1533,2.31796,55,11
2.52576,8.84331,-1.12924,16,4
7.96386,27.865,4.5901,32,12
3.04928,10.6622,-0.970218,23,5
7.89441,27.5856,5.57735,8,13
3.76591,13.1506,-0.716898,32,6
10.1851,35.5429,8.53599,12,14
4.48892,15.665,-0.284439,86,7
10.3069,35.9444,10.0194,18,15
3.9432,13.6705,0.248348,34,8
0.175094,0.606628,-0.145768,25,1
4.64918,16.1075,0.878616,41,9
1.89906,6.57515,-1.33032,26,2
2.17213,7.51076,-1.23834,22,3
5.26332,18.1875,2.32478,30,11
2.54766,8.79777,-1.12461,16,4
5.57863,19.2645,3.17656,17,12
3.06984,10.5941,-0.964988,22,5
8.00322,27.6012,5.58612,16,13
3.75614,12.9456,-0.706431,35,6
10.3265,35.5671,8.55039,12,14
4.28152,14.7467,-0.268034,90,7
10.4307,35.9026,10.0178,9,15
0.13539,0.463598,-0.12941,15,0
4.21947,14.4482,0.262729,46,8
0.179291,0.613526,-0.147568,24,1
1.92035,6.56283,-1.32918,26,2
6.64168,22.6834,2.06786,20,10
2.19203,7.48645,-1.23552,25,3
5.33421,18.2062,2.32941,45,11
2.56733,8.75688,-1.12047,22,4
5.66253,19.3018,3.18594,17,12
3.09838,10.5546,-0.962374,22,5
8.10411,27.6066,5.59261,16,13
3.7315,12.7031,-0.69387,35,6
10.7059,36.4226,8.76454,12,14
4.38996,14.9254,-0.271559,89,7
9.7645,33.1769,9.26676,16,15
4.41453,14.9223,0.271629,40,8
0.181432,0.612897,-0.147568,24,1
4.31481,14.5759,0.796658,25,9
1.93875,6.54513,-1.32689,26,2
4.95144,16.7051,1.52435,6,10
2.21197,7.45792,-1.23208,25,3
5.39772,18.1875,2.32941,20,11
2.59054,8.72313,-1.1173,17,4
8.36735,28.1754,4.65518,33,12
3.12542,10.5175,-0.959933,22,5
8.4332,28.3609,5.75137,30,13
3.73652,12.5579,-0.686648,35,6
8.55696,28.7404,6.92309,51,14
4.47423,15.0277,-0.273689,100,7
9.94009,33.3647,9.32836,32,15
0.144084,0.481172,-0.134586,15,0
4.47603,14.9479,0.272362,37,8
0.173395,0.57869,-0.13947,26,1
4.3628,14.5512,0.796135,13,9
1.9599,6.53268,-1.32574,28,2
5.08191,16.9281,1.54632,29,10
2.23669,7.45054,-1.23208,27,3
5.42317,18.0535,2.31454,25,11
2.60801,8.67647,-1.11242,17,4
8.44061,28.0628,4.64141,37,12
3.1535,10.4779,-0.957319,22,5
10.6099,35.2529,7.1561,27,13
3.78159,12.5569,-0.687276,35,6
8.60162,28.544,6.8826,40,14
4.53071,15.0254,-0.273933,88,7
10.09,33.4408,9.35942,32,15
0.145679,0.480692,-0.134586,15,0
0.179375,0.591135,-0.142619,26,1
4.41103,14.5366,0.796135,45,9
1.97585,6.50736,-1.32192,28,2
5.1884,17.077,1.56148,68,10
2.25464,7.41623,-1.2277,26,3
5.93737,19.5177,2.5049,16,11
2.62962,8.63883,-1.10877,16,4
5.51421,18.1153,2.99916,6,12
3.19055,10.475,-0.958016,22,5
5.67382,18.6163,3.78298,6,13
3.82774,12.5513,-0.687694,45,6
10.9826,35.9898,8.68716,12,14
4.51222,14.7865,-0.269849,89,7
10.2488,33.5642,9.40341,16,15
4.48441,14.6131,0.266812,4,8
0.181907,0.5924,-0.143069,25,1
4.46233,14.5231,0.796239,44,9
1.99047,6.47415,-1.31658,26,2
5.21635,16.956,1.55207,16,10
2.27283,7.38794,-1.22426,27,3
5.95591,19.348,2.48565,22,11
2.65299,8.61299,-1.10657,17,4
5.71298,18.5358,3.07206,24,12
3.21887,10.4372,-0.955576,22,5
5.77949,18.74,3.81198,24,13
3.88347,12.5843,-0.690207,35,6
10.9386,35.4244,8.55939,25,14
4.59627,14.8757,-0.271769,100,7
10.7254,34.6909,9.72953,17,15
4.52266,14.5385,0.265765,16,8
0.183021,0.587976,-0.142169,26,1
4.53512,14.5695,0.799693,12,9
2.01127,6.45744,-1.31467,26,2
5.85764,18.7952,1.72237,38,10
2.29589,7.36219,-1.22144,26,3
5.76053,18.4609,2.3745,20,11
2.67835,8.5781,-1.10341,19,4
5.93925,19.022,3.15622,37,12
3.2482,10.3968,-0.952961,22,5
5.88011,18.8095,3.83068,14,13
3.93474,12.5789,-0.69073,35,6
11.0838,35.4119,8.56659,12,14
4.6448,14.8397,-0.27142,100,7
11.1608,35.6359,10.0059,18,15
0.150788,0.479113,-0.134586,15,0
4.55944,14.4871,0.265102,15,8
0.185555,0.589224,-0.142619,26,1
4.59255,14.5746,0.800845,24,9
2.03321,6.44851,-1.31429,26,2
5.95857,18.8867,1.73266,38,10
2.31553,7.33947,-1.21894,23,3
5.83366,18.4795,2.37938,20,11
2.70021,8.54835,-1.10072,17,4
6.11337,19.342,3.21285,19,12
3.27305,10.3493,-0.949649,22,5
6.05256,19.138,3.90166,19,13
3.98066,12.5791,-0.691463,35,6
11.183,35.3173,8.55264,12,14
4.7032,14.8444,-0.271804,100,7
11.1899,35.2965,9.92157,9,15
0.155892,0.489656,-0.137692,14,0
5.21877,16.3822,0.300112,80,8
0.189979,0.596,-0.144419,25,1
5.16533,16.1949,0.890863,38,9
2.04981,6.42677,-1.31124,26,2
6.05873,18.9845,1.74346,14,10
2.33513,7.31252,-1.21581,22,3
5.84557,18.2946,2.35817,20,11
2.71491,8.49161,-1.09463,17,4
5.97861,18.6884,3.10773,13,12
3.29461,10.2985,-0.945988,22,5
5.85957,18.3053,3.73604,13,13
4.02514,12.567,-0.691567,35,6
11.2741,35.1779,8.52834,12,14
4.92536,15.3591,-0.281542,100,7
11.4181,35.5847,10.0137,9,15
0.161156,0.500141,-0.140798,14,0
5.22254,16.1983,0.297075,50,8
0.189066,0.58606,-0.142169,26,1
5.21692,16.1615,0.890025,15,9
2.06499,6.39715,-1.30666,26,2
6.26948,19.4107,1.7846,22,10
2.35578,7.28929,-1.21331,22,3
6.1476,19.0107,2.45323,31,11
2.73843,8.46319,-1.09219,16,4
3.3244,10.268,-0.944245,22,5
5.90104,18.2156,3.72192,8,13
4.07022,12.5567,-0.691777,35,6
11.6132,35.8056,8.69031,12,14
4.90178,15.1041,-0.277179,100,7
11.5136,35.4564,9.98886,9,15
0.156912,0.481209,-0.135621,15,0
5.28588,16.2009,0.297459,49,8
0.195344,0.598364,-0.145318,25,1
5.2423,16.0483,0.884792,26,9
2.08487,6.38244,-1.30513,23,2
6.08528,18.6179,1.71366,31,10
2.37752,7.26976,-1.21143,22,3
6.04971,18.4872,2.3884,15,11
2.75931,8.42717,-1.08878,16,4
5.90474,18.023,3.00385,15,12
3.34471,10.209,-0.939888,22,5
11.3017,34.4758,7.0523,6,13
4.10594,12.5177,-0.690416,35,6
11.887,36.2185,8.80054,12,14
5.06803,15.4327,-0.283532,100,7
11.4275,34.7773,9.80872,8,15
0.15738,0.476989,-0.134586,15,0
5.49035,16.6305,0.305696,54,8
0.197432,0.597678,-0.145318,25,1
5.32211,16.102,0.888769,17,9
2.09974,6.35275,-1.30055,26,2
6.13396,18.5474,1.70912,35,10
2.39544,7.23891,-1.20767,22,3
6.22402,18.7977,2.43129,51,11
2.78558,8.40806,-1.08756,17,4
6.0018,18.1054,3.02106,19,12
3.37218,10.1727,-0.937621,20,5
11.3503,34.2199,7.00803,13,13
4.13639,12.4635,-0.688218,29,6
11.6457,35.0287,9.89103,18,15
0.152926,0.458112,-0.12941,15,0
5.5281,16.5505,0.304579,28,8
0.194575,0.5822,-0.141719,26,1
2.12564,6.35656,-1.30284,23,2
6.20689,18.5504,1.71139,28,10
2.41505,7.21364,-1.20486,25,3
6.28265,18.7551,2.42861,35,11
2.80672,8.37382,-1.08439,16,4
6.08504,18.1547,3.03264,31,12
3.39437,10.1212,-0.933961,22,5
11.4809,34.2136,7.0149,13,13
4.16017,12.3903,-0.684973,32,6
11.8982,35.416,8.62552,12,14
5.01439,14.9258,-0.274841,80,7
11.6725,34.7243,9.81597,8,15
0.154525,0.457575,-0.12941,15,0
5.55799,16.4582,0.303218,54,8
0.191514,0.566781,-0.13812,27,1
5.94269,17.5771,0.972402,9,9
2.14215,6.33236,-1.29941,26,2
6.26521,18.5098,1.70965,14,10
2.43516,7.19437,-1.20298,28,3
6.37602,18.8263,2.44056,15,11
2.82682,8.3419,-1.08147,19,4
6.13125,18.0828,3.02419,16,12
3.41815,10.0753,-0.930823,22,5
11.7514,34.6383,7.10992,27,13
4.18582,12.331,-0.682461,32,6
12.0331,35.4281,8.63812,12,14
4.83482,14.2266,-0.262275,33,7
11.8372,34.8114,9.85221,9,15
0.16478,0.482656,-0.136656,14,0
5.62898,16.4784,0.303951,54,8
0.194122,0.567954,-0.13857,27,1
6.42733,18.7941,1.04096,30,9
2.15679,6.30665,-1.29559,26,2
6.28721,18.3739,1.69901,38,10
2.45514,7.17087,-1.20048,26,3
6.24677,18.2349,2.3667,5,11
2.84884,8.31133,-1.07879,19,4
5.92005,17.2616,2.89028,11,12
3.43861,10.0262,-0.927337,18,5
11.8811,34.6231,7.11527,20,13
4.21133,12.2654,-0.679635,29,6
12.1694,35.4227,8.64712,12,14
4.8773,14.1888,-0.261891,92,7
11.8569,34.4739,9.76835,8,15
0.157636,0.456513,-0.12941,15,0
5.72892,16.5816,0.30622,45,8
0.19865,0.57464,-0.140369,26,1
2.1743,6.28609,-1.29292,23,2
6.30895,18.2295,1.68768,28,10
2.47886,7.15853,-1.19985,27,3
6.90178,19.9199,2.58851,12,11
2.87394,8.29008,-1.07733,19,4
3.45139,9.95018,-0.921411,20,5
12.2028,35.16,7.23433,14,13
4.23774,12.2034,-0.677018,32,6
12.2571,35.2769,8.62192,25,14
4.93796,14.2038,-0.262484,83,7
11.9936,34.4798,9.78181,8,15
0.171967,0.492437,-0.139762,14,0
5.7518,16.4614,0.30437,40,8
0.201298,0.575782,-0.140819,26,1
6.08488,17.3952,0.965808,30,9
2.19169,6.26549,-1.29025,26,2
6.15864,17.5962,1.63103,23,10
2.49665,7.12932,-1.19641,28,3
6.88922,19.6615,2.55804,58,11
2.89761,8.26501,-1.07538,20,4
6.24573,17.8051,2.98852,25,12
3.47201,9.89234,-0.917227,20,5
6.62076,18.8637,3.88602,3,13
4.26509,12.1452,-0.674611,35,6
12.3744,35.2174,8.61788,12,14
5.00476,14.2356,-0.263392,83,7
11.728,33.3406,9.47019,33,15
0.167334,0.473588,-0.134586,15,0
5.82122,16.4752,0.304998,15,8
0.202657,0.573239,-0.140369,26,1
6.2741,17.7372,0.986009,39,9
2.21005,6.24446,-1.28758,26,2
6.26033,17.6786,1.64079,27,10
2.51749,7.10523,-1.19391,28,3
7.01216,19.7908,2.57802,24,11
2.92246,8.24362,-1.07391,20,4
6.19426,17.463,2.93471,16,12
3.49718,9.85388,-0.914787,20,5
12.3029,34.6463,7.14656,20,13
4.28818,12.0693,-0.671261,35,6
12.3467,34.7311,8.5099,12,14
5.02763,14.1426,-0.261996,100,7
11.8916,33.4324,9.50798,33,15
5.96233,16.6797,0.309187,3,8
0.197537,0.552308,-0.135421,27,1
6.3454,17.7415,0.987475,48,9
2.23316,6.24041,-1.28834,23,2
6.34752,17.728,1.64742,37,10
2.53828,7.08524,-1.19203,28,3
6.54144,18.2495,2.38035,5,11
2.94059,8.19922,-1.06953,19,4
3.51743,9.80223,-0.911126,20,5
12.3614,34.4295,7.11069,27,13
4.32015,12.026,-0.669691,35,6
12.5502,34.917,8.56614,12,14
5.0986,14.1852,-0.263112,100,7
12.1017,33.6506,9.582,8,15
0.164073,0.454239,-0.12941,15,0
6.01829,16.6617,0.309222,1,8
0.205329,0.568145,-0.13947,26,1
6.4691,17.8902,0.997,27,9
2.25292,6.22704,-1.2872,26,2
6.54229,18.0729,1.68158,35,10
2.55638,7.06192,-1.18953,28,3
6.84664,18.9033,2.46859,5,11
2.95829,8.1633,-1.06611,19,4
6.80555,18.7694,3.16217,19,12
3.536,9.74681,-0.907117,16,5
12.4729,34.3809,7.10916,27,13
4.34433,11.9685,-0.667284,35,6
12.6407,34.8056,8.54904,25,14
5.1358,14.1335,-0.262484,100,7
12.2131,33.5918,9.57734,25,15
6.66149,18.2428,0.338996,44,8
0.209317,0.572916,-0.140819,26,1
6.8922,18.8542,1.05206,91,9
2.26884,6.20662,-1.28453,26,2
6.5666,17.9538,1.67252,7,10
2.57762,7.04368,-1.18796,27,3
6.67506,18.2306,2.38376,5,11
2.98267,8.14174,-1.06465,17,4
6.8622,18.7214,3.1581,32,12
3.5549,9.69326,-0.903282,20,5
12.4204,33.8671,7.01185,6,13
4.37439,11.9213,-0.665504,35,6
12.7332,34.6826,8.52969,12,14
5.15407,14.031,-0.260913,100,7
15.9484,43.3932,12.3876,16,15
0.167241,0.453083,-0.12941,15,0
6.71751,18.1988,0.338612,23,8
0.211991,0.57401,-0.141269,26,1
6.69214,18.1106,1.01186,19,9
2.28477,6.17985,-1.28071,23,2
6.68834,18.081,1.68664,3,10
2.59451,7.0101,-1.1839,28,3
6.92883,18.721,2.45104,10,11
3.00143,8.10521,-1.06124,17,4
7.0174,18.94,3.19909,24,12
3.57695,9.64903,-0.900319,20,5
12.7363,34.3386,7.11908,6,13
4.40137,11.8603,-0.662992,35,6
12.8352,34.5681,8.51305,25,14
5.21694,14.0505,-0.261612,25,7
12.3969,33.3699,9.53852,8,15
0.175574,0.470596,-0.134586,15,0
6.83103,18.2996,0.34095,25,8
0.202502,0.542194,-0.133621,28,1
2.3022,6.1608,-1.27842,23,2
6.71514,17.9605,1.67757,14,10
2.61411,6.98805,-1.18171,27,3
7.05167,18.8405,2.47005,5,11
3.02624,8.08115,-1.05953,19,4
7.13681,19.0579,3.22318,17,12
3.59733,9.60104,-0.897007,20,5
10.2642,27.38,5.68382,8,13
4.42241,11.7906,-0.659956,35,6
12.523,33.37,8.22871,12,14
5.26175,14.0209,-0.261402,100,7
16.4451,43.798,12.5356,16,15
0.177216,0.46998,-0.134586,15,0
6.81266,18.0673,0.337041,57,8
0.212554,0.563399,-0.13902,26,1
2.31468,6.12885,-1.27346,26,2
6.83413,18.086,1.69152,28,10
2.63308,6.96826,-1.17983,40,3
6.87613,18.1876,2.38742,10,11
3.0453,8.05064,-1.05685,20,4
7.35152,19.4245,3.2895,21,12
3.61741,9.55302,-0.893695,20,5
10.0066,26.426,5.49263,8,13
4.44592,11.7348,-0.657654,35,6
11.7135,30.9011,7.62944,11,14
5.30072,13.9763,-0.260913,100,7
16.6116,43.7765,12.546,16,15
0.178773,0.46939,-0.134586,15,0
6.87282,18.0359,0.336901,23,8
0.223544,0.586325,-0.144868,12,1
6.92271,18.1478,1.01793,25,9
2.32589,6.0973,-1.2685,23,2
6.60706,17.3112,1.6211,3,10
2.65528,6.95349,-1.17889,28,3
6.88857,18.0299,2.36987,10,11
3.06558,8.01957,-1.05417,22,4
7.26051,18.9836,3.21911,19,12
3.63483,9.50375,-0.890209,18,5
10.571,27.6249,5.74946,13,13
4.47757,11.695,-0.656293,35,6
11.7914,30.7818,7.61009,44,14
5.37166,14.0156,-0.261996,100,7
13.4332,35.0312,10.0531,9,15
0.173472,0.450734,-0.12941,15,0
6.86604,17.8308,0.333515,38,8
0.218584,0.567357,-0.140369,26,1
6.94076,18.0061,1.01134,34,9
2.34928,6.09464,-1.26964,21,2
6.69397,17.3568,1.62755,37,10
2.66745,6.91285,-1.17357,27,3
6.8771,17.8132,2.34452,20,11
3.08211,7.97919,-1.05027,23,4
7.4186,19.1958,3.25947,19,12
3.65506,9.45755,-0.887071,17,5
10.5052,27.1685,5.66207,34,13
4.50395,11.642,-0.6542,35,6
11.9114,30.7732,7.61819,55,14
5.43355,14.0303,-0.262624,100,7
11.7804,30.4033,8.7367,28,15
6.91519,17.7732,0.332887,32,8
0.217735,0.559326,-0.13857,27,1
7.366,18.9123,1.06368,8,9
2.36627,6.07542,-1.26735,21,2
6.7509,17.3241,1.62667,33,10
