x, y, z, intensity, ring
-0.06613,0.478414,-0.12941,15,0
-1.74033,12.5904,0.221855,35,8
-0.0874109,0.633182,-0.147568,24,1
-1.35909,9.87039,-1.93671,45,2
-1.7939,13.0449,1.15202,27,10
-1.51292,11.016,-1.76114,55,3
-1.85474,13.5049,1.67375,3,11
-1.49604,10.9072,-1.35177,63,4
-1.91255,13.962,2.23201,10,12
-1.63896,11.9802,-1.0579,57,5
-1.60772,11.7825,-0.623217,27,6
-2.18869,16.0612,3.74229,15,14
-1.58953,11.6644,-0.205485,21,7
-2.35763,17.3236,4.68462,19,15
-0.0670382,0.497788,-0.134586,15,0
-1.72883,12.8543,0.226393,51,8
-0.0843112,0.627704,-0.146218,25,1
-1.68407,12.538,0.662992,46,9
-1.33664,9.96458,-1.95427,45,2
-1.74173,13.0017,1.14767,12,10
-1.47341,11.0134,-1.75989,61,3
-1.79761,13.4545,1.66669,52,11
-1.46971,11.0149,-1.36445,53,4
-1.52844,11.4704,-1.0124,51,5
-1.80272,13.5468,2.65644,9,13
-2.12312,15.9972,3.72564,20,14
-1.55775,11.7373,-0.206671,77,7
-2.30883,17.4198,4.70844,18,15
-0.0668072,0.509511,-0.137692,14,0
-1.65214,12.6002,0.22182,35,8
-0.082482,0.629912,-0.146668,24,1
-1.72394,13.1835,0.696801,14,9
-1.30592,10.0003,-1.96037,45,2
-1.98928,15.2541,1.34586,100,10
-1.47468,11.3081,-1.80619,41,3
-1.74862,13.4269,1.66254,18,11
-1.44239,11.0906,-1.37322,45,4
-1.47789,11.3947,-1.00525,58,5
-1.4695,11.3455,-0.599561,37,6
-2.10406,16.267,3.78683,45,14
-1.56006,12.0778,-0.21257,27,7
-2.22551,17.2534,4.66133,18,15
-0.0646275,0.505898,-0.136656,14,0
-1.69419,13.2803,0.233688,77,8
-0.079544,0.624397,-0.145318,25,1
-1.58919,12.492,0.659956,20,9
-1.26705,9.95981,-1.95159,28,2
-1.97083,15.5136,1.36817,75,10
-1.43197,11.2877,-1.80213,97,3
-1.68303,13.2853,1.64426,67,11
-1.38872,10.9774,-1.3586,49,4
-1.97198,15.6098,2.492,16,12
-1.43561,11.38,-1.00351,36,5
-1.71882,13.625,2.66942,36,13
-1.43089,11.3585,-0.599979,33,6
-1.7605,13.9947,3.25639,24,14
-1.51565,12.0653,-0.212256,38,7
-2.15854,17.2074,4.64684,11,15
-0.0656262,0.529137,-0.142868,14,0
-1.64979,13.302,0.233967,66,8
-0.0761665,0.615001,-0.143069,25,1
-1.54386,12.4836,0.659224,30,9
-1.225,9.91957,-1.94282,42,2
-1.85689,15.058,1.32738,69,10
-1.38166,11.2203,-1.79055,51,3
-1.63301,13.2615,1.64061,11,11
-1.33028,10.8187,-1.33837,57,4
-1.92012,15.6382,2.49544,13,12
-1.3954,11.381,-1.00316,48,5
-1.65885,13.5493,2.65339,56,13
-1.37906,11.2804,-0.595583,67,6
-1.74154,14.2661,3.31803,13,14
-1.47158,12.0547,-0.211977,22,7
-1.71253,14.0488,3.79222,13,15
-0.0628543,0.521691,-0.140798,14,0
-1.60365,13.3298,0.234351,72,8
-0.0769333,0.640429,-0.148918,24,1
-1.76493,14.6921,0.775514,38,9
-1.16839,9.74056,-1.90695,47,2
-1.7894,14.9397,1.3164,63,10
-1.30425,10.9054,-1.73955,46,3
-1.61546,13.5276,1.67278,100,11
-1.29321,10.8292,-1.3391,72,4
-2.63691,22.1137,3.52728,16,12
-1.34576,11.3027,-0.995842,68,5
-1.61734,13.6038,2.66293,14,13
-1.35758,11.4359,-0.603538,27,6
-1.70802,14.3879,3.34502,40,14
-1.4302,12.0657,-0.212082,29,7
-1.6603,14.0278,3.78497,12,15
-1.55316,13.2815,0.233408,85,8
-0.0727752,0.62326,-0.144868,25,1
-1.72014,14.7316,0.777294,40,9
-1.13403,9.72683,-1.90351,47,2
-1.73063,14.8664,1.30943,83,10
-1.3194,11.3511,-1.80995,72,3
-1.57219,13.5467,1.67448,18,11
-1.29208,11.1331,-1.37615,52,4
-2.5597,22.089,3.52197,16,12
-1.33873,11.5703,-1.01902,31,5
-1.68757,14.6076,2.85832,17,13
-1.84558,15.9998,-0.844074,19,6
-1.66878,14.467,3.36212,31,14
-1.38836,12.0545,-0.211802,23,7
-2.02604,17.6183,4.75192,15,15
-0.0580831,0.510579,-0.137692,14,0
-1.50799,13.2766,0.233234,81,8
-0.0720254,0.635116,-0.147568,24,1
-1.10089,9.72273,-1.90198,49,2
-1.22369,10.8412,-1.72798,67,3
-1.78314,15.8223,1.95503,46,11
-1.25144,11.1218,-1.3742,53,4
-1.51309,13.4683,2.14659,13,12
-1.2879,11.4638,-1.00926,58,5
-1.54327,13.7586,2.69117,30,13
-1.41108,12.5998,-0.664457,39,6
-1.60679,14.3701,3.33827,51,14
-1.376,12.3255,-0.21648,22,7
-1.54873,13.8948,3.74615,11,15
-0.0571469,0.51846,-0.139762,14,0
-1.45901,13.2579,0.232815,66,8
-0.0666159,0.606307,-0.140819,26,1
-1.42408,12.9822,0.68445,31,9
-1.06395,9.69919,-1.89664,45,2
-1.18929,10.8768,-1.73298,70,3
-1.47349,13.4978,1.66717,60,11
-1.21756,11.1715,-1.3798,34,4
-2.40135,22.069,3.51602,20,12
-1.23516,11.3514,-0.998979,40,5
-1.46725,13.5063,2.6408,42,13
-1.56207,14.426,3.34997,18,14
-1.3594,12.5748,-0.220773,33,7
-1.5025,13.9212,3.75184,24,15
-0.0557466,0.522498,-0.140798,14,0
-1.40891,13.2272,0.232187,66,8
-0.0657354,0.618163,-0.143519,25,1
-1.35842,12.7743,0.67325,26,9
-1.00086,9.42758,-1.84283,49,2
-1.15588,10.9241,-1.73986,42,3
-1.41364,13.3825,1.6523,97,11
-1.17293,11.1223,-1.37322,56,4
-1.20408,11.4369,-1.00613,49,5
-1.45806,13.8725,2.7114,46,13
-1.20699,11.503,-0.606155,30,6
-1.31791,12.5812,-0.220808,28,7
-2.13767,20.4415,5.50715,17,15
-0.0515438,0.49963,-0.134586,15,0
-1.36525,13.2337,0.232222,57,8
-0.0646831,0.62807,-0.145768,25,1
-1.30933,12.7353,0.670947,114,9
-0.963341,9.38609,-1.83406,49,2
-1.58966,15.5152,1.36451,99,10
-1.14039,11.1303,-1.77209,62,3
-1.38036,13.4957,1.66571,41,11
-1.17254,11.4836,-1.41734,23,4
-1.40778,13.8114,2.19884,37,12
-1.10203,10.8305,-0.952438,16,5
-1.64915,16.2074,3.16667,38,13
-1.16156,11.4354,-0.602387,6,6
-1.4141,13.9458,3.23615,56,14
-1.33339,13.1727,-0.231105,100,7
-2.04377,20.2259,5.44711,17,15
-0.0479678,0.480575,-0.12941,15,0
-1.32816,13.33,0.233827,49,8
-0.0636474,0.639927,-0.148468,24,1
-1.27256,12.8173,0.675029,21,9
-0.933371,9.40096,-1.83635,47,2
-1.53977,15.5362,1.3659,72,10
-1.07332,10.8491,-1.72672,56,3
-1.34574,13.6269,1.68131,67,11
-1.10421,11.2012,-1.382,31,4
-1.38471,14.0718,2.23952,42,12
-1.06831,10.8759,-0.956098,22,5
-1.4041,14.2944,2.79192,18,13
-1.12613,11.4851,-0.604794,37,6
-1.38971,14.1989,3.29373,29,14
-1.66403,17.0323,-0.298715,85,7
-1.95423,20.0387,5.39482,2,15
-0.0462062,0.480747,-0.12941,15,0
-1.194,12.4229,0.217841,62,8
-0.0604832,0.630446,-0.146218,25,1
-1.22743,12.8177,0.67482,11,9
-0.896852,9.38282,-1.83215,54,2
-1.4779,15.4902,1.36137,60,10
-1.0343,10.8609,-1.72798,51,3
-1.30155,13.6671,1.6857,45,11
-1.07712,11.3314,-1.3976,42,4
-1.33372,14.0569,2.23639,12,12
-1.02715,10.8459,-0.953135,22,5
-1.33839,14.1587,2.76444,23,13
-1.31135,13.9245,3.22895,9,14
-1.18177,12.5486,-0.220005,28,7
-1.88299,20.0319,5.3912,4,15
-0.0491586,0.53092,-0.142868,14,0
-1.20679,13.0584,0.228906,21,8
-0.057814,0.626782,-0.145318,25,1
-0.864276,9.38785,-1.83253,54,2
-0.983761,10.7267,-1.70607,72,3
-1.23534,13.4958,1.664,33,11
-1.02349,11.2029,-1.38127,67,4
-1.27961,14.0064,2.22763,29,12
-1.05007,11.5161,-1.0117,27,5
-1.28629,14.134,2.75872,47,13
-1.40964,15.5495,3.60462,83,14
-1.13705,12.5426,-0.219831,35,7
-1.84858,20.4309,5.4968,17,15
-0.0455909,0.511846,-0.137692,14,0
-1.11717,12.5424,0.219796,55,8
-0.0565981,0.636676,-0.147568,24,1
-1.15839,13.0567,0.686962,56,9
-0.831672,9.39276,-1.83291,52,2
-1.23749,14.0037,1.22994,2,10
-0.956359,10.8224,-1.72078,62,3
-1.19232,13.5196,1.66644,3,11
-1.00669,11.4376,-1.40978,20,4
-1.51696,17.2694,2.74574,12,12
-1.00778,11.4958,-1.00961,58,5
-1.23307,14.0658,2.7446,10,13
-1.02233,11.6853,-0.614738,67,6
-1.43182,16.3986,3.80032,17,14
-1.08875,12.4947,-0.218923,41,7
-1.76921,20.3448,5.47195,21,15
-0.0412532,0.481198,-0.12941,15,0
-1.10595,12.9268,0.226462,33,8
-0.0555356,0.650461,-0.150717,23,1
-1.1201,13.1463,0.691463,55,9
-0.800355,9.39351,-1.83253,49,2
-1.23003,14.4663,1.27021,5,10
-0.916569,10.8021,-1.71702,51,3
-1.24729,14.7303,1.81512,68,11
-0.971108,11.4924,-1.41612,55,4
-1.18844,14.0937,2.24014,29,12
-0.978022,11.5984,-1.01833,51,5
-1.18528,14.0856,2.74765,13,13
-1.04538,12.449,-0.654723,97,6
-1.05913,12.6659,-0.221855,24,7
-3.20231,38.3762,10.3186,9,15
-0.0411563,0.500592,-0.134586,15,0
-1.05885,12.9067,0.226044,60,8
-0.0524695,0.64094,-0.148468,24,1
-1.06705,13.0625,0.686857,55,9
-0.769161,9.41582,-1.83635,40,2
-1.17952,14.4705,1.27021,11,10
-0.890224,10.945,-1.73924,93,3
-1.19956,14.78,1.82073,52,11
-0.923292,11.4008,-1.40442,45,4
-1.35514,16.7696,2.66471,10,12
-0.929182,11.4985,-1.00926,33,5
-1.15189,14.2854,2.78581,4,13
-0.975323,12.1221,-0.637347,68,6
-1.31386,16.3655,3.79043,47,14
-1.01108,12.6216,-0.221017,27,7
-1.84509,23.0835,6.20493,6,15
-0.0394086,0.500733,-0.134586,15,0
-0.997363,12.701,0.222379,57,8
-0.049471,0.631406,-0.146218,25,1
-1.02185,13.0421,0.685601,26,9
-0.737204,9.43019,-1.83864,38,2
-1.10918,14.2203,1.2479,8,10
-0.852169,10.95,-1.73955,30,3
-1.15088,14.8217,1.82536,68,11
-0.870115,11.2059,-1.38005,34,4
-1.08378,13.9892,2.22231,2,12
-0.891345,11.5314,-1.01188,24,5
-0.968708,12.5895,-0.661736,94,6
-1.26287,16.4125,3.80032,37,14
-0.969373,12.6269,-0.221052,26,7
-1.73017,22.5887,6.07034,12,15
-0.0362959,0.481597,-0.12941,15,0
-0.0470854,0.62768,-0.145318,25,1
-0.968143,12.906,0.678274,18,9
-0.705487,9.42671,-1.83749,33,2
-1.13931,15.2591,1.33871,63,10
-1.02787,13.8317,1.703,30,11
-0.843245,11.3473,-1.39711,61,4
-1.51351,20.4148,3.24226,19,12
-0.91365,12.3529,-1.08369,40,5
-1.17886,15.9767,3.114,24,13
-1.21173,16.4613,3.81067,47,14
-0.925887,12.6081,-0.220668,28,7
-1.65793,22.6309,6.08018,27,15
-0.0369195,0.512545,-0.137692,14,0
-1.34622,18.7348,0.327861,22,8
-0.0458395,0.639495,-0.148018,24,1
-0.92091,12.8474,0.675029,70,9
-0.673384,9.41725,-1.8352,30,2
-1.0836,15.1912,1.33244,83,10
-0.782191,10.9928,-1.7455,38,3
-0.980173,13.8093,1.69983,100,11
-0.796759,11.2252,-1.38175,50,4
-1.2036,16.999,2.69912,6,12
-0.801791,11.3523,-0.995667,17,5
-1.12422,15.957,3.10942,25,13
-0.900317,12.8108,-0.67304,13,6
-1.11479,15.8626,3.6712,26,14
-0.883229,12.5992,-0.220459,28,7
-1.58194,22.6228,6.07655,15,15
-0.0365435,0.531937,-0.142868,14,0
-0.875332,12.7741,0.223496,23,8
-0.0441174,0.645476,-0.149367,24,1
-0.863459,12.6331,0.66362,36,9
-0.641749,9.41355,-1.83406,30,2
-1.03051,15.155,1.32895,31,10
-0.741859,10.9382,-1.73642,68,3
-0.933164,13.7946,1.69764,30,11
-0.774399,11.4477,-1.40881,52,4
-0.935916,13.8712,2.20197,9,12
-0.765749,11.3787,-0.997759,2,5
-0.953082,14.2366,-0.747776,45,6
-1.37576,20.5502,4.75502,40,14
-1.1416,17.0973,-0.299099,100,7
-1.01436,15.2318,4.09038,12,15
-0.0325883,0.501223,-0.134586,15,0
-0.821128,12.6635,0.221506,42,8
-0.0411227,0.63591,-0.147118,24,1
-0.815349,12.6083,0.662155,40,9
-0.606107,9.39821,-1.83062,33,2
-1.02112,15.8764,1.39188,63,10
-0.706444,11.0138,-1.748,61,3
-1.1164,17.453,2.14734,9,11
-0.731704,11.4704,-1.41125,56,4
-1.5029,23.5598,3.7391,11,12
-1.00086,15.7764,3.07279,4,13
-0.904171,14.2918,-0.750498,26,6
-1.36765,21.6776,5.01461,29,14
-0.81389,12.9004,-0.225625,100,7
-0.956588,15.2045,4.08209,28,15
-0.0315505,0.512903,-0.137692,14,0
-0.779753,12.6761,0.22168,62,8
-0.0387749,0.632153,-0.146218,25,1
-0.771451,12.6131,0.662259,32,9
-0.574494,9.41986,-1.83444,28,2
-0.964485,15.86,1.39013,90,10
-0.667996,10.9845,-1.74299,72,3
-1.05035,17.3219,2.13076,27,11
-0.690425,11.4192,-1.40467,60,4
-0.688848,11.4595,-1.00438,25,5
-0.945597,15.7306,3.06325,20,13
-0.788418,13.1543,-0.690625,35,6
-1.29819,21.7228,5.02406,39,14
-0.754578,12.6636,-0.221436,33,7
-0.904306,15.2213,4.08572,21,15
-0.0289516,0.497576,-0.133551,15,0
-0.736886,12.7027,0.222099,52,8
-0.0371305,0.642011,-0.148468,24,1
-0.708221,12.2827,0.644779,40,9
-0.541221,9.38643,-1.82757,28,2
-0.877701,15.2684,1.33801,51,10
-0.633036,11.046,-1.75238,72,3
-1.19427,20.9027,2.57071,5,11
-0.65418,11.485,-1.41247,22,4
-0.86467,15.2274,2.41566,9,12
-0.646322,11.3821,-0.99741,23,5
-0.893902,15.7907,3.07431,19,13
-0.715722,12.6824,-0.665713,13,6
-1.22454,21.7661,5.03305,19,14
-0.711261,12.6821,-0.221715,20,7
-0.85064,15.2147,4.08313,13,15
-0.0276364,0.50539,-0.135621,15,0
-0.687313,12.6094,0.220424,45,8
-0.0345722,0.6363,-0.147118,24,1
-0.710163,13.1128,0.688218,28,9
-0.50516,9.3275,-1.81574,30,2
-0.821173,15.2117,1.33279,83,10
-0.594477,11.0481,-1.75238,63,3
-0.784595,14.629,1.79879,44,11
-0.609527,11.402,-1.40199,57,4
-0.61348,11.5136,-1.00874,27,5
-0.660676,12.4814,-0.655037,42,6
-1.20656,22.8698,5.28725,22,14
-0.66342,12.6166,-0.220529,30,7
-0.799442,15.2542,4.09296,5,15
-0.0254769,0.497766,-0.133551,15,0
-0.646353,12.6716,0.221471,32,8
-0.0328457,0.646147,-0.149367,24,1
-1.10232,21.7602,1.14187,16,9
-0.472396,9.32528,-1.81498,30,2
-0.786757,15.5845,1.36521,66,10
-0.550849,10.9495,-1.73642,58,3
-0.733025,14.6217,1.79757,28,11
-0.574578,11.5012,-1.41393,35,4
-0.759725,15.2606,2.42004,48,12
-0.799488,16.1162,3.13652,5,13
-0.61474,12.4357,-0.652525,100,6
-1.19058,24.1702,5.58688,6,14
-0.625941,12.7527,-0.222867,93,7
-0.741758,15.1662,4.06864,24,15
-0.0241074,0.505571,-0.135621,15,0
-0.602683,12.6858,0.22168,30,8
-0.0299448,0.632632,-0.146218,25,1
-0.439474,9.31903,-1.81345,28,2
-0.733002,15.6011,1.36643,45,10
-0.517148,11.048,-1.75175,70,3
-0.687256,14.7372,1.81147,16,11
-0.531569,11.4416,-1.40637,81,4
-0.704072,15.2119,2.41191,51,12
-0.529677,11.444,-1.00229,23,5
-0.577831,12.5795,-0.659956,78,6
-1.10709,24.1936,5.59138,39,14
-0.616847,13.5319,-0.236445,26,7
-0.686443,15.1166,4.05466,12,15
-0.0226837,0.513372,-0.137692,14,0
-0.559456,12.7118,0.222099,8,8
-0.0279072,0.636627,-0.147118,24,1
-0.954831,21.8691,1.1472,12,9
-0.406345,9.30678,-1.81078,28,2
-0.681832,15.6792,1.37305,100,10
-0.47653,11.0024,-1.74424,40,3
-0.626487,14.5233,1.7849,7,11
-0.489409,11.3919,-1.40004,39,4
-0.4853,11.3423,-0.993227,8,5
-0.686881,16.1194,3.13614,38,13
-1.02576,24.2713,5.60848,13,14
-0.737442,17.5218,-0.306115,100,7
-0.642405,15.3274,4.11056,11,15
-0.0204204,0.501866,-0.134586,15,0
-0.761322,18.7917,0.32828,38,8
-0.0253704,0.628932,-0.145318,25,1
-0.871038,21.6867,1.13747,54,9
-0.373148,9.29048,-1.80734,28,2
-0.623351,15.588,1.36486,54,10
-0.43804,11.002,-1.74393,68,3
-0.829915,20.9362,2.57266,5,11
-0.451914,11.451,-1.4071,59,4
-0.446172,11.3558,-0.994273,4,5
-0.63422,16.2139,3.15407,24,13
-0.90238,23.2778,5.37813,23,14
-0.670496,17.3744,-0.303497,100,7
-0.605959,15.7735,4.22962,7,15
-0.0193863,0.52124,-0.139762,14,0
-0.501322,13.5427,0.23655,42,8
-0.023175,0.629016,-0.145318,25,1
-0.798156,21.6636,1.13611,16,9
-0.33834,9.22698,-1.79475,28,2
-0.515096,14.1147,1.23569,31,10
-0.398847,10.9818,-1.74049,53,3
-0.755891,20.9132,2.56949,47,11
-0.409724,11.391,-1.39955,45,4
-0.46248,12.9203,-1.13111,26,5
-0.588726,16.528,3.21475,15,13
-0.47578,13.4231,-0.703919,100,6
-0.763081,21.6351,4.99796,23,14
-0.60858,17.2546,-0.301368,27,7
-0.550941,15.6982,4.20892,10,15
-0.452635,13.4323,0.234595,71,8
-0.0210238,0.627142,-0.144868,25,1
-0.727318,21.8099,1.14365,43,9
-0.304955,9.19279,-1.78788,28,2
-0.464053,14.0626,1.23099,47,10
-0.36647,11.1055,-1.75989,56,3
-0.48048,14.6381,1.7983,32,11
-0.373634,11.4439,-1.40588,39,4
-0.372864,11.5439,-1.01048,20,5
-0.5296,16.3964,3.1888,20,13
-0.376117,11.7079,-0.613901,23,6
-0.688163,21.5382,4.97502,38,14
-0.548659,17.2667,-0.301543,85,7
-0.492598,15.5881,4.17889,5,15
-0.0151343,0.498188,-0.133551,15,0
-0.564159,18.6786,0.326185,14,8
-0.0192438,0.640847,-0.148018,24,1
-0.649449,21.7544,1.14061,12,9
-0.273646,9.16628,-1.78254,26,2
-0.417058,14.0521,1.22994,57,10
-0.329796,11.1777,-1.77115,40,3
-0.433218,14.7707,1.81439,32,11
-0.336175,11.5305,-1.41637,15,4
-0.410466,14.1634,2.24421,46,12
-0.336892,11.6247,-1.01746,36,5
-0.47038,16.3295,3.17544,22,13
-0.614855,21.6067,4.99031,28,14
-0.489001,17.2905,-0.301927,100,7
-0.435472,15.4931,4.15301,12,15
-0.0140181,0.521412,-0.139762,14,0
-0.499591,18.7045,0.326604,22,8
-0.0170069,0.64091,-0.148018,24,1
-0.50247,19.0612,0.999303,13,9
-0.241034,9.14363,-1.77796,28,2
-0.420416,16.0552,1.40512,50,10
-0.289906,11.1453,-1.76583,37,3
-0.374437,14.4923,1.78002,85,11
-0.28925,11.2716,-1.38444,48,4
-0.387041,15.1857,2.40596,52,12
-0.311792,12.2333,-1.07062,28,5
-0.413835,16.3487,3.17888,13,13
-0.334875,13.3215,-0.698371,100,6
-0.386866,15.4974,3.57897,9,14
-0.358088,14.4454,-0.252222,86,7
-0.557553,22.6518,6.07138,18,15
-0.0126495,0.540771,-0.144939,14,0
-0.312052,13.4403,0.234665,9,8
-0.0145898,0.633173,-0.146218,25,1
-0.208036,9.09731,-1.7688,26,2
-0.366552,16.1521,1.41349,25,10
-0.246995,10.9685,-1.73767,37,3
-0.313555,14.0331,1.72348,34,11
-0.258711,11.6695,-1.43318,42,4
-0.332861,15.1337,2.39752,43,12
-0.25402,11.5491,-1.01066,15,5
-0.35025,16.0517,3.12087,36,13
-0.309301,14.289,-0.749032,29,6
-0.315662,14.7018,3.39496,9,14
-0.305019,14.3226,-0.250058,27,7
-0.478474,22.6536,6.07138,18,15
-0.00960887,0.482867,-0.12941,15,0
-0.318685,16.1564,0.282066,16,8
-0.0122651,0.627375,-0.144868,25,1
-0.24333,12.5584,0.658282,58,9
-0.175939,9.08031,-1.76537,26,2
-0.519196,27.0397,2.3661,13,10
-0.203217,10.6809,-1.692,53,3
-0.263973,14.0023,1.71958,50,11
-0.220419,11.8013,-1.44927,37,4
-0.279408,15.1011,2.3922,63,12
-0.212227,11.4702,-1.00369,8,5
-0.259055,14.2701,-0.747986,61,6
-0.399308,22.2101,5.12843,25,14
-0.255096,14.3275,-0.250128,24,7
-0.397197,22.5296,6.03773,11,15
-0.00843024,0.513803,-0.137692,14,0
-0.0101068,0.629362,-0.145318,25,1
-0.202167,12.5891,0.659852,26,9
-0.143491,9.03376,-1.75621,26,2
-0.317551,20.2143,1.76874,14,10
-0.165663,10.6638,-1.68918,42,3
-0.215121,14.0052,1.71982,31,11
-0.175663,11.5678,-1.42051,49,4
-0.209472,14.2869,-0.748823,91,6
-0.323844,22.3536,5.16128,36,14
-0.209027,14.4283,-0.251873,100,7
-0.218994,15.3006,4.10021,4,15
-0.00673659,0.521556,-0.139762,14,0
-0.172341,13.3429,0.23292,52,8
-0.00831751,0.652775,-0.150717,23,1
-0.157967,12.5698,0.658805,48,9
-0.111613,9.00672,-1.75086,28,2
-0.202399,16.5655,1.4494,15,10
-0.133507,10.927,-1.73079,41,3
-0.168799,14.0157,1.72104,19,11
-0.140362,11.8263,-1.4522,19,4
-0.181446,15.5155,2.45759,13,12
-0.142822,12.3978,-1.08474,21,5
-0.189311,16.4333,3.19452,18,13
-0.176558,15.8052,3.64916,9,14
-0.150485,13.6851,-0.238889,27,7
-0.165517,15.2955,4.09866,18,15
-0.00482166,0.502258,-0.134586,15,0
-0.119529,12.6815,0.221366,30,8
-0.00580434,0.627468,-0.144868,25,1
-0.0811987,8.94618,-1.73903,28,2
-0.147663,16.588,1.45132,21,10
-0.0944302,10.8207,-1.7139,35,3
-0.135225,15.8107,1.94138,8,11
-0.0989152,11.8069,-1.44976,34,4
-0.127541,15.5477,2.46259,13,12
-0.0970963,11.8364,-1.03558,24,5
-0.125637,15.6486,3.04188,10,13
-0.0943058,12.0072,-0.629288,16,6
-0.121158,15.7765,3.64241,28,14
-0.0952372,12.6897,-0.221506,9,7
-0.112213,15.3076,4.10176,13,15
-0.0031863,0.52159,-0.139762,14,0
-0.0802062,13.5157,0.235922,45,8
-0.00369273,0.641125,-0.148018,24,1
-0.0691833,12.3868,0.649175,1,9
-0.0496937,8.89733,-1.72949,28,2
-0.115638,21.372,1.86984,16,10
-0.056764,10.8407,-1.71702,46,3
-0.13047,25.7761,3.16495,9,11
-0.0573346,11.7318,-1.4405,49,4
-0.100119,21.2449,3.36491,15,12
-0.0550867,11.6892,-1.02269,36,5
-0.097361,21.4542,4.17032,10,13
-0.0525431,12.0414,-0.631067,29,6
-0.0912733,21.7887,5.03036,19,14
-0.0522604,13.0179,-0.22723,100,7
-0.0853762,22.2335,5.9575,13,15
-0.00134523,0.513871,-0.137692,14,0
-0.0327416,13.3979,0.233862,23,8
-0.00145459,0.641134,-0.148018,24,1
-0.0185472,8.85622,-1.72148,28,2
-0.0246918,12.8589,1.12501,19,10
-0.0186817,10.7046,-1.69544,52,3
-0.031507,20.0593,2.46298,10,11
-0.0163991,11.7418,-1.44171,31,4
-0.0170348,13.9442,2.20854,11,12
-0.0142462,11.6614,-1.02025,54,5
-0.0224963,21.4839,4.17605,12,13
-0.010494,12.0195,-0.629916,35,6
-0.0108911,15.6016,3.60192,68,14
-0.00683136,13.048,-0.227754,100,7
-0.00536785,15.3582,4.11522,28,15
0.000421445,0.482963,-0.12941,15,0
0.0143542,13.7079,0.239273,15,8
0.000773732,0.63334,-0.146218,25,1
0.0183543,13.1459,0.688951,35,9
0.0123239,8.82678,-1.71575,28,2
0.0201757,12.8449,1.12379,19,10
0.018451,10.5722,-1.67447,37,3
0.050018,26.0543,3.19907,9,11
0.0246073,11.7497,-1.44269,46,4
0.0267785,11.8029,-1.03262,36,5
0.0778291,31.8537,6.19175,25,13
0.0441314,15.8042,3.64871,26,14
0.0386883,13.04,-0.227614,74,7
0.0481554,15.3292,4.10746,25,15
0.00220858,0.50614,-0.135621,15,0
0.0580994,12.8039,0.223496,27,8
0.00303028,0.643077,-0.148468,24,1
0.061371,13.024,0.682566,57,9
0.0429839,8.79527,-1.70965,28,2
0.0650262,12.8468,1.12396,9,10
0.0551457,10.5326,-1.66822,57,3
0.109662,20.2675,2.48857,16,11
0.0629939,11.6424,-1.42953,46,4
0.17882,32.0164,5.07098,53,12
0.0684231,11.8804,-1.03942,45,5
0.126826,21.3716,4.15429,6,13
0.0808542,13.2356,-0.693661,71,6
0.132352,21.6657,5.00201,28,14
0.0853699,13.5877,-0.237178,100,7
0.0986185,15.271,4.09193,14,15
0.00394623,0.513857,-0.137692,14,0
0.100713,12.8237,0.223845,23,8
0.00506909,0.631371,-0.145768,25,1
0.116429,14.5016,0.760023,28,9
0.0719226,8.7676,-1.70431,28,2
0.107585,12.8425,1.12361,19,10
0.0893153,10.4434,-1.65414,48,3
0.171445,19.6457,2.41228,25,11
0.101426,11.6223,-1.42709,48,4
0.1086,11.9658,-1.04691,40,5
0.142194,15.3716,2.98807,3,13
0.116817,12.3944,-0.649594,58,6
0.130508,13.5953,-0.237318,99,7
0.148349,15.1778,4.06708,13,15
0.00552291,0.502251,-0.134586,15,0
0.14467,12.9512,0.226078,60,8
0.00718474,0.6333,-0.146218,25,1
0.164107,14.4652,0.758139,38,9
0.100434,8.71823,-1.69477,28,2
0.168464,14.406,1.26045,41,10
0.124554,10.4944,-1.66227,60,3
0.236262,19.6172,2.40887,30,11
0.141571,11.7549,-1.44342,64,4
0.501357,41.0354,6.49985,6,12
0.147561,11.9076,-1.04186,56,5
0.268245,21.3448,4.14933,12,13
0.158094,12.408,-0.650327,65,6
0.198893,15.6101,3.60417,23,14
0.178894,13.8507,-0.241786,24,7
0.199645,15.2507,4.08675,9,15
0.00735419,0.51382,-0.137692,14,0
0.256149,17.6815,0.308663,20,8
0.00934212,0.63717,-0.147118,24,1
0.186312,12.7072,0.666027,32,9
0.129051,8.69822,-1.69095,30,2
0.258545,17.2243,1.5071,26,10
0.158637,10.4466,-1.65476,45,3
0.259176,16.8733,2.07202,31,11
0.180945,11.7801,-1.44659,49,4
0.662092,42.6215,6.7514,7,12
0.190243,12.1102,-1.05964,45,5
0.253899,15.9848,3.10752,3,13
0.199814,12.4433,-0.652211,29,6
0.24887,15.4983,3.57852,24,14
0.218434,13.4562,-0.234909,100,7
0.252622,15.3967,4.12609,9,15
0.268271,14.6373,0.255538,8,8
0.0123292,0.666355,-0.153867,23,1
0.266266,14.2559,0.747253,71,9
0.162377,8.69374,-1.69019,26,2
0.273462,14.506,1.26934,100,10
0.19713,10.361,-1.64131,46,3
0.323319,16.8384,2.06788,48,11
0.228229,11.7793,-1.44659,60,4
0.765158,39.1386,6.20012,12,12
0.232805,11.9082,-1.04203,47,5
0.421597,21.3737,4.15544,4,13
0.309639,15.4251,3.56187,9,14
0.280224,13.8391,-0.241611,62,7
0.319551,15.6467,4.19339,8,15
0.0110366,0.509889,-0.136656,14,0
0.358977,16.4516,0.287232,1,8
0.0140979,0.640981,-0.148018,24,1
0.314733,14.197,0.744217,53,9
0.192935,8.70293,-1.69209,26,2
0.3245,14.5229,1.27091,77,10
0.230496,10.2358,-1.6216,38,3
0.383659,16.9066,2.07641,27,11
0.269166,11.7705,-1.44561,60,4
0.450641,19.557,3.09834,18,12
0.273503,11.8695,-1.03872,60,5
0.455542,19.6214,3.81504,12,13
0.30093,12.8648,-0.674401,74,6
0.328568,13.84,-0.241646,97,7
0.374863,15.6744,4.20115,27,15
0.0133991,0.533023,-0.142868,14,0
0.325923,12.8759,0.224822,8,8
0.0163851,0.642875,-0.148468,24,1
0.360288,14.136,0.741077,57,9
0.223466,8.70809,-1.69324,26,2
0.380438,14.7248,1.28868,27,10
0.264373,10.1638,-1.61034,45,3
0.446677,17.058,2.09518,72,11
0.310689,11.8648,-1.45731,33,4
0.51554,19.5573,3.09865,18,12
0.319476,12.0398,-1.05371,19,5
0.524665,19.6432,3.81961,19,13
0.345785,12.8617,-0.674297,19,6
0.363755,13.443,-0.234735,100,7
0.013738,0.482767,-0.12941,15,0
0.395686,13.8202,0.241332,23,8
0.0178995,0.62139,-0.143519,25,1
0.25206,8.69749,-1.69133,23,2
0.435417,14.9346,1.30716,34,10
0.297321,10.1372,-1.60627,48,3
0.502192,17.0207,2.09079,18,11
0.35109,11.8994,-1.4617,42,4
0.895194,30.1626,4.77939,18,12
0.36885,12.3553,-1.08143,9,5
0.473896,15.7814,3.06897,27,13
0.387279,12.8225,-0.672308,35,6
0.512182,16.958,3.91685,23,14
0.424541,13.9754,-0.244054,23,7
0.501643,16.4189,4.40148,16,15
0.0165658,0.521337,-0.139762,14,0
0.441964,13.8328,0.241576,45,8
0.0203356,0.633014,-0.146218,25,1
0.279758,8.66129,-1.68446,26,2
0.467742,14.4034,1.26079,30,10
0.330809,10.1322,-1.60564,46,3
0.680149,20.7211,2.54561,28,11
0.388759,11.7811,-1.44732,45,4
0.407663,12.2245,-1.0701,26,5
0.723835,21.7055,4.22146,20,13
0.449542,13.4101,-0.703186,100,6
0.518218,15.3785,3.55243,2,14
0.439884,12.9866,-0.226811,55,7
0.017929,0.505828,-0.135621,15,0
0.485003,13.6833,0.238993,9,8
0.0225453,0.632939,-0.146218,25,1
0.458961,12.8222,0.672412,13,9
0.310723,8.63862,-1.68026,23,2
0.518302,14.3398,1.25539,38,10
0.368372,10.1428,-1.60752,46,3
0.584671,16.0984,1.97794,21,11
0.430602,11.7995,-1.44976,22,4
0.560915,15.2969,2.42442,48,12
0.449449,12.1991,-1.06801,52,5
0.798078,21.5594,4.1936,24,13
0.487335,13.1029,-0.687171,78,6
0.89279,23.8924,5.51985,12,14
0.660014,17.663,-0.308524,68,7
0.579432,15.4343,4.13852,33,15
0.0187924,0.482597,-0.12941,15,0
0.532028,13.6015,0.237597,15,8
0.0253239,0.644536,-0.148918,24,1
0.339712,8.60806,-1.67454,26,2
0.569377,14.3638,1.25766,38,10
0.403777,10.1415,-1.60752,46,3
0.64193,16.0525,1.97258,55,11
0.471711,11.7959,-1.44951,46,4
0.615018,15.3126,2.42724,46,12
0.490587,12.1616,-1.06487,45,5
0.877547,21.6605,4.21383,15,13
0.492793,12.1113,-0.635254,42,6
0.866256,21.2899,4.91923,18,14
0.545478,13.3488,-0.233199,21,7
0.632912,15.4225,4.13593,15,15
0.0233293,0.552017,-0.148044,13,0
0.584758,13.7795,0.240738,6,8
0.0267143,0.626925,-0.144868,25,1
0.606769,14.2395,0.746939,18,9
0.368342,8.60885,-1.67492,26,2
0.622648,14.4932,1.26916,41,10
0.437914,10.1519,-1.6094,46,3
0.697474,16.1039,1.97916,34,11
0.515289,11.8974,-1.46219,51,4
0.657294,15.1151,2.39626,74,12
0.518309,11.8713,-1.03959,45,5
0.963467,21.9791,4.27641,19,13
0.679629,15.4425,3.56862,2,14
0.588597,13.321,-0.232745,100,7
0.689278,15.5381,4.1675,10,15
0.0230483,0.50562,-0.135621,15,0
0.0295981,0.644354,-0.148918,24,1
0.613966,13.3156,0.69858,56,9
0.39544,8.5762,-1.66882,26,2
0.676237,14.6105,1.27962,35,10
0.471946,10.1583,-1.61065,41,3
0.900951,19.3198,2.37475,25,11
0.564337,12.0562,-1.48193,33,4
0.71089,15.1305,2.39908,54,12
0.557957,11.8755,-1.04012,58,5
1.02793,21.7973,4.24168,15,13
0.605309,12.7881,-0.670947,48,6
1.00838,21.2251,4.90573,18,14
0.630512,13.223,-0.23107,9,7
0.794024,16.5911,4.45065,44,15
0.026518,0.540268,-0.144939,14,0
0.0317508,0.6423,-0.148468,24,1
0.655003,13.2036,0.692823,41,9
0.422944,8.52575,-1.65928,26,2
0.717818,14.419,1.26306,24,10
0.507893,10.1664,-1.61221,38,3
0.981409,19.5762,2.40668,41,11
0.60662,12.0581,-1.48242,25,4
0.775151,15.3548,2.43506,33,12
0.60724,12.0287,-1.05371,54,5
0.806928,15.9291,3.10026,8,13
0.656437,12.9136,-0.677646,74,6
0.778189,15.2563,3.52678,6,14
0.660723,12.9091,-0.225625,9,7
0.830733,16.1753,4.33988,7,15
0.027795,0.528597,-0.141833,14,0
0.0333747,0.630509,-0.145768,25,1
0.701728,13.2132,0.693452,25,9
0.451871,8.50853,-1.65622,26,2
0.904789,16.981,1.48775,6,10
0.542853,10.1547,-1.61065,36,3
1.06984,19.9473,2.45274,36,11
0.660858,12.2819,-1.51021,37,4
0.820869,15.206,2.41191,23,12
0.664585,12.311,-1.07864,35,5
0.862636,15.9281,3.10065,11,13
0.691641,12.7297,-0.668121,32,6
0.822215,15.0842,3.48764,29,14
0.704473,12.8828,-0.225206,22,7
0.88919,16.209,4.34971,10,15
0.0296401,0.528497,-0.141833,14,0
0.792887,14.0936,0.246393,48,8
0.0367828,0.651791,-0.150717,23,1
0.750665,13.2605,0.696068,37,9
0.479792,8.47554,-1.65012,23,2
0.813043,14.3182,1.25469,22,10
0.576492,10.1212,-1.60564,35,3
1.16199,20.3379,2.50125,11,11
0.693734,12.1051,-1.48876,37,4
0.703899,12.2449,-1.07306,54,5
0.913029,15.8348,3.08309,14,13
0.744378,12.8708,-0.675657,35,6
0.874642,15.0774,3.48674,18,14
0.745718,12.8164,-0.224089,24,7
0.938002,16.0727,4.314,15,15
0.0314848,0.52839,-0.141833,14,0
0.844819,14.1366,0.247196,42,8
0.0369593,0.616644,-0.142619,26,1
0.793477,13.2,0.693033,42,9
0.508552,8.4601,-1.64745,26,2
0.999337,16.5765,1.45289,40,10
0.61039,10.0955,-1.60189,48,3
1.23178,20.3139,2.49881,44,11
0.736584,12.1125,-1.48997,39,4
0.916899,15.0343,2.38563,43,12
0.742748,12.1788,-1.06748,49,5
0.954758,15.6101,3.03997,17,13
0.912899,14.8408,3.43275,18,14
0.790085,12.8077,-0.223984,75,7
1.01677,16.4357,4.41235,34,15
0.0318691,0.505141,-0.135621,15,0
0.89429,14.1356,0.247231,61,8
0.040839,0.643739,-0.148918,24,1
0.910928,14.3194,0.751963,42,9
0.537451,8.44848,-1.64554,26,2
1.0572,16.5729,1.45289,15,10
0.64462,10.0775,-1.59939,36,3
1.27369,19.8578,2.44324,10,11
0.780392,12.1336,-1.4929,42,4
0.970394,15.0468,2.38813,32,12
0.787823,12.2159,-1.07097,54,5
1.00416,15.5283,3.0247,17,13
0.83667,12.9032,-0.677646,16,6
0.977092,15.0281,3.47684,13,14
0.933256,14.3154,-0.250407,22,7
1.04313,15.9578,4.28501,7,15
0.0320919,0.481896,-0.12941,15,0
0.962148,14.4097,0.252083,22,8
0.0428254,0.639704,-0.148018,24,1
0.958011,14.3103,0.751649,44,9
0.565231,8.42108,-1.64058,26,2
0.971234,14.4321,1.2655,57,10
0.676732,10.0299,-1.59219,32,3
1.34354,19.8611,2.44421,10,11
0.80582,11.8813,-1.46219,45,4
1.02296,15.0829,2.39439,15,12
0.824645,12.1276,-1.06347,57,5
1.0573,15.5091,3.02165,13,13
0.88634,12.9679,-0.681205,16,6
1.07497,15.6876,3.63026,11,14
1.00246,14.6295,-0.255957,100,7
1.11312,16.2029,4.35178,5,15
0.037016,0.528032,-0.141833,14,0
1.05019,14.9809,0.262135,30,8
0.045766,0.651222,-0.150717,23,1
1.01119,14.3527,0.754057,56,9
0.592274,8.38577,-1.63409,26,2
1.0413,14.7069,1.2899,33,10
0.707197,9.98818,-1.58593,27,3
2.06857,29.1433,3.58735,11,11
0.840141,11.8073,-1.45341,59,4
1.07869,15.1226,2.40127,29,12
0.866265,12.1147,-1.0626,30,5
1.10508,15.4545,3.01173,8,13
0.968034,13.5048,-0.709571,35,6
1.12741,15.6898,3.63161,9,14
1.0847,15.0587,-0.263531,100,7
1.16996,16.2028,4.35282,15,15
0.0353713,0.481666,-0.12941,15,0
1.09969,14.9393,0.261472,18,8
0.0464617,0.62968,-0.145768,25,1
1.05966,14.3272,0.752905,45,9
0.618484,8.36222,-1.62989,26,2
1.0827,14.604,1.28119,22,10
0.738547,9.93837,-1.57842,25,3
1.53945,20.6671,2.54463,5,11
0.872185,11.6815,-1.4383,30,4
1.11909,14.9533,2.37499,6,12
0.914313,12.217,-1.07184,47,5
1.15683,15.4212,3.00601,10,13
1.17821,15.6333,3.61946,30,14
1.08967,14.4247,-0.252501,100,7
1.60369,21.1801,5.69143,21,15
0.0406093,0.527767,-0.141833,14,0
1.14523,14.8496,0.259971,49,8
0.0489597,0.6334,-0.146668,24,1
1.1163,14.409,0.757406,56,9
0.647516,8.35805,-1.62951,26,2
1.113,14.3339,1.25783,46,10
0.770626,9.90225,-1.57311,30,3
1.2337,15.8168,1.94796,8,11
0.91466,11.7002,-1.44098,42,4
1.16356,14.8508,2.35934,28,12
0.950725,12.1343,-1.06487,57,5
1.62992,20.7564,4.04706,32,13
0.980649,12.4603,-0.655037,26,6
1.22756,15.563,3.60417,57,14
1.04656,13.2387,-0.231803,45,7
1.17486,14.8288,3.98581,4,15
0.0424515,0.527622,-0.141833,14,0
1.22196,15.1545,0.265381,33,8
0.0517984,0.640995,-0.148468,24,1
1.16933,14.4388,0.759185,17,9
0.674154,8.32443,-1.6234,23,2
1.18801,14.6378,1.28485,24,10
0.802467,9.86603,-1.56779,31,3
1.28342,15.7451,1.93967,20,11
0.951938,11.6534,-1.43562,30,4
1.21508,14.8427,2.35872,57,12
0.99698,12.1786,-1.06905,40,5
1.2553,15.3012,2.98425,7,13
1.0225,12.4369,-0.65399,48,6
1.29357,15.7004,3.63701,26,14
1.09868,13.3067,-0.233059,100,7
1.22295,14.7803,3.97391,6,15
0.0404132,0.481269,-0.12941,15,0
1.2591,14.9628,0.2621,72,8
0.053872,0.638868,-0.148018,24,1
1.26782,15.0039,0.789122,21,9
0.70023,8.28681,-1.61653,23,2
1.63734,19.3367,1.69779,24,10
0.835735,9.84939,-1.5656,27,3
1.29986,15.2876,1.88386,41,11
1.00239,11.7647,-1.44976,39,4
1.27444,14.927,2.3728,21,12
1.03881,12.1671,-1.06836,59,5
1.06966,12.477,-0.656293,39,6
1.33619,15.5541,3.60417,57,14
1.14787,13.3346,-0.233618,45,7
1.27687,14.8029,3.98115,6,15
0.0444502,0.508068,-0.136656,14,0
1.32842,15.1536,0.265521,75,8
0.055249,0.62897,-0.145768,25,1
1.26182,14.3649,0.755731,7,9
0.726056,8.24912,-1.60966,26,2
1.7036,19.317,1.69657,14,10
0.866283,9.80313,-1.55871,30,3
1.38788,15.6745,1.93212,8,11
1.03853,11.7058,-1.44293,42,4
1.32027,14.8813,2.36623,57,12
1.09398,12.3063,-1.08091,61,5
1.34781,15.1318,2.95296,22,13
1.11409,12.4832,-0.656816,65,6
1.22486,13.6973,-0.24004,97,7
1.95711,21.8429,5.87623,24,15
0.0525265,0.57717,-0.155291,12,0
0.058573,0.642368,-0.148918,24,1
1.31614,14.4062,0.758139,11,9
0.754487,8.24262,-1.6089,23,2
1.77411,19.3446,1.69954,7,10
0.894094,9.74905,-1.55058,27,3
1.43968,15.6678,1.93187,20,11
1.06897,11.6113,-1.43172,39,4
1.3771,14.9297,2.37468,72,12
1.1417,12.354,-1.08544,49,5
1.41063,15.264,2.97967,47,13
1.16119,12.5411,-0.660061,16,6
1.426,15.3719,3.56412,22,14
1.22362,13.1652,-0.230791,30,7
1.37724,14.79,3.98012,3,15
0.0497219,0.526987,-0.141833,14,0
1.55839,16.486,0.289047,17,8
0.0600802,0.6344,-0.147118,24,1
1.40344,14.8193,0.78012,10,9
0.779219,8.21271,-1.60356,26,2
1.61766,17.018,1.49559,13,10
0.926249,9.72621,-1.54745,28,3
1.47983,15.5106,1.91311,24,11
1.10591,11.57,-1.42709,33,4
1.42116,14.8681,2.3656,34,12
1.18132,12.3362,-1.08422,40,5
1.45789,15.1965,2.96746,16,13
1.48041,15.3746,3.56592,20,14
1.39013,14.437,-0.253165,21,7
2.12076,21.9848,5.91816,19,15
0.0508086,0.519119,-0.139762,14,0
1.66856,17.0479,0.298995,19,8
0.0606624,0.618681,-0.143519,25,1
1.73787,17.6925,0.931685,15,9
0.803077,8.1611,-1.59402,30,2
1.89774,19.2508,1.69239,35,10
0.956756,9.70539,-1.54463,35,3
1.5295,15.4878,1.91091,16,11
1.15189,11.6433,-1.4366,34,4
1.47422,14.8748,2.36748,27,12
1.22812,12.3697,-1.08753,38,5
1.53622,15.4729,3.02241,8,13
1.51709,15.2261,3.53263,24,14
1.47129,14.7405,-0.258575,100,7
2.19365,21.9388,5.9078,16,15
0.0534,0.526627,-0.141833,14,0
1.4956,14.724,0.258331,39,8
0.0635213,0.624271,-0.144868,25,1
1.78449,17.5071,0.922264,15,9
0.82977,8.14067,-1.59058,28,2
1.56703,15.3473,1.34969,33,10
0.986088,9.6409,-1.53494,31,3
1.58889,15.5077,1.91408,45,11
1.18989,11.5936,-1.43099,33,4
1.55681,15.1424,2.41097,46,12
1.26701,12.3237,-1.08387,28,5
1.63496,15.8753,3.10217,30,13
1.36869,13.2673,-0.698999,16,6
1.5829,15.3174,3.55513,31,14
1.52573,14.739,-0.258645,100,7
2.27683,21.9575,5.91505,13,15
0.0503995,0.480326,-0.12941,15,0
1.79573,17.0853,0.299867,40,8
0.0661076,0.627921,-0.145768,25,1
1.84412,17.4869,0.921532,11,9
0.856121,8.11819,-1.58677,26,2
1.61809,15.3179,1.3476,24,10
1.01433,9.58632,-1.5268,35,3
1.64469,15.5179,1.91603,61,11
1.23225,11.6071,-1.43318,37,4
1.61425,15.1801,2.41785,34,12
1.31845,12.3985,-1.09084,35,5
1.6627,15.6099,3.05142,60,13
1.53175,14.3567,-0.756673,52,6
1.62828,15.2362,3.53758,20,14
1.54651,14.4472,-0.253618,24,7
2.35223,21.9379,5.91194,22,15
0.0570753,0.526241,-0.141833,14,0
1.86054,17.1266,0.300705,66,8
0.0685101,0.629624,-0.146218,25,1
1.91337,17.5558,0.925509,16,9
0.883605,8.10735,-1.58524,26,2
1.67457,15.3399,1.35004,45,10
1.03919,9.50418,-1.51429,37,3
1.88254,17.1894,2.12321,36,11
1.26712,11.5514,-1.42685,34,4
1.92675,17.5366,2.79423,17,12
1.35606,12.3423,-1.08631,52,5
1.68669,15.3269,2.99723,27,13
1.52497,13.8351,-0.729459,42,6
1.6699,15.1258,3.51329,40,14
1.61562,14.6107,-0.256585,31,7
2.44028,22.0333,5.9399,16,15
0.0589115,0.526039,-0.141833,14,0
0.0694022,0.617762,-0.143519,25,1
1.84265,16.376,0.863648,20,9
0.91058,8.09251,-1.58295,26,2
1.97511,17.5257,1.54301,35,10
1.06749,9.45731,-1.5074,37,3
1.93785,17.1413,2.11809,40,11
1.30521,11.5272,-1.42441,37,4
1.98084,17.4669,2.78422,20,12
1.40946,12.4286,-1.09433,28,5
1.72821,15.2156,2.97662,40,13
1.55903,13.7047,-0.722864,39,6
1.71232,15.0289,3.49214,27,14
1.67001,14.6348,-0.257109,29,7
2.51059,21.967,5.92437,16,15
0.058087,0.502801,-0.135621,15,0
1.73552,14.9996,0.263566,10,8
0.0742499,0.640745,-0.148918,24,1
2.22722,19.1907,1.01249,13,9
0.9352,8.05808,-1.57685,26,2
1.79842,15.4723,1.36277,45,10
1.09479,9.40447,-1.49958,32,3
1.90686,16.3556,2.02181,48,11
1.33646,11.4457,-1.4149,28,4
2.06703,17.6757,2.81864,39,12
1.43872,12.3028,-1.08369,40,5
1.7651,15.071,2.94953,39,13
1.63757,13.961,-0.736681,48,6
1.76864,15.0557,3.49979,49,14
1.74351,14.8195,-0.26046,58,7
2.58161,21.9102,5.91143,11,15
0.0598419,0.502595,-0.135621,15,0
1.77295,14.8684,0.261367,31,8
0.0734823,0.615327,-0.143069,25,1
1.91614,16.0217,0.845644,22,9
0.961459,8.03917,-1.57379,21,2
1.85313,15.4719,1.36329,48,10
1.11843,9.3241,-1.48738,41,3
1.96797,16.3823,2.02596,56,11
1.36692,11.3621,-1.40515,35,4
2.09375,17.3781,2.77233,27,12
1.47975,12.2819,-1.0823,38,5
1.82546,15.1291,2.96212,26,13
1.79403,14.8034,-0.260285,92,7
2.67739,22.0602,5.95439,13,15
0.064417,0.525393,-0.141833,14,0
1.85091,15.0745,0.265102,16,8
0.0770565,0.626672,-0.145768,25,1
2.32465,18.9055,0.998256,13,9
0.986874,8.01433,-1.56959,23,2
1.91858,15.5583,1.37148,15,10
1.15001,9.3123,-1.48613,37,3
2.04317,16.5211,2.04399,30,11
1.39898,11.3122,-1.39955,28,4
2.10451,16.9927,2.71195,50,12
1.52041,12.2589,-1.08073,19,5
1.91987,15.4577,3.02776,36,13
1.73573,13.9552,-0.736995,52,6
2.74372,22.0593,5.13203,25,14
1.83347,14.72,-0.258924,93,7
2.95927,23.7247,6.40629,3,15
0.0632616,0.502176,-0.135621,15,0
1.90139,15.0722,0.265172,37,8
0.0803553,0.63608,-0.148018,24,1
2.09119,16.5535,0.874429,4,9
1.01049,7.98764,-1.56502,23,2
2.00497,15.8266,1.39571,21,10
1.17889,9.29276,-1.48362,35,3
2.08244,16.3922,2.02888,17,11
1.42499,11.2169,-1.38834,37,4
2.17182,17.0719,2.72571,16,12
1.54141,12.0996,-1.06713,45,5
1.98678,15.5739,3.0518,20,13
1.78023,13.9355,-0.736262,58,6
2.82155,22.0868,5.14058,20,14
1.87542,14.6603,-0.257981,100,7
3.03425,23.6861,6.39852,17,15
0.0743432,0.574768,-0.155291,12,0
2.06233,15.9226,0.280251,63,8
0.0817124,0.630012,-0.146668,24,1
1.03545,7.97257,-1.56273,26,2
2.06001,15.8396,1.39746,21,10
1.21123,9.30055,-1.4855,35,3
2.11163,16.1923,2.00499,34,11
1.44202,11.0426,-1.36737,30,4
2.29287,17.5343,2.8008,52,12
1.58928,12.1537,-1.07236,42,5
2.05217,15.6724,3.07241,44,13
1.8067,13.779,-0.728307,42,6
2.89913,22.0807,5.14148,42,14
1.90469,14.4871,-0.255049,100,7
3.1139,23.6523,6.39231,27,15
0.0636243,0.478754,-0.12941,15,0
1.93034,14.5059,0.255433,15,8
0.084426,0.633587,-0.147568,24,1
2.51762,18.8687,0.997628,27,9
1.05887,7.93582,-1.55624,26,2
2.1145,15.8264,1.39693,37,10
1.24605,9.31389,-1.48832,33,3
2.12808,15.8857,1.96795,17,11
1.47132,10.9686,-1.35884,31,4
2.34302,17.444,2.78766,48,12
1.6431,12.233,-1.07986,38,5
2.09719,15.5931,3.05829,12,13
1.89636,14.0814,-0.744636,26,6
3.00458,22.2809,5.19052,26,14
1.9598,14.5141,-0.255643,100,7
3.20108,23.6758,6.40163,28,15
0.0731304,0.535952,-0.144939,14,0
1.98774,14.5486,0.256306,43,8
0.0869012,0.635219,-0.148018,24,1
2.21537,16.1726,0.855484,19,9
1.07963,7.88151,-1.54632,33,2
2.63541,19.214,1.69675,28,10
1.27909,9.31339,-1.48894,27,3
2.17946,15.8487,1.96429,46,11
1.50473,10.928,-1.35446,31,4
1.69967,12.3278,-1.08875,28,5
2.42357,17.5558,3.44487,6,13
1.72399,12.4721,-0.659852,3,6
3.08021,22.2549,5.18692,26,14
1.99672,14.4081,-0.253898,26,7
3.27946,23.6339,6.39335,27,15
0.0701794,0.501256,-0.135621,15,0
0.0891178,0.634912,-0.148018,24,1
2.64317,18.8071,0.995325,37,9
1.10495,7.86213,-1.54326,28,2
2.27546,16.1703,1.42866,25,10
1.30718,9.27758,-1.48394,28,3
3.43049,24.3168,3.01529,8,11
1.54092,10.909,-1.35275,37,4
2.18285,15.4341,2.46885,25,12
1.7279,12.2173,-1.07951,28,5
2.48347,17.5375,3.44296,44,13
1.77649,12.5293,-0.663201,16,6
3.15676,22.2363,5.18512,5,14
2.07008,14.5634,-0.25676,76,7
3.35841,23.5974,6.38662,37,15
0.07687,0.535429,-0.144939,14,0
2.43723,16.9551,0.298995,10,8
0.0902233,0.626881,-0.146218,25,1
2.71648,18.8511,0.998151,23,9
1.1307,7.84657,-1.54097,26,2
2.2804,15.8053,1.39711,34,10
1.33532,9.24363,-1.47924,26,3
2.29487,15.8665,1.96843,8,11
1.58155,10.9212,-1.35494,33,4
2.71065,18.695,2.99197,57,12
1.77409,12.2207,-1.08038,35,5
2.53225,17.4433,3.42617,12,13
1.81734,12.5033,-0.662155,6,6
3.56665,24.5084,5.71781,34,14
2.12495,14.5838,-0.257248,93,7
3.44605,23.6219,6.39645,21,15
0.0771431,0.523676,-0.141833,14,0
2.85894,19.4076,0.342416,23,8
0.0938325,0.636202,-0.148468,24,1
2.20487,14.9314,0.791006,30,9
1.15774,7.83072,-1.53868,26,2
2.40016,16.2147,1.43406,71,10
1.36427,9.20546,-1.47393,21,3
2.31852,15.6444,1.94187,24,11
1.62025,10.9195,-1.35543,31,4
2.74134,18.4529,2.95473,57,12
3.35872,22.5545,4.43249,15,13
1.839,12.3345,-0.653571,16,6
3.63631,24.3602,5.68631,40,14
2.18439,14.6336,-0.258261,93,7
4.46137,29.8517,8.08758,6,15
0.0806995,0.534865,-0.144939,14,0
2.44201,16.1661,0.285382,14,8
0.0947068,0.62622,-0.146218,25,1
2.26116,14.9512,0.792471,7,9
1.18036,7.79557,-1.53258,26,2
2.97515,19.626,1.73667,28,10
1.39195,9.17134,-1.46923,18,3
2.37256,15.6142,1.93919,16,11
1.66145,10.9214,-1.35641,28,4
2.81674,18.5155,2.96631,9,12
1.86837,12.2671,-1.08561,23,5
2.9497,19.3442,3.80359,4,13
1.86638,12.2254,-0.648129,3,6
5.13194,33.5766,7.84179,11,14
2.11612,13.8451,-0.244473,100,7
4.57139,29.8742,8.09793,6,15
0.0807969,0.523125,-0.141833,14,0
2.50476,16.2172,0.286429,13,8
0.100059,0.647086,-0.151167,23,1
2.30967,14.9196,0.791215,11,9
1.20305,7.76231,-1.52685,26,2
2.4626,15.8707,1.40512,15,10
1.42114,9.15887,-1.46798,21,3
4.70636,30.2964,3.76454,12,11
1.69888,10.9237,-1.35738,28,4
3.3044,21.2226,3.40182,16,12
1.92038,12.3196,-1.09084,26,5
2.72385,17.474,3.43761,28,13
2.17145,13.9143,-0.738042,45,6
4.17657,26.732,6.24644,8,14
2.16073,13.8139,-0.244054,88,7
3.59489,22.9565,6.22615,13,15
0.0789168,0.499955,-0.135621,15,0
0.100794,0.637109,-0.148918,24,1
2.37423,14.9903,0.795402,30,9
1.22664,7.7447,-1.52418,26,2
2.51364,15.8526,1.40425,6,10
1.44938,9.13044,-1.46423,23,3
2.60374,16.3838,2.03692,21,11
1.74012,10.9373,-1.35982,33,4
2.63335,16.5329,2.65156,28,12
2.0261,12.7205,-1.12692,19,5
3.57842,22.4412,4.41723,12,13
2.18474,13.6857,-0.726318,32,6
3.65047,22.8417,5.34034,17,14
2.21936,13.8714,-0.245206,35,7
3.66248,22.8656,6.20493,18,15
0.076967,0.476791,-0.12941,15,0
2.59239,16.0414,0.283637,47,8
0.102706,0.63483,-0.148468,24,1
2.68775,16.5947,0.881024,33,9
1.24896,7.7113,-1.51846,26,2
2.63593,16.2568,1.44086,37,10
1.47365,9.07853,-1.45672,23,3
2.64053,16.2492,2.02133,21,11
1.78084,10.9468,-1.36177,28,4
3.43278,21.0781,3.38243,22,12
2.10059,12.8982,-1.14331,47,5
2.84356,17.441,3.43494,15,13
2.23218,13.676,-0.726214,48,6
3.74683,22.9307,5.36418,29,14
2.49536,15.2549,-0.269814,16,7
3.74539,22.8718,6.2101,15,15
0.081776,0.49558,-0.134586,15,0
2.67152,16.1723,0.286115,61,8
0.102378,0.619086,-0.144868,25,1
2.47133,14.9281,0.792994,18,9
1.27266,7.68752,-1.51464,26,2
1.5008,9.04605,-1.45234,26,3
2.70667,16.2967,2.02839,35,11
1.82099,10.9523,-1.36323,28,4
2.80546,16.8551,2.70632,8,12
2.15836,12.9674,-1.15011,19,5
3.57205,21.4377,4.22451,2,13
2.29272,13.745,-0.730296,48,6
3.81689,22.8579,5.35024,40,14
2.54002,15.1948,-0.268907,89,7
3.55674,21.2543,5.77425,5,15
0.0802937,0.476242,-0.12941,15,0
0.101941,0.603353,-0.141269,26,1
1.29752,7.67142,-1.51235,28,2
2.51088,14.8295,1.31588,43,10
1.52808,9.01543,-1.44827,25,3
2.75689,16.248,2.02352,43,11
1.85655,10.9302,-1.36128,27,4
3.31991,19.5249,3.13682,22,12
2.21063,13.001,-1.15377,61,5
3.63434,21.3515,4.21001,29,13
2.33465,13.7014,-0.728412,35,6
3.86357,22.6504,5.3048,45,14
2.29718,13.4532,-0.238225,99,7
3.64035,21.2969,5.78926,2,15
0.088512,0.514035,-0.139762,14,0
2.81017,16.3031,0.288768,42,8
0.109017,0.631799,-0.148018,24,1
1.31694,7.62428,-1.50396,26,2
2.54872,14.7401,1.30873,31,10
1.55382,8.97696,-1.44295,28,3
2.82037,16.2774,2.02839,48,11
1.88757,10.8826,-1.35616,23,4
3.36642,19.4087,3.11993,21,12
2.25702,12.9991,-1.15429,33,5
3.74414,21.5418,4.25008,24,13
2.28592,13.1383,-0.698894,39,6
3.94161,22.6311,5.30345,39,14
2.33252,13.3923,-0.237283,9,7
3.94023,22.5998,6.14695,15,15
2.77074,15.7619,0.279343,24,8
0.110098,0.625676,-0.146668,24,1
2.55804,14.5222,0.772793,27,9
1.3415,7.60804,-1.50167,26,2
4.09242,23.1857,2.05984,25,10
1.57842,8.94257,-1.43826,27,3
2.85879,16.18,2.01743,48,11
1.92019,10.8567,-1.35372,23,4
2.67444,15.1059,2.42974,11,12
2.26448,12.7773,-1.13529,26,5
3.81625,21.5331,4.25084,9,13
2.34691,13.229,-0.704128,42,6
3.95973,22.2974,5.22831,44,14
2.64559,14.8824,-0.263845,75,7
3.78489,21.2698,5.78875,7,15
0.0954169,0.532436,-0.144939,14,0
2.82079,15.7246,0.278855,29,8
0.113315,0.631042,-0.148018,24,1
2.60053,14.4822,0.771118,71,9
1.36221,7.57843,-1.49671,26,2
3.01592,16.7618,1.49001,35,10
1.60438,8.90785,-1.43357,22,3
2.94203,16.3184,2.03595,8,11
1.94538,10.7796,-1.34495,27,4
2.72662,15.1086,2.43162,20,12
2.32349,12.8619,-1.14348,40,5
3.96022,21.9003,4.32602,26,13
2.39094,13.2089,-0.7035,29,6
4.0431,22.3142,5.23551,22,14
2.52095,13.9133,-0.246812,35,7
4.05399,22.352,6.08691,24,15
0.0910211,0.497894,-0.135621,15,0
2.87076,15.7033,0.278645,46,8
0.114004,0.622995,-0.146218,25,1
2.65359,14.4868,0.771851,35,9
1.38688,7.56397,-1.4948,26,2
3.07333,16.7453,1.48949,6,10
1.62892,8.87528,-1.42919,22,3
2.76871,15.0707,1.88142,24,11
1.9646,10.6833,-1.33374,23,4
2.77828,15.0931,2.43068,37,12
2.38318,12.934,-1.15063,28,5
3.9638,21.5125,4.25199,20,13
2.45864,13.3306,-0.710408,35,6
4.10399,22.2297,5.21886,43,14
2.85076,15.4264,-0.273828,64,7
4.09121,22.1173,6.02686,28,15
0.0940867,0.505186,-0.137692,14,0
2.93289,15.7325,0.279343,61,8
0.116893,0.626425,-0.147118,24,1
2.85009,15.2588,0.81351,26,9
1.40871,7.54196,-1.49136,26,2
2.82383,15.1036,1.34429,45,10
1.65517,8.8443,-1.42512,25,3
2.81801,15.0434,1.87923,41,11
2.00152,10.6744,-1.33349,16,4
2.82986,15.0775,2.42974,54,12
2.43561,12.977,-1.15516,28,5
4.00443,21.3152,4.21573,9,13
4.18805,22.2497,5.22696,44,14
2.5262,13.408,-0.238156,99,7
4.21923,22.3725,6.10037,21,15
0.097291,0.512446,-0.139762,14,0
2.98965,15.732,0.279518,26,8
0.117986,0.62027,-0.145768,25,1
2.90596,15.2625,0.814243,10,9
1.42916,7.50614,-1.48526,26,2
2.88586,15.1426,1.34865,15,10
1.68269,8.821,-1.4223,17,3
2.8854,15.1115,1.88898,37,11
2.03132,10.6284,-1.32862,19,4
2.85425,14.9201,2.40596,63,12
2.44158,12.7629,-1.13686,35,5
4.05998,21.2027,4.19627,47,13
2.59864,13.5583,-0.723492,29,6
4.32112,22.524,5.2949,28,14
2.86261,14.9073,-0.264962,33,7
4.24553,22.0882,6.02686,23,15
0.101281,0.523484,-0.142868,14,0
0.122747,0.633246,-0.148918,24,1
2.94741,15.1915,0.810998,25,9
1.45198,7.48376,-1.48182,26,2
3.08493,15.8854,1.41576,65,10
1.71084,8.8015,-1.42011,25,3
3.25014,16.705,2.08957,13,11
2.06309,10.5939,-1.32521,22,4
2.95394,15.1543,2.44538,21,12
2.48879,12.768,-1.13808,28,5
3.16514,16.2228,3.21284,13,13
2.56671,13.1433,-0.701825,45,6
5.4061,27.6573,6.50603,27,14
3.07205,15.7019,-0.279273,100,7
4.49635,22.9605,6.26912,19,15
0.0933944,0.473847,-0.12941,15,0
3.08316,15.6284,0.278052,45,8
0.124201,0.62899,-0.148018,24,1
3.00236,15.1909,0.811521,9,9
1.47543,7.46517,-1.47915,26,2
2.98416,15.0849,1.34534,24,10
1.73234,8.74897,-1.4126,31,3
2.89473,14.6061,1.82828,44,11
2.09581,10.5652,-1.32253,17,4
3.01066,15.1633,2.44851,22,12
2.56981,12.9429,-1.15446,28,5
3.21447,16.175,3.20559,20,13
2.61959,13.1696,-0.703709,29,6
4.06464,20.4158,4.80585,34,14
3.14285,15.7715,-0.280705,78,7
4.51526,22.6378,6.18526,12,15
0.095048,0.473518,-0.12941,15,0
3.12194,15.5391,0.276656,36,8
0.126396,0.628553,-0.148018,24,1
3.0873,15.3389,0.82,3,9
1.49761,7.44072,-1.47534,26,2
2.99115,14.8479,1.32512,51,10
1.75233,8.69059,-1.40416,25,3
2.96259,14.6796,1.83876,44,11
2.12481,10.519,-1.31765,19,4
4.61376,22.8201,3.68747,18,12
2.62051,12.9612,-1.15691,40,5
4.45468,22.0134,4.36571,21,13
2.62233,12.947,-0.6923,19,6
4.14518,20.4473,4.81665,25,14
3.1625,15.586,-0.277598,24,7
4.58348,22.5689,6.17076,18,15
0.101342,0.495896,-0.135621,15,0
3.31401,16.202,0.288663,58,8
0.126244,0.616653,-0.145318,25,1
3.11516,15.2028,0.813301,10,9
1.52081,7.42199,-1.47266,26,2
3.06378,14.9388,1.33418,20,10
1.78027,8.67281,-1.40228,25,3
3.06414,14.9141,1.86948,33,11
2.14952,10.4531,-1.31034,20,4
2.6569,12.9091,-1.15307,26,5
4.43404,21.5247,4.27183,4,13
2.87158,13.9275,-0.745264,26,6
4.27443,20.7132,4.88279,21,14
3.22942,15.6355,-0.27868,100,7
4.1851,20.2447,5.53925,13,15
0.101499,0.487974,-0.133551,15,0
3.32245,15.9593,0.284544,71,8
0.130781,0.627655,-0.148018,24,1
1.5407,7.38781,-1.46694,26,2
3.16435,15.1601,1.35492,24,10
1.80569,8.64333,-1.39852,30,3
3.17225,15.1715,1.90311,24,11
2.1738,10.3873,-1.30303,17,4
2.65783,12.6891,-1.13424,30,5
3.32165,15.8446,3.14682,32,13
2.89598,13.8021,-0.739088,42,6
4.3435,20.6829,4.87919,26,14
4.25256,20.2148,5.5351,13,15
0.104001,0.491396,-0.134586,15,0
3.36198,15.8714,0.283183,71,8
0.135396,0.638633,-0.150717,23,1
3.2635,15.38,0.823977,59,9
1.5624,7.36318,-1.46312,23,2
3.2127,15.1275,1.35301,51,10
1.8342,8.62925,-1.39727,25,3
3.25204,15.2865,1.91895,8,11
2.20426,10.3524,-1.29961,17,4
3.42423,16.0684,2.60213,13,12
2.71248,12.7285,-1.1386,30,5
3.3536,15.7234,3.12507,31,13
2.88576,13.5185,-0.724434,29,6
4.28416,20.0521,4.73387,8,14
3.24233,15.1629,-0.270652,100,7
4.34169,20.2868,5.55892,27,15
3.45106,16.0159,0.285975,48,8
0.133105,0.617202,-0.145768,25,1
3.21351,14.8882,0.798228,18,9
1.58479,7.34233,-1.46007,23,2
3.8755,17.9401,1.60576,16,10
1.85805,8.59383,-1.39258,20,3
3.29447,15.2247,1.91262,45,11
2.22441,10.271,-1.29035,27,4
3.19993,14.7629,2.39251,9,12
2.77209,12.789,-1.14488,35,5
3.3814,15.5869,3.10026,33,13
2.9821,13.7347,-0.736576,52,6
4.35287,20.0313,4.73252,20,14
4.48973,20.6264,5.65623,9,15
0.107429,0.490658,-0.134586,15,0
3.44659,15.7283,0.281054,71,8
0.138181,0.630058,-0.148918,24,1
3.26717,14.8847,0.798647,9,9
1.60788,7.32524,-1.45778,23,2
3.99153,18.1697,1.62755,37,10
1.88295,8.56414,-1.38883,27,3
3.35186,15.2324,1.91506,24,11
2.23976,10.1701,-1.27865,26,4
