x, y, z, intensity, ring
-0.00200788,-11.51,3.08409,23,15
-0.0234476,-14.9277,0.260564,46,8
-0.000928493,-0.532005,-0.122823,15,1
-0.00111947,-0.583085,-0.113341,16,2
-0.0202292,-9.65908,0.845062,26,10
-0.00147003,-0.647922,-0.102621,14,3
-0.0226713,-9.27829,1.13923,44,11
-0.00241659,-0.923065,-0.113339,13,4
-0.0249215,-8.92472,1.41354,39,12
-0.0457546,-16.3853,-1.43354,8,5
-0.0286942,-9.67095,1.87985,11,13
-0.0382118,-12.1632,-0.637452,13,6
-0.0341914,-10.3107,2.38043,57,14
-0.0322832,-9.24854,-0.161435,93,7
-0.0427094,-11.6529,3.12239,35,15
-0.0471247,-9.31046,0.162517,52,8
-0.0821802,-15.1889,0.79603,27,9
-0.00315476,-0.583078,-0.113341,16,2
-0.0845351,-15.1359,1.32424,14,10
-0.0529962,-8.93077,1.09658,32,11
-0.00560232,-0.917096,-0.112607,13,4
-0.0724466,-11.53,1.82622,25,12
-0.0746855,-11.8864,-1.03994,24,5
-0.079888,-12.0452,-0.631276,6,6
-0.0712173,-10.4625,2.41552,43,14
-0.10057,-14.4055,-0.251454,8,7
-0.089081,-12.4485,3.33566,42,15
-0.0797268,-9.32224,0.162726,36,8
-0.00464257,-0.531986,-0.122823,15,1
-0.130167,-14.6234,0.766408,58,9
-0.00519001,-0.583063,-0.113341,16,2
-0.0866854,-9.55112,0.835649,8,10
-0.0849385,-9.01192,1.10657,20,11
-0.00905118,-0.942875,-0.115776,10,4
-0.118678,-12.1421,1.92321,43,12
-0.0875683,-8.80194,-0.770108,5,5
-0.0955063,-9.59984,1.86611,18,13
-0.121993,-12.0508,-0.63159,16,6
-0.110285,-10.7097,2.47266,50,14
-0.127715,-12.1955,-0.212884,24,7
-0.105735,-9.93109,2.66118,11,15
-0.00649947,-0.531966,-0.122823,15,1
-0.00732709,-0.58304,-0.113341,16,2
-0.121741,-9.55472,0.835998,46,10
-0.181694,-14.0672,1.72738,34,11
-0.0126542,-0.966657,-0.118701,7,4
-0.125505,-9.46122,1.49864,87,12
-0.227479,-16.9258,-1.48095,33,5
-0.13069,-9.59942,1.86611,21,13
-0.235364,-17.0689,-0.894631,27,6
-0.144504,-10.3488,2.38943,45,14
-0.13857,-9.80124,2.6265,45,15
-0.195213,-12.4266,0.216933,13,8
-0.22296,-14.037,0.735739,10,9
-0.00936218,-0.583011,-0.113341,16,2
-0.144843,-8.92274,0.780741,15,10
-0.232099,-13.9969,1.71885,19,11
-0.0164964,-0.984468,-0.120894,6,4
-0.155718,-9.29284,1.47205,23,12
-0.290068,-17.1321,-1.49908,12,5
-0.170477,-9.96598,1.93747,20,13
-0.294391,-17.0361,-0.892956,37,6
-0.180696,-10.3521,2.39033,19,14
-0.34156,-19.568,-0.341613,36,7
-0.17108,-9.70411,2.60061,29,15
-0.238169,-12.5178,0.218539,16,8
-0.209937,-10.8351,0.56795,25,9
-0.0113972,-0.582975,-0.113341,16,2
-0.176459,-8.94608,0.782833,28,10
-0.0127776,-0.647798,-0.102621,14,3
-0.21868,-10.9893,1.34958,18,11
-0.0196813,-0.980438,-0.120407,6,4
-0.186594,-9.21522,1.45985,66,12
-0.397631,-19.4696,-1.70372,3,5
-0.19703,-9.64738,1.87565,40,13
-0.305517,-14.8325,-0.777503,35,6
-0.317495,-15.2846,3.52948,31,14
-0.446884,-21.3341,-0.372469,83,7
-0.20536,-9.72277,2.60579,21,15
-0.340162,-15.1059,0.263741,48,8
-0.0120697,-0.531869,-0.122823,15,1
-0.248441,-10.8642,0.56952,11,9
-0.0133304,-0.582934,-0.113341,16,2
-0.224896,-9.76012,0.854126,14,10
-0.317154,-13.5584,1.66522,7,11
-0.0234776,-0.99624,-0.122357,1,4
-0.214167,-9.02098,1.42919,49,12
-0.463706,-19.5319,-1.7093,3,5
-0.278394,-11.6407,2.26338,35,13
-0.414047,-17.1874,-0.901016,20,6
-0.371794,-15.3223,3.53848,36,14
-0.201681,-8.25228,-0.144087,32,7
-0.308844,-12.5474,3.36309,11,15
-0.316713,-12.176,0.212605,20,8
-0.0139263,-0.531824,-0.122823,15,1
-0.254049,-9.57405,0.837915,26,10
-0.299288,-11.1323,1.36737,39,11
-0.0288881,-1.06759,-0.131131,1,4
-0.254204,-9.33415,1.47893,21,12
-0.462778,-16.9928,-1.48723,15,5
-0.262171,-9.56531,1.86001,45,13
-0.470626,-17.0621,-0.894526,37,6
-0.425275,-15.3209,3.53848,42,14
-0.403127,-14.4322,-0.252013,43,7
-0.430801,-15.3271,4.10849,27,15
-0.35827,-12.1429,0.212047,11,8
-0.0157826,-0.531772,-0.122823,15,1
-0.323388,-10.8323,0.56795,78,9
-0.0173997,-0.582827,-0.113341,16,2
-0.267733,-8.91591,0.780393,7,10
-0.286128,-9.41889,1.15703,26,11
-0.0315839,-1.03375,-0.126988,3,4
-0.416501,-13.4781,-1.17974,2,5
-0.378453,-12.2468,2.38168,17,13
-0.482042,-15.4245,3.56277,45,14
-0.334285,-10.6371,-0.185763,36,7
-0.309238,-9.78574,2.62339,32,15
-0.473663,-14.354,0.250686,9,8
-0.0163466,-0.49276,-0.113825,16,1
-0.358467,-10.7493,0.563658,31,9
-0.0195357,-0.582759,-0.113341,16,2
-0.300142,-8.9069,0.779695,48,10
-0.321355,-9.48727,1.16556,15,11
-0.0353272,-1.0376,-0.127475,12,4
-0.311593,-9.10511,1.44295,50,12
-0.507886,-14.6171,-0.766513,19,6
-0.513153,-14.6948,-0.256655,68,7
-0.345699,-9.85024,2.64099,11,15
-0.487873,-13.305,0.232396,1,8
-0.018583,-0.504382,-0.116525,16,1
-0.394021,-10.6441,0.558215,21,9
-0.0215698,-0.582687,-0.113341,16,2
-0.333007,-8.95359,0.783879,52,10
-0.353893,-9.42652,1.15825,28,11
-0.0390552,-1.03548,-0.127232,30,4
-0.343916,-9.07627,1.43857,87,12
-0.0662372,-1.74806,-0.153045,1,5
-0.390055,-10.2467,1.99319,30,13
-0.995842,-25.9225,5.9891,7,14
-0.50663,-13.1282,-0.229325,18,7
-0.57195,-14.2403,0.248767,11,8
-0.0214431,-0.531574,-0.122823,15,1
-0.0236037,-0.582609,-0.113341,16,2
-0.378818,-9.23085,1.13436,28,11
-0.04316,-1.04724,-0.128694,60,4
-0.0685486,-1.65625,-0.145027,4,5
-0.492159,-11.7425,2.71336,57,14
-0.416258,-9.84945,2.64151,59,15
-0.645556,-14.7857,0.258331,16,8
-0.0232985,-0.531496,-0.122823,15,1
-0.0256372,-0.582523,-0.113341,16,2
-0.392341,-8.87939,0.777604,7,10
-0.410683,-9.22154,1.13338,28,11
-0.0463719,-1.03717,-0.127475,61,4
-0.0731682,-1.63013,-0.142761,21,5
-0.0754518,-1.668,-0.0875057,1,6
-0.446983,-9.80556,2.63012,31,15
-0.68257,-14.5278,0.253863,5,8
-0.0250609,-0.531415,-0.122823,15,1
-0.511443,-10.8051,0.566903,28,9
-0.0276705,-0.58243,-0.113341,16,2
-0.55837,-11.7099,1.02565,25,10
-0.443444,-9.26573,1.13899,5,11
-0.0504778,-1.05089,-0.129182,55,4
-0.0778952,-1.60996,-0.141018,36,5
-0.455129,-9.40673,1.83062,12,13
-0.0799171,-1.6458,-0.0863543,15,6
-0.691309,-14.1856,3.27889,27,14
-0.0863532,-1.76562,-0.0308559,1,7
-0.48367,-9.8541,2.64358,7,15
-0.0269157,-0.531325,-0.122823,15,1
-0.548585,-10.8292,0.568264,13,9
-0.0296017,-0.582335,-0.113341,16,2
-0.593951,-11.6443,1.02007,36,10
-0.477006,-9.28792,1.14192,15,11
-0.0538391,-1.04476,-0.12845,41,4
-0.0840567,-1.62561,-0.142412,46,5
-0.0849346,-1.63155,-0.0856216,35,6
-0.740923,-14.185,3.27934,9,14
-0.087201,-1.66947,-0.0291804,12,7
-0.0286775,-0.531233,-0.122823,15,1
-0.0316342,-0.582228,-0.113341,16,2
-0.518236,-9.50752,0.833035,16,10
-0.489811,-8.95725,1.10146,25,11
-0.0567597,-1.03466,-0.127232,19,4
-0.635654,-11.5503,1.83216,77,12
-0.0890715,-1.61337,-0.141367,51,5
-0.089461,-1.6153,-0.0847843,52,6
-0.568295,-10.2288,2.36514,17,14
-0.0919151,-1.64919,-0.0288314,34,7
-0.538331,-9.62877,2.58405,64,15
-0.0953114,-1.653,0.0289012,5,8
-0.0994044,-1.71877,0.0902272,1,9
-0.56037,-9.63086,0.844016,4,10
-0.570136,-9.74006,1.19798,41,11
-0.0614302,-1.04633,-0.128694,12,4
-0.0949842,-1.61303,-0.141367,49,5
-0.548536,-9.28768,1.80849,15,13
-0.0956627,-1.61495,-0.0847843,57,6
-0.0965361,-1.62489,-0.0284125,47,7
-0.100549,-1.64869,0.0288314,20,8
-0.101979,-1.66259,0.0872964,4,9
-0.597285,-9.6549,1.18774,11,11
-0.065637,-1.05801,-0.130156,13,4
-0.714854,-11.4903,1.8234,22,12
-0.0998699,-1.60076,-0.140321,52,5
-0.100893,-1.61263,-0.0846796,63,6
-0.631468,-10.0649,2.32824,40,14
-0.10271,-1.63252,-0.0285521,50,7
-0.60722,-9.62467,2.58405,8,15
-0.105145,-1.63036,0.0285172,41,8
-0.108429,-1.67219,0.0878197,18,9
-0.110136,-1.69394,0.148513,1,10
-0.0421505,-0.646551,-0.102621,14,3
-0.632924,-9.68247,1.19139,2,11
-0.0693299,-1.05777,-0.130156,12,4
-0.651844,-9.9187,1.57436,15,12
-0.105047,-1.59843,-0.140146,54,5
-0.106785,-1.61625,-0.0848889,61,6
-0.595881,-8.99516,2.08125,15,14
-0.107877,-1.62417,-0.0284125,52,7
-0.110836,-1.62999,0.0285172,59,8
-0.113175,-1.65586,0.0869824,42,9
-0.113733,-1.65975,0.14555,9,10
-0.0444071,-0.6464,-0.102621,14,3
-0.0727482,-1.05356,-0.129669,13,4
-0.8443,-12.1964,1.93635,20,12
-0.110351,-1.59408,-0.139798,57,5
-0.111594,-1.60392,-0.0842609,66,6
-0.113825,-1.62778,-0.0284823,54,7
-0.676422,-9.6491,2.59181,66,15
-0.116382,-1.6276,0.0284823,64,8
-0.11738,-1.63354,0.085831,52,9
-0.118237,-1.64146,0.143981,25,10
-0.0480859,-0.665944,-0.10575,13,3
-0.120955,-1.67105,0.205715,1,11
-0.0761381,-1.04934,-0.129182,13,4
-0.116337,-1.59565,-0.139972,78,5
-0.673256,-9.2342,1.79971,42,13
-0.116464,-1.59356,-0.0837375,76,6
-0.65368,-8.92275,2.0655,23,14
-0.118481,-1.61341,-0.028238,59,7
-0.706981,-9.60429,2.58043,53,15
-0.122063,-1.62718,0.0284823,81,8
-0.122481,-1.62515,0.0854123,60,9
-0.0439221,-0.58143,-0.113341,16,2
-0.124102,-1.63903,0.143807,43,10
-0.0520212,-0.68546,-0.108878,12,3
-0.125285,-1.65082,0.203278,15,11
-0.0793488,-1.04313,-0.12845,13,4
-0.121603,-1.59126,-0.139624,82,5
-0.88357,-11.5357,2.24887,12,13
-0.12261,-1.5971,-0.0839469,89,6
-0.687875,-8.93973,2.07,83,14
-0.122885,-1.59704,-0.0279588,73,7
-0.127555,-1.62074,0.0283776,92,8
-0.127682,-1.61874,0.0850983,67,9
-0.0459513,-0.581273,-0.113341,16,2
-0.129193,-1.63064,0.14311,67,10
-0.0512864,-0.645891,-0.102621,14,3
-0.131492,-1.65233,0.203522,49,11
-0.0830138,-1.04085,-0.128207,11,4
-0.840052,-10.5328,1.67354,35,12
-0.127316,-1.59282,-0.139798,56,5
-0.754365,-9.41701,1.83635,9,13
-0.127545,-1.5887,-0.0835282,100,6
-0.7172,-8.91396,2.0646,46,14
-0.129101,-1.60457,-0.0280984,95,7
-1.13517,-14.0781,3.78445,12,15
-0.131784,-1.60636,0.0281333,100,8
-0.13366,-1.62227,0.0853076,76,9
-0.0479801,-0.581109,-0.113341,16,2
-0.132913,-1.60635,0.141018,74,10
-0.0576631,-0.696902,-0.110756,12,3
-0.136642,-1.64793,0.203034,70,11
-0.0853143,-1.02672,-0.1265,6,4
-0.872059,-10.4728,1.66446,29,12
-0.132543,-1.58839,-0.139449,14,5
-1.17006,-14.0219,2.73506,18,13
-0.134144,-1.60419,-0.0843656,100,6
-0.134366,-1.60012,-0.0280286,100,7
-1.18673,-14.1029,3.79222,13,15
-0.13722,-1.6039,0.0280984,100,8
-0.0454423,-0.530062,-0.122823,15,1
-0.139322,-1.62179,0.0853076,89,9
-0.0499068,-0.580947,-0.113341,16,2
-0.138581,-1.60987,0.141367,84,10
-0.0590769,-0.684888,-0.108878,12,3
-0.140855,-1.62964,0.200841,89,11
-0.0880412,-1.01653,-0.125282,4,4
-0.135743,-1.56412,-0.137357,34,5
-1.22342,-14.0686,2.74498,4,13
-0.138009,-1.58382,-0.0833189,100,6
-0.141171,-1.61359,-0.0282729,100,7
-1.22381,-13.9601,3.75495,14,15
-0.143173,-1.60739,0.0281682,100,8
-0.143915,-1.60936,0.0846796,91,9
-0.0519345,-0.580769,-0.113341,16,2
-0.145266,-1.62129,0.142412,91,10
-0.0579346,-0.645328,-0.102621,14,3
-0.14601,-1.62321,0.200109,100,11
-0.0896289,-0.994471,-0.122601,6,4
-0.148346,-1.64276,0.261246,11,12
-0.143531,-1.58944,-0.139624,51,5
-0.904723,-9.99924,1.95159,8,13
-0.143897,-1.5873,-0.0835282,100,6
-0.928998,-10.2278,2.37098,35,14
-0.146621,-1.6111,-0.028238,100,7
-1.04658,-11.4778,3.08823,8,15
-0.149152,-1.61086,0.028238,100,8
-0.149347,-1.60686,0.0845749,100,9
-0.0539613,-0.580584,-0.113341,16,2
-0.150925,-1.62077,0.142412,100,10
-0.0770685,-0.826071,-0.131405,7,3
-0.15149,-1.62071,0.199866,100,11
-0.0919892,-0.982293,-0.121138,9,4
-0.152788,-1.62846,0.259056,29,12
-0.148237,-1.577,-0.138578,78,5
-0.150186,-1.59475,-0.0839469,100,6
-0.151303,-1.60062,-0.0280635,100,7
-0.1542,-1.60436,0.0281333,100,8
-0.0509905,-0.529557,-0.122823,15,1
-0.155338,-1.6103,0.0847843,100,9
-0.0560889,-0.580383,-0.113341,16,2
-0.15456,-1.59641,0.140321,100,10
-0.0799051,-0.823817,-0.131092,15,3
-0.157722,-1.6261,0.200597,100,11
-0.0936896,-0.964184,-0.118944,7,4
-0.157514,-1.61809,0.257491,45,12
-0.152581,-1.56457,-0.137532,87,5
-0.996487,-10.1996,1.99205,41,13
-0.157392,-1.6081,-0.0846796,74,6
-1.04571,-10.665,2.47401,15,14
-0.156499,-1.5961,-0.0279937,100,7
-0.956909,-9.74181,2.62287,19,15
-0.159682,-1.59981,0.0280635,100,8
-0.0529311,-0.529366,-0.122823,15,1
-0.161438,-1.61171,0.0848889,100,9
-0.0581145,-0.580183,-0.113341,16,2
-0.16053,-1.59982,0.140669,100,10
-0.0802118,-0.797982,-0.127025,8,3
-0.162885,-1.61761,0.199622,100,11
-0.0960275,-0.951984,-0.117482,9,4
-0.163642,-1.61946,0.257804,52,12
-0.149628,-1.48077,-0.130211,68,5
-0.95537,-9.43822,1.84398,18,13
-0.162803,-1.60555,-0.0845749,13,6
-0.901162,-8.87179,2.05875,48,14
-0.163158,-1.60348,-0.0281333,100,7
-0.999465,-9.8055,2.64099,28,15
-0.165471,-1.60123,0.0280984,100,8
-0.166857,-1.60915,0.0847843,100,9
-0.0601394,-0.579977,-0.113341,16,2
-0.166525,-1.60322,0.141018,100,10
-0.0838144,-0.805556,-0.128276,8,3
-0.166678,-1.59926,0.197428,100,11
-0.0974949,-0.933873,-0.115288,11,4
-0.169705,-1.62281,0.25843,62,12
-0.115838,-1.10771,-0.0974401,46,5
-0.853317,-8.14613,1.59211,11,13
-0.164238,-1.56525,-0.0824815,21,6
-0.921738,-8.76974,2.03581,50,14
-0.169591,-1.61085,-0.0282729,100,7
-1.06266,-10.0767,2.71501,33,15
-0.170634,-1.59666,0.0280286,100,8
-0.0566255,-0.528984,-0.122823,15,1
-0.171342,-1.60065,0.0843656,100,9
-0.171839,-1.60265,-0.313308,1,2
-0.172546,-1.60659,0.141367,100,10
-0.0872598,-0.811151,-0.129215,16,3
-0.171834,-1.59472,0.196941,100,11
-0.0981979,-0.909844,-0.112364,13,4
-0.175722,-1.62813,0.259368,67,12
-0.120775,-1.1172,-0.0983117,52,5
-0.884706,-8.17042,1.59745,13,13
-0.169055,-1.55871,-0.0821675,52,6
-0.957394,-8.81297,2.0466,34,14
-0.174068,-1.60233,-0.0281333,100,7
-1.11885,-10.2824,2.77143,118,15
-0.175928,-1.59609,0.0280286,100,8
-0.177148,-1.60202,0.0844702,100,9
-0.178153,-1.60598,0.141367,100,10
-0.0938694,-0.846197,-0.134847,13,3
-0.177999,-1.60204,0.197916,100,11
-0.0996777,-0.895703,-0.110657,15,4
-0.18031,-1.61769,0.257804,75,12
-0.124232,-1.11281,-0.0979631,27,5
-0.912884,-8.1772,1.59936,7,13
-0.175332,-1.56806,-0.0826908,100,6
-0.981192,-8.76133,2.03536,15,14
-0.178546,-1.59177,-0.0279588,100,7
-0.181724,-1.59745,0.0280635,100,8
-0.0602248,-0.528586,-0.122823,15,1
-0.182739,-1.6014,0.0844702,100,9
-0.18212,-1.5935,0.140321,100,10
-0.0948009,-0.828201,-0.132031,14,3
-0.184268,-1.60732,0.198647,100,11
-0.100766,-0.8776,-0.108464,17,4
-0.185053,-1.6092,0.256553,77,12
-0.183551,-1.59125,-0.0839469,100,6
-1.38458,-11.9849,2.78534,27,14
-0.184561,-1.59511,-0.0280286,100,7
-1.58043,-13.6384,3.67885,29,15
-0.185668,-1.58291,0.0278191,100,8
-0.0620695,-0.528373,-0.122823,15,1
-0.189495,-1.61067,0.0849936,100,9
-0.188333,-1.60079,-0.313308,2,2
-0.188381,-1.59879,0.140844,100,10
-0.0956077,-0.810209,-0.129215,16,3
-0.19011,-1.60864,0.198891,100,11
-0.103595,-0.875272,-0.10822,17,4
-0.190669,-1.60855,0.256553,80,12
-0.125706,-1.0605,-0.093431,5,5
-1.07849,-9.08498,1.77834,40,13
-0.189104,-1.5906,-0.0839469,100,6
-1.42987,-12.0091,2.79209,12,14
-0.190838,-1.60042,-0.0281333,100,7
-1.63329,-13.6769,3.69076,22,15
-0.191193,-1.58225,0.0278191,100,8
-0.0639136,-0.528153,-0.122823,15,1
-0.194875,-1.60801,0.0848889,100,9
-0.19203,-1.58453,-0.310255,3,2
-0.1942,-1.6001,0.141018,100,10
-0.0991504,-0.815753,-0.130153,15,3
-0.194285,-1.59614,0.197428,100,11
-0.105929,-0.868993,-0.107489,13,4
-0.196761,-1.61179,0.257178,75,12
-0.129165,-1.05807,-0.0932566,7,5
-1.11735,-9.13962,1.78979,39,13
-0.193199,-1.57804,-0.0833189,100,6
-1.07028,-8.7293,2.03041,22,14
-0.196911,-1.60371,-0.0282031,100,7
-1.66759,-13.5618,3.66125,22,15
-0.198196,-1.59348,0.0280286,100,8
-0.0657567,-0.527927,-0.122823,15,1
-0.198757,-1.59345,0.0841562,100,9
-0.199504,-1.59944,-0.313308,2,2
-0.201266,-1.61128,0.142064,100,10
-0.101752,-0.813442,-0.129841,15,3
-0.199856,-1.59546,0.197428,100,11
-0.105256,-0.839073,-0.103833,10,4
-0.202879,-1.61502,0.257804,77,12
-0.132113,-1.05169,-0.0927337,6,5
-1.16738,-9.27981,1.81803,36,13
-0.199955,-1.58726,-0.0838422,33,6
-1.09415,-8.67331,2.01826,36,14
-0.202257,-1.60103,-0.0281682,100,7
-1.6834,-13.3068,3.59396,8,15
-0.204772,-1.60071,0.0281682,100,8
-0.0675991,-0.527694,-0.122823,15,1
-0.204572,-1.59473,0.0842609,100,9
-0.204087,-1.59094,-0.311782,3,2
-0.206889,-1.61056,0.142064,100,10
-0.103583,-0.805245,-0.128589,16,3
-0.206184,-1.60066,0.19816,100,11
-0.1092,-0.846576,-0.104808,10,4
-0.20725,-1.6045,0.25624,82,12
-0.129658,-1.00379,-0.0885502,5,5
-1.19674,-9.25231,1.81345,43,13
-1.15175,-8.88008,2.0673,71,14
-0.207329,-1.59635,-0.0280984,34,7
-1.58633,-12.1974,3.2958,6,15
-0.209836,-1.59602,0.0280984,100,8
-0.0694407,-0.527455,-0.122823,15,1
-0.211181,-1.60192,0.0846796,100,9
-0.206046,-1.56297,-0.306439,3,2
-0.210424,-1.59403,0.140669,100,10
-0.106911,-0.808795,-0.129215,24,3
-0.212552,-1.60583,0.198891,100,11
-0.109807,-0.828479,-0.102614,11,4
-0.21207,-1.5979,0.255301,80,12
-0.131588,-0.991486,-0.0875044,3,5
-1.23808,-9.31619,1.82681,24,13
-0.147537,-1.10869,-0.0586163,8,6
-1.14335,-8.58046,1.99847,47,14
-0.21052,-1.57777,-0.0277842,10,7
-3.17106,-23.7344,6.41612,28,15
-0.213266,-1.57942,0.0278191,49,8
-0.0710203,-0.525278,-0.122373,15,1
-0.217308,-1.60513,0.0848889,96,9
-0.214135,-1.5817,-0.310255,3,2
-0.215184,-1.58736,0.140146,100,10
-0.106545,-0.784928,-0.12546,35,3
-0.218424,-1.60704,0.199135,100,11
-0.113501,-0.833991,-0.103345,5,4
-0.219246,-1.60889,0.257178,80,12
-0.132358,-0.971279,-0.0857612,3,5
-0.150595,-1.10223,-0.0583023,12,6
-1.19417,-8.72895,2.03401,42,14
-0.219283,-1.6008,-0.0282031,6,7
-1.379,-10.0539,2.71915,3,15
-0.219876,-1.58659,0.0279588,9,8
-0.0728535,-0.525027,-0.122373,15,1
-0.224559,-1.61624,0.085517,42,9
-0.220735,-1.58872,-0.311782,1,2
-0.221547,-1.59252,0.140669,100,10
-0.109557,-0.786508,-0.125773,35,3
-0.221564,-1.58858,0.196941,100,11
-0.11751,-0.841454,-0.10432,5,4
-0.224861,-1.60811,0.257178,77,12
-0.132161,-0.945159,-0.0834952,4,5
-1.44709,-10.3359,2.02868,21,13
-0.149451,-1.0661,-0.0564182,17,6
-1.2035,-8.5742,1.99892,52,14
-0.224591,-1.59805,-0.0281682,5,7
-1.39578,-9.91893,2.68395,2,15
-0.225408,-1.5838,0.0279239,6,8
-0.0747773,-0.524756,-0.122373,15,1
-0.229072,-1.60753,0.0850983,9,9
-0.229355,-1.60551,0.14189,54,10
-0.112718,-0.788056,-0.126086,34,3
-0.227948,-1.59169,0.197428,100,11
-0.117212,-0.817438,-0.101395,6,4
-0.230473,-1.60732,0.257178,77,12
-0.13704,-0.954529,-0.0843668,2,5
-1.20451,-8.37942,1.64554,12,13
-0.149089,-1.03589,-0.0548481,10,6
-1.23158,-8.54659,1.99352,73,14
-0.231309,-1.60517,-0.0283078,5,7
-0.229505,-1.57513,0.0277842,5,8
-0.076517,-0.524505,-0.122373,15,1
-0.234971,-1.6087,0.0852029,6,9
-0.114472,-0.781815,-0.125148,35,3
-0.2338,-1.59485,0.197916,93,11
-0.117616,-0.801332,-0.0994454,6,4
-0.235508,-1.6026,0.256553,75,12
-0.13747,-0.934334,-0.0826236,2,5
-1.232,-8.37344,1.64516,3,13
-0.149031,-1.01168,-0.053592,8,6
-0.232237,-1.5727,-0.0277493,6,7
-0.236773,-1.58618,0.0279937,11,8
-0.241176,-1.61182,0.0854123,5,9
-0.23644,-1.57829,0.139624,5,10
-0.115736,-0.771643,-0.123583,37,3
-0.238482,-1.58813,0.197185,15,11
-0.119232,-0.793065,-0.0984704,6,4
-0.241983,-1.60763,0.257491,32,12
-0.138356,-0.918087,-0.0812292,2,5
-0.150178,-0.995353,-0.0527546,8,6
-1.2938,-8.56498,1.99981,30,14
-0.165361,-1.0934,-0.0193024,6,7
-3.59811,-23.7633,6.43994,14,15
-1.61428,-10.5617,0.186496,10,8
-0.0801769,-0.523959,-0.122373,15,1
-1.50984,-9.85533,0.522522,8,9
-0.244945,-1.59514,0.141192,6,10
-0.114061,-0.741927,-0.11889,20,3
-0.246739,-1.60495,0.199378,7,11
-0.128039,-0.831883,-0.103345,5,4
-0.143382,-0.929413,-0.082275,2,5
-1.282,-8.30038,1.63256,20,13
-0.151383,-0.979006,-0.0519173,7,6
-1.3544,-8.74891,2.04391,17,14
-0.172848,-1.11653,-0.0197212,19,7
-1.87794,-12.1168,3.28545,12,15
-1.67464,-10.694,0.18894,16,8
-0.0820968,-0.523661,-0.122373,15,1
-1.53804,-9.81054,0.520429,17,9
-0.249584,-1.58837,0.140669,7,10
-0.117878,-0.74933,-0.120142,30,3
-0.251075,-1.59423,0.19816,7,11
-0.125383,-0.796135,-0.0989579,6,4
-0.254431,-1.6137,0.258743,5,12
-0.141034,-0.893482,-0.0791374,3,5
-1.45622,-9.21503,1.81345,75,13
-0.147309,-0.931126,-0.0494052,8,6
-2.04847,-12.9481,3.02649,10,14
-0.177057,-1.11789,-0.0197561,30,7
-0.0838328,-0.523386,-0.122373,15,1
-1.56014,-9.74031,0.516975,44,9
-1.5392,-9.58815,0.849594,30,10
-0.116914,-0.727481,-0.1167,21,3
-0.25573,-1.58947,0.197672,6,11
-0.121716,-0.756517,-0.0940831,7,4
-0.259466,-1.6109,0.25843,4,12
-0.147802,-0.916614,-0.0812292,2,5
-1.50523,-9.32451,1.83596,78,13
-0.14944,-0.924717,-0.0490911,8,6
-1.4808,-9.16297,2.14288,24,14
-0.17725,-1.09559,-0.0193722,16,7
-1.61445,-9.96789,2.70569,44,15
-1.59058,-9.71312,0.515823,65,9
-1.36471,-8.32466,0.738035,9,10
-0.121245,-0.738785,-0.118577,20,3
-1.4672,-8.93031,1.1112,20,11
-0.125645,-0.763922,-0.0950581,7,4
-0.154889,-0.939682,-0.0833209,2,5
-1.55119,-9.40055,1.85199,57,13
-0.154946,-0.937984,-0.0498238,7,6
-1.51817,-9.19043,2.15053,31,14
-0.173569,-1.04958,-0.0185694,10,7
-1.63535,-9.87834,2.68292,37,15
-1.42719,-8.51943,0.452706,21,9
-1.38829,-8.27834,0.734374,43,10
-0.120355,-0.716906,-0.115136,22,3
-1.57526,-9.37317,1.16702,7,11
-0.131078,-0.779117,-0.097008,7,4
-1.45073,-8.61381,1.38351,33,12
-0.146408,-0.868381,-0.0770457,4,5
-1.39254,-8.2507,1.62646,37,13
-0.156053,-0.923624,-0.0490911,8,6
-1.55899,-9.22708,2.16043,88,14
-0.17508,-1.03514,-0.018325,9,7
-1.67574,-9.89704,2.68965,11,15
-0.192722,-1.12747,0.0199656,1,8
-0.0894002,-0.522464,-0.122373,15,1
-1.76953,-10.3413,0.549842,33,9
-1.41963,-8.27908,0.734897,20,10
-0.120308,-0.700885,-0.112633,11,3
-1.62036,-9.42994,1.17482,19,11
-0.131108,-0.763004,-0.0950581,7,4
-1.47811,-8.59311,1.381,36,12
-0.149438,-0.867864,-0.0770457,4,5
-1.41166,-8.18968,1.61539,7,13
-0.157918,-0.915201,-0.0486724,9,6
-1.59284,-9.23118,2.16268,19,14
-0.172226,-0.997081,-0.0176618,6,7
-1.70698,-9.87209,2.68447,8,15
-0.191308,-1.09728,0.019442,7,8
-0.0911323,-0.522164,-0.122373,15,1
-1.49579,-8.57051,0.455951,36,9
-1.45188,-8.30181,0.737338,52,10
-0.125357,-0.716049,-0.115136,11,3
-1.64922,-9.41083,1.17311,63,11
-0.134323,-0.766475,-0.0955456,7,4
-2.13805,-12.1876,1.95981,45,12
-0.164721,-0.938009,-0.0833209,2,5
-0.156452,-0.889101,-0.0473117,5,6
-2.09187,-11.8878,2.78669,27,14
-0.177613,-1.00832,-0.0178713,4,7
-0.197046,-1.10845,0.0196514,16,8
-0.0928633,-0.521859,-0.122373,15,1
-0.122177,-0.684515,-0.11013,12,3
-0.137696,-0.76991,-0.0960331,7,4
-2.17918,-12.1723,1.95856,15,12
-1.67165,-9.32803,1.84207,12,13
-0.160458,-0.894475,-0.0476257,10,6
-2.12268,-11.821,2.77275,8,14
-0.178301,-0.991949,-0.017592,1,7
-0.201628,-1.11169,0.0197212,16,8
-0.0946844,-0.521532,-0.122373,15,1
-1.53439,-8.43483,0.750062,50,10
-0.126689,-0.695745,-0.112007,11,3
-1.63315,-8.95998,1.11827,17,11
-0.143946,-0.788953,-0.0984704,6,4
-1.55516,-8.51525,1.37099,10,12
-0.171102,-0.936866,-0.0833209,2,5
-1.5132,-8.27733,1.63561,17,13
-0.159624,-0.872298,-0.0464743,11,6
-0.179599,-0.979519,-0.0173826,1,7
-0.19896,-1.07559,0.0190929,10,8
-0.0965043,-0.521198,-0.122373,15,1
-0.211831,-1.14294,0.0609191,1,9
-1.56128,-8.41571,0.748842,67,10
-0.127674,-0.687529,-0.110756,12,3
-1.64918,-8.87226,1.10804,10,11
-0.140163,-0.753317,-0.0940831,7,4
-0.174535,-0.936233,-0.0833209,2,5
-1.54173,-8.26208,1.63371,22,13
-0.159887,-0.856001,-0.045637,6,6
-2.10461,-11.2676,2.64632,28,14
-0.180812,-0.967093,-0.0171732,1,7
-1.84115,-9.83813,2.68188,12,15
-0.195111,-1.03359,0.0183599,6,8
-0.098414,-0.520841,-0.122373,15,1
-0.216761,-1.14608,0.0611284,3,9
-2.02646,-10.7043,0.953135,29,10
-0.130193,-0.687057,-0.110756,12,3
-1.63545,-8.62236,1.07757,20,11
-0.142183,-0.748898,-0.0935957,7,4
-0.159349,-0.837722,-0.0746053,4,5
-1.57347,-8.26409,1.63523,15,13
-0.161528,-0.847561,-0.0452183,6,6
-2.14151,-11.2369,2.64093,42,14
-0.181357,-0.950709,-0.0168939,2,7
-2.06162,-10.7972,2.94536,9,15
-0.196629,-1.02108,0.0181505,6,8
-0.100691,-0.52239,-0.122823,15,1
-0.219249,-1.13747,0.0607097,9,9
-0.14765,-0.765299,-0.151502,9,2
-2.07286,-10.7339,0.956447,10,10
-0.137959,-0.713728,-0.115136,11,3
-1.65233,-8.5403,1.06806,26,11
-0.146681,-0.758142,-0.0948144,15,4
-1.67465,-8.64754,1.39508,3,12
-0.162962,-0.83915,-0.0447996,7,6
-2.112,-10.8754,2.55769,22,14
-2.08528,-10.7179,2.92569,17,15
-0.19386,-0.989026,0.017592,6,8
-0.221097,-1.12694,0.0601864,13,9
-2.10882,-10.7289,0.956621,2,10
-0.132699,-0.674502,-0.108878,12,3
-2.02237,-10.2702,1.28523,33,11
-0.144592,-0.734279,-0.0918895,24,4
-1.85712,-9.40497,1.86344,45,13
-0.167293,-0.846442,-0.0452183,6,6
-2.16883,-10.9735,2.58244,12,14
-2.13807,-10.7981,2.9495,21,15
-0.195183,-0.978573,0.0174175,4,8
-0.104153,-0.521711,-0.122823,15,1
-0.224638,-1.1242,0.0600817,13,9
-0.134935,-0.674058,-0.108878,12,3
-2.43744,-12.165,1.52337,38,11
-0.147935,-0.737662,-0.092377,24,4
-2.57552,-12.8309,2.07276,10,12
-1.88907,-9.40261,1.8642,9,13
-0.164586,-0.81847,-0.0437529,7,6
-2.13522,-10.6086,2.49831,60,14
-0.191138,-0.948791,-0.0168939,2,7
-1.92984,-9.57095,2.61614,23,15
-0.19223,-0.94653,0.016859,2,8
-0.225375,-1.10775,0.0592443,10,9
-0.141299,-0.694507,-0.137764,12,2
-0.145966,-0.716166,-0.115762,11,3
-2.49139,-12.2129,1.53044,31,11
-0.148524,-0.727417,-0.0911583,25,4
-0.171448,-0.837457,-0.0447996,7,6
-2.17223,-10.6011,2.49831,15,14
-0.174361,-0.850172,-0.0151487,3,7
-1.97412,-9.61715,2.63064,77,15
-0.198771,-0.96152,0.0171383,1,8
-0.107793,-0.520971,-0.122823,15,1
-0.22276,-1.07567,0.0575696,7,9
-0.158055,-0.763218,-0.151502,9,2
-0.239388,-1.15495,0.103192,1,10
-0.144452,-0.69631,-0.112633,11,3
-2.54087,-12.2371,1.53458,24,11
-0.153081,-0.736612,-0.092377,24,4
-1.8086,-8.69519,1.40666,71,12
-1.93346,-9.28732,1.84398,15,13
-0.170296,-0.817301,-0.0437529,7,6
-0.16507,-0.790833,-0.0141015,4,7
-0.199656,-0.949079,0.0169288,1,8
-0.109611,-0.520592,-0.122823,15,1
-0.222395,-1.05534,0.0565228,7,9
-0.144525,-0.685819,-0.136238,12,2
-0.239306,-1.13461,0.101449,5,10
-0.150962,-0.715129,-0.115762,11,3
-2.35501,-11.1464,1.39882,13,11
-0.156884,-0.741899,-0.0931082,31,4
-1.85449,-8.76226,1.41855,44,12
-0.174805,-0.824517,-0.0441716,7,6
-2.27693,-10.7305,2.5325,41,14
-0.159521,-0.751131,-0.0134034,10,7
-0.208827,-0.975752,0.0174175,1,8
-0.111428,-0.520206,-0.122823,15,1
-0.219379,-1.02331,0.0548481,5,9
-0.146095,-0.681471,-0.135474,12,2
-0.244519,-1.13961,0.101972,15,10
-0.146821,-0.683696,-0.110756,12,3
-2.36136,-10.9867,1.3798,19,11
-0.149453,-0.69477,-0.0872585,27,4
-1.90294,-8.83877,1.432,83,12
-2.06359,-9.57683,1.90427,43,13
-0.173472,-0.804378,-0.0431248,8,6
-2.3152,-10.7263,2.5334,76,14
-0.162142,-0.750569,-0.0134034,5,7
-0.218695,-1.00303,0.0538014,4,9
-0.141894,-0.650241,-0.129368,13,2
-0.245719,-1.12508,0.100752,15,10
-0.153545,-0.702452,-0.113884,11,3
-2.38571,-10.9144,1.37176,3,11
-0.152726,-0.698123,-0.0877459,36,4
-1.94223,-8.87067,1.43826,49,12
-2.3935,-10.9135,2.17179,7,13
-0.177275,-0.807638,-0.0433342,7,6
-0.155321,-0.70703,-0.0126355,6,7
-0.115147,-0.519395,-0.122823,15,1
-0.22237,-1.00222,0.0538014,3,9
-0.144163,-0.649742,-0.129368,13,2
-0.24187,-1.08921,0.0976144,11,10
-0.161995,-0.728908,-0.118264,10,3
-0.149676,-0.672369,-0.0845773,19,4
-1.96829,-8.83457,1.43357,28,12
-0.177483,-0.795319,-0.0427061,8,6
-2.18928,-9.8023,2.3188,1,14
-0.169253,-0.757196,-0.0135431,10,7
-0.116959,-0.51899,-0.122823,15,1
-0.224549,-0.995591,0.0534874,2,9
-0.148273,-0.65687,-0.130895,13,2
-0.238397,-1.05527,0.0946511,8,10
-0.149855,-0.6628,-0.107627,12,3
-0.154651,-0.683459,-0.0860398,19,4
-0.177744,-0.782977,-0.0420781,8,6
-2.42595,-10.6779,2.528,30,14
-0.163921,-0.721501,-0.0129148,5,7
-2.16691,-9.52999,2.61873,38,15
-0.224282,-0.979266,0.05265,2,9
-0.152089,-0.664055,-0.132421,26,2
-0.23726,-1.0351,0.092908,6,10
-0.153703,-0.670028,-0.108878,12,3
-0.264734,-1.15312,0.145268,2,11
-0.160917,-0.700355,-0.0882334,9,4
-2.04741,-8.90375,1.44702,53,12
-2.928,-12.7231,2.53776,7,13
-0.181996,-0.7902,-0.0424968,8,6
-2.48968,-10.8012,2.55904,22,14
-0.170808,-0.740438,-0.0132638,5,7
-2.20198,-9.53781,2.62287,12,15
-0.120489,-0.518182,-0.122823,15,1
-0.228151,-0.980422,0.0527546,1,9
-0.151736,-0.652047,-0.130132,27,2
-0.236804,-1.0168,0.0913392,5,10
-0.169493,-0.727201,-0.118264,10,3
-0.267856,-1.14832,0.144781,10,11
-0.166971,-0.715253,-0.0901833,8,4
-2.10949,-9.02928,1.46861,18,12
-6.71492,-28.7194,5.73305,17,13
-0.182933,-0.781781,-0.0420781,8,6
-2.43184,-10.3845,2.46231,24,14
-0.182517,-0.778776,-0.0139619,14,7
-0.232491,-0.983507,0.052964,1,9
-0.151301,-0.64005,-0.127842,14,2
-0.23393,-0.988824,0.0888989,5,10
-0.149275,-0.630493,-0.102621,14,3
-0.273236,-1.15317,0.145512,20,11
-1.9923,-8.39529,1.36661,9,12
-6.39324,-26.9194,5.37814,7,13
-0.181042,-0.761706,-0.0410314,9,6
-2.29265,-9.63848,2.2873,63,14
-0.175973,-0.739228,-0.0132638,22,7
-2.23672,-9.38878,2.58612,12,15
-0.228463,-0.951617,0.0512892,1,9
-0.155368,-0.647154,-0.129368,13,2
-0.228537,-0.951194,0.0855869,3,10
-0.174565,-0.726,-0.118264,10,3
-0.276331,-1.14835,0.145025,18,11
-6.49269,-26.9198,5.38272,19,13
-0.181826,-0.753303,-0.0406127,9,6
-2.34138,-9.69293,2.30215,27,14
-0.176202,-0.728891,-0.0130893,28,7
-0.125909,-0.516892,-0.122823,15,1
-0.247866,-1.01679,0.0548481,1,9
-0.154836,-0.635164,-0.127079,14,2
-0.233745,-0.958133,0.0862842,3,10
-0.153673,-0.629436,-0.102621,14,3
-0.275626,-1.1281,0.142587,12,11
-2.80322,-11.4472,2.29085,6,13
-0.186356,-0.760424,-0.0410314,9,6
-2.36035,-9.62413,2.28775,35,14
-0.182559,-0.743807,-0.0133685,21,7
-2.37456,-9.66748,2.66739,49,15
-0.127713,-0.516449,-0.122823,15,1
-0.269646,-1.08959,0.0588256,1,9
-0.158939,-0.642242,-0.128605,28,2
-0.23613,-0.953443,0.0859356,3,10
-0.155869,-0.628896,-0.102621,14,3
-0.267137,-1.07703,0.13625,8,11
-0.295729,-1.19053,0.194292,2,12
-0.186116,-0.748139,-0.0404034,9,6
-2.6957,-10.828,2.57614,82,14
-0.180803,-0.725702,-0.0130544,5,7
-2.40549,-9.64788,2.66428,77,15
-0.273258,-1.08869,0.0588256,1,9
-0.165963,-0.660725,-0.132421,13,2
-0.241885,-0.962274,0.0868071,1,10
-0.158063,-0.628348,-0.102621,14,3
-0.263626,-1.04722,0.132594,9,11
-0.293884,-1.16656,0.190537,5,12
-2.91669,-11.5606,2.31757,14,13
-0.186771,-0.739739,-0.0399847,10,6
-0.188108,-0.744486,-0.0134034,5,7
-2.44315,-9.66233,2.6705,57,15
-0.148529,-0.583555,-0.13902,13,1
-0.259309,-1.01805,0.0550574,1,9
-0.159539,-0.625898,-0.125552,29,2
-0.239333,-0.938258,0.0847154,2,10
-0.160146,-0.62782,-0.102621,14,3
-0.260223,-1.01941,0.129182,6,11
-0.294041,-1.15021,0.188034,11,12
-2.59348,-10.1377,2.03402,4,13
-0.186251,-0.727507,-0.0393566,10,6
-2.5517,-9.95988,2.37368,1,14
-0.204611,-0.798063,-0.0143808,4,7
-2.45382,-9.56392,2.64565,18,15
-0.150565,-0.583033,-0.13902,13,1
-0.162706,-0.629138,-0.126316,28,2
-0.241446,-0.933601,0.0843668,2,10
-0.162337,-0.627257,-0.102621,14,3
-0.264775,-1.02234,0.129669,4,11
-0.300038,-1.15683,0.189286,11,12
-0.19796,-0.761614,-0.0412407,9,6
-0.1933,-0.743155,-0.0134034,5,7
-2.47745,-9.51791,2.6353,71,15
-0.15962,-0.608868,-0.145318,12,1
-0.284833,-1.08572,0.0588256,1,9
-0.158032,-0.601953,-0.120973,30,2
-0.26915,-1.02521,0.0927337,1,10
-0.177685,-0.676332,-0.110756,12,3
-0.262464,-0.998323,0.126744,4,11
-0.29472,-1.11942,0.183341,8,12
-0.194636,-0.737709,-0.0399847,10,6
-3.08823,-11.705,2.79479,78,14
-2.57944,-9.76278,2.70569,22,15
-0.16185,-0.608279,-0.145318,12,1
-0.161142,-0.605192,-0.121736,30,2
-0.262646,-0.985712,0.0892475,1,10
-0.16693,-0.626051,-0.102621,14,3
-0.254862,-0.955159,0.121382,2,11
-0.293529,-1.0993,0.180213,8,12
-0.186884,-0.698437,-0.0378912,11,6
-2.65731,-9.92415,2.37188,64,14
-2.597,-9.69214,2.68861,42,15
-0.163867,-0.607739,-0.145318,12,1
-0.168371,-0.62358,-0.125552,14,2
-0.169005,-0.625494,-0.102621,14,3
-0.258546,-0.956224,0.121626,2,11
-0.289105,-1.06776,0.175207,6,12
-0.324482,-1.1976,0.241183,1,13
-0.196517,-0.724801,-0.0393566,10,6
-3.34694,-12.3358,2.95091,19,14
-3.17937,-11.702,3.24921,33,15
-0.140293,-0.513175,-0.122823,15,1
-0.168366,-0.615443,-0.124026,14,2
-0.176407,-0.643952,-0.10575,13,3
-0.259783,-0.947658,0.120651,2,11
-0.287078,-1.04579,0.171765,5,12
-0.331261,-1.20592,0.243091,5,13
-0.191634,-0.697149,-0.0378912,11,6
-3.40083,-12.3635,2.96036,8,14
-3.1612,-11.4767,3.18969,17,15
-0.299964,-1.08164,0.0588256,1,9
-0.166421,-0.599688,-0.120973,15,2
-0.190402,-0.685172,-0.112633,11,3
-0.268405,-0.965872,0.123088,2,11
-0.28649,-1.02956,0.169262,5,12
-0.33199,-1.19146,0.240419,12,13
-0.189896,-0.681051,-0.0370539,11,6
-3.42779,-12.2853,2.94461,8,14
-2.69731,-9.66069,2.68758,20,15
-0.303738,-1.08058,0.0588256,1,9
-0.179145,-0.636902,-0.128605,14,2
-0.175655,-0.623659,-0.102621,14,3
-0.276251,-0.980167,0.125038,2,11
-0.286329,-1.01525,0.167072,4,12
-0.330277,-1.16951,0.236222,12,13
-0.179237,-0.634256,-0.0345417,26,6
-2.78607,-9.85233,2.36379,1,14
-3.4669,-12.2518,3.41175,11,15
-0.28015,-0.983474,0.053592,1,9
-0.181367,-0.636272,-0.128605,14,2
-0.177722,-0.623073,-0.102621,14,3
-0.276231,-0.967792,0.123576,2,11
-0.284443,-0.995248,0.163943,4,12
-0.326596,-1.14199,0.230879,7,13
-0.179142,-0.625978,-0.034123,27,6
-0.353011,-1.23272,0.296036,1,14
-3.39676,-11.8459,3.30201,8,15
-0.296874,-1.02854,0.0561041,1,9
-0.18892,-0.65453,-0.132421,13,2
-0.176605,-0.611063,-0.100744,14,3
-0.293946,-1.0164,0.129913,2,11
-0.289014,-0.998044,0.164569,3,12
-0.325116,-1.12198,0.227063,5,13
-0.179101,-0.617676,-0.0337044,42,6
-0.364372,-1.25581,0.301884,3,14
-3.0414,-10.4686,2.92103,3,15
-0.315037,-1.07734,0.0588256,1,9
-0.181286,-0.619949,-0.125552,14,2
-0.186508,-0.636983,-0.105124,13,3
-0.281931,-0.961015,0.158625,2,12
-0.323501,-1.102,0.223247,5,13
-0.183507,-0.624712,-0.034123,27,6
-0.357212,-1.21527,0.292436,8,14
-3.12756,-10.6265,2.96814,0,15
-0.151009,-0.510124,-0.122823,15,1
-0.318796,-1.07624,0.0588256,1,9
-0.176757,-0.596723,-0.120973,15,2
-0.176373,-0.594664,-0.0982409,15,3
-0.281908,-0.948664,0.156747,2,12
-0.318393,-1.07076,0.217141,5,13
-0.186826,-0.627896,-0.0343324,27,6
-0.362008,-1.21588,0.292886,11,14
-3.10117,-10.4027,2.90861,37,15
-0.183353,-0.611146,-0.124026,14,2
-0.175038,-0.582694,-0.0963636,15,3
-0.292049,-0.970372,0.160502,2,12
-0.314202,-1.04332,0.211798,4,13
-0.189017,-0.62724,-0.0343324,54,6
-0.361187,-1.19782,0.288837,11,14
-0.154566,-0.509058,-0.122823,15,1
-0.206031,-0.678127,-0.137764,12,2
-0.188569,-0.619876,-0.102621,14,3
-0.285068,-0.935335,0.15487,2,12
-0.312688,-1.02532,0.208363,4,13
-0.188873,-0.618935,-0.0339137,27,6
-0.357398,-1.17046,0.282539,8,14
-0.192233,-0.624863,-0.127079,14,2
-0.19771,-0.641868,-0.106375,13,3
-0.290661,-0.941884,0.156122,2,12
-0.315107,-1.02047,0.2076,4,13
-0.19516,-0.63163,-0.0346464,26,6
-0.349394,-1.13011,0.273091,8,14
-0.202586,-0.65043,-0.132421,13,2
-0.188187,-0.603458,-0.100118,14,3
-0.290413,-0.929551,0.154244,1,12
-0.319839,-1.02311,0.208363,3,13
-0.200345,-0.640476,-0.0351698,13,6
-0.34577,-1.1047,0.267242,7,14
-0.386483,-1.23327,0.3463,2,15
-0.194229,-0.616016,-0.125552,14,2
-0.190293,-0.602798,-0.100118,14,3
-0.303186,-0.958667,0.15925,1,12
-0.310377,-0.980807,0.199968,2,13
-0.207402,-0.655005,-0.0360071,25,6
-0.344326,-1.08677,0.263193,5,14
-0.377935,-1.1914,0.334912,5,15
-0.192501,-0.602096,-0.100118,14,3
-0.299467,-0.934974,0.155496,1,12
-0.309775,-0.966576,0.197297,2,13
-0.210412,-0.656142,-0.0361118,24,6
-0.344735,-1.07437,0.260493,5,14
-0.387026,-1.20472,0.339053,10,15
-0.163516,-0.506254,-0.122823,15,1
-0.183655,-0.567591,-0.0944864,16,3
-0.331967,-1.02412,0.170514,1,12
-0.310725,-0.958019,0.19577,2,13
-0.209618,-0.645905,-0.0355885,25,6
-0.338853,-1.0435,0.253295,5,14
-0.384658,-1.18315,0.333359,11,15
-0.198335,-0.606449,-0.124026,14,2
-0.186865,-0.570701,-0.0951122,15,3
-0.313209,-0.955439,0.15925,1,12
-0.31223,-0.951332,0.194625,1,13
-0.206886,-0.629989,-0.0347511,13,6
-0.333368,-1.01454,0.246546,4,14
-0.382546,-1.16352,0.328183,9,15
-0.166958,-0.505129,-0.122823,15,1
-0.202918,-0.613209,-0.125552,14,2
-0.194965,-0.588831,-0.0982409,15,3
-0.316542,-0.95434,0.15925,1,12
-0.31291,-0.942839,0.193099,1,13
-0.216527,-0.652046,-0.0360071,12,6
-0.33243,-1.00049,0.243397,4,14
-0.37258,-1.12002,0.316277,6,15
-0.16872,-0.504543,-0.122823,15,1
-0.202564,-0.60505,-0.124026,14,2
-0.19451,-0.580654,-0.0969894,15,3
-0.313862,-0.934241,0.191572,1,13
-0.222734,-0.662607,-0.0366352,12,6
-0.337783,-1.00486,0.244747,4,14
-0.370325,-1.1004,0.3111,6,15
-0.187138,-0.55224,-0.113341,16,2
-0.191562,-0.564971,-0.0944864,16,3
-0.317284,-0.933085,0.191572,1,13
-0.220015,-0.646659,-0.0357978,12,6
-0.33142,-0.974098,0.237548,4,14
-0.366881,-1.07709,0.304889,4,15
-0.201796,-0.588727,-0.120973,15,2
-0.185296,-0.539976,-0.0904191,33,3
-0.312877,-0.909693,0.186993,1,13
-0.220971,-0.64211,-0.0355885,12,6
-0.33355,-0.96925,0.236649,2,14
-0.365605,-1.06119,0.300748,4,15
-0.174082,-0.502719,-0.122823,15,1
-0.203747,-0.588055,-0.120973,15,2
-0.194207,-0.559887,-0.0938607,16,3
-0.314603,-0.904942,0.18623,1,13
-0.21785,-0.626283,-0.0347511,13,6
-0.331001,-0.951574,0.232599,2,14
-0.368486,-1.05815,0.30023,4,15
-0.175748,-0.502139,-0.122823,15,1
-0.200605,-0.572518,-0.11792,16,2
-0.196716,-0.561105,-0.0941736,32,3
-0.320364,-0.911247,0.187756,1,13
-0.224011,-0.636823,-0.0353791,12,6
-0.33432,-0.950412,0.232599,1,14
-0.365761,-1.03863,0.295054,4,15
-0.187995,-0.530882,-0.130022,14,1
-0.205326,-0.57918,-0.119446,15,2
-0.19745,-0.556656,-0.0935478,32,3
-0.225004,-0.632234,-0.0351698,13,6
-0.333881,-0.938165,0.2299,1,14
-0.357895,-1.00453,0.285736,4,15
-0.18994,-0.53019,-0.130022,14,1
-0.204697,-0.571068,-0.11792,16,2
-0.194819,-0.542914,-0.0913577,33,3
-0.22721,-0.631445,-0.0351698,13,6
-0.333855,-0.927826,0.22765,1,14
-0.352888,-0.979648,0.279007,3,15
-0.181084,-0.500239,-0.122823,15,1
-0.211938,-0.585153,-0.120973,15,2
-0.195945,-0.540408,-0.0910449,33,3
-0.229302,-0.630688,-0.0351698,13,6
-0.336264,-0.924882,0.227201,1,14
-0.353492,-0.971211,0.276936,3,15
-0.182742,-0.499636,-0.122823,15,1
-0.212528,-0.58076,-0.12021,15,2
-0.202492,-0.552739,-0.0932349,16,3
-0.231393,-0.629924,-0.0351698,26,6
-0.332096,-0.903582,0.222252,1,14
-0.351543,-0.955466,0.272795,2,15
-0.184485,-0.498995,-0.122823,15,1
-0.202293,-0.54687,-0.113341,16,2
-0.21128,-0.570553,-0.0963636,15,3
-0.230114,-0.619751,-0.0346464,26,6
-0.332533,-0.89511,0.220452,1,14
-0.358917,-0.965098,0.275901,2,15
-0.186225,-0.498348,-0.122823,15,1
-0.231703,-0.619718,-0.128605,14,2
-0.227119,-0.606813,-0.102621,14,3
-0.236486,-0.630163,-0.0352744,26,6
-0.338395,-0.901242,0.222252,1,14
-0.352767,-0.938522,0.268654,2,15
-0.187964,-0.497695,-0.122823,15,1
-0.225537,-0.596867,-0.124026,14,2
-0.230185,-0.606925,-0.0340184,27,6
-0.345688,-0.910987,0.224951,1,14
-0.349181,-0.919226,0.263478,2,15
-0.1897,-0.497036,-0.122823,15,1
-0.233222,-0.610749,-0.127079,14,2
-0.226584,-0.591197,-0.033181,28,6
-0.364215,-0.949805,0.234849,1,14
-0.353772,-0.921608,0.264513,2,15
-0.232358,-0.599675,-0.0337044,28,6
-0.350001,-0.902357,0.259337,2,15
-0.238818,-0.610019,-0.0343324,13,6
-0.354559,-0.904727,0.260372,2,15
-0.240106,-0.607366,-0.0342277,27,6
-0.347758,-0.878337,0.253125,2,15
-0.242224,-0.606525,-0.0342277,27,6
-0.347235,-0.868149,0.250537,2,15
-0.237615,-0.589005,-0.0332857,28,6
-0.348816,-0.86335,0.249502,2,15
-0.240423,-0.590022,-0.0333903,28,6
-0.353287,-0.865704,0.250537,1,15
-0.23336,-0.567016,-0.0321343,29,6
-0.356307,-0.864466,0.250537,1,15
-0.253735,-0.610461,-0.0346464,26,6
-0.350267,-0.841876,0.244325,1,15
-0.244941,-0.583831,-0.033181,28,6
-0.374156,-0.890517,0.258819,1,15
-0.252227,-0.596814,-0.102621,14,3
-0.240744,-0.568261,-0.0323436,29,6
-0.405934,-0.956785,0.278489,1,15
-0.254309,-0.59593,-0.102621,14,3
-0.239584,-0.560072,-0.0319249,30,6
-0.581198,-1.358,0.341026,1,14
-0.232937,-0.540614,-0.0932349,16,3
-0.248665,-0.575734,-0.032867,29,6
-0.585935,-1.35596,0.341026,1,14
-0.258463,-0.59414,-0.102621,14,3
-0.245883,-0.563878,-0.032239,29,6
-0.59534,-1.36463,0.343725,1,14
-0.260535,-0.593234,-0.102621,14,3
-0.247045,-0.561188,-0.0321343,29,6
-0.611882,-1.38929,0.350474,1,14
-0.244947,-0.551196,-0.0316109,15,6
-0.613561,-1.38003,0.348674,1,14
-0.249322,-0.555805,-0.0319249,30,6
-0.62396,-1.39032,0.351823,1,14
-0.251261,-0.554931,-0.0319249,30,6
-0.61916,-1.36683,0.346425,1,14
-0.316972,-0.699409,-0.0134034,5,7
-0.257347,-0.563134,-0.0324483,14,6
-0.259311,-0.562232,-0.0324483,29,6
-0.252001,-0.541405,-0.0312969,31,6
-0.324278,-0.696052,-0.0134034,5,7
-0.254739,-0.54233,-0.0314016,30,6
-0.326706,-0.694915,-0.0134034,5,7
-0.249095,-0.527202,-0.113341,16,2
-0.264329,-0.557681,-0.0323436,29,6
-0.308446,-0.650464,-0.0125657,6,7
-0.26187,-0.547791,-0.0318203,30,6
-0.331429,-0.692676,-0.0134034,5,7
-0.252677,-0.525494,-0.113341,16,2
-0.26031,-0.539678,-0.0314016,30,6
-0.333845,-0.691514,-0.0134034,5,7
-0.25451,-0.524609,-0.113341,16,2
-0.252578,-0.519012,-0.0302502,32,6
-0.336256,-0.690345,-0.0134034,5,7
-0.25634,-0.523717,-0.113341,16,2
-0.257909,-0.525298,-0.0306689,31,6
-0.312206,-0.635326,-0.0123563,6,7
-0.258258,-0.522774,-0.113341,16,2
-0.262494,-0.529718,-0.0309829,31,6
-0.341068,-0.687981,-0.0134034,5,7
-0.260769,-0.521653,-0.0305642,15,6
-0.343467,-0.686786,-0.0134034,5,7
-0.264295,-0.524352,-0.0307735,15,6
-0.345862,-0.685583,-0.0134034,5,7
-0.747152,-1.47017,0.320559,1,13
-0.264314,-0.519866,-0.0305642,15,6
-0.242022,-0.473768,-0.122823,15,1
-0.765452,-1.4939,0.326283,2,13
-0.267858,-0.522541,-0.0307735,31,6
-0.243757,-0.472878,-0.122823,15,1
-0.772726,-1.49457,0.327047,3,13
-0.282618,-0.546392,-0.032239,14,6
-0.270576,-0.520437,-0.135421,13,1
-0.779753,-1.49534,0.32781,3,13
-0.267895,-0.513528,-0.0303549,16,6
-0.247052,-0.471164,-0.122823,15,1
-0.786796,-1.49609,0.328573,2,13
-0.295725,-0.562081,-0.0332857,14,6
-0.248613,-0.470342,-0.122823,15,1
-0.809225,-1.52643,0.335824,1,13
-0.263898,-0.497577,-0.0295175,16,6
-0.250172,-0.469515,-0.122823,15,1
-0.291913,-0.546016,-0.0324483,14,6
-0.251809,-0.468639,-0.122823,15,1
-0.267279,-0.495769,-0.0295175,16,6
-0.253443,-0.467757,-0.122823,15,1
-0.232891,-0.423102,-0.12941,15,0
-0.281239,-0.506744,-0.155291,12,0
-0.282918,-0.505808,-0.155291,12,0
-0.28686,-0.507643,-0.113341,16,2
-0.28863,-0.506639,-0.113341,16,2
-0.290397,-0.505628,-0.113341,16,2
-0.938705,-1.6318,0.298164,1,12
-0.292072,-0.504662,-0.113341,16,2
-0.924576,-1.59434,0.291907,2,12
-0.293832,-0.50364,-0.113341,16,2
-0.933126,-1.59621,0.292845,3,12
-0.293536,-0.499721,-0.155291,12,0
-0.295588,-0.502611,-0.113341,16,2
-0.946716,-1.60656,0.295348,2,12
-0.297341,-0.501576,-0.113341,16,2
-0.955344,-1.60834,0.296287,1,12
-0.29909,-0.500535,-0.113341,16,2
-1.02387,-1.71008,0.315685,1,12
-0.298753,-0.49662,-0.155291,12,0
-0.300835,-0.499488,-0.113341,16,2
-0.302577,-0.498435,-0.113341,16,2
-0.304228,-0.497429,-0.113341,16,2
-1.0201,-1.65685,0.0339624,4,8
-1.08094,-1.75499,0.108021,1,9
-0.305876,-0.496417,-0.113341,16,2
-1.0414,-1.67895,0.034486,8,8
-1.06991,-1.72424,0.106347,2,9
-0.30752,-0.4954,-0.113341,16,2
-1.05179,-1.6819,0.0346256,6,8
-1.06381,-1.6998,0.105091,6,9
-0.284337,-0.454329,-0.104182,18,2
-1.09111,-1.74276,0.179889,1,10
-1.08878,-1.73768,0.251782,1,11
-1.09603,-1.73913,0.0358821,1,8
-1.0676,-1.6927,0.104881,3,9
-0.311057,-0.493187,-0.113341,16,2
-1.06529,-1.68839,0.17466,4,10
-1.05456,-1.67009,0.24252,1,11
-0.298033,-0.468902,-0.107998,17,2
-1.07225,-1.68634,0.174834,2,10
-0.293315,-0.457939,-0.105708,18,2
-0.316205,-0.489902,-0.113341,16,2
-0.317913,-0.488796,-0.113341,16,2
-0.319532,-0.487739,-0.113341,16,2
-0.28237,-0.427587,-0.0996023,19,2
-1.17472,-1.76609,0.111162,1,9
-0.323014,-0.48544,-0.113341,16,2
-1.11271,-1.66152,0.0349048,1,8
-1.1364,-1.69561,0.106975,1,9
-0.324707,-0.484309,-0.113341,16,2
-1.12312,-1.67453,0.176403,1,10
-1.04152,-1.54936,0.431006,1,14
-1.1185,-1.65763,0.0349048,1,8
-1.11996,-1.65853,0.104881,1,9
-0.326311,-0.48323,-0.113341,16,2
-1.12867,-1.6708,0.176403,1,10
-1.04692,-1.54572,0.431006,1,14
-1.13697,-1.67112,0.105928,1,9
-0.305908,-0.449624,-0.105708,18,2
-1.13449,-1.66685,0.176403,1,10
-1.05231,-1.54205,0.431006,1,14
-1.15831,-1.69041,0.107393,1,9
-0.314136,-0.458269,-0.107998,17,2
-1.1403,-1.66288,0.176403,1,10
-1.05742,-1.53856,0.431006,1,14
-0.308962,-0.447531,-0.105708,18,2
-1.06252,-1.53504,0.431006,1,14
-0.332859,-0.478743,-0.113341,16,2
-1.06787,-1.53132,0.431006,1,14
-0.332254,-0.47486,-0.155291,12,0
-0.312001,-0.445418,-0.105708,18,2
-0.290915,-0.412245,-0.0980758,19,2
-1.27391,-1.79323,0.0383953,1,8
-0.310629,-0.436774,-0.104182,18,2
-1.18735,-1.65847,0.0356029,3,8
-0.29157,-0.406961,-0.0973126,19,2
-1.22555,-1.7049,-0.0366501,1,7
-1.20951,-1.67702,0.0360916,6,8
-1.24135,-1.71991,0.111162,1,9
-0.318266,-0.440963,-0.105708,18,2
-1.22006,-1.67926,0.0362312,7,8
-0.312877,-0.430322,-0.103418,18,2
-1.00644,-1.37966,-0.0298087,1,7
-1.23536,-1.6879,0.0365104,4,8
-0.328298,-0.448233,-0.107998,17,2
-0.975721,-1.3278,-0.0287616,2,7
-0.346178,-0.469202,-0.113341,16,2
-0.986298,-1.33242,-0.0289361,4,7
-1.38438,-1.86271,0.121629,1,9
-0.324392,-0.436476,-0.105708,18,2
-0.993334,-1.33218,-0.0290059,5,7
-1.34268,-1.79414,0.117442,1,9
-0.349446,-0.466774,-0.113341,16,2
-1.00495,-1.33847,-0.0292153,5,7
-1.30565,-1.73203,0.113674,1,9
-0.351073,-0.465551,-0.113341,16,2
-1.33427,-1.76871,0.193834,1,10
-1.00841,-1.33336,-0.0291804,4,7
-1.3286,-1.74973,0.115139,1,9
-0.335993,-0.442494,-0.107998,17,2
-1.32567,-1.74524,0.191743,1,10
-1.36106,-1.79053,0.276156,1,11
-0.997305,-1.30915,-0.0287267,5,7
-1.32014,-1.72605,0.113883,1,9
-0.354233,-0.463151,-0.113341,16,2
-1.32691,-1.73427,0.191045,1,10
-1.3673,-1.78577,0.276156,1,11
-1.00552,-1.31042,-0.0288314,5,7
-1.33561,-1.73432,0.11472,1,9
-0.355848,-0.461911,-0.113341,16,2
-1.35241,-1.75488,0.193834,1,10
-1.33473,-1.73069,0.268356,1,11
-1.33815,-1.7345,0.346972,1,12
-1.00619,-1.30233,-0.0287267,4,7
-1.42244,-1.8338,0.121629,1,9
-0.357458,-0.460666,-0.113341,16,2
-1.35853,-1.75014,0.193834,1,10
-1.35021,-1.73879,0.270306,1,11
-1.37814,-1.77349,0.355732,1,12
-1.01073,-1.29881,-0.0287267,4,7
-1.10753,-1.41859,0.0314143,1,8
-0.358984,-0.459478,-0.113341,16,2
-1.36433,-1.74563,0.193834,1,10
-1.36605,-1.74658,0.272256,1,11
-1.38645,-1.77202,0.356358,1,12
-1.0138,-1.29388,-0.0286918,5,7
-1.04302,-1.32687,0.0294597,1,8
-1.43489,-1.82408,0.121629,1,9
-0.360586,-0.458223,-0.113341,16,2
-1.37041,-1.74086,0.193834,1,10
-1.37183,-1.74204,0.272256,1,11
-1.37062,-1.73924,0.350726,1,12
-1.01955,-1.2919,-0.0287267,5,7
-1.03027,-1.30127,0.028971,3,8
-0.362103,-0.457024,-0.113341,16,2
-1.37618,-1.7363,0.193834,1,10
-1.39764,-1.76212,0.276156,1,11
-1.3865,-1.74683,0.353229,1,12
-1.41126,-1.77738,0.44115,1,13
-1.03152,-1.29773,-0.0289361,5,7
-1.30815,-1.64516,0.56319,1,15
-1.02109,-1.28047,0.028587,4,8
-1.38253,-1.73125,0.193834,1,10
-1.40379,-1.75724,0.276156,1,11
-1.39259,-1.74198,0.353229,1,12
-1.38588,-1.73234,0.431228,1,13
-1.02979,-1.28631,-0.0287616,7,7
-1.02202,-1.27204,0.0284823,4,8
-1.41384,-1.75532,0.356983,1,12
-1.37467,-1.70608,0.425886,1,13
-1.03576,-1.28409,-0.0287965,9,7
-1.04029,-1.28557,0.0288663,4,8
-1.46054,-1.80361,0.121629,1,9
-1.42245,-1.75344,0.357609,1,12
-1.39052,-1.71347,0.428939,1,13
-1.40786,-1.7336,0.515588,1,14
-1.04023,-1.28046,-0.0287965,9,7
-1.04098,-1.27728,0.0287616,4,8
-1.46682,-1.7985,0.121629,1,9
-1.47855,-1.80966,0.370124,1,12
-1.40394,-1.71773,0.431228,1,13
-1.38922,-1.69851,0.50659,1,14
-1.03583,-1.26599,-0.0285521,11,7
-1.04163,-1.269,0.0286569,5,8
-1.47309,-1.79337,0.121629,1,9
-1.46981,-1.78874,0.20255,1,10
-1.43716,-1.74652,0.358235,1,12
-1.39496,-1.69463,0.426649,1,13
-1.4001,-1.69967,0.508389,1,14
-1.0377,-1.25928,-0.0284823,11,7
-1.03968,-1.25765,0.0284823,5,8
-1.49176,-1.80387,0.122675,1,9
-1.46334,-1.76825,0.200807,1,10
-1.46059,-1.76304,0.362615,1,12
-1.40588,-1.69579,0.428175,1,13
-1.40851,-1.69777,0.509289,1,14
-1.0457,-1.26045,-0.028587,12,7
-1.04896,-1.26034,0.0286219,4,8
-1.48526,-1.7833,0.121629,1,9
-1.46185,-1.75395,0.199761,1,10
-1.50384,-1.80368,0.288343,1,11
-1.44902,-1.7367,0.358235,1,12
-1.41401,-1.69414,0.428939,1,13
-1.43412,-1.71702,0.516488,1,14
-1.05651,-1.26446,-0.0287616,13,7
-1.4099,-1.68682,0.589072,1,15
-1.05592,-1.25974,0.0286918,5,8
-1.47094,-1.75362,0.119954,1,9
-1.45486,-1.73383,0.198018,1,10
-1.51013,-1.79842,0.288343,1,11
-1.5364,-1.82842,0.378259,1,12
-1.46034,-1.73728,0.44115,1,13
-1.41,-1.67621,0.50569,1,14
-1.04546,-1.24241,-0.0283427,29,7
-1.41578,-1.68189,0.589072,1,15
-1.07192,-1.2698,0.0290059,7,8
-1.48479,-1.75763,0.120582,1,9
-1.46347,-1.73178,0.198366,1,10
-1.5164,-1.79314,0.288343,1,11
-1.46639,-1.73217,0.44115,1,13
-1.41836,-1.67425,0.50659,1,14
-1.42164,-1.67693,0.589072,1,15
-1.07635,-1.26605,0.0290059,13,8
-1.46244,-1.71897,0.118279,1,9
-1.47467,-1.73274,0.199064,1,10
-1.53552,-1.80295,0.29078,1,11
-1.54913,-1.81765,0.378259,1,12
-1.47243,-1.72704,0.44115,1,13
-1.4242,-1.66929,0.50659,1,14
-1.0658,-1.24877,-0.0286569,163,7
-1.42748,-1.67196,0.589072,1,15
-1.08466,-1.26684,0.0291106,35,8
-1.48143,-1.72902,0.119326,1,9
-1.47812,-1.72455,0.198715,1,10
-1.50949,-1.75991,0.284687,1,11
-1.55546,-1.81223,0.378259,1,12
-1.47845,-1.72189,0.44115,1,13
-1.4351,-1.67022,0.508389,1,14
-1.43331,-1.66697,0.589072,1,15
-1.093,-1.26759,0.0292153,88,8
-0.34621,-0.401372,-0.122373,15,1
-1.48485,-1.72082,0.119117,1,9
-1.47372,-1.70731,0.197321,1,10
