x, y, z, intensity, ring
7.83747,-0.349044,-0.411151,72,6
9.68725,-0.433119,2.23871,37,14
8.24045,-0.369873,-0.143982,88,7
9.72666,-0.438283,2.6089,5,15
7.86432,-0.365369,0.13742,100,8
0.548948,-0.0255997,-0.126872,15,1
0.725604,-0.0340917,-0.141199,23,2
12.3889,-0.584244,1.08509,24,10
7.43095,-0.351735,-1.17826,42,3
10.761,-0.50936,1.32277,40,11
8.37757,-0.398007,-1.0298,49,4
11.3672,-0.54203,1.80244,37,12
7.98831,-0.382309,-0.699686,18,5
9.9795,-0.47935,1.94205,8,13
8.10545,-0.390751,-0.425282,32,6
9.40531,-0.45506,2.17393,45,14
8.48478,-0.410522,-0.148276,100,7
7.71314,-0.386682,0.134802,41,8
0.529388,-0.0266324,-0.122373,15,1
8.02483,-0.403712,0.421095,30,9
0.721559,-0.0364263,-0.140435,35,2
12.4186,-0.629098,1.08788,47,10
5.68767,-0.28912,-0.902001,6,3
13.2531,-0.676012,1.62939,15,11
11.4106,-0.584028,1.80963,10,12
7.17908,-0.368701,-0.628916,10,5
10.0111,-0.515899,1.94854,15,13
9.54184,-0.495057,2.20587,34,14
8.5472,-0.443452,-0.149393,81,7
9.75616,-0.507884,2.6177,44,15
8.34082,-0.445883,0.145797,32,8
0.579891,-0.0311013,-0.134071,14,1
8.97069,-0.482695,0.470814,56,9
0.717506,-0.0387332,-0.139672,35,2
9.21922,-0.499295,0.807759,15,10
7.09898,-0.384467,-1.12602,51,3
10.7552,-0.584366,1.32253,34,11
7.95635,-0.433686,-0.978367,57,4
11.4164,-0.624287,1.81089,7,12
9.07762,-0.497983,-0.795383,27,5
9.99757,-0.548449,1.94625,32,13
8.36584,-0.4604,-0.439099,43,6
9.17434,-0.5065,2.12129,31,14
8.02448,-0.444423,-0.140282,88,7
9.80448,-0.544723,2.63115,21,15
7.43481,-0.423481,0.129986,20,8
0.517521,-0.0295682,-0.119674,16,1
8.10763,-0.463224,0.425596,51,9
0.736974,-0.0422356,-0.143488,33,2
9.27321,-0.533066,0.81264,4,10
7.14295,-0.41186,-1.13321,60,3
10.8086,-0.625115,1.32935,3,11
7.13632,-0.413977,-0.877703,18,4
11.365,-0.659282,1.80306,4,12
8.01776,-0.466513,-0.70265,33,5
11.3832,-0.664326,2.21644,26,13
9.31647,-0.546974,2.15458,40,14
7.58578,-0.445364,-0.132638,59,7
9.91448,-0.583819,2.66118,19,15
7.51122,-0.452827,0.131347,34,8
0.552433,-0.0334012,-0.127772,14,1
0.721145,-0.0438545,-0.140435,35,2
12.1072,-0.738385,1.06121,49,10
7.34463,-0.44793,-1.16544,43,3
10.7768,-0.659136,1.32569,18,11
7.46382,-0.457814,-0.918164,60,4
7.92859,-0.4891,-0.69498,13,5
11.1752,-0.689378,2.17637,20,13
8.84294,-0.547054,-0.464325,58,6
9.23486,-0.572918,2.13614,39,14
8.27474,-0.514803,-0.144715,81,7
9.95672,-0.62119,2.67308,8,15
7.59931,-0.486098,0.132918,85,8
0.513412,-0.0329309,-0.118774,16,1
0.720988,-0.0463715,-0.140435,35,2
12.0031,-0.774103,1.05232,22,10
7.09653,-0.458912,-1.12633,97,3
10.804,-0.700557,1.32935,3,11
7.60669,-0.494569,-0.935957,10,4
12.5939,-0.821036,1.99892,26,12
7.92077,-0.517767,-0.694457,18,5
9.31122,-0.610289,-0.489027,42,6
9.23854,-0.607145,2.13749,49,14
7.61033,-0.501476,-0.133127,81,7
10.6329,-0.702509,2.85529,24,15
0.528849,-0.0357751,-0.122373,15,1
7.97073,-0.540594,0.418688,17,9
0.711019,-0.0483478,-0.138527,24,2
9.1716,-0.625257,0.804273,24,10
7.14013,-0.488017,-1.13352,48,3
10.447,-0.714036,1.28572,30,11
7.57125,-0.518811,-0.931813,13,4
10.1099,-0.694539,1.60502,23,12
7.87519,-0.5424,-0.690622,28,5
9.03595,-0.625516,-0.474687,100,6
9.24402,-0.641541,2.13928,16,14
7.78808,-0.540498,-0.136268,76,7
18.7246,-1.30278,5.02937,11,15
0.528714,-0.0377132,-0.122373,15,1
7.44475,-0.53234,0.391159,27,9
0.716721,-0.0512495,-0.139672,35,2
7.76832,-0.55684,0.681384,16,10
7.17976,-0.515911,-1.14009,56,3
10.5671,-0.761164,1.30083,42,11
7.81481,-0.564286,-0.962037,6,4
10.9899,-0.795478,1.74518,8,12
8.30635,-0.602693,-0.728622,41,5
11.0496,-0.801738,2.15347,57,13
9.13131,-0.664153,-0.479816,36,6
7.6245,-0.557233,-0.133441,36,7
16.3171,-1.19539,4.38388,10,15
7.98256,-0.596009,0.139724,15,8
0.509146,-0.0381042,-0.117874,16,1
7.48467,-0.561462,0.393357,31,9
0.73219,-0.0550537,-0.142725,34,2
7.82782,-0.58995,0.686787,7,10
7.19555,-0.543562,-1.14291,51,3
10.4198,-0.787129,1.28304,36,11
8.93595,-0.67974,-0.784053,18,5
8.89582,-0.679811,-0.467569,76,6
10.3584,-0.793398,2.39843,35,14
7.56269,-0.579262,-0.132394,29,7
16.3109,-1.25219,4.38336,13,15
0.505118,-0.0396649,-0.116975,16,1
7.4966,-0.588679,0.39409,8,9
0.739823,-0.0582253,-0.144252,22,2
9.38092,-0.739942,0.823273,22,10
7.44173,-0.588291,-1.18233,57,3
10.6385,-0.842875,1.31034,15,11
8.50318,-0.675188,-1.04735,33,4
13.2368,-1.05106,2.10311,12,12
8.55219,-0.680582,-0.750585,35,5
11.1512,-0.88937,2.17446,8,13
8.53304,-0.682055,-0.448624,87,6
9.22502,-0.738986,2.13658,43,14
7.53272,-0.603422,-0.131905,29,7
10.7683,-0.864503,2.89463,20,15
8.3529,-0.68233,0.146286,45,8
0.543828,-0.0445197,-0.125973,15,1
0.731788,-0.0601639,-0.142725,34,2
9.62649,-0.793133,0.845062,2,10
7.0775,-0.58312,-1.12476,36,3
10.4576,-0.863447,1.2884,45,11
7.17937,-0.594036,-0.884528,6,4
10.8097,-0.896317,1.71796,16,12
7.93226,-0.65912,-0.696374,8,5
9.10993,-0.758577,-0.479083,47,6
8.16426,-0.682702,-0.143005,88,7
10.7132,-0.89773,2.88066,34,15
8.06554,-0.687207,0.141295,28,8
0.551436,-0.0470809,-0.127772,14,1
7.46843,-0.638957,0.392834,48,9
0.727672,-0.0622556,-0.141962,34,2
11.331,-0.971409,0.99497,38,10
7.11872,-0.611541,-1.13165,46,3
10.4822,-0.90233,1.29182,33,11
10.4404,-0.902405,1.65977,41,12
10.4251,-0.902913,2.03402,6,13
8.53417,-0.74064,-0.448938,32,6
8.03234,-0.699913,-0.140736,88,7
10.7216,-0.936129,2.88376,11,15
7.94159,-0.704577,0.139165,48,8
0.551268,-0.0490054,-0.127772,14,1
7.33486,-0.653328,0.385925,54,9
0.711807,-0.0634018,-0.138909,36,2
7.33297,-0.65574,-1.16606,36,3
10.5008,-0.940863,1.2945,69,11
8.91691,-0.800519,-1.09926,37,4
8.56733,-0.773658,-0.450822,58,6
9.21886,-0.834115,2.13703,36,14
8.17722,-0.741307,-0.143319,48,7
7.91121,-0.729723,0.138677,68,8
0.547213,-0.0505708,-0.126872,15,1
7.39219,-0.684452,0.389066,69,9
0.723298,-0.0670984,-0.141199,34,2
7.27882,-0.675236,0.639549,3,10
7.16935,-0.666342,-1.14041,17,3
11.1675,-1.03991,1.37712,26,11
7.77813,-0.728402,-0.683475,8,5
10.9168,-1.02426,2.13134,14,13
8.18464,-0.769352,-0.43083,87,6
9.7184,-0.913525,2.25356,19,14
8.2582,-0.777721,-0.144785,48,7
9.54731,-0.900805,2.56956,38,15
7.66961,-0.735798,0.134488,60,8
0.527626,-0.0507117,-0.122373,15,1
7.27631,-0.700629,0.383099,55,9
0.723048,-0.0697489,-0.141199,23,2
7.29217,-0.70344,0.640943,43,10
7.37135,-0.712377,-1.17295,38,3
11.5173,-1.11507,1.42075,70,11
7.07344,-0.686079,-0.872585,5,4
8.86755,-0.866346,-0.466941,87,6
9.426,-0.920905,2.18652,16,14
8.1518,-0.797855,-0.14297,32,7
9.51703,-0.933153,2.56231,42,15
7.93748,-0.790867,0.139235,49,8
0.539071,-0.0538065,-0.125073,15,1
7.31357,-0.729991,0.385193,33,9
0.7228,-0.0722724,-0.141199,34,2
11.3952,-1.14141,1.00194,10,10
7.33724,-0.736234,-1.16794,16,3
11.5052,-1.15648,1.41978,60,11
17.3489,-1.74694,2.76169,15,12
8.88084,-0.895819,-0.780915,27,5
11.1143,-1.12307,2.17141,37,13
8.85454,-0.896289,-0.466418,100,6
9.39736,-0.952892,2.18068,27,14
8.06143,-0.817429,-0.141434,16,7
9.91156,-1.00678,2.66946,19,15
0.546644,-0.0563937,-0.126872,15,1
7.14609,-0.738476,0.376505,41,9
0.710826,-0.0735821,-0.138909,48,2
11.6607,-1.20913,1.02565,17,10
7.34458,-0.76158,-1.1695,3,3
11.2644,-1.17002,1.39053,55,11
7.77335,-0.808782,-0.959599,30,4
16.1796,-1.68627,2.57648,13,12
7.74417,-0.808479,-0.681209,23,5
11.1027,-1.15911,2.16988,25,13
8.79391,-0.919622,-0.463383,43,6
13.3557,-1.39903,3.10028,12,14
8.04063,-0.843685,-0.14112,40,7
10.1174,-1.06338,2.72588,9,15
0.511564,-0.0545801,-0.118774,16,1
7.5903,-0.811169,0.400056,33,9
0.70277,-0.0751044,-0.137382,37,2
11.1595,-1.19852,1.3781,68,11
8.25009,-0.887506,-1.01883,71,4
16.1245,-1.73745,2.56865,28,12
8.95179,-0.964572,-0.787714,25,5
13.2789,-1.43317,2.59615,23,13
10.1886,-1.10144,-0.537072,28,6
10.4717,-1.1339,2.43172,28,14
8.03167,-0.8711,-0.141015,56,7
7.99849,-0.880215,0.140457,77,8
0.507496,-0.0559385,-0.117874,16,1
7.72043,-0.852344,0.407069,51,9
0.714212,-0.0788497,-0.139672,35,2
9.58276,-1.05964,0.843493,18,10
7.28215,-0.806529,-1.16043,31,3
11.1395,-1.23572,1.37615,81,11
8.26075,-0.917833,-1.02053,22,4
13.142,-1.4625,2.09434,35,12
9.02164,-1.00397,-0.794163,30,5
11.1431,-1.24203,2.17942,21,13
8.74956,-0.976782,-0.461394,32,6
17.4436,-1.95045,4.05227,28,14
8.07429,-0.904249,-0.141818,64,7
7.89006,-0.896169,0.138607,66,8
0.526661,-0.0599123,-0.122373,15,1
7.51103,-0.855774,0.396183,37,9
0.729523,-0.0832476,-0.142725,34,2
7.61293,-0.870076,-1.21362,50,3
7.94392,-0.910714,-0.98178,55,4
11.2195,-1.28822,1.78867,26,12
8.42211,-0.968514,-0.741695,15,5
13.1922,-1.5194,2.58126,12,13
8.99989,-1.03814,-0.474792,50,6
10.9011,-1.25744,2.5334,65,14
12.2705,-1.41758,-0.215607,57,7
10.2861,-1.19014,2.77454,8,15
7.52526,-0.882683,0.132254,11,8
0.507083,-0.0595686,-0.117874,16,1
8.00771,-0.942106,0.422561,26,9
0.705816,-0.0831641,-0.138146,48,2
9.46215,-1.1149,0.833557,64,10
7.78821,-0.919039,-1.24209,52,3
10.0954,-1.19308,1.24819,11,11
8.0115,-0.948223,-0.990554,53,4
13.0979,-1.55256,2.08903,30,12
11.7303,-1.3946,2.2962,12,13
11.5346,-1.37337,-0.608772,60,6
10.8848,-1.296,2.5307,24,14
8.0418,-0.958926,-0.141364,56,7
0.545553,-0.0661158,-0.126872,15,1
7.30446,-0.88523,0.385611,60,9
0.713317,-0.0865735,-0.139672,35,2
10.0632,-1.22313,0.886897,22,10
7.44555,-0.906285,-1.18796,62,3
11.4999,-1.40182,1.42246,23,11
7.74195,-0.945107,-0.957649,28,4
12.9747,-1.5839,2.07025,20,12
11.0024,-1.34702,2.15462,52,13
17.6226,-2.16379,4.09906,8,14
8.25474,-1.01355,-0.145169,89,7
10.5438,-1.29649,2.84649,8,15
7.43953,-0.925324,0.130858,50,8
0.541463,-0.0674428,-0.125973,15,1
7.43015,-0.926791,0.392415,36,9
0.699373,-0.0873595,-0.137001,24,2
9.44602,-1.18159,0.83286,100,10
7.3935,-0.924841,-1.18014,48,3
9.56683,-1.19839,1.18384,11,11
7.89044,-0.989799,-0.976417,24,4
13.3121,-1.67227,2.12501,37,12
8.39353,-1.05589,-0.740127,19,5
11.0076,-1.38473,2.15652,14,13
8.19985,-1.03297,-0.433132,25,6
11.5541,-1.45757,2.68862,24,14
8.40193,-1.06141,-0.147822,100,7
10.5239,-1.33135,2.84235,7,15
7.60883,-0.973363,0.133895,11,8
0.525761,-0.0673515,-0.122373,15,1
7.46847,-0.958058,0.394613,39,9
0.708816,-0.0909272,-0.138909,36,2
9.53296,-1.22458,0.840879,50,10
9.56849,-1.23254,1.18457,22,11
7.73731,-0.998036,-0.957893,31,4
13.1612,-1.7,2.10185,48,12
8.57375,-1.10745,-0.756338,12,5
8.22789,-1.0657,-0.434807,39,6
11.5934,-1.50366,2.69896,23,14
8.30894,-1.07914,-0.146251,81,7
16.2204,-2.10954,4.38284,10,15
0.544843,-0.07173,-0.126872,15,1
8.43336,-1.11177,0.445798,27,9
0.731852,-0.09648,-0.143488,33,2
9.50887,-1.25524,0.839135,42,10
9.58775,-1.26906,1.18749,16,11
7.83217,-1.03808,-0.97008,58,4
13.1278,-1.7423,2.09747,31,12
11.8623,-1.57434,-1.04691,40,5
11.3013,-1.50189,2.21606,33,13
8.08949,-1.07649,-0.427689,25,6
15.7972,-2.10499,3.6793,26,14
8.208,-1.09518,-0.144541,88,7
16.3106,-2.17919,4.40924,15,15
7.40169,-0.999433,0.130369,30,8
0.54459,-0.0736314,-0.126872,15,1
8.35422,-1.13102,0.44182,73,9
0.715946,-0.096927,-0.140435,35,2
9.51825,-1.2903,0.840356,50,10
7.33839,-0.996102,-1.17295,62,3
9.58523,-1.30279,1.18774,57,11
7.44494,-1.01321,-0.922551,30,4
13.0982,-1.78491,2.09372,43,12
8.37432,-1.14118,-0.739429,11,5
11.2512,-1.53522,2.20728,27,13
7.8403,-1.0712,-0.41471,47,6
15.7897,-2.16012,3.6793,35,14
8.34677,-1.14337,-0.147054,97,7
16.3412,-2.24137,4.41959,15,15
7.53285,-1.04393,0.132743,66,8
0.505724,-0.0701751,-0.117874,16,1
8.36802,-1.16265,0.442762,34,9
0.715604,-0.0994255,-0.140435,35,2
8.76578,-1.21947,0.774292,20,10
7.25857,-1.01108,-1.16074,63,3
9.59831,-1.33871,1.18993,16,11
7.4276,-1.03727,-0.920845,87,4
13.2053,-1.84649,2.11187,33,12
8.36634,-1.16986,-0.739081,19,5
11.2127,-1.56986,2.20079,47,13
8.20045,-1.14958,-0.43397,79,6
15.7338,-2.20845,3.66805,23,14
10.5962,-1.4892,-0.186776,36,7
19.6829,-2.76975,5.32598,9,15
10.5939,-1.50585,0.186776,35,8
0.513194,-0.0730382,-0.119674,16,1
8.34612,-1.18931,0.44182,26,9
0.711365,-0.101369,-0.139672,35,2
8.89165,-1.26864,0.785796,52,10
6.97731,-0.996746,-1.11632,63,3
9.5248,-1.36237,1.1814,63,11
7.33551,-1.05053,-0.909877,43,4
9.71823,-1.39349,1.55496,9,12
8.23795,-1.18124,-0.728099,30,5
11.3685,-1.63215,2.23247,42,13
7.91369,-1.13756,-0.419002,43,6
11.5365,-1.66039,2.69086,18,14
8.0991,-1.1671,-0.14283,16,7
15.87,-2.28973,4.2964,13,15
10.6736,-1.55521,0.188277,10,8
0.543789,-0.0793302,-0.126872,15,1
8.55338,-1.24933,0.45302,16,9
0.714892,-0.104419,-0.140435,35,2
9.35833,-1.36857,0.827457,24,10
7.26306,-1.06345,-1.16262,55,3
9.62016,-1.41029,1.19383,19,11
7.32787,-1.07555,-0.909389,53,4
9.74848,-1.43258,1.56059,10,12
8.24364,-1.21143,-0.728971,33,5
11.3957,-1.67668,2.23895,47,13
7.91757,-1.16634,-0.41942,72,6
11.6695,-1.72112,2.72326,8,14
8.32643,-1.22954,-0.146914,89,7
15.8963,-2.3502,4.30571,16,15
7.95818,-1.19078,0.140457,33,8
0.539626,-0.0808402,-0.125973,15,1
0.718369,-0.107746,-0.141199,34,2
8.64567,-1.29828,0.764879,26,10
7.1339,-1.07253,-1.1426,47,3
9.65982,-1.45401,1.19944,22,11
7.23928,-1.09096,-0.898908,47,4
8.30591,-1.25318,-0.734897,30,5
11.6668,-1.76236,2.29352,42,13
8.09472,-1.22421,-0.42905,29,6
11.7668,-1.78167,2.74755,34,14
8.01915,-1.21565,-0.141574,80,7
15.8471,-2.40514,4.29484,22,15
8.42244,-1.29032,0.148729,81,8
0.543193,-0.0833142,-0.126872,15,1
8.90723,-1.36777,0.47228,60,9
0.710226,-0.109061,-0.139672,35,2
9.4918,-1.45923,0.840181,48,10
7.25116,-1.11606,-1.162,56,3
9.64488,-1.48621,1.19822,66,11
7.30409,-1.12682,-0.907439,45,4
10.3624,-1.60049,1.66071,17,12
8.29557,-1.28126,-0.734374,12,5
11.6974,-1.80877,2.30078,56,13
8.22658,-1.27354,-0.436273,43,6
16.2013,-2.51099,3.78503,17,14
8.13342,-1.26203,-0.143668,88,7
15.8615,-2.464,4.30105,13,15
0.554449,-0.0870228,-0.129572,14,1
8.99513,-1.41343,0.477199,39,9
0.709841,-0.111539,-0.139672,35,2
8.77417,-1.38027,0.777081,9,10
12.1182,-1.91066,1.50631,52,11
7.34325,-1.15912,-0.912801,11,4
10.2592,-1.62123,1.64507,7,12
6.89576,-1.08971,-0.610787,7,5
11.757,-1.86002,2.31375,28,13
11.4987,-1.82121,-0.610133,27,6
11.7445,-1.86225,2.7453,21,14
8.15859,-1.29511,-0.144192,100,7
15.8433,-2.51783,4.29847,11,15
0.546446,-0.0877221,-0.127772,14,1
8.95465,-1.43911,0.475315,72,9
0.690064,-0.110901,-0.135856,37,2
8.72996,-1.40456,0.773594,18,10
5.2325,-0.842794,-0.839427,6,3
12.1683,-1.96211,1.51337,56,11
7.41755,-1.1974,-0.922551,36,4
6.87028,-1.11028,-0.60887,13,5
11.8415,-1.91579,2.33169,6,13
16.5927,-2.68743,-0.880919,13,6
11.332,-1.83742,2.65037,30,14
8.18955,-1.32935,-0.14482,65,7
15.7524,-2.5598,4.27621,8,15
7.87368,-1.29078,0.13927,16,8
0.553828,-0.0908914,-0.129572,14,1
0.709045,-0.116492,-0.139672,23,2
12.128,-1.99909,1.50923,28,11
7.44466,-1.22845,-0.926451,25,4
9.62788,-1.59043,1.54557,28,12
16.6519,-2.75373,3.28077,10,13
8.84531,-1.46433,-0.469872,36,6
17.8083,-2.95133,4.16744,15,14
8.14146,-1.35073,-0.144052,64,7
15.7548,-2.61667,4.27931,8,15
7.94999,-1.3318,0.140701,28,8
0.541976,-0.0908902,-0.126872,15,1
0.704741,-0.118439,-0.138909,24,2
9.22463,-1.55195,0.818392,56,10
6.96585,-1.17318,-1.11882,36,3
10.367,-1.74601,1.29084,12,11
5.2558,-0.886121,-0.654438,5,4
9.63591,-1.62633,1.54776,16,12
8.45148,-1.42794,-0.749888,23,5
6.88837,-1.16632,-0.366142,23,6
17.8338,-3.02277,4.17599,30,14
8.24119,-1.39685,-0.145902,8,7
19.551,-3.31734,5.31356,20,15
8.73345,-1.49597,0.154663,60,8
0.522433,-0.0895826,-0.122373,15,1
9.01165,-1.54687,0.479188,26,9
0.712064,-0.122227,-0.140435,23,2
9.10527,-1.56457,0.808282,52,10
7.0279,-1.20888,-1.12946,26,3
10.3684,-1.78534,1.29182,66,11
5.23686,-0.902681,-0.652489,8,4
11.9561,-2.06302,1.92164,12,12
7.02496,-1.21216,-0.623686,10,5
11.3813,-1.96589,2.24506,35,13
6.86655,-1.18729,-0.3652,37,6
11.6402,-2.01479,2.72731,14,14
9.28029,-1.60799,-0.164402,100,7
19.6986,-3.41671,5.35704,20,15
0.502921,-0.0880452,-0.117874,16,1
0.688427,-0.120645,-0.135856,50,2
9.11937,-1.59979,0.810025,61,10
5.18115,-0.909847,-0.83317,8,3
5.22586,-0.919579,-0.651514,7,4
10.0851,-1.77646,1.62191,42,12
6.95397,-1.22492,-0.61776,21,5
11.558,-2.03799,2.28131,40,13
8.91969,-1.57439,-0.474687,21,6
21.0075,-3.71175,4.92508,22,14
9.34551,-1.65291,-0.165658,100,7
19.717,-3.49084,5.36532,16,15
0.498774,-0.0891147,-0.116975,16,1
8.53075,-1.5257,0.454171,27,9
0.684137,-0.122356,-0.135093,38,2
9.08432,-1.62634,0.807411,82,10
5.17211,-0.926882,-0.832231,8,3
9.45298,-1.69575,1.17921,2,11
5.24216,-0.941324,-0.653951,4,4
12.303,-2.21144,1.97983,21,12
6.92808,-1.24531,-0.615842,32,5
11.7363,-2.1117,2.31795,25,13
6.97013,-1.25538,-0.371167,14,6
21.167,-3.81617,4.96557,23,14
9.26097,-1.67132,-0.164262,100,7
19.5355,-3.52907,5.31925,7,15
7.75528,-1.41217,0.137595,60,8
0.521466,-0.0950485,-0.122373,15,1
8.48804,-1.54866,0.452183,44,9
0.703019,-0.128267,-0.138909,36,2
9.05114,-1.65303,0.80497,73,10
5.18439,-0.947772,-0.834734,12,3
10.3238,-1.88918,1.28865,48,11
7.06648,-1.29439,-0.88209,36,4
12.472,-2.2868,2.00831,22,12
6.98248,-1.28027,-0.621072,13,5
6.97356,-1.28115,-0.371585,45,6
17.9451,-3.30003,4.21243,27,14
9.24131,-1.7011,-0.164018,100,7
19.5117,-3.59514,5.31614,16,15
7.24698,-1.34577,0.128659,44,8
0.521131,-0.0968681,-0.122373,15,1
8.81049,-1.63929,0.469663,13,9
0.690986,-0.128566,-0.136619,25,2
8.94151,-1.66528,0.795732,80,10
5.16357,-0.962605,-0.831919,10,3
10.319,-1.92557,1.28889,42,11
5.38766,-1.00633,-0.672963,6,4
10.13,-1.89395,1.63224,52,12
8.56824,-1.60195,-0.762613,24,5
9.95173,-1.86242,1.968,40,13
6.9612,-1.30401,-0.371167,28,6
11.496,-2.15557,2.70031,19,14
9.07612,-1.70347,-0.16119,100,7
22.9963,-4.32026,6.26963,3,15
7.87491,-1.49083,0.139898,77,8
0.52079,-0.0986867,-0.122373,15,1
8.738,-1.65738,0.466104,37,9
0.705964,-0.133904,-0.139672,23,2
8.98262,-1.7054,0.799915,30,10
10.48,-1.99348,1.30985,45,11
5.30416,-1.0099,-0.662969,10,4
10.8277,-2.06354,1.74581,87,12
8.3473,-1.59082,-0.743438,5,5
9.90853,-1.89015,1.96075,23,13
6.9723,-1.3313,-0.372004,3,6
20.8541,-3.98567,4.90168,22,14
8.85014,-1.69306,-0.157281,26,7
22.9336,-4.39142,6.25669,6,15
12.8059,-2.47066,0.227649,16,8
0.505135,-0.0975479,-0.118774,16,1
8.78903,-1.69886,0.46914,51,9
0.693927,-0.134132,-0.137382,37,2
8.96487,-1.73448,0.798869,16,10
6.55499,-1.26941,-1.0575,20,3
10.5295,-2.041,1.31692,75,11
5.20512,-1.00989,-0.651026,10,4
10.7972,-2.0968,1.74205,61,12
6.37585,-1.23934,-0.568255,5,5
11.3897,-2.21393,2.25536,37,13
8.34976,-1.62454,-0.445798,43,6
20.1208,-3.91838,4.73252,20,14
8.84614,-1.72432,-0.157316,100,7
19.435,-3.79187,5.30579,3,15
8.67271,-1.70466,0.154279,6,8
0.497143,-0.0978059,-0.116975,16,1
8.82028,-1.73687,0.471128,58,9
0.678021,-0.133637,-0.13433,38,2
8.70434,-1.71719,0.776209,13,10
6.54254,-1.2919,-1.05625,20,3
10.3295,-2.03967,1.29279,48,11
5.22104,-1.0319,-0.653463,2,4
10.7859,-2.13371,1.74143,90,12
6.31872,-1.25114,-0.563549,40,5
17.6348,-3.50139,4.1508,31,14
8.94402,-1.77583,-0.159166,100,7
21.8944,-4.35109,5.98131,11,15
8.08603,-1.62015,0.143947,13,8
0.519709,-0.104226,-0.122373,15,1
8.86508,-1.77785,0.47385,63,9
0.6891,-0.138321,-0.136619,25,2
9.7746,-1.9638,0.872255,36,10
10.3609,-2.08535,1.29766,12,11
5.22889,-1.05338,-0.654926,4,4
10.792,-2.17408,1.74362,25,12
6.33189,-1.27673,-0.565118,25,5
6.44089,-1.30105,-0.344371,10,6
17.5098,-3.54014,4.12425,37,14
8.681,-1.75513,-0.154593,75,7
21.9681,-4.4455,6.00564,2,15
12.6206,-2.57227,0.224822,12,8
0.549912,-0.112181,-0.129572,14,1
9.7492,-1.99059,0.521476,51,9
0.700154,-0.143084,-0.138909,24,2
9.76963,-1.99831,0.872429,48,10
5.25049,-1.07395,-0.848813,1,3
10.2411,-2.09661,1.28353,33,11
6.57693,-1.34766,-0.824324,56,4
9.79354,-2.00854,1.58343,18,12
6.34691,-1.30283,-0.566861,36,5
11.0466,-2.26754,2.19201,45,13
7.93318,-1.62989,-0.424445,50,6
17.4923,-3.59701,4.1229,37,14
8.50638,-1.75075,-0.151592,41,7
22.9004,-4.71743,6.26497,9,15
0.472911,-0.0980213,-0.12941,15,0
8.02391,-1.66459,0.14304,25,8
0.518988,-0.107761,-0.122373,15,1
9.58576,-1.99209,0.513102,45,9
0.691987,-0.143807,-0.137382,37,2
9.78246,-2.03475,0.874172,48,10
5.3492,-1.11361,-0.865396,23,3
9.09684,-1.89546,1.14094,23,11
6.49057,-1.35359,-0.814087,50,4
6.5276,-1.36369,-0.583421,31,5
11.0847,-2.31572,2.20117,9,13
6.46317,-1.3514,-0.346045,37,6
10.5461,-2.20704,2.48751,37,14
8.76444,-1.83578,-0.156304,92,7
21.9686,-4.60549,6.01444,11,15
8.7185,-1.84046,0.155536,46,8
0.545302,-0.115211,-0.128672,14,1
9.52989,-2.01521,0.510485,38,9
0.683772,-0.144717,-0.135856,37,2
10.0537,-2.12964,0.899099,40,10
5.34702,-1.13362,-0.865708,15,3
9.11542,-1.93255,1.14411,13,11
6.44697,-1.36799,-0.809213,64,4
9.68653,-2.05717,1.56841,27,12
6.29869,-1.33883,-0.563375,56,5
6.48161,-1.38007,-0.347301,33,6
10.5341,-2.24487,2.48661,86,14
8.30424,-1.76967,-0.148206,32,7
21.9978,-4.69182,6.02686,11,15
8.53574,-1.83458,0.152394,48,8
0.518203,-0.111472,-0.122373,15,1
9.75674,-2.10057,0.523046,72,9
0.687101,-0.147929,-0.136619,37,2
6.75265,-1.45627,-1.0941,43,3
9.06364,-1.95632,1.1385,28,11
6.50594,-1.40545,-0.817256,37,4
9.65575,-2.08765,1.56466,48,12
6.46121,-1.39814,-0.578366,27,5
6.52751,-1.41368,-0.350023,13,6
9.97203,-2.1615,2.35569,55,14
17.6194,-3.82233,-0.314702,7,7
21.9578,-4.7675,6.02065,11,15
8.62306,-1.88486,0.15407,26,8
0.517811,-0.11328,-0.122373,15,1
9.35134,-2.04747,0.501693,82,9
0.686555,-0.150446,-0.136619,37,2
16.6628,-3.65441,1.49245,6,10
6.68552,-1.46746,-1.08409,85,3
9.10911,-1.99943,1.14508,28,11
6.61539,-1.45328,-0.831636,50,4
9.62912,-2.1171,1.56153,28,12
6.82016,-1.50076,-0.610962,17,5
10.3956,-2.28944,2.06913,26,13
7.71985,-1.70156,-0.414291,36,6
9.93931,-2.19257,2.34984,19,14
17.5982,-3.88209,-0.314562,22,7
21.8655,-4.82746,5.99994,20,15
8.65904,-1.92601,0.154838,25,8
0.517393,-0.115177,-0.122373,15,1
9.64632,-2.14737,0.517917,40,9
0.689858,-0.153696,-0.137382,37,2
8.98615,-2.0037,0.805493,30,10
6.6553,-1.4852,-1.08002,61,3
9.11334,-2.0354,1.14655,44,11
6.66426,-1.48964,-0.838461,9,4
9.64287,-2.15544,1.56497,66,12
6.81488,-1.52455,-0.610962,6,5
10.0581,-2.25193,2.00349,7,13
18.0606,-4.05025,4.27317,18,14
16.7396,-3.75402,-0.299448,85,7
26.6514,-5.98172,7.31889,14,15
12.2045,-2.75713,0.218399,33,8
0.532214,-0.12033,-0.125973,15,1
8.74268,-1.97827,0.469768,37,9
0.695061,-0.157404,-0.138527,24,2
8.92858,-2.02361,0.800961,54,10
6.67538,-1.51293,-1.08409,51,3
9.0988,-2.06386,1.14557,49,11
7.06581,-1.60402,-0.889646,16,4
9.68923,-2.20134,1.57373,43,12
6.56493,-1.49392,-0.352849,37,6
10.5868,-2.41304,-0.189533,55,7
26.6793,-6.08589,7.33234,19,15
10.3842,-2.38403,0.185973,32,8
0.493806,-0.113459,-0.116975,16,1
9.43098,-2.16691,0.507135,53,9
0.673489,-0.154868,-0.13433,25,2
8.85387,-2.03757,0.79486,43,10
6.19074,-1.42583,-1.00619,56,3
9.06446,-2.08936,1.14216,31,11
6.59207,-1.52069,-0.830662,1,4
9.83586,-2.26898,1.59876,63,12
10.1152,-2.33714,2.018,45,13
6.58497,-1.52268,-0.35421,20,6
16.0863,-3.7227,-0.288209,63,7
26.8002,-6.20702,7.37117,19,15
0.470356,-0.109628,-0.12941,15,0
10.3587,-2.41437,0.185659,35,8
0.5162,-0.120408,-0.122373,15,1
0.680591,-0.159005,-0.135856,25,2
8.9437,-2.09114,0.803576,54,10
6.56106,-1.53405,-1.0672,66,3
9.00723,-2.10765,1.13582,57,11
6.58506,-1.54209,-0.830418,9,4
6.88223,-1.61421,-0.618457,6,5
9.96022,-2.33615,1.98861,34,13
7.48598,-1.7572,-0.402987,54,6
11.9346,-2.80364,2.83033,10,14
10.574,-2.48596,-0.189603,100,7
26.799,-6.3054,7.37686,9,15
8.59787,-2.04037,0.154244,55,8
0.515713,-0.12248,-0.122373,15,1
0.678066,-0.161163,-0.135474,25,2
8.9201,-2.12178,0.802181,67,10
6.6394,-1.5805,-1.08096,57,3
8.99483,-2.14287,1.13533,31,11
6.56364,-1.56368,-0.828468,36,4
9.96986,-2.38067,1.99243,43,13
7.52548,-1.79838,-0.405499,87,6
17.4772,-4.17656,4.14855,14,14
16.4126,-3.92517,-0.294562,62,7
21.7733,-5.21123,5.99891,17,15
8.57939,-2.06607,0.154035,40,8
0.515304,-0.124189,-0.122373,15,1
9.42874,-2.27234,0.508287,48,9
0.688979,-0.166172,-0.137764,24,2
8.92076,-2.15322,0.802879,67,10
6.5746,-1.58813,-1.07126,56,3
6.47931,-1.56631,-0.818475,58,4
9.75547,-2.3601,1.58969,49,12
6.45223,-1.56215,-0.580806,18,5
9.49253,-2.29999,1.89855,51,13
7.49425,-1.8172,-0.404138,65,6
15.972,-3.87583,-0.286883,86,7
21.7446,-5.28067,5.9958,14,15
14.8256,-3.62231,0.266394,21,8
0.514889,-0.125897,-0.122373,15,1
9.37613,-2.29432,0.505879,58,9
0.669325,-0.163907,-0.133948,26,2
8.77037,-2.14772,0.78998,33,10
6.66714,-1.63391,-1.08722,50,3
7.71375,-1.89182,0.975199,13,11
7.07723,-1.73702,-0.894765,30,4
9.13905,-2.24477,1.49051,35,12
6.82789,-1.67835,-0.615145,15,5
9.39293,-2.3106,1.88023,33,13
7.52083,-1.85147,-0.405918,29,6
9.09602,-2.23925,2.16268,45,14
15.7467,-3.87942,-0.283078,100,7
27.627,-6.8114,7.62429,10,15
9.87868,-2.45205,0.177666,22,8
0.514424,-0.127784,-0.122373,15,1
9.34052,-2.32193,0.504414,52,9
0.66872,-0.166359,-0.133948,26,2
8.89971,-2.214,0.802356,52,10
6.54418,-1.62922,-1.06813,66,3
8.76618,-2.18403,1.10925,40,11
6.49105,-1.6184,-0.821399,12,4
9.80541,-2.44658,1.60064,71,12
6.84102,-1.7082,-0.616888,15,5
9.43202,-2.35691,1.88977,34,13
7.49461,-1.87418,-0.404871,25,6
9.01024,-2.25319,2.14423,49,14
9.91469,-2.4812,-0.178398,100,7
9.73156,-2.43718,2.68809,3,15
12.3322,-3.10907,0.221995,48,8
0.513952,-0.129668,-0.122373,15,1
9.97724,-2.51722,0.53927,30,9
0.668135,-0.168692,-0.133948,26,2
8.77757,-2.21781,0.792071,52,10
6.45582,-1.63237,-1.05468,26,3
8.77929,-2.2215,1.11194,27,11
7.46072,-1.88924,-0.944975,41,4
8.86806,-2.24561,1.4489,27,12
9.4028,-2.38451,1.88557,48,13
16.3041,-4.13768,-0.881547,13,6
8.9887,-2.28284,2.14108,51,14
9.96024,-2.52958,-0.179376,45,7
24.3421,-6.18664,6.72981,7,15
9.84195,-2.516,0.177316,62,8
0.543727,-0.1391,-0.129572,14,1
9.35697,-2.3955,0.506193,44,9
0.680855,-0.174434,-0.136619,25,2
8.77363,-2.24942,0.79242,39,10
6.15378,-1.57773,-1.00619,12,3
8.69496,-2.23087,1.10219,60,11
7.26791,-1.86608,-0.921332,58,4
10.2798,-2.64131,1.68104,7,12
6.35039,-1.63286,-0.573659,31,5
9.34731,-2.40346,1.87603,40,13
10.1084,-2.60104,-0.547015,14,6
9.01128,-2.32041,2.14828,69,14
8.10592,-2.08879,-0.146112,65,7
17.2418,-4.4462,4.77107,18,15
0.561019,-0.145403,-0.155291,12,0
0.513058,-0.133164,-0.122373,15,1
11.2681,-2.92673,0.610133,38,9
0.674573,-0.17521,-0.135474,25,2
6.23426,-1.62158,-1.02027,11,3
8.74283,-2.27571,1.10925,27,11
7.23638,-1.88494,-0.918164,43,4
6.34272,-1.65452,-0.573485,41,5
9.31036,-2.42864,1.87031,33,13
8.25372,-2.15455,-0.447054,29,6
9.04083,-2.3617,2.15728,66,14
8.10632,-2.11909,-0.146251,89,7
17.1813,-4.49462,4.75865,18,15
0.560483,-0.147458,-0.155291,12,0
9.70037,-2.55208,0.175083,13,8
0.51259,-0.134954,-0.122373,15,1
9.76299,-2.5722,0.529117,53,9
0.673926,-0.177681,-0.135474,25,2
8.22794,-2.17084,0.744484,18,10
6.06593,-1.60156,-0.993672,1,3
8.8308,-2.33155,1.12144,60,11
6.81904,-1.80167,-0.866004,29,4
10.072,-2.66303,1.65007,19,12
6.36772,-1.6848,-0.576274,17,5
9.26914,-2.4542,1.86382,42,13
14.2037,-3.76339,-0.770071,45,6
9.05095,-2.39982,2.16178,36,14
12.3068,-3.26309,-0.222239,46,7
17.1954,-4.5625,4.76693,18,15
9.95757,-2.65881,0.179899,27,8
0.512092,-0.136831,-0.122373,15,1
10.6796,-2.85561,0.579359,42,9
0.658128,-0.175976,-0.132421,26,2
9.13091,-2.44662,1.16068,23,11
6.77979,-1.81791,-0.86186,28,4
19.4853,-5.22835,3.19533,17,12
6.45194,-1.73241,-0.584466,15,5
9.20553,-2.47178,1.85276,43,13
14.42,-3.87463,-0.782527,16,6
9.05945,-2.43595,2.16583,84,14
15.3361,-4.12652,-0.277214,56,7
17.2457,-4.64357,4.78556,12,15
14.9976,-4.06071,0.27121,16,8
0.534182,-0.144734,-0.127772,14,1
10.6638,-2.8913,0.579045,42,9
0.65369,-0.177359,-0.131658,26,2
8.21796,-2.23123,0.745007,58,10
6.95408,-1.88938,-1.14135,33,3
8.84454,-2.40301,1.12534,28,11
6.75233,-1.83583,-0.859179,13,4
9.55332,-2.59916,1.5681,21,12
7.37631,-2.00825,-0.668833,25,5
9.1661,-2.49725,1.84665,24,13
14.3441,-3.91064,-0.779178,16,6
9.10687,-2.48452,2.17933,67,14
12.4375,-3.39318,-0.225031,37,7
0.465734,-0.127847,-0.12941,15,0
10.9179,-2.99908,0.197631,13,8
0.54868,-0.150823,-0.131371,14,1
8.72935,-2.40119,0.474478,7,9
0.66821,-0.183805,-0.134711,25,2
6.06949,-1.67182,-0.997113,20,3
8.81845,-2.43066,1.12315,31,11
6.78575,-1.87165,-0.864297,12,4
8.47549,-2.33931,1.39258,43,12
9.98316,-2.75544,-0.906071,15,5
12.7556,-3.52546,-0.693556,6,6
9.28033,-2.56669,2.22297,48,14
12.4134,-3.43554,-0.224822,100,7
9.56392,-2.64871,2.65911,48,15
0.491341,-0.136723,-0.136656,14,0
10.1329,-2.82153,0.183599,11,8
0.484325,-0.134953,-0.116075,16,1
18.8097,-5.24469,1.02338,20,9
0.678911,-0.1893,-0.137001,24,2
8.10047,-2.26017,0.735769,41,10
6.00273,-1.67599,-0.987102,13,3
9.1464,-2.55544,1.16605,21,11
6.80403,-1.90228,-0.867466,28,4
8.47488,-2.37101,1.39383,71,12
7.4638,-2.08814,-0.678072,3,5
9.32237,-2.60987,1.88176,47,13
10.9566,-3.06944,-0.596316,54,6
9.30509,-2.60853,2.23106,63,14
12.3802,-3.47291,-0.224438,37,7
9.13426,-2.56409,2.54212,28,15
0.557796,-0.157315,-0.155291,12,0
14.0586,-3.96759,0.25498,11,8
0.510106,-0.144057,-0.122373,15,1
8.7412,-2.47022,0.476048,19,9
0.659354,-0.18633,-0.133185,26,2
7.50203,-2.12145,0.682081,15,10
9.9903,-2.82697,-1.64444,53,3
8.38871,-2.37535,1.0705,4,11
12.5672,-3.56089,-1.6038,6,4
8.39244,-2.37957,1.38163,35,12
7.2897,-2.0669,-0.662907,20,5
9.36798,-2.65794,1.89283,38,13
12.7345,-3.61551,-0.693766,16,6
11.5416,-3.27901,2.77005,19,14
12.7276,-3.61836,-0.230965,73,7
9.10668,-2.59067,2.53694,9,15
0.46437,-0.132717,-0.12941,15,0
8.26148,-2.3627,0.149986,35,8
0.5096,-0.145837,-0.122373,15,1
10.1553,-2.90815,0.55361,13,9
0.668136,-0.191333,-0.135093,25,2
9.82657,-2.81772,-1.6191,22,3
9.13979,-2.62252,1.16751,39,11
6.5559,-1.88235,-0.837486,22,4
8.56065,-2.45958,1.41073,24,12
12.5887,-3.61688,-1.14592,47,5
9.16241,-2.6342,1.85314,26,13
13.3245,-3.83333,-0.726632,13,6
10.8568,-3.12749,-0.197212,93,7
17.0387,-4.91153,4.7514,16,15
0.463904,-0.134338,-0.12941,15,0
8.2455,-2.3893,0.149846,17,8
0.509088,-0.147615,-0.122373,15,1
8.71415,-2.5284,0.475525,9,9
0.654266,-0.189834,-0.132421,26,2
7.47747,-2.17099,0.681209,56,10
7.43981,-2.16146,-1.22707,16,3
8.93805,-2.59844,1.14289,44,11
6.58359,-1.9152,-0.841874,40,4
12.5779,-3.66136,-1.1461,38,5
8.94205,-2.60468,1.8104,66,13
12.6304,-3.68142,-0.689474,39,6
9.33525,-2.72275,2.24501,46,14
9.83609,-2.87068,-0.178852,35,7
17.0548,-4.98072,4.76072,7,15
8.21984,-2.413,0.149532,30,8
0.50857,-0.149391,-0.122373,15,1
0.661133,-0.194331,-0.133948,26,2
7.97447,-2.3455,0.727228,60,10
8.80706,-2.59373,1.12729,47,11
6.52927,-1.92414,-0.83578,45,4
8.70053,-2.56566,1.43669,40,12
7.40716,-2.18426,-0.675631,35,5
8.867,-2.61643,1.79704,24,13
12.5485,-3.70512,-0.685706,65,6
9.47147,-2.79839,2.2801,35,14
12.1483,-3.59157,-0.221122,75,7
17.2226,-5.09503,4.81248,7,15
8.1922,-2.43597,0.149183,58,8
0.530459,-0.157834,-0.127772,14,1
8.54507,-2.54415,0.467255,69,9
0.667978,-0.198879,-0.135474,25,2
7.73901,-2.30563,0.706484,73,10
6.94938,-2.0717,-1.14854,17,3
8.64387,-2.57849,1.10755,30,11
6.69751,-1.99916,-0.858204,18,4
8.57228,-2.56039,1.41698,108,12
7.43728,-2.22281,-0.679118,37,5
11.369,-3.39789,2.3065,43,13
7.87717,-2.35877,-0.143529,16,7
9.38051,-2.81072,2.62391,37,15
0.462447,-0.139269,-0.12941,15,0
8.26023,-2.48762,0.150579,56,8
0.537368,-0.161934,-0.129572,14,1
8.53422,-2.57338,0.467151,40,9
0.655967,-0.197923,-0.133185,26,2
7.73432,-2.33513,0.706833,58,10
6.85286,-2.07031,-1.13384,60,3
8.36118,-2.52598,1.07245,20,11
6.73039,-2.03459,-0.863322,9,4
8.46497,-2.56056,1.40071,49,12
7.45427,-2.25626,-0.681384,10,5
9.06008,-2.74576,-0.496145,21,6
9.52393,-2.88814,2.29765,21,14
7.72728,-2.34331,-0.140946,100,7
8.19751,-2.50154,0.149602,51,8
0.521861,-0.15935,-0.125973,15,1
8.52282,-2.60406,0.467046,57,9
0.647762,-0.197917,-0.131658,26,2
7.67087,-2.34522,0.701778,71,10
6.79837,-2.07977,-1.12602,45,3
8.58913,-2.62924,1.10292,52,11
6.65456,-2.03831,-0.854548,12,4
8.53107,-2.61472,1.41323,83,12
7.46159,-2.28693,-0.682778,31,5
8.63781,-2.64909,1.75621,24,13
13.148,-4.0348,-0.720771,39,6
9.48957,-2.91394,2.2918,21,14
8.05888,-2.47616,-0.147159,16,7
8.20019,-2.53368,0.149811,33,8
0.480342,-0.148507,-0.116075,16,1
8.65297,-2.67689,0.474687,10,9
0.650818,-0.201337,-0.132421,26,2
7.55224,-2.33781,0.691668,60,10
6.80994,-2.10933,-1.12914,50,3
8.52871,-2.64334,1.09634,20,11
8.54642,-2.6521,1.4173,61,12
9.14522,-2.83792,-0.837741,13,5
12.594,-3.91296,-0.691149,35,6
9.45515,-2.93952,2.28595,48,14
11.1206,-3.45941,-0.203286,85,7
15.8945,-4.94756,4.46049,11,15
0.505857,-0.158332,-0.122373,15,1
0.650111,-0.203608,-0.132421,26,2
7.51932,-2.35641,0.689402,65,10
6.56881,-2.0598,-1.09035,72,3
8.44177,-2.64873,1.08634,72,11
7.33714,-2.30354,-0.944244,50,4
13.5026,-4.24439,-1.23831,7,5
8.44305,-2.65399,1.72033,46,13
9.62717,-3.02805,-0.528907,73,6
11.194,-3.52302,2.70931,31,14
9.60734,-3.0255,-0.175816,44,7
15.8661,-4.99952,4.45738,11,15
8.1518,-2.58121,0.149253,5,8
0.505302,-0.160097,-0.122373,15,1
8.97867,-2.84648,0.493633,45,9
0.656846,-0.208364,-0.133948,26,2
7.5733,-2.40385,0.695154,41,10
6.51791,-2.07011,-1.08315,52,3
13.0396,-4.14893,-1.19717,10,5
8.42391,-2.68193,1.71843,53,13
12.3982,-3.94963,-0.681938,19,6
9.41902,-3.00237,2.28235,29,14
8.28782,-2.64179,-0.151836,33,7
12.2541,-3.90842,3.44643,9,15
11.6193,-3.72608,0.212989,2,8
0.504711,-0.161948,-0.122373,15,1
0.652376,-0.209455,-0.133185,26,2
7.51744,-2.41503,0.690796,15,10
6.73068,-2.16358,-1.11976,25,3
8.89504,-2.86102,1.14728,26,11
6.34919,-2.04339,-0.818962,31,4
8.21497,-2.64545,1.36692,49,12
12.9864,-4.18447,-1.19369,12,5
8.31546,-2.67941,1.6982,36,13
9.34863,-3.01412,-0.514777,14,6
9.23971,-2.98078,2.24141,18,14
9.57212,-3.08987,-0.175571,100,7
12.35,-3.98893,3.47749,26,15
0.504143,-0.163709,-0.122373,15,1
10.1605,-3.30133,0.55989,10,9
0.662806,-0.215487,-0.135474,25,2
8.32514,-2.70821,0.765925,97,10
6.53487,-2.12709,-1.08847,47,3
8.46217,-2.75443,1.09268,27,11
6.70631,-2.18419,-0.866004,18,4
8.12868,-2.64901,1.3541,84,12
12.9546,-4.22422,-1.19212,27,5
8.27945,-2.70135,1.69286,46,13
12.2614,-4.00292,-0.675971,35,6
12.1464,-3.96772,-0.223042,100,7
10.8468,-3.54527,3.05769,10,15
0.550656,-0.180727,-0.155291,12,0
12.3264,-4.04794,0.226462,16,8
0.540596,-0.177634,-0.131371,14,1
10.2893,-3.38294,0.567636,24,9
0.639708,-0.210325,-0.130895,27,2
8.12874,-2.67417,0.748668,26,10
7.21264,-2.37419,-1.20267,30,3
8.85976,-2.91808,1.14533,47,11
6.69487,-2.20634,-0.865516,41,4
8.07249,-2.66191,1.34628,109,12
14.1715,-4.67582,-1.30559,13,5
8.40655,-2.77369,1.72072,33,13
8.98408,-2.96598,-0.495831,28,6
8.96173,-2.96207,-0.164751,94,7
10.8178,-3.57765,3.05303,29,15
8.06326,-2.67916,0.148311,40,8
0.525179,-0.174602,-0.127772,14,1
7.87435,-2.61945,0.434912,7,9
0.640795,-0.213288,-0.131277,27,2
6.68852,-2.22887,-1.11663,20,3
8.77608,-2.92452,1.13582,21,11
6.76058,-2.25419,-0.875022,23,4
8.13248,-2.7132,1.35785,79,12
10.1524,-3.38906,-0.936401,8,5
7.77624,-2.59737,1.59364,30,13
9.86156,-3.29581,-0.544922,28,6
8.36285,-2.79655,2.03581,13,14
8.94375,-2.9908,-0.164611,94,7
15.6656,-5.24164,4.42632,11,15
8.06286,-2.71189,0.148485,20,8
0.524535,-0.176526,-0.127772,14,1
7.86281,-2.64765,0.434807,6,9
0.64935,-0.218657,-0.133185,26,2
8.07164,-2.71954,0.745182,56,10
6.63578,-2.23705,-1.10912,62,3
7.18153,-2.42243,0.930594,54,11
6.99302,-2.36021,-0.90622,13,4
8.12248,-2.74299,1.35785,106,12
9.04754,-3.05539,-0.835475,32,5
7.73737,-2.61444,1.58753,42,13
9.04399,-3.0577,-0.500332,21,6
8.40657,-2.84383,2.04885,8,14
12.6073,-4.26735,-0.232326,45,7
15.7231,-5.32505,4.44806,11,15
12.0232,-4.0907,0.22168,13,8
0.501778,-0.170819,-0.122373,15,1
0.644866,-0.219656,-0.132421,26,2
8.09038,-2.75734,0.747796,41,10
9.20244,-3.13815,-1.53994,11,3
7.12606,-2.43146,0.924501,45,11
7.30786,-2.49492,-0.948144,11,4
8.23436,-2.81283,1.37819,52,12
11.5482,-3.94483,-1.06766,11,5
7.76721,-2.65477,1.59554,50,13
12.2724,-4.19699,-0.679739,22,6
12.5735,-4.30485,-0.231977,100,7
10.77,-3.68949,3.05044,8,15
12.0297,-4.1398,0.222064,37,8
0.52329,-0.180183,-0.127772,14,1
7.83894,-2.69916,0.434493,6,9
0.647807,-0.223184,-0.133185,26,2
7.56491,-2.60924,-1.26743,3,3
7.20572,-2.48676,0.935957,18,11
6.93509,-2.39471,-0.900858,23,4
8.17644,-2.82336,1.37005,77,12
9.28775,-3.20891,-0.859704,7,5
7.78572,-2.69148,1.60127,33,13
12.2199,-4.22675,-0.677646,42,6
8.39941,-2.90691,2.052,72,14
12.4816,-4.31971,-0.230546,45,7
8.04206,-2.7974,0.148625,10,8
0.537413,-0.187042,-0.131371,14,1
0.643317,-0.224152,-0.132421,26,2
7.56486,-2.63732,0.700907,24,10
8.95331,-3.12138,-1.50177,6,3
7.14495,-2.49233,0.929132,42,11
6.58788,-2.2993,-0.856742,32,4
8.27843,-2.89096,1.38883,53,12
11.7009,-4.08844,-1.08439,23,5
7.76008,-2.71146,1.59783,52,13
12.17,-4.25472,-0.675657,35,6
8.39708,-2.93732,2.0538,64,14
12.4533,-4.35863,-0.230302,100,7
11.0692,-3.87636,3.14258,10,15
13.3141,-4.68343,0.246358,37,8
0.499993,-0.175977,-0.122373,15,1
7.78034,-2.73989,0.432295,112,9
0.638866,-0.22498,-0.131658,26,2
7.55983,-2.66372,0.701255,48,10
8.87343,-3.12831,-1.49019,33,3
8.46349,-2.98545,1.10194,45,11
9.24059,-3.26319,1.55214,58,12
12.3956,-4.37734,-1.15011,11,5
7.71169,-2.7248,1.58982,15,13
12.2605,-4.33446,-0.681519,29,6
8.36289,-2.95817,2.04795,59,14
15.0432,-5.32412,-0.27854,32,7
10.8735,-3.85049,3.09082,16,15
13.3806,-4.75936,0.247894,15,8
0.499376,-0.177721,-0.122373,15,1
10.1885,-3.62796,0.566799,34,9
0.645475,-0.229843,-0.133185,26,2
7.41723,-2.64261,0.688879,41,10
8.3396,-2.97288,-1.40228,46,3
8.73721,-3.11634,1.13899,13,11
7.47842,-2.66883,-0.974955,35,4
8.63384,-3.08286,1.45202,20,12
12.4215,-4.43532,-1.15394,26,5
7.68365,-2.74509,1.586,43,13
8.62495,-3.08309,-0.480025,18,6
8.31949,-2.97553,2.03986,23,14
12.6522,-4.52766,-0.23456,9,7
8.40095,-3.00798,2.39097,42,15
0.454496,-0.16336,-0.12941,15,0
11.4671,-4.12391,0.21271,26,8
0.498752,-0.179463,-0.122373,15,1
11.5889,-4.17227,0.645512,24,9
0.639087,-0.230211,-0.13204,26,2
7.39859,-2.66511,0.688007,58,10
8.69827,-3.13672,1.13533,21,11
12.4202,-4.48623,-1.15534,26,5
8.21267,-2.96808,1.69744,30,13
6.6452,-2.40291,-0.370329,21,6
7.72628,-2.79382,1.89679,46,14
10.3046,-3.72819,-0.191278,9,7
8.3577,-3.02545,2.38165,56,15
9.43556,-3.4324,0.175257,15,8
0.498091,-0.18129,-0.122373,15,1
0.643773,-0.234569,-0.133185,26,2
7.34758,-2.67721,0.684173,86,10
8.83591,-3.22125,-1.48957,2,3
8.69044,-3.16994,1.13582,28,11
7.22977,-2.63857,-0.944975,43,4
8.23859,-3.00838,1.38914,58,12
8.77312,-3.2053,-0.817172,22,5
8.24968,-3.01569,1.70736,19,13
10.2828,-3.76093,-0.573811,13,6
7.75259,-2.83551,1.90579,32,14
19.2936,-7.06044,-0.358612,7,7
8.30484,-3.04078,2.36975,34,15
13.4522,-4.94944,0.250198,23,8
0.482793,-0.177729,-0.118774,16,1
10.1693,-3.74559,0.56795,24,9
0.646635,-0.238172,-0.133948,26,2
7.34333,-2.70619,0.684695,73,10
6.3479,-2.3406,-1.07158,5,3
8.77561,-3.23749,1.1485,15,11
7.25171,-2.67673,-0.949119,61,4
8.41837,-3.10904,1.42136,63,12
8.2423,-3.04401,-0.768714,11,5
12.2029,-4.51155,-0.681833,3,6
7.7988,-2.88486,1.91973,55,14
19.0669,-7.05684,-0.354877,79,7
11.0727,-4.1003,3.1638,17,15
8.68353,-3.22938,0.161714,27,8
0.496781,-0.18485,-0.122373,15,1
7.99051,-2.97482,0.446844,9,9
0.63844,-0.237687,-0.132421,26,2
7.26102,-2.70468,0.677897,73,10
6.52664,-2.43242,-1.10318,10,3
8.75682,-3.26533,1.14752,28,11
8.45559,-3.15637,1.4295,29,12
8.30068,-3.09855,-0.775163,27,5
7.61599,-2.84447,1.58028,50,13
8.06545,-3.01394,-0.451241,29,6
9.2526,-3.45941,2.28055,63,14
13.9234,-5.20852,-0.259482,25,7
8.15558,-3.06548,0.15208,10,8
0.514373,-0.193443,-0.126872,15,1
0.644956,-0.24268,-0.133948,26,2
7.19746,-2.70965,0.672842,60,10
6.28704,-2.36815,-1.06407,8,3
7.20174,-2.71413,0.944975,4,11
6.47129,-2.44014,-0.849186,54,4
13.2801,-5.01019,-1.2418,17,5
7.65009,-2.88768,1.58944,65,13
8.28283,-3.12817,-0.464011,58,6
7.98082,-3.0157,1.96967,15,14
6.71876,-2.54015,-0.125378,20,7
12.0502,-4.55821,3.45213,18,15
8.74116,-3.32045,0.163215,2,8
0.488192,-0.185544,-0.120574,15,1
0.640435,-0.243534,-0.133185,26,2
7.51757,-2.86016,0.703695,78,10
6.23258,-2.37251,-1.05625,10,3
7.19779,-2.74137,0.945706,4,11
6.47201,-2.46624,-0.850404,55,4
7.82239,-2.98239,1.32594,48,12
8.67353,-3.30689,-0.812117,10,5
7.64547,-2.91646,1.59058,17,13
11.9982,-4.57927,-0.67304,16,6
7.3986,-2.82525,1.8284,31,14
6.78084,-2.59071,-0.126704,41,7
8.1726,-3.12408,2.34438,9,15
7.89129,-3.02918,0.147543,31,8
0.469349,-0.18026,-0.116075,16,1
8.535,-3.2797,0.479188,7,9
0.632251,-0.242952,-0.131658,26,2
8.76096,-3.36828,0.821181,16,10
7.60149,-2.92403,-1.28996,33,3
7.13445,-2.7458,0.938638,4,11
6.48189,-2.49595,-0.852842,25,4
7.78613,-2.99973,1.32156,87,12
11.9723,-4.61494,-1.12257,40,5
8.47973,-3.26866,1.76651,27,13
7.98313,-3.07883,-0.448415,36,6
7.39233,-2.85246,1.8293,51,14
6.69714,-2.58555,-0.125308,81,7
8.17337,-3.17024,0.153023,47,8
0.512319,-0.198818,-0.126872,15,1
7.98171,-3.09911,0.448729,7,9
0.624036,-0.242424,-0.130132,27,2
7.51733,-2.92182,0.705613,43,10
6.98501,-2.71632,-1.18702,52,3
6.1128,-2.37714,0.805313,5,11
7.67008,-2.98427,-1.01054,45,4
7.86029,-3.05986,1.33595,84,12
11.9487,-4.65381,-1.12187,19,5
8.08538,-3.15073,1.68675,38,13
7.98296,-3.11242,-0.449043,50,6
7.39272,-2.88379,1.832,39,14
6.6918,-2.61037,-0.125378,60,7
8.1092,-3.16491,2.33248,49,15
7.88616,-3.09214,0.147857,42,8
0.482561,-0.189308,-0.119674,16,1
0.626841,-0.246035,-0.130895,27,2
7.47185,-2.93421,0.702301,46,10
6.11329,-2.40316,0.806531,5,11
7.83431,-3.08286,1.33345,92,12
11.8657,-4.66922,-1.11559,11,5
8.20951,-3.23216,1.71499,42,13
7.92373,-3.12124,-0.446321,29,6
8.00266,-3.15394,1.98587,63,14
6.66916,-2.62974,-0.125134,74,7
8.03644,-3.1705,2.31488,52,15
0.449048,-0.17779,-0.12941,15,0
0.492767,-0.195299,-0.122373,15,1
8.21554,-3.25774,0.463173,20,9
0.640578,-0.254011,-0.133948,26,2
7.4023,-2.93676,0.696723,73,10
7.66723,-3.04342,-1.30654,47,3
6.0366,-2.39737,0.797513,2,11
7.60241,-3.02076,-1.00445,8,4
7.52429,-2.99124,1.28245,109,12
12.0085,-4.77391,-1.13058,26,5
8.36966,-3.329,1.75086,50,13
7.88309,-3.13706,-0.444646,14,6
8.04773,-3.20421,1.99981,60,14
6.56705,-2.616,-0.123389,72,7
11.0276,-4.39512,3.18089,14,15
12.6246,-5.05204,0.237353,15,8
0.473991,-0.189775,-0.117874,16,1
0.643333,-0.257706,-0.134711,25,2
7.37906,-2.95739,0.695503,71,10
7.67857,-3.07898,-1.3103,43,3
6.01161,-2.41178,0.795319,27,11
11.7184,-4.70365,-1.55042,13,4
7.50464,-3.0138,1.28089,71,12
12.0029,-4.82025,-1.13163,26,5
7.54733,-3.03248,1.58104,47,13
11.9842,-4.81761,-0.676913,39,6
8.06,-3.24173,2.00566,47,14
6.55232,-2.63667,-0.123284,46,7
7.91734,-3.18757,2.28693,14,15
0.537355,-0.217105,-0.155291,12,0
6.00867,-2.42888,0.113127,15,8
0.516683,-0.208964,-0.128672,14,1
6.04308,-2.44525,0.341649,77,9
0.609671,-0.246694,-0.127842,28,2
7.41117,-3.00033,0.699512,78,10
7.60369,-3.07981,-1.29934,28,3
6.01971,-2.43946,0.797513,15,11
11.7847,-4.77809,-1.56139,21,4
7.51604,-3.04889,1.28464,71,12
10.5533,-4.28095,-0.996364,10,5
7.59673,-3.08317,1.59364,18,13
7.82214,-3.17624,-0.442448,14,6
6.43192,-2.61435,-0.12119,6,7
11.4244,-4.64593,3.3046,6,15
5.95572,-2.4317,0.112289,57,8
0.490695,-0.200449,-0.122373,15,1
6.04745,-2.47161,0.342382,60,9
0.626979,-0.256249,-0.131658,26,2
7.34532,-3.00356,0.694283,50,10
7.66785,-3.137,-1.31217,27,3
6.0277,-2.46722,0.799707,90,11
7.55934,-3.09569,-1.00298,39,4
7.45417,-3.05414,1.27588,120,12
8.75667,-3.58959,-0.82798,1,5
7.82579,-3.20959,-0.443286,58,6
6.10273,-2.5054,-0.115151,23,7
5.94165,-2.45018,0.112184,12,8
0.511609,-0.211079,-0.127772,14,1
6.04433,-2.49499,0.342696,45,9
0.629665,-0.260044,-0.132421,26,2
8.29363,-3.42686,0.785099,20,10
9.30659,-3.84731,-1.59501,26,3
5.98603,-2.4746,0.795319,45,11
7.56867,-3.1304,-1.00567,19,4
8.3196,-3.44269,1.42606,48,12
10.4377,-4.32129,-0.988346,29,5
7.45658,-3.08861,1.56883,48,13
7.80844,-3.23596,-0.442972,18,6
6.09395,-2.52669,-0.115151,29,7
7.87104,-3.26512,2.2833,62,15
5.94186,-2.47579,0.112359,55,8
0.474858,-0.197956,-0.118774,16,1
6.0333,-2.51636,0.342591,57,9
0.628753,-0.26224,-0.132421,26,2
5.93908,-2.47829,0.563026,5,10
11.6902,-4.88053,-2.00643,22,3
5.93295,-2.47816,0.78947,42,11
7.64323,-3.1941,-1.01712,8,4
7.95883,-3.32762,1.3663,61,12
6.66663,-2.78871,-0.632228,15,5
7.39141,-3.0919,1.55738,20,13
7.78051,-3.25625,-0.44203,79,6
6.05329,-2.53587,-0.114558,94,7
7.9481,-3.33128,2.30918,28,15
5.96267,-2.50893,0.112917,68,8
0.488533,-0.205661,-0.122373,15,1
6.01711,-2.53431,0.342173,66,9
0.627788,-0.264543,-0.132421,26,2
5.97219,-2.51784,0.567035,78,10
11.654,-4.91567,-2.0033,6,3
5.88586,-2.48265,0.784351,65,11
9.2433,-3.90072,-1.23186,23,4
7.9508,-3.35692,1.36692,45,12
6.64767,-2.80809,-0.631356,8,5
7.45779,-3.15183,1.57379,38,13
7.7814,-3.29019,-0.442762,65,6
7.32439,-3.09846,1.83605,21,14
6.0444,-2.55699,-0.114558,64,7
8.03249,-3.39967,2.33714,49,15
5.96816,-2.53702,0.113196,75,8
0.487776,-0.20745,-0.122373,15,1
6.00411,-2.55478,0.341963,15,9
0.623248,-0.265195,-0.131658,26,2
5.9322,-2.5254,0.564072,9,10
11.6768,-4.97335,-2.01018,9,3
5.99725,-2.55557,0.800438,62,11
9.23259,-3.93613,-1.23234,15,4
6.67082,-2.84535,-0.634494,17,5
7.31132,-3.12005,1.54517,63,13
11.8109,-5.04266,-0.67304,16,6
7.31174,-3.12325,1.8356,63,14
6.05522,-2.58777,-0.114942,64,7
12.1872,-5.21084,3.55152,10,15
5.98315,-2.56809,0.11365,70,8
0.487049,-0.209152,-0.122373,15,1
5.88322,-2.52763,0.335578,48,9
0.618711,-0.265819,-0.130895,27,2
11.6194,-4.99691,-2.0033,37,3
5.92265,-2.54824,0.791663,57,11
11.8754,-5.1119,-1.58747,11,4
6.61144,-2.84734,-0.629787,22,5
7.38512,-3.18206,1.56311,22,13
16.2043,-6.98537,-0.924776,31,6
8.05234,-3.47289,2.02456,20,14
6.08654,-2.62632,-0.115709,66,7
10.6507,-4.59793,3.10842,9,15
5.93562,-2.57226,0.112917,68,8
0.46486,-0.201548,-0.116975,16,1
5.87436,-2.54815,0.335578,39,9
0.612376,-0.265633,-0.12975,27,2
5.95646,-2.585,0.568081,50,10
11.5186,-5.00125,-1.98891,16,3
5.85909,-2.54517,0.784351,100,11
12.0669,-5.24431,-1.6155,17,4
5.72628,-2.48986,0.988979,60,12
6.62654,-2.88268,-0.632228,13,5
7.35057,-3.19764,1.55815,63,13
13.3815,-5.824,-0.764838,6,6
5.96551,-2.59883,-0.11358,63,7
10.67,-4.65052,3.11877,8,15
5.99439,-2.62262,0.114209,72,8
0.503429,-0.220361,-0.126872,15,1
5.90751,-2.58707,0.337986,41,9
0.634775,-0.278118,-0.134711,25,2
6.01811,-2.63801,0.574879,60,10
11.4929,-5.04026,-1.98766,23,3
5.82654,-2.55525,0.781183,40,11
11.8467,-5.19787,-1.58845,21,4
5.68499,-2.49554,0.983347,27,12
6.57995,-2.88977,-0.628742,61,5
7.39092,-3.24746,1.56921,33,13
11.091,-4.87556,-0.63494,13,6
5.91613,-2.60193,-0.112812,74,7
10.5405,-4.63794,3.08564,38,15
0.530147,-0.234155,-0.155291,12,0
5.97194,-2.63892,0.113964,45,8
0.484794,-0.214325,-0.122373,15,1
5.88565,-2.60202,0.337253,60,9
0.623027,-0.275568,-0.132421,26,2
6.01615,-2.66222,0.575576,16,10
11.0616,-4.89722,-1.91601,35,3
5.7772,-2.5589,0.77582,75,11
11.8257,-5.24045,-1.5882,27,4
5.65457,-2.50576,0.979593,13,12
6.54614,-2.90222,-0.626475,52,5
7.35262,-3.2613,1.56349,26,13
11.2492,-4.99201,-0.644988,22,6
7.73884,-3.43585,1.95482,10,14
6.00753,-2.66719,-0.114732,82,7
8.06313,-3.58151,2.36405,62,15
5.97411,-2.66359,0.114174,79,8
0.484081,-0.215932,-0.122373,15,1
5.92578,-2.64452,0.340079,60,9
0.604135,-0.269737,-0.128605,28,2
6.06504,-2.70921,0.581154,43,10
11.067,-4.94354,-1.91976,28,3
5.70526,-2.54969,0.767289,57,11
11.9696,-5.35175,-1.60989,24,4
6.53052,-2.92261,-0.625953,56,5
7.83456,-3.50621,1.66843,61,13
9.04514,-4.04988,-0.519382,45,6
6.00183,-2.68978,-0.114802,64,7
8.01532,-3.59382,2.3537,43,15
5.95201,-2.67869,0.113929,81,8
0.465555,-0.209619,-0.117874,16,1
5.94383,-2.6775,0.341649,43,9
0.610349,-0.27507,-0.130132,27,2
6.01242,-2.70966,0.576971,45,10
11.0695,-4.99108,-1.92321,23,3
5.68727,-2.56551,0.766071,85,11
12.0956,-5.45883,-1.62939,100,4
6.02942,-2.72239,1.0478,10,12
6.56567,-2.96589,-0.63031,26,5
7.76083,-3.50741,1.65546,33,13
11.973,-5.41356,-0.688637,35,6
7.68864,-3.4764,1.94808,56,14
6.0252,-2.72555,-0.11543,24,7
7.98865,-3.61541,2.34956,9,15
0.527666,-0.239693,-0.155291,12,0
5.96582,-2.71124,0.114383,61,8
0.482523,-0.21939,-0.122373,15,1
7.7138,-3.50888,0.444123,61,9
0.609337,-0.277306,-0.130132,27,2
6.24364,-2.84144,0.600154,26,10
11.0996,-5.05371,-1.93165,20,3
5.75912,-2.62337,0.777039,62,11
12.1261,-5.52617,-1.63622,28,4
6.56744,-2.99573,-0.631531,13,5
5.69931,-2.60093,1.21774,18,13
12.053,-5.50303,-0.694394,13,6
8.02862,-3.66562,2.03761,60,14
5.86966,-2.68115,-0.112638,63,7
10.4669,-4.78327,3.08357,11,15
5.96493,-2.73726,0.114558,66,8
0.481716,-0.221157,-0.122373,15,1
5.91907,-2.71746,0.341335,66,9
0.615501,-0.282709,-0.131658,26,2
5.86205,-2.69376,0.564421,24,10
8.18783,-3.76425,-1.42731,72,3
5.72963,-2.63534,0.774358,27,11
11.7613,-5.41208,-1.58966,13,4
5.85366,-2.69362,1.02058,84,12
6.59495,-3.03613,-0.635191,13,5
5.78114,-2.6627,1.23721,8,13
15.9881,-7.36723,-0.922578,10,6
8.03283,-3.70318,2.04211,16,14
5.85482,-2.69911,-0.112533,92,7
10.2554,-4.72997,3.02611,12,15
6.44034,-2.98131,0.123877,68,8
0.5022,-0.232581,-0.127772,14,1
5.89686,-2.73223,0.340602,57,9
0.603824,-0.279901,-0.129368,27,2
5.83454,-2.70583,0.562677,61,10
11.2809,-5.23164,-1.96951,11,3
