x, y, z, intensity, ring
0.674171,0.212177,-0.137382,49,2
11.2648,3.54314,1.03314,31,10
5.84562,1.83751,-0.97052,56,3
15.5863,4.89641,2.00597,4,11
6.54547,2.05499,-0.842361,41,4
7.57784,2.3762,-0.694806,28,5
17.5061,5.48944,3.56622,36,13
8.81844,2.76353,-0.484317,79,6
18.8273,5.89651,4.55481,17,14
10.4027,3.25602,-0.190266,20,7
29.1682,9.12399,8.18903,6,15
11.3624,3.53684,0.207719,55,8
0.539627,0.167868,-0.130472,14,1
0.701192,0.21786,-0.142725,45,2
11.2397,3.49001,1.02966,10,10
5.82968,1.80905,-0.966765,41,3
16.9475,5.2591,2.17878,41,11
6.6,2.04683,-0.848454,46,4
18.7023,5.79647,3.10116,27,12
7.5937,2.3521,-0.695503,28,5
17.5074,5.41944,3.5624,42,13
8.84377,2.73591,-0.485154,72,6
18.6477,5.76529,4.50622,37,14
10.4063,3.21732,-0.190127,22,7
29.2072,9.0244,8.1911,6,15
0.54021,0.165984,-0.130472,14,1
11.1591,3.42873,0.611807,72,9
0.705664,0.216686,-0.143488,44,2
11.2855,3.46324,1.0328,31,10
5.84131,1.79145,-0.967704,41,3
16.9278,5.18827,2.17391,37,11
6.64471,2.03657,-0.853329,46,4
17.4144,5.33408,2.88465,33,12
7.60527,2.32807,-0.695851,26,5
17.5891,5.38088,3.57538,25,13
8.83943,2.70248,-0.484422,79,6
10.4074,3.17988,-0.189952,22,7
29.8892,9.12664,8.37383,13,15
11.4628,3.48266,0.209115,40,8
0.52211,0.15853,-0.125973,15,1
10.9048,3.31105,0.597258,47,9
0.702622,0.213205,-0.142725,45,2
17.564,5.32632,1.60576,16,10
5.851,1.77321,-0.968329,53,3
17.247,5.2236,2.21266,23,11
6.63623,2.00992,-0.851379,42,4
17.4206,5.27286,2.88277,31,12
7.63202,2.30861,-0.697595,26,5
17.6294,5.32934,3.57996,16,13
8.83305,2.66853,-0.483584,76,6
27.9429,8.44176,6.73908,9,14
10.3738,3.13205,-0.189149,25,7
28.4175,8.57435,7.95351,11,15
11.7462,3.52628,0.214071,28,8
0.522633,0.156798,-0.125973,15,1
10.9105,3.27124,0.596944,85,9
0.695839,0.208497,-0.141199,46,2
11.2929,3.38374,1.0314,8,10
5.88145,1.76116,-0.972397,43,3
15.1685,4.53922,1.94406,28,11
6.65842,1.99129,-0.853329,46,4
7.6324,2.27967,-0.696897,26,5
17.8021,5.31381,3.61125,1,13
8.84231,2.63769,-0.483584,76,6
17.8283,5.31824,4.29522,25,14
10.3713,3.09182,-0.188905,23,7
28.3658,8.45083,7.93073,11,15
0.54189,0.160413,-0.130472,14,1
11.0393,3.26579,0.603329,47,9
0.700364,0.207059,-0.141962,46,2
11.2384,3.32256,1.0253,44,10
5.91059,1.74631,-0.976151,50,3
12.2778,3.62521,1.57187,29,11
6.70947,1.9798,-0.858935,38,4
7.63306,2.24943,-0.6962,28,5
17.8497,5.25685,3.61698,30,13
8.86149,2.60808,-0.484108,65,6
17.8009,5.2391,4.28397,43,14
10.3653,3.04871,-0.188591,26,7
28.3725,8.33973,7.924,5,15
11.1633,3.26227,0.203006,50,8
0.523769,0.152962,-0.125973,15,1
11.0473,3.22419,0.60312,78,9
0.697313,0.203513,-0.141199,46,2
11.1797,3.26071,1.01885,44,10
5.90558,1.72132,-0.974274,52,3
14.8964,4.33909,1.90506,100,11
6.74336,1.96296,-0.862348,42,4
15.3694,4.47103,2.53518,36,12
7.65999,2.22833,-0.697943,26,5
17.9905,5.23014,3.64178,13,13
8.86862,2.57658,-0.484003,72,6
17.9473,5.21077,4.31456,21,14
10.4071,3.01961,-0.189149,26,7
29.6163,8.58754,8.26254,6,15
11.0786,3.19557,0.201261,51,8
0.509319,0.146815,-0.122373,15,1
11.1622,3.21546,0.608772,57,9
0.720658,0.207599,-0.145778,32,2
11.0608,3.18418,1.007,17,10
5.90585,1.69906,-0.973335,62,3
14.9515,4.29858,1.91018,45,11
6.73682,1.93557,-0.860641,45,4
15.6241,4.48604,2.5746,66,12
7.65623,2.19828,-0.696897,25,5
17.8313,5.11641,3.60591,16,13
8.88332,2.54725,-0.484317,76,6
17.7387,5.08314,4.26012,24,14
10.4561,2.99428,-0.189847,33,7
30.3147,8.67544,8.44889,6,15
10.8743,3.09556,0.197352,50,8
0.524824,0.149302,-0.125973,15,1
11.2233,3.19067,0.611493,26,9
0.698717,0.198639,-0.141199,46,2
5.90035,1.67519,-0.971458,51,3
15.0104,4.25882,1.91579,57,11
6.74353,1.91204,-0.860641,43,4
15.7936,4.4751,2.59994,26,12
7.67919,2.17589,-0.698292,27,5
17.7678,5.03113,3.5895,33,13
8.8864,2.5146,-0.484003,76,6
27.7868,7.85764,6.66665,48,14
10.5126,2.97081,-0.190685,25,7
30.198,8.5281,8.408,13,15
10.5423,2.96132,0.191139,23,8
0.510332,0.143256,-0.122373,15,1
11.2862,3.16605,0.61432,18,9
0.703187,0.19726,-0.141962,46,2
11.5854,3.24779,1.05267,18,10
5.93659,1.66311,-0.976464,53,3
15.006,4.20105,1.91335,41,11
6.75208,1.88903,-0.860885,40,4
15.7768,4.4109,2.59462,47,12
7.7021,2.15336,-0.699686,27,5
16.422,4.58818,3.31435,10,13
8.89512,2.48356,-0.484003,90,6
28.0543,7.82763,6.72424,48,14
10.5306,2.93625,-0.190825,25,7
23.7626,6.62123,6.60972,7,15
10.5218,2.91596,0.19058,16,8
0.533365,0.147715,-0.127772,14,1
0.698195,0.193233,-0.140817,46,2
5.91571,1.63501,-0.972084,52,3
15.1086,4.17296,1.92456,20,11
6.76629,1.86756,-0.86186,41,4
15.6188,4.30801,2.56615,42,12
7.70609,2.12406,-0.699338,25,5
18.2454,5.02904,3.6788,9,13
8.92877,2.45939,-0.485364,68,6
25.6822,7.06923,6.14971,8,14
10.5755,2.90901,-0.191453,25,7
23.6254,6.4942,6.5652,7,15
0.545157,0.148934,-0.130472,14,1
11.414,3.11611,0.620076,39,9
0.691322,0.188606,-0.139291,36,2
12.4484,3.39382,1.12884,78,10
5.94644,1.62007,-0.976151,56,3
13.158,3.58482,1.67448,52,11
6.78809,1.8481,-0.86381,39,4
15.7996,4.29857,2.59337,50,12
7.71346,2.09715,-0.699338,25,5
8.95892,2.43241,-0.486515,83,6
23.5695,6.39486,5.63817,33,14
10.5683,2.86737,-0.191139,34,7
23.6535,6.41321,6.56676,14,15
10.4458,2.81459,0.188835,66,8
0.526882,0.141868,-0.125973,15,1
11.7938,3.17337,0.640069,105,9
0.695768,0.187212,-0.140054,47,2
11.9984,3.22618,1.08701,49,10
5.94252,1.59674,-0.974587,52,3
12.176,3.26939,1.54798,25,11
6.79098,1.82218,-0.863322,39,4
15.592,4.18078,2.55677,55,12
7.71689,2.06918,-0.698989,26,5
8.95,2.39647,-0.485573,83,6
23.4825,6.28334,5.61208,53,14
10.3662,2.77179,-0.187299,20,7
23.6973,6.33196,6.57245,15,15
10.4884,2.78683,0.189428,17,8
0.527374,0.140028,-0.125973,15,1
11.5364,3.06099,0.625519,35,9
0.704007,0.186796,-0.14158,46,2
11.7168,3.10666,1.06051,24,10
5.9767,1.58358,-0.97928,53,3
15.511,4.10688,1.97014,34,11
6.80306,1.79999,-0.864054,37,4
15.9426,4.2152,2.61183,43,12
7.73947,2.0463,-0.700384,25,5
16.32,4.31195,3.28115,15,13
8.97569,2.3698,-0.486515,76,6
23.4044,6.17497,5.58823,39,14
10.6388,2.80493,-0.192046,30,7
24.2629,6.39243,6.72308,15,15
10.4981,2.75021,0.189428,10,8
0.5354,0.14016,-0.127772,14,1
11.3533,2.97213,0.615052,41,9
0.678064,0.177381,-0.136238,50,2
6.00512,1.5687,-0.983034,56,3
12.7959,3.34024,1.62379,18,11
6.81314,1.77723,-0.864541,37,4
15.924,4.15382,2.60651,66,12
7.75428,2.02129,-0.701081,25,5
20.5622,5.35605,4.13025,19,13
9.00517,2.34399,-0.487667,76,6
23.5239,6.11875,5.61163,39,14
11.0912,2.88491,-0.200039,25,7
23.0724,5.99702,6.38765,3,15
10.6911,2.76291,0.192744,13,8
0.535862,0.138384,-0.127772,14,1
11.5377,2.9774,0.624473,32,9
0.705294,0.181877,-0.14158,46,2
12.9615,3.34,1.17102,92,10
6.02751,1.55321,-0.98585,52,3
15.5386,4.0012,1.97014,38,11
6.82668,1.7566,-0.865516,37,4
15.9728,4.10708,2.61214,40,12
7.75936,1.99371,-0.700907,28,5
21.0001,5.3958,4.21459,22,13
9.01676,2.31511,-0.487876,65,6
23.6214,6.06057,5.63007,26,14
11.1303,2.85362,-0.200563,29,7
23.1157,5.92219,6.39387,3,15
10.7355,2.73446,0.193373,13,8
0.559004,0.142281,-0.133171,14,1
13.0094,3.30881,0.7035,63,9
0.709699,0.180505,-0.142344,34,2
12.3661,3.14289,1.11629,21,10
6.04821,1.53605,-0.988353,48,3
12.2065,3.09779,1.54628,39,11
6.84432,1.73569,-0.866979,34,4
15.7765,3.99792,2.57773,60,12
7.76627,1.96662,-0.700907,31,5
20.9312,5.30031,4.19703,9,13
9.03446,2.28607,-0.488399,63,6
23.8125,6.02107,5.67057,27,14
11.1847,2.82602,-0.201366,24,7
23.0819,5.82776,6.37885,6,15
10.4968,2.63465,0.188905,16,8
0.551937,0.138432,-0.131371,14,1
13.0984,3.28279,0.707687,20,9
0.706547,0.176948,-0.14158,34,2
12.3157,3.08207,1.11071,40,10
6.0653,1.51675,-0.99023,53,3
15.3794,3.84592,1.9465,25,11
6.85804,1.71372,-0.867954,37,4
7.77889,1.94094,-0.701429,30,5
16.4777,4.10835,3.301,16,13
9.03697,2.2515,-0.488085,73,6
23.8798,5.94505,5.68136,33,14
23.0627,5.73735,6.36798,13,15
10.4928,2.59281,0.188661,12,8
0.544873,0.13454,-0.129572,14,1
10.6806,2.63527,0.576533,54,9
0.703348,0.17354,-0.140817,46,2
12.5469,3.09343,1.13058,52,10
6.07631,1.49698,-0.991169,50,3
12.5502,3.08961,1.58698,50,11
6.85849,1.68715,-0.867222,33,4
12.0698,2.96686,1.96857,10,12
7.79949,1.91574,-0.70265,27,5
20.2746,4.97992,4.05813,26,13
9.04477,2.21994,-0.488085,52,6
23.6468,5.79946,5.62108,33,14
10.0957,2.47413,-0.181435,27,7
22.9335,5.61603,6.32657,3,15
10.5348,2.5642,0.189254,5,8
0.533978,0.129874,-0.126872,15,1
10.6664,2.59231,0.575277,42,9
0.696348,0.169108,-0.139291,48,2
12.1613,2.95111,1.09485,78,10
6.07791,1.47377,-0.990543,72,3
12.231,2.96579,1.5453,29,11
6.86048,1.66226,-0.866735,31,4
17.0776,4.13466,2.78297,28,12
7.82162,1.89225,-0.704044,30,5
17.4761,4.22468,3.49486,24,13
9.05867,2.18818,-0.488399,77,6
23.7133,5.72373,5.63187,33,14
10.9051,2.63219,-0.195816,100,7
22.9604,5.53775,6.32864,3,15
10.5558,2.52837,0.189463,26,8
0.53066,0.127009,-0.125973,15,1
10.6895,2.55646,0.57601,30,9
0.696934,0.166676,-0.139291,48,2
12.3788,2.95819,1.1135,45,10
6.11376,1.45989,-0.995549,43,3
12.3056,2.93614,1.55335,36,11
6.87425,1.63895,-0.86771,31,4
12.156,2.89598,1.97921,26,12
7.81655,1.86217,-0.702998,28,5
17.4449,4.15274,3.4857,9,13
9.04488,2.15146,-0.487248,87,6
30.4315,7.23296,7.22138,10,14
10.3719,2.46328,-0.186078,100,7
22.9054,5.43572,6.30794,13,15
0.542481,0.127837,-0.128672,14,1
0.697512,0.164242,-0.139291,48,2
12.1738,2.86431,1.09415,24,10
6.12844,1.4408,-0.997113,46,3
12.2887,2.88681,1.54993,21,11
6.89732,1.61902,-0.869903,37,4
18.0529,4.23428,2.9369,30,12
7.83464,1.8376,-0.704044,30,5
17.4688,4.09407,3.48761,15,13
9.029,2.11441,-0.485992,83,6
24.9424,5.83643,5.91396,7,14
11.1242,2.60098,-0.199411,32,7
22.8622,5.34122,6.29086,22,15
0.516347,0.119778,-0.122373,15,1
0.705731,0.16358,-0.140817,46,2
13.6492,3.1612,1.22576,21,10
6.14498,1.42207,-0.998991,48,3
12.2039,2.82199,1.53799,38,11
6.91454,1.59762,-0.871366,40,4
15.9234,3.67622,2.58837,13,12
7.85492,1.81201,-0.705264,28,5
20.4272,4.71223,4.07492,22,13
9.04411,2.08467,-0.48641,87,6
23.546,5.42304,5.57834,26,14
10.7376,2.47109,-0.192326,100,7
22.9183,5.27005,6.30121,6,15
0.53956,0.123179,-0.127772,14,1
10.7468,2.45148,0.577684,21,9
0.706326,0.160992,-0.140817,46,2
10.6671,2.42937,0.957144,4,10
6.15785,1.40129,-1.00024,48,3
15.0513,3.4251,1.89531,4,11
6.9162,1.57259,-0.870878,36,4
15.9497,3.62368,2.59056,25,12
7.87868,1.78855,-0.706833,30,5
20.563,4.66426,4.09858,14,13
9.05559,2.0524,-0.48662,97,6
23.6626,5.35866,5.60128,26,14
10.9744,2.48527,-0.196409,100,7
23.1061,5.22839,6.3478,10,15
11.0704,2.48671,0.19805,10,8
0.562825,0.126322,-0.133171,14,1
10.8629,2.43612,0.583441,43,9
0.695389,0.155948,-0.138527,36,2
10.6035,2.376,0.950695,17,10
6.18005,1.38367,-1.00306,52,3
15.488,3.46482,1.94869,17,11
6.9103,1.54463,-0.869416,50,4
7.88129,1.75879,-0.706484,32,5
17.4674,3.89803,3.47883,11,13
9.09194,2.02729,-0.48819,77,6
23.2894,5.18872,5.5086,12,14
11.1064,2.47241,-0.198608,53,7
23.1025,5.13863,6.34158,6,15
11.3993,2.51881,0.203774,25,8
0.52901,0.116795,-0.125073,15,1
13.085,2.88651,0.702244,28,9
0.70746,0.155934,-0.140817,34,2
10.6141,2.33755,0.950869,12,10
6.18894,1.36186,-1.00368,52,3
12.0898,2.66033,1.51995,17,11
6.93503,1.52477,-0.871853,36,4
12.6702,2.7834,2.05461,10,12
7.90685,1.73554,-0.708228,30,5
20.3216,4.45684,4.04401,20,13
9.12077,1.99866,-0.489341,80,6
20.704,4.53315,4.89314,18,14
24.7698,5.41879,6.794,12,15
11.4138,2.48028,0.203879,31,8
0.552267,0.119909,-0.130472,14,1
10.8543,2.35471,0.582081,61,9
0.707973,0.153587,-0.140817,46,2
11.2469,2.43783,1.00682,19,10
6.1857,1.33966,-1.00243,52,3
12.3512,2.67269,1.55164,39,11
6.96554,1.506,-0.875022,42,4
7.92649,1.71087,-0.709448,33,5
20.8314,4.4963,4.14246,23,13
9.17616,1.97893,-0.491958,77,6
20.7533,4.47185,4.90123,18,14
11.3287,2.439,-0.202273,100,7
23.8914,5.13933,6.54812,3,15
11.3442,2.42371,0.202483,65,8
0.541248,0.11554,-0.127772,14,1
10.8878,2.32223,0.583441,48,9
0.704691,0.150172,-0.140054,47,2
6.19444,1.3178,-1.00306,50,3
12.0149,2.55603,1.50826,38,11
6.96493,1.48044,-0.874291,34,4
17.8504,3.79098,2.89028,15,12
7.91487,1.67947,-0.707879,31,5
20.8266,4.41544,4.13827,14,13
9.19702,1.94818,-0.492691,66,6
20.6399,4.36832,4.87064,35,14
11.7108,2.47852,-0.20894,100,7
24.8883,5.26293,6.81626,16,15
11.2552,2.36158,0.200738,58,8
0.534038,0.111955,-0.125973,15,1
10.9408,2.29363,0.585849,40,9
0.701368,0.146907,-0.139291,48,2
10.5522,2.20832,0.943199,27,10
6.20673,1.29778,-1.00431,46,3
10.8544,2.2676,1.36152,3,11
6.97977,1.45815,-0.875509,38,4
19.3061,4.02974,3.12368,16,12
7.94214,1.6563,-0.709796,30,5
20.6555,4.30387,4.10125,23,13
9.23897,1.92339,-0.494575,70,6
20.6065,4.28992,4.85939,35,14
11.502,2.39242,-0.205066,100,7
10.2994,2.1254,0.183564,17,8
0.553493,0.114119,-0.130472,14,1
10.9836,2.2646,0.587733,30,9
0.694159,0.142996,-0.137764,49,2
10.5302,2.16729,0.940585,21,10
6.21487,1.27799,-1.00494,53,3
11.4005,2.34226,1.42904,30,11
6.9729,1.4326,-0.874047,41,4
17.4056,3.57286,2.81426,11,12
7.95344,1.63116,-0.710319,30,5
20.7216,4.246,4.11155,17,13
9.30986,1.90596,-0.498029,56,6
21.9628,4.49633,5.17567,26,14
10.7811,2.2052,-0.192081,74,7
24.2875,4.96345,6.64233,3,15
10.2927,2.08845,0.18332,46,8
0.565327,0.114606,-0.133171,14,1
10.9209,2.21197,0.583965,15,9
0.7062,0.142908,-0.140054,35,2
6.23457,1.2605,-1.00744,53,3
11.4218,2.30719,1.43075,6,11
6.99148,1.411,-0.875753,45,4
17.3773,3.50387,2.80769,15,12
7.94346,1.60024,-0.708925,30,5
21.1424,4.25537,4.19207,22,13
9.29884,1.86991,-0.497087,45,6
23.4934,4.72429,5.53245,12,14
11.1671,2.24358,-0.198818,26,7
25.1457,5.04744,6.87216,4,15
10.2532,2.04135,0.182482,30,8
0.558098,0.111013,-0.131371,14,1
11.0034,2.18672,0.587942,20,9
0.71057,0.141084,-0.140817,46,2
11.1372,2.2113,0.993401,21,10
6.22558,1.23496,-1.00525,48,3
11.4419,2.26763,1.43221,13,11
7.01607,1.38922,-0.878191,46,4
7.97859,1.57691,-0.71154,28,5
20.0022,3.94966,3.9631,18,13
9.09792,1.79484,-0.485992,76,6
21.8338,4.30737,5.13788,20,14
33.0074,6.49973,9.01415,7,15
10.5216,2.05473,0.187125,32,8
0.5432,0.105981,-0.127772,14,1
0.726474,0.141607,-0.14387,44,2
10.6681,2.07753,0.950869,40,10
6.2417,1.21439,-1.00713,50,3
12.2373,2.3787,1.53068,21,11
7.01332,1.36198,-0.877216,45,4
17.069,3.31169,2.75387,24,12
7.98209,1.54867,-0.711365,30,5
21.0181,4.07408,4.16154,63,13
9.36688,1.81395,-0.500018,38,6
21.4247,4.14514,5.038,39,14
10.2978,1.9905,-0.183076,99,7
24.5162,4.73439,6.69047,19,15
10.4423,2.00143,0.185589,65,8
0.520599,0.0996863,-0.122373,15,1
11.0286,2.10981,0.588466,11,9
0.715394,0.136857,-0.14158,46,2
10.6361,2.0328,0.947383,48,10
6.26336,1.19593,-1.00994,57,3
11.4032,2.17528,1.42538,64,11
7.01804,1.33749,-0.877216,43,4
13.8048,2.62842,2.22575,26,12
8.00898,1.5249,-0.713283,30,5
20.9859,3.99189,4.15239,36,13
20.4664,3.88567,4.80945,21,14
10.3341,1.96014,-0.183599,30,7
24.5668,4.65526,6.69979,7,15
10.9071,2.05107,0.193722,47,8
0.547757,0.102906,-0.128672,14,1
10.9711,2.05914,0.585011,16,9
0.696572,0.130738,-0.137764,36,2
10.4493,1.95931,0.930126,68,10
6.27526,1.17552,-1.01119,51,3
11.5044,2.15299,1.43708,27,11
7.02461,1.31335,-0.877459,38,4
16.8179,3.14131,2.70976,16,12
8.02209,1.4984,-0.71398,30,5
20.9727,3.91357,4.14704,23,13
20.4588,3.81029,4.8045,46,14
10.7204,1.99464,-0.190336,100,7
24.6076,4.57408,6.70652,3,15
10.3892,1.91614,0.184402,16,8
0.555779,0.102406,-0.130472,14,1
10.9704,2.01938,0.584593,44,9
0.700886,0.129016,-0.138527,36,2
10.2621,1.88715,0.912869,70,10
6.28904,1.15539,-1.01276,56,3
11.6212,2.13288,1.45073,16,11
7.04673,1.29205,-0.879653,37,4
13.7879,2.52557,2.22012,27,12
8.02139,1.46931,-0.713457,28,5
21.189,3.87743,4.18711,20,13
23.892,4.36344,5.60713,39,14
10.6545,1.94393,-0.189044,22,7
0.548462,0.0990796,-0.128672,14,1
11.0049,1.98604,0.586058,14,9
0.701332,0.126569,-0.138527,24,2
10.2568,1.84919,0.911823,58,10
6.27943,1.13098,-1.01057,51,3
10.7455,1.93341,1.34056,34,11
7.07073,1.27095,-0.88209,40,4
13.7694,2.47254,2.21574,23,12
8.01103,1.43708,-0.712062,30,5
22.0198,3.95009,4.34854,26,13
9.73533,1.74465,-0.518335,73,6
23.6999,4.24294,5.55854,25,14
10.423,1.86413,-0.184821,100,7
28.779,5.14187,7.83342,11,15
10.3944,1.84217,0.184263,46,8
0.548805,0.0971643,-0.128672,14,1
12.6048,2.22937,0.670842,22,9
0.694058,0.122631,-0.137001,37,2
10.2635,1.81159,0.911823,54,10
6.29326,1.10967,-1.01213,50,3
10.5899,1.86728,1.32033,12,11
7.05753,1.24316,-0.879897,39,4
13.8207,2.432,2.22262,27,12
8.0317,1.41187,-0.713457,30,5
21.9568,3.85577,4.33327,21,13
9.83216,1.72483,-0.52315,63,6
22.0837,3.87011,5.17612,42,14
10.4511,1.83153,-0.185205,33,7
28.8843,5.0567,7.85723,11,15
11.0611,1.91854,0.195956,61,8
0.537636,0.0931561,-0.125973,15,1
17.0861,2.95743,0.908762,21,9
0.70222,0.121547,-0.138527,36,2
10.5918,1.83142,0.94041,21,10
6.31267,1.09039,-1.01463,56,3
10.6221,1.83284,1.3235,53,11
7.07965,1.22032,-0.88209,40,4
13.8782,2.38971,2.23044,20,12
8.05646,1.3858,-0.7152,30,5
12.1837,2.09573,2.40305,5,13
8.911,1.53119,-0.47385,50,6
22.099,3.79334,5.17657,52,14
10.3572,1.77598,-0.183425,21,7
28.9445,4.95798,7.86862,16,15
10.9948,1.86753,0.194664,100,8
0.530273,0.0899747,-0.124173,15,1
12.9572,2.19619,0.688741,5,9
0.687175,0.11635,-0.135474,50,2
10.3489,1.75039,0.918273,48,10
6.30883,1.06592,-1.01338,48,3
10.4953,1.77326,1.30693,42,11
7.07603,1.19428,-0.881115,45,4
14.5312,2.44995,2.334,11,12
8.05928,1.35734,-0.715026,30,5
12.2261,2.05693,2.40992,3,13
9.09185,1.52798,-0.483166,25,6
21.9302,3.68165,5.13383,20,14
10.4028,1.74643,-0.184123,100,7
28.8797,4.84318,7.84636,22,15
11.4139,1.8957,0.201959,28,8
0.542134,0.0899444,-0.126872,15,1
13.0085,2.15587,0.691044,10,9
0.691451,0.114593,-0.136238,37,2
10.2921,1.70384,0.912695,40,10
6.32226,1.04551,-1.01495,48,3
10.7113,1.7694,1.33301,12,11
7.09016,1.16995,-0.882334,40,4
8.08756,1.33309,-0.717117,30,5
22.4111,3.69005,4.41494,10,13
9.11683,1.49947,-0.484212,90,6
24.1043,3.9602,5.63952,26,14
9.72836,1.59657,-0.172081,8,7
28.8077,4.7226,7.82203,27,15
11.3612,1.84622,0.200912,77,8
0.550139,0.0893003,-0.128672,14,1
10.9301,1.77225,0.580301,23,9
0.699598,0.113436,-0.137764,36,2
10.7385,1.73926,0.951741,42,10
6.31807,1.02217,-1.0137,53,3
10.5842,1.71047,1.31643,25,11
7.10007,1.14615,-0.883065,45,4
13.702,2.20943,2.19822,25,12
8.09413,1.30517,-0.717292,27,5
22.3754,3.60399,4.4054,20,13
8.99778,1.44766,-0.477618,94,6
21.963,3.52971,5.13563,46,14
11.8485,1.90206,-0.209464,100,7
28.6294,4.59082,7.76923,16,15
11.2254,1.78395,0.198399,20,8
0.546598,0.0867684,-0.127772,14,1
10.946,1.73564,0.580824,30,9
0.709685,0.11253,-0.139672,35,2
10.4946,1.66218,0.929603,25,10
6.32355,1.00042,-1.01401,50,3
10.5352,1.66484,1.30961,30,11
7.11188,1.12259,-0.88404,42,4
13.8267,2.18005,2.21699,23,12
8.10651,1.27815,-0.717989,30,5
26.668,4.19996,5.24763,36,13
9.04618,1.42307,-0.479921,25,6
22.0253,3.46088,5.14733,52,14
10.0376,1.57544,-0.177351,35,7
28.5957,4.48307,7.75577,16,15
11.0083,1.71007,0.194455,60,8
0.558452,0.0866526,-0.130472,14,1
10.9461,1.6965,0.58051,50,9
0.713954,0.110654,-0.140435,23,2
10.4432,1.6167,0.924548,54,10
6.34848,0.981662,-1.01745,48,3
10.6057,1.63805,1.31765,53,11
7.11967,1.09837,-0.884528,42,4
10.7847,1.66185,1.72829,12,12
7.89825,1.21707,-0.699163,32,5
26.6709,4.10504,5.24534,39,13
10.1724,1.56386,-0.539374,52,6
29.3239,4.50291,6.84931,50,14
10.0924,1.54797,-0.178224,97,7
28.6474,4.38879,7.76561,22,15
11.1249,1.68844,0.196409,45,8
0.52407,0.0794452,-0.122373,15,1
11.1317,1.6855,0.590036,21,9
0.691042,0.104634,-0.135856,37,2
10.4212,1.57607,0.922108,64,10
6.35186,0.959494,-1.01745,46,3
10.5583,1.59303,1.31107,36,11
7.13524,1.07529,-0.88599,45,4
12.5074,1.88264,2.0033,28,12
8.11151,1.21951,-0.71764,25,5
26.6889,4.01251,5.2461,39,13
9.98025,1.49869,-0.528907,100,6
29.5206,4.42768,6.8916,50,14
10.1195,1.51599,-0.178608,25,7
28.504,4.26504,7.72264,10,15
9.88847,1.46549,0.174489,26,8
0.551332,0.0816103,-0.128672,14,1
11.3588,1.67934,0.601759,33,9
0.69919,0.103247,-0.137382,37,2
10.3028,1.51954,0.911126,70,10
6.35925,0.936784,-1.01808,46,3
10.4715,1.54256,1.29961,36,11
7.15074,1.0521,-0.887453,43,4
12.4299,1.82662,1.98985,14,12
8.20442,1.20421,-0.725484,27,5
26.8161,3.93117,5.26824,14,13
10.1912,1.49219,-0.539793,100,6
29.6176,4.33131,6.9105,10,14
10.3305,1.51075,-0.182238,45,7
28.5416,4.16886,7.72885,21,15
10.1689,1.46898,0.179341,58,8
0.536198,0.0773629,-0.125073,15,1
9.52615,1.37444,0.504414,14,9
0.707318,0.101926,-0.138909,36,2
10.3041,1.48301,0.910778,62,10
6.34684,0.912331,-1.01557,53,3
10.7129,1.53803,1.32886,31,11
7.16437,1.0273,-0.888671,41,4
12.5183,1.795,2.00299,35,12
8.21252,1.17613,-0.725833,28,5
29.1094,4.16362,5.71587,17,13
10.2833,1.46903,-0.544399,94,6
29.5457,4.2155,6.89025,10,14
10.9079,1.5563,-0.192326,55,7
28.4776,4.05804,7.70763,21,15
10.0133,1.41263,0.176514,77,8
0.563467,0.0793909,-0.131371,14,1
9.52891,1.3409,0.504309,54,9
0.719335,0.101096,-0.141199,23,2
6.35961,0.892656,-1.01714,50,3
10.7179,1.50249,1.32886,34,11
7.17167,1.00408,-0.889159,40,4
12.4287,1.73789,1.98766,7,12
8.24815,1.15186,-0.728622,23,5
23.424,3.27119,4.59735,30,13
10.0844,1.40651,-0.533617,77,6
29.6792,4.13418,6.91814,20,14
11.0459,1.53668,-0.194664,24,7
31.4556,4.37042,8.50945,26,15
9.78243,1.34525,0.17236,60,8
0.517406,0.0710598,-0.120574,15,1
9.52341,1.30793,0.503786,27,9
0.696326,0.0955087,-0.136619,37,2
9.29141,1.27277,0.820484,6,10
6.37247,0.871788,-1.0187,48,3
9.98948,1.36483,1.23795,43,11
7.17906,0.979582,-0.889646,39,4
13.4639,1.83714,2.15223,15,12
8.31312,1.13285,-0.734026,20,5
23.3925,3.18357,4.58896,30,13
10.1348,1.37748,-0.536025,59,6
29.6491,4.02453,6.9078,50,14
10.4922,1.42419,-0.184821,45,7
31.3397,4.24843,8.47425,26,15
9.52522,1.27771,0.167753,55,8
0.525364,0.0703785,-0.122373,15,1
9.56553,1.27971,0.505775,37,9
0.696655,0.0930776,-0.136619,37,2
9.29974,1.24085,0.820833,24,10
6.38512,0.851956,-1.02027,52,3
9.79324,1.30496,1.21309,33,11
7.18621,0.956295,-0.890134,41,4
13.4408,1.78622,2.14753,12,12
8.39208,1.11378,-0.740649,33,5
23.3368,3.09721,4.57598,24,13
10.1452,1.34466,-0.536339,63,6
29.7357,3.93589,6.92489,51,14
10.5407,1.39332,-0.185589,45,7
31.3965,4.14459,8.48564,19,15
9.45889,1.23018,0.166496,13,8
0.560428,0.0727867,-0.130472,14,1
10.7927,1.39981,0.570357,47,9
0.704795,0.0914119,-0.138146,36,2
9.38348,1.21537,0.827805,70,10
6.39436,0.827076,-1.0212,48,3
9.76887,1.26182,1.20943,22,11
7.20574,0.92947,-0.892084,41,4
13.4733,1.73553,2.1516,35,12
8.42593,1.08536,-0.743264,31,5
25.2845,3.25249,4.95531,13,13
10.1585,1.30494,-0.536758,98,6
29.7705,3.81897,6.92939,41,14
10.689,1.3693,-0.188102,36,7
31.7195,4.05774,8.56846,20,15
9.46511,1.1974,0.166531,15,8
0.537478,0.0678994,-0.125073,15,1
9.69574,1.22314,0.51216,21,9
0.701214,0.0884595,-0.137382,24,2
6.38937,0.803769,-1.01995,48,3
9.83231,1.23514,1.21674,30,11
7.21682,0.905298,-0.893059,41,4
13.544,1.6966,2.16192,20,12
8.44746,1.05818,-0.744833,34,5
23.3223,2.91735,4.56873,11,13
10.0143,1.2509,-0.528907,77,6
29.8108,3.71842,6.93569,51,14
10.7989,1.34507,-0.189952,100,7
31.4995,3.91789,8.50531,19,15
9.50893,1.16923,0.167229,32,8
0.545449,0.0669727,-0.126872,15,1
0.697621,0.0855339,-0.136619,25,2
10.4537,1.27985,0.921411,46,10
6.40978,0.783617,-1.02277,52,3
10.5026,1.28212,1.29913,33,11
7.22585,0.880823,-0.89379,37,4
13.7263,1.67079,2.19008,24,12
8.13087,0.988261,-0.716594,31,5
29.6663,3.60577,5.80899,4,13
9.94527,1.20703,-0.525034,100,6
29.8332,3.61551,6.93794,41,14
10.4502,1.26461,-0.183739,90,7
30.485,3.6837,8.22786,12,15
9.50104,1.13461,0.16702,30,8
0.526329,0.0627611,-0.122373,15,1
0.709627,0.0843666,-0.138909,48,2
10.4346,1.23871,0.919319,64,10
6.42634,0.761748,-1.02496,53,3
10.5011,1.24475,1.2984,27,11
7.21311,0.853726,-0.89184,37,4
13.6928,1.61824,2.18383,35,12
8.33214,0.983228,-0.734026,23,5
11.4978,1.35475,2.2504,4,13
12.1777,1.43056,2.83078,12,14
10.2976,1.2097,-0.180981,46,7
30.5936,3.58851,8.25374,25,15
10.3772,1.20068,0.182343,77,8
0.561401,0.064857,-0.130472,14,1
9.54533,1.10274,0.503577,47,9
0.686513,0.0791898,-0.13433,38,2
10.4012,1.19795,0.916007,66,10
6.43681,0.740212,-1.02621,48,3
10.5884,1.21576,1.30863,39,11
7.21224,0.826833,-0.891352,40,4
13.6395,1.56368,2.17444,12,12
8.66807,0.992201,-0.76331,33,5
11.5707,1.32241,2.26376,22,13
12.111,1.37988,2.81414,27,14
10.2839,1.1717,-0.180667,23,7
30.6712,3.48913,8.27134,25,15
10.2499,1.15153,0.180039,53,8
0.549993,0.0616915,-0.127772,14,1
9.50148,1.06409,0.501064,56,9
0.702394,0.0785381,-0.137382,24,2
10.3776,1.15854,0.913566,62,10
6.44709,0.719737,-1.02746,46,3
10.4582,1.16569,1.29206,12,11
7.20705,0.802035,-0.890377,45,4
10.1188,1.12428,1.61253,25,12
8.69723,0.964795,-0.765576,37,5
11.5848,1.28512,2.26567,27,13
9.92362,1.09909,-0.523255,56,6
11.8908,1.31486,2.76195,14,14
10.1826,1.12417,-0.178817,97,7
30.7408,3.3884,8.28687,12,15
0.526957,0.0572458,-0.122373,15,1
11.8442,1.2846,0.624368,22,9
0.69094,0.0749381,-0.135093,25,2
10.5538,1.14278,0.928732,23,10
6.43974,0.696168,-1.0259,50,3
10.478,1.13087,1.29401,63,11
7.23547,0.779635,-0.893546,39,4
10.1266,1.08937,1.61315,50,12
8.7045,0.934853,-0.765925,37,5
11.4896,1.23397,2.2462,27,13
9.96711,1.0687,-0.525348,91,6
12.0465,1.28953,2.79704,61,14
10.1805,1.08798,-0.178713,53,7
31.809,3.39379,8.57157,27,15
9.58556,1.00918,0.168241,16,8
0.554287,0.058258,-0.128672,14,1
9.66759,1.0144,0.509438,13,9
0.706831,0.0740416,-0.138146,24,2
6.456,0.673998,-1.02809,57,3
10.4918,1.09533,1.29523,36,11
7.25591,0.756228,-0.89574,50,4
10.0812,1.04891,1.60533,49,12
8.78104,0.912077,-0.772374,30,5
11.4628,1.18862,2.2401,26,13
9.87163,1.02188,-0.520115,98,6
11.9755,1.23755,2.7795,34,14
10.1683,1.05079,-0.178433,31,7
30.8906,3.18679,8.32103,25,15
9.63296,0.978484,0.169009,16,8
0.550619,0.0558327,-0.127772,14,1
0.710991,0.0719691,-0.138909,24,2
10.3733,1.0482,0.912172,54,10
6.45242,0.650862,-1.02715,48,3
10.5392,1.06124,1.30059,75,11
7.22901,0.726652,-0.892084,52,4
10.0496,1.0084,1.5997,58,12
7.90991,0.793697,-0.695503,28,5
11.4513,1.14703,2.23704,14,13
9.897,0.989601,-0.521266,100,6
11.9779,1.19555,2.77905,25,14
10.0308,0.999439,-0.175955,31,7
31.4672,3.12975,8.47322,13,15
0.527537,0.0516325,-0.122373,15,1
10.2272,0.999184,0.538537,20,9
0.687791,0.0671962,-0.13433,25,2
10.6169,1.03538,0.933264,53,10
6.48218,0.631015,-1.03153,52,3
10.5349,1.02368,1.29961,45,11
7.28682,0.706777,-0.898908,43,4
10.002,0.968368,1.59156,34,12
13.3234,1.28759,2.60187,16,13
10.0097,0.965593,-0.527023,56,6
11.98,1.15355,2.7786,42,14
10.078,0.96863,-0.176723,24,7
30.3645,2.91308,8.17351,12,15
9.63756,0.911017,0.168974,46,8
0.547115,0.0516214,-0.126872,15,1
0.697794,0.0657152,-0.136238,25,2
10.6125,0.99757,0.932566,53,10
6.48237,0.608201,-1.03122,52,3
10.6036,0.993002,1.30766,36,11
7.29122,0.68152,-0.899152,36,4
10.1469,0.946663,1.61409,52,12
7.84596,0.730609,-0.689402,10,5
13.3239,1.24071,2.60111,15,13
9.91958,0.921957,-0.522104,100,6
11.9646,1.10992,2.7741,46,14
10.1889,0.943398,-0.178608,97,7
16.8685,1.55891,4.53917,6,15
9.60285,0.873928,0.168311,75,8
0.551173,0.0500637,-0.127772,14,1
10.4865,0.950661,0.55183,46,9
0.713673,0.0645726,-0.139291,24,2
10.4931,0.947559,0.921759,42,10
6.48653,0.584614,-1.03153,53,3
10.9313,0.985207,1.34763,18,11
7.30344,0.656956,-0.900371,47,4
10.1088,0.907526,1.60752,44,12
7.82068,0.700726,-0.686962,12,5
23.043,2.06059,4.49699,18,13
10.4938,0.936551,-0.552144,73,6
11.8113,1.05205,2.73765,40,14
10.4172,0.927872,-0.182552,100,7
16.8816,1.5007,4.54124,9,15
0.54747,0.047705,-0.126872,15,1
10.4561,0.909275,0.550051,23,9
0.704114,0.0612304,-0.137382,24,2
10.8556,0.942107,0.95331,17,10
6.48262,0.561458,-1.03059,55,3
10.8557,0.938295,1.33788,31,11
7.30778,0.630355,-0.900615,57,4
13.3909,1.15272,2.12876,10,12
22.878,1.96535,4.4634,34,13
9.74483,0.835426,-0.512578,49,6
11.7994,1.00949,2.73406,68,14
12.6321,1.07851,-0.221297,56,7
30.2956,2.58127,8.14711,18,15
9.62679,0.806692,0.168625,62,8
0.528214,0.0441697,-0.122373,15,1
10.9389,0.912805,0.575277,108,9
0.698454,0.0582829,-0.136238,25,2
6.49242,0.539479,-1.03184,50,3
10.208,0.846435,1.25769,2,11
7.30202,0.604186,-0.89964,36,4
10.1033,0.83419,1.60564,21,12
9.01477,0.744318,-0.791374,27,5
10.4953,0.864724,2.047,6,13
10.3508,0.850994,-0.544294,56,6
11.7252,0.961924,2.71606,44,14
10.1764,0.833083,-0.178224,88,7
16.9804,1.3871,4.56505,15,15
9.57772,0.76892,0.167718,70,8
0.543905,0.0435706,-0.125973,15,1
0.706482,0.0564701,-0.137764,24,2
6.52577,0.519321,-1.03685,52,3
10.8244,0.859505,1.33325,68,11
7.3595,0.583081,-0.906464,45,4
10.0825,0.797052,1.60189,41,12
9.80817,0.771918,-0.515614,98,6
11.7848,0.925417,2.72911,36,14
10.2231,0.800989,-0.178992,100,7
16.2109,1.26729,4.35696,3,15
9.70995,0.745439,0.169986,35,8
0.563484,0.0431599,-0.130472,14,1
0.691014,0.0528067,-0.134711,25,2
10.5529,0.804599,0.925943,36,10
6.54527,0.497886,-1.03966,57,3
10.2632,0.778899,1.26379,25,11
7.3793,0.558742,-0.908658,45,4
10.0714,0.760809,1.5997,37,12
7.84758,0.592818,-0.68853,13,5
10.4678,0.788918,2.04051,34,13
9.81877,0.738282,-0.516033,31,6
11.8093,0.885875,2.73406,48,14
10.2418,0.76649,-0.179271,26,7
16.2114,1.21042,4.35592,13,15
9.66063,0.707739,0.169079,67,8
0.559744,0.0409087,-0.129572,14,1
0.718607,0.0523931,-0.140054,23,2
10.6133,0.771946,0.930998,74,10
6.50953,0.472318,-1.03372,47,3
10.5589,0.764282,1.29986,33,11
7.38517,0.533264,-0.909145,45,4
11.9793,0.862884,1.90224,21,12
9.38983,0.674721,-0.823622,30,5
10.4333,0.749703,2.03326,30,13
7.92476,0.568056,-0.416385,50,6
11.6005,0.829494,2.68502,48,14
10.1088,0.721062,-0.176898,23,7
16.2348,1.15519,4.3611,26,15
9.68898,0.675824,0.169533,77,8
0.528779,0.0367906,-0.122373,15,1
0.722711,0.0500302,-0.140817,23,2
10.2881,0.710398,0.902236,24,10
6.52304,0.449272,-1.0356,52,3
13.9044,0.957659,1.71129,31,11
7.385,0.507347,-0.908902,60,4
10.1514,0.695615,1.61159,10,12
9.44381,0.64547,-0.828154,39,5
10.7024,0.729615,2.08516,80,13
7.85506,0.534127,-0.412617,18,6
11.6443,0.789743,2.69446,23,14
10.0913,0.684416,-0.176549,24,7
16.2368,1.09837,4.36058,27,15
9.69538,0.640569,0.169602,77,8
0.52891,0.0348521,-0.122373,15,1
9.75753,0.641254,0.512474,43,9
0.728759,0.0478932,-0.141962,34,2
10.3382,0.677606,0.90642,80,10
6.54823,0.428047,-1.03935,50,3
13.8662,0.903981,1.70617,15,11
7.44822,0.484267,-0.916458,42,4
9.40436,0.608155,-0.824493,37,5
10.5618,0.683006,2.0573,34,13
11.6217,0.747468,2.68862,38,14
9.89416,0.634627,-0.173058,43,7
16.6437,1.06463,4.46877,11,15
9.78537,0.612218,0.171138,46,8
0.548478,0.0342192,-0.126872,15,1
9.96902,0.620209,0.523464,18,9
0.721091,0.0447358,-0.140435,23,2
10.3108,0.637862,0.903805,62,10
6.54975,0.404042,-1.03935,56,3
9.974,0.615277,1.22698,20,11
7.48949,0.460704,-0.921332,53,4
11.8951,0.729618,1.88754,21,12
9.44819,0.577875,-0.828154,37,5
10.433,0.636285,2.03173,25,13
9.79444,0.595622,-0.514253,63,6
11.7119,0.710172,2.70886,25,14
9.94023,0.602746,-0.173826,8,7
16.7051,1.01003,4.4843,6,15
9.7077,0.571644,0.169742,70,8
0.5486,0.0322086,-0.126872,15,1
10.0489,0.589975,0.527547,8,9
0.729083,0.0426771,-0.141962,34,2
10.4184,0.608021,0.913044,16,10
6.54718,0.380948,-1.03873,51,3
9.96429,0.578029,1.22552,31,11
7.49311,0.433364,-0.921576,66,4
9.37058,0.540306,-0.821181,52,5
10.835,0.622846,2.10958,6,13
9.58709,0.549432,-0.503263,66,6
16.7922,0.959414,3.88311,13,14
11.4416,0.65371,-0.200039,20,7
16.3768,0.932813,4.39527,10,15
9.70156,0.539007,0.169602,56,8
0.529246,0.0293117,-0.122373,15,1
0.733148,0.0403475,-0.142725,34,2
10.4344,0.572416,0.914264,22,10
6.5484,0.359236,-1.03873,52,3
10.3566,0.566333,1.27353,42,11
7.39342,0.403001,-0.909145,63,4
10.0911,0.548287,1.60064,8,12
8.06135,0.436586,-0.70631,22,5
11.6623,0.631607,2.27025,4,13
9.43928,0.50956,-0.495412,70,6
11.9558,0.64332,2.7642,17,14
11.2521,0.603483,-0.196689,25,7
11.2312,0.600396,3.01369,12,15
9.73334,0.506696,0.170126,82,8
0.544914,0.0282717,-0.125973,15,1
9.77342,0.507073,0.512892,121,9
0.748963,0.0387276,-0.145778,43,2
10.9257,0.563033,0.957144,40,10
6.56146,0.336982,-1.0406,56,3
10.4121,0.532925,1.28012,27,11
7.58907,0.387102,-0.933032,42,4
8.06673,0.410055,-0.706659,18,5
9.3652,0.472783,-0.491435,77,6
12.0085,0.604126,2.7759,21,14
10.9405,0.550394,-0.191209,100,7
11.1521,0.559088,2.99195,20,15
9.62112,0.46887,0.168136,23,8
0.529434,0.0257082,-0.122373,15,1
9.77713,0.473052,0.512997,26,9
0.741249,0.0357346,-0.144252,22,2
9.78331,0.469924,0.856915,22,10
6.5507,0.314651,-1.03873,51,3
9.85265,0.471536,1.21114,22,11
7.77868,0.370917,-0.956187,45,4
10.0354,0.476769,1.59125,14,12
8.06811,0.381896,-0.706659,15,5
11.5114,0.544882,2.2401,22,13
11.9813,0.562925,2.76915,27,14
16.7911,0.785978,-0.29341,15,7
16.3412,0.76206,4.38336,8,15
9.87455,0.44322,0.172534,10,8
0.568464,0.0254161,-0.131371,14,1
9.96843,0.443952,0.522941,50,9
0.741375,0.0330177,-0.144252,33,2
9.86856,0.437774,0.864236,56,10
6.57751,0.290631,-1.04279,53,3
10.4692,0.460761,1.2867,87,11
7.8911,0.345913,-0.969836,41,4
10.0037,0.43677,1.58593,38,12
8.2649,0.357963,-0.433551,3,6
12.0009,0.517675,2.7732,8,14
18.596,0.798923,-0.324894,52,7
16.7049,0.714748,4.48016,8,15
10.2097,0.422555,0.178364,37,8
0.564655,0.0232713,-0.130472,14,1
9.88211,0.405547,0.518335,28,9
0.73364,0.0301074,-0.142725,34,2
10.2244,0.417801,0.895264,50,10
6.59823,0.268474,-1.04592,53,3
10.4449,0.423166,1.28353,36,11
7.73359,0.311963,-0.950337,51,4
10.1847,0.409064,1.6144,19,12
6.60542,0.265303,-0.578366,26,5
8.23816,0.327997,-0.432086,29,6
11.8702,0.470535,2.7426,63,14
10.0526,0.39673,-0.175606,97,7
16.7304,0.657339,4.48637,11,15
0.568628,0.0214469,-0.131371,14,1
0.745512,0.0279881,-0.145015,32,2
9.81165,0.36664,0.859007,34,10
6.55767,0.243897,-1.03935,52,3
10.363,0.383617,1.27329,84,11
7.54815,0.278101,-0.927426,51,4
10.6618,0.390952,1.68981,5,12
6.60436,0.241017,-0.578191,38,5
9.21527,0.334692,-0.48327,50,6
11.8757,0.429235,2.7435,25,14
9.77819,0.351715,-0.170789,100,7
16.8234,0.602194,4.5107,16,15
10.1884,0.350448,0.177945,43,8
0.568699,0.019462,-0.131371,14,1
9.84478,0.335187,0.516242,52,9
0.753458,0.0255215,-0.146541,31,2
9.92444,0.334431,0.868768,96,10
6.57036,0.220259,-1.04123,52,3
10.3524,0.347044,1.27183,24,11
7.4975,0.250029,-0.921089,17,4
10.537,0.345869,2.04929,26,13
8.36805,0.273209,-0.438785,58,6
11.4642,0.372299,2.64812,56,14
9.76536,0.317128,-0.170545,22,7
16.8563,0.544459,4.51898,13,15
10.3076,0.316729,0.180004,58,8
0.553184,0.0169012,-0.127772,14,1
10.1154,0.307292,0.530373,23,9
0.749617,0.0227722,-0.145778,43,2
10.0191,0.302616,0.876961,30,10
6.61651,0.198684,-1.04842,46,3
10.3258,0.308271,1.26842,51,11
6.91302,0.205176,-0.849186,48,4
10.7177,0.316221,1.69825,13,12
7.57778,0.222259,-0.663255,10,5
11.8294,0.346961,2.30039,26,13
8.345,0.243304,-0.437529,72,6
10.5305,0.305179,2.43217,17,14
9.74447,0.280698,-0.170161,23,7
11.2446,0.321951,3.01421,10,15
10.1407,0.276171,0.177072,58,8
0.545448,0.0147594,-0.125973,15,1
0.745771,0.0199195,-0.145015,21,2
9.96641,0.264462,0.872255,80,10
6.63694,0.174954,-1.05155,48,3
10.2911,0.271281,1.26403,28,11
7.0903,0.185667,-0.870878,20,4
10.7365,0.279272,1.70107,10,12
10.6334,0.272876,2.06761,31,13
8.87494,0.2262,-0.465267,39,6
10.5081,0.265991,2.42677,19,14
9.54349,0.241573,-0.166636,100,7
11.1587,0.280511,2.99091,10,15
10.8833,0.256483,0.190022,56,8
0.568877,0.0133069,-0.131371,14,1
9.88373,0.231195,0.518126,43,9
0.74191,0.0172252,-0.144252,22,2
9.92544,0.22871,0.868594,100,10
6.63356,0.151694,-1.05093,41,3
10.3159,0.234103,1.26695,3,11
7.49775,0.17015,-0.920845,72,4
7.62098,0.170282,-0.666916,15,5
10.5793,0.234541,2.05692,30,13
9.32894,0.205191,-0.489027,63,6
9.68622,0.211353,-0.169114,94,7
11.1809,0.24202,2.99661,4,15
10.8941,0.220591,0.190196,55,8
0.549434,0.0110294,-0.126872,15,1
9.96232,0.199984,0.522208,38,9
0.734112,0.0146084,-0.142725,45,2
9.76479,0.192609,0.854475,24,10
6.63402,0.129697,-1.05093,42,3
11.5054,0.222925,1.41295,60,11
7.44667,0.144284,-0.914508,45,4
11.0838,0.21282,1.75582,12,12
7.61154,0.144821,-0.666044,47,5
10.1423,0.191202,1.97182,36,13
7.09502,0.132516,-0.371899,21,6
11.4235,0.21336,2.63778,26,14
9.91679,0.183488,-0.173128,87,7
11.1584,0.204514,2.9904,1,15
10.8848,0.184296,0.190022,40,8
0.545571,0.00914211,-0.125973,15,1
10.1507,0.168323,0.532047,39,9
0.757712,0.0125647,-0.147305,42,2
9.7853,0.160556,0.856218,84,10
6.58899,0.106961,-1.04373,33,3
12.3874,0.198925,1.52117,28,11
6.9271,0.110031,-0.850648,27,4
11.0765,0.174002,1.75457,19,12
7.40681,0.115065,-0.64809,20,5
10.6474,0.165407,2.0699,11,13
7.13137,0.109538,-0.373783,28,6
10.4655,0.158922,2.41642,10,14
9.8234,0.147462,-0.171487,100,7
11.2788,0.167336,3.02249,11,15
11.7332,0.157697,0.204821,60,8
0.530011,0.00703073,-0.122373,15,1
10.4348,0.136599,0.546911,120,9
0.745974,0.00963548,-0.145015,32,2
10.0169,0.127632,0.876438,34,10
6.57551,0.0826348,-1.04154,42,3
12.5865,0.158175,1.54555,58,11
7.51697,0.0931576,-0.923038,56,4
10.6643,0.130295,1.68918,5,12
7.51276,0.0904792,-0.657329,35,5
7.10576,0.083097,-0.372423,17,6
10.3802,0.119578,2.39663,26,14
11.5435,0.132978,-0.201505,76,7
17.2774,0.196016,4.62976,5,15
9.82004,0.0959844,0.171418,16,8
0.553417,0.00531269,-0.127772,14,1
10.2695,0.0967923,0.538223,27,9
0.753856,0.0071053,-0.146541,42,2
9.8898,0.0914831,0.865282,64,10
6.58563,0.0597725,-1.04311,32,3
11.6778,0.103952,1.43391,40,11
7.51726,0.0656004,-0.923038,51,4
15.6503,0.133851,2.47886,12,12
7.55886,0.0633285,-0.661338,33,5
10.6169,0.088949,2.06379,24,13
7.09003,0.0581598,-0.371585,14,6
10.9808,0.0881646,2.5352,9,14
9.8162,0.0771009,-0.171348,100,7
35.6049,0.273426,9.54059,16,15
10.1263,0.06363,0.176758,25,8
0.561227,0.00342834,-0.129572,14,1
10.1559,0.0602664,0.532257,73,9
0.734245,0.00422931,-0.142725,34,2
9.80639,0.0547694,0.857961,22,10
6.82483,0.0369261,-1.08096,41,3
11.8369,0.0640443,1.45341,27,11
7.47377,0.0391364,-0.917676,38,4
7.59888,0.0371355,-0.664824,38,5
10.6486,0.0501859,2.0699,27,13
8.00893,0.0363438,-0.419734,14,6
10.1899,0.0444624,2.35254,19,14
10.9462,0.0477627,-0.191069,23,7
16.9944,0.0711951,4.55366,16,15
9.76448,0.0255602,0.17044,52,8
0.530056,0.00129526,-0.122373,15,1
9.80652,0.0222519,0.513939,12,9
0.761741,0.00172846,-0.148068,41,2
12.1695,0.0254841,1.06469,22,10
6.73207,0.0129259,-1.06626,52,3
11.9284,0.0208214,1.46463,28,11
7.48974,0.0117629,-0.919626,51,4
7.61092,0.00930024,-0.66587,53,5
12.4176,0.0151738,2.41373,12,13
7.08228,0.00741486,-0.371167,3,6
10.1724,0.00887965,2.34849,6,14
9.32658,0.0065136,-0.162796,100,7
9.8085,-0.00855953,0.171208,71,8
0.549544,-0.000575482,-0.126872,15,1
0.749963,-0.00104715,-0.145778,32,2
9.5794,-0.0150473,0.83809,2,10
6.73207,-0.0117497,-1.06626,56,3
11.7636,-0.0205314,1.4444,20,11
7.28726,-0.0139906,-0.894765,25,4
10.7658,-0.0225478,1.70514,12,12
7.39972,-0.0167895,-0.647393,26,5
10.7076,-0.0261636,2.08134,9,13
7.02633,-0.0183949,-0.368236,3,6
11.0688,-0.03091,2.55544,26,14
9.51252,-0.026564,-0.166042,43,7
17.0408,-0.0505612,4.56609,2,15
9.8084,-0.0445094,0.171208,70,8
0.530051,-0.00249783,-0.122373,15,1
10.8729,-0.0531357,0.569834,29,9
0.761734,-0.00372256,-0.148068,41,2
10.7608,-0.0544656,0.941456,57,10
6.94533,-0.036366,-1.10005,40,3
12.7481,-0.0689744,1.56529,25,11
7.4817,-0.0417861,-0.918651,46,4
12.5592,-0.0723368,1.98922,19,12
7.30398,-0.0420684,-0.639026,10,5
10.7035,-0.0635164,2.08058,8,13
8.10872,-0.049534,-0.424968,54,6
22.1275,-0.139033,5.10864,25,14
9.33238,-0.0602667,-0.162901,93,7
17.3766,-0.115248,4.65616,3,15
9.85818,-0.0791482,0.172081,50,8
0.553424,-0.00453986,-0.127772,14,1
11.1283,-0.0932307,0.583232,44,9
0.749937,-0.0062828,-0.145778,43,2
10.5055,-0.0898463,0.919144,30,10
6.59158,-0.0575239,-1.04404,35,3
14.8281,-0.131991,1.82073,20,11
7.26911,-0.0659741,-0.892571,23,4
10.6528,-0.0985434,1.6873,22,12
7.29582,-0.06749,-0.638329,18,5
8.63975,-0.0829382,-0.452811,58,6
11.041,-0.107917,2.54915,20,14
9.33412,-0.0928624,-0.162936,100,7
10.3098,-0.104368,2.76263,6,15
9.86584,-0.113651,0.17222,33,8
0.549507,-0.00642607,-0.126872,15,1
9.83181,-0.116692,0.5153,7,9
0.74991,-0.00890053,-0.145778,32,2
10.3955,-0.125197,0.909557,58,10
6.57159,-0.0802911,-1.04092,41,3
14.9903,-0.185766,1.84071,4,11
7.25494,-0.0911731,-0.890865,30,4
10.7313,-0.136734,1.69982,17,12
7.22581,-0.0920683,-0.632228,20,5
8.21402,-0.107527,-0.430516,76,6
11.0406,-0.146457,2.54915,48,14
9.39172,-0.126223,-0.163948,100,7
10.2726,-0.139856,2.7528,23,15
8.13784,-0.122157,0.142063,28,8
0.529996,-0.00804827,-0.122373,15,1
0.753801,-0.0115785,-0.146541,42,2
10.0205,-0.155665,0.876787,42,10
6.43696,-0.10112,-1.01964,48,3
15.1721,-0.240992,1.86314,20,11
7.32008,-0.117549,-0.898908,13,4
7.23341,-0.11742,-0.632925,13,5
8.35938,-0.138616,-0.438157,76,6
11.0225,-0.184701,2.5451,43,14
11.7605,-0.199121,-0.20531,100,7
9.99973,-0.171054,2.67981,10,15
8.15936,-0.150969,0.142447,21,8
0.553346,-0.0103349,-0.127772,14,1
11.0828,-0.208931,0.580929,57,9
0.769459,-0.0145057,-0.149594,40,2
10.0239,-0.190718,0.877135,58,10
6.54519,-0.125674,-1.03685,25,3
15.0481,-0.291567,1.84803,28,11
10.7124,-0.211299,1.697,39,12
17.7031,-0.35228,3.44181,48,13
8.73225,-0.175291,-0.45773,83,6
10.3632,-0.209841,2.39303,19,14
9.37862,-0.191541,-0.163738,100,7
18.2734,-0.376391,4.89737,7,15
8.50065,-0.186969,0.148415,16,8
0.529927,-0.0117481,-0.122373,15,1
0.769401,-0.0173258,-0.149594,40,2
10.0669,-0.228451,0.88097,64,10
6.35313,-0.145282,-1.0065,57,3
15.3666,-0.351399,1.88727,45,11
8.43044,-0.194258,-1.0354,31,4
10.6721,-0.247774,1.69074,21,12
7.45348,-0.174349,-0.652274,16,5
11.9863,-0.282472,2.33054,7,13
10.415,-0.24908,2.40518,8,14
9.41587,-0.225186,-0.164402,100,7
8.59586,-0.220587,0.150091,37,8
0.568842,-0.014697,-0.131371,14,1
0.741859,-0.0192967,-0.144252,44,2
10.0302,-0.262651,0.877833,34,10
7.05162,-0.185885,-1.11726,30,3
12.2655,-0.325469,1.50655,28,11
8.41776,-0.224837,-1.03394,46,4
10.6592,-0.286569,1.68887,23,12
7.32337,-0.196885,-0.640943,26,5
7.02775,-0.191393,-0.368445,3,6
10.2504,-0.280949,2.36738,8,14
9.45496,-0.260798,-0.1651,34,7
9.94327,-0.276004,2.66532,42,15
7.82548,-0.228154,0.136652,24,8
0.52983,-0.0155399,-0.122373,15,1
9.07559,-0.267772,0.475839,25,9
0.745712,-0.022002,-0.145015,43,2
10.0253,-0.297543,0.877484,54,10
7.02329,-0.209673,-1.11287,60,3
10.8615,-0.326157,1.33423,34,11
7.77206,-0.234743,-0.954725,33,4
11.4381,-0.347467,1.81245,18,12
7.13345,-0.2167,-0.624384,26,5
17.8416,-0.54511,3.46967,16,13
7.08293,-0.217641,-0.371376,3,6
10.8531,-0.33728,-0.189533,100,7
9.96735,-0.311495,2.67205,8,15
7.71272,-0.251814,0.134698,42,8
0.529772,-0.0173892,-0.122373,15,1
9.03268,-0.298067,0.47364,30,9
0.745631,-0.0246048,-0.145015,43,2
10.0202,-0.332404,0.877135,48,10
6.74216,-0.224839,-1.06845,31,3
10.8801,-0.364733,1.33666,18,11
8.16601,-0.275175,-1.00323,31,4
17.8807,-0.605662,2.83365,9,12
7.11473,-0.240992,-0.622815,30,5
11.445,-0.38967,2.22598,7,13
7.06017,-0.241612,-0.370225,52,6
10.0963,-0.347278,2.33229,26,14
16.6075,-0.574144,-0.290059,86,7
17.7237,-0.615828,4.75192,28,15
9.44839,-0.341503,0.16503,21,8
0.529708,-0.0192384,-0.122373,15,1
9.11342,-0.332581,0.477932,118,9
0.749464,-0.0273506,-0.145778,43,2
10.0727,-0.36935,0.881842,26,10
6.33074,-0.233244,-1.00337,70,3
10.7836,-0.399185,1.32496,15,11
7.48259,-0.278298,-0.919382,25,4
7.04814,-0.263371,-0.617063,28,5
7.07525,-0.266857,-0.371062,31,6
10.1223,-0.383551,2.33859,48,14
8.82227,-0.335833,-0.154105,41,7
17.7465,-0.678652,4.75865,12,15
7.71876,-0.30597,0.134837,6,8
0.529638,-0.0210873,-0.122373,15,1
0.745441,-0.0298097,-0.145015,32,2
10.0555,-0.403869,0.880447,18,10
6.4266,-0.259242,-1.0187,15,3
10.7682,-0.436262,1.32326,46,11
7.30505,-0.297232,-0.89769,13,4
10.9345,-0.44682,1.73329,27,12
7.07301,-0.290264,-0.619329,38,5
11.2459,-0.461511,2.18782,14,13
7.08426,-0.291964,-0.371585,38,6
14.3874,-0.597979,-0.25135,24,7
17.5839,-0.733908,4.71568,15,15
7.73962,-0.333859,0.135221,20,8
0.529561,-0.0229359,-0.122373,15,1
0.741404,-0.0323704,-0.144252,44,2
10.0479,-0.440459,0.879924,4,10
7.26433,-0.319708,-1.15167,53,3
10.84,-0.477077,1.33228,25,11
10.625,-0.471329,1.68449,49,12
7.11375,-0.316813,-0.622989,37,5
7.13302,-0.320166,-0.374202,38,6
9.44765,-0.425711,2.18337,1,14
9.01148,-0.406057,-0.157456,33,7
17.5368,-0.793275,4.70378,4,15
10.5948,-0.495931,0.185135,21,8
0.568405,-0.0267059,-0.131371,14,1
10.6835,-0.501954,0.560518,54,9
0.733442,-0.0345883,-0.142725,45,2
10.1737,-0.481559,0.89108,42,10
6.43247,-0.305598,-1.01995,38,3
10.8005,-0.515008,1.32764,56,11
7.31067,-0.349878,-0.898665,15,4
10.6154,-0.508036,1.68324,47,12
7.02106,-0.337245,-0.614971,51,5
7.12587,-0.344773,-0.373888,17,6
9.41496,-0.457174,2.17618,10,14
7.518,-0.365061,-0.131382,14,7
10.8808,-0.530256,2.91896,11,15
0.544958,-0.0274157,-0.125973,15,1
10.6358,-0.536927,0.558111,47,9
0.756846,-0.0383402,-0.147305,42,2
10.1202,-0.514439,0.886548,34,10
7.33103,-0.372657,-1.16262,33,3
10.6005,-0.540708,1.30327,24,11
7.33326,-0.375336,-0.901589,38,4
10.6076,-0.544784,1.6823,27,12
6.99596,-0.360521,-0.612879,27,5
11.5267,-0.594001,2.24353,17,13
7.07483,-0.365823,-0.371271,7,6
8.85266,-0.46085,-0.154733,25,7
11.0718,-0.578311,2.97073,15,15
10.6191,-0.569535,0.185624,15,8
0.544859,-0.0293178,-0.125973,15,1
10.5282,-0.568344,0.552563,54,9
0.748873,-0.0404264,-0.145778,43,2
14.4416,-0.782129,1.26533,22,10
6.80501,-0.369737,-1.0794,32,3
13.7462,-0.749281,1.69033,22,11
7.95231,-0.434858,-0.97788,67,4
12.4301,-0.681896,1.9717,40,12
6.94499,-0.38099,-0.608521,45,5
10.0857,-0.555049,1.96342,12,13
7.0755,-0.390627,-0.371376,38,6
9.39023,-0.520063,2.17123,12,14
8.86098,-0.492303,-0.154908,100,7
11.0871,-0.617923,2.97538,21,15
7.82005,-0.446793,0.136722,13,8
0.548644,-0.0314425,-0.126872,15,1
9.18421,-0.52795,0.482119,25,9
0.756567,-0.0434909,-0.147305,31,2
11.2662,-0.649604,0.9873,8,10
6.97328,-0.403298,-1.1063,30,3
15.4756,-0.897736,1.90336,8,11
7.13625,-0.415222,-0.877703,31,4
11.0492,-0.644835,1.753,25,12
7.04705,-0.411266,-0.617586,31,5
8.64316,-0.505929,1.68294,8,13
7.02026,-0.412162,-0.36855,45,6
9.37863,-0.552265,2.16898,30,14
19.6396,-1.16336,5.27163,9,15
7.90028,-0.47905,0.138153,41,8
0.544641,-0.0331209,-0.125973,15,1
9.03479,-0.551009,0.474373,65,9
0.736807,-0.045065,-0.143488,33,2
9.31694,-0.569848,0.816649,20,10
6.70763,-0.411431,-1.06438,27,3
11.9555,-0.735416,1.47072,42,11
7.46167,-0.460297,-0.91792,50,4
10.765,-0.665958,1.70826,19,12
6.98186,-0.433145,-0.612008,45,5
7.18216,-0.448088,-0.377133,31,6
7.62193,-0.47686,-0.133301,81,7
21.7292,-1.36328,5.83378,10,15
7.85058,-0.504923,0.137316,31,8
0.552295,-0.0356185,-0.127772,14,1
9.0925,-0.587986,0.477513,17,9
0.736637,-0.0477653,-0.143488,33,2
9.32472,-0.604637,0.817521,44,10
6.9367,-0.451008,-1.10099,67,3
7.31533,-0.47819,-0.900127,26,4
10.7723,-0.706055,1.70983,38,12
6.96034,-0.457425,-0.610264,32,5
9.66182,-0.636656,1.88214,30,13
7.21435,-0.476647,-0.378912,45,6
10.127,-0.669082,2.34309,8,14
7.72389,-0.511666,-0.135117,83,7
21.6605,-1.43869,5.8167,15,15
7.81676,-0.531522,0.136757,44,8
0.548272,-0.0373774,-0.126872,15,1
11.2961,-0.772072,0.593385,41,9
0.738424,-0.0504702,-0.14387,44,2
10.1016,-0.692203,0.885851,22,10
7.15967,-0.491864,-1.13665,57,3
7.12738,-0.492145,-0.877216,45,4
12.2871,-0.850576,1.95074,74,12
6.98653,-0.483645,-0.612705,45,5
8.69985,-0.603775,1.69515,11,13
7.11302,-0.494896,-0.373679,70,6
9.90671,-0.691007,2.2927,48,14
7.64816,-0.534811,-0.133825,82,7
10.7668,-0.754779,2.89204,10,15
11.9098,-0.851614,0.208417,32,8
0.528701,-0.0378977,-0.122373,15,1
12.0703,-0.867325,0.634207,20,9
0.746076,-0.0536103,-0.145396,43,2
10.0654,-0.725027,0.882888,30,10
7.3175,-0.528376,-1.162,47,3
11.5765,-0.837941,1.42514,30,11
7.10186,-0.515297,-0.874291,24,4
12.1658,-0.884863,1.93197,32,12
7.1696,-0.521471,-0.628916,25,5
8.75643,-0.638423,1.7066,5,13
7.23873,-0.529039,-0.380378,38,6
10.0947,-0.739537,2.33679,29,14
7.028,-0.516104,-0.123005,19,7
0.551884,-0.0414964,-0.127772,14,1
9.59571,-0.721505,0.504309,35,9
0.734138,-0.055329,-0.143107,45,2
10.0191,-0.756855,0.879053,8,10
7.28606,-0.551679,-1.1573,52,3
11.5696,-0.878045,1.42465,27,11
7.08814,-0.539181,-0.872828,34,4
9.51161,-0.72353,1.51084,8,12
7.72797,-0.589208,-0.678072,26,5
9.26311,-0.707879,1.80582,19,13
7.14922,-0.547592,-0.375772,38,6
10.1193,-0.776858,2.34309,45,14
7.12594,-0.54706,-0.12475,67,7
9.69281,-0.759437,0.169707,10,8
0.528431,-0.0414956,-0.122373,15,1
9.59114,-0.754839,0.504205,25,9
0.718283,-0.0566563,-0.140054,47,2
10.0462,-0.794179,0.881667,8,10
6.23262,-0.492707,-0.99023,8,3
11.4301,-0.905589,1.40783,26,11
7.04673,-0.55954,-0.867954,40,4
9.51494,-0.757197,1.51178,10,12
6.9493,-0.554245,-0.609916,40,5
7.13144,-0.570024,-0.374935,24,6
10.206,-0.817569,2.36379,45,14
7.6263,-0.612258,-0.133546,44,7
10.7743,-0.882023,0.188695,43,8
0.551589,-0.045252,-0.127772,14,1
13.5496,-1.11398,0.712502,9,9
0.733734,-0.0604529,-0.143107,45,2
9.98192,-0.822417,0.876264,10,10
12.3844,-1.02471,1.5258,38,11
7.13376,-0.591516,-0.878922,39,4
