x, y, z, intensity, ring
-18.9139,17.6746,6.93635,17,15
-19.7729,18.5291,0.472995,12,8
-0.386712,0.362512,-0.122373,15,1
-17.4331,16.3422,1.25229,13,9
-0.525577,0.492859,-0.140054,11,2
-19.3771,18.1773,2.32444,25,10
-18.8179,17.665,3.16909,64,11
-8.64621,8.1165,-1.4561,15,4
-19.0568,17.8955,4.14051,11,12
-8.82908,8.29396,-1.05981,52,5
-18.669,17.5436,4.97973,35,13
-16.8078,15.8002,-1.20896,35,6
-19.0646,17.9217,6.04084,63,14
-17.1169,16.0964,-0.410132,93,7
-18.7257,17.6154,6.88873,33,15
-16.9331,15.9737,0.406327,39,8
-0.425192,0.401241,-0.134971,14,1
-17.2118,16.2423,1.24026,39,9
-0.512518,0.483818,-0.137001,24,2
-31.5065,29.7526,3.79127,14,10
-9.74162,9.20253,-2.1225,38,3
-18.8285,17.7927,3.18079,37,11
-9.24831,8.73957,-1.56237,32,4
-20.763,19.6277,4.52534,13,12
-8.96945,8.48199,-1.08003,11,5
-18.6492,17.6418,4.99004,39,13
-16.6074,15.7158,-1.19828,61,6
-18.6555,17.6539,5.92971,60,14
-16.9574,16.0527,-0.407584,92,7
-18.7374,17.7438,6.91461,33,15
-16.9714,16.1165,0.408526,42,8
-0.435162,0.413387,-0.13857,13,1
-17.0985,16.2486,1.23618,39,9
-0.499526,0.474695,-0.133948,13,2
-17.6692,16.7967,2.13288,10,10
-9.1356,8.68756,-1.99673,30,3
-18.87,17.9509,3.19785,9,11
-8.75614,8.33253,-1.48413,31,4
-20.6486,19.6565,4.51533,13,12
-18.5821,17.6954,4.98775,35,13
-16.3556,15.5807,-1.18384,80,6
-18.5698,17.6961,5.92206,60,14
-17.0707,16.2732,-0.411667,93,7
-18.7256,17.8571,6.93325,21,15
-16.9005,16.1618,0.408177,21,8
-0.433716,0.414903,-0.13857,13,1
-17.2264,16.4849,1.24957,11,9
-0.49211,0.471093,-0.132421,26,2
-20.6078,19.7345,2.49631,35,10
-9.7613,9.35094,-2.14096,57,3
-19.5269,18.706,3.32021,20,11
-8.84739,8.47842,-1.5046,45,4
-19.1767,18.3833,4.20746,11,12
-8.65118,8.29618,-1.04866,40,5
-18.3612,17.6139,4.94577,26,13
-16.3258,15.6668,-1.18583,45,6
-18.3768,17.6412,5.88112,66,14
-17.0815,16.3978,-0.413308,68,7
-18.6521,17.9117,6.9291,25,15
-17.0457,16.4206,0.413133,30,8
-0.409741,0.394854,-0.131371,14,1
-18.233,17.5705,1.32703,29,9
-0.50177,0.483708,-0.135474,12,2
-20.5216,19.7898,2.49422,14,10
-9.69163,9.3493,-2.13283,76,3
-19.5296,18.8463,3.3324,10,11
-9.00487,8.68983,-1.53653,46,4
-18.6221,17.9768,4.09952,19,12
-8.5935,8.29864,-1.04517,28,5
-18.2926,17.6711,4.94386,35,13
-16.5166,15.961,-1.20373,56,6
-18.3505,17.7332,5.89147,66,14
-17.2427,16.6686,-0.418613,69,7
-18.4283,17.8209,6.86906,33,15
-17.0098,16.4952,0.413587,52,8
-0.380455,0.369073,-0.122373,15,1
-18.2649,17.7185,1.33362,23,9
-0.51707,0.501776,-0.140054,23,2
-20.4329,19.8355,2.49143,28,10
-18.8149,18.2775,3.22076,9,11
-8.56451,8.3199,-1.46609,45,4
-18.5694,18.0454,4.10109,30,12
-8.53736,8.29932,-1.04169,15,5
-19.2036,18.6747,5.2068,7,13
-16.4249,15.9781,-1.2009,56,6
-18.2748,17.7777,5.88607,59,14
-17.2375,16.7745,-0.419835,8,7
-18.6321,18.138,6.96741,25,15
-16.8491,16.4481,0.411004,31,8
-0.401537,0.392117,-0.129572,14,1
-18.3873,17.9622,1.34713,19,9
-0.504168,0.492513,-0.137001,12,2
-26.1325,25.5372,3.1967,41,10
-9.30452,9.09577,-2.06087,16,3
-18.8138,18.3981,3.231,19,11
-8.52548,8.34003,-1.46438,33,4
-18.5769,18.1792,4.11673,13,12
-8.44996,8.27193,-1.03454,18,5
-19.331,18.9237,5.25831,14,13
-8.6504,8.47109,-0.634521,39,6
-18.2293,17.8577,5.89147,66,14
-17.0246,16.6834,-0.416065,17,7
-18.4377,18.0744,6.91823,4,15
-16.5435,16.2629,0.404931,15,8
-0.436292,0.429042,-0.141269,13,1
-18.2875,17.9899,1.34441,25,9
-0.507957,0.499866,-0.138527,12,2
-18.4141,18.1271,2.26065,30,10
-9.55825,9.41256,-2.12469,52,3
-18.6928,18.4079,3.22125,19,11
-8.88804,8.75562,-1.5319,57,4
-18.4303,18.1621,4.09827,13,12
-9.04818,8.9196,-1.11158,47,5
-18.4186,18.1632,5.0282,6,13
-8.60365,8.48731,-0.63337,42,6
-18.333,18.0914,5.94636,52,14
-16.7471,16.5264,-0.41069,59,7
-18.2301,17.9961,6.86388,33,15
-16.5875,16.4262,0.407479,36,8
-0.445792,0.44161,-0.144868,12,1
-18.7988,18.6289,1.38701,23,9
-0.495053,0.49058,-0.135474,12,2
-18.1045,17.9472,2.23032,11,10
-9.52954,9.45004,-2.12563,50,3
-18.7239,18.5742,3.23831,9,11
-8.9503,8.88182,-1.54823,47,4
-18.0959,17.9637,4.03851,28,12
-8.98433,8.92182,-1.10775,23,5
-19.1575,19.0242,5.24801,14,13
-16.5387,16.4293,-1.22173,42,6
-18.2794,18.1649,5.94951,67,14
-16.5942,16.496,-0.408421,100,7
-18.0928,17.992,6.83696,33,15
-16.5796,16.5334,0.4087,13,8
-0.413895,0.412885,-0.134971,14,1
-18.8058,18.7664,1.39235,11,9
-0.487694,0.486843,-0.133948,26,2
-17.9822,17.9571,2.22334,64,10
-9.26425,9.25455,-2.07401,83,3
-19.0424,19.0224,3.30485,30,11
-8.74512,8.73902,-1.518,54,4
-17.9646,17.9583,4.02318,26,12
-8.83056,8.83056,-1.09258,45,5
-17.608,17.6142,4.84121,34,13
-17.4087,17.4208,-1.29071,58,6
-18.2664,18.2855,5.96705,61,14
-16.6284,16.6458,-0.41069,100,7
-18.049,18.0742,6.84421,33,15
-18.0884,18.158,0.447375,33,8
-0.401523,0.403208,-0.131371,14,1
-18.042,18.1178,1.34001,27,9
-0.505553,0.507852,-0.139291,24,2
-17.9369,18.0248,2.22474,64,10
-9.21841,9.26681,-2.07025,11,3
-19.052,19.1587,3.31753,40,11
-8.75682,8.80586,-1.52483,58,4
-17.9081,18.0147,4.02318,34,12
-8.70587,8.76074,-1.08056,59,5
-17.6315,17.7488,4.86296,43,13
-17.3018,17.423,-1.28684,46,6
-18.3247,18.4531,6.00394,62,14
-18.3004,18.435,-0.453414,65,7
-17.9322,18.0705,6.82143,32,15
-17.9507,18.1397,0.445455,39,8
-0.427593,0.432246,-0.140369,13,1
-18.0198,18.2158,1.34284,23,9
-0.503866,0.509526,-0.139291,24,2
-17.9065,18.1139,2.2284,58,10
-9.21401,9.32402,-2.0762,11,3
-18.9953,19.2288,3.31875,10,11
-8.59085,8.69645,-1.50094,43,4
-17.8733,18.0993,4.02881,39,12
-8.93152,9.04762,-1.11228,16,5
-17.5518,17.7862,4.85723,25,13
-15.4682,15.6802,-1.15432,52,6
-18.1813,18.4305,5.97695,38,14
-18.2195,18.4757,-0.452925,100,7
-17.8695,18.1271,6.8204,40,15
-17.962,18.2718,0.447235,33,8
-0.409767,0.416982,-0.134971,14,1
-18.0737,18.3983,1.35163,11,9
-0.493919,0.502791,-0.137001,24,2
-17.9971,18.3267,2.24722,29,10
-24.8183,25.2906,4.35074,14,11
-8.3269,8.48832,-1.45999,67,4
-17.7546,18.1051,4.0163,31,12
-9.21928,9.40456,-1.1522,9,5
-17.4653,17.8163,4.8496,34,13
-15.4497,15.7657,-1.15683,33,6
-18.2041,18.5829,6.00574,38,14
-18.0332,18.4149,-0.449888,100,7
-17.8467,18.2308,6.83593,41,15
-18.0433,18.4832,0.450865,27,8
-0.424641,0.435146,-0.140369,13,1
-17.8559,18.304,1.34011,38,9
-0.48659,0.498976,-0.135474,25,2
-18.0146,18.4796,2.25786,24,10
-8.57104,8.79535,-1.94511,45,3
-18.3763,18.8572,3.23295,9,11
-8.27783,8.49743,-1.45658,19,4
-17.639,18.1132,4.00441,39,12
-15.4015,15.8211,-1.93172,19,5
-17.3971,17.8773,4.84884,43,13
-15.2247,15.6504,-1.14427,23,6
-18.1073,18.6202,5.9963,30,14
-17.9242,18.4318,-0.448771,46,7
-17.9081,18.4218,6.88407,24,15
-17.9657,18.5392,0.450621,33,8
-0.423044,0.4367,-0.140369,13,1
-17.7794,18.3533,1.33917,17,9
-0.501235,0.517595,-0.140054,23,2
-17.8045,18.3921,2.23955,47,10
-8.93042,9.22836,-2.03396,33,3
-8.24536,8.52342,-1.4561,57,4
-19.0326,19.6813,4.33636,24,12
-8.73935,9.04038,-1.10008,19,5
-17.3987,18.0043,4.86677,37,13
-15.1824,15.7164,-1.14522,64,6
-17.5351,18.1517,5.82668,14,14
-17.6305,18.2569,-0.443012,83,7
-17.9886,18.6343,6.93997,34,15
-17.8792,18.5727,0.449993,15,8
-0.389163,0.4044,-0.129572,14,1
-17.8431,18.5417,1.34859,27,9
-0.507682,0.527744,-0.142344,22,2
-17.713,18.4194,2.23572,47,10
-8.45759,8.79795,-1.9329,50,3
-18.0214,18.7532,3.19346,18,11
-8.28582,8.62228,-1.46828,57,4
-17.4715,18.1873,3.9944,2,12
-15.1057,15.7301,-1.90801,19,5
-17.2261,17.9444,4.8351,12,13
-15.1454,15.7825,-1.14637,37,6
-17.5382,18.2759,5.84783,29,14
-17.4135,18.1522,-0.439068,73,7
-17.4267,18.1723,6.74638,8,15
-17.3158,18.1073,0.437322,20,8
-0.394553,0.412731,-0.131821,14,1
-17.5151,18.3221,1.32839,23,9
-0.492365,0.515231,-0.138527,24,2
-17.228,18.0343,2.18203,45,10
-8.88948,9.30882,-2.03865,41,3
-17.9097,18.7611,3.18469,9,11
-8.24882,8.64397,-1.46706,33,4
-17.347,18.178,3.97969,31,12
-15.0342,15.7599,-1.90557,14,5
-18.9373,19.8584,5.33387,26,13
-15.0958,15.8355,-1.14658,50,6
-17.4649,18.3271,5.84468,58,14
-17.3201,18.1751,-0.43823,73,7
-17.265,18.1237,6.70704,42,15
-17.2309,18.1385,0.436694,28,8
-0.366343,0.385776,-0.122823,15,1
-17.5556,18.4933,1.33635,8,9
-0.493266,0.519794,-0.139291,24,2
-17.1539,18.0828,2.18064,61,10
-9.03666,9.52598,-2.07964,57,3
-17.4459,18.3969,3.11303,17,11
-8.21738,8.66839,-1.46658,45,4
-17.2821,18.237,3.97938,31,12
-15.0285,15.8644,-1.91185,4,5
-18.8201,19.8669,5.31937,30,13
-15.4044,16.2669,-1.17411,53,6
-17.3464,18.3241,5.82533,71,14
-13.0053,13.7431,-0.330269,100,7
-17.1592,18.139,6.69047,42,15
-17.1469,18.1768,0.436171,17,8
-0.413126,0.438092,-0.13902,13,1
-17.7649,18.8451,1.35728,27,9
-0.494233,0.524284,-0.140054,23,2
-17.1895,18.2411,2.19284,56,10
-8.90719,9.45538,-2.05743,33,3
-17.5231,18.608,3.13838,18,11
-8.72045,9.26363,-1.56212,79,4
-13.7198,14.5845,-1.75183,36,5
-18.5004,19.6665,5.24839,18,13
-13.0064,13.8311,-0.995011,21,6
-17.3077,18.4115,5.83388,65,14
-17.1024,18.1994,-0.435926,72,7
-18.023,19.1858,7.05334,4,15
-0.396217,0.422962,-0.155291,12,0
-17.868,19.0742,0.456206,12,8
-0.390282,0.416772,-0.131821,14,1
-17.6676,18.8735,1.35487,38,9
-0.481577,0.514624,-0.137001,24,2
-17.1416,18.3243,2.19528,5,10
-8.45421,9.04069,-1.96044,50,3
-17.9339,19.178,3.22393,47,11
-8.77617,9.38827,-1.57796,50,4
-17.1395,18.3413,3.97594,15,12
-10.8861,11.6535,-1.39519,38,5
-17.4071,18.6408,4.9576,13,13
-12.9461,13.8684,-0.994279,29,6
-17.2401,18.4748,5.83388,58,14
-14.7958,15.8555,-0.378543,100,7
-18.2708,19.5862,7.17705,23,15
-0.394738,0.424343,-0.155291,12,0
-17.9519,19.305,0.46015,12,8
-0.404673,0.435328,-0.13722,13,1
-17.6275,18.9628,1.35686,27,9
-0.506506,0.545066,-0.144633,22,2
-17.7745,19.1344,2.28487,24,10
-8.82451,9.50295,-2.05398,9,3
-17.4624,18.8115,3.15154,27,11
-8.72415,9.40145,-1.5748,65,4
-17.9998,19.3972,4.19119,11,12
-10.8494,11.6958,-1.39571,30,5
-17.3446,18.7043,4.95836,35,13
-12.899,13.915,-0.994383,29,6
-17.1305,18.4863,5.81858,64,14
-12.8171,13.8316,-0.329152,100,7
-18.4964,19.9673,7.293,14,15
-0.393254,0.425718,-0.155291,12,0
-18.8797,20.4382,0.485666,26,8
-0.395295,0.428077,-0.134521,14,1
-17.4406,18.8936,1.34755,14,9
-0.504601,0.54683,-0.144633,22,2
-17.6631,19.148,2.27912,18,10
-8.82777,9.56991,-2.06212,39,3
-17.3703,18.8372,3.14618,36,11
-8.7158,9.45515,-1.57894,53,4
-18.5223,20.1006,4.32917,6,12
-11.0609,12.0076,-1.42831,30,5
-17.2067,18.6794,4.93661,39,13
-14.709,15.9735,-1.13799,9,6
-17.7422,19.2742,6.04803,39,14
-16.5967,18.0361,-0.427828,97,7
-18.2357,19.8242,7.21743,9,15
-0.39184,0.42702,-0.155291,12,0
-17.4281,18.9994,0.450028,9,8
-0.393798,0.429454,-0.134521,14,1
-17.3657,18.9381,1.3466,21,9
-0.497478,0.542712,-0.143107,22,2
-18.0356,19.6824,2.3356,38,10
-8.79431,9.60067,-2.06212,6,3
-17.3849,18.9856,3.1608,18,11
-8.7444,9.55287,-1.59015,50,4
-17.3965,19.0049,4.08075,13,12
-10.8422,11.8487,-1.40512,55,5
-17.3786,18.9986,5.00492,35,13
-14.8095,16.1957,-1.15014,18,6
-17.9785,19.6683,6.15196,8,14
-12.716,13.9111,-0.328978,81,7
-18.0134,19.7134,7.15531,22,15
-17.2236,18.9019,0.446363,24,8
-0.439614,0.482622,-0.150717,11,1
-17.5429,19.2659,1.36555,13,9
-0.477079,0.524119,-0.137764,24,2
-17.8447,19.6111,2.31974,50,10
-13.4049,14.7318,-3.15466,12,3
-17.7867,19.5541,3.24562,19,11
-10.6037,11.6615,-1.93529,87,4
-17.6118,19.3754,4.14708,30,12
-10.6748,11.7479,-1.38874,63,5
-17.1425,18.8658,4.95493,39,13
-15.5466,17.1155,-1.21179,56,6
-12.5947,13.8755,-0.327093,81,7
-17.9575,19.7905,7.16049,27,15
-17.0729,18.8685,0.444164,34,8
-0.390866,0.432125,-0.134521,14,1
-17.1118,18.9181,1.33687,29,9
-0.491139,0.543173,-0.142344,22,2
-17.9212,19.8269,2.33821,51,10
-13.307,14.7272,-3.14371,55,3
-23.5064,26.0242,4.30589,14,11
-10.5836,11.7172,-1.9387,27,4
-17.3978,19.2681,4.11172,16,12
-10.6678,11.8187,-1.39292,57,5
-16.6241,18.4241,4.82365,36,13
-15.555,17.2453,-1.21713,26,6
-17.4208,19.3139,6.00484,38,14
-14.5185,16.1018,-0.378438,47,7
-17.9332,19.8958,7.17705,23,15
-0.387498,0.430964,-0.155291,12,0
-17.0424,18.9607,0.445001,2,8
-0.386826,0.43052,-0.133621,14,1
-16.9555,18.8707,1.32954,25,9
-0.491959,0.54772,-0.143107,22,2
-17.456,19.4414,2.28592,24,10
-13.2093,14.7168,-3.13213,23,3
-17.1918,19.1606,3.1608,36,11
-8.80006,9.80782,-1.61794,65,4
-17.3206,19.3109,4.1086,22,12
-10.7815,12.0246,-1.41297,22,5
-16.5656,18.4821,4.82441,25,13
-12.6309,14.0972,-0.991976,50,6
-17.0329,19.0101,5.89282,29,14
-16.6183,18.554,-0.434774,81,7
-17.8491,19.935,7.16981,22,15
-0.386066,0.432247,-0.155291,12,0
-18.202,20.3864,0.477044,16,8
-0.367229,0.411446,-0.127322,15,1
-16.9295,18.9745,1.33268,8,9
-0.486219,0.544953,-0.141962,34,2
-17.4684,19.5854,2.29603,18,10
-13.1644,14.765,-3.13307,25,3
-16.8851,18.9448,3.11596,53,11
-10.9341,12.2722,-2.01816,29,4
-16.9838,19.0689,4.04446,28,12
-13.0169,14.6202,-1.71261,23,5
-16.576,18.6176,4.8454,12,13
-12.6385,14.2001,-0.996267,39,6
-16.8745,18.9661,5.86087,79,14
-16.5468,18.6044,-0.4346,54,7
-17.6869,19.8933,7.13254,31,15
-16.6807,18.8144,0.438893,14,8
-0.386472,0.436059,-0.134521,14,1
-16.7373,18.8915,1.32274,31,9
-0.486821,0.549671,-0.142725,45,2
-17.4123,19.6672,2.29812,55,10
-13.0408,14.7347,-3.11649,42,3
-16.9136,19.1107,3.1335,45,11
-10.9701,12.3995,-2.03278,18,4
-16.8975,19.1059,4.03976,26,12
-12.9289,14.6237,-1.70773,42,5
-17.1941,19.4549,5.0469,37,13
-12.5507,14.206,-0.993441,39,6
-16.9635,19.2075,5.91621,60,14
-18.3734,20.8039,-0.484479,91,7
-17.4972,19.8188,7.08388,26,15
-17.4929,19.8767,0.462175,9,8
-0.405466,0.460883,-0.141719,13,1
-16.8473,19.1567,1.33697,8,9
-0.491382,0.558738,-0.144633,55,2
-17.3567,19.7429,2.29987,49,10
-12.9553,14.7416,-3.10835,42,3
-16.7426,19.0577,3.11474,53,11
-13.3558,15.2079,-2.48516,2,4
-17.101,19.4794,4.10547,11,12
-10.8377,12.345,-1.4372,31,5
-17.2193,19.6211,5.07437,37,13
-12.5511,14.3067,-0.997419,50,6
-16.9221,19.2959,5.92521,52,14
-16.7626,19.1208,-0.44385,92,7
-17.2284,19.659,7.00416,17,15
-17.1234,19.5943,0.454216,21,8
-0.380777,0.435879,-0.133621,14,1
-16.5886,18.9957,1.32169,19,9
-0.488138,0.558972,-0.144252,55,2
-16.9588,19.4266,2.25611,12,10
-12.7103,14.5649,-3.06174,36,3
-18.2667,20.9395,3.41185,10,11
-14.1428,16.2179,-2.64213,15,4
-16.894,19.3797,4.07199,21,12
-10.8548,12.4518,-1.44522,17,5
-17.1185,19.644,5.06483,37,13
-12.3843,14.2164,-0.988103,39,6
-16.925,19.4357,5.94996,67,14
-18.165,20.867,-0.482908,80,7
-17.0797,19.6272,6.97155,38,15
-16.9972,19.5875,0.452681,27,8
-0.384361,0.443093,-0.135421,13,1
-16.5111,19.034,1.32054,10,9
-0.496473,0.572538,-0.147305,52,2
-17.5487,20.2444,2.34397,12,10
-12.605,14.5465,-3.0486,36,3
-16.7014,19.2806,3.13204,9,11
-14.2553,16.4568,-2.67333,3,4
-16.9461,19.57,4.10015,13,12
-10.7578,12.4279,-1.43807,14,5
-17.1667,19.8388,5.09956,35,13
-12.2275,14.1357,-0.97952,54,6
-16.8681,19.5005,5.95265,75,14
-12.9109,14.9311,-0.344545,79,7
-17.0563,19.732,6.98863,21,15
-0.378464,0.438919,-0.155291,12,0
-16.9439,19.6574,0.452995,36,8
-0.367625,0.42665,-0.130022,14,1
-16.8598,19.5668,1.35362,18,9
-0.490728,0.569719,-0.14616,53,2
-17.0992,19.8586,2.29272,24,10
-12.598,14.6361,-3.05861,40,3
-16.741,19.4563,3.15154,9,11
-12.6975,14.757,-2.39035,20,4
-16.9493,19.7054,4.11673,22,12
-12.5909,14.6435,-1.6896,37,5
-17.7445,20.6445,5.29152,41,13
-12.4174,14.4519,-0.99857,68,6
-16.7754,19.5239,5.94276,30,14
-16.9043,19.6809,-0.452855,37,7
-0.377006,0.440171,-0.155291,12,0
-16.8994,19.7378,0.453553,33,8
-0.366208,0.427867,-0.130022,14,1
-19.2182,22.454,1.54894,11,9
-0.47352,0.553442,-0.14158,57,2
-16.4635,19.249,2.21602,40,10
-12.5442,14.6718,-3.05736,14,3
-16.7176,19.56,3.15934,36,11
-12.3493,14.4489,-2.3338,62,4
-16.9032,19.7841,4.12142,13,12
-12.6846,14.8518,-1.70878,42,5
-18.14,21.2467,5.43042,42,13
-12.0518,14.1208,-0.972925,39,6
-17.6556,20.6866,6.27883,68,14
-16.3639,19.1801,-0.44008,100,7
-0.375544,0.441419,-0.155291,12,0
-16.8507,19.8135,0.454007,15,8
-0.37741,0.443926,-0.134521,14,1
-12.8021,15.0584,1.03583,1,9
-0.472953,0.556505,-0.141962,34,2
-16.308,19.1957,2.20365,69,10
-12.3894,14.5884,-3.03139,8,3
-16.5473,19.4912,3.13935,9,11
-12.2859,14.4716,-2.33087,27,4
-16.9883,20.0177,4.15834,13,12
-12.6186,14.874,-1.70651,58,5
-18.0732,21.3112,5.43157,42,13
-12.0901,14.2612,-0.979834,61,6
-17.5415,20.6916,6.26264,59,14
-16.3041,19.2388,-0.440185,100,7
-0.373924,0.442793,-0.155291,12,0
-16.4852,19.5283,0.446084,24,8
-0.383321,0.454242,-0.13722,13,1
-12.7262,15.0808,1.03416,2,9
-0.462049,0.54773,-0.139291,24,2
-16.3043,19.3345,2.21271,57,10
-12.784,15.1653,-3.14152,14,3
-17.4172,20.669,3.31875,40,11
-12.1855,14.4656,-2.32234,20,4
-17.3361,20.5799,4.2619,28,12
-17.9798,21.3593,5.42699,42,13
-12.0763,14.3513,-0.982974,50,6
-17.5033,20.808,6.27748,42,14
-16.0379,19.0658,-0.434879,100,7
-0.372376,0.444095,-0.155291,12,0
-11.6959,13.9486,0.317739,48,8
-0.374301,0.44655,-0.134521,14,1
-12.6196,15.0608,1.02976,24,9
-0.465177,0.55536,-0.140817,23,2
-16.1843,19.3287,2.20556,74,10
-12.6664,15.1274,-3.12494,55,3
-16.6096,19.8437,3.17738,9,11
-12.0266,14.3734,-2.30114,65,4
-17.2147,20.5812,4.2497,14,12
-11.8805,14.2089,-1.6204,17,5
-18.0953,21.6417,5.48347,40,13
-11.9531,14.3008,-0.976798,43,6
-19.6958,23.5727,7.09181,10,14
-16.0135,19.1723,-0.436031,99,7
-20.7898,24.8996,8.69166,28,15
-11.7316,14.0907,0.320042,65,8
-0.402659,0.483802,-0.145318,12,1
-12.5376,15.0695,1.02735,37,9
-0.465844,0.559918,-0.14158,23,2
-16.1927,19.4696,2.2155,63,10
-12.6198,15.1791,-3.1265,17,3
-20.2122,24.3198,3.88276,25,11
-11.9789,14.4184,-2.30162,37,4
-11.89,14.3165,2.94754,21,12
-11.7798,14.1838,-1.61308,38,5
-19.2662,23.2062,5.8628,46,13
-9.34061,11.2548,-0.766513,35,6
-19.749,23.8047,7.14085,42,14
-12.3339,14.8721,-0.33725,100,7
-20.143,24.2968,8.45665,33,15
-11.7473,14.2102,0.321822,62,8
-0.363727,0.440139,-0.131821,14,1
-12.5638,15.2086,1.03384,21,9
-0.458885,0.555486,-0.140054,23,2
-16.1284,19.5306,2.21602,74,10
-9.91836,12.0148,-2.4676,71,3
-12.4136,15.0429,2.39473,30,11
-12.0813,14.6454,-2.33112,27,4
-17.0115,20.6293,4.23499,23,12
-11.7353,14.231,-1.61378,38,5
-18.9153,22.9461,5.78037,43,13
-9.29999,11.2858,-0.766408,29,6
-19.594,23.7863,7.11475,42,14
-15.986,19.4133,-0.438963,82,7
-19.5461,23.745,8.2408,25,15
-0.367783,0.447906,-0.155291,12,0
-11.6748,14.2233,0.321194,62,8
-0.372077,0.453458,-0.135421,13,1
-12.4486,15.1767,1.02872,12,9
-0.47064,0.573782,-0.144252,22,2
-12.8123,15.6257,1.76787,39,10
-10.0792,12.2969,-2.51828,37,3
-12.3586,15.0831,2.39425,46,11
-12.0087,14.6614,-2.32697,20,4
-11.7638,14.3674,-1.62458,35,5
-18.86,23.0424,5.788,21,13
-11.7442,14.3589,4.28262,12,14
-12.2817,15.0213,-0.338681,79,7
-19.3408,23.6635,8.18903,24,15
-11.5834,14.2128,0.320042,71,8
-0.412341,0.506122,-0.150717,11,1
-12.113,14.8732,1.00527,12,9
-0.456236,0.560199,-0.140435,47,2
-12.6947,15.593,1.75915,29,10
-9.67713,11.8907,-2.42818,14,3
-11.7108,14.3947,2.27847,24,11
-12.3007,15.1252,-2.39376,27,4
-16.8334,20.7061,4.22655,23,12
-11.6419,14.3203,-1.61465,38,5
-18.9156,23.2757,5.82998,40,13
-11.6756,14.3771,4.27587,9,14
-12.5921,15.5112,-0.348734,78,7
-19.1339,23.5779,8.13624,24,15
-11.3488,14.0246,0.314911,33,8
-0.359098,0.443924,-0.131821,14,1
-12.2257,15.1136,1.01877,20,9
-0.469091,0.580107,-0.145015,43,2
-12.6277,15.6218,1.75741,76,10
-7.89617,9.77187,-1.98985,26,3
-11.6505,14.4231,2.27652,34,11
-12.3825,15.3348,-2.42008,57,4
-16.8677,20.8894,4.25252,31,12
-11.8334,14.6601,-1.64829,39,5
-17.2488,21.3767,5.33922,22,13
-9.63773,11.9484,-0.804508,26,6
-19.3829,24.0387,7.12915,21,14
-12.1477,15.0656,-0.337809,100,7
-18.9999,23.572,8.11242,24,15
-11.3023,14.0622,0.314911,54,8
-0.37227,0.463342,-0.13722,13,1
-11.8014,14.6937,0.987684,27,9
-0.468293,0.583272,-0.145396,54,2
-7.77594,9.68862,-1.96763,10,3
-11.5852,14.44,2.27311,53,11
-14.243,17.7591,-2.7952,27,4
-17.069,21.2903,4.32197,24,12
-11.7747,14.6919,-1.64724,39,5
-17.2638,21.541,5.36593,11,13
-18.7123,23.3651,6.91095,30,14
-12.3825,15.467,-0.345837,100,7
-18.8849,23.5975,8.09845,24,15
-11.2506,14.0984,0.314841,60,8
-0.375511,0.470732,-0.13902,13,1
-11.7302,14.7046,0.9858,43,9
-0.454115,0.569472,-0.14158,57,2
-11.5449,14.4828,1.6204,60,10
-12.2797,15.4101,-3.12087,22,3
-11.5223,14.4648,2.27067,34,11
-11.6831,14.6667,-2.30236,2,4
-17.0155,21.3684,4.32635,12,12
-11.5832,14.5517,-1.6272,31,5
-17.0345,21.4076,5.31785,41,13
-9.45423,11.8856,-0.795925,32,6
-18.6905,23.4972,6.93164,51,14
-15.8023,19.8733,-0.443186,46,7
-18.7572,23.598,8.07723,24,15
-0.360069,0.454131,-0.155291,12,0
-9.40399,11.8649,0.264264,84,8
-0.371528,0.46892,-0.13812,13,1
-11.7235,14.7967,0.989359,43,9
-0.454662,0.574053,-0.142344,56,2
-11.3472,14.332,1.59931,43,10
-7.76988,9.81722,-1.98296,37,3
-11.377,14.38,2.25141,52,11
-11.5741,14.6291,-2.29041,27,4
-12.1018,15.3016,3.08989,13,12
-11.6869,14.7822,-1.64864,39,5
-11.9237,15.0871,3.73795,8,13
-9.31571,11.7915,-0.787552,19,6
-18.6475,23.6034,6.94469,10,14
-11.6104,14.7013,-0.326988,100,7
-18.7854,23.795,8.12329,24,15
-9.35841,11.8881,0.26409,21,8
-0.367561,0.467086,-0.13722,13,1
-11.6335,14.7889,0.986114,46,9
-0.462467,0.587902,-0.145396,43,2
-11.4228,14.5262,1.61674,30,10
-7.74216,9.84915,-1.98422,30,3
-11.3096,14.3926,2.24751,52,11
-11.3684,14.4727,-2.2597,52,4
-18.6825,23.7925,4.79128,14,12
-11.6118,14.7932,-1.64533,43,5
-11.8772,15.1312,3.73909,34,13
-18.268,23.2896,6.83356,40,14
-10.9939,14.021,-0.311002,100,7
-11.9188,15.206,5.1769,8,15
-0.35689,0.456634,-0.155291,12,0
-11.1824,14.3077,0.316971,41,8
-0.387524,0.496008,-0.145318,12,1
-11.6334,14.8955,0.99051,29,9
-0.46635,0.59733,-0.147305,42,2
-11.166,14.3072,1.5878,74,10
-7.69508,9.86344,-1.9814,47,3
-11.2264,14.3898,2.24093,52,11
-11.2861,14.4716,-2.25336,47,4
-18.5313,23.7703,4.77375,14,12
-11.5319,14.7974,-1.64132,18,5
-11.8289,15.184,3.74138,35,13
-9.41847,12.0942,-0.803357,100,6
-11.6728,14.9943,4.387,39,14
-10.9609,14.0798,-0.311456,100,7
-11.4575,14.7231,4.99883,17,15
-0.355294,0.457877,-0.155291,12,0
-11.163,14.3913,0.317913,33,8
-0.402421,0.518985,-0.151617,11,1
-11.6644,15.0485,0.997837,32,9
-0.448626,0.578782,-0.142344,22,2
-11.0879,14.3099,1.58379,67,10
-11.7613,15.1844,-3.04203,16,3
-11.2367,14.5124,2.25361,53,11
-11.267,14.5568,-2.26019,16,4
-18.183,23.5006,4.70617,14,12
-11.4412,14.7872,-1.63574,17,5
-11.783,15.2345,3.74367,40,13
-8.91441,11.5297,-0.763791,22,6
-11.5739,14.9748,4.36945,31,14
-8.88091,11.4947,-0.253549,77,7
-11.453,14.8292,5.02057,35,15
-0.353693,0.459114,-0.155291,12,0
-11.0932,14.4048,0.317355,45,8
-0.348302,0.452443,-0.131821,14,1
-11.0369,14.3421,0.948432,14,9
-0.448998,0.583457,-0.143107,22,2
-11.0536,14.369,1.58606,40,10
-8.13179,10.5746,-2.1128,71,3
-11.2138,14.5878,2.25921,9,11
-11.1411,14.4984,-2.24508,19,4
-11.4764,14.9401,2.98383,24,12
-9.0337,11.7602,-1.2974,31,5
-11.4213,14.8738,3.64522,21,13
-9.02369,11.7557,-0.776666,45,6
-11.4717,14.9502,4.35055,34,14
-9.32634,12.1587,-0.267476,100,7
-11.4,14.8675,5.02005,13,15
-11.0271,14.4228,0.316901,22,8
-0.343171,0.449011,-0.130472,14,1
-0.442191,0.57878,-0.14158,23,2
-11.151,14.6007,1.60733,64,10
-7.60216,9.95761,-1.98422,52,3
-11.0039,14.4185,2.22704,28,11
-9.2263,12.0893,-1.86728,17,4
-11.5154,15.0943,3.00698,18,12
-8.96118,11.7505,-1.29287,49,5
-11.3967,14.9495,3.65399,39,13
-9.2562,12.1461,-0.800322,26,6
-11.4185,14.9835,4.3492,34,14
-9.27869,12.18,-0.267266,25,7
-11.3495,14.9037,5.01954,26,15
-0.292133,0.384592,-0.12941,15,0
-9.24262,12.1723,0.266777,16,8
-0.358175,0.471878,-0.13677,13,1
-10.8703,14.3211,0.942257,40,9
-0.449763,0.592755,-0.144633,22,2
-10.9604,14.4503,1.58676,50,10
-7.87105,10.381,-2.06337,67,3
-10.9776,14.4834,2.23143,19,11
-7.70889,10.1708,-1.567,22,4
-9.07253,11.9786,-1.31466,18,5
-11.289,14.9105,3.63529,43,13
-9.03266,11.9347,-0.784411,68,6
-11.3558,15.0042,4.34425,53,14
-10.5328,13.9219,-0.304719,99,7
-11.2825,14.9182,5.01177,29,15
-10.8854,14.4349,0.315574,75,8
-0.368339,0.488624,-0.141269,13,1
-10.8119,14.3427,0.941315,40,9
-0.452521,0.600515,-0.14616,21,2
-10.94,14.5231,1.59077,57,10
-7.5003,9.96047,-1.97483,58,3
-10.8292,14.3865,2.21095,47,11
-7.46567,9.92167,-1.52459,42,4
-11.0611,14.7,2.91375,31,12
-8.35728,11.1106,-1.21635,27,5
-11.3905,15.1487,3.68414,19,13
-9.18624,12.2216,-0.801264,68,6
-11.3127,15.0562,4.34785,50,14
-11.1819,14.8875,4.989,27,15
-0.34741,0.463886,-0.155291,12,0
-10.8399,14.4742,0.315644,56,8
-0.350366,0.468003,-0.134971,14,1
-10.7738,14.3963,0.942361,50,9
-0.452774,0.605235,-0.146923,21,2
-10.6983,14.3059,1.56288,55,10
-7.51337,10.047,-1.98703,21,3
-10.8076,14.4573,2.21632,28,11
-7.34122,9.82394,-1.50582,37,4
-11.0606,14.8065,2.9272,39,12
-8.2946,11.1078,-1.21286,35,5
-10.814,14.4816,3.51318,28,13
-8.90074,11.9239,-0.779806,39,6
-11.2849,15.1233,4.3564,37,14
-11.1414,14.942,4.99417,26,15
-10.7988,14.5247,0.315923,71,8
-0.35338,0.475479,-0.13677,13,1
-10.7687,14.4948,0.946339,37,9
-0.439056,0.590974,-0.143107,22,2
-10.709,14.4197,1.57142,64,10
-7.30281,9.83682,-1.94041,22,3
-10.6601,14.3643,2.19633,52,11
-7.40742,9.98501,-1.52654,18,4
-11.0971,14.9641,2.95067,48,12
-7.92305,10.684,-1.1637,12,5
-11.3152,15.2637,3.6933,22,13
-8.85787,11.9533,-0.779701,78,6
-11.1555,15.0593,4.32671,34,14
-10.5496,14.2465,-0.309431,100,7
-11.2214,15.1593,5.0537,19,15
-10.7671,14.5881,0.316482,56,8
-0.363287,0.492391,-0.141269,13,1
-10.6754,14.4744,0.942571,42,9
-0.426503,0.578283,-0.139672,35,2
-10.6645,14.465,1.57229,60,10
-7.15826,9.71278,-1.911,33,3
-10.7182,14.5484,2.21875,52,11
-10.9242,14.8389,2.91844,52,12
-7.89279,10.7212,-1.16475,15,5
-10.7161,14.5615,3.51432,15,13
-8.80426,11.968,-0.778654,22,6
-11.0728,15.0573,4.31501,56,14
-10.4631,14.2333,-0.308349,100,7
-11.1307,15.147,5.03662,26,15
-0.342615,0.467439,-0.155291,12,0
-8.92317,12.1786,0.263531,16,8
-0.345446,0.471646,-0.134971,14,1
-10.5658,14.431,0.937337,8,9
-0.440719,0.601945,-0.145015,32,2
-10.621,14.5118,1.57334,40,10
-7.09165,9.69307,-1.90224,62,3
-10.631,14.5361,2.2112,52,11
-7.52732,10.2961,-1.56602,26,4
-10.6334,14.55,2.8543,44,12
-7.81888,10.6988,-1.15935,30,5
-8.78599,12.0309,-0.780748,26,6
-10.9995,15.0675,4.30691,37,14
-8.91038,12.2102,-0.263845,29,7
-10.8921,14.9314,4.95224,30,15
-0.340982,0.468632,-0.155291,12,0
-8.89472,12.2291,0.26395,16,8
-0.339213,0.466545,-0.133171,14,1
-0.436306,0.600304,-0.144252,44,2
-10.5094,14.465,1.56427,55,10
-7.0926,9.76571,-1.91163,58,3
-10.8776,14.9827,2.27335,43,11
-7.19052,9.90781,-1.50314,39,4
-10.6382,14.6637,2.86932,55,12
-7.11343,9.80518,-1.05981,33,5
-10.9957,15.162,3.64064,40,13
-8.09567,11.1673,-0.722864,42,6
-11.0589,15.2605,4.351,34,14
-8.99557,12.4178,-0.26765,37,7
-10.8479,14.9803,4.95587,26,15
-0.339344,0.46982,-0.155291,12,0
-10.8303,15,0.322939,48,8
-0.342145,0.474046,-0.134971,14,1
-10.5372,14.6048,0.943827,25,9
-0.43306,0.600231,-0.14387,44,2
-10.4857,14.5387,1.56828,81,10
-10.9436,15.1849,2.29821,39,11
-7.10948,9.86842,-1.49339,42,4
-10.49,14.5661,2.84304,42,12
-7.11409,9.87845,-1.06504,14,5
-11,15.28,3.65972,37,13
-8.04031,11.1728,-0.721399,58,6
-10.8201,15.0411,4.27767,68,14
-10.4407,14.5191,-0.312154,100,7
-10.8936,15.1545,5.0009,32,15
-0.337702,0.471001,-0.155291,12,0
-10.5553,14.7272,0.316273,41,8
-0.335948,0.468901,-0.133171,14,1
-10.7153,14.9614,0.964447,59,9
-0.421817,0.58897,-0.140817,46,2
-10.4337,14.5736,1.56811,37,10
-7.02425,9.81499,-1.91163,47,3
-10.8697,15.1939,2.29382,53,11
-7.14312,9.98844,-1.50777,22,4
-10.5103,14.7023,2.86244,30,12
-7.68208,10.7461,-1.15569,26,5
-10.6533,14.9078,3.56164,49,13
-8.72802,12.2182,-0.786923,42,6
-10.6565,14.9234,4.23358,42,14
-8.59382,12.0392,-0.258191,93,7
-10.8957,15.2695,5.02627,34,15
-0.295801,0.415464,-0.136656,14,0
-10.4334,14.6595,0.314074,54,8
-0.350207,0.492243,-0.13947,13,1
-10.8245,15.2147,0.978578,25,9
-0.427826,0.601565,-0.143488,44,2
-10.0667,14.16,1.52,16,10
-6.92186,9.74001,-1.89254,55,3
-10.425,14.6748,2.21022,52,11
-7.50258,10.5611,-1.59064,47,4
-10.4366,14.6966,2.85493,45,12
-10.6413,14.9959,3.57423,43,13
-8.3743,11.8056,-0.758557,32,6
-10.657,15.0235,4.25247,45,14
-10.5558,14.8865,-0.318541,100,7
-10.9739,15.4818,5.08476,16,15
-0.33457,0.473231,-0.155291,12,0
-10.3489,14.6434,0.312991,26,8
-0.355319,0.502951,-0.142169,13,1
-10.7325,15.1918,0.97481,41,9
-0.416769,0.590151,-0.140435,47,2
-10.0151,14.1868,1.5193,48,10
-6.87358,9.74031,-1.88816,50,3
-10.3522,14.6752,2.2051,52,11
-10.3571,14.6875,2.84648,48,12
-7.69444,10.9156,-1.16841,22,5
-10.4546,14.8369,3.52806,34,13
-8.39606,11.9198,-0.764105,100,6
-10.7305,15.2341,4.30196,37,14
-10.4857,14.892,-0.317913,22,7
-10.8591,15.428,5.05525,34,15
-0.332999,0.474338,-0.155291,12,0
-10.0614,14.3372,0.305731,70,8
-0.35365,0.504127,-0.142169,13,1
-10.4297,14.8676,0.951782,30,9
-0.421573,0.601174,-0.142725,34,2
-9.97942,14.2362,1.52104,58,10
-7.06909,10.0882,-1.95105,46,3
-10.3502,14.7761,2.2151,52,11
-6.9523,9.92892,-1.48827,12,4
-10.6346,15.1878,2.93659,40,12
-7.95182,11.3606,-1.21321,30,5
-10.5236,15.0404,3.56813,43,13
-8.34389,11.9296,-0.762954,35,6
-10.7934,15.4375,4.34875,37,14
-10.0306,14.3465,-0.305557,100,7
-13.0091,18.6134,6.08484,15,15
-0.29158,0.418437,-0.136656,14,0
-10.0252,14.3869,0.30608,73,8
-0.329699,0.473316,-0.133171,14,1
-10.2283,14.6892,0.93807,39,9
-0.43966,0.631646,-0.149594,30,2
-10.1937,14.6504,1.56148,84,10
-6.89796,9.91378,-1.91288,36,3
-10.3635,14.9,2.2285,47,11
-6.83548,9.83131,-1.47023,45,4
-10.7292,15.4373,2.97757,30,12
-7.8189,11.2541,-1.19891,75,5
-10.496,15.1074,3.57576,43,13
-8.2177,11.8325,-0.754999,100,6
-9.99304,14.3995,-0.305941,100,7
-14,20.1809,6.58125,15,15
-0.301183,0.435288,-0.141833,14,0
-10.0478,14.5271,0.308314,56,8
-0.347993,0.503317,-0.141269,13,1
-10.1962,14.7527,0.939849,40,9
-0.431982,0.625025,-0.147686,20,2
-10.2696,14.8644,1.58066,64,10
-7.35836,10.6546,-2.05086,55,3
-10.3475,14.9884,2.2363,52,11
-6.81804,9.87962,-1.47389,51,4
-10.3825,15.0503,2.89592,66,12
-7.9569,11.5342,-1.22593,25,5
-10.5079,15.2377,3.59789,30,13
-8.11967,11.7789,-0.749765,61,6
-13.49,19.5768,5.48881,50,14
-9.71244,14.1,-0.298855,27,7
-12.8908,18.7213,6.09053,12,15
-0.288726,0.420412,-0.136656,14,0
-10.0954,14.7055,0.311351,52,8
-0.326386,0.475606,-0.133171,14,1
-10.1379,14.7783,0.939221,37,9
-0.423134,0.616816,-0.145396,21,2
-10.2323,14.9215,1.58292,77,10
-7.38255,10.7698,-2.06806,53,3
-10.4006,15.1783,2.25921,53,11
-6.79922,9.92629,-1.4773,36,4
-7.60816,11.1114,-1.17817,22,5
-10.6065,15.4963,3.65018,34,13
-8.09655,11.8336,-0.75144,32,6
-10.7956,15.7843,4.41489,45,14
-9.79972,14.3336,-0.303079,61,7
-13.9285,20.3803,6.61438,30,15
-0.287256,0.421418,-0.136656,14,0
-10.0046,14.6828,0.310129,61,8
-0.329113,0.483185,-0.134971,14,1
-10.1818,14.954,0.948118,54,9
-0.429818,0.631271,-0.148449,20,2
-10.2676,15.0856,1.59652,64,10
-7.38714,10.8576,-2.07995,46,3
-10.457,15.3754,2.2831,39,11
-6.72435,9.89086,-1.46853,60,4
-7.82938,11.5249,-1.21896,17,5
-12.5481,18.4709,4.34052,19,13
-8.07651,11.8932,-0.753429,45,6
-10.6956,15.7558,4.39644,26,14
-8.62454,12.7097,-0.268104,100,7
-13.2305,19.5047,6.31519,6,15
-0.32467,0.480077,-0.155291,12,0
-10.0329,14.8352,0.312607,58,8
-0.323058,0.477873,-0.133171,14,1
-10.1933,15.0838,0.954085,24,9
-0.436293,0.645857,-0.151502,19,2
-10.1386,15.0142,1.58501,81,10
-6.01886,8.9166,-1.70388,18,3
-10.491,15.5418,2.30236,53,11
-7.27048,10.7749,-1.596,47,4
-10.4298,15.4628,2.95411,39,12
-7.68439,11.3969,-1.20257,27,5
-10.3593,15.3699,3.60286,15,13
-10.8195,16.0587,-1.01479,48,6
-10.6584,15.8256,4.40499,48,14
-8.1333,12.0763,-0.254142,100,7
-10.6949,15.8858,5.13135,6,15
-0.322992,0.481207,-0.155291,12,0
-9.91269,14.7739,0.310548,54,8
-0.316963,0.47258,-0.131371,14,1
-10.1039,15.0645,0.95063,55,9
-0.429662,0.640854,-0.149976,20,2
-10.1982,15.2167,1.60262,74,10
-7.34664,10.966,-2.09059,49,3
-10.4869,15.6593,2.31406,55,11
-7.23315,10.8048,-1.59649,35,4
-10.4439,15.6009,2.97351,39,12
-7.7044,11.513,-1.21199,50,5
-8.25543,12.3458,-0.77834,26,6
-10.5717,15.8157,4.39194,39,14
-8.09221,12.1063,-0.254177,100,7
-10.6137,15.8845,5.11892,14,15
-0.321311,0.482332,-0.155291,12,0
-9.87917,14.83,0.311037,54,8
-0.328355,0.493093,-0.13677,13,1
-10.0567,15.108,0.951154,29,9
-0.435036,0.653791,-0.152647,19,2
-10.134,15.2356,1.60088,57,10
-7.38462,11.1021,-2.11187,41,3
-10.3822,15.6146,2.30236,53,11
-7.13904,10.7411,-1.58357,17,4
-7.57489,11.4054,-1.19787,45,5
-10.4695,15.7639,3.67842,24,13
-10.7077,16.1286,-1.01459,45,6
-10.5052,15.8296,4.3861,19,14
-9.66608,14.5707,-0.305208,100,7
-12.5686,18.9531,6.09364,24,15
-0.319709,0.483395,-0.155291,12,0
-9.92549,15.0129,0.314143,76,8
-0.337376,0.510494,-0.141269,13,1
-9.89757,14.9763,0.940791,49,9
-0.418797,0.633935,-0.147686,20,2
-10.0483,15.2159,1.5953,54,10
-7.10532,10.7635,-2.04272,42,3
-10.1691,15.4105,2.26701,39,11
-7.86008,11.9159,-1.75273,54,4
-12.2333,18.5457,3.51884,28,12
-7.59405,11.517,-1.20693,15,5
-10.4263,15.8183,3.68261,45,13
-7.61957,11.5645,-0.725795,16,6
-11.6858,17.7426,4.90483,49,14
-10.0115,15.2005,-0.317704,97,7
-12.5864,19.1173,6.13298,9,15
-0.31802,0.484508,-0.155291,12,0
-9.78238,14.9036,0.311176,52,8
-0.327129,0.498575,-0.13767,13,1
-9.86605,15.0425,0.94278,39,9
-0.412276,0.628826,-0.14616,21,2
-9.95798,15.1942,1.58937,74,10
-7.10532,10.8415,-2.05305,34,3
-9.97435,15.225,2.23484,38,11
-7.80421,11.917,-1.74907,28,4
-12.0928,18.4726,3.49694,12,12
-7.69236,11.7551,-1.22907,27,5
-10.2738,15.7001,3.64712,39,13
-11.6023,17.7437,4.89448,49,14
-10.1279,15.4948,-0.323114,45,7
-11.8517,18.139,5.80583,13,15
-9.69756,14.8874,0.310129,71,8
-0.31688,0.48665,-0.134071,14,1
-9.80694,15.0668,0.942152,28,9
-5.90008,9.06453,-2.10233,4,2
-7.05774,10.8514,-2.05023,31,3
-11.6665,17.9442,2.62799,12,11
-6.83335,10.5144,-1.5397,9,4
-15.0005,23.09,4.36108,6,12
-7.31576,11.261,-1.17486,25,5
-10.4863,16.1475,3.74253,13,13
-7.66574,11.8087,-0.737832,61,6
-11.5234,17.758,4.88729,49,14
-9.96061,15.3556,-0.319484,100,7
-11.8472,18.271,5.83482,10,15
-9.63142,14.8993,0.309676,69,8
-0.332102,0.513941,-0.141269,13,1
-9.33815,14.4567,0.901958,35,9
-5.85136,9.05868,-2.09623,4,2
-9.96672,15.4357,1.6075,27,10
-6.98018,10.8145,-2.03865,63,3
-9.75696,15.1224,2.20973,33,11
-6.83319,10.5949,-1.54798,47,4
-12.9953,20.1571,3.79854,2,12
-7.43727,11.536,-1.20083,45,5
-13.0706,20.2815,4.69009,5,13
-7.73696,12.01,-0.748718,29,6
-11.417,17.7293,4.86839,48,14
-9.94267,15.4457,-0.320636,100,7
-11.7395,18.244,5.81308,5,15
-0.313014,0.487757,-0.155291,12,0
-9.58367,14.9396,0.309815,61,8
-0.307163,0.479008,-0.131371,14,1
-9.30525,14.5111,0.903423,40,9
-5.78686,9.02781,-2.0844,4,2
-9.93428,15.504,1.61099,23,10
-6.95198,10.8538,-2.04147,48,3
-9.62597,15.0344,2.19194,52,11
-6.81864,10.6538,-1.5531,26,4
-12.7932,19.9888,3.75881,9,12
-7.2928,11.3991,-1.18392,30,5
-11.1677,17.4624,4.02912,16,13
-7.76169,12.1413,-0.755208,52,6
-11.3414,17.7477,4.86254,52,14
-9.97107,15.6033,-0.323219,100,7
-12.6138,19.7465,6.27843,13,15
-0.31131,0.488846,-0.155291,12,0
-9.56738,15.0236,0.310897,61,8
-0.336968,0.529341,-0.144868,12,1
-6.02611,9.47368,-2.18247,4,2
-9.91004,15.5856,1.61587,27,10
-6.98166,10.9801,-2.06087,26,3
-9.57075,15.0578,2.19072,60,11
-6.73111,10.5943,-1.54116,39,4
-12.1387,19.1128,3.5861,6,12
-7.83282,12.3378,-1.27857,21,5
-11.075,17.4446,4.01653,14,13
-7.61972,12.0068,-0.745264,87,6
-11.2177,17.6832,4.83465,51,14
-9.72914,15.3425,-0.31711,25,7
-11.5509,18.2224,5.78098,15,15
-9.53304,15.0856,0.311491,60,8
-0.31014,0.490973,-0.134071,14,1
-7.00932,11.1005,-2.55188,5,2
-9.53288,15.1028,1.56253,26,10
-5.4138,8.58036,-1.60689,33,3
-9.57107,15.1751,2.20291,52,11
-6.733,10.6753,-1.54969,32,4
-9.98198,15.8327,2.96443,33,12
-7.81311,12.3974,-1.28206,28,5
-10.9659,17.4068,3.99898,37,13
-7.5767,12.0316,-0.745159,42,6
-11.13,17.6741,4.82205,46,14
-9.72401,15.4474,-0.318611,100,7
-11.3988,18.115,5.73491,22,15
-0.308061,0.4909,-0.155291,12,0
-8.02609,12.7947,0.263636,21,8
-0.323004,0.515112,-0.140369,13,1
-9.89213,15.7755,0.975856,29,9
-6.92659,11.0505,-2.53509,5,2
-9.49438,15.153,1.56445,74,10
-5.38218,8.59324,-1.60596,10,3
-9.52807,15.2185,2.20462,42,11
-6.68598,10.679,-1.54701,11,4
-9.92208,15.854,2.96224,54,12
-7.75399,12.3945,-1.2791,42,5
-10.9247,17.4697,4.00508,32,13
-7.55475,12.0854,-0.746939,48,6
-11.062,17.696,4.818,46,14
-7.66147,12.2609,-0.252362,22,7
-11.2926,18.079,5.71162,30,15
-0.306431,0.491919,-0.155291,12,0
-9.7076,15.5898,0.320566,28,8
-0.34395,0.552578,-0.150267,12,1
-9.85599,15.8405,0.97774,41,9
-5.68264,9.1331,-2.09088,4,2
-9.49774,15.2706,1.57334,40,10
-9.69026,15.5923,2.2541,53,11
-6.67171,10.7394,-1.55237,68,4
-9.84167,15.8483,2.95473,55,12
-7.41224,11.9361,-1.22924,30,5
-10.933,17.6126,4.0295,30,13
-7.4325,11.978,-0.738774,58,6
-11.0454,17.8074,4.8378,46,14
-9.89472,15.9586,-0.327756,100,7
-11.1684,18.0198,5.68056,21,15
-0.304712,0.492986,-0.155291,12,0
-7.88415,12.7605,0.261821,39,8
-0.311298,0.504035,-0.13677,13,1
-9.62857,15.5961,0.960574,37,9
-0.39913,0.646498,-0.147686,20,2
-9.86083,15.9785,1.64271,43,10
-5.40446,8.76082,-1.63036,21,3
-9.67745,15.6936,2.26384,53,11
-6.52689,10.5886,-1.52727,21,4
-9.75002,15.8237,2.94378,43,12
-7.37471,11.9687,-1.22994,27,5
-10.8375,17.5954,4.01691,16,13
-7.43881,12.0822,-0.743589,58,6
-11.0015,17.8757,4.8459,48,14
-7.59035,12.3379,-0.25285,94,7
-11.0761,18.0109,5.66555,26,15
-9.60271,15.6641,0.320705,15,8
-0.311574,0.508442,-0.13767,13,1
-9.12076,14.8837,0.914833,6,9
-5.6331,9.19599,-2.09623,4,2
-9.76962,15.9551,1.63678,91,10
-5.50791,8.99865,-1.67103,21,3
-9.62572,15.7324,2.26458,48,11
-6.55203,10.7129,-1.54189,55,4
-10.8704,17.7737,3.29983,8,12
-7.32977,11.9893,-1.22942,32,5
-10.777,17.6348,4.01729,36,13
-7.3716,12.0671,-0.741077,58,6
-11.0203,18.0471,4.88189,48,14
-6.58852,10.7895,-0.220668,20,7
-11.0284,18.0674,5.67176,26,15
-0.301263,0.495101,-0.155291,12,0
-7.89794,12.9796,0.265207,30,8
-0.307861,0.506142,-0.13677,13,1
-9.07601,14.9274,0.915565,12,9
-6.78989,11.1718,-2.54119,11,2
-9.68283,15.938,1.63156,54,10
-6.72831,11.0748,-2.05242,11,3
-9.9465,16.3784,2.35281,40,11
-6.56798,10.8194,-1.55408,48,4
-10.3338,17.0296,3.15497,6,12
-7.3323,12.088,-1.23691,32,5
-10.7419,17.7091,4.02607,26,13
-7.39574,12.1974,-0.747567,39,6
-11.0271,18.1935,4.91158,49,14
-9.17343,15.1412,-0.309012,83,7
-11.0323,18.2165,5.70644,20,15
-7.80608,12.9301,0.263636,10,8
-0.316161,0.523898,-0.141269,13,1
-9.0956,15.072,0.922578,9,9
-6.72948,11.1556,-2.53242,13,2
-9.65873,16.0178,1.63644,77,10
-5.78101,9.59085,-1.77365,51,3
-9.88005,16.3977,2.35062,55,11
-6.40932,10.6416,-1.52532,67,4
-10.2589,17.0333,3.14934,6,12
-7.31582,12.1515,-1.24092,52,5
-10.7094,17.7953,4.03714,24,13
-10.9745,18.2503,4.91653,49,14
-9.2252,15.3412,-0.312468,100,7
-10.924,18.1735,5.6816,9,15
-0.297886,0.49714,-0.155291,12,0
-10.0244,16.7296,0.340427,10,8
-0.316424,0.528288,-0.142169,13,1
-10.0022,16.7059,1.02045,13,9
-5.50988,9.20634,-2.08554,9,2
-9.66106,16.1489,1.64637,70,10
-5.80393,9.70151,-1.79055,27,3
-10.9535,18.3164,2.62043,25,11
-7.37859,12.3532,-1.25888,20,5
-10.6262,17.7902,4.02798,32,13
-7.4088,12.4087,-0.757406,13,6
-10.9349,18.3217,4.92598,36,14
-7.84482,13.1494,-0.267266,30,7
-10.9733,18.4006,5.74061,20,15
-0.296236,0.498125,-0.155291,12,0
-7.79555,13.1135,0.266289,48,8
-0.320551,0.539441,-0.144868,12,1
-9.51035,16.0109,0.975961,4,9
-6.86093,11.5505,-2.61141,14,2
-9.817,16.5337,1.68228,80,10
-5.78516,9.74719,-1.79524,12,3
-10.8439,18.2777,2.60947,6,11
-6.61418,11.1528,-1.5921,27,4
-10.4601,17.6449,3.24883,21,12
-7.34978,12.3981,-1.26097,5,5
-10.6321,17.9421,4.05393,24,13
-8.11867,13.7061,-0.834863,16,6
-10.7438,18.1451,4.86839,48,14
-9.17593,15.5033,-0.314457,100,7
-10.8058,18.2643,5.68625,26,15
-0.294495,0.499156,-0.155291,12,0
-7.87568,13.3543,0.270617,27,8
-0.296894,0.503624,-0.134971,14,1
-7.73672,13.1291,0.798647,23,9
-6.40295,10.8657,-2.45151,13,2
-9.70159,16.47,1.67234,28,10
-5.74509,9.75711,-1.79337,25,3
-10.7992,18.348,2.6141,36,11
-6.56313,11.1553,-1.58918,53,4
-10.3714,17.6353,3.24038,38,12
-6.69136,11.3778,-1.15481,26,5
-10.6301,18.0823,4.07721,24,13
-8.04548,13.6913,-0.832246,19,6
-10.6883,18.196,4.87199,48,14
-7.75283,13.2038,-0.267266,25,7
-10.7683,18.3468,5.70023,15,15
-7.76439,13.2712,0.268383,9,8
-0.295134,0.504657,-0.134971,14,1
-7.77349,13.2974,0.80723,4,9
-5.25428,8.98801,-2.02372,16,2
-9.62394,16.4694,1.66886,14,10
-6.36757,10.9012,-1.99955,37,3
-11.719,20.0707,2.85369,15,11
-6.37005,10.9142,-1.55164,76,4
-10.3367,17.7175,3.24883,31,12
-6.64156,11.3839,-1.15307,45,5
-10.5471,18.0854,4.06957,24,13
-6.64676,11.402,-0.691672,16,6
-10.3598,17.7785,4.75052,40,14
-7.74695,13.2999,-0.268662,22,7
-10.7519,18.4661,5.7256,25,15
-7.57649,13.0544,0.263462,79,8
-0.301194,0.519169,-0.13857,13,1
-7.73605,13.34,0.808172,19,9
-5.32432,9.18123,-2.06303,19,2
-9.06079,15.6307,1.58066,60,10
-6.30968,10.8891,-1.99329,25,3
-9.87185,17.0435,2.41838,25,11
-6.33092,10.9346,-1.5514,55,4
-10.5726,18.268,3.343,28,12
-6.35527,10.9811,-1.11002,47,5
-10.4859,18.1255,4.07034,24,13
-6.67491,11.5427,-0.69879,3,6
-10.3065,17.8298,4.75457,44,14
-7.64245,13.2265,-0.266638,90,7
-10.7192,18.5588,5.74268,25,15
-7.54185,13.0998,0.263845,21,8
-0.297436,0.516839,-0.13767,13,1
-7.66586,13.3206,0.80545,24,9
-5.303,9.21848,-2.06722,16,2
-9.04292,15.7261,1.58711,16,10
-4.93579,8.58708,-1.56873,25,3
-9.74109,16.954,2.40083,25,11
-6.31249,10.9911,-1.55627,61,4
-10.4687,18.2276,3.32924,26,12
-6.45578,11.2451,-1.13442,28,5
-10.3834,18.0939,4.05507,28,13
-6.35632,11.0808,-0.669482,81,6
-10.2335,17.8471,4.74962,44,14
-7.54484,13.158,-0.264753,28,7
-10.551,18.4082,5.68522,26,15
-7.51722,13.1577,0.264509,45,8
-0.311183,0.544899,-0.144868,12,1
-7.47179,13.0888,0.789854,45,9
-5.27079,9.23693,-2.06722,26,2
-9.41541,16.507,1.66258,49,10
-4.95525,8.68747,-1.58406,55,3
-10.1106,17.7329,2.50637,11,11
-6.22883,10.9291,-1.54457,71,4
-10.1106,17.7474,3.23506,21,12
-6.28536,11.0373,-1.11124,47,5
-10.3108,18.106,4.05011,32,13
-7.33821,12.8914,-0.777398,29,6
-10.2186,17.9588,4.77031,45,14
-7.56609,13.3025,-0.267127,66,7
-10.3664,18.2333,5.62,28,15
-7.53434,13.2952,0.266743,66,8
-0.309279,0.545982,-0.144868,12,1
-7.40932,13.0853,0.788075,16,9
-5.28173,9.32782,-2.08363,14,2
-7.59508,13.4188,1.349,27,10
-5.36651,9.48527,-1.7261,38,3
-10.0154,17.7093,2.49808,11,11
-6.20822,10.9819,-1.54896,39,4
-10.0418,17.7706,3.23287,34,12
-6.22912,11.0234,-1.10775,59,5
-10.3073,18.2479,4.07377,30,13
-7.33539,12.9917,-0.781899,61,6
-10.1559,17.9944,4.77031,45,14
-7.32506,12.984,-0.260215,29,7
-10.24,18.1583,5.58583,24,15
-0.284065,0.505165,-0.155291,12,0
-7.4291,13.2169,0.264648,28,8
-0.284462,0.506283,-0.134071,14,1
-7.33524,13.0606,0.785039,41,9
-5.22702,9.30683,-2.07486,26,2
-7.33459,13.0647,1.31082,48,10
-5.24636,9.3489,-1.69794,22,3
-10.5352,18.7812,2.64408,12,11
-6.15432,10.9758,-1.54506,69,4
-10.0242,17.8848,3.24727,33,12
-6.17696,11.0207,-1.10531,23,5
-10.2292,18.2581,4.06805,26,13
-7.31537,13.0625,-0.784621,26,6
-10.113,18.0654,4.77976,45,14
-7.28653,13.0217,-0.26046,100,7
-10.2049,18.2445,5.60136,20,15
-7.41699,13.3038,0.26587,52,8
-0.288385,0.517487,-0.13677,13,1
-7.1305,12.7952,0.767664,12,9
-5.19355,9.3233,-2.07448,26,2
-7.45274,13.3844,1.34028,23,10
-5.21081,9.36198,-1.697,6,3
-10.4445,18.7728,2.63774,6,11
-6.087,10.9407,-1.53726,22,4
-9.96,17.9093,3.2457,35,12
-10.1721,18.3057,4.07072,24,13
-6.16802,11.1045,-0.665713,68,6
-10.088,18.1619,4.79641,45,14
-7.17827,12.9286,-0.258121,29,7
-10.1668,18.3188,5.61379,26,15
-7.19183,13.0012,0.259343,24,8
-0.294211,0.532083,-0.140369,13,1
-7.2098,13.039,0.780853,11,9
-5.20724,9.42123,-2.09241,16,2
-7.48251,13.5434,1.3537,66,10
-5.18547,9.38959,-1.69888,2,3
-7.50795,13.6006,1.9075,4,11
-5.8828,10.6567,-1.49461,43,4
-9.95592,18.0425,3.26385,19,12
-6.301,11.4237,-1.14139,26,5
-10.172,18.4493,4.09514,25,13
-6.12924,11.1214,-0.665504,61,6
-10.0428,18.2225,4.8036,42,14
-10.1069,18.3541,5.6143,26,15
-0.278937,0.508014,-0.155291,12,0
-7.13906,13.0074,0.258994,61,8
-0.292444,0.533056,-0.140369,13,1
-5.17314,9.43328,-2.09127,23,2
-7.405,13.5087,1.34778,96,10
-5.02616,9.17286,-1.65664,51,3
-7.48093,13.6585,1.91213,33,11
-5.75405,10.51,-1.47121,49,4
-9.87296,18.0408,3.25728,15,12
-6.51081,11.8972,-1.18654,17,5
-10.057,18.3848,4.07339,28,13
-6.07986,11.1189,-0.664143,97,6
-10.0221,18.3361,4.8243,46,14
-7.10257,13,-0.258575,93,7
-10.0558,18.413,5.62155,23,15
-7.08883,13.0235,0.258819,58,8
-0.299896,0.551191,-0.144868,12,1
-5.09328,9.36505,-2.07219,4,2
-7.36636,13.5502,1.34935,100,10
-4.99599,9.19382,-1.65727,72,3
-7.27781,13.3985,1.87216,33,11
-5.7249,10.544,-1.47316,22,4
-9.78448,18.0283,3.24883,26,12
-6.45784,11.8988,-1.18445,17,5
-9.96472,18.368,4.06194,28,13
-6.02197,11.105,-0.66205,42,6
-10.0045,18.4567,4.8468,43,14
-6.12546,11.3052,-0.224438,37,7
-9.95187,18.3749,5.59929,24,15
-6.98823,12.9461,0.256795,16,8
-0.29797,0.552235,-0.144868,12,1
-5.04005,9.34476,-2.06379,23,2
-7.30011,13.5408,1.34586,24,10
-4.87953,9.0547,-1.62911,17,3
-7.18111,13.3312,1.85924,24,11
-5.72947,10.6408,-1.48388,55,4
-9.78609,18.1823,3.27042,21,12
-6.8786,12.7857,-1.27021,20,5
-9.9024,18.4061,4.06271,26,13
-5.95007,11.0643,-0.658386,58,6
-9.95107,18.5121,4.85219,48,14
-7.39686,13.7662,-0.272781,100,7
-9.81821,18.2802,5.55995,27,15
-6.88543,12.8628,0.254666,45,8
-0.286846,0.536089,-0.140369,13,1
-6.93473,12.9658,0.770595,15,9
-4.98633,9.32681,-2.05578,26,2
-7.15746,13.3935,1.3286,51,10
-4.86213,9.10215,-1.63443,38,3
-7.32626,13.7151,1.90921,37,11
-5.68201,10.6415,-1.4812,39,4
-9.77279,18.3105,3.28731,21,12
-6.78704,12.7217,-1.26149,27,5
-9.77944,18.3384,4.03981,26,13
-6.68926,12.5489,-0.745264,71,6
-9.84833,18.4831,4.8351,42,14
-6.74977,12.6678,-0.250547,8,7
-9.70711,18.2257,5.53303,27,15
-6.86261,12.9339,0.255573,15,8
-0.287619,0.542302,-0.141719,13,1
-4.95742,9.3511,-2.0573,26,2
-7.12093,13.4377,1.33052,23,10
-4.82663,9.11208,-1.63318,35,3
-7.19792,13.5945,1.88873,53,11
-5.83704,11.0289,-1.53214,67,4
-9.94856,18.8054,3.3696,24,12
-6.75285,12.7647,-1.26341,15,5
-9.71996,18.3811,4.04172,30,13
-6.66408,12.6075,-0.747358,68,6
-9.77647,18.5036,4.8315,46,14
-6.60244,12.5015,-0.246777,22,7
-9.64837,18.2765,5.53769,20,15
-6.85094,13.0215,0.25683,36,8
-0.292981,0.557101,-0.145318,12,1
-7.1373,13.5773,0.80388,30,9
-6.08035,11.5666,-2.54005,22,2
-7.15924,13.6248,1.34656,69,10
-4.91513,9.35797,-1.67416,76,3
-7.13013,13.5809,1.88337,49,11
-5.71733,10.8945,-1.51069,15,4
-4.75075,9.05652,-0.894741,15,5
-6.57738,12.5493,-0.742543,78,6
-9.72538,18.5635,4.83825,34,14
-6.61256,12.6272,-0.248801,26,7
-9.6732,18.4796,5.58894,27,15
-0.268147,0.513792,-0.155291,12,0
-6.76475,12.9673,0.255294,11,8
-0.300045,0.575399,-0.149817,12,1
-7.13379,13.6806,0.808591,42,9
-4.81035,9.22879,-2.02296,26,2
-6.86031,13.1673,1.29897,34,10
-5.68355,10.9133,-1.94886,26,3
-9.79127,18.8088,2.60362,6,11
-4.96255,9.53296,-1.3196,19,4
-10.1003,19.4107,3.46565,22,12
-6.24066,11.9984,-1.18323,25,5
-9.65389,18.5687,4.06805,22,13
-6.50407,12.5155,-0.739193,100,6
-10.4312,20.0723,5.22246,21,14
-6.50705,12.5266,-0.246393,33,7
-9.60475,18.4978,5.5848,11,15
-0.280229,0.541773,-0.140819,13,1
-7.2765,14.0678,0.830048,59,9
-4.56152,8.82265,-1.93061,35,2
-6.9401,13.4289,1.3225,37,10
-4.71442,9.12619,-1.62692,70,3
-7.03206,13.6185,1.88191,45,11
-4.61123,8.93026,-1.23405,38,4
-9.5792,18.5594,3.30796,7,12
-6.22733,12.0704,-1.18828,30,5
-9.57426,18.5657,4.06042,30,13
-6.47991,12.5707,-0.741182,61,6
-10.3628,20.1034,5.22156,43,14
-6.47555,12.5677,-0.246777,48,7
-9.54158,18.5261,5.58376,9,15
-7.00824,13.6541,0.267894,27,8
-0.265977,0.518425,-0.134521,14,1
-6.80537,13.2703,0.781585,25,9
-4.49102,8.75737,-1.91305,33,2
-4.73817,9.24726,-1.64569,15,3
-9.97126,19.4688,2.68576,13,11
-4.63973,9.06293,-1.25014,59,4
-9.54675,18.656,3.31923,3,12
-5.24969,10.2588,-1.00822,58,5
-9.52606,18.6236,4.06614,24,13
-6.42001,12.5566,-0.739088,97,6
-10.3404,20.2331,5.24586,44,14
-6.45711,12.64,-0.247754,37,7
-10.5926,20.7444,6.24116,32,15
-6.92335,13.6054,0.266463,45,8
-0.271234,0.533246,-0.13812,13,1
-6.75539,13.2868,0.781167,33,9
-4.46399,8.78,-1.91458,9,2
-4.67903,9.21091,-1.6363,35,3
-6.96076,13.7085,1.88776,20,11
-4.55865,8.98171,-1.23673,38,4
-12.5623,24.7616,4.39769,12,12
-5.22467,10.2984,-1.01031,51,5
-9.47519,18.6847,4.07225,24,13
-6.3644,12.5558,-0.737728,100,6
-10.2618,20.2534,5.24181,60,14
-6.39036,12.6179,-0.246882,38,7
-10.042,19.8367,5.9575,19,15
-6.67226,13.226,0.258575,46,8
-0.283409,0.56203,-0.145318,12,1
-6.70769,13.302,0.780748,10,9
-4.42271,8.77449,-1.91,28,2
-6.93323,13.7612,1.34812,54,10
-4.59709,9.12839,-1.61878,16,3
-6.92447,13.7558,1.89092,53,11
-4.69145,9.32385,-1.28158,20,4
-9.59712,19.0735,3.3818,20,12
-5.2048,10.3486,-1.01345,18,5
-10.1789,20.2472,4.40502,30,13
-6.25507,12.4476,-0.730087,74,6
-9.72398,19.3592,5.00156,19,14
-6.35207,12.6462,-0.247021,100,7
-9.98482,19.8872,5.96267,20,15
-6.87442,13.7399,0.268174,16,8
-0.281544,0.562967,-0.145318,12,1
