x, y, z, intensity, ring
2.14437,-4.24881,0.0830735,45,8
0.238743,-0.473247,-0.122373,15,1
2.19423,-4.35138,0.255399,25,9
0.262537,-0.520638,-0.113341,16,2
1.94151,-3.85189,0.377384,47,10
0.31997,-0.635085,-0.112633,35,3
2.32235,-4.61146,0.633964,38,11
2.42419,-4.81578,-0.661994,59,4
3.39406,-6.74539,-0.660641,13,5
4.21304,-8.3767,1.82261,19,13
2.35218,-4.67883,-0.27445,11,6
12.3454,-24.5674,6.34767,17,14
2.26456,-4.50845,-0.0880648,41,7
4.12429,-8.21453,2.46292,5,15
2.134,-4.26521,0.083248,61,8
0.23709,-0.474077,-0.122373,15,1
2.07097,-4.14285,0.242734,30,9
0.260718,-0.521551,-0.113341,16,2
1.97436,-3.95132,0.386449,16,10
0.321282,-0.643267,-0.113884,34,3
3.23015,-6.4702,0.88794,28,11
2.6458,-5.30201,-0.72756,23,4
3.10629,-6.22753,1.10224,24,12
2.4892,-4.99256,-0.488072,10,5
2.83999,-5.69614,1.23721,7,13
2.10956,-4.23297,-0.247863,9,6
2.2292,-4.47695,-0.0872969,18,7
12.5743,-25.2643,7.56166,35,15
2.10932,-4.25293,0.082864,50,8
0.235434,-0.474902,-0.122373,15,1
2.05738,-4.15184,0.242839,39,9
0.302375,-0.610467,-0.132421,13,2
1.97755,-3.99424,0.389935,30,10
0.316294,-0.639129,-0.112946,35,3
3.19346,-6.45297,0.88404,19,11
3.07753,-6.22417,1.09973,60,12
2.68097,-5.42454,-0.529384,38,5
2.2983,-4.65435,-0.272042,15,6
2.78075,-5.63385,1.45048,30,14
2.19586,-4.44884,-0.0865988,39,7
13.0006,-26.351,7.87328,11,15
2.10166,-4.27678,0.0831782,13,8
0.233691,-0.475762,-0.122373,15,1
2.06152,-4.1988,0.245142,39,9
0.256979,-0.523404,-0.113341,16,2
1.9513,-3.97608,0.387494,48,10
0.302751,-0.617174,-0.108878,37,3
2.24341,-4.57533,0.625677,24,11
2.25309,-4.59711,-0.628602,32,4
3.05643,-6.23896,1.10036,61,12
2.31847,-4.73468,-0.461228,15,5
2.7983,-5.71455,1.23682,18,13
2.29873,-4.69643,-0.274031,22,6
2.76878,-5.65927,1.45453,53,14
2.20238,-4.50356,-0.0875064,39,7
12.842,-26.2717,7.83549,22,15
3.98779,-8.18706,0.158957,11,8
0.232029,-0.476575,-0.122373,15,1
2.06607,-4.24548,0.247444,33,9
0.255059,-0.524342,-0.113341,16,2
1.93846,-3.98679,0.387843,43,10
0.303941,-0.625386,-0.11013,24,3
3.11336,-6.40602,0.874534,26,11
2.22402,-4.57816,-0.624946,29,4
2.64981,-5.45706,0.960821,65,12
2.27148,-4.68001,-0.455127,50,5
2.78076,-5.73184,1.23835,30,13
2.06537,-4.25914,-0.248072,11,6
2.73867,-5.65009,1.44958,37,14
2.21455,-4.56881,-0.0886233,18,7
12.7409,-26.2973,7.82979,11,15
2.08838,-4.32773,0.0838763,38,8
0.230281,-0.477422,-0.122373,15,1
2.03402,-4.21884,0.245456,42,9
0.253228,-0.525229,-0.113341,16,2
1.89599,-3.9343,0.382091,8,10
0.303471,-0.630002,-0.110756,24,3
3.10708,-6.45316,0.879409,23,11
2.20723,-4.58628,-0.624946,33,4
2.25427,-4.68612,-0.454953,37,5
2.7752,-5.77159,1.24484,21,13
3.54035,-7.36616,-0.428317,18,6
2.69023,-5.5999,1.43429,100,14
2.19779,-4.57689,-0.0886233,30,7
13.8967,-28.9527,8.60522,13,15
2.07154,-4.33139,0.0838065,17,8
2.02359,-4.23493,0.245979,23,9
1.88138,-3.93909,0.381916,16,10
0.308929,-0.647102,-0.113571,46,3
2.16379,-4.53445,0.616903,2,11
2.47835,-5.19597,-0.706842,10,4
2.13378,-4.47557,0.785301,48,12
2.22504,-4.66698,-0.452338,31,5
2.70943,-5.68554,1.22423,24,13
3.33081,-6.9926,-0.405918,36,6
2.79717,-5.87494,1.50222,50,14
2.17149,-4.56287,-0.0882045,30,7
13.7084,-28.8179,8.55086,13,15
2.0564,-4.33859,0.0838065,35,8
0.226942,-0.479018,-0.122373,15,1
2.01381,-4.25064,0.246502,45,9
0.249555,-0.526984,-0.113341,16,2
1.86251,-3.93483,0.380871,30,10
0.29991,-0.633891,-0.111068,48,3
2.12674,-4.49712,0.610809,40,11
2.19721,-4.64824,-0.631283,35,4
2.12652,-4.49869,0.788117,40,12
2.20533,-4.66751,-0.451641,31,5
4.11651,-8.71641,1.87374,27,13
2.10251,-4.45393,-0.258121,7,6
2.65939,-5.63617,1.43879,38,14
2.16061,-4.57909,-0.088379,3,7
13.5551,-28.7409,8.51463,13,15
2.73175,-5.81316,0.112114,66,8
0.225353,-0.479768,-0.122373,15,1
1.99386,-4.24679,0.245874,47,9
0.247714,-0.527852,-0.113341,16,2
2.47996,-5.28695,0.510907,69,10
0.299484,-0.638459,-0.111694,48,3
2.11687,-4.51493,0.612272,54,11
2.43703,-5.20014,-0.705136,49,4
2.0865,-4.45421,0.779044,41,12
4.08425,-8.7229,1.87222,14,13
2.02254,-4.32158,-0.250061,38,6
2.62582,-5.61318,1.43069,8,14
2.17172,-4.64457,-0.0894959,26,7
13.3631,-28.592,8.45665,13,15
2.8904,-6.20697,0.119514,49,8
0.224499,-0.482318,-0.122823,15,1
0.245962,-0.528671,-0.113341,16,2
2.42713,-5.21926,0.503586,30,10
0.296421,-0.637709,-0.111381,48,3
2.32609,-5.00656,0.677837,66,11
2.41803,-5.20682,-0.704892,14,4
2.05342,-4.42169,0.772161,72,12
3.99804,-8.61304,-0.830769,22,5
2.00408,-4.32137,-0.249643,49,6
2.59884,-5.6064,1.42664,11,14
2.11005,-4.55196,-0.0875762,29,7
12.7427,-27.5021,8.12174,6,15
2.69547,-5.83888,0.112254,45,8
0.222898,-0.48306,-0.122823,15,1
1.99419,-4.32374,0.249538,15,9
0.244115,-0.529526,-0.113341,16,2
2.51062,-5.44847,0.524852,52,10
0.298438,-0.647659,-0.112946,47,3
2.33356,-5.06654,0.684906,26,11
2.33351,-5.06875,-0.685149,45,4
2.02971,-4.41089,0.769032,75,12
2.08805,-4.53974,-0.437173,10,5
1.9814,-4.30985,-0.248596,42,6
8.50475,-18.5077,4.70238,31,14
2.02988,-4.41937,-0.0848885,6,7
12.612,-27.4709,8.09948,12,15
2.58009,-5.64321,0.10831,20,8
0.221126,-0.483874,-0.122823,15,1
1.98414,-4.34374,0.250271,28,9
0.242172,-0.530417,-0.113341,16,2
2.48911,-5.45176,0.524329,71,10
0.294422,-0.645154,-0.11232,47,3
2.13868,-4.68856,0.632746,18,11
2.31491,-5.07727,-0.685149,51,4
2.01845,-4.42908,0.770909,77,12
2.06066,-4.52379,-0.434907,32,5
2.60816,-5.72838,1.22347,11,13
1.96235,-4.31197,-0.248282,42,6
8.43848,-18.5423,4.70328,31,14
2.25544,-4.95829,-0.0950807,29,7
12.4552,-27.3938,8.06325,24,15
2.55279,-5.63806,0.10803,66,8
0.219351,-0.484681,-0.122823,15,1
1.92622,-4.25818,0.244932,39,9
0.240227,-0.531301,-0.113341,16,2
2.46418,-5.44995,0.523283,43,10
0.288801,-0.639029,-0.111068,48,3
2.11739,-4.68732,0.631527,74,11
2.35265,-5.21055,-0.701967,29,4
2.87329,-6.36659,1.1063,77,12
2.05225,-4.54947,-0.43665,6,5
7.85021,-17.4106,3.71238,21,13
2.10081,-4.66146,-0.26796,21,6
8.36325,-18.5571,4.69923,38,14
2.23726,-4.96652,-0.0950807,42,7
12.2818,-27.2773,8.01563,23,15
2.71128,-6.04698,0.115675,57,8
1.91305,-4.27068,0.245246,45,9
0.238371,-0.532137,-0.113341,16,2
2.40593,-5.37348,0.51509,65,10
0.281615,-0.629265,-0.109191,50,3
2.08398,-4.65881,0.626652,49,11
2.33192,-5.21552,-0.70148,9,4
2.4953,-5.58355,0.968642,73,12
2.50948,-5.61527,-0.5381,35,5
2.59993,-5.82039,1.23911,4,13
2.2254,-4.98427,-0.286068,46,6
8.30948,-18.6196,4.70733,31,14
2.13676,-4.79024,-0.0915553,20,7
12.1605,-27.2744,8.00165,23,15
2.76646,-6.22819,0.118956,68,8
0.215877,-0.486238,-0.122823,15,1
1.89084,-4.2609,0.244304,37,9
0.236512,-0.532965,-0.113341,16,2
2.30395,-5.19426,0.497136,71,10
0.28342,-0.639273,-0.110756,49,3
2.07414,-4.68057,0.628602,18,11
2.35229,-5.31075,-0.713179,1,4
2.49419,-5.63377,0.975838,28,12
2.49228,-5.62946,-0.538622,27,5
2.09084,-4.72715,-0.270891,34,6
8.21213,-18.5755,4.68888,46,14
2.04486,-4.62756,-0.0883092,26,7
11.9786,-27.1206,7.94419,11,15
2.79222,-6.3458,0.121015,27,8
0.214179,-0.486989,-0.122823,15,1
1.88882,-4.29673,0.245979,35,9
0.23465,-0.533788,-0.113341,16,2
2.39961,-5.46129,0.521889,31,10
0.280393,-0.63845,-0.110443,49,3
2.0538,-4.67869,0.627383,60,11
2.34331,-5.34074,-0.716104,35,4
3.86052,-8.80287,1.52242,41,12
2.46141,-5.61258,-0.536182,41,5
3.83294,-8.74412,1.85581,32,13
2.07673,-4.73991,-0.271205,23,6
8.09017,-18.4737,4.65604,41,14
1.96936,-4.49911,-0.0857262,38,7
13.2862,-30.3675,8.88163,7,15
2.49441,-5.72308,0.108973,38,8
0.212477,-0.487733,-0.122823,15,1
2.28445,-5.24636,0.299885,34,9
0.232785,-0.534604,-0.113341,16,2
2.28989,-5.26137,0.502017,67,10
0.278163,-0.639425,-0.110443,36,3
2.02005,-4.64579,0.622021,54,11
2.33256,-5.36709,-0.718542,27,4
3.81482,-8.78186,1.51648,25,12
2.46086,-5.665,-0.540366,35,5
7.42104,-17.0917,3.62194,13,13
2.02439,-4.66468,-0.266495,2,6
1.99262,-4.59586,-0.0874366,39,7
13.1885,-30.4331,8.88733,22,15
2.78272,-6.44592,0.122551,49,8
0.210774,-0.488472,-0.122823,15,1
2.3294,-5.40102,0.308259,32,9
0.230918,-0.535413,-0.113341,16,2
2.25337,-5.22725,0.498008,45,10
0.270457,-0.627693,-0.108253,38,3
1.99989,-4.64369,0.620803,72,11
2.26358,-5.25851,-0.702942,6,4
2.69582,-6.26564,1.08034,27,12
2.44422,-5.68087,-0.541063,28,5
6.93785,-16.1328,3.41357,7,13
1.96866,-4.57998,-0.261261,22,6
7.49791,-17.4519,4.3852,13,14
2.10597,-4.90413,-0.0931609,20,7
2.75863,-6.45192,0.122481,31,8
0.209067,-0.489205,-0.122823,15,1
2.24777,-5.26218,0.299885,39,9
0.229047,-0.536216,-0.113341,16,2
2.27814,-5.33586,0.507595,35,10
0.263613,-0.617732,-0.106375,26,3
1.98445,-4.65247,0.621046,60,11
2.24911,-5.27551,-0.704161,11,4
2.68168,-6.29319,1.08347,70,12
2.39548,-5.62155,-0.534613,38,5
7.3,-17.1395,3.62117,33,13
1.92606,-4.52434,-0.257702,30,6
7.49875,-17.6232,4.42164,29,14
2.6398,-6.20694,-0.117734,30,7
2.74467,-6.48177,0.122865,60,8
0.207358,-0.489932,-0.122823,15,1
2.22797,-5.26409,0.299571,10,9
0.227174,-0.537012,-0.113341,16,2
2.23079,-5.27588,0.501146,69,10
0.27222,-0.644122,-0.110756,24,3
2.03463,-4.81663,0.642008,24,11
2.2316,-5.28294,-0.704161,33,4
2.69076,-6.37302,1.09567,9,12
2.4076,-5.70514,-0.54176,28,5
7.19511,-17.0581,3.59866,12,13
1.93121,-4.58073,-0.260528,32,6
7.27447,-17.2547,4.32311,40,14
2.61688,-6.21013,-0.117629,55,7
2.64193,-6.29721,0.1192,56,8
0.205733,-0.490617,-0.122823,15,1
0.225392,-0.537762,-0.113341,16,2
2.27949,-5.44129,0.516136,18,10
0.264742,-0.632267,-0.108566,25,3
2.047,-4.89111,0.651026,2,11
2.2087,-5.27749,-0.702455,41,4
2.38867,-5.71309,-0.54176,22,5
7.54729,-18.0601,3.80473,52,13
1.93217,-4.62581,-0.262727,34,6
7.2097,-17.2607,4.31861,34,14
2.61322,-6.25937,-0.118397,6,7
2.69625,-6.4869,0.122621,22,8
0.204105,-0.491296,-0.122823,15,1
2.68075,-6.45596,0.366352,18,9
0.223514,-0.538546,-0.113341,16,2
2.41494,-5.8187,0.551173,60,10
0.255832,-0.61672,-0.10575,26,3
1.99427,-4.80985,0.639327,15,11
2.65412,-6.40761,1.09848,52,12
2.36033,-5.70115,-0.539843,31,5
7.44741,-17.9974,3.78603,32,13
1.9267,-4.65836,-0.264192,28,6
7.19484,-17.3956,4.34605,34,14
3.86717,-9.35463,-0.176688,97,7
2.67702,-6.50783,0.12283,35,8
0.202302,-0.492041,-0.122823,15,1
2.70262,-6.57658,0.372632,23,9
0.221538,-0.539361,-0.113341,16,2
2.33456,-5.68376,0.537577,60,10
0.261072,-0.635927,-0.108878,25,3
1.9804,-4.82631,0.640545,36,11
2.13397,-5.20316,-0.690512,8,4
2.63436,-6.42643,1.10005,38,12
2.3651,-5.77244,-0.545769,7,5
7.36875,-17.9937,3.77954,16,13
1.85968,-4.5434,-0.257284,27,6
7.06534,-17.2614,4.30601,34,14
3.8268,-9.35394,-0.176409,62,7
8.0269,-19.6301,5.68263,2,15
2.64712,-6.50279,0.122551,20,8
0.200498,-0.492779,-0.122823,15,1
2.68451,-6.60124,0.373469,23,9
2.34822,-5.77718,0.545595,37,10
0.249074,-0.613088,-0.104811,27,3
1.9612,-4.82986,0.640058,54,11
2.11787,-5.21831,-0.691487,44,4
2.62416,-6.469,1.10568,10,12
2.34568,-5.78251,-0.545944,26,5
7.34426,-18.1139,3.79939,14,13
1.85806,-4.58503,-0.259272,20,6
6.99398,-17.2673,4.30106,12,14
3.31599,-8.19089,-0.154244,33,7
7.52955,-18.6082,5.37878,6,15
4.32717,-10.7371,0.202064,18,8
0.198776,-0.493476,-0.122823,15,1
3.95265,-9.81767,0.554657,8,9
0.217767,-0.540895,-0.113341,16,2
2.53407,-6.29733,0.593879,22,10
0.254303,-0.632281,-0.10794,25,3
2.48261,-6.17569,0.817256,19,11
2.09965,-5.22567,-0.691487,40,4
7.41158,-18.4555,3.14996,19,12
2.3188,-5.77402,-0.544375,20,5
7.11132,-17.7168,3.71085,17,13
1.89559,-4.72495,-0.266809,28,6
6.94454,-17.3187,4.30781,15,14
2.9303,-7.31145,-0.13749,38,7
7.86899,-19.644,5.67021,26,15
0.197053,-0.494167,-0.122823,15,1
2.26667,-5.68434,0.320715,21,9
0.215878,-0.541652,-0.113341,16,2
2.42285,-6.08218,0.572788,37,10
0.261594,-0.657023,-0.112007,23,3
2.83757,-7.1305,0.942294,65,11
2.09093,-5.25694,-0.694655,53,4
6.58011,-16.5435,2.81989,28,12
2.01452,-5.06742,-0.477091,13,5
7.27344,-18.3052,3.82877,42,13
1.80979,-4.55705,-0.25697,35,6
6.85744,-17.2759,4.29117,43,14
1.88719,-4.75437,-0.0892865,22,7
7.09922,-17.8941,5.15826,3,15
4.35172,-11.0136,0.206706,42,8
0.195413,-0.494817,-0.122823,15,1
2.22995,-5.64949,0.318307,57,9
0.213986,-0.542402,-0.113341,16,2
2.21158,-5.60869,0.527467,67,10
0.248545,-0.630322,-0.107314,39,3
2.80081,-7.10663,0.937907,20,11
2.05821,-5.22506,-0.689537,66,4
6.50785,-16.5296,2.81363,44,12
1.97275,-5.01324,-0.471338,38,5
1.79832,-4.57232,-0.257493,45,6
6.80938,-17.3221,4.29702,31,14
1.86181,-4.73859,-0.0888676,75,7
7.01977,-17.8756,5.14584,17,15
2.46908,-6.31332,0.118327,64,8
0.193684,-0.495497,-0.122823,15,1
2.21458,-5.6684,0.318935,48,9
0.237191,-0.607111,-0.126697,14,2
2.12123,-5.43226,0.51021,54,10
0.257834,-0.660628,-0.11232,47,3
1.90092,-4.87308,0.642251,13,11
2.06447,-5.2951,-0.697824,47,4
6.4623,-16.5835,2.81895,33,12
1.96102,-5.03495,-0.472733,33,5
6.85155,-17.5915,3.66964,12,13
1.79249,-4.60463,-0.258958,40,6
6.76513,-17.3875,4.30736,34,14
1.84525,-4.74506,-0.0888676,52,7
6.89014,-17.7271,5.09615,19,15
2.44053,-6.30512,0.118013,56,8
0.191954,-0.49617,-0.122823,15,1
2.19478,-5.6761,0.318935,17,9
0.234965,-0.607977,-0.126697,14,2
2.15658,-5.5831,0.523632,75,10
0.249008,-0.644984,-0.109504,50,3
1.87603,-4.85932,0.63957,20,11
2.11029,-5.46895,-0.71976,49,4
6.41433,-16.6318,2.82333,15,12
2.21359,-5.74263,-0.538448,7,5
6.81385,-17.6861,3.68414,12,13
1.88398,-4.89261,-0.274764,38,6
6.73145,-17.4904,4.32671,34,14
1.84951,-4.80559,-0.0898799,65,7
6.80811,-17.6988,5.08114,9,15
2.3788,-6.21318,0.116128,72,8
0.190134,-0.49687,-0.122823,15,1
2.14925,-5.61657,0.315167,63,9
0.207593,-0.542779,-0.112959,16,2
2.11431,-5.53104,0.518054,16,10
0.24605,-0.644004,-0.109191,50,3
2.08977,-5.47258,0.719273,2,11
2.0782,-5.44512,-0.715617,40,4
6.79474,-17.8217,3.70742,6,13
1.86333,-4.88982,-0.27424,49,6
6.63082,-17.41,4.30106,34,14
1.83059,-4.80642,-0.0897752,46,7
6.74766,-17.7261,5.08217,19,15
2.39575,-6.32013,0.117978,23,8
0.188485,-0.497498,-0.122823,15,1
2.06739,-5.45967,0.305956,52,9
0.205697,-0.543501,-0.112959,16,2
2.06891,-5.46944,0.511604,43,10
0.2523,-0.666987,-0.112946,47,3
2.39805,-6.3429,0.832611,14,11
1.97734,-5.23286,-0.686856,53,4
3.2935,-8.7206,1.47643,57,12
2.17556,-5.76353,-0.538971,23,5
7.63415,-20.2245,4.202,36,13
1.83935,-4.87542,-0.273089,27,6
6.72982,-17.8476,4.40364,22,14
1.83002,-4.85581,-0.090578,31,7
6.70686,-17.8055,5.09822,14,15
3.07173,-8.18955,0.152674,35,8
2.07005,-5.52483,0.309201,23,9
2.05286,-5.48187,0.512127,54,10
0.245815,-0.656764,-0.111068,48,3
2.37867,-6.35867,0.833586,66,11
1.9674,-5.26205,-0.689781,53,4
3.2257,-8.63212,1.45953,63,12
2.24047,-5.9988,-0.560237,22,5
7.58537,-20.3204,4.21612,20,13
1.72582,-4.62577,-0.258749,35,6
6.65726,-17.8436,4.39689,16,14
1.84869,-4.95773,-0.0923581,4,7
6.6595,-17.8687,5.10961,17,15
2.13419,-5.75403,0.107123,60,8
0.18492,-0.498834,-0.122823,15,1
2.06505,-5.57358,0.311504,25,9
0.201803,-0.544959,-0.112959,16,2
2.00439,-5.41275,0.50498,18,10
0.240664,-0.65025,-0.109817,37,3
2.33813,-6.3208,0.827493,33,11
1.95636,-5.29157,-0.692705,31,4
3.19199,-8.63833,1.4586,82,12
2.22468,-6.02379,-0.561806,17,5
6.74943,-18.2853,3.7887,1,13
1.72821,-4.68453,-0.26168,40,6
6.41375,-17.3852,4.27812,34,14
2.25596,-6.11835,-0.113825,46,7
6.63338,-17.9999,5.14015,1,15
2.12892,-5.80499,0.107926,60,8
0.183091,-0.499508,-0.122823,15,1
1.98827,-5.42733,0.302921,40,9
0.199804,-0.545695,-0.112959,16,2
1.96261,-5.36019,0.499402,35,10
0.235564,-0.643708,-0.108566,51,3
2.89386,-7.91212,1.03443,19,11
2.0978,-5.73871,-0.750228,36,4
3.14878,-8.61843,1.45328,30,12
4.93003,-13.5011,-1.25748,10,5
6.64669,-18.2122,3.76848,4,13
1.73772,-4.76401,-0.265762,28,6
6.37469,-17.4763,4.29477,18,14
2.23078,-6.11906,-0.113685,46,7
6.66591,-18.2946,5.21727,10,15
2.11513,-5.83343,0.10831,61,8
2.0459,-5.64866,0.314853,45,9
0.197802,-0.546423,-0.112959,16,2
2.71403,-7.49743,0.697595,20,10
0.229842,-0.635279,-0.107001,26,3
2.35182,-6.50391,0.849186,14,11
2.08012,-5.75569,-0.751446,34,4
3.11113,-8.61319,1.45046,45,12
1.75357,-4.85744,-0.451815,6,5
6.5739,-18.2198,3.76504,6,13
1.7941,-4.97514,-0.277171,44,6
6.24184,-17.3089,4.24798,39,14
2.23546,-6.20244,-0.115081,47,7
6.63875,-18.4297,5.24885,19,15
2.09915,-5.84983,0.108484,49,8
2.08714,-5.82275,0.324169,37,9
2.7073,-7.55703,0.702301,58,10
0.230398,-0.643477,-0.108253,25,3
2.49811,-6.9808,0.910364,11,11
2.06437,-5.7719,-0.752665,14,4
3.0779,-8.61044,1.44827,32,12
6.52059,-18.2514,3.76733,1,13
1.79996,-5.04094,-0.280521,22,6
6.18048,-17.3185,4.24528,27,14
1.73724,-4.87067,-0.0902639,11,7
6.5523,-18.3807,5.22866,10,15
2.04929,-5.7742,0.106948,79,8
1.98005,-5.58528,0.310562,140,9
0.194079,-0.547757,-0.112959,16,2
2.6716,-7.54436,0.700209,50,10
0.218811,-0.618246,-0.103873,27,3
2.47241,-6.98573,0.909877,49,11
2.04355,-5.7772,-0.752421,2,4
6.09367,-17.2367,2.8956,26,12
1.71317,-4.8486,-0.449898,55,5
6.68638,-18.9342,3.90319,45,13
1.79343,-5.0814,-0.282405,2,6
6.11761,-17.3429,4.24573,39,14
1.72089,-4.87859,-0.0902987,31,7
6.53242,-18.5292,5.26438,7,15
2.02811,-5.78167,0.106948,45,8
1.91626,-5.46588,0.303549,35,9
2.67225,-7.63074,0.707356,20,10
0.223177,-0.637651,-0.107001,26,3
2.43237,-6.95353,0.904514,58,11
1.6758,-4.79337,-0.623484,8,4
6.03607,-17.2653,2.89685,39,12
1.69689,-4.85643,-0.450072,46,5
6.35357,-18.1938,3.74596,13,13
1.77305,-5.08009,-0.281986,8,6
6.04484,-17.3292,4.23718,27,14
1.70122,-4.87702,-0.0901591,31,7
6.56754,-18.8382,5.34565,9,15
2.01155,-5.79592,0.107088,52,8
1.89783,-5.47442,0.303653,36,9
0.19025,-0.549099,-0.112959,16,2
1.93889,-5.59917,0.518402,31,10
0.219769,-0.634654,-0.106375,26,3
2.43396,-7.03284,0.913776,18,11
6.06871,-17.5551,2.94191,37,12
1.67537,-4.84914,-0.448852,47,5
2.98183,-8.6305,1.77491,8,13
1.73273,-5.01798,-0.278218,8,6
5.99497,-17.3713,4.24258,18,14
1.69005,-4.89994,-0.0904733,38,7
6.22788,-18.0666,5.12048,6,15
2.02246,-5.8937,0.108763,41,8
0.17259,-0.503233,-0.122823,15,1
1.99463,-5.8192,0.32239,47,9
0.188428,-0.549727,-0.112959,16,2
2.66674,-7.78446,0.719906,20,10
0.219472,-0.641024,-0.107314,26,3
2.87277,-8.39546,1.08951,32,11
1.64506,-4.8103,-0.624215,61,4
6.01761,-17.6061,2.94691,34,12
1.67411,-4.89803,-0.452861,35,5
1.71907,-5.03534,-0.278846,13,6
5.95506,-17.4529,4.25742,3,14
2.10537,-6.1739,-0.113859,17,7
6.16041,-18.0754,5.11685,19,15
2.01473,-5.93859,0.109461,77,8
1.98584,-5.86018,0.324274,39,9
0.186508,-0.550381,-0.112959,16,2
2.58266,-7.62577,0.704393,30,10
0.221033,-0.653013,-0.109191,25,3
2.92614,-8.64989,1.1212,31,11
1.62572,-4.8085,-0.62324,55,4
1.65317,-4.89252,-0.451815,6,5
2.88257,-8.53579,1.75125,29,13
3.40489,-10.0883,-0.558006,20,6
5.89909,-17.4884,4.26102,30,14
2.41152,-7.1533,-0.131766,79,7
1.95456,-5.82804,0.107297,52,8
0.184586,-0.551029,-0.112959,16,2
2.56742,-7.66875,0.70753,58,10
0.208096,-0.621934,-0.103873,13,3
2.87453,-8.59604,1.11291,27,11
1.90843,-5.71032,-0.73926,43,4
5.30879,-15.894,2.65407,20,12
1.64028,-4.91366,-0.45321,1,5
2.76095,-8.27561,-0.457207,21,6
5.76096,-17.2778,4.20479,39,14
2.36062,-7.08389,-0.130335,78,7
6.2465,-18.7558,5.29699,20,15
1.92036,-5.79307,0.106529,77,8
0.182565,-0.551701,-0.112959,16,2
2.54304,-7.68946,0.708576,48,10
0.212015,-0.641449,-0.107001,26,3
2.79342,-8.45147,1.09292,20,11
1.89845,-5.74711,-0.743159,42,4
5.23718,-15.8636,2.64593,6,12
1.99581,-6.04892,-0.557274,25,5
5.77808,-17.5226,3.58645,19,13
2.18486,-6.62968,-0.365828,30,6
5.67321,-17.2248,4.18679,42,14
1.77036,-5.3751,-0.0987806,32,7
6.11878,-18.5885,5.24367,21,15
1.97379,-6.02812,0.110718,45,8
1.94735,-5.95089,0.328146,11,9
2.69136,-8.23423,0.757906,20,10
0.206094,-0.630919,-0.105124,13,3
2.27943,-6.98218,0.901833,4,11
2.37919,-7.29208,-0.941806,10,4
1.95677,-6.00092,-0.552219,10,5
5.6816,-17.4344,3.56431,34,13
2.16232,-6.63917,-0.365933,37,6
5.61908,-17.263,4.19129,27,14
1.75778,-5.40026,-0.0991297,78,7
6.018,-18.4995,5.21262,17,15
1.96795,-6.07839,0.111521,33,8
1.95176,-6.03556,0.332438,23,9
2.89469,-8.96214,0.82397,22,10
0.210072,-0.650396,-0.108253,12,3
2.74472,-8.50288,1.09707,27,11
1.87047,-5.798,-0.748034,40,4
2.8138,-8.72731,1.45234,14,12
1.92053,-5.9603,-0.547861,36,5
5.65265,-17.5428,3.58263,27,13
1.98724,-6.17102,-0.339765,16,6
5.55285,-17.2537,4.18454,33,14
1.74137,-5.41398,-0.0992693,60,7
5.94629,-18.4983,5.2064,19,15
1.965,-6.14236,0.112568,44,8
1.92217,-6.0157,0.330973,29,9
2.6304,-8.23718,0.756512,50,10
0.209002,-0.654889,-0.108878,12,3
2.71924,-8.52565,1.09877,20,11
1.85685,-5.8253,-0.750715,52,4
5.10854,-16.0362,2.66564,10,12
1.96378,-6.16821,-0.566338,33,5
5.60627,-17.6092,3.59217,34,13
1.51938,-4.77523,-0.262622,28,6
5.50203,-17.3027,4.19174,33,14
1.72185,-5.41812,-0.0992344,92,7
5.8542,-18.4324,5.18208,19,15
2.09542,-6.62968,0.121364,23,8
1.90116,-6.02238,0.330973,33,9
2.80509,-8.89662,0.816126,34,10
0.201257,-0.638694,-0.106063,26,3
2.50392,-7.94627,1.02297,24,11
1.82577,-5.79767,-0.746328,39,4
1.8442,-5.86333,-0.537751,27,5
5.54876,-17.6521,3.59675,12,13
1.50785,-4.79982,-0.263669,44,6
5.4485,-17.3543,4.19939,33,14
1.70113,-5.41837,-0.0991297,87,7
5.77594,-18.4085,5.16965,7,15
2.17713,-6.9771,0.127577,17,8
1.87551,-6.01786,0.330345,37,9
0.173492,-0.556678,-0.113341,16,2
1.9475,-6.25271,0.572962,9,10
0.192568,-0.618646,-0.102621,14,3
2.48186,-7.97814,1.0259,80,11
1.79155,-5.76262,-0.740966,46,4
2.71545,-8.73979,1.44952,47,12
1.81722,-5.8488,-0.535833,36,5
6.25036,-20.1294,4.09705,4,13
1.49346,-4.81269,-0.264087,36,6
5.39597,-17.3993,4.20569,12,14
1.68067,-5.42266,-0.0990948,37,7
5.66728,-18.2967,5.13238,3,15
2.15041,-6.97701,0.127437,63,8
1.88563,-6.12554,0.335892,35,9
0.171548,-0.55728,-0.113341,16,2
0.19273,-0.626867,-0.103873,13,3
2.44058,-7.94311,1.02029,38,11
1.772,-5.77073,-0.741209,49,4
4.93347,-16.0764,2.66345,31,12
1.80498,-5.88178,-0.538274,30,5
5.49101,-17.9044,3.64025,7,13
1.89102,-6.16985,-0.338195,29,6
5.33064,-17.4031,4.20209,15,14
1.66173,-5.42849,-0.0990948,27,7
5.59603,-18.2924,5.12565,6,15
1.8343,-6.02605,0.10995,8,8
1.84914,-6.08241,0.333171,24,9
0.169602,-0.557876,-0.113341,16,2
2.21831,-7.3013,0.667613,43,10
0.19054,-0.627536,-0.103873,13,3
2.30967,-7.61155,0.976661,24,11
1.7772,-5.86047,-0.751934,49,4
5.40401,-17.8427,3.62384,19,13
1.41932,-4.68918,-0.25676,30,6
5.83013,-19.2739,4.64884,7,14
1.64798,-5.45149,-0.0994089,46,7
5.8601,-19.3973,5.42951,8,15
1.82477,-6.07071,0.110648,34,8
1.82962,-6.09456,0.333485,108,9
0.167654,-0.558464,-0.113341,16,2
2.18708,-7.28992,0.66587,9,10
0.186079,-0.620628,-0.102621,14,3
2.2808,-7.61197,0.975686,13,11
1.89795,-6.33825,-0.812381,24,4
5.31301,-17.7655,3.60438,36,13
1.40752,-4.70942,-0.257598,50,6
5.20232,-17.4175,4.19669,33,14
1.64324,-5.50511,-0.100282,38,7
5.80174,-19.4491,5.43831,23,15
2.60692,-8.78392,0.159934,52,8
1.82649,-6.16219,0.336834,43,9
0.165703,-0.559046,-0.113341,16,2
1.88831,-6.37481,0.581677,35,10
0.189519,-0.640215,-0.10575,13,3
2.25591,-7.62559,0.976417,60,11
1.87525,-6.34293,-0.812137,45,4
2.59484,-8.78254,1.45046,50,12
1.95499,-6.61688,-0.603641,22,5
5.26542,-17.8329,3.6143,36,13
1.39842,-4.73921,-0.258958,60,6
5.1707,-17.5346,4.22053,36,14
1.63305,-5.5415,-0.10084,38,7
5.1613,-17.5253,4.8953,7,15
2.61729,-8.93306,0.162482,82,8
0.163751,-0.559621,-0.113341,16,2
1.87052,-6.39666,0.583072,15,10
0.181742,-0.621912,-0.102621,14,3
2.31497,-7.92687,1.01395,11,11
1.80026,-6.16841,-0.788982,26,4
2.78043,-9.53302,1.57279,111,12
5.22896,-17.9397,3.63224,31,13
1.38466,-4.75365,-0.259482,60,6
5.12363,-17.6012,4.23223,15,14
1.60588,-5.52029,-0.100351,52,7
5.66312,-19.4799,5.43572,8,15
0.161796,-0.560189,-0.113341,16,2
0.182855,-0.633931,-0.104498,13,3
2.30269,-7.98831,1.02078,22,11
1.7441,-6.05448,-0.773627,41,4
2.71325,-9.42497,1.55339,64,12
1.6315,-5.66731,-0.515962,23,5
2.52562,-8.77895,1.77567,23,13
1.36585,-4.75077,-0.259063,27,6
5.60674,-19.5145,4.68753,15,14
1.59433,-5.55277,-0.10084,52,7
5.58123,-19.4513,5.42226,8,15
2.69591,-9.4453,0.171452,28,8
2.11719,-7.42754,0.404766,38,9
0.15984,-0.560751,-0.113341,16,2
0.177396,-0.623166,-0.102621,14,3
2.29054,-8.05167,1.02785,14,11
1.77724,-6.25147,-0.798001,29,4
2.67062,-9.40018,1.54776,50,12
1.61334,-5.67872,-0.516485,33,5
2.49978,-8.80471,1.7791,53,13
2.08631,-7.35327,-0.400579,29,6
5.56676,-19.6333,4.71137,3,14
1.57712,-5.566,-0.10098,19,7
5.5333,-19.5413,5.44193,14,15
2.51818,-8.94073,0.162133,67,8
1.7479,-6.21834,0.565118,1,10
0.177356,-0.631388,-0.103873,13,3
2.26135,-8.05579,1.02736,57,11
1.70233,-6.06842,-0.77387,43,4
1.58544,-5.65554,-0.51387,38,5
1.42257,-5.08138,-0.276543,8,6
5.80482,-20.7486,4.97412,23,14
4.8896,-17.5008,4.8689,6,15
2.47731,-8.91478,0.161505,77,8
0.155921,-0.561853,-0.113341,16,2
0.177262,-0.639618,-0.105124,13,3
2.24063,-8.09042,1.03077,33,11
1.68537,-6.08963,-0.77582,25,4
1.57206,-5.68408,-0.515962,36,5
5.17619,-18.7282,3.77687,21,13
1.62177,-5.87179,-0.319249,13,6
7.34173,-26.5996,6.37061,26,14
1.54832,-5.6135,-0.101643,42,7
4.74788,-17.2253,4.78763,18,15
1.95081,-7.11633,0.128799,100,8
2.03455,-7.43197,0.403824,32,9
2.07404,-7.5814,0.687659,18,10
0.170861,-0.624989,-0.102621,14,3
2.21918,-8.12308,1.03394,57,11
1.80579,-6.61444,-0.841874,19,4
5.07232,-18.5923,3.05235,19,12
1.55431,-5.69723,-0.516659,35,5
4.9822,-18.2745,3.68185,19,13
1.60337,-5.88513,-0.319668,29,6
5.43714,-19.9707,4.77841,8,14
1.54919,-5.69412,-0.103004,92,7
4.69888,-17.2828,4.79902,9,15
2.30593,-8.52841,0.154209,41,8
1.9909,-7.37347,0.400265,60,9
0.151995,-0.562928,-0.113341,16,2
2.01226,-7.45779,0.675806,65,10
0.168678,-0.625582,-0.102621,14,3
1.47508,-5.47828,-0.696605,11,4
1.52303,-5.66029,-0.512824,41,5
4.77003,-17.7401,3.5708,30,13
1.55379,-5.78267,-0.313806,12,6
5.70649,-21.2524,5.08029,40,14
1.55626,-5.79992,-0.104819,41,7
4.66153,-17.3849,4.82283,12,15
1.68154,-6.31082,0.113999,33,8
1.99341,-7.48652,0.406022,36,9
0.149931,-0.563481,-0.113341,16,2
1.65214,-6.21355,0.562503,11,10
0.168413,-0.633833,-0.103873,13,3
2.47124,-9.30719,1.18238,52,11
1.44786,-5.45679,-0.693193,31,4
4.97888,-18.7647,3.07488,16,12
1.50482,-5.67546,-0.513696,47,5
4.73264,-17.8618,3.59179,12,13
1.52338,-5.75357,-0.311922,40,6
5.08723,-19.2272,4.5917,18,14
1.53447,-5.79952,-0.104714,30,7
4.59885,-17.3936,4.82076,18,15
2.23973,-8.51916,0.153756,41,8
1.92111,-7.31764,0.396497,127,9
0.147963,-0.564001,-0.113341,16,2
1.63903,-6.25204,0.565466,97,10
0.167312,-0.638209,-0.104498,13,3
2.4474,-9.34222,1.18579,38,11
1.42775,-5.45388,-0.692218,9,4
4.86035,-18.5794,3.04171,28,12
1.49155,-5.70574,-0.515962,50,5
4.91569,-18.8043,3.77802,17,13
1.50531,-5.76246,-0.312132,46,6
5.12779,-19.6437,4.68708,23,14
1.51017,-5.78936,-0.104435,60,7
4.53177,-17.3853,4.81403,16,15
1.61496,-6.23114,0.112359,68,8
1.87955,-7.26243,0.393148,80,9
0.146092,-0.564488,-0.113341,16,2
1.6128,-6.23622,0.563549,56,10
0.164095,-0.634964,-0.103873,13,3
2.42024,-9.37185,1.18847,16,11
1.39878,-5.42039,-0.687343,8,4
4.70767,-18.2558,2.98602,34,12
1.46168,-5.66821,-0.512127,43,5
4.86472,-18.8784,3.78947,17,13
1.46974,-5.70772,-0.308887,37,6
4.63719,-18.0215,4.29612,3,14
1.51137,-5.87788,-0.105936,71,7
4.47154,-17.4029,4.81455,18,15
1.59667,-6.2503,0.112603,55,8
1.88133,-7.37539,0.398905,63,9
0.14412,-0.564995,-0.113341,16,2
1.59299,-6.24954,0.564246,16,10
0.162852,-0.639362,-0.104498,13,3
2.40807,-9.46104,1.19871,41,11
1.38328,-5.4387,-0.689049,42,4
5.09352,-20.0411,3.27511,17,12
1.44974,-5.70417,-0.514916,15,5
4.77076,-18.7849,3.76733,40,13
1.46357,-5.76702,-0.311818,34,6
5.08059,-20.0342,4.77166,16,14
1.50804,-5.95096,-0.107158,36,7
4.41361,-17.4296,4.81766,10,15
1.58607,-6.30044,0.113406,53,8
1.80397,-7.17659,0.387809,78,9
0.142147,-0.565495,-0.113341,16,2
0.164467,-0.655254,-0.107001,13,3
2.35861,-9.40392,1.19042,33,11
1.36959,-5.46468,-0.69173,47,4
4.52492,-18.0678,2.95004,15,12
1.44288,-5.76138,-0.519623,11,5
4.68705,-18.7291,3.75283,26,13
1.71719,-6.86683,-0.370957,17,6
4.80417,-19.2256,4.57505,31,14
1.464,-5.86306,-0.105482,56,7
4.53701,-18.1834,5.02161,11,15
1.55059,-6.25159,0.112428,70,8
1.79667,-7.25457,0.391682,37,9
0.140173,-0.565987,-0.113341,16,2
1.9686,-7.95473,0.716943,7,10
0.16123,-0.651989,-0.106375,13,3
1.38762,-5.61975,-0.710742,53,4
4.46987,-18.1161,2.95536,18,12
1.4199,-5.75478,-0.518577,35,5
4.65219,-18.8692,3.77764,17,13
1.65976,-6.73704,-0.36363,16,6
4.73703,-19.2422,4.57505,38,14
1.43732,-5.8429,-0.105029,41,7
4.47858,-18.2198,5.0273,19,15
1.53445,-6.28028,0.112847,49,8
1.75713,-7.20259,0.388542,60,9
0.138196,-0.566473,-0.113341,16,2
1.94412,-7.9751,0.718163,43,10
0.158018,-0.648709,-0.10575,13,3
4.66562,-19.1682,2.42228,30,11
1.33375,-5.48375,-0.692949,23,4
4.38235,-18.0318,2.93909,30,12
1.40303,-5.77737,-0.520145,23,5
4.62429,-19.0418,3.80893,35,13
1.40309,-5.78203,-0.311818,12,6
4.65422,-19.1943,4.55976,38,14
1.41927,-5.85759,-0.105203,56,7
4.44587,-18.363,5.0625,19,15
1.6365,-6.80081,0.122097,15,8
1.72498,-7.17955,0.386972,57,9
1.94927,-8.12554,0.731062,67,10
0.152877,-0.637758,-0.103873,13,3
4.63986,-19.3562,2.44397,26,11
1.31137,-5.47486,-0.691243,33,4
4.3019,-17.974,2.9272,16,12
1.39861,-5.84811,-0.526072,27,5
4.53667,-18.9841,3.79405,21,13
1.37818,-5.77159,-0.31098,40,6
4.59289,-19.2491,4.56876,28,14
1.40531,-5.88974,-0.105692,35,7
4.39025,-18.4141,5.07234,19,15
1.49224,-6.30277,0.113057,55,8
1.72336,-7.28465,0.39231,30,9
0.134139,-0.567447,-0.113341,16,2
1.91906,-8.12454,0.730365,28,10
0.147019,-0.622907,-0.10137,14,3
4.32784,-18.351,2.31503,35,11
1.29311,-5.48736,-0.692218,41,4
4.25817,-18.0696,2.94034,18,12
1.36769,-5.80835,-0.522063,12,5
4.47622,-19.0247,3.79901,26,13
1.35574,-5.76665,-0.310457,21,6
4.55909,-19.4073,4.6025,36,14
1.68245,-7.16192,-0.128415,77,7
4.78684,-20.3928,5.61275,21,15
1.47178,-6.30963,0.113092,56,8
1.87052,-8.03174,0.43219,73,9
0.132157,-0.567912,-0.113341,16,2
1.89746,-8.1603,0.73298,20,10
0.149427,-0.642632,-0.104498,13,3
4.05133,-17.4371,2.19804,4,11
1.27536,-5.49355,-0.692462,55,4
4.92936,-21.2498,3.45501,22,12
1.84722,-7.96947,-0.715723,2,5
4.39803,-18.9744,3.78603,17,13
1.3258,-5.72441,-0.307945,21,6
4.59532,-19.8571,4.70553,15,14
1.72727,-7.46973,-0.133825,82,7
4.69301,-20.3115,5.58583,13,15
1.45735,-6.34787,0.113685,63,8
1.71843,-7.49702,0.403092,37,9
0.130273,-0.568347,-0.113341,16,2
5.74194,-25.0706,2.25019,30,10
0.144539,-0.631596,-0.102621,14,3
3.99884,-17.4879,2.20267,38,11
1.25219,-5.48055,-0.690268,26,4
1.60305,-7.02183,-0.630136,23,5
4.34182,-19.0337,3.79481,24,13
1.30225,-5.71343,-0.307107,18,6
4.57142,-20.0725,4.75277,40,14
1.70163,-7.47766,-0.13386,60,7
4.62466,-20.3391,5.58894,24,15
1.42946,-6.32756,0.113231,23,8
1.6962,-7.52051,0.404034,60,9
0.128289,-0.568799,-0.113341,16,2
2.0565,-9.12541,0.818392,12,10
0.150144,-0.666785,-0.108253,12,3
3.99355,-17.7497,2.23387,9,11
1.23523,-5.49457,-0.691487,6,4
5.7052,-25.3986,4.12299,33,12
1.56718,-6.97684,-0.625604,11,5
4.4714,-19.9222,3.96883,22,13
1.29847,-5.79005,-0.31098,34,6
4.50772,-20.1169,4.75951,33,14
1.45226,-6.4864,-0.116024,18,7
4.54899,-20.3343,5.58324,20,15
1.66994,-7.52638,0.404034,45,9
1.80255,-8.13078,0.728622,5,10
0.140126,-0.63259,-0.102621,14,3
3.92342,-17.7267,2.22923,33,11
1.39779,-6.32067,-0.794832,32,4
5.61651,-25.4184,4.12299,33,12
1.48146,-6.71016,-0.6012,20,5
4.24737,-19.254,3.83259,8,13
1.27939,-5.80452,-0.311504,50,6
4.46012,-20.2352,4.78381,33,14
2.73363,-12.4126,-0.221855,18,7
5.91778,-26.8932,7.37841,19,15
1.385,-6.34153,0.113301,15,8
0.142848,-0.656261,-0.106375,13,3
3.8137,-17.5353,2.2034,52,11
1.34173,-6.17445,-0.77582,40,4
1.46024,-6.73112,-0.602595,20,5
4.14184,-19.1083,3.80053,17,13
1.27037,-5.86578,-0.314539,29,6
4.3059,-19.882,4.69653,42,14
1.41004,-6.51617,-0.116373,48,7
5.57055,-25.7648,7.06317,8,15
1.35713,-6.32506,0.112917,38,8
1.74624,-8.15936,0.730016,41,10
0.132181,-0.618146,-0.100118,14,3
3.77512,-17.6695,2.21851,52,11
1.36054,-6.37346,-0.800194,37,4
1.43424,-6.72448,-0.601549,21,5
4.14017,-19.428,3.86121,19,13
1.2162,-5.71194,-0.306061,28,6
4.20745,-19.7775,4.66818,37,14
1.38603,-6.51518,-0.116268,66,7
5.47415,-25.7539,7.05489,39,15
1.72481,-8.17066,0.145763,28,8
1.60083,-7.5965,0.40686,66,9
0.120135,-0.570576,-0.113341,16,2
1.712,-8.13811,0.727576,75,10
0.131757,-0.626313,-0.10137,14,3
2.74879,-13.0779,1.64085,30,11
1.32756,-6.3216,-0.793126,27,4
1.40177,-6.68655,-0.597714,12,5
4.11198,-19.6145,3.89556,8,13
1.19233,-5.69249,-0.304805,43,6
4.16699,-19.9115,4.69653,38,14
1.36124,-6.5102,-0.116093,36,7
5.39607,-25.8295,7.07042,13,15
1.38635,-6.68267,0.11913,8,8
1.62899,-7.86607,0.42099,47,9
0.118243,-0.570972,-0.113341,16,2
1.65755,-8.01107,0.715723,76,10
0.12957,-0.626769,-0.10137,14,3
2.72601,-13.1982,1.65474,48,11
1.28503,-6.22704,-0.780695,49,4
1.20315,-5.84059,-0.521714,40,5
1.18373,-5.75139,-0.307735,62,6
4.11042,-19.989,4.71137,38,14
1.34011,-6.52274,-0.116233,66,7
6.16513,-30.0342,8.21543,18,15
1.35942,-6.66984,0.118816,42,8
0.116149,-0.571401,-0.113341,16,2
1.62422,-7.99756,0.71398,31,10
0.128057,-0.631112,-0.101995,14,3
2.73637,-13.4858,1.6896,78,11
1.25894,-6.21009,-0.778014,41,4
7.97725,-39.3853,6.36469,12,12
1.18078,-5.83499,-0.520843,10,5
3.70268,-18.3137,3.63186,7,13
1.19744,-5.92797,-0.316947,48,6
4.10536,-20.342,4.79101,24,14
1.32525,-6.56659,-0.116931,55,7
1.52909,-7.6454,0.136094,93,8
0.114154,-0.571803,-0.113341,16,2
1.59941,-8.01882,0.715374,45,10
0.129714,-0.650928,-0.105124,13,3
2.70553,-13.5892,1.7013,45,11
1.25044,-6.28064,-0.786301,30,4
3.83065,-19.258,3.10992,10,12
1.15613,-5.81758,-0.518925,40,5
3.6437,-18.3516,3.63682,25,13
1.55137,-7.82067,-0.41785,43,6
4.05419,-20.4377,4.81035,17,14
1.31437,-6.63198,-0.118013,67,7
5.94818,-30.0405,8.2056,6,15
1.33982,-6.81652,0.121259,57,8
1.3828,-7.04166,0.376086,51,9
0.112257,-0.572179,-0.113341,16,2
2.547,-12.9942,1.15847,30,10
0.124518,-0.635846,-0.102621,14,3
1.66526,-8.5115,1.06489,23,11
1.23761,-6.32566,-0.79142,23,4
3.76336,-19.2531,3.1071,24,12
1.14409,-5.85853,-0.522237,25,5
3.54636,-18.1767,3.5998,30,13
1.87545,-9.62147,-0.51373,80,6
4.00093,-20.5256,4.8279,17,14
1.30498,-6.70108,-0.119165,62,7
5.8976,-30.3123,8.27445,12,15
1.3574,-7.02904,0.124959,27,8
1.32078,-6.85229,0.365724,47,9
1.58726,-8.2425,0.734374,46,10
0.114944,-0.59746,-0.0963636,15,3
1.63328,-8.49748,1.06246,64,11
1.16723,-6.07846,-0.759977,22,4
3.67714,-19.1672,3.09115,12,12
1.13742,-5.92882,-0.528164,10,5
3.49086,-18.2134,3.60476,15,13
1.36537,-7.13049,-0.380482,31,6
5.32506,-27.8358,6.54293,9,14
1.29623,-6.78219,-0.120526,31,7
5.81349,-30.4465,8.3055,12,15
1.32615,-6.99837,0.124331,64,8
1.31987,-6.97853,0.372213,28,9
0.10836,-0.572929,-0.113341,16,2
1.55921,-8.25191,0.734723,73,10
0.124584,-0.659972,-0.106375,13,3
1.60067,-8.48752,1.06051,47,11
1.11072,-5.89523,-0.736578,22,4
3.07343,-16.3282,2.63154,21,12
1.12114,-5.95625,-0.530255,13,5
7.43397,-39.5322,7.81897,40,13
1.26665,-6.75523,-0.119968,76,7
5.7086,-30.4742,8.30757,12,15
1.30245,-7.00689,0.124401,61,8
1.29441,-6.97721,0.371899,28,9
0.106359,-0.573304,-0.113341,16,2
1.5137,-8.16718,0.726705,48,10
0.120121,-0.648749,-0.104498,13,3
1.58078,-8.54576,1.06709,35,11
1.09338,-5.91664,-0.738772,43,4
2.92102,-15.8221,2.54832,13,12
1.09202,-5.91507,-0.526246,53,5
7.29308,-39.5425,7.81592,40,13
1.14112,-6.19311,-0.330031,35,6
1.2398,-6.74191,-0.119654,6,7
5.54495,-30.1823,8.22268,25,15
1.4709,-8.0698,0.14318,22,8
1.21821,-6.69676,0.356722,34,9
1.50442,-8.27827,0.736117,58,10
0.115739,-0.637503,-0.102621,14,3
1.55058,-8.54927,1.06684,30,11
1.07484,-5.93214,-0.740234,44,4
1.06959,-5.90904,-0.525375,28,5
1.13512,-6.28353,-0.334636,68,6
1.22194,-6.77768,-0.120212,6,7
3.75752,-20.8625,5.68004,23,15
1.19751,-6.72281,0.357873,11,9
0.102154,-0.574068,-0.113341,16,2
1.47297,-8.28595,0.736292,20,10
0.11329,-0.637942,-0.102621,14,3
1.51428,-8.53562,1.06441,11,11
1.13104,-6.38188,-0.795807,15,4
2.8067,-15.8367,2.54738,31,12
1.05141,-5.93861,-0.527641,11,5
3.66404,-20.7586,4.86659,30,14
1.18979,-6.74076,-0.119479,31,7
3.68103,-20.8762,5.68004,14,15
1.23053,-7.03612,0.12468,48,8
1.1737,-6.72498,0.357769,12,9
0.100149,-0.574421,-0.113341,16,2
1.44609,-8.30282,0.737338,78,10
0.105751,-0.607177,-0.0976151,15,3
1.51727,-8.72052,1.08683,27,11
1.14862,-6.60855,-0.823593,43,4
1.52472,-8.78152,1.41166,43,12
1.03204,-5.95009,-0.528338,13,5
1.05296,-6.07699,-0.323227,42,6
1.10016,-6.3626,-0.112708,46,7
5.40481,-31.2905,8.50842,26,15
1.21339,-7.08373,0.125448,82,8
1.14988,-6.72707,0.357664,38,9
0.098244,-0.57475,-0.113341,16,2
1.35282,-7.92263,0.703173,46,10
0.108945,-0.638699,-0.102621,14,3
1.49716,-8.78642,1.09439,15,11
1.00463,-5.90215,-0.735116,7,4
2.68547,-15.7936,2.53737,25,12
1.1292,-6.64095,-0.589347,15,5
2.8474,-16.7636,3.30519,12,13
1.03976,-6.12789,-0.325739,35,6
5.28937,-31.2063,7.30731,10,14
1.08428,-6.40387,-0.113371,63,7
1.19494,-7.1254,0.126111,66,8
1.1343,-6.77832,0.360176,36,9
0.096237,-0.57509,-0.113341,16,2
1.38691,-8.29675,0.735943,20,10
0.110619,-0.662456,-0.106375,13,3
1.47856,-8.86404,1.10341,40,11
1.97914,-11.8778,-1.47852,18,4
2.6407,-15.8653,2.54738,38,12
1.03633,-6.22623,-0.552219,15,5
2.78919,-16.7754,3.30558,22,13
1.07857,-6.49401,-0.344999,33,6
3.44626,-20.7722,4.86119,21,14
1.10312,-6.65618,-0.117769,100,7
1.07291,-6.53754,0.11564,38,8
1.11257,-6.79406,0.360804,66,9
1.29169,-7.89649,0.700035,20,10
0.104484,-0.639444,-0.102621,14,3
1.46392,-8.96907,1.11584,12,11
1.95204,-11.9728,-1.48949,15,4
2.44401,-15.0068,2.40815,9,12
1.01267,-6.21801,-0.551173,25,5
2.73156,-16.7909,3.30672,15,13
1.05589,-6.49773,-0.344999,37,6
3.1636,-19.4895,4.55841,24,14
1.0866,-6.70145,-0.118502,100,7
1.04089,-6.48398,0.114627,71,8
1.08885,-6.7979,0.360804,14,9
1.2638,-7.89898,0.699861,54,10
0.0978867,-0.612496,-0.0982409,15,3
2.13732,-13.3887,1.66474,22,11
1.90055,-11.9188,-1.48193,7,4
0.996912,-6.25889,-0.554485,31,5
2.68064,-16.8488,3.31626,22,13
1.02756,-6.46587,-0.343115,30,6
4.85597,-30.5903,7.15074,42,14
1.06821,-6.7368,-0.11906,68,7
1.00429,-6.39868,0.113057,19,8
0.090109,-0.576082,-0.113341,16,2
1.23129,-7.87185,0.697072,18,10
0.100017,-0.640157,-0.102621,14,3
2.09578,-13.4294,1.66888,33,11
0.930689,-5.97052,-0.741941,1,4
2.33827,-15.0176,2.40721,45,12
2.59567,-16.7091,3.28688,22,13
0.997734,-6.43012,-0.341021,40,6
3.1174,-20.0908,4.69383,31,14
1.0453,-6.74444,-0.11913,50,7
1.04806,-6.84113,0.120806,46,8
1.182,-7.73346,0.41,68,9
0.0976701,-0.64052,-0.102621,14,3
2.03549,-13.3644,1.65986,22,11
0.906709,-5.96015,-0.740234,33,4
1.80574,-11.8978,-1.05284,40,5
2.5041,-16.5186,3.24757,19,13
0.970273,-6.40807,-0.33966,81,6
3.09013,-20.4084,4.76536,57,14
1.10729,-7.32161,-0.129253,100,7
0.963866,-6.44938,0.113825,42,8
1.18007,-7.90544,0.418897,54,9
0.0859844,-0.576712,-0.113341,16,2
0.973707,-6.53865,0.578366,28,10
0.0976467,-0.656505,-0.105124,13,3
2.0037,-13.4876,1.67424,7,11
0.909527,-6.12233,-0.759977,17,4
1.7715,-11.9533,-1.0572,28,5
2.38461,-16.1097,3.16552,12,13
0.907588,-6.13875,-0.325216,35,6
3.01944,-20.423,4.76626,53,14
1.08085,-7.3195,-0.129148,14,7
3.02595,-20.5165,5.55685,4,15
0.949411,-6.50003,0.114662,82,8
1.0884,-7.46068,0.395137,75,9
0.0840715,-0.576994,-0.113341,16,2
0.948289,-6.51621,0.576099,9,10
0.0931961,-0.641186,-0.102621,14,3
2.14605,-14.7829,1.83413,16,11
0.881234,-6.0703,-0.753153,8,4
2.17039,-14.9689,2.39564,48,12
1.74071,-12.0202,-1.0626,19,5
2.3295,-16.1058,3.16323,11,13
0.896078,-6.20301,-0.328461,58,6
0.811847,-5.62687,-0.0992344,50,7
2.95322,-20.4939,5.54805,36,15
1.00665,-7.05546,0.124401,48,8
0.0750522,-0.526686,-0.122823,15,1
0.950062,-6.67548,0.353372,24,9
0.927236,-6.52326,0.576448,35,10
0.0910693,-0.641492,-0.102621,14,3
2.00115,-14.1138,1.75029,38,11
1.45149,-10.25,-1.2711,11,4
2.13666,-15.1075,2.4166,16,12
0.950304,-6.71921,-0.593705,6,5
3.39475,-24.0331,4.71794,14,13
0.855415,-6.06356,-0.320924,65,6
4.43827,-31.5001,7.3442,10,14
0.796937,-5.66333,-0.0998278,27,7
2.88489,-20.527,5.55426,15,15
0.862711,-6.20132,0.109287,74,8
0.921812,-6.64315,0.351488,15,9
0.0801421,-0.577553,-0.113341,16,2
0.906374,-6.54027,0.577668,41,10
0.0915378,-0.661373,-0.10575,13,3
1.94807,-14.0932,1.74688,42,11
1.37607,-9.9679,-1.23551,8,4
2.07933,-15.0816,2.41128,31,12
0.899903,-6.52709,-0.576448,8,5
3.02643,-21.9794,4.31266,16,13
0.837509,-6.09025,-0.32218,65,6
4.33676,-31.5772,7.3586,21,14
0.855696,-6.23863,-0.109915,27,7
2.79093,-20.3743,5.51026,6,15
0.821182,-6.05766,0.106704,72,8
0.0781256,-0.577829,-0.113341,16,2
1.0723,-7.94132,0.701081,60,10
0.0865887,-0.642112,-0.102621,14,3
1.89489,-14.0704,1.74322,54,11
1.35053,-10.0415,-1.24404,12,4
2.94421,-21.9489,4.30465,26,13
0.832687,-6.21587,-0.32867,48,6
2.76884,-20.6964,4.8207,42,14
0.834443,-6.24554,-0.109985,100,7
2.71826,-20.3724,5.50715,4,15
0.800555,-6.06446,0.106774,57,8
0.0761081,-0.578098,-0.113341,16,2
1.04535,-7.95094,0.701604,45,10
0.0864041,-0.658079,-0.105124,13,3
1.85118,-14.1182,1.74834,46,11
1.17835,-8.99902,-1.11437,6,4
0.868782,-6.64384,-0.58621,51,5
0.807368,-6.19101,-0.327204,65,6
2.69809,-20.7175,4.8234,17,14
0.808253,-6.21471,-0.109392,55,7
2.24953,-17.3204,4.67997,16,15
0.784477,-6.10688,0.107472,90,8
0.824027,-6.43253,0.33987,38,9
0.0740897,-0.57836,-0.113341,16,2
0.833286,-6.51383,0.574531,31,10
0.0851076,-0.666214,-0.106375,13,3
1.80792,-14.1719,1.75419,19,11
0.710186,-5.57474,-0.690024,8,4
1.92577,-15.1378,2.41691,47,12
0.803999,-6.32877,-0.558145,33,5
2.00658,-15.795,3.09492,4,13
0.798321,-6.29286,-0.332438,65,6
3.96741,-31.3173,7.28796,21,14
0.781535,-6.17781,-0.108694,64,7
2.16242,-17.1173,4.62303,11,15
1.12891,-9.06343,0.478665,20,9
0.810879,-6.52871,0.575576,22,10
0.0797477,-0.642997,-0.102621,14,3
1.7858,-14.3987,1.78149,23,11
0.693162,-5.59689,-0.692462,19,4
1.87558,-15.166,2.42035,28,12
0.760413,-6.15753,-0.542806,48,5
1.94651,-15.7848,3.09149,22,13
0.775007,-6.29376,-0.332333,45,6
2.55952,-20.8156,4.84185,30,14
0.753865,-6.13089,-0.107821,59,7
2.09136,-17.0327,4.59818,20,15
0.846855,-6.9878,0.122865,57,8
1.08658,-8.99216,0.474687,44,9
0.784983,-6.50578,0.57331,5,10
0.0775027,-0.643272,-0.102621,14,3
1.7278,-14.3618,1.77612,42,11
0.67217,-5.59545,-0.691974,13,4
1.74635,-14.5589,2.32243,6,12
0.731679,-6.10884,-0.538274,45,5
1.91849,-16.0176,3.13576,12,13
0.760148,-6.35592,-0.335474,45,6
2.48592,-20.8166,4.84005,4,14
0.731862,-6.13758,-0.107891,69,7
2.02526,-17.0096,4.5899,6,15
0.823625,-7.00064,0.123039,66,8
1.05728,-9.01375,0.475629,41,9
0.067827,-0.579128,-0.113341,16,2
0.765297,-6.54424,0.576448,35,10
0.0751445,-0.643551,-0.102621,14,3
1.68065,-14.3934,1.77929,46,11
0.656542,-5.63128,-0.696118,4,4
1.69072,-14.5237,2.31586,13,12
0.712192,-6.12719,-0.539668,33,5
1.8446,-15.8938,3.11019,9,13
0.718455,-6.19995,-0.3271,29,6
3.57566,-30.9035,7.18224,10,14
0.71503,-6.17982,-0.108589,80,7
1.9672,-17.0281,4.593,2,15
0.700848,-6.15126,0.108065,17,8
0.817214,-7.18374,0.378912,38,9
0.0658051,-0.579361,-0.113341,16,2
0.740654,-6.53103,0.575054,7,10
0.0728976,-0.64381,-0.102621,14,3
0.739906,-6.54485,0.808725,20,11
0.708261,-6.27473,-0.775333,8,4
1.85338,-16.4198,2.61715,31,12
0.688567,-6.10984,-0.537925,36,5
1.74367,-15.4963,3.03119,1,13
0.625901,-5.57126,-0.293814,33,6
1.84966,-16.4901,3.83092,2,14
0.686321,-6.11869,-0.107472,57,7
3.34829,-29.8978,8.06118,11,15
0.669237,-6.05218,0.106285,41,8
0.746837,-6.77561,0.357245,120,9
0.877567,-7.98724,0.702998,41,10
0.0707623,-0.644048,-0.102621,14,3
1.58792,-14.4758,1.78807,36,11
0.683775,-6.2435,-0.771189,8,4
1.79992,-16.4615,2.62278,26,12
0.669615,-6.13399,-0.539843,7,5
1.72168,-15.7714,3.08386,5,13
0.615646,-5.64875,-0.297792,33,6
1.7916,-16.4652,3.82372,15,14
0.667767,-6.14689,-0.107926,32,7
3.23662,-29.8421,8.04306,11,15
0.63044,-5.88945,0.103388,52,8
0.969611,-9.08788,0.478979,46,9
0.06186,-0.579796,-0.113341,16,2
1.24865,-11.7227,1.0314,25,10
0.0668426,-0.628577,-0.100118,14,3
1.54325,-14.5365,1.79489,44,11
0.0870361,-0.821199,-0.101395,12,4
1.74369,-16.4794,2.62466,35,12
0.603567,-5.70425,-0.501843,16,5
1.62083,-15.3438,2.99914,10,13
0.658973,-6.24873,-0.329298,39,6
1.73595,-16.4888,3.82777,10,14
0.654875,-6.23073,-0.109357,44,7
3.14514,-29.9743,8.07567,12,15
0.618321,-5.97317,0.104819,46,8
0.933167,-9.04551,0.476571,25,9
1.20405,-11.6913,1.02826,8,10
0.0662643,-0.644526,-0.102621,14,3
1.49391,-14.5557,1.7966,16,11
0.579269,-5.65372,-0.697824,3,4
1.50687,-14.7325,2.34558,27,12
0.695761,-6.80239,-0.598237,28,5
1.63147,-15.9783,3.12202,5,13
0.63979,-6.27682,-0.330659,65,6
2.05675,-20.2132,4.69068,15,14
0.619381,-6.09769,-0.106983,63,7
1.63552,-16.1294,4.34402,15,15
0.595676,-5.95738,0.104505,77,8
0.911488,-9.14809,0.481805,47,9
0.0578108,-0.580214,-0.113341,16,2
0.621943,-6.25314,0.549778,7,10
0.064014,-0.644754,-0.102621,14,3
1.43468,-14.4758,1.78612,44,11
0.561485,-5.67546,-0.700261,5,4
1.63831,-16.5895,2.6403,15,12
0.672207,-6.80676,-0.598411,13,5
1.42642,-14.4697,2.82626,30,13
0.621592,-6.31678,-0.332647,71,6
1.61641,-16.4559,3.81742,27,14
0.590677,-6.02419,-0.105657,87,7
1.45068,-14.8218,3.99047,10,15
0.574493,-5.95544,0.104435,94,8
0.862162,-8.9703,0.47228,33,9
0.0557851,-0.580412,-0.113341,16,2
0.601253,-6.26718,0.550824,84,10
0.0647759,-0.676435,-0.107627,12,3
1.39339,-14.5776,1.79806,44,11
0.623308,-6.53305,-0.8058,4,4
0.542101,-5.6924,-0.500274,11,5
1.50093,-15.79,3.08309,20,13
0.592558,-6.24534,-0.328775,52,6
1.55712,-16.442,3.81292,27,14
0.583006,-6.16756,-0.108135,69,7
1.40075,-14.846,3.99565,20,15
0.554627,-5.96737,0.10461,20,8
0.823294,-8.89171,0.467988,33,9
0.0535777,-0.578648,-0.112959,16,2
0.574972,-6.22162,0.546641,50,10
0.0624143,-0.676657,-0.107627,12,3
1.34141,-14.5705,1.7966,24,11
0.0777416,-0.846055,-0.10432,10,4
1.51668,-16.5376,2.63029,13,12
1.30908,-14.3014,2.79154,21,13
0.549858,-6.01864,-0.316737,26,6
1.44309,-15.8263,3.66895,35,14
0.562199,-6.17753,-0.108275,59,7
1.35836,-14.9547,4.0236,12,15
0.541452,-6.05491,0.106111,16,8
0.791897,-8.89055,0.467779,24,9
0.0514565,-0.578841,-0.112959,16,2
0.0550555,-0.621786,-0.0988666,15,3
1.28336,-14.494,1.7866,40,11
0.0716425,-0.810729,-0.0999329,6,4
1.46242,-16.5821,2.63655,13,12
0.504148,-5.72789,-0.503063,58,5
1.38842,-15.8062,3.08424,12,13
0.53076,-6.05444,-0.318517,26,6
1.37743,-15.7441,3.64871,26,14
0.529652,-6.05395,-0.106076,66,7
1.30413,-14.9363,4.01739,12,15
0.52216,-6.09073,0.106704,11,8
0.762049,-8.90719,0.468512,34,9
0.0494357,-0.579017,-0.112959,16,2
0.985267,-11.5638,1.01536,29,10
0.0528846,-0.621975,-0.0988666,15,3
1.22116,-14.3918,1.77344,42,11
0.0680007,-0.803074,-0.0989579,6,4
0.48868,-5.78322,-0.507769,50,5
1.22436,-14.5197,2.83237,13,13
0.511633,-6.08014,-0.319773,45,6
1.33062,-15.846,3.6712,33,14
0.510859,-6.08366,-0.106564,57,7
1.25069,-14.9253,4.01325,16,15
0.491122,-5.96089,0.1044,23,8
0.529598,-6.45542,0.339451,37,9
0.0474142,-0.579186,-0.112959,16,2
0.94165,-11.5274,1.01188,8,10
0.0508218,-0.622147,-0.0988666,15,3
1.17117,-14.3681,1.77003,42,11
0.0677511,-0.832973,-0.102614,11,4
1.34246,-16.5408,2.62841,12,12
0.463183,-5.71936,-0.502017,51,5
1.18112,-14.5844,2.8442,15,13
0.516725,-6.39435,-0.336206,48,6
1.28073,-15.8833,3.67885,35,14
0.490262,-6.09338,-0.106704,57,7
1.20879,-15.0567,4.04741,12,15
0.0483419,-0.618382,-0.0982409,15,3
1.11962,-14.3543,1.76784,42,11
0.0648431,-0.833205,-0.102614,11,4
1.76994,-22.7944,3.62115,19,12
0.451464,-5.81422,-0.51021,32,5
1.13035,-14.5904,2.84458,15,13
0.491783,-6.36226,-0.334427,45,6
1.24926,-16.1985,3.75083,30,14
0.469449,-6.10103,-0.106809,57,7
1.1577,-15.0801,4.05259,16,15
0.429208,-5.69498,0.0996881,53,8
0.0461831,-0.618547,-0.0982409,15,3
1.07054,-14.372,1.76954,42,11
0.0623756,-0.839365,-0.103345,5,4
1.69752,-22.897,3.63648,17,12
0.424979,-5.73231,-0.502889,40,5
1.07696,-14.561,2.83809,10,13
0.470013,-6.36992,-0.334741,26,6
1.19041,-16.1717,3.74364,22,14
0.476269,-6.48555,-0.11351,57,7
1.10477,-15.0802,4.05155,10,15
0.410329,-5.7104,0.0999325,94,8
0.038037,-0.530645,-0.122823,15,1
0.397439,-5.55816,0.292035,40,9
0.0451453,-0.634467,-0.100744,14,3
1.01264,-14.2667,1.75614,42,11
0.0583237,-0.823736,-0.101395,12,4
1.65544,-23.4387,3.72158,15,12
0.40651,-5.75562,-0.504806,42,5
1.02736,-14.5822,2.84153,11,13
0.442315,-6.29382,-0.330659,35,6
1.12088,-15.9891,3.70044,21,14
0.454604,-6.50113,-0.113755,46,7
1.0528,-15.0936,4.05414,13,15
0.40512,-5.92727,0.103702,44,8
0.0361846,-0.530774,-0.122823,15,1
0.376274,-5.53361,0.290674,33,9
0.0394241,-0.579784,-0.112959,16,2
0.427646,-6.30537,0.552916,76,10
0.0429303,-0.634621,-0.100744,14,3
0.954548,-14.1473,1.74103,46,11
0.0555812,-0.825915,-0.101639,11,4
0.959779,-14.2992,2.26986,11,12
0.383349,-5.71128,-0.500797,47,5
0.394794,-5.9127,-0.310562,34,6
0.959781,-14.4121,3.33467,22,14
0.420908,-6.33707,-0.110858,45,7
1.00075,-15.1068,4.05673,22,15
0.380934,-5.87477,0.10276,100,8
0.365439,-5.66644,0.297582,34,9
0.0374,-0.579919,-0.112959,16,2
0.400646,-6.22929,0.546118,65,10
0.0407148,-0.634767,-0.100744,14,3
1.03086,-16.1158,1.98281,29,11
0.0521924,-0.81818,-0.100664,12,4
