x, y, z, intensity, ring
-0.188114,-1.58463,0.027854,100,8
-0.0628072,-0.528286,-0.122823,15,1
-0.190091,-1.59652,0.0842609,100,9
-0.0687066,-0.577047,-0.112959,16,2
-0.19132,-1.60446,0.141367,100,10
-0.0946308,-0.792422,-0.126399,17,3
-0.190942,-1.59655,0.197428,100,11
-0.10647,-0.888923,-0.109926,12,4
-0.19362,-1.61416,0.257491,82,12
-0.12861,-1.07219,-0.0944768,5,5
-1.89738,-15.7947,3.09225,23,13
-0.189894,-1.57844,-0.0833189,100,6
-1.99722,-16.5769,3.85476,31,14
-0.192114,-1.59221,-0.0279937,100,7
-2.01068,-16.6397,4.49103,16,15
-0.195343,-1.59786,0.0280984,100,8
-0.195662,-1.59584,0.0842609,100,9
-0.197648,-1.60972,0.14189,100,10
-0.0988428,-0.80385,-0.128276,16,3
-0.196756,-1.59784,0.197672,100,11
-0.107143,-0.868844,-0.107489,13,4
-0.197801,-1.60172,0.255614,85,12
-0.131316,-1.06182,-0.0936053,7,5
-1.92937,-15.6009,3.05562,32,13
-0.195893,-1.58173,-0.0835282,100,6
-2.05268,-16.5505,3.85026,28,14
-0.197671,-1.59153,-0.0279937,100,7
-2.04729,-16.46,4.44444,8,15
-0.199921,-1.58923,0.0279588,100,8
-0.201981,-1.6011,0.0845749,100,9
-0.200294,-1.58549,-0.310637,1,2
-0.201796,-1.59514,0.140669,100,10
-0.100051,-0.789765,-0.126086,17,3
-0.20358,-1.60699,0.198891,100,11
-0.109675,-0.864527,-0.107001,9,4
-0.20364,-1.60297,0.255927,89,12
-0.133262,-1.04752,-0.0923851,6,5
-1.9781,-15.5275,3.04264,30,13
-0.20548,-1.61072,-0.0850983,64,6
-2.19383,-17.173,3.99693,30,14
-0.203732,-1.59479,-0.0280635,100,7
-4.65267,-36.3702,9.82477,8,15
-0.20446,-1.57857,0.0277842,100,8
-0.068428,-0.527587,-0.122823,15,1
-0.208363,-1.60431,0.0847843,100,9
-0.0748461,-0.576283,-0.112959,16,2
-0.207877,-1.59838,0.141018,100,10
-0.100766,-0.77374,-0.123583,18,3
-0.209469,-1.60623,0.198891,100,11
-0.111301,-0.852309,-0.105539,10,4
-0.210026,-1.60614,0.256553,89,12
-0.132784,-1.01544,-0.0895961,5,5
-2.03663,-15.5536,3.04913,16,13
-2.22763,-16.9663,3.95059,30,14
-0.21114,-1.60593,-0.0282729,47,7
-3.58391,-27.2225,7.35719,9,15
-0.211552,-1.58974,0.0279937,100,8
-0.0702691,-0.527345,-0.122823,15,1
-0.213433,-1.59961,0.0845749,100,9
-0.208761,-1.56459,-0.306821,1,2
-0.213719,-1.59962,0.141192,100,10
-0.102942,-0.769468,-0.122957,18,3
-0.213229,-1.59172,0.197185,100,11
-0.110316,-0.822403,-0.101883,11,4
-0.216157,-1.60931,0.257178,91,12
-0.134737,-1.00313,-0.0885502,5,5
-2.27226,-16.8948,3.31359,30,13
-0.147146,-1.09262,-0.0577789,4,6
-2.28241,-16.9256,3.94294,30,14
-0.214871,-1.59131,-0.0280286,10,7
-3.88184,-28.7107,7.76302,16,15
-0.216559,-1.58503,0.0279239,56,8
-0.0721096,-0.527097,-0.122823,15,1
-0.217925,-1.59296,0.0842609,96,9
-0.214221,-1.56385,-0.306821,1,2
-0.220385,-1.60676,0.14189,100,10
-0.110466,-0.80433,-0.128589,32,3
-0.218243,-1.58703,0.196697,100,11
-0.114811,-0.833812,-0.103345,11,4
-0.222031,-1.6125,0.257804,91,12
-0.134428,-0.975017,-0.0861099,3,5
-2.11805,-15.3426,3.01058,5,13
-0.150412,-1.08815,-0.0575696,10,6
-2.43819,-17.6163,4.10581,31,14
-0.22097,-1.59654,-0.0281333,6,7
-3.89058,-28.0739,7.59427,10,15
-0.222368,-1.58826,0.0279937,11,8
-0.225427,-1.60603,0.0849936,48,9
-0.224881,-1.59809,0.141192,100,10
-0.112857,-0.802003,-0.128276,40,3
-0.224613,-1.59416,0.197672,100,11
-0.115357,-0.817702,-0.101395,6,4
-0.225449,-1.59606,0.255301,96,12
-0.136993,-0.968624,-0.0855869,3,5
-2.37456,-16.7895,3.29603,22,13
-0.152059,-1.0738,-0.0568369,19,6
-2.50508,-17.6679,4.11975,31,14
-0.225979,-1.59179,-0.0280635,5,7
-2.64118,-18.5812,5.02885,13,15
-0.225922,-1.57362,0.0277493,6,8
-0.0756957,-0.526593,-0.122823,15,1
-0.231885,-1.61116,0.0853076,9,9
-0.222623,-1.54681,-0.303768,1,2
-0.22677,-1.57367,0.139101,69,10
-0.112553,-0.780098,-0.124835,36,3
-0.231311,-1.60123,0.198647,100,11
-0.121621,-0.84087,-0.10432,5,4
-0.231585,-1.59918,0.255927,91,12
-0.136657,-0.942507,-0.0833209,2,5
-2.43484,-16.7928,3.29832,13,13
-0.15552,-1.07128,-0.0567322,10,6
-2.56954,-17.6783,4.12425,31,14
-0.232974,-1.60089,-0.028238,5,7
-2.70046,-18.5336,5.0185,19,15
-0.232286,-1.57876,0.027854,5,8
-0.237217,-1.60837,0.0852029,5,9
-0.233993,-1.58268,0.139972,9,10
-0.115411,-0.77968,-0.124835,36,3
-0.235736,-1.59256,0.197672,100,11
-0.119899,-0.809022,-0.10042,6,4
-0.238905,-1.61008,0.257804,80,12
-0.138775,-0.934141,-0.0826236,2,5
-2.48626,-16.7158,3.28497,10,13
-0.151797,-1.01935,-0.0540107,8,6
-2.64064,-17.7112,4.13415,31,14
-0.227355,-1.52491,-0.0269116,6,7
-2.7175,-18.205,4.93206,19,15
-0.238966,-1.58383,0.0279588,9,8
-0.246096,-1.62724,0.0862497,5,9
-0.240113,-1.5858,0.140321,5,10
-0.116948,-0.77146,-0.123583,37,3
-0.119285,-0.785026,-0.0974955,6,4
-0.245102,-1.61115,0.258117,46,12
-0.141436,-0.929711,-0.082275,2,5
-2.55524,-16.7769,3.29871,4,13
-0.149332,-0.97932,-0.0519173,10,6
-2.69656,-17.6634,4.12515,31,14
-0.171006,-1.11883,-0.0197561,4,7
-2.79561,-18.2694,4.95224,17,15
-0.246935,-1.5988,0.028238,9,8
-0.0812976,-0.525758,-0.122823,15,1
-0.247497,-1.59874,0.0847843,7,9
-0.246867,-1.59283,0.141018,5,10
-0.114794,-0.739815,-0.118577,41,3
-0.245298,-1.57906,0.19621,7,11
-0.121414,-0.780682,-0.097008,7,4
-0.144067,-0.925275,-0.0819264,2,5
-4.41628,-28.3312,5.57353,16,13
-0.152442,-0.97682,-0.0518126,10,6
-3.22658,-20.6516,4.82565,21,14
-0.175219,-1.12021,-0.019791,16,7
-2.90031,-18.521,5.02316,6,15
-2.39686,-15.1674,0.268034,6,8
-0.0831324,-0.525471,-0.122823,15,1
-4.29355,-27.1084,1.4384,12,9
-0.249617,-1.57424,0.139449,6,10
-0.118924,-0.749164,-0.120142,30,3
-0.254859,-1.60368,0.199378,7,11
-0.126634,-0.795937,-0.0989579,6,4
-0.255411,-1.60355,0.257178,4,12
-0.144789,-0.909025,-0.0805319,3,5
-2.82904,-17.7416,3.49219,15,13
-0.151758,-0.950642,-0.0504519,6,6
-3.37245,-21.1021,4.93363,18,14
-0.175969,-1.09984,-0.019442,28,7
-2.96402,-18.505,5.02161,9,15
-2.45458,-15.1886,0.268558,1,8
-2.48945,-15.3703,0.816022,24,9
-0.259257,-1.59893,0.141715,2,10
-0.121855,-0.750694,-0.120455,20,3
-0.263321,-1.62042,0.201572,8,11
-0.122399,-0.752384,-0.0935957,7,4
-0.261642,-1.60654,0.257804,4,12
-0.153085,-0.939978,-0.0833209,2,5
-4.70242,-28.8422,5.68038,21,13
-0.160545,-0.983616,-0.0522313,4,6
-4.75244,-29.0851,6.80387,40,14
-0.175934,-1.07554,-0.0190231,16,7
-3.31145,-20.2218,5.49059,14,15
-0.0867988,-0.524878,-0.122823,15,1
-2.53552,-15.3324,0.814452,39,9
-4.60809,-27.8051,2.46581,70,10
-0.122211,-0.736623,-0.118264,21,3
-2.61235,-15.7288,1.95771,34,11
-0.132187,-0.795033,-0.0989579,6,4
-2.91073,-17.5065,2.81081,17,12
-0.156365,-0.939438,-0.0833209,2,5
-2.94896,-17.6982,3.48761,12,13
-0.154119,-0.923949,-0.0490911,8,6
-3.48791,-20.8877,4.88909,31,14
-0.175876,-1.05325,-0.0186392,10,7
-3.37498,-20.1898,5.48489,8,15
-0.0885388,-0.524587,-0.122823,15,1
-2.59901,-15.3826,0.817592,23,9
-3.00814,-17.7663,1.57647,27,10
-0.118718,-0.701156,-0.112633,23,3
-2.63497,-15.5459,1.93602,45,11
-0.133495,-0.786762,-0.097983,6,4
-2.97414,-17.5098,2.813,35,12
-0.159644,-0.938886,-0.0833209,2,5
-3.01027,-17.7038,3.49066,22,13
-0.155171,-0.911619,-0.0484631,9,6
-4.83934,-28.4008,6.65135,9,14
-0.177198,-1.03884,-0.0183948,7,7
-3.38496,-19.8237,5.38861,22,15
-0.18867,-1.09571,0.0194071,1,8
-0.0903695,-0.524275,-0.122823,15,1
-2.65543,-15.4054,0.819267,20,9
-3.05754,-17.7013,1.57159,40,10
-0.121164,-0.700738,-0.112633,11,3
-2.69396,-15.564,1.93943,45,11
-0.132173,-0.76282,-0.0950581,7,4
-3.03151,-17.496,2.81238,39,12
-0.162756,-0.938352,-0.0833209,2,5
-3.07574,-17.7144,3.49486,24,13
-0.15801,-0.909104,-0.0483584,9,6
-3.74592,-21.5297,5.0452,39,14
-0.176871,-1.01657,-0.0180109,7,7
-3.46294,-19.8827,5.40777,16,15
-0.193686,-1.10295,0.0195467,6,8
-2.71438,-15.4255,0.820837,7,9
-3.12242,-17.7081,1.57316,30,10
-0.127604,-0.723676,-0.116387,10,3
-2.77109,-15.6996,1.95747,29,11
-0.130557,-0.73892,-0.0921332,8,4
-3.08706,-17.4542,2.80737,31,12
-3.14063,-17.7389,3.50173,17,13
-0.160327,-0.904642,-0.0481491,4,6
-3.64573,-20.5501,4.81845,4,14
-0.175873,-0.990352,-0.0175571,6,7
-3.5685,-20.074,5.46315,23,15
-0.201454,-1.12188,0.0198957,13,8
-0.0941187,-0.523615,-0.122823,15,1
-2.76348,-15.3742,0.818639,3,9
-5.14843,-28.5851,2.54111,29,10
-0.128979,-0.715405,-0.115136,11,3
-2.79045,-15.4622,1.92919,45,11
-0.140452,-0.777482,-0.097008,7,4
-3.14329,-17.4,2.80049,34,12
-0.165224,-0.911881,-0.0485678,4,6
-3.80356,-20.9712,4.92058,40,14
-0.177718,-0.979862,-0.0173826,3,7
-3.61065,-19.8879,5.41605,10,15
-0.201214,-1.09957,0.0195118,18,8
-0.0958546,-0.5233,-0.122823,15,1
-5.26149,-28.6395,2.54756,73,10
-0.126354,-0.687773,-0.110756,12,3
-2.86002,-15.5525,1.94162,33,11
-0.140873,-0.765299,-0.0955456,7,4
-3.19756,-17.3539,2.79486,27,12
-0.172737,-0.936566,-0.0833209,2,5
-5.97875,-32.4163,6.40737,16,13
-0.165346,-0.895615,-0.0477304,5,6
-3.80332,-20.581,4.83195,21,14
-0.184774,-0.998899,-0.0177316,1,7
-3.74055,-20.2019,5.50508,23,15
-0.199916,-1.07134,0.0190231,10,8
-0.0976806,-0.522962,-0.122823,15,1
-5.93991,-31.7396,2.82507,43,10
-0.130936,-0.698978,-0.112633,11,3
-5.29263,-28.2264,3.52617,55,11
-0.144276,-0.768704,-0.0960331,7,4
-6.02692,-32.0499,6.33906,32,13
-0.168471,-0.895033,-0.0477304,5,6
-3.88127,-20.6002,4.8396,8,14
-0.183813,-0.974668,-0.0173128,1,7
-3.76875,-19.9647,5.444,23,15
-0.198422,-1.04313,0.0185345,6,8
-0.0995056,-0.522618,-0.122823,15,1
-0.219483,-1.15166,0.0614424,2,9
-5.42831,-28.4562,2.53449,14,10
-0.134116,-0.702397,-0.113259,11,3
-5.49696,-28.7615,3.59539,23,11
-0.14099,-0.737,-0.0921332,8,4
-6.1755,-32.2508,5.20082,21,12
-6.13802,-32.0248,6.33829,32,13
-0.170089,-0.886593,-0.0473117,5,6
-3.58382,-18.6631,4.38745,26,14
-0.192498,-1.00151,-0.0178015,1,7
-3.83477,-19.9324,5.43882,25,15
-0.199399,-1.02869,0.0182901,6,8
-0.220638,-1.1372,0.0607097,9,9
-6.17237,-31.7541,2.83012,8,10
-0.131286,-0.674778,-0.108878,12,3
-6.11451,-31.3979,3.92761,51,11
-0.143562,-0.736504,-0.0921332,8,4
-6.3425,-32.5384,5.25057,17,12
-6.28702,-32.1939,6.37607,44,13
-0.169351,-0.866392,-0.046265,6,6
-4.10057,-20.9589,4.93048,41,14
-0.185836,-0.949844,-0.0168939,2,7
-3.948,-20.1604,5.50456,10,15
-0.198939,-1.00841,0.0179411,5,8
-0.103061,-0.521928,-0.122823,15,1
-0.224219,-1.13447,0.060605,12,9
-6.21739,-31.4001,2.80049,8,10
-0.138127,-0.697592,-0.112633,11,3
-3.7696,-19.0204,2.38084,30,11
-0.148321,-0.747706,-0.0935957,7,4
-6.51683,-32.8222,5.3,27,12
-6.47335,-32.5734,6.45545,22,13
-0.172224,-0.865826,-0.046265,6,6
-4.16206,-20.905,4.92103,22,14
-3.33364,-16.7136,4.5666,6,15
-0.193792,-0.964575,0.0171732,6,8
-0.104498,-0.519655,-0.122373,15,1
-0.226601,-1.12585,0.0601864,13,9
-0.135876,-0.673869,-0.108878,12,3
-3.83675,-19.0111,2.38133,41,11
-0.146214,-0.723835,-0.0906708,25,4
-6.48182,-32.0596,5.18048,25,12
-8.04101,-39.7358,7.88041,8,13
-0.167315,-0.826069,-0.0441716,7,6
-4.24391,-20.9343,4.93138,4,14
-0.192462,-0.948524,-0.0168939,2,7
-4.06096,-19.996,5.46729,17,15
-0.19275,-0.942343,0.0167892,4,8
-0.106311,-0.519287,-0.122373,15,1
-0.22612,-1.10353,0.059035,10,9
-0.137433,-0.66952,-0.108253,12,3
-3.99538,-19.4467,2.43763,5,11
-0.153138,-0.744708,-0.0933519,31,4
-6.61002,-32.1161,5.19331,25,12
-8.1452,-39.5402,7.84721,16,13
-0.179071,-0.868515,-0.0464743,5,6
-3.7514,-18.1787,4.28532,25,14
-0.172312,-0.834261,-0.0148695,4,7
-4.15069,-20.0782,5.49369,19,15
-0.202151,-0.97103,0.0173128,1,8
-0.108123,-0.518913,-0.122373,15,1
-0.222631,-1.06754,0.0571509,9,9
-0.15912,-0.762997,-0.151502,9,2
-0.245071,-1.17411,0.104936,1,10
-0.138961,-0.665169,-0.107627,12,3
-3.99904,-19.1257,2.39912,25,11
-0.153296,-0.732511,-0.0918895,33,4
-6.7075,-32.0232,5.18205,21,12
-8.39717,-40.0553,7.95521,8,13
-0.182921,-0.871794,-0.0466837,5,6
-3.81643,-18.1731,4.28712,43,14
-0.171109,-0.814085,-0.0145204,4,7
-4.20524,-19.9899,5.47351,10,15
-0.202224,-0.954668,0.0170335,1,8
-0.109934,-0.518532,-0.122373,15,1
-0.223039,-1.05112,0.0563135,6,9
-0.241088,-1.13423,0.101449,5,10
-0.13811,-0.649199,-0.105124,13,3
-4.04347,-19.0067,2.38596,20,11
-0.154199,-0.724205,-0.0909145,33,4
-4.08463,-19.1673,3.10397,16,12
-8.47178,-39.6863,7.88804,8,13
-0.188619,-0.882837,-0.0473117,5,6
-4.20819,-19.6797,4.64614,15,14
-0.163915,-0.766551,-0.0136827,15,7
-4.30814,-20.13,5.51595,17,15
-0.210781,-0.977378,0.0174524,1,8
-0.220986,-1.02297,0.0548481,5,9
-0.243362,-1.12559,0.100752,15,10
-0.143717,-0.664158,-0.107627,12,3
-3.72697,-17.2088,2.16196,9,11
-0.154329,-0.711995,-0.0894521,17,4
-4.07277,-18.7738,3.04265,37,12
-4.17225,-19.2162,3.82229,36,13
-0.188307,-0.866559,-0.0464743,5,6
-4.22758,-19.4383,4.5926,29,14
-0.158217,-0.726866,-0.0129846,11,7
-4.19027,-19.2344,5.27473,11,15
-0.113641,-0.517732,-0.122373,15,1
-0.223699,-1.01829,0.0546387,4,9
-0.150385,-0.684558,-0.136238,12,2
-0.247289,-1.12474,0.100752,16,10
-0.15028,-0.682944,-0.110756,12,3
-0.155959,-0.707575,-0.0889646,26,4
-4.19998,-19.0392,3.08802,45,12
-3.83637,-17.3765,3.45899,17,13
-0.186159,-0.842494,-0.0452183,6,6
-4.24449,-19.1932,4.53816,37,14
-0.165074,-0.745834,-0.0133336,21,7
-4.37646,-19.7572,5.42226,20,15
-0.222898,-0.998008,0.053592,4,9
-0.14507,-0.64954,-0.129368,13,2
-0.247302,-1.10637,0.0991832,11,10
-0.141451,-0.632295,-0.102621,14,3
-0.162334,-0.72446,-0.0911583,33,4
-4.00533,-17.8602,2.89904,24,12
-3.91806,-17.4569,3.47769,23,13
-0.178594,-0.79507,-0.0427061,8,6
-4.31103,-19.1764,4.53771,37,14
-0.165921,-0.73745,-0.013194,16,7
-4.35288,-19.331,5.30941,20,15
-0.117253,-0.516926,-0.122373,15,1
-0.219749,-0.968008,0.0520219,2,9
-0.150814,-0.664346,-0.132421,13,2
-0.2441,-1.07441,0.0963942,9,10
-0.155044,-0.681879,-0.110756,12,3
-0.157368,-0.690985,-0.0870147,37,4
-3.90434,-17.1297,2.78266,22,12
-4.07242,-17.8527,3.55935,31,13
-0.178701,-0.782759,-0.0420781,8,6
-4.38012,-19.1707,4.53996,37,14
-0.169831,-0.742714,-0.0132987,21,7
-4.41171,-19.278,5.29906,22,15
-0.119057,-0.516514,-0.122373,15,1
-0.22206,-0.963382,0.0518126,2,9
-0.153132,-0.663816,-0.132421,13,2
-0.238885,-1.03473,0.092908,6,10
-0.157423,-0.681333,-0.110756,12,3
-0.262967,-1.13723,0.143318,2,11
-0.154856,-0.669157,-0.0843336,30,4
-4.1746,-18.0105,3.5937,6,13
-0.190458,-0.821042,-0.0441716,7,6
-4.44481,-19.1458,4.53771,40,14
-0.170032,-0.732408,-0.0131242,5,7
-4.48042,-19.284,5.30476,20,15
-0.226788,-0.968435,0.0521266,1,9
-0.150072,-0.64034,-0.127842,14,2
-0.236581,-1.00867,0.090642,5,10
-0.147954,-0.630805,-0.102621,14,3
-0.271274,-1.15567,0.145756,8,11
-0.160252,-0.682167,-0.0860398,19,4
-4.41596,-18.7686,3.74787,14,13
-0.182194,-0.773748,-0.0416594,8,6
-4.51453,-19.1575,4.54401,14,14
-0.172588,-0.73181,-0.0131242,16,7
-4.56102,-19.3246,5.32028,9,15
-0.231091,-0.971523,0.052336,1,9
-0.154012,-0.647478,-0.129368,13,2
-0.234388,-0.98462,0.0885502,5,10
-0.150155,-0.630284,-0.102621,14,3
-0.277608,-1.16437,0.146974,18,11
-0.157565,-0.660364,-0.0833586,10,4
-5.04629,-21.133,3.44125,1,12
-4.47598,-18.7302,3.74329,26,13
-0.196972,-0.823612,-0.0443809,7,6
-9.07701,-37.9251,9.00299,13,14
-0.177936,-0.742871,-0.0133336,26,7
-4.63295,-19.3274,5.32546,22,15
-0.124369,-0.51526,-0.122373,15,1
-0.249488,-1.03284,0.0556855,1,9
-0.156271,-0.646937,-0.129368,13,2
-0.23876,-0.98767,0.0888989,4,10
-0.152354,-0.629756,-0.102621,14,3
-0.276065,-1.14025,0.14405,18,11
-0.171087,-0.706113,-0.0892084,8,4
-4.52976,-18.6667,3.73375,22,13
-0.180049,-0.741404,-0.0399847,10,6
-5.04579,-20.7616,4.93273,13,14
-0.177693,-0.730587,-0.0131242,22,7
-4.65699,-19.1328,5.27629,11,15
-0.126167,-0.514823,-0.122373,15,1
-0.254813,-1.03976,0.0561041,1,9
-0.153852,-0.62732,-0.125552,14,2
-0.236032,-0.961675,0.0866328,3,10
-0.154551,-0.629221,-0.102621,14,3
-0.27341,-1.11229,0.140637,12,11
-0.155422,-0.632288,-0.0799463,11,4
-5.15751,-20.9345,4.19093,13,13
-0.182636,-0.740771,-0.0399847,10,6
-5.08382,-20.6199,4.90303,36,14
-0.180593,-0.731935,-0.0131591,27,7
-4.78293,-19.3704,5.34617,13,15
-0.127873,-0.514402,-0.122373,15,1
-0.270787,-1.08931,0.0588256,1,9
-0.158776,-0.638237,-0.127842,14,2
-0.238257,-0.957021,0.0862842,3,10
-0.269413,-1.08056,0.136737,10,11
-0.188253,-0.755042,-0.0955456,7,4
-0.29315,-1.17489,0.191789,1,12
-5.22928,-20.9268,4.19284,15,13
-0.189937,-0.759537,-0.0410314,9,6
-5.13704,-20.5424,4.88864,36,14
-0.17865,-0.713873,-0.012845,17,7
-4.86919,-19.4425,5.3705,12,15
-0.129578,-0.513975,-0.122373,15,1
-0.274588,-1.08836,0.0588256,1,9
-0.162925,-0.645293,-0.129368,13,2
-0.240942,-0.954294,0.0861099,1,10
-0.158721,-0.628182,-0.102621,14,3
-0.268615,-1.06234,0.134544,8,11
-0.294825,-1.16428,0.190224,4,12
-4.8168,-18.994,3.80893,8,13
-0.187674,-0.73951,-0.0399847,10,6
-5.26528,-20.7473,4.94172,23,14
-0.18311,-0.720998,-0.0129846,11,7
-4.92323,-19.3711,5.35548,20,15
-0.278575,-1.08734,0.0588256,1,9
-0.162363,-0.633281,-0.127079,14,2
-0.240479,-0.937964,0.0847154,2,10
-0.161023,-0.627596,-0.102621,14,3
-0.265102,-1.0325,0.130888,4,11
-0.298598,-1.16128,0.189911,11,12
-4.82078,-18.7214,3.75779,4,13
-0.190383,-0.738818,-0.0399847,10,6
-5.30822,-20.5995,4.91113,40,14
-0.191743,-0.743558,-0.0134034,5,7
-4.9551,-19.2014,5.31356,16,15
-0.282558,-1.08631,0.0588256,1,9
-0.169629,-0.651681,-0.130895,13,2
-0.244919,-0.940933,0.085064,1,10
-0.163322,-0.627002,-0.102621,14,3
-0.259371,-0.995029,0.126257,4,11
-0.30385,-1.164,0.190537,11,12
-0.185002,-0.707199,-0.0383099,11,6
-5.36642,-20.5139,4.89538,36,14
-0.194467,-0.74285,-0.0134034,5,7
-5.19189,-19.8185,5.48955,10,15
-0.153616,-0.582237,-0.13902,13,1
-0.286538,-1.08527,0.0588256,1,9
-0.165998,-0.628278,-0.126316,28,2
-0.260581,-0.98626,0.0892475,1,10
-0.165619,-0.626399,-0.102621,14,3
-0.262001,-0.990233,0.125769,4,11
-0.302043,-1.13996,0.186783,9,12
-0.195794,-0.737402,-0.0399847,10,6
-5.42007,-20.4131,4.87604,43,14
-0.197189,-0.742133,-0.0134034,5,7
-5.27641,-19.8442,5.50198,12,15
-0.137424,-0.51395,-0.122823,15,1
-0.164926,-0.616374,-0.124026,29,2
-0.26385,-0.98539,0.0892475,1,10
-0.167695,-0.625846,-0.102621,14,3
-0.26117,-0.97402,0.123819,2,11
-0.291478,-1.08554,0.178022,7,12
-0.192924,-0.717496,-0.038938,10,6
-5.59001,-20.7752,4.96692,37,14
-0.199649,-0.741475,-0.0134034,5,7
-4.50736,-16.7282,4.64218,12,15
-0.165021,-0.608216,-0.122499,30,2
-0.169878,-0.625257,-0.102621,14,3
-0.260402,-0.957778,0.121869,2,11
-0.291633,-1.07117,0.175832,6,12
-0.330283,-1.2123,0.244236,1,13
-0.196478,-0.720672,-0.0391473,10,6
-5.42964,-19.902,4.76266,20,14
-4.56216,-16.6994,4.63856,5,15
-0.271213,-0.985976,0.053592,1,9
-0.168184,-0.611422,-0.123263,15,2
-0.17206,-0.62466,-0.102621,14,3
-0.264799,-0.960691,0.122357,2,11
-0.291692,-1.05682,0.173642,5,12
-0.32824,-1.18843,0.239656,4,13
-0.194736,-0.704581,-0.0383099,11,6
-5.48349,-19.8266,4.74917,16,14
-5.17059,-18.6698,5.19088,21,15
-0.171372,-0.614613,-0.124026,14,2
-0.174239,-0.624056,-0.102621,14,3
-0.264411,-0.946377,0.120651,2,11
-0.291121,-1.04057,0.171139,5,12
-0.329211,-1.17593,0.237366,12,13
-0.195039,-0.696204,-0.0378912,11,6
-5.55635,-19.8205,4.75232,4,14
-5.431,-19.3473,5.38447,8,15
-0.305247,-1.08016,0.0588256,1,9
-0.179923,-0.636682,-0.128605,14,2
-0.176417,-0.623444,-0.102621,14,3
-0.264468,-0.933989,0.119188,2,11
-0.286669,-1.01105,0.166446,4,12
-0.332778,-1.17289,0.236985,12,13
-0.187649,-0.660935,-0.0360071,12,6
-5.20512,-18.297,5.09718,6,15
-0.309015,-1.07909,0.0588256,1,9
-0.179982,-0.628501,-0.127079,14,2
-0.178592,-0.622824,-0.102621,14,3
-0.275392,-0.959773,0.122601,2,11
-0.288014,-1.00244,0.165195,4,12
-0.33253,-1.15662,0.233932,9,13
-0.182776,-0.635324,-0.0346464,26,6
-5.26682,-18.2713,5.09511,13,15
-0.148157,-0.51096,-0.122823,15,1
-0.31278,-1.078,0.0588256,1,9
-0.189834,-0.654266,-0.132421,13,2
-0.180765,-0.622197,-0.102621,14,3
-0.295365,-1.01599,0.129913,2,11
-0.181872,-0.625194,-0.0799463,11,4
-0.283782,-0.97488,0.160815,3,12
-0.328879,-1.12907,0.228589,5,13
-0.18667,-0.640434,-0.0349604,26,6
-0.364488,-1.24969,0.300535,1,14
-5.61434,-19.2245,5.36635,4,15
-0.280494,-0.954265,0.0521266,1,9
-0.199868,-0.679969,-0.137764,12,2
-0.179589,-0.610192,-0.100744,14,3
-0.184053,-0.624555,-0.0799463,11,4
-0.284949,-0.966304,0.159563,3,12
-0.325039,-1.10155,0.223247,5,13
-0.186642,-0.632117,-0.0345417,26,6
-0.358909,-1.21477,0.292436,5,14
-4.81663,-16.2815,4.54952,6,15
-0.171728,-0.577154,-0.13902,13,1
-0.320298,-1.07579,0.0588256,1,9
-0.194397,-0.652924,-0.132421,13,2
-0.178332,-0.598203,-0.0988666,15,3
-0.287755,-0.963411,0.15925,2,12
-0.323261,-1.0816,0.21943,5,13
-0.18198,-0.608499,-0.0332857,42,6
-0.365382,-1.22098,0.294236,10,14
-4.89616,-16.3405,4.57074,1,15
-0.1535,-0.50938,-0.122823,15,1
-0.324051,-1.07467,0.0588256,1,9
-0.184206,-0.610889,-0.124026,14,2
-0.183845,-0.608924,-0.100744,14,3
-0.293403,-0.969964,0.160502,2,12
-0.319072,-1.05416,0.214088,4,13
-0.187576,-0.619329,-0.0339137,27,6
-0.361164,-1.19172,0.287487,11,14
-0.155277,-0.508841,-0.122823,15,1
-0.327801,-1.07353,0.0588256,1,9
-0.181349,-0.593166,-0.0982409,15,3
-0.285217,-0.931158,0.154244,2,12
-0.322174,-1.05116,0.213706,4,13
-0.189737,-0.618671,-0.0339137,41,6
-0.358461,-1.1681,0.282089,9,14
-0.157052,-0.508296,-0.122823,15,1
-0.209342,-0.677112,-0.137764,12,2
-0.183418,-0.592529,-0.0982409,15,3
-0.286125,-0.92261,0.152993,3,12
-0.318277,-1.02565,0.208745,4,13
-0.190711,-0.61419,-0.0337044,28,6
-0.354441,-1.14078,0.27579,8,14
-0.185901,-0.593938,-0.120973,15,2
-0.186667,-0.595655,-0.0988666,15,3
-0.296444,-0.944222,0.156747,1,12
-0.310676,-0.988947,0.201494,2,13
-0.201239,-0.640195,-0.0351698,13,6
-0.353159,-1.12281,0.271741,7,14
-0.388785,-1.23457,0.346818,2,15
-0.185601,-0.585799,-0.119446,15,2
-0.183967,-0.579937,-0.0963636,15,3
-0.304525,-0.958242,0.15925,1,12
-0.311746,-0.980373,0.199968,2,13
-0.207106,-0.650908,-0.0357978,12,6
-0.348799,-1.09557,0.265442,6,14
-0.392505,-1.23137,0.3463,5,15
-0.194839,-0.607582,-0.124026,14,2
-0.18599,-0.579291,-0.0963636,15,3
-0.315126,-0.979739,0.163005,1,12
-0.309753,-0.962459,0.196533,2,13
-0.210601,-0.653984,-0.0360071,25,6
-0.342461,-1.06282,0.257794,5,14
-0.392649,-1.21712,0.342676,9,15
-0.17999,-0.554611,-0.113341,16,2
-0.185569,-0.571123,-0.0951122,15,3
-0.323435,-0.99366,0.165508,1,12
-0.308855,-0.948305,0.193862,2,13
-0.211026,-0.647548,-0.0356931,25,6
-0.337711,-1.03568,0.251495,5,14
-0.389101,-1.19187,0.335947,11,15
-0.181312,-0.552114,-0.112959,16,2
-0.193731,-0.589238,-0.0982409,15,3
-0.314542,-0.955001,0.15925,1,12
-0.310934,-0.943492,0.193099,2,13
-0.215161,-0.652498,-0.0360071,12,6
-0.340103,-1.03079,0.250595,4,14
-0.382352,-1.15748,0.32663,10,15
-0.192046,-0.577311,-0.0963636,15,3
-0.311742,-0.934951,0.191572,2,13
-0.216174,-0.647953,-0.0357978,25,6
-0.342465,-1.0259,0.249696,4,14
-0.372919,-1.11583,0.315242,6,15
-0.202678,-0.602941,-0.123644,14,2
-0.19154,-0.569149,-0.0951122,15,3
-0.315004,-0.933857,0.191572,2,13
-0.224821,-0.666119,-0.0368445,12,6
-0.337938,-1.0007,0.243847,4,14
-0.371862,-1.09988,0.3111,6,15
-0.197197,-0.579925,-0.119065,15,2
-0.197345,-0.579697,-0.0969894,15,3
-0.315725,-0.925319,0.190046,1,13
-0.223273,-0.653989,-0.0362165,12,6
-0.33702,-0.986602,0.240698,3,14
-0.371948,-1.08761,0.307995,5,15
-0.205605,-0.597798,-0.122881,15,2
-0.20194,-0.586475,-0.0982409,15,3
-0.317673,-0.9205,0.189283,1,13
-0.224251,-0.64943,-0.0360071,12,6
-0.336643,-0.974368,0.237998,3,14
-0.368795,-1.06622,0.302301,4,15
-0.203821,-0.585951,-0.120591,15,2
-0.193591,-0.555919,-0.0932349,16,3
-0.327353,-0.937922,0.193099,1,13
-0.223882,-0.641101,-0.0355885,12,6
-0.337471,-0.965828,0.236199,3,14
-0.361033,-1.0321,0.292983,4,15
-0.198047,-0.563012,-0.116012,16,2
-0.191594,-0.54406,-0.0913577,16,3
-0.330625,-0.936773,0.193099,1,13
-0.224789,-0.636549,-0.0353791,12,6
-0.334348,-0.94627,0.2317,1,14
-0.36399,-1.02902,0.292466,4,15
-0.1782,-0.501274,-0.122823,15,1
-0.211854,-0.595613,-0.122881,15,2
-0.204094,-0.573163,-0.0963636,15,3
-0.229696,-0.643284,-0.0357978,12,6
-0.335683,-0.939592,0.23035,1,14
-0.359122,-1.00409,0.285736,4,15
-0.179949,-0.500649,-0.122823,15,1
-0.213932,-0.594869,-0.122881,15,2
-0.196726,-0.546427,-0.0919835,16,3
-0.229227,-0.634964,-0.0353791,12,6
-0.336974,-0.932916,0.229,1,14
-0.361968,-1.00102,0.285219,3,15
-0.198999,-0.547638,-0.134521,14,1
-0.206615,-0.568288,-0.117538,16,2
-0.201334,-0.553162,-0.0932349,16,3
-0.227334,-0.622903,-0.0347511,13,6
-0.334213,-0.915259,0.224951,1,14
-0.36148,-0.98886,0.282113,2,15
-0.183439,-0.49938,-0.122823,15,1
-0.211307,-0.574934,-0.119065,15,2
-0.195079,-0.530209,-0.0894805,17,3
-0.229507,-0.622105,-0.0347511,13,6
-0.336056,-0.91043,0.224051,1,14
-0.360912,-0.97672,0.279007,2,15
-0.185181,-0.498737,-0.122823,15,1
-0.216047,-0.581554,-0.120591,15,2
-0.203814,-0.54804,-0.0926092,32,3
-0.238655,-0.640014,-0.0357978,12,6
-0.340594,-0.912903,0.224951,1,14
-0.356208,-0.953737,0.272795,2,15
-0.206093,-0.549173,-0.135421,13,1
-0.226357,-0.602852,-0.125171,14,2
-0.214066,-0.569514,-0.0963636,15,3
-0.233844,-0.620488,-0.0347511,13,6
-0.338278,-0.897122,0.221352,1,14
-0.351348,-0.930799,0.266584,2,15
-0.188659,-0.497432,-0.122823,15,1
-0.206171,-0.543321,-0.112959,16,2
-0.230082,-0.605696,-0.102621,14,3
-0.233165,-0.612202,-0.0343324,13,6
-0.348347,-0.914145,0.225851,1,14
-0.35735,-0.936787,0.268654,2,15
-0.190394,-0.49677,-0.122823,15,1
-0.208067,-0.542598,-0.112959,16,2
-0.229562,-0.596473,-0.033495,14,6
-0.355576,-0.923897,0.22855,1,14
-0.361843,-0.939202,0.269689,2,15
-0.19204,-0.496136,-0.122823,15,1
-0.240221,-0.618047,-0.0347511,13,6
-0.350946,-0.90199,0.259337,2,15
-0.233616,-0.594896,-0.033495,14,6
-0.355506,-0.904355,0.260372,2,15
-0.195499,-0.494783,-0.122823,15,1
-0.238743,-0.601461,-0.0339137,27,6
-0.349544,-0.879707,0.253643,1,15
-0.232664,-0.580233,-0.0327623,29,6
-0.348447,-0.867664,0.250537,1,15
-0.241436,-0.596078,-0.0337044,28,6
-0.350021,-0.862862,0.249502,2,15
-0.248053,-0.606323,-0.0343324,27,6
-0.35288,-0.861696,0.249502,2,15
-0.220384,-0.536018,-0.155291,12,0
-0.241676,-0.58519,-0.033181,28,6
-0.351456,-0.849748,0.246396,1,15
-0.251406,-0.602777,-0.0342277,27,6
-0.358888,-0.859212,0.249502,1,15
-0.241104,-0.572445,-0.032553,29,6
-0.38591,-0.914913,0.266066,1,15
-0.256389,-0.602845,-0.0343324,13,6
-0.369268,-0.867414,0.252607,1,15
-0.257599,-0.600156,-0.0342277,27,6
-0.410438,-0.954861,0.278489,1,15
-0.241436,-0.558461,-0.0963636,15,3
-0.249368,-0.575429,-0.032867,29,6
-0.599219,-1.38207,0.347774,1,14
-0.225909,-0.517825,-0.0894805,17,3
-0.248074,-0.56728,-0.0324483,29,6
-0.594426,-1.35865,0.342376,1,14
-0.23727,-0.538727,-0.0932349,16,3
-0.24602,-0.557275,-0.0319249,30,6
-0.610187,-1.38152,0.348674,1,14
-0.310366,-0.702366,-0.0134034,5,7
-0.253594,-0.570385,-0.0988666,15,3
-0.25528,-0.572831,-0.032867,29,6
-0.614212,-1.3776,0.348224,1,14
-0.265289,-0.591123,-0.102621,14,3
-0.250724,-0.557365,-0.0320296,15,6
-0.619817,-1.37723,0.348674,1,14
-0.315262,-0.700182,-0.0134034,5,7
-0.267351,-0.590194,-0.102621,14,3
-0.255971,-0.563761,-0.0324483,29,6
-0.621397,-1.36796,0.346875,1,14
-0.249806,-0.54462,-0.0314016,30,6
-0.639649,-1.3939,0.354073,1,14
-0.24835,-0.536494,-0.0309829,15,6
-0.254448,-0.544672,-0.0315063,30,6
-0.268171,-0.56912,-0.0329717,28,6
-0.259769,-0.54658,-0.0317156,30,6
-0.261771,-0.545625,-0.0317156,30,6
-0.252558,-0.523373,-0.112959,16,2
-0.259323,-0.535719,-0.0311922,31,6
-0.334689,-0.691106,-0.0134034,5,7
-0.254383,-0.522488,-0.112959,16,2
-0.261974,-0.536651,-0.0312969,31,6
-0.256114,-0.521641,-0.112959,16,2
-0.26914,-0.546484,-0.0319249,30,6
-0.339386,-0.688812,-0.0134034,5,7
-0.267398,-0.538433,-0.0315063,30,6
-0.341788,-0.687623,-0.0134034,5,7
-0.268381,-0.53571,-0.0314016,30,6
-0.344186,-0.686426,-0.0134034,5,7
-0.261472,-0.518977,-0.112959,16,2
-0.264844,-0.524075,-0.0307735,15,6
-0.34658,-0.68522,-0.0134034,5,7
-0.762952,-1.49738,0.326665,1,13
-0.272114,-0.533824,-0.0314016,15,6
-0.764844,-1.48759,0.325139,1,13
-0.280464,-0.545255,-0.0321343,29,6
-0.243439,-0.470848,-0.122373,15,1
-0.764609,-1.47445,0.322849,2,13
-0.277767,-0.535409,-0.0316109,15,6
-0.244999,-0.470038,-0.122373,15,1
-0.764037,-1.46147,0.320559,3,13
-0.261028,-0.499088,-0.0295175,16,6
-0.239384,-0.455381,-0.118774,16,1
-0.785615,-1.49005,0.327428,2,13
-0.275814,-0.522906,-0.0309829,15,6
-0.229944,-0.433922,-0.113375,16,1
-0.801609,-1.50824,0.332008,1,13
-0.264419,-0.4973,-0.0295175,16,6
-0.231457,-0.433116,-0.113375,16,1
-0.827272,-1.5435,0.340403,1,13
-0.266153,-0.496374,-0.0295175,16,6
-0.251457,-0.466616,-0.122373,15,1
-0.267884,-0.495442,-0.0295175,16,6
-0.253084,-0.465735,-0.122373,15,1
-0.254627,-0.464893,-0.122373,15,1
-0.234193,-0.42459,-0.129927,15,0
-0.256167,-0.464046,-0.122373,15,1
-0.2356,-0.423811,-0.129927,15,0
-0.28457,-0.507097,-0.155809,12,0
-0.240098,-0.421279,-0.129927,15,0
-0.289688,-0.504191,-0.155809,12,0
-0.920399,-1.59675,0.291907,1,12
-0.292512,-0.504407,-0.113341,16,2
-0.923704,-1.59027,0.291281,2,12
-0.292227,-0.500488,-0.155291,12,0
-0.294271,-0.503383,-0.113341,16,2
-0.93424,-1.59556,0.292845,2,12
-0.293885,-0.499516,-0.155291,12,0
-0.295939,-0.502404,-0.113341,16,2
-0.943821,-1.5991,0.294097,3,12
-0.295627,-0.498487,-0.155291,12,0
-0.297691,-0.501368,-0.113341,16,2
-0.954447,-1.60428,0.295661,2,12
-0.299439,-0.500326,-0.113341,16,2
-0.984423,-1.6416,0.30317,1,12
-0.264676,-0.438759,-0.0996023,19,2
-0.302925,-0.498223,-0.113341,16,2
-0.304662,-0.497163,-0.113341,16,2
-1.03339,-1.6745,0.0343463,2,8
-1.07649,-1.74366,0.107393,1,9
-0.306395,-0.496097,-0.113341,16,2
-1.0421,-1.67616,0.034451,7,8
-1.0583,-1.70089,0.104986,2,9
-0.308125,-0.495024,-0.113341,16,2
-1.05007,-1.6759,0.0345209,7,8
-1.06953,-1.70564,0.105509,5,9
-0.309765,-0.493999,-0.113341,16,2
-1.07146,-1.70805,0.176403,1,10
-1.06659,-1.68913,0.0348699,2,8
-1.08188,-1.71203,0.106137,4,9
-0.311574,-0.492861,-0.113341,16,2
-1.04896,-1.65865,0.171697,4,10
-1.06769,-1.68762,0.245201,1,11
-0.292195,-0.458654,-0.105708,18,2
-1.06866,-1.67682,0.173963,4,10
-0.315007,-0.490674,-0.113341,16,2
-0.286781,-0.443466,-0.102655,18,2
-0.290471,-0.445752,-0.103418,18,2
-0.320043,-0.487404,-0.113341,16,2
-0.321742,-0.486284,-0.113341,16,2
-1.12059,-1.68215,0.105928,1,9
-0.323353,-0.485214,-0.113341,16,2
-1.11387,-1.66074,0.0349048,1,8
-1.12645,-1.67823,0.105928,1,9
-0.325045,-0.484082,-0.113341,16,2
-1.12429,-1.67375,0.176403,1,10
-1.14261,-1.70038,0.251538,1,11
-1.0426,-1.54864,0.431006,1,14
-1.14379,-1.69064,0.106975,1,9
-0.325632,-0.481319,-0.112959,16,2
-1.13012,-1.66981,0.176403,1,10
-1.04827,-1.5448,0.431006,1,14
-1.12573,-1.65273,0.0349048,1,8
-1.13843,-1.67013,0.105928,1,9
-0.327311,-0.480179,-0.112959,16,2
-1.1135,-1.63294,0.172917,1,10
-1.20079,-1.74846,0.111162,1,9
-0.328985,-0.479034,-0.112959,16,2
-1.14175,-1.66188,0.176403,1,10
-1.05903,-1.53745,0.431006,1,14
-0.315016,-0.45528,-0.107616,17,2
-1.06439,-1.53374,0.431006,1,14
-0.332321,-0.476725,-0.112959,16,2
-1.04741,-1.49807,0.422008,1,14
-0.318186,-0.45307,-0.107616,17,2
-1.07481,-1.52646,0.431006,1,14
-0.334405,-0.473347,-0.155291,12,0
-0.319687,-0.452012,-0.107616,17,2
-1.08013,-1.5227,0.431006,1,14
-0.309871,-0.434904,-0.1038,18,2
-0.337619,-0.47106,-0.155291,12,0
-1.20599,-1.68202,0.0361265,2,8
-0.315889,-0.440255,-0.105327,18,2
-1.25244,-1.73975,-0.037418,1,7
-1.21536,-1.68266,0.0362312,6,8
-1.19341,-1.65105,0.106765,1,9
-0.305923,-0.423238,-0.10151,19,2
-1.22563,-1.69004,-0.0364406,1,7
-1.23299,-1.69458,0.0365802,6,8
-1.23654,-1.68704,0.0365104,5,8
-0.320482,-0.436923,-0.105327,18,2
-0.310339,-0.420011,-0.10151,19,2
-1.31273,-1.76501,0.0383953,1,8
-0.34705,-0.466112,-0.112959,16,2
-1.36133,-1.81511,0.118907,1,9
-1.01477,-1.3486,-0.0294597,1,7
-1.33877,-1.7721,0.116395,1,9
-0.350295,-0.463678,-0.112959,16,2
-1.33581,-1.76754,0.193834,1,10
-0.997727,-1.31636,-0.0288314,1,7
-1.32045,-1.73586,0.114302,1,9
-0.351912,-0.462453,-0.112959,16,2
-1.32267,-1.7375,0.191045,1,10
-1.36293,-1.78911,0.276156,1,11
-1.00694,-1.31941,-0.028971,4,7
-1.33622,-1.74392,0.115139,1,9
-0.322471,-0.420709,-0.103037,18,2
-1.33115,-1.73604,0.191394,1,10
-1.34953,-1.75938,0.272256,1,11
-0.993258,-1.2921,-0.0284474,5,7
-1.34718,-1.74557,0.115558,1,9
-0.355051,-0.460046,-0.112959,16,2
-1.35394,-1.75369,0.193834,1,10
-1.34595,-1.74209,0.270306,1,11
-1.33997,-1.73309,0.346972,1,12
-1.00878,-1.30286,-0.0287616,6,7
-1.36307,-1.75347,0.116395,1,9
-0.356655,-0.458804,-0.112959,16,2
-1.36006,-1.74896,0.193834,1,10
-1.3374,-1.71858,0.267381,1,11
-1.36543,-1.75334,0.351978,1,12
-1.00102,-1.28356,-0.0284125,6,7
-1.43043,-1.82758,0.121629,1,9
-0.358255,-0.457557,-0.112959,16,2
-1.36615,-1.7442,0.193834,1,10
-1.37278,-1.7514,0.273231,1,11
-1.36636,-1.74259,0.350726,1,12
-1.01145,-1.2881,-0.028587,5,7
-1.43648,-1.82283,0.121629,1,9
-0.35977,-0.456366,-0.112959,16,2
-1.37193,-1.73966,0.193834,1,10
-1.36874,-1.73437,0.271281,1,11
-1.38682,-1.75665,0.354481,1,12
-1.40691,-1.78082,0.44115,1,13
-1.0182,-1.28787,-0.0286569,5,7
-1.44252,-1.81805,0.121629,1,9
-0.361281,-0.45517,-0.112959,16,2
-1.37769,-1.7351,0.193834,1,10
-1.39918,-1.7609,0.276156,1,11
-1.38035,-1.73658,0.351352,1,12
-1.41281,-1.77615,0.44115,1,13
-1.01374,-1.27354,-0.0284125,4,7
-1.29245,-1.62309,0.555943,1,15
-0.362789,-0.45397,-0.112959,16,2
-1.38344,-1.73052,0.193834,1,10
-1.40501,-1.75625,0.276156,1,11
-1.3935,-1.74125,0.353229,1,12
-1.37697,-1.71935,0.428175,1,13
-1.01921,-1.27173,-0.0284474,4,7
-1.41144,-1.75109,0.276156,1,11
-1.38282,-1.71436,0.348849,1,12
-1.41038,-1.74791,0.436571,1,13
-1.01529,-1.25692,-0.0282031,4,7
-1.46179,-1.80259,0.121629,1,9
-1.39578,-1.72058,0.193834,1,10
-1.40623,-1.73098,0.353229,1,12
-1.39419,-1.71555,0.429702,1,13
-1.42259,-1.74925,0.520537,1,14
-1.03103,-1.26733,-0.0285172,5,7
-1.04946,-1.28585,0.028971,1,8
-1.49335,-1.82842,0.123722,1,9
-1.40178,-1.7157,0.193834,1,10
-1.41977,-1.73524,0.355106,1,12
-1.38305,-1.68916,0.424359,1,13
-1.40152,-1.71111,0.510639,1,14
-1.02277,-1.24825,-0.0281682,5,7
-1.03511,-1.25882,0.0284474,3,8
-1.47466,-1.79209,0.121629,1,9
-0.369327,-0.448667,-0.112959,16,2
-1.45871,-1.77208,0.200807,1,10
-1.45628,-1.7666,0.362615,1,12
-1.41172,-1.71134,0.431228,1,13
-1.40778,-1.70596,0.510639,1,14
-1.0388,-1.25837,-0.0284823,6,7
-1.04992,-1.26734,0.0287267,4,8
-1.48122,-1.78667,0.121629,1,9
-1.48809,-1.79432,0.203944,1,10
-1.44507,-1.73998,0.358235,1,12
-1.41769,-1.7064,0.431228,1,13
-1.41901,-1.70678,0.512438,1,14
-1.03445,-1.2438,-0.028238,9,7
-1.04409,-1.25138,0.0284474,4,8
-1.48744,-1.78149,0.121629,1,9
-1.4688,-1.75854,0.200458,1,10
-1.52387,-1.82317,0.291755,1,11
-1.46888,-1.75614,0.362615,1,12
-1.406,-1.68036,0.425886,1,13
-1.42996,-1.70779,0.514238,1,14
-1.03622,-1.23711,-0.0281682,9,7
-1.04717,-1.2462,0.0284125,4,8
-1.49334,-1.77655,0.121629,1,9
-1.49032,-1.77169,0.20255,1,10
-1.49954,-1.78139,0.285906,1,11
-1.53832,-1.82681,0.378259,1,12
-1.44222,-1.71148,0.435045,1,13
-1.42587,-1.69087,0.510639,1,14
-1.04805,-1.24284,-0.0283776,12,7
-1.41754,-1.6804,0.589072,1,15
-1.04226,-1.23203,0.0281682,4,8
-1.47889,-1.74693,0.119954,1,9
-1.47074,-1.73608,0.199064,1,10
-1.49774,-1.76732,0.284443,1,11
-1.54468,-1.82143,0.378259,1,12
-1.46821,-1.73064,0.44115,1,13
-1.43399,-1.68911,0.511539,1,14
-1.04462,-1.23003,-0.0281682,12,7
-1.4234,-1.67544,0.589072,1,15
-1.05563,-1.23904,0.0284125,5,8
-1.48208,-1.73898,0.119745,1,9
-0.377024,-0.442219,-0.112959,16,2
-1.47131,-1.72513,0.198366,1,10
-1.50905,-1.76812,0.285418,1,11
-1.55071,-1.8163,0.378259,1,12
-1.47424,-1.7255,0.44115,1,13
-1.43988,-1.68409,0.511539,1,14
-1.05909,-1.23872,-0.0284474,12,7
-1.42894,-1.67072,0.589072,1,15
-1.05322,-1.22795,0.028238,4,8
-1.47253,-1.71561,0.118489,1,9
-0.378565,-0.4409,-0.112959,16,2
-1.47733,-1.71998,0.198366,1,10
-1.5175,-1.76612,0.285906,1,11
-1.55705,-1.81087,0.378259,1,12
-1.47995,-1.7206,0.44115,1,13
-1.43782,-1.67045,0.508839,1,14
-1.05688,-1.22744,-0.0282729,11,7
-1.4499,-1.68328,0.595284,1,15
-1.06273,-1.23032,0.0283776,5,8
-1.48866,-1.7228,0.119326,1,9
-0.380025,-0.439642,-0.112959,16,2
-1.48563,-1.71809,0.198715,1,10
-1.53664,-1.77582,0.288343,1,11
-1.53718,-1.77583,0.372001,1,12
-1.43088,-1.65069,0.50434,1,14
-1.05702,-1.21939,-0.0281682,9,7
-1.42763,-1.64636,0.583896,1,15
-1.06812,-1.22829,0.0284125,4,8
-0.349168,-0.401388,-0.122823,15,1
-1.50778,-1.73266,0.120373,1,9
-0.381557,-0.438313,-0.112959,16,2
-1.48377,-1.70387,0.197669,1,10
-1.5021,-1.72432,0.280787,1,11
-1.55635,-1.78534,0.37513,1,12
-1.42866,-1.63713,0.501641,1,14
-1.05601,-1.20967,-0.0280286,9,7
-1.43082,-1.63845,0.582861,1,15
-1.06976,-1.22155,0.0283427,4,8
-0.350566,-0.400167,-0.122823,15,1
-1.50328,-1.71537,0.119535,1,9
-0.383009,-0.437045,-0.112959,16,2
-1.49992,-1.71093,0.199064,1,10
-1.52906,-1.74294,0.284687,1,11
-1.55476,-1.77099,0.373253,1,12
-1.45238,-1.65262,0.507939,1,14
-1.07343,-1.221,-0.0283776,5,7
-1.44674,-1.64505,0.587002,1,15
-0.383267,-0.434731,-0.155291,12,0
-1.07666,-1.22081,0.0284125,4,8
-0.351961,-0.398941,-0.122823,15,1
-1.49076,-1.68915,0.11807,1,9
-0.384532,-0.435706,-0.112959,16,2
-1.49533,-1.69373,0.197669,1,10
-1.4957,-1.69296,0.277375,1,11
-1.5557,-1.75963,0.372001,1,12
-1.4633,-1.65338,0.509739,1,14
-1.08431,-1.22473,-0.0285521,1,7
-1.44991,-1.6371,0.585966,1,15
-1.0942,-1.23199,0.0287616,5,8
-0.327465,-0.368574,-0.113825,16,1
-1.44623,-1.62721,0.114092,1,9
-1.51182,-1.70042,0.199064,1,10
-1.51743,-1.70553,0.2803,1,11
-1.55395,-1.74534,0.370124,1,12
-1.47944,-1.6599,0.513338,1,14
-1.47105,-1.64933,0.592178,1,15
-0.386368,-0.431977,-0.155291,12,0
-1.10516,-1.23562,0.0289361,12,8
-1.35866,-1.51798,0.106765,1,9
-1.52602,-1.70377,0.20011,1,10
-1.53398,-1.71205,0.282249,1,11
-1.53366,-1.71049,0.363867,1,12
-1.50634,-1.67767,0.520537,1,14
-1.13024,-1.25879,-0.0295295,1,7
-1.46905,-1.63556,0.589072,1,15
-0.387873,-0.430626,-0.155291,12,0
-1.1244,-1.2479,0.02932,28,8
-0.356189,-0.395171,-0.122823,15,1
-1.37197,-1.52213,0.107393,2,9
-1.51328,-1.67772,0.197669,1,10
-1.54024,-1.70641,0.282249,1,11
-1.54491,-1.71099,0.365118,1,12
-1.57156,-1.73928,0.455652,1,13
-1.51219,-1.6724,0.520537,1,14
-1.09842,-1.21479,-0.028587,5,7
-1.45402,-1.6075,0.58079,1,15
-1.11779,-1.23232,0.0290408,94,8
-0.357497,-0.393988,-0.122823,15,1
-1.37191,-1.51141,0.106975,3,9
-1.51645,-1.66948,0.197321,1,10
-1.55657,-1.71305,0.284199,1,11
-1.55619,-1.71143,0.36637,1,12
-1.56411,-1.71954,0.451836,1,13
-1.09592,-1.20355,-0.0284125,10,7
-1.47263,-1.6167,0.585966,1,15
-0.332579,-0.363966,-0.113825,16,1
-1.36909,-1.49777,0.106347,3,9
-1.49508,-1.63503,0.193834,1,10
-1.55182,-1.69589,0.282249,1,11
-1.56216,-1.70599,0.36637,1,12
-1.56215,-1.70538,0.449546,1,13
-1.10822,-1.20856,-0.0286219,21,7
-1.46782,-1.60016,0.581825,1,15
-0.326906,-0.355508,-0.12941,15,0
-1.12636,-1.22448,0.0290408,188,8
-0.360239,-0.391482,-0.122823,15,1
-1.37566,-1.49445,0.106451,4,9
-1.50078,-1.6298,0.193834,1,10
-1.54966,-1.6817,0.280787,1,11
-1.55739,-1.68891,0.363867,1,12
-1.57874,-1.71147,0.452599,1,13
-1.10972,-1.20175,-0.0285521,31,7
-1.49305,-1.61631,0.58959,1,15
-1.14286,-1.23375,0.0293549,191,8
-0.361603,-0.390223,-0.122823,15,1
-1.37654,-1.48548,0.106137,3,9
-1.50646,-1.62455,0.193834,1,10
-1.55552,-1.67628,0.280787,1,11
-1.56836,-1.68953,0.365118,1,12
-1.59272,-1.71457,0.454889,1,13
-1.10825,-1.1922,-0.0284125,30,7
-1.49841,-1.61135,0.58959,1,15
-0.34776,-0.373058,-0.136656,14,0
-1.14831,-1.23141,0.0293899,190,8
-0.362895,-0.389021,-0.122823,15,1
-1.38827,-1.48821,0.106661,4,9
-1.49553,-1.60207,0.191743,1,10
-1.57462,-1.68562,0.283224,1,11
-1.57665,-1.6872,0.365744,1,12
-1.59035,-1.70068,0.452599,1,13
-1.10127,-1.17684,-0.0281333,60,7
-1.50374,-1.60637,0.58959,1,15
-1.14418,-1.21885,0.0291804,186,8
-0.362849,-0.386395,-0.122373,15,1
-1.3932,-1.4836,0.106661,4,9
-1.5172,-1.61453,0.193834,1,10
-1.53941,-1.63701,0.275912,1,11
-1.57953,-1.67909,0.365118,1,12
-1.58522,-1.68396,0.449546,1,13
-1.13122,-1.20084,-0.0287965,55,7
-1.51701,-1.60981,0.592696,1,15
-1.1537,-1.22086,0.02932,186,8
-1.39811,-1.47897,0.106661,4,9
-1.52255,-1.60949,0.193834,1,10
-1.51753,-1.60306,0.271037,1,11
-1.58237,-1.67097,0.364492,1,12
-1.58269,-1.67014,0.447256,1,13
-1.50638,-1.58795,0.586484,1,15
-1.15817,-1.21663,0.02932,183,8
-0.346723,-0.364096,-0.116075,16,1
-1.40102,-1.4707,0.106451,4,9
-1.52844,-1.6039,0.193834,1,10
-1.5234,-1.59749,0.271037,1,11
-1.58059,-1.65631,0.362615,1,12
-1.58338,-1.65865,0.44573,1,13
-1.60859,-1.68389,0.537633,1,14
-1.49912,-1.56819,0.581308,1,15
-1.16656,-1.21691,0.0294248,184,8
-0.366876,-0.382574,-0.122373,15,1
-1.40476,-1.46436,0.106347,3,9
-1.51499,-1.57816,0.191394,1,10
-1.53446,-1.59789,0.272012,1,11
-1.55625,-1.61945,0.355732,1,12
-1.61394,-1.67831,0.452599,1,13
-1.61205,-1.67517,0.536733,1,14
-1.51798,-1.57687,0.586484,1,15
-1.17241,-1.21406,0.0294597,100,8
-1.40293,-1.45227,0.105823,4,9
-1.53157,-1.58432,0.192788,1,10
-1.56239,-1.61508,0.275912,1,11
-1.54266,-1.59413,0.351352,1,12
-1.6116,-1.6642,0.450309,1,13
-1.61218,-1.66422,0.534934,1,14
-1.49121,-1.53827,0.574061,1,15
-1.41331,-1.45333,0.106242,4,9
-1.53681,-1.57924,0.192788,1,10
-1.5345,-1.57576,0.270062,1,11
-1.57,-1.61165,0.356358,1,12
-1.58422,-1.62511,0.44115,1,13
-1.62585,-1.66723,0.537633,1,14
-1.51519,-1.55267,0.581308,1,15
-1.41977,-1.44982,0.106347,4,9
-1.55877,-1.59121,0.19488,1,10
-1.54528,-1.57633,0.271037,1,11
-1.57008,-1.60052,0.355106,1,12
-1.5731,-1.60303,0.436571,1,13
-1.63985,-1.66989,0.540332,1,14
-1.56935,-1.59698,0.599943,1,15
-1.18323,-1.20071,0.0294248,8,8
-0.372116,-0.37748,-0.122373,15,1
-1.42061,-1.44059,0.106033,4,9
-1.5562,-1.57698,0.193834,1,10
-1.57866,-1.59919,0.275912,1,11
-1.57843,-1.59784,0.355732,1,12
-1.59552,-1.61401,0.44115,1,13
-1.61855,-1.63616,0.531334,1,14
-1.54773,-1.56403,0.58959,1,15
-0.340193,-0.342815,-0.12941,15,0
-1.19467,-1.20346,0.0295993,8,8
-0.346034,-0.348458,-0.113375,16,1
-1.42,-1.42995,0.105614,4,9
-1.58978,-1.5998,0.197321,1,10
-1.58451,-1.59339,0.275912,1,11
-1.57286,-1.58111,0.353229,1,12
-1.62331,-1.63069,0.447256,1,13
-1.60225,-1.60841,0.524136,1,14
-1.18734,-1.18817,0.02932,6,8
-0.374742,-0.374873,-0.122373,15,1
-1.43063,-1.43063,0.106033,4,9
-1.56717,-1.56607,0.193834,1,10
-1.58136,-1.57971,0.27445,1,11
-1.58396,-1.5812,0.354481,1,12
-1.58702,-1.5837,0.435808,1,13
-1.62137,-1.61685,0.528635,1,14
-1.55862,-1.55319,0.58959,1,15
-1.18865,-1.1812,0.0292502,5,8
-0.356693,-0.354335,-0.116075,16,1
-1.43845,-1.42845,0.106242,4,9
-1.59215,-1.58052,0.196275,1,10
-1.58123,-1.56859,0.273475,1,11
-1.59227,-1.57844,0.355106,2,12
-1.59254,-1.57815,0.435808,1,13
-1.6187,-1.60295,0.525936,1,14
-1.20415,-1.18828,0.0295295,4,8
-0.357927,-0.353087,-0.116075,16,1
-1.43774,-1.41781,0.105823,4,9
-1.61184,-1.58894,0.198018,1,10
-1.58387,-1.56027,0.272987,1,11
-1.6203,-1.59504,0.360112,1,12
-1.61763,-1.59186,0.44115,1,13
-1.62984,-1.60276,0.527735,1,14
-1.21258,-1.18827,0.0296342,3,8
-1.43102,-1.40185,0.104986,4,9
-1.63731,-1.60282,0.200458,1,10
-1.57228,-1.53807,0.270062,1,11
-1.6171,-1.58137,0.358235,1,12
-1.62317,-1.5862,0.44115,1,13
-1.63515,-1.59734,0.527735,1,14
-1.57453,-1.53705,0.58959,1,15
-1.21221,-1.18006,0.0295295,1,8
-1.43853,-1.39988,0.105195,4,9
-1.60548,-1.56126,0.195926,1,10
-1.63431,-1.58819,0.279812,1,11
-1.6195,-1.57325,0.357609,1,12
-1.61715,-1.56987,0.438097,1,13
-1.63764,-1.5892,0.526835,1,14
-1.22187,-1.18159,0.0296691,1,8
-1.43048,-1.38236,0.104253,3,9
-1.64528,-1.58828,0.280787,1,11
-1.60508,-1.54839,0.353229,2,12
-1.63366,-1.5754,0.44115,1,13
-1.63756,-1.57806,0.525036,1,14
-1.20868,-1.1607,0.0292502,2,8
-0.354266,-0.340085,-0.113375,16,1
-1.40936,-1.35247,0.102369,2,9
-1.20055,-1.15169,0.14555,2,10
-1.61618,-1.54824,0.354481,1,12
-1.61646,-1.54796,0.435045,1,13
-1.66277,-1.5912,0.531334,1,14
-1.66008,-1.58752,0.615472,1,15
-1.1968,-1.14129,0.0288663,4,8
-0.385072,-0.367083,-0.122823,15,1
-1.27237,-1.21251,0.0921113,1,9
-1.21899,-1.16124,0.147293,3,10
-1.66208,-1.58223,0.281762,1,11
-1.61872,-1.53987,0.353855,1,12
-1.62754,-1.54772,0.436571,1,13
-1.65419,-1.57196,0.526835,1,14
-1.66561,-1.58171,0.615472,1,15
-1.20513,-1.14123,0.028971,2,8
-0.386351,-0.365737,-0.122823,15,1
-1.19246,-1.12844,0.0860403,1,9
-1.22448,-1.15834,0.147468,2,10
-1.63297,-1.54369,0.275912,1,11
-1.64418,-1.5532,0.358235,1,12
-1.62437,-1.53395,0.434281,1,13
-1.65116,-1.55815,0.524136,1,14
-1.7414,-1.64216,0.641354,1,15
-1.23679,-1.16305,0.0296342,1,8
-0.387625,-0.364386,-0.122823,15,1
-1.18746,-1.11627,0.0854123,1,9
-1.22562,-1.15133,0.147119,2,10
-1.66949,-1.56666,0.362615,1,12
-1.64117,-1.53901,0.437334,1,13
-1.65659,-1.55238,0.524136,1,14
-0.388831,-0.363099,-0.122823,15,1
-1.19281,-1.11348,0.085517,2,9
-1.21797,-1.13617,0.145724,1,10
-1.67495,-1.56082,0.362615,1,12
-1.67213,-1.55765,0.444203,1,13
-1.66744,-1.55219,0.525936,1,14
-1.70161,-1.5829,0.622719,1,15
-1.17137,-1.0866,0.0278889,1,8
-0.390096,-0.361739,-0.122823,15,1
-1.1965,-1.10952,0.085517,2,9
-1.21004,-1.1213,0.14433,1,10
-1.30504,-1.20848,0.21839,1,11
-1.72361,-1.59552,0.372001,1,12
-1.67179,-1.54647,0.442677,1,13
-1.67284,-1.54636,0.525936,1,14
-1.69834,-1.56938,0.619613,1,15
-1.20732,-1.11253,0.0286569,1,8
-1.19889,-1.10399,0.0854123,2,9
-1.19049,-1.09548,0.141541,1,10
-1.26814,-1.16652,0.211565,1,11
-1.72917,-1.58949,0.372001,1,12
-1.65956,-1.52497,0.438097,1,13
-1.67222,-1.53553,0.524136,1,14
-1.70381,-1.56344,0.619613,1,15
-1.1994,-1.09751,0.0283776,1,8
-0.39255,-0.359076,-0.122823,15,1
-1.20992,-1.10674,0.0859357,4,9
-1.19559,-1.09287,0.141715,2,10
-1.25754,-1.1487,0.209128,1,11
-1.7636,-1.61039,0.378259,1,12
-1.67181,-1.52443,0.522336,1,14
-1.71469,-1.56299,0.621683,1,15
-1.18231,-1.07469,0.0278889,1,8
-0.393738,-0.357772,-0.122823,15,1
-1.20047,-1.09043,0.0849936,4,9
-1.19054,-1.08065,0.140669,2,10
-1.25253,-1.13652,0.207665,1,11
-1.76921,-1.60422,0.378259,1,12
-1.68841,-1.52935,0.525936,1,14
-1.72587,-1.56218,0.623754,1,15
-1.18012,-1.0652,0.0277493,1,8
-0.394985,-0.356395,-0.122823,15,1
-1.20704,-1.08912,0.0852029,4,9
-1.18672,-1.07003,0.139798,3,10
-1.24469,-1.12151,0.205715,1,11
-1.68794,-1.51823,0.524136,1,14
-1.68794,-1.5177,0.608225,1,15
-1.16131,-1.04126,0.0272258,3,8
-0.396164,-0.355084,-0.122823,15,1
-1.21679,-1.09023,0.0856216,4,9
-1.17709,-1.05392,0.138229,4,10
-1.23065,-1.10149,0.202791,1,11
-1.699,-1.51694,0.610295,1,15
-1.16829,-1.03945,0.0272956,3,8
-1.21798,-1.08289,0.0854123,5,9
-1.19733,-1.06416,0.140146,3,10
-1.22003,-1.08357,0.200353,1,11
-1.72505,-1.52834,0.617542,1,15
-1.1869,-1.0486,0.0276446,2,8
-0.398757,-0.35217,-0.122823,15,1
-1.21277,-1.0707,0.0847843,5,9
-1.20402,-1.06261,0.140495,2,10
-1.2104,-1.06749,0.19816,3,11
-1.73038,-1.52231,0.617542,1,15
-1.17552,-1.03127,0.0272956,2,8
-0.399983,-0.350776,-0.122823,15,1
-1.2103,-1.06141,0.0843656,5,9
-1.19124,-1.04395,0.138578,2,10
-1.21113,-1.06064,0.197672,3,11
-1.7005,-1.48606,0.605119,1,15
-1.19552,-1.04181,0.0276795,1,8
-1.22003,-1.06242,0.0847843,4,9
-1.20089,-1.04502,0.139275,2,10
-1.22213,-1.06313,0.198891,3,11
-1.72465,-1.49657,0.611848,1,15
-1.18705,-1.02717,0.0274003,1,8
-1.22052,-1.05576,0.0845749,3,9
-1.1953,-1.03322,0.138229,4,10
-1.21682,-1.05108,0.197428,4,11
-1.75301,-1.51103,0.62013,1,15
-1.21319,-1.04278,0.0279239,1,8
-1.21966,-1.04759,0.0842609,2,9
-1.21251,-1.04072,0.139798,5,10
-1.20825,-1.03669,0.195478,6,11
-1.23508,-1.05411,0.0283427,1,8
-1.22027,-1.04073,0.0840516,2,9
-1.22657,-1.04574,0.141018,4,10
-1.22093,-1.04019,0.196941,6,11
-1.22044,-1.03428,0.0279239,1,8
-1.21932,-1.03259,0.0837375,2,9
-1.22717,-1.03888,0.140669,3,10
-1.23061,-1.04105,0.197916,6,11
-2.86325,-2.42049,0.593825,2,12
-2.55819,-2.16184,0.65104,1,13
-1.22405,-1.03001,0.0279239,1,8
-1.21662,-1.0234,0.0833189,3,9
-1.20944,-1.01664,0.138229,2,10
-1.2312,-1.0342,0.197428,6,11
-2.87731,-2.41606,0.595077,4,12
-2.56873,-2.15542,0.651804,2,13
-2.33695,-1.95954,0.704097,1,14
-2.10532,-1.7647,0.736081,1,15
-1.25814,-1.0516,0.0286219,1,8
-1.24165,-1.03707,0.0847843,3,9
-1.2038,-1.00475,0.137183,4,10
-1.23767,-1.03265,0.197916,6,11
-2.88421,-2.40474,0.594764,5,12
-2.55626,-2.13055,0.646843,2,13
-2.34793,-1.95553,0.705446,1,14
-2.12186,-1.76599,0.739705,2,15
-1.26796,-1.05231,0.0287616,1,8
-1.25448,-1.04038,0.0854123,3,9
-1.21786,-1.00965,0.138403,4,10
-1.22293,-1.01313,0.194991,6,11
-2.89715,-2.39844,0.595703,8,12
-2.57427,-2.13038,0.649514,2,13
-2.35924,-1.95104,0.706796,1,14
-2.1161,-1.74872,0.735564,2,15
-1.25928,-1.0377,0.0284823,1,8
-1.25194,-1.03092,0.0849936,4,9
-1.22907,-1.01173,0.139275,4,10
-1.24332,-1.02273,0.197672,6,11
-2.90703,-2.38956,0.596015,10,12
-2.6636,-2.18868,0.670121,1,13
-2.36303,-1.94032,0.705896,1,14
-2.13414,-1.75113,0.739705,2,15
-1.28456,-1.05103,0.028971,1,8
-1.25553,-1.02654,0.0849936,4,9
-1.23414,-1.00869,0.139449,4,10
-1.24534,-1.01713,0.197428,3,11
-2.90771,-2.37316,0.594451,10,12
-2.6408,-2.15455,0.662489,1,13
-2.36375,-1.92714,0.704097,1,14
-2.12826,-1.73391,0.735564,2,15
-1.30374,-1.05915,0.02932,1,8
