x, y, z, intensity, ring
3.69106,17.395,4.10536,37,14
3.01303,14.1874,-0.253165,43,7
3.81772,17.961,4.92015,34,15
0.10503,0.491177,-0.134586,15,0
3.64923,17.0512,0.30437,63,8
0.131427,0.613576,-0.144868,25,1
4.88621,22.7921,1.22163,36,9
1.56301,7.29078,-1.44939,28,2
4.24585,19.7883,1.77066,30,10
1.83942,8.56552,-1.38757,25,3
3.79337,17.6494,2.21656,52,11
2.18126,10.1402,-1.27353,17,4
3.95431,18.367,2.9757,42,12
2.63095,12.2202,-1.09363,26,5
3.76739,17.484,3.47654,38,13
3.30859,15.3418,-0.822512,58,6
3.80069,17.6086,4.1589,27,14
3.04565,14.0986,-0.251768,94,7
3.851,17.8116,4.88288,34,15
0.113313,0.521011,-0.142868,14,0
3.7653,17.2983,0.309012,28,8
0.133983,0.615018,-0.145318,25,1
4.98233,22.851,1.22571,21,9
1.58636,7.27569,-1.44748,26,2
4.30726,19.7383,1.76752,10,10
1.86087,8.52045,-1.38132,27,3
3.88081,17.7543,2.23143,47,11
2.20604,10.084,-1.26744,16,4
4.00487,18.2913,2.96568,37,12
2.65825,12.1409,-1.08736,26,5
3.85487,17.5915,3.50058,42,13
3.35614,15.3028,-0.821047,71,6
3.85962,17.5839,4.1562,31,14
3.10771,14.1465,-0.252816,94,7
3.91564,17.8094,4.88599,16,15
0.115131,0.520613,-0.142868,14,0
3.51193,15.8675,0.283671,34,8
0.138658,0.625962,-0.148018,24,1
4.41062,19.895,1.06797,17,9
1.60325,7.23177,-1.43984,28,2
4.37095,19.6998,1.76543,29,10
1.88589,8.49269,-1.37787,26,3
3.9643,17.8376,2.24361,47,11
2.23563,10.051,-1.26427,17,4
4.05281,18.2059,2.95411,55,12
2.67723,12.0266,-1.07794,26,5
3.90302,17.5186,3.48875,28,13
3.37607,15.1409,-0.812987,35,6
3.13833,14.0516,-0.251315,100,7
3.98622,17.8333,4.89634,18,15
0.10932,0.486281,-0.133551,15,0
3.57608,15.8942,0.284369,8,8
0.141698,0.629277,-0.148918,24,1
4.45682,19.7926,1.06326,52,9
1.62502,7.21081,-1.43679,26,2
4.41822,19.5892,1.75689,18,10
1.91031,8.46293,-1.37412,23,3
5.02342,22.2364,2.7991,14,11
2.26457,10.0161,-1.26086,16,4
4.14671,18.3407,2.9782,42,12
2.71436,11.9958,-1.07602,28,5
3.96587,17.5125,3.49028,24,13
3.37371,14.8855,-0.799903,74,6
4.14049,18.254,4.32131,34,14
3.1796,14.0177,-0.250896,51,7
5.51653,24.3007,6.67701,15,15
0.107575,0.47083,-0.12941,15,0
3.62476,15.8647,0.284055,42,8
0.14335,0.626904,-0.148468,24,1
4.51162,19.7146,1.05991,16,9
1.64493,7.18213,-1.43221,23,2
4.48479,19.5659,1.75619,18,10
1.92777,8.41034,-1.36661,23,3
5.0279,21.9178,2.76107,21,11
2.28977,9.97368,-1.25647,15,4
4.29652,18.6996,3.0389,43,12
2.76113,12.0076,-1.07794,28,5
4.00149,17.4017,3.47082,16,13
3.42664,14.8898,-0.80074,87,6
4.20407,18.2534,4.32446,46,14
3.25052,14.102,-0.252606,43,7
5.67338,24.5937,6.76294,48,15
0.113501,0.489289,-0.134586,15,0
4.2784,18.429,0.330234,12,8
0.143332,0.616909,-0.146218,25,1
5.15263,22.1596,1.19232,22,9
1.66562,7.16325,-1.42954,26,2
4.54287,19.5218,1.75357,14,10
1.95129,8.37855,-1.36254,26,3
5.09988,21.8808,2.75863,77,11
2.3142,9.92116,-1.25087,24,4
4.3402,18.5921,3.02388,54,12
2.80138,12.0003,-1.07812,28,5
5.01982,21.4864,4.289,28,13
3.55408,15.2006,-0.818116,68,6
4.2713,18.2538,4.32806,37,14
4.04521,17.274,-0.309676,45,7
4.94326,21.0923,5.80479,70,15
0.114322,0.48513,-0.133551,15,0
4.34086,18.4062,0.330095,10,8
0.145037,0.614508,-0.145768,25,1
4.66522,19.7507,1.06357,7,9
1.68701,7.14211,-1.42649,23,2
4.81357,20.3629,1.83062,32,10
1.97507,8.34862,-1.35879,28,3
5.2055,21.9865,2.77423,42,11
2.33372,9.84928,-1.24282,35,4
4.37591,18.4539,3.00385,30,12
2.85061,12.0215,-1.08091,26,5
5.10295,21.5032,4.29587,11,13
3.61357,15.2153,-0.819581,87,6
4.3404,18.2615,4.33346,53,14
4.11243,17.2889,-0.310199,91,7
5.01775,21.0786,5.80583,13,15
0.116914,0.488485,-0.134586,15,0
4.40742,18.4006,0.330269,14,8
0.146727,0.612103,-0.145318,25,1
5.59653,23.3292,1.25732,22,9
1.6959,7.06936,-1.41313,26,2
4.84696,20.189,1.8165,38,10
2.00096,8.32823,-1.3566,27,3
6.11662,25.4385,3.21248,19,11
2.3653,9.8295,-1.24136,16,4
4.44539,18.4596,3.0073,36,12
2.88836,11.994,-1.07934,26,5
4.41348,18.3131,3.66162,27,13
3.67229,15.2259,-0.820837,68,6
4.15114,17.1851,-0.308593,45,7
5.1544,21.322,5.87778,11,15
0.114056,0.469302,-0.12941,15,0
5.63512,23.1689,0.416205,30,8
0.154854,0.636202,-0.151167,23,1
5.39668,22.1549,1.19504,14,9
1.71545,7.04241,-1.40893,23,2
6.22684,25.5436,2.30021,24,10
2.02534,8.302,-1.35347,27,3
6.22987,25.5173,3.22515,9,11
2.39629,9.80768,-1.23966,27,4
4.51074,18.4478,3.00792,24,12
2.92642,11.9684,-1.07794,26,5
4.47552,18.29,3.6601,33,13
3.69738,15.0985,-0.814662,55,6
7.86965,32.1121,7.63304,11,14
4.1911,17.0889,-0.307127,45,7
5.24261,21.3602,5.89331,5,15
0.119396,0.483906,-0.133551,15,0
5.70781,23.1161,0.415612,5,8
0.151464,0.612955,-0.145768,25,1
4.57643,18.5064,0.999093,4,9
1.73531,7.01732,-1.40512,26,2
4.9088,19.8356,1.78774,45,10
2.04292,8.24886,-1.34596,27,3
7.96166,32.1235,4.06361,13,11
2.42573,9.77999,-1.23722,15,4
4.5832,18.4645,3.01324,31,12
2.96003,11.9252,-1.07498,26,5
4.54596,18.3009,3.66544,30,13
3.70573,14.9072,-0.805032,65,6
5.30812,21.3373,5.07625,40,14
4.85894,19.5172,-0.351073,36,7
5.24801,21.0643,5.8167,10,15
0.122023,0.487234,-0.134586,15,0
4.45353,17.7696,0.319763,11,8
0.155499,0.619984,-0.147568,24,1
4.65073,18.529,1.00119,1,9
1.7641,7.02836,-1.40855,21,2
4.95423,19.7236,1.7792,33,10
2.06688,8.22252,-1.34283,23,3
6.17541,24.5491,3.10816,17,11
2.44968,9.73104,-1.2321,16,4
4.62735,18.368,3.0001,31,12
2.9846,11.8472,-1.06888,26,5
4.68277,18.5743,3.72345,39,13
3.7211,14.749,-0.797181,26,6
4.03549,15.9716,-0.287546,31,7
5.32625,21.0646,5.82188,31,15
0.131337,0.516762,-0.142868,14,0
4.65009,18.283,0.329292,20,8
0.158624,0.623214,-0.148468,24,1
1.77215,6.95747,-1.39558,26,2
5.08112,19.934,1.79977,27,10
2.08776,8.18463,-1.33783,22,3
5.12297,20.0689,2.54317,17,11
2.4743,9.68588,-1.22747,17,4
4.68752,18.3364,2.9976,39,12
3.01655,11.8,-1.06557,23,5
4.76851,18.6396,3.73986,16,13
3.86073,15.0803,-0.815813,68,6
5.51499,21.5262,5.13023,30,14
4.05249,15.8063,-0.284823,31,7
5.46599,21.3041,5.89331,16,15
0.125422,0.48637,-0.134586,15,0
4.55899,17.6665,0.318472,41,8
0.153976,0.596241,-0.142169,26,1
4.91191,19.0066,1.02882,9,9
1.80182,6.97216,-1.39977,23,2
5.1382,19.868,1.79541,30,10
2.11235,8.162,-1.33532,22,3
5.20194,20.0855,2.54756,28,11
2.50212,9.65413,-1.22454,19,4
4.74158,18.2817,2.99134,36,12
3.03622,11.7065,-1.05807,26,5
5.20444,20.0519,4.02683,20,13
3.71101,14.2877,-0.77363,65,6
6.10091,23.4721,5.59903,6,14
4.34624,16.7094,-0.301368,100,7
5.53449,21.2625,5.8871,5,15
4.58416,17.5112,0.315958,30,8
0.163464,0.623977,-0.148918,24,1
1.82217,6.95063,-1.39672,23,2
5.23229,19.9443,1.80395,42,10
2.13582,8.13547,-1.3322,23,3
5.27505,20.0787,2.54902,28,11
2.53126,9.62806,-1.22235,22,4
4.79414,18.2353,2.98633,28,12
3.05729,11.6207,-1.05127,26,5
5.26691,20.0051,4.02111,28,13
3.73541,14.1781,-0.768397,68,6
6.16542,23.3848,5.58329,6,14
4.44903,16.8747,-0.304614,100,7
5.6168,21.2888,5.89952,16,15
4.6499,17.5248,0.316482,48,8
0.164533,0.619664,-0.148018,24,1
5.0704,19.0828,1.03479,27,9
1.83935,6.91767,-1.39138,26,2
5.25987,19.7681,1.78966,33,10
2.15364,8.09398,-1.32656,23,3
6.2048,23.303,2.96094,8,11
2.55704,9.59659,-1.21942,19,4
6.12909,22.9864,3.76788,11,12
3.09322,11.5926,-1.0497,26,5
5.26995,19.7504,3.97341,26,13
3.80405,14.2466,-0.772793,61,6
6.24193,23.3604,5.58239,58,14
4.33642,16.2177,-0.293026,85,7
7.86722,29.402,8.15539,12,15
0.133433,0.496247,-0.137692,14,0
0.164161,0.609677,-0.145768,25,1
5.14529,19.0958,1.03646,37,9
1.86331,6.91532,-1.39214,26,2
5.30154,19.662,1.78164,41,10
2.17468,8.05971,-1.32218,26,3
5.53682,20.5061,2.608,6,11
2.57861,9.54353,-1.21382,19,4
5.38744,19.9252,3.26917,17,12
3.11968,11.538,-1.04569,26,5
5.45627,20.1659,4.0608,22,13
3.86107,14.2603,-0.774258,42,6
6.1043,22.5297,5.38893,29,14
4.15019,15.3069,-0.27683,40,7
5.64033,20.7886,5.77167,10,15
0.127034,0.465956,-0.12941,15,0
4.9095,17.9955,0.325592,10,8
0.165775,0.607221,-0.145318,25,1
4.98454,18.2454,0.991243,25,9
1.88123,6.88605,-1.38756,26,2
5.38118,19.6837,1.7853,41,10
2.1955,8.0254,-1.3178,27,3
5.60418,20.4714,2.60605,30,11
2.60143,9.49618,-1.20894,20,4
5.4841,20.0054,3.28544,19,12
3.15203,11.4982,-1.04308,24,5
5.56819,20.2982,4.09133,46,13
3.83099,13.9559,-0.758453,26,6
6.48125,23.5944,5.64897,33,14
4.21314,15.3271,-0.277458,100,7
5.70826,20.752,5.76701,27,15
0.133806,0.484131,-0.134586,15,0
4.98828,18.0361,0.326639,22,8
0.169453,0.612273,-0.146668,24,1
5.39788,19.4906,1.05991,41,9
1.89529,6.84349,-1.38031,26,2
5.47698,19.7628,1.79419,60,10
2.21875,8.00055,-1.31499,28,3
5.6724,20.4402,2.60459,12,11
2.62712,9.46027,-1.20553,24,4
7.93815,28.566,4.69585,3,12
3.17135,11.4123,-1.03628,24,5
5.61534,20.1935,4.07415,38,13
3.85719,13.8616,-0.754057,45,6
6.33984,22.7681,5.45641,49,14
4.24193,15.2237,-0.275853,64,7
6.68659,23.981,6.6708,42,15
4.38567,15.6444,0.283602,17,8
0.171063,0.609801,-0.146218,25,1
5.45077,19.4178,1.05698,31,9
1.91705,6.82927,-1.37879,26,2
5.54648,19.7454,1.79436,45,10
2.23971,7.96804,-1.31092,22,3
5.7534,20.4547,2.60898,30,11
2.65475,9.43193,-1.20309,23,4
5.71896,20.305,3.34113,20,12
3.19064,11.3283,-1.02966,24,5
5.67726,20.1435,4.06805,10,13
3.90664,13.8519,-0.754266,42,6
6.43568,22.804,5.47036,42,14
4.3483,15.3973,-0.279273,70,7
5.72901,20.2729,5.64484,14,15
0.131907,0.464601,-0.12941,15,0
4.30744,15.1616,0.27512,7,8
0.175855,0.618573,-0.148468,24,1
5.53601,19.4601,1.06033,23,9
1.94141,6.82443,-1.37917,23,2
5.60445,19.6876,1.79088,48,10
2.25615,7.92027,-1.30435,37,3
5.83892,20.4841,2.61532,24,11
2.68057,9.39779,-1.19993,33,4
3.21704,11.2711,-1.02547,24,5
6.26299,21.9283,4.43287,2,13
3.93027,13.7518,-0.749556,29,6
6.60527,23.0962,5.54594,44,14
4.35141,15.2052,-0.276062,72,7
5.83005,20.3586,5.67435,2,15
0.145278,0.504982,-0.140798,14,0
4.39188,15.256,0.277109,33,8
0.170461,0.591739,-0.142169,26,1
5.38705,18.6884,1.0193,7,9
1.96305,6.81006,-1.37764,26,2
5.67811,19.6852,1.79245,60,10
2.27283,7.87439,-1.29809,27,3
5.44879,18.8654,2.41106,10,11
2.70013,9.3426,-1.19408,22,4
5.87375,20.3102,3.34864,16,12
3.24585,11.2234,-1.02216,24,5
6.52069,22.5324,4.55957,2,13
4.08213,14.0967,-0.769129,68,6
7.96857,27.4996,6.60996,38,14
4.53755,15.6489,-0.284404,78,7
6.216,21.4235,5.97717,11,15
0.135147,0.463668,-0.12941,15,0
5.58619,19.1529,0.348245,12,8
0.172525,0.59114,-0.142169,26,1
1.98296,6.78998,-1.37497,26,2
5.76803,19.7379,1.79907,42,10
2.29974,7.86451,-1.29778,22,3
5.52074,18.8672,2.41374,10,11
2.72548,9.30836,-1.19091,30,4
5.96183,20.3483,3.35834,15,12
3.26372,11.1394,-1.01554,24,5
5.82935,19.8833,4.0276,4,13
3.97108,13.5362,-0.739298,32,6
8.03816,27.3819,6.58837,46,14
4.39038,14.9461,-0.271908,100,7
6.15291,20.9328,5.8462,28,15
0.141141,0.478016,-0.133551,15,0
5.219,17.6643,0.321508,10,8
0.17735,0.599878,-0.144419,25,1
5.33212,18.024,0.985067,16,9
1.99718,6.75101,-1.36848,23,2
5.81597,19.647,1.79262,30,10
2.3255,7.85076,-1.29684,21,3
5.82068,19.6377,2.5149,11,11
2.74723,9.26263,-1.18628,20,4
5.96312,20.0925,3.31954,7,12
3.29181,11.0916,-1.01223,22,5
5.91046,19.9023,4.03561,40,13
4.09283,13.773,-0.75301,19,6
8.15091,27.4116,6.60231,38,14
4.6005,15.4616,-0.281577,86,7
6.1631,20.7001,5.78719,23,15
0.142809,0.477521,-0.133551,15,0
5.20381,17.3893,0.316831,20,8
0.177766,0.593655,-0.143069,25,1
5.5131,18.3994,1.00663,45,9
2.0151,6.72519,-1.36467,26,2
5.85419,19.5254,1.78338,37,10
2.34097,7.80286,-1.29027,28,3
5.96168,19.8587,2.54585,23,11
2.7727,9.23016,-1.18335,22,4
6.83841,22.7503,3.76256,9,12
3.31674,11.0343,-1.00804,24,5
5.98215,19.8891,4.03714,22,13
4.19787,13.948,-0.763372,48,6
8.25215,27.4016,6.60681,9,14
4.82984,16.0275,-0.292188,100,7
10.0234,33.2409,9.30299,8,15
4.72104,15.5779,0.284125,13,8
0.182665,0.602355,-0.145318,25,1
5.57903,18.3858,1.00694,23,9
2.03514,6.70684,-1.36238,23,2
5.93909,19.5601,1.78844,30,10
2.35556,7.75306,-1.28339,26,3
5.96918,19.6346,2.51977,39,11
2.79796,9.19764,-1.18043,23,4
6.17688,20.2923,3.35959,20,12
3.35466,11.0207,-1.00787,24,5
6.13449,20.1404,4.09247,17,13
4.22731,13.8702,-0.759918,52,6
8.32786,27.3074,6.59107,28,14
4.9056,16.0756,-0.293375,100,7
9.83185,32.1988,9.02088,15,15
0.146139,0.476512,-0.133551,15,0
5.31159,17.3086,0.316028,20,8
0.180762,0.588674,-0.142169,26,1
5.56925,18.1257,0.993755,12,9
2.05277,6.68093,-1.35856,26,2
5.9242,19.2689,1.76368,39,10
2.37796,7.72968,-1.28089,27,3
5.96701,19.3841,2.49028,33,11
2.82304,9.16505,-1.1775,24,4
6.10164,19.7968,3.28106,29,12
3.38841,10.9937,-1.00647,24,5
6.19433,20.0851,4.0856,34,13
4.26746,13.8287,-0.758453,65,6
8.43982,27.3322,6.60411,38,14
4.97998,16.1176,-0.294457,100,7
9.94705,32.1735,9.02347,7,15
0.147802,0.475999,-0.133551,15,0
5.52623,17.7864,0.325103,34,8
0.186287,0.599205,-0.144868,25,1
2.06791,6.64748,-1.35322,23,2
5.91385,18.9989,1.74085,14,10
2.39612,7.69304,-1.27619,31,3
5.86158,18.8078,2.41886,41,11
2.84201,9.11345,-1.17214,27,4
6.2166,19.9225,3.30546,33,12
3.41786,10.9533,-1.00386,21,5
6.24334,19.9959,4.07186,16,13
4.29426,13.745,-0.754685,61,6
6.92221,22.143,5.35608,11,14
5.08756,16.2643,-0.297459,77,7
6.7389,21.5302,6.04498,2,15
0.150621,0.479166,-0.134586,15,0
5.59789,17.7976,0.325662,26,8
0.188378,0.598551,-0.144868,25,1
5.70946,18.1302,0.996163,22,9
2.08403,6.61775,-1.34864,23,2
6.00468,19.056,1.748,29,10
2.41702,7.66579,-1.27306,27,3
5.99528,19.0031,2.44665,5,11
2.86066,9.06183,-1.16678,27,4
3.44348,10.9014,-1.0002,23,5
6.30838,19.959,4.06881,24,13
4.30487,13.6119,-0.748195,35,6
6.97536,22.0425,5.33764,5,14
5.28737,16.6982,-0.305731,38,7
6.3017,19.8896,5.59049,24,15
0.152293,0.478637,-0.134586,15,0
5.71701,17.957,0.328943,60,8
0.184551,0.579322,-0.140369,26,1
5.77575,18.1196,0.996686,11,9
2.09996,6.58799,-1.34406,26,2
6.04452,18.9514,1.74033,45,10
2.43295,7.62344,-1.26743,28,3
6.19021,19.3848,2.49857,33,11
2.88321,9.02342,-1.16312,27,4
7.57429,23.6906,3.93933,12,12
3.46876,10.8495,-0.996539,17,5
4.26408,13.321,-0.733017,35,6
8.74457,27.3017,6.61851,38,14
5.53909,17.2833,-0.316796,82,7
6.37758,19.8877,5.59619,18,15
0.152778,0.474425,-0.133551,15,0
5.71648,17.7409,0.325348,28,8
0.19315,0.599076,-0.145318,25,1
2.12054,6.57314,-1.34253,26,2
6.12655,18.9795,1.74486,43,10
2.44133,7.55851,-1.25805,27,3
8.28152,25.6248,3.30656,10,11
2.90213,8.97981,-1.15873,27,4
7.63337,23.6052,3.92932,12,12
3.4968,10.807,-0.99375,17,5
7.20165,22.2436,4.54469,13,13
4.28346,13.2224,-0.728412,35,6
8.83927,27.2855,6.62166,47,14
5.38117,16.601,-0.304614,61,7
6.46376,19.9289,5.61379,14,15
0.165119,0.50698,-0.142868,14,0
5.80688,17.8188,0.327128,48,8
0.189094,0.579905,-0.140819,26,1
5.88898,18.06,0.995535,9,9
2.14171,6.56421,-1.34215,26,2
6.289,19.264,1.77292,18,10
2.46148,7.53535,-1.25554,31,3
9.28659,28.4124,3.67022,12,11
2.92696,8.95504,-1.15678,23,4
6.49091,19.8473,3.30734,36,12
3.51651,10.7461,-0.989218,19,5
6.65774,20.3333,4.15887,8,13
4.29744,13.117,-0.723388,35,6
8.93698,27.2783,6.62706,38,14
6.01052,18.335,-0.336797,36,7
6.55209,19.9753,5.63294,21,15
0.166799,0.506429,-0.142868,14,0
5.84967,17.7501,0.32622,40,8
0.194067,0.588528,-0.143069,25,1
2.16162,6.55148,-1.34101,23,2
6.47965,19.6271,1.80831,31,10
2.48707,7.52902,-1.25586,27,3
6.58298,19.9167,2.57559,12,11
2.94137,8.89389,-1.1502,24,4
6.62221,20.012,3.33862,10,12
3.54398,10.7035,-0.986429,21,5
7.35766,22.2215,4.55003,13,13
4.3428,13.1084,-0.723702,35,6
7.22818,21.8049,5.30345,22,14
5.56519,16.7784,-0.308559,83,7
7.2248,21.7693,6.14592,9,15
0.152767,0.458165,-0.12941,15,0
6.95526,20.8597,0.383813,15,8
0.19242,0.576756,-0.140369,26,1
6.33745,18.9847,1.04892,26,9
2.18064,6.52862,-1.33795,26,2
6.55596,19.6165,1.80953,7,10
2.50713,7.49737,-1.2521,26,3
6.64049,19.8579,2.57096,5,11
2.96358,8.85721,-1.14679,27,4
6.66945,19.9213,3.32736,19,12
3.56803,10.6514,-0.982768,23,5
6.77145,20.2026,4.1417,23,13
4.40034,13.1208,-0.725272,35,6
7.65274,22.8055,5.55359,12,14
5.61226,16.7248,-0.30793,99,7
8.43709,25.1283,7.10251,9,15
0.154365,0.457629,-0.12941,15,0
6.58979,19.5248,0.359694,11,8
0.200768,0.594509,-0.144868,25,1
6.42477,19.0249,1.05237,20,9
2.19588,6.49864,-1.33337,26,2
9.51703,28.1492,2.59968,7,10
2.52569,7.46612,-1.24835,25,3
6.69414,19.777,2.56364,23,11
2.98966,8.82749,-1.14435,22,4
6.72311,19.8512,3.31954,17,12
3.59048,10.5954,-0.978759,23,5
6.88038,20.2922,4.16498,10,13
4.44804,13.111,-0.725586,35,6
9.22189,27.1668,6.62346,47,14
5.07218,14.9422,-0.275434,88,7
6.71306,19.7647,5.59308,4,15
0.1622,0.475371,-0.134586,15,0
6.1521,18.0304,0.332538,6,8
0.20022,0.586463,-0.143069,25,1
6.53439,19.129,1.05938,32,9
2.21664,6.48537,-1.33223,26,2
6.41037,18.7445,1.73318,28,10
2.53957,7.42593,-1.24303,27,3
6.75904,19.7528,2.5634,23,11
3.00476,8.77621,-1.13899,23,4
6.79685,19.8407,3.32173,36,12
3.60418,10.515,-0.972484,23,5
7.02784,20.5033,4.21306,24,13
4.49927,13.1189,-0.726842,35,6
9.33913,27.2153,6.6428,38,14
5.70031,16.602,-0.306394,100,7
6.76947,19.7046,5.58273,9,15
0.157476,0.456568,-0.12941,15,0
6.71862,19.4681,0.359485,2,8
0.197813,0.572867,-0.13992,26,1
6.63039,19.2016,1.06462,30,9
2.22916,6.452,-1.32689,28,2
6.46793,18.71,1.73196,31,10
2.55966,7.40022,-1.24021,27,3
6.85003,19.7929,2.57169,35,11
3.03019,8.75066,-1.13704,20,4
6.86131,19.8143,3.3211,50,12
3.63186,10.4823,-0.970566,19,5
7.3013,21.0611,4.33289,11,13
4.52409,13.0427,-0.723492,32,6
7.89931,22.7605,5.56214,6,14
5.76124,16.6,-0.306709,83,7
6.82526,19.6547,5.57496,27,15
0.159069,0.456016,-0.12941,15,0
6.12057,17.5463,0.32437,6,8
0.195217,0.559329,-0.13677,13,1
7.36375,21.0866,1.17055,17,9
2.24973,6.43862,-1.32574,28,2
6.53583,18.6948,1.73266,14,10
2.57832,7.37491,-1.2374,25,3
7.50159,21.4452,2.78959,14,11
3.04345,8.69559,-1.13119,20,4
3.66053,10.447,-0.968475,23,5
7.21659,20.5958,4.24207,24,13
4.56071,13.0088,-0.722446,26,6
7.96313,22.701,5.55404,25,14
5.78141,16.4722,-0.304719,100,7
0.167169,0.473647,-0.134586,15,0
7.18403,20.3435,0.376588,42,8
0.205803,0.582461,-0.142619,26,1
6.70839,18.9755,1.05478,12,9
2.272,6.42663,-1.32498,26,2
6.60032,18.6594,1.73161,7,10
2.60332,7.35564,-1.23583,27,3
7.06769,19.9585,2.59972,24,11
3.06554,8.65204,-1.12705,31,4
7.67961,21.6625,3.64023,10,12
3.67882,10.3771,-0.963245,22,5
7.38356,20.8159,4.2932,26,13
4.58724,12.9253,-0.718782,29,6
8.07502,22.7401,5.57114,6,14
5.83189,16.4141,-0.304056,100,7
7.03063,19.7771,5.62414,14,15
0.175314,0.491255,-0.139762,14,0
6.40234,17.9303,0.332329,22,8
0.211769,0.59275,-0.145318,25,1
6.76584,18.9275,1.05342,43,9
2.28253,6.38538,-1.31811,26,2
6.65736,18.6138,1.72952,45,10
2.62366,7.33163,-1.23333,25,3
7.13932,19.9394,2.60045,24,11
3.08568,8.61325,-1.12339,20,4
7.68587,21.4422,3.60769,48,12
3.68947,10.293,-0.956621,22,5
7.39188,20.6107,4.25619,29,13
4.59928,12.8171,-0.713653,32,6
7.61306,21.2041,5.20132,5,14
6.02368,16.7682,-0.311002,100,7
7.09308,19.7342,5.61896,4,15
0.171783,0.476102,-0.135621,15,0
7.60157,21.0565,0.390759,17,8
0.210526,0.582843,-0.143069,25,1
6.78582,18.7866,1.04682,52,9
2.30213,6.36999,-1.31658,26,2
6.97908,19.3005,1.79558,18,10
2.63915,7.29456,-1.22864,25,3
7.12307,19.6773,2.56949,41,11
3.11033,8.58749,-1.12144,24,4
7.71589,21.3033,3.58861,8,12
3.72402,10.2763,-0.956273,22,5
7.44371,20.5294,4.24474,49,13
4.62424,12.7465,-0.710618,29,6
8.19634,22.5806,5.54594,25,14
6.08334,16.7594,-0.311211,99,7
7.81664,21.5228,6.13556,9,15
0.17212,0.47187,-0.134586,15,0
7.45345,20.4338,0.37966,23,8
0.215798,0.591295,-0.145318,25,1
6.86369,18.7966,1.04871,33,9
2.32503,6.36376,-1.31696,28,2
7.83511,21.4336,1.99656,23,10
2.65519,7.26351,-1.22488,27,3
7.19237,19.6647,2.57096,35,11
3.12787,8.5473,-1.11754,16,4
8.40215,22.9475,3.8705,27,12
3.74616,10.2258,-0.952787,22,5
7.52458,20.5397,4.25199,29,13
4.64174,12.6636,-0.70685,42,6
8.27185,22.5551,5.54639,31,14
5.64859,15.3939,-0.286219,15,7
7.20861,19.6347,5.60447,24,15
0.173684,0.471297,-0.134586,15,0
7.51019,20.3682,0.378927,30,8
0.211791,0.574083,-0.141269,13,1
7.29998,19.7874,1.10534,12,9
2.33796,6.33392,-1.31238,26,2
7.91581,21.4337,1.999,38,10
2.6819,7.2579,-1.22551,28,3
7.26924,19.6618,2.57388,17,11
3.14322,8.49724,-1.11242,16,4
8.29041,22.4119,3.78478,11,12
3.7759,10.2021,-0.951741,22,5
7.58805,20.4912,4.24741,11,13
4.67481,12.6174,-0.705175,29,6
7.89128,21.2872,5.24136,27,14
5.70726,15.3957,-0.286603,47,7
7.28308,19.6361,5.61171,7,15
0.168584,0.452584,-0.12941,15,0
7.51906,20.1858,0.375995,57,8
0.213013,0.571552,-0.140819,26,1
7.50995,20.1399,1.12648,9,9
2.35113,6.3018,-1.30742,26,2
7.46104,19.9873,1.86653,33,10
2.70112,7.23601,-1.22332,28,3
7.35036,19.6804,2.57949,30,11
3.16235,8.46259,-1.10925,17,4
8.45922,22.6252,3.82576,26,12
3.78845,10.1273,-0.945988,24,5
7.62568,20.385,4.23062,18,13
4.69702,12.5494,-0.702244,29,6
7.96524,21.2701,5.24361,22,14
5.76658,15.3907,-0.286883,39,7
8.27383,22.0706,6.3157,6,15
0.178248,0.47372,-0.135621,15,0
7.63669,20.2848,0.378333,52,8
0.217754,0.5781,-0.142619,26,1
7.58866,20.136,1.12774,7,9
2.36925,6.28662,-1.3059,26,2
7.6974,20.4136,1.90871,39,10
2.71311,7.19142,-1.21737,26,3
7.63353,20.2229,2.65407,12,11
3.18696,8.4385,-1.10755,19,4
3.80793,10.0774,-0.942502,22,5
7.69333,20.3491,4.22871,40,13
4.71466,12.4638,-0.698371,35,6
8.01392,21.1747,5.22696,5,14
5.82239,15.376,-0.286987,7,7
7.47748,19.7365,5.6552,11,15
0.179901,0.473095,-0.135621,15,0
7.68681,20.2038,0.377321,54,8
0.216304,0.56823,-0.140369,26,1
7.68877,20.1877,1.13213,18,9
2.38559,6.26364,-1.30284,26,2
7.75653,20.355,1.90575,70,10
2.72553,7.14868,-1.21174,27,3
8.51135,22.3124,2.93218,15,11
3.21074,8.41249,-1.1056,19,4
8.26604,21.6466,3.66995,9,12
3.83527,10.0436,-0.940585,22,5
7.74119,20.2616,4.21612,27,13
4.73103,12.3764,-0.694394,35,6
8.0857,21.1411,5.22561,53,14
6.04683,15.802,-0.29533,31,7
7.56981,19.7716,5.6728,7,15
0.180165,0.468857,-0.134586,15,0
0.210591,0.547464,-0.135421,27,1
7.51456,19.5252,1.09644,35,9
2.39757,6.22962,-1.2975,26,2
7.94639,20.6365,1.93468,40,10
2.74124,7.11516,-1.20767,26,3
8.56062,22.2085,2.92243,7,11
3.22365,8.35863,-1.09999,22,4
8.35791,21.66,3.67715,11,12
3.85883,10.0004,-0.937796,22,5
7.85783,20.3535,4.24092,15,13
4.75693,12.3151,-0.691881,32,6
8.16577,21.1291,5.22966,60,14
6.08897,15.7472,-0.294701,69,7
7.66527,19.8135,5.69247,14,15
0.19159,0.493438,-0.141833,14,0
7.24332,18.6454,0.349153,22,8
0.217442,0.55944,-0.13857,13,1
7.55516,19.4281,1.09246,52,9
2.41432,6.2084,-1.29483,28,2
8.00465,20.5733,1.93137,36,10
2.76032,7.09083,-1.20517,25,3
7.82183,20.0827,2.64627,19,11
3.22686,8.28074,-1.09122,22,4
8.37964,21.4927,3.65368,8,12
3.88358,9.96086,-0.935355,22,5
7.93097,20.3314,4.24207,22,13
4.77303,12.2296,-0.688009,29,6
8.25152,21.1314,5.23731,44,14
6.15991,15.7668,-0.295469,62,7
7.7161,19.7399,5.67901,28,15
0.183434,0.467588,-0.134586,15,0
7.35293,18.7336,0.351282,24,8
0.215832,0.549608,-0.13632,27,1
7.6149,19.3811,1.09131,28,9
2.43382,6.19446,-1.29369,26,2
8.05965,20.5026,1.92736,30,10
2.78289,7.07563,-1.20423,25,3
8.49739,21.594,2.84931,15,11
3.24702,8.24727,-1.08829,27,4
8.46257,21.4835,3.65713,24,12
3.90983,9.92061,-0.932915,24,5
8.02277,20.3566,4.25313,2,13
4.78564,12.1366,-0.683717,32,6
8.31093,21.0662,5.22831,49,14
6.20831,15.7285,-0.295155,93,7
7.7665,19.6661,5.66555,26,15
0.19654,0.495646,-0.142868,14,0
6.66422,16.8062,0.315574,1,8
0.222061,0.55972,-0.13902,26,1
7.91609,19.9429,1.12449,18,9
2.45071,6.1709,-1.29063,26,2
7.93389,19.9674,1.87978,34,10
2.80515,7.05621,-1.20267,28,3
8.13565,20.4648,2.70404,13,11
3.26258,8.20268,-1.08391,27,4
8.56672,21.5273,3.66964,24,12
3.92454,9.85692,-0.928209,22,5
8.68292,21.7971,4.56072,22,13
4.81456,12.0801,-0.681519,32,6
8.38664,21.032,5.22741,49,14
6.34687,15.9166,-0.299099,100,7
7.80648,19.5671,5.64484,14,15
0.193959,0.484197,-0.139762,14,0
6.71163,16.7464,0.314911,31,8
0.220485,0.549859,-0.13677,13,1
7.89766,19.6858,1.11162,63,9
2.46858,6.1532,-1.28872,26,2
7.92636,19.7473,1.86165,16,10
2.81946,7.02071,-1.19829,30,3
8.12771,20.2285,2.67674,32,11
3.27412,8.14462,-1.07781,27,4
8.51658,21.175,3.61489,17,12
3.94777,9.81544,-0.925594,20,5
8.80439,21.8796,4.58438,30,13
4.84775,12.041,-0.680263,32,6
8.50442,21.1128,5.25486,27,14
6.2452,15.4963,-0.29163,100,7
8.47631,21.0219,6.07345,15,15
0.207242,0.51217,-0.148044,13,0
0.222402,0.549086,-0.13677,27,1
7.86357,19.4045,1.09728,35,9
2.49004,6.14454,-1.28872,26,2
8.01397,19.7657,1.866,49,10
2.84024,7.00167,-1.19672,31,3
8.14303,20.0639,2.6587,31,11
3.29431,8.11291,-1.07513,24,4
8.63431,21.2531,3.63335,23,12
3.95951,9.74622,-0.920365,20,5
8.91916,21.9433,4.60422,11,13
4.88148,12.0036,-0.679111,32,6
8.57439,21.074,5.25261,55,14
6.29398,15.4615,-0.291385,100,7
8.50228,20.8758,6.0398,11,15
0.191487,0.468525,-0.135621,15,0
7.25071,17.7319,0.334388,30,8
0.224318,0.548306,-0.13677,13,1
7.932,19.3788,1.09738,31,9
2.50627,6.1231,-1.28605,23,2
8.10631,19.7948,1.87141,28,10
2.85567,6.96978,-1.19297,30,3
8.25217,20.1309,2.67138,13,11
3.31357,8.07932,-1.07221,20,4
8.6627,21.1114,3.61426,31,12
3.98519,9.71206,-0.918447,22,5
9.01286,21.9538,4.613,8,13
4.89603,11.92,-0.675343,32,6
8.65901,21.071,5.25936,22,14
6.31294,15.3543,-0.28978,100,7
8.46706,20.5834,5.96371,11,15
0.19607,0.474996,-0.137692,14,0
7.2515,17.5586,0.331596,54,8
0.227719,0.551122,-0.13767,13,1
8.01791,19.3952,1.09989,24,9
2.52163,6.09979,-1.283,23,2
8.20887,19.8473,1.87908,34,10
2.88225,6.96525,-1.19391,28,3
8.27302,19.9827,2.65553,12,11
3.33112,8.04203,-1.06879,24,4
8.67432,20.9314,3.58861,51,12
4.00533,9.66497,-0.91531,22,5
9.50299,22.9196,4.82289,33,13
4.92843,11.8807,-0.674087,35,6
9.33237,22.4859,5.62063,26,14
6.31664,15.2122,-0.287511,86,7
8.41138,20.2469,5.87468,19,15
0.185834,0.445779,-0.12941,15,0
7.39125,17.7215,0.335156,23,8
0.229641,0.550323,-0.13767,13,1
7.53456,18.0562,1.02537,6,9
2.53912,6.08189,-1.28109,26,2
8.31725,19.9123,1.88797,21,10
2.89436,6.92598,-1.1889,43,3
8.35575,19.9849,2.65968,31,11
3.34997,8.00838,-1.06587,16,4
8.90453,21.287,3.65462,18,12
4.01828,9.6013,-0.910603,20,5
9.2076,21.9899,4.63399,2,13
4.96446,11.8505,-0.673354,32,6
9.08236,21.6696,5.42447,24,14
6.30367,15.0399,-0.284649,86,7
8.49267,20.2527,5.88451,30,15
8.47802,20.1389,0.381405,25,8
0.232221,0.551355,-0.13812,27,1
8.45611,20.0672,1.14124,54,9
2.55881,6.06938,-1.28033,26,2
8.38284,19.874,1.8871,38,10
2.90733,6.89268,-1.18483,27,3
8.65198,20.5021,2.73231,40,11
3.37265,7.98808,-1.06465,17,4
9.00108,21.3086,3.6637,18,12
4.04246,9.56519,-0.908511,20,5
9.30417,22.0153,4.64582,8,13
4.97418,11.7641,-0.669377,29,6
9.13367,21.5909,5.41232,24,14
6.3234,14.9405,-0.283183,86,7
8.58515,20.2745,5.89952,22,15
0.196418,0.462284,-0.134586,15,0
7.50546,17.656,0.334877,23,8
0.236433,0.555921,-0.13947,13,1
8.5054,19.9986,1.13894,30,9
2.57277,6.04641,-1.27728,23,2
8.45339,19.8571,1.88814,46,10
2.92596,6.86977,-1.18264,27,3
8.70325,20.4243,2.72597,33,11
3.39273,7.958,-1.06221,20,4
9.05155,21.2313,3.65556,24,12
4.06087,9.52058,-0.905548,20,5
9.41099,22.0531,4.6607,2,13
4.98228,11.6695,-0.664981,35,6
11.1128,26.0158,6.53123,9,14
6.2865,14.7171,-0.279343,86,7
8.76925,20.5195,5.97924,17,15
0.205647,0.479349,-0.139762,14,0
7.5545,17.609,0.334458,48,8
0.233663,0.544389,-0.13677,13,1
8.45852,19.6972,1.12344,43,9
2.58999,6.02837,-1.27537,26,2
8.58874,19.9812,1.90278,25,10
2.93858,6.83644,-1.17858,26,3
8.78505,20.4281,2.73036,33,11
3.40969,7.92482,-1.05929,19,4
9.10843,21.1597,3.64868,8,12
4.07989,9.47341,-0.902411,20,5
9.5299,22.1282,4.68322,14,13
5.00198,11.6089,-0.662469,35,6
10.1097,23.452,5.89597,29,14
6.28002,14.5611,-0.276795,88,7
8.70153,20.166,5.88503,19,15
0.198025,0.457391,-0.133551,15,0
7.65725,17.6779,0.336273,51,8
0.234787,0.541782,-0.13632,27,1
8.50657,19.6199,1.12072,33,9
2.60685,6.01254,-1.27384,23,2
8.81907,20.331,1.93887,36,10
2.95613,6.81164,-1.17607,27,3
8.83259,20.3427,2.72305,6,11
3.42467,7.88374,-1.05539,27,4
10.5215,24.2094,4.18087,5,12
4.09858,9.43059,-0.899622,20,5
9.97894,22.95,4.86448,25,13
5.0345,11.573,-0.661422,29,6
9.52504,21.8852,5.5104,18,14
6.33161,14.5409,-0.27683,88,7
8.77496,20.1426,5.8871,19,15
0.193431,0.442535,-0.12941,15,0
0.242144,0.553457,-0.13947,13,1
8.62145,19.6962,1.12679,16,9
2.61601,5.97643,-1.26812,26,2
8.91557,20.3585,1.94444,18,10
2.97672,6.79404,-1.17482,26,3
8.91868,20.3463,2.72768,13,11
3.445,7.85538,-1.05319,24,4
11.5354,26.2908,4.54724,9,12
4.11066,9.36879,-0.895089,20,5
10.0629,22.924,4.86639,12,13
5.05479,11.5097,-0.658805,32,6
9.55435,21.7448,5.48341,31,14
6.3952,14.548,-0.277389,88,7
8.98209,20.423,5.9782,20,15
7.59393,17.2015,0.32821,30,8
0.248799,0.563304,-0.142169,26,1
8.79429,19.9017,1.1403,46,9
2.63288,5.95828,-1.26621,23,2
9.05506,20.4821,1.95926,37,10
2.98364,6.74568,-1.16825,30,3
9.02981,20.4058,2.73987,20,11
3.46115,7.81789,-1.04978,27,4
10.6111,23.9566,4.14989,11,12
4.12397,9.31066,-0.890906,20,5
10.4976,23.6893,5.03659,6,13
5.0747,11.4463,-0.656188,35,6
9.6531,21.763,5.49645,12,14
6.45325,14.542,-0.277703,88,7
9.06745,20.4233,5.98752,11,15
0.212237,0.476468,-0.139762,14,0
7.63438,17.131,0.327372,56,8
0.238067,0.533954,-0.134971,28,1
8.79129,19.7085,1.13098,19,9
2.65207,5.94547,-1.26545,23,2
9.21256,20.6433,1.97774,50,10
3.00556,6.73161,-1.16763,28,3
9.24915,20.7058,2.78447,14,11
3.48518,7.79851,-1.04881,22,4
10.6382,23.7932,4.12799,22,12
4.14344,9.26711,-0.888117,19,5
10.5626,23.6131,5.0282,30,13
5.0877,11.3684,-0.652734,35,6
9.71787,21.7042,5.49016,18,14
6.51705,14.5486,-0.278261,88,7
9.16396,20.448,6.00408,17,15
0.21073,0.468677,-0.137692,14,0
7.67527,17.0623,0.326569,72,8
0.233531,0.518904,-0.131371,14,1
8.73949,19.41,1.11559,31,9
2.66877,5.92723,-1.26354,26,2
9.23711,20.5056,1.96763,18,10
3.01443,6.68866,-1.162,33,3
9.92354,22.0089,2.96435,8,11
3.50422,7.7682,-1.04637,27,4
10.6538,23.6064,4.10203,30,12
4.16507,9.22462,-0.885502,19,5
10.6183,23.517,5.01561,33,13
5.10845,11.3087,-0.650327,35,6
10.8842,24.0835,6.10157,24,14
6.55543,14.4984,-0.277738,88,7
9.28147,20.518,6.03411,5,15
0.215641,0.474937,-0.139762,14,0
0.243401,0.535828,-0.13587,13,1
8.80141,19.3667,1.11486,57,9
2.67423,5.88166,-1.2559,35,2
9.29405,20.4317,1.96379,18,10
3.03892,6.67757,-1.162,31,3
9.974,21.9163,2.95655,16,11
3.51156,7.71257,-1.04052,23,4
10.7304,23.5565,4.09983,33,12
4.18734,9.18827,-0.883411,19,5
10.7297,23.5333,5.02744,37,13
5.14074,11.2699,-0.649175,32,6
11.021,24.1498,6.12857,40,14
6.57612,14.41,-0.276481,72,7
10.2934,22.545,6.64078,26,15
0.201201,0.439057,-0.12941,15,0
8.66889,18.9083,0.36308,38,8
0.251862,0.549102,-0.13947,13,1
2.69638,5.87586,-1.25667,26,2
9.31212,20.2833,1.95264,45,10
3.05314,6.64717,-1.15855,26,3
10.7016,23.2884,3.14691,36,11
3.52655,7.67078,-1.03662,24,4
10.8117,23.5171,4.09952,33,12
4.20107,9.13378,-0.879576,19,5
10.7748,23.4154,5.01026,30,13
5.16669,11.2229,-0.647501,32,6
11.1468,24.2015,6.15151,56,14
6.5904,14.3088,-0.27498,80,7
10.3421,22.4441,6.62163,15,15
0.218952,0.47342,-0.139762,14,0
8.75253,18.9249,0.363952,9,8
0.255319,0.551802,-0.140369,26,1
2.71853,5.86997,-1.25743,26,2
9.36275,20.2073,1.94845,18,10
3.07101,6.62805,-1.15699,30,3
10.1393,21.8732,2.96021,16,11
3.55113,7.65725,-1.03638,26,4
10.8738,23.4362,4.09201,33,12
4.20524,9.05942,-0.873823,19,5
10.621,22.881,4.90341,15,13
5.16938,11.1314,-0.643209,39,6
11.273,24.2634,6.17671,57,14
6.60322,14.2059,-0.273444,73,7
0.22542,0.483196,-0.142868,14,0
8.85997,18.983,0.365663,11,8
0.253945,0.543844,-0.13857,13,1
9.14069,19.5666,1.13182,30,9
2.73466,5.85381,-1.2559,26,2
10.4597,22.38,2.16129,22,10
3.09162,6.61192,-1.15605,28,3
10.2114,21.8287,2.95899,8,11
3.57026,7.62862,-1.03418,24,4
10.8969,23.2729,4.07011,28,12
4.21487,8.99777,-0.869291,19,5
10.7091,22.8615,4.90723,28,13
5.19295,11.0807,-0.641325,35,6
11.3501,24.208,6.17266,41,14
6.61456,14.1013,-0.271874,89,7
11.0435,23.5326,6.96534,17,15
0.22719,0.482366,-0.142868,14,0
8.89892,18.894,0.364546,4,8
0.250858,0.532377,-0.13587,13,1
9.34518,19.8236,1.14857,18,9
2.75274,5.83665,-1.25438,26,2
12.0023,25.4371,2.46076,13,10
3.11162,6.59162,-1.15449,26,3
10.3917,22.0137,2.98897,24,11
3.58076,7.58201,-1.02955,27,4
10.946,23.1669,4.05822,31,12
4.24454,8.9794,-0.868943,19,5
10.8877,23.0227,4.95035,35,13
5.21559,11.0237,-0.639127,35,6
11.5689,24.441,6.24284,41,14
6.62866,14.0041,-0.270442,81,7
11.0255,23.2826,6.9027,33,15
0.223897,0.471102,-0.139762,14,0
8.40481,17.6766,0.341648,21,8
0.252808,0.531454,-0.13587,13,1
9.41606,19.7856,1.14836,16,9
2.76213,5.80396,-1.24942,26,2
11.0453,23.1986,2.24792,23,10
3.12696,6.56466,-1.15167,27,3
10.4783,21.988,2.99067,41,11
3.59998,7.55092,-1.02711,27,4
11.0172,23.0981,4.05322,26,12
4.26128,8.93396,-0.865979,19,5
10.9883,23.0271,4.95951,32,13
5.24027,10.9766,-0.637452,35,6
11.5012,24.0804,6.16096,40,14
6.6196,13.8534,-0.267999,82,7
11.1258,23.2734,6.91202,24,15
0.208833,0.435479,-0.12941,15,0
7.9198,16.5077,0.319588,13,8
0.251288,0.523541,-0.134071,14,1
9.00005,18.7426,1.08963,8,9
2.77387,5.77658,-1.2456,26,2
9.54649,19.8716,1.92876,17,10
3.15243,6.55905,-1.15261,23,3
10.598,22.0407,3.00286,8,11
3.62718,7.54009,-1.02736,28,4
11.0558,22.9723,4.03789,28,12
4.25096,8.83286,-0.857612,21,5
11.0524,22.955,4.95226,35,13
5.26035,10.9204,-0.635254,29,6
11.5497,23.9664,6.14206,40,14
6.62883,13.7491,-0.266428,90,7
11.2321,23.2866,6.92755,34,15
8.2309,17.0037,0.329746,10,8
0.266704,0.550723,-0.141269,13,1
9.5453,19.7103,1.14773,22,9
2.78204,5.74213,-1.24026,26,2
9.60276,19.8113,1.92614,8,10
3.16324,6.52312,-1.14823,22,3
10.642,21.9357,2.9936,16,11
3.64741,7.51488,-1.02565,30,4
11.1414,22.955,4.04133,26,12
4.26089,8.77495,-0.853429,19,5
10.9352,22.5101,4.86448,34,13
5.27836,10.8607,-0.632846,32,6
11.6537,23.968,6.15286,40,14
6.6534,13.6839,-0.265591,90,7
11.4175,23.4716,6.99381,8,15
0.222038,0.454843,-0.135621,15,0
8.39778,17.2028,0.334144,24,8
0.256556,0.525321,-0.134971,14,1
9.19845,18.8262,1.09811,12,9
2.79689,5.7218,-1.23797,26,2
10.8937,22.2763,2.16948,5,10
3.18138,6.5055,-1.14698,22,3
10.685,21.8397,2.98531,16,11
3.66096,7.47957,-1.02248,28,4
11.1884,22.8486,4.02944,28,12
4.29588,8.76897,-0.854301,19,5
11.1108,22.68,4.90913,34,13
5.28973,10.7929,-0.629916,32,6
11.7477,23.959,6.16051,32,14
6.66414,13.5852,-0.264125,90,7
12.0262,24.5051,7.31423,19,15
0.226958,0.461037,-0.137692,14,0
8.43481,17.1267,0.333236,48,8
0.261834,0.531414,-0.13677,27,1
9.87961,20.0515,1.17149,9,9
2.81845,5.71777,-1.23911,26,2
10.9341,22.1721,2.16286,22,10
3.20407,6.49435,-1.14698,22,3
10.7594,21.7987,2.98482,8,11
3.6642,7.42047,-1.01615,24,4
11.2685,22.8202,4.031,31,12
4.32758,8.76004,-0.854824,17,5
11.1238,22.5073,4.88013,34,13
5.29551,10.7099,-0.626147,37,6
11.916,24.089,6.2046,49,14
6.66925,13.4824,-0.262554,92,7
12.0482,24.3456,7.27851,23,15
0.240596,0.484465,-0.144939,14,0
8.56627,17.2491,0.336168,38,8
0.263595,0.530543,-0.13677,13,1
9.79309,19.7022,1.15307,39,9
2.82878,5.68857,-1.23492,26,2
11.6761,23.4699,2.29342,12,10
3.21503,6.46247,-1.14322,26,3
11.189,22.4809,3.08329,43,11
3.68348,7.39761,-1.01468,24,4
11.386,22.8568,4.04446,31,12
4.32969,8.68781,-0.849246,17,5
11.3122,22.6987,4.92974,32,13
5.3096,10.6494,-0.623635,37,6
12.1428,24.344,6.28063,42,14
6.69306,13.4125,-0.261646,75,7
12.2729,24.5834,7.36237,24,15
8.68464,17.3353,0.338437,27,8
0.27243,0.543557,-0.140369,26,1
11.3049,22.5459,1.3218,10,9
2.83795,5.65985,-1.23072,26,2
11.9888,23.8994,2.33926,25,10
3.23314,6.44238,-1.14166,28,3
11.2674,22.4417,3.08329,35,11
3.69413,7.35456,-1.01054,31,4
11.4764,22.838,4.04821,21,12
4.33941,8.63171,-0.845236,19,5
11.4531,22.7819,4.95645,35,13
5.33149,10.6005,-0.621856,37,6
12.3065,24.4582,6.32112,43,14
6.70747,13.3247,-0.26039,92,7
12.3804,24.5836,7.37531,19,15
8.85604,17.5244,0.34273,42,8
0.262017,0.518255,-0.134071,14,1
11.3565,22.4528,1.31866,23,9
2.85158,5.6354,-1.22767,26,2
12.1015,23.9051,2.34414,12,10
3.2478,6.41286,-1.13853,26,3
11.0246,21.7682,2.99604,16,11
3.72247,7.34693,-1.01127,27,4
11.6266,22.937,4.07293,21,12
4.3614,8.60051,-0.843668,17,5
11.5427,22.752,4.95913,39,13
5.34771,10.5364,-0.619239,37,6
12.4958,24.6093,6.37196,17,14
6.75032,13.2941,-0.26025,83,7
12.4294,24.4679,7.35357,4,15
0.219336,0.430285,-0.12941,15,0
8.80574,17.2674,0.338332,51,8
0.277199,0.543329,-0.140819,26,1
11.403,22.3508,1.31499,25,9
2.86856,5.62016,-1.22652,26,2
11.065,21.6695,2.12869,43,10
3.26388,6.38917,-1.13634,27,3
11.8161,23.1206,3.1881,9,11
3.7304,7.29612,-1.00615,31,4
13.4133,26.2346,4.66675,13,12
4.38505,8.57282,-0.842447,17,5
11.6847,22.8339,4.98584,35,13
5.37535,10.4998,-0.618192,37,6
12.5425,24.4892,6.35217,35,14
6.77937,13.2366,-0.259587,67,7
12.4372,24.2731,7.30801,19,15
0.220836,0.429517,-0.12941,15,0
8.85839,17.2292,0.338158,40,8
0.270977,0.526811,-0.13677,27,1
9.15152,17.784,1.04818,10,9
2.88187,5.59789,-1.22385,26,2
12.5628,24.3921,2.40044,19,10
3.27781,6.36427,-1.13384,28,3
11.4563,22.2342,3.07111,34,11
3.75275,7.28018,-1.00567,31,4
11.809,22.8992,4.08075,27,12
4.40216,8.53267,-0.840007,17,5
11.7514,22.7776,4.98202,16,13
5.37442,10.4127,-0.61411,37,6
12.612,24.4249,6.34632,43,14
6.79249,13.1489,-0.258331,68,7
12.5405,24.2655,7.31889,28,15
0.232928,0.449364,-0.135621,15,0
8.87337,17.1112,0.336448,42,8
0.272814,0.525862,-0.13677,13,1
9.84655,18.9716,1.1202,2,9
2.8977,5.58308,-1.2227,26,2
12.6014,24.269,2.39243,33,10
3.29272,6.33876,-1.13133,40,3
11.3013,21.7467,3.0092,33,11
3.76716,7.2459,-1.00274,26,4
11.9244,22.9262,4.09295,30,12
4.42123,8.50035,-0.838264,17,5
12.1335,23.3181,5.10948,24,13
5.39413,10.362,-0.612226,37,6
13.4173,25.7635,6.70624,9,14
6.79676,13.0453,-0.25676,85,7
12.6269,24.225,7.31992,9,15
0.241655,0.462244,-0.139762,14,0
9.14526,17.4859,0.344441,34,8
0.283682,0.542173,-0.141269,13,1
10.4777,20.0165,1.18405,8,9
2.91717,5.57293,-1.2227,26,2
12.6573,24.1702,2.38702,26,10
3.31025,6.31848,-1.12977,25,3
11.368,21.6895,3.00676,25,11
3.78781,7.22392,-1.00152,27,4
13.9865,26.6629,4.76875,10,12
4.43237,8.44958,-0.834778,17,5
12.181,23.2113,5.09536,6,13
5.41541,10.3148,-0.610551,37,6
12.4515,23.7066,6.18211,57,14
6.80412,12.949,-0.255329,93,7
13.799,26.2499,7.94626,17,15
0.225247,0.42722,-0.12941,15,0
9.1736,17.3919,0.343219,34,8
0.280116,0.530838,-0.13857,13,1
9.95731,18.8618,1.11779,6,9
2.93111,5.5523,-1.22041,26,2
13.3129,25.2076,2.49405,28,10
3.32582,6.29466,-1.12758,28,3
11.7061,22.1464,3.07574,52,11
3.79259,7.17204,-0.99616,27,4
12.2976,23.2457,4.16522,5,12
4.44786,8.40764,-0.832163,17,5
16.3239,30.8435,6.78326,12,13
5.43082,10.257,-0.608249,37,6
12.5114,23.6199,6.17086,49,14
6.8137,12.858,-0.254002,93,7
13.5893,25.6332,7.77389,22,15
0.226737,0.426431,-0.12941,15,0
8.98914,16.899,0.334109,24,8
0.278305,0.522976,-0.13677,13,1
11.7398,22.0514,1.30924,10,9
2.94309,5.52817,-1.21736,26,2
14.5707,27.3573,2.71176,16,10
3.33755,6.26384,-1.12414,26,3
11.7488,22.0406,3.06672,17,11
3.81387,7.15175,-0.995185,33,4
12.4651,23.3648,4.19432,14,12
4.46874,8.37624,-0.830594,19,5
13.5159,25.3236,5.57964,20,13
5.44308,10.194,-0.605632,37,6
13.8213,25.8742,6.77238,40,14
6.85854,12.8341,-0.254002,93,7
13.7142,25.652,7.79408,11,15
0.273869,0.510764,-0.155291,12,0
8.97813,16.7371,0.331526,32,8
0.278286,0.518567,-0.13587,13,1
11.0798,20.6377,1.22759,5,9
2.96516,5.52305,-1.21851,26,2
12.5138,23.2991,2.31381,25,10
3.35285,6.23997,-1.12195,22,3
11.9056,22.1481,3.08744,26,11
3.83411,7.12965,-0.993966,27,4
12.6308,23.4777,4.22248,17,12
4.48096,8.32901,-0.827457,19,5
16.0624,29.8436,6.58787,23,13
5.45212,10.1257,-0.602701,37,6
13.8321,25.6783,6.73369,9,14
6.87769,12.7626,-0.25306,86,7
13.4947,25.031,7.61963,21,15
0.229709,0.424838,-0.12941,15,0
8.94517,16.5368,0.328175,34,8
0.285659,0.527876,-0.13857,13,1
11.553,21.3401,1.27176,11,9
2.9732,5.49195,-1.21393,26,2
12.6017,23.2675,2.31503,12,10
3.37085,6.22128,-1.1207,25,3
11.9289,22.0069,3.07355,17,11
3.84856,7.09703,-0.991285,24,4
12.6053,23.2355,4.18681,5,12
4.5043,8.30281,-0.826411,19,5
13.7672,25.3666,5.61017,20,13
5.4617,10.0592,-0.599875,37,6
6.88878,12.677,-0.251838,94,7
13.5589,24.9413,7.60669,10,15
0.277428,0.50884,-0.155291,12,0
8.95687,16.4212,0.3265,30,8
0.2819,0.516612,-0.13587,13,1
11.459,20.9911,1.25334,9,9
2.98859,5.47464,-1.2124,26,2
12.1624,22.2704,2.22003,5,10
3.38781,6.20081,-1.11913,21,3
12.2579,22.4267,3.13814,18,11
3.86379,7.06614,-0.988848,27,4
17.0122,31.0991,5.61443,10,12
4.51605,8.25557,-0.823273,19,5
13.7369,25.1014,5.56208,20,13
5.47663,10.0033,-0.597677,37,6
13.9736,25.5127,6.71569,9,14
6.90416,12.6003,-0.250791,94,7
13.7304,25.0479,7.6538,5,15
0.255005,0.463853,-0.141833,14,0
9.02473,16.4092,0.326884,26,8
0.289338,0.525869,-0.13857,13,1
11.4484,20.7988,1.24424,15,9
3.00768,5.46418,-1.2124,23,2
12.216,22.1842,2.21567,28,10
3.39514,6.16299,-1.11444,22,3
12.5632,22.7958,3.1959,9,11
3.88843,7.05261,-0.988848,24,4
17.1235,31.0447,5.61537,10,12
4.52174,8.19789,-0.81909,19,5
13.8406,25.0826,5.56857,45,13
5.48932,9.94389,-0.595269,37,6
14.0805,25.4962,6.72424,39,14
6.92876,12.5411,-0.250093,94,7
13.8355,25.032,7.66363,10,15
0.256623,0.46296,-0.141833,14,0
9.11298,16.4335,0.328001,30,8
0.279827,0.504407,-0.133171,14,1
11.0208,19.8576,1.19022,11,9
3.03055,5.46051,-1.21393,26,2
12.9443,23.3137,2.33298,25,10
3.40224,6.1252,-1.10975,28,3
12.4576,22.4187,3.1491,9,11
3.90724,7.02858,-0.987386,24,4
17.1069,30.7604,5.5747,14,12
4.55905,8.19772,-0.820658,19,5
14.1381,25.4115,5.65253,29,13
5.50166,9.88453,-0.592862,37,6
14.8017,26.5825,7.02432,41,14
6.94914,12.4749,-0.249255,94,7
13.8457,24.8452,7.62119,21,15
9.17908,16.4173,0.328315,30,8
0.283489,0.506828,-0.134071,14,1
11.8391,21.1576,1.27061,22,9
3.04576,5.44305,-1.2124,23,2
13.156,23.5013,2.35634,26,10
3.4265,6.11845,-1.11068,26,3
17.0397,30.4142,4.28054,14,11
3.92204,6.99759,-0.984948,27,4
14.1381,25.2144,4.57852,13,12
4.58082,8.16959,-0.819438,19,5
14.0442,25.0367,5.58002,16,13
5.50973,9.81824,-0.590036,37,6
14.1799,25.2579,6.68734,48,14
6.95348,12.3808,-0.247859,96,7
14.0042,24.9247,7.66053,26,15
0.237088,0.420764,-0.12941,15,0
9.23339,16.3799,0.32821,24,8
0.289085,0.512626,-0.13587,13,1
12.0562,21.3701,1.28589,32,9
3.04641,5.39989,-1.20515,26,2
13.0636,23.1464,2.32532,6,10
3.44589,6.10302,-1.11006,27,3
17.2961,30.6207,4.31808,14,11
3.93766,6.9683,-0.982754,26,4
14.2912,25.2801,4.59949,22,12
4.60538,8.14662,-0.818741,19,5
14.0996,24.9311,5.56743,12,13
5.51447,9.74679,-0.586895,37,6
14.267,25.2066,6.68689,29,14
6.97004,12.3095,-0.246917,96,7
14.1502,24.9799,7.69262,15,15
9.21048,16.2068,0.325383,22,8
0.281241,0.494673,-0.131371,14,1
12.1149,21.3001,1.28422,22,9
3.05942,5.37899,-1.20286,26,2
13.1591,23.1267,2.32793,43,10
3.45838,6.0755,-1.10724,27,3
17.4402,30.6256,4.32734,14,11
3.95999,6.95106,-0.982267,30,4
13.8404,24.2845,4.4271,6,12
4.61011,8.08895,-0.814558,19,5
14.6601,25.7123,5.75327,8,13
5.52273,9.68238,-0.584174,37,6
14.1202,24.7454,6.57757,46,14
7.00009,12.2625,-0.246463,96,7
14.1683,24.8095,7.65535,36,15
0.251541,0.439215,-0.135621,15,0
9.20735,16.0704,0.323288,22,8
0.308162,0.537646,-0.143069,12,1
12.1425,21.1762,1.2793,48,9
3.0811,5.37339,-1.204,21,2
13.4708,23.4833,2.36854,52,10
3.47465,6.05482,-1.10568,28,3
13.222,23.031,3.26074,9,11
3.98127,6.93203,-0.981536,27,4
13.9182,24.224,4.42491,31,12
4.6284,8.05553,-0.812814,19,5
14.1823,24.6738,5.53193,44,13
5.53758,9.63014,-0.582185,37,6
14.1278,24.5591,6.54113,9,14
7.0209,12.1999,-0.245695,96,7
14.2992,24.8369,7.67916,36,15
0.289778,0.50191,-0.155291,12,0
9.21137,15.9482,0.321473,22,8
0.295413,0.511257,-0.13632,27,1
12.2863,21.2548,1.28663,24,9
3.10082,5.3643,-1.20439,23,2
13.416,23.1998,2.34466,51,10
3.48192,6.01872,-1.1013,28,3
17.6317,30.4654,4.32197,14,11
3.99748,6.90435,-0.979586,26,4
14.4591,24.9633,4.56914,35,12
4.6425,8.01519,-0.810374,18,5
14.8648,25.6535,5.7632,17,13
5.55914,9.59002,-0.580929,37,6
14.2203,24.5214,6.54428,37,14
7.04136,12.1372,-0.244927,96,7
14.1918,24.4527,7.57563,30,15
0.262375,0.450806,-0.139762,14,0
9.21769,15.8312,0.319763,26,8
0.29033,0.498436,-0.133171,14,1
12.2166,20.965,1.27166,22,9
3.11162,5.33987,-1.20133,26,2
13.5862,23.306,2.36018,52,10
3.50291,6.00653,-1.1013,27,3
17.6659,30.2802,4.30443,28,11
4.00855,6.86806,-0.976417,27,4
4.66041,7.98173,-0.808631,18,5
13.9334,23.8537,5.36975,41,13
5.57343,9.53779,-0.57894,37,6
13.4807,23.0601,6.16681,8,14
7.04129,12.0401,-0.243461,97,7
14.2556,24.3663,7.56425,20,15
0.263947,0.449887,-0.139762,14,0
9.17673,15.6351,0.316447,31,8
0.303908,0.517585,-0.13857,13,1
3.12328,5.31713,-1.19866,26,2
13.6433,23.2172,2.35599,32,10
3.52085,5.98916,-1.10036,28,3
17.8309,30.3193,4.31881,28,11
4.02344,6.83863,-0.974224,28,4
18.0658,30.6941,5.64103,15,12
4.67611,7.94481,-0.806539,18,5
13.9259,23.651,5.33502,3,13
5.59352,9.49591,-0.57758,33,6
14.4782,24.5693,6.58387,37,14
7.03453,11.9327,-0.241786,97,7
14.6762,24.8855,7.74128,26,15
9.21292,15.572,0.315819,22,8
0.301743,0.509813,-0.13677,13,1
12.0177,20.2966,1.23618,3,9
3.13282,5.29099,-1.19523,21,2
13.1891,22.2661,2.26413,12,10
3.53468,5.96494,-1.09817,25,3
18.0429,30.4361,4.3444,14,11
4.0402,6.81259,-0.972517,30,4
14.2087,23.9492,4.41051,15,12
4.68348,7.89417,-0.803053,18,5
14.5395,24.497,5.53728,44,13
5.61439,9.45572,-0.576324,33,6
14.4703,24.3611,6.54158,46,14
7.03937,11.8462,-0.240529,100,7
14.4896,24.3742,7.59789,20,15
0.259168,0.434758,-0.135621,15,0
9.22319,15.4659,0.314318,22,8
0.307514,0.515451,-0.13857,13,1
11.8551,19.8635,1.21231,21,9
3.14825,5.27496,-1.19408,23,2
16.4065,27.4785,2.79997,17,10
3.54434,5.93391,-1.09473,27,3
18.1043,30.298,4.33367,28,11
4.05581,6.78482,-0.970568,26,4
17.7747,29.723,5.48522,9,12
4.69874,7.85725,-0.800961,18,5
14.1834,23.7082,5.37013,7,13
5.62685,9.40179,-0.57423,37,6
14.5643,24.3255,6.54563,74,14
7.06218,11.7907,-0.239901,97,7
14.4832,24.171,7.55027,51,15
0.272624,0.453722,-0.141833,14,0
9.22251,15.3428,0.312468,26,8
0.293243,0.487654,-0.131371,14,1
11.89,19.7727,1.20917,21,9
3.16867,5.26731,-1.19485,19,2
16.0328,26.6409,2.7203,24,10
3.55382,5.90288,-1.09129,27,3
17.9907,29.8707,4.28151,14,11
4.0682,6.75191,-0.967886,18,4
19.0201,31.5673,5.8372,10,12
4.71997,7.83056,-0.799915,18,5
14.1384,23.4467,5.32204,41,13
5.64313,9.35472,-0.572555,33,6
14.6692,24.3079,6.55462,18,14
7.07644,11.7261,-0.239063,99,7
14.5783,24.1476,7.55803,30,15
0.250188,0.413109,-0.12941,15,0
9.23087,15.242,0.311037,26,8
0.302937,0.500012,-0.134971,14,1
11.9652,19.7413,1.2098,38,9
3.18704,5.25621,-1.19485,23,2
15.5698,25.6683,2.62653,31,10
3.56518,5.87755,-1.08878,26,3
18.1927,29.9806,4.30589,28,11
4.07511,6.71294,-0.96423,22,4
21.4906,35.3875,6.55742,14,12
4.73693,7.79701,-0.798172,18,5
14.3394,23.6027,5.36822,18,13
5.65752,9.30865,-0.570881,37,6
13.7758,22.6573,6.12182,56,14
7.07888,11.6381,-0.237772,99,7
15.0842,24.7897,7.77544,22,15
0.263631,0.432067,-0.135621,15,0
9.2538,15.1602,0.310025,22,8
0.306712,0.502278,-0.13587,13,1
12.0243,19.6913,1.20917,40,9
3.19115,5.22384,-1.18988,21,2
17.2361,28.204,2.89183,35,10
3.58877,5.87013,-1.08972,25,3
18.4401,30.1506,4.33952,14,11
4.08816,6.68174,-0.961793,26,4
21.4934,35.129,6.52269,21,12
4.7586,7.77446,-0.797475,18,5
14.314,23.3767,5.32815,30,13
5.67329,9.2616,-0.569206,33,6
15.096,24.6345,6.67025,48,14
7.06938,11.5362,-0.236166,99,7
15.1704,24.7462,7.77751,16,15
0.277281,0.450891,-0.141833,14,0
9.25689,15.0527,0.308454,20,8
0.318587,0.517856,-0.140369,13,1
12.2082,19.8363,1.22068,38,9
3.20319,5.20263,-1.1876,21,2
16.0628,26.0791,2.67969,16,10
3.60718,5.85651,-1.08941,22,3
18.6254,30.2279,4.35951,14,11
4.10509,6.65969,-0.960574,25,4
21.6076,35.0403,6.52019,28,12
4.76269,7.7205,-0.79364,18,5
14.4853,23.4811,5.36288,37,13
5.67565,9.19684,-0.56638,37,6
15.3169,24.8098,6.73144,79,14
7.08753,11.4757,-0.235433,99,7
15.1917,24.5879,7.74438,10,15
0.254357,0.410555,-0.12941,15,0
9.27461,14.9643,0.307302,26,8
0.314231,0.506803,-0.13767,13,1
12.3268,19.8734,1.2256,36,9
3.21926,5.18809,-1.18683,21,2
16.1776,26.0714,2.6844,32,10
3.61822,5.82878,-1.08659,20,3
18.7245,30.1526,4.35805,14,11
4.11364,6.62171,-0.957162,27,4
21.5066,34.6056,6.45324,13,12
4.77699,7.68352,-0.791548,18,5
14.4821,23.2845,5.33006,41,13
5.69349,9.15054,-0.56481,37,6
15.6237,25.1103,6.82771,10,14
7.10324,11.4118,-0.23463,90,7
15.2795,24.538,7.74542,10,15
0.286563,0.458775,-0.144939,14,0
9.2637,14.825,0.305138,22,8
0.305757,0.489124,-0.133171,14,1
12.0914,19.3353,1.19514,27,9
3.23929,5.17791,-1.18721,21,2
16.3998,26.2147,2.70531,24,10
3.63327,5.80544,-1.08472,20,3
19.5323,31.1976,4.5194,14,11
4.13999,6.60996,-0.957649,31,4
19.3605,30.8992,5.77525,10,12
4.80089,7.65921,-0.790851,18,5
14.5496,23.203,5.32357,30,13
5.70895,9.10085,-0.56303,37,6
18.1005,28.8547,7.86384,11,14
7.11632,11.34,-0.233688,100,7
15.3673,24.4785,7.74438,10,15
0.277948,0.441374,-0.139762,14,0
9.23696,14.6624,0.302485,36,8
0.313782,0.497892,-0.13587,13,1
12.1631,19.2997,1.19556,26,9
3.25315,5.15993,-1.18569,21,2
16.4724,26.1173,2.70148,48,10
3.63766,5.76535,-1.07971,27,3
19.4558,30.8236,4.47553,14,11
4.14511,6.56453,-0.953262,26,4
15.9245,25.2193,4.72401,7,12
4.83824,7.65925,-0.792594,18,5
16.1113,25.4955,5.86242,18,13
5.72467,9.05554,-0.56146,37,6
15.6594,24.7612,6.76383,30,14
