x, y, z, intensity, ring
-0.979589,0.401159,-0.0554761,4,6
-22.5082,9.2221,5.61568,53,14
-22.5844,9.25793,-0.426048,8,7
-23.1125,9.47911,6.69358,15,15
-27.603,11.3659,0.521059,28,8
-15.8047,6.51422,0.895887,4,9
-0.675224,0.278307,-0.141962,11,2
-23.1069,9.5287,2.18674,11,10
-21.0666,8.69594,2.79836,14,11
-0.842164,0.347803,-0.111876,3,4
-22.83,9.43316,3.91243,27,12
-0.874661,0.361403,-0.082798,5,5
-22.5957,9.34097,4.75267,15,13
-1.02617,0.424424,-0.0581976,6,6
-23.1547,9.58152,5.78529,21,14
-23.4462,9.70693,-0.442942,9,7
-23.0864,9.56269,6.69565,23,15
-24.2821,10.0977,0.459033,9,8
-25.0179,10.4088,1.42008,11,9
-0.710499,0.295752,-0.149594,10,2
-24.8079,10.3316,2.35111,19,10
-21.8991,9.12919,2.91317,15,11
-0.819019,0.341428,-0.108951,4,4
-22.8223,9.5187,3.91649,30,12
-0.90833,0.379032,-0.0861099,3,5
-22.563,9.41979,4.75267,15,13
-1.06154,0.443399,-0.060291,12,6
-24.8167,10.3658,6.2091,8,14
-15.7698,6.59017,-0.298331,38,7
-23.1472,9.67794,6.72257,19,15
-25.5023,10.7045,0.482768,9,8
-25.0127,10.5041,1.42176,2,9
-0.727614,0.305711,-0.15341,9,2
-21.4124,9.00094,2.03212,9,10
-21.6053,9.09089,2.87807,7,11
-0.825201,0.347222,-0.109926,4,4
-23.1019,9.72539,3.96999,26,12
-0.92543,0.389775,-0.087853,2,5
-22.6112,9.52811,4.76946,18,13
-1.04718,0.441485,-0.0595583,22,6
-23.0781,9.72958,5.78214,35,14
-21.7931,9.1923,-0.412854,85,7
-27.0805,11.4281,7.87586,28,15
-22.6587,9.59939,0.429539,23,8
-23.1555,9.81938,1.31813,23,9
-0.744671,0.315787,-0.157227,8,2
-21.4246,9.08978,2.03613,20,10
-0.776433,0.329576,-0.133595,7,3
-21.5348,9.14542,2.8727,38,11
-0.823985,0.3501,-0.109926,4,4
-22.9697,9.76424,3.9531,17,12
-0.942469,0.400637,-0.0895961,5,5
-22.5759,9.6015,4.7687,33,13
-1.04755,0.445738,-0.059663,18,6
-22.9669,9.77726,5.7628,42,14
-21.7811,9.27694,-0.413238,68,7
-27.0049,11.5074,7.86551,11,15
-22.5901,9.66348,0.428875,27,8
-23.2349,9.94889,1.32462,17,9
-0.714688,0.30602,-0.151121,9,2
-21.4056,9.17001,2.03735,5,10
-21.5593,9.24478,2.88026,30,11
-0.81546,0.349844,-0.108951,4,4
-23.097,9.9137,3.98094,10,12
-0.95205,0.408639,-0.090642,5,5
-23.2963,10.0041,4.92822,29,13
-1.06067,0.455698,-0.0605004,4,6
-23.006,9.88892,5.78124,14,14
-22.3695,9.61994,-0.425036,35,7
-27.4437,11.8078,8.00527,11,15
-15.8538,6.84743,0.301438,19,8
-22.7214,9.81832,1.2972,52,9
-22.7943,9.85924,2.17279,45,10
-0.774113,0.334988,-0.133595,7,3
-25.2413,10.9281,3.37724,20,11
-0.861594,0.373202,-0.115288,2,4
-22.9879,9.95726,3.9678,27,12
-0.972555,0.421467,-0.0927337,5,5
-22.7893,9.88071,4.82823,31,13
-21.6725,9.40097,-1.23806,5,6
-22.6478,9.82874,5.69981,41,14
-22.475,9.75377,-0.427654,100,7
-27.5869,11.978,8.05859,5,15
-15.8109,6.89118,0.301054,40,8
-22.8188,9.95507,1.30474,22,9
-24.2369,10.5838,2.31381,18,10
-0.72593,0.317,-0.12546,8,3
-21.4522,9.37224,2.87441,45,11
-0.860352,0.376057,-0.115288,2,4
-31.4938,13.7724,5.44423,4,12
-1.00576,0.440032,-0.0960456,8,5
-22.7384,9.94835,4.82441,15,13
-15.8668,6.94522,-0.907715,16,6
-28.5558,12.5054,7.19708,10,14
-21.7723,9.53925,-0.414914,69,7
-22.5643,9.89093,6.60144,11,15
-15.1003,6.64431,0.287965,21,8
-22.0089,9.69333,1.26035,9,9
-24.26,10.6898,2.31939,50,10
-0.771815,0.34025,-0.133595,7,3
-23.9277,10.5534,3.21101,18,11
-0.866299,0.382264,-0.116263,5,4
-22.0142,9.71861,3.81137,9,12
-1.02799,0.453826,-0.0983117,13,5
-22.497,9.93645,4.78053,33,13
-15.9374,7.04254,-0.913158,13,6
-28.5244,12.6105,7.20023,53,14
-15.8995,7.03243,-0.303462,7,7
-22.519,9.96495,6.59833,7,15
-22.3817,9.94156,0.427479,24,8
-22.4239,9.96971,1.2861,34,9
-32.7858,14.5835,3.13935,10,10
-0.806717,0.359005,-0.139852,5,3
-23.9161,10.6481,3.21443,57,11
-0.879466,0.391747,-0.118213,6,4
-31.35,13.971,5.4361,4,12
-1.0355,0.461466,-0.0991832,15,5
-22.421,9.99653,4.77175,33,13
-15.858,7.07371,-0.910018,13,6
-23.0419,10.283,5.82533,14,14
-22.1945,9.90951,-0.424268,100,7
-27.4864,12.278,8.06635,24,15
-15.5426,6.96882,0.297319,24,8
-22.4199,10.0571,1.28778,32,9
-22.4308,10.0714,2.15118,44,10
-0.776628,0.348868,-0.134847,6,3
-24.1811,10.8674,3.25513,48,11
-0.892577,0.401327,-0.120163,6,4
-33.2835,14.9652,5.77994,15,12
-1.02843,0.462626,-0.0986603,6,5
-22.2373,10.0079,4.74008,27,13
-21.457,9.66117,-1.23324,53,6
-22.9792,10.3514,5.81858,28,14
-15.9151,7.16924,-0.304684,61,7
-28.3544,12.7787,8.33346,12,15
-15.452,6.98983,0.296028,10,8
-22.5557,10.2127,1.29762,10,9
-22.7748,10.3215,2.18761,5,10
-0.79166,0.35878,-0.137662,12,3
-24.21,10.9771,3.26391,39,11
-0.925589,0.419866,-0.124794,4,4
-22.2746,10.1089,3.87426,27,12
-22.2959,10.1232,-2.14229,12,5
-22.4418,10.1895,4.79083,18,13
-21.3194,9.68436,-1.22717,63,6
-22.9873,10.4469,5.82938,50,14
-22.376,10.1737,-0.42905,97,7
-23.7094,10.785,6.97931,25,15
-22.2599,10.1632,0.42713,16,8
-30.4716,13.9188,1.75566,14,9
-23.4525,10.7226,2.25611,54,10
-0.777829,0.355789,-0.135472,13,3
-23.751,10.869,3.20711,9,11
-0.972851,0.445406,-0.131375,9,4
-22.1421,10.1375,3.85705,28,12
-22.2658,10.1988,-2.14264,30,5
-23.0004,10.5401,4.91791,35,13
-15.8806,7.28075,-0.915565,40,6
-22.7275,10.4247,5.77269,28,14
-22.2076,10.1862,-0.426467,100,7
-23.6367,10.8467,6.96844,17,15
-15.484,7.13165,0.297564,19,8
-32.8152,15.128,1.89372,16,9
-23.7189,10.9446,2.2854,36,10
-0.76947,0.355056,-0.134221,13,3
-30.4519,14.0578,4.11821,13,11
-1.0002,0.461947,-0.135275,16,4
-22.0905,10.2072,3.85423,23,12
-21.9859,10.1636,-2.1191,47,5
-23.3645,10.8009,5.00339,39,13
-21.3472,9.87285,-1.23262,32,6
-23.1208,10.698,5.88157,59,14
-22.1157,10.2376,-0.425385,100,7
-23.625,10.9413,6.97621,25,15
-24.7362,11.4979,0.476137,9,8
-24.6153,11.4469,1.4227,85,9
-23.8306,11.0921,2.29969,24,10
-0.784343,0.365245,-0.137037,12,3
-22.5321,10.4973,3.0521,43,11
-0.998584,0.465435,-0.135275,30,4
-22.0511,10.2779,3.85329,26,12
-22.167,10.3366,-2.13985,30,5
-23.1897,10.8185,4.97401,35,13
-15.9356,7.43767,-0.921636,38,6
-22.7461,10.6212,5.79564,35,14
-15.682,7.32262,-0.302101,38,7
-28.4263,13.2796,8.40696,13,15
-21.7648,10.2046,0.419591,30,8
-14.8026,6.94666,0.856949,16,9
-23.7268,11.1448,2.29342,30,10
-0.811734,0.381281,-0.142043,10,3
-22.9229,10.772,3.10986,88,11
-0.997035,0.468744,-0.135275,20,4
-21.8167,10.2615,3.81857,26,12
-21.6837,10.2036,-2.09662,28,5
-23.1093,10.8744,4.96447,13,13
-15.3218,7.21314,-0.887513,13,6
-23.4406,11.0403,5.9819,15,14
-22.4886,10.5967,-0.433937,63,7
-29.1032,13.7198,8.62126,13,15
-21.5718,10.2062,0.416554,8,8
-22.181,10.4991,1.2861,22,9
-23.3422,11.0587,2.25977,6,10
-0.813969,0.385805,-0.142668,19,3
-22.9049,10.8614,3.11254,53,11
-1.01692,0.482432,-0.1382,10,4
-21.7344,10.3109,3.81012,35,12
-21.2304,10.0764,-2.056,44,5
-21.9858,10.4396,4.73092,11,13
-21.6016,10.2618,-1.25334,27,6
-23.7469,11.286,6.07008,31,14
-21.7508,10.3374,-0.420359,43,7
-29.6734,14.109,8.80399,14,15
-24.5481,11.7141,0.474775,62,8
-31.9286,15.2497,1.85437,8,9
-23.2118,11.0963,2.25088,54,10
-0.834071,0.398725,-0.146423,16,3
-22.901,10.9527,3.11693,53,11
-1.02426,0.490085,-0.139419,12,4
-21.5468,10.3142,3.78352,28,12
-21.2274,10.1659,-2.05914,44,5
-21.9829,10.5277,4.73779,3,13
-27.7318,13.2928,7.09991,21,14
-21.7362,10.4236,-0.420777,96,7
-32.8376,15.7543,9.75903,17,15
-23.7608,11.4455,1.38219,29,9
-22.8285,11.0062,2.21724,80,10
-0.836233,0.403351,-0.147048,19,3
-22.5873,10.8997,3.07939,8,11
-1.02621,0.495205,-0.139906,11,4
-21.4858,10.3728,3.77883,19,12
-21.3568,10.3151,-2.075,28,5
-23.4309,11.3219,5.05835,27,13
-16.1763,7.81994,-0.941629,38,6
-28.8596,13.9513,7.40044,10,14
-21.806,10.5461,-0.422802,43,7
-32.5243,15.7369,9.68139,34,15
-31.2513,15.1748,0.606401,4,8
-23.6778,11.5024,1.37958,11,9
-0.699242,0.339835,-0.151121,9,2
-0.850878,0.413898,-0.149864,16,3
-22.526,10.9624,3.07598,8,11
-15.2881,7.43999,-2.08762,18,4
-21.3873,10.4128,3.76757,9,12
-16.2588,7.91939,-1.58223,37,5
-22.7702,11.096,4.92364,9,13
-16.2006,7.89805,-0.944559,66,6
-28.8482,14.064,7.40944,10,14
-24.465,11.9324,-0.475124,39,7
-32.439,15.8285,9.67155,8,15
-26.4164,12.9356,0.513415,3,8
-22.7892,11.1693,1.33007,10,9
-0.698111,0.342152,-0.151121,9,2
-0.877877,0.430637,-0.15487,16,3
-15.1498,7.43819,-2.07227,49,4
-21.8384,10.7269,3.85361,28,12
-16.1466,7.9311,-1.57386,27,5
-22.8637,11.2355,4.95188,16,13
-16.2012,7.96495,-0.94613,35,6
-32.3067,15.8899,8.31194,48,14
-15.6279,7.68986,-0.304021,22,7
-32.5343,16.0159,9.71659,17,15
-0.696912,0.344587,-0.151121,9,2
-0.92594,0.458232,-0.16363,17,3
-1.48012,0.732808,0.202791,1,11
-14.6861,7.27428,-2.01231,13,4
-21.3672,10.5882,3.77695,14,12
-16.0635,7.95999,-1.56845,16,5
-22.8419,11.3239,4.95569,16,13
-16.0659,7.9682,-0.939849,14,6
-35.0057,17.3694,9.02189,26,14
-32.3121,16.0469,9.66689,17,15
-1.4067,0.701353,0.0823768,1,9
-0.695705,0.347017,-0.151121,9,2
-1.39411,0.695684,0.136312,1,10
-0.940241,0.469402,-0.166446,22,3
-1.43493,0.716683,0.196941,9,11
-21.3461,10.666,3.77946,35,12
-32.2561,16.1315,7.01032,72,13
-34.9188,17.4784,9.01514,13,14
-27.9074,13.975,8.36296,6,15
-1.42764,0.717404,0.0278889,1,8
-1.40681,0.707244,-0.363521,1,1
-1.43279,0.720617,0.0840516,8,9
-0.648892,0.3265,-0.141199,11,2
-1.39879,0.70413,0.137009,12,10
-0.93868,0.472517,-0.166446,21,3
-1.42014,0.715187,0.195235,16,11
-22.6697,11.4314,4.93508,45,13
-34.9946,17.6617,9.04978,13,14
-1.44947,0.73186,-0.0283427,3,7
-32.2176,16.2743,9.67155,8,15
-1.39481,0.707013,0.0272956,12,8
-1.40723,0.713621,0.0826908,18,9
-0.605786,0.307333,-0.13204,13,2
-1.4231,0.722291,0.139624,14,10
-0.935263,0.474896,-0.166133,16,3
-1.40878,0.715645,0.194016,9,11
-1.38211,0.702401,-0.19036,1,4
-22.8579,11.6166,4.06104,10,12
-1.42792,0.725993,-0.140146,1,5
-22.6279,11.5096,4.9347,26,13
-1.40624,0.715586,-0.0826908,6,6
-30.3167,15.4338,7.85394,11,14
-1.41139,0.718519,-0.0276446,15,7
-32.1273,16.3626,9.66068,17,15
-1.37618,0.703316,-0.41411,1,0
-1.41204,0.721645,0.0276795,28,8
-1.42074,0.726715,0.0836329,11,9
-0.657141,0.336276,-0.143488,11,2
-1.40638,0.71999,0.138229,6,10
-0.938958,0.480696,-0.167072,17,3
-1.40817,0.721218,0.19426,18,11
-1.38154,0.707885,-0.190604,8,4
-32.2008,16.5064,5.73113,20,12
-1.38106,0.708244,-0.135789,12,5
-22.511,11.5442,4.91753,29,13
-1.37542,0.705658,-0.0810161,18,6
-24.0517,12.345,6.24149,16,14
-1.40532,0.721614,-0.0275748,16,7
-24.4318,12.5509,7.35978,4,15
-1.33949,0.690178,-0.403758,2,0
-1.39885,0.721072,0.0274701,12,8
-1.37174,0.707402,-0.356322,1,1
-1.40044,0.722513,0.0825861,11,9
-0.624617,0.322251,-0.136619,12,2
-1.40753,0.726477,0.138578,24,10
-0.954826,0.493034,-0.170201,17,3
-1.39846,0.722728,-0.193285,20,4
-22.4218,11.5926,3.99784,5,12
-1.37693,0.711904,-0.135614,18,5
-22.4932,11.6345,4.92249,35,13
-1.40488,0.726977,-0.0829002,16,6
-15.0908,7.81228,3.92315,39,14
-1.40101,0.725596,-0.0275399,7,7
-24.2078,12.5428,7.30543,33,15
-1.35079,0.701976,-0.407899,2,0
-1.38568,0.720416,0.0272607,11,8
-1.37791,0.716682,-0.358572,2,1
-1.41031,0.73385,0.0833189,41,9
-0.623488,0.324429,-0.136619,12,2
-0.946092,0.492714,-0.168949,19,3
-1.41542,0.737451,0.195966,126,11
-1.38889,0.723935,-0.19231,12,4
-25.1382,13.1084,4.4903,12,12
-1.39564,0.727761,-0.137706,5,5
-22.5117,11.7438,4.93547,35,13
-1.38994,0.725408,-0.0821675,6,6
-15.0168,7.84056,3.911,13,14
-1.40911,0.736037,-0.0277493,13,7
-24.383,12.7417,7.37168,9,15
-1.35175,0.708481,-0.408934,2,0
-1.40086,0.734535,0.0276097,28,8
-1.37022,0.718771,-0.357222,5,1
-0.643212,0.337551,-0.141199,11,2
-1.39183,0.73073,0.137532,100,10
-0.947864,0.49785,-0.169575,21,3
-1.38824,0.729461,0.192554,100,11
-1.3846,0.727856,-0.192066,10,4
-24.8282,13.0572,4.44305,6,12
-1.37898,0.725209,-0.136312,5,5
-24.2253,12.7456,5.3209,26,13
-1.3874,0.730255,-0.0821675,9,6
-14.9548,7.87476,3.902,31,14
-1.38707,0.730699,-0.0273654,32,7
-23.9966,12.6466,7.26816,19,15
-1.34414,0.710487,-0.407381,2,0
-1.37001,0.724463,0.0270512,73,8
-1.3677,0.72355,-0.357222,4,1
-1.38927,0.73527,0.0823768,100,9
-0.687146,0.363672,-0.151121,9,2
-1.38751,0.734651,0.137357,100,10
-0.956594,0.506704,-0.171452,26,3
-1.38218,0.732443,0.192066,100,11
-1.37153,0.727105,-0.190604,8,4
-24.2136,12.8421,4.34106,24,12
-1.38172,0.732819,-0.136835,9,5
-22.5106,11.9439,4.9534,3,13
-1.3672,0.725729,-0.0811207,24,6
-14.9823,7.95617,3.9164,10,14
-30.6479,16.2889,9.29989,8,15
-1.33313,0.710631,-0.404793,2,0
-1.38512,0.738651,0.0274003,100,8
-1.36173,0.726486,-0.356322,5,1
-1.3833,0.737993,0.0821675,100,9
-0.620056,0.33094,-0.136619,12,2
-1.39021,0.742305,0.13788,100,10
-0.953077,0.509109,-0.171139,29,3
-1.38486,0.74007,0.192797,100,11
-1.36198,0.728145,-0.189629,10,4
-24.1326,12.9018,4.33417,51,12
-1.37564,0.735758,-0.136486,34,5
-31.7745,17.0159,8.32139,36,14
-1.37325,0.735403,-0.0271908,100,7
-32.3851,17.3502,9.84444,8,15
-1.31873,0.708877,-0.40117,2,0
-1.3809,0.742293,0.0273654,100,8
-1.38071,0.742816,0.0821675,100,9
-0.598152,0.321937,-0.13204,13,2
-1.37183,0.738652,0.136312,100,10
-0.95834,0.516013,-0.172391,32,3
-1.3859,0.746541,0.193285,100,11
-1.37528,0.741133,-0.191822,24,4
-1.37102,0.739761,-0.0816441,100,6
-22.3171,12.0467,5.85503,65,14
-1.37067,0.740192,-0.0271908,100,7
-22.4272,12.1162,6.83024,49,15
-1.32487,0.717848,-0.403758,2,0
-1.37127,0.743297,0.0272258,100,8
-1.36703,0.741311,-0.359022,5,1
-1.38878,0.753103,0.0827955,100,9
-0.597081,0.323919,-0.13204,13,2
-1.37287,0.745098,0.13666,100,10
-0.946117,0.5137,-0.170514,34,3
-1.37979,0.749479,0.192797,100,11
-1.36758,0.742847,-0.191091,75,4
-30.0826,16.3471,5.42265,13,12
-1.3531,0.735589,-0.134743,100,5
-1.36843,0.744542,-0.0816441,100,6
-22.4533,12.2165,5.90137,66,14
-1.36821,0.744733,-0.0271908,100,7
-24.8877,13.5523,7.59323,15,15
-1.33265,0.727793,-0.406864,2,0
-1.36177,0.744005,0.0270861,100,8
-1.33379,0.729017,-0.350924,4,1
-1.37926,0.753873,0.0823768,100,9
-0.613229,0.335316,-0.135856,12,2
-1.37389,0.751559,0.137009,100,10
-0.942676,0.515886,-0.170201,35,3
-1.36511,0.747378,0.191091,100,11
-1.35989,0.744518,-0.19036,100,4
-38.5851,21.1335,6.96791,8,12
-1.36113,0.745817,-0.135789,100,5
-22.3752,12.2653,4.95989,35,13
-1.34844,0.739472,-0.0805974,100,6
-15.1594,8.31328,3.99153,24,14
-1.3745,0.754076,-0.0273654,100,7
-24.2245,13.2955,7.4043,19,15
-1.33023,0.732208,-0.406864,2,0
-1.3558,0.746588,0.0270163,100,8
-1.34502,0.740958,-0.354523,4,1
-1.36976,0.754588,0.0819581,100,9
-0.629308,0.346824,-0.139672,11,2
-1.37313,0.757073,0.137183,100,10
-0.93923,0.518055,-0.169888,48,3
-1.3661,0.753819,0.191579,100,11
-1.34859,0.744463,-0.189141,100,4
-38.3627,21.1773,6.94037,8,12
-1.36214,0.752252,-0.136137,100,5
-22.4135,12.3831,4.97744,16,13
-1.35472,0.74877,-0.0811207,131,6
-15.091,8.34446,3.98118,90,14
-1.36324,0.753791,-0.0271908,100,7
-23.9926,13.2719,7.34684,9,15
-1.32429,0.734973,-0.405828,2,0
-1.35681,0.753021,0.0270861,100,8
-1.34255,0.745414,-0.354523,4,1
-1.36013,0.755485,0.0815394,100,9
-0.610933,0.339482,-0.135856,12,2
-1.36526,0.758957,0.13666,100,10
-0.937507,0.521167,-0.169888,68,3
-1.36533,0.75931,0.191822,100,11
-1.34612,0.748931,-0.189141,100,4
-38.8823,21.6416,7.048,8,12
-1.35254,0.753125,-0.13544,100,5
-33.1871,18.4793,7.38355,7,13
-1.35572,0.755203,-0.0813301,128,6
-14.9033,8.30527,3.93889,13,14
-1.35361,0.75465,-0.0270512,100,7
-23.3168,13.0046,7.15376,4,15
-1.31847,0.737474,-0.404793,2,0
-1.35243,0.756775,0.0270512,100,8
-1.34504,0.752952,-0.355873,5,1
-1.36459,0.763894,0.0819581,100,9
-0.565267,0.316565,-0.125934,14,2
-1.35231,0.757637,0.135614,100,10
-0.937405,0.525402,-0.170201,63,3
-1.3696,0.767954,0.192797,100,11
-1.34696,0.755568,-0.189629,100,4
-22.3055,12.5122,4.05071,44,12
-1.33614,0.749806,-0.134046,100,5
-32.6036,18.3038,7.26791,14,13
-1.36004,0.763842,-0.0817488,131,6
-14.0927,7.91815,3.73194,2,14
-1.35459,0.761094,-0.027121,100,7
-23.2836,13.0876,7.15686,4,15
-1.29906,0.732582,-0.399617,2,0
-1.35339,0.763221,0.027121,100,8
-1.33745,0.754536,-0.354523,5,1
-1.37061,0.773561,0.0824815,100,9
-0.577836,0.326258,-0.128987,13,2
-1.35486,0.765293,0.136137,100,10
-0.920178,0.519764,-0.167385,37,3
-1.36532,0.771515,0.192554,100,11
-1.35136,0.763938,-0.190604,100,4
-1.33351,0.754466,-0.134046,100,5
-32.9716,18.6545,7.3637,29,13
-1.3575,0.768348,-0.0817488,131,6
-14.7837,8.371,3.92225,10,14
-1.35193,0.765818,-0.027121,100,7
-23.337,13.2249,7.18741,9,15
-1.30632,0.743297,-0.402722,2,0
-1.34163,0.763701,0.0269465,100,8
-1.36242,0.775853,0.0821675,100,9
-0.576579,0.328475,-0.128987,13,2
-1.35537,0.772463,0.136486,100,10
-0.931813,0.531281,-0.169888,13,3
-1.35372,0.771836,0.191335,100,11
-1.32945,0.758303,-0.187923,100,4
-19.0546,10.873,3.47472,8,12
-1.34099,0.765507,-0.135091,100,5
-33.4624,19.1021,7.48964,30,13
-1.33719,0.763651,-0.0807021,131,6
-14.0594,8.03232,3.73824,2,14
-1.35592,0.774972,-0.0272607,100,7
-13.5943,7.77292,4.19597,20,15
-1.34269,0.769902,0.0270163,100,8
-1.32525,0.760208,-0.352723,5,1
-1.34425,0.77142,0.0812254,100,9
-0.589107,0.338204,-0.13204,13,2
-1.35812,0.779693,0.137009,100,10
-1.24361,0.714242,-0.227143,6,3
-1.34771,0.774343,0.190847,100,11
-1.33037,0.764686,-0.18841,100,4
-18.6881,10.7418,3.41403,22,12
-1.33167,0.765743,-0.134394,100,5
-45.2007,26.002,10.1362,27,13
-1.33812,0.770073,-0.0809114,128,6
-14.8771,8.56505,3.96319,16,14
-1.34655,0.775237,-0.027121,100,7
-23.3814,13.4666,7.22985,18,15
-1.32156,0.763312,-0.408934,2,0
-1.34013,0.77435,0.0270163,100,8
-1.33622,0.772401,-0.356322,5,1
-1.3486,0.779873,0.0816441,100,9
-0.567647,0.32826,-0.12746,14,2
-1.3538,0.783194,0.136835,100,10
-1.29082,0.747057,-0.236216,11,3
-1.34685,0.779802,0.191091,100,11
-1.3158,0.762129,-0.186704,100,4
-18.8932,10.9476,3.45845,12,12
-1.33933,0.776382,-0.13544,100,5
-18.9027,10.9575,4.24703,6,13
-1.33901,0.77651,-0.0811207,139,6
-37.5201,21.7671,10.0144,16,14
-1.33346,0.77391,-0.0269116,100,7
-23.229,13.487,7.19724,18,15
-1.29205,0.752593,-0.400652,2,0
-1.33742,0.779023,0.0270163,100,8
-1.33688,0.779023,-0.357222,5,1
-1.3476,0.785581,0.0817488,100,9
-0.563048,0.32836,-0.126697,14,2
-1.34232,0.783131,0.135963,100,10
-1.2966,0.756761,-0.23778,13,3
-1.35098,0.788501,0.192066,100,11
-1.33027,0.776726,-0.189141,100,4
-15.1603,8.85542,2.78078,20,12
-1.31941,0.771,-0.133697,100,5
-18.8184,11.001,4.2371,24,13
-1.3396,0.783429,-0.0813301,131,6
-37.3862,21.873,9.99997,16,14
-1.33765,0.782599,-0.0270512,100,7
-13.3682,7.82426,4.15042,16,15
-1.28941,0.757099,-0.400652,2,0
-1.33111,0.781894,0.0269465,100,8
-1.32058,0.776019,-0.353623,5,1
-1.35174,0.794328,0.0821675,100,9
-0.575438,0.338283,-0.12975,13,2
-1.34473,0.790842,0.136486,100,10
-1.29225,0.760281,-0.237468,17,3
-1.34979,0.794455,0.19231,100,11
-1.319,0.77633,-0.187923,100,4
-15.2655,8.98847,2.80581,34,12
-1.31843,0.776612,-0.133871,100,5
-18.7308,11.0377,4.22604,11,13
-1.33342,0.786072,-0.0811207,134,6
-18.483,10.896,4.95342,23,14
-1.33835,0.789295,-0.027121,100,7
-13.3508,7.87676,4.15353,31,15
-1.30518,0.772191,-0.406346,2,0
-1.32163,0.78223,0.0268069,100,8
-0.456101,0.27006,-0.122373,15,1
-1.34909,0.798806,0.0821675,100,9
-0.5608,0.332185,-0.126697,14,2
-1.33524,0.791234,0.135789,100,10
-1.28122,0.759525,-0.235903,11,3
-1.34203,0.795889,0.191579,100,11
-1.3352,0.791838,-0.190604,100,4
-18.8117,11.1607,3.4644,30,12
-1.31756,0.781997,-0.134046,100,5
-18.6941,11.0998,4.22604,11,13
-1.31707,0.782329,-0.0802834,138,6
-13.9147,8.2652,3.73644,10,14
-1.33917,0.795772,-0.0271908,100,7
-13.3628,7.9437,4.16543,28,15
-1.30428,0.777504,-0.406864,1,0
-1.32761,0.791729,0.0269814,100,8
-1.31875,0.786757,-0.354523,4,1
-1.33086,0.794298,0.0812254,100,9
-0.573182,0.342092,-0.12975,13,2
-1.33774,0.798722,0.136312,100,10
-1.03788,0.61993,-0.191476,7,3
-1.33938,0.800335,0.191579,100,11
-1.30687,0.781216,-0.186948,100,4
-18.5116,11.0702,3.41622,39,12
-1.3218,0.790452,-0.134743,100,5
-21.5668,12.9024,4.88509,21,13
-1.31447,0.786693,-0.0802834,139,6
-14.1031,8.44386,3.79492,50,14
-1.33295,0.798387,-0.027121,100,7
-13.3101,7.9754,4.15767,37,15
-1.29493,0.778072,-0.404793,1,0
-1.32998,0.799449,0.0270861,100,8
-1.316,0.791355,-0.354523,4,1
-1.33664,0.804087,0.0817488,100,9
-0.571985,0.344091,-0.12975,13,2
-1.34178,0.807496,0.137009,100,10
-0.90371,0.544077,-0.167072,17,3
-1.34678,0.81115,0.193041,100,11
-1.30413,0.785773,-0.186948,100,4
-18.5033,11.1531,3.42185,37,12
-1.3122,0.790947,-0.134046,167,5
-21.4813,12.9532,4.87593,34,13
-1.3254,0.799529,-0.0811207,138,6
-14.1019,8.51015,3.80257,55,14
-1.32673,0.800968,-0.0270512,100,7
-13.2177,7.98286,4.13748,35,15
-1.27568,0.77258,-0.399617,1,0
-1.31692,0.79787,0.0268767,100,8
-1.31656,0.797965,-0.355423,4,1
-1.33397,0.808515,0.0817488,100,9
-0.580853,0.352193,-0.13204,13,2
-1.32702,0.804941,0.135789,100,10
-0.891672,0.54108,-0.165195,27,3
-1.34734,0.817906,0.193529,100,11
-1.30478,0.792381,-0.187435,100,4
-18.6165,11.3056,3.44969,22,12
-1.30943,0.795523,-0.134046,100,5
-1.32942,0.808301,-0.0815394,134,6
-14.2969,8.69604,3.86331,42,14
-1.32578,0.806402,-0.0270861,100,7
-13.0624,7.94832,4.09711,31,15
-1.30596,0.797158,-0.409969,1,0
-1.3228,0.807442,0.0270512,100,8
-1.33719,0.816544,-0.361721,2,1
-1.33966,0.818372,0.0822721,94,9
-0.57962,0.354218,-0.13204,13,2
-1.32081,0.80749,0.13544,86,10
-0.866278,0.529609,-0.160815,19,3
-1.3497,0.825477,0.19426,100,11
-1.31061,0.801884,-0.188654,100,4
-18.3646,11.2406,3.41027,15,12
-1.30495,0.799048,-0.133871,100,5
-17.9101,10.9667,4.08217,12,13
-1.31992,0.808532,-0.0811207,134,6
-1.32466,0.81207,-0.027121,100,7
-13.0889,8.0272,4.11419,30,15
-1.31647,0.809581,-0.41411,1,0
-1.31998,0.812054,0.0270512,100,8
-1.34019,0.825138,0.0824815,84,9
-0.561724,0.345845,-0.128224,14,2
-1.33678,0.823359,0.137357,100,10
-0.856015,0.527448,-0.15925,16,3
-1.33836,0.824975,0.193041,87,11
-1.29935,0.801244,-0.187435,100,4
-18.685,11.5266,3.47723,26,12
-1.31077,0.808602,-0.134743,100,5
-17.9051,11.0498,4.0898,22,13
-1.31029,0.808938,-0.0807021,131,6
-13.7847,8.5136,3.74049,12,14
-1.33373,0.824047,-0.0273654,100,7
-13.1562,8.13175,4.14421,22,15
-1.31364,0.814171,-0.41411,1,0
-1.32223,0.819818,0.0271559,100,8
-1.3033,0.808398,-0.354073,2,1
-1.33391,0.827705,0.0822721,80,9
-0.570522,0.354015,-0.130513,13,2
-1.33052,0.825919,0.137009,77,10
-0.832353,0.516886,-0.155183,20,3
-1.3439,0.83488,0.19426,70,11
-1.29149,0.802632,-0.186704,100,4
-18.8326,11.7086,3.51227,24,12
-1.30456,0.811068,-0.134394,100,5
-17.8581,11.107,4.08789,16,13
-1.31085,0.815617,-0.0809114,122,6
-13.7516,8.55961,3.73959,35,14
-1.32745,0.826583,-0.0272956,100,7
-13.1096,8.16639,4.13852,13,15
-1.35339,0.845361,-0.427569,1,0
-1.31936,0.824429,0.0271559,100,8
-1.30213,0.813975,-0.354523,1,1
-1.32777,0.830006,0.0820628,65,9
-0.565954,0.353922,-0.12975,13,2
-1.33945,0.837955,0.138229,72,10
-0.808775,0.506164,-0.151116,25,3
-1.34771,0.843779,0.195235,37,11
-1.29541,0.81135,-0.187679,100,4
-18.7016,11.7133,3.49506,18,12
-1.30847,0.819848,-0.135091,100,5
-14.8632,9.31643,3.40976,25,13
-1.31138,0.82231,-0.0811207,100,6
-14.8227,9.29827,4.03967,30,14
-1.31284,0.823542,-0.0270512,100,7
-13.1021,8.22214,4.14473,36,15
-1.30792,0.823322,-0.41411,1,0
-1.32001,0.83093,0.0272258,86,8
-1.30931,0.824519,-0.357222,1,1
-1.3367,0.842088,0.0827955,58,9
-0.574681,0.362176,-0.13204,13,2
-1.32809,0.837313,0.137357,55,10
-0.766989,0.48356,-0.143607,41,3
-1.35498,0.854597,0.196697,7,11
-1.30279,0.821997,-0.189141,100,4
-18.6322,11.7606,3.48974,4,12
-1.29549,0.818028,-0.134046,100,5
-17.7323,11.1969,4.07644,18,13
-1.31709,0.831988,-0.0816441,100,6
-12.9616,8.19079,3.53983,31,14
-1.31165,0.829188,-0.0270861,100,7
-13.0423,8.2482,4.13489,20,15
-1.31879,0.836604,0.0272607,81,8
-1.3163,0.83535,-0.359922,1,1
-1.33896,0.849727,0.0831095,51,9
-0.563532,0.357766,-0.12975,13,2
-1.33203,0.845985,0.138055,37,10
-0.736952,0.468225,-0.138288,47,3
-17.5038,11.1254,2.54658,5,11
-1.30508,0.829507,-0.189872,100,4
-18.313,11.6442,3.43718,7,12
-1.29614,0.824458,-0.134394,100,5
-17.6351,11.2218,4.06309,24,13
-1.31081,0.834435,-0.0814348,100,6
-14.8544,9.45603,4.06532,25,14
-1.3207,0.841052,-0.0273305,96,7
-1.31769,0.842049,0.0272956,72,8
-1.32666,0.848107,-0.363521,1,1
-1.34791,0.861693,0.0838422,43,9
-0.555727,0.355402,-0.128224,14,2
-1.33593,0.854693,0.138752,9,10
-0.720421,0.461083,-0.135472,39,3
-13.3174,8.52669,1.94162,53,11
-1.30399,0.8349,-0.190116,100,4
-17.594,11.2691,3.30922,22,12
-1.30682,0.837351,-0.135789,96,5
-14.3582,9.20366,3.31512,36,13
-1.30131,0.834465,-0.0810161,100,6
-14.0339,8.99926,3.84891,10,14
-1.33137,0.854065,-0.0276097,85,7
-26.4836,16.9956,8.43181,13,15
-1.31489,0.846414,0.0272956,57,8
-1.34993,0.869637,0.0841562,19,9
-0.571049,0.367875,-0.13204,13,2
-14.2353,9.174,1.48165,68,10
-0.713907,0.460258,-0.134534,33,3
-1.28939,0.831914,-0.18841,83,4
-17.5429,11.323,3.30702,19,12
-1.30403,0.84168,-0.135789,82,5
-14.2996,9.23312,3.30863,35,13
-1.30189,0.840943,-0.0812254,97,6
-14.1776,9.16135,3.89705,28,14
-1.31998,0.853279,-0.0274352,67,7
-14.0775,9.10365,4.49206,15,15
-1.33541,0.866234,0.0277842,45,8
-13.9932,9.08383,0.874325,30,9
-0.579642,0.37628,-0.13433,12,2
-17.0104,11.0467,1.77449,75,10
-0.718922,0.467052,-0.135785,19,3
-14.5241,9.43926,2.12686,100,11
-1.28315,0.834245,-0.187923,75,4
-14.4232,9.38087,2.72509,72,12
-1.30109,0.846227,-0.135789,74,5
-18.819,12.2445,4.36418,16,13
-1.30732,0.850929,-0.0817488,81,6
-17.9848,11.7107,4.95477,37,14
-1.32537,0.863339,-0.0276097,60,7
-13.361,8.70659,4.2731,30,15
-1.30727,0.854479,0.0272607,11,8
-13.9981,9.15314,0.876523,40,9
-0.568467,0.371853,-0.13204,13,2
-14.6027,9.55571,1.52679,100,10
-0.727204,0.47605,-0.137662,24,3
-1.28522,0.841983,-0.188654,69,4
-16.9433,11.1,3.20816,17,12
-1.29812,0.850764,-0.135789,67,5
-18.8664,12.3694,4.38517,27,13
-1.32104,0.866442,-0.0827955,73,6
-17.8835,11.7339,4.93813,37,14
-1.32919,0.872117,-0.0277493,32,7
-13.2545,8.69997,4.24826,13,15
-17.1247,11.2745,0.357879,22,8
-16.4328,10.8272,1.03133,11,9
-0.590115,0.388961,-0.137382,12,2
-0.710779,0.468672,-0.134847,13,3
-14.4926,9.55976,2.13174,50,11
-1.3023,0.85936,-0.191579,61,4
-16.9226,11.1711,3.2116,17,12
-1.30013,0.858584,-0.136312,55,5
-18.2945,12.0813,4.26153,11,13
-1.32316,0.87412,-0.0831095,57,6
-18.0608,11.936,4.99796,38,14
-12.9845,8.58445,-0.271699,81,7
-13.3304,8.81652,4.28242,18,15
-17.1369,11.3685,0.358961,18,8
-0.556109,0.369198,-0.12975,13,2
-17.3256,11.5067,1.81964,42,10
-0.704203,0.467871,-0.133908,27,3
-14.5038,9.63997,2.13832,46,11
-1.29764,0.862802,-0.191335,52,4
-13.8456,9.20944,2.63373,20,12
-1.31553,0.875028,-0.138229,45,5
-18.9011,12.5769,4.41303,20,13
-1.32176,0.87984,-0.0832142,16,6
-14.4197,9.60222,3.99963,16,14
-16.7871,11.1829,-0.352085,36,7
-13.298,8.86193,4.2819,33,15
-14.6732,9.80799,0.30807,20,8
-13.9629,9.34031,0.880396,60,9
-0.577662,0.386419,-0.135093,12,2
-13.7766,9.21913,1.45027,28,10
-0.70749,0.473623,-0.134847,39,3
-14.4602,9.68391,2.13686,41,11
-1.29297,0.866221,-0.191091,43,4
-13.7001,9.18184,2.61214,7,12
-1.31578,0.881833,-0.138578,13,5
-13.8786,9.30498,3.24795,12,13
-12.8584,8.62421,-0.811417,58,6
-14.1304,9.48095,3.92855,26,14
-16.8078,11.2816,-0.353341,36,7
-13.0937,8.79198,4.226,27,15
-14.0114,9.44368,0.885524,23,9
-0.553518,0.373072,-0.12975,13,2
-13.7691,9.28387,1.45289,34,10
-0.718933,0.484927,-0.137349,49,3
-14.5036,9.7865,2.14831,23,11
-1.29981,0.877393,-0.192554,25,4
-16.7817,11.3322,3.20722,24,12
-12.2419,8.26657,-1.29235,28,5
-13.8493,9.35556,3.24871,12,13
-12.7504,8.61648,-0.806497,52,6
-13.755,9.29884,3.83317,28,14
-12.7912,8.65049,-0.269535,100,7
-13.0262,8.81274,4.21409,10,15
-14.4935,9.83496,0.305731,43,8
-14.0048,9.51049,0.887199,29,9
-0.552213,0.375001,-0.12975,13,2
-13.7432,9.33636,1.45358,34,10
-0.694363,0.471889,-0.132969,42,3
-17.8495,12.1351,2.65017,19,11
-13.4286,9.13295,-1.99403,18,4
-16.6016,11.2952,3.18031,8,12
-12.096,8.22968,-1.27997,31,5
-18.0721,12.3002,4.24932,11,13
-12.8474,8.74749,-0.814557,52,6
-13.89,9.46089,3.87996,73,14
-12.4601,8.49015,-0.263182,83,7
-13.8509,9.44137,4.49155,9,15
-14.517,9.91767,0.306883,29,8
-16.326,11.1619,1.03646,40,9
-0.560756,0.383383,-0.13204,13,2
-13.6908,9.36374,1.45114,15,10
-0.702659,0.48076,-0.134847,33,3
-14.1943,9.71542,2.112,13,11
-13.3,9.10667,-1.97916,99,4
-14.4931,9.92732,2.78234,20,12
-12.0259,8.24046,-1.27544,30,5
-15.5879,10.6812,3.67307,9,13
-12.9681,8.88944,-0.823977,58,6
-13.2864,9.11103,3.71934,27,14
-12.7203,8.72609,-0.269256,73,7
-16.5736,11.3737,5.38602,8,15
-14.4279,9.93087,0.305731,73,8
-16.4333,11.3196,1.04578,57,9
-0.546414,0.376524,-0.128987,13,2
-19.1238,13.1828,2.03212,19,10
-0.709023,0.48894,-0.136411,25,3
-14.1276,9.74237,2.10712,49,11
-13.1864,9.09668,-1.96697,13,4
-15.772,10.8844,3.03514,22,12
-12.0003,8.28466,-1.27579,30,5
-12.9059,8.91648,-0.822093,48,6
-12.6881,8.7693,-0.269221,100,7
-16.4258,11.3568,5.35083,24,15
-0.435467,0.302207,-0.122373,15,1
-0.557998,0.387385,-0.13204,13,2
-19.2151,13.3449,2.04677,15,10
-0.700823,0.486903,-0.135159,13,3
-14.0674,9.77709,2.10347,27,11
-13.505,9.38972,-2.01962,27,4
-15.7582,10.9563,3.03983,34,12
-11.9926,8.34128,-1.27805,13,5
-13.6304,9.48396,3.22773,25,13
-12.878,8.96375,-0.822303,13,6
-12.7747,8.89518,3.59382,23,14
-12.6771,8.82725,-0.26964,28,7
-17.1155,11.9577,0.364441,20,8
-22.6885,15.8631,1.45086,5,9
-0.556642,0.389331,-0.13204,13,2
-23.4308,16.3943,2.50189,28,10
-0.710534,0.497152,-0.137349,12,3
-14.3927,10.0741,2.15709,13,11
-13.6185,9.53579,-2.04131,24,4
-15.6972,10.9954,3.03545,21,12
-13.5853,9.51959,-1.45132,31,5
-15.3112,10.7329,-0.979939,25,6
-12.7116,8.914,3.58437,24,14
-12.6397,8.86685,-0.2695,81,7
-19.2367,13.4998,6.29707,6,15
-17.26,12.1486,0.36842,11,8
-13.5527,9.54269,0.868672,8,9
-0.555348,0.391175,-0.13204,13,2
-13.7802,9.71006,1.47485,6,10
-13.4542,9.48385,-2.60714,7,3
-20.2821,14.3021,3.04722,42,11
-15.5703,10.9836,3.01793,18,12
-13.0132,9.1832,-1.39345,27,5
-16.1269,11.3847,3.83717,5,13
-15.241,10.7633,-0.977845,18,6
-13.7039,9.67781,3.87321,60,14
-14.379,10.1583,-0.307302,68,7
-20.0564,14.1745,6.58073,15,15
-15.9749,11.3234,0.341788,6,8
-0.432386,0.3066,-0.122373,15,1
-18.5814,13.1758,1.19378,3,9
-0.573264,0.406645,-0.136619,12,2
-13.4879,9.57122,1.44696,21,10
-13.4726,9.56386,-2.61684,5,3
-13.8059,9.80405,2.07909,13,11
-15.5724,11.0626,3.02544,18,12
-14.1179,10.0331,-1.51529,31,5
-16.1355,11.4711,3.84824,19,13
-13.6734,9.72433,3.87366,18,14
-14.8781,10.585,-0.318716,37,7
-20.1856,14.3664,6.63871,15,15
-15.8835,11.338,0.340636,55,8
-0.431367,0.308032,-0.122373,15,1
-37.9075,27.0791,2.44147,20,9
-0.568717,0.406261,-0.135856,12,2
-13.6928,9.78502,1.47241,100,10
-13.3508,9.54415,-2.59932,7,3
-13.7022,9.79897,2.06837,30,11
-12.8916,9.22271,-1.94625,51,4
-18.7481,13.4173,3.65149,8,12
-14.2125,10.1714,-1.52906,12,5
-16.0718,11.5063,3.84213,21,13
-19.8396,14.2142,5.63457,33,14
-17.7764,12.7407,-0.381754,100,7
-16.6562,11.9422,5.49162,12,15
-13.0969,9.41799,0.281577,27,8
-0.430289,0.309536,-0.122373,15,1
-16.8792,12.1468,1.08984,13,9
-0.583231,0.419711,-0.139672,11,2
-13.7992,9.93403,1.48757,65,10
-13.186,9.49604,-2.57366,3,3
-13.6776,9.85371,2.06983,35,11
-12.8948,9.29319,-1.95162,83,4
-18.4528,13.3037,3.603,19,12
-16.8743,12.1657,-1.81999,30,5
-15.2258,10.9812,3.64903,16,13
-14.9579,10.792,-0.966645,32,6
-20.4883,14.7875,5.83343,29,14
-13.2004,9.53091,-0.284195,100,7
-15.1486,10.9416,5.00711,8,15
-13.0785,9.47421,0.281891,66,8
-0.429206,0.311036,-0.122373,15,1
-0.569046,0.412526,-0.136619,12,2
-13.7564,9.97629,1.4867,39,10
-13.1495,9.53969,-2.57303,7,3
-13.6013,9.87108,2.06349,21,11
-12.8575,9.33464,-1.95088,90,4
-16.8172,12.2139,-1.81842,13,5
-12.0799,8.7798,-0.782632,48,6
-16.9075,12.293,4.8261,38,14
-13.1735,9.57816,-0.2843,70,7
-12.9218,9.39861,4.28138,12,15
-13.0858,9.54581,0.282729,65,8
-0.459655,0.335432,-0.131371,14,1
-13.3327,9.73305,0.865113,16,9
-0.567603,0.41451,-0.136619,12,2
-13.7151,10.0195,1.48601,84,10
-12.8403,9.38048,-2.5186,7,3
-20.4442,14.9409,3.10913,8,11
-12.8954,9.42761,-1.96137,69,4
-17.5656,12.8514,-1.90418,19,5
-14.7197,10.7693,3.54523,31,13
-15.0211,10.9938,-0.975542,25,6
-16.9579,12.4158,4.85219,61,14
-13.0626,9.56737,-0.282624,25,7
-13.2754,9.72681,4.40976,8,15
-13.0475,9.58788,0.282624,76,8
-0.458482,0.337035,-0.131371,14,1
-15.2568,11.2195,0.992499,23,9
-0.585204,0.430347,-0.141199,11,2
-13.7074,10.0839,1.48879,48,10
-12.6977,9.34445,-2.49701,14,3
-19.0954,14.0578,2.91146,15,11
-12.7761,9.409,-1.9482,31,4
-19.1831,14.1327,3.77383,14,12
-13.0636,9.62426,-1.41959,11,5
-14.6346,10.7856,3.53378,49,13
-14.8171,10.9241,-0.964761,58,6
-16.8297,12.4125,4.8279,25,14
-13.0565,9.63309,-0.283218,100,7
-13.2694,9.79374,4.41908,20,15
-15.0922,11.1717,0.327756,66,8
-0.451038,0.333994,-0.129572,14,1
-17.6441,13.0703,1.15076,9,9
-0.593164,0.439399,-0.143488,11,2
-13.6417,10.1091,1.48548,29,10
-14.7534,10.9368,-2.90874,4,3
-17.5426,13.0093,2.68161,13,11
-19.0338,14.1254,3.75411,24,12
-12.9995,9.64725,-1.41628,30,5
-14.5496,10.8016,3.52233,13,13
-15.1509,11.252,-0.989045,32,6
-16.2497,12.0725,4.67358,31,14
-13.0244,9.6798,-0.283253,63,7
-14.973,11.1321,4.99935,11,15
-12.7302,9.49226,0.277179,43,8
-0.456117,0.340227,-0.131371,14,1
-17.5543,13.0941,1.14773,16,9
-0.575892,0.429726,-0.139672,11,2
-13.7149,10.2377,1.49734,13,10
-11.0826,8.27578,-2.19071,16,3
-17.5702,13.1251,2.69283,33,11
-12.866,9.61098,-1.97185,74,4
-26.0204,19.4445,5.14482,34,12
-12.8285,9.58997,-1.40129,22,5
-19.6248,14.6759,4.76336,15,13
-11.8666,8.87733,-0.776666,26,6
-19.3117,14.447,5.56799,31,14
-13.1427,9.83557,-0.286534,100,7
-13.0694,9.78427,4.37456,8,15
-12.753,9.57524,0.278366,63,8
-0.454987,0.341738,-0.131371,14,1
-18.94,14.2258,1.24141,7,9
-0.590159,0.443426,-0.143488,11,2
-13.7176,10.3107,1.50134,45,10
-11.123,8.36353,-2.20416,15,3
-17.6012,13.2394,2.70428,53,11
-12.7753,9.60944,-1.96283,40,4
-37.8998,28.5181,7.5123,21,12
-12.7616,9.6061,-1.39746,33,5
-17.018,12.8147,4.14094,23,13
-11.8211,8.90461,-0.775619,26,6
-16.8807,12.7159,4.87919,35,14
-13.0301,9.81892,-0.284788,30,7
-13.0199,9.81476,4.36887,13,15
-12.7372,9.62954,0.278715,82,8
-0.466285,0.352649,-0.134971,14,1
-17.3055,13.0928,1.13726,18,9
-0.573029,0.433536,-0.139672,11,2
-13.6674,10.3441,1.4996,35,10
-12.6827,9.6023,-2.51953,3,3
-17.6632,13.378,2.72061,6,11
-12.6468,9.58204,-1.9482,31,4
-20.2531,15.3507,4.02506,13,12
-12.7281,9.64716,-1.39728,13,5
-16.3418,12.3907,3.98638,1,13
-14.7652,11.2033,4.27902,3,14
-14.5595,11.0553,4.89841,12,15
-12.6589,9.64002,0.277738,25,8
-0.465052,0.354274,-0.134971,14,1
-16.826,12.8226,1.10869,23,9
-0.571512,0.435533,-0.139672,11,2
-15.6229,11.9101,1.71871,17,10
-11.1852,8.53009,-2.22794,12,3
-18.3408,13.9922,2.83249,22,11
-12.6685,9.66828,-1.95673,76,4
-20.1633,15.3937,4.01786,10,12
-13.5986,10.3819,-1.49681,6,5
-18.7169,14.2946,4.57789,19,13
-14.7614,11.2778,-0.973554,43,6
-15.3546,11.7353,4.46168,65,14
-12.391,9.47362,-0.272258,100,7
-12.948,9.90307,4.36783,16,15
-12.649,9.7024,0.278261,18,8
-0.463812,0.355895,-0.134971,14,1
-0.573103,0.439917,-0.140435,11,2
-18.5979,14.281,2.05147,20,10
-11.0551,8.49207,-2.20792,16,3
-17.3459,13.3292,2.686,13,11
-19.9399,15.3281,3.98345,15,12
-13.4691,10.3576,-1.48653,3,5
-16.5008,12.6936,4.04668,10,13
-14.8027,11.3914,-0.978892,21,6
-15.275,11.7591,4.45043,29,14
-12.2613,9.43903,-0.270093,31,7
-14.7457,11.3557,4.98693,14,15
-16.8978,13.0507,0.372679,23,8
-0.41945,0.324071,-0.122373,15,1
-17.1697,13.2703,1.13726,40,9
-0.596415,0.461128,-0.146541,10,2
-17.9396,13.8753,1.98419,33,10
-10.8565,8.39695,-2.17381,15,3
-14.9026,11.5305,2.31357,30,11
-12.6244,9.7713,-1.96015,36,4
-12.6905,9.82605,2.54206,6,12
-13.3573,10.346,-1.47816,12,5
-14.4223,11.1709,3.54599,15,13
-12.6129,9.773,-0.836224,43,6
-15.3252,11.8789,4.47653,45,14
-12.1255,9.40212,-0.267825,90,7
-14.564,11.297,4.93879,6,15
-14.0742,10.9486,0.311246,20,8
-0.461379,0.359044,-0.134971,14,1
-0.576292,0.448631,-0.141962,11,2
-18.3572,14.2958,2.03561,19,10
-10.8194,8.42872,-2.17225,7,3
-16.7506,13.0541,2.60752,67,11
-12.6184,9.83728,-1.96453,54,4
-12.6657,9.87415,2.54362,20,12
-13.1343,10.2432,-1.45724,31,5
-18.9572,14.7897,4.67368,31,13
-12.5409,9.78748,-0.833712,35,6
-15.1838,11.8544,4.44728,19,14
-11.9666,9.3426,-0.264997,100,7
-12.6476,9.87786,4.30002,2,15
-16.7912,13.1518,0.372295,30,8
-0.460185,0.360572,-0.134971,14,1
-16.1154,12.6316,1.0731,1,9
-0.559273,0.438526,-0.138146,12,2
-18.29,14.3463,2.03369,19,10
-10.7587,8.43895,-2.16568,10,3
-16.4573,12.9135,2.56852,35,11
-15.0013,11.7752,-2.3416,27,4
-12.6591,9.94026,2.54926,16,12
-13.0875,10.2804,-1.45602,23,5
-17.3102,13.5973,4.2787,16,13
-12.5822,9.88701,-0.838631,71,6
-14.8334,11.6602,4.35595,43,14
-14.7681,11.613,-0.327931,59,7
-12.7437,10.0247,4.34454,15,15
-16.7798,13.2376,0.373063,26,8
-17.0557,13.4649,1.13883,37,9
-0.579389,0.45741,-0.143488,11,2
-18.2267,14.3945,2.03195,39,10
-10.7292,8.47646,-2.16568,15,3
-16.0259,12.6656,2.50807,39,11
-15.0598,11.9063,-2.3572,10,4
-17.5002,13.8407,3.53385,24,12
-18.2979,14.4715,-2.04101,11,5
-17.2503,13.6479,4.27565,7,13
-14.9164,11.8099,4.39239,35,14
-11.7428,9.30052,-0.261472,100,7
-12.698,10.0607,4.34091,15,15
-12.561,9.98078,0.280041,14,8
-0.414942,0.329824,-0.122373,15,1
-16.0237,12.7413,1.07289,7,9
-0.531689,0.422773,-0.13204,13,2
-15.7314,12.5133,1.75863,68,10
-16.0406,12.7684,2.51733,45,11
-13.3037,10.5936,-2.08811,24,4
-17.3112,13.7897,3.50538,18,12
-12.6495,10.0763,-1.41489,30,5
-19.0312,15.1652,4.73015,11,13
-14.7743,11.7773,-0.990196,18,6
-14.4134,11.4937,4.25607,51,14
-11.6805,9.31776,-0.260809,83,7
-14.283,11.3979,4.89634,12,15
-16.7712,13.4219,0.374948,57,8
-0.413789,0.33127,-0.122373,15,1
-16.9051,13.5387,1.13506,7,9
-0.570052,0.456534,-0.141962,11,2
-9.99616,8.0113,-2.02896,11,3
-15.9866,12.8169,2.51587,28,11
-11.0042,8.82548,-1.73201,7,4
-12.7222,10.207,2.58336,2,12
-12.6826,10.1752,-1.42256,22,5
-17.4485,14.0039,4.34892,23,13
-12.816,10.2896,-0.861345,39,6
-14.5039,11.6489,4.29477,28,14
-11.6214,9.33718,-0.260215,28,7
-14.2672,11.467,4.90462,7,15
-16.7476,13.4992,0.375471,26,8
-0.41263,0.332712,-0.122373,15,1
-15.9421,12.8591,1.07341,15,9
-0.568455,0.458521,-0.141962,11,2
-17.5896,14.193,1.97739,9,10
-15.8337,12.7853,2.49881,33,11
-10.9949,8.8813,-1.73542,54,4
-17.1607,13.8667,3.49443,10,12
-13.0267,10.5262,-1.46526,6,5
-18.8897,15.2693,4.72138,11,13
-12.5703,10.1647,-0.847215,22,6
-14.4237,11.6676,4.28307,15,14
-11.5297,9.32989,-0.258889,100,7
-12.5911,10.218,0.283043,11,8
-0.411524,0.334079,-0.122373,15,1
-15.8591,12.8791,1.07069,10,9
-0.566931,0.460404,-0.141962,11,2
-18.3636,14.9183,2.06995,10,10
-10.2035,8.29219,-2.08246,50,3
-15.7142,12.7751,2.48662,33,11
-10.6666,8.67473,-1.68813,40,4
-14.6215,11.8953,2.9854,24,12
-12.4539,10.1318,-1.4046,27,5
-17.1275,13.939,4.29244,11,13
-12.0904,9.84317,-0.817069,61,6
-14.5391,11.8409,4.32896,34,14
-11.5359,9.39839,-0.259727,48,7
-0.448804,0.366688,-0.155291,12,0
-12.574,10.277,0.283462,71,8
-0.410356,0.335513,-0.122373,15,1
-16.7726,13.7184,1.13559,10,9
-0.565321,0.46238,-0.141962,11,2
-18.2867,14.9622,2.06716,15,10
-10.0889,8.25769,-2.06494,11,3
-14.7771,12.0992,2.34501,40,11
-10.6455,8.71945,-1.6896,52,4
-16.8642,13.8179,3.45313,12,12
-14.5976,11.9608,-1.65108,18,5
-14.6037,11.9701,3.6704,15,13
-11.9325,9.784,-0.808695,71,6
-11.5293,9.46016,-0.26032,46,7
-12.8568,10.5531,4.45686,26,15
-12.7511,10.4962,0.288279,53,8
-0.409182,0.336944,-0.122373,15,1
-25.547,21.0444,1.73462,7,9
-0.533397,0.439386,-0.13433,12,2
-17.012,14.0186,1.92858,21,10
-17.294,14.2611,2.7523,13,11
-12.1984,10.0627,-1.94162,12,4
-15.7646,13.0092,3.23726,1,12
-12.6287,10.4214,-1.43249,11,5
-13.5308,11.1698,3.41052,23,13
-11.8875,9.81669,-0.807963,91,6
-20.5281,16.9703,7.13668,18,15
-0.408003,0.33837,-0.122373,15,1
-16.6134,13.7829,1.13129,16,9
-0.543947,0.451273,-0.137382,12,2
-16.9139,14.0372,1.923,48,10
-10.1617,8.43644,-2.09184,53,3
-14.9198,12.3911,2.38133,30,11
-12.1571,10.1002,-1.94065,34,4
-12.7476,10.5945,2.62528,13,12
-12.5095,10.3967,-1.42308,13,5
-13.4857,11.212,3.40899,45,13
-11.8454,9.85174,-0.807439,81,6
-14.1776,11.7956,4.25787,27,14
-13.269,11.0435,-0.301333,100,7
-12.8347,10.6859,4.47498,16,15
-0.444939,0.371367,-0.155291,12,0
-12.7036,10.6068,0.288872,27,8
-0.40682,0.339792,-0.122373,15,1
-15.4685,12.9199,1.05624,2,9
-0.542369,0.453169,-0.137382,12,2
-15.6082,13.0458,1.77972,7,10
-10.111,8.45412,-2.08746,16,3
-13.8167,11.5567,2.21168,4,11
-10.8155,9.0464,-1.73128,31,4
-13.4895,11.287,2.78579,17,12
-12.49,10.4543,-1.425,30,5
-11.8186,9.89945,-0.807963,39,6
-14.1339,11.8388,4.25652,21,14
-12.8537,10.7702,-0.292712,100,7
-20.5868,17.256,7.19776,27,15
-12.6423,10.627,0.288279,17,8
-15.5692,13.0919,1.06608,6,9
-0.531849,0.447382,-0.135093,12,2
-16.8301,14.1623,1.9244,43,10
-9.72023,8.18229,-2.01237,46,3
-10.7855,9.08221,-1.73128,22,4
-12.2952,10.3609,-1.40669,30,5
-12.8387,10.8227,3.26398,12,13
-12.2545,10.3339,-0.840097,48,6
-14.0126,11.8165,4.23178,24,14
-22.3923,18.8895,-0.511356,63,7
-14.5633,12.2895,5.10598,14,15
-17.3909,14.7173,0.397671,57,8
-0.404557,0.342483,-0.122373,15,1
-17.3189,14.6667,1.18939,56,9
-0.536355,0.454219,-0.136619,12,2
-14.632,12.3957,1.67775,49,10
-10.1662,8.6155,-2.11061,37,3
-14.5801,12.3605,2.34696,20,11
-10.1875,8.63961,-1.64012,52,4
-14.512,12.3114,3.01418,33,12
-12.3304,10.4643,-1.41489,33,5
-13.5167,11.4711,3.44601,13,13
-12.2217,10.3757,-0.840202,68,6
-14.1035,11.9776,4.27182,25,14
-16.0292,13.6178,-0.367129,45,7
-12.5743,10.6864,4.42166,16,15
-12.5925,10.7322,0.288802,42,8
-0.403359,0.343893,-0.122373,15,1
-20.55,17.5266,1.41548,11,9
-0.558583,0.476569,-0.142725,11,2
-16.3899,13.9884,1.88518,34,10
-10.0895,8.61423,-2.10123,35,3
-13.3971,11.4381,2.16294,100,11
-10.4426,8.91878,-1.68618,21,4
-13.694,11.6999,2.85274,6,12
-11.9969,10.2536,-1.38072,28,5
-22.1085,18.9024,5.65405,17,13
-12.3141,10.5321,-0.849203,52,6
-15.1242,12.9401,4.5953,14,14
-12.5825,10.7655,-0.289047,86,7
-12.3358,10.5582,4.35075,6,15
-12.5607,10.7848,0.288977,40,8
-0.402096,0.345369,-0.122373,15,1
-0.539047,0.463163,-0.138146,12,2
-14.4084,12.3845,1.66223,38,10
-9.99649,8.5953,-2.08809,37,3
-13.3731,11.5027,2.16586,23,11
-10.9817,9.44579,-1.77856,15,4
-19.8073,17.043,4.13863,16,12
-12.1528,10.4605,-1.40286,33,5
-14.7718,12.7192,3.78909,17,13
-12.1728,10.4851,-0.841981,42,6
-13.6519,11.7591,4.15979,15,14
-12.5434,10.8081,-0.289012,86,7
-12.2769,10.5822,4.34298,27,15
-12.5839,10.8774,0.290338,26,8
-0.454015,0.392587,-0.13857,13,1
-0.540478,0.467517,-0.138909,12,2
-14.3763,12.44,1.66328,35,10
-9.95748,8.61935,-2.0859,53,3
-16.6274,14.398,2.70062,6,11
-11.357,9.83431,-1.84461,28,4
-12.2431,10.609,-1.41733,22,5
-15.0514,13.0472,3.8719,14,13
-13.5966,11.7902,4.15485,2,14
-12.4123,10.767,-0.286813,100,7
-12.2024,10.5887,4.32901,27,15
-14.5284,12.6427,0.336168,53,8
-0.440952,0.383854,-0.134971,14,1
-14.3443,12.4869,0.996686,20,9
-0.524119,0.456413,-0.135093,12,2
-9.90501,8.63156,-2.08089,46,3
-13.1933,11.5011,2.14904,9,11
-11.2419,9.80344,-1.83145,66,4
-13.4945,11.7678,2.83584,17,12
-11.9496,10.4243,-1.38735,28,5
-20.8229,18.1713,5.37204,15,13
-12.091,10.5551,-0.841144,26,6
-14.8089,12.9323,4.53906,37,14
-12.378,10.8095,-0.286848,70,7
-12.1498,10.6138,4.3228,15,15
-0.47192,0.413571,-0.144868,12,1
-13.395,11.743,0.933569,8,9
-0.531379,0.466007,-0.137382,12,2
-9.86297,8.65264,-2.07808,61,3
-13.0939,11.4911,2.13905,9,11
-11.2704,9.89436,-1.84145,62,4
-12.8759,11.3078,2.71414,16,12
-11.9416,10.4909,-1.39066,31,5
-12.1459,10.6742,-0.847424,16,6
-12.9628,11.3961,3.98478,24,14
-12.4333,10.9345,-0.289012,86,7
-12.1677,10.7047,4.34247,6,15
-18.5792,16.3913,0.432471,11,8
-0.397418,0.350741,-0.122373,15,1
-0.523944,0.462569,-0.135856,12,2
-16.2941,14.3905,1.90191,34,10
-9.90969,8.75502,-2.09434,52,3
-15.6493,13.8307,2.56437,11,11
-11.2269,9.92575,-1.83998,44,4
-13.4786,11.9206,2.84992,44,12
-12.1694,10.7628,-1.42134,13,5
-14.7877,13.0831,3.83793,29,13
-12.472,11.0382,-0.872859,42,6
-12.8748,11.3987,3.96994,22,14
-16.0462,14.2115,-0.374145,38,7
-12.1158,10.7343,4.33729,7,15
-12.5258,11.1288,0.292467,47,8
-0.396192,0.352126,-0.122373,15,1
-13.3067,11.8309,0.93315,9,9
-0.528195,0.469613,-0.137382,12,2
-16.6829,14.8379,1.95333,31,10
-9.86431,8.77643,-2.09122,24,3
-14.7439,13.1224,2.42349,41,11
-11.293,10.0546,-1.85656,24,4
-13.5962,12.1095,2.88371,28,12
-17.6843,15.7506,-2.07187,11,5
-14.827,13.2104,3.86007,21,13
-12.1874,10.8624,-0.855588,19,6
-12.4597,11.109,3.85386,26,14
-13.3968,11.9487,-0.313341,100,7
-12.0754,10.7739,4.33625,15,15
-0.424001,0.3795,-0.131371,14,1
-18.0133,16.1227,1.26695,28,9
-0.520702,0.466216,-0.135856,12,2
-15.3948,13.7887,1.80813,7,10
-9.76152,8.74622,-2.07589,44,3
-14.6713,13.15,2.41911,51,11
-11.0362,9.89522,-1.82,8,4
-13.9075,12.4697,2.95849,60,12
-12.533,11.2412,-1.47293,12,5
-14.6916,13.1821,3.83679,14,13
-11.7065,10.5073,-0.824396,16,6
-20.2741,18.2037,6.29053,8,14
-12.7159,11.4173,-0.298297,100,7
-20.4733,18.389,7.37375,24,15
-14.1614,12.7555,0.332678,18,8
-0.445904,0.401776,-0.13857,13,1
-18.1112,16.3246,1.27783,22,9
-0.513239,0.462772,-0.13433,12,2
-15.3007,13.801,1.80273,15,10
-15.7949,14.2518,2.61215,12,11
-11.1064,10.0249,-1.83706,10,4
-11.8904,10.74,-1.40181,11,5
-19.5096,17.6221,5.11025,17,13
-20.15,18.2133,6.27074,42,14
-12.7189,11.5005,-0.299309,100,7
-12.3858,11.2032,4.47498,2,15
-15.8601,14.3861,0.373761,30,8
-0.392545,0.356187,-0.122373,15,1
-21.315,19.3476,1.50864,13,9
-0.502979,0.456554,-0.13204,13,2
-15.2209,13.8208,1.79872,42,10
-10.5776,9.60804,-2.26329,74,3
-16.1256,14.6526,2.67528,32,11
-11.0141,10.0115,-1.82755,56,4
-13.3042,12.0974,2.84805,16,12
-11.8046,10.7338,-1.39589,13,5
-14.7468,13.4139,3.87495,15,13
-11.7529,10.6943,-0.83277,26,6
-20.0835,18.2809,6.26984,34,14
-12.7349,11.596,-0.300635,100,7
-19.9631,18.1841,7.23555,4,15
-15.6341,14.2809,0.369607,21,8
-0.420071,0.383846,-0.131371,14,1
-17.6607,16.1434,1.25397,3,9
-0.541957,0.495395,-0.142725,11,2
-14.93,13.6521,1.76996,7,10
-10.528,9.63024,-2.25985,65,3
-16.0934,14.7262,2.67844,26,11
-10.9044,9.98153,-1.81512,34,4
-14.7143,13.4738,3.15998,47,12
-11.0529,10.121,-1.31117,2,5
-13.769,12.6126,3.62957,4,13
-10.8231,9.91757,-0.769339,13,6
-20.1675,18.4866,6.31618,34,14
-12.6044,11.5579,-0.298506,85,7
-14.2149,13.0393,5.16862,3,15
-14.5834,13.4148,0.345872,17,8
-0.407256,0.374754,-0.127772,14,1
-16.421,15.1105,1.1695,4,9
-0.49978,0.460054,-0.13204,13,2
-18.3485,16.8959,2.18221,22,10
-10.0076,9.21858,-2.15504,42,3
-16.0171,14.7594,2.6743,6,11
-10.1689,9.37372,-1.69813,19,4
-12.4648,11.4901,2.68504,12,12
-13.2732,12.2396,-1.57961,13,5
-12.2948,11.3414,3.25139,9,13
-10.4567,9.64918,-0.745683,16,6
-20.0112,18.4723,6.28738,8,14
-15.3314,14.1524,-0.364197,97,7
-14.5477,13.4713,0.346081,8,8
-0.428885,0.397291,-0.134971,14,1
-16.3638,15.1636,1.16919,17,9
-0.50393,0.467135,-0.133566,13,2
-16.2879,15.1039,1.9434,18,10
-9.96682,9.24231,-2.15285,40,3
-16.7161,15.5064,2.79958,42,11
-10.129,9.39929,-1.69667,1,4
-13.1934,12.2472,2.85118,35,12
-10.8944,10.1166,-1.30071,28,5
-10.4217,9.68108,-0.745473,16,6
-14.1126,13.1143,4.44773,6,14
-14.5496,13.525,-0.346744,72,7
-14.4976,13.5192,0.346011,10,8
-0.387596,0.361566,-0.122373,15,1
-17.3912,16.2232,1.24643,3,9
-0.490895,0.458088,-0.130513,13,2
-14.6575,13.6827,1.75427,79,10
-9.97926,9.31884,-2.16255,43,3
-20.1216,18.7965,3.3809,20,11
-10.372,9.68894,-1.74273,30,4
-10.8506,10.1432,-1.29949,28,5
-10.7817,10.0858,-0.773735,26,6
-11.5957,10.8472,3.6658,11,14
-11.5348,10.7941,-0.275748,48,7
-13.7973,12.9158,5.06405,13,15
-15.4718,14.5239,0.37041,26,8
-0.409124,0.384193,-0.129572,14,1
-18.339,17.2215,1.31845,25,9
-0.500821,0.470466,-0.133566,13,2
-14.5917,13.7121,1.75183,43,10
-9.96701,9.36947,-2.16662,46,3
-17.1322,16.1107,2.88757,22,11
-10.3282,9.7124,-1.74078,60,4
-14.3953,13.5417,3.13025,8,12
-10.8126,10.175,-1.29897,39,5
-14.6096,13.7529,3.90014,36,13
-10.6231,10.0037,-0.764733,65,6
-11.5837,10.9083,3.67345,23,14
-11.4946,10.8282,-0.275643,25,7
-12.0841,11.3875,4.4491,13,15
-15.4541,14.604,0.371143,26,8
-0.422009,0.398935,-0.134071,14,1
-19.1657,18.1178,1.38219,20,9
-0.510669,0.482916,-0.136619,25,2
-15.8951,15.0365,1.91429,35,10
-9.95167,9.41741,-2.17006,37,3
-17.1061,16.1934,2.8922,15,11
-10.0379,9.50232,-1.69715,35,4
-14.3029,13.5446,3.11993,21,12
-10.8453,10.2738,-1.30699,39,5
-12.5232,11.8675,3.35366,73,13
-10.5537,10.0046,-0.762116,68,6
-12.5431,11.8905,3.99018,2,14
-14.4027,13.6581,-0.346465,43,7
-11.9846,11.369,4.42632,8,15
-15.5157,14.7599,0.373796,33,8
-0.420684,0.400332,-0.134071,14,1
-20.9907,19.9753,1.51858,27,9
-0.520441,0.495436,-0.139672,11,2
-16.1655,15.3942,1.95299,18,10
-13.2072,12.5814,-2.88903,16,3
-16.831,16.0391,2.85467,7,11
-10.1816,9.70263,-1.72689,78,4
-14.2651,13.5987,3.12149,9,12
-10.9626,10.4541,-1.32529,28,5
-10.5204,10.0395,-0.762116,74,6
-36.0701,34.4212,11.5107,20,14
-11.0869,10.5838,-0.267545,24,7
