x, y, z, intensity, ring
-16.6249,20.2035,5.08582,16,13
-7.76758,9.44296,-0.640801,71,6
-17.3676,21.1211,6.31303,51,14
-8.5166,10.3609,-0.234107,100,7
-17.2797,21.0291,7.293,9,15
-8.9553,10.9296,0.246637,11,8
-0.380325,0.464335,-0.13857,13,1
-12.8478,15.6914,1.06284,31,9
-0.466308,0.569717,-0.143107,45,2
-13.023,15.9166,1.79924,77,10
-6.46827,7.90831,-1.61816,53,3
-13.8963,16.99,2.69502,39,11
-7.54412,9.22696,-1.46341,24,4
-17.8327,21.8183,4.46308,28,12
-8.36531,10.2386,-1.15673,26,5
-16.5681,20.2856,5.09117,16,13
-17.2765,21.168,6.30808,25,14
-8.32106,10.1954,-0.229709,42,7
-17.0596,20.9097,7.23089,9,15
-9.15743,11.2602,0.253339,22,8
-0.383538,0.471775,-0.140369,13,1
-12.7413,15.6726,1.05855,25,9
-0.464317,0.571341,-0.143107,45,2
-13.0729,16.0919,1.81389,46,10
-6.38708,7.86491,-1.6047,55,3
-13.7676,16.9591,2.6821,13,11
-18.0414,22.2317,4.53472,32,12
-8.30316,10.2353,-1.15307,52,5
-16.6679,20.5537,5.14383,14,13
-7.78282,9.6007,-0.64771,65,6
-17.5056,21.6021,6.4192,8,14
-8.27661,10.2135,-0.229464,36,7
-20.2126,24.9516,8.60418,6,15
-0.364176,0.450844,-0.155291,12,0
-8.34852,10.3354,0.231908,26,8
-0.352589,0.436656,-0.129572,14,1
-9.38223,11.6234,0.782841,68,9
-0.464785,0.576014,-0.14387,44,2
-12.9691,16.0785,1.80726,42,10
-7.8926,9.7849,-1.9911,28,3
-18.5047,22.9495,3.61976,23,11
-7.53931,9.35359,-1.47511,21,4
-17.5312,21.7577,4.42553,25,12
-21.405,26.5749,6.6329,12,13
-8.69789,10.8025,-0.726842,48,6
-17.2432,21.4233,6.34902,52,14
-8.28353,10.2953,-0.230651,24,7
-19.0248,23.6536,8.13365,12,15
-0.362679,0.45205,-0.155291,12,0
-8.9417,11.1491,0.249465,66,8
-0.380318,0.474374,-0.140369,13,1
-9.42859,11.7604,0.789959,54,9
-0.460417,0.574488,-0.143107,56,2
-13.1424,16.4044,1.83899,52,10
-7.84235,9.79235,-1.98703,26,3
-13.4546,16.8061,2.64335,57,11
-7.56367,9.45115,-1.48632,12,4
-18.3377,22.9138,4.64829,3,12
-8.14866,10.1858,-1.14122,26,5
-16.611,20.771,5.16978,28,13
-8.54913,10.694,-0.717526,65,6
-17.2961,21.6432,6.39626,44,14
-9.34667,11.6958,-0.261332,100,7
-18.9125,23.6743,8.11915,12,15
-0.361098,0.453313,-0.155291,12,0
-8.89346,11.1646,0.249151,90,8
-0.364175,0.457339,-0.134971,14,1
-9.16607,11.5151,0.771327,27,9
-0.463298,0.582237,-0.144633,55,2
-13.2414,16.6467,1.86095,57,10
-7.85164,9.87086,-1.99767,55,3
-19.224,24.1766,3.79257,24,11
-7.85839,9.88643,-1.55067,13,4
-16.9415,21.3213,4.31321,27,12
-8.86154,11.1565,-1.2465,27,5
-16.5164,20.7937,5.16177,17,13
-8.91478,11.2275,-0.751335,39,6
-17.3914,21.911,6.45834,45,14
-8.30399,10.4658,-0.233199,100,7
-18.7841,23.6827,8.09948,12,15
-8.82715,11.1611,0.248383,56,8
-0.362577,0.458608,-0.134971,14,1
-9.29176,11.757,0.785353,80,9
-0.457713,0.579149,-0.143488,44,2
-13.0082,16.4654,1.83585,68,10
-7.77551,9.8455,-1.98703,48,3
-16.7852,21.2614,3.32606,50,11
-7.79677,9.87952,-1.5453,4,4
-20.1361,25.5242,5.1492,17,12
-8.63322,10.9433,-1.21948,27,5
-16.7756,21.272,5.26595,32,13
-8.49469,10.7755,-0.719096,58,6
-17.228,21.8614,6.42595,36,14
-8.604,10.922,-0.242693,29,7
-18.6213,23.6464,8.0648,24,15
-9.04995,11.5253,0.255782,61,8
-0.365787,0.466002,-0.13677,13,1
-9.19889,11.7233,0.780957,46,9
-0.460537,0.586922,-0.145015,43,2
-12.9642,16.5279,1.83777,48,10
-7.62774,9.72802,-1.95793,62,3
-16.5248,21.0824,3.28901,49,11
-20.0201,25.5601,5.14231,16,12
-8.53354,10.895,-1.21077,32,5
-17.9611,22.9397,5.66321,8,13
-16.676,21.3136,6.24779,33,14
-8.29972,10.6117,-0.235154,100,7
-18.7242,23.9487,8.14555,6,15
-8.90762,11.4259,0.252885,42,8
-0.35697,0.458054,-0.134071,14,1
-9.24222,11.8593,0.78797,66,9
-0.459691,0.590074,-0.145396,21,2
-12.9199,16.5904,1.83968,60,10
-7.46147,9.58468,-1.92383,46,3
-16.4267,21.1086,3.28414,69,11
-7.92075,10.1783,-1.58357,42,4
-19.9898,25.6965,5.15639,21,12
-16.2194,20.8647,5.13696,10,13
-7.63493,9.82518,-0.652106,29,6
-16.7392,21.5412,6.29818,25,14
-8.26326,10.6376,-0.235119,100,7
-18.7158,24.1022,8.17661,24,15
-8.8305,11.4048,0.251768,19,8
-0.362606,0.468481,-0.13677,13,1
-9.18573,11.8678,0.786505,13,9
-0.451725,0.583832,-0.143488,22,2
-12.8831,16.6567,1.8423,48,10
-7.15658,9.25619,-1.85312,27,3
-16.4853,21.3294,3.30997,60,11
-7.94765,10.2831,-1.59576,26,4
-19.8344,25.672,5.13825,8,12
-7.90993,10.2416,-1.13215,4,5
-16.1417,20.9075,5.13429,14,13
-16.4188,21.2741,6.20415,8,14
-8.44414,10.9452,-0.241297,21,7
-16.15,20.9409,7.08595,26,15
-8.89137,11.5624,0.254596,15,8
-0.382429,0.497491,-0.144868,12,1
-0.455768,0.59311,-0.145396,21,2
-7.07652,9.21563,-1.8403,46,3
-16.3395,21.2864,3.29486,59,11
-7.85733,10.2399,-1.58479,14,4
-19.5944,25.5452,5.09914,16,12
-7.85895,10.2457,-1.12971,23,5
-16.0854,20.9781,5.13849,17,13
-8.03253,10.4795,-0.691986,61,6
-16.0363,20.9291,6.08718,40,14
-8.23565,10.7523,-0.23641,31,7
-16.0463,20.9573,7.07249,21,15
-0.351767,0.460592,-0.155291,12,0
-8.84732,11.5886,0.254491,34,8
-0.38069,0.498823,-0.144868,12,1
-9.06873,11.8872,0.783574,52,9
-0.439405,0.575967,-0.140817,23,2
-15.9989,20.9788,2.30823,6,10
-7.02634,9.21671,-1.8356,15,3
-16.1689,21.217,3.27536,58,11
-7.81913,10.2641,-1.5843,47,4
-19.5817,25.714,5.11916,24,12
-7.81711,10.2651,-1.12884,11,5
-16.0965,21.145,5.16558,7,13
-7.78907,10.2357,-0.674087,78,6
-15.9148,20.9214,6.06873,63,14
-8.23559,10.8303,-0.237492,37,7
-15.9929,21.0393,7.08129,17,15
-8.8817,11.7182,0.256655,66,8
-0.378946,0.500149,-0.144868,12,1
-0.442133,0.583757,-0.142344,22,2
-15.9148,21.0202,2.30666,62,10
-7.12526,9.41445,-1.87002,37,3
-16.3534,21.6152,3.32801,50,11
-7.74733,10.2438,-1.57699,69,4
-17.8437,23.5935,4.68521,23,12
-7.4544,9.86006,-1.08143,26,5
-16.7411,22.1518,5.39722,11,13
-7.76173,10.274,-0.67482,48,6
-16.1141,21.3376,6.17311,57,14
-8.20686,10.8672,-0.237702,41,7
-17.8587,23.6563,7.94212,17,15
-0.348543,0.463036,-0.155291,12,0
-9.0304,11.9968,0.2621,19,8
-0.332761,0.442231,-0.127772,14,1
-9.00321,11.9694,0.784935,8,9
-0.443633,0.590005,-0.143488,22,2
-15.8868,21.1361,2.31329,68,10
-7.26847,9.67015,-1.91601,62,3
-16.3293,21.7328,3.33776,60,11
-17.1919,22.8974,4.53504,3,12
-7.73927,10.3115,-1.12797,28,5
-16.598,22.1146,5.37471,31,13
-7.82471,10.4291,-0.683298,71,6
-16.0163,21.355,6.16276,65,14
-8.16647,10.8926,-0.237632,31,7
-18.5245,24.7171,8.27652,12,15
-8.9765,12.0122,0.261751,16,8
-0.347543,0.465247,-0.134071,14,1
-15.8842,21.2638,1.39099,28,9
-0.439324,0.588326,-0.142725,22,2
-15.7844,21.1456,2.30858,68,10
-7.39771,9.91394,-1.95919,13,3
-15.6243,20.9464,3.20858,46,11
-7.63945,10.2454,-1.56919,16,4
-17.0769,22.9021,4.52471,29,12
-12.1547,16.3068,-1.77937,20,5
-15.4932,20.7933,5.04041,27,13
-7.89921,10.6053,-0.693033,74,6
-15.965,21.4421,6.17176,66,14
-9.02717,12.1241,-0.263845,100,7
-16.0824,21.6077,7.21743,13,15
-0.287819,0.387832,-0.12941,15,0
-13.2518,17.8566,0.388142,22,8
-0.33671,0.453876,-0.130472,14,1
-15.7337,21.2164,1.38429,27,9
-0.43493,0.586702,-0.141962,34,2
-15.7722,21.2838,2.31765,75,10
-7.4577,10.0638,-1.9839,13,3
-15.5808,21.0331,3.21394,47,11
-12.1323,16.3839,-2.5032,13,4
-16.9722,22.9282,4.51814,22,12
-7.37144,9.96193,-1.08422,7,5
-16.3234,22.0597,5.33426,41,13
-7.83787,10.5961,-0.69073,55,6
-15.9054,21.5106,6.17626,49,14
-16.093,21.7802,7.25625,18,15
-0.343838,0.466541,-0.155291,12,0
-13.1906,17.9043,0.388176,47,8
-0.34668,0.47074,-0.134971,14,1
-15.6181,21.2149,1.38062,36,9
-0.442293,0.600789,-0.145015,43,2
-15.6874,21.3167,2.31555,81,10
-7.42019,10.0866,-1.98328,10,3
-15.5214,21.1066,3.21686,57,11
-7.19565,9.78852,-1.49168,37,4
-16.8148,22.8822,4.49749,35,12
-7.49764,10.2031,-1.10775,73,5
-15.6047,21.2432,5.1236,7,13
-7.77837,10.5928,-0.688741,52,6
-15.8083,21.5361,6.16771,56,14
-7.74275,10.5521,-0.228452,21,7
-15.7689,21.4983,7.14392,22,15
-9.80733,13.4098,0.289989,14,8
-0.354235,0.484533,-0.13857,13,1
-15.6713,21.4434,1.39193,11,9
-0.425134,0.581723,-0.140054,47,2
-15.6505,21.4229,2.32113,50,10
-7.3826,10.1092,-1.98265,53,3
-15.3774,21.0644,3.20224,56,11
-7.5277,10.3155,-1.56797,50,4
-16.1202,22.0982,4.3323,12,12
-7.30346,10.0119,-1.08422,40,5
-15.6195,21.4197,5.15299,17,13
-9.29667,12.7536,-0.827118,22,6
-15.6182,21.4337,6.12272,64,14
-7.69056,10.558,-0.227998,100,7
-15.637,21.4751,7.11804,27,15
-12.8174,17.6545,0.380812,26,8
-0.334228,0.460532,-0.131371,14,1
-15.4239,21.2604,1.37654,27,9
-0.430018,0.592738,-0.142344,45,2
-15.5931,21.5015,2.32375,43,10
-8.29451,11.4416,-2.23826,33,3
-15.6066,21.5359,3.26561,39,11
-7.15858,9.88192,-1.49826,9,4
-15.7359,21.7303,4.24939,31,12
-7.36663,10.1729,-1.09886,54,5
-15.5573,21.4916,5.15719,38,13
-15.573,21.5291,6.13442,65,14
-7.68999,10.635,-0.22908,29,7
-15.5076,21.4544,7.0932,31,15
-8.68928,12.0569,0.259413,31,8
-0.337174,0.46802,-0.133171,14,1
-15.6192,21.6885,1.40072,11,9
-0.429093,0.595829,-0.142725,45,2
-15.511,21.5461,2.3227,12,10
-8.28222,11.509,-2.24577,10,3
-15.5673,21.6402,3.27317,39,11
-15.547,21.6279,4.21873,23,12
-7.23106,10.0594,-1.08387,49,5
-15.4638,21.5202,5.15108,31,13
-7.63206,10.625,-0.685601,100,6
-15.4205,21.4757,6.10382,64,14
-7.65515,10.665,-0.22915,38,7
-15.2682,21.2792,7.01762,35,15
-0.33729,0.471296,-0.155291,12,0
-8.65761,12.1017,0.259727,13,8
-0.35821,0.500897,-0.142169,13,1
-15.3753,21.4997,1.38523,24,9
-0.427011,0.597323,-0.142725,45,2
-15.2851,21.3894,2.30004,12,10
-7.60128,10.6409,-2.07119,27,3
-15.5608,21.7914,3.28779,39,11
-7.22782,10.1255,-1.52751,28,4
-14.8474,20.7999,4.04759,13,12
-7.20053,10.091,-1.08457,11,5
-15.4263,21.6268,5.16367,17,13
-7.91612,11.1021,-0.714595,39,6
-15.4552,21.6833,6.14746,65,14
-7.77991,10.9151,-0.233967,25,7
-15.2513,21.4053,7.04247,26,15
-0.295366,0.415774,-0.136656,14,0
-7.47786,10.5263,0.22538,13,8
-0.340751,0.479838,-0.13587,13,1
-15.314,21.5728,1.38648,19,9
-0.422651,0.595608,-0.141962,34,2
-15.185,21.4069,2.29621,30,10
-7.2608,10.2358,-1.98766,10,3
-7.12073,10.0458,-1.51191,60,4
-14.8204,20.9161,4.0601,34,12
-15.6586,22.1072,5.26595,39,13
-15.2863,21.5977,6.10877,64,14
-7.51423,10.6206,-0.227091,38,7
-15.1877,21.4741,7.04764,35,15
-0.334075,0.473581,-0.155291,12,0
-7.45606,10.5735,0.225834,41,8
-0.361529,0.51288,-0.144868,12,1
-7.58436,10.7595,0.689893,21,9
-0.436506,0.619474,-0.147305,42,2
-15.1357,21.4881,2.29952,49,10
-7.40813,10.5212,-2.03803,16,3
-15.6578,22.2458,3.3402,10,11
-7.07938,10.058,-1.51021,51,4
-15.1317,21.5063,4.16491,19,12
-6.96663,9.90515,-1.05947,76,5
-15.4469,21.9706,5.22053,32,13
-15.2539,21.704,6.12452,48,14
-7.48127,10.6487,-0.227161,100,7
-15.1541,21.5781,7.06524,26,15
-0.303686,0.433547,-0.141833,14,0
-7.46224,10.6572,0.227091,33,8
-0.341947,0.488532,-0.13767,13,1
-7.52573,10.7519,0.687799,62,9
-0.437826,0.625744,-0.148449,20,2
-15.0118,21.4631,2.2915,49,10
-15.5226,22.2097,3.32703,20,11
-7.02097,10.0456,-1.50484,57,4
-15.0694,21.5693,4.16741,16,12
-6.90978,9.8939,-1.0558,26,5
-15.5358,22.2535,5.27549,18,13
-7.75303,11.1096,-0.70999,35,6
-14.864,21.2991,5.9963,61,14
-7.09925,10.1765,-0.216584,100,7
-15.0714,21.6124,7.06007,21,15
-0.330926,0.475786,-0.155291,12,0
-8.55813,12.3089,0.261681,63,8
-0.318081,0.457659,-0.128672,14,1
-12.3997,17.8475,1.13894,30,9
-0.44807,0.644928,-0.152647,19,2
-14.8565,21.3916,2.2786,85,10
-14.6305,21.082,3.15081,27,11
-7.12503,10.2707,-1.53482,58,4
-15.0278,21.6705,4.1768,30,12
-6.86612,9.90486,-1.05441,28,5
-15.3814,22.1887,5.24801,32,13
-14.8195,21.3941,6.00844,31,14
-7.35853,10.6271,-0.225625,27,7
-15.0047,21.6776,7.06421,17,15
-0.289679,0.419756,-0.136656,14,0
-8.50147,12.319,0.261263,10,8
-0.338614,0.490848,-0.13767,13,1
-12.4723,18.0864,1.15139,9,9
-0.435675,0.632018,-0.149213,20,2
-14.8051,21.4853,2.28278,61,10
-14.6323,21.2424,3.16714,46,11
-7.22423,10.4917,-1.56407,43,4
-14.9599,21.7342,4.17899,30,12
-6.68808,9.72031,-1.03227,24,5
-15.1565,22.0363,5.19878,39,13
-7.41503,10.7849,-0.685915,71,6
-14.7796,21.5044,6.02419,54,14
-14.8895,21.6725,7.04557,30,15
-0.327513,0.478142,-0.155291,12,0
-7.55924,11.04,0.233548,35,8
-0.339014,0.495302,-0.13857,13,1
-12.283,17.9523,1.13998,13,9
-0.4379,0.640016,-0.150739,19,2
-14.8088,21.652,2.29498,49,10
-5.75503,8.41761,-1.61503,60,3
-14.943,21.8646,3.25172,38,11
-6.66727,9.7592,-1.45122,8,4
-12.2343,17.9146,3.43593,22,12
-15.1514,22.1945,5.22359,14,13
-7.40211,10.847,-0.688218,68,6
-14.9065,21.8521,6.10697,64,14
-7.01754,10.2912,-0.217422,20,7
-14.8383,21.7685,7.05903,26,15
-0.271535,0.399402,-0.12941,15,0
-8.52439,12.5432,0.264718,7,8
-0.337283,0.496483,-0.13857,13,1
-7.30342,10.7547,0.68131,23,9
-0.420222,0.618803,-0.145396,21,2
-14.6514,21.5832,2.28226,55,10
-6.05061,8.91658,-1.7067,50,3
-14.4877,21.3581,3.16885,46,11
-6.93618,10.2293,-1.51752,49,4
-14.7563,21.7704,4.16554,19,12
-6.65248,9.81459,-1.03733,4,5
-15.0937,22.2765,5.23046,18,13
-7.35187,10.8546,-0.687066,68,6
-14.8618,21.9508,6.12002,40,14
-7.57225,11.1884,-0.235817,63,7
-16.7789,24.8011,8.02339,23,15
-0.324167,0.480417,-0.155291,12,0
-0.322474,0.478268,-0.133171,14,1
-7.27476,10.7934,0.682147,68,9
-0.433421,0.643058,-0.150739,19,2
-12.0288,17.8536,1.88344,85,10
-6.04593,8.97697,-1.71421,25,3
-12.095,17.9653,2.65919,44,11
-5.87967,8.73669,-1.29303,8,4
-14.7365,21.9054,4.18149,31,12
-6.79278,10.0973,-1.06469,26,5
-15.4496,22.9742,5.38158,38,13
-7.30837,10.8719,-0.686543,39,6
-16.4568,24.4902,6.81197,60,14
-16.5157,24.5964,7.9385,23,15
-0.322488,0.481545,-0.155291,12,0
-7.36535,11.0022,0.231105,45,8
-0.325138,0.485869,-0.134971,14,1
-11.9189,17.8176,1.12344,15,9
-6.09539,9.11205,-2.13095,4,2
-11.9853,17.9237,1.8864,72,10
-5.92564,8.865,-1.68887,67,3
-11.977,17.9249,2.647,38,11
-6.61763,9.90772,-1.46292,16,4
-14.6665,21.9665,4.18337,2,12
-6.62252,9.91879,-1.04343,23,5
-15.3966,23.0688,5.39112,31,13
-7.32691,10.9821,-0.691881,45,6
-14.4314,21.639,6.00484,38,14
-7.00035,10.5005,-0.220284,100,7
-16.3429,24.5237,7.89657,33,15
-0.320974,0.482556,-0.155291,12,0
-7.24882,10.9021,0.228522,32,8
-0.31498,0.473904,-0.131371,14,1
-5.75274,8.65858,-2.02067,4,2
-12.0193,18.0973,1.90069,93,10
-5.98517,9.01523,-1.7139,32,3
-11.9679,18.0336,2.65748,25,11
-6.58318,9.9235,-1.46219,45,4
-15.4337,23.2736,4.42303,21,12
-6.53186,9.84988,-1.03402,27,5
-16.258,24.526,5.71969,8,13
-7.4722,11.2764,-0.708943,45,6
-16.3338,24.659,6.82861,20,14
-7.16715,10.8243,-0.226602,38,7
-16.1741,24.4364,7.85205,22,15
-7.2834,11.0375,0.230826,31,8
-0.328347,0.497775,-0.13767,13,1
-7.20032,10.9199,0.685496,64,9
-5.6771,8.60977,-2.00464,9,2
-11.8497,17.9778,1.88378,97,10
-5.77977,8.77214,-1.66384,12,3
-14.5156,22.0391,3.24026,9,11
-6.53321,9.9232,-1.45878,37,4
-15.5945,23.6953,4.4928,34,12
-6.47882,9.84433,-1.03105,42,5
-15.0199,22.8309,5.31212,26,13
-8.64763,13.1497,-0.824815,13,6
-15.0155,22.8415,6.31078,51,14
-7.05794,10.7406,-0.224333,37,7
-15.2508,23.2171,7.44312,40,15
-7.1528,10.9223,0.227894,62,8
-0.318068,0.485874,-0.134071,14,1
-7.10966,10.8647,0.680472,26,9
-5.59541,8.55068,-1.98632,4,2
-11.7029,17.8907,1.87036,90,10
-5.70803,8.72943,-1.65195,10,3
-14.3234,21.9135,3.21443,19,11
-6.50505,9.95592,-1.46024,25,4
-15.4922,23.7198,4.48717,34,12
-6.6329,10.1555,-1.06121,45,5
-14.7287,22.5593,5.23694,7,13
-7.68693,11.7782,-0.7371,35,6
-14.8516,22.7649,6.27523,68,14
-7.11871,10.9159,-0.227475,100,7
-15.1444,23.2314,7.4307,9,15
-7.04381,10.8382,0.225625,13,8
-0.31637,0.486981,-0.134071,14,1
-7.75809,11.9464,0.74652,51,9
-6.26803,9.65192,-2.23704,9,2
-11.6436,17.9364,1.87089,49,10
-6.93777,10.6914,-2.01863,23,3
-14.2792,22.0133,3.22174,47,11
-6.4789,9.99189,-1.46219,60,4
-15.2482,23.5251,4.44024,28,12
-6.69819,10.334,-1.07742,11,5
-14.683,22.6617,5.24877,39,13
-7.08661,10.9417,-0.683194,26,6
-14.807,22.8706,6.29008,42,14
-7.00126,10.8182,-0.224927,30,7
-16.0726,24.8445,7.92866,23,15
-11.364,17.62,0.365977,14,8
-0.329452,0.511013,-0.140369,13,1
-7.1113,11.0303,0.687799,43,9
-0.422214,0.655148,-0.151502,19,2
-11.5734,17.9652,1.86967,41,10
-5.8031,9.01155,-1.69763,6,3
-14.1454,21.9746,3.20882,75,11
-6.63411,10.3099,-1.50533,85,4
-14.4379,22.4376,4.22592,31,12
-7.36375,11.4482,-1.1909,37,5
-14.7184,22.8911,5.28999,26,13
-14.8956,23.1844,6.36207,70,14
-7.14369,11.1189,-0.230686,100,7
-15.9755,24.8749,7.92142,23,15
-0.313048,0.489124,-0.134071,14,1
-11.6171,18.1582,1.12972,22,9
-6.30204,9.85423,-2.27368,4,2
-11.4773,17.9535,1.86426,57,10
-8.06181,12.6108,-2.37061,43,3
-14.1291,22.11,3.22174,66,11
-6.5379,10.2348,-1.49119,46,4
-13.7641,21.5555,4.05071,28,12
-14.7312,23.0788,5.32204,22,13
-6.90239,10.8179,-0.672517,74,6
-14.3827,22.5502,6.17491,16,14
-7.11774,11.164,-0.231105,100,7
-16.1523,25.3443,8.0529,11,15
-6.86105,10.7988,0.223321,62,8
-0.328055,0.516533,-0.141269,13,1
-11.5901,18.256,1.13328,39,9
-6.16726,9.71429,-2.23666,9,2
-13.95,21.9817,2.27773,55,10
-5.59877,8.82566,-1.65539,18,3
-14.0188,22.1072,3.21418,57,11
-6.47557,10.2157,-1.4851,39,4
-13.7343,21.6752,4.06417,31,12
-6.65647,10.5051,-1.08805,9,5
-14.2566,22.5082,5.17894,3,13
-6.83895,10.8014,-0.670005,32,6
-14.3456,22.6661,6.1929,74,14
-7.55449,11.9408,-0.246637,26,7
-14.6729,23.2012,7.35564,19,15
-0.309174,0.4902,-0.155291,12,0
-6.82545,10.826,0.223391,46,8
-0.32625,0.517676,-0.141269,13,1
-11.6093,18.4282,1.14145,27,9
-5.40288,8.57631,-1.97029,4,2
-13.9433,22.1415,2.28923,49,10
-10.2277,16.2476,-3.04077,16,3
-13.9384,22.151,3.21345,57,11
-6.49377,10.3239,-1.49753,31,4
-13.9571,22.1979,4.15302,16,12
-7.52757,11.9721,-1.23726,7,5
-13.9408,22.1805,5.09231,37,13
-11.4997,18.3036,-1.13286,18,6
-14.3223,22.8052,6.2172,67,14
-7.07896,11.2761,-0.232396,54,7
-14.562,23.2049,7.34063,38,15
-0.307461,0.491276,-0.155291,12,0
-6.95094,11.1109,0.228766,10,8
-0.322375,0.515507,-0.140369,13,1
-7.62887,12.1993,0.754057,10,9
-0.417304,0.667566,-0.153029,18,2
-14.0739,22.5229,2.32357,37,10
-5.44074,8.71039,-1.62661,36,3
-13.8736,22.2197,3.21638,38,11
-6.7541,10.8214,-1.56626,58,4
-13.8646,22.2139,4.14739,33,12
-6.77703,10.8624,-1.12013,7,5
-14.0617,22.5472,5.1652,28,13
-7.19764,11.5455,-0.713025,13,6
-14.3354,23.0039,6.25769,34,14
-8.17211,13.1137,-0.269709,89,7
-14.438,23.1776,7.31681,28,15
-0.305744,0.492347,-0.155291,12,0
-6.96575,11.2171,0.230476,28,8
-0.295997,0.476837,-0.129572,14,1
-0.406692,0.655671,-0.149976,10,2
-11.4124,18.4064,1.89477,34,10
-13.7664,22.2116,3.20858,9,11
-6.4108,10.3476,-1.49461,58,4
-13.8889,22.4268,4.17805,13,12
-6.73277,10.8758,-1.11908,26,5
-13.9806,22.5837,5.16291,38,13
-14.1237,22.8325,6.1983,66,14
-6.94,11.2237,-0.230337,29,7
-14.2453,23.0471,7.25987,23,15
-0.30411,0.493358,-0.155291,12,0
-6.93809,11.2601,0.23086,37,8
-0.318858,0.517689,-0.140369,13,1
-14.0588,22.8343,1.40533,23,9
-5.18974,8.4292,-1.92412,9,2
-13.7887,22.4044,2.30161,67,10
-14.2919,23.2403,3.34994,30,11
-6.56385,10.6777,-1.53897,43,4
-13.8861,22.598,4.20089,14,12
-14.1864,23.0957,5.26862,32,13
-7.07813,11.5279,-0.708943,61,6
-14.2804,23.267,6.30268,69,14
-6.93424,11.3024,-0.231454,40,7
-14.2456,23.2284,7.30129,47,15
-6.89353,11.2757,0.230686,37,8
-0.319082,0.522124,-0.141269,13,1
-13.8644,22.6958,1.39381,2,9
-5.17359,8.46905,-1.92908,2,2
-13.7353,22.4932,2.30579,56,10
-5.41354,8.8688,-1.64569,12,3
-14.3927,23.5882,3.39284,20,11
-6.60302,10.826,-1.557,24,4
-13.3639,21.9193,4.06604,28,12
-6.57355,10.7819,-1.10479,33,5
-13.9442,22.8802,5.20832,39,13
-6.9942,11.4809,-0.704547,81,6
-14.2245,23.3583,6.31393,60,14
-10.6608,17.5133,-0.357879,100,7
-14.2126,23.3572,7.32613,23,15
-0.300658,0.495469,-0.155291,12,0
-6.8282,11.257,0.229813,27,8
-0.303112,0.499906,-0.134971,14,1
-11.3328,18.6906,1.14553,12,9
-5.43808,8.97227,-2.03937,16,2
-13.2923,21.9395,2.24426,82,10
-13.456,22.2272,3.1903,56,11
-6.60513,10.9107,-1.56602,45,4
-13.3065,21.9889,4.07074,28,12
-6.51937,10.7775,-1.102,23,5
-13.9445,23.0615,5.23847,32,13
-6.93446,11.4727,-0.702558,84,6
-14.038,23.2253,6.26534,59,14
-7.55724,12.508,-0.255084,33,7
-0.299013,0.496463,-0.155291,12,0
-6.77949,11.2607,0.229429,41,8
-0.323559,0.537642,-0.144868,12,1
-11.2296,18.6596,1.14134,37,9
-5.43967,9.04241,-2.0512,23,2
-13.2081,21.9647,2.24234,23,10
-6.35955,10.5799,-1.95512,23,3
-13.7083,22.8145,3.26805,48,11
-6.59856,10.9818,-1.57309,40,4
-13.2396,22.0431,4.07262,10,12
-7.00868,11.6736,-1.19124,27,5
-13.6801,22.7945,5.16749,38,13
-6.84192,11.4049,-0.69701,29,6
-13.8858,23.1464,6.23159,67,14
-10.3486,17.3186,0.352155,38,8
-0.306785,0.513617,-0.13812,13,1
-11.1021,18.587,1.13464,22,9
-5.10169,8.54458,-1.93442,26,2
-13.2721,22.2376,2.2657,66,10
-6.49445,10.8859,-2.00768,38,3
-13.655,22.8973,3.27341,58,11
-6.65166,11.1583,-1.59503,26,4
-13.2928,22.2989,4.11172,33,12
-6.57625,11.0361,-1.12396,33,5
-13.733,23.0556,5.21634,39,13
-10.5346,17.693,-1.07917,16,6
-13.8049,23.1947,6.23159,67,14
-11.1478,18.7303,-0.380462,55,7
-0.295627,0.498487,-0.155291,12,0
-10.3859,17.5128,0.355401,51,8
-0.307067,0.517984,-0.13902,13,1
-11.1186,18.7631,1.14302,10,9
-5.28695,8.92551,-2.01647,23,2
-13.1822,22.2632,2.26361,12,10
-6.408,10.8224,-1.99204,63,3
-13.9136,23.5079,3.35409,30,11
-10.5486,17.8297,-2.54366,30,4
-13.237,22.3826,4.11861,33,12
-6.48902,10.9767,-1.11559,19,5
-13.7654,23.2852,5.25793,39,13
-9.77273,16.538,-1.00673,22,6
-13.7804,23.3293,6.25544,68,14
-7.38957,12.515,-0.253688,100,7
-10.2244,17.3783,0.351945,18,8
-0.301306,0.512333,-0.13722,13,1
-13.1402,22.3522,1.35885,27,9
-5.32498,9.05808,-2.04242,19,2
-13.5252,23.0163,2.3356,57,10
-6.23211,10.6096,-1.94886,56,3
-13.748,23.4143,3.33386,20,11
-6.54039,11.1434,-1.5865,17,4
-13.1278,22.3759,4.10891,27,12
-6.51207,11.0996,-1.12588,26,5
-13.7565,23.4568,5.28579,33,13
-9.79171,16.7029,-1.01469,15,6
-13.4427,22.9401,6.13846,32,14
-7.33371,12.52,-0.253269,100,7
-12.9356,22.1633,0.447933,15,8
-0.309336,0.530214,-0.141719,13,1
-8.87641,15.2206,0.923416,14,9
-4.99266,8.56105,-1.92641,26,2
-13.4156,23.0134,2.33054,76,10
-5.92353,10.1654,-1.86345,62,3
-13.3505,22.9201,3.25684,19,11
-5.04215,8.6598,-1.23039,15,4
-13.1063,22.5189,4.12674,30,12
-6.344,10.9001,-1.10339,11,5
-13.6153,23.4028,5.26289,29,13
-9.40502,16.1724,-0.980462,32,6
-13.8787,23.8747,6.37556,70,14
-7.28795,12.5421,-0.2532,100,7
-9.2351,15.9506,0.321718,22,8
-0.309436,0.534664,-0.142619,13,1
-8.21862,14.2007,0.85988,18,9
-5.35402,9.25478,-2.07829,11,2
-13.3093,23.0152,2.32601,50,10
-5.88207,10.1757,-1.86157,66,3
-13.2396,22.9132,3.24928,28,11
-6.29366,10.8965,-1.54506,52,4
-6.16445,10.6771,-1.07864,4,5
-13.5855,23.5403,5.28312,41,13
-9.63095,16.6947,-1.01008,37,6
-13.8576,24.0311,6.40436,26,14
-7.22834,12.535,-0.252571,100,7
-9.19012,15.995,0.321997,22,8
-0.282427,0.491751,-0.130922,14,1
-8.74277,15.2287,0.920276,31,9
-4.98163,8.68083,-1.94549,23,2
-13.7146,23.9084,2.41143,40,10
-4.83984,8.43717,-1.54057,77,3
-12.9651,22.6109,3.20029,65,11
-4.9357,8.61125,-1.21869,49,4
-13.2974,23.2092,4.23656,17,12
-6.01922,10.5101,-1.05964,30,5
-13.5581,23.6738,5.30296,18,13
-9.11313,15.9189,-0.961307,3,6
-8.99358,15.7228,-0.316168,30,7
-9.09165,15.9523,0.320496,9,8
-0.311577,0.546917,-0.145318,12,1
-8.65398,15.1967,0.916507,39,9
-5.33851,9.3746,-2.09699,21,2
-13.8709,24.3676,2.45309,13,10
-4.98131,8.75447,-1.59532,43,3
-12.9725,22.8078,3.22174,19,11
-5.0626,8.90454,-1.25769,52,4
-13.2182,23.2589,4.23718,31,12
-6.62125,11.6508,-1.17242,37,5
-13.2407,23.3079,5.21061,7,13
-7.09196,12.4892,-0.752696,26,6
-9.12812,16.088,-0.32287,75,7
-8.36378,14.795,0.296656,1,8
-0.301996,0.534429,-0.141719,13,1
-8.65097,15.3155,0.921846,36,9
-5.19857,9.20343,-2.05463,26,2
-12.8022,22.674,2.27808,73,10
-4.84684,8.58773,-1.56184,12,3
-12.684,22.483,3.16958,55,11
-6.28935,11.1527,-1.57211,21,4
-12.6733,22.4823,4.08763,13,12
-6.51695,11.561,-1.16109,30,5
-13.1535,23.3437,5.20832,39,13
-8.11959,14.4276,-0.288977,63,7
-8.29741,14.7979,0.296132,35,8
-0.300129,0.53548,-0.141719,13,1
-8.64139,15.424,0.926556,39,9
-4.92844,8.79676,-1.95999,26,2
-12.7814,22.8228,2.28854,67,10
-4.72034,8.43223,-1.53056,53,3
-12.7916,22.8597,3.21638,57,11
-5.08268,9.08692,-1.27841,28,4
-12.668,22.6575,4.11141,30,12
-7.44012,13.3071,-1.33383,21,5
-13.094,23.4289,5.2171,32,13
-6.98122,12.4965,-0.750184,42,6
-8.0799,14.4751,-0.289361,27,7
-8.17476,14.6992,0.293584,57,8
-0.328557,0.591028,-0.156116,11,1
-8.50698,15.3092,0.917868,37,9
-4.91678,8.84823,-1.96762,26,2
-12.6078,22.6984,2.27163,24,10
-4.688,8.44347,-1.52962,72,3
-12.7984,23.0605,3.23831,57,11
-6.07652,10.9533,-1.53799,16,4
-12.8073,23.0954,4.18274,23,12
-6.55686,11.824,-1.18288,52,5
-13.2006,23.8145,5.29266,41,13
-6.54842,11.8185,-0.708106,26,6
-6.71015,12.1204,-0.241821,23,7
-8.1234,14.7277,0.293584,57,8
-0.296383,0.537562,-0.141719,13,1
-8.49301,15.4105,0.92216,29,9
-4.82805,8.76045,-1.94434,28,2
-8.20525,14.8945,1.48775,6,10
-4.92721,8.94775,-1.61785,61,3
-12.6528,22.9867,3.22174,47,11
-4.85931,8.83174,-1.23771,42,4
-12.5438,22.8077,4.12267,30,12
-9.08106,16.5116,-1.64864,18,5
-12.6927,23.0879,5.12131,24,13
-6.49078,11.8116,-0.706326,42,6
-6.55231,11.9334,-0.237632,39,7
-8.02588,14.6717,0.291909,40,8
-0.301984,0.552272,-0.145318,12,1
-8.06271,14.7513,0.881024,20,9
-4.78614,8.75658,-1.93976,28,2
-8.1064,14.8374,1.47921,71,10
-4.85428,8.88861,-1.60408,67,3
-9.99859,18.3159,2.56218,29,11
-4.66775,8.55415,-1.19651,31,4
-12.5521,23.0126,4.15177,33,12
-9.01382,16.5257,-1.64689,14,5
-10.2165,18.7384,4.14857,23,13
-6.41319,11.7675,-0.702349,100,6
-6.55939,12.0458,-0.239412,29,7
-7.88879,14.5414,0.288768,84,8
-0.300055,0.553323,-0.145318,12,1
-8.02422,14.7972,0.882175,11,9
-4.80327,8.86126,-1.95923,45,2
-7.97767,14.7237,1.46509,46,10
-4.81382,8.88813,-1.60095,87,3
-7.9405,14.6673,2.04789,26,11
-4.65487,8.60182,-1.2009,52,4
-8.26668,15.2762,2.75106,26,12
-6.47629,11.9726,-1.1909,30,5
-10.1482,18.7688,4.14742,8,13
-6.4433,11.9216,-0.710199,87,6
-6.43957,11.9197,-0.23648,31,7
-7.84148,14.5693,0.288802,21,8
-0.307451,0.571476,-0.149817,12,1
-7.90252,14.695,0.874429,22,9
-4.83273,8.99037,-1.98403,33,2
-7.77439,14.4689,1.43702,68,10
-4.77216,8.88143,-1.59688,56,3
-7.86552,14.6446,2.04107,48,11
-4.61411,8.59447,-1.19773,11,4
-8.20303,15.2858,2.74762,48,12
-6.46554,12.0531,-1.19665,30,5
-7.7345,14.4248,-0.857786,35,6
-8.33032,15.5425,4.07116,28,14
-6.49802,12.1289,-0.24018,88,7
-6.52698,12.2291,0.24196,48,8
-0.281605,0.527842,-0.13812,13,1
-7.79667,14.6203,0.868358,20,9
-4.77794,8.95958,-1.97373,35,2
-7.71888,14.4805,1.43563,59,10
-4.71419,8.84747,-1.58781,12,3
-7.81248,14.6684,2.04058,61,11
-5.02906,9.44635,-1.314,45,4
-8.14406,15.3039,2.74574,30,12
-6.57061,12.3471,-1.22367,35,5
-8.09327,15.2148,3.34984,20,13
-6.14915,11.5649,-0.686438,48,6
-8.25681,15.5353,4.06172,11,14
-7.87981,14.8322,-0.293166,62,7
-8.04578,15.151,4.59663,15,15
-7.14933,13.5084,0.266777,27,8
-0.294341,0.556383,-0.145318,12,1
-7.78573,14.7233,0.872859,37,9
-4.79712,9.07165,-1.99472,30,2
-4.97397,9.41404,-1.68636,40,3
-7.78905,14.7483,2.04789,52,11
-6.12946,11.6108,-1.61209,24,4
-6.5418,12.3971,2.22012,24,12
-6.55723,12.4264,-1.22924,20,5
-7.91097,14.9981,3.29603,33,13
-6.09757,11.5651,-0.685182,71,6
-8.18891,15.5382,4.05497,46,14
-7.77299,14.7553,-0.291106,31,7
-8.00724,15.2064,4.60491,15,15
-0.292397,0.557407,-0.145318,12,1
-7.75263,14.7791,0.874639,41,9
-4.78092,9.1179,-2.0012,38,2
-7.61297,14.5252,1.43476,34,10
-5.02725,9.59583,-1.71577,41,3
-7.85171,14.9934,2.07812,18,11
-7.7099,14.7289,2.63311,41,12
-6.62003,12.6522,-1.24929,27,5
-7.90042,15.1057,3.31359,17,13
-6.05438,11.581,-0.684868,35,6
-7.92245,15.1543,3.94789,22,14
-7.77033,14.8696,-0.292851,27,7
-7.95141,15.2226,4.6018,15,15
-7.74789,14.8835,0.292886,81,8
-0.290547,0.558374,-0.145318,12,1
-7.77457,14.9412,0.882698,32,9
-4.61296,8.86896,-1.9432,45,2
-7.97558,15.3406,1.51268,74,10
-5.89993,11.353,-2.02645,30,3
-7.68756,14.7992,2.04765,39,11
-4.87187,9.37875,-1.29766,17,4
-6.49312,12.5051,2.23169,19,12
-4.74056,9.13375,-0.900319,20,5
-7.93164,15.2886,3.34793,41,13
-6.68898,12.8988,-0.761488,45,6
-6.28445,12.1239,-0.238365,72,7
-7.91066,15.2677,4.6075,37,15
-7.62785,14.7723,0.290199,45,8
-0.288694,0.559334,-0.145318,12,1
-7.6482,14.8245,0.87422,29,9
-4.55562,8.83012,-1.93137,54,2
-8.08173,15.6715,1.54266,35,10
-4.56164,8.84937,-1.57686,67,3
-7.91031,15.3522,2.12053,49,11
-4.68458,9.09568,-1.25623,42,4
-6.47836,12.5839,2.24171,44,12
-6.74937,13.1103,-1.29008,34,5
-7.91145,15.3742,3.36091,8,13
-6.44975,12.5391,-0.738984,65,6
-7.71486,15.0051,3.89525,39,14
-6.21559,12.0942,-0.237353,35,7
-7.82201,15.2265,4.58679,44,15
-0.264194,0.515836,-0.155291,12,0
-7.63364,14.911,0.292398,61,8
-0.28674,0.560338,-0.145318,12,1
-7.23987,14.154,0.833189,40,9
-4.5051,8.80752,-1.92297,54,2
-6.55582,12.8222,1.25992,30,10
-4.50465,8.81423,-1.56779,55,3
-7.64535,14.9661,2.06349,48,11
-4.64559,9.09783,-1.25428,64,4
-6.44158,12.6205,2.24421,46,12
-6.68817,13.1036,-1.28712,7,5
-6.38508,12.5206,-0.736576,48,6
-7.71466,15.1343,3.9218,65,14
-6.17061,12.1105,-0.237248,39,7
-7.77144,15.2589,4.58834,31,15
-7.56435,14.9037,0.291734,53,8
-0.274202,0.540481,-0.13992,13,1
-7.19832,14.1886,0.833817,42,9
-4.43348,8.74265,-1.90542,64,2
-6.51914,12.861,1.26149,68,10
-4.53457,8.94972,-1.58906,48,3
-7.57691,14.9608,2.0591,48,11
-6.78352,13.4,-1.84413,16,4
-6.3649,12.5731,2.23201,51,12
-6.49756,12.8407,-1.25905,27,5
-7.71354,15.2504,3.32199,35,13
-6.27735,12.4163,-0.729145,71,6
-7.69431,15.2255,3.93844,63,14
-6.1232,12.1166,-0.236969,40,7
-7.72254,15.288,4.58938,31,15
-7.54276,14.9841,0.292816,34,8
-0.260145,0.517016,-0.133621,14,1
-7.15233,14.2208,0.834235,47,9
-4.36149,8.67563,-1.88748,76,2
-6.57529,13.0849,1.28119,57,10
-4.51728,8.98942,-1.59344,21,3
-7.5237,14.9787,2.05813,61,11
-6.8869,13.7169,-1.88459,38,4
-6.34223,12.6376,2.23952,52,12
-6.81897,13.5935,-1.33052,28,5
-7.76504,15.4794,3.36625,36,13
-6.2442,12.4531,-0.730087,42,6
-7.63504,15.2335,3.93394,47,14
-6.06475,12.1057,-0.23634,41,7
-7.65615,15.289,4.58161,30,15
-7.50202,15.0336,0.29327,21,8
-0.267037,0.53536,-0.13812,13,1
-7.12047,14.2815,0.836329,42,9
-4.33095,8.68653,-1.88672,76,2
-7.40011,14.8488,1.45149,25,10
-4.65234,9.33931,-1.65257,60,3
-7.5333,15.1293,2.07519,45,11
-6.47103,13.0016,-1.78319,7,4
-6.328,12.7198,2.25015,45,12
-6.82799,13.7248,-1.34115,5,5
-7.60781,15.299,3.32122,36,13
-6.41672,12.9094,-0.755522,48,6
-7.61129,15.3194,3.94924,52,14
-6.02245,12.1268,-0.23634,39,7
-7.59243,15.2948,4.5754,30,15
-7.65608,15.4773,0.301403,28,8
-0.289352,0.585201,-0.150717,11,1
-7.1334,14.4333,0.84376,47,9
-4.4563,9.01664,-1.95503,68,2
-6.18515,12.5202,1.22175,57,10
-4.63371,9.38384,-1.65758,35,3
-7.00512,14.1925,1.94333,33,11
-6.44141,13.0561,-1.78758,2,4
-5.88166,11.9268,2.10623,42,12
-7.26911,14.7403,-1.4379,31,5
-6.37691,12.9425,-0.75615,9,6
-7.53281,15.2952,3.93619,57,14
-5.93416,12.0545,-0.234525,99,7
-7.5842,15.4131,4.60284,34,15
-6.57814,13.4158,0.260809,16,8
-0.277015,0.565209,-0.145318,12,1
-7.11286,14.5191,0.847319,22,9
-4.53795,9.2631,-2.00502,61,2
-6.13703,12.5328,1.22088,70,10
-4.62698,9.45318,-1.66697,17,3
-7.32718,14.9765,2.04716,52,11
-6.32168,12.927,-1.76686,16,4
-6.14188,12.5649,2.21511,56,12
-6.30678,12.9022,-1.25644,12,5
-6.27209,12.8426,-0.749032,13,6
-7.47082,15.3039,3.93169,36,14
-5.78506,11.8559,-0.230267,42,7
-7.60995,15.6027,4.6515,22,15
-7.39575,15.2174,0.29533,49,8
-0.259713,0.534621,-0.13722,13,1
-7.14414,14.7128,0.857158,73,9
-4.23289,8.71727,-1.88367,40,2
-6.09846,12.5649,1.22192,55,10
-4.60516,9.49238,-1.67103,11,3
-7.29218,15.0377,2.05204,56,11
-6.26439,12.924,-1.76345,20,4
-5.82667,12.0263,2.11656,23,12
-6.26952,12.9403,-1.25801,77,5
-7.02276,14.5014,3.13194,41,13
-6.22984,12.8698,-0.749346,35,6
-5.69097,11.7619,3.01659,23,14
-5.77846,11.948,-0.231663,25,7
-7.49743,15.5092,4.61578,27,15
-0.251603,0.522092,-0.155291,12,0
-7.3287,15.2143,0.294771,40,8
-0.281517,0.584687,-0.149817,12,1
-7.02946,14.5996,0.849203,27,9
-4.30289,8.94075,-1.9287,26,2
-6.09948,12.6794,1.23099,70,10
-4.5797,9.52442,-1.67385,21,3
-7.18719,14.9539,2.03717,48,11
-4.47252,9.30984,-1.26817,31,4
-6.2269,12.9675,-1.25853,20,5
-6.97719,14.5365,3.13423,16,13
-6.1892,12.9005,-0.74987,35,6
-5.6128,11.7043,2.9968,51,14
-5.76216,12.0158,-0.232606,21,7
-7.58502,15.8809,0.307197,15,8
-0.271181,0.568031,-0.145318,12,1
-7.38703,15.4803,0.898922,40,9
-4.16347,8.72889,-1.87985,68,2
-6.03117,12.6503,1.22611,52,10
-4.36532,9.15619,-1.60658,41,3
-7.06241,14.8199,2.01572,52,11
-4.30504,9.03788,-1.22917,33,4
-6.04104,12.6881,2.22575,47,12
-7.03777,14.7882,-1.43284,14,5
-6.91967,14.54,3.13003,13,13
-6.15582,12.9408,-0.751021,29,6
-7.28857,15.329,3.91865,21,14
-5.67983,11.9509,-0.230965,25,7
-10.6909,22.5048,6.67598,27,15
-7.18048,15.1699,0.292956,17,8
-0.259195,0.547836,-0.13992,13,1
-6.84539,14.475,0.839155,21,9
-4.26711,9.02307,-1.94015,52,2
-6.05476,12.8089,1.23953,73,10
-4.38565,9.28211,-1.62598,100,3
-7.02759,14.8804,2.02059,61,11
-7.30378,15.4722,-2.10078,24,4
-5.65364,11.982,2.09841,42,12
-5.86982,12.4402,-1.20345,10,5
-7.17455,15.2122,3.26932,31,13
-6.11232,12.9658,-0.75123,35,6
-6.53062,13.8594,3.53713,9,14
-5.59548,11.8802,-0.22922,26,7
-10.6164,22.5507,6.67857,15,15
-7.1105,15.1586,0.292258,17,8
-0.253972,0.54168,-0.13812,13,1
-6.77872,14.4644,0.837166,67,9
-4.35722,9.29746,-1.99586,42,2
-6.02691,12.8661,1.24302,63,10
-4.31386,9.21327,-1.61128,60,3
-6.8275,14.5884,1.9777,38,11
-6.61047,14.1311,-1.91554,17,4
-5.6235,12.0267,2.10279,9,12
-5.79261,12.3884,-1.19647,30,5
-7.18541,15.3741,3.29871,30,13
-6.0163,12.8785,-0.74495,35,6
-5.52166,11.8251,3.01299,38,14
-5.5599,11.9124,-0.229464,21,7
-5.44114,11.6632,3.4485,26,15
-6.11772,13.1614,0.253339,63,8
-0.253722,0.546098,-0.13902,13,1
-6.78289,14.5991,0.843656,44,9
-4.3603,9.38918,-2.01227,28,2
-5.82258,12.5437,1.2099,42,10
-4.26587,9.19423,-1.60533,47,3
-6.9227,14.9273,2.02035,52,11
-6.29979,13.5904,-1.83925,48,4
-5.57427,12.0307,-1.16004,45,5
-5.48986,11.854,2.53929,15,13
-6.50073,14.0431,-0.810998,74,6
-7.3486,15.882,4.04012,33,14
-5.61022,12.1249,-0.233199,36,7
-5.38945,11.6532,3.44022,12,15
-6.09915,13.2361,0.254386,38,8
-0.25191,0.546936,-0.13902,13,1
-6.78034,14.728,0.849727,44,9
-4.23148,9.19567,-1.96762,54,2
-5.92113,12.8734,1.2397,70,10
-4.22793,9.19218,-1.60251,57,3
-6.57963,14.3117,1.93407,37,11
-5.55799,12.1006,2.10905,49,12
-5.54637,12.0809,-1.16301,45,5
-5.44069,11.8507,2.53471,28,13
-6.44746,14.0501,-0.810161,65,6
-6.3315,13.8037,3.50609,24,14
-5.53786,12.079,-0.231942,100,7
-5.39301,11.7685,3.46869,26,15
-0.240798,0.527163,-0.155291,12,0
-6.20988,13.6012,0.260983,49,8
-0.25728,0.563768,-0.143069,12,1
-6.57225,14.4015,0.82963,39,9
-4.22541,9.26324,-1.97907,42,2
-5.7693,12.6537,1.21669,49,10
-4.40061,9.65626,-1.68073,58,3
-6.80035,14.9289,2.01426,26,11
-4.26833,9.37468,-1.26476,8,4
-5.5825,12.261,2.13377,40,12
-5.51453,12.1173,-1.16475,52,5
-5.36352,11.791,2.51792,43,13
-6.41491,14.1088,-0.812254,71,6
-6.29053,13.8417,3.51014,29,14
-5.36705,11.8097,-0.226428,100,7
-5.38751,11.8602,3.49043,36,15
-5.94378,13.1334,0.251629,41,8
-0.258622,0.57172,-0.144868,12,1
-6.54416,14.4735,0.832456,44,9
-4.21488,9.32624,-1.98937,47,2
-5.6685,12.5485,1.20467,63,10
-4.32709,9.57899,-1.66478,40,3
-6.77369,15.002,2.02108,17,11
-5.43453,12.053,-1.15673,33,5
-6.19269,13.7345,2.92854,22,13
-6.43292,14.2739,-0.820523,55,6
-5.35617,11.8903,3.01075,12,14
-5.37834,11.945,-0.228661,20,7
-5.27948,11.7309,3.44695,35,15
-0.237112,0.528831,-0.155291,12,0
-5.89478,13.1533,0.251594,60,8
-0.256525,0.572664,-0.144868,12,1
-6.58248,14.7015,0.844179,24,9
-4.23445,9.45736,-2.01418,30,2
-5.66372,12.6555,1.21303,60,10
-4.21774,9.42889,-1.63599,63,3
-6.6668,14.9108,2.00548,46,11
-4.17768,9.34807,-1.2572,39,4
-5.3201,11.91,-1.14122,40,5
-6.16873,13.8162,2.94113,38,13
-6.38218,14.301,-0.820733,68,6
-5.14505,11.5343,2.91582,23,14
-5.48516,12.3025,-0.235119,100,7
-5.23723,11.752,3.44747,31,15
-5.81962,13.108,0.250337,55,8
-0.243458,0.548619,-0.13857,13,1
-5.19736,11.7175,0.671784,35,9
-5.64778,12.7389,1.21913,84,10
-4.08877,9.22683,-1.59845,56,3
-6.5914,14.8813,1.99841,38,11
-4.17154,9.42249,-1.26525,59,4
-5.61951,12.6991,2.19947,47,12
-5.30026,11.9776,-1.14592,47,5
-5.30964,12.0045,2.5515,24,13
-6.46144,14.6155,-0.83748,35,6
-9.99291,22.6142,5.70791,27,14
-5.42522,12.2832,-0.234386,21,7
-5.22817,11.8426,3.46869,38,15
-5.66434,12.8793,0.24559,34,8
-0.247816,0.563737,-0.142169,13,1
-5.16893,11.7584,0.673145,27,9
-4.15331,9.45254,-2.00693,30,2
-5.60649,12.7659,1.21983,49,10
-4.04781,9.22115,-1.59501,60,3
-6.28418,14.3226,1.92042,66,11
-4.08045,9.29994,-1.24697,55,4
-5.37903,12.2654,2.12125,45,12
-5.21842,11.9048,-1.13721,28,5
-5.25746,11.9996,2.54654,20,13
-5.62458,12.8436,3.23705,72,14
-5.23451,11.9586,-0.227859,74,7
-5.2299,11.9537,3.49613,20,15
-0.231654,0.531245,-0.155291,12,0
-5.49456,12.6065,0.24004,16,8
-0.247501,0.568129,-0.143069,12,1
-5.11236,11.7352,0.670842,28,9
-3.99262,9.16926,-1.94396,19,2
-5.61341,12.8977,1.23064,68,10
-4.27961,9.83772,-1.69919,20,3
-6.31818,14.5308,1.94552,33,11
-4.0108,9.22421,-1.23502,57,4
-5.52257,12.7071,2.19446,35,12
-5.28926,12.1761,-1.16144,30,5
-5.29818,12.2024,2.58584,5,13
-6.11055,14.0802,-0.804404,45,6
-5.57808,12.8532,3.2348,24,14
-5.14151,11.8529,-0.22552,29,7
-6.10471,14.0802,4.11212,13,15
-0.248706,0.576103,-0.144868,12,1
-5.07928,11.7713,0.671889,66,9
-3.98164,9.22752,-1.9535,80,2
-5.58719,12.9546,1.2343,34,10
-6.18827,14.3621,1.92017,45,11
-3.95267,9.17799,-1.22698,85,4
-5.13687,11.9334,2.05774,49,12
-5.12518,11.9062,-1.13407,23,5
-5.30346,12.3263,2.60836,16,13
-6.00622,13.9664,-0.796763,71,6
-6.18731,14.3944,3.61721,42,14
-5.13799,11.959,-0.227195,32,7
-5.13851,11.966,3.4894,29,15
-5.75153,13.4452,0.255259,26,8
-0.239032,0.559049,-0.140369,13,1
-5.03423,11.7798,0.671366,49,9
-3.944,9.22872,-1.95083,52,2
-5.57167,13.0437,1.24092,13,10
-6.54871,15.3458,2.04862,13,11
-5.15483,12.0912,2.08183,39,12
-5.10468,11.9735,-1.13878,42,5
-5.23423,12.2834,2.59538,41,13
-6.22786,14.6293,3.67075,38,14
-5.21288,12.251,-0.232396,35,7
-5.10124,11.9945,3.4925,35,15
-5.24277,12.3752,0.234595,8,8
-0.234039,0.552703,-0.13857,13,1
-5.03953,11.9012,0.677332,60,9
-3.99135,9.43046,-1.99052,40,2
-5.46944,12.9291,1.2282,10,10
-5.62265,13.3042,1.77344,42,11
-3.92635,9.29497,-1.23892,11,4
-5.10241,12.0791,2.07682,18,12
-5.03883,11.9344,-1.13337,35,5
-5.86381,13.8951,2.93159,12,13
-5.52046,13.0879,-0.744427,19,6
-5.41592,12.8463,3.2186,13,14
-5.13649,12.1835,-0.230791,36,7
-5.09595,12.0932,3.51632,23,15
-5.19396,12.3741,0.234246,5,8
-0.235221,0.560663,-0.140369,13,1
-5.01803,11.9667,0.680053,43,9
-4.09348,9.76663,-2.05845,45,2
-3.88349,9.27014,-1.59188,56,3
-5.55549,13.2678,1.76613,42,11
-5.59993,13.3805,-1.781,9,4
-5.17914,12.3811,2.12563,33,12
-5.02635,12.0218,-1.14,19,5
-4.94376,11.8242,2.4912,30,13
-5.46009,13.0656,-0.742124,35,6
-5.98768,14.3351,3.58662,31,14
-5.13707,12.3047,-0.232745,37,7
-5.02246,12.0361,3.49458,28,15
-5.60357,13.4816,0.25484,31,8
-0.240739,0.579477,-0.144868,12,1
-4.98389,12.0025,0.6811,57,9
-3.88866,9.36494,-1.97106,9,2
-5.29806,12.7654,1.2092,68,10
-3.82688,9.22525,-1.58187,58,3
-6.2953,15.1832,2.01816,8,11
-4.02867,9.72126,-1.29206,42,4
-5.14269,12.4155,2.12845,45,12
-3.94113,9.51472,-0.901016,20,5
-4.90621,11.8505,2.49311,37,13
-5.80316,14.0239,-0.795402,81,6
-5.91005,14.2893,3.56997,40,14
-5.04367,12.2006,-0.230442,23,7
-5.01361,12.1339,3.51787,27,15
-5.49559,13.3531,0.252048,30,8
-0.235749,0.573105,-0.143069,12,1
-4.95412,12.0494,0.682775,64,9
-5.26029,12.8004,1.21077,52,10
-3.8532,9.38108,-1.60627,60,3
-6.36214,15.4971,2.05691,39,11
-5.40465,13.1713,-1.74809,11,4
-5.08507,12.3987,2.1225,20,12
-3.90789,9.52842,-0.901016,39,5
-4.84545,11.8203,2.48319,45,13
-5.72085,13.9628,-0.790796,74,6
-5.81065,14.189,3.53983,40,14
-4.99651,12.207,-0.230232,24,7
-4.86077,11.8813,3.43971,24,15
-5.38707,13.2204,0.249185,48,8
-0.227867,0.559486,-0.13947,13,1
-4.91429,12.0722,0.683089,53,9
-3.98974,9.80099,-2.05692,80,2
-5.26738,12.9461,1.2228,42,10
-3.83829,9.43839,-1.61378,60,3
-5.70254,14.0296,1.85948,44,11
-3.84788,9.47144,-1.25525,13,4
-4.989,12.2864,2.10029,12,12
-4.93015,12.1476,-1.14697,19,5
-4.79161,11.8062,2.4767,42,13
-4.9123,12.1097,-0.684868,61,6
-5.19289,12.8078,3.19071,20,14
-4.8705,12.0186,-0.226358,100,7
-4.92298,12.1542,3.51373,23,15
-5.76508,14.2906,0.268976,48,8
-0.224455,0.556664,-0.13857,13,1
-4.97515,12.3449,0.697534,49,9
-4.00807,9.95031,-2.08516,64,2
-5.1254,12.7306,1.20066,21,10
-3.80441,9.45422,-1.61409,55,3
-5.62241,13.9721,1.84925,52,11
-3.78961,9.42219,-1.24697,63,4
-4.87509,12.1333,-1.14401,26,5
-4.77684,11.8948,2.49158,46,13
-4.85375,12.0924,-0.68288,35,6
-5.15752,12.8557,3.1979,60,14
-4.81511,12.0022,-0.225729,25,7
-4.84098,12.0727,3.48526,37,15
-4.57917,11.472,0.215607,41,8
-0.223857,0.561103,-0.13947,13,1
-4.95422,12.4179,0.700674,47,9
-3.86496,9.69252,-2.0283,52,2
-5.0883,12.7669,1.2024,60,10
-3.70194,9.29311,-1.58437,60,3
-5.6277,14.1346,1.86801,49,11
-3.77413,9.48398,-1.2533,55,4
-3.75615,9.4436,-0.889163,21,5
-4.69395,11.8074,2.46983,29,13
-4.83289,12.1631,-0.685915,39,6
-5.0544,12.727,-0.239028,63,7
-4.78028,12.0429,3.4718,40,15
-4.4992,11.3811,0.213617,51,8
-0.223428,0.565467,-0.140369,13,1
-4.73478,11.9892,0.675553,45,9
-4.96206,12.5712,-2.62706,23,2
-4.99691,12.6659,1.19124,50,10
-3.7059,9.39353,-1.59939,77,3
-5.38929,13.6675,1.80391,32,11
-4.07239,10.3331,-1.36372,16,4
-3.71295,9.43069,-0.886723,49,5
-4.70152,11.9416,2.49464,47,13
-4.72379,12.0043,-0.676076,84,6
-4.65691,11.8404,2.93741,25,14
-4.89143,12.4431,-0.233374,23,7
-4.73892,12.0613,3.47232,34,15
-4.45435,11.3837,0.213373,62,8
-0.22855,0.584392,-0.144868,12,1
-4.68845,11.9881,0.674611,50,9
-5.17675,13.2503,1.24458,33,10
-3.66087,9.37513,-1.59407,42,3
-5.36897,13.7565,1.81317,44,11
-4.89694,12.5535,-1.6545,45,4
-4.79041,12.2804,2.08777,43,12
-4.79187,12.2905,-1.15412,26,5
-4.72253,12.1189,2.52822,38,13
-4.66663,11.9816,-0.673878,78,6
-4.91812,12.6339,3.12997,31,14
-4.85376,12.4685,-0.233548,26,7
-4.65056,11.9527,3.4366,36,15
-4.51628,11.6557,0.21819,28,8
-0.213943,0.552437,-0.13677,13,1
-4.63216,11.9672,0.672517,58,9
-4.01146,10.369,-2.1611,16,2
-4.95729,12.8204,1.20257,39,10
-3.50865,9.07401,-1.54088,63,3
-5.27252,13.6428,1.79587,48,11
-4.77242,12.3616,2.09873,37,12
-4.73675,12.2756,-1.15115,38,5
-4.68162,12.1327,2.52784,12,13
-4.66497,12.0958,-0.679425,61,6
-4.89723,12.7047,3.14347,23,14
-4.79655,12.4499,-0.232885,100,7
-4.66643,12.1185,3.47956,26,15
-4.46554,11.6453,0.217701,38,8
-0.224567,0.585934,-0.144868,12,1
-4.59745,11.9955,0.67325,49,9
-3.97004,10.3639,-2.15729,40,2
-4.95037,12.9299,1.21129,31,10
-3.46354,9.05115,-1.53494,82,3
-5.23408,13.6852,1.79904,56,11
-4.82342,12.6181,-1.65864,8,4
-4.72857,12.37,2.09747,48,12
-4.72588,12.3694,-1.15847,28,5
-4.76515,12.4852,-0.70036,45,6
-4.60976,12.0844,2.986,55,14
-4.73243,12.406,-0.231768,30,7
-4.65787,12.217,3.50337,25,15
-4.55324,11.9928,0.223914,47,8
-0.210178,0.55388,-0.13677,13,1
-4.54847,11.9928,0.672203,46,9
-3.93731,10.3869,-2.15919,71,2
-5.42473,14.3183,1.33958,31,10
-3.4643,9.14386,-1.5487,68,3
-5.17461,13.6653,1.79416,48,11
-3.63693,9.60963,-1.26159,11,4
-4.70563,12.44,2.10655,43,12
-4.51214,11.9347,2.48014,39,13
-4.65171,12.3104,-0.689683,71,6
-4.54074,12.0231,2.9671,59,14
-4.67497,12.385,-0.23107,24,7
-4.60565,12.2078,3.49613,33,15
-4.29404,11.4302,0.213129,61,8
-0.217834,0.580152,-0.143069,12,1
-4.53044,12.0722,0.675762,62,9
-3.71453,9.89808,-2.05501,28,2
-3.65217,9.74224,-1.64788,53,3
-4.36492,11.6497,1.52751,28,11
-3.60893,9.63714,-1.26354,39,4
-4.63102,12.3731,2.09247,52,12
-4.65624,12.4404,-1.16213,27,5
-4.45876,11.9191,2.47365,43,13
-5.01439,13.4116,-0.750393,35,6
-4.50966,12.0681,2.9743,68,14
-4.60093,12.3188,-0.229534,34,7
-4.60625,12.3397,3.52926,33,15
-4.27641,11.5051,0.214246,27,8
-0.21445,0.577255,-0.142169,26,1
-4.50912,12.1441,0.678902,50,9
-3.67449,9.89627,-2.05196,42,2
-4.95768,13.3593,1.24668,27,10
-3.58379,9.66233,-1.63224,93,3
-4.30421,11.6109,1.52044,66,11
-3.57458,9.64782,-1.2633,45,4
-4.56379,12.3243,2.08152,42,12
-4.63908,12.5276,-1.16876,32,5
-4.45324,12.0322,2.49387,45,13
-4.47697,12.1093,2.9806,42,14
-4.58701,12.4136,-0.231,35,7
-4.4815,12.1346,3.4661,17,15
-0.213778,0.581658,-0.143069,12,1
-4.55209,12.3923,0.691881,49,9
-3.63518,9.89613,-2.04929,52,2
-4.89728,13.3391,1.24319,2,10
-3.58135,9.76009,-1.64663,50,3
-4.24452,11.5737,1.51362,49,11
-3.54703,9.67701,-1.26549,19,4
-4.50376,12.2938,2.0737,45,12
-4.65975,12.7196,-1.18514,20,5
-4.48411,12.2468,2.53509,20,13
-4.10111,11.2068,-0.625415,50,6
-4.41325,12.0663,2.9662,61,14
-4.5663,12.4915,-0.232152,100,7
-4.76661,13.0465,3.72182,28,15
-0.19822,0.544604,-0.155291,12,0
-4.19325,11.5271,0.214106,33,8
-0.202424,0.556761,-0.13677,13,1
-4.52791,12.4606,0.694812,49,9
-3.435,9.453,-1.95503,59,2
-4.86293,13.3899,1.24633,22,10
-3.45492,9.51814,-1.60377,66,3
-4.22847,11.6556,1.52239,52,11
-3.65127,10.07,-1.31521,48,4
-4.39352,12.1237,2.04241,52,12
-4.60038,12.6946,-1.18131,27,5
-4.49148,12.4008,2.56371,33,13
-4.06332,11.2248,-0.625624,87,6
-4.39166,12.1384,2.98015,51,14
-4.52947,12.5262,-0.232501,28,7
-4.70462,13.0177,3.70888,27,15
-0.196318,0.545293,-0.155291,12,0
-4.13674,11.4965,0.213268,38,8
-0.20048,0.557464,-0.13677,13,1
-4.48574,12.4801,0.695022,33,9
-3.63906,10.1245,-2.09127,47,2
-5.09234,14.1755,1.31779,11,10
-3.41767,9.51899,-1.60189,66,3
-4.11602,11.4703,1.49631,42,11
-3.6429,10.1575,-1.32496,64,4
-4.3625,12.1706,2.04773,44,12
-4.47873,12.4949,-1.16126,12,5
-4.47598,12.494,2.57974,28,13
-4.02546,11.2427,-0.625833,81,6
-4.32694,12.0913,2.96485,70,14
-4.94635,13.8298,-0.256376,100,7
-4.70012,13.1486,3.74149,5,15
-4.12274,11.5844,0.21463,65,8
-0.202451,0.569177,-0.13947,13,1
-5.35399,15.0607,0.837689,20,9
-3.59712,10.1186,-2.08745,45,2
-5.01681,14.12,1.311,14,10
-3.39764,9.56809,-1.60815,62,3
-4.17886,11.7746,1.53409,35,11
-3.45014,9.72672,-1.2672,34,4
-4.19326,11.8283,1.98766,36,12
-4.25534,12.0034,-1.1142,35,5
-4.47364,12.6262,2.60378,40,13
-3.95486,11.1682,-0.620914,91,6
-4.2678,12.0586,2.95316,53,14
-4.47792,12.6593,-0.234386,45,7
-5.15129,14.571,4.1411,32,15
-0.192697,0.546583,-0.155291,12,0
-4.14081,11.7519,0.217492,57,8
-0.20584,0.584514,-0.143069,12,1
-4.09587,11.6373,0.646558,20,9
-3.52295,10.0095,-2.06265,64,2
-4.47987,12.7355,1.18113,82,10
-3.35708,9.5489,-1.60314,58,3
-4.14383,11.7933,1.53482,42,11
-4.45748,12.693,-1.65182,21,4
-4.1672,11.8731,1.99298,42,12
-4.27304,12.1746,-1.12884,28,5
-3.89927,11.1221,-0.617669,100,6
-4.23054,12.0738,2.95361,57,14
-4.73159,13.5113,-0.249884,94,7
-5.12655,14.6473,4.15819,18,15
-0.190787,0.547252,-0.155291,12,0
-4.08661,11.7285,0.216794,68,8
-0.19739,0.566826,-0.13857,13,1
-4.06375,11.6761,0.647919,4,9
-3.3686,9.67873,-1.99205,33,2
-4.46092,12.8244,1.18793,62,10
-3.36264,9.67251,-1.62191,60,3
-4.06615,11.7027,1.52117,56,11
-3.66362,10.5501,-1.37127,15,4
-4.09594,11.8017,1.97858,54,12
-4.19262,12.0803,-1.11873,14,5
-4.59569,13.2491,2.7259,7,13
-3.8879,11.2149,-0.622065,97,6
-4.18964,12.0921,2.95451,53,14
-4.40434,12.719,-0.234944,72,7
-4.59901,13.2886,3.76789,12,15
-0.188876,0.547915,-0.155291,12,0
-4.13683,12.0074,0.22168,27,8
-0.190334,0.552771,-0.134971,28,1
-3.35013,9.73499,-2.0012,28,2
-4.37012,12.7062,1.17556,62,10
-3.29226,9.57771,-1.60408,72,3
-4.02463,11.7149,1.52093,52,11
-3.4727,10.1141,-1.31302,63,4
-4.04254,11.7804,1.97264,32,12
-3.36794,9.81458,-0.907814,20,5
-4.54368,13.2484,2.72246,10,13
-3.81505,11.1302,-0.616622,77,6
-4.13225,12.0624,2.94371,55,14
-4.30356,12.5697,-0.231908,31,7
-4.83216,14.1216,3.99927,21,15
-0.186962,0.548571,-0.155291,12,0
-0.20222,0.594017,-0.144868,12,1
-3.98729,11.7193,0.648757,70,9
-3.32245,9.76521,-2.00502,30,2
-4.29751,12.6383,1.16789,50,10
-3.27343,9.63216,-1.61128,68,3
-4.06479,11.9676,1.55188,25,11
-3.31103,9.75399,-1.26476,38,4
-4.1188,12.1405,2.03052,44,12
-4.13763,12.1961,-1.12675,28,5
-4.40726,12.9983,2.66789,7,13
-3.71079,10.9505,-0.605946,94,6
-4.0995,12.1045,2.95046,57,14
-4.31352,12.7437,-0.23484,35,7
-4.53893,13.4174,3.79532,13,15
-0.169009,0.501621,-0.141833,14,0
-3.90358,11.5926,0.213513,47,8
-0.200767,0.596566,-0.145318,25,1
-4.00684,11.913,0.6587,60,9
-3.30586,9.82885,-2.01571,38,2
-4.23306,12.5928,1.16231,72,10
-3.23664,9.63416,-1.60971,67,3
-4.00151,11.9178,1.5436,65,11
-3.30791,9.85771,-1.2767,56,4
-4.1122,12.2616,2.04835,36,12
-4.00742,11.9561,-1.10322,26,5
-4.33565,12.9354,2.65186,19,13
-3.68841,11.0107,-0.608563,91,6
-4.05907,12.1243,2.95181,63,14
-4.17319,12.4723,-0.229569,32,7
-4.43509,13.2628,3.74718,15,15
-0.183032,0.549894,-0.155291,12,0
-3.88267,11.6649,0.214595,32,8
-0.195608,0.588018,-0.143069,12,1
-3.97154,11.9458,0.659747,21,9
-4.02135,12.1027,-2.47899,13,2
-4.23586,12.7557,1.17591,47,10
-3.18326,9.59159,-1.60064,77,3
-3.92737,11.8337,1.53092,63,11
-3.25411,9.81078,-1.26915,85,4
-4.01095,12.0996,2.01894,60,12
-3.96002,11.953,-1.10165,49,5
-4.22157,12.7499,2.61065,21,13
-3.62356,10.9502,-0.60448,91,6
