x, y, z, intensity, ring
-5.65449,10.3367,0.205659,52,8
-0.2917,0.533464,-0.140369,13,1
-6.06547,11.0972,0.662783,34,9
-5.04508,9.23033,-2.04471,26,2
-6.36208,11.6447,1.16091,20,10
-5.64297,10.3328,-1.8647,13,3
-6.01228,11.0136,1.54067,31,11
-5.7679,10.5703,-1.47852,40,4
-5.7331,10.5109,1.8963,49,12
-6.69549,12.2753,-1.22332,12,5
-6.79095,12.4555,2.75757,15,13
-5.93149,10.8836,-0.649594,32,6
-6.07174,11.1456,2.93021,61,14
-6.37769,11.7121,-0.23278,73,7
-6.41702,11.7892,3.59655,12,15
-5.43815,10.0242,0.199062,45,8
-0.299126,0.55161,-0.144868,12,1
-5.98675,11.04,0.658177,37,9
-5.01283,9.24788,-2.04471,35,2
-6.44668,11.8981,1.18392,52,10
-5.84488,10.7919,-1.94385,23,3
-6.13257,11.3278,1.58162,39,11
-5.72246,10.5746,-1.47633,45,4
-5.63428,10.4117,1.87502,60,12
-5.84497,10.8055,-1.0748,11,5
-6.88096,12.7261,2.81214,21,13
-5.88396,10.8867,-0.648547,32,6
-5.96518,11.0416,2.89737,97,14
-6.1183,11.325,-0.224682,32,7
-6.58351,12.1912,3.7125,28,15
-5.45795,10.1407,0.201017,70,8
-0.276983,0.514843,-0.134971,14,1
-5.9198,11.0081,0.655037,46,9
-5.01306,9.32585,-2.05807,14,2
-6.31835,11.759,1.16789,50,10
-5.52108,10.2752,-1.84749,28,3
-6.2462,11.6296,1.62086,18,11
-5.68642,10.5918,-1.47608,19,4
-5.55307,10.3478,1.86001,71,12
-7.73134,14.4128,-1.43092,23,5
-5.22022,9.73159,2.1466,14,13
-5.84216,10.8956,-0.647919,42,6
-5.90827,11.0235,2.88747,76,14
-6.50808,12.1528,3.69387,24,15
-5.40651,10.1297,0.200423,53,8
-0.295364,0.553633,-0.144868,12,1
-5.87104,11.0047,0.653676,50,9
-4.85,9.0947,-2.00349,16,2
-6.14905,11.5355,1.14366,19,10
-6.58779,12.3638,-2.21887,7,3
-5.67833,10.6614,1.48315,35,11
-5.70166,10.7052,-1.48924,30,4
-5.49644,10.3243,1.8525,49,12
-5.76473,10.8328,-1.07358,28,5
-6.00311,11.2854,2.48471,13,13
-5.81441,10.9353,-0.649071,81,6
-5.9769,11.2409,2.93921,61,14
-6.26925,11.8007,3.5805,23,15
-5.39909,10.1971,0.201401,75,8
-0.293527,0.554609,-0.144868,12,1
-5.87655,11.1036,0.658386,35,9
-4.85103,9.16973,-2.01647,42,2
-6.35572,12.0191,1.1895,55,10
-5.63274,10.6609,1.48047,21,11
-5.64016,10.6749,-1.48242,34,4
-5.42528,10.2726,1.83998,63,12
-5.73064,10.8553,-1.07393,42,5
-5.9629,11.3001,2.48357,38,13
-5.23022,9.91578,-0.587524,37,6
-5.92141,11.2262,2.93021,40,14
-6.52283,12.3716,-0.244124,45,7
-6.23549,11.8317,3.58361,26,15
-5.36524,10.215,0.201401,63,8
-0.284439,0.541776,-0.141269,13,1
-5.80342,11.0586,0.654514,56,9
-4.85252,9.24662,-2.02983,49,2
-6.22975,11.876,1.17329,35,10
-5.59367,10.6725,1.47949,14,11
-5.62129,10.7297,-1.48729,34,4
-5.37106,10.2564,1.83372,40,12
-5.71401,10.9113,-1.07759,40,5
-5.92266,11.3146,2.48242,22,13
-5.1973,9.93307,-0.587524,54,6
-5.88399,11.2503,2.93111,40,14
-6.24783,11.9561,3.61467,23,15
-5.36188,10.2957,0.202622,68,8
-0.268149,0.515109,-0.134071,14,1
-5.74634,11.0433,0.65242,64,9
-4.91718,9.44985,-2.07066,14,2
-5.98232,11.5017,1.13424,68,10
-5.89782,11.3489,1.57041,36,11
-5.44288,10.478,-1.44976,49,4
-5.59739,10.78,1.92383,74,12
-5.66029,10.9012,-1.07463,28,5
-6.08301,11.7203,2.56676,41,13
-5.1488,9.92456,-0.585953,94,6
-6.75287,13.0276,-0.256132,22,7
-6.32515,12.2077,3.68403,31,15
-5.32041,10.3037,0.202413,30,8
-0.2878,0.557602,-0.144868,12,1
-5.71234,11.0722,0.652943,14,9
-4.73835,9.1843,-2.00884,30,2
-5.9193,11.4783,1.12989,47,10
-5.78816,11.2336,1.55164,47,11
-5.30447,10.2993,-1.42246,42,4
-5.3174,10.3288,1.83998,34,12
-5.65685,10.9882,-1.08125,28,5
-5.9172,11.4988,2.51372,32,13
-5.09494,9.90518,-0.583755,100,6
-6.32569,12.3032,3.19386,45,14
-6.77865,13.1898,-0.258854,28,7
-5.27438,10.3026,0.202029,75,8
-0.294729,0.575951,-0.149367,12,1
-5.63727,11.0209,0.648757,46,9
-4.63026,9.05222,-1.9764,45,2
-5.8928,11.5255,1.1325,59,10
-5.77239,11.2997,1.55798,39,11
-5.29196,10.3637,-1.4288,39,4
-5.50134,10.7784,1.91664,71,12
-5.75925,11.2885,2.46334,45,13
-5.01678,9.8375,-0.578731,54,6
-5.79329,11.3651,2.94506,38,14
-5.37625,10.5515,-0.206706,37,7
-6.28975,12.3496,3.71354,10,15
-5.19404,10.2336,0.200319,58,8
-0.2839,0.559598,-0.144868,12,1
-5.9486,11.7253,0.689055,28,9
-4.71673,9.30121,-2.02715,28,2
-5.84443,11.53,1.13093,59,10
-4.80687,9.48717,-1.68449,58,3
-5.35532,10.5742,1.45536,6,11
-5.21182,10.2953,-1.41685,41,4
-5.30587,10.4811,1.86063,52,12
-6.35993,12.5687,-1.23238,47,5
-5.71803,11.3051,2.46258,37,13
-5.00674,9.90307,-0.581557,77,6
-6.22646,12.3209,3.18711,22,14
-5.63616,11.1529,-0.21812,25,7
-5.50577,10.8996,3.27199,12,15
-5.15648,10.2436,0.200179,80,8
-0.282043,0.560536,-0.144868,12,1
-5.78827,11.5087,0.675134,17,9
-4.52992,9.01065,-1.96037,71,2
-5.74152,11.4257,1.11873,76,10
-4.71596,9.3848,-1.66352,37,3
-5.33537,10.6221,1.45951,3,11
-5.10105,10.16,-1.39589,55,4
-5.21254,10.3865,1.84061,74,12
-5.99977,11.9604,-1.17068,32,5
-5.74654,11.4556,2.4912,37,13
-4.94702,9.86606,-0.578417,74,6
-5.69135,11.3555,2.93246,23,14
-5.46105,10.9007,-0.212815,26,7
-5.45645,10.8963,3.26526,34,15
-5.10641,10.2329,0.199621,65,8
-0.273126,0.547567,-0.141269,13,1
-4.56046,9.14686,-1.9867,47,2
-5.68317,11.4036,1.11472,68,10
-4.65146,9.33755,-1.65226,82,3
-5.03813,10.1226,-1.38834,45,4
-5.14286,10.333,1.82809,53,12
-5.8254,11.7146,2.5431,12,13
-4.95789,9.97448,-0.583755,37,6
-5.63867,11.3491,2.92571,25,14
-5.2914,10.6501,-0.207579,26,7
-6.18417,12.4525,3.72544,5,15
-5.02277,10.1494,0.197666,68,8
-0.266124,0.537989,-0.13857,13,1
-5.63633,11.3992,0.666446,18,9
-4.57895,9.2648,-2.00884,40,2
-5.58332,11.3019,1.10287,68,10
-4.66247,9.43793,-1.66728,21,3
-5.49498,11.128,1.52385,17,11
-5.23385,10.6039,-1.45195,31,4
-5.22824,10.5972,1.87158,35,12
-5.91645,11.9974,-1.17033,10,5
-5.7761,11.7128,2.53852,25,13
-4.93273,10.007,-0.584697,87,6
-5.61565,11.3974,2.93336,25,14
-5.48302,11.1332,-0.216619,21,7
-6.2277,12.6508,3.77824,5,15
-5.00845,10.21,0.198504,58,8
-0.269393,0.549413,-0.141269,13,1
-4.70891,9.60784,-2.07982,11,2
-5.52039,11.2685,1.09781,95,10
-4.48876,9.16675,-1.61659,100,3
-5.48054,11.1971,1.53068,66,11
-4.96824,10.1549,-1.38809,31,4
-5.09663,10.4219,1.83748,52,12
-5.68583,11.6267,-1.13233,11,5
-5.87227,12.0133,2.5992,19,13
-4.98545,10.2036,-0.595165,91,6
-5.39709,11.051,2.83933,8,14
-5.49589,11.2583,-0.218679,33,7
-6.16656,12.6377,3.76789,40,15
-4.95705,10.195,0.197875,80,8
-0.274288,0.564372,-0.144868,12,1
-5.42308,11.1634,0.650431,44,9
-5.47232,11.2698,1.09607,80,10
-4.43862,9.14504,-1.61002,58,3
-4.93623,10.1793,-1.38907,55,4
-5.0628,10.445,1.83842,54,12
-5.58263,11.5174,-1.11978,26,5
-5.60859,11.5761,2.50036,35,13
-4.9115,10.1418,-0.590559,91,6
-5.44523,11.254,-0.218225,27,7
-6.13586,12.687,3.77617,31,15
-4.9657,10.3042,0.199656,53,8
-0.262168,0.544258,-0.13947,13,1
-5.40748,11.2309,0.653257,50,9
-4.47479,9.29377,-2.00502,38,2
-5.10289,10.603,1.02948,76,10
-4.44093,9.23168,-1.62254,82,3
-5.66547,11.7825,1.60526,39,11
-4.89035,10.175,-1.38614,48,4
-5.20852,10.8419,1.90506,32,12
-5.34396,11.1238,-1.07969,23,5
-5.56645,11.5921,2.4996,39,13
-4.84755,10.0995,-0.587105,97,6
-5.31982,11.0884,2.83933,29,14
-5.4258,11.3144,-0.219028,33,7
-6.14248,12.8146,3.80775,7,15
-5.23307,10.9566,0.211942,60,8
-0.258587,0.541652,-0.13857,13,1
-5.36824,11.2497,0.653257,58,9
-4.40343,9.22783,-1.98747,52,2
-5.00666,10.4967,1.01746,55,10
-4.39082,9.20968,-1.61597,73,3
-5.8156,12.2036,1.65986,41,11
-6.4981,13.6419,-1.85534,20,4
-5.23687,10.9991,1.92946,52,12
-5.27427,11.0776,-1.07341,40,5
-5.56307,11.6895,2.51639,38,13
-4.80969,10.111,-0.586791,70,6
-5.25597,11.0541,2.82583,74,14
-5.44722,11.4615,-0.221506,27,7
-9.62652,20.2643,6.01133,14,15
-5.26495,11.123,0.214804,42,8
-0.250027,0.528459,-0.134971,14,1
-5.31809,11.2404,0.651687,55,9
-4.41567,9.33721,-2.00769,52,2
-4.97425,10.5231,1.01833,68,10
-4.42616,9.36784,-1.641,63,3
-5.42455,11.4861,1.55968,21,11
-4.99206,10.5751,-1.43586,11,4
-5.197,11.0092,1.92821,49,12
-5.23217,11.0888,-1.07271,28,5
-5.46026,11.5774,2.48815,13,13
-4.86379,10.3174,-0.597781,100,6
-5.20822,11.053,2.82089,48,14
-5.54812,11.7743,-0.227195,23,7
-9.46214,20.0899,5.95025,16,15
-5.38859,11.4825,0.221401,58,8
-0.261515,0.557514,-0.142169,13,1
-5.28306,11.2679,0.652211,26,9
-4.33056,9.24057,-1.98365,57,2
-4.91805,10.4989,1.01432,65,10
-4.44702,9.49337,-1.6604,87,3
-5.43778,11.6137,1.57455,68,11
-4.9435,10.5628,-1.43196,60,4
-5.20625,11.1293,1.94604,54,12
-5.18246,11.0835,-1.07045,28,5
-5.14432,11.0119,2.80604,23,14
-5.52983,11.8426,-0.228138,100,7
-9.39522,20.1298,5.95232,27,15
-5.39654,11.6046,0.223391,32,8
-0.264496,0.569027,-0.144868,12,1
-5.99268,12.8983,0.745369,15,9
-4.28749,9.22817,-1.97793,61,2
-4.90586,10.5639,1.01902,59,10
-4.33152,9.33145,-1.62942,73,3
-5.71051,12.3079,1.66595,45,11
-4.87654,10.5152,-1.42319,46,4
-5.15158,11.1134,1.9401,58,12
-5.32583,11.4893,-1.10792,11,5
-5.51256,11.8975,2.54883,31,13
-6.72308,14.5168,-0.838422,19,6
-5.36586,11.5968,-0.223042,100,7
-9.31841,20.1484,5.94818,30,15
-5.09992,11.0677,0.21271,6,8
-0.246203,0.534546,-0.13587,13,1
-7.62308,16.5585,0.955341,28,9
-4.28727,9.31263,-1.99281,78,2
-4.90311,10.6552,1.02617,74,10
-4.34267,9.44163,-1.646,53,3
-5.64513,12.279,1.65937,41,11
-4.83815,10.5286,-1.4227,52,4
-5.07895,11.0577,1.92727,56,12
-5.02622,10.9429,-1.05354,28,5
-5.43168,11.8311,2.53051,45,13
-5.05051,11.0059,-0.634626,35,6
-5.42154,11.8199,3.0022,40,14
-5.16783,11.2719,-0.216445,100,7
-9.41865,20.5531,6.05792,24,15
-0.240798,0.527163,-0.155291,12,0
-5.10361,11.1782,0.21449,6,8
-0.245954,0.538948,-0.13677,13,1
-5.28201,11.5743,0.66676,28,9
-4.38347,9.60976,-2.0531,35,2
-4.86257,10.665,1.02547,31,10
-4.33999,9.52324,-1.65758,93,3
-5.673,12.454,1.68033,15,11
-4.76124,10.4524,-1.41027,55,4
-5.02752,11.0421,1.92164,54,12
-4.97067,10.9223,-1.04988,21,5
-5.37653,11.8196,2.52402,39,13
-5.0443,11.0944,-0.638708,35,6
-5.31537,11.6905,2.96485,78,14
-5.16104,11.3564,-0.217736,35,7
-9.17786,20.2043,5.94611,16,15
-0.248984,0.550414,-0.13947,13,1
-5.27077,11.6518,0.670214,56,9
-4.20033,9.28972,-1.98174,57,2
-5.02165,11.1114,1.06679,72,10
-4.30026,9.51958,-1.65445,42,3
-5.53037,12.2484,1.65011,41,11
-4.67345,10.3505,-1.39443,48,4
-4.973,11.0191,1.91476,48,12
-4.92213,10.9115,-1.04726,26,5
-5.3054,11.7721,2.98105,72,14
-5.26215,11.6815,-0.223635,100,7
-9.10764,20.2276,5.94404,16,15
-4.96143,11.0603,0.211593,51,8
-0.253536,0.565462,-0.143069,12,1
-5.27417,11.7685,0.675867,14,9
-4.20242,9.37706,-1.99739,45,2
-4.94649,11.0425,1.05859,69,10
-4.25737,9.50854,-1.65007,93,3
-5.48891,12.2649,1.64987,33,11
-4.09096,9.14547,-1.23015,27,4
-4.96757,11.1103,1.92759,63,12
-4.81192,10.7622,-1.0314,42,5
-5.3217,11.9135,-0.683822,42,6
-5.2905,11.8492,2.9959,68,14
-5.03716,11.2871,-0.215747,21,7
-6.04012,13.5409,3.97287,27,15
-4.9236,11.0794,0.211628,85,8
-0.249978,0.562781,-0.142169,13,1
-5.21361,11.743,0.673354,48,9
-4.10513,9.24632,-1.96648,54,2
-4.93944,11.1307,1.06539,81,10
-4.13604,9.32472,-1.61566,73,3
-5.43481,12.2586,1.64645,41,11
-4.04132,9.11976,-1.22479,53,4
-4.93355,11.1384,1.92946,40,12
-4.76867,10.7662,-1.03018,45,5
-5.85268,13.2198,2.81024,38,13
-5.55487,12.553,-0.71941,13,6
-5.24674,11.8623,2.99455,46,14
-4.9751,11.2534,-0.214769,26,7
-6.02484,13.6343,3.9941,14,15
-0.233599,0.530392,-0.155291,12,0
-4.85831,11.0361,0.210476,60,8
-0.243303,0.552948,-0.13947,13,1
-5.18224,11.7831,0.674611,34,9
-4.11947,9.36663,-1.98899,54,2
-4.85004,11.033,1.05441,69,10
-4.08678,9.30112,-1.60909,87,3
-5.39518,12.2847,1.64743,30,11
-4.00947,9.13381,-1.22479,34,4
-4.83829,11.0272,1.90725,71,12
-4.66597,10.6395,-1.01641,54,5
-5.92557,13.5116,2.86786,28,13
-5.21354,11.8937,-0.680577,26,6
-5.13335,11.7163,2.95316,59,14
-5.05692,11.5473,-0.22004,21,7
-5.94544,13.5827,3.97287,45,15
-4.79818,11.0035,0.209534,62,8
-0.250715,0.575231,-0.144868,12,1
-5.11794,11.748,0.671575,24,9
-4.11567,9.45186,-2.00388,61,2
-4.79526,11.0178,1.05127,69,10
-4.11649,9.46276,-1.63443,40,3
-5.34988,12.298,1.6467,41,11
-4.00447,9.20965,-1.23307,15,4
-4.7856,11.0114,1.90162,45,12
-4.63832,10.6776,-1.0185,38,5
-5.79938,13.3568,2.83046,43,13
-5.17548,11.9255,-0.68131,26,6
-5.07641,11.7029,2.94506,74,14
-5.60624,12.9243,-0.245904,31,7
-5.50608,12.6995,3.70888,9,15
-4.75703,11.0192,0.209499,66,8
-0.240884,0.558254,-0.140369,13,1
-5.07848,11.7695,0.671784,40,9
-4.05855,9.41029,-1.99205,35,2
-4.68578,10.8698,1.03558,61,10
-4.08656,9.48433,-1.63568,15,3
-5.31655,12.3449,1.65035,22,11
-4.02334,9.34208,-1.24892,1,4
-4.72292,10.9718,1.89192,77,12
-4.04115,9.39247,-0.894567,15,5
-5.74884,13.3679,2.82855,47,13
-5.54633,12.9032,-0.736053,22,6
-5.0068,11.648,2.92706,59,14
-5.56267,12.9475,-0.245974,49,7
-5.45105,12.6937,3.70163,49,15
-4.72832,11.0533,0.209848,66,8
-0.246693,0.576968,-0.144868,12,1
-5.03628,11.7789,0.671366,55,9
-4.01884,9.40384,-1.98785,47,2
-4.6818,10.9604,1.04273,68,10
-5.57768,13.0641,-2.24984,33,3
-5.2639,12.3351,1.6467,3,11
-5.07145,11.8841,-1.5865,37,4
-4.68263,10.9783,1.89035,38,12
-5.69601,13.367,2.82435,41,13
-5.16775,12.1332,-0.691149,29,6
-4.95516,11.6341,2.91941,59,14
-5.39455,12.678,3.6918,30,15
-0.226264,0.533563,-0.155291,12,0
-4.64794,10.9658,0.207893,56,8
-0.241738,0.570605,-0.143069,12,1
-5.0268,11.8654,0.675343,47,9
-4.03433,9.52739,-2.01113,68,2
-4.6198,10.9153,1.03698,61,10
-4.30602,10.1789,-1.7505,17,3
-5.85458,13.8462,1.84583,48,11
-5.01603,11.8688,-1.58211,45,4
-5.87043,13.8905,2.38844,36,12
-3.96714,9.39154,-0.891952,15,5
-5.71427,13.5342,2.85565,32,13
-5.0941,12.0712,-0.686648,26,6
-4.90089,11.619,2.91132,57,14
-4.935,11.6999,-0.221646,56,7
-5.33897,12.6638,3.68248,30,15
-4.57051,10.8835,0.206043,63,8
-0.235319,0.560623,-0.140369,13,1
-4.97609,11.8608,0.674087,35,9
-4.05723,9.67539,-2.03937,30,2
-4.45459,10.6282,1.00822,48,10
-4.25086,10.1421,-1.74174,65,3
-5.14746,12.2873,1.63573,30,11
-3.96996,9.48121,-1.26208,56,4
-5.7474,13.7396,2.89495,35,13
-5.05404,12.088,-0.686648,42,6
-4.83678,11.574,2.89602,57,14
-5.43209,13.005,-0.246009,33,7
-5.28952,12.6698,3.67885,31,15
-4.58164,11.0175,0.208277,77,8
-0.231116,0.556042,-0.13902,13,1
-4.94056,11.8865,0.674611,20,9
-3.94453,9.4948,-1.99853,28,2
-5.83017,14.0545,1.86826,66,11
-3.93228,9.484,-1.26062,72,4
-5.16442,12.4557,2.13564,3,12
-4.07094,9.82325,-0.9303,50,5
-5.76927,13.9283,2.93044,41,13
-5.57488,13.4656,-0.763791,81,6
-4.77698,11.544,2.88432,61,14
-4.88277,11.7997,-0.222902,28,7
-5.21351,12.6052,3.65504,31,15
-4.65247,11.2933,0.213199,53,8
-0.239659,0.582033,-0.145318,12,1
-5.0161,12.1881,0.69073,48,9
-4.43822,10.7946,1.02112,36,10
-5.74354,13.9764,1.85534,84,11
-3.8895,9.46945,-1.25696,49,4
-4.03587,9.83556,-0.930126,30,5
-5.78417,14.0962,2.96174,30,13
-5.54838,13.5284,-0.766303,26,6
-4.7505,11.5887,2.89152,93,14
-4.86202,11.8666,-0.223845,31,7
-5.20828,12.7181,3.68248,37,15
-4.59595,11.2733,0.2125,56,8
-0.234583,0.575689,-0.143519,12,1
-4.89229,12.0121,0.679739,55,9
-3.72634,9.14937,-1.9203,76,2
-4.34867,10.6827,1.00909,74,10
-3.72082,9.14496,-1.56372,38,3
-4.06331,9.99672,-1.32496,13,4
-5.05583,12.4448,2.12751,54,12
-3.9788,9.7986,-0.925245,13,5
-5.65269,13.9209,2.92052,43,13
-4.90014,12.0736,-0.68288,16,6
-4.71825,11.6313,2.89782,78,14
-4.84555,11.9511,-0.225101,92,7
-5.21025,12.857,3.71716,9,15
-4.46227,11.0556,0.208102,61,8
-0.226739,0.562046,-0.13992,13,1
-4.85481,12.0403,0.680368,30,9
-3.76177,9.33413,-1.95617,54,2
-4.30875,10.6968,1.00891,59,10
-3.68433,9.15121,-1.56247,88,3
-5.15556,12.8055,1.69496,41,11
-3.82534,9.50625,-1.25818,48,4
-5.01678,12.4733,2.12939,46,12
-3.94086,9.80318,-0.924374,3,5
-5.55625,13.8286,2.89686,28,13
-4.87372,12.136,-0.685392,45,6
-4.7235,11.7679,2.92751,82,14
-4.80753,11.9772,-0.225276,27,7
-5.16893,12.8841,3.71975,21,15
-0.21504,0.538184,-0.155291,12,0
-0.230457,0.577353,-0.143519,12,1
-4.78906,11.9978,0.677018,25,9
-3.62804,9.09374,-1.90313,61,2
-4.85881,12.1849,1.14767,55,10
-3.68089,9.23558,-1.57467,78,3
-5.04467,12.6638,1.67375,41,11
-3.81911,9.59213,-1.26769,27,4
-4.9469,12.4247,2.11812,41,12
-3.89998,9.80022,-0.922805,1,5
-5.46804,13.7476,2.87587,39,13
-4.81362,12.1084,-0.68288,39,6
-4.67159,11.7571,2.92076,51,14
-4.76273,11.9865,-0.225136,74,7
-5.0954,12.8302,3.69904,32,15
-4.37689,11.066,0.207719,55,8
-0.221377,0.559991,-0.13902,13,1
-5.49284,13.9017,0.783365,118,9
-3.79026,9.59755,-2.00578,68,2
-4.8199,12.211,1.14854,62,10
-5.00629,12.6897,1.67497,7,11
-3.68752,9.35174,-1.23429,63,4
-4.88757,12.4015,2.11124,48,12
-4.43385,11.256,-1.05842,45,5
-5.41666,13.751,2.87282,18,13
-4.75588,12.0797,-0.680368,19,6
-4.59976,11.6891,2.90007,10,14
-5.10219,12.9726,-0.243321,48,7
-5.05907,12.8695,3.70525,24,15
-4.35573,11.1259,0.208556,56,8
-0.216581,0.553501,-0.13722,13,1
-5.00713,12.7964,0.720143,10,9
-3.7534,9.59727,-2.00311,71,2
-4.99452,12.7839,-2.17381,19,3
-5.39375,13.8129,1.82073,48,11
-3.64764,9.34607,-1.23186,63,4
-4.83923,12.3992,2.10811,22,12
-4.40809,11.3003,-1.06121,47,5
-5.41356,13.8851,2.89686,30,13
-5.23291,13.4287,-0.755313,19,6
-8.3229,21.3692,5.29445,45,14
-5.37847,13.8093,-0.25868,93,7
-5.06051,12.9997,3.73786,22,15
-4.75973,12.2777,0.229848,8,8
-0.231642,0.597827,-0.148018,12,1
-3.72342,9.61946,-2.00502,85,2
-4.14863,10.7236,1.00595,17,10
-3.76824,9.74031,-1.65414,17,3
-5.35723,13.8548,1.8239,60,11
-3.61233,9.347,-1.23039,59,4
-4.82582,12.4934,2.12125,37,12
-4.37005,11.3194,-1.06156,40,5
-5.43466,14.0769,2.93312,14,13
-4.60452,11.9329,-0.670319,19,6
-5.35594,13.8875,3.43635,24,14
-5.20437,13.5015,-0.252571,31,7
-0.222576,0.580436,-0.143519,12,1
-5.34182,13.9304,0.781899,15,9
-3.73787,9.75275,-2.03021,21,2
-4.15795,10.8545,1.01693,12,10
-3.74058,9.77001,-1.65695,53,3
-5.33153,13.9327,1.8317,60,11
-3.5733,9.34286,-1.2282,57,4
-4.86058,12.7086,2.15504,30,12
-4.47264,11.7004,-1.0959,21,5
-7.96611,20.8503,4.33861,26,13
-4.5493,11.9134,-0.66833,42,6
-5.3116,13.917,3.43905,54,14
-5.156,13.5093,-0.252397,23,7
-4.47509,11.7807,0.21997,56,8
-0.215117,0.566596,-0.13992,13,1
-4.74117,12.4943,0.70036,32,9
-4.64438,12.2457,-2.54577,11,2
-4.11509,10.8559,1.01571,14,10
-3.69625,9.75096,-1.65164,76,3
-5.29726,13.9819,1.83584,48,11
-3.55073,9.37694,-1.23112,20,4
-5.27347,13.9338,2.35966,57,12
-3.58729,9.48347,-0.887071,35,5
-5.08657,13.447,2.79459,23,13
-4.54014,12.0088,-0.672831,16,6
-5.26542,13.9345,3.43905,58,14
-4.97811,13.1811,-0.245939,29,7
-4.4466,11.83,0.220598,56,8
-0.215879,0.574641,-0.141719,13,1
-5.17634,13.786,0.771746,27,9
-4.04267,10.7725,1.00665,10,10
-3.70382,9.87477,-1.67041,16,3
-5.17456,13.8033,1.81,48,11
-4.96808,13.2595,-1.73859,18,4
-5.24696,14.0113,2.36967,14,12
-4.32651,11.5533,-1.07934,28,5
-5.08364,13.5824,2.81901,18,13
-5.23313,13.9966,3.44985,15,14
-5.01466,13.4195,-0.250058,36,7
-4.39343,11.8136,0.220005,63,8
-0.207082,0.557124,-0.13722,13,1
-4.69973,12.6507,0.707268,13,9
-3.27831,8.82453,-1.82986,71,2
-5.15741,13.905,1.82097,52,11
-3.48794,9.40895,-1.2321,44,4
-4.28547,11.5665,-1.07916,47,5
-5.19915,14.0401,2.91022,41,13
-4.46937,12.0758,-0.67482,39,6
-5.09053,13.7689,-0.256236,93,7
-0.200214,0.543874,-0.155291,12,0
-4.37219,11.8833,0.221017,60,8
-0.214552,0.58345,-0.143519,12,1
-3.24072,8.8175,-1.82604,52,2
-4.53275,12.3396,1.15011,75,10
-3.44008,9.37005,-1.58093,46,3
-5.08696,13.8633,1.81317,60,11
-3.46835,9.45214,-1.23624,13,4
-5.67451,15.4728,2.61027,28,12
-4.32598,11.8021,-1.09973,26,5
-5.13863,14.0268,2.90373,30,13
-4.42856,12.0951,-0.675029,81,6
-5.69787,15.5618,3.82597,2,14
-4.89091,13.365,-0.248418,29,7
-4.32387,11.8733,0.220564,62,8
-0.212616,0.584158,-0.143519,12,1
-4.98118,13.6857,0.763268,49,9
-3.21749,8.8448,-1.82948,19,2
-4.33456,11.922,1.10984,19,10
-3.35434,9.23102,-1.55558,81,3
-5.03215,13.8558,1.81,48,11
-5.48568,15.1128,2.54644,36,12
-4.26371,11.7527,-1.0938,42,5
-5.11952,14.1194,2.91938,37,13
-4.23668,11.6909,-0.651687,65,6
-5.54532,15.3021,3.75758,35,14
-4.75939,13.1405,-0.24395,32,7
-0.196603,0.54519,-0.155291,12,0
-4.82011,13.3737,0.248138,57,8
-0.208036,0.577526,-0.141719,13,1
-4.91985,13.6654,0.761174,46,9
-3.22715,8.96866,-1.85276,61,2
-3.43936,9.56367,-1.60971,47,3
-5.02311,13.9752,1.82341,48,11
-3.27709,9.12244,-1.19018,48,4
-5.41286,15.0761,2.53705,60,12
-4.13653,11.5275,-1.07149,23,5
-5.03176,14.03,2.89724,15,13
-4.23628,11.8185,-0.657968,35,6
-5.51554,15.3874,3.77378,47,14
-4.7398,13.2305,-0.245311,29,7
-0.194604,0.545907,-0.155291,12,0
-4.78046,13.4177,0.248627,66,8
-0.200689,0.563598,-0.13812,13,1
-4.84496,13.6137,0.757301,63,9
-3.17846,8.93604,-1.8436,26,2
-4.39343,12.3518,1.14697,75,10
-3.29445,9.26724,-1.55777,88,3
-4.95989,13.9598,1.81902,36,11
-3.32932,9.3757,-1.22162,34,4
-4.86733,13.7145,2.30491,42,12
-4.02631,11.3511,-1.05371,45,5
-5.43228,15.3233,3.16018,51,13
-4.18359,11.8076,-0.656502,9,6
-5.4565,15.4002,3.77198,50,14
-4.71998,13.3288,-0.246812,30,7
-0.192601,0.546616,-0.155291,12,0
-4.74188,13.4653,0.249185,61,8
-0.208973,0.593741,-0.145318,12,1
-4.77884,13.5778,0.754371,45,9
-3.11729,8.86189,-1.82604,68,2
-4.31972,12.287,1.13947,28,10
-4.89816,13.9479,1.81512,60,11
-3.28836,9.36911,-1.21918,61,4
-4.8456,13.806,2.31742,10,12
-4.00579,11.4196,-1.05877,47,5
-5.38786,15.3681,3.16552,29,13
-5.39036,15.3925,3.76523,67,14
-4.58354,13.0885,-0.242065,31,7
-0.190692,0.547285,-0.155291,12,0
-4.69523,13.4753,0.249081,64,8
-0.201876,0.579708,-0.141719,13,1
-4.71828,13.5567,0.752277,61,9
-3.18954,9.1694,-1.8871,30,2
-4.92385,14.1632,1.31187,25,10
-4.775,13.7428,1.78636,48,11
-3.19932,9.21307,-1.19749,64,4
-4.77989,13.7724,2.30897,53,12
-3.92934,11.3281,-1.04901,54,5
-4.6507,13.4152,-0.744113,65,6
-5.3361,15.401,3.76298,62,14
-4.53782,13.1044,-0.242065,39,7
-0.172507,0.500429,-0.141833,14,0
-4.64881,13.4935,0.249116,60,8
-0.197948,0.574882,-0.140369,26,1
-4.74048,13.7751,0.763477,37,9
-3.22044,9.35814,-1.92374,61,2
-4.48805,13.0491,1.20728,10,10
-3.10476,9.03222,-1.51272,45,3
-4.70701,13.7012,1.77881,34,11
-3.15618,9.19226,-1.19334,52,4
-4.70871,13.7217,2.29771,52,12
-3.89951,11.3637,-1.0511,35,5
-4.82328,14.0636,2.88999,30,13
-4.58182,13.3672,-0.740554,81,6
-5.30378,15.4823,3.77828,52,14
-4.44606,12.9859,-0.239587,29,7
-0.170759,0.501028,-0.141833,14,0
-0.19908,0.584793,-0.142619,26,1
-4.79272,14.0866,0.779806,58,9
-3.07203,9.02919,-1.8539,59,2
-4.8068,14.1361,1.30629,11,10
-3.01283,8.86533,-1.483,81,3
-4.61064,13.5747,1.76028,81,11
-3.11195,9.16751,-1.18871,60,4
-4.69886,13.8503,2.31648,51,12
-3.3183,9.78099,-0.903631,37,5
-4.77227,14.0748,2.88885,22,13
-4.53448,13.3812,-0.740449,100,6
-5.23658,15.4619,3.76883,42,14
-4.44431,13.1301,-0.24196,27,7
-0.169009,0.501621,-0.141833,14,0
-5.29794,15.7334,0.28978,65,8
-0.193308,0.574403,-0.13992,13,1
-4.76764,14.1668,0.783365,50,9
-3.11184,9.252,-1.8974,49,2
-4.76505,14.1754,1.30838,37,10
-3.04666,9.06866,-1.51522,67,3
-3.95349,11.7747,1.52507,42,11
-3.02815,9.024,-1.16873,75,4
-4.6529,13.8658,2.31648,51,12
-3.81692,11.3812,-1.05023,57,5
-4.72872,14.1081,2.89228,25,13
-4.4795,13.3723,-0.739088,71,6
-5.16278,15.421,3.75443,57,14
-4.29408,12.8262,-0.236096,34,7
-0.161153,0.483879,-0.136656,14,0
-5.22173,15.6788,0.288453,21,8
-0.190171,0.571343,-0.13902,26,1
-4.74086,14.2515,0.787133,53,9
-3.07891,9.26094,-1.89702,47,2
-4.6879,14.1088,1.30071,94,10
-3.01657,9.07871,-1.51522,70,3
-3.92943,11.833,1.53092,73,11
-3.0301,9.13007,-1.18116,92,4
-4.60883,13.8951,2.31867,30,12
-3.78344,11.4133,-1.05197,42,5
-4.68068,14.12,2.89152,7,13
-4.47471,13.5065,-0.745683,78,6
-5.20043,15.7062,3.81967,52,14
-4.20468,12.7063,-0.233618,30,7
-0.163173,0.49542,-0.139762,14,0
-5.20385,15.809,0.290513,26,8
-0.186958,0.568301,-0.13812,13,1
-4.70605,14.3051,0.789226,31,9
-3.02243,9.19277,-1.881,54,2
-4.63486,14.1053,1.29897,69,10
-3.01198,9.17177,-1.52899,72,3
-3.88501,11.8372,1.5297,70,11
-3.00501,9.16135,-1.18384,31,4
-5.04787,15.3894,2.56521,56,12
-3.21988,9.82222,-0.904328,15,5
-4.4468,13.5809,-0.748928,35,6
-5.16375,15.7799,3.83317,31,14
-4.18491,12.7886,-0.234874,39,7
-0.149484,0.459247,-0.12941,15,0
-5.16873,15.8794,0.29149,13,8
-0.192306,0.591155,-0.143519,12,1
-4.58199,14.0935,0.776666,58,9
-3.10984,9.57109,-1.95617,40,2
-4.56714,14.0646,1.29374,80,10
-2.93457,9.03704,-1.5049,58,3
-3.85493,11.8783,1.53336,42,11
-3.18591,9.82271,-1.26793,15,4
-5.07635,15.6606,2.60745,42,12
-3.17391,9.79738,-0.901016,58,5
-4.95052,15.2815,3.1224,41,13
-4.38267,13.5367,-0.745683,35,6
-4.24485,13.1266,-0.240808,100,7
-0.159797,0.496519,-0.139762,14,0
-4.41954,13.7405,0.251943,55,8
-0.187856,0.584402,-0.141719,13,1
-4.58657,14.2684,0.785458,14,9
-2.91055,9.05985,-1.8497,38,2
-4.29207,13.3682,1.22837,21,10
-2.90663,9.05851,-1.50678,77,3
-3.86557,12.0543,1.55432,83,11
-3.14312,9.8073,-1.26452,48,4
-5.07322,15.8297,2.63279,50,12
-3.14141,9.80785,-0.901016,46,5
-4.89475,15.2912,3.12087,44,13
-4.29705,13.4321,-0.739088,68,6
-4.3304,13.5444,-0.248208,28,7
-0.158063,0.497074,-0.139762,14,0
-4.42061,13.9019,0.254631,20,8
-0.183556,0.577593,-0.13992,13,1
-4.44484,13.995,0.769548,42,9
-2.88959,9.10364,-1.85657,61,2
-4.61709,14.5549,1.33592,23,10
-2.87657,9.0681,-1.50678,87,3
-3.88017,12.2392,1.5765,61,11
-3.01105,9.50354,-1.22406,15,4
-5.02688,15.8756,2.63749,45,12
-3.70466,11.7069,-1.07428,40,5
-4.93049,15.5806,3.17659,42,13
-4.5765,14.4707,-0.795402,35,6
-4.47282,14.1601,-0.259203,24,7
-0.158643,0.504995,-0.141833,14,0
-4.31932,13.7577,0.251699,66,8
-0.181438,0.578262,-0.13992,13,1
-2.85016,9.08932,-1.85161,26,2
-4.16111,13.2781,1.21739,86,10
-2.87933,9.19357,-1.52586,36,3
-3.86434,12.3462,1.58845,61,11
-2.98687,9.54861,-1.22844,37,4
-4.93664,15.7818,2.61903,56,12
-3.73392,11.9442,-1.09485,40,5
-4.85755,15.548,3.16628,32,13
-4.48176,14.354,-0.788075,39,6
-4.34414,13.9217,-0.254561,36,7
-0.171766,0.553517,-0.155291,12,0
-4.24818,13.6898,0.250198,77,8
-0.181828,0.586306,-0.141719,13,1
-2.93459,9.47428,-1.92793,61,2
-4.10413,13.2583,1.21425,63,10
-2.83072,9.14457,-1.51616,85,3
-3.82044,12.3495,1.58723,65,11
-2.93935,9.50726,-1.22186,33,4
-4.90251,15.8669,2.63029,48,12
-4.77063,15.4496,3.14301,51,13
-4.32871,14.0271,-0.769339,87,6
-4.32674,14.0381,-0.256411,24,7
-0.169929,0.554084,-0.155291,12,0
-4.13943,13.5057,0.246568,61,8
-0.184917,0.603706,-0.145768,25,1
-4.61344,15.0617,0.825547,21,9
-3.01062,9.83501,-1.9993,38,2
-4.06072,13.2737,1.21443,13,10
-2.79416,9.13928,-1.51366,87,3
-3.79065,12.4064,1.59283,29,11
-2.91253,9.53834,-1.22454,16,4
-4.73796,15.5165,2.56959,47,12
-3.65137,11.9655,-1.0945,42,5
-4.6846,15.361,3.12164,43,13
-4.22557,13.8645,-0.759604,78,6
-4.32153,14.1882,-0.258889,100,7
-0.167994,0.554673,-0.155291,12,0
-4.08187,13.4773,0.2458,78,8
-0.175575,0.580069,-0.13992,13,1
-4.51631,14.9305,0.817488,15,9
-2.95411,9.77217,-1.98441,76,2
-4.50471,14.9109,1.36277,30,10
-2.82554,9.35272,-1.54745,53,3
-3.75236,12.4284,1.59405,47,11
-4.01855,13.3185,-1.70812,24,4
-4.69004,15.5538,2.57303,57,12
-3.67109,12.1823,-1.11315,42,5
-4.6376,15.3896,3.12431,38,13
-4.17899,13.8765,-0.759499,87,6
-4.29156,14.2683,-0.260076,33,7
-0.166154,0.555227,-0.155291,12,0
-4.0984,13.7041,0.249674,30,8
-0.180246,0.603084,-0.145318,12,1
-4.48222,14.997,0.820314,47,9
-2.77763,9.31142,-1.539,88,3
-4.53865,15.2246,1.95064,42,11
-4.00094,13.4294,-1.72055,52,4
-4.59444,15.4216,2.54863,60,12
-3.63352,12.2039,-1.11402,11,5
-4.66168,15.6672,3.17735,48,13
-4.19031,14.092,-0.77049,35,6
-4.74058,15.9528,3.84216,39,14
-18.9079,63.6688,17.7964,40,15
-0.164215,0.555804,-0.155291,12,0
-4.07843,13.8039,0.251245,45,8
-0.17383,0.588726,-0.141719,13,1
-4.42305,14.9896,0.819058,35,9
-2.89864,9.82971,-1.99205,73,2
-4.36819,14.8227,1.35196,87,10
-2.72942,9.26184,-1.5293,71,3
-4.44214,15.0834,1.93065,16,11
-2.85394,9.69683,-1.24112,71,4
-4.5495,15.4678,2.55364,60,12
-3.10937,10.5784,-0.96464,38,5
-4.618,15.7109,3.18308,37,13
-4.22292,14.376,-0.785249,48,6
-4.6882,15.9703,3.84261,28,14
-4.03672,13.7599,-0.250302,100,7
-18.6823,63.7233,17.7933,40,15
-4.01734,13.7739,0.250442,15,8
-0.175591,0.602426,-0.144868,12,1
-4.38076,15.0395,0.820942,47,9
-2.88799,9.91467,-2.00731,64,2
-4.30899,14.8027,1.34882,87,10
-2.71308,9.32632,-1.53838,16,3
-4.44433,15.2875,1.95478,46,11
-3.8967,13.4125,-1.71495,18,4
-4.48502,15.4476,2.54769,33,12
-4.65942,16.0587,3.25024,31,13
-3.03859,10.4794,-0.571823,100,6
-4.62103,15.9472,3.83317,57,14
-3.88632,13.4205,-0.24388,100,7
-18.4769,63.8475,17.8099,40,15
-3.98528,13.8436,0.251454,38,8
-0.173487,0.603035,-0.144868,12,1
-4.3321,15.0681,0.821675,37,9
-2.87819,10.0176,-2.02601,64,2
-4.22942,14.7303,1.3408,23,10
-4.39094,15.3029,1.95478,63,11
-3.78638,13.2047,-1.68667,61,4
-4.54534,15.8619,2.61339,48,12
-4.08859,14.2774,-1.29932,39,5
-4.54867,15.8945,3.21361,33,13
-4.54488,15.9022,3.81832,42,14
-3.82736,13.3917,-0.243112,100,7
-0.158385,0.557493,-0.155291,12,0
-0.165957,0.58492,-0.140369,13,1
-4.38959,15.4713,0.842818,62,9
-2.83999,10.0163,-2.02372,57,2
-3.9808,14.0491,1.27753,38,10
-2.62636,9.27517,-1.5268,83,3
-4.32671,15.2903,1.95113,34,11
-3.63749,12.8632,-1.64134,38,4
-4.51037,15.9499,2.62528,48,12
-2.98813,10.5739,-0.961328,48,5
-4.50063,15.9367,3.21895,22,13
-4.53325,16.0737,3.85566,57,14
-3.77082,13.3703,-0.242484,97,7
-4.46987,15.9448,0.289047,53,8
-0.166119,0.592973,-0.142169,13,1
-4.35872,15.5692,0.847319,50,9
-2.85738,10.2133,-2.0615,26,2
-3.9312,14.061,1.27735,63,10
-2.5775,9.21914,-1.51616,81,3
-4.5826,16.402,2.09103,54,11
-2.77859,9.95179,-1.26866,9,4
-4.42706,15.8666,2.60901,56,12
-2.99401,10.7378,-0.975273,36,5
-4.44986,15.9591,3.22047,33,13
-4.4977,16.1525,3.87096,23,14
-3.72305,13.3795,-0.242414,35,7
-18.1065,65.1133,18.1091,42,15
-4.3838,15.8504,0.287057,76,8
-0.165087,0.597305,-0.143069,12,1
-4.29483,15.5393,0.844912,50,9
-2.67976,9.70234,-1.95656,14,2
-4.37277,15.8428,1.4379,71,10
-4.54219,16.4791,2.09883,67,11
-2.75348,9.98965,-1.27232,42,4
-4.40432,15.9898,2.62685,46,12
-2.86427,10.4058,-0.944245,26,5
-3.88562,14.1356,-0.768292,35,6
-3.96999,14.4524,-0.261612,100,7
-17.8495,65.0239,18.0676,42,15
-4.37651,16.0308,0.290059,58,8
-0.16926,0.62041,-0.148468,12,1
-4.2417,15.5477,0.844598,49,9
-2.64447,9.6998,-1.95427,42,2
-4.34692,15.9553,1.44679,40,10
-2.7866,10.2352,-1.68011,53,3
-4.487,16.4922,2.09859,45,11
-2.71826,9.99107,-1.27134,71,4
-4.36112,16.0405,2.63279,26,12
-2.87206,10.5709,-0.958364,40,5
-3.81781,14.0713,-0.764105,35,6
-3.9189,14.4539,-0.261402,25,7
-4.44142,16.4835,0.297982,68,8
-0.163148,0.605914,-0.144868,12,1
-4.19467,15.5894,0.846063,39,9
-2.60158,9.66871,-1.94625,42,2
-4.2795,15.9157,1.4419,100,10
-3.02228,11.2479,-1.84468,48,3
-4.44824,16.5664,2.10615,72,11
-2.93956,10.9553,-1.39272,16,4
-4.21199,15.7084,2.57585,41,12
-2.71006,10.107,-0.915484,37,5
-4.30384,16.0622,3.2323,46,13
-3.75304,14.0163,-0.760442,68,6
-4.10554,15.4514,0.279064,13,8
-0.161032,0.60648,-0.144868,12,1
-4.23754,15.9707,0.865951,44,9
-2.5809,9.72707,-1.95617,26,2
-4.21881,15.9113,1.44016,68,10
-3.03156,11.4416,-1.87471,48,3
-4.52504,17.0903,2.17074,50,11
-2.83225,10.7045,-1.35957,33,4
-4.13996,15.6581,2.56521,57,12
-2.73944,10.361,-0.937621,50,5
-4.26229,16.1321,3.24337,31,13
-3.74182,14.1722,-0.768187,39,6
-3.80465,14.4306,-0.260495,29,7
-4.06526,15.5179,0.280006,16,8
-0.158914,0.607038,-0.144868,12,1
-2.55687,9.774,-1.96381,33,2
-4.16829,15.9452,1.4419,15,10
-2.86629,10.9724,-1.79618,32,3
-2.82193,10.818,-1.37274,15,4
-4.13959,15.8808,2.59932,55,12
-3.58775,13.7637,-1.24441,17,5
-4.20744,16.1526,3.24452,12,13
-3.96401,15.229,-0.82471,65,6
-3.75526,14.4477,-0.260564,100,7
-4.02856,15.5998,0.281228,78,8
-0.156794,0.607589,-0.144868,12,1
-3.86511,14.9884,0.811207,3,9
-2.78501,10.7999,-2.16797,47,2
-4.34329,16.8549,1.52279,39,10
-2.78709,10.8236,-1.77021,97,3
-4.11919,16.0084,2.02961,39,11
-2.64128,10.2722,-1.3023,4,4
-4.08806,15.9104,2.60182,50,12
-3.42714,13.3381,-1.20484,27,5
-4.17007,16.2414,3.2594,5,13
-3.91629,15.264,-0.825861,42,6
-3.97876,15.53,-0.279832,100,7
-3.90356,15.3366,0.276237,21,8
-0.161397,0.634574,-0.151167,11,1
-2.92284,11.5003,-2.3065,42,2
-6.85086,26.9753,2.43496,74,10
-2.81246,11.0822,-1.81089,56,3
-4.00669,15.7995,2.00134,59,11
-2.60687,10.2871,-1.30303,42,4
-3.35855,13.2631,-1.197,30,5
-4.17356,16.4937,3.3071,36,13
-3.87571,15.3279,-0.828583,35,6
-4.13053,16.3477,-0.294317,35,7
-3.90136,15.5434,0.279727,81,8
-0.155499,0.619984,-0.147568,12,1
-3.76154,15.0086,0.810893,16,9
-2.89938,11.5771,-2.31986,27,2
-15.9037,63.55,5.73136,40,10
-2.66012,10.6296,-1.73548,21,3
-3.98846,15.9494,2.01864,52,11
-2.60258,10.4151,-1.31814,22,4
-16.547,66.268,10.8181,22,12
-2.69628,10.8062,-0.974401,21,5
-4.11361,16.4865,3.3029,33,13
-17.6531,70.8553,16.8583,54,14
-3.90726,15.6945,-0.28231,100,7
-3.8418,15.5356,0.279343,78,8
-0.150529,0.609172,-0.144868,12,1
-3.69332,14.9576,0.807439,45,9
-2.66706,10.8014,-2.16263,19,2
-15.5803,63.1459,5.69022,39,10
-2.61638,10.612,-1.7311,72,3
-3.91376,15.8861,2.00889,51,11
-2.70002,10.9677,-1.38687,27,4
-3.80797,15.5033,-0.836643,62,6
-17.4289,71.0111,16.8808,54,14
-3.83006,15.6167,-0.28067,31,7
-3.84291,15.7762,0.283427,58,8
-0.152089,0.624841,-0.148468,12,1
-3.89127,15.999,0.862915,53,9
-2.32591,9.563,-1.91305,30,2
-15.2835,62.8862,5.66199,39,10
-2.58957,10.6633,-1.73799,45,3
-3.90277,16.083,2.03205,56,11
-2.59763,10.7128,-1.35348,61,4
-2.7348,11.2871,-1.01606,27,5
-3.75947,15.5398,-0.837899,81,6
-3.75065,15.527,-0.27882,27,7
-0.135295,0.563542,-0.155291,12,0
-3.84987,16.0482,0.288069,40,8
-0.146273,0.610208,-0.144868,12,1
-3.85541,16.0837,0.866788,48,9
-2.29068,9.56343,-1.91152,38,2
-15.0917,63.0555,5.67244,39,10
-2.52431,10.5551,-1.7189,81,3
-3.86321,16.166,2.04082,35,11
-2.57594,10.7793,-1.36079,67,4
-3.1527,13.2132,-1.18846,20,5
-3.65428,15.3391,-0.826385,58,6
-3.65977,15.374,-0.275853,39,7
-0.133425,0.563988,-0.155291,12,0
-3.77317,15.9616,0.286289,71,8
-0.151416,0.641034,-0.152067,11,1
-3.78002,16.0031,0.861764,50,9
-4.13567,17.5361,1.5763,77,10
-2.52509,10.7153,-1.74362,61,3
-3.82004,16.2232,2.04643,48,11
-2.55109,10.8341,-1.36664,22,4
-16.8631,71.6711,11.6616,26,12
-3.69012,15.7206,-0.846272,35,6
-3.55534,15.1583,-0.271769,42,7
-0.131554,0.564427,-0.155291,12,0
-3.68938,15.8416,0.283916,65,8
-0.146639,0.630145,-0.149367,12,1
-3.72919,16.0252,0.862287,50,9
-2.21075,9.50766,-1.8974,14,2
-4.07389,17.5342,1.5749,81,10
-2.46765,10.6293,-1.72829,30,3
-3.79,16.3382,2.05935,48,11
-2.55059,10.9953,-1.3859,68,4
-2.5741,11.1142,-0.998108,42,5
-16.6516,71.954,14.3561,34,13
-3.45463,14.9518,-0.26786,45,7
-0.129681,0.56486,-0.155291,12,0
-3.63145,15.8303,0.283497,37,8
-0.141937,0.619231,-0.146668,12,1
-3.75769,16.3938,0.881442,49,9
-2.39091,10.4393,-2.08173,42,2
-4.01883,17.5612,1.57612,23,10
-2.51677,11.0153,-1.38736,66,4
-2.57002,11.2664,-1.01101,38,5
-17.1169,75.1579,17.7959,61,14
-3.39439,14.9163,-0.267022,36,7
-0.12761,0.565332,-0.155291,12,0
-3.5646,15.8045,0.282799,37,8
-0.137953,0.612142,-0.144868,12,1
-3.70329,16.4328,0.882803,50,9
-2.3729,10.538,-2.09966,52,2
-14.2757,63.4494,5.68988,39,10
-2.39295,10.6443,-1.72798,33,3
-2.40272,10.7053,-1.34714,35,4
-2.43541,10.8598,-0.973704,29,5
-16.8074,75.0073,14.9415,37,13
-3.53066,15.7694,-0.846901,68,6
-3.31743,14.8291,-0.265242,41,7
-0.125636,0.565774,-0.155291,12,0
-3.53082,15.9002,0.2843,63,8
-0.135922,0.612597,-0.144868,12,1
-3.65844,16.5021,0.885838,49,9
-2.17731,9.82931,-1.95694,11,2
-2.37514,10.7313,-1.7408,81,3
-2.42032,10.9535,-1.37737,28,4
-2.39191,10.8429,-0.971438,27,5
-3.37173,15.2973,-0.820942,35,6
-3.25963,14.8133,-0.264753,43,7
-0.111384,0.509569,-0.139762,14,0
-3.47913,15.93,0.284614,34,8
-0.137106,0.628299,-0.148468,12,1
-3.60422,16.5304,0.886676,34,9
-2.1263,9.75207,-1.94015,26,2
-2.34733,10.7839,-1.748,56,3
-2.37364,10.9231,-1.37249,23,4
-3.44316,15.8582,2.57022,6,12
-2.79178,12.8582,-1.15115,26,5
-3.29801,15.2153,-0.815918,45,6
-3.22947,14.9243,-0.266533,41,7
-0.121782,0.566616,-0.155291,12,0
-3.48942,16.249,0.290094,68,8
-0.131642,0.613531,-0.144868,12,1
-3.50714,16.3593,0.876837,23,9
-2.09265,9.76136,-1.94053,49,2
-3.49115,16.2986,1.45829,31,10
-2.28818,10.6916,-1.73173,63,3
-2.25213,10.5412,-1.3235,68,4
-14.0943,66.0249,10.6929,21,12
-2.41122,11.2954,-1.01048,24,5
-3.24654,15.2345,-0.816336,29,6
-3.15322,14.822,-0.264509,41,7
-0.119804,0.567038,-0.155291,12,0
-3.40212,16.1163,0.287511,26,8
-0.130303,0.6178,-0.145768,25,1
-3.46607,16.4477,0.880919,8,9
-2.07435,9.84352,-1.95541,66,2
-3.43219,16.301,1.45742,68,10
-2.28012,10.8387,-1.75426,61,3
-13.5806,64.6124,8.10675,48,11
-2.22022,10.5723,-1.32643,27,4
-16.3762,78.0484,12.6308,32,12
-2.38118,11.3486,-1.01449,13,5
-3.13297,14.9836,-0.267196,45,7
-0.117824,0.567452,-0.155291,12,0
-4.77362,23.0105,0.410201,23,8
-0.12696,0.612526,-0.144419,25,1
-3.40013,16.4186,0.878721,33,9
-2.0364,9.8334,-1.95198,21,2
-2.25027,10.8853,-1.76051,61,3
-13.3831,64.7955,8.12381,48,11
-2.21138,10.716,-1.34349,42,4
-2.33954,11.3471,-1.01362,29,5
-3.10118,15.0944,-0.268976,37,7
-0.105802,0.518646,-0.141833,14,0
-3.29432,16.1632,0.28793,17,8
-0.123654,0.607237,-0.143069,25,1
-3.13614,15.4146,0.824396,37,9
-2.0228,9.94241,-1.9722,54,2
-2.23585,11.0092,-1.77929,40,3
-13.2042,65.0752,8.15306,48,11
-2.18146,10.7607,-1.34812,46,4
-2.17889,10.7576,-0.960282,22,5
-15.3877,76.0406,15.0804,38,13
-3.05875,15.1561,-0.269884,35,7
-0.113859,0.568261,-0.155291,12,0
-3.01021,15.0373,0.267685,16,8
-0.123827,0.61913,-0.145768,25,1
-3.09993,15.5136,0.829106,37,9
-2.01925,10.1054,-2.00311,61,2
-3.22931,16.1758,1.44312,6,10
-2.18543,10.9569,-1.76959,97,3
-12.925,64.8601,8.1204,48,11
-2.16792,10.8889,-1.36323,34,4
-2.1215,10.6655,-0.951392,46,5
-2.21125,11.137,-0.59506,100,6
-3.02487,15.2628,-0.271594,89,7
-0.100688,0.51179,-0.139762,14,0
-2.95963,15.0576,0.26786,49,8
-0.119036,0.606173,-0.142619,26,1
-3.05539,15.5591,0.83099,60,9
-1.83807,9.3687,-1.85581,26,2
-3.17895,16.2183,1.44591,6,10
-2.17071,11.0847,-1.78898,28,3
-12.7115,64.971,8.12869,48,11
-2.16074,11.0542,-1.38297,61,4
-2.07472,10.624,-0.947034,42,5
-3.23007,16.571,-0.884792,27,6
-2.96776,15.2394,-0.271001,89,7
-0.0989003,0.512138,-0.139762,14,0
-2.92902,15.1674,0.26964,70,8
-0.118872,0.616132,-0.144868,25,1
-3.03395,15.7403,0.840097,39,9
-1.83431,9.52543,-1.88557,49,2
-3.14604,16.3525,1.4569,37,10
-2.06117,10.7135,-1.72798,47,3
-12.5956,65.5314,8.19352,48,11
-2.14054,11.1471,-1.3937,27,4
-12.6367,65.8688,10.6228,21,12
-2.01699,10.5235,-0.937447,56,5
-2.15004,11.2283,-0.599142,37,6
-2.93181,15.34,-0.272607,89,7
-0.100802,0.531443,-0.144939,14,0
-2.8675,15.1324,0.268837,73,8
-0.114908,0.60697,-0.142619,26,1
-3.04245,16.0863,0.857996,33,9
-1.77753,9.39836,-1.85924,35,2
-3.08514,16.3276,1.45376,100,10
-2.03218,10.7653,-1.73517,48,3
-12.6368,67.0067,8.37243,48,11
-2.02223,10.7331,-1.34105,50,4
-12.308,65.3883,10.5384,21,12
-2.11513,11.237,-1.00037,23,5
-12.4402,66.1546,13.0845,28,13
-3.12495,16.6338,-0.88699,74,6
-3.2324,17.2389,-0.30615,100,7
-0.0954122,0.512799,-0.139762,14,0
-0.112788,0.607367,-0.142619,26,1
-3.01689,16.2618,0.866788,20,9
-1.73864,9.37169,-1.85276,28,2
-3.00924,16.2364,1.44469,84,10
-1.98992,10.7471,-1.7311,23,3
-11.272,60.9368,7.60904,48,11
-1.94435,10.5215,-1.31375,56,4
-2.03936,11.0464,-0.982768,57,5
-12.1552,65.9041,13.0265,27,13
-2.09874,11.3904,-0.606992,77,6
-2.09733,11.405,-0.202413,76,7
-0.0936215,0.513129,-0.139762,14,0
-2.75569,15.1186,0.268243,1,8
-0.112762,0.61926,-0.145318,25,1
-2.96151,16.2639,0.866369,51,9
-1.76494,9.7022,-1.91687,33,2
-2.94721,16.2174,1.44208,31,10
-2.102,11.5781,-1.86376,65,3
-11.0139,60.7258,7.57784,48,11
-1.90796,10.5302,-1.314,20,4
-11.8161,65.214,10.4971,20,12
-2.00611,11.0829,-0.985383,55,5
-11.9278,65.9616,13.0296,27,13
-2.06323,11.4212,-0.608249,33,6
-2.88272,15.9735,-0.283322,86,7
-0.089109,0.498239,-0.135621,15,0
-4.16129,23.2672,0.412575,21,8
-0.113107,0.633059,-0.148468,24,1
-2.8984,16.2387,0.864485,25,9
-1.75932,9.86679,-1.94816,33,2
-1.97111,11.0657,-1.78022,62,3
-10.8514,60.9809,7.60513,48,11
-1.86921,10.5149,-1.31131,63,4
-11.6665,65.6944,10.5678,21,12
-2.00291,11.2899,-1.00316,19,5
-11.685,65.8655,13.0029,27,13
-2.02779,11.4418,-0.608981,13,6
-11.7293,66.2499,15.5329,43,14
-2.83635,16.0366,-0.284265,78,7
-0.0921294,0.525171,-0.142868,14,0
-4.07072,23.2284,0.411632,57,8
-0.106528,0.608496,-0.142619,26,1
-2.84755,16.2822,0.866265,15,9
-1.79356,10.2555,-2.02372,26,2
-10.666,61.0506,5.42213,34,10
-1.96948,11.2846,-1.81433,51,3
-1.83352,10.5273,-1.31205,33,4
-11.4608,65.871,10.5897,21,12
-1.95385,11.2298,-0.997236,53,5
-11.4806,66.0529,13.0319,27,13
-2.63219,15.1913,-0.269116,100,7
-0.0844069,0.491219,-0.133551,15,0
-0.106379,0.620389,-0.145318,25,1
-1.7077,9.96949,-1.9661,54,2
-11.1666,65.2586,5.79237,41,10
-1.93075,11.2953,-1.81495,6,3
-11.0729,64.8474,8.0775,48,11
-1.89088,11.0854,-1.38078,46,4
-1.92501,11.2974,-1.00264,48,5
-11.2829,66.4263,15.5554,43,14
-2.57579,15.1807,-0.268767,57,7
-0.0897431,0.533422,-0.144939,14,0
-2.73787,16.291,0.288349,1,8
-0.104213,0.620756,-0.145318,25,1
-10.3499,61.7163,3.27958,15,9
-1.65146,9.8476,-1.94091,47,2
-10.9177,65.1714,5.78121,41,10
-1.87507,11.229,-1.39784,59,4
-10.8947,65.3142,10.4877,20,12
-2.2691,13.6034,-1.20658,12,5
-10.6235,63.7572,12.564,25,13
-11.0982,66.7498,15.622,44,14
-3.82055,23.0033,-0.407025,41,7
-0.0784646,0.476546,-0.12941,15,0
-2.68035,16.2965,0.288279,40,8
-0.104573,0.6365,-0.148918,24,1
-9.90607,60.3606,3.20568,13,9
-1.61612,9.84749,-1.93976,33,2
-10.6282,64.8317,5.74775,40,10
-1.83844,11.2267,-1.80181,11,3
-10.3834,63.4773,7.89762,48,11
-1.81697,11.1199,-1.38346,56,4
-10.4255,63.874,10.2505,19,12
-10.8452,66.665,15.5932,43,14
-2.61153,16.0707,-0.284195,27,7
-0.0817158,0.507334,-0.137692,14,0
-2.64251,16.4242,0.290373,53,8
-0.0989492,0.615696,-0.143969,25,1
-9.7426,60.6219,3.21782,13,9
-1.5503,9.65729,-1.90122,52,2
-10.376,64.707,5.73345,40,10
-10.1461,63.4152,7.88543,48,11
-1.78887,11.1808,-1.39029,52,4
-10.218,63.9356,10.2549,19,12
-10.1164,63.4421,12.4877,25,13
-10.583,66.4427,15.5329,43,14
-2.57675,16.1958,-0.286254,70,7
-0.0794311,0.503785,-0.136656,14,0
-3.66442,23.2676,0.411144,18,8
-0.0978156,0.621796,-0.145318,25,1
-1.53168,9.74771,-1.91801,35,2
-10.0959,64.3238,5.6965,39,10
-1.85682,11.8439,-1.8988,43,3
-9.9511,63.5465,7.89762,48,11
-1.7613,11.2474,-1.39784,20,4
-1.72632,11.0492,-0.97841,27,5
-9.94464,63.7236,12.5365,25,13
-2.55872,16.4335,-0.290303,100,7
-0.0759931,0.49259,-0.133551,15,0
-2.5591,16.6074,0.293305,40,8
-0.0954565,0.620191,-0.144868,25,1
-10.6426,69.2266,3.67063,25,9
-1.50323,9.77796,-1.92297,49,2
-9.7803,63.6913,5.63758,38,10
-1.837,11.9769,-1.91914,62,3
-9.71809,63.434,7.87959,48,11
-1.73074,11.3104,-1.40491,19,4
-1.77944,11.6559,-1.03158,51,5
-9.66099,63.2826,12.4434,24,13
-2.30111,15.0906,-0.800007,19,6
-2.27337,14.9438,-0.263845,100,7
-0.0782127,0.51961,-0.140798,14,0
-2.49278,16.5609,0.292328,21,8
-0.0938709,0.624375,-0.145768,25,1
-1.45893,9.7271,-1.91191,30,2
-9.53263,63.6322,5.62922,38,10
-1.7092,11.4229,-1.82934,45,3
-9.41791,63.0918,10.1035,19,12
-1.67675,11.2463,-0.994796,14,5
-9.477,63.64,12.5068,25,13
-3.29153,22.1299,-1.17253,9,6
-2.21767,14.9279,-0.263427,67,7
-0.0724663,0.493122,-0.133551,15,0
-2.1376,14.5637,0.256934,42,8
-0.0929947,0.634355,-0.148018,24,1
-1.43607,9.8079,-1.92679,54,2
-1.67559,11.4718,-1.83623,28,3
-9.25649,63.4508,7.87325,48,11
-1.68668,11.5759,-1.43635,5,4
-9.20875,63.2784,10.1279,19,12
-1.63266,11.2326,-0.993053,68,5
-9.25481,63.6727,12.5068,25,13
-3.29864,22.7223,-1.20331,25,6
-2.20049,15.1952,-0.267999,100,7
-0.0684673,0.478085,-0.12941,15,0
-2.07994,14.5236,0.256097,57,8
-0.0932636,0.652038,-0.152067,23,1
-1.40343,9.83642,-1.93137,45,2
-1.6238,11.4094,-1.82528,27,3
-8.99802,63.2233,7.84107,48,11
-1.62894,11.4599,-1.42124,44,4
-9.03391,63.6348,10.1798,19,12
-1.87453,13.2208,-1.16824,35,5
-2.14747,15.1838,-0.803671,22,6
-2.07527,14.6919,-0.258994,75,7
-0.0707151,0.505083,-0.136656,14,0
-0.0870577,0.623394,-0.145318,25,1
-8.94558,64.1383,3.39388,18,9
-1.44412,10.3541,-2.03212,33,2
-8.8576,63.5888,5.61701,38,10
-1.65953,11.929,-1.90756,47,3
-8.78559,63.2332,7.83864,48,11
-1.59038,11.4613,-1.42075,52,4
-8.86082,63.9383,10.2236,19,12
-2.00414,14.4801,-1.27892,26,5
-2.09565,15.1608,-0.802101,32,6
-2.091,15.1662,-0.267231,99,7
-0.0725154,0.532137,-0.143903,14,0
-3.17556,23.303,0.410516,28,8
-0.0851437,0.625625,-0.145768,25,1
-8.73349,64.2562,3.39849,18,9
-1.42095,10.4683,-2.05349,49,2
-8.1414,60.0572,5.30238,64,10
-1.54133,11.3849,-1.81965,41,3
-1.53255,11.335,-1.40442,66,4
-2.01135,14.9155,-1.31675,28,5
-9.57642,71.1091,13.947,32,13
-2.04513,15.206,-0.80409,22,6
-2.07771,15.4687,-0.272432,25,7
-0.0676074,0.509406,-0.137692,14,0
-2.98397,22.5137,0.396414,15,8
-0.0825946,0.624001,-0.145318,25,1
-7.80047,58.9324,3.11546,11,9
-7.93016,60.0734,5.30134,64,10
-1.62628,12.3362,-1.97076,76,3
-1.53599,11.667,-1.44488,27,4
-7.72002,58.7184,9.38012,15,12
-1.89262,14.4147,-1.27195,30,5
-2.04,15.5794,-0.823454,39,6
-2.04237,15.6186,-0.274945,64,7
-2.90264,22.4719,0.395506,7,8
-0.0820205,0.635867,-0.148018,24,1
-7.5503,58.5341,3.09306,11,9
-7.56289,58.7931,5.18612,30,10
-1.56422,12.1769,-1.94448,23,3
-1.4983,11.6799,-1.44586,49,4
-7.49113,58.4773,9.33757,15,12
-1.49415,11.6798,-1.03018,15,5
-1.98531,15.5623,-0.822198,42,6
-2.13915,16.7917,-0.295469,100,7
-0.0656761,0.521343,-0.140798,14,0
-2.81961,22.4139,0.39432,2,8
-0.0786971,0.626468,-0.145768,25,1
-7.35589,58.6393,3.09724,11,9
-1.22816,9.80444,-1.92068,28,2
-7.37579,58.8812,5.19169,30,10
-1.55816,12.4564,-1.98828,31,3
-7.22249,57.9855,9.25498,15,12
-1.74675,14.0437,-1.23813,15,5
-2.09174,16.8655,-0.890653,30,6
-1.94338,15.6917,-0.275992,88,7
-0.0651713,0.533086,-0.143903,14,0
-2.72872,22.3526,0.393063,2,8
-0.0749858,0.615146,-0.143069,25,1
-7.12063,58.4994,3.08845,11,9
-1.18819,9.77574,-1.9142,52,2
-7.15992,58.9078,5.19169,30,10
-1.51916,12.517,-1.99704,35,3
-7.10604,58.6354,7.2522,46,11
-1.64744,13.6137,-1.68375,19,4
-7.01087,58.0195,9.25623,15,12
-1.73584,14.3863,-1.26777,30,5
-1.86889,15.5345,-0.82,16,6
-1.88848,15.7206,-0.276376,80,7
-0.0604883,0.5103,-0.137692,14,0
-2.68744,22.706,0.399102,10,8
-0.0745605,0.630899,-0.146668,24,1
-6.94643,58.7777,3.10185,11,9
-1.14693,9.71939,-1.90237,23,2
-7.06987,60.0021,5.28582,32,10
-1.48642,12.6343,-2.01488,53,3
-6.8332,58.1682,7.19127,45,11
-1.57374,13.3966,-1.6562,10,4
-6.84189,58.33,9.30191,15,12
-1.71319,14.6278,-1.28851,13,5
-2.42431,20.7623,-1.0955,8,6
-2.67651,22.957,-0.40343,41,7
-0.0601221,0.522013,-0.140798,14,0
-2.61715,22.7585,0.39987,28,8
-0.0709117,0.61759,-0.143519,25,1
-6.96744,60.6815,3.20108,13,9
-1.09926,9.58855,-1.87603,33,2
-6.74033,58.8851,5.18542,30,10
-1.412,12.3546,-1.96951,38,3
-6.62362,58.0446,7.17323,45,11
-1.58625,13.9007,-1.71787,15,4
-6.66272,58.478,9.32193,15,12
-1.6899,14.8551,-1.30803,10,5
-2.23436,19.7025,-1.03918,22,6
-2.64964,23.4009,-0.411074,100,7
-7.88945,69.786,18.8182,48,15
-0.0566732,0.50685,-0.136656,14,0
-2.79148,25.0048,0.439172,23,8
-0.0721015,0.646873,-0.150267,24,1
-6.74938,60.5534,3.19312,12,9
-1.0629,9.55117,-1.86802,28,2
-6.53755,58.8398,5.17949,30,10
-1.41088,12.7185,-2.02677,53,3
-1.4607,13.2097,-1.63183,50,4
-6.47442,58.5508,9.33007,15,12
-1.48846,13.4823,-1.18671,10,5
-2.17688,19.7813,-1.04295,11,6
-2.46634,22.4475,-0.39418,65,7
-0.0553194,0.510886,-0.137692,14,0
-2.70273,24.9603,0.43823,34,8
-0.0680708,0.629672,-0.146218,25,1
-2.44878,22.6889,1.19598,22,9
-1.02303,9.49431,-1.85619,28,2
-2.43918,22.6741,1.99517,71,10
-1.382,12.8468,-2.04648,57,3
-1.40609,13.1138,-1.6194,24,4
-6.32468,59.0838,9.41141,15,12
-1.43694,13.4458,-1.18305,15,5
-2.13013,19.9651,-1.05227,23,6
-2.4218,22.7741,-0.399765,100,7
-0.0524157,0.499539,-0.134586,15,0
-2.26831,21.6542,0.380044,19,8
-0.0658723,0.629906,-0.146218,25,1
-2.36853,22.6874,1.19546,14,9
-0.97625,9.3512,-1.82757,28,2
-1.35923,13.0638,-2.08027,35,3
-1.37628,13.2726,-1.63841,33,4
-6.10374,58.964,9.38888,15,12
-1.6176,15.6265,-1.37445,15,5
-2.05736,19.9426,-1.0507,7,6
-2.32633,22.6273,-0.397042,41,7
-0.0526204,0.518939,-0.139762,14,0
-2.21083,21.841,0.383185,52,8
-0.0644569,0.637887,-0.148018,24,1
-2.26627,22.467,1.18342,11,9
-0.935723,9.27642,-1.8123,30,2
-5.91815,58.7732,5.16799,30,10
-1.18283,11.7673,-1.87315,50,3
-1.30481,13.0265,-1.60746,55,4
-7.14194,71.427,11.3693,25,12
-1.54975,15.4992,-1.36277,10,5
-1.98536,19.9259,-1.04944,19,6
-2.20644,22.2233,-0.389817,88,7
-0.0511849,0.522965,-0.140798,14,0
-2.15617,22.0695,0.387059,27,8
-0.06223,0.638108,-0.148018,24,1
-2.18318,22.4271,1.18091,13,9
-0.900671,9.25227,-1.80696,28,2
-5.69101,58.5674,5.14812,29,10
-1.27996,13.2444,-1.63378,36,4
-6.88996,71.424,11.365,25,12
-1.90123,19.7089,-1.73231,7,5
-1.91694,19.9446,-1.05007,27,6
-2.17192,22.6808,-0.397705,33,7
-0.0482704,0.5116,-0.137692,14,0
-2.07405,22.0232,0.386117,15,8
-0.0594549,0.632501,-0.146668,24,1
-1.6894,18.0061,0.947804,16,9
-0.867087,9.24168,-1.80429,40,2
-5.56231,59.3962,5.21923,30,10
