x, y, z, intensity, ring
0.501831,-0.176624,-0.122823,15,1
11.4671,-4.03819,0.637138,112,9
0.638827,-0.225092,-0.131658,26,2
9.71649,-3.42553,0.901365,20,10
5.66163,-1.996,-0.950809,56,3
13.43,-4.73736,1.74858,27,11
5.85163,-2.06528,-0.761927,31,4
13.1369,-4.64169,-1.21896,17,5
11.0381,-3.90013,2.27559,22,13
6.55866,-2.31868,-0.364572,47,6
8.27471,-2.92698,2.02636,38,14
12.2966,-4.35204,-0.227684,100,7
8.83388,-3.12824,2.51106,2,15
12.3594,-4.39614,0.228976,18,8
0.501211,-0.178375,-0.122823,15,1
11.308,-4.0266,0.629078,47,9
0.638037,-0.22732,-0.131658,26,2
9.24338,-3.29324,0.858484,26,10
5.65463,-2.01575,-0.950809,55,3
15.7992,-5.63515,2.05959,21,11
5.87617,-2.09703,-0.766071,30,4
9.10822,-3.25225,1.53181,21,12
9.9835,-3.56675,-0.927511,15,5
13.0592,-4.66814,2.69575,17,13
7.05223,-2.52229,-0.39252,56,6
8.29747,-2.96766,2.03446,56,14
12.1646,-4.35316,-0.22552,83,7
11.4638,-4.10463,3.26267,11,15
15.8355,-5.698,0.293759,8,8
0.500554,-0.180211,-0.122823,15,1
11.2481,-4.05178,0.626566,38,9
0.624271,-0.224998,-0.128987,27,2
9.81043,-3.53584,0.912346,20,10
5.60818,-2.02239,-0.944239,60,3
15.7541,-5.68426,2.05642,43,11
5.82177,-2.10171,-0.759977,16,4
9.84669,-3.55862,-0.916007,30,5
17.1074,-6.18605,3.53607,11,13
6.65417,-2.40746,-0.370853,49,6
8.31219,-3.00733,2.04076,23,14
10.8098,-3.91309,-0.200668,28,7
6.932,-2.52304,0.128764,13,8
0.49989,-0.182044,-0.122823,15,1
9.98899,-3.63964,0.557169,18,9
0.647462,-0.235913,-0.133948,26,2
11.9276,-4.34836,1.11071,21,10
5.68053,-2.07203,-0.957692,47,3
13.6428,-4.97904,1.78319,27,11
11.4155,-4.16844,-1.49217,34,4
9.80988,-3.58408,-0.913741,54,5
17.0249,-6.22348,3.52348,27,13
8.59461,-3.14348,-0.479607,29,6
8.25719,-3.0217,2.02996,8,14
10.7653,-3.94168,-0.200109,56,7
8.63989,-3.16517,2.46551,42,15
6.95317,-2.55827,0.129322,55,8
0.499252,-0.183788,-0.122823,15,1
11.142,-4.10386,0.622275,63,9
0.646635,-0.238172,-0.133948,26,2
16.4944,-6.07858,1.53795,16,10
5.6955,-2.10005,-0.961446,72,3
13.5545,-5.00053,1.77393,27,11
5.8699,-2.16668,-0.768264,11,4
16.6218,-6.1387,2.80643,20,12
9.79544,-3.61761,-0.913566,41,5
17.0325,-6.29376,3.52959,16,13
6.92757,-2.56121,-0.387077,3,6
8.30142,-3.07079,2.04346,11,14
10.549,-3.90427,-0.19634,23,7
8.65053,-3.20336,2.47172,36,15
6.93296,-2.57834,0.129113,68,8
0.516871,-0.192325,-0.127322,15,1
8.96569,-3.33787,0.501379,37,9
0.63292,-0.235632,-0.131277,27,2
11.9548,-4.45309,1.11612,33,10
5.68814,-2.11992,-0.961446,53,3
13.3807,-4.98955,1.75346,11,11
5.83812,-2.17814,-0.765096,12,4
16.7483,-6.25194,2.83146,13,12
9.90035,-3.69568,-0.924548,26,5
9.44779,-3.52863,1.96037,4,13
6.65105,-2.4854,-0.372109,45,6
10.569,-3.95368,-0.196968,100,7
8.6411,-3.23421,2.47224,77,15
6.92017,-2.60112,0.129043,60,8
0.497957,-0.187269,-0.122823,15,1
9.01193,-3.39095,0.504623,16,9
0.630256,-0.237149,-0.130895,27,2
9.25601,-3.48464,0.865282,46,10
5.75095,-2.16622,-0.973335,22,3
10.8054,-4.07225,1.41783,77,11
11.4362,-4.31226,-1.5007,49,4
9.95636,-3.75624,-0.930998,48,5
9.87257,-3.7266,2.0512,8,13
6.73949,-2.5453,-0.377552,35,6
8.28343,-3.13005,2.04436,56,14
7.47257,-2.82514,-0.139445,100,7
8.70926,-3.29443,2.49502,50,15
6.93535,-2.63449,0.129497,56,8
0.533732,-0.202852,-0.131821,14,1
0.622084,-0.236556,-0.129368,27,2
9.26241,-3.52401,0.867025,54,10
11.435,-4.35289,-1.93791,57,3
10.2513,-3.90434,1.3469,46,11
9.41215,-3.58662,-1.23673,30,4
8.86895,-3.3814,1.50334,7,12
9.91646,-3.78276,-0.928557,50,5
6.58688,-2.51397,-0.369492,38,6
8.27791,-3.16103,2.04571,63,14
7.39915,-2.82694,-0.138258,100,7
8.95395,-3.42276,2.56852,41,15
6.88877,-2.64435,0.128799,15,8
0.507552,-0.194933,-0.125523,15,1
8.97313,-3.44806,0.503786,34,9
0.621213,-0.238835,-0.129368,27,2
9.21596,-3.54506,0.863888,50,10
11.3747,-4.37774,-1.9304,11,3
10.169,-3.91371,1.33788,25,11
9.40513,-3.6216,-1.23746,46,4
8.90317,-3.43009,1.51116,11,12
9.90692,-3.81879,-0.928906,22,5
10.9154,-4.20971,2.27406,19,13
6.63725,-2.5611,-0.372841,52,6
8.22809,-3.17661,2.03626,81,14
7.37431,-2.84699,-0.137979,100,7
8.67163,-3.34958,2.49087,43,15
0.450278,-0.174651,-0.12941,15,0
6.87717,-2.66886,0.128764,31,8
0.495935,-0.19256,-0.122823,15,1
8.91016,-3.46139,0.50096,65,9
0.635016,-0.246689,-0.132421,26,2
10.1636,-3.95038,0.954007,48,10
5.83434,-2.26885,-0.991482,65,3
9.43434,-3.67261,-1.24307,41,4
9.84897,-3.83599,-0.924722,22,5
12.1555,-4.73679,2.53585,20,13
6.56314,-2.55886,-0.369178,45,6
8.48928,-3.31154,2.10374,70,14
7.41785,-2.89508,-0.138991,100,7
10.367,-4.0482,2.98211,10,15
0.539599,-0.211466,-0.155291,12,0
8.57127,-3.36077,0.160702,56,8
0.477118,-0.187173,-0.118324,16,1
8.99284,-3.52969,0.506298,52,9
0.623186,-0.2446,-0.130132,27,2
16.0119,-6.2879,1.50501,22,10
5.77858,-2.27042,-0.983347,26,3
10.0687,-3.95806,1.32838,37,11
9.12774,-3.58999,-1.20431,27,4
7.73873,-3.04525,1.31718,48,12
9.78731,-3.85138,-0.92019,41,5
12.053,-4.74539,2.51792,16,13
6.72142,-2.64764,-0.378598,31,6
7.99722,-3.1518,1.98452,31,14
7.35003,-2.89822,-0.137909,38,7
8.77503,-3.46189,2.52763,15,15
8.14304,-3.2257,0.152883,32,8
0.516318,-0.204633,-0.128222,14,1
9.00275,-3.56989,0.507554,60,9
0.615028,-0.243879,-0.128605,28,2
15.2898,-6.06602,1.43912,25,10
11.2585,-4.46892,-1.91851,46,3
11.3566,-4.51244,-1.50046,37,4
7.69134,-3.05765,1.31092,85,12
12.5602,-4.99325,-1.18253,17,5
8.06495,-3.20943,-0.454904,50,6
7.99703,-3.18402,1.98722,60,14
13.0189,-5.18613,-0.244613,52,7
8.76828,-3.49464,2.52918,25,15
8.20599,-3.28382,0.154279,48,8
0.493891,-0.197742,-0.122823,15,1
9.01063,-3.60947,0.508706,43,9
0.614173,-0.246025,-0.128605,28,2
13.1843,-5.28402,1.24267,36,10
8.40645,-3.37085,-1.4345,8,3
11.9311,-4.7866,1.57845,79,11
11.2892,-4.53135,-1.49363,30,4
7.74844,-3.11171,1.3225,55,12
12.2839,-4.93311,-1.15813,28,5
9.89187,-3.9745,2.07219,135,13
7.95513,-3.19956,1.97957,61,14
12.9729,-5.22034,-0.244089,70,7
10.5302,-4.23951,3.04164,20,15
0.447795,-0.180921,-0.12941,15,0
0.464292,-0.187775,-0.115625,16,1
12.425,-5.02759,0.702453,15,9
0.609671,-0.246694,-0.127842,28,2
13.26,-5.36814,1.25156,90,10
12.4482,-5.04205,-2.1272,43,3
11.8297,-4.79392,1.56724,29,11
11.2586,-4.56477,-1.49168,55,4
7.7174,-3.13057,1.31906,49,12
9.55813,-3.87727,-0.902411,15,5
9.78152,-3.96987,2.05196,25,13
6.82286,-2.77048,-0.385925,7,6
7.74171,-3.14516,1.92918,42,14
12.8842,-5.23698,-0.242763,35,7
8.8403,-3.59507,2.55713,8,15
0.492499,-0.201186,-0.122823,15,1
11.6678,-4.76868,0.660585,44,9
0.616075,-0.251792,-0.129368,27,2
13.2835,-5.43174,1.25557,27,10
12.7011,-5.19617,-2.1735,12,3
11.721,-4.79759,1.55505,79,11
11.2554,-4.6093,-1.49339,45,4
7.54191,-3.09009,1.2909,84,12
6.5099,-2.66725,-0.615494,38,5
9.92201,-4.06729,2.0844,10,13
6.81684,-2.79579,-0.386135,35,6
8.02455,-3.29274,2.00251,28,14
12.8844,-5.28952,-0.243112,100,7
12.139,-4.98599,3.51632,4,15
0.535826,-0.220851,-0.155291,12,0
0.491793,-0.202903,-0.122823,15,1
11.9982,-4.95265,0.680263,41,9
0.615193,-0.253941,-0.129368,27,2
10.1634,-4.19735,0.962025,55,10
11.0873,-4.58117,-1.90005,27,3
12.1757,-5.03338,1.61769,25,11
11.1714,-4.62049,-1.48437,28,4
7.43252,-3.07561,1.274,77,12
6.49456,-2.68881,-0.614971,21,5
9.91863,-4.1064,2.08669,12,13
6.84395,-2.83486,-0.388228,35,6
7.64935,-3.17003,1.91163,33,14
12.8935,-5.34595,-0.243636,100,7
16.2078,-6.72344,4.70171,12,15
0.491082,-0.204619,-0.122823,15,1
12.0048,-5.00449,0.681624,55,9
0.617882,-0.257706,-0.130132,27,2
10.1369,-4.22996,0.960979,17,10
5.80773,-2.42467,-0.996801,17,3
9.85539,-4.11452,1.31131,15,11
11.1589,-4.66099,-1.48486,55,4
7.3543,-3.07335,1.26243,109,12
6.52006,-2.72606,-0.618283,47,5
16.4944,-6.89975,3.4754,20,13
6.7506,-2.82522,-0.383518,35,6
7.65925,-3.20708,1.91703,60,14
12.3473,-5.17003,-0.233653,100,7
16.2609,-6.81207,4.72397,16,15
6.7663,-2.84707,0.128136,77,8
0.511882,-0.215491,-0.128222,14,1
11.7692,-4.95698,0.669272,49,9
0.595266,-0.250716,-0.125552,29,2
10.1037,-4.25759,0.959236,34,10
5.81926,-2.45336,-1.00024,10,3
12.0589,-5.08643,1.60697,39,11
12.8938,-5.44125,-1.71836,18,4
7.30295,-3.08338,1.25554,49,12
9.6026,-4.0563,-0.911998,39,5
9.67921,-4.08866,2.04242,15,13
6.64871,-2.80989,-0.378284,28,6
7.74314,-3.27402,1.94088,45,14
12.1422,-5.13657,-0.230127,45,7
11.6618,-4.93573,3.39312,8,15
6.73975,-2.86363,0.127821,100,8
0.489605,-0.208128,-0.122823,15,1
11.7058,-4.97849,0.666655,44,9
0.623248,-0.265195,-0.131658,26,2
10.099,-4.29927,0.960282,53,10
9.16696,-3.90437,-1.57811,13,3
12.0063,-5.11371,1.60234,39,11
11.1216,-4.73916,-1.48437,12,4
7.34302,-3.13055,1.2643,77,12
9.56273,-4.07885,-0.909557,15,5
9.6479,-4.11717,2.03899,9,13
6.64204,-2.83581,-0.378494,17,6
7.93539,-3.38964,1.99217,51,14
11.9973,-5.12472,-0.227719,37,7
8.82175,-3.77008,2.57059,3,15
6.82109,-2.92775,0.129567,92,8
0.46377,-0.199156,-0.116525,16,1
11.1976,-4.81085,0.638708,84,9
0.611495,-0.262719,-0.129368,27,2
10.5672,-4.54221,1.0063,21,10
10.801,-4.64495,-1.8622,10,3
11.7979,-5.07609,1.57699,39,11
7.87135,-3.38831,-1.05222,5,4
7.5601,-3.25589,1.30373,56,12
6.50347,-2.80084,-0.619503,6,5
6.54407,-2.82103,-0.373469,24,6
7.88056,-3.3988,1.98137,52,14
7.27998,-3.14128,-0.138398,86,7
6.91174,-2.99528,0.131486,85,8
0.502407,-0.217827,-0.126422,15,1
11.1056,-4.81732,0.634417,60,9
0.624983,-0.271102,-0.132421,26,2
10.332,-4.48389,0.985383,74,10
10.7884,-4.6842,-1.86282,25,3
11.751,-5.10459,1.57309,43,11
7.85219,-3.4126,-1.05125,2,4
7.34217,-3.19247,1.26806,130,12
9.52854,-4.14313,-0.909034,37,5
8.78122,-3.82183,-0.501902,94,6
7.7543,-3.37649,1.95258,71,14
7.05264,-3.07243,-0.134279,60,7
9.657,-4.20901,2.82268,8,15
6.8188,-2.98332,0.129916,42,8
0.465939,-0.203951,-0.117424,16,1
6.13802,-2.68802,0.351174,18,9
0.60605,-0.265407,-0.128605,28,2
10.2232,-4.47915,0.976493,53,10
10.7701,-4.72103,-1.86251,42,3
11.744,-5.15036,1.57455,43,11
11.5413,-5.06387,-1.5475,16,4
7.66741,-3.36576,1.32625,70,12
6.55623,-2.87935,-0.626475,10,5
15.9082,-6.98654,3.37732,13,13
8.79891,-3.86612,-0.503681,21,6
7.10045,-3.12279,-0.135396,83,7
9.63871,-4.24113,2.82165,14,15
6.86688,-3.03295,0.131033,60,8
0.486614,-0.215028,-0.122823,15,1
6.11764,-2.70458,0.350546,43,9
0.601482,-0.266038,-0.127842,28,2
10.1247,-4.48031,0.968649,34,10
11.2594,-4.98479,1.51191,38,11
5.68464,-2.5179,-0.76339,2,4
6.83208,-3.02756,1.18358,52,12
6.55525,-2.90626,-0.627347,10,5
15.9525,-7.07585,3.3922,22,13
6.94632,-3.08254,-0.398277,58,6
10.5922,-4.70265,2.67557,36,14
7.0493,-3.12971,-0.134628,67,7
9.62032,-4.27318,2.82061,4,15
6.73336,-3.00352,0.128694,70,8
0.485823,-0.21681,-0.122823,15,1
6.10817,-2.72592,0.350546,66,9
0.618476,-0.27614,-0.131658,26,2
10.1763,-4.54569,0.975098,17,10
11.232,-5.02198,1.51069,17,11
6.82147,-3.05139,1.18358,22,12
10.9715,-4.91008,-1.05162,47,5
15.8345,-7.08977,3.37236,15,13
7.05035,-3.15821,-0.404871,68,6
8.31721,-3.72744,2.10419,35,14
7.06205,-3.16493,-0.135082,90,7
9.59829,-4.30358,2.81854,11,15
6.67413,-3.00367,0.127752,60,8
0.485101,-0.21842,-0.122823,15,1
6.10954,-2.75215,0.351174,66,9
0.621088,-0.27991,-0.132421,26,2
5.6923,-2.56658,-0.988979,56,3
10.553,-4.76044,1.42148,3,11
5.70311,-2.57385,-0.768264,52,4
7.96661,-3.59706,1.38445,7,12
8.33782,-3.76642,-0.800438,12,5
7.07977,-3.19813,1.51006,10,13
6.90152,-3.11906,-0.396916,14,6
8.29592,-3.75098,2.10194,27,14
7.03821,-3.18379,-0.134837,60,7
9.61841,-4.35299,2.82889,10,15
6.64358,-3.01786,0.127368,66,8
0.484336,-0.220112,-0.122823,15,1
6.12717,-2.78586,0.352744,39,9
0.595089,-0.270696,-0.127079,28,2
9.9674,-4.53401,0.958016,40,10
10.6906,-4.86522,-1.86032,18,3
11.6782,-5.31712,1.57553,14,11
5.67241,-2.58387,-0.76534,52,4
9.41,-4.28838,1.63787,14,12
6.32867,-2.88548,-0.608521,8,5
7.06978,-3.22487,1.51044,22,13
6.93365,-3.16423,-0.399428,43,6
8.21186,-3.74756,2.08395,56,14
12.6934,-5.79544,-0.243566,35,7
9.60667,-4.38814,2.82993,7,15
6.83605,-3.13556,0.131277,72,8
0.483526,-0.221886,-0.122823,15,1
6.34017,-2.91079,0.365619,24,9
0.604797,-0.277792,-0.129368,27,2
10.3617,-4.75928,0.997585,74,10
10.7409,-4.93571,-1.87221,11,3
11.8498,-5.44778,1.60136,7,11
11.8078,-5.43349,2.05868,24,12
6.99457,-3.22306,-0.403615,68,6
8.16798,-3.76376,2.0763,64,14
12.5759,-5.79755,-0.241716,44,7
6.87844,-3.17246,2.02966,33,15
6.7483,-3.1253,0.129811,15,8
0.461491,-0.213826,-0.117424,16,1
6.08665,-2.82146,0.351593,57,9
0.600261,-0.27825,-0.128605,28,2
9.97185,-4.62455,0.961676,70,10
5.72691,-2.65713,-0.999929,13,3
7.74604,-3.59559,1.04856,26,11
7.98126,-3.70647,-1.08049,11,4
6.61865,-3.07508,-0.638503,55,5
9.02791,-4.19828,-0.52179,21,6
9.23546,-4.29676,2.35164,58,14
10.6709,-4.96686,-0.20545,19,7
9.53221,-4.43887,2.8175,10,15
6.933,-3.24028,0.133581,11,8
0.481926,-0.22534,-0.122823,15,1
6.09124,-2.84946,0.35243,66,9
0.599286,-0.280344,-0.128605,28,2
10.0946,-4.72436,0.975098,23,10
9.66768,-4.52661,-1.69074,32,3
11.6397,-5.45244,1.57821,14,11
8.00423,-3.75116,-1.08537,13,4
10.0967,-4.73394,-0.975621,23,5
7.5114,-3.52339,1.61272,59,13
6.18719,-2.90356,-0.358187,6,6
9.32978,-4.38032,2.37953,17,14
11.0173,-5.17496,-0.212466,100,7
9.3593,-4.39817,2.77092,16,15
11.1195,-5.24429,0.214595,13,8
0.481136,-0.227021,-0.122823,15,1
6.12641,-2.89202,0.355047,53,9
0.587652,-0.277405,-0.126316,28,2
10.2546,-4.84295,0.992181,48,10
9.67682,-4.57215,-1.69512,52,3
11.4537,-5.41414,1.55554,21,11
12.4559,-5.89054,-1.69179,21,4
7.44777,-3.52373,1.30498,48,12
10.0999,-4.77853,-0.977539,10,5
6.12287,-2.8995,-0.355047,27,6
6.78021,-3.21223,1.73212,24,14
15.1336,-7.17301,-0.292328,31,7
9.35786,-4.43743,2.77506,34,15
11.316,-5.38533,0.218748,6,8
0.480341,-0.228699,-0.122823,15,1
6.1325,-2.92111,0.355989,57,9
0.604404,-0.287898,-0.130132,27,2
10.592,-5.04757,1.02652,27,10
9.63049,-4.59145,-1.68981,43,3
6.87839,-3.28083,0.935713,24,11
12.3797,-5.90748,-1.68423,14,4
6.5138,-3.10971,1.14322,72,12
10.04,-4.79316,-0.973355,23,5
6.09649,-2.9131,-0.354105,54,6
9.55566,-4.56806,2.44522,47,14
10.7049,-5.11974,-0.207125,57,7
6.83988,-3.27272,2.03173,77,15
6.6337,-3.18546,0.12845,35,8
0.479539,-0.230375,-0.122823,15,1
6.17499,-2.96651,0.359025,15,9
0.596318,-0.286604,-0.128605,28,2
9.79858,-4.71152,0.951218,53,10
9.63043,-4.63274,-1.69262,37,3
6.86332,-3.30309,0.935225,27,11
13.1728,-6.34248,-1.79514,22,4
6.55507,-3.15615,1.1523,18,12
10.0107,-4.82212,-0.972135,34,5
6.99303,-3.37003,1.50892,28,13
6.04311,-2.91355,-0.351593,70,6
9.33079,-4.50064,2.39168,15,14
10.7473,-5.18388,-0.208277,25,7
9.36049,-4.51698,2.78489,20,15
6.6303,-3.21092,0.128589,71,8
0.478773,-0.231963,-0.122823,15,1
11.2383,-5.44731,0.654514,62,9
0.584715,-0.283544,-0.126316,28,2
9.79283,-4.75092,0.952264,51,10
6.85948,-3.3293,0.9362,76,11
10.6071,-5.15053,-1.44781,11,4
6.45872,-3.13758,1.13728,74,12
10.1371,-4.92671,-0.98608,21,5
6.94474,-3.37518,1.5009,35,13
6.01904,-2.92659,-0.350756,60,6
10.8298,-5.27037,-0.210232,20,7
6.85044,-3.33527,2.04156,32,15
6.05489,-2.9584,0.117629,33,8
0.453449,-0.221652,-0.116525,16,1
15.1305,-7.39928,0.882698,21,9
0.594302,-0.29076,-0.128605,28,2
9.83429,-4.81139,0.957842,31,10
9.56851,-4.68342,-1.6873,57,3
10.7673,-5.27485,-1.47218,46,4
6.44241,-3.1575,1.13634,72,12
10.2576,-5.0296,-0.999502,23,5
6.9006,-3.38505,1.49403,13,13
6.05489,-2.9715,-0.353477,37,6
7.68697,-3.77246,1.97687,15,14
11.0286,-5.41478,-0.214455,76,7
9.35821,-4.5967,2.79369,12,15
6.33096,-3.12208,0.123214,26,8
0.477101,-0.235384,-0.122823,15,1
15.1947,-7.49977,0.888037,8,9
0.607315,-0.29989,-0.131658,26,2
9.92556,-4.90121,0.968475,23,10
8.08839,-3.99578,-1.42887,35,3
6.87819,-3.39941,0.94205,27,11
10.5433,-5.2131,-1.44415,8,4
6.51755,-3.22401,1.15167,20,12
10.2695,-5.08219,-1.00247,23,5
9.19826,-4.55406,1.9951,27,13
8.97735,-4.44663,-0.525034,49,6
7.64689,-3.78764,1.97012,7,14
21.0139,-10.4131,-0.409364,8,7
5.95606,-2.96439,0.116128,64,8
0.465768,-0.231919,-0.120124,15,1
5.93883,-2.9584,0.34772,16,9
0.60275,-0.300258,-0.130895,27,2
10.0609,-5.01398,0.983465,68,10
9.44907,-4.71113,-1.67228,28,3
11.5002,-5.73631,1.57796,32,11
14.1653,-7.06875,-1.94382,17,4
11.0337,-5.50841,1.95324,11,12
10.7062,-5.34494,-1.04691,23,5
9.21217,-4.60105,2.00159,8,13
8.85993,-4.42706,-0.519068,87,6
8.45069,-4.22625,-0.164925,43,7
7.0852,-3.54491,2.12283,10,15
5.97248,-2.99862,0.116652,68,8
0.45799,-0.230045,-0.118324,16,1
0.580648,-0.291782,-0.126316,28,2
9.74783,-4.90052,0.95453,40,10
9.40256,-4.729,-1.66697,70,3
9.34335,-4.70126,1.28426,21,11
8.04993,-4.05222,-1.10657,20,4
10.9082,-5.4934,-1.06853,7,5
8.87296,-4.47234,-0.520743,94,6
7.56739,-3.81594,1.95662,13,14
8.45016,-4.26293,-0.165204,34,7
7.04174,-3.55395,2.11352,7,15
6.34374,-3.2128,0.124122,13,8
0.495428,-0.251019,-0.128222,14,1
5.86102,-2.97089,0.344371,58,9
0.569119,-0.288481,-0.124026,29,2
9.74665,-4.94262,0.956098,65,10
9.45294,-4.79575,-1.67885,28,3
6.78673,-3.44459,0.934494,51,11
14.0696,-7.1441,-1.93748,21,4
9.48389,-4.8177,1.6848,14,12
9.68281,-4.91875,-0.950172,16,5
6.99732,-3.55609,1.52571,9,13
8.88578,-4.51777,-0.522418,80,6
7.56098,-3.84586,1.95842,33,14
8.9592,-4.55904,-0.175467,71,7
0.473725,-0.242105,-0.122823,15,1
9.58683,-4.90161,0.564286,39,9
0.592581,-0.302978,-0.129368,13,2
9.44908,-4.83326,0.928557,61,10
7.42793,-3.80106,-1.32156,60,3
6.70575,-3.43298,0.924988,29,11
15.0623,-7.7144,-2.07787,31,4
13.2563,-6.79233,-1.30315,10,5
9.29976,-4.76712,2.03135,43,13
8.92328,-4.5761,-0.525558,56,6
15.3638,-7.88575,-0.301438,7,7
7.02019,-3.60479,2.11455,45,15
6.82778,-3.51804,0.134069,67,8
0.472877,-0.243757,-0.122823,15,1
9.55546,-4.92772,0.563449,25,9
0.59501,-0.306844,-0.130132,27,2
9.65171,-4.97949,0.950172,55,10
7.40057,-3.81972,-1.31906,62,3
6.70255,-3.46092,0.926207,40,11
15.8554,-8.19059,-2.19121,11,4
6.63695,-3.42999,1.18327,15,12
7.68816,-3.97495,-0.757209,12,5
9.29527,-4.80587,2.03402,40,13
8.91612,-4.61181,-0.526081,63,6
6.63632,-3.43554,-0.130439,35,7
6.95953,-3.6044,2.10006,62,15
6.85627,-3.56306,0.134872,41,8
0.489314,-0.254395,-0.127322,15,1
9.63034,-5.00897,0.568892,8,9
0.579948,-0.301773,-0.127079,28,2
9.30468,-4.84371,0.91775,46,10
7.39178,-3.84956,-1.31999,46,3
6.62352,-3.44946,0.916945,40,11
13.3022,-6.93058,-1.84169,8,4
13.2656,-6.91742,-1.3089,23,5
9.35766,-4.88167,2.05158,29,13
8.85312,-4.62043,-0.52336,56,6
7.34513,-3.83505,1.91298,15,14
8.92161,-4.65816,-0.175676,100,7
6.90924,-3.60899,2.08867,18,15
6.25696,-3.2808,0.123319,60,8
0.484927,-0.254376,-0.126422,15,1
9.77816,-5.13147,0.578731,9,9
0.582368,-0.30562,-0.127842,28,2
9.24891,-4.85579,0.913915,38,10
7.51296,-3.94606,-1.34408,42,3
6.64598,-3.49218,0.92182,11,11
15.4502,-8.12187,-2.14319,9,4
13.2596,-6.9762,-1.31082,36,5
7.34249,-3.86307,1.61272,61,13
8.8281,-4.64666,-0.522836,49,6
6.52134,-3.4354,-0.128659,28,7
6.93869,-3.65681,2.10161,10,15
9.30368,-4.91981,0.183704,10,8
0.490926,-0.259713,-0.128222,14,1
10.1733,-5.38419,0.603224,34,9
0.588184,-0.311428,-0.129368,13,2
9.19936,-4.87287,0.910778,32,10
7.61713,-4.03647,-1.36536,48,3
11.8222,-6.2648,1.6428,48,11
10.5969,-5.61787,-1.47267,16,4
6.15854,-3.26629,1.10411,24,12
9.69051,-5.14169,-0.959759,16,5
7.40111,-3.92862,1.62875,37,13
8.82336,-4.68554,-0.523569,56,6
16.5752,-8.80579,-0.327617,22,7
9.69112,-5.15069,2.9407,20,15
6.14921,-3.27923,0.121643,41,8
0.490017,-0.261425,-0.128222,14,1
9.27341,-4.94946,0.550888,10,9
0.568096,-0.303208,-0.125171,29,2
9.20072,-4.91273,0.912521,70,10
7.41379,-3.96026,-1.33126,52,3
15.3214,-8.19116,-2.1332,9,4
6.15407,-3.29149,1.10537,21,12
13.0243,-6.96896,-1.29235,28,5
7.35342,-3.93461,1.62111,35,13
8.82186,-4.72231,-0.524406,38,6
8.70295,-4.66062,2.2792,39,14
13.9339,-7.46503,-0.275923,40,7
9.66627,-5.18083,2.93863,47,15
6.15357,-3.3092,0.121957,79,8
0.468507,-0.252054,-0.122823,15,1
0.570438,-0.307149,-0.125934,29,2
9.40367,-5.06547,0.934484,27,10
7.63398,-4.11391,-1.37349,10,3
11.738,-6.32553,1.63719,18,11
15.1913,-8.18996,-2.11906,26,4
6.80148,-3.66835,1.22394,34,12
10.1699,-5.48737,-1.01101,18,5
7.32513,-3.95408,1.61806,57,13
6.65873,-3.59585,-0.396602,39,6
8.68238,-4.69063,2.2783,40,14
6.55714,-3.54247,-0.13009,100,7
6.92551,-3.74305,2.10938,83,15
6.19062,-3.35843,0.122935,71,8
0.484708,-0.263065,-0.127322,15,1
9.16403,-4.97566,0.546492,23,9
0.572813,-0.311012,-0.126697,28,2
9.29314,-5.04786,0.925245,34,10
7.63867,-4.15091,-1.37694,12,3
16.1533,-8.78146,2.25751,29,11
10.0639,-5.47334,-1.40662,11,4
6.74288,-3.66871,1.21581,46,12
13.1311,-7.14446,-1.30786,28,5
7.31818,-3.98338,1.61959,24,13
6.86714,-3.73943,-0.409791,39,6
15.6412,-8.52075,4.11211,20,14
6.53884,-3.56361,-0.129986,85,7
6.1771,-3.37906,0.1229,27,8
0.466692,-0.2554,-0.122823,15,1
9.87189,-5.4047,0.589826,47,9
0.557948,-0.305467,-0.123644,29,2
9.27197,-5.07836,0.924897,44,10
7.4405,-4.07693,-1.34377,18,3
12.7142,-6.96947,1.78027,11,11
7.5975,-4.16641,-1.06392,2,4
6.62092,-3.63236,1.1961,80,12
6.70065,-3.6761,-0.668659,5,5
7.29219,-4.00229,1.61692,37,13
6.83654,-3.75376,-0.408744,47,6
10.0141,-5.50076,2.63778,34,14
6.71038,-3.68754,-0.133651,82,7
7.01366,-3.85579,2.14457,7,15
6.18453,-3.41123,0.123284,38,8
0.48286,-0.266443,-0.127322,15,1
0.553441,-0.305516,-0.122881,30,2
9.22802,-5.09624,0.922282,24,10
7.67348,-4.23948,-1.38851,27,3
12.7211,-7.0311,1.78465,15,11
10.0376,-5.55019,-1.40832,5,4
6.58055,-3.64015,1.19109,117,12
6.67558,-3.69272,-0.667439,15,5
7.68185,-4.25111,1.7066,59,13
6.84087,-3.78728,-0.409791,43,6
10.0341,-5.5574,2.64812,16,14
6.72895,-3.72838,-0.134279,37,7
13.9057,-7.70806,4.26016,11,15
6.21628,-3.45709,0.124156,42,8
0.464897,-0.258652,-0.122823,15,1
5.82182,-3.24038,0.349186,18,9
0.559233,-0.311265,-0.124407,29,2
12.803,-7.12901,1.28206,13,10
7.08397,-3.94613,-1.28433,31,3
12.8265,-7.14793,1.80294,12,11
6.7984,-3.79016,-0.9557,28,4
6.54365,-3.64963,1.18671,27,12
6.70789,-3.74123,-0.671971,13,5
7.24006,-4.0397,1.61157,31,13
6.83807,-3.81697,-0.410419,29,6
6.82614,-3.81187,1.80501,4,14
9.29786,-5.19427,-0.185903,18,7
13.8231,-7.72545,4.24308,7,15
6.01056,-3.37021,0.120282,34,8
0.463992,-0.260273,-0.122823,15,1
5.74951,-3.22648,0.345522,54,9
0.558143,-0.313215,-0.124407,29,2
9.21654,-5.1742,0.924722,22,10
7.14249,-4.01146,-1.29747,47,3
6.656,-3.73976,0.937419,20,11
10.3603,-5.82342,-1.45926,25,4
6.56703,-3.69278,1.19328,42,12
6.67047,-3.75095,-0.66953,31,5
7.23448,-4.06977,1.61348,69,13
6.80904,-3.832,-0.409477,72,6
6.79071,-3.82325,1.79916,17,14
10.6317,-5.98822,-0.212989,38,7
13.9105,-7.83814,4.27828,3,15
6.0005,-3.39216,0.120317,37,8
0.46308,-0.261892,-0.122823,15,1
5.72257,-3.23767,0.34458,45,9
0.580968,-0.328696,-0.12975,27,2
7.09751,-4.01885,-1.29184,26,3
6.67054,-3.77862,0.941319,24,11
8.67499,-4.91607,-1.2243,6,4
6.39944,-3.628,1.16512,46,12
8.60202,-4.87671,-0.865108,15,5
7.01871,-3.98071,1.56845,17,13
6.7991,-3.85772,-0.409686,47,6
9.78304,-5.55528,-0.196374,100,7
7.08512,-4.02491,2.1834,11,15
8.71626,-4.96763,0.175117,25,8
0.462163,-0.263506,-0.122823,15,1
8.70911,-4.96759,0.525453,28,9
0.576349,-0.328877,-0.128987,27,2
9.10579,-5.19595,0.917227,26,10
7.11603,-4.0622,-1.29778,23,3
6.62111,-3.78121,0.9362,54,11
8.68018,-4.95912,-1.22747,1,4
6.36272,-3.6366,1.16074,56,12
8.5028,-4.86172,-0.856915,26,5
6.73823,-3.85434,1.50892,10,13
6.83345,-3.91039,-0.412617,21,6
6.60148,-3.77765,1.75597,36,14
9.62128,-5.50793,-0.193512,27,7
5.97261,-3.43302,0.120247,37,8
0.440922,-0.253541,-0.117424,16,1
8.81376,-5.07018,0.532885,21,9
0.568333,-0.32707,-0.12746,28,2
9.07287,-5.22134,0.915833,10,10
7.09596,-4.0853,-1.29684,10,3
6.62785,-3.81734,0.939125,11,11
10.3957,-5.98988,-1.47316,13,4
6.30828,-3.63622,1.15323,104,12
8.42797,-4.86001,-0.851163,15,5
6.72406,-3.87901,1.50892,10,13
6.10319,-3.52226,1.62685,72,14
9.48673,-5.47717,-0.191209,83,7
7.04276,-4.06778,2.17926,38,15
5.88905,-3.41377,0.118816,71,8
0.487192,-0.282529,-0.130022,14,1
8.72429,-5.06136,0.528593,44,9
0.54681,-0.31723,-0.122881,30,2
9.0485,-5.25156,0.91531,54,10
7.08606,-4.11426,-1.29778,30,3
12.7985,-7.43396,1.81732,32,11
10.3514,-6.01498,-1.46999,37,4
6.5118,-3.78539,1.19297,54,12
8.4299,-4.90041,-0.85308,8,5
6.84285,-3.97944,1.53868,33,13
6.16266,-3.58675,1.64619,28,14
9.85887,-5.7403,-0.199132,100,7
7.01946,-4.0887,2.17667,12,15
5.86156,-3.42522,0.118502,61,8
0.459285,-0.268492,-0.122823,15,1
9.53585,-5.57676,0.57894,27,9
0.562647,-0.329048,-0.126697,28,2
9.05247,-5.2962,0.917576,24,10
6.90799,-4.04318,-1.26775,11,3
12.7536,-7.46755,1.81463,16,11
10.6592,-6.24371,-1.51679,18,4
6.46616,-3.78913,1.18702,72,12
6.73673,-3.94767,-0.683127,13,5
6.91699,-4.05493,1.55853,52,13
6.73975,-3.95261,-0.409477,47,6
6.65099,-3.90211,1.78026,36,14
8.55396,-5.02058,-0.173128,8,7
5.85646,-3.44972,0.118641,24,8
0.458345,-0.270094,-0.122823,15,1
8.66382,-5.10542,0.527023,73,9
0.564877,-0.333004,-0.12746,28,2
9.08369,-5.35711,0.922631,50,10
6.8411,-4.03615,-1.25805,57,3
13.7122,-8.09321,1.95503,46,11
9.2425,-5.45729,-1.3179,13,4
6.61686,-3.90697,1.21706,37,12
8.41435,-4.97029,-0.854998,10,5
6.82166,-4.03111,1.54021,39,13
6.7603,-3.99644,-0.41157,21,6
6.62223,-3.91637,1.77621,59,14
8.46669,-5.00719,-0.171697,35,7
7.04633,-4.16885,2.19375,78,15
5.89142,-3.49668,0.119584,30,8
0.437339,-0.259673,-0.117424,16,1
8.65625,-5.14175,0.527651,58,9
0.55696,-0.330962,-0.125934,14,2
9.09748,-5.40813,0.925943,10,10
6.81409,-4.05074,-1.25554,55,3
13.6887,-8.14067,1.95552,46,11
9.22264,-5.4869,-1.31765,27,4
6.47587,-3.85427,1.1936,68,12
6.72098,-4.00174,-0.684347,13,5
6.49956,-3.8699,1.47037,7,13
12.3512,-7.35696,-0.753429,26,6
6.5707,-3.91537,1.76587,44,14
8.42683,-5.0234,-0.171243,100,7
6.90881,-4.1332,0.140527,21,8
0.456496,-0.273207,-0.122823,15,1
8.76334,-5.24683,0.535292,35,9
0.565907,-0.338957,-0.128224,28,2
13.7133,-8.21371,1.3985,46,10
6.83041,-4.09277,-1.26117,51,3
13.5853,-8.14349,1.94479,57,11
9.2511,-5.54764,-1.32448,15,4
6.20659,-3.7234,1.14635,79,12
6.68135,-4.0098,-0.681732,36,5
6.56273,-3.94173,-0.401207,39,6
6.57036,-3.94631,1.76946,79,14
8.7452,-5.25465,-0.178084,35,7
13.3238,-8.00891,4.16543,10,15
0.482187,-0.290988,-0.130022,14,1
9.26213,-5.59169,0.567008,137,9
0.544495,-0.328849,-0.123644,14,2
11.101,-6.70446,1.13459,26,10
6.83227,-4.128,-1.2643,52,3
13.5978,-8.2189,1.95088,29,11
9.15936,-5.53837,-1.31424,48,4
6.14389,-3.71647,1.13728,28,12
6.65297,-4.02601,-0.680338,28,5
6.12505,-3.708,1.39176,18,13
6.55678,-3.97093,-0.401731,54,6
8.74812,-5.30014,-0.178538,97,7
7.05772,-4.27767,2.21135,9,15
9.14718,-5.56376,0.18688,28,8
0.447822,-0.272494,-0.121024,15,1
8.61205,-5.24239,0.528384,53,9
0.54502,-0.331769,-0.124026,14,2
11.1529,-6.79173,1.14244,100,10
9.93464,-6.05224,-1.84249,27,3
6.52613,-3.97732,0.938394,31,11
6.95595,-4.24093,-1.0003,45,4
6.11842,-3.73177,1.13509,48,12
7.21721,-4.40194,-0.739604,17,5
6.09698,-3.72015,1.38833,40,13
6.58038,-4.01668,-0.404034,61,6
6.57119,-4.01265,1.77756,5,14
6.69451,-4.08956,-0.136932,31,7
7.09474,-4.33575,2.22791,19,15
0.411794,-0.252347,-0.12941,15,0
9.47208,-5.80677,0.193931,10,8
0.453513,-0.278131,-0.122823,15,1
9.03121,-5.54084,0.555285,54,9
0.557246,-0.341882,-0.127079,28,2
11.1665,-6.85355,1.14627,50,10
10.3579,-6.35975,-1.92508,37,3
6.51052,-3.99903,0.93815,27,11
6.59607,-4.05317,-0.950581,22,4
6.10367,-3.75207,1.13478,45,12
6.65695,-4.09218,-0.68365,16,5
6.09065,-3.74553,1.38985,23,13
6.55271,-4.03126,-0.403196,29,6
6.56046,-4.0376,1.77846,11,14
6.70915,-4.13072,-0.137525,62,7
7.08121,-4.3615,2.22843,7,15
9.29865,-5.7452,0.19079,35,8
0.452539,-0.279712,-0.122823,15,1
9.04749,-5.59439,0.557483,35,9
0.54937,-0.339695,-0.125552,14,2
11.1493,-6.89668,1.14697,20,10
9.26055,-5.7306,-1.72485,25,3
6.46037,-4.00092,-0.933032,31,4
6.03176,-3.73694,1.12383,107,12
6.63683,-4.1134,-0.683127,40,5
6.06919,-3.76159,1.38794,15,13
8.06292,-4.99922,-0.497192,24,6
6.53142,-4.05123,1.77441,26,14
6.67939,-4.14463,-0.137211,85,7
15.7765,-9.79328,4.97554,17,15
9.3719,-5.83576,0.192709,10,8
0.478025,-0.297776,-0.130022,14,1
9.5788,-5.96924,0.591501,17,9
0.541457,-0.337552,-0.124026,29,2
11.5939,-7.2306,1.19543,15,10
9.16407,-5.71745,-1.71077,57,3
6.51444,-4.06435,0.942781,9,11
6.51036,-4.06339,-0.942294,20,4
6.01701,-3.75692,1.12351,45,12
6.62074,-4.13549,-0.682952,17,5
6.07368,-3.79526,1.39214,6,13
6.59822,-4.12462,-0.407802,43,6
6.58097,-4.11544,1.79196,48,14
6.67336,-4.17322,-0.137385,31,7
14.6105,-9.14031,4.61785,13,15
10.8595,-6.81741,0.22381,6,8
0.430723,-0.270506,-0.117424,16,1
8.1693,-5.13055,0.505565,52,9
0.5569,-0.349885,-0.127842,14,2
11.4707,-7.20953,1.18532,20,10
6.65235,-4.18272,-1.24459,33,3
7.06745,-4.44544,1.02517,16,11
9.37014,-5.89613,-1.35933,41,4
6.61076,-4.1598,1.23708,30,12
6.68214,-4.20634,-0.690796,22,5
14.935,-9.40508,3.43075,10,13
6.5237,-4.11137,1.78026,57,14
7.71441,-4.86178,-0.159166,75,7
7.74438,-4.88256,2.45309,13,15
10.8199,-6.84269,0.223461,11,8
0.449585,-0.284436,-0.122823,15,1
8.15303,-5.16011,0.50567,85,9
0.552357,-0.349726,-0.127079,28,2
6.0779,-3.84971,0.629439,35,10
6.65847,-4.21745,-1.24835,50,3
12.556,-7.95597,1.82512,24,11
9.4394,-5.9835,-1.37225,13,4
6.56951,-4.16592,1.23208,42,12
6.6977,-4.24885,-0.693934,5,5
7.76852,-4.92815,1.78826,8,13
6.67117,-4.23365,-0.414082,14,6
6.53142,-4.14656,1.78611,53,14
7.7109,-4.89726,-0.159445,93,7
7.72077,-4.90542,2.45102,9,15
10.8094,-6.88902,0.22374,27,8
0.428871,-0.273432,-0.117424,16,1
8.14261,-5.19141,0.506089,17,9
0.551195,-0.351556,-0.127079,28,2
6.04326,-3.85592,0.627173,16,10
9.0431,-5.77219,-1.69919,26,3
6.4481,-4.11739,0.939369,24,11
12.1018,-7.7305,-1.76321,7,4
6.56565,-4.19406,1.23396,57,12
7.7645,-4.9637,1.79131,19,13
7.90652,-5.05643,-0.491853,31,6
6.53168,-4.17879,1.79016,26,14
13.8951,-8.88971,-0.28793,39,7
6.10174,-3.90522,1.94114,18,15
11.1988,-7.1895,0.232292,36,8
0.447639,-0.287489,-0.122823,15,1
8.14964,-5.23599,0.507659,8,9
0.533449,-0.342863,-0.123263,30,2
12.0897,-7.77337,1.25748,22,10
8.6351,-5.55216,-1.62598,13,3
11.2527,-7.23798,1.6428,15,11
9.14972,-5.88756,-1.33593,11,4
9.55737,-6.15222,1.80025,35,12
6.10244,-3.92974,-0.635017,28,5
15.5884,-10.0384,3.604,12,13
7.9703,-5.13454,-0.496878,31,6
6.5227,-4.20359,1.79151,46,14
15.659,-10.0954,-0.325208,100,7
6.04423,-3.89823,1.92717,44,15
11.0167,-7.13247,0.22908,18,8
0.462888,-0.2998,-0.127322,15,1
7.9451,-5.14779,0.496145,20,9
0.548665,-0.355491,-0.127079,28,2
11.1098,-7.20102,1.1583,37,10
13.1501,-8.52675,-2.4823,5,3
6.45344,-4.18611,0.944488,18,11
7.91477,-5.13599,-1.15849,30,4
9.56847,-6.21146,1.80682,16,12
6.08298,-3.94882,-0.634494,10,5
15.8659,-10.3034,3.67727,25,13
7.9723,-5.17925,-0.498238,45,6
6.41174,-4.16702,1.76542,70,14
10.3424,-6.72415,-0.215328,100,7
6.0357,-3.92562,1.92924,42,15
15.6711,-10.2237,0.326604,12,8
0.537557,-0.350964,-0.124789,14,2
11.1313,-7.27026,1.16318,12,10
6.72221,-4.39219,-1.27181,57,3
6.44211,-4.21078,0.944975,51,11
7.8752,-5.14946,-1.15532,30,4
6.85368,-4.48492,1.59211,5,13
8.97685,-5.87652,-0.562298,16,6
6.40041,-4.19151,1.76632,34,14
10.3005,-6.74816,-0.214944,57,7
6.00419,-3.93502,1.92354,40,15
13.1773,-8.66247,0.275259,34,8
0.444502,-0.292316,-0.122823,15,1
7.47514,-4.91772,0.46893,62,9
0.539609,-0.354997,-0.125552,14,2
11.0143,-7.24883,1.15359,37,10
6.65569,-4.38195,-1.26211,50,3
6.39588,-4.2125,0.940344,36,11
7.74445,-5.10265,-1.13875,45,4
6.18431,-4.0778,-0.64809,36,5
15.2986,-10.0876,3.56202,16,13
8.65452,-5.70877,-0.543352,56,6
6.39713,-4.22133,1.76946,36,14
13.5946,-8.97419,-0.284335,100,7
6.0549,-3.99854,1.94425,39,15
13.1537,-8.71283,0.275399,18,8
0.443479,-0.293866,-0.122823,15,1
7.47624,-4.95592,0.470082,23,9
0.561211,-0.372162,-0.130895,13,2
11.1853,-7.42022,1.17434,27,10
6.64287,-4.4085,-1.26274,48,3
9.34179,-6.19963,1.37664,45,11
7.69021,-5.1055,-1.13338,100,4
10.1776,-6.7594,1.93509,24,12
6.33101,-4.20631,-0.664998,10,5
7.63076,-5.07179,1.78101,12,13
8.78821,-5.84329,-0.553086,80,6
6.38486,-4.24691,1.77036,45,14
8.62641,-5.73789,-0.180842,100,7
6.15831,-4.09777,1.98204,21,15
12.1604,-8.11918,0.255224,4,8
0.442398,-0.29549,-0.122823,15,1
10.6166,-7.09379,0.669168,21,9
0.527261,-0.352304,-0.123263,30,2
11.3001,-7.55333,1.18915,60,10
6.65536,-4.45033,-1.26806,10,3
9.29921,-6.22058,1.37371,48,11
7.6665,-5.13034,-1.13265,100,4
10.0641,-6.73732,1.9182,22,12
6.35859,-4.25831,-0.66953,22,5
7.54939,-5.05579,1.76613,39,13
7.58468,-5.08133,-0.478455,32,6
13.2178,-8.86188,-0.277772,72,7
10.657,-7.16928,0.224194,13,8
0.425197,-0.286152,-0.118324,16,1
0.545507,-0.367395,-0.127842,14,2
7.36452,-4.96182,0.776906,18,10
6.6259,-4.46586,-1.26555,60,3
9.29061,-6.26188,1.37566,35,11
6.21156,-4.19133,-0.655585,33,5
9.11573,-6.15327,2.13782,54,13
6.46089,-4.36449,1.80006,14,14
8.54536,-5.7726,-0.180004,72,7
5.97357,-4.03681,1.93183,105,15
12.0805,-8.1914,0.25477,28,8
0.440273,-0.298648,-0.122823,15,1
0.518228,-0.351659,-0.121736,30,2
11.1831,-7.59147,1.18253,55,10
16.2062,-11.0055,-3.10272,16,3
9.21012,-6.25684,1.36713,9,11
6.76435,-4.59704,-1.0042,57,4
6.2249,-4.23203,-0.658549,41,5
9.12667,-6.20713,2.14546,23,13
7.52665,-5.12087,-0.477095,59,6
6.57288,-4.47364,1.8356,24,14
7.5151,-5.11493,-0.158677,31,7
5.95465,-4.05438,1.93027,47,15
7.47733,-5.10643,0.158049,10,8
0.423189,-0.289113,-0.118324,16,1
11.4404,-7.81876,0.726214,11,9
0.549411,-0.375627,-0.129368,13,2
11.2453,-7.6912,1.19194,50,10
9.63296,-6.58842,-1.84843,25,3
9.11888,-6.23915,1.35665,15,11
6.73268,-4.60824,-1.00177,19,4
8.85367,-6.06223,1.6995,35,12
6.23146,-4.26837,-0.660815,31,5
9.23237,-6.3239,2.17522,39,13
7.52446,-5.15596,-0.478037,100,6
6.53551,-4.47998,1.8293,43,14
7.48236,-5.13095,-0.158363,49,7
0.43823,-0.301638,-0.122823,15,1
0.535162,-0.368632,-0.126316,14,2
7.47547,-5.14929,0.794163,37,10
9.62454,-6.63209,-1.85125,47,3
9.18367,-6.33066,1.36957,42,11
6.65119,-4.58663,-0.992017,42,4
7.46987,-5.15311,1.43732,71,12
8.76807,-6.05094,-0.932043,20,5
7.4594,-5.14974,1.76193,141,13
6.52945,-4.50941,1.832,10,14
7.46769,-5.15932,-0.158433,28,7
6.05652,-4.18591,1.97272,5,15
7.4291,-5.15183,0.157805,133,8
0.437121,-0.303242,-0.122823,15,1
7.40184,-5.13675,0.472175,72,9
0.533807,-0.370591,-0.126316,28,2
9.62937,-6.68761,-1.85688,10,3
7.44863,-5.17501,1.11364,45,11
6.65715,-4.62684,-0.995429,74,4
6.08206,-4.22872,1.17326,35,12
6.1615,-4.28555,-0.656631,15,5
7.43886,-5.17592,1.76155,140,13
8.67,-6.03479,-0.55361,31,6
7.41017,-5.17902,0.157805,37,8
0.416842,-0.291442,-0.117424,16,1
7.41406,-5.1856,0.474164,142,9
0.522858,-0.365701,-0.124026,14,2
7.35754,-5.14798,0.785622,71,10
6.30826,-4.41545,-1.21956,32,3
7.42962,-5.20227,1.11364,95,11
6.6434,-4.65349,-0.995916,16,4
6.08431,-4.26345,1.1767,71,12
6.12856,-4.29445,-0.654714,33,5
6.95132,-4.8728,1.65012,64,13
11.3258,-7.9422,-0.724958,42,6
7.19657,-5.04846,2.02951,28,14
12.72,-8.92649,-0.271245,89,7
6.05097,-4.24796,1.981,120,15
0.43494,-0.306362,-0.122823,15,1
0.527998,-0.372047,-0.125552,29,2
7.33789,-5.17248,0.785448,20,10
6.24115,-4.40101,-1.20955,43,3
7.39032,-5.2133,1.11047,60,11
5.97024,-4.2131,-0.897202,15,4
6.31048,-4.45485,-0.675806,47,5
6.92786,-4.8925,1.64859,13,13
12.5639,-8.87597,-0.806183,58,6
6.59167,-4.65853,1.86349,13,14
10.4142,-7.36276,-0.222623,9,7
5.95408,-4.21105,1.95408,52,15
12.1543,-8.62169,0.260111,7,8
0.414797,-0.294345,-0.117424,16,1
7.77995,-5.52279,0.500018,30,9
0.526696,-0.373888,-0.125552,14,2
11.0967,-7.88015,1.19072,27,10
6.72335,-4.77627,-1.30623,52,3
7.16658,-5.09302,1.07952,47,11
8.8111,-6.26404,-1.3274,37,4
6.04957,-4.30239,1.17576,27,12
11.8506,-8.43115,2.82703,8,13
8.45012,-6.01407,-0.543561,35,6
6.60712,-4.70412,1.87249,5,14
11.8413,-8.43387,-0.253758,86,7
5.90159,-4.2049,1.94166,77,15
12.0981,-8.64546,0.259552,15,8
0.426449,-0.304858,-0.121024,15,1
7.73788,-5.53365,0.498552,28,9
0.534902,-0.38267,-0.127842,14,2
8.80587,-6.30206,0.947383,48,10
8.758,-6.27011,1.32253,15,11
10.3998,-7.44829,-1.57065,29,4
6.98353,-5.00341,1.36067,23,12
6.10192,-4.37338,-0.656806,13,5
8.38095,-6.01124,-0.540526,63,6
7.84383,-5.62807,2.22882,12,14
11.1847,-8.02517,-0.240285,88,7
7.99016,-5.75421,0.171871,8,8
0.450628,-0.324644,-0.128222,14,1
7.73051,-5.57132,0.49939,26,9
0.511265,-0.368465,-0.122499,30,2
8.34908,-6.01933,0.900493,12,10
6.05135,-4.36437,-1.18171,2,3
11.6987,-8.44045,1.77125,11,11
11.2191,-8.09745,-1.69886,19,4
5.95136,-4.297,1.16262,10,12
8.00302,-5.78046,-0.863713,12,5
7.0966,-5.12576,1.70163,8,13
8.45705,-6.11064,-0.546806,77,6
6.57013,-4.74899,1.87159,9,14
8.01313,-5.79414,-0.172604,43,7
11.832,-8.58385,0.255154,15,8
0.414794,-0.301034,-0.118324,16,1
7.75304,-5.62878,0.502111,20,9
0.535327,-0.388795,-0.128605,14,2
7.71122,-5.60253,0.833906,8,10
7.97677,-5.79759,-1.56184,32,3
8.70167,-6.32445,1.32082,56,11
10.2018,-7.41746,-1.54872,17,4
10.0707,-7.32756,-1.08962,28,5
11.8762,-8.64439,2.85527,11,13
8.46205,-6.16159,-0.548586,84,6
6.55426,-4.77419,1.87204,13,14
7.99932,-5.82679,-0.172744,43,7
18.2096,-13.2689,6.03721,5,15
11.8877,-8.69089,0.257039,22,8
0.429417,-0.314056,-0.122823,15,1
10.5288,-7.70024,0.683612,12,9
0.508615,-0.372114,-0.122499,15,2
7.72056,-5.65059,0.837044,6,10
10.0349,-7.3471,-1.96982,16,3
8.67683,-6.35513,1.32058,37,11
7.91831,-5.8017,-1.20529,30,4
5.95787,-4.36529,1.16982,74,12
10.127,-7.42274,-1.09851,30,5
6.97266,-5.11257,1.68065,26,13
11.188,-8.20635,-0.727156,16,6
7.76462,-5.69742,2.22342,36,14
11.5936,-8.50697,-0.251001,94,7
12.7982,-9.39431,4.25395,1,15
10.928,-8.04503,0.236864,15,8
0.428374,-0.315478,-0.122823,15,1
10.4262,-7.68127,0.678693,12,9
0.526278,-0.387864,-0.127079,14,2
7.74569,-5.71061,0.841924,16,10
6.01485,-4.43453,-1.18358,28,3
7.64603,-5.6392,1.16653,2,11
10.1833,-7.51325,-1.55383,16,4
6.30179,-4.65118,1.24053,30,12
7.86351,-5.80596,-0.855172,24,5
6.73139,-4.97007,1.62646,33,13
13.8645,-10.2405,-0.903319,37,6
6.5937,-4.87196,1.89274,31,14
11.5959,-8.57116,-0.251699,94,7
12.7544,-9.43089,4.25033,33,15
10.9882,-8.14864,0.238784,11,8
0.42727,-0.316972,-0.122823,15,1
7.84924,-5.82511,0.512264,6,9
0.496611,-0.368547,-0.12021,15,2
9.39043,-6.97141,1.02321,31,10
5.9803,-4.44137,-1.17983,31,3
8.78953,-6.53006,1.34446,46,11
10.0949,-7.50257,-1.54433,19,4
6.30137,-4.68493,1.24365,63,12
7.83143,-5.8225,-0.853778,35,5
11.0149,-8.19528,-0.719515,48,6
6.57197,-4.89146,1.89139,10,14
11.4938,-8.55784,-0.250128,100,7
9.09138,-6.77157,3.0375,11,15
10.62,-7.93323,0.231384,13,8
0.416795,-0.311462,-0.120124,15,1
7.84166,-5.86204,0.513102,20,9
0.514191,-0.384384,-0.124789,14,2
9.31179,-6.96357,1.01728,17,10
9.87959,-7.39087,-1.95418,57,3
5.79866,-4.34111,-0.889403,25,4
5.89444,-4.41442,1.16638,68,12
9.96396,-7.46213,-1.0891,47,5
8.91038,-6.67552,2.16416,10,13
7.78335,-5.83329,-0.509752,77,6
12.3457,-9.25594,3.56232,24,14
11.5422,-8.6567,-0.251838,94,7
0.385965,-0.290318,-0.12941,15,0
10.4916,-7.89451,0.229185,32,8
0.403249,-0.303539,-0.116525,16,1
0.503436,-0.379091,-0.122499,15,2
11.4422,-8.61917,1.2533,11,10
6.22523,-4.69105,-1.23458,33,3
8.76275,-6.6056,1.34739,12,11
5.79615,-4.37089,-0.891352,29,4
6.28901,-4.74427,1.24772,54,12
9.85225,-7.43499,-1.07986,26,5
13.5891,-10.2587,-0.892328,30,6
15.3675,-11.6055,4.44593,16,14
7.76557,-5.86667,-0.169882,100,7
8.9961,-6.79877,3.02145,16,15
7.93803,-6.01656,0.173861,15,8
0.408399,-0.309655,-0.118324,16,1
0.520811,-0.395174,-0.127079,14,2
7.39382,-5.61222,0.812117,15,10
6.22216,-4.72459,-1.2374,65,3
9.10484,-6.91346,1.40369,26,11
5.9028,-4.48534,1.1742,39,12
13.9582,-10.6102,-1.53394,13,5
8.75768,-6.65949,2.13859,21,13
11.0891,-8.43542,-0.730191,3,6
12.2791,-9.34405,3.56232,9,14
11.6391,-8.85696,-0.255294,76,7
7.6823,-5.86719,0.16873,57,8
0.407261,-0.311149,-0.118324,16,1
10.1051,-7.72317,0.666551,7,9
0.513189,-0.392221,-0.125552,14,2
7.49923,-5.73359,0.825888,10,10
6.21504,-4.75348,-1.23927,50,3
9.0621,-6.93351,1.40101,16,11
5.86246,-4.48706,-0.906464,31,4
5.94278,-4.55018,1.18546,63,12
13.7721,-10.5486,-1.51773,25,5
8.48656,-6.50021,2.07791,6,13
12.8638,-9.85646,-0.849308,3,6
12.2542,-9.39278,3.56457,15,14
11.6573,-8.93849,-0.256411,93,7
26.5943,-20.4582,0.585668,37,8
0.409261,-0.314946,-0.119224,16,1
10.067,-7.74987,0.665818,28,9
0.527303,-0.406078,-0.129368,13,2
9.40058,-7.24203,1.0382,23,10
7.89679,-6.08574,-1.57905,100,3
7.62273,-5.87453,1.18165,2,11
6.40959,-4.9414,-0.993723,41,4
6.64328,-5.12341,1.32875,86,12
13.7052,-10.5735,-1.51442,12,5
12.673,-9.78071,3.11171,2,13
14.1287,-10.9081,-0.935453,31,6
8.88985,-6.8659,2.59324,54,14
11.6672,-9.01091,-0.257318,59,7
11.6734,-9.01898,3.95268,20,15
23.1353,-17.9262,0.510867,17,8
0.420481,-0.325924,-0.122823,15,1
0.498027,-0.38617,-0.122499,15,2
9.4505,-7.33056,1.04639,45,10
7.90465,-6.13369,-1.58468,27,3
4.61964,-3.58594,0.718054,32,11
6.39073,-4.96252,-0.993479,26,4
7.25248,-5.63371,1.45453,19,12
7.88295,-6.12346,-0.873301,7,5
8.49988,-6.60507,2.09241,4,13
21.0558,-16.3679,-1.39768,27,6
8.82088,-6.85945,2.57974,41,14
11.5725,-9.00247,-0.255922,34,7
11.6098,-9.03475,3.94181,15,15
10.4533,-8.15819,0.231454,40,8
0.419341,-0.327389,-0.122823,15,1
8.21983,-6.41972,0.546597,43,9
0.475014,-0.370988,-0.117157,16,2
7.56438,-5.90994,0.839833,54,10
12.361,-9.66093,-2.48481,22,3
4.59771,-3.59471,0.716592,30,11
6.38275,-4.99214,-0.994941,57,4
8.90522,-6.96754,1.79086,35,12
21.0882,-16.5115,-1.40365,13,6
11.5253,-9.03048,-0.255573,93,7
11.5539,-9.05616,3.93353,21,15
10.4467,-8.21193,0.231942,43,8
0.418195,-0.328851,-0.122823,15,1
10.6902,-8.40931,0.712816,36,9
0.513835,-0.404203,-0.127079,14,2
12.3489,-9.72112,-2.48919,28,3
4.57422,-3.60214,0.714886,17,11
6.36061,-5.0107,-0.99421,49,4
8.90102,-7.01448,1.79493,43,12
7.81233,-6.15875,-0.870337,71,5
7.85074,-6.19124,-0.523988,17,6
8.47596,-6.68671,2.49246,9,14
8.36518,-6.60168,-0.186008,73,7
9.08404,-7.17157,3.10117,8,15
10.2158,-8.08822,0.22744,18,8
0.386492,-0.30611,-0.113825,16,1
10.8032,-8.55945,0.722341,19,9
0.51235,-0.406084,-0.127079,14,2
4.73982,-3.75809,0.52921,22,10
9.84777,-7.81084,-1.99079,37,3
4.5554,-3.61315,0.713911,12,11
6.33686,-5.02794,-0.993235,12,4
5.93983,-4.7146,1.2011,40,12
7.80015,-6.19341,-0.871383,28,5
13.636,-10.831,3.38495,5,13
12.2243,-9.71669,-0.272572,32,7
10.1548,-8.10067,0.226742,41,8
0.415832,-0.331835,-0.122823,15,1
10.8998,-8.70116,0.730924,16,9
0.501724,-0.400521,-0.124789,14,2
9.82971,-7.85257,-1.99266,52,3
4.53592,-3.62487,0.712936,27,11
8.74031,-6.98729,-1.37396,13,4
5.95953,-4.76595,1.20861,52,12
7.63582,-6.1087,-0.855521,8,5
13.6119,-10.8896,3.38839,13,13
7.76725,-6.21606,-0.521371,69,6
8.48875,-6.79591,2.51045,22,14
7.79328,-6.24136,-0.17428,24,7
10.1233,-8.13356,0.226672,48,8
0.414671,-0.333285,-0.122823,15,1
7.6395,-6.14231,0.51373,8,9
0.497193,-0.399896,-0.124026,14,2
4.72212,-3.7994,0.530255,54,10
12.2522,-9.86161,-2.49106,14,3
4.54489,-3.6581,0.716348,82,11
8.52878,-6.86712,-1.34446,11,4
8.7766,-7.06919,1.78492,63,12
9.5041,-7.65789,-1.06783,33,5
13.5688,-10.9369,3.38762,21,13
10.7763,-8.68913,-0.725481,39,6
6.8135,-5.49584,2.02096,5,14
7.75121,-6.25221,-0.173826,24,7
8.44488,-6.81416,2.90757,19,15
10.4261,-8.43986,0.234141,23,8
0.383157,-0.310275,-0.113825,16,1
0.495794,-0.401629,-0.124026,14,2
4.67013,-3.7845,0.525898,30,10
12.2407,-9.92298,-2.49576,7,3
4.49136,-3.64223,0.710011,65,11
5.73944,-4.656,-0.907439,10,4
8.77057,-7.11749,1.78898,67,12
9.46978,-7.68765,-1.06713,11,5
7.88177,-6.39849,1.97335,17,13
14.1335,-11.4778,-0.954189,17,6
6.78217,-5.50976,2.01736,6,14
7.73911,-6.2894,-0.17407,100,7
8.10656,-6.59037,2.79939,42,15
7.70287,-6.28007,0.173477,92,8
0.397174,-0.323927,-0.118324,16,1
8.40162,-6.85464,0.568264,21,9
0.482151,-0.393513,-0.120973,15,2
4.66086,-3.80537,0.526421,50,10
11.8524,-9.68038,-2.4238,14,3
4.48631,-3.66416,0.71123,77,11
5.75082,-4.69862,-0.911826,35,4
8.64014,-7.06181,1.7674,28,12
7.84645,-6.41539,-0.886723,17,5
7.62879,-6.23965,1.91572,29,13
13.2977,-10.884,3.96724,13,14
12.0964,-9.90077,-0.272851,89,7
8.07603,-6.61251,2.7968,21,15
7.49438,-6.15595,0.169288,66,8
0.41104,-0.337752,-0.122823,15,1
0.492907,-0.405167,-0.124026,14,2
9.51189,-7.82428,-1.95074,28,3
4.55256,-3.74617,0.723904,37,11
5.74122,-4.72597,-0.913045,16,4
8.64927,-7.12231,1.77459,44,12
12.0306,-9.90664,-1.36346,2,5
8.56162,-7.05264,2.15614,25,13
13.2415,-10.9155,3.96184,13,14
12.0446,-9.93231,-0.272502,89,7
8.02939,-6.62363,2.78903,48,15
7.43894,-6.15403,0.16852,40,8
0.38884,-0.321791,-0.116525,16,1
0.494514,-0.409389,-0.124789,14,2
7.41009,-6.13669,0.84175,8,10
9.56819,-7.92675,-1.96795,46,3
5.96243,-4.94132,0.950825,27,11
12.6735,-10.5068,-2.02133,9,4
8.56506,-7.10328,1.76239,31,12
8.88113,-7.36541,-1.00944,42,5
8.57019,-7.11006,2.16454,17,13
9.65489,-8.01279,-0.657549,16,6
13.2109,-10.9679,3.96409,5,14
10.833,-8.99693,-0.2458,100,7
7.00321,-5.81831,2.43963,20,15
7.44968,-6.20684,0.169253,12,8
0.408672,-0.340614,-0.122823,15,1
0.481019,-0.401055,-0.121736,15,2
9.22009,-7.69007,1.0504,22,10
9.57686,-7.99047,-1.97545,48,3
5.96495,-4.97864,0.953993,18,11
8.45851,-7.06239,-1.35299,35,4
4.3876,-3.6647,0.905443,35,12
8.80797,-7.35677,-1.00403,17,5
8.48657,-7.09084,2.14965,49,13
12.0849,-10.101,-0.825443,26,6
23.3302,-19.514,-0.530902,44,7
6.99027,-5.84892,2.44222,30,15
10.7261,-9.00023,0.244403,11,8
0.407481,-0.342038,-0.122823,15,1
0.500665,-0.420406,-0.127079,14,2
5.99312,-5.03775,0.961305,18,11
10.4758,-8.80894,-1.68058,8,4
4.37932,-3.68381,0.906381,53,12
8.78833,-7.3926,-1.00473,25,5
8.45125,-7.11157,2.14698,31,13
7.15243,-6.02077,-0.489969,21,6
6.49618,-5.47029,1.96067,55,14
12.1953,-10.273,-0.278331,72,7
6.95504,-5.86083,2.43704,28,15
0.36894,-0.311668,-0.12941,15,0
7.29772,-6.16705,0.166775,33,8
0.406284,-0.343458,-0.122823,15,1
4.78408,-4.04572,0.328356,26,9
0.505191,-0.427222,-0.128605,14,2
7.56294,-6.39797,0.866677,100,10
9.57362,-8.1018,-1.98641,13,3
5.97096,-5.05479,0.960574,13,11
10.4283,-8.83135,-1.6779,7,4
8.02899,-6.80186,1.66665,25,12
8.79744,-7.45285,-1.00874,27,5
12.1019,-10.2559,3.08347,18,13
12.1421,-10.2936,-0.834235,16,6
10.941,-9.28193,-0.250442,100,7
8.21009,-6.96759,2.88531,20,15
7.28072,-6.19638,0.16688,60,8
0.405083,-0.344874,-0.122823,15,1
10.7091,-9.12064,0.737204,54,9
0.482772,-0.411162,-0.123263,15,2
12.0545,-10.2737,-2.50858,3,3
4.54238,-3.87271,0.732922,15,11
11.7598,-10.0296,-1.89775,19,4
7.53935,-6.43238,1.56966,60,12
12.7895,-10.9117,-1.47084,18,5
8.6,-7.33991,2.19774,24,13
10.4777,-8.94568,-0.722027,39,6
6.10664,-5.21556,1.85405,1,14
10.9192,-9.32916,-0.250686,22,7
8.12404,-6.94349,2.86357,37,15
7.20287,-6.17361,0.165588,13,8
0.403877,-0.346286,-0.122823,15,1
10.6318,-9.11896,0.734064,11,9
0.481334,-0.412844,-0.123263,15,2
4.33817,-3.72221,0.5001,65,10
11.7982,-10.1266,-2.46259,7,3
5.9551,-5.11316,0.963743,20,11
10.3393,-8.88065,-1.67351,7,4
7.54831,-6.4857,1.57623,107,12
9.52504,-8.18705,-1.09886,26,5
7.57084,-6.50735,1.94053,4,13
7.07826,-6.08826,2.15548,30,14
13.2482,-11.3993,-0.305068,100,7
6.02503,-5.186,2.13008,83,15
4.12197,-3.55799,0.0950458,19,8
0.402665,-0.347694,-0.122823,15,1
0.461991,-0.399202,-0.118683,15,2
4.30641,-3.72245,0.498008,48,10
9.4928,-8.20843,-1.98766,23,3
4.26747,-3.69008,0.692705,90,11
8.58019,-7.42192,-1.39297,16,4
7.52413,-6.51071,1.57592,130,12
12.6719,-10.9767,-0.878616,26,6
9.97273,-8.64169,-0.230337,100,7
6.04047,-5.23611,2.14199,19,15
4.10437,-3.56913,0.0949411,6,8
0.401388,-0.349168,-0.122823,15,1
4.37234,-3.80484,0.303758,21,9
0.484291,-0.421433,-0.124789,14,2
4.24981,-3.69952,0.492953,75,10
4.23296,-3.68745,0.689293,99,11
10.2815,-8.95963,-1.67448,35,4
10.546,-9.19337,-1.22402,22,5
7.51224,-6.55104,1.93747,137,13
10.2374,-8.93068,-0.711978,81,6
4.10806,-3.58621,-0.0951854,17,7
4.08587,-3.57817,0.0948015,44,8
0.400167,-0.350566,-0.122823,15,1
4.19981,-3.68054,0.292663,23,9
0.479864,-0.420533,-0.124026,14,2
4.02263,-3.52651,0.468026,86,10
8.55308,-7.50085,-1.80181,16,3
4.23499,-3.71529,0.69173,57,11
9.46385,-8.30542,-1.54603,63,4
9.27708,-8.14438,-1.08003,26,5
10.1972,-8.95845,-0.71135,48,6
7.47413,-6.5685,2.2972,87,14
4.09101,-3.59657,-0.0950807,38,7
6.04346,-5.31492,2.15648,42,15
4.11535,-3.62945,0.0957788,77,8
0.398941,-0.351961,-0.122823,15,1
4.18245,-3.69122,0.292349,44,9
0.475449,-0.419607,-0.123263,15,2
4.08348,-3.60515,0.476568,56,10
8.53128,-7.53458,-1.80275,38,3
4.23389,-3.74057,0.69368,12,11
9.38274,-8.29239,-1.5375,40,4
8.35715,-7.38858,1.76677,35,12
9.3098,-8.23082,-1.08718,26,5
10.2377,-9.05751,-0.716375,42,6
11.5591,-10.2302,3.56367,27,14
12.4793,-11.0486,-0.290932,85,7
6.03934,-5.34879,2.16166,112,15
4.11462,-3.65441,0.096058,26,8
0.39771,-0.353352,-0.122823,15,1
4.32181,-3.84113,0.303025,12,9
0.476916,-0.423873,-0.124026,14,2
4.11554,-3.65909,0.481797,37,10
4.1778,-3.71706,0.686612,78,11
9.62658,-8.56793,-1.58235,50,4
8.44933,-7.52279,1.7918,39,12
9.3569,-8.33084,-1.09607,26,5
8.54718,-7.61258,2.22483,30,13
10.2045,-9.09187,-0.71627,29,6
11.5117,-10.2601,3.56008,18,14
4.39715,-3.92048,-0.10283,4,7
6.02063,-5.36984,2.16166,84,15
8.84756,-7.91341,0.207195,13,8
