x, y, z, intensity, ring
-0.586561,0.346477,-0.132421,13,2
-1.33278,0.787575,0.13544,100,10
-1.28215,0.75796,-0.235903,13,3
-1.34984,0.79829,0.192554,100,11
-1.3225,0.782122,-0.188654,100,4
-17.1099,10.1228,3.14871,17,12
-1.31851,0.780387,-0.134046,100,5
-15.1668,8.98035,3.42617,13,13
-1.33864,0.792934,-0.0815394,138,6
-15.2476,9.0318,4.09141,14,14
-1.33326,0.790058,-0.0270512,100,7
-24.6345,14.6036,7.67347,5,15
-1.30356,0.774923,-0.406346,2,0
-1.31655,0.782952,0.0267371,100,8
-1.32139,0.786142,-0.354973,5,1
-1.34742,0.80163,0.0821675,100,9
-0.585409,0.34842,-0.132421,13,2
-1.33358,0.794029,0.135789,100,10
-1.24229,0.739968,-0.22902,11,3
-1.34036,0.798698,0.191579,100,11
-1.31819,0.785488,-0.18841,100,4
-13.9882,8.33862,2.57929,10,12
-1.32276,0.788837,-0.134743,100,5
-15.7507,9.39673,3.56508,18,13
-1.32229,0.789181,-0.0807021,134,6
-15.2477,9.10029,4.09951,31,14
-1.33922,0.7996,-0.0272258,100,7
-14.9532,8.9316,4.66703,16,15
-1.29601,0.776263,-0.404793,2,0
-1.32424,0.79348,0.0269465,100,8
-1.3171,0.789517,-0.354523,4,1
-1.33091,0.798111,0.0813301,100,9
-0.601088,0.360456,-0.136238,12,2
-1.33778,0.802547,0.136486,100,10
-0.904468,0.542815,-0.167072,13,3
-1.34451,0.807225,0.192554,100,11
-1.30353,0.782929,-0.186704,100,4
-13.9539,8.38434,2.57835,20,12
-1.33209,0.800402,-0.135963,100,5
-1.31624,0.791502,-0.0804927,139,6
-15.2092,9.14944,4.09771,28,14
-1.33128,0.801177,-0.027121,100,7
-14.9021,8.97178,4.66081,15,15
-1.30322,0.786773,-0.407899,1,0
-1.32488,0.800165,0.0270163,100,8
-1.31767,0.796126,-0.355423,4,1
-1.33495,0.806885,0.0817488,100,9
-0.566222,0.342241,-0.128605,14,2
-1.34179,0.811335,0.137183,100,10
-0.892427,0.539834,-0.165195,24,3
-1.34678,0.814997,0.193285,100,11
-1.30249,0.788503,-0.186948,100,4
-13.8536,8.39002,2.56521,42,12
-1.31225,0.794726,-0.13422,164,5
-15.191,9.20362,3.4525,24,13
-1.31347,0.796092,-0.0804927,138,6
-15.2338,9.23682,4.11301,31,14
-1.32163,0.801671,-0.0269814,100,7
-14.7584,8.9556,4.62561,17,15
-1.30377,0.793326,-0.408934,1,0
-1.32037,0.803746,0.0269814,100,8
-1.32154,0.804775,-0.357222,4,1
-1.33739,0.814423,0.0820628,99,9
-0.558318,0.34013,-0.127079,14,2
-1.32363,0.806682,0.135614,97,10
-0.892224,0.543975,-0.165508,24,3
-1.3524,0.824861,0.194503,100,11
-1.30312,0.795113,-0.187435,100,4
-13.6351,8.31965,2.52986,38,12
-1.30777,0.798263,-0.134046,100,5
-15.1873,9.27398,3.45899,16,13
-1.32773,0.811084,-0.0815394,128,6
-15.416,9.42103,4.17104,12,14
-1.32579,0.81022,-0.027121,100,7
-14.8588,9.0841,4.66651,21,15
-1.29111,0.791812,-0.405828,1,0
-1.32111,0.81021,0.0270512,100,8
-1.31554,0.807114,-0.356322,2,1
-1.34815,0.827445,0.0829002,91,9
-0.600626,0.368786,-0.137001,12,2
-1.32251,0.81234,0.135789,90,10
-0.865167,0.531422,-0.160815,17,3
-1.35135,0.83038,0.194747,91,11
-1.30724,0.803588,-0.18841,100,4
-13.5673,8.3434,2.52266,56,12
-1.30497,0.802823,-0.134046,100,5
-15.1982,9.35001,3.46853,15,13
-1.32503,0.815482,-0.0815394,131,6
-16.2575,10.0095,4.40769,35,14
-1.32806,0.817989,-0.0272258,100,7
-12.9224,7.96237,4.06708,5,15
-1.31477,0.812336,-0.41411,1,0
-1.31997,0.815869,0.0270861,100,8
-1.30609,0.807602,-0.354523,2,1
-1.3488,0.834012,0.0831095,84,9
-0.559329,0.345988,-0.127842,14,2
-1.33506,0.826158,0.137357,88,10
-0.846511,0.524041,-0.157686,13,3
-1.34676,0.834047,0.194503,75,11
-1.30611,0.809191,-0.188654,100,4
-13.4438,8.32904,2.50483,56,12
-1.30569,0.809246,-0.134394,100,5
-14.5131,8.9985,3.31931,47,13
-1.3086,0.811681,-0.0807021,125,6
-16.2225,10.0662,4.40769,35,14
-1.32874,0.824497,-0.0272956,100,7
-12.8549,7.97971,4.05414,24,15
-1.31193,0.81692,-0.41411,1,0
-1.32066,0.822355,0.0271559,100,8
-1.30506,0.812959,-0.354973,2,1
-1.33063,0.829208,0.0821675,67,9
-0.568114,0.35417,-0.130132,13,2
-1.33724,0.833975,0.13788,69,10
-0.804541,0.501757,-0.150177,25,3
-1.34567,0.839559,0.194747,51,11
-1.30005,0.811416,-0.188166,100,4
-13.6962,8.55168,2.55739,16,12
-1.30624,0.81591,-0.134743,100,5
-1.3059,0.816016,-0.0807021,122,6
-15.8618,9.91542,4.31861,21,14
-1.31738,0.823829,-0.027121,100,7
-12.8532,8.04093,4.06242,30,15
-1.30921,0.821267,-0.41411,1,0
-1.31947,0.828023,0.0271908,96,8
-1.29396,0.812329,-0.352723,1,1
-1.3328,0.837034,0.0824815,61,9
-0.566936,0.356052,-0.130132,13,2
-1.33446,0.838405,0.13788,63,10
-0.769335,0.483539,-0.14392,41,3
-1.35617,0.852705,0.196697,13,11
-1.29721,0.815949,-0.188166,100,4
-13.6362,8.5805,2.55176,8,12
-1.30352,0.820237,-0.134743,100,5
-1.31656,0.829084,-0.0815394,100,6
-15.931,10.0362,4.34695,9,14
-1.31788,0.830555,-0.0271908,100,7
-12.7891,8.06308,4.05104,23,15
-1.32164,0.835831,0.0272956,84,8
-1.30758,0.82726,-0.357222,1,1
-1.34506,0.851295,0.0834235,52,9
-0.552419,0.349629,-0.127079,14,2
-1.32984,0.841993,0.137706,46,10
-0.747617,0.473538,-0.140165,49,3
-16.966,10.7503,2.46615,10,11
-1.29436,0.820472,-0.188166,100,4
-1.29729,0.822648,-0.134394,100,5
-13.992,8.87614,3.22086,25,13
-1.31872,0.836884,-0.0818534,100,6
-14.9416,9.48591,4.08601,14,14
-1.31497,0.83515,-0.0271908,96,7
-12.2016,7.75232,3.87349,18,15
-1.31534,0.838289,0.0272258,72,8
-1.3014,0.829723,-0.356322,1,1
-1.34391,0.856824,0.0835282,46,9
-0.5843,0.37267,-0.134711,12,2
-1.33865,0.854131,0.138926,13,10
-0.724314,0.462328,-0.136098,51,3
-38.0997,24.3283,5.55042,20,11
-1.30334,0.832238,-0.189872,100,4
-14.4298,9.21758,2.71195,26,12
-1.29776,0.829317,-0.134743,100,5
-14.123,9.02855,3.25825,24,13
-1.31242,0.83933,-0.0816441,100,6
-14.9626,9.56901,4.10041,23,14
-1.3223,0.845972,-0.0274003,82,7
-11.1166,7.1148,3.5365,40,15
-1.31592,0.844807,0.0272956,59,8
-1.35619,0.870989,0.0844702,28,9
-0.56324,0.361871,-0.130132,13,2
-19.7724,12.7083,2.05635,15,10
-0.702838,0.451907,-0.132344,36,3
-35.7682,23.0069,5.22186,18,11
-1.29389,0.83226,-0.188898,88,4
-14.4539,9.30066,2.72227,38,12
-1.30171,0.837929,-0.13544,88,5
-13.9873,9.00731,3.23383,33,13
-1.30628,0.841515,-0.0814348,100,6
-15.111,9.73466,4.1499,25,14
-1.32453,0.853602,-0.027505,75,7
-11.0848,7.14639,3.53392,28,15
-1.32823,0.858939,0.0276097,52,8
-13.8935,8.99157,0.867312,8,9
-0.552148,0.357337,-0.127842,14,2
-19.2769,12.4803,2.00911,19,10
-0.707968,0.458531,-0.133595,28,3
-35.6717,23.1124,5.21893,18,11
-1.28765,0.834612,-0.18841,79,4
-14.4313,9.3575,2.72415,39,12
-1.30546,0.846805,-0.136137,73,5
-1.30515,0.846929,-0.0815394,82,6
-15.0475,9.76825,4.1418,31,14
-1.32657,0.861488,-0.0276097,61,7
-11.0452,7.17557,3.52926,30,15
-1.3269,0.864662,0.0276446,21,8
-0.58372,0.380812,-0.135474,12,2
-19.176,12.515,2.00336,9,10
-0.714552,0.466522,-0.135159,13,3
-37.7101,24.6205,5.5297,40,11
-1.28473,0.839102,-0.18841,68,4
-15.5942,10.189,2.95035,28,12
-1.30583,0.853537,-0.136486,63,5
-13.929,9.10796,3.23498,18,13
-1.31207,0.858267,-0.0821675,78,6
-1.32356,0.866113,-0.0276097,46,7
-11.0395,7.22678,3.53547,18,15
-13.782,9.0531,0.287825,8,8
-14.9604,9.83091,0.938174,37,9
-0.569263,0.37422,-0.132421,13,2
-19.1854,12.6169,2.00894,28,10
-0.71622,0.471185,-0.135785,19,3
-16.6517,10.9589,2.44762,10,11
-1.29506,0.852312,-0.19036,55,4
-14.4828,9.53515,2.74636,30,12
-1.30784,0.861378,-0.137009,56,5
-15.3382,10.106,3.57042,12,13
-1.32407,0.872734,-0.0831095,66,6
-14.1996,9.35936,3.9263,18,14
-1.32554,0.87403,-0.0277144,10,7
-12.0946,7.97796,3.88229,23,15
-13.6819,9.05241,0.286359,27,8
-14.8262,9.81322,0.931789,31,9
-0.568018,0.376106,-0.132421,13,2
-23.9439,15.8601,2.5127,28,10
-0.70642,0.468102,-0.134221,20,3
-34.7213,23.0164,5.11486,35,11
-1.30546,0.865376,-0.19231,55,4
-15.7583,10.4499,2.99478,12,12
-1.29999,0.862406,-0.136486,51,5
-15.2195,10.1003,3.55057,23,13
-1.32949,0.882644,-0.0836329,33,6
-14.0467,9.32556,3.89255,28,14
-15.2619,10.1361,-0.319798,97,7
-12.0729,8.02123,3.88384,29,15
-13.3073,8.86819,0.279134,56,8
-14.7636,9.84239,0.929905,23,9
-0.550435,0.367094,-0.128605,14,2
-23.8647,15.9218,2.50991,21,10
-0.701578,0.468248,-0.133595,35,3
-34.9931,23.364,5.16629,17,11
-1.30738,0.873235,-0.193041,49,4
-14.4718,9.6661,2.75638,5,12
-1.31038,0.875568,-0.13788,27,5
-13.6729,9.13939,3.19681,12,13
-14.3979,9.62763,-0.907715,20,6
-14.0449,9.39512,3.9011,21,14
-15.3196,10.2478,-0.321718,82,7
-11.9836,8.01932,3.86365,28,15
-14.6794,9.86045,0.926765,16,9
-0.552409,0.371203,-0.129368,13,2
-15.7663,10.5985,1.66206,45,10
-0.719694,0.483797,-0.137349,49,3
-34.8133,23.4112,5.15117,17,11
-1.2946,0.870918,-0.191579,38,4
-15.2033,10.2316,2.90249,17,12
-13.8396,9.31735,3.24299,25,13
-14.1986,9.56264,-0.897143,43,6
-14.6261,9.85433,4.07161,31,14
-14.9057,10.0464,-0.313759,100,7
-12.3416,8.32138,3.9884,31,15
-13.2533,8.96304,0.279273,35,8
-16.8633,11.4088,1.06703,7,9
-0.551175,0.373033,-0.129368,13,2
-14.5794,9.87103,1.54039,42,10
-0.721272,0.488522,-0.137975,48,3
-34.6558,23.4814,5.13996,17,11
-1.29648,0.878773,-0.19231,9,4
-13.1859,8.93757,2.52298,10,12
-14.0877,9.55246,-1.48914,33,5
-14.0848,9.55406,3.30825,13,13
-14.1932,9.63121,-0.898922,37,6
-11.3331,7.69331,3.16236,40,14
-14.9484,10.1475,-0.315365,100,7
-13.2285,9.01032,0.279378,43,8
-0.572578,0.39044,-0.134711,12,2
-14.512,9.8994,1.5369,19,10
-0.709857,0.484232,-0.136098,38,3
-34.5711,23.5917,5.13899,17,11
-10.8977,7.43948,-1.62013,13,4
-28.3173,19.3385,5.43109,9,12
-14.8325,10.1332,-1.57159,27,5
-14.0125,9.57303,3.29871,13,13
-14.6806,10.0332,-0.931894,38,6
-11.3059,7.72975,3.16191,20,14
-10.8822,7.44282,-0.230127,20,7
-11.7171,8.01685,3.80412,6,15
-13.2134,9.06775,0.279727,50,8
-16.4079,11.2684,1.04316,10,9
-0.56157,0.385668,-0.132421,13,2
-14.3756,9.87639,1.52592,55,10
-0.704907,0.484469,-0.135472,32,3
-34.5344,23.7437,5.14581,17,11
-10.6231,7.30648,-1.58308,13,4
-15.5024,10.6664,2.98039,6,12
-9.27713,6.38315,-0.985209,23,5
-13.8044,9.50167,3.25749,28,13
-9.59203,6.60475,-0.610342,30,6
-11.3222,7.79902,3.17406,2,14
-15.0237,10.3526,-0.318472,75,7
-10.8063,7.44918,3.51683,12,15
-13.1554,9.09562,0.279169,32,8
-0.435941,0.301523,-0.122373,15,1
-0.534389,0.369752,-0.126316,14,2
-14.21,9.8358,1.51198,22,10
-0.683723,0.473432,-0.131718,22,3
-34.1837,23.6787,5.10584,17,11
-10.6007,7.34578,-1.58357,17,4
-27.8682,19.3185,5.37071,18,12
-9.04356,6.26907,-0.962722,26,5
-13.8211,9.58447,3.26932,9,13
-14.451,10.025,-0.921741,7,6
-11.2965,7.8396,3.17451,20,14
-10.756,7.46729,-0.228557,92,7
-13.0809,9.11178,0.278261,36,8
-13.5435,9.44102,0.865218,4,9
-0.533095,0.371616,-0.126316,14,2
-17.2562,12.0336,1.84056,32,10
-0.706368,0.492769,-0.136411,12,3
-29.2074,20.3829,4.37316,28,11
-10.5653,7.37592,-1.58211,40,4
-27.7278,19.3647,5.35663,9,12
-9.35159,6.53104,-0.997933,85,5
-28.4635,19.886,6.7493,24,13
-9.30176,6.50107,-0.594746,70,6
-15.0658,10.5374,-0.320915,75,7
-10.8221,7.57206,3.53909,29,15
-13.0359,9.14819,0.277982,30,8
-0.557501,0.391527,-0.132421,13,2
-17.4129,12.2335,1.86182,37,10
-0.706259,0.496367,-0.136724,6,3
-15.0357,10.5712,2.25678,29,11
-10.8252,7.61375,-1.62501,22,4
-27.5388,19.3762,5.33316,9,12
-9.609,6.76084,-1.02791,22,5
-13.9545,9.82198,3.31702,5,13
-9.31494,6.5588,-0.597049,54,6
-11.2766,7.94296,3.18441,24,14
-10.6154,7.48001,-0.226672,83,7
-10.9898,7.74669,3.60276,16,15
-12.9598,9.16247,0.277039,7,8
-0.4789,0.338704,-0.135421,13,1
-13.4968,9.54568,0.866369,35,9
-0.572157,0.40481,-0.136238,12,2
-17.0969,12.1008,1.83254,44,10
-8.96049,6.34438,-1.73893,2,3
-15.0716,10.6753,2.26775,29,11
-9.58824,6.79136,-1.44269,28,4
-14.4625,10.2476,2.80737,19,12
-9.62435,6.82199,-1.0321,18,5
-14.9916,10.6303,3.57233,16,13
-9.29851,6.5959,-0.597467,13,6
-11.2581,7.98595,3.18666,24,14
-10.5285,7.47119,-0.225345,22,7
-10.9152,7.74843,3.58671,29,15
-12.9701,9.23439,0.277912,46,8
-0.43333,0.308635,-0.122823,15,1
-0.60279,0.42949,-0.14387,11,2
-12.6664,9.02817,1.36085,36,10
-10.5188,7.50024,-2.04616,5,3
-27.8663,19.8768,4.20279,27,11
-9.34749,6.6675,-1.40978,57,4
-11.1374,7.95007,-1.19717,12,5
-10.3676,7.40333,2.47632,18,13
-14.89,10.6366,-0.959004,24,6
-11.2443,8.0323,3.19026,51,14
-10.6371,7.6014,-0.228208,100,7
-10.9366,7.81828,3.60224,29,15
-13.0125,9.32978,0.279483,68,8
-0.489311,0.350959,-0.13902,13,1
-15.483,11.1052,0.99857,2,9
-0.56946,0.408596,-0.136238,12,2
-12.5927,9.03876,1.35614,18,10
-10.4795,7.52472,-2.04335,5,3
-13.1851,9.47096,1.9933,17,11
-9.5563,6.8669,-1.44488,44,4
-13.1157,9.42459,2.55802,13,12
-9.35079,6.7217,-1.00752,20,5
-10.2968,7.40443,2.46525,25,13
-9.30158,6.69125,-0.600503,54,6
-11.1323,8.01118,3.16641,47,14
-17.0377,12.2609,-0.366396,60,7
-12.9734,9.36703,0.279308,13,8
-0.462869,0.334323,-0.131821,14,1
-16.0901,11.6259,1.04033,13,9
-0.583941,0.422082,-0.140054,11,2
-16.2276,11.7339,1.752,18,10
-9.84778,7.12075,-1.92477,6,3
-27.7291,20.0577,4.20206,27,11
-9.22791,6.67744,-1.39857,22,4
-13.0715,9.4622,2.55583,28,12
-9.20786,6.66782,-0.994621,36,5
-10.2626,7.43162,2.46296,42,13
-9.0351,6.54513,-0.584697,60,6
-11.1262,8.06291,3.17226,74,14
-10.8264,7.84851,-0.233408,24,7
-12.9762,9.43814,0.280076,17,8
-0.486911,0.354281,-0.13902,13,1
-15.0095,10.9251,0.972925,4,9
-0.582539,0.424016,-0.140054,11,2
-16.3513,11.9061,1.76961,29,10
-0.713722,0.519883,-0.139852,11,3
-11.5545,8.41949,1.75541,3,11
-9.16765,6.68272,-1.39297,27,4
-13.0847,9.54152,2.5649,13,12
-9.03115,6.58563,-0.977887,27,5
-10.2001,7.44079,2.45419,75,13
-9.02994,6.58958,-0.585849,40,6
-10.6471,7.77539,-0.230127,73,7
-11.6932,8.54245,3.88022,18,15
-13.0222,9.54128,0.281787,47,8
-0.429088,0.314505,-0.122823,15,1
-28.0854,20.5931,1.82516,15,9
-0.581055,0.426047,-0.140054,11,2
-16.1795,11.8677,1.75549,18,10
-11.8443,8.69099,-2.32681,13,3
-11.5298,8.4633,1.75614,34,11
-9.01307,6.61833,-1.37298,22,4
-9.00811,6.61711,-0.977887,21,5
-10.1504,7.45891,2.44846,20,13
-9.0085,6.62224,-0.585953,37,6
-11.9158,8.76267,3.41476,33,14
-28.0196,20.6126,-0.607169,46,7
-13.0823,9.62749,4.3523,6,15
-28.4055,20.9653,0.616244,35,8
-0.427988,0.316001,-0.122823,15,1
-16.4382,12.1414,1.071,31,9
-0.573247,0.423407,-0.138527,12,2
-16.0819,11.8826,1.74939,39,10
-11.6773,8.63131,-2.2999,6,3
-11.4635,8.47635,1.75053,42,11
-9.18781,6.79613,-1.4032,46,4
-13.1178,9.70667,2.58461,10,12
-9.31969,6.89621,-1.01432,24,5
-9.0078,6.67028,-0.587419,20,6
-11.8601,8.78565,3.40756,31,14
-10.7966,8.00074,-0.23456,100,7
-12.9184,9.60452,0.280984,39,8
-0.426882,0.317493,-0.122823,15,1
-16.2579,12.0962,1.062,16,9
-0.571766,0.425405,-0.138527,12,2
-16.1282,12.0041,1.75898,25,10
-9.23563,6.8765,-1.82371,13,3
-11.4211,8.50682,1.74858,42,11
-9.01758,6.71905,-1.38078,33,4
-13.2802,9.89878,2.62341,6,12
-10.1122,7.54015,2.4519,6,13
-10.8548,8.09976,3.12682,19,14
-27.8478,20.7873,-0.606576,11,7
-10.7657,8.03911,3.60017,12,15
-12.9488,9.69751,0.28238,55,8
-0.425771,0.318981,-0.122823,15,1
-16.1314,12.0854,1.05635,13,9
-0.582846,0.436818,-0.14158,11,2
-13.4958,10.1182,1.47572,12,10
-8.66478,6.49861,-1.71546,27,3
-11.4199,8.56808,1.75297,42,11
-9.08139,6.81602,-1.39419,30,4
-8.91123,6.69074,-0.974924,21,5
-8.99135,6.7558,-0.589408,64,6
-29.0895,21.8648,-0.635198,35,7
-10.9026,8.19783,3.65504,32,15
-0.424711,0.320392,-0.122823,15,1
-16.1991,12.2246,1.06357,11,9
-0.584451,0.441216,-0.142344,11,2
-13.7243,10.3646,1.50466,26,10
-8.59432,6.4904,-1.70576,27,3
-13.8798,10.4858,2.13588,41,11
-9.17593,6.93467,-1.41222,24,4
-10.9923,8.31042,2.18257,47,12
-8.82585,6.67494,-0.968126,29,5
-13.385,10.123,3.26207,10,13
-9.19348,6.9555,-0.604166,60,6
-11.3322,8.57983,-0.248103,26,7
-13.2794,10.0577,4.46359,12,15
-31.6934,24.0741,0.694711,6,8
-0.454623,0.345453,-0.131821,14,1
-13.816,10.4984,0.90939,26,9
-0.567355,0.43127,-0.138527,12,2
-33.3572,25.3654,3.66629,26,10
-8.70682,6.62322,-1.73267,27,3
-11.3171,8.61196,1.74614,42,11
-8.97477,6.83199,-1.38492,39,4
-8.69588,6.62209,-0.956273,52,5
-13.3417,10.1637,3.26016,5,13
-9.02935,6.88101,-0.594955,37,6
-9.9882,7.61448,2.89962,61,14
-11.3149,8.62585,-0.248348,48,7
-10.7129,8.16993,3.61001,25,15
-31.5467,24.128,0.693244,6,8
-0.499905,0.382483,-0.145318,12,1
-16.0537,12.2873,1.05949,26,9
-0.540905,0.414152,-0.132421,13,2
-30.8785,23.6511,3.40291,11,10
-8.64246,6.61962,-1.72422,13,3
-11.3137,8.66876,1.75004,42,11
-8.9048,6.82548,-1.37761,26,4
-8.76282,6.72152,-0.966209,34,5
-8.99064,6.89876,-0.593908,100,6
-9.87323,7.57873,2.87352,61,14
-11.199,8.59953,-0.246463,40,7
-10.5648,8.11548,3.56963,45,15
-0.459176,0.353613,-0.155291,12,0
-17.3208,13.3436,0.381649,12,8
-0.42139,0.324748,-0.122823,15,1
-16.0217,12.3518,1.06022,27,9
-0.573736,0.442314,-0.140817,11,2
-13.9232,10.7378,1.5383,16,10
-8.5458,6.59303,-1.70952,23,3
-11.1985,8.6427,1.73688,50,11
-8.71122,6.72551,-1.35129,42,4
-10.7749,8.32175,2.15629,42,12
-8.70737,6.72496,-0.962548,30,5
-9.90409,7.65199,2.43281,71,13
-9.03129,6.98017,-0.5982,94,6
-9.8128,7.58693,2.86363,80,14
-11.15,8.62389,-0.246044,100,7
-10.5502,8.16295,3.57429,20,15
-17.44,13.5327,0.385314,17,8
-0.420253,0.326217,-0.122823,15,1
-15.5731,12.0928,1.03332,11,9
-0.572188,0.444315,-0.140817,11,2
-12.9872,10.0884,1.43877,3,10
-8.56017,6.65192,-1.71702,8,3
-10.9347,8.50021,1.70056,30,11
-8.64224,6.72054,-1.34422,55,4
-10.7613,8.37144,2.15942,58,12
-9.94549,7.73957,2.44961,69,13
-8.63178,6.71966,-0.573288,100,6
-9.88312,7.69657,2.89197,21,14
-11.0504,8.60868,-0.244508,100,7
-11.1566,8.71962,0.247161,6,8
-0.419112,0.327682,-0.122823,15,1
-15.9279,12.4532,1.05959,30,9
-0.555169,0.434214,-0.137001,12,2
-14.0331,10.9796,1.55887,74,10
-8.55089,6.69271,-1.71984,36,3
-11.0129,8.62277,1.71738,42,11
-8.51206,6.66472,-1.3274,52,4
-10.7973,8.45702,2.17225,22,12
-10.2012,7.99587,2.51944,44,13
-9.04521,7.09235,-0.602387,67,6
-9.73333,7.6319,2.85553,82,14
-10.9683,8.60332,-0.243321,24,7
-10.3774,8.14275,3.53443,31,15
-11.1606,8.78253,0.247894,15,8
-0.418023,0.32907,-0.122823,15,1
-15.8692,12.4923,1.05844,27,9
-0.535217,0.421477,-0.132421,13,2
-8.41539,6.63178,-1.697,25,3
-11.0263,8.69242,1.72396,11,11
-8.51486,6.71257,-1.3313,53,4
-10.6963,8.43529,2.15754,43,12
-8.79408,6.93767,-0.979979,25,5
-10.2255,8.06979,2.53204,18,13
-9.00283,7.10745,-0.601131,33,6
-9.72479,7.67742,2.86048,89,14
-8.75991,6.91816,-0.194839,100,7
-11.7752,9.30285,4.02101,16,15
-11.0969,8.79218,0.247126,2,8
-0.41693,0.330454,-0.122823,15,1
-15.8152,12.535,1.05761,15,9
-0.546124,0.433007,-0.135474,12,2
-8.38407,6.65228,-1.69512,40,3
-10.9212,8.66847,1.71202,23,11
-8.51314,6.75953,-1.33471,41,4
-15.0169,11.9236,3.03702,12,12
-9.31395,7.39804,-1.04064,45,5
-10.2448,8.1403,2.54348,10,13
-9.76352,7.76347,2.87982,44,14
-10.8828,8.65347,-0.242693,32,7
-9.99355,7.94923,3.42159,27,15
-11.0224,8.79276,0.246114,16,8
-0.415832,0.331835,-0.122823,15,1
-0.566086,0.452063,-0.140817,11,2
-30.0202,23.982,3.3616,22,10
-8.38974,6.70224,-1.70076,53,3
-10.8909,8.70339,1.71178,46,11
-8.49998,6.79517,-1.33618,24,4
-8.72177,6.97746,-0.97719,17,5
-8.56409,6.85377,-0.574858,37,6
-9.69056,7.75805,2.86588,78,14
-9.88131,7.91642,3.3926,18,15
-0.414671,0.333285,-0.122823,15,1
-13.931,11.2008,0.936814,22,9
-0.564584,0.453937,-0.140817,11,2
-29.8924,24.0427,3.35619,22,10
-8.31243,6.68814,-1.68981,56,3
-8.47312,6.82231,-1.33569,55,4
-11.1827,9.00717,2.27424,42,12
-8.45962,6.81387,-0.950346,22,5
-9.91394,7.98812,2.47479,12,13
-8.11404,6.54019,-0.546178,42,6
-9.5815,7.72578,2.84158,100,14
-10.8206,8.72798,-0.242658,31,7
-11.4969,9.27682,3.95838,9,15
-0.45059,0.36449,-0.155291,12,0
-10.8302,8.76383,0.243182,66,8
-0.413505,0.33473,-0.122823,15,1
-15.7079,12.72,1.05928,27,9
-0.55079,0.446021,-0.137764,12,2
-29.6163,23.9913,3.33458,21,10
-8.26295,6.69597,-1.68449,33,3
-10.7404,8.70671,1.69764,7,11
-8.35828,6.77807,-1.32131,57,4
-11.1097,9.01255,2.2658,15,12
-8.45281,6.85717,-0.952264,24,5
-8.05395,6.53827,-0.543666,77,6
-9.54994,7.75549,2.84023,78,14
-10.7574,8.73922,-0.241925,31,7
-17.2364,14.0076,5.95129,11,15
-10.8398,8.83443,0.244089,19,8
-0.466708,0.380502,-0.13902,13,1
-15.5117,12.651,1.04902,36,9
-0.561402,0.457868,-0.140817,11,2
-29.4212,24.0039,3.32203,10,10
-8.25329,6.73602,-1.6873,26,3
-29.3512,23.9639,4.65248,30,11
-8.32381,6.79841,-1.3196,70,4
-11.7758,9.6212,2.40847,39,12
-8.59699,7.02404,-0.971264,48,5
-10.0388,8.20499,2.52021,18,13
-8.17797,6.68644,-0.55361,49,6
-9.54242,7.80482,2.84608,93,14
-17.1934,14.0726,5.95336,27,15
-10.8352,8.89378,0.244683,35,8
-0.453328,0.372235,-0.135421,13,1
-13.6478,11.2105,0.925614,32,9
-0.562834,0.462317,-0.14158,11,2
-29.368,24.1317,3.32551,32,10
-8.21142,6.74974,-1.68355,37,3
-24.1769,19.8803,3.84327,12,11
-8.41041,6.91823,-1.33715,64,4
-11.7482,9.66727,2.40972,18,12
-9.21705,7.58445,-1.0443,26,5
-15.4487,12.7168,3.88945,15,13
-8.21316,6.76319,-0.557587,70,6
-9.56926,7.88268,2.86228,68,14
-29.1672,24.035,-0.659701,24,7
-11.6555,9.60806,4.04741,13,15
-9.56337,7.90589,0.216584,25,8
-0.409977,0.339042,-0.122823,15,1
-15.6323,12.9322,1.06326,13,9
-0.564242,0.466782,-0.142344,11,2
-23.724,19.6332,2.69416,64,10
-9.91028,8.20432,-2.03772,16,3
-14.9983,12.4209,2.39108,5,11
-8.40608,6.96401,-1.34032,27,4
-16.2575,13.4733,3.34426,9,12
-8.62445,7.14745,-0.979979,48,5
-8.14646,6.75612,-0.554657,66,6
-9.76966,8.10517,2.93066,23,14
-10.5345,8.74284,-0.238958,26,7
-9.55109,7.95202,0.216933,7,8
-0.408791,0.340471,-0.122823,15,1
-15.5733,12.9751,1.06232,28,9
-0.544509,0.453668,-0.137764,12,2
-23.663,19.7223,2.69503,64,10
-10.0424,8.37295,-2.07088,41,3
-10.8525,9.05163,1.73518,42,11
-8.38782,6.99839,-1.34129,15,4
-10.9449,9.13515,2.25798,11,12
-8.50614,7.09963,-0.969346,40,5
-10.0292,8.37383,2.53967,45,13
-8.19641,6.84597,-0.559681,37,6
-9.5813,8.00552,2.88252,87,14
-10.2539,8.57052,-0.233269,100,7
-9.35173,7.81926,3.2663,46,15
-0.444225,0.372221,-0.155291,12,0
-9.56451,8.01705,0.217841,13,8
-0.40766,0.341825,-0.122823,15,1
-15.7413,13.2038,1.07676,20,9
-0.533977,0.447901,-0.135474,12,2
-23.48,19.702,2.68161,64,10
-8.19443,6.87838,-1.6945,17,3
-10.8057,9.07353,1.73249,54,11
-8.3524,7.01595,-1.33934,42,4
-11.3244,9.51578,2.34276,20,12
-8.26443,6.94451,-0.94442,38,5
-10.0194,8.4222,2.54425,12,13
-8.32194,6.9978,-0.569834,30,6
-9.6919,8.15266,2.92391,100,14
-9.49555,7.99033,-0.216619,9,7
-9.38339,7.89875,3.28648,42,15
-9.50285,8.02201,0.217073,8,8
-15.5929,13.1724,1.06975,31,9
-0.529411,0.447228,-0.134711,12,2
-23.5541,19.9048,2.69799,32,10
-8.12663,6.86996,-1.68543,47,3
-8.45214,7.1502,-1.35933,64,4
-11.2082,9.48507,2.32556,11,12
-8.34051,7.05827,-0.955924,30,5
-15.3738,13.0149,3.9154,28,13
-8.6282,7.3069,-0.592548,27,6
-9.83735,8.33382,2.97655,46,14
-9.49201,8.04411,-0.217178,9,7
-9.31892,7.90022,3.27354,40,15
-9.20361,7.82457,0.21086,52,8
-15.5294,13.2072,1.06839,26,9
-0.554762,0.471973,-0.14158,11,2
-23.4511,19.9584,2.69416,32,10
-9.88496,8.41573,-2.05617,45,3
-16.2583,13.8467,2.62214,25,11
-8.35006,7.114,-1.3469,33,4
-8.32947,7.09897,-0.957493,22,5
-12.6899,10.819,3.24146,7,13
-8.44612,7.20348,-0.581767,40,6
-9.78448,8.34787,2.96935,21,14
-9.43942,8.05348,-0.216584,20,7
-9.31618,7.95115,3.28183,44,15
-9.25812,7.92397,0.21271,25,8
-0.404118,0.346004,-0.122823,15,1
-15.4998,13.2756,1.06954,15,9
-0.532239,0.456023,-0.136238,12,2
-23.5114,20.1517,2.70915,32,10
-12.5985,10.802,2.03766,48,11
-8.2767,7.099,-1.33886,56,4
-9.42681,8.08831,1.96732,9,12
-8.40291,7.21235,-0.968823,31,5
-9.7817,8.39579,2.5057,14,13
-8.61766,7.39929,-0.595269,13,6
-9.83509,8.44757,2.9932,17,14
-8.90922,7.65502,-0.205031,100,7
-9.33672,8.02518,3.29891,24,15
-9.24253,7.96668,0.212989,46,8
-0.456039,0.393225,-0.13902,13,1
-9.09237,7.84279,0.629288,8,9
-0.530724,0.457785,-0.136238,12,2
-23.4143,20.2035,2.70566,32,10
-9.8409,8.49444,-2.05899,20,3
-12.2347,10.5644,1.98476,8,11
-8.25488,7.13045,-1.33934,45,4
-9.42691,8.14571,1.97326,22,12
-8.3699,7.23236,-0.967777,25,5
-9.79965,8.47675,2.9914,19,14
-9.32248,8.06684,-0.215188,29,7
-9.5628,8.27771,3.38898,28,15
-0.437728,0.379841,-0.155291,12,0
-9.24939,8.02904,0.213792,11,8
-0.401693,0.348817,-0.122823,15,1
-15.3615,13.3442,1.0664,13,9
-0.523194,0.454485,-0.134711,12,2
-23.8549,20.7295,2.76493,41,10
-8.67965,7.5451,-1.82152,7,3
-9.90139,8.61018,1.61111,47,11
-8.13109,7.07323,-1.32326,64,4
-8.31004,7.23145,-0.963768,56,5
-8.66973,7.54977,-0.602492,30,6
-13.0644,11.3807,4.00008,19,14
-8.23594,7.17707,-0.190685,100,7
-9.50763,8.2882,3.37966,38,15
-8.22014,7.18605,0.19058,13,8
-0.399006,0.348934,-0.122373,15,1
-13.1492,11.4991,0.915461,11,9
-0.512739,0.448553,-0.132421,13,2
-28.7317,25.1439,3.34033,43,10
-9.83543,8.6133,1.60526,61,11
-8.32264,7.28848,-1.35836,28,4
-9.26724,8.11857,1.95136,52,12
-7.67339,6.72464,-0.892649,48,5
-10.021,8.78507,2.59042,11,13
-15.9876,14.0208,4.90933,9,14
-8.47967,7.43909,-0.196898,100,7
-8.18876,7.20667,0.190406,3,8
-0.438801,0.386311,-0.134971,14,1
-9.47873,8.34487,0.661841,4,9
-0.517142,0.455441,-0.133948,13,2
-27.1756,23.9417,3.16863,10,10
-9.81426,8.65243,1.60648,61,11
-8.20908,7.23727,-1.34373,50,4
-9.06396,7.99377,1.91413,65,12
-7.65702,6.75533,-0.893346,43,5
-10.0065,8.83124,2.59424,8,13
-8.87865,7.83861,-0.620705,81,6
-15.8212,13.9679,4.87244,26,14
-8.47444,7.48437,-0.197352,93,7
-8.26061,7.31865,0.19264,20,8
-0.396683,0.351573,-0.122373,15,1
-0.530319,0.470178,-0.137764,12,2
-37.3395,33.1166,4.3665,18,10
-9.81669,8.7126,1.6116,39,11
-9.66227,8.57857,-1.5865,53,4
-9.064,8.04739,1.91976,65,12
-7.65544,6.7992,-0.895787,22,5
-12.6366,11.2272,3.28573,9,13
-8.85411,7.86934,-0.620809,100,6
-11.2518,10.0039,3.47594,60,14
-8.38681,7.45663,-0.195886,27,7
-9.04651,8.04599,3.24404,53,15
-10.342,9.22411,0.24189,23,8
-0.395515,0.352886,-0.122373,15,1
-9.49324,8.47304,0.666865,8,9
-0.546248,0.487716,-0.142344,11,2
-12.3752,11.053,1.45167,3,10
-7.75685,6.92811,-1.64726,28,3
-12.171,10.8745,2.00402,21,11
-7.88433,7.04693,-1.2984,27,4
-9.07856,8.11716,1.92884,31,12
-7.63908,6.83253,-0.896658,20,5
-9.49994,8.49691,2.47746,10,13
-7.09839,6.35115,-0.49918,70,6
-11.2564,10.075,3.48764,56,14
-8.15215,7.29911,-0.190999,23,7
-9.49613,8.50544,3.41589,24,15
-8.1377,7.30924,0.190929,11,8
-0.452263,0.406363,-0.140369,13,1
-0.512505,0.460652,-0.133948,13,2
-12.3074,11.066,1.44801,12,10
-7.72821,6.95119,-1.64632,22,3
-9.91063,8.91731,1.63695,41,11
-9.59186,8.63351,-1.58455,17,4
-9.05604,8.15409,1.93009,52,12
-7.09547,6.39327,-0.500541,28,6
-11.3326,10.2147,3.52228,100,14
-8.47118,7.6382,-0.199097,100,7
-9.53524,8.60064,3.44074,61,15
-8.13587,7.35906,0.191488,60,8
-0.393042,0.355639,-0.122373,15,1
-0.516716,0.467708,-0.135474,12,2
-12.2938,11.1317,1.45097,3,10
-12.0845,10.9499,2.00231,17,11
-9.61755,8.7176,-1.59381,34,4
-9.04215,8.19892,1.93322,93,12
-8.01452,7.26713,-0.946511,34,5
-9.53201,8.64612,2.50151,56,13
-7.08938,6.43276,-0.501693,77,6
-11.281,10.2397,3.51733,100,14
-8.19427,7.44054,-0.193198,25,7
-9.5023,8.63128,3.43971,13,15
-0.428521,0.390198,-0.155291,12,0
-8.13674,7.41166,0.192116,38,8
-0.391798,0.357009,-0.122373,15,1
-0.51508,0.469509,-0.135474,25,2
-16.4787,15.026,1.95107,9,10
-7.89403,7.20066,-1.69231,42,3
-12.0931,11.0348,2.01011,34,11
-9.52695,8.69625,-1.58381,9,4
-7.9229,7.2346,-0.938667,54,5
-10.0019,9.13615,2.63316,34,13
-7.09047,6.47903,-0.503367,45,6
-11.2984,10.3277,3.53398,31,14
-8.16512,7.46362,-0.193093,27,7
-7.88072,7.22641,0.186636,72,8
-0.419333,0.384652,-0.131371,14,1
-7.89067,7.24061,0.561251,17,9
-0.522116,0.47927,-0.137764,12,2
-15.6087,14.3328,1.85398,16,10
-7.91376,7.26688,-1.70169,38,3
-12.1281,11.1407,2.02206,21,11
-8.42518,7.74192,-1.40491,4,4
-7.98266,7.34043,-0.948777,22,5
-9.79231,9.00449,2.58584,60,13
-7.00574,6.44436,-0.498866,66,6
-14.3888,13.2404,4.51432,30,14
-8.14637,7.49885,-0.193268,100,7
-9.55417,8.79783,3.48008,27,15
-7.8481,7.24709,0.186462,56,8
-0.389359,0.359667,-0.122373,15,1
-9.79869,9.05464,0.699208,22,9
-0.511873,0.473004,-0.135474,12,2
-7.91075,7.31262,0.942502,4,10
-8.02177,7.41785,-1.73048,25,3
-10.1102,9.35236,1.69106,41,11
-8.62831,7.98431,-1.44342,15,4
-7.94219,7.35197,-0.94686,8,5
-9.9236,9.18935,2.62897,40,13
-6.95829,6.4457,-0.497087,73,6
-14.0151,12.9872,4.41129,35,14
-7.2769,6.74556,-0.173198,17,7
-9.72597,9.01896,3.5541,39,15
-0.424481,0.39459,-0.155291,12,0
-8.224,7.64756,0.196025,61,8
-0.41093,0.382261,-0.129572,14,1
-7.81362,7.27103,0.559367,52,9
-0.521716,0.485488,-0.138527,12,2
-7.89976,7.35376,0.944245,27,10
-9.91921,9.24011,1.66449,11,11
-8.58441,7.99949,-1.44074,37,4
-10.3674,9.66438,2.24483,28,12
-7.92523,7.3878,-0.947906,8,5
-10.2447,9.55331,2.72284,10,13
-7.00293,6.53262,-0.501902,63,6
-9.27088,8.65128,2.92751,31,14
-7.22992,6.74909,-0.172639,23,7
-10.711,10.0022,3.9268,16,15
-8.23521,7.71176,0.196933,28,8
-0.42666,0.39968,-0.134971,14,1
-7.71823,7.23271,0.554343,54,9
-0.502828,0.471197,-0.133948,26,2
-9.90427,9.29098,1.66742,41,11
-7.92965,7.44123,-1.3352,16,4
-10.1392,9.51799,2.2026,52,12
-7.80061,7.3227,-0.936053,30,5
-14.0954,13.2365,3.75856,39,13
-9.2108,8.65557,2.91807,87,14
-7.17572,6.74552,-0.171906,70,7
-10.4298,9.80791,3.83622,31,15
-7.80088,7.35632,0.18716,56,8
-0.408252,0.385121,-0.129572,14,1
-9.74836,9.19925,0.702453,26,9
-0.495468,0.467559,-0.132421,13,2
-16.034,15.1361,1.92911,8,10
-7.79716,7.36311,-1.69857,86,3
-9.84869,9.30368,1.66352,86,11
-8.43457,7.9706,-1.4249,39,4
-10.1863,9.62932,2.22012,45,12
-7.83581,7.40737,-0.943374,12,5
-11.1121,10.5081,2.9728,25,13
-9.25413,8.75732,2.94146,72,14
-7.2015,6.81727,-0.173093,96,7
-10.5512,9.99171,3.89367,20,15
-7.6664,7.28023,0.184542,77,8
-0.406905,0.386543,-0.129572,14,1
-7.75426,7.36624,0.560518,65,9
-0.516604,0.490924,-0.138527,12,2
-23.4597,22.3014,2.83186,17,10
-7.94891,7.55907,-1.73736,21,3
-9.84205,9.36263,1.6679,37,11
-8.49442,8.08347,-1.43976,37,4
-10.1171,9.62764,2.21198,44,12
-6.99024,6.65439,-0.844365,34,5
-13.9245,13.2601,3.73757,11,13
-7.0961,6.75989,-0.513625,73,6
-9.2221,8.78822,2.94101,93,14
-7.23097,6.89078,-0.17435,100,7
-10.4565,9.96798,3.8709,11,15
-7.63499,7.2987,0.184367,63,8
-0.405621,0.387891,-0.129572,14,1
-7.99261,7.64591,0.579673,39,9
-0.526234,0.503584,-0.14158,23,2
-11.0907,10.617,1.34324,21,10
-9.03967,8.6536,-1.98203,37,3
-11.0153,10.5485,1.87264,100,11
-10.6178,10.1714,-1.80537,42,4
-10.2645,9.83647,2.25172,66,12
-7.00437,6.7146,-0.848897,32,5
-13.8606,13.2872,3.73222,17,13
-7.13852,6.84559,-0.518335,28,6
-7.19677,6.90628,-0.174105,26,7
-0.417599,0.401865,-0.155291,12,0
-7.52159,7.24071,0.182238,63,8
-0.418301,0.402821,-0.134071,14,1
-7.83054,7.54076,0.569729,51,9
-0.501939,0.483533,-0.135474,25,2
-7.87595,7.59244,-1.73267,53,3
-11.3013,10.8983,1.92773,20,11
-11.1727,10.7743,-1.90579,19,4
-10.8475,10.4643,2.38719,22,12
-7.05088,6.8042,-0.857264,38,5
-11.6742,11.2697,3.15407,10,13
-7.08441,6.84133,-0.516137,49,6
-13.7237,13.2528,4.40454,29,14
-7.12493,6.88287,-0.172918,100,7
-7.58226,7.34772,0.184297,75,8
-0.380584,0.36894,-0.122373,15,1
-8.59565,8.33267,0.627403,24,9
-0.50597,0.490662,-0.137001,12,2
-10.9857,10.6571,1.33906,100,10
-9.93036,9.63664,-2.19165,30,3
-14.9513,14.5141,2.55853,17,11
-9.59579,9.31521,-1.64207,14,4
-10.2784,9.98139,2.26924,39,12
-7.18691,6.98164,-0.876612,29,5
-13.6797,13.2936,3.7078,17,13
-8.57111,8.33213,-0.626461,30,6
-13.7216,13.339,4.41804,16,14
-7.08487,6.88973,-0.1725,23,7
-10.0559,9.78236,3.75909,4,15
-7.72819,7.53899,0.188451,42,8
-0.41841,0.408309,-0.134971,14,1
-9.76297,9.52728,0.714909,75,9
-0.524008,0.511537,-0.142344,22,2
-10.9703,10.7129,1.3415,92,10
-14.8974,14.5581,2.55755,23,11
-10.3684,10.1323,-1.78002,15,4
-10.186,9.95743,2.2561,54,12
-7.2036,7.04444,-0.881493,43,5
-11.3017,11.0558,3.07317,12,13
-8.29934,8.12164,-0.608563,27,6
-9.86379,9.65259,3.18621,20,14
-7.01625,6.86842,-0.171383,78,7
-9.93784,9.73185,3.72699,1,15
-7.84725,7.70609,0.191976,67,8
-0.378129,0.371456,-0.122373,15,1
-7.68959,7.5539,0.564914,26,9
-0.505505,0.496759,-0.137764,24,2
-11.1947,11.0049,1.3734,45,10
-7.05918,6.94188,-1.5681,30,3
-10.9305,10.7527,1.88264,45,11
-9.05831,8.9109,-1.56017,13,4
-7.22422,7.11162,-0.886897,24,5
-7.00626,6.90429,-0.171697,43,7
-7.97533,7.8895,0.195816,50,8
-0.42386,0.419445,-0.13767,13,1
-7.58093,7.50196,0.558948,47,9
-0.517634,0.51242,-0.14158,23,2
-7.78069,7.70501,0.958016,48,10
-7.04912,6.983,-1.57154,35,3
-10.9757,10.8765,1.89726,12,11
-7.77637,7.7088,-1.34446,15,4
-13.9573,13.836,3.11273,6,12
-7.07502,7.016,-0.871732,36,5
-11.5085,11.4165,3.15102,11,13
-7.14373,7.08908,-0.527442,45,6
-9.735,9.6639,3.16686,76,14
-6.99368,6.9426,-0.172011,100,7
-10.0013,9.93167,3.77669,19,15
-7.91654,7.88344,0.195013,10,8
-0.419706,0.418097,-0.13677,13,1
-7.54621,7.51992,0.55832,105,9
-0.504719,0.503135,-0.138527,24,2
-7.72271,7.70117,0.954181,17,10
-7.01474,6.99518,-1.56904,15,3
-14.3518,14.3168,2.48906,5,11
-7.75076,7.73454,-1.34446,31,4
-6.97577,6.96603,-0.862493,49,5
-11.4262,11.4102,3.13881,16,13
-8.56993,8.56096,-0.634835,35,6
-9.66706,9.66031,3.15516,13,14
-7.03728,7.03483,-0.173686,17,7
-9.6496,9.6496,3.6566,14,15
-7.41171,7.43243,0.183215,11,8
-0.374218,0.375395,-0.122373,15,1
-7.91044,7.93809,0.587314,43,9
-0.503047,0.504806,-0.138527,24,2
-14.7812,14.838,1.83236,16,10
-8.37161,8.40674,-1.87909,8,3
-10.6409,10.6893,1.85193,16,11
-7.70691,7.74467,-1.34154,38,4
-7.13108,7.16852,-0.884631,42,5
-11.5289,11.5934,3.17811,23,13
-7.04321,7.08513,-0.523569,17,6
-9.533,9.59309,3.12232,68,14
-6.96618,7.01253,-0.172534,25,7
-9.56005,9.62703,3.63537,13,15
-7.40401,7.47673,0.183669,38,8
-0.416777,0.421017,-0.13677,13,1
-7.61295,7.69309,0.567217,127,9
-0.51233,0.517723,-0.14158,23,2
-15.0908,15.255,1.87733,17,10
-6.7935,6.86981,-1.53024,27,3
-14.2808,14.4463,2.49418,11,11
-8.63841,8.74155,-1.50899,25,4
-10.4993,10.6283,2.36623,28,12
-6.9982,7.08422,-0.871209,28,5
-11.4773,11.6224,3.17506,14,13
-6.93986,7.03008,-0.517707,42,6
-9.26677,9.3905,3.04584,46,14
-7.02592,7.12222,-0.174629,97,7
-0.406432,0.413155,-0.155291,12,0
-7.15073,7.27155,0.178015,60,8
-0.407108,0.414131,-0.134071,14,1
-7.88842,8.02451,0.589722,33,9
-0.513272,0.522309,-0.142344,22,2
-15.2218,15.4952,1.90034,4,10
-6.80131,6.9259,-1.53744,17,3
-14.2957,14.5626,2.50563,5,11
-7.29394,7.43274,-1.27865,46,4
-9.40417,9.58312,2.12657,31,12
-7.29712,7.43858,-0.911649,56,5
-9.64966,9.84016,2.67896,4,13
-6.73072,6.86599,-0.503891,66,6
-9.25302,9.44228,3.05214,29,14
-6.89869,7.03979,-0.172046,100,7
-9.351,9.54559,3.5805,20,15
-6.99242,7.1579,0.174664,86,8
-0.392117,0.401537,-0.129572,14,1
-7.27579,7.45318,0.545864,131,9
-0.511445,0.524097,-0.142344,22,2
-7.50867,7.6971,0.940759,23,10
-6.77003,6.93993,-1.53556,43,3
-11.9522,12.2564,2.102,9,11
-7.12653,7.31047,-1.25355,45,4
-9.38169,9.62721,2.12907,45,12
-7.488,7.68664,-0.938842,32,5
-17.1174,17.5715,4.76832,15,13
-6.78316,6.96554,-0.509543,42,6
-9.4378,9.69493,3.12367,61,14
-6.88244,7.07243,-0.172255,21,7
-9.34861,9.61002,3.59241,23,15
-6.94233,7.15643,0.174035,83,8
-0.412419,0.425286,-0.13677,13,1
-7.13296,7.35807,0.537072,37,9
-0.490574,0.506056,-0.137001,24,2
-9.83743,10.1514,1.23674,10,10
-6.64406,6.85852,-1.51241,66,3
-7.13686,7.37239,-1.25989,30,4
-9.34115,9.6528,2.12751,58,12
-7.47913,7.73135,-0.941108,16,5
-9.68074,10.0072,2.70643,24,13
-6.84489,7.07819,-0.516033,42,6
-9.46349,9.78947,3.14347,23,14
-6.98529,7.25119,0.175746,31,8
-0.394711,0.409879,-0.131371,14,1
-7.05459,7.32824,0.533094,78,9
-0.499606,0.519167,-0.140054,23,2
-9.68965,10.0726,1.2228,42,10
-6.52987,6.79028,-1.49207,56,3
-10.1037,10.5067,1.78977,40,11
-7.19363,7.48312,-1.27451,56,4
-9.30604,9.68392,2.1272,79,12
-7.66328,7.97724,-0.967777,10,5
-16.7805,17.4741,4.70917,23,13
-6.85071,7.13637,-0.51844,73,6
-9.54629,9.94782,3.18306,40,14
-7.08905,7.38723,-0.178713,8,7
-10.7403,11.196,4.15715,10,15
-6.98078,7.29987,0.176304,65,8
-0.366274,0.38315,-0.122373,15,1
-8.06958,8.44138,0.612017,25,9
-0.492365,0.515231,-0.138527,24,2
-9.77417,10.2317,1.23796,47,10
-6.54979,6.85875,-1.50208,47,3
-10.0309,10.5077,1.78368,27,11
-7.07974,7.41629,-1.25891,41,4
-7.60926,7.97655,-0.964465,24,5
-9.58856,10.0549,2.70071,4,13
-9.55358,10.0217,3.19655,24,14
-7.05218,7.40034,-0.178433,97,7
-12.4361,13.0546,4.83112,18,15
-0.399233,0.420116,-0.155291,12,0
-6.89456,7.25773,0.174733,62,8
-0.402575,0.423929,-0.134971,14,1
-8.05117,8.47823,0.612749,29,9
-0.504171,0.531099,-0.142344,22,2
-9.71412,10.2366,1.23465,21,10
-6.50117,6.8532,-1.49614,66,3
-9.95091,10.4934,1.77564,34,11
-6.8065,7.17757,-1.21455,20,4
-10.2891,10.8538,2.36873,50,12
-7.58824,8.00753,-0.965163,42,5
-9.46,9.98969,3.17631,42,14
-7.0276,7.42369,-0.178433,27,7
-12.4233,13.1281,4.84302,18,15
-6.87732,7.28783,0.174908,71,8
-0.363725,0.385571,-0.122373,15,1
-7.33503,7.7783,0.560309,65,9
-0.497019,0.527055,-0.140817,23,2
-17.574,18.6426,2.24147,47,10
-8.74355,9.27843,-2.01926,20,3
-9.9392,10.5509,1.77978,42,11
-6.80726,7.22875,-1.21918,59,4
-7.52887,7.99783,-0.960979,22,5
-12.6754,13.4696,3.59522,18,13
-7.8127,8.30514,-0.597572,67,6
-9.46913,10.0695,3.19116,24,14
-6.99343,7.43943,-0.178224,24,7
-12.1922,12.9743,4.77055,28,15
-6.89012,7.35265,0.175885,75,8
-0.397016,0.423815,-0.134071,14,1
-7.32421,7.82135,0.561565,36,9
-0.489808,0.523054,-0.139291,24,2
-17.5088,18.7038,2.24147,47,10
-9.86918,10.5464,-2.2877,39,3
-16.5133,17.6527,2.96801,16,11
-6.73996,7.20752,-1.21163,45,4
-10.6717,11.416,2.47511,5,12
-7.42744,7.94547,-0.951566,38,5
-12.0237,12.8668,3.42311,12,13
-7.92136,8.47977,-0.608144,54,6
-10.9581,11.7347,3.70674,26,14
-6.92921,7.42287,-0.177247,100,7
-9.13383,9.78798,3.58723,19,15
-6.83308,7.34298,0.175083,98,8
-0.403498,0.43376,-0.13677,13,1
-7.63424,8.2068,0.587419,17,9
-0.487979,0.524761,-0.139291,24,2
-14.9,16.0287,1.91464,13,10
-6.84308,7.36403,-1.59219,37,3
-9.95311,10.7146,1.79562,32,11
-6.7579,7.27492,-1.21918,52,4
-7.25191,7.81218,-0.932566,24,5
-12.3807,13.3419,3.53798,15,13
-7.16638,7.72545,-0.552249,59,6
-8.3336,8.98687,-0.213932,48,7
-9.17487,9.89756,3.61622,12,15
-0.393477,0.425512,-0.155291,12,0
-6.67838,7.22463,0.171732,60,8
-0.359735,0.389296,-0.122373,15,1
-7.65442,8.28341,0.591082,54,9
-0.488901,0.529261,-0.140054,23,2
-9.14134,9.89944,1.17887,67,10
-6.8012,7.36781,-1.58812,57,3
-8.04764,8.72114,1.45707,23,11
-6.71759,7.27978,-1.21626,64,4
-10.6734,11.5707,2.49325,31,12
-6.83022,7.40703,-0.881493,22,5
-12.2273,13.2645,3.50669,15,13
-8.75673,9.50288,-0.677227,42,6
-11.1851,12.1382,3.81067,32,14
-6.89067,7.48043,-0.177526,100,7
-9.15377,9.94072,3.62088,20,15
-6.74095,7.34101,0.173966,86,8
-0.392705,0.427813,-0.134071,14,1
-7.61466,8.2983,0.590245,112,9
-0.495107,0.539558,-0.142344,22,2
-7.44515,8.11642,0.963594,10,10
-7.99831,8.7225,-1.8744,12,3
-9.81342,10.7057,1.78319,27,11
-6.72566,7.33977,-1.22235,63,4
-10.6917,11.672,2.50702,45,12
-6.8137,7.43845,-0.882539,29,5
-9.80806,10.7149,-0.761279,35,6
-7.18844,7.85856,-0.185903,22,7
-9.05514,9.90275,3.59551,29,15
-6.72741,7.37779,0.17428,90,8
-0.378082,0.414779,-0.129572,14,1
-7.5278,8.26135,0.585744,63,9
-0.490577,0.538381,-0.14158,23,2
-7.41812,8.14384,0.963768,23,10
-6.87325,7.54831,-1.61691,18,3
-9.80138,10.7678,1.78782,24,11
-6.55438,7.20317,-1.19578,57,4
-10.6482,11.7063,2.50639,26,12
-7.10006,7.8056,-0.923154,31,5
-12.1103,13.3184,3.49906,27,13
-9.71686,10.6899,-0.757092,35,6
-11.2233,12.3515,3.85296,28,14
-9.03792,9.94998,-0.23463,90,7
-8.9361,9.84133,3.56187,40,15
-6.64927,7.34342,0.172918,73,8
-0.381863,0.421875,-0.131371,14,1
-7.47624,8.25962,0.58386,43,9
-0.492646,0.544457,-0.142725,45,2
-7.36158,8.13865,0.960108,17,10
-6.85481,7.58104,-1.61878,11,3
-12.1624,13.4557,2.22704,47,11
-6.46664,7.15678,-1.18433,66,4
-10.5325,11.6566,2.48825,57,12
-6.77095,7.49619,-0.883759,24,5
-15.5056,17.1725,4.49737,28,13
-7.16493,7.93794,-0.560413,74,6
-15.7937,17.5037,5.44292,24,14
-8.89771,9.86112,-0.231838,22,7
-9.04834,10.0316,3.61984,36,15
-6.70913,7.45909,0.175117,90,8
-0.37525,0.417343,-0.129572,14,1
-7.28848,8.1089,0.571404,38,9
-0.495991,0.552015,-0.144252,44,2
-7.24659,8.06795,0.948777,55,10
-6.83095,7.6052,-1.6191,51,3
-12.1177,13.4959,2.22704,71,11
-6.6895,7.45296,-1.22966,56,4
-10.8889,12.1358,2.58242,51,12
-6.63965,7.40261,-0.869989,24,5
-11.8634,13.2266,3.45364,11,13
-6.98391,7.78916,-0.548272,42,6
-12.1353,13.5392,4.19759,12,14
-7.4781,8.3462,-0.195607,28,7
-9.10091,10.161,3.65504,32,15
-6.65375,7.44966,0.17435,22,8
-0.38677,0.433186,-0.134071,14,1
-0.49285,0.552192,-0.14387,55,2
-7.25428,8.13059,0.95331,40,10
-6.79647,7.62016,-1.61722,27,3
-9.62129,10.7911,1.77515,11,11
-6.65552,7.46737,-1.2282,53,4
-10.7058,12.0159,2.54894,11,12
-6.61639,7.42607,-0.870163,33,5
-11.8145,13.265,3.45288,2,13
-6.85308,7.69714,-0.540107,52,6
-16.1807,18.18,5.61883,26,14
-7.18707,8.07794,-0.18873,22,7
-9.15269,10.2908,3.69024,48,15
-6.63036,7.47583,0.174419,48,8
-0.387841,0.43745,-0.134971,14,1
-0.488315,0.55097,-0.143107,56,2
-7.48878,8.45263,0.987997,23,10
-7.89224,8.91115,-1.88535,5,3
-7.89397,8.91623,1.46219,14,11
-6.41892,7.25271,-1.1892,30,4
-6.66832,7.53716,-0.880447,63,5
-15.1901,17.1753,4.45692,12,13
-6.82882,7.724,-0.540316,70,6
-8.89548,10.0651,3.10118,42,14
-7.10057,8.03703,-0.187195,26,7
-6.591,7.48392,0.17407,11,8
-0.373434,0.424175,-0.130472,14,1
-7.3049,8.29745,0.579359,17,9
-0.498063,0.565936,-0.146541,53,2
-7.60005,8.63878,1.00665,40,10
-7.95241,9.04248,-1.90725,11,3
-7.77498,8.84385,1.44586,37,11
-9.86094,11.2205,-1.83413,18,4
-9.44551,10.7516,-1.25208,25,5
-12.3072,14.0139,3.62537,40,13
-9.91942,11.299,-0.78797,26,6
-8.84359,10.0771,3.09533,10,14
-8.2267,9.37415,-0.217701,38,7
-8.95503,10.2077,3.63848,9,15
-0.381595,0.436199,-0.155291,12,0
-7.19288,8.22215,0.190685,52,8
-0.36946,0.422477,-0.129572,14,1
-7.12998,8.15599,0.56774,8,9
-0.485749,0.555844,-0.143488,55,2
-7.20544,8.24812,0.95819,17,10
-6.2043,7.10211,-1.49364,51,3
-7.75475,8.88005,1.44756,47,11
-9.82891,11.2591,-1.83511,16,4
-10.101,11.5749,2.43318,24,12
-6.57231,7.53398,-0.874695,59,5
-10.9752,12.5811,3.24528,20,13
-9.96591,11.4282,-0.794669,32,6
-6.96425,7.99171,-0.18503,28,7
-8.94726,10.2709,3.64987,13,15
-7.20085,8.28947,0.191662,62,8
-0.370538,0.426707,-0.130472,14,1
-7.10551,8.18261,0.56795,27,9
-0.487764,0.5619,-0.144633,55,2
-7.07359,8.15158,0.944245,55,10
-6.25326,7.20878,-1.51147,33,3
-7.73801,8.92356,1.45025,37,11
-6.47132,7.46543,-1.21309,60,4
-15.7776,18.2013,3.81512,26,12
-6.66733,7.69426,-0.890732,91,5
-10.9068,12.5912,3.23803,39,13
-9.83052,11.3527,-0.787028,29,6
-8.79647,10.1621,3.10297,82,14
-6.89452,7.96487,-0.183879,35,7
-8.90557,10.2917,3.64676,18,15
-7.14719,8.28303,0.190964,63,8
-0.389487,0.451543,-0.13767,13,1
-7.06256,8.19072,0.566799,47,9
-0.474263,0.550216,-0.141199,46,2
-7.49768,8.70149,1.00491,25,10
-7.07261,8.20817,-1.71609,17,3
-9.51693,11.0488,1.7905,24,11
-6.26648,7.27775,-1.17921,8,4
-15.7616,18.3117,3.8267,23,12
-6.721,7.81113,-0.901539,35,5
-10.7843,12.5335,3.21399,41,13
-6.6488,7.72994,-0.53435,77,6
-8.8542,10.2976,3.13537,29,14
-6.86407,7.98585,-0.183809,21,7
-9.81887,11.4276,4.03706,23,15
-7.08817,8.27575,0.190196,45,8
-0.370085,0.432244,-0.131371,14,1
-9.30782,10.875,0.750184,47,9
-0.474893,0.554851,-0.141962,34,2
-7.50353,8.76999,1.00979,61,10
-7.35448,8.59883,-1.79211,47,3
-7.75164,9.06639,1.46463,28,11
-6.31587,7.3897,-1.19359,45,4
-10.7632,12.5976,2.62434,18,12
-6.56816,7.6876,-0.884631,43,5
-10.8352,12.6864,3.24299,16,13
-6.6295,7.76489,-0.535083,14,6
-8.80249,10.3137,3.13042,14,14
-6.82826,8.00335,-0.183634,37,7
-11.4417,13.4155,4.72448,16,15
-7.05147,8.29131,0.189987,28,8
-0.363525,0.427594,-0.129572,14,1
-8.50929,10.0125,0.688637,57,9
-0.475496,0.559497,-0.142725,22,2
-7.56962,8.91001,1.02286,17,10
-7.40114,8.71479,-1.81089,22,3
-9.70357,11.4299,1.84096,32,11
-6.21938,7.32846,-1.18018,37,4
-11.9357,14.0692,2.9222,18,12
-6.58639,7.76366,-0.890732,45,5
-9.68527,11.4245,-0.784935,29,6
-8.75635,10.3324,3.12682,23,14
-6.79382,8.01951,-0.18346,24,7
-10.8904,12.8597,4.51536,12,15
-7.17214,8.4931,0.194036,72,8
-0.357002,0.422904,-0.127772,14,1
-8.45414,10.0147,0.686857,52,9
-0.459613,0.544649,-0.138527,24,2
-7.35413,8.72094,-1.80682,67,3
-9.39237,11.1419,1.78929,32,11
-6.29866,7.4746,-1.20017,74,4
-15.2915,18.1464,3.75849,18,12
-6.4463,7.65251,-0.875392,42,5
-10.5896,12.5755,3.19567,30,13
-7.66327,9.10365,-0.623635,13,6
-8.69263,10.3301,3.11692,46,14
-7.4367,8.83762,-0.20161,100,7
-8.70878,10.353,3.62502,30,15
-0.372454,0.44403,-0.155291,12,0
-7.15293,8.52756,0.19428,53,8
-0.38064,0.453951,-0.13677,13,1
-7.55181,9.00947,0.616099,49,9
-0.455187,0.54324,-0.137764,24,2
-7.53538,8.99624,1.02669,48,10
-7.37337,8.80282,-1.81871,28,3
-9.35792,11.1761,1.78977,32,11
-6.30569,7.5335,-1.20626,66,4
-10.3984,12.4275,2.56646,18,12
-6.43105,7.68872,-0.876961,15,5
-10.602,12.6753,3.21208,27,13
-7.17311,8.57894,-0.586058,91,6
-10.1405,12.1322,3.65051,16,14
-7.46607,8.93565,-0.203251,100,7
-8.66887,10.3789,3.62347,21,15
-7.04634,8.46028,0.192186,60,8
-0.379053,0.455277,-0.13677,13,1
-7.74646,9.3075,0.634626,23,9
-0.46971,0.564364,-0.142725,22,2
-6.86582,8.25231,0.93919,19,10
-7.31986,8.80117,-1.81308,10,3
-10.3735,12.4771,1.99232,4,11
-6.41639,7.72034,-1.23259,22,4
-10.2615,12.3513,2.54331,48,12
-6.38897,7.69008,-0.874695,36,5
-9.77247,11.7668,2.97319,21,13
-7.11888,8.57473,-0.584069,74,6
-10.077,12.1421,3.64286,68,14
-7.0786,8.53227,-0.193512,9,7
-8.63135,10.4076,3.62295,12,15
-7.07029,8.54955,0.193652,66,8
-0.399811,0.483632,-0.144868,12,1
-7.47728,9.04812,0.615157,73,9
-0.457732,0.553893,-0.139672,47,2
-10.2377,12.3928,1.40635,18,10
-8.23371,9.97056,-2.04804,20,3
-12.046,14.5922,2.32332,30,11
-6.45762,7.82537,-1.24575,53,4
-10.2121,12.3794,2.54175,30,12
-6.49521,7.87371,-0.892998,9,5
-7.1321,8.65193,-0.587628,70,6
-10.0494,12.1952,3.64826,28,14
-6.94834,8.435,-0.190755,29,7
-8.64655,10.5003,3.64469,49,15
-6.64701,8.09508,0.182831,21,8
-0.386993,0.471468,-0.140819,13,1
-0.484438,0.590395,-0.148449,41,2
-10.4396,12.7366,2.02206,17,11
-10.2109,12.462,-1.97818,15,4
-11.5106,14.0482,2.87652,34,12
-6.90198,8.42656,-0.952961,22,5
-7.28781,8.90397,-0.603015,23,6
-6.93805,8.47966,-0.191243,33,7
-10.2653,12.5507,4.34454,6,15
-7.25207,8.89191,0.200284,42,8
-0.355874,0.4365,-0.130022,14,1
-6.84645,8.40056,0.56795,27,9
-0.460054,0.564685,-0.14158,57,2
-8.61721,10.5808,1.19386,32,10
-6.42924,7.89427,-1.61253,5,3
-11.4827,14.1043,2.23313,23,11
-6.44055,7.9138,-1.25282,1,4
-10.2049,12.5437,2.56115,41,12
-9.5363,11.726,-1.32233,13,5
-9.65698,11.8744,2.97509,29,13
-7.0932,8.72507,-0.589303,43,6
-8.40406,10.3412,3.07643,17,14
-6.85167,8.43398,-0.189673,28,7
-10.3067,12.6914,4.38077,15,15
-7.1052,8.7742,0.197073,60,8
-0.37887,0.468033,-0.13902,13,1
-6.82484,8.43098,0.568473,73,9
-0.465589,0.575365,-0.14387,55,2
-8.60338,10.6357,1.19682,86,10
-7.31208,9.04257,-1.84186,37,3
-10.3003,12.7425,2.01182,4,11
-6.428,7.95209,-1.2555,57,4
-9.94967,12.3132,2.50733,23,12
-7.8285,9.69158,-1.08997,26,5
-9.60313,11.8928,2.97128,15,13
-9.23999,11.4472,3.39631,24,14
-7.6738,9.51024,-0.213303,100,7
-11.6229,14.4096,4.96053,8,15
-7.07607,8.79771,0.197073,56,8
-0.372432,0.463212,-0.13722,13,1
-6.6717,8.29791,0.558006,75,9
-0.461218,0.573845,-0.143107,56,2
-8.59177,10.6936,1.20013,39,10
-7.28453,9.06985,-1.84249,57,3
-9.45263,11.7735,1.85388,52,11
-6.45503,8.03993,-1.26598,23,4
-10.072,12.5494,2.54863,45,12
-7.20907,8.98552,-1.00787,11,5
-10.2503,12.7807,3.1846,46,13
-7.76325,9.68319,-0.650431,19,6
-9.56157,11.9263,3.52903,54,14
-8.40882,10.4922,-0.2347,81,7
-10.2645,12.8122,4.39889,5,15
-7.03313,8.80394,0.196689,37,8
-0.380622,0.476627,-0.140819,13,1
-6.69627,8.38827,0.562507,47,9
-0.466662,0.584577,-0.145396,43,2
-6.75305,8.46242,0.947209,21,10
-7.22362,9.05535,-1.83466,47,3
-9.40611,11.7955,1.85241,20,11
-6.76226,8.48307,-1.33203,38,4
-10.0318,12.5892,2.54957,35,12
-6.93186,8.70207,-0.973355,8,5
-9.88857,12.4138,3.085,27,13
-9.66449,12.1369,-0.813092,16,6
-9.55387,12.0023,3.54163,56,14
-10.5909,13.3099,-0.2969,15,7
-8.68161,10.9143,3.73683,27,15
-6.82341,8.60283,0.191662,52,8
-0.362006,0.456574,-0.134521,14,1
-6.58259,8.30516,0.555389,43,9
-0.462078,0.583206,-0.144633,44,2
-8.5268,10.7659,1.20153,21,10
-7.23084,9.13287,-1.84499,12,3
-9.39692,11.8687,1.85875,12,11
-6.31374,7.97739,-1.24916,16,4
-10.0123,12.6551,2.55583,27,12
-6.941,8.77622,-0.978933,2,5
-9.93798,12.5701,3.11477,39,13
-9.61499,12.1659,-0.812673,39,6
-9.47598,11.9944,3.52903,56,14
-7.23827,9.16196,-0.203809,28,7
-8.70692,11.0249,3.76426,32,15
-6.82276,8.66706,0.192535,20,8
-0.389253,0.494652,-0.145318,12,1
-6.499,8.26173,0.550888,38,9
-0.45397,0.5771,-0.142725,45,2
-6.77976,8.62173,0.959585,27,10
-7.32466,9.31802,-1.87721,42,3
-9.28467,11.8157,1.8451,44,11
-6.2489,7.95521,-1.24209,13,4
-11.6531,14.8404,2.98852,45,12
-7.19456,9.16238,-1.0192,45,5
-9.90979,12.6248,3.11973,9,13
-9.63781,12.2827,-0.81822,26,6
-9.50261,12.1148,3.55468,24,14
-6.69012,8.53222,-0.189254,24,7
-9.86894,12.5908,4.28656,10,15
-6.77029,8.66247,0.191907,51,8
-0.361129,0.462224,-0.135421,13,1
-6.46275,8.27492,0.55026,53,9
-0.456787,0.584871,-0.144252,22,2
-11.5105,14.7434,1.63644,16,10
