x, y, z, intensity, ring
-12.3919,8.17095,1.29862,100,10
-0.718942,0.474235,-0.136411,18,3
-12.0554,7.95509,1.77344,3,11
-1.29552,0.855213,-0.190604,58,4
-1.30013,0.858584,-0.136312,54,5
-10.926,7.21803,2.54539,27,13
-1.32467,0.875453,-0.0832142,52,6
-13.9469,9.22078,-0.291839,100,7
-11.5064,7.61015,3.69645,23,15
-12.766,8.46886,0.267406,36,8
-22.2237,14.7542,1.398,14,9
-0.556045,0.369295,-0.12975,13,2
-12.3368,8.19651,1.29583,48,10
-0.712429,0.473337,-0.135472,26,3
-12.0223,7.99063,1.77247,7,11
-1.30425,0.867198,-0.19231,51,4
-1.30708,0.869739,-0.137357,40,5
-10.5391,7.01278,2.46067,52,13
-1.34504,0.895334,-0.0846796,11,6
-11.5293,7.67746,3.1979,20,14
-13.9113,9.26719,-0.291769,100,7
-11.4476,7.62884,3.6861,28,15
-12.7563,8.52671,0.267825,37,8
-0.564608,0.377687,-0.13204,13,2
-0.692716,0.463733,-0.132031,36,3
-11.9861,8.02703,1.77125,15,11
-1.30451,0.873955,-0.192797,42,4
-1.33233,0.892926,-0.140321,9,5
-10.5146,7.04952,2.46067,21,13
-11.0186,7.39301,3.06338,23,14
-13.8889,9.32238,-0.291979,28,7
-11.3648,7.63106,3.66798,28,15
-14.1711,9.54414,0.298227,14,8
-11.5768,7.80276,0.731657,11,9
-0.573054,0.386239,-0.13433,12,2
-12.4706,8.40839,1.31588,5,10
-0.710745,0.479404,-0.135785,58,3
-11.9728,8.07881,1.77344,15,11
-1.3031,0.879614,-0.193041,17,4
-14.2623,9.63089,2.72571,45,12
-13.7065,9.25557,-1.44696,31,5
-11.1504,7.53236,2.61561,40,13
-13.6143,9.20023,-0.861136,48,6
-10.8652,7.34521,3.02784,44,14
-12.5557,8.49448,4.06191,6,15
-13.5139,9.17024,0.285068,8,8
-0.440168,0.298801,-0.122823,15,1
-11.5558,7.84447,0.731971,26,9
-0.537595,0.365075,-0.126316,14,2
-12.2912,8.34999,1.30001,28,10
-0.723772,0.491874,-0.138601,46,3
-12.0496,8.19198,1.78904,12,11
-14.1535,9.62592,2.71101,11,12
-13.1815,8.96825,-1.39484,93,5
-11.0753,7.5381,2.60416,42,13
-10.8556,7.39406,3.03234,68,14
-11.2849,7.68646,-0.23833,100,7
-11.9592,8.1488,3.87763,21,15
-13.4438,9.18792,0.28423,17,8
-11.5267,7.88364,0.731866,54,9
-0.588167,0.402425,-0.138527,12,2
-12.364,8.46261,1.31082,17,10
-0.710726,0.486462,-0.136411,31,3
-11.9225,8.16348,1.77417,11,11
-13.8607,9.49773,2.66126,13,12
-11.1572,7.64805,2.62935,44,13
-14.0076,9.60557,-0.89013,37,6
-10.8101,7.41569,3.02649,57,14
-21.5794,14.8089,-0.456834,38,7
-11.6694,8.01119,3.79273,11,15
-13.6389,9.39129,0.289047,4,8
-11.1123,7.65443,0.707164,10,9
-0.548031,0.377638,-0.129368,13,2
-14.0943,9.71578,1.49768,29,10
-0.700892,0.483333,-0.134847,26,3
-11.6276,8.02131,1.73444,42,11
-8.93201,6.16408,-1.33252,52,4
-21.5062,14.8417,4.13863,24,12
-12.7431,8.79742,-1.35475,2,5
-13.9674,9.64987,-0.889711,33,6
-10.7986,7.46335,3.03054,70,14
-13.9104,9.61405,-0.295155,30,7
-11.619,8.03336,3.78497,23,15
-13.6652,9.47635,0.290268,39,8
-0.437121,0.303242,-0.122823,15,1
-0.591865,0.410897,-0.140054,11,2
-11.4289,7.9374,1.21739,5,10
-0.689551,0.478893,-0.132969,14,3
-11.3564,7.88993,1.69788,7,11
-8.9262,6.20386,-1.33471,56,4
-11.3386,7.88345,2.18727,0,12
-14.6391,10.182,-1.56009,13,5
-13.9107,9.67902,-0.888141,54,6
-10.769,7.49578,3.02919,36,14
-13.8505,9.64427,-0.294597,36,7
-11.621,8.09485,3.79481,13,15
-13.6353,9.52629,0.290338,37,8
-11.4152,7.97818,0.729877,42,9
-0.596935,0.417358,-0.14158,11,2
-11.3209,7.91816,1.20868,26,10
-9.504,6.64983,-1.83717,2,3
-14.1065,9.87377,2.11419,4,11
-8.93375,6.25548,-1.3391,72,4
-11.2638,7.88702,2.17788,4,12
-14.2821,10.0042,-1.52557,12,5
-14.428,10.1139,-0.923416,42,6
-10.8257,7.5915,3.05259,31,14
-13.6891,9.59944,-0.291839,30,7
-11.5055,8.07121,3.76582,33,15
-13.5873,9.55995,0.289989,48,8
-11.5424,8.12721,0.739821,47,9
-0.556953,0.392305,-0.132421,13,2
-11.2883,7.95419,1.20815,57,10
-9.37048,6.6028,-1.81558,2,3
-11.6431,8.20722,1.74907,42,11
-8.93729,6.30223,-1.34276,34,4
-14.8999,10.5146,-1.59547,20,5
-11.0055,7.7664,2.61828,20,13
-13.8103,9.7493,-0.885943,64,6
-11.0631,7.81285,3.12682,74,14
-18.8786,13.3371,-0.403465,75,7
-11.2911,7.97976,3.70474,28,15
-21.4923,15.2343,0.459836,18,8
-0.433975,0.307727,-0.122823,15,1
-0.555649,0.39415,-0.132421,13,2
-11.2635,7.99273,1.20833,76,10
-9.30872,6.60803,-1.80807,8,3
-11.6888,8.30069,1.76028,73,11
-8.91362,6.33224,-1.34251,39,4
-11.4047,8.10193,2.21574,44,12
-13.2977,9.45021,-1.42726,24,5
-13.7713,9.79397,-0.885629,97,6
-12.738,9.06245,3.60911,30,14
-10.9642,7.80052,-0.234874,32,7
-11.9886,8.53244,3.94285,16,15
-13.4666,9.61271,0.288802,13,8
-0.432953,0.309164,-0.122823,15,1
-24.5647,17.5477,1.58212,12,9
-0.541492,0.386956,-0.129368,13,2
-11.2161,8.0181,1.20624,57,10
-9.27229,6.62852,-1.80525,10,3
-12.2232,8.74125,1.8451,60,11
-9.67237,6.91963,-1.46024,34,4
-13.2971,9.51976,-1.43075,14,5
-10.9332,7.82742,2.6137,47,13
-13.6997,9.81167,-0.883117,54,6
-11.7764,8.43729,3.34457,72,14
-11.1125,7.9675,3.66384,12,15
-13.3907,9.63281,0.28793,26,8
-0.431817,0.310749,-0.122823,15,1
-26.627,19.1616,1.71924,14,9
-0.584751,0.42096,-0.140054,11,2
-11.3546,8.17712,1.22419,78,10
-9.19184,6.62205,-1.7943,12,3
-11.8062,8.5086,1.78685,20,11
-13.4584,9.70292,-2.03717,40,4
-10.8528,7.82439,2.11906,15,12
-8.9831,6.47881,-0.968998,23,5
-11.3041,8.15576,2.70949,54,13
-11.1097,8.0185,-0.718049,61,6
-12.1072,8.74163,3.4476,27,14
-14.6206,10.5563,-0.314772,100,7
-11.094,8.01303,3.66695,10,15
-13.3214,9.65018,0.287127,53,8
-0.430784,0.312179,-0.122823,15,1
-26.416,19.1501,1.70992,7,9
-0.570563,0.413778,-0.137001,12,2
-11.4711,8.32201,1.23988,23,10
-9.10747,6.60725,-1.7821,13,3
-11.4919,8.34016,1.74346,31,11
-15.3152,11.119,-2.3238,12,4
-10.99,7.98179,2.15129,11,12
-8.97493,6.52067,-0.970566,29,5
-10.9641,7.96587,2.63431,13,13
-16.4986,11.9914,-1.06891,28,6
-11.7046,8.51013,3.34097,31,14
-16.2704,11.8341,-0.351177,29,7
-13.2473,9.66715,0.286254,76,8
-0.454875,0.332065,-0.130022,14,1
-0.604069,0.441141,-0.145396,10,2
-11.2327,8.20604,1.21704,63,10
-9.10668,6.65532,-1.78648,13,3
-11.4916,8.40131,1.74785,7,11
-13.3295,9.7486,-2.02766,18,4
-20.3172,14.8645,3.9872,28,12
-8.99828,6.58334,-0.975447,31,5
-16.2343,11.886,-1.05446,23,6
-11.8352,8.66839,3.38686,54,14
-16.5435,12.1213,-0.357984,36,7
-10.8041,7.91898,3.5893,23,15
-0.428594,0.315179,-0.122823,15,1
-11.5883,8.52495,0.753952,15,9
-0.596199,0.438593,-0.14387,11,2
-11.228,8.26291,1.21966,23,10
-9.03567,6.65194,-1.7771,2,3
-11.7898,8.68269,1.79782,28,11
-13.1947,9.72089,-2.01231,33,4
-11.0024,8.10871,2.16474,41,12
-8.9993,6.63244,-0.978062,48,5
-10.8039,7.96532,2.60912,48,13
-14.7686,10.8923,-0.961726,14,6
-11.5712,8.53726,3.31983,13,14
-16.633,12.2764,-0.360846,45,7
-10.9551,8.0886,3.64883,27,15
-14.4699,10.715,0.314283,20,8
-0.427491,0.316673,-0.122823,15,1
-11.1058,8.22688,0.72433,46,9
-0.626212,0.464049,-0.151502,9,2
-11.2632,8.34951,1.22663,42,10
-9.02509,6.69285,-1.7796,6,3
-11.7355,8.70605,1.79416,44,11
-9.96459,7.39496,-1.52361,18,4
-10.9453,8.12278,2.1588,44,12
-9.00169,6.68281,-0.980851,53,5
-10.7067,7.95149,2.59233,50,13
-8.9428,6.64393,-0.58386,40,6
-11.4631,8.51947,3.29733,9,14
-13.3309,9.90763,-0.289919,7,7
-10.9282,8.12489,3.64883,11,15
-0.470176,0.350714,-0.135421,13,1
-11.0947,8.27874,0.725481,24,9
-0.564804,0.421605,-0.137001,12,2
-11.2339,8.38878,1.22663,76,10
-13.3808,9.99192,-2.64499,15,3
-11.7177,8.75324,1.79587,16,11
-10.8947,8.14438,2.15442,42,12
-10.674,7.98224,2.5908,12,13
-8.9671,6.70824,-0.586895,37,6
-11.4613,8.57729,3.30498,24,14
-12.2509,9.17154,-0.267127,32,7
-10.8457,8.12245,3.63071,34,15
-12.1885,9.15474,0.266079,67,8
-0.444021,0.333623,-0.128222,14,1
-11.1343,8.36901,0.729982,17,9
-0.585374,0.439991,-0.142344,11,2
-11.2411,8.45233,1.23046,34,10
-10.1523,7.63639,-2.01206,12,3
-27.3715,20.5959,4.20596,27,11
-8.7626,6.5959,-1.34666,64,4
-11.3665,8.55904,2.2536,43,12
-14.7415,11.1005,-1.61447,14,5
-8.8878,6.69744,-0.583232,64,6
-11.422,8.61021,3.30228,18,14
-12.2093,9.20702,-0.266917,62,7
-0.462244,0.349592,-0.155291,12,0
-0.442854,0.335171,-0.128222,14,1
-11.0445,8.36202,0.726004,42,9
-0.558791,0.42307,-0.136238,12,2
-18.2189,13.7989,1.99953,19,10
-0.711669,0.539208,-0.141417,5,3
-11.7877,8.93435,1.8161,24,11
-9.12074,6.91549,-1.4054,59,4
-11.3051,8.57479,2.24734,66,12
-15.3138,11.6154,-1.68158,30,5
-11.5939,8.79707,2.82893,30,13
-12.2307,9.28358,-0.804718,100,6
-14.7427,11.1944,4.27362,15,14
-12.1898,9.25926,-0.267196,100,7
-11.8393,8.99626,3.98426,9,15
-18.7885,14.3182,0.412331,18,8
-0.423084,0.322537,-0.122823,15,1
-11.0628,8.43371,0.72904,21,9
-0.57136,0.435733,-0.139672,11,2
-11.6143,8.86051,1.27805,11,10
-14.7311,11.2424,-2.93502,4,3
-11.6854,8.92124,1.80513,44,11
-8.6891,6.63371,-1.34227,34,4
-11.2781,8.61343,2.24765,14,12
-12.2508,9.3597,-1.34882,10,5
-11.4056,8.71708,2.79039,52,13
-12.222,9.34441,-0.806288,100,6
-14.7457,11.274,4.28532,25,14
-18.6348,14.2525,-0.409503,34,7
-11.837,9.05661,3.99358,27,15
-15.5315,11.9177,0.341718,97,8
-0.422012,0.323938,-0.122823,15,1
-14.1828,10.8868,0.937023,5,9
-0.585484,0.449582,-0.143488,11,2
-12.2769,9.43058,1.3544,12,10
-8.67121,6.66328,-1.73204,26,3
-11.7061,8.99865,1.81293,4,11
-8.66863,6.6637,-1.34251,8,4
-11.4985,8.84225,2.2974,7,12
-12.2024,9.38691,-1.3469,84,5
-11.1775,8.6016,2.74154,22,13
-13.2006,10.1622,-0.873069,58,6
-14.9244,11.4892,4.3483,15,14
-14.4539,11.131,-0.318437,30,7
-11.8191,9.10524,3.99772,24,15
-19.5524,15.1063,0.431284,23,8
-0.420936,0.325336,-0.122823,15,1
-11.4744,8.87165,0.760128,7,9
-0.571564,0.441914,-0.140435,11,2
-11.5994,8.97147,1.28293,5,10
-8.67407,6.71134,-1.73705,22,3
-11.5914,8.97181,1.79977,4,11
-8.63433,6.68541,-1.34081,39,4
-10.8741,8.42267,2.17851,15,12
-12.1711,9.43067,-1.34708,44,5
-11.0015,8.52438,2.70529,35,13
-15.9878,12.3924,-1.06012,15,6
-14.855,11.5186,4.33976,3,14
-14.4023,11.1716,-0.318157,60,7
-11.8788,9.2175,4.02878,14,15
-19.5216,15.1917,0.431773,11,8
-0.419798,0.326803,-0.122823,15,1
-11.393,8.87238,0.756778,4,9
-0.576136,0.448832,-0.141962,11,2
-10.9315,8.51914,1.21251,2,10
-8.63227,6.72973,-1.73361,35,3
-11.5647,9.01588,1.8005,24,11
-12.1643,9.48668,-1.89409,25,4
-10.9949,8.58398,2.7114,39,13
-20.0726,15.6768,-1.33478,31,6
-14.914,11.6521,4.36945,37,14
-14.3113,11.1812,-0.317006,15,7
-11.7614,9.19229,3.99979,24,15
-0.456135,0.357527,-0.155291,12,0
-20.6681,16.2058,0.45844,6,8
-0.418597,0.32834,-0.122823,15,1
-13.9549,10.946,0.929487,10,9
-0.522051,0.409635,-0.128987,13,2
-10.944,8.59046,1.21722,68,10
-11.4364,8.9834,1.78563,32,11
-9.6599,7.58795,-1.50826,36,4
-12.5952,9.90081,-1.40164,19,5
-11.1377,8.75822,2.75414,19,13
-15.4576,12.1595,-1.0307,60,6
-12.1842,9.58458,3.57897,24,14
-14.2281,11.1964,-0.316028,7,7
-11.7095,9.21775,3.99306,28,15
-14.1619,11.1804,0.314946,5,8
-0.460327,0.363544,-0.135421,13,1
-12.6082,9.95734,0.841981,14,9
-0.554581,0.438139,-0.137382,12,2
-11.0608,8.7416,1.23343,84,10
-12.1488,9.60485,-2.45289,14,3
-11.3131,8.9474,1.77101,38,11
-12.8425,10.1606,2.59368,10,12
-12.5327,9.91903,-1.39833,11,5
-19.9811,15.8255,-1.33582,18,6
-12.2211,9.67938,3.59922,19,14
-14.1376,11.2013,-0.314841,30,7
-11.6455,9.23013,3.98167,13,15
-14.2922,11.3604,0.318681,22,8
-0.41641,0.331109,-0.122823,15,1
-0.565417,0.449753,-0.140435,11,2
-9.9964,7.95719,-2.02364,35,3
-10.8035,8.60277,1.69569,41,11
-8.74163,6.96337,-1.37225,5,4
-12.1428,9.6727,2.45884,19,12
-12.2005,9.72213,-1.36486,10,5
-19.7817,15.7746,-1.32598,36,6
-10.8284,8.63798,3.1979,9,14
-21.0068,16.7575,-0.469051,19,7
-11.6541,9.30003,3.99513,19,15
-14.0905,11.2765,0.315016,48,8
-0.41531,0.332488,-0.122823,15,1
-0.530136,0.424719,-0.13204,13,2
-9.91139,7.94336,-2.01175,19,3
-10.4807,8.40262,1.64938,7,11
-8.70919,6.98487,-1.37079,41,4
-12.1629,9.75829,2.46979,28,12
-12.2597,9.83949,-1.37532,13,5
-10.7974,8.66583,2.69117,33,13
-19.6421,15.7701,-1.32012,24,6
-17.5436,14.0953,-0.392819,16,7
-11.5719,9.30071,3.97805,12,15
-14.0308,11.3093,0.314562,31,8
-0.414147,0.333936,-0.122823,15,1
-16.8049,13.555,1.1315,19,9
-0.58068,0.468382,-0.145015,10,2
-10.8167,8.728,1.216,34,10
-9.89897,7.99031,-2.01488,12,3
-12.4992,10.0928,1.97258,4,11
-9.69777,7.8335,-1.53068,37,4
-12.1027,9.77958,2.46447,59,12
-9.00835,7.27921,-1.01327,40,5
-12.1931,9.85619,3.0476,11,13
-19.4969,15.7657,-1.31405,60,6
-10.792,8.72987,3.20465,42,14
-17.5565,14.2068,-0.394215,8,7
-9.29906,7.52754,3.20573,28,15
-12.7275,10.3323,0.28615,47,8
-0.412979,0.335379,-0.122823,15,1
-16.6226,13.504,1.1224,16,9
-0.557708,0.453075,-0.139672,11,2
-9.47403,7.70208,-1.93384,57,3
-19.3512,15.7375,3.06258,8,11
-8.56167,6.96532,-1.35519,20,4
-12.1129,9.85793,2.47354,19,12
-8.97207,7.30181,-1.01205,49,5
-12.1328,9.87762,3.04111,32,13
-12.767,10.3977,-0.862915,13,6
-10.8234,8.81795,3.2231,47,14
-12.7154,10.3631,-0.286324,100,7
-12.4919,10.1845,4.31865,10,15
-16.6824,13.6398,0.376134,38,8
-0.411805,0.336819,-0.122823,15,1
-12.5857,10.2976,0.852239,5,9
-0.550045,0.450047,-0.138146,12,2
-10.6091,8.68342,1.19944,60,10
-9.39207,7.69005,-1.92258,10,3
-12.1213,9.92825,1.92383,4,11
-8.50966,6.97252,-1.3508,4,4
-12.138,9.94899,2.48574,5,12
-10.4905,8.59862,-1.18671,20,5
-11.9904,9.83153,3.01402,32,13
-12.7307,10.4422,-0.862915,35,6
-10.8197,8.87793,3.2312,24,14
-25.686,21.0837,-0.580048,11,7
-11.3708,9.33679,3.94233,24,15
-16.6424,13.7043,0.376309,47,8
-0.485833,0.400205,-0.145318,12,1
-12.5528,10.3441,0.852448,12,9
-0.53635,0.441976,-0.135093,12,2
-10.5326,8.68238,1.19421,52,10
-9.45051,7.79317,-1.9401,33,3
-15.3973,12.7016,2.45079,10,11
-9.64583,7.9599,-1.53555,45,4
-9.74196,8.04208,2.0008,4,12
-9.23892,7.62682,-1.04813,14,5
-11.9606,9.87708,3.01516,50,13
-17.3536,14.3357,-1.17965,100,6
-10.6925,8.83619,3.2024,24,14
-16.613,13.7337,-0.376239,85,7
-9.26587,7.66267,3.22178,35,15
-0.446168,0.36989,-0.155291,12,0
-0.463437,0.384479,-0.13902,13,1
-25.581,21.2227,1.74195,21,9
-0.555955,0.461398,-0.140435,11,2
-12.2068,10.1343,1.38804,12,10
-9.42173,7.82485,-1.93979,52,3
-11.4837,9.54074,1.83316,28,11
-9.44548,7.85014,-1.50801,60,4
-12.4954,10.3849,2.57335,16,12
-9.3869,7.80423,-1.06801,59,5
-10.6538,8.86383,-0.726318,48,6
-10.6152,8.83482,3.18846,9,14
-16.5551,13.7785,-0.37596,100,7
-9.27456,7.72178,3.23369,40,15
-0.444874,0.371445,-0.155291,12,0
-19.7599,16.4985,0.44933,9,8
-0.408315,0.341041,-0.122823,15,1
-25.8991,21.6397,1.76875,15,9
-0.54229,0.453264,-0.137382,12,2
-12.3044,10.288,1.40321,25,10
-9.11841,7.62417,-1.88253,16,3
-11.5038,9.62207,1.84145,44,11
-9.42853,7.88907,-1.50947,52,4
-11.6062,9.71463,2.3972,22,12
-9.36724,7.84335,-1.06888,54,5
-10.5963,8.87873,3.19161,24,14
-39.1714,32.8338,-0.892167,22,7
-19.3074,16.2353,0.440324,25,8
-0.407122,0.342465,-0.122823,15,1
-17.4668,14.6928,1.19619,14,9
-0.546792,0.460116,-0.138909,12,2
-33.698,28.3663,3.85368,28,10
-9.13858,7.69539,-1.89223,8,3
-11.5096,9.69542,1.84778,56,11
-9.46469,7.97565,-1.51971,45,4
-11.5603,9.74161,2.39439,36,12
-8.66786,7.30677,-0.991832,31,5
-11.8567,9.99845,3.01478,17,13
-12.642,10.6644,-0.866788,35,6
-11.5318,9.73132,3.48359,78,14
-19.1216,16.1361,-0.436729,27,7
-12.0466,10.1982,0.275504,1,8
-0.405984,0.343813,-0.122823,15,1
-11.7555,9.95884,0.807439,4,9
-0.536196,0.454406,-0.136619,12,2
-27.4179,23.2439,3.14475,20,10
-10.1888,8.63771,-2.11562,15,3
-11.5198,9.76948,1.85461,48,11
-9.51236,8.06992,-1.53165,40,4
-8.60129,7.30217,-0.987126,53,5
-10.6382,9.0314,2.71254,24,13
-12.5045,10.6196,-0.859775,16,6
-19.0926,16.2261,-0.437357,54,7
-9.1813,7.80561,3.22903,34,15
-11.9883,10.2173,0.274945,1,8
-0.404842,0.345157,-0.122823,15,1
-12.2087,10.4125,0.840934,4,9
-0.543729,0.463732,-0.138909,12,2
-15.5435,13.2614,1.78756,37,10
-11.3967,9.73029,1.83998,44,11
-8.55407,7.30845,-0.984337,53,5
-12.4146,10.6143,-0.856007,16,6
-33.5281,28.6863,-0.77021,32,7
-9.2082,7.88124,3.24766,16,15
-27.2476,23.4035,1.88242,16,9
-0.515299,0.442602,-0.13204,13,2
-12.1166,10.4109,1.39763,12,10
-10.2542,8.81374,-2.14159,31,3
-11.3416,9.75189,1.83657,28,11
-8.65356,7.44323,-1.4015,27,4
-11.6166,9.99542,2.42724,50,12
-8.50887,7.32137,-0.982071,48,5
-19.6075,16.883,-1.35602,51,6
-11.1522,9.60592,3.39811,38,14
-19.8664,17.118,-0.457742,28,7
-9.27283,7.9928,3.28027,12,15
-0.52266,0.452104,-0.13433,12,2
-15.9493,13.8011,1.84526,4,10
-12.8744,11.1443,-2.69693,18,3
-11.5131,9.96945,1.86996,24,11
-8.62602,7.4721,-1.40125,20,4
-10.3366,8.95702,2.1663,34,12
-10.4586,9.06588,2.69041,21,13
-17.7694,15.4086,-1.23262,10,6
-11.1892,9.70608,3.41971,45,14
-12.1234,10.5202,-0.280181,100,7
-9.53664,8.27839,3.3838,16,15
-11.5564,10.06,0.267441,3,8
-0.454112,0.395449,-0.13902,13,1
-0.521,0.454017,-0.13433,12,2
-15.9031,13.8634,1.84578,44,10
-10.0568,8.77004,-2.11343,30,3
-12.2787,10.7076,2.00036,8,11
-9.32746,8.13973,1.96075,6,12
-10.1088,8.82468,-1.17399,30,5
-10.4164,9.0964,2.68812,59,13
-19.4456,16.9874,-1.3532,19,6
-11.0142,9.6252,3.37697,40,14
-12.0716,10.5493,-0.279832,39,7
-9.04518,7.9073,3.21919,11,15
-12.8244,11.2467,0.297738,26,8
-0.452659,0.397111,-0.13902,13,1
-25.5536,22.4178,1.78152,7,9
-0.543021,0.476552,-0.140435,11,2
-15.8935,13.953,1.85032,12,10
-10.0009,8.78293,-2.10811,13,3
-18.9488,16.6469,3.09694,35,11
-10.3945,9.13497,-1.6991,49,4
-9.32421,8.1944,1.96607,15,12
-10.0585,8.84281,-1.17172,25,5
-10.0824,8.86692,2.60989,50,13
-18.0456,15.8758,-1.25962,22,6
-10.9878,9.67003,3.37921,20,14
-10.448,9.19495,-0.242938,30,7
-9.09872,8.01032,3.24818,9,15
-12.7106,11.2217,0.295958,10,8
-0.471789,0.41667,-0.145318,12,1
-0.514875,0.455043,-0.133566,13,2
-27.3965,24.2213,3.19931,10,10
-10.0975,8.92726,-2.13471,64,3
-12.0103,10.6221,1.96868,34,11
-9.96042,8.81843,-1.16388,45,5
-10.0279,8.87818,2.6034,36,13
-11.9987,10.6268,-0.839992,13,6
-9.8763,8.75012,3.04629,23,14
-10.4413,9.25391,-0.243531,38,7
-15.729,13.9845,0.367373,11,8
-0.397525,0.35356,-0.122823,15,1
-0.528031,0.469797,-0.137382,12,2
-18.2717,16.2623,2.14002,21,10
-10.1091,9.00055,-2.14378,63,3
-18.3844,16.3742,3.02285,16,11
-13.8818,12.3682,-2.28286,12,4
-11.5053,10.2545,2.441,50,12
-9.68619,8.63615,2.5225,28,13
-10.556,9.41494,-0.741287,32,6
-12.0996,10.7955,3.74364,75,14
-10.4731,9.34756,-0.245032,23,7
-9.191,8.20617,3.3015,18,15
-15.6592,14.0206,0.366884,7,8
-0.436933,0.39135,-0.135421,13,1
-14.9986,13.4386,1.05541,18,9
-0.532236,0.476878,-0.138909,12,2
-12.4672,11.1744,1.46474,34,10
-18.8872,16.9406,3.11522,17,11
-8.48101,7.60957,-1.39906,41,4
-11.49,10.313,2.44538,27,12
-10.1063,9.07101,-1.18811,12,5
-9.5625,8.58597,2.49807,36,13
-10.2511,9.20749,-0.722132,52,6
-12.0299,10.809,3.73374,22,14
-10.5445,9.47763,-0.247475,100,7
-9.09909,8.18136,3.27872,40,15
-17.9151,16.1535,0.421057,11,8
-0.441353,0.398093,-0.13722,13,1
-10.9734,9.8978,0.774468,11,9
-0.518908,0.468211,-0.135856,12,2
-27.0155,24.3847,3.18397,20,10
-9.37746,8.46724,-2.00111,18,3
-18.9473,17.1142,3.13497,36,11
-8.49108,7.66959,-1.40491,13,4
-9.68728,8.7562,-1.14244,9,5
-9.59654,8.67723,2.51486,54,13
-10.1745,9.20303,-0.718991,81,6
-12.072,10.9194,3.75803,12,14
-10.6642,9.6494,-0.251035,69,7
-9.15642,8.28798,3.30926,50,15
-10.1234,9.18901,0.238644,24,8
-0.393863,0.357634,-0.122823,15,1
-10.9464,9.93951,0.774886,16,9
-0.50282,0.456729,-0.13204,13,2
-26.6956,24.2571,3.15574,10,10
-9.43119,8.57269,-2.01863,49,3
-17.1045,15.553,2.83858,81,11
-14.2714,12.9769,-2.36841,20,4
-10.0767,9.16909,-1.19194,37,5
-9.60837,8.74601,2.52555,44,13
-10.262,9.34429,-0.727365,58,6
-14.517,13.2187,4.53276,10,14
-10.8643,9.89612,-0.256515,100,7
-9.12603,8.3157,3.30823,24,15
-10.208,9.32775,0.241367,8,8
-0.392675,0.358939,-0.122823,15,1
-0.512893,0.468993,-0.135093,12,2
-15.4921,14.171,1.83689,16,10
-9.38231,8.58525,-2.01425,59,3
-10.6159,9.71748,1.76711,19,11
-8.38744,7.68029,-1.39638,8,4
-9.187,8.41244,1.97295,30,12
-10.1902,9.33434,-1.20902,12,5
-9.99184,9.15583,2.63431,14,13
-10.1132,9.2703,-0.718991,65,6
-9.34458,8.56874,2.92706,42,14
-19.6908,18.0559,-0.466328,9,7
-9.2493,8.48434,3.36309,32,15
-10.1991,9.38185,0.24189,42,8
-0.408691,0.376073,-0.128222,14,1
-10.8976,10.0314,0.776247,5,9
-0.519918,0.47876,-0.137382,12,2
-10.3092,9.4964,1.22628,34,10
-9.32908,8.59357,-2.00893,44,3
-10.5559,9.72707,1.76247,7,11
-13.6398,12.5732,-2.27774,15,4
-13.8104,12.735,2.97538,16,12
-10.2308,9.43741,-1.21774,12,5
-9.56458,8.82285,2.52936,9,13
-10.1353,9.35255,-0.72276,55,6
-9.28605,8.57192,2.91762,87,14
-10.2575,9.47196,-0.243705,17,7
-9.19693,8.4956,3.35481,22,15
-12.3829,11.4707,0.294632,8,8
-0.430245,0.398691,-0.135421,13,1
-0.509689,0.472473,-0.135093,25,2
-10.244,9.49938,1.22227,26,10
-11.2092,10.398,-2.42161,12,3
-10.452,9.69905,1.75078,38,11
-10.5711,9.81297,-1.77101,16,4
-10.2695,9.53636,-1.22611,37,5
-10.0257,9.31316,2.65988,19,13
-10.1304,9.4137,-0.724748,74,6
-9.29318,8.63877,2.92931,21,14
-10.1101,9.40149,-0.240983,8,7
-8.98758,8.36055,3.28907,48,15
-12.3882,11.5562,0.295714,28,8
-0.428851,0.40019,-0.135421,13,1
-10.7411,10.0268,0.770071,51,9
-0.513777,0.479608,-0.136619,12,2
-10.2705,9.59083,1.22942,13,10
-11.7272,10.9549,-2.54175,48,3
-10.4906,9.80324,1.76296,34,11
-9.42307,8.8087,-1.58381,21,4
-8.87621,8.3004,1.92477,37,12
-10.6989,10.0049,-1.28154,31,5
-10.1608,9.50501,2.70453,14,13
-10.2476,9.58957,-0.73553,55,6
-9.32414,8.72843,2.94866,44,14
-10.1605,9.51464,-0.242972,40,7
-9.11625,8.53979,3.34705,42,15
-11.4849,10.7888,0.27505,7,8
-0.445913,0.419033,-0.141269,13,1
-0.520683,0.489467,-0.138909,12,2
-10.237,9.62663,1.22942,49,10
-10.4376,9.82211,1.75979,42,11
-9.37213,8.8195,-1.58016,53,4
-8.83138,8.31354,1.92102,30,12
-10.6393,10.019,-1.27857,28,5
-9.9859,9.41023,-0.719096,74,6
-9.43272,8.88894,2.9923,87,14
-9.97315,9.40151,-0.239238,37,7
-8.74072,8.2426,3.21919,8,15
-10.0397,9.4941,0.241192,42,8
-0.413376,0.391047,-0.131371,14,1
-14.412,13.6335,1.03971,13,9
-0.516205,0.488492,-0.138146,24,2
-11.2966,10.6976,-2.46416,1,3
-10.4222,9.87306,1.76272,42,11
-10.3704,9.82391,-1.75394,39,4
-8.71916,8.26261,1.90256,52,12
-9.86714,9.35375,-1.1895,10,5
-9.86085,9.35105,2.64156,28,13
-9.92421,9.41442,-0.716898,58,6
-10.0507,9.53777,-0.241855,33,7
-9.99516,9.51494,0.240878,9,8
-0.412077,0.392416,-0.131371,14,1
-10.1387,9.65836,0.733855,12,9
-0.523111,0.498326,-0.140435,23,2
-16.1832,15.4218,1.95577,40,10
-10.2989,9.82125,1.74736,38,11
-9.83902,9.38595,-1.66961,24,4
-8.70742,8.30936,1.90631,41,12
-9.98575,9.53259,-1.2078,45,5
-10.1323,9.67245,2.72284,39,13
-9.94638,9.49832,-0.720771,52,6
-14.039,13.4112,4.48237,26,14
-10.0752,9.62805,-0.243252,21,7
-11.8067,11.3183,0.285486,8,8
-0.405079,0.388456,-0.129572,14,1
-10.1194,9.70752,0.734902,39,9
-0.509949,0.489365,-0.137382,12,2
-16.4068,15.7501,1.98977,42,10
-9.62021,9.23835,-2.11249,37,3
-10.2961,9.88739,1.75273,42,11
-9.78758,9.40236,-1.66644,68,4
-8.60857,8.27264,1.89098,65,12
-9.96247,9.57705,-1.20902,12,5
-10.1236,9.73538,2.7301,9,13
-9.91581,9.53887,-0.721085,97,6
-9.99252,9.61602,-0.242065,71,7
-11.476,11.0823,0.278471,4,8
-0.406455,0.392647,-0.130472,14,1
-10.0912,9.74834,0.73532,22,9
-0.505414,0.488414,-0.136619,25,2
-10.0933,9.75716,1.2282,21,10
-9.50696,9.1936,-2.09466,52,3
-10.2626,9.92782,1.75321,7,11
-9.65769,9.34262,-1.64987,42,4
-8.5115,8.2367,1.87596,56,12
-9.93184,9.61454,-1.20937,42,5
-9.97713,9.66514,-0.727993,39,6
-9.99193,9.68285,-0.242868,17,7
-8.89672,8.62454,3.32013,20,15
-12.1877,11.8479,0.296691,42,8
-0.402357,0.391275,-0.129572,14,1
-15.6402,15.2094,1.14333,22,9
-0.498163,0.484611,-0.135093,25,2
-10.0109,9.74195,1.2221,23,10
-11.5175,11.212,-2.54581,9,3
-9.39342,9.14746,1.60989,39,11
-9.65367,9.4009,-1.6545,57,4
-8.54074,8.32002,1.88848,49,12
-9.94841,9.6947,-1.2153,20,5
-9.4934,9.25452,2.57707,104,13
-12.2414,11.9417,-0.298506,7,7
-8.96348,8.74709,3.35585,10,15
-12.104,11.8449,0.295609,28,8
-0.414983,0.406239,-0.134071,14,1
-15.5513,15.229,1.14071,43,9
-0.499358,0.489008,-0.135856,25,2
-10.0454,9.84062,1.23029,21,10
-9.97344,9.77354,-2.21167,7,3
-9.36445,9.17995,1.61014,54,11
-13.6588,13.3943,-2.34891,15,4
-9.94153,9.75588,-1.21861,50,5
-9.7289,9.54722,2.64957,51,13
-9.62029,9.44724,3.11287,38,14
-10.1555,9.97625,-0.248487,28,7
-0.412801,0.406793,-0.155291,12,0
-0.37748,0.372115,-0.122373,15,1
-15.4369,15.2229,1.13621,24,9
-0.505948,0.499107,-0.138146,12,2
-9.96389,9.83259,1.22471,36,10
-9.99379,9.86554,-2.22419,34,3
-10.9739,10.8331,1.89336,20,11
-9.7008,9.57966,-1.674,54,4
-10.1072,9.98799,-1.24319,37,5
-9.50954,9.40062,2.5992,20,13
-9.69388,9.5862,-0.714491,22,6
-9.66595,9.56192,3.13897,53,14
-12.2175,12.086,-0.299972,62,7
-8.41609,8.32842,3.1726,50,15
-11.1107,11.0295,0.27327,1,8
-0.376113,0.373497,-0.122373,15,1
-0.518131,0.514706,-0.141962,23,2
-10.3167,10.2521,1.27247,55,10
-9.89764,9.83909,-2.21042,75,3
-9.56314,9.50988,1.65596,7,11
-9.74022,9.68935,-1.68692,59,4
-12.053,11.9985,-1.48792,15,5
-9.37927,9.3368,2.57249,18,13
-9.94907,9.90748,-0.735844,13,6
-9.54278,9.50621,3.10972,61,14
-8.45803,8.43149,3.20004,13,15
-0.409879,0.409736,-0.155291,12,0
-12.4609,12.4566,0.307546,41,8
-0.410634,0.410634,-0.134071,14,1
-11.2553,11.2592,0.83434,23,9
-0.50514,0.505492,-0.138909,24,2
-10.1017,10.1123,1.25051,22,10
-9.45394,9.46714,-2.11906,23,3
-9.5327,9.54601,1.65645,100,11
-9.71475,9.73172,-1.68838,75,4
-10.2114,10.2364,-1.26498,32,5
-9.38935,9.41561,2.5847,32,13
-9.87039,9.90144,-0.732703,81,6
-9.0842,9.11596,2.97115,46,14
-9.98092,10.0158,-0.246812,42,7
-12.5187,12.5669,4.75295,7,15
-0.412089,0.414687,-0.134971,14,1
-10.0797,10.1468,0.749556,41,9
-0.489801,0.493061,-0.135093,25,2
-10.0772,10.1478,1.25121,49,10
-9.87253,9.94517,-2.21949,10,3
-9.48728,9.56042,1.65377,100,11
-9.65477,9.73259,-1.68326,31,4
-8.55428,8.62624,1.92414,42,12
-10.1291,10.2143,-1.25853,57,5
-9.3517,9.43366,2.58203,22,13
-9.81847,9.90799,-0.731029,74,6
-9.59747,9.68835,3.14841,60,14
-9.93252,10.0301,-0.246393,40,7
-8.33261,8.41738,3.17364,34,15
-12.1771,12.3354,0.302555,19,8
-0.41064,0.416123,-0.134971,14,1
-10.0078,10.1449,0.746834,63,9
-0.512895,0.519925,-0.141962,23,2
-9.51155,9.64529,1.18514,37,10
-9.81696,9.95846,-2.2148,21,3
-8.49916,8.63071,1.91851,22,12
-10.1003,10.2567,-1.2594,20,5
-9.76908,9.92375,2.70682,11,13
-9.56389,9.7187,-0.714595,35,6
-9.79045,9.9524,3.2231,45,14
-12.0118,12.2148,-0.29903,100,7
-8.45892,8.60485,3.23317,21,15
-12.1074,12.3507,0.301892,8,8
-0.41464,0.423121,-0.13677,13,1
-9.92337,10.1299,0.743171,41,9
-0.513824,0.524517,-0.142725,22,2
-9.47782,9.67843,1.18514,100,10
-9.77937,9.98985,-2.21417,51,3
-10.2645,10.489,1.80196,32,11
-11.6938,11.9538,-2.05325,9,4
-11.9673,12.2377,-1.49751,33,5
-9.77006,9.99429,2.71674,33,13
-12.5037,12.7996,4.131,17,14
-11.5472,11.8246,-0.288488,100,7
-8.31817,8.52097,3.19072,8,15
-20.386,20.9414,0.510134,31,8
-0.391415,0.40222,-0.129572,14,1
-9.85453,10.1301,0.740659,12,9
-0.492825,0.506606,-0.137382,24,2
-11.2962,11.6202,-2.56678,16,3
-9.39771,9.67063,1.65572,41,11
-11.5676,11.9077,-2.03839,58,4
-8.25292,8.49853,1.87628,65,12
-10.0507,10.3498,-1.26219,50,5
-8.05585,8.29848,2.24811,9,13
-19.0723,19.6536,-1.43526,14,6
-9.15355,9.43584,3.03504,25,14
-11.5434,11.9036,-0.289431,86,7
-0.402884,0.416616,-0.155291,12,0
-20.3753,21.0772,0.511705,28,8
-0.390009,0.403584,-0.129572,14,1
-0.491054,0.508323,-0.137382,24,2
-9.4031,9.7372,1.18427,55,10
-11.3118,11.7178,-2.5796,20,3
-9.34873,9.68766,1.65304,18,11
-9.88179,10.2436,-1.74761,30,4
-8.23292,8.53438,1.87815,22,12
-10.0173,10.3877,-1.26254,62,5
-11.6042,12.0417,-0.876418,52,6
-11.5025,11.9403,-0.289396,86,7
-8.28678,8.60522,3.20107,12,15
-19.9867,20.8129,0.503676,10,8
-0.388669,0.404875,-0.129572,14,1
-9.43824,9.83523,0.714386,64,9
-0.478403,0.4987,-0.13433,25,2
-9.34285,9.74264,1.18096,20,10
-11.9935,12.5067,-2.74449,24,3
-9.24925,9.64839,1.64109,56,11
-9.83128,10.2591,-1.74468,67,4
-8.19352,8.55308,1.87596,20,12
-9.99612,10.4384,-1.26446,32,5
-8.01275,8.36731,2.25193,62,13
-11.9661,12.5,-0.906878,16,6
-9.1201,9.53031,3.04539,34,14
-9.52136,9.95309,-0.240424,22,7
-0.403388,0.423156,-0.134971,14,1
-9.45794,9.92141,0.718363,23,9
-0.482165,0.505969,-0.135856,25,2
-10.032,10.5309,1.27247,35,10
-8.31659,8.73328,-1.91007,37,3
-8.93629,9.38731,1.59137,43,11
-9.78489,10.2787,-1.74249,63,4
-8.15558,8.57018,1.87377,25,12
-10.1166,10.6346,-1.28415,31,5
-9.43381,9.92034,2.66102,39,13
-11.6197,12.2232,-0.88385,13,6
-9.1153,9.58875,3.05439,12,14
-8.02045,8.44293,3.12032,13,15
-9.21406,9.72658,0.233862,59,8
-0.401983,0.424491,-0.134971,14,1
-9.3316,9.8541,0.711246,79,9
-0.502079,0.530377,-0.141962,23,2
-9.9833,10.5497,1.27073,35,10
-11.5497,12.2092,-2.66189,15,3
-8.81237,9.31881,1.5748,50,11
-9.47387,10.0183,-1.69301,36,4
-8.12711,8.59718,1.87377,52,12
-10.0348,10.6189,-1.27823,49,5
-9.14067,9.67612,2.58737,25,13
-15.5928,16.512,-1.19022,40,6
-8.03882,8.51866,3.13844,22,15
-0.397249,0.421993,-0.155291,12,0
-9.28728,9.86922,0.23655,20,8
-0.376539,0.400272,-0.126872,15,1
-8.75396,9.30899,0.669691,35,9
-0.504352,0.53633,-0.143107,22,2
-9.88822,10.5188,1.26306,46,10
-8.3383,8.87317,-1.92852,37,3
-8.75831,9.32339,1.57065,36,11
-9.40983,10.024,2.17757,37,12
-11.9631,12.7439,-1.52923,12,5
-9.05613,9.65055,2.57249,37,13
-15.5667,16.5942,-1.19242,25,6
-9.42012,10.049,-0.240424,74,7
-9.19262,9.80971,3.60224,9,15
-9.18724,9.83144,0.234874,57,8
-0.383121,0.410129,-0.129572,14,1
-8.6519,9.26504,0.664353,75,9
-0.486398,0.520868,-0.138527,24,2
-9.59992,10.2839,1.23081,21,10
-8.50404,9.11308,-1.9742,50,3
-8.78123,9.41342,1.58065,39,11
-8.26378,8.86182,-1.48778,6,4
-9.4354,10.1218,2.19165,55,12
-11.0559,11.8601,-1.41855,13,5
-9.09199,9.75679,2.59233,45,13
-9.42199,10.1145,-0.724434,52,6
-9.52286,10.2335,3.74563,10,15
-9.22223,9.93821,0.236655,61,8
-0.386988,0.417178,-0.131371,14,1
-8.59913,9.27322,0.662783,55,9
-0.480572,0.518244,-0.137382,24,2
-9.58699,10.3421,1.23378,44,10
-8.48158,9.15285,-1.97639,23,3
-8.71729,9.41052,1.57504,39,11
-8.26112,8.9212,-1.4929,18,4
-8.78005,9.48491,2.0471,82,12
-8.21799,8.88084,-1.05859,26,5
-9.33789,10.0911,2.67247,50,13
-9.38391,10.1444,-0.724225,100,6
-9.61333,10.396,3.26899,81,14
-8.79728,9.51684,-0.226218,100,7
-8.92069,9.65373,3.52201,24,15
-0.38553,0.418527,-0.131371,14,1
-8.57076,9.30759,0.663097,64,9
-0.495954,0.53878,-0.142344,22,2
-9.45053,10.2702,1.22105,36,10
-8.30086,9.02396,-1.94198,10,3
-8.89269,9.66735,1.61282,29,11
-8.22187,8.94121,-1.49144,21,4
-8.75892,9.52859,2.04992,38,12
-8.18559,8.90801,-1.05842,2,5
-9.43897,10.2756,2.71216,10,13
-9.35477,10.1875,-0.724853,48,6
-9.52508,10.3766,3.25189,22,14
-10.7207,11.6791,-0.276725,32,7
-8.88694,9.68481,3.52201,17,15
-9.09555,9.94345,0.235224,5,8
-0.399774,0.437194,-0.13677,13,1
-8.67435,9.48632,0.673669,84,9
-0.49672,0.543406,-0.143107,22,2
-9.75465,10.6752,1.26515,22,10
-8.33593,9.1258,-1.95762,2,3
-9.25342,10.1338,1.68497,7,11
-8.39513,9.19707,-1.52897,15,4
-8.64969,9.47595,2.03208,26,12
-11.0403,12.1077,-0.858728,26,6
-10.6624,11.6973,3.6541,26,14
-10.8847,11.9411,-0.282031,31,7
-8.7633,9.61724,3.48629,8,15
-0.389749,0.428929,-0.155291,12,0
-9.05176,9.96172,0.234944,44,8
-0.382598,0.421208,-0.131371,14,1
-8.63984,9.51506,0.673564,79,9
-0.506696,0.55822,-0.146541,42,2
-8.38652,9.24256,1.09189,9,10
-8.48482,9.35089,-1.99986,1,3
-8.62627,9.51011,1.5765,39,11
-8.39259,9.25574,-1.53409,45,4
-8.61922,9.50901,2.03271,85,12
-8.56072,9.44778,2.47823,46,13
-8.68721,9.59074,-0.678169,19,6
-8.54255,9.43435,2.93831,19,14
-20.0943,22.1998,-0.522665,32,7
-8.8217,9.74948,3.52304,9,15
-8.9312,9.89824,0.23271,71,8
-0.378515,0.419647,-0.130472,14,1
-8.82897,9.78837,0.690835,27,9
-0.491695,0.545316,-0.142725,45,2
-8.24111,9.14304,1.0769,51,10
-8.61428,9.56376,1.5804,21,11
-8.41868,9.34989,-1.54482,14,4
-8.13075,9.03329,-1.0633,26,5
-8.38062,9.31415,2.43549,54,13
-11.6402,12.9414,-0.912216,30,6
-8.49524,9.44817,2.93336,42,14
-11.7898,13.1123,-0.307791,22,7
-8.79191,9.78155,3.52408,6,15
-8.74484,9.75655,0.228696,22,8
-0.390126,0.435413,-0.134971,14,1
-8.46294,9.44868,0.664771,44,9
-0.491098,0.548492,-0.143107,56,2
-8.23572,9.20144,1.08038,29,10
-9.27861,10.3666,-2.20354,87,3
-8.79297,9.8275,1.61916,36,11
-8.87066,9.91781,-1.63378,10,4
-11.4325,12.7866,2.71664,23,12
-8.10448,9.06755,-1.064,11,5
-8.44126,9.44436,2.4622,18,13
-11.4415,12.8056,-0.899969,37,6
-8.44309,9.45304,2.92616,61,14
-11.6841,13.0863,-0.30622,100,7
-9.16806,10.2719,3.68921,12,15
-8.74131,9.82138,0.229499,60,8
-0.378241,0.425125,-0.131371,14,1
-14.2624,16.0302,1.12449,21,9
-0.493191,0.554518,-0.144252,55,2
-8.32166,9.35974,1.09572,64,10
-8.54503,9.61773,1.57967,32,11
-11.2598,12.6733,-2.08153,9,4
-8.91343,10.0359,2.12594,34,12
-8.11141,9.1361,-1.06888,26,5
-11.4471,12.9023,-0.903947,20,6
-8.42463,9.49556,2.93066,72,14
-12.7804,14.4101,-0.336203,100,7
-9.19675,10.3731,3.71457,45,15
-0.383949,0.434128,-0.155291,12,0
-0.376829,0.426377,-0.131371,14,1
-0.499148,0.564978,-0.146541,63,2
-8.35124,9.45597,1.10374,21,10
-10.5923,11.9978,-2.53486,24,3
-8.44609,9.5701,1.56724,61,11
-8.74033,9.90349,-1.62184,8,4
-8.93629,10.1291,2.1394,29,12
-8.67674,9.83836,-1.14767,9,5
-11.2247,12.7364,-0.889711,27,6
-10.4637,11.8729,3.65366,21,14
-8.55401,9.70944,-0.225869,100,7
-8.6452,9.81641,3.50493,30,15
-10.3069,11.7363,0.272642,39,8
-0.365128,0.415909,-0.127772,14,1
-8.37477,9.54287,0.665399,44,9
-0.490797,0.559253,-0.144633,55,2
-7.01764,8.00208,-1.68574,7,3
-8.51769,9.71598,1.5865,29,11
-9.76023,11.1372,-1.81829,54,4
-9.06749,10.3504,2.17945,62,12
-11.2987,12.8973,-1.50012,12,5
-8.05809,9.20144,2.37748,55,13
-11.1876,12.7795,-0.89013,47,6
-10.4337,11.9225,3.6577,47,14
-11.5339,13.1843,-0.305766,83,7
-8.65666,9.89888,3.52356,13,15
-8.06315,9.24622,0.214141,6,8
-0.389284,0.44656,-0.13677,13,1
-8.449,9.69551,0.673983,50,9
-0.478523,0.549122,-0.14158,46,2
-7.00912,8.04887,-1.69043,28,3
-8.34947,9.59144,1.56139,39,11
-8.69182,9.98823,-1.62574,29,4
-8.69941,10.0005,2.09935,79,12
-8.62787,9.91824,-1.15011,7,5
-8.0504,9.25765,2.38473,60,13
-8.38867,9.65006,-0.67011,26,6
-8.97702,10.3305,3.15966,22,14
-11.1796,12.8697,-0.297564,100,7
-8.56632,9.86485,3.50079,12,15
-8.45364,9.76259,0.225415,5,8
-0.410681,0.474437,-0.144868,12,1
-7.95769,9.19633,0.637347,77,9
-0.485596,0.561181,-0.144252,44,2
-10.5279,12.1709,1.40791,25,10
-7.05592,8.15995,-1.70858,62,3
-8.25233,9.54694,1.54945,47,11
-9.67964,11.2021,-1.8178,34,4
-11.3074,13.0905,-1.51337,31,5
-7.99878,9.26341,2.37901,60,13
-11.2287,13.0085,-0.900597,50,6
-8.6481,10.0225,3.05619,59,14
-11.1725,12.9526,-0.298576,100,7
-8.48894,9.84495,3.48319,44,15
-8.25003,9.59493,0.220878,26,8
-0.383617,0.446311,-0.13587,13,1
-7.89821,9.19225,0.635149,52,9
-0.477237,0.555427,-0.142344,22,2
-10.5399,12.2711,1.41523,25,10
-7.12519,8.29844,-1.73236,53,3
-8.40384,9.79109,1.5843,47,11
-11.891,13.8587,-2.24215,16,4
-11.3654,13.2509,-1.52732,12,5
-7.95235,9.27488,2.37481,66,13
-11.4665,13.3782,-0.923416,17,6
-8.61306,10.0526,3.05619,25,14
-9.32688,10.8895,-0.250268,39,7
-8.48719,9.91267,3.49665,14,15
-0.376391,0.440698,-0.155291,12,0
-8.25933,9.67385,0.22203,41,8
-0.376996,0.441718,-0.134071,14,1
-7.9257,9.28965,0.639964,55,9
-0.482941,0.566051,-0.144633,22,2
-8.7542,10.2643,1.18026,57,10
-8.12274,9.52732,-1.98296,32,3
-8.32712,9.77051,1.57626,61,11
-11.3404,13.3108,-2.14709,38,4
-12.5347,14.7178,-1.69134,22,5
-7.97974,9.37284,2.39275,50,13
-11.3706,13.3604,-0.919438,23,6
-8.44785,9.9297,3.00985,23,14
-9.29529,10.9297,-0.250442,100,7
-8.25655,9.73923,0.222867,41,8
-0.357813,0.422218,-0.127772,14,1
-7.93841,9.3706,0.643628,23,9
-0.475886,0.561741,-0.143107,22,2
-8.28053,9.77789,1.121,87,10
-7.97712,9.42295,-1.95543,60,3
-8.3417,9.8571,1.58552,21,11
-10.9695,12.9669,-2.08543,18,4
-8.59592,10.1647,2.10842,33,12
-8.77159,10.3724,-1.18846,10,5
-8.08639,9.56556,2.43472,47,13
-8.32273,9.84862,-0.675762,6,6
-8.32008,9.84897,2.97655,17,14
-8.16043,9.6634,-0.220773,46,7
-13.651,16.2054,0.369851,19,8
-0.376569,0.44719,-0.134971,14,1
-7.97325,9.47189,0.648861,9,9
-0.474119,0.563233,-0.143107,22,2
-7.76359,9.22609,1.05493,51,10
-10.5733,12.5696,-2.60151,16,3
-8.33751,9.91516,1.59064,21,11
-10.9058,12.974,-2.08104,29,4
-8.60716,10.2431,2.11906,30,12
-12.5919,14.9852,-1.71244,19,5
-8.03483,9.56537,2.42824,38,13
-8.3945,9.99708,-0.684136,9,6
-7.92952,9.44668,2.84743,17,14
-13.643,16.2591,-0.37048,83,7
-8.55898,10.2038,3.5686,14,15
-11.158,13.3401,0.303567,8,8
-0.365005,0.436542,-0.131371,14,1
-18.4625,22.0888,1.50874,24,9
-0.465854,0.557353,-0.141199,34,2
-7.74538,9.26995,1.05685,29,10
-10.523,12.5988,-2.59994,67,3
-8.26723,9.90154,1.58381,39,11
-10.9316,13.0973,-2.09469,29,4
-8.49162,10.1775,2.09935,42,12
-9.26933,11.1096,-1.26585,42,5
-7.92846,9.50591,2.4061,36,13
-11.0659,13.2723,-0.905621,43,6
-13.5811,16.3005,-0.37034,100,7
-8.52084,10.2307,3.56756,11,15
-11.2379,13.5313,0.307023,24,8
-0.378417,0.455805,-0.13677,13,1
-11.0993,13.3692,0.910646,12,9
-0.476444,0.574083,-0.145015,43,2
-7.68245,9.26013,1.05267,69,10
-10.4437,12.5929,-2.59118,75,3
-8.12366,9.79891,1.56285,47,11
-10.9391,13.1996,-2.10493,38,4
-8.48177,10.2345,2.1053,37,12
-7.88647,9.52294,2.40343,34,13
-10.9584,13.237,-0.900597,60,6
-11.167,13.4938,-0.305731,100,7
-8.51766,10.2961,3.5805,30,15
-0.368799,0.447071,-0.155291,12,0
-8.21272,9.95575,0.225276,43,8
-0.362026,0.439016,-0.131371,14,1
-8.76712,10.6354,0.722341,21,9
-0.475686,0.577258,-0.145396,54,2
-7.60574,9.23306,1.04657,56,10
-10.3378,12.5497,-2.57522,41,3
-8.12141,9.86257,1.5687,43,11
-9.28793,11.2832,-1.7944,38,4
-8.58407,10.4318,2.13971,30,12
-10.9585,13.3221,-1.50919,34,5
-7.84985,9.54298,2.4019,40,13
-10.0582,12.232,-0.829944,97,6
-9.69914,11.7995,3.52633,20,14
-8.54175,10.3989,3.60587,9,15
-8.08796,9.87452,0.222797,62,8
-0.380244,0.464402,-0.13857,13,1
-8.68946,10.6164,0.718991,68,9
-0.468795,0.572755,-0.14387,44,2
-8.64119,10.5612,1.19386,32,10
-10.1026,12.3518,-2.52736,45,3
-7.86956,9.62499,1.52654,35,11
-7.84526,9.5987,-1.52215,25,4
-10.918,13.363,-1.50971,34,5
-7.84258,9.60225,2.40992,18,13
-10.964,13.4289,-0.908552,37,6
-9.62832,11.7971,3.51554,24,14
-8.18908,10.0372,-0.226113,9,7
-8.51394,10.4391,3.60949,12,15
-8.05597,9.90579,0.222867,28,8
-0.37862,0.465726,-0.13857,13,1
-8.66117,10.6576,0.719724,52,9
-0.471746,0.580482,-0.145396,54,2
-8.58795,10.5712,1.19159,37,10
-7.7407,9.53173,-1.94479,23,3
-7.80463,9.61387,1.52044,66,11
-7.77793,9.58441,-1.51557,30,4
-9.35479,11.5316,2.35184,14,12
-10.8336,13.3546,-1.50448,34,5
-7.85106,9.68141,2.42289,29,13
-12.9521,15.9774,-1.07791,20,6
-9.54414,11.7776,3.49979,27,14
-11.949,14.7506,-0.331351,81,7
-0.364176,0.450844,-0.155291,12,0
-7.96229,9.86073,0.221227,92,8
-0.376993,0.467045,-0.13857,13,1
-11.5261,14.2794,0.961726,14,9
-0.467251,0.57907,-0.144633,55,2
-8.03688,9.96377,1.11995,21,10
-7.75202,9.61405,-1.95606,10,3
-7.83705,9.72297,1.53336,38,11
-10.2117,12.6736,-1.99841,67,4
-9.94461,12.3465,-1.387,47,5
-7.81229,9.70264,2.42137,12,13
-12.6984,15.7767,-1.06137,11,6
-8.33266,10.3563,3.06878,31,14
-11.8825,14.7683,-0.330863,100,7
-8.66789,10.7768,3.70577,14,15
-0.370566,0.462211,-0.13677,13,1
-8.58343,10.71,0.719305,16,9
-0.470137,0.586826,-0.14616,42,2
-10.1033,12.6155,-2.55989,56,3
-7.8271,9.7768,1.53775,31,11
-10.1697,12.7074,-1.99841,24,4
-8.58009,10.725,2.17538,16,12
-10.6966,13.3754,-1.49838,25,5
-11.0933,13.8765,-0.931057,21,6
-10.8884,13.625,4.02662,30,14
-14.2397,17.825,-0.398229,100,7
-8.39876,10.5172,3.60638,17,15
-0.361098,0.453313,-0.155291,12,0
-13.1616,16.5287,0.368804,4,8
-0.373805,0.4696,-0.13857,13,1
-7.9615,10.0054,0.67011,4,9
-0.466966,0.586846,-0.145778,43,2
-8.20701,10.3176,1.15342,70,10
-10.4526,13.1455,-2.66001,50,3
-7.75833,9.76055,1.53092,10,11
-6.9922,8.79986,-1.38005,1,4
-8.57209,10.7921,2.18289,7,12
-10.4675,13.1784,-1.47241,33,5
-8.08789,10.1861,2.52822,30,13
-9.99557,12.5932,-0.842609,39,6
-8.66411,10.9196,3.21815,49,14
-14.1886,17.8887,-0.398543,100,7
-8.3656,10.551,3.60794,23,15
-9.99594,12.6434,0.281333,17,8
-0.362497,0.458671,-0.134971,14,1
-0.46248,0.585391,-0.145015,32,2
-8.19194,10.3728,1.15638,72,10
-10.3198,13.0718,-2.6378,22,3
-7.72052,9.7829,1.53019,45,11
-9.8434,12.4773,-1.95137,69,4
-8.56617,10.8622,2.19102,12,12
-10.5338,13.3572,-1.48827,33,5
-8.05107,10.2127,2.52784,52,13
-9.95032,12.6264,-0.842504,35,6
-11.9313,15.1511,-0.336622,14,7
-7.61773,9.67693,3.29994,12,15
-7.25144,9.23814,0.204996,6,8
-0.35127,0.447669,-0.131371,14,1
-7.83403,9.98393,0.665085,70,9
-0.456799,0.582368,-0.14387,22,2
-8.1483,10.3919,1.15534,52,10
-10.2217,13.0409,-2.62434,20,3
-7.80754,9.96449,1.55432,18,11
-9.80223,12.5147,-1.95186,13,4
-10.5743,13.5053,-1.50065,34,5
-7.99117,10.2099,2.52021,62,13
-9.89264,12.6438,-0.841353,61,6
-8.12665,10.3904,3.04539,23,14
-10.0516,12.8515,-0.284788,100,7
-7.57608,9.68997,3.2958,27,15
-8.23017,10.5569,0.233653,63,8
-0.38572,0.494944,-0.144868,12,1
-8.09495,10.3909,0.690311,23,9
-0.452351,0.580861,-0.143107,22,2
-8.2001,10.5335,1.16789,45,10
-9.79978,12.5884,-2.52673,9,3
-7.8159,10.0436,1.56261,14,11
-10.7455,13.8132,-2.1488,30,4
-10.5772,13.6066,-1.50779,6,5
-8.1316,10.4681,3.06023,2,14
-7.49246,9.65226,3.27406,26,15
-0.362525,0.468544,-0.13677,13,1
-8.03541,10.3891,0.688323,108,9
-0.452824,0.585464,-0.14387,22,2
-8.06763,10.4345,1.15394,65,10
-9.95631,12.882,-2.57867,18,3
-7.72618,10.0001,1.55164,39,11
-7.74385,10.0266,-1.55554,21,4
-8.52267,11.039,2.20885,8,12
-11.4489,14.8291,-1.63905,29,5
-8.18777,10.609,2.60492,11,13
-9.75633,12.646,-0.837061,34,6
-8.09858,10.501,3.06158,6,14
-11.0031,14.2723,-0.314562,22,7
-7.50353,9.7365,3.29373,17,15
-0.353212,0.459484,-0.155291,12,0
-7.30458,9.50576,0.209254,1,8
-0.322899,0.420354,-0.122373,15,1
-8.43457,10.9842,0.725795,47,9
-0.469909,0.611955,-0.149976,20,2
-7.18874,9.36855,-1.87033,10,3
-7.66586,9.99395,1.54652,39,11
-9.79847,12.7788,-1.97721,47,4
-8.50092,11.0906,2.21324,23,12
-11.3679,14.831,-1.63487,24,5
-9.59675,12.5294,-0.827118,48,6
-8.06661,10.5354,3.06338,68,14
-9.87268,12.8989,-0.283532,86,7
-7.93084,10.3656,3.49716,5,15
-7.33442,9.61387,0.211069,3,8
-0.360426,0.472614,-0.13722,13,1
-8.04444,10.5484,0.695231,28,9
-0.453487,0.594856,-0.145396,21,2
-7.94508,10.4256,1.1468,12,10
-9.86493,12.9496,-2.57835,54,3
-7.61048,9.9938,1.54238,21,11
-10.2215,13.4274,-2.07202,58,4
-8.67467,11.3954,2.2683,5,12
-7.59514,9.98088,-1.09729,23,5
-7.99465,10.5097,2.56676,15,13
-9.49372,12.4849,-0.821989,29,6
-8.23498,10.8335,3.14167,25,14
-7.29343,9.59482,-0.210371,48,7
-7.69656,10.1288,3.40865,26,15
-0.349996,0.461939,-0.155291,12,0
-10.1368,13.379,0.292991,27,8
-0.36121,0.476913,-0.13812,13,1
-7.98708,10.5493,0.693452,21,9
-0.43956,0.580781,-0.14158,23,2
-8.01562,10.5947,1.16231,57,10
-7.03661,9.30069,-1.84718,15,3
-9.8548,13.0304,2.00597,8,11
-10.2464,13.5531,-2.08616,45,4
-9.9178,13.128,-1.43946,25,5
-7.9065,10.4657,2.54959,52,13
-7.47948,9.90401,-0.650431,26,6
-8.25302,10.9323,3.16236,83,14
-7.71816,10.2312,3.43401,43,15
-0.306647,0.407525,-0.136656,14,0
-12.5242,16.6504,0.363673,13,8
-0.359543,0.478171,-0.13812,13,1
-7.93581,10.558,0.692195,35,9
-0.447068,0.59479,-0.144633,44,2
-7.85836,10.4588,1.14453,19,10
-9.17865,12.2204,-2.42067,26,3
-7.99877,10.6534,1.63573,30,11
-10.1549,13.53,-2.07714,69,4
-9.69964,12.9281,-1.41401,13,5
-7.77804,10.3707,2.51982,45,13
-9.43128,12.5796,-0.823977,32,6
-8.22183,10.9704,3.16506,40,14
-8.21278,10.9663,3.67109,25,15
-0.346844,0.46431,-0.155291,12,0
-12.7005,17.008,0.370515,23,8
-0.348546,0.46693,-0.134521,14,1
-7.90727,10.5968,0.692928,7,9
-0.437945,0.586906,-0.142344,45,2
-8.02909,10.764,1.17486,10,10
-9.55867,12.8193,-2.53267,71,3
-7.52615,10.0971,1.54628,3,11
-10.0068,13.4301,-2.05642,29,4
-9.14368,12.2761,2.42442,13,12
-9.60447,12.8948,-1.40669,11,5
-7.70896,10.3537,2.50914,35,13
-8.87693,11.9267,-0.779178,65,6
-8.6988,11.6916,3.36437,13,14
-8.89075,11.954,-0.260041,16,7
-8.17906,11.0011,3.67316,41,15
-0.345221,0.465518,-0.155291,12,0
-6.98324,9.42011,0.204682,13,8
-0.365478,0.493195,-0.141719,13,1
-8.02786,10.8332,0.70664,23,9
-0.445242,0.601052,-0.145396,43,2
-9.28149,12.5341,1.36451,36,10
-9.4316,12.7414,-2.51077,22,3
-9.72607,13.144,2.00768,17,11
-10.0945,13.6419,-2.08372,27,4
-11.9974,16.2195,3.19533,11,12
-8.91974,12.0631,-1.31257,2,5
-7.68211,10.3932,2.51219,23,13
-8.81863,11.9351,-0.777712,48,6
-8.00915,10.8396,3.11152,25,14
-7.09748,9.60921,-0.208521,100,7
-8.09434,10.9629,3.65142,36,15
-0.343675,0.466661,-0.155291,12,0
-10.9603,14.8879,0.322695,6,8
-0.34767,0.472431,-0.135421,13,1
-8.87856,12.0646,0.785039,41,9
-0.43743,0.594618,-0.143488,44,2
-7.77976,10.5792,1.14889,87,10
-6.36132,8.65355,-1.70107,47,3
-9.67421,13.165,2.00597,17,11
-6.40284,8.71322,-1.32764,15,4
-8.68082,11.8175,2.32243,4,12
-8.85492,12.0589,-1.3089,49,5
-7.66851,10.4471,2.51906,10,13
-8.81208,12.0094,-0.780643,35,6
-8.99459,12.2581,3.51014,9,14
-8.85858,12.0772,-0.261437,100,7
-8.04538,10.9725,3.64573,25,15
-0.342126,0.467798,-0.155291,12,0
-11.6933,15.9944,0.345837,23,8
-0.350701,0.479875,-0.13722,13,1
-9.55509,13.0793,0.848889,9,9
-0.421558,0.577042,-0.138909,48,2
-7.72231,10.5744,1.14558,27,10
-6.32327,8.66183,-1.69857,50,3
-9.09807,12.4674,1.89507,16,11
-6.39227,8.76278,-1.33179,5,4
-8.63137,11.8366,2.32024,9,12
-8.83719,12.1188,-1.31222,52,5
-8.75927,12.0208,-0.779492,81,6
-12.5327,17.2055,4.91428,18,14
-8.794,12.0773,-0.260774,100,7
-8.09343,11.1192,3.68507,30,15
-0.340491,0.468989,-0.155291,12,0
-9.40457,12.9586,0.279483,17,8
-0.362756,0.500024,-0.142619,13,1
-0.428762,0.591224,-0.141962,46,2
-6.75665,9.32366,-1.82371,10,3
-9.43064,13.0184,1.9738,8,11
-9.47028,13.0779,-1.98257,29,4
-8.80301,12.1609,-1.31344,15,5
-8.73598,12.0772,-0.781167,19,6
-8.80489,12.1769,3.4692,36,14
-8.77288,12.1371,-0.261402,100,7
-7.72872,10.6964,3.53599,12,15
-0.338851,0.470175,-0.155291,12,0
-9.29032,12.8956,0.277423,52,8
-0.347342,0.482311,-0.13722,13,1
-9.0598,12.5849,0.812673,8,9
-0.430137,0.597497,-0.143107,45,2
-9.28922,12.9083,1.39135,36,10
-6.56603,9.1275,-1.78085,18,3
-8.51478,11.8408,1.79075,4,11
-9.42458,13.1109,-1.98257,18,4
-8.00214,11.1362,2.17194,91,12
-10.8533,15.1039,-1.6272,21,5
-9.32866,12.9918,-0.838213,16,6
-8.71647,12.1481,-0.260983,100,7
-7.71948,10.7626,3.54893,22,15
-0.337208,0.471355,-0.155291,12,0
-0.34339,0.48035,-0.13632,13,1
-7.8871,11.0369,0.710932,34,9
-0.439463,0.614968,-0.146923,31,2
-9.16304,12.8271,1.37915,36,10
-6.51576,9.12465,-1.77584,15,3
-8.02822,11.2468,1.69667,15,11
-6.76368,9.47883,-1.42977,12,4
-8.38879,11.7607,2.28801,27,12
-9.39935,13.1774,-1.41611,52,5
-7.45308,10.4527,2.4954,38,13
-9.34701,13.1137,-0.84397,29,6
-7.93262,11.1335,3.15606,18,14
-8.7703,12.3137,-0.26388,30,7
-7.64714,10.7407,3.53288,7,15
-0.335643,0.47247,-0.155291,12,0
-8.64194,12.1694,0.26053,6,8
-0.337283,0.47513,-0.134521,14,1
-0.44083,0.621226,-0.148068,20,2
-9.1412,12.8867,1.38229,42,10
-6.41005,9.03985,-1.75519,18,3
-6.33971,8.94727,-1.34641,24,4
-9.40282,13.2752,-1.42325,30,5
-7.38774,10.4341,2.4851,28,13
-9.33462,13.1886,-0.846796,48,6
-7.89341,11.1565,3.15516,9,14
-8.66937,12.2578,-0.262065,100,7
-7.61259,10.7676,3.5334,12,15
-0.293913,0.416802,-0.136656,14,0
-12.86,18.2437,0.389608,20,8
-0.333378,0.473118,-0.133621,14,1
-0.443181,0.629181,-0.149594,20,2
-11.4247,16.2256,1.73614,28,10
-6.3489,9.02017,-1.74706,60,3
-6.41579,9.12197,-1.36932,15,4
-9.19133,13.0731,2.53111,17,12
-8.55658,12.1703,-1.30158,5,5
-7.34902,10.4566,2.48433,5,13
-9.22194,13.1264,-0.840725,26,6
-8.81841,12.5613,-0.267894,24,7
-7.19211,10.2485,3.35481,10,15
-0.276947,0.395668,-0.12941,15,0
-10.6238,15.1836,0.323463,10,8
-0.342893,0.490248,-0.13812,13,1
-8.63694,12.3486,0.78975,35,9
-0.438732,0.627506,-0.148831,20,2
-6.25854,8.95808,-1.73079,46,3
-9.31569,13.3388,1.99768,17,11
-6.45095,9.24034,-1.3837,5,4
-8.36656,11.9843,2.31492,29,12
-10.408,14.9139,-1.59112,3,5
-10.6544,15.2784,-0.97617,14,6
-8.61318,12.3559,-0.262903,58,7
-8.21727,11.7923,3.85123,11,15
-0.302018,0.434709,-0.141833,14,0
-11.307,16.2747,0.345907,31,8
-0.352382,0.507388,-0.142619,13,1
-7.95594,11.4599,0.731133,50,9
-0.441016,0.635485,-0.150357,19,2
-7.91325,11.4069,1.2146,60,10
-6.14773,8.86192,-1.70826,31,3
-9.31892,13.4382,2.00792,8,11
-8.78052,12.6665,-1.89239,17,4
-8.34493,12.0426,2.32055,32,12
-8.79701,12.6998,-1.35161,10,5
-9.51687,13.739,3.24871,18,13
-8.88224,12.8276,-0.817697,48,6
-7.77922,11.2388,3.15561,6,14
-8.77367,12.6802,-0.269151,100,7
-8.24858,11.9258,3.88539,4,15
-0.329097,0.477053,-0.155291,12,0
-11.2444,16.3058,0.345732,38,8
-0.337336,0.489362,-0.13722,13,1
-7.8989,11.4629,0.729563,74,9
-0.44559,0.646644,-0.152647,19,2
-12.7579,18.5213,1.96763,32,10
-5.95656,8.65067,-1.66352,72,3
-9.25958,13.4526,2.00524,8,11
-5.98057,8.69203,-1.29547,5,4
-8.3118,12.0847,2.32305,19,12
-8.49177,12.3464,-1.311,5,5
-7.20759,10.4832,2.47288,28,13
-8.81365,12.8239,-0.815499,65,6
-11.1862,16.2821,4.56066,17,14
-10.4671,15.2411,-0.32273,7,7
-11.1667,16.2659,5.28664,15,15
-0.32743,0.478199,-0.155291,12,0
-0.348831,0.509836,-0.142619,13,1
