x, y, z, intensity, ring
11.0843,-9.84802,-2.34839,35,3
4.81776,-4.28192,0.79142,60,11
4.39569,-3.90817,-0.722198,2,4
4.45911,-3.96595,0.945177,65,12
4.4864,-3.99162,-0.525375,43,5
6.2117,-5.52664,1.61615,7,13
4.14904,-3.69277,-0.291093,60,6
4.76662,-4.24392,1.47343,55,14
4.43355,-3.94876,-0.103632,95,7
4.83346,-4.30646,1.73461,4,15
5.12671,-4.58059,0.120003,64,8
0.39666,-0.35453,-0.122823,15,1
0.463876,-0.414899,-0.120973,15,2
4.52048,-4.0432,0.530604,71,10
11.6034,-10.3819,-2.46603,31,3
4.43448,-3.96906,0.730729,35,11
4.40273,-3.94203,-0.72561,40,4
4.57914,-4.10142,0.973648,84,12
4.46798,-4.00327,-0.524852,58,5
4.81569,-4.31633,1.25705,12,13
4.17117,-3.73995,-0.293605,54,6
4.79095,-4.29566,1.48558,46,14
4.42123,-3.96555,-0.103667,100,7
18.4425,-16.5475,6.63923,3,15
4.89884,-4.40938,0.115046,100,8
0.395358,-0.355982,-0.122823,15,1
0.462352,-0.416596,-0.120973,15,2
4.254,-3.83301,0.500971,39,10
4.29901,-3.87628,0.710742,72,11
4.36909,-3.94085,-0.722442,41,4
4.62421,-4.17243,0.986476,63,12
6.16082,-5.56282,1.61348,29,13
4.20338,-3.79671,-0.29685,36,6
4.7665,-4.30535,1.48288,86,14
4.4126,-3.98709,-0.103807,65,7
18.4004,-16.6318,6.64596,11,15
5.28706,-4.79401,0.124575,30,8
0.39405,-0.357428,-0.122823,15,1
6.2384,-5.65862,0.441401,61,9
0.452172,-0.410292,-0.118683,15,2
4.3432,-3.94232,0.513173,31,10
4.25717,-3.86558,-0.910762,27,3
4.28624,-3.89335,0.710986,82,11
4.33699,-3.94082,-0.719517,39,4
4.99412,-4.53793,1.06876,17,12
4.44365,-4.03916,-0.525375,6,5
6.16605,-5.60674,1.61997,6,13
4.17385,-3.79658,-0.295698,42,6
4.73483,-4.30836,1.47793,61,14
4.42972,-4.03073,-0.10454,90,7
18.2579,-16.6192,6.61542,15,15
0.392863,-0.358733,-0.122823,15,1
6.0151,-5.49447,0.426957,82,9
0.473926,-0.433057,-0.124789,14,2
4.16617,-3.80824,0.493824,80,10
4.23558,-3.87168,-0.908884,10,3
4.27331,-3.90754,0.710986,40,11
4.55825,-4.16955,-0.758515,13,4
8.90576,-8.14919,1.91194,9,12
4.41923,-4.04523,-0.524155,38,5
4.72534,-4.32542,1.24522,11,13
4.13325,-3.78477,-0.293709,48,6
4.74207,-4.34379,1.48468,36,14
4.54831,-4.16776,-0.107681,57,7
18.0559,-16.551,6.56313,21,15
5.13653,-4.72162,0.121783,34,8
0.408822,-0.375931,-0.128222,14,1
6.0591,-5.57358,0.431458,43,9
0.463817,-0.426651,-0.122499,15,2
4.05529,-3.73164,0.482146,80,10
4.26854,-3.92925,-0.918896,11,3
6.2208,-5.72834,1.03833,11,11
4.68967,-4.31993,-0.782889,13,4
4.0014,-3.68722,-0.476045,31,5
4.71598,-4.34721,1.24675,4,13
4.1024,-3.78293,-0.292453,63,6
6.38129,-5.88642,2.00431,25,14
4.61162,-4.25548,-0.109531,38,7
18.123,-16.7293,6.60869,22,15
5.50156,-5.09271,0.130858,85,8
0.390349,-0.361467,-0.122823,15,1
5.96341,-5.52411,0.426015,34,9
0.470967,-0.436273,-0.124789,14,2
4.05978,-3.76203,0.484237,76,10
11.1969,-10.3794,-2.41816,24,3
6.21241,-5.76082,1.04028,26,11
4.72623,-4.38574,1.0212,85,12
3.96076,-3.67542,-0.472733,51,5
4.09941,-3.80674,-0.293186,60,6
4.67451,-4.3423,1.47298,13,14
4.57623,-4.2525,-0.109043,37,7
23.8346,-22.1562,8.71961,14,15
5.53494,-5.15961,0.13208,99,8
0.389085,-0.362827,-0.122823,15,1
5.46068,-5.09395,0.391368,28,9
0.457882,-0.427281,-0.121736,15,2
4.16024,-3.8822,0.497834,88,10
9.96933,-9.30632,-2.16005,48,3
4.67757,-4.36801,0.785814,12,11
5.26141,-4.91493,-0.88404,47,4
6.20758,-5.80083,1.34565,32,12
3.97928,-3.71984,-0.476568,46,5
5.95668,-5.57026,1.58524,19,13
4.15398,-3.88587,-0.298106,51,6
6.31158,-5.9042,1.99532,61,14
4.62414,-4.3272,-0.110544,60,7
23.7359,-22.2195,8.71185,14,15
0.422547,-0.396659,-0.155291,12,0
5.61512,-5.27295,0.134453,85,8
0.387752,-0.364251,-0.122823,15,1
0.476339,-0.447782,-0.127079,14,2
4.02695,-3.78552,0.48354,82,10
9.94955,-9.35633,-2.16318,22,3
6.18549,-5.81873,1.04271,14,11
4.68389,-4.40771,-0.789713,31,4
8.84432,-8.32573,1.92383,34,12
3.97142,-3.73986,-0.477265,56,5
4.18913,-3.94764,-0.301665,15,6
6.25302,-5.89255,1.98362,18,14
4.50349,-4.24536,-0.10803,48,7
18.4583,-17.4063,6.79814,8,15
5.67275,-5.36633,0.136303,60,8
0.386415,-0.36567,-0.122823,15,1
4.54132,-4.29902,0.327728,20,9
0.449035,-0.425226,-0.12021,15,2
4.0116,-3.79889,0.483366,88,10
11.1772,-10.5882,-2.4385,19,3
6.17133,-5.84819,1.04393,19,11
4.65474,-4.41255,-0.78752,43,4
8.83095,-8.3744,1.92759,24,12
3.94757,-3.7448,-0.476045,55,5
5.97408,-5.66919,1.60089,56,13
4.05875,-3.85296,-0.293291,60,6
6.24269,-5.92616,1.98722,26,14
4.37624,-4.1558,-0.105343,56,7
18.1814,-17.2716,6.71946,15,15
4.52678,-4.3138,0.109147,60,8
0.385072,-0.367083,-0.122823,15,1
4.49229,-4.28394,0.32532,10,9
0.461679,-0.44042,-0.124026,14,2
4.03657,-3.8507,0.488072,56,10
11.144,-10.6346,-2.43975,1,3
4.68382,-4.47127,0.795076,60,11
4.27819,-4.08547,-0.726341,32,4
6.13057,-5.85645,1.34283,66,12
3.9295,-3.75511,-0.475522,33,5
5.97171,-5.70868,1.60585,35,13
4.03306,-3.85677,-0.292453,51,6
6.18853,-5.91802,1.97687,11,14
4.37977,-4.18979,-0.105796,41,7
17.9812,-17.2073,6.66873,15,15
4.38401,-4.20559,0.106041,60,8
0.383852,-0.368358,-0.122823,15,1
0.457461,-0.439149,-0.123263,15,2
4.45346,-4.27669,0.540191,82,10
11.1201,-10.6824,-2.44226,35,3
4.65036,-4.46889,0.791907,60,11
4.25747,-4.09276,-0.725123,13,4
6.10827,-5.87401,1.34221,84,12
5.64244,-5.42605,-0.68487,20,5
5.94808,-5.72197,1.60432,35,13
4.0238,-3.87219,-0.292663,46,6
6.12676,-5.89797,1.96337,33,14
4.34424,-4.18348,-0.105273,35,7
18.8326,-18.142,7.00675,4,15
4.34773,-4.20002,0.105517,66,8
0.382564,-0.369696,-0.122823,15,1
4.42569,-4.27832,0.322599,36,9
0.455925,-0.440743,-0.123263,15,2
4.08331,-3.94872,0.496962,22,10
11.0671,-10.7061,-2.43881,29,3
4.62903,-4.47958,0.790932,27,11
5.96181,-5.77135,-1.01883,11,4
6.08205,-5.8898,1.34096,16,12
4.33389,-4.1969,-0.527815,10,5
5.87449,-5.69079,1.58982,36,13
4.0289,-3.90428,-0.294023,27,6
14.3083,-13.8705,4.6007,29,14
4.32244,-4.19166,-0.105098,25,7
17.6987,-17.1692,6.60713,3,15
4.33591,-4.21796,0.105587,61,8
0.381271,-0.371029,-0.122823,15,1
4.43649,-4.31882,0.324483,112,9
0.465638,-0.453288,-0.126316,14,2
8.77279,-8.54607,-1.93979,60,3
4.61479,-4.49709,0.791176,60,11
4.25864,-4.15148,-0.730241,27,4
12.9644,-12.6426,2.86807,8,12
5.30487,-5.17319,-0.648264,13,5
5.80821,-5.66602,1.57723,29,13
4.01096,-3.91413,-0.293709,33,6
13.5319,-13.2098,4.36585,25,14
4.32781,-4.22628,-0.105587,25,7
17.5654,-17.1593,6.5797,22,15
0.345064,-0.337911,-0.12941,15,0
4.32545,-4.23727,0.105692,57,8
0.360488,-0.353263,-0.116525,16,1
4.28447,-4.20006,0.314434,53,9
0.444425,-0.435669,-0.120973,15,2
11.8816,-11.6597,2.04399,35,11
4.23846,-4.16076,-0.729266,31,4
12.9399,-12.7071,2.87245,1,12
5.32232,-5.22658,-0.652622,13,5
6.01109,-5.90501,1.6379,25,13
4.19671,-4.1241,-0.308363,34,6
13.4954,-13.2665,4.369,25,14
4.37006,-4.29744,-0.106983,47,7
17.5109,-17.226,6.58177,15,15
4.3391,-4.28043,0.10639,53,8
0.359253,-0.354519,-0.116525,16,1
4.27547,-4.2206,0.314853,45,9
0.462462,-0.456527,-0.126316,14,2
4.60029,-4.54285,0.565641,41,10
12.8825,-12.726,-2.86807,4,3
4.59316,-4.53897,0.792882,12,11
5.94057,-5.87254,-1.02565,30,4
4.49466,-4.44473,1.00118,1,12
4.89462,-4.84025,-0.602246,31,5
5.76433,-5.70229,1.57608,29,13
4.32142,-4.2764,-0.318621,35,6
13.3784,-13.2436,4.34605,34,14
4.3934,-4.35066,-0.107926,53,7
17.3217,-17.1592,6.53311,21,15
4.68164,-4.65069,0.115186,100,8
0.377365,-0.375001,-0.122823,15,1
4.41652,-4.39039,0.326367,28,9
0.466435,-0.463675,-0.127842,14,2
4.60843,-4.58276,0.568604,9,10
6.13399,-6.10196,-1.37037,13,3
4.56463,-4.54237,0.790688,60,11
11.1676,-11.117,-1.9348,10,4
4.87205,-4.85169,-0.601549,31,5
5.77916,-5.75701,1.58562,41,13
4.25695,-4.24211,-0.314958,35,6
13.3679,-13.326,4.35775,34,14
4.40933,-4.39704,-0.108694,43,7
13.8561,-13.8223,5.24419,17,15
4.64417,-4.64579,0.114662,78,8
0.356769,-0.357018,-0.116525,16,1
4.27272,-4.2772,0.316842,112,9
0.456489,-0.456967,-0.125552,14,2
4.13203,-4.13781,0.511604,15,10
6.12661,-6.13731,-1.37349,47,3
4.54454,-4.55406,0.789957,17,11
6.00178,-6.01646,-1.04345,15,4
4.35751,-4.3697,0.977403,85,12
4.98874,-5.00269,-0.618109,28,5
4.1392,-4.15367,-0.307317,15,6
13.2828,-13.3339,4.34515,31,14
4.42077,-4.43932,-0.109357,49,7
13.7723,-13.835,5.23073,19,15
4.32222,-4.35402,0.107088,55,8
0.374738,-0.377627,-0.122823,15,1
4.19869,-4.23253,0.312446,37,9
0.435534,-0.439045,-0.12021,15,2
4.50486,-4.54593,0.785814,27,11
5.99191,-6.04865,-1.0454,45,4
5.04555,-5.0951,-0.627347,17,5
4.10922,-4.15248,-0.306165,6,6
12.8991,-13.0394,4.23448,33,14
4.47836,-4.52867,-0.111172,67,7
13.7484,-13.9077,5.24005,21,15
4.31261,-4.37477,0.107228,64,8
0.373417,-0.378933,-0.122823,15,1
4.30162,-4.36668,0.321238,54,9
0.436754,-0.443359,-0.120973,15,2
4.15477,-4.21908,0.518054,41,10
4.47887,-4.54978,-1.01119,32,3
4.5001,-4.57294,0.787763,65,11
5.00449,-5.09083,-0.624558,15,5
4.31748,-4.39196,1.19714,34,13
4.61686,-4.69815,-0.345208,43,6
12.7811,-13.0107,4.21063,33,14
4.47794,-4.55997,-0.111556,33,7
13.6984,-13.9542,5.23953,21,15
4.433,-4.52841,0.110613,61,8
0.372092,-0.380234,-0.122823,15,1
4.31149,-4.40737,0.323122,36,9
0.440617,-0.450572,-0.122499,15,2
4.01254,-4.10463,0.502191,80,10
4.45112,-4.55486,-1.00869,43,3
4.47995,-4.58437,0.787032,57,11
5.96757,-6.1088,-1.04856,15,4
4.33912,-4.44336,0.98366,120,12
4.96303,-5.08403,-0.621595,25,5
4.29312,-4.39933,1.19485,38,13
12.7061,-13.0295,4.20164,12,14
6.73069,-6.90201,-0.168276,43,7
13.3476,-13.6921,5.12358,17,15
4.46376,-4.59339,0.1118,82,8
0.370696,-0.381595,-0.122823,15,1
5.64916,-5.81728,0.424968,36,9
0.43357,-0.446473,-0.120973,15,2
3.98292,-4.10289,0.500274,43,10
4.4402,-4.57873,-0.783132,29,4
4.34343,-4.4805,0.988353,107,12
4.41273,-4.552,-0.554659,10,5
4.26818,-4.40442,1.19217,25,13
4.05505,-4.18595,-0.305433,15,6
12.5806,-12.9912,4.17509,15,14
4.51474,-4.66373,-0.113301,51,7
13.2543,-13.6965,5.10702,17,15
4.15748,-4.3082,0.104505,34,8
0.369362,-0.382887,-0.122823,15,1
4.13982,-4.2929,0.31255,25,9
0.448363,-0.464942,-0.125552,14,2
3.97964,-4.12824,0.501668,67,10
4.47595,-4.64633,0.792151,47,11
6.01183,-6.24286,-1.06416,26,4
4.32776,-4.49564,0.988353,49,12
4.26367,-4.43061,1.19523,30,13
4.02241,-4.18137,-0.304072,28,6
12.4933,-12.9915,4.16114,39,14
4.45547,-4.63477,-0.112219,61,7
13.3376,-13.8792,5.15775,17,15
4.12166,-4.30103,0.103981,42,8
0.368023,-0.384174,-0.122823,15,1
4.3776,-4.5713,0.331705,26,9
0.416864,-0.43531,-0.117157,16,2
3.92938,-4.10469,0.497136,67,10
4.49538,-4.69922,0.798488,70,11
4.77993,-4.99842,-0.849186,4,4
4.29293,-4.49073,0.983973,8,12
4.38005,-4.58346,-0.554659,50,5
4.26038,-4.45824,1.19866,31,13
4.11127,-4.3037,-0.311922,3,6
13.1948,-13.8172,4.41084,26,14
4.36194,-4.5693,-0.110264,60,7
13.2197,-13.853,5.13083,19,15
4.09146,-4.29946,0.103597,71,8
0.36668,-0.385456,-0.122823,15,1
4.40291,-4.62998,0.334845,54,9
0.434203,-0.456756,-0.122499,15,2
4.00489,-4.21438,0.508641,31,10
4.41213,-4.64455,-1.01463,23,3
11.7798,-12.4003,2.10005,36,11
5.96947,-6.28611,-1.06441,39,4
4.26293,-4.49376,1.204,19,13
6.17343,-6.50999,-0.470186,36,6
12.408,-13.0891,4.16384,24,14
4.14786,-4.37551,-0.105238,56,7
13.1726,-13.9004,5.13135,14,15
4.07979,-4.31879,0.103702,60,8
0.363927,-0.38538,-0.122373,15,1
0.432606,-0.458268,-0.122499,15,2
3.95871,-4.19501,0.504632,54,10
4.38505,-4.64842,-1.01213,16,3
11.7193,-12.4275,2.09737,36,11
6.26502,-6.64595,-1.12144,8,4
4.27559,-4.53715,0.987414,119,12
4.2001,-4.4586,1.19065,21,13
4.33915,-4.60782,-0.331705,19,6
13.2305,-14.0546,4.45628,29,14
4.11946,-4.37758,-0.104924,46,7
12.8092,-13.6166,5.00918,13,15
0.330488,-0.35218,-0.12941,15,0
4.30548,-4.58968,0.109845,37,8
0.346583,-0.36959,-0.116975,16,1
0.431004,-0.459776,-0.122499,15,2
3.92633,-4.1899,0.502366,71,10
11.5904,-12.3771,2.08202,9,11
6.52532,-6.97067,-1.17238,37,4
4.24893,-4.5405,0.984912,81,12
4.66398,-4.98403,-0.597191,20,5
4.20597,-4.49617,1.19675,30,13
4.31349,-4.61272,-0.330973,39,6
13.1481,-14.0651,4.44503,26,14
4.12054,-4.40947,-0.105343,30,7
12.817,-13.7205,5.03092,3,15
4.06999,-4.36911,0.104226,71,8
4.39774,-4.7226,0.338195,18,9
0.424045,-0.455529,-0.120973,15,2
3.90082,-4.19191,0.500971,71,10
5.70735,-6.13539,-1.32719,13,3
3.79721,-4.08343,0.684662,19,11
4.11146,-4.42291,0.95644,117,12
4.26374,-4.58994,1.21774,31,13
3.838,-4.13307,-0.295594,12,6
4.07188,-4.38647,-0.10447,40,7
13.2839,-14.3152,5.2328,8,15
4.02695,-4.35176,0.103493,57,8
0.341413,-0.36908,-0.116075,16,1
4.37445,-4.73059,0.337672,7,9
0.417122,-0.45124,-0.119446,15,2
3.91456,-4.23623,0.504632,65,10
5.67625,-6.14268,-1.32469,6,3
3.77422,-4.08579,0.682956,9,11
3.84758,-4.16666,-0.696361,25,4
4.08394,-4.42417,0.953625,77,12
3.88728,-4.21261,-0.501494,25,5
4.25782,-4.61415,1.22041,37,13
5.82037,-6.30968,-0.44988,29,6
4.26569,-4.62593,1.45273,86,14
4.03892,-4.38154,-0.104016,55,7
12.7612,-13.8486,5.04594,3,15
4.02662,-4.38199,0.103877,70,8
0.332213,-0.361658,-0.113375,16,1
4.35385,-4.74142,0.337358,9,9
0.418279,-0.455513,-0.12021,15,2
3.91262,-4.2624,0.506201,88,10
4.41343,-4.81135,0.801657,57,11
3.84508,-4.19323,-0.698555,8,4
4.09116,-4.46315,0.958943,28,12
3.88137,-4.23429,-0.50254,7,5
4.19261,-4.57543,1.20629,33,13
4.24688,-4.63628,-0.329507,16,6
4.18767,-4.57324,1.43159,52,14
3.97905,-4.34693,-0.102864,39,7
4.00052,-4.3842,0.103597,64,8
0.341455,-0.374334,-0.116975,16,1
4.33459,-4.75364,0.337148,38,9
0.435206,-0.47728,-0.125552,14,2
3.93261,-4.31431,0.510733,67,10
3.771,-4.13992,0.687587,23,11
3.84111,-4.21837,-0.700505,15,4
4.07024,-4.47156,0.957692,70,12
3.94033,-4.32885,-0.512127,13,5
4.14094,-4.55083,1.19599,35,13
4.23067,-4.65107,-0.329507,16,6
4.14152,-4.55467,1.42124,79,14
3.87777,-4.26609,-0.100631,23,7
4.09496,-4.50662,1.6316,119,15
3.91403,-4.3196,0.101748,61,8
0.345379,-0.381301,-0.118774,16,1
4.27239,-4.7184,0.333589,12,9
0.407104,-0.449761,-0.11792,16,2
4.44833,-4.91444,0.579934,58,10
5.76668,-6.37316,-1.36129,12,3
3.76984,-4.16778,0.690024,85,11
3.83302,-4.23911,-0.701724,29,4
4.05593,-4.48721,0.958005,87,12
3.90707,-4.32404,-0.509861,8,5
4.12291,-4.56452,1.19561,18,13
4.22698,-4.68137,-0.330554,13,6
4.01981,-4.45194,1.3848,64,14
3.86017,-4.27664,-0.100561,38,7
4.08438,-4.52662,1.63367,78,15
3.90352,-4.33986,0.101887,45,8
0.354403,-0.394157,-0.122373,15,1
0.413326,-0.460013,-0.12021,15,2
4.0894,-4.55131,0.535311,45,10
3.70521,-4.12518,-0.878223,10,3
3.83014,-4.26576,0.703917,57,11
3.74188,-4.16893,-0.687831,52,4
3.99592,-4.45353,0.94768,26,12
3.89519,-4.34278,-0.510384,5,5
4.11402,-4.58837,1.1979,24,13
5.04428,-5.62787,-0.396079,47,6
3.96445,-4.42311,1.3713,50,14
3.83513,-4.28033,-0.100316,57,7
3.87027,-4.33475,0.101433,64,8
0.352955,-0.395453,-0.122373,15,1
3.86537,-4.33231,0.304281,37,9
0.422091,-0.473246,-0.123263,15,2
3.92416,-4.39974,0.515788,73,10
3.83957,-4.30793,0.708548,57,11
3.68432,-4.13519,-0.680031,73,4
3.98877,-4.47847,0.94987,32,12
3.82227,-4.29304,-0.502889,32,5
5.05814,-5.68512,-0.3988,18,6
3.95469,-4.44489,1.37355,46,14
3.80878,-4.2824,-0.100037,50,7
4.05622,-4.56222,1.63574,8,15
3.8265,-4.31748,0.1007,67,8
0.333412,-0.376324,-0.116075,16,1
3.85079,-4.34794,0.304386,28,9
0.378709,-0.427751,-0.111051,17,2
4.09423,-4.62443,0.540366,43,10
4.10952,-4.64334,-0.982096,21,3
3.84875,-4.35022,0.713179,80,11
3.66125,-4.13974,-0.678569,50,4
4.05606,-4.58777,0.969894,32,12
3.697,-4.18311,-0.488421,35,5
13.0753,-14.7998,3.8387,5,13
4.20434,-4.7605,-0.332857,3,6
4.03254,-4.56598,1.40639,41,14
3.79042,-4.29334,-0.0999674,50,7
3.79367,-4.30913,0.100212,23,8
0.350186,-0.397908,-0.122373,15,1
3.87142,-4.399,0.307107,26,9
0.421454,-0.479056,-0.124026,14,2
4.35781,-4.95516,0.57732,30,10
4.0002,-4.55012,-0.959569,18,3
4.07673,-4.63881,0.758271,77,11
3.67632,-4.18467,-0.683931,45,4
12.8433,-14.6192,3.08207,10,12
3.72328,-4.23962,-0.49365,36,5
4.16301,-4.74366,-0.330763,13,6
4.05336,-4.62035,1.41899,49,14
3.77427,-4.30222,-0.0998976,50,7
3.78199,-4.3247,0.100282,50,8
0.348865,-0.399067,-0.122373,15,1
3.76667,-4.31022,0.29999,31,9
0.414612,-0.47461,-0.122499,15,2
4.18715,-4.79475,0.556925,45,10
3.66285,-4.19437,-0.881978,26,3
7.45817,-8.54343,1.39248,29,11
3.72768,-4.27162,-0.696118,27,4
3.73989,-4.28863,-0.497834,43,5
3.76391,-4.31617,1.11318,104,13
7.06871,-8.10873,-0.563763,16,6
4.00473,-4.59556,1.40729,41,14
3.78813,-4.34854,-0.100665,52,7
12.4978,-14.3517,5.09925,17,15
3.76163,-4.33183,0.100142,55,8
0.33214,-0.382623,-0.116975,16,1
3.7503,-4.32183,0.299885,37,9
0.418183,-0.481913,-0.124026,14,2
4.1882,-4.82818,0.559191,86,10
3.6443,-4.20265,-0.881039,33,3
7.22416,-8.33392,1.35421,18,11
3.70495,-4.2756,-0.694655,27,4
12.618,-14.5666,3.05235,18,12
3.62781,-4.18806,-0.48476,50,5
3.74497,-4.32483,1.11203,45,13
3.88749,-4.49101,-0.311294,18,6
3.96699,-4.58446,1.39965,35,14
3.77293,-4.36173,-0.100665,52,7
12.5348,-14.4961,5.13497,14,15
3.73604,-4.33282,0.0998627,61,8
0.330802,-0.38378,-0.116975,16,1
3.74171,-4.34246,0.300408,30,9
0.406246,-0.471472,-0.120973,15,2
4.32866,-5.02543,0.580283,50,10
3.84357,-4.46383,-0.932975,36,3
7.26366,-8.43882,1.36713,48,11
3.6667,-4.26143,-0.690268,19,4
12.5259,-14.5627,3.04234,12,12
3.63396,-4.22486,-0.487549,57,5
3.78361,-4.4004,1.12806,29,13
5.01875,-5.83896,-0.40351,54,6
3.95223,-4.59976,1.4001,57,14
3.69774,-4.3051,-0.0990599,55,7
12.6716,-14.7582,5.2121,10,15
3.7443,-4.37318,0.100491,66,8
0.329461,-0.384932,-0.116975,16,1
3.85767,-4.50878,0.31098,34,9
0.402045,-0.469904,-0.12021,15,2
4.24116,-4.95875,0.57087,7,10
3.61873,-4.23249,-0.881978,25,3
7.04457,-8.2423,1.3313,31,11
3.87746,-4.53832,-0.732922,12,4
13.2344,-15.4955,3.22756,6,12
3.62048,-4.23904,-0.487724,15,5
3.73381,-4.37327,1.11776,35,13
5.07354,-5.94455,-0.409581,36,6
3.86152,-4.52606,1.37355,61,14
3.61651,-4.24038,-0.0972797,85,7
12.8168,-15.0331,5.29337,20,15
3.76787,-4.43193,0.101538,67,8
0.343259,-0.403899,-0.122373,15,1
3.81992,-4.49634,0.309201,28,9
0.402945,-0.474296,-0.120973,15,2
4.20448,-4.95074,0.568255,43,10
3.61032,-4.25263,-0.883542,28,3
7.15319,-8.42879,1.35738,28,11
3.68951,-4.34898,-0.700261,44,4
4.00901,-4.72727,-0.542283,50,5
4.05241,-4.78013,1.21812,25,13
3.57167,-4.21455,-0.289523,11,6
3.80287,-4.48896,1.35825,57,14
3.63787,-4.29571,-0.098257,67,7
12.1264,-14.3243,5.02885,3,15
3.73819,-4.42825,0.101154,68,8
0.343104,-0.406584,-0.122823,15,1
3.79905,-4.50354,0.308782,30,9
0.411414,-0.487705,-0.124026,14,2
4.17947,-4.95625,0.56721,48,10
3.67948,-4.36489,-0.904191,25,3
6.92801,-8.22145,1.32009,75,11
3.58223,-4.25252,-0.682712,21,4
4.00929,-4.76119,0.98585,79,12
3.93264,-4.67181,-0.534265,15,5
3.87639,-4.605,1.17004,28,13
3.54279,-4.21018,-0.288371,31,6
3.79596,-4.51264,1.3614,65,14
3.62028,-4.30532,-0.0981872,63,7
3.69316,-4.40602,0.100351,82,8
0.341682,-0.407779,-0.122823,15,1
3.76535,-4.49534,0.307317,18,9
0.404582,-0.483189,-0.122499,15,2
4.27892,-5.11209,0.583246,20,10
3.91952,-4.68437,-0.967391,17,3
6.90437,-8.25167,1.32106,40,11
3.49349,-4.17669,-0.668575,28,4
4.01039,-4.79637,0.99023,28,12
3.68631,-4.41034,-0.502889,26,5
3.85194,-4.61013,1.16775,31,13
3.53245,-4.22927,-0.28879,34,6
3.78065,-4.52802,1.36185,57,14
3.5655,-4.27035,-0.0971052,96,7
3.77805,-4.52651,1.57983,41,15
3.65396,-4.39186,0.099723,66,8
0.32274,-0.388053,-0.116525,16,1
3.82802,-4.60433,0.313806,34,9
0.385321,-0.463463,-0.117157,16,2
4.12097,-4.95845,0.564072,82,10
3.95112,-4.75576,-0.97928,6,3
6.89817,-8.30594,1.32569,37,11
3.47943,-4.19099,-0.668819,29,4
3.9789,-4.79431,0.986789,79,12
3.70143,-4.45998,-0.507072,30,5
3.75309,-4.52383,1.14256,36,13
3.49345,-4.21236,-0.286801,31,6
3.53451,-4.26491,-0.0966863,87,7
3.73062,-4.50314,1.56689,34,15
3.64753,-4.41538,0.0999674,70,8
3.65553,-4.42821,0.300932,6,9
0.401199,-0.486001,-0.122499,15,2
4.10998,-4.98049,0.564943,65,10
3.85027,-4.66743,-0.958318,51,3
6.89819,-8.36519,1.3313,31,11
3.47867,-4.21996,-0.6715,26,4
3.92446,-4.76244,0.977403,36,12
3.69851,-4.48825,-0.508815,21,5
3.60187,-4.37408,-0.296954,33,6
10.4183,-12.6564,3.78458,27,14
3.5501,-4.31428,-0.097524,63,7
3.68174,-4.47585,1.55291,72,15
3.59658,-4.38479,0.0989901,70,8
0.337322,-0.411393,-0.122823,15,1
0.391949,-0.478357,-0.12021,15,2
3.74008,-4.56623,-0.934852,60,3
7.03117,-8.58735,1.36274,39,11
3.47272,-4.24283,-0.673206,31,4
8.0708,-9.8641,2.01863,9,12
3.68456,-4.50486,-0.509164,27,5
3.48723,-4.26663,-0.28879,31,6
10.3703,-12.6881,3.78323,15,14
3.78806,-4.63636,-0.104505,15,7
3.65876,-4.4797,1.54981,50,15
3.58428,-4.40259,0.0990948,61,8
0.335811,-0.412627,-0.122823,15,1
3.61997,-4.44961,0.300618,42,9
0.400103,-0.491976,-0.123263,15,2
3.98372,-4.89848,0.552393,9,10
3.50899,-4.31627,-0.881039,18,3
6.83314,-8.40818,1.33033,34,11
3.42961,-4.22163,-0.667844,17,4
3.88779,-4.78733,0.976777,9,12
3.71197,-4.57247,-0.515265,8,5
3.93897,-4.85382,1.21507,18,13
3.74461,-4.61597,-0.311504,31,6
11.0321,-13.5993,4.04282,2,14
3.90455,-4.81485,-0.108205,59,7
3.59828,-4.45303,0.0999325,26,8
0.334297,-0.413855,-0.122823,15,1
3.61618,-4.47838,0.301665,30,9
0.381116,-0.471985,-0.11792,16,2
3.49811,-4.33525,-0.88229,23,3
6.72875,-8.34201,1.31595,15,11
3.42906,-4.25272,-0.670769,40,4
3.68599,-4.57299,-0.51387,6,5
3.66333,-4.5465,1.13493,108,13
3.61572,-4.48902,-0.302083,30,6
10.9981,-13.6594,4.04867,25,14
3.76902,-4.68269,-0.104924,51,7
0.362757,-0.451986,-0.155291,12,0
4.13708,-5.15653,0.115395,89,8
0.33285,-0.415019,-0.122823,15,1
3.61677,-4.51124,0.303025,34,9
0.374554,-0.467185,-0.116393,16,2
3.81276,-4.75739,0.533393,54,10
3.47801,-4.34127,-0.881039,23,3
6.70951,-8.37784,1.3179,56,11
3.73552,-4.66603,-0.733897,26,4
3.8201,-4.77339,0.968329,74,12
3.67,-4.58583,-0.51387,23,5
3.56649,-4.45808,1.10975,48,13
3.57259,-4.4673,-0.29978,33,6
10.9528,-13.7007,4.04957,34,14
3.71645,-4.65052,-0.103912,55,7
4.09912,-5.14592,0.114837,88,8
0.3314,-0.416179,-0.122823,15,1
3.61219,-4.5379,0.303967,28,9
0.392484,-0.493066,-0.122499,15,2
3.71177,-4.66466,0.52154,78,10
3.65959,-4.60074,-0.931098,13,3
6.72965,-8.46336,1.32764,37,11
3.75997,-4.73032,-0.741941,20,4
3.80588,-4.78979,0.968955,23,12
3.67919,-4.63201,-0.517531,50,5
3.83298,-4.82562,1.1979,29,13
3.54082,-4.45941,-0.29842,39,6
10.9461,-13.7907,4.06487,20,14
3.71138,-4.67756,-0.104226,50,7
3.75515,-4.73442,1.61917,101,15
4.1047,-5.18999,0.1155,41,8
0.329945,-0.417333,-0.122823,15,1
3.64215,-4.60846,0.30784,46,9
0.385806,-0.48834,-0.120973,15,2
3.66007,-4.63445,0.516659,73,10
3.48848,-4.41876,-0.891677,13,3
6.59305,-8.35125,1.30644,24,11
6.30751,-7.99243,-1.25014,24,4
3.81238,-4.83251,0.9749,30,12
3.66177,-4.64326,-0.517356,17,5
3.83714,-4.86739,1.20477,26,13
3.54423,-4.49745,-0.300094,39,6
10.9992,-13.9624,4.10356,11,14
3.68265,-4.67478,-0.103877,65,7
3.7386,-4.7475,1.61917,78,15
4.17084,-5.31354,0.117908,48,8
0.328413,-0.41854,-0.122823,15,1
3.61002,-4.60072,0.306479,30,9
0.384099,-0.489683,-0.120973,15,2
3.64141,-4.64406,0.516311,35,10
3.43038,-4.3765,-0.880726,2,3
6.66891,-8.5113,1.32764,34,11
3.64401,-4.6524,-0.72561,13,4
3.77356,-4.8178,0.969268,76,12
3.4834,-4.44894,-0.494347,25,5
3.65435,-4.66895,1.15249,32,13
3.50513,-4.47991,-0.298106,33,6
10.7595,-13.7567,4.03202,30,14
3.68479,-4.71123,-0.1044,85,7
4.15197,-5.32577,0.117874,74,8
0.327023,-0.419626,-0.122823,15,1
3.5387,-4.54239,0.301769,27,9
0.382387,-0.491021,-0.120973,15,2
3.62273,-4.6536,0.515962,75,10
3.42919,-4.40499,-0.884168,15,3
6.62115,-8.5083,1.32374,34,11
3.59687,-4.62372,-0.719273,24,4
3.77249,-4.85121,0.973335,74,12
3.5131,-4.51928,-0.500797,30,5
3.78585,-4.87015,1.19904,34,13
3.47555,-4.47259,-0.29685,45,6
10.6995,-13.7738,4.02662,35,14
3.71003,-4.77777,-0.105587,46,7
3.74682,-4.82689,1.63729,22,15
4.09664,-5.29279,0.116826,61,8
0.325556,-0.420765,-0.122823,15,1
3.54604,-4.58473,0.303758,48,9
0.368745,-0.476757,-0.117157,16,2
3.41259,-4.41538,-0.883855,18,3
6.63267,-8.58477,1.33203,28,11
3.6523,-4.72894,-0.733654,10,4
3.79416,-4.91438,0.983347,122,12
3.40312,-4.40789,-0.487201,32,5
3.78682,-4.90664,1.20477,31,13
3.46724,-4.49418,-0.297478,48,6
10.7049,-13.8805,4.04687,11,14
3.59321,-4.66083,-0.102725,39,7
3.73585,-4.84759,1.63988,21,15
4.06473,-5.28961,0.116442,88,8
0.324086,-0.421899,-0.122823,15,1
3.46554,-4.51312,0.29821,37,9
0.388602,-0.50607,-0.124026,14,2
3.74383,-4.87729,0.537925,16,10
3.39836,-4.42883,-0.884168,23,3
6.60025,-8.60472,1.33154,25,11
3.59108,-4.68337,-0.724635,42,4
3.789,-4.94328,0.986476,88,12
3.33317,-4.34859,-0.479357,51,5
3.91892,-5.11463,1.25247,9,13
3.46367,-4.52211,-0.298524,48,6
12.6455,-16.5157,4.80226,8,14
3.53073,-4.613,-0.101398,52,7
4.01592,-5.26402,0.11557,75,8
0.322611,-0.423028,-0.122823,15,1
3.44977,-4.52519,0.29821,32,9
0.367789,-0.482442,-0.11792,16,2
6.28094,-8.24193,0.906594,22,10
3.3757,-4.43123,-0.88229,23,3
6.70367,-8.80301,1.3586,59,11
3.65768,-4.80486,-0.741453,45,4
3.76574,-4.94861,0.984912,61,12
3.31194,-4.35227,-0.478485,57,5
3.73821,-4.91421,1.20019,13,13
3.49743,-4.59936,-0.302816,42,6
11.2976,-14.8625,4.31006,21,14
3.48436,-4.58549,-0.100526,33,7
12.2941,-16.1852,5.44607,17,15
3.58219,-4.72964,0.103563,56,8
0.321132,-0.424151,-0.122823,15,1
3.46409,-4.57702,0.300827,18,9
0.38032,-0.502508,-0.122499,15,2
10.046,-13.2783,1.45672,28,10
3.36378,-4.44772,-0.883229,20,3
6.72078,-8.8897,1.36835,100,11
3.69833,-4.89362,-0.753153,41,4
6.55144,-8.67199,1.72141,11,12
3.46126,-4.58159,-0.502366,26,5
7.71892,-10.2211,2.48968,27,13
3.41637,-4.52546,-0.297164,63,6
11.228,-14.8785,4.30331,34,14
3.5707,-4.73332,-0.103493,55,7
12.3097,-16.3236,5.47816,10,15
0.31965,-0.42527,-0.122823,15,1
3.3989,-4.52362,0.296536,29,9
0.383281,-0.510111,-0.124026,14,2
8.79942,-11.7155,1.28189,22,10
3.46447,-4.61424,-0.91389,8,3
6.68018,-8.9004,1.3664,65,11
3.42747,-4.56828,-0.701236,36,4
6.4832,-8.64424,1.71139,42,12
3.72857,-4.9714,-0.543678,16,5
7.68555,-10.2511,2.49044,32,13
3.39217,-4.52617,-0.296431,66,6
12.1645,-16.237,4.68393,19,14
3.59851,-4.80498,-0.104784,51,7
11.3611,-15.1757,5.07958,4,15
4.06345,-5.4436,0.118572,16,8
0.318164,-0.426383,-0.122823,15,1
3.37592,-4.52585,0.295908,105,9
0.358021,-0.479972,-0.116393,16,2
8.60126,-11.5353,1.25888,30,10
5.7374,-7.69731,-1.52054,18,3
6.68821,-8.97619,1.37444,39,11
3.36763,-4.52132,-0.692218,26,4
6.50961,-8.74287,1.72641,9,12
3.41848,-4.59126,-0.500797,23,5
10.2285,-13.7427,3.33,15,13
3.3835,-4.5476,-0.297059,75,6
12.4613,-16.7547,4.8207,4,14
3.55666,-4.78381,-0.104051,40,7
11.2747,-15.1703,5.06457,19,15
8.56306,-11.5596,0.251105,6,8
0.316599,-0.427546,-0.122823,15,1
3.34149,-4.51411,0.294337,35,9
0.360932,-0.487593,-0.11792,16,2
8.53522,-11.5347,1.25539,22,10
3.29558,-4.4586,-0.680762,30,4
10.4746,-14.1763,2.79173,5,12
3.31046,-4.48037,-0.487375,27,5
10.6563,-14.4275,3.48646,6,13
3.39766,-4.60174,-0.29978,36,6
11.1153,-15.0599,4.32131,40,14
3.50704,-4.75336,-0.103109,48,7
10.789,-14.6285,4.87046,7,15
3.39888,-4.62193,0.100142,16,8
0.315104,-0.428649,-0.122823,15,1
8.3533,-11.3675,0.739298,28,9
0.368528,-0.501506,-0.120973,15,2
3.54682,-4.82841,0.524155,31,10
3.47595,-4.73366,-0.930159,2,3
6.67902,-9.09903,1.3859,9,11
3.30113,-4.49889,-0.685149,34,4
10.4029,-14.1825,2.78579,4,12
3.44564,-4.69754,-0.509687,35,5
3.44061,-4.69412,-0.305014,37,6
12.2328,-16.6957,4.77841,37,14
3.39118,-4.63006,-0.100177,41,7
10.7584,-14.6941,4.87977,18,15
4.70916,-6.45078,0.13941,31,8
0.313606,-0.429746,-0.122823,15,1
3.28988,-4.5099,0.292558,12,9
0.366775,-0.50279,-0.120973,15,2
3.52642,-4.83593,0.523632,69,10
3.48849,-4.78567,-0.937981,32,3
7.88758,-10.8245,1.64451,37,11
3.29359,-4.52161,-0.686856,39,4
6.38361,-8.76696,1.71765,10,12
3.66026,-5.02684,-0.544026,30,5
5.96742,-8.1984,1.97106,48,13
3.4101,-4.68672,-0.303758,34,6
7.92643,-10.8978,3.11107,23,14
3.43614,-4.72598,-0.101992,58,7
10.723,-14.7535,4.88702,13,15
4.68075,-6.45908,0.139235,20,8
0.312104,-0.430838,-0.122823,15,1
6.2835,-8.67712,0.56146,23,9
0.355806,-0.491346,-0.11792,16,2
3.50368,-4.84014,0.52276,26,10
3.47177,-4.79782,-0.937981,33,3
6.63162,-9.16796,1.38931,35,11
3.24987,-4.49447,-0.681006,29,4
8.80621,-12.1832,2.38093,21,12
3.29254,-4.55516,-0.491733,27,5
6.00776,-8.31466,1.99395,10,13
3.3294,-4.60955,-0.298001,51,6
7.83587,-10.8527,3.09038,40,14
3.46644,-4.8028,-0.103388,60,7
10.7483,-14.8973,4.92222,8,15
6.30821,-8.76911,0.188556,41,8
0.310598,-0.431925,-0.122823,15,1
6.26133,-8.71035,0.562193,6,9
0.358585,-0.499024,-0.119446,15,2
3.5228,-4.9025,0.528164,41,10
3.45615,-4.81151,-0.938294,26,3
6.60305,-9.19589,1.39004,29,11
3.39622,-4.73157,-0.715129,22,4
6.53299,-9.10503,1.77491,22,12
3.27815,-4.57044,-0.492081,32,5
10.9043,-15.2085,3.63758,12,13
3.29271,-4.59412,-0.296222,54,6
7.78885,-10.8673,3.08678,46,14
3.4415,-4.80349,-0.103144,53,7
10.7929,-15.0698,4.96674,8,15
4.62744,-6.48264,0.139026,74,8
0.309013,-0.43306,-0.122823,15,1
6.23168,-8.7365,0.562402,21,9
0.349915,-0.490744,-0.117157,16,2
3.39839,-4.76613,0.512127,11,10
3.49467,-4.90297,-0.953625,26,3
6.57621,-9.22973,1.3915,26,11
3.26715,-4.58714,-0.691487,38,4
6.47437,-9.09351,1.76802,12,12
3.27755,-4.60515,-0.494522,15,5
9.94598,-13.9798,3.33496,13,13
3.28742,-4.62243,-0.297268,39,6
7.74332,-10.8879,3.08453,48,14
3.52931,-4.96439,-0.10632,36,7
10.8921,-15.3266,5.03817,16,15
6.19175,-8.74169,0.186985,33,8
0.307424,-0.43419,-0.122823,15,1
6.13421,-8.66365,0.556331,69,9
0.327784,-0.463118,-0.110288,17,2
3.43105,-4.85123,-0.94111,12,3
6.5813,-9.30888,1.39979,13,11
3.24882,-4.59528,-0.690999,24,4
9.92543,-14.0546,3.3445,15,13
3.26436,-4.62409,-0.29664,57,6
7.68167,-10.8814,3.07508,29,14
3.59497,-5.09431,-0.108833,53,7
10.7238,-15.2019,4.98485,14,15
0.305982,-0.435207,-0.122823,15,1
6.08821,-8.65944,0.554761,127,9
0.357855,-0.509177,-0.120973,15,2
6.33608,-9.01867,0.964291,25,10
3.31958,-4.72679,-0.914829,6,3
7.53701,-10.736,1.61063,21,11
3.58487,-5.10643,-0.766071,43,4
6.35332,-9.05328,1.75175,41,12
3.85714,-5.49834,-0.587604,38,5
6.06659,-8.65112,2.05387,8,13
3.23295,-4.61199,-0.295175,54,6
10.14,-14.4653,4.07836,25,14
3.57462,-5.10129,-0.108728,21,7
10.7553,-15.3545,5.02316,21,15
5.75923,-8.24646,0.175571,40,8
0.304537,-0.436219,-0.122823,15,1
6.08995,-8.7265,0.557692,28,9
0.369648,-0.52968,-0.125552,14,2
3.54521,-5.08193,0.542109,48,10
3.29485,-4.72481,-0.912326,6,3
7.51271,-10.7772,1.61306,47,11
3.56362,-5.11403,-0.76534,32,4
6.3341,-9.09324,1.75519,45,12
3.33242,-4.78581,-0.51021,13,5
8.1335,-11.6808,2.76673,11,13
3.23476,-4.64728,-0.296745,27,6
10.075,-14.4798,4.07251,34,14
3.57392,-5.13836,-0.109252,37,7
10.6212,-15.2762,4.98537,17,15
5.73952,-8.27966,0.17585,30,8
0.303013,-0.43728,-0.122823,15,1
5.90592,-8.52606,0.543561,20,9
0.345351,-0.49875,-0.11792,16,2
3.44718,-4.98022,0.529907,65,10
4.40036,-6.35967,-1.22488,13,3
7.51232,-10.8573,1.62111,14,11
3.55139,-5.1346,-0.766558,23,4
6.33152,-9.15754,1.76333,42,12
3.28738,-4.75644,-0.505852,5,5
9.74001,-14.0979,3.33076,31,13
3.64673,-5.28032,-0.336311,78,6
10.0528,-14.5615,4.08511,31,14
3.56505,-5.16397,-0.109531,49,7
10.6589,-15.4451,5.02834,17,15
5.7556,-8.36819,0.177282,28,8
0.301408,-0.438388,-0.122823,15,1
5.86106,-8.52789,0.542305,18,9
0.352504,-0.512896,-0.120973,15,2
6.62827,-9.64779,1.02408,17,10
3.40298,-4.95507,-0.95206,23,3
9.96106,-14.5097,2.16099,23,11
3.7673,-5.48966,-0.8175,9,4
6.35156,-9.25887,1.77835,65,12
3.0938,-4.50994,-0.478485,32,5
6.02007,-8.77894,2.06913,34,13
3.62037,-5.28148,-0.335578,55,6
10.0008,-14.5949,4.08466,11,14
3.56418,-5.2034,-0.11009,66,7
10.6098,-15.4952,5.03196,17,15
5.68013,-8.32052,0.17585,62,8
0.299876,-0.439437,-0.122823,15,1
0.357349,-0.523855,-0.123263,15,2
3.39549,-4.97947,0.527292,33,10
3.28553,-4.82002,-0.923902,10,3
7.36961,-10.8156,1.60697,7,11
3.52797,-5.17957,-0.769483,6,4
6.32809,-9.29405,1.78085,56,12
3.26082,-4.78915,-0.506898,25,5
5.95846,-8.75445,2.05845,47,13
3.1806,-4.67485,-0.296326,30,6
8.50103,-12.4995,3.48989,29,14
3.51901,-5.17612,-0.109252,59,7
10.5893,-15.5817,5.04801,16,15
5.68134,-8.38499,0.176793,61,8
0.29834,-0.440481,-0.122823,15,1
5.78234,-8.54049,0.540526,44,9
0.344423,-0.508902,-0.119446,15,2
3.36245,-4.96819,0.524852,15,10
3.24765,-4.80037,-0.917958,13,3
10.0108,-14.8025,2.19414,23,11
3.47318,-5.13758,-0.76144,20,4
6.25801,-9.26043,1.77021,56,12
3.17521,-4.70036,-0.496265,50,5
5.90766,-8.74858,2.05196,34,13
3.25619,-4.82387,-0.305014,68,6
8.45407,-12.5242,3.48854,18,14
3.45394,-5.11875,-0.107786,59,7
10.5446,-15.633,5.05267,17,15
5.6171,-8.35597,0.175746,50,8
0.296724,-0.441572,-0.122823,15,1
0.338178,-0.503641,-0.11792,16,2
3.70297,-5.51475,0.581154,30,10
3.48765,-5.19604,-0.991169,5,3
10.0195,-14.9331,2.20803,14,11
3.43884,-5.1272,-0.758027,33,4
3.15907,-4.71362,-0.496439,58,5
5.90833,-8.8191,2.06341,65,13
3.35074,-5.00338,-0.315586,58,6
7.93425,-11.8476,3.29193,24,14
3.44295,-5.14301,-0.10803,96,7
11.5949,-17.3268,5.58635,2,15
4.03643,-6.05238,0.126984,85,8
0.295103,-0.442656,-0.122823,15,1
0.358192,-0.537493,-0.125552,14,2
3.76447,-5.65099,0.594054,58,10
5.66272,-8.50374,-1.61816,6,3
7.26424,-10.9129,1.60965,39,11
3.44312,-5.17447,-0.763146,12,4
3.13377,-4.71135,-0.495045,65,5
5.78729,-8.70398,2.03173,47,13
3.29898,-4.96349,-0.312341,46,6
7.93607,-11.9447,3.31083,42,14
3.40395,-5.12335,-0.107367,84,7
11.5451,-17.3833,5.59153,9,15
3.97881,-6.00904,0.125797,77,8
0.278576,-0.420882,-0.116525,16,1
3.68092,-5.56337,0.349604,53,9
0.330321,-0.49944,-0.116393,16,2
3.28872,-4.97437,0.521714,75,10
3.46872,-5.24662,-0.996175,13,3
7.22035,-10.9253,1.60794,39,11
5.08475,-7.69681,-1.13265,8,4
3.11731,-4.72226,-0.495045,43,5
5.75082,-8.71165,2.02906,56,13
3.2594,-4.93939,-0.310143,68,6
7.69039,-11.6587,3.22445,38,14
3.38274,-5.13019,-0.107262,63,7
11.462,-17.3896,5.58066,13,15
3.91937,-5.9644,0.124575,59,8
0.292084,-0.444655,-0.122823,15,1
3.63955,-5.54279,0.347511,63,9
0.346982,-0.528431,-0.122881,15,2
7.87057,-11.9909,1.25487,24,10
3.15562,-4.80947,-0.911074,5,3
7.0635,-10.7695,1.58138,54,11
5.04806,-7.69957,-1.13046,2,4
8.05276,-12.2872,2.32681,26,12
2.91924,-4.45428,-0.465935,31,5
5.77094,-8.80886,2.047,41,13
3.24871,-4.96076,-0.310771,50,6
7.6283,-11.6528,3.21545,45,14
3.38671,-5.17544,-0.107961,75,7
10.4473,-15.9713,5.11375,9,15
3.99028,-6.11874,0.127507,82,8
0.29053,-0.445671,-0.122823,15,1
3.54058,-5.43331,0.33987,75,9
0.345136,-0.529639,-0.122881,15,2
3.22977,-4.95824,0.517705,15,10
0.383729,-0.589313,-0.111381,24,3
7.0302,-10.8008,1.58235,14,11
4.28281,-6.58237,-0.96423,5,4
7.92259,-12.1811,2.30146,27,12
3.11333,-4.78679,-0.499577,62,5
5.78083,-8.8915,2.0615,45,13
3.24443,-4.99217,-0.312027,31,6
7.32535,-11.2757,3.10432,25,14
3.36536,-5.1822,-0.107856,5,7
10.3768,-15.985,5.1065,3,15
0.288972,-0.446683,-0.122823,15,1
3.63981,-5.62844,0.351279,52,9
0.315481,-0.488033,-0.112959,16,2
3.24057,-5.01299,0.522237,20,10
4.52321,-6.99986,-1.31999,2,3
3.521,-5.45098,0.796782,37,11
3.24654,-5.02801,-0.734872,4,4
7.72897,-11.9747,2.25735,36,12
3.24051,-5.02251,-0.522934,51,5
5.4311,-8.42096,1.94778,43,13
3.29321,-5.1081,-0.318517,35,6
7.25849,-11.2587,3.09263,23,14
3.80221,-5.89988,-0.122516,45,7
11.7019,-18.1648,5.78978,18,15
3.11563,-4.8531,0.100665,39,8
0.287333,-0.447739,-0.122823,15,1
3.70327,-5.77287,0.359443,23,9
0.347603,-0.542071,-0.125171,14,2
7.47466,-11.6564,1.21146,10,10
7.35232,-11.47,-2.15786,3,3
3.54705,-5.53572,0.807263,25,11
3.23773,-5.05491,-0.737066,30,4
7.13116,-11.1378,2.09466,42,12
3.13938,-4.90514,-0.509512,47,5
5.42665,-8.48215,1.95732,72,13
3.32504,-5.19922,-0.323436,26,6
7.20353,-11.2638,3.08678,31,14
3.26572,-5.10842,-0.105831,5,7
10.6241,-16.6253,5.28664,5,15
3.08923,-4.85099,0.100386,57,8
0.28569,-0.448789,-0.122823,15,1
3.6006,-5.65834,0.351488,46,9
0.328844,-0.516779,-0.119065,15,2
6.30481,-9.91183,1.02774,17,10
4.36367,-6.8628,-1.28808,5,3
3.5459,-5.57884,0.81165,47,11
3.55132,-5.58951,-0.813112,50,4
6.99815,-11.0188,2.06744,52,12
3.10515,-4.88916,-0.506723,51,5
5.40227,-8.50933,1.95923,50,13
3.34968,-5.27825,-0.327623,3,6
5.90534,-9.30892,2.5451,33,14
3.25875,-5.13894,-0.106215,56,7
11.6285,-18.3447,5.81981,13,15
3.0648,-4.84991,0.100142,72,8
0.284122,-0.449784,-0.122823,15,1
3.5627,-5.64217,0.349709,12,9
0.331231,-0.524564,-0.120591,15,2
6.26167,-9.9203,1.02635,38,10
4.73181,-7.49946,-1.40447,5,3
3.44592,-5.46357,0.793126,20,11
3.68212,-5.84032,-0.847723,54,4
6.83115,-10.8393,2.02927,47,12
3.08063,-4.88817,-0.505503,40,5
5.38091,-8.54143,1.96228,62,13
5.86762,-9.32123,2.54285,20,14
3.23121,-5.13505,-0.105901,30,7
11.5479,-18.359,5.81152,7,15
3.20614,-5.11301,0.105343,39,8
0.28255,-0.450773,-0.122823,15,1
3.55783,-5.67826,0.351174,54,9
0.335653,-0.535699,-0.122881,15,2
6.19421,-9.88975,1.02094,27,10
0.367936,-0.587679,-0.109817,24,3
7.26964,-11.6158,1.68253,41,11
3.66803,-5.86323,-0.849186,34,4
6.70215,-10.7174,2.00205,39,12
3.04453,-4.86849,-0.502366,51,5
5.45304,-8.7233,1.99968,50,13
4.07584,-6.52271,-0.403092,54,6
7.13792,-11.4275,3.11062,38,14
3.08511,-4.94105,-0.101678,66,7
7.74208,-12.4044,3.918,12,15
4.1887,-6.73205,0.138398,20,8
0.280975,-0.451756,-0.122823,15,1
3.63395,-5.845,0.360699,127,9
0.34,-0.546871,-0.125171,14,2
7.91805,-12.7407,1.31239,25,10
0.382561,-0.615807,-0.114823,22,3
7.24267,-11.663,1.6857,45,11
5.36452,-8.64197,-1.24892,12,4
6.62825,-10.6819,1.9911,56,12
3.03697,-4.89432,-0.503935,56,5
5.3822,-8.67722,1.9848,32,13
7.19449,-11.608,3.15291,24,14
3.04679,-4.91779,-0.10098,52,7
7.71196,-12.4527,3.92473,21,15
3.10209,-5.02467,0.103074,61,8
0.279396,-0.452734,-0.122823,15,1
3.53802,-5.73526,0.353163,25,9
0.305105,-0.494586,-0.112959,16,2
6.1679,-10.0023,1.02809,8,10
3.96994,-6.44044,-1.19829,2,3
7.22378,-11.7237,1.69082,37,11
5.30621,-8.61501,-1.24234,34,4
6.51325,-10.5789,1.96763,49,12
3.12328,-5.07286,-0.521191,25,5
5.26853,-8.56052,1.95388,52,13
7.31624,-11.897,3.22445,31,14
3.07882,-5.00847,-0.10262,78,7
7.66541,-12.4746,3.92318,25,15
3.07095,-5.0133,0.10262,57,8
0.277814,-0.453707,-0.122823,15,1
0.303377,-0.495648,-0.112959,16,2
5.97385,-9.76373,1.00142,23,10
3.11775,-5.09769,-0.946429,3,3
6.36585,-10.4126,1.49851,38,11
3.17891,-5.20177,-0.748522,17,4
6.47628,-10.6015,1.96763,46,12
2.99546,-4.9035,-0.502714,43,5
3.32885,-5.45353,-0.334845,74,6
7.25639,-11.8925,3.21635,27,14
3.01654,-4.94577,-0.101119,85,7
7.61696,-12.5326,0.255992,10,8
0.276229,-0.454674,-0.122823,15,1
3.43258,-5.65227,0.346569,51,9
0.301645,-0.496704,-0.112959,16,2
3.54936,-5.84687,0.598411,3,10
3.09584,-5.10178,-0.945177,7,3
6.29549,-10.3787,1.49046,49,11
3.17617,-5.2383,-0.752178,14,4
6.50476,-10.7322,1.98766,25,12
3.18601,-5.25866,-0.537925,16,5
5.47009,-9.02863,2.05196,19,13
3.30669,-5.46,-0.334531,55,6
7.25016,-11.9762,3.2321,51,14
2.96613,-4.90153,-0.100002,92,7
8.32505,-13.7625,4.30985,15,15
6.05007,-10.0333,0.204507,16,8
0.27464,-0.455635,-0.122823,15,1
3.42829,-5.68988,0.348139,72,9
0.328184,-0.544896,-0.123644,14,2
5.49072,-9.12005,0.931346,31,10
3.08934,-5.13341,-0.948932,5,3
6.26639,-10.4126,1.49217,35,11
3.46997,-5.76816,-0.826518,43,4
6.49984,-10.809,1.99767,48,12
5.43595,-9.04693,2.05158,36,13
3.28871,-5.4755,-0.334741,22,6
7.22126,-12.0277,3.23885,33,14
2.94489,-4.90499,-0.0998627,78,7
6.07483,-10.1583,0.206602,5,8
0.272968,-0.456639,-0.122823,15,1
3.44225,-5.7607,0.351698,52,9
0.348434,-0.583115,-0.13204,13,2
5.45578,-9.13403,0.930823,27,10
0.37266,-0.624151,-0.115136,22,3
6.2404,-10.4559,1.49509,45,11
3.10301,-5.20122,-0.743647,26,4
6.45613,-10.826,1.99642,29,12
5.4174,-9.08778,2.05654,39,13
2.85858,-4.79722,-0.292663,31,6
7.16727,-12.0327,3.23345,33,14
2.95451,-4.96214,-0.100805,76,7
10.484,-17.615,5.49266,23,15
4.29763,-7.24379,0.147019,27,8
0.271372,-0.457589,-0.122823,15,1
3.41091,-5.75378,0.350546,51,9
0.296339,-0.499887,-0.112959,16,2
3.49301,-5.89461,0.599457,16,10
0.378533,-0.639045,-0.117639,42,3
6.21903,-10.5032,1.49875,42,11
3.07675,-5.19836,-0.741697,40,4
6.49676,-10.981,2.02082,52,12
2.94004,-4.96936,-0.505155,46,5
4.78802,-8.0961,1.82833,49,13
2.85198,-4.82436,-0.293709,45,6
7.11332,-12.0376,3.22805,40,14
2.95141,-4.99653,-0.101294,80,7
10.3468,-17.5234,5.4528,23,15
6.03318,-10.2505,0.207614,6,8
0.269773,-0.458533,-0.122823,15,1
3.41308,-5.80353,0.352849,19,9
0.294593,-0.500919,-0.112959,16,2
3.47948,-5.91879,0.600677,41,10
0.365291,-0.621628,-0.114197,22,3
6.14111,-10.4547,1.48876,52,11
3.0616,-5.2142,-0.742428,38,4
6.50738,-11.0871,2.03615,41,12
3.15565,-5.37652,-0.545421,50,5
4.73291,-8.06704,1.81803,62,13
2.86645,-4.8877,-0.296954,42,6
7.03085,-11.9934,3.2096,51,14
2.94608,-5.02751,-0.101713,82,7
10.1772,-17.3744,5.39534,12,15
6.01551,-10.3026,0.208242,13,8
0.268171,-0.459472,-0.122823,15,1
3.40388,-5.83438,0.354,108,9
0.318565,-0.546034,-0.122881,15,2
3.44776,-5.91197,0.59876,15,10
0.361129,-0.619486,-0.113571,46,3
6.10657,-10.4795,1.48924,38,11
3.04838,-5.23343,-0.743647,36,4
6.43683,-11.0551,2.02614,49,12
3.14588,-5.403,-0.546989,38,5
4.64546,-7.98171,1.79513,45,13
2.96387,-5.09448,-0.308887,43,6
2.93153,-5.04295,-0.101817,53,7
10.6969,-18.4087,5.70489,15,15
6.22507,-10.7474,0.216794,15,8
0.266566,-0.460405,-0.122823,15,1
3.36648,-5.81684,0.352221,69,9
0.291089,-0.502963,-0.112959,16,2
0.358964,-0.620743,-0.113571,46,3
6.10969,-10.5695,1.49899,38,11
3.03704,-5.25607,-0.745353,41,4
5.73428,-9.92805,1.81589,14,12
3.15192,-5.45708,-0.551347,30,5
4.65978,-8.07098,1.81154,43,13
2.84523,-4.93008,-0.298315,33,6
7.14658,-12.3882,3.30183,40,14
2.92889,-5.07913,-0.102341,43,7
6.21111,-10.7753,3.33255,25,15
0.240678,-0.418721,-0.12941,15,0
3.20882,-5.58482,0.112428,63,8
0.264957,-0.461333,-0.122823,15,1
5.56168,-9.6877,0.58543,31,9
0.3167,-0.551649,-0.123644,14,2
7.04386,-12.2744,1.23813,26,10
0.35483,-0.618566,-0.112946,47,3
6.054,-10.5581,1.49436,49,11
3.02756,-5.28214,-0.747547,36,4
5.74279,-10.0234,1.82966,10,12
3.1378,-5.47669,-0.552219,41,5
4.63353,-8.09061,1.8123,43,13
2.84091,-4.96251,-0.299676,60,6
7.17685,-12.5416,3.33602,33,14
2.95186,-5.16049,-0.103772,55,7
3.19228,-5.6012,0.112533,79,8
0.263345,-0.462255,-0.122823,15,1
6.68123,-11.7325,0.707582,11,9
0.28757,-0.504983,-0.112959,16,2
5.83398,-10.2488,1.03175,19,10
0.364391,-0.640403,-0.1167,43,3
6.04852,-10.6343,1.50216,42,11
3.14646,-5.53427,-0.78167,15,4
5.71656,-10.0589,1.83247,10,12
3.11768,-5.48588,-0.552044,22,5
6.92972,-12.1985,2.72704,15,13
2.84329,-5.00713,-0.301769,51,6
7.20902,-12.7005,3.37157,27,14
2.96639,-5.22816,-0.104924,82,7
6.11477,-10.7815,3.32117,26,15
3.16385,-5.59664,0.112219,17,8
0.26173,-0.463172,-0.122823,15,1
5.52928,-9.7889,0.589198,22,9
0.285806,-0.505984,-0.112959,16,2
5.80405,-10.2795,1.0328,23,10
0.360212,-0.638231,-0.116074,44,3
6.02696,-10.6831,1.50606,63,11
3.00719,-5.33254,-0.75169,42,4
5.68044,-10.077,1.83216,35,12
2.79424,-4.95695,-0.497834,35,5
6.92853,-12.2962,2.74345,29,13
2.87578,-5.10578,-0.307107,34,6
7.21149,-12.8088,3.39361,33,14
2.96087,-5.26114,-0.105378,56,7
6.09699,-10.8381,3.33204,28,15
0.23628,-0.421218,-0.12941,15,0
6.10765,-10.8926,0.217981,15,8
0.260111,-0.464082,-0.122823,15,1
5.52631,-9.8639,0.592548,41,9
0.310906,-0.554936,-0.123644,14,2
9.26697,-16.5474,1.65927,28,10
0.340613,-0.608458,-0.110443,49,3
6.03132,-10.7785,1.51654,42,11
2.9808,-5.32915,-0.74974,48,4
5.64909,-10.1037,1.83341,45,12
2.77313,-4.96194,-0.497311,47,5
6.99859,-12.5225,2.78848,5,13
2.83067,-5.06696,-0.304177,43,6
7.17814,-12.8543,3.39901,36,14
5.45418,-9.77111,-0.195327,18,7
6.01299,-10.7766,3.30667,32,15
3.55331,-6.38929,0.127612,22,8
0.25849,-0.464988,-0.122823,15,1
3.58362,-6.44909,0.386658,141,9
0.316496,-0.569802,-0.126697,14,2
2.73315,-4.92263,0.492604,11,10
0.347008,-0.625247,-0.113259,58,3
6.00136,-10.8134,1.51849,52,11
2.96218,-5.33952,-0.74974,40,4
2.75193,-4.96462,-0.496613,32,5
7.21121,-13.0254,3.43725,11,14
3.38898,-6.12143,-0.122132,32,7
5.95944,-10.7688,3.29787,38,15
0.256784,-0.465932,-0.122823,15,1
3.48864,-6.33272,0.378912,53,9
0.280403,-0.508998,-0.112959,16,2
2.72268,-4.94436,0.493824,26,10
0.342918,-0.622993,-0.112633,58,3
5.95308,-10.8197,1.5163,42,11
3.11957,-5.67213,-0.794832,15,4
2.74907,-5.00261,-0.499402,38,5
4.42496,-8.05231,1.78597,80,13
2.77703,-5.05558,-0.302293,15,6
7.22947,-13.1667,3.46785,9,14
3.37806,-6.15485,-0.122551,71,7
5.93572,-10.8194,3.30667,32,15
3.39909,-6.21629,0.123668,30,8
0.255156,-0.466825,-0.122823,15,1
2.77992,-5.08816,0.303863,12,9
0.278535,-0.510022,-0.112959,16,2
5.70789,-10.456,1.04221,25,10
0.337794,-0.619044,-0.111694,48,3
6.0037,-11.0024,1.53897,35,11
3.06743,-5.62373,-0.786545,34,4
6.30051,-11.556,2.08465,28,12
2.72778,-5.00518,-0.498705,46,5
4.43674,-8.14433,1.80276,46,13
2.60279,-4.77981,-0.285231,46,6
7.21005,-13.2462,3.48179,9,14
5.32499,-9.78296,-0.19442,26,7
5.9607,-10.9554,3.34187,23,15
2.74543,-5.06489,0.100561,39,8
0.253443,-0.467757,-0.122823,15,1
2.70703,-4.99821,0.297896,26,9
5.68843,-10.5074,1.04535,47,10
0.337512,-0.623694,-0.11232,47,3
5.96523,-11.0279,1.53945,42,11
2.94766,-5.45159,-0.760952,31,4
4.92722,-9.11651,1.64131,49,12
2.70563,-5.00813,-0.498008,52,5
4.39429,-8.13385,1.79704,9,13
2.51302,-4.65355,-0.277171,33,6
4.2692,-7.9089,2.07495,20,14
7.45291,-13.8184,4.20685,10,15
2.74573,-5.10791,0.101224,33,8
0.233361,-0.434307,-0.113825,16,1
2.69902,-5.02522,0.298943,40,9
0.274878,-0.512002,-0.112959,16,2
7.23924,-13.4898,1.33941,20,10
0.337091,-0.628408,-0.112946,58,3
4.49476,-8.37917,1.16751,13,11
2.74569,-5.1207,-0.713423,20,4
4.77592,-8.91079,1.60126,19,12
2.69754,-5.03511,-0.499751,56,5
9.03382,-16.8692,3.71963,39,13
2.53742,-4.74021,-0.281777,16,6
6.95787,-13.0036,3.40486,18,14
3.29819,-6.16402,-0.122027,84,7
7.35725,-13.7558,4.17993,15,15
2.73921,-5.14088,0.101678,60,8
0.25009,-0.469559,-0.122823,15,1
2.68334,-5.03814,0.299152,27,9
0.273089,-0.512958,-0.112959,16,2
7.23141,-13.5889,1.34673,12,10
0.323763,-0.608653,-0.109191,50,3
6.00825,-11.2999,1.57138,21,11
2.68493,-5.04962,-0.702211,43,4
4.6938,-8.83147,1.58406,10,12
2.68368,-5.05153,-0.500448,50,5
8.96844,-16.8885,3.71696,26,13
2.49651,-4.70317,-0.279055,33,6
4.21022,-7.93163,2.07315,34,14
3.30852,-6.23555,-0.123214,59,7
7.2576,-13.6841,4.15042,12,15
2.71748,-5.1411,0.101503,53,8
0.248531,-0.470386,-0.122823,15,1
3.36453,-6.36792,0.377447,28,9
0.271387,-0.513861,-0.112959,16,2
6.8682,-13.0102,1.28712,2,10
0.331884,-0.628941,-0.112633,47,3
5.88554,-11.1582,1.54896,29,11
2.66539,-5.05323,-0.70148,21,4
7.01286,-13.3011,2.38156,30,12
2.67063,-5.06745,-0.501146,45,5
6.79684,-12.9023,2.83466,4,13
2.47252,-4.69552,-0.278113,44,6
3.29994,-6.26949,-0.123668,72,7
6.30818,-11.9899,3.6302,7,15
2.71249,-5.1731,0.101957,61,8
0.24697,-0.471207,-0.122823,15,1
2.65084,-5.05983,0.299362,3,9
6.80284,-12.9905,1.28293,27,10
0.326132,-0.623038,-0.111381,24,3
5.75463,-10.9982,1.5241,38,11
2.88786,-5.52161,-0.765096,43,4
4.55945,-8.72142,1.55871,36,12
2.65474,-5.07805,-0.50132,15,5
11.4876,-21.9832,4.82136,33,13
2.48838,-4.76388,-0.281672,57,6
6.04299,-11.5739,3.01434,6,14
3.25583,-6.23843,-0.12283,78,7
7.13837,-13.6835,4.13541,13,15
2.70087,-5.19496,0.102201,64,8
0.245324,-0.472067,-0.122823,15,1
5.31235,-10.2267,0.603957,8,9
0.267883,-0.515697,-0.112959,16,2
6.43427,-12.3918,1.22157,47,10
0.327595,-0.631186,-0.112633,23,3
5.74089,-11.0658,1.53068,24,11
2.61269,-5.03823,-0.696849,23,4
4.5317,-8.74254,1.55965,36,12
2.86897,-5.53481,-0.545421,11,5
7.12794,-13.7571,3.01173,3,13
2.50296,-4.83284,-0.285231,51,6
6.10648,-11.7957,3.06653,23,14
3.11364,-6.0171,-0.118258,98,7
7.09145,-13.7101,4.13593,15,15
2.68547,-5.20969,0.102306,67,8
0.242782,-0.471188,-0.122373,15,1
3.33333,-6.47205,0.381529,18,9
0.266081,-0.516629,-0.112959,16,2
0.323582,-0.628812,-0.112007,23,3
5.74763,-11.1741,1.54287,38,11
2.70945,-5.26976,-0.72756,26,4
6.86957,-13.3667,2.38031,13,12
2.8296,-5.5058,-0.541586,25,5
7.09153,-13.8046,3.01669,10,13
2.46875,-4.80779,-0.283242,51,6
6.11955,-11.9227,3.09398,14,14
3.16473,-6.16849,-0.121015,25,7
7.07528,-13.7966,4.15456,16,15
2.6791,-5.24218,0.10276,64,8
0.241135,-0.472032,-0.122373,15,1
2.60497,-5.10154,0.300199,15,9
0.264276,-0.517554,-0.112959,16,2
5.78965,-11.3432,1.1142,19,10
0.324078,-0.635217,-0.112946,47,3
5.6644,-11.1074,1.53092,38,11
2.67211,-5.24205,-0.722442,27,4
6.87489,-13.4927,2.39845,30,12
6.99608,-13.7365,2.99646,10,13
2.46101,-4.83417,-0.284289,51,6
6.07613,-11.9405,3.09308,36,14
2.4451,-4.80707,-0.0941383,34,7
5.83372,-11.4741,3.44902,5,15
2.66979,-5.27384,0.103179,75,8
0.239321,-0.472955,-0.122373,15,1
2.58355,-5.10571,0.299885,25,9
0.263173,-0.520317,-0.113341,16,2
5.84134,-11.5539,1.13268,19,10
0.317182,-0.627641,-0.111381,36,3
4.75442,-9.41215,1.29474,33,11
2.73607,-5.41884,-0.745353,27,4
6.84854,-13.5637,2.40659,33,12
2.75146,-5.45169,-0.534265,20,5
5.24814,-10.4031,2.2649,23,13
2.4739,-4.90601,-0.287952,63,6
6.06181,-12.0264,3.10927,25,14
2.42836,-4.81778,-0.0941732,42,7
4.82853,-9.58379,2.87548,11,15
5.60425,-11.1622,0.218015,22,8
0.237752,-0.473746,-0.122373,15,1
3.24632,-6.47147,0.379436,20,9
2.5425,-5.07283,0.496439,31,10
0.323065,-0.644584,-0.114197,45,3
