x, y, z, intensity, ring
1.22969,-6.70007,0.595971,22,10
0.120414,-0.656729,-0.10575,13,3
1.2808,-6.99228,0.872828,26,11
1.05447,-5.76232,-0.719273,34,4
3.22058,-17.6168,2.83647,12,12
4.51905,-24.7439,4.88929,25,13
2.55278,-13.9915,-0.745369,42,6
4.45505,-24.4418,5.7358,61,14
1.19544,-6.56503,-0.116477,72,7
5.33321,-29.3177,7.98457,23,15
1.19897,-6.64365,0.117839,6,8
1.20086,-6.66742,0.355047,14,9
0.103008,-0.571921,-0.112959,16,2
1.20171,-6.67883,0.593705,61,10
0.116723,-0.649369,-0.104498,13,3
1.25744,-7.00257,0.87356,28,11
4.54163,-25.3683,5.0095,30,13
2.49584,-13.9551,-0.742961,52,6
4.36559,-24.4342,5.7304,55,14
1.1813,-6.61838,-0.11735,91,7
5.24746,-29.4293,8.00993,23,15
2.51907,-14.2427,0.252466,15,8
0.101011,-0.572277,-0.112959,16,2
1.20953,-6.85957,0.609393,52,10
0.112399,-0.6381,-0.102621,14,3
1.2354,-7.0206,0.875266,14,11
2.14321,-12.1921,-1.51995,4,4
4.42624,-25.2053,4.05322,21,12
1.31887,-7.51804,-0.667787,12,5
4.44762,-25.3531,5.00339,32,13
1.37215,-7.82977,-0.416594,18,6
4.27355,-24.4109,5.72141,55,14
1.15164,-6.58504,-0.116687,100,7
5.14337,-29.4398,8.00786,17,15
1.25089,-7.21932,0.127891,5,8
1.10222,-6.37453,0.339032,70,9
1.17184,-6.79132,0.602943,50,10
0.106033,-0.615147,-0.0988666,15,3
1.15221,-6.68448,0.832855,9,11
1.30296,-7.56698,-0.942781,12,4
4.40922,-25.6333,4.11955,13,12
1.28216,-7.46172,-0.662384,37,5
4.34869,-25.3344,4.99652,16,13
1.31947,-7.69498,-0.409163,50,6
4.18372,-24.4244,5.72096,55,14
1.13101,-6.60281,-0.116931,85,7
5.12464,-29.9489,8.14141,24,15
1.24413,-7.34018,0.129951,72,8
1.11449,-6.58924,0.350232,33,9
0.0969132,-0.572985,-0.112959,16,2
1.16207,-6.87788,0.610264,45,10
0.106515,-0.631096,-0.10137,14,3
1.12242,-6.65734,0.828955,78,11
1.27127,-7.54821,-0.939856,5,4
4.29885,-25.5519,4.1039,13,12
1.19727,-7.11642,-0.631356,15,5
5.0392,-29.9844,5.91012,23,13
1.22151,-7.27605,-0.386658,52,6
4.09457,-24.4158,5.71556,55,14
1.11176,-6.6365,-0.117455,67,7
5.02121,-30.0056,8.15176,12,15
1.11606,-6.72701,0.119025,64,8
1.0419,-6.29359,0.334322,60,9
0.0949126,-0.57332,-0.112959,16,2
1.12018,-6.77378,0.600677,54,10
0.108175,-0.654852,-0.105124,13,3
2.31968,-14.073,-1.75126,3,4
4.20995,-25.5687,4.10422,19,12
4.2552,-25.8717,5.09651,20,13
1.08925,-6.6299,-0.352116,13,6
4.06865,-24.7915,5.80014,49,14
1.09215,-6.66205,-0.117839,6,7
4.90395,-29.9467,8.13106,30,15
1.18645,-7.3092,0.129253,60,8
1.04259,-6.43717,0.341754,51,9
0.0929107,-0.573648,-0.112959,16,2
1.09303,-6.75601,0.59876,65,10
0.102107,-0.631825,-0.10137,14,3
1.06991,-6.62778,0.824324,49,11
1.00871,-6.25561,-0.778014,13,4
4.09837,-25.4448,4.082,22,12
4.20166,-26.1151,5.14154,17,13
4.09296,-25.4678,-1.35184,12,6
3.99228,-24.8691,5.81498,35,14
1.21389,-7.57012,-0.133825,97,7
4.822,-30.1047,8.16936,12,15
1.16407,-7.33305,0.129602,60,8
0.992623,-6.26717,0.332543,50,9
0.0909077,-0.573969,-0.112959,16,2
1.06477,-6.73027,0.596145,41,10
0.0999009,-0.632177,-0.10137,14,3
1.04305,-6.60795,0.821399,26,11
0.980062,-6.21595,-0.772652,1,4
4.01076,-25.4667,4.08325,13,12
1.11741,-7.09511,-0.628393,53,5
4.02353,-25.5769,5.03278,13,13
1.05999,-6.74586,-0.357873,30,6
3.99217,-25.4354,5.94411,45,14
1.19211,-7.60395,-0.134349,100,7
4.7139,-30.1023,8.16419,24,15
1.01459,-6.53875,0.1155,26,8
0.986518,-6.36517,0.337567,35,9
0.0889037,-0.574283,-0.112959,16,2
1.05314,-6.81073,0.602943,18,10
0.103121,-0.667662,-0.107001,13,3
1.05085,-6.81166,0.846261,21,11
0.942941,-6.11928,-0.760221,40,4
3.91124,-25.3823,4.06761,5,12
1.0696,-6.94931,-0.615145,12,5
3.81937,-24.8437,4.88586,6,13
1.0516,-6.84822,-0.363107,30,6
3.9072,-25.4742,5.94996,37,14
1.13475,-7.39834,-0.130649,58,7
4.60351,-30.049,8.14555,12,15
1.11172,-7.32499,0.129322,50,8
0.949342,-6.26983,0.332333,27,9
0.0979559,-0.648468,-0.103873,13,3
1.01522,-6.72874,0.835536,54,11
0.939209,-6.2323,-0.77387,12,4
3.80969,-25.3098,4.05384,28,12
1.12591,-7.48891,-0.662558,21,5
3.75944,-25.0057,4.91524,25,13
1.09146,-7.26842,-0.385193,52,6
3.7753,-25.1709,5.87617,59,14
1.12758,-7.52685,-0.132848,88,7
3.8365,-25.64,6.9467,8,15
1.00289,-6.76705,0.119409,50,8
0.937319,-6.33222,0.335474,112,9
0.0849926,-0.574874,-0.112959,16,2
0.963972,-6.528,0.57732,60,10
0.0968446,-0.656623,-0.105124,13,3
0.990284,-6.72242,0.834318,35,11
0.915715,-6.22375,-0.772408,23,4
4.62805,-31.455,5.03563,8,12
1.1002,-7.48669,-0.662035,10,5
3.63706,-24.7797,4.8683,31,13
2.61306,-17.8248,-0.944141,10,6
3.74501,-25.5773,5.96795,38,14
1.09798,-7.49889,-0.132289,44,7
4.56772,-31.2342,8.45821,13,15
0.950354,-6.56253,0.115744,64,8
0.909784,-6.29789,0.333485,45,9
0.933222,-6.47611,0.572439,41,10
0.0907222,-0.629568,-0.100744,14,3
0.983822,-6.8357,0.847967,28,11
0.896766,-6.23854,-0.77387,24,4
0.996844,-6.94337,1.111,12,12
3.52255,-24.5662,4.82403,34,13
0.994111,-6.94155,-0.367503,21,6
4.36268,-30.5011,7.1134,31,14
1.09273,-7.64917,-0.134872,75,7
5.29446,-37.1079,10.0437,9,15
0.925148,-6.56614,0.115744,78,8
0.890043,-6.33299,0.33516,39,9
0.919174,-6.54855,0.57854,56,10
0.0932404,-0.665124,-0.106375,13,3
0.938025,-6.69985,0.830662,11,11
0.98194,-7.02243,-0.870635,11,4
0.973182,-6.96867,1.11444,18,12
1.03557,-7.41544,-0.655063,16,5
3.43904,-24.6574,4.8393,31,13
0.986462,-7.08181,-0.374725,3,6
3.57638,-25.7077,5.99225,22,14
1.04573,-7.52654,-0.132638,73,7
4.34289,-31.2975,8.46649,19,15
0.905214,-6.59112,0.116128,59,8
0.879317,-6.41916,0.339556,60,9
0.885776,-6.47473,0.571742,71,10
0.0909181,-0.665446,-0.106375,13,3
0.92188,-6.75619,0.837242,30,11
0.955544,-7.01205,-0.868928,14,4
0.952047,-6.99551,1.11819,43,12
0.950574,-6.98469,-0.616714,28,5
3.47802,-25.5894,5.0198,27,13
1.07779,-7.94019,-0.419944,76,6
3.4793,-25.666,5.97965,7,14
0.941922,-6.95746,-0.122551,71,7
4.23905,-31.3527,8.47736,26,15
0.889096,-6.64577,0.117036,45,8
0.865431,-6.47747,0.342487,63,9
0.0771169,-0.577964,-0.113341,16,2
0.902381,-6.77205,0.597714,78,10
0.0880736,-0.661843,-0.10575,13,3
0.903258,-6.79675,0.841874,40,11
0.923907,-6.96142,1.11225,27,12
3.42035,-25.8407,5.06674,23,13
0.933858,-7.06477,-0.373469,24,6
3.36061,-25.4577,5.92836,60,14
0.964382,-7.3055,-0.128624,77,7
4.13783,-31.3876,8.48305,26,15
0.893429,-6.85094,0.120596,97,8
0.843587,-6.4864,0.342801,51,9
0.075099,-0.57823,-0.113341,16,2
0.867718,-6.69019,0.590219,60,10
0.0853702,-0.658213,-0.105124,13,3
0.889639,-6.86861,0.850404,21,11
0.951082,-7.35307,-0.910364,18,4
3.28436,-25.4272,4.06073,21,12
0.902044,-6.99313,-0.616888,22,5
3.1847,-24.6895,4.83892,25,13
0.908384,-7.05198,-0.372632,28,6
3.28214,-25.5151,5.93916,30,14
0.898619,-6.99544,-0.123109,72,7
3.24167,-25.2702,6.82661,20,15
0.840317,-6.62389,0.116547,68,8
0.825202,-6.52299,0.34458,45,9
0.0730802,-0.578489,-0.113341,16,2
0.847276,-6.70687,0.591439,73,10
0.0801052,-0.634989,-0.10137,14,3
0.846057,-6.71608,0.831149,68,11
0.88081,-7.00182,-0.866491,12,4
3.17761,-25.2954,4.03789,15,12
0.896723,-7.14846,-0.63031,15,5
3.21425,-25.6595,5.02667,16,13
0.884019,-7.06715,-0.37326,73,6
3.20346,-25.6095,5.9585,61,14
0.872956,-6.98862,-0.122935,65,7
3.14914,-25.2468,6.81729,24,15
0.813589,-6.60708,0.116198,67,8
0.826115,-6.72817,0.355256,30,9
0.0709594,-0.578753,-0.113341,16,2
0.820263,-6.69016,0.589696,52,10
0.0772972,-0.631357,-0.100744,14,3
0.832758,-6.81175,0.842605,38,11
0.890503,-7.29466,-0.902321,16,4
3.05668,-25.0755,4.00097,15,12
0.893628,-7.34156,-0.647044,25,5
3.06214,-25.1936,4.93318,35,13
3.02481,-24.9227,5.79609,35,14
0.83266,-6.87067,-0.120806,31,7
3.05194,-25.2199,6.80694,24,15
0.0689387,-0.578997,-0.113341,16,2
0.794795,-6.6852,0.588998,80,10
0.0782428,-0.659099,-0.105124,13,3
0.827647,-6.98232,0.863322,57,11
0.831562,-7.02583,-0.868685,16,4
2.99002,-25.2626,4.02913,21,12
0.767213,-6.49185,-0.571916,32,5
2.99259,-25.3601,4.96371,35,13
0.823141,-6.98602,-0.368654,35,6
2.94779,-25.0556,5.82443,28,14
0.86615,-7.3621,-0.129392,78,7
2.95172,-25.1267,6.77899,32,15
0.763284,-6.59688,0.348034,36,9
0.0669172,-0.579234,-0.113341,16,2
0.770086,-6.67606,0.587953,50,10
0.0715295,-0.620107,-0.0988666,15,3
0.802444,-6.96727,0.861129,76,11
0.795106,-6.91417,-0.854548,12,4
0.805336,-7.01391,1.11819,3,12
0.745001,-6.49845,-0.572265,22,5
2.92726,-25.5337,4.99576,16,13
2.96184,-25.8753,-1.36492,19,6
2.83946,-24.8445,5.77314,49,14
0.817775,-7.16639,-0.125902,33,7
2.86574,-25.1523,6.78313,16,15
0.740555,-6.58146,0.115605,16,8
0.744037,-6.63324,0.349814,39,9
0.064996,-0.579453,-0.113341,16,2
0.751047,-6.7063,0.590393,82,10
0.0741937,-0.663542,-0.10575,13,3
0.774816,-6.94044,0.857473,19,11
0.800872,-7.18521,-0.887696,10,4
0.782813,-7.03435,1.12101,12,12
0.72521,-6.51673,-0.573659,31,5
2.83703,-25.534,4.99385,26,13
0.781296,-7.04307,-0.371376,7,6
2.76237,-24.9414,5.79339,57,14
0.778249,-7.03802,-0.123598,33,7
2.85784,-25.886,6.97828,4,15
0.0575486,-0.528884,-0.122823,15,1
0.724977,-6.67352,0.351802,36,9
0.062973,-0.579676,-0.113341,16,2
0.72441,-6.67917,0.587778,82,10
0.0667733,-0.616664,-0.0982409,15,3
0.765092,-7.07731,0.874047,33,11
0.765135,-7.08928,-0.875509,13,4
2.67431,-24.8192,3.95373,15,12
0.696909,-6.46771,-0.569127,28,5
2.8241,-26.2523,5.13238,17,13
0.763104,-7.10533,-0.374516,14,6
2.67093,-24.9102,5.78394,42,14
0.757082,-7.07251,-0.124156,26,7
2.79395,-26.1436,7.04505,26,15
0.76254,-7.2308,0.126914,50,8
0.672867,-6.4019,0.337358,105,9
0.0609491,-0.579892,-0.113341,16,2
0.701092,-6.68166,0.587778,73,10
0.0654436,-0.624752,-0.0994923,14,3
0.724898,-6.93186,0.855767,54,11
0.756256,-7.24393,-0.894277,7,4
2.59217,-24.8716,3.96061,12,12
0.673915,-6.46614,-0.568778,11,5
2.678,-25.7387,5.03011,13,13
0.733758,-7.06425,-0.372213,17,6
2.58557,-24.9349,5.78754,7,14
0.743715,-7.18451,-0.126076,20,7
2.66693,-25.8073,6.95188,25,15
0.721073,-7.07426,0.124122,48,8
0.641434,-6.3148,0.332647,38,9
0.0589246,-0.580102,-0.113341,16,2
0.684799,-6.75344,0.593879,45,10
0.0652517,-0.644629,-0.102621,14,3
0.680341,-6.73289,0.830905,66,11
0.789538,-7.8272,-0.965937,6,4
0.690505,-6.85741,1.0916,7,12
0.652138,-6.47639,-0.569476,10,5
2.5744,-25.6112,5.00339,6,13
0.713282,-7.1085,-0.374411,52,6
2.62146,-26.1712,6.07233,63,14
0.732359,-7.32436,-0.128485,56,7
2.57299,-25.778,6.94153,17,15
0.740632,-7.5265,0.13201,13,8
0.624065,-6.3647,0.33516,112,9
0.0568993,-0.580304,-0.113341,16,2
0.621629,-6.35127,0.55832,48,10
0.064922,-0.664514,-0.10575,13,3
0.689975,-7.07505,0.872828,33,11
0.689125,-7.07912,-0.873316,6,4
0.669048,-6.88534,1.09567,8,12
0.677893,-6.97637,-0.613228,2,5
2.48157,-25.5848,4.99652,9,13
0.715987,-7.39523,-0.38938,63,6
2.54865,-26.3722,6.11687,8,14
0.688739,-7.13977,-0.125204,74,7
2.48929,-25.8522,6.95913,17,15
0.714166,-7.52704,0.131975,6,8
0.604287,-6.39269,0.33652,60,9
0.0548733,-0.580499,-0.113341,16,2
0.622288,-6.5954,0.579586,48,10
0.0607499,-0.645069,-0.102621,14,3
0.656543,-6.98453,0.861373,28,11
0.767697,-8.18235,-1.00908,5,4
0.68103,-7.27228,-0.639026,13,5
2.37178,-25.3744,4.95378,35,13
0.665308,-7.1312,-0.375354,56,6
2.54782,-27.3608,6.34407,35,14
0.686575,-7.38703,-0.129497,71,7
2.40796,-25.957,6.98501,25,15
0.643496,-7.04359,0.123458,45,8
0.574367,-6.31122,0.332124,50,9
0.0528467,-0.580687,-0.113341,16,2
0.607373,-6.68683,0.58743,39,10
0.0574277,-0.633474,-0.100744,14,3
0.613376,-6.77919,0.83578,45,11
0.615585,-6.81686,-0.840411,1,4
0.620609,-6.88591,1.09504,65,12
2.30219,-25.5937,4.995,9,13
0.646662,-7.20311,-0.379017,31,6
0.665951,-7.44714,-0.130509,57,7
2.3242,-26.0422,7.00571,8,15
0.630629,-7.17926,0.125797,77,8
0.0462897,-0.528032,-0.122373,15,1
0.558251,-6.38084,0.335683,36,9
0.050718,-0.580877,-0.113341,16,2
0.622294,-7.14156,0.627173,48,10
0.0537364,-0.617936,-0.0982409,15,3
0.594867,-6.84062,0.843092,61,11
0.640529,-7.38062,-0.909633,5,4
0.610375,-7.04744,1.12038,80,12
2.19976,-25.5022,4.97554,13,13
0.625567,-7.26711,-0.382262,24,6
0.634987,-7.39165,-0.129497,78,7
0.601965,-7.15362,0.125308,45,8
0.552186,-6.5758,0.345836,112,9
0.04869,-0.58105,-0.113341,16,2
0.61031,-7.29855,0.640769,37,10
0.0519076,-0.622057,-0.0988666,15,3
0.56765,-6.81704,0.839924,64,11
0.589802,-7.09805,-0.874534,4,4
0.58299,-7.01606,1.11506,40,12
0.523719,-6.31612,-0.554485,2,5
2.57892,-31.1681,6.07917,20,13
0.6013,-7.29816,-0.127821,28,7
2.11369,-25.7093,6.91202,4,15
0.524423,-6.51796,0.342696,55,9
0.0466615,-0.581217,-0.113341,16,2
0.566217,-7.06827,0.620375,43,10
0.0517373,-0.645855,-0.102621,14,3
0.552317,-6.9099,0.851136,26,11
0.0691256,-0.866718,-0.106758,4,4
0.502773,-6.33181,-0.555705,5,5
1.53894,-19.3811,3.77916,17,13
0.565202,-7.13382,-0.375039,42,6
1.97359,-24.9654,5.78169,35,14
0.596734,-7.56535,-0.132464,81,7
0.58223,-7.53238,0.13187,49,8
0.0407578,-0.528488,-0.122373,15,1
0.499522,-6.49188,0.34123,47,9
0.0447338,-0.581368,-0.113341,16,2
0.526608,-6.85954,0.601898,69,10
0.0494826,-0.646031,-0.102621,14,3
0.526378,-6.88804,0.848211,68,11
0.0627796,-0.823409,-0.101395,6,4
1.98945,-26.1535,4.15427,30,12
0.477239,-6.27384,-0.550476,18,5
1.9308,-25.4413,4.95951,35,13
0.557941,-7.36877,-0.387286,100,6
1.88995,-25.0187,5.79249,21,14
0.534105,-7.08682,-0.124052,39,7
0.547988,-7.42668,0.129986,85,8
0.0389127,-0.528627,-0.122373,15,1
0.474226,-6.45772,0.339346,45,9
0.0427042,-0.581521,-0.113341,16,2
0.499168,-6.81364,0.597714,46,10
0.0466512,-0.63832,-0.10137,14,3
0.507672,-6.96309,0.857229,54,11
0.0599051,-0.823623,-0.101395,6,4
0.516206,-7.11438,1.12977,8,12
0.456057,-6.2854,-0.551347,38,5
1.84227,-25.4518,4.96027,26,13
1.79855,-24.9688,5.77944,7,14
0.535878,-7.45763,-0.130509,99,7
0.524023,-7.45647,0.130474,64,8
0.45405,-6.49321,0.341126,51,9
0.0405726,-0.581673,-0.113341,16,2
0.47441,-6.80143,0.596494,67,10
0.043326,-0.622714,-0.0988666,15,3
0.492159,-7.09156,0.872828,26,11
0.494897,-7.14907,-0.879897,4,4
0.434249,-6.30492,-0.552916,43,5
2.14067,-31.16,6.07116,20,13
0.468604,-6.83856,-0.359234,13,6
1.71311,-25.0002,5.78529,7,14
0.502207,-7.34774,-0.128554,77,7
0.472375,-7.09321,0.124087,26,8
0.035129,-0.528892,-0.122373,15,1
0.43236,-6.52672,0.342801,75,9
0.0384403,-0.581818,-0.113341,16,2
0.445406,-6.7415,0.59109,52,10
0.0413031,-0.62681,-0.0994923,14,3
0.453797,-6.90514,0.849673,52,11
0.473105,-7.21819,-0.888184,1,4
0.413212,-6.33828,-0.555705,41,5
1.98619,-30.5485,5.95057,23,13
0.460337,-7.09933,-0.372841,35,6
2.01148,-31.0212,7.17684,10,14
0.479532,-7.41538,-0.129706,100,7
0.474373,-7.53994,0.13187,89,8
0.0331903,-0.529017,-0.122373,15,1
0.429131,-6.8783,0.602943,46,10
0.0402321,-0.646673,-0.102621,14,3
0.434631,-7.00582,0.86186,52,11
0.0507441,-0.82026,-0.100908,6,4
1.14766,-18.6043,2.95223,16,12
0.390956,-6.35566,-0.557099,38,5
1.17407,-19.1411,3.72764,43,13
0.415293,-6.78998,-0.356513,20,6
1.89456,-30.9758,7.16469,52,14
0.41157,-6.74843,-0.118013,30,7
0.45714,-7.7173,0.134942,11,8
0.0312511,-0.529135,-0.122373,15,1
0.415502,-7.05608,0.370434,34,9
0.0341744,-0.582084,-0.113341,16,2
0.40275,-6.85994,0.6012,58,10
0.0378616,-0.646816,-0.102621,14,3
0.42572,-7.29471,0.897202,38,11
0.0456618,-0.784769,-0.0965205,14,4
1.07535,-18.5374,2.94097,21,12
0.362597,-6.26954,-0.54943,35,5
1.51279,-26.2365,5.10834,28,13
0.516259,-8.98083,-0.471442,39,6
1.08483,-18.8716,4.36405,25,14
0.386375,-6.74191,-0.117874,67,7
0.502652,-8.99059,0.157176,41,8
0.0294963,-0.529236,-0.122373,15,1
0.392764,-7.06938,0.371062,36,9
0.0323455,-0.582189,-0.113341,16,2
0.378346,-6.8314,0.598586,39,10
0.0352809,-0.639049,-0.10137,14,3
0.400437,-7.27626,0.894765,27,11
0.0462125,-0.842398,-0.103589,11,4
1.00676,-18.4107,2.92032,33,12
0.344532,-6.30048,-0.552044,26,5
1.04098,-19.0977,3.71772,21,13
0.344469,-6.33994,-0.332752,35,6
1.02298,-18.8887,4.3672,15,14
0.370376,-6.86096,-0.119933,100,7
0.963463,-18.384,0.321334,20,8
0.0276488,-0.529336,-0.122373,15,1
0.400585,-7.69501,0.403824,39,9
0.0303132,-0.582298,-0.113341,16,2
0.352331,-6.79089,0.594925,73,10
0.0330499,-0.639168,-0.10137,14,3
0.366046,-7.10316,0.873316,28,11
0.0432717,-0.842554,-0.103589,11,4
0.953892,-18.637,2.95567,42,12
0.324674,-6.34343,-0.555705,26,5
0.323148,-6.35706,-0.333589,39,6
0.351163,-6.95608,-0.121573,26,7
0.897626,-18.3533,0.32074,39,8
0.0258008,-0.529429,-0.122373,15,1
0.381384,-7.82596,0.410628,16,9
0.0282804,-0.5824,-0.113341,16,2
0.327276,-6.76422,0.592485,52,10
0.0306284,-0.635334,-0.100744,14,3
0.339916,-7.07664,0.869903,28,11
0.0388584,-0.808985,-0.0994454,12,4
0.894825,-18.6973,2.96475,16,12
0.306432,-6.47386,-0.33966,35,6
0.882036,-18.6344,4.30691,25,14
0.360028,-7.63435,-0.133406,81,7
0.320808,-7.03762,0.12297,8,8
0.024045,-0.529512,-0.122373,15,1
0.0263489,-0.582491,-0.113341,16,2
0.314529,-6.98023,0.61131,65,10
0.0286985,-0.639378,-0.10137,14,3
0.316359,-7.07574,0.86966,45,11
0.0367962,-0.822991,-0.101152,12,4
0.826137,-18.5502,2.94097,7,12
0.280783,-6.32957,-0.554311,13,5
0.862383,-19.5173,3.79748,9,13
0.289441,-6.5766,-0.344999,37,6
0.818525,-18.5983,4.29791,12,14
0.303445,-6.9223,-0.120945,31,7
0.298143,-7.05463,0.123249,72,8
0.022289,-0.529589,-0.122373,15,1
0.676119,-16.1317,0.846168,32,9
0.0244172,-0.582575,-0.113341,16,2
0.295035,-7.06882,0.61898,58,10
0.026086,-0.627628,-0.0994923,14,3
0.0336778,-0.817164,-0.10042,12,4
0.762756,-18.5865,2.94629,34,12
0.259419,-6.34843,-0.555879,35,5
0.79822,-19.5338,3.80015,13,13
0.268361,-6.59548,-0.345941,43,6
0.755493,-18.6478,4.30871,15,14
0.280651,-6.95728,-0.121539,13,7
0.282424,-7.28542,0.127263,66,8
0.606923,-15.7986,0.828583,51,9
0.0222817,-0.582661,-0.113341,16,2
0.263441,-6.92053,0.605907,52,10
0.0233366,-0.615876,-0.0976151,15,3
0.26488,-6.99045,0.858935,26,11
0.0315735,-0.837114,-0.102858,16,4
0.699505,-18.6325,2.95317,9,12
0.23681,-6.33735,-0.554833,46,5
0.71509,-19.2266,3.73986,34,13
0.241895,-6.53455,-0.342696,74,6
0.688718,-18.6933,4.31861,6,14
0.329398,-8.94057,-0.156164,33,7
0.26091,-7.43429,0.129846,28,8
0.253632,-7.29957,0.382785,19,9
0.0202478,-0.582735,-0.113341,16,2
0.236184,-6.83181,0.598063,48,10
0.0213225,-0.619902,-0.0982409,30,3
0.243195,-7.10644,0.873072,45,11
0.0272892,-0.801513,-0.0984704,13,4
0.646589,-19.089,3.02513,16,12
0.212373,-6.30234,-0.551696,30,5
0.635275,-18.8522,3.66659,12,13
0.21982,-6.55731,-0.343847,60,6
0.94679,-28.391,6.55822,9,14
0.240272,-7.24291,-0.126495,20,7
0.236475,-7.48312,0.130684,37,8
0.0167108,-0.531744,-0.122823,15,1
0.22503,-7.2006,0.377552,19,9
0.0181117,-0.582805,-0.113341,16,2
0.214898,-6.9541,0.608696,67,10
0.0190503,-0.619976,-0.0982409,30,3
0.0243093,-0.795651,-0.0977392,13,4
0.553083,-18.2066,2.88496,13,12
0.191155,-6.32893,-0.553962,10,5
0.58403,-19.449,3.78222,9,13
0.195725,-6.55608,-0.343743,67,6
0.553318,-18.6432,4.30601,15,14
0.554557,-18.6849,-0.32629,7,7
0.448966,-16.0733,0.28067,14,8
0.198638,-7.20137,0.377552,64,9
0.0160773,-0.582865,-0.113341,16,2
0.190512,-6.95083,0.608347,45,10
0.0169937,-0.623988,-0.0988666,15,3
0.185732,-6.86392,0.843092,26,11
0.0224066,-0.833438,-0.10237,5,4
0.170339,-6.37736,-0.558145,42,5
0.505877,-19.0643,3.70704,13,13
0.173208,-6.5707,-0.344475,70,6
0.487829,-18.6294,4.30241,31,14
0.222444,-8.55181,-0.149323,65,7
0.184484,-7.5486,0.131801,28,8
0.174268,-7.23397,0.379226,75,9
0.0140426,-0.582917,-0.113341,16,2
0.0147216,-0.620094,-0.0982409,15,3
0.0198687,-0.849387,-0.10432,5,4
0.165881,-7.14478,-0.625255,30,5
0.430598,-18.6872,3.63339,30,13
0.150454,-6.57925,-0.344894,81,6
0.65482,-28.8554,6.6635,38,14
0.195067,-8.66248,-0.151243,25,7
0.432319,-19.3485,5.1857,7,15
0.149633,-7.14334,0.124715,8,8
0.146589,-7.11672,0.373051,42,9
0.0120078,-0.582963,-0.113341,16,2
0.147231,-7.20895,0.630833,15,10
0.012397,-0.612241,-0.0969894,15,3
0.138009,-6.87498,0.844311,71,11
0.0169035,-0.849451,-0.10432,5,4
0.566037,-28.6966,4.54599,13,12
0.172374,-8.73891,-0.764704,15,5
0.361567,-18.4942,3.59561,34,13
0.37119,-19.3318,4.46393,3,14
0.165095,-8.67711,-0.151487,99,7
0.36467,-19.3441,5.18415,21,15
0.125359,-7.18181,0.125378,33,8
0.009192,-0.531927,-0.122823,15,1
0.121576,-7.10721,0.372527,49,9
0.00997283,-0.583001,-0.113341,16,2
0.326294,-19.2716,1.68629,14,10
0.0101936,-0.608331,-0.0963636,15,3
0.113516,-6.84564,0.840655,33,11
0.01231,-0.750264,-0.0921332,8,4
0.295581,-18.2086,2.88434,15,12
0.114672,-7.06408,-0.618109,16,5
0.29644,-18.4601,3.58874,27,13
0.104931,-6.6061,-0.346255,3,6
0.305056,-19.4187,4.48372,32,14
0.116975,-7.52994,-0.131452,7,7
0.297087,-19.3414,5.18311,19,15
0.0975533,-6.98626,0.121957,52,8
0.0073351,-0.531955,-0.122823,15,1
0.0952972,-6.99974,0.366875,58,9
0.212033,-15.7763,1.38037,36,10
0.00843692,-0.636015,-0.100744,14,3
0.3459,-26.4233,3.24465,28,11
0.00969112,-0.750302,-0.0921332,8,4
0.228646,-17.9448,2.84241,34,12
0.0836409,-6.56439,-0.574356,31,5
0.237699,-18.9145,3.67689,18,13
0.0823652,-6.64637,-0.348348,16,6
0.234246,-19.1722,4.42659,35,14
0.090787,-7.53831,-0.131591,7,7
0.343516,-28.9429,7.75577,10,15
0.0728301,-6.95456,0.121399,82,8
0.00547823,-0.531978,-0.122823,15,1
0.0689024,-6.80631,0.356722,42,9
0.00590247,-0.583057,-0.113341,16,2
0.155215,-15.6016,1.36503,66,10
0.0061782,-0.63209,-0.100118,14,3
0.151376,-15.7688,1.93626,49,11
0.00695965,-0.738422,-0.0906708,8,4
0.165585,-17.9001,2.83522,15,12
0.0608368,-6.5766,-0.575402,21,5
0.172816,-19.0408,3.70131,26,13
0.058791,-6.60467,-0.34615,50,6
0.168783,-19.3405,4.46528,13,14
0.0663025,-7.75254,-0.135326,61,7
0.161955,-19.3314,5.18,1,15
0.0482751,-6.91478,0.120701,92,8
0.00362123,-0.531994,-0.122823,15,1
0.0453288,-6.83447,0.358187,40,9
0.00386717,-0.583074,-0.113341,16,2
0.101566,-15.7276,1.37601,51,10
0.00407103,-0.647911,-0.102621,14,3
0.0967538,-15.8388,1.94479,70,11
0.00487686,-0.821814,-0.100908,12,4
0.102135,-17.7327,2.80862,42,12
0.037869,-6.57478,-0.575228,18,5
0.104999,-18.7998,3.65437,33,13
0.0357475,-6.60684,-0.346255,50,6
0.100403,-19.1753,4.42704,26,14
0.0347365,-6.86287,-0.119793,6,7
0.0942853,-19.2932,5.16965,15,15
0.0239011,-6.84692,0.119514,92,8
0.00176419,-0.532003,-0.122823,15,1
0.0220551,-7.02033,0.367922,66,9
0.0469692,-15.8295,1.3849,36,10
0.00180936,-0.647921,-0.102621,14,3
0.0414203,-15.8211,1.9426,49,11
0.00215366,-0.881378,-0.10822,13,4
0.0400475,-17.6499,2.79548,39,12
0.0174137,-7.67466,-0.671448,10,5
0.0401081,-19.1495,3.7223,11,13
0.012665,-6.59693,-0.345731,30,6
0.033661,-19.2867,4.45268,16,14
0.0239808,-15.2657,-0.266463,82,7
0.0269277,-19.2857,5.16758,19,15
-3.10915e-07,-7.11292,0.124156,33,8
-9.28068e-05,-0.532006,-0.122823,15,1
-0.0024018,-6.88255,0.360699,27,9
-0.000203479,-0.583086,-0.113341,16,2
-0.01385,-26.451,2.31416,31,10
-0.000452337,-0.647923,-0.102621,14,3
-0.0137595,-15.7696,1.93626,53,11
-0.000939593,-0.897261,-0.11017,15,4
-0.0218912,-17.9186,2.83803,42,12
-0.0093786,-7.67667,-0.671622,23,5
-0.0263538,-18.8767,3.66926,18,13
-0.0104594,-6.65885,-0.348976,64,6
-0.0337046,-19.312,4.45853,9,14
-0.0146428,-7.62682,-0.133127,73,7
-0.0405318,-19.3532,5.1857,21,15
-0.00184988,-0.50472,-0.116525,16,1
-0.0267495,-6.96639,0.365096,51,9
-0.110114,-27.431,2.39992,26,10
-0.00271395,-0.647918,-0.102621,14,3
-0.0682621,-15.6444,1.9209,45,11
-0.00410756,-0.905193,-0.111145,15,4
-0.0842996,-17.8888,2.83334,22,12
-0.0406163,-8.61898,-0.754071,6,5
-0.0936299,-19.1592,3.72421,35,13
-0.0367763,-7.26594,-0.380796,38,6
-0.151511,-28.9364,6.6806,9,14
-0.0404424,-7.47475,-0.130474,78,7
-0.108141,-19.3626,5.18829,17,15
-0.0539428,-7.72663,0.134872,45,8
-0.00352801,-0.493019,-0.113825,16,1
-0.00427419,-0.583071,-0.113341,16,2
-0.197597,-26.3287,2.30353,37,10
-0.00497561,-0.647904,-0.102621,14,3
-0.123275,-15.6956,1.92724,45,11
-0.00742676,-0.925023,-0.113582,12,4
-0.225462,-27.4845,4.35326,18,12
-0.0594087,-7.24209,-0.633622,31,5
-0.15965,-19.0566,3.70437,19,13
-0.0599699,-7.01212,-0.367503,38,6
-0.168663,-19.3269,4.46213,3,14
-0.0669248,-7.51856,-0.131242,79,7
-0.262043,-28.8723,7.73662,26,15
-0.00497315,-0.482937,-0.12941,15,0
-0.077647,-7.41446,0.129427,60,8
-0.0056639,-0.531976,-0.122823,15,1
-0.0747766,-6.91011,0.362165,25,9
-0.0063094,-0.583052,-0.113341,16,2
-0.290465,-26.4155,2.3112,12,10
-0.178785,-15.7586,1.93504,24,11
-0.0110214,-0.956751,-0.117482,9,4
-0.0856891,-7.32751,-0.641118,27,5
-0.226079,-19.0481,3.70284,35,13
-0.0798279,-6.62842,-0.347406,54,6
-0.236647,-19.369,4.47203,3,14
-0.0922037,-7.4403,-0.129881,64,7
-0.362097,-28.8132,7.72109,21,15
-0.102662,-7.35216,0.128345,78,8
-0.00696979,-0.492982,-0.113825,16,1
-0.0977759,-6.91582,0.362479,8,9
-0.00834468,-0.583027,-0.113341,16,2
-0.396059,-27.3387,2.39208,26,10
-0.400703,-27.0082,3.31655,20,11
-0.0147186,-0.980525,-0.120407,7,4
-0.232447,-15.4852,2.45289,36,12
-0.109815,-7.23154,-0.632751,26,5
-0.291843,-19.0001,3.69368,32,13
-0.102034,-6.56819,-0.344266,37,6
-0.11562,-7.35997,-0.128485,77,7
-0.00928476,-0.531925,-0.122823,15,1
-0.475273,-26.9588,1.41307,11,9
-0.0113583,-0.637957,-0.124026,14,2
-0.497615,-27.6778,2.42188,13,10
-0.287558,-15.8404,1.94528,45,11
-0.0181155,-0.98841,-0.121382,7,4
-0.34464,-18.6266,2.95067,7,12
-0.21144,-11.3208,-0.990612,23,5
-0.354555,-18.9833,3.69063,27,13
-0.124002,-6.5778,-0.344789,50,6
-0.140964,-7.34153,-0.12817,91,7
-0.0111415,-0.531889,-0.122823,15,1
-0.582823,-27.8237,1.4585,12,9
-0.012313,-0.582957,-0.113341,16,2
-0.568313,-26.686,2.33525,12,10
-0.578215,-26.7131,3.28072,39,11
-0.0210027,-0.962541,-0.118213,6,4
-0.611485,-28.0239,4.43961,9,12
-0.248716,-11.3081,-0.989566,25,5
-0.42025,-18.9565,3.68567,13,13
-0.151871,-6.79697,-0.356303,37,6
-0.165804,-7.36301,-0.128554,100,7
-0.665304,-27.2225,1.4271,20,9
-0.0143478,-0.58291,-0.113341,16,2
-0.662446,-26.7237,2.33874,31,10
-0.394777,-15.8143,1.94235,20,11
-0.171157,-6.8087,-0.836268,3,4
-0.695105,-27.4608,4.35076,12,12
-0.222042,-8.71188,-0.762438,8,5
-0.960467,-37.6842,7.32745,36,13
-0.178355,-6.95017,-0.364363,43,6
-0.202788,-7.79618,-0.136129,53,7
-0.205472,-7.35601,0.12845,4,8
-0.767112,-27.1239,1.42207,11,9
-0.0164841,-0.582853,-0.113341,16,2
-0.768097,-26.9919,2.36244,26,10
-0.777529,-26.992,3.31558,30,11
-0.198622,-6.85363,-0.841874,1,4
-0.798411,-27.3849,4.33918,24,12
-0.203456,-6.97837,-0.610787,18,5
-1.09952,-37.4879,7.29005,35,13
-0.206689,-7.00533,-0.367294,31,6
-0.219654,-7.3576,-0.128485,42,7
-0.23165,-7.37124,0.128729,57,8
-0.0168035,-0.531741,-0.122823,15,1
-0.864075,-27.1929,1.42584,5,9
-0.0185186,-0.582792,-0.113341,16,2
-0.855501,-26.776,2.34379,19,10
-0.882126,-27.3106,3.35506,20,11
-0.0335041,-1.0317,-0.126744,3,4
-0.884197,-27.0818,4.29162,33,12
-0.895838,-27.2922,5.30792,26,13
-0.246358,-7.46569,-0.391473,52,6
-0.246868,-7.40276,-0.129287,42,7
-0.256402,-7.34241,0.12824,24,8
-0.0186595,-0.531679,-0.122823,15,1
-0.952441,-27.0041,1.41611,26,9
-0.0224904,-0.637661,-0.124026,14,2
-0.304323,-8.58579,0.751631,33,10
-0.973899,-27.2081,3.34288,30,11
-0.0372478,-1.03555,-0.127232,10,4
-0.990573,-27.4063,4.34356,24,12
-0.97307,-26.7925,5.21138,29,13
-0.268629,-7.36099,-0.38603,28,6
-1.10041,-30.0099,6.93299,41,14
-0.280658,-7.61767,-0.133057,14,7
-0.763494,-19.8743,0.347163,23,8
-0.0190124,-0.492665,-0.113825,16,1
-1.03726,-26.7572,1.40334,26,9
-0.0225868,-0.582649,-0.113341,16,2
-0.335842,-8.6245,0.755117,22,10
-1.05367,-26.8178,3.29535,59,11
-0.0409407,-1.0374,-0.127475,29,4
-1.08514,-27.375,4.33918,24,12
-0.0673939,-1.70017,-0.148862,1,5
-1.06714,-26.8027,5.21405,18,13
-0.296078,-7.40391,-0.388333,3,6
-0.34658,-8.5917,-0.150091,49,7
-0.831608,-19.8416,0.34664,27,8
-0.0223708,-0.531536,-0.122823,15,1
-1.10415,-26.2347,1.37612,4,9
-0.0246205,-0.582566,-0.113341,16,2
-0.365269,-8.60735,0.753723,78,10
-1.14295,-26.7128,3.28292,49,11
-0.0446468,-1.03923,-0.127719,45,4
-1.17515,-27.3535,4.33636,18,12
-0.0711818,-1.65016,-0.144504,9,5
-1.28811,-29.7409,5.78647,21,13
-1.30981,-29.9996,6.93254,41,14
-0.372976,-8.54256,-0.149253,8,7
-0.894598,-19.7768,0.345558,23,8
-0.0241333,-0.531458,-0.122823,15,1
-0.366255,-8.03462,0.421514,26,9
-0.0266538,-0.582477,-0.113341,16,2
-0.398603,-8.67767,0.759998,35,10
-0.396367,-8.59624,1.05661,16,11
-0.0488271,-1.05494,-0.129669,64,4
-1.26365,-27.1993,4.31259,21,12
-0.0761989,-1.63398,-0.14311,29,5
-1.28055,-27.4596,5.34342,33,13
-0.0782586,-1.67187,-0.0877151,2,6
-1.42318,-30.2909,7.00093,30,14
-1.16842,-23.9759,0.418997,2,8
-0.0259884,-0.531371,-0.122823,15,1
-0.431788,-8.76585,0.767842,65,10
-0.429124,-8.65032,1.06343,45,11
-0.0520157,-1.04485,-0.12845,52,4
-1.37052,-27.4334,4.35044,15,12
-0.0806229,-1.61382,-0.141367,40,5
-1.37669,-27.4609,5.34456,33,13
-0.0830906,-1.65164,-0.0866684,17,6
-1.39401,-27.6136,6.38321,35,14
-0.0855902,-1.68958,-0.0295295,2,7
-0.027843,-0.531277,-0.122823,15,1
-0.42412,-8.06577,0.423293,46,9
-0.0306179,-0.582282,-0.113341,16,2
-0.460285,-8.72449,0.764356,52,10
-0.456792,-8.60119,1.05758,52,11
-0.0558738,-1.04863,-0.128938,39,4
-1.47323,-27.5586,4.37109,30,12
-0.0866809,-1.62148,-0.142064,47,5
-1.61259,-30.0672,5.85288,18,13
-0.0874601,-1.62541,-0.0853076,41,6
-1.47673,-27.3556,6.32472,34,14
-0.0899734,-1.66131,-0.0290408,12,7
-0.0961436,-1.72506,0.0301578,1,8
-0.0296973,-0.531177,-0.122823,15,1
-0.455628,-8.12407,0.426433,8,9
-0.0326504,-0.582172,-0.113341,16,2
-0.482343,-8.57364,0.751283,22,10
-0.0595338,-1.04842,-0.128938,25,4
-1.55638,-27.3246,4.3348,33,12
-0.0922272,-1.61918,-0.14189,55,5
-1.70723,-29.8811,5.81777,22,13
-0.0927906,-1.61912,-0.0849936,53,6
-1.76626,-30.7257,7.1053,10,14
-0.0946207,-1.64102,-0.0286918,34,7
-0.0977896,-1.65085,0.0288663,5,8
-0.0315514,-0.53107,-0.122823,15,1
-0.510604,-8.54406,0.748842,15,10
-1.58681,-26.3978,3.24709,19,11
-0.0630737,-1.04623,-0.128694,22,4
-1.64448,-27.1987,4.31571,27,12
-0.0972774,-1.6089,-0.141018,52,5
-1.86464,-30.7509,5.98835,4,13
-0.0988055,-1.62476,-0.0853076,60,6
-1.86555,-30.5891,7.07516,10,14
-0.0997382,-1.6307,-0.0285172,48,7
-0.102926,-1.64052,0.0286918,24,8
-0.104127,-1.65045,0.0866684,5,9
-1.6768,-26.3584,3.24294,9,11
-0.0679891,-1.06581,-0.131131,22,4
-1.73021,-27.0489,4.29288,21,12
-0.102791,-1.60257,-0.140495,52,5
-2.10983,-32.8935,6.40699,27,13
-0.103964,-1.61644,-0.0848889,63,6
-3.07297,-47.649,11.0235,19,14
-0.105301,-1.62835,-0.0284823,50,7
-2.89595,-44.6614,11.9921,14,15
-0.107726,-1.62619,0.0284474,42,8
-0.111347,-1.672,0.0878197,21,9
-0.112855,-1.68577,0.147816,1,10
-0.0433917,-0.646469,-0.102621,14,3
-0.0718423,-1.06755,-0.131375,23,4
-1.82422,-27.0367,4.29194,30,12
-0.108115,-1.59823,-0.140146,54,5
-2.22108,-32.7484,6.38027,27,13
-0.109617,-1.61206,-0.0846796,63,6
-3.04136,-44.6122,10.3235,17,14
-0.110984,-1.62797,-0.0284823,54,7
-3.02733,-44.2925,11.8958,29,15
-0.113546,-1.62379,0.0284125,64,8
-0.116914,-1.66361,0.0874011,46,9
-0.116499,-1.65357,0.145027,10,10
-0.0456481,-0.646314,-0.102621,14,3
-0.0760357,-1.07124,-0.131863,23,4
-1.92232,-27.0161,4.28975,33,12
-0.113694,-1.59784,-0.140146,58,5
-1.92443,-26.9792,5.25755,18,13
-0.114388,-1.59971,-0.0840516,64,6
-3.37234,-47.0466,10.8894,18,14
-0.117237,-1.63154,-0.0285521,54,7
-3.19062,-44.2946,11.8995,14,15
-0.119506,-1.62737,0.0284823,69,8
-0.120222,-1.62933,0.0856216,51,9
-0.121535,-1.64322,0.144156,29,10
-0.0479039,-0.64615,-0.102621,14,3
-0.123133,-1.65695,0.204009,2,11
-0.0791846,-1.06305,-0.130888,23,4
-2.01293,-26.96,4.28192,11,12
-0.119271,-1.59743,-0.140146,87,5
-2.44481,-32.6675,6.36768,49,13
-0.119524,-1.59333,-0.0837375,82,6
-0.121128,-1.6072,-0.0281333,61,7
-3.35337,-44.3911,11.9285,14,15
-0.12488,-1.62295,0.0284125,83,8
-0.125317,-1.62494,0.0854123,63,9
-0.0449367,-0.581352,-0.113341,16,2
-0.127117,-1.6408,0.143981,45,10
-0.0532175,-0.685368,-0.108878,12,3
-0.129224,-1.66047,0.204497,15,11
-0.0828635,-1.06476,-0.131131,21,4
-2.1885,-28.058,4.45744,15,12
-0.124691,-1.59502,-0.139972,87,5
-2.56772,-32.7723,6.38981,27,13
-0.12571,-1.60087,-0.0841562,100,6
-2.57715,-32.819,7.6002,33,14
-0.125358,-1.59283,-0.0278889,87,7
-3.51422,-44.5531,11.975,14,15
-0.130101,-1.62054,0.0283776,92,8
-0.131186,-1.63049,0.0857263,67,9
-0.0468643,-0.5812,-0.113341,16,2
-0.131594,-1.62845,0.142935,63,10
-0.0574034,-0.708815,-0.112633,11,3
-0.13473,-1.66003,0.204497,50,11
-0.0857517,-1.05657,-0.130156,14,4
-2.54577,-31.2992,4.97368,7,12
-0.130141,-1.59659,-0.140146,52,5
-2.67319,-32.7245,6.38218,11,13
-0.131344,-1.60442,-0.0843656,100,6
-2.6971,-32.9463,7.63169,45,14
-0.131621,-1.60436,-0.0280984,93,7
-3.66132,-44.5335,11.973,14,15
-0.134474,-1.60814,0.0281682,100,8
-0.136208,-1.62206,0.0853076,72,9
-0.0487914,-0.581042,-0.113341,16,2
-0.135657,-1.61212,0.141541,78,10
-0.139398,-1.64969,0.203278,70,11
-0.0884342,-1.04439,-0.128694,9,4
-2.06628,-24.3519,3.87081,10,12
-0.135435,-1.59615,-0.140146,16,5
-2.78186,-32.7174,6.38256,16,13
-0.136663,-1.60398,-0.0843656,100,6
-2.83446,-33.1988,7.69243,22,14
-0.13722,-1.6039,-0.0280984,100,7
-3.80982,-44.4396,11.9512,14,15
-0.139392,-1.59969,0.0280286,100,8
-0.141347,-1.6156,0.0849936,85,9
-0.0508194,-0.580868,-0.113341,16,2
-0.141805,-1.61759,0.142064,84,10
-0.067758,-0.771378,-0.122645,9,3
-0.143067,-1.62546,0.200353,81,11
-0.0891147,-1.01046,-0.12455,4,4
-2.14867,-24.315,3.86612,5,12
-0.138375,-1.56589,-0.137532,42,5
-2.89328,-32.6762,6.37646,27,13
-0.14085,-1.58758,-0.0835282,100,6
-2.95344,-33.2236,7.70052,45,14
-0.143528,-1.61137,-0.028238,100,7
-0.146059,-1.61115,0.028238,100,8
-0.14608,-1.60515,0.0844702,91,9
-0.0529479,-0.580678,-0.113341,16,2
-0.147632,-1.61907,0.142238,100,10
-0.0697315,-0.763268,-0.121393,9,3
-0.14874,-1.62495,0.200353,100,11
-0.0908284,-0.990375,-0.122113,7,4
-0.150565,-1.63859,0.26062,7,12
-0.146488,-1.59117,-0.139798,55,5
-3.03322,-32.8843,6.4192,28,13
-0.146667,-1.58705,-0.0835282,100,6
-0.14952,-1.61485,-0.0283078,100,7
-0.151963,-1.6106,0.028238,100,8
-0.0500662,-0.529645,-0.122823,15,1
-0.152151,-1.6066,0.0845749,100,9
-0.0550759,-0.58048,-0.113341,16,2
-0.153189,-1.61455,0.14189,100,10
-0.0785102,-0.825935,-0.131405,7,3
-0.15413,-1.61847,0.199622,100,11
-0.094269,-0.988059,-0.121869,10,4
-0.15657,-1.63802,0.26062,14,12
-0.152509,-1.5926,-0.139972,76,5
-3.18541,-33.2032,6.48369,46,13
-0.152483,-1.5865,-0.0835282,100,6
-0.154096,-1.60035,-0.0280635,100,7
-0.15767,-1.60804,0.0282031,100,8
-0.0520071,-0.529458,-0.122823,15,1
-0.15843,-1.61,0.0847843,100,9
-0.0571018,-0.580284,-0.113341,16,2
-0.156955,-1.59217,0.139972,100,10
-0.0832841,-0.843334,-0.134221,13,3
-0.160452,-1.62184,0.200109,100,11
-0.0963236,-0.971904,-0.119919,6,4
-0.162182,-1.63351,0.259994,29,12
-0.155705,-1.56827,-0.13788,91,5
-3.29877,-33.1665,6.47873,45,13
-0.159604,-1.60186,-0.0843656,97,6
-0.159961,-1.59978,-0.0280635,100,7
-0.161665,-1.59157,0.0279239,100,8
-0.0538549,-0.529273,-0.122823,15,1
-0.165061,-1.61938,0.0853076,100,9
-0.0591271,-0.580081,-0.113341,16,2
-0.163322,-1.59954,0.140669,100,10
-0.0862274,-0.843038,-0.134221,13,3
-0.166517,-1.62522,0.200597,100,11
-0.0972835,-0.947865,-0.116995,9,4
-0.167681,-1.63097,0.259681,42,12
-0.160771,-1.56375,-0.137532,77,5
-3.41593,-33.1685,6.4814,28,13
-0.166015,-1.60924,-0.0847843,23,6
-0.166368,-1.60717,-0.0282031,100,7
-0.167847,-1.59696,0.0280286,100,8
-0.0557021,-0.529082,-0.122823,15,1
-0.170084,-1.61283,0.0849936,100,9
-0.0611515,-0.579871,-0.113341,16,2
-0.169532,-1.60491,0.141192,100,10
-0.0883382,-0.834875,-0.132969,14,3
-0.169678,-1.60094,0.197672,100,11
-0.0999629,-0.941598,-0.116263,10,4
-0.173582,-1.63233,0.259994,49,12
-0.127463,-1.19864,-0.105458,47,5
-3.52648,-33.1076,6.47186,33,13
-0.168241,-1.57687,-0.0831095,16,6
-0.172403,-1.61055,-0.0282729,100,7
-0.17342,-1.59636,0.0280286,100,8
-0.0575486,-0.528884,-0.122823,15,1
-0.173766,-1.59436,0.0840516,100,9
-0.175566,-1.60827,0.141541,100,10
-0.0914666,-0.836525,-0.133282,14,3
-0.175482,-1.60231,0.197916,100,11
-0.0997858,-0.909671,-0.112364,13,4
-0.1782,-1.6219,0.25843,51,12
-0.122289,-1.11303,-0.0979631,52,5
-2.70355,-24.5671,4.80419,18,13
-0.173744,-1.57628,-0.0831095,66,6
-0.177144,-1.60199,-0.0281333,100,7
-0.179438,-1.59972,0.0280984,100,8
-0.0593944,-0.52868,-0.122823,15,1
-0.17933,-1.59374,0.0840516,100,9
-0.181402,-1.60962,0.141715,100,10
-0.094386,-0.8362,-0.133282,14,3
-0.182858,-1.61747,0.199866,100,11
-0.100951,-0.891565,-0.11017,15,4
-0.183415,-1.61734,0.257804,56,12
-0.126847,-1.11853,-0.098486,31,5
-2.75716,-24.2747,4.74885,6,13
-0.179923,-1.58161,-0.0834235,100,6
-0.181828,-1.59341,-0.0279937,100,7
-0.184561,-1.59511,0.0280286,100,8
-0.0612395,-0.52847,-0.122823,15,1
-0.186043,-1.60303,0.0845749,100,9
-0.185365,-1.59718,-0.312545,2,2
-0.185179,-1.59315,0.140321,100,10
-0.0984464,-0.845677,-0.134847,13,3
-0.188273,-1.61485,0.199622,100,11
-0.105674,-0.905009,-0.111876,14,4
-0.189518,-1.62062,0.25843,62,12
-0.128205,-1.09631,-0.0965686,6,5
-2.84188,-24.2649,4.74885,45,13
-0.185908,-1.58494,-0.0836329,100,6
-0.187857,-1.59674,-0.0280635,100,7
-0.189181,-1.58652,0.0278889,100,8
-0.0630838,-0.528253,-0.122823,15,1
-0.192542,-1.61232,0.0850983,100,9
-0.190007,-1.58873,-0.311019,3,2
-0.190502,-1.59051,0.140146,100,10
-0.0999861,-0.83356,-0.132969,14,3
-0.192962,-1.6063,0.198647,100,11
-0.105987,-0.880984,-0.108951,12,4
-0.194656,-1.61802,0.258117,67,12
-0.129648,-1.07608,-0.0948254,5,5
-2.92633,-24.2529,4.74847,36,13
-0.192158,-1.59023,-0.0839469,100,6
-0.194112,-1.60405,-0.0282031,100,7
-0.194927,-1.58985,0.0279588,100,8
-0.0648352,-0.528041,-0.122823,15,1
-0.197438,-1.60569,0.0847843,100,9
-0.198431,-1.61144,-0.315598,2,2
-0.197028,-1.59775,0.140844,100,10
-0.100574,-0.815579,-0.130153,23,3
-0.198044,-1.60368,0.198403,100,11
-0.108908,-0.880628,-0.108951,12,4
-0.201516,-1.62713,0.259681,65,12
-0.131196,-1.05782,-0.0932566,8,5
-3.02172,-24.3638,4.77213,33,13
-0.196445,-1.58166,-0.0835282,100,6
-0.19971,-1.60336,-0.0282031,100,7
-0.200225,-1.58718,0.0279239,100,8
-0.066678,-0.527811,-0.122823,15,1
-0.202039,-1.59706,0.0843656,100,9
-0.201063,-1.58935,-0.3114,3,2
-0.204829,-1.61685,0.142587,100,10
-0.104415,-0.823062,-0.131405,15,3
-0.20314,-1.59904,0.197916,125,11
-0.109726,-0.862519,-0.106758,9,4
-0.206945,-1.62446,0.259368,67,12
-0.134955,-1.05936,-0.093431,6,5
-0.205559,-1.60464,-0.028238,100,7
-0.207051,-1.59638,0.0280984,100,8
-0.06852,-0.527575,-0.122823,15,1
-0.20787,-1.59833,0.0844702,100,9
-0.209185,-1.60625,0.141715,100,10
-0.107287,-0.822692,-0.131405,15,3
-0.209492,-1.60423,0.198647,100,11
-0.11042,-0.844416,-0.104564,10,4
-0.210563,-1.60806,0.256865,72,12
-0.133479,-1.01937,-0.0899447,5,5
-3.16111,-24.1085,4.72634,11,13
-0.205403,-1.56441,-0.0826908,6,6
-0.210637,-1.59995,-0.0281682,29,7
-0.211037,-1.58376,0.0278889,100,8
-0.0703612,-0.527333,-0.122823,15,1
-0.212905,-1.59565,0.0843656,100,9
-0.210854,-1.57818,-0.309492,3,2
-0.212677,-1.58971,0.140321,100,10
-0.108847,-0.812523,-0.129841,23,3
-0.215618,-1.60742,0.199135,100,11
-0.114424,-0.851895,-0.105539,10,4
-0.216946,-1.61518,0.258117,70,12
-0.133318,-0.991254,-0.0875044,5,5
-6.10425,-45.3268,8.89017,10,13
-0.150006,-1.11239,-0.0588256,4,6
-6.12073,-45.3295,10.5601,17,14
-0.215406,-1.59528,-0.0280984,9,7
-0.215746,-1.57909,0.0278191,38,8
-0.0721096,-0.527097,-0.122823,15,1
-0.219829,-1.60479,0.0848889,94,9
-0.216361,-1.57743,-0.309492,3,2
-0.219039,-1.59488,0.140844,100,10
-0.109122,-0.794545,-0.127025,34,3
-0.220136,-1.6008,0.198403,100,11
-0.116977,-0.849544,-0.105295,5,4
-0.223122,-1.61833,0.258743,70,12
-0.135143,-0.978941,-0.0864585,3,5
-6.19198,-44.8532,8.80126,19,13
-0.150412,-1.08815,-0.0575696,10,6
-0.222895,-1.60838,-0.0283427,6,7
-0.220147,-1.5704,0.0276795,9,8
-0.073949,-0.526842,-0.122823,15,1
-0.226819,-1.6139,0.0854123,37,9
-0.223508,-1.58833,-0.311782,1,2
-0.224604,-1.59612,0.141018,100,10
-0.110516,-0.784379,-0.12546,35,3
-0.225445,-1.59806,0.19816,100,11
-0.1155,-0.817681,-0.101395,6,4
-0.229323,-1.62145,0.259368,67,12
-0.138838,-0.980436,-0.0866328,3,5
-4.72225,-33.3053,6.53864,11,13
-0.151311,-1.06584,-0.0564182,17,6
-0.229352,-1.61353,-0.0284474,5,7
-0.22818,-1.58542,0.0279588,5,8
-0.0758795,-0.526567,-0.122823,15,1
-0.232448,-1.61108,0.0853076,8,9
-0.229883,-1.59134,0.140669,50,10
-0.113391,-0.783968,-0.12546,35,3
-0.230163,-1.58936,0.197185,100,11
-0.118496,-0.817253,-0.101395,6,4
-0.235548,-1.62255,0.259681,62,12
-0.136986,-0.942459,-0.0833209,2,5
-4.87766,-33.517,6.58367,23,13
-0.149745,-1.02772,-0.0544294,10,6
-0.232667,-1.59487,-0.0281333,9,7
-0.23545,-1.59446,0.0281333,5,8
-0.0778089,-0.526285,-0.122823,15,1
-0.237778,-1.60829,0.0852029,5,9
-0.114813,-0.773778,-0.123896,27,3
-0.236279,-1.59047,0.197428,84,11
-0.119598,-0.805053,-0.0999329,6,4
-0.239176,-1.60805,0.257491,57,12
-0.140275,-0.941975,-0.0833209,2,5
-4.95669,-33.2454,6.53368,28,13
-0.146845,-0.983736,-0.0521266,11,6
-0.235868,-1.57823,-0.027854,8,7
-0.23984,-1.58774,0.0280286,9,8
-0.0795537,-0.526024,-0.122823,15,1
-0.244902,-1.61934,0.085831,6,9
-0.240091,-1.58379,0.140146,5,10
-0.115897,-0.763628,-0.122332,28,3
-0.117495,-0.773251,-0.0960331,7,4
-0.245696,-1.61505,0.258743,23,12
-0.143398,-0.941505,-0.0833209,2,5
-5.06691,-33.2288,6.53368,23,13
-0.149503,-0.979294,-0.0519173,12,6
-0.173423,-1.13465,-0.0200354,9,7
-0.247241,-1.60077,0.0282729,5,8
-0.0812976,-0.525758,-0.122823,15,1
-0.249331,-1.61058,0.0854123,5,9
-0.245036,-1.58101,0.139972,7,10
-0.116611,-0.751527,-0.120455,20,3
-0.248345,-1.59868,0.198647,7,11
-0.124465,-0.800297,-0.0994454,6,4
-0.253156,-1.6259,0.26062,6,12
-0.143001,-0.917375,-0.0812292,2,5
-6.22574,-39.9391,7.85713,33,13
-0.152134,-0.974846,-0.0517079,10,6
-0.173365,-1.10835,-0.0195816,16,7
-3.94722,-24.9782,0.441406,2,8
-0.0831324,-0.525471,-0.122823,15,1
-3.92112,-24.757,1.31363,6,9
-0.253953,-1.59978,0.141715,7,10
-0.118745,-0.747193,-0.119829,20,3
-0.254547,-1.60172,0.199135,7,11
-0.121643,-0.76457,-0.0950581,7,4
-0.258519,-1.62305,0.260307,4,12
-0.144947,-0.909,-0.0805319,3,5
-0.150663,-0.942727,-0.0500332,14,6
-0.178813,-1.11761,-0.0197561,28,7
-4.05478,-25.035,1.32912,14,9
-4.09192,-25.2085,2.23432,23,10
-0.118184,-0.727276,-0.1167,21,3
-0.260735,-1.60274,0.199378,6,11
-0.125083,-0.768037,-0.0955456,7,4
-4.43109,-27.2079,4.36609,21,12
-0.153249,-0.939951,-0.0833209,2,5
-0.151376,-0.926426,-0.0491958,12,6
-0.180776,-1.10514,-0.0195467,18,7
-0.0867988,-0.524878,-0.122823,15,1
-4.05863,-24.5162,1.30233,10,9
-4.08271,-24.6083,2.18238,61,10
-0.122211,-0.736623,-0.118264,21,3
-4.17384,-25.1304,3.1279,36,11
-0.125024,-0.751953,-0.0935957,7,4
-4.2056,-25.2671,4.05697,5,12
-0.144086,-0.864729,-0.0766971,4,5
-4.55461,-27.3345,5.38654,23,13
-0.154447,-0.925919,-0.0491958,12,6
-0.177379,-1.06111,-0.0187788,10,7
-4.0769,-24.1041,1.28118,8,9
-4.17061,-24.632,2.18569,56,10
-0.12016,-0.708926,-0.113884,11,3
-4.25655,-25.0864,3.12424,36,11
-0.129643,-0.763254,-0.0950581,7,4
-4.55669,-26.7985,4.30539,33,12
-0.159644,-0.938886,-0.0833209,2,5
-0.154324,-0.905685,-0.0481491,9,6
-0.17536,-1.02698,-0.0181854,7,7
-0.197014,-1.14297,0.0202448,1,8
-4.28204,-24.7904,1.31845,4,9
-4.27558,-24.7272,2.19545,22,10
-0.125329,-0.724074,-0.116387,10,3
-4.32478,-24.9599,3.11035,44,11
-0.132985,-0.766709,-0.0955456,7,4
-4.36195,-25.1223,4.03851,15,12
-0.159881,-0.918915,-0.0488818,8,6
-0.179631,-1.0303,-0.0182552,7,7
-0.194071,-1.10288,0.0195467,6,8
-4.78612,-27.1434,1.44447,2,9
-0.186481,-1.05759,-0.208745,2,2
-4.32896,-24.5258,2.17889,50,10
-0.124419,-0.704179,-0.113259,11,3
-4.81776,-27.2395,3.3965,21,11
-0.138429,-0.781877,-0.0974955,6,4
-4.45238,-25.1225,4.04102,28,12
-0.153678,-0.867124,-0.0770457,4,5
-0.153309,-0.86329,-0.045951,12,6
-0.177971,-1.00013,-0.0177316,6,7
-0.198627,-1.10614,0.0196165,13,8
-0.0941187,-0.523615,-0.122823,15,1
-4.42974,-24.5948,2.18639,61,10
-0.131082,-0.727069,-0.117013,10,3
-4.51302,-25.0072,3.1201,45,11
-0.136217,-0.754041,-0.0940831,7,4
-4.53723,-25.0912,4.03851,18,12
-0.169467,-0.937163,-0.0833209,2,5
-4.96238,-27.415,5.41554,42,13
-0.160594,-0.886332,-0.047207,10,6
-0.179318,-0.987701,-0.0175222,3,7
-0.205009,-1.11921,0.0198608,18,8
-0.0959459,-0.523283,-0.122823,15,1
-4.37048,-23.7895,2.11614,59,10
-0.13219,-0.718836,-0.115762,11,3
-4.9956,-27.1388,3.38821,20,11
-0.144603,-0.784796,-0.097983,6,4
-4.63231,-25.116,4.04508,26,12
-4.64816,-25.1773,4.97668,29,13
-0.159695,-0.864162,-0.0460556,6,6
-0.179852,-0.971339,-0.017243,1,7
-0.204141,-1.09293,0.0194071,12,8
-0.206478,-1.10331,0.0588256,1,9
-4.48738,-23.9319,2.13026,64,10
-0.134824,-0.718347,-0.115762,11,3
-4.67944,-24.9322,3.11474,44,11
-0.142944,-0.760875,-0.0950581,7,4
-5.06896,-26.9556,4.34419,6,12
-0.176168,-0.935926,-0.0833209,2,5
-5.42707,-28.8046,5.69756,8,13
-0.164342,-0.871422,-0.0464743,5,6
-0.185467,-0.982496,-0.0174524,1,7
-0.199161,-1.04503,0.0185694,7,8
-0.219136,-1.14766,0.0612331,2,9
-4.68497,-24.513,2.18343,33,10
-0.129165,-0.675187,-0.108878,12,3
-5.16615,-26.9795,3.37286,20,11
-0.142742,-0.744749,-0.0931082,7,4
-5.37801,-28.033,4.52096,6,12
-5.46501,-28.4596,5.63306,24,13
-0.167383,-0.870843,-0.0464743,5,6
-0.183017,-0.950391,-0.0168939,2,7
-0.198233,-1.02077,0.0181505,6,8
-0.226574,-1.16454,0.0621751,6,9
-4.68406,-24.0302,2.14194,21,10
-0.133152,-0.682465,-0.11013,12,3
-4.64295,-23.7972,2.97702,65,11
-0.146102,-0.748143,-0.0935957,7,4
-5.55692,-28.4289,4.58791,26,12
-0.169089,-0.864251,-0.0770457,4,5
-5.57154,-28.451,5.63535,37,13
-0.165963,-0.846704,-0.0452183,6,6
-5.60662,-28.5772,6.72334,9,14
-0.19679,-0.996602,0.0177316,6,8
-0.103152,-0.52191,-0.122823,15,1
-0.222867,-1.12659,0.0601864,13,9
-4.83738,-24.4306,2.17889,5,10
-0.131336,-0.66269,-0.107001,13,3
-4.72078,-23.7981,2.97897,65,11
-0.148452,-0.74768,-0.0935957,7,4
-4.84379,-24.3736,3.93589,37,12
-0.166216,-0.836387,-0.0746053,4,5
-5.65747,-28.442,5.63688,37,13
-0.168475,-0.846208,-0.0452183,6,6
-5.69138,-28.5604,6.72334,9,14
-0.197902,-0.984146,0.0175222,3,8
-0.104973,-0.521547,-0.122823,15,1
-0.226403,-1.12385,0.0600817,13,9
-0.140683,-0.697081,-0.112633,11,3
-4.95711,-24.5403,3.07403,51,11
-0.147127,-0.7277,-0.0911583,8,4
-4.9351,-24.3875,3.9409,27,12
-5.76295,-28.4529,5.64299,41,13
-0.168253,-0.829955,-0.0443809,7,6
-0.194518,-0.950145,0.0169288,5,8
-0.106793,-0.521177,-0.122823,15,1
-0.227516,-1.10936,0.059349,11,9
-0.156589,-0.76352,-0.151502,9,2
-0.144705,-0.704326,-0.113884,11,3
-5.01396,-24.3829,3.05648,17,11
-0.148866,-0.723294,-0.0906708,17,4
-5.02738,-24.405,3.94653,32,12
-5.8329,-28.2903,5.61475,37,13
-0.171149,-0.829363,-0.0443809,7,6
-5.86422,-28.3921,6.69319,78,14
-0.194978,-0.935757,0.0166845,2,8
-0.226898,-1.08705,0.0581976,9,9
-0.149751,-0.716819,-0.142344,11,2
-0.249559,-1.19353,0.106679,1,10
-0.139193,-0.665121,-0.107627,12,3
-5.15515,-24.6334,3.09012,17,11
-0.155459,-0.742199,-0.0931082,31,4
-5.14496,-24.5419,3.97156,23,12
-5.91637,-28.1727,5.59566,37,13
-0.172544,-0.820912,-0.0439622,7,6
-5.97105,-28.3838,6.69634,68,14
-0.171252,-0.814055,-0.0145204,4,7
-0.205878,-0.970247,0.0173128,1,8
-0.225712,-1.06281,0.0569415,6,9
-0.14164,-0.666362,-0.132421,13,2
-0.239628,-1.12639,0.100752,4,10
-0.14316,-0.672359,-0.108878,12,3
-5.23092,-24.5463,3.08159,17,11
-0.153623,-0.720269,-0.0904271,25,4
-5.95705,-27.9298,4.52315,22,12
-6.06226,-28.3746,5.63993,20,13
-0.172903,-0.808586,-0.0433342,7,6
-6.0705,-28.3647,6.69679,78,14
-0.167396,-0.782166,-0.0139619,9,7
-0.217526,-1.00865,0.0180109,1,8
-0.22183,-1.02687,0.0550574,5,9
-0.147284,-0.681215,-0.135474,12,2
-0.248193,-1.14697,0.102669,12,10
-0.137033,-0.633267,-0.102621,14,3
-5.30305,-24.4862,3.07623,8,11
-0.151806,-0.700355,-0.0879897,27,4
-5.98247,-27.5768,4.46933,34,12
-6.10883,-28.1356,5.59643,20,13
-0.173887,-0.800201,-0.0429155,8,6
-6.18482,-28.4377,6.71884,68,14
-0.165022,-0.75813,-0.0135431,10,7
-0.222842,-1.01439,0.0544294,4,9
-0.146172,-0.665383,-0.132421,13,2
-0.247717,-1.12668,0.100926,15,10
-0.147733,-0.671369,-0.108878,12,3
-0.152113,-0.690128,-0.086771,9,4
-6.12252,-27.7544,4.50156,32,12
-6.17907,-27.9876,5.57124,41,13
-0.180127,-0.815191,-0.0437529,7,6
-6.29037,-28.4445,6.72559,49,14
-0.165939,-0.749739,-0.0134034,16,7
-0.22464,-1.00581,0.0540107,4,9
-0.150323,-0.672506,-0.133948,13,2
-0.247495,-1.10632,0.0991832,12,10
-0.16314,-0.728653,-0.118264,10,3
-0.161466,-0.720586,-0.0906708,8,4
-6.23709,-27.8119,4.51439,16,12
-6.51611,-29.0087,5.77922,35,13
-0.179608,-0.798936,-0.0429155,8,6
-6.28079,-27.9155,6.60591,76,14
-0.165921,-0.73745,-0.013194,16,7
-0.223015,-0.981604,0.0527546,2,9
-0.15267,-0.671978,-0.133948,13,2
-0.242962,-1.06854,0.0958713,9,10
-0.155283,-0.68128,-0.085796,9,4
-6.33811,-27.785,4.51376,16,12
-6.66889,-29.2116,5.82425,36,13
-0.177058,-0.774939,-0.0416594,8,6
-6.47767,-28.3284,6.70894,68,14
-0.170407,-0.744634,-0.0133336,16,7
-0.22644,-0.980819,0.0527546,2,9
-0.153248,-0.663789,-0.132421,26,2
-0.24086,-1.04245,0.0936053,6,10
-0.145971,-0.631266,-0.102621,14,3
-0.272565,-1.17779,0.148437,2,11
-0.173785,-0.750354,-0.0945706,7,4
-6.45423,-27.8455,4.52721,13,12
-6.57784,-28.3562,5.65825,8,13
-0.179762,-0.774317,-0.0416594,8,6
