x, y, z, intensity, ring
26.3023,-15.8791,7.09316,20,14
5.96881,-3.60488,-0.121713,91,7
24.9345,-15.0652,7.80598,16,15
5.19133,-3.1477,0.105971,15,8
0.454866,-0.275911,-0.122823,15,1
22.841,-13.8602,1.4002,21,9
0.55046,-0.334159,-0.125171,29,2
26.0631,-15.8217,2.66749,15,10
6.13908,-3.72822,-1.13759,36,3
26.388,-16.0315,3.79111,12,11
6.42581,-3.90542,-0.923282,57,4
26.0136,-15.8165,4.82194,36,12
25.0921,-15.2682,5.70939,17,13
26.144,-15.9146,7.06616,10,14
5.85991,-3.56849,-0.119758,50,7
24.9534,-15.2017,7.82928,5,15
0.494522,-0.302213,-0.155291,12,0
5.17806,-3.16566,0.105936,57,8
0.453852,-0.277576,-0.122823,15,1
5.29842,-3.24179,0.32553,3,9
0.545941,-0.334029,-0.124407,29,2
26.0474,-15.9431,2.67185,8,10
5.75812,-3.52582,-1.06939,10,3
26.2681,-16.0908,3.78234,12,11
26.0329,-15.9592,4.83633,14,12
5.17171,-3.17171,-0.530778,13,5
25.0319,-15.3516,5.70786,21,13
5.30297,-3.25348,-0.326053,19,6
26.0589,-15.994,7.05896,10,14
5.52642,-3.39323,-0.113196,63,7
27.7749,-17.0605,8.73411,7,15
5.17889,-3.19106,0.10618,20,8
0.45288,-0.279159,-0.122823,15,1
5.90928,-3.64395,0.36384,9,9
0.551397,-0.340151,-0.125934,29,2
27.0739,-16.7082,2.78341,16,10
7.64284,-4.71847,-1.42262,8,3
22.641,-13.9779,3.26707,9,11
26.0728,-16.1092,4.85416,7,12
5.20976,-3.22012,-0.535833,23,5
24.9988,-15.4577,5.7132,21,13
5.24854,-3.24663,-0.323436,9,6
26.0548,-16.1232,7.07381,20,14
5.50944,-3.40935,-0.113092,57,7
28.0831,-17.3852,8.85006,7,15
0.451854,-0.280817,-0.122823,15,1
0.55354,-0.344147,-0.126697,28,2
5.31072,-3.30306,0.547164,7,10
5.72939,-3.56484,-1.06876,10,3
23.107,-14.3828,3.3419,20,11
5.12159,-3.18791,-0.740722,47,4
22.153,-13.7944,4.13331,5,12
5.19172,-3.23408,-0.535136,35,5
24.9631,-15.5563,5.7174,21,13
5.45073,-3.39806,-0.336625,35,6
26.0889,-16.2642,7.09766,21,14
5.88946,-3.673,-0.121155,76,7
25.726,-16.0504,8.12485,12,15
5.2565,-3.28973,0.10824,48,8
0.450921,-0.282314,-0.122823,15,1
18.3251,-11.473,1.13307,16,9
0.552396,-0.34598,-0.126697,28,2
5.25246,-3.29103,0.542283,15,10
4.39527,-2.75501,-0.821594,2,3
22.2771,-13.969,3.22856,19,11
5.09249,-3.19327,-0.738041,18,4
5.2561,-3.29715,0.982721,21,12
5.18097,-3.25128,-0.535136,37,5
26.6655,-16.7402,6.12001,10,13
5.39377,-3.38744,-0.333799,35,6
26.0216,-16.3423,7.09406,10,14
6.31241,-3.96591,-0.130125,100,7
25.6465,-16.1192,8.11657,30,15
5.21173,-3.28581,0.107542,79,8
0.449982,-0.283808,-0.122823,15,1
18.2886,-11.5348,1.13318,39,9
0.537963,-0.339429,-0.123644,29,2
4.37943,-2.76535,-0.820342,32,3
5.27991,-3.33524,0.766802,2,11
6.78869,-4.28832,-0.985923,33,4
5.19037,-3.28121,-0.537228,15,5
26.4971,-16.7572,6.09406,10,13
5.27111,-3.33483,-0.32689,29,6
25.2031,-15.9451,6.8853,40,14
6.33809,-4.01142,-0.130928,94,7
25.7137,-16.2806,8.15487,18,15
4.88514,-3.1026,0.101015,45,8
0.449038,-0.285298,-0.122823,15,1
18.2503,-11.5954,1.13318,9,9
0.556717,-0.353849,-0.128224,28,2
5.21875,-3.31831,0.541063,58,10
7.24372,-4.60765,-1.35973,10,3
5.27217,-3.35486,0.767289,65,11
5.18114,-3.29948,-0.537402,16,5
26.4413,-16.845,6.09406,20,13
5.25665,-3.35015,-0.326681,29,6
25.1287,-16.0149,6.87945,40,14
5.35353,-3.4132,-0.110823,22,7
26.0342,-16.6048,8.27393,12,15
5.14935,-3.29822,0.106739,42,8
0.44794,-0.28702,-0.122823,15,1
0.545437,-0.349627,-0.125934,29,2
5.21268,-3.34263,0.54176,46,10
5.37376,-3.44724,-1.01119,15,3
5.13003,-3.29342,-0.748522,4,4
5.21239,-3.34758,0.981157,9,12
5.18629,-3.3321,-0.53932,12,5
25.354,-16.2895,5.85784,9,13
5.24879,-3.37354,-0.326995,19,6
22.3203,-14.3514,6.12632,40,14
4.51065,-2.90135,-0.0936147,4,7
25.8974,-16.6642,8.25167,25,15
5.34782,-3.45172,0.111102,93,8
0.460032,-0.297039,-0.126422,15,1
5.78637,-3.73764,0.361013,49,9
0.550748,-0.355886,-0.12746,14,2
5.29576,-3.42336,0.551696,54,10
5.45564,-3.52806,-1.02903,27,3
5.20576,-3.36647,0.761196,10,11
7.20191,-4.65912,-1.05319,19,4
7.49936,-4.85527,-0.781613,22,5
25.1442,-16.2852,5.82311,27,13
6.41139,-4.15407,-0.40037,47,6
25.2307,-16.3537,6.94154,51,14
4.4082,-2.85725,-0.0916949,32,7
25.8294,-16.7482,8.24856,25,15
5.54298,-3.60653,0.11543,85,8
0.429542,-0.279588,-0.118324,16,1
0.52976,-0.344951,-0.122881,30,2
5.22702,-3.40485,0.545769,65,10
8.14094,-5.30499,-1.539,25,3
5.17676,-3.37469,0.758759,32,11
7.20806,-4.70067,-1.05661,11,4
5.13536,-3.35025,0.971145,82,12
5.28138,-3.44552,-0.551696,12,5
24.862,-16.2259,5.77083,4,13
8.24149,-5.38076,-0.515823,94,6
21.4339,-13.9992,5.91036,36,14
4.38765,-2.86683,-0.0914855,76,7
21.4163,-13.9984,6.8556,16,15
5.56213,-3.64669,0.116093,56,8
0.412268,-0.270398,-0.113825,16,1
5.61587,-3.68473,0.352012,21,9
0.544967,-0.357568,-0.126697,28,2
5.20011,-3.41324,0.5442,75,10
5.18319,-3.40343,-0.982096,47,3
5.18984,-3.40909,0.762415,65,11
5.0698,-3.3315,-0.744866,11,4
5.13354,-3.37467,0.973022,58,12
6.27657,-4.12607,-0.657154,5,5
25.5991,-16.8347,5.95553,19,13
21.5461,-14.18,5.9549,61,14
4.3676,-2.87553,-0.0912761,84,7
21.3915,-14.089,6.86336,8,15
5.72622,-3.78292,0.119793,60,8
0.417825,-0.276133,-0.115625,16,1
5.60963,-3.70871,0.35243,30,9
0.543715,-0.359468,-0.126697,28,2
5.19482,-3.43577,0.544898,93,10
7.09218,-4.69243,-1.3469,38,3
5.13983,-3.40198,0.756809,47,11
5.05979,-3.35027,-0.745109,42,4
5.55485,-3.67947,1.05531,26,12
5.16856,-3.42489,-0.542457,17,5
21.8285,-14.4644,5.09002,13,13
5.19391,-3.44299,-0.326576,16,6
21.956,-14.56,6.08223,39,14
4.3692,-2.89849,-0.0915204,84,7
21.413,-14.2106,6.88614,16,15
5.70633,-3.79846,0.119654,11,8
0.468763,-0.312153,-0.130022,14,1
5.58502,-3.72052,0.351698,38,9
0.535859,-0.357104,-0.125171,14,2
5.15566,-3.4371,0.542109,76,10
5.16756,-3.44634,0.762658,95,11
5.12403,-3.41859,-0.756321,5,4
19.889,-13.2743,3.78728,19,12
5.2444,-3.50155,-0.551696,53,5
5.0783,-3.39321,-0.320087,9,6
22.0969,-14.7703,6.13622,24,14
4.36903,-2.92039,-0.0917298,72,7
25.9546,-17.3554,8.36607,6,15
5.70731,-3.82937,0.119968,60,8
0.441727,-0.296493,-0.122823,15,1
4.83679,-3.24774,0.305328,14,9
0.52809,-0.354594,-0.123644,29,2
5.17341,-3.47507,0.545246,75,10
5.36965,-3.60825,-1.02465,18,3
5.03134,-3.38219,0.744378,55,11
5.11476,-3.43957,-0.756809,11,4
5.19577,-3.49537,-0.547861,7,5
4.98358,-3.35515,-0.314853,45,6
25.3119,-17.0474,7.04547,20,14
4.39312,-2.95985,-0.0924629,44,7
25.721,-17.336,8.3112,6,15
4.98818,-3.37217,0.105098,6,8
0.440689,-0.298033,-0.122823,15,1
4.82212,-3.26236,0.305119,35,9
0.533353,-0.360836,-0.125171,29,2
5.5424,-3.75107,0.585512,30,10
5.45843,-3.69564,-1.04404,12,3
4.95376,-3.35521,0.734628,62,11
5.1208,-3.46965,-0.75949,2,4
5.5219,-3.74283,1.05656,74,12
22.0405,-14.945,5.17627,7,13
4.98341,-3.38037,-0.315586,35,6
25.1926,-17.0951,7.02882,51,14
4.83444,-3.28178,-0.101992,58,7
21.6249,-14.6852,7.00416,8,15
5.42261,-3.69351,0.114523,9,8
0.439646,-0.299569,-0.122823,15,1
0.522357,-0.356061,-0.122881,30,2
5.50951,-3.75693,0.583421,46,10
5.32474,-3.63229,-1.02089,18,3
4.93218,-3.36576,0.733166,62,11
5.14472,-3.51212,-0.764852,1,4
5.58587,-3.81471,-0.591788,32,5
4.97653,-3.40113,-0.3159,22,6
21.4198,-14.6445,5.99045,30,14
4.83451,-3.30654,-0.102236,53,7
21.6373,-14.8043,7.02487,8,15
5.39979,-3.70563,0.114313,55,8
0.412892,-0.283455,-0.115625,16,1
0.540531,-0.371219,-0.12746,14,2
5.25004,-3.6069,0.557274,50,10
5.72879,-3.93729,-1.10099,37,3
4.9253,-3.38633,0.733897,67,11
6.12195,-4.21065,-0.912314,10,4
5.5479,-3.81724,-0.589173,10,5
5.1734,-3.5609,1.2208,141,13
4.39217,-3.0243,-0.279474,30,6
21.2193,-14.6164,5.94861,7,14
4.70438,-3.2417,-0.099723,50,7
21.6316,-14.9115,7.03988,4,15
5.23879,-3.6221,0.111172,64,8
0.418311,-0.289329,-0.117424,16,1
0.536003,-0.37087,-0.126697,28,2
5.18991,-3.59232,0.552219,75,10
4.95496,-3.43098,-0.954563,33,3
5.06358,-3.5075,0.756321,42,11
4.97486,-3.44733,-0.743159,6,4
5.40124,-3.74418,1.04092,21,12
5.43629,-3.76848,-0.578714,6,5
5.16255,-3.58005,1.22118,26,13
4.37338,-3.03392,-0.278951,44,6
21.8822,-15.1859,6.14926,32,14
4.67661,-3.2467,-0.099374,97,7
21.5493,-14.966,7.03004,21,15
5.26714,-3.66894,0.112044,61,8
0.436485,-0.304157,-0.122823,15,1
0.512158,-0.35702,-0.121355,30,2
5.07928,-3.54204,0.54176,69,10
4.93161,-3.44034,-0.952373,46,3
4.97643,-3.47289,0.745109,42,11
6.04846,-4.2226,-0.905733,1,4
5.51458,-3.85132,-0.588476,1,5
5.19026,-3.62616,1.23072,26,13
4.3513,-3.04116,-0.278218,49,6
21.7796,-15.2276,6.13532,40,14
4.64395,-3.24811,-0.0989202,97,7
5.48463,-3.83753,1.79362,5,15
4.95148,-3.4748,0.105587,70,8
0.45137,-0.316875,-0.127322,15,1
4.76771,-3.34832,0.305328,33,9
0.52691,-0.370181,-0.125171,29,2
5.07015,-3.56204,0.542109,88,10
6.95108,-4.8853,-1.34565,10,3
5.05034,-3.55076,0.758027,20,11
7.60868,-5.35144,-1.14216,42,4
5.25541,-3.69768,1.01776,124,12
5.37823,-3.78549,-0.575402,10,5
5.23793,-3.68811,1.24522,15,13
4.32869,-3.04903,-0.277485,30,6
25.4671,-17.9384,7.19169,42,14
4.63258,-3.2643,-0.0989202,64,7
4.95177,-3.50216,0.105866,78,8
0.434297,-0.307272,-0.122823,15,1
4.76356,-3.37154,0.305851,31,9
0.519141,-0.367572,-0.123644,14,2
4.8538,-3.43668,0.52032,52,10
6.93151,-4.9096,-1.34534,1,3
4.90124,-3.47284,0.737553,100,11
7.61169,-5.39536,-1.14557,6,4
5.27889,-3.7432,1.02496,74,12
5.28307,-3.74754,-0.566687,13,5
5.11711,-3.63116,1.21965,24,13
4.3126,-3.06141,-0.277171,16,6
25.4091,-18.0373,7.19393,42,14
4.45428,-3.16316,-0.09536,42,7
5.42396,-3.85318,1.78275,30,15
5.02358,-3.58064,0.107681,55,8
0.423648,-0.302074,-0.120124,15,1
4.78754,-3.41366,0.308154,30,9
0.533837,-0.380783,-0.12746,14,2
4.85901,-3.46718,0.522237,75,10
5.06618,-3.61767,0.764365,92,11
5.92811,-4.23473,-0.894521,60,4
5.03111,-3.59396,0.97928,43,12
13.1498,-9.39695,-1.41401,13,5
4.94848,-3.53884,-0.318831,16,6
25.8056,-18.4614,7.32531,21,14
4.40581,-3.15192,-0.0945571,63,7
4.95482,-3.55647,0.10646,66,8
0.416312,-0.29893,-0.118324,16,1
4.80155,-3.44899,0.309829,16,9
0.516562,-0.371187,-0.123644,14,2
4.9666,-3.57018,0.535136,37,10
7.40874,-5.32568,-1.44514,26,3
5.11862,-3.68081,0.774114,60,11
4.08987,-2.94212,-0.618609,25,4
4.97685,-3.5815,0.971145,50,12
13.1524,-9.46841,-1.41785,11,5
4.32408,-3.11404,-0.279265,5,6
5.29053,-3.81144,1.50537,4,14
4.41425,-3.18131,-0.094976,89,7
5.29507,-3.81752,1.7491,48,15
4.66204,-3.37103,0.100421,60,8
0.418424,-0.302666,-0.119224,16,1
4.88656,-3.53598,0.316109,60,9
0.499423,-0.361389,-0.119828,15,2
5.04511,-3.65205,0.544898,37,10
7.62369,-5.52066,-1.49082,10,3
4.92408,-3.56706,0.746572,85,11
4.07636,-2.95405,-0.618121,41,4
4.97551,-3.60697,0.973335,74,12
6.54192,-4.74426,-0.707007,11,5
5.04925,-3.66176,1.2124,37,13
7.25869,-5.26601,-0.469977,29,6
5.3182,-3.85964,1.51707,4,14
4.41283,-3.20375,-0.0951854,68,7
5.25827,-3.81895,1.74133,30,15
4.93957,-3.59803,0.106669,82,8
0.429965,-0.313306,-0.122823,15,1
5.07916,-3.70243,0.329403,66,9
0.501268,-0.365531,-0.120591,15,2
5.15885,-3.76328,0.558668,80,10
7.70393,-5.62193,-1.51053,25,3
5.17618,-3.77731,0.786789,57,11
4.0548,-2.96007,-0.616415,44,4
5.01234,-3.66043,0.983034,61,12
5.7193,-4.17824,-0.619677,20,5
5.02945,-3.67561,1.21087,10,13
5.12559,-3.74724,-0.332752,13,6
4.41776,-3.23094,-0.0955345,46,7
5.20125,-3.80534,1.72684,69,15
4.85864,-3.56642,0.105203,55,8
0.428814,-0.31488,-0.122823,15,1
5.02532,-3.69146,0.326786,42,9
0.506253,-0.372016,-0.122118,30,2
5.18261,-3.8084,0.562677,56,10
4.27505,-3.14263,-0.840366,6,3
5.30304,-3.89974,0.808238,62,11
3.98636,-2.93256,-0.607641,24,4
5.00526,-3.68346,0.984286,119,12
4.38346,-3.22704,-0.476219,21,5
4.43485,-3.26726,-0.288685,11,6
5.33908,-3.93343,1.53102,41,14
4.44291,-3.2744,-0.0963373,96,7
5.22147,-3.8496,1.73823,114,15
4.80213,-3.55209,0.104261,77,8
0.411992,-0.304858,-0.118324,16,1
5.27021,-3.90117,0.343638,10,9
0.504886,-0.373869,-0.122118,15,2
5.2823,-3.91155,0.575054,58,10
7.48255,-5.54286,-1.47486,26,3
5.37643,-3.98416,0.821643,64,11
3.95645,-2.93296,-0.604716,12,4
4.98538,-3.69707,0.983034,84,12
4.3924,-3.25852,-0.478485,38,5
4.38115,-3.25254,-0.285964,37,6
5.29803,-3.93323,1.52337,47,14
4.4389,-3.29662,-0.0965118,48,7
5.19647,-3.86065,1.73461,30,15
0.426494,-0.318015,-0.122823,15,1
5.22386,-3.89658,0.341545,31,9
0.516167,-0.385019,-0.125171,14,2
5.09068,-3.79862,0.555705,71,10
4.50201,-3.36058,-0.889799,30,3
5.38246,-4.01928,0.824812,100,11
4.37984,-3.27177,-0.671256,35,4
4.96546,-3.71059,0.981783,77,12
4.35387,-3.25356,-0.475522,42,5
4.83686,-3.6158,1.17386,37,13
4.31859,-3.22954,-0.282614,52,6
5.11193,-3.82421,1.47388,45,14
4.41238,-3.30209,-0.0961977,56,7
5.19157,-3.88662,1.73771,59,15
0.463522,-0.347896,-0.155291,12,0
4.33683,-3.25618,0.0946619,45,8
0.425381,-0.319501,-0.122823,15,1
5.17829,-3.8908,0.339451,54,9
0.505403,-0.379743,-0.122881,15,2
5.10606,-3.83792,0.558843,39,10
4.39868,-3.30742,-0.871653,67,3
5.4969,-4.1347,0.844555,35,11
4.56191,-3.43265,-0.700993,13,4
4.9872,-3.75403,0.988666,47,12
4.30428,-3.23998,-0.471338,56,5
4.83832,-3.64329,1.17729,10,13
4.31367,-3.2494,-0.283033,57,6
5.13123,-3.86666,1.48333,32,14
4.35612,-3.28376,-0.0952203,72,7
5.12861,-3.86749,1.72115,63,15
4.33341,-3.27733,0.0948364,57,8
0.422709,-0.319809,-0.122373,15,1
5.19653,-3.93295,0.341545,18,9
0.494681,-0.374396,-0.120591,15,2
5.06245,-3.83287,0.555531,73,10
4.4123,-3.34184,-0.876659,58,3
5.31472,-4.02678,0.818718,64,11
4.54357,-3.44376,-0.700018,35,4
4.92999,-3.738,0.979906,44,12
4.28025,-3.24535,-0.469944,60,5
4.88345,-3.70405,1.19141,21,13
4.32776,-3.28376,-0.284708,37,6
5.07579,-3.85274,1.47118,53,14
4.34941,-3.30258,-0.095325,59,7
0.406091,-0.30947,-0.117874,16,1
5.3146,-4.05157,0.350232,26,9
0.518352,-0.395164,-0.126697,28,2
4.99834,-3.81185,0.549953,54,10
4.00012,-3.05169,-0.796877,16,3
5.05288,-3.85623,0.780451,65,11
4.53468,-3.46201,-0.700505,47,4
4.91534,-3.75399,0.979593,77,12
4.27681,-3.26632,-0.470815,56,5
5.31822,-4.06315,1.30094,16,13
4.20995,-3.21758,-0.277695,41,6
5.07934,-3.88345,1.47613,50,14
4.43474,-3.39184,-0.0974542,58,7
16.6961,-12.7743,5.63294,11,15
0.420579,-0.322605,-0.122373,15,1
16.9545,-13.0096,1.11999,6,9
0.507763,-0.38962,-0.124407,14,2
4.61335,-3.54123,0.508815,73,10
4.09236,-3.14245,-0.817214,13,3
5.01555,-3.85274,0.776551,62,11
4.47498,-3.43874,-0.692949,8,4
4.92545,-3.78627,0.983973,90,12
4.35656,-3.34895,-0.480751,41,5
4.88523,-3.75671,1.1979,34,13
4.13175,-3.17843,-0.273194,49,6
5.18758,-3.99209,1.51122,63,14
5.01986,-3.86442,-0.110578,100,7
5.19578,-4.01286,0.114593,94,8
0.41945,-0.324071,-0.122373,15,1
0.518827,-0.400995,-0.12746,14,2
4.60885,-3.56341,0.509687,95,10
7.43458,-5.75024,-1.48863,11,3
4.99579,-3.86537,0.775577,65,11
4.93407,-3.82037,0.988353,109,12
4.3354,-3.35682,-0.479705,51,5
4.88761,-3.78576,1.20172,31,13
4.12063,-3.19283,-0.273194,49,6
4.95798,-3.84303,1.44823,51,14
5.01582,-3.88927,-0.110788,66,7
5.23729,-4.06246,1.77602,101,15
0.418317,-0.325533,-0.122373,15,1
4.99436,-3.888,0.331705,49,9
0.495735,-0.385919,-0.122118,15,2
4.60896,-3.58927,0.511081,61,10
3.87709,-3.0204,-0.778418,6,3
4.96191,-3.86692,0.772408,60,11
4.50097,-3.50896,-0.700749,24,4
4.8179,-3.75739,0.967704,122,12
4.93009,-3.84627,1.21545,20,13
4.10001,-3.19982,-0.272566,55,6
4.90613,-3.83033,1.43699,25,14
5.05107,-3.94491,-0.11187,61,7
5.31746,-4.15446,1.80811,19,15
4.90163,-3.8406,0.108694,19,8
0.40184,-0.31497,-0.117874,16,1
4.88646,-3.83147,0.325425,60,9
0.47887,-0.375617,-0.118302,15,2
4.94061,-3.87672,0.54943,41,10
5.13108,-4.02762,0.800925,30,11
4.4075,-3.46089,-0.688074,64,4
4.71776,-3.70585,0.950183,107,12
4.37393,-3.437,-0.486678,13,5
4.76624,-3.74662,1.17844,108,13
4.08512,-3.21236,-0.272356,35,6
4.67151,-3.67479,1.3722,53,14
4.82037,-3.7919,-0.107053,57,7
5.32267,-4.18853,1.81484,53,15
0.397625,-0.314025,-0.116975,16,1
4.76738,-3.7664,0.318412,63,9
0.483718,-0.382155,-0.119828,15,2
4.9333,-3.89888,0.550127,41,10
4.42562,-3.49891,-0.893554,60,3
4.69486,-3.71576,0.948306,122,12
4.33691,-3.43246,-0.483889,16,5
4.79623,-3.79736,1.18912,28,13
4.04883,-3.20676,-0.270682,44,6
4.69836,-3.72254,1.3839,44,14
3.98369,-3.15743,-0.088728,15,7
5.24673,-4.16,1.79413,37,15
4.70654,-3.74241,0.104959,64,8
0.414827,-0.329968,-0.122373,15,1
4.73076,-3.76436,0.316842,57,9
0.500816,-0.39851,-0.124407,14,2
4.87289,-3.87885,0.544898,54,10
4.41029,-3.51188,-0.892928,62,3
5.07418,-4.04197,0.796538,47,11
5.11539,-4.07626,-0.803119,24,4
4.70348,-3.74937,0.952686,91,12
5.96076,-4.7516,-0.666916,37,5
4.75686,-3.79327,1.18263,35,13
4.01887,-3.20593,-0.269426,21,6
4.67011,-3.72676,1.3794,65,14
3.98515,-3.1813,-0.0890073,33,7
5.18991,-4.14453,1.77964,67,15
4.69969,-3.76382,0.105098,88,8
0.398464,-0.31923,-0.117874,16,1
4.72071,-3.78335,0.317051,75,9
0.496289,-0.397887,-0.123644,14,2
4.61682,-3.70142,0.517705,91,10
4.35948,-3.49635,-0.885106,41,3
4.67914,-3.75407,0.736578,32,11
4.91381,-3.94375,-0.773627,4,4
4.6842,-3.76082,0.951435,86,12
5.80194,-4.65988,-0.651053,27,5
4.71078,-3.78486,1.17462,34,13
6.0231,-4.84096,-0.404976,43,6
4.62821,-3.71985,1.37085,70,14
3.96778,-3.19018,-0.0888676,7,7
5.11519,-4.11419,1.75893,103,15
0.375915,-0.303217,-0.12941,15,0
4.80414,-3.87645,0.107751,100,8
0.412455,-0.332928,-0.122373,15,1
4.73633,-3.82447,0.31904,51,9
0.50399,-0.407105,-0.125934,14,2
4.60168,-3.71707,0.517531,78,10
3.93948,-3.1833,-0.802196,16,3
5.08526,-4.11062,0.802875,80,11
4.91938,-3.97796,-0.776795,9,4
4.60742,-3.72702,0.938607,96,12
5.28765,-4.2788,-0.595099,15,5
4.70298,-3.80704,1.17615,21,13
9.403,-7.6144,-0.634102,35,6
4.65695,-3.77112,1.38345,82,14
5.26129,-4.26203,-0.118188,61,7
5.07907,-4.11588,1.75169,64,15
4.73404,-3.84862,0.106495,77,8
0.411232,-0.334438,-0.122373,15,1
4.77961,-3.88844,0.322913,36,9
0.484291,-0.393994,-0.121355,15,2
4.65138,-3.78547,0.524678,69,10
4.39195,-3.57561,-0.896995,6,3
4.82851,-3.93242,0.764608,85,11
4.89554,-3.98844,-0.775333,30,4
4.60751,-3.75512,0.941423,109,12
4.73683,-3.86189,1.18798,121,13
5.87996,-4.79558,-0.397649,43,6
4.80013,-3.91629,1.43024,52,14
4.96367,-4.05116,-0.111835,56,7
5.11632,-4.17723,1.7698,107,15
4.68035,-3.83219,0.105587,63,8
0.410062,-0.335871,-0.122373,15,1
4.97611,-4.07725,0.337148,105,9
0.48595,-0.398171,-0.122118,15,2
4.64738,-3.80926,0.525723,91,10
4.37944,-3.59092,-0.896995,60,3
4.88382,-4.00591,0.775577,50,11
4.88772,-4.01054,-0.776308,22,4
4.73943,-3.89024,0.971145,106,12
5.18989,-4.25999,-0.58743,23,5
4.7916,-3.93447,1.20515,104,13
4.89785,-4.02457,1.46353,59,14
5.16577,-4.24623,-0.116722,66,7
5.11365,-4.20488,1.77395,21,15
4.66695,-3.8485,0.105587,64,8
0.408888,-0.337301,-0.122373,15,1
4.90485,-4.04756,0.333275,24,9
0.475472,-0.392367,-0.119828,15,2
4.62177,-3.81531,0.524329,82,10
4.29224,-3.54455,-0.881665,60,3
5.10855,-4.22016,0.8136,78,11
4.81249,-3.97699,-0.766558,41,4
4.71821,-3.90047,0.969581,90,12
5.04754,-4.17272,-0.572962,31,5
4.82777,-3.99246,1.21774,32,13
5.15229,-4.26234,-0.350442,16,6
5.01138,-4.14725,1.50177,42,14
5.17403,-4.28337,-0.117245,67,7
5.22987,-4.33114,1.8195,5,15
4.6781,-3.88521,0.106146,22,8
0.377729,-0.31382,-0.113375,16,1
0.495237,-0.411592,-0.125171,14,2
4.62987,-3.84925,0.526769,80,10
4.66193,-3.87866,0.744622,27,11
5.70053,-4.74613,-0.648962,20,5
4.81833,-4.01305,1.21889,34,13
5.11813,-4.26578,1.53822,93,14
5.13754,-4.28348,-0.116757,36,7
4.90762,-4.09323,1.71235,3,15
4.69365,-3.92589,0.106809,35,8
0.406523,-0.340147,-0.122373,15,1
4.67584,-3.91377,0.319563,65,9
0.463688,-0.388116,-0.117538,16,2
4.77986,-4.00225,0.545421,84,10
3.70709,-3.10511,-0.765903,10,3
4.80204,-4.02368,0.769239,100,11
3.93874,-3.30148,-0.63104,35,4
4.09555,-3.43536,-0.467678,11,5
4.8464,-4.06518,1.22957,26,13
5.38709,-4.52031,-0.36855,38,6
4.77484,-4.00798,1.43924,21,14
5.13481,-4.31167,-0.117036,24,7
4.80839,-4.05047,0.109741,82,8
0.405333,-0.341564,-0.122373,15,1
4.64688,-3.9172,0.318517,60,9
0.474269,-0.399938,-0.120591,15,2
4.59916,-3.87972,0.526421,88,10
3.69115,-3.11485,-0.764965,22,3
4.59833,-3.88039,0.738772,100,11
3.93326,-3.32033,-0.632014,54,4
4.57448,-3.863,0.948306,86,12
4.06984,-3.43806,-0.466109,6,5
4.68002,-3.95492,1.19103,15,13
5.82044,-4.9204,-0.399428,83,6
4.72738,-3.99777,1.42934,68,14
5.08461,-4.29987,-0.116233,24,7
5.04707,-4.26963,1.77136,106,15
5.10454,-4.33203,0.116861,56,8
0.404078,-0.343047,-0.122373,15,1
4.73601,-4.02212,0.325634,58,9
0.475863,-0.404133,-0.121355,15,2
4.56281,-3.8764,0.523806,84,10
3.66521,-3.11493,-0.761836,13,3
4.57198,-3.88693,0.736822,100,11
3.89385,-3.31158,-0.627627,30,4
4.76942,-4.05766,0.991795,126,12
4.08968,-3.47936,-0.469769,11,5
5.08578,-4.3314,1.54226,76,14
5.07338,-4.32237,-0.116338,72,7
5.06373,-4.31567,1.78275,52,15
4.73216,-4.0445,0.108659,57,8
0.385104,-0.329259,-0.116975,16,1
5.0164,-4.29047,0.345941,54,9
0.489369,-0.418552,-0.125171,14,2
4.69762,-4.01924,0.540889,86,10
3.64981,-3.12385,-0.760897,21,3
4.59005,-3.92998,0.741941,60,11
3.85814,-3.30449,-0.623727,52,4
4.70422,-4.03058,0.981157,77,12
5.06888,-4.34916,-0.116582,6,7
4.8635,-4.18623,0.11201,39,8
0.401674,-0.34586,-0.122373,15,1
5.03469,-4.33663,0.348243,51,9
0.489393,-0.421539,-0.125552,14,2
4.6096,-3.97189,0.532347,75,10
4.3122,-3.71694,-0.901688,35,3
3.91723,-3.37888,-0.635183,44,4
4.71106,-4.06505,0.985537,103,12
5.30897,-4.58258,-0.613576,40,5
5.31963,-4.5934,-0.36834,42,6
5.06132,-4.37189,1.54406,52,14
6.00086,-5.18529,-0.138432,100,7
5.02617,-4.3446,1.78016,27,15
4.70078,-4.07482,0.108589,77,8
0.400464,-0.34726,-0.122373,15,1
0.484879,-0.420757,-0.124789,14,2
4.44154,-3.85553,0.514567,88,10
3.74221,-3.24961,-0.784988,28,3
9.50721,-8.25575,1.54603,36,11
3.87694,-3.36779,-0.630552,12,4
4.65659,-4.04648,0.97709,113,12
5.23279,-4.5488,-0.606604,43,5
4.75105,-4.13148,1.22385,2,13
4.94562,-4.3022,-0.343533,37,6
4.89384,-4.25865,1.49772,10,14
5.64934,-4.91609,-0.130719,58,7
4.64515,-4.05651,0.107646,92,8
0.399188,-0.348725,-0.122373,15,1
4.58844,-4.00981,0.319354,15,9
0.462711,-0.40436,-0.119446,15,2
4.42506,-3.86839,0.514219,80,10
3.61337,-3.15993,-0.760272,43,3
4.9633,-4.34198,0.8097,27,11
4.58161,-4.00949,-0.747547,1,4
4.67294,-4.09085,0.98366,119,12
5.07297,-4.44105,-0.58987,37,5
4.92907,-4.31812,-0.343429,40,6
4.59316,-4.02525,1.40999,27,14
5.72301,-5.01718,-0.132848,100,7
4.98188,-4.36899,1.7755,66,15
9.30396,-8.18237,0.21627,17,8
0.368706,-0.324373,-0.113375,16,1
4.59841,-4.04692,0.321029,38,9
0.467192,-0.411161,-0.120973,15,2
4.63883,-4.08393,0.540714,56,10
3.63493,-3.20124,-0.767155,42,3
4.94811,-4.35928,0.8097,60,11
5.03373,-4.43627,-0.823837,36,4
4.68234,-4.12803,0.988666,81,12
5.0948,-4.49167,-0.594228,27,5
4.63963,-4.09183,1.20248,36,13
4.896,-4.31944,-0.342173,47,6
5.04287,-4.45215,-0.11742,12,7
0.396744,-0.351504,-0.122373,15,1
9.3135,-8.25438,0.652211,42,9
0.471631,-0.417998,-0.122499,15,2
4.51721,-4.00493,0.528164,31,10
4.28434,-3.79981,-0.907007,45,3
4.9002,-4.34754,0.804338,62,11
4.21055,-3.73698,-0.691243,27,4
4.66199,-4.13911,0.987414,120,12
5.14464,-4.56763,-0.601898,32,5
4.62826,-4.1106,1.20324,39,13
4.43595,-3.94119,-0.31098,34,6
16.5075,-14.6715,5.09874,25,14
4.90476,-4.36077,-0.114558,5,7
16.0172,-14.2458,5.74371,20,15
4.68449,-4.17813,0.109566,55,8
0.412964,-0.368455,-0.127772,14,1
9.30251,-8.3028,0.653467,14,9
0.473098,-0.422256,-0.123263,15,2
4.50766,-4.02465,0.528687,11,10
4.34619,-3.88185,-0.922963,15,3
4.87167,-4.35272,0.802144,100,11
4.10127,-3.66567,-0.6754,49,4
4.5945,-4.10796,0.976151,50,12
4.92518,-4.40362,-0.578017,35,5
4.62851,-4.13982,1.20706,39,13
4.55762,-4.07784,-0.320505,16,6
16.5012,-14.7693,5.11269,30,14
4.94612,-4.42856,-0.115884,12,7
15.7257,-14.0851,5.65675,9,15
4.65947,-4.18511,0.109322,31,8
0.394281,-0.354265,-0.122373,15,1
5.08013,-4.56615,0.357978,10,9
0.4541,-0.408156,-0.118683,15,2
7.67387,-6.90231,-1.63474,17,3
4.80775,-4.32588,0.794101,60,11
4.11501,-3.70387,-0.679787,47,4
4.89201,-4.40479,-0.575925,43,5
4.62133,-4.16252,1.20897,22,13
4.39943,-3.96404,-0.310352,37,6
16.8737,-15.2091,5.24451,27,14
9.47958,-8.54744,-0.222797,37,7
15.6879,-14.1502,5.66089,14,15
4.62852,-4.18659,0.108938,77,8
0.393042,-0.355639,-0.122373,15,1
0.44685,-0.404469,-0.117157,16,2
4.60942,-4.17371,0.544026,50,10
4.09645,-3.71053,-0.875407,13,3
4.58226,-4.15203,0.759246,100,11
4.31532,-3.91152,-0.715129,31,4
4.92384,-4.46467,-0.581503,33,5
4.4255,-4.01561,-0.313178,34,6
17.8233,-16.1782,5.55719,19,14
4.81589,-4.37291,-0.113545,63,7
16.0574,-14.5855,5.81256,2,15
4.63383,-4.22238,0.109427,33,8
0.391735,-0.357077,-0.122373,15,1
4.48061,-4.08563,0.317784,43,9
0.459872,-0.419332,-0.120973,15,2
4.40715,-4.02005,0.521889,41,10
4.46221,-4.0717,-0.956753,60,3
4.54795,-4.1514,0.756077,80,11
4.11918,-3.76133,-0.684906,18,4
4.48341,-4.09535,0.961759,70,12
4.8486,-4.42893,-0.574531,41,5
4.74392,-4.33635,-0.336834,19,6
21.4872,-19.6481,6.72199,9,14
4.83229,-4.42023,-0.114313,88,7
16.0024,-14.6429,5.81204,15,15
4.68979,-4.30343,0.111102,41,8
0.376131,-0.345264,-0.117874,16,1
4.43543,-4.07287,0.315586,51,9
0.455513,-0.418279,-0.12021,15,2
9.22784,-8.47652,1.09624,49,10
4.60797,-4.23428,-0.991169,36,3
4.60943,-4.2371,0.768752,57,11
8.9792,-8.2568,-1.49777,45,4
4.44874,-4.09226,0.957379,82,12
5.09852,-4.68997,-0.606081,10,5
4.37167,-4.02418,-0.311399,40,6
16.2004,-14.918,5.08434,25,14
18.4378,-16.9841,-0.437567,82,7
15.9284,-14.6778,5.80376,5,15
4.57487,-4.22749,0.108728,61,8
0.389233,-0.359803,-0.122373,15,1
4.4043,-4.07129,0.31433,58,9
0.482879,-0.446525,-0.127842,14,2
9.24646,-8.55333,1.102,28,10
4.04366,-3.74185,-0.872591,15,3
4.60335,-4.26126,0.770214,92,11
5.13278,-4.75301,-0.858935,24,4
4.82358,-4.46668,1.04123,63,12
18.2683,-16.9284,4.84121,21,13
4.65494,-4.31505,-0.332647,52,6
16.1011,-14.9307,5.0695,5,14
5.70386,-5.28923,-0.13578,45,7
15.6786,-14.5439,5.73025,12,15
4.56376,-4.24536,0.108798,68,8
0.388038,-0.361092,-0.122373,15,1
4.39006,-4.08664,0.31433,50,9
0.458329,-0.426801,-0.121736,15,2
9.24133,-8.60864,1.10496,9,10
4.0269,-3.7512,-0.871653,21,3
4.52239,-4.21425,0.759002,55,11
5.04439,-4.70232,-0.846748,9,4
4.47423,-4.17229,0.968955,79,12
5.74749,-5.36149,-0.687659,30,5
4.69609,-4.38224,-0.336625,61,6
15.9817,-14.9188,5.04745,9,14
4.92829,-4.60214,-0.117699,24,7
17.878,-16.7007,6.55537,7,15
9.07155,-8.49792,0.216968,25,8
0.386775,-0.362444,-0.122373,15,1
4.33934,-4.06779,0.311713,42,9
0.462565,-0.43377,-0.123263,15,2
17.0055,-15.9469,2.03962,10,10
4.42582,-4.15176,-0.961133,35,3
4.58872,-4.30608,0.772652,20,11
3.91786,-3.67783,-0.659801,7,4
4.47692,-4.20411,0.97271,66,12
5.72874,-5.38152,-0.687659,11,5
4.71201,-4.42952,-0.338928,78,6
18.0011,-16.9219,5.70386,13,14
13.8261,-13.0017,-0.331282,36,7
15.6006,-14.6756,5.73905,22,15
9.02289,-8.51464,0.216549,46,8
0.365605,-0.345131,-0.116075,16,1
4.36215,-4.11932,0.314434,56,9
0.458117,-0.432766,-0.122499,15,2
4.37542,-4.1333,0.526595,20,10
3.97841,-3.75957,-0.86696,5,3
4.55126,-4.30241,0.768996,72,11
3.94041,-3.72626,-0.665894,50,4
4.47153,-4.22999,0.9749,107,12
6.23718,-5.90233,-0.751283,16,5
17.9915,-17.0315,4.81564,33,13
4.68414,-4.43577,-0.33809,68,6
20.1492,-19.0808,6.40661,35,14
5.68352,-5.38404,-0.136652,85,7
17.6935,-16.7671,6.53156,14,15
8.98582,-8.54214,0.21641,60,8
0.38552,-0.366613,-0.122823,15,1
4.81299,-4.57854,0.348139,102,9
0.476518,-0.453307,-0.127842,14,2
17.0672,-16.2415,2.06123,25,10
4.03615,-3.84223,-0.882603,17,3
8.52322,-8.11655,1.44513,30,11
3.92817,-3.74205,-0.666138,57,4
4.47888,-4.26816,0.979906,61,12
5.01362,-4.77774,-0.605907,5,5
17.814,-16.9818,4.78396,12,13
4.71055,-4.49207,-0.341126,37,6
16.86,-16.0836,5.37948,17,14
5.67243,-5.41312,-0.136862,85,7
17.6417,-16.8411,6.53518,14,15
8.91117,-8.53059,0.215328,16,8
0.384238,-0.367956,-0.122823,15,1
4.53448,-4.34386,0.329089,36,9
0.466427,-0.446819,-0.125552,14,2
16.6507,-15.9563,2.01766,9,10
8.32919,-7.98462,-1.82747,22,3
19.305,-18.5128,3.28414,19,11
3.91078,-3.75162,-0.665407,58,4
4.76115,-4.56897,-0.57732,13,5
4.4698,-4.29088,1.20439,1,13
4.67179,-4.48635,-0.339451,13,6
16.815,-16.1532,5.38308,29,14
13.6255,-13.0938,-0.32985,44,7
17.6594,-16.9762,6.56365,14,15
8.9778,-8.65463,0.217666,58,8
0.382951,-0.369295,-0.122823,15,1
4.49342,-4.3347,0.327204,112,9
0.459212,-0.442992,-0.124026,14,2
4.44443,-4.28894,0.540366,1,10
3.97369,-3.83601,-0.874782,11,3
19.3017,-18.6394,3.29462,19,11
3.9048,-3.77214,-0.666625,47,4
4.65348,-4.49695,-0.566164,32,5
16.9977,-16.4317,4.59544,5,13
4.64462,-4.49152,-0.338614,39,6
16.8411,-16.2917,5.40962,36,14
13.699,-13.2567,-0.332748,81,7
19.9986,-19.3597,7.45813,10,15
8.93031,-8.6692,0.217248,21,8
0.362087,-0.351623,-0.116525,16,1
4.51551,-4.38654,0.329926,27,9
0.432316,-0.419968,-0.117157,16,2
4.42229,-4.29749,0.539494,35,10
4.1869,-4.07017,-0.924841,20,3
17.7123,-17.2245,3.03357,8,11
4.85918,-4.72699,-0.832368,9,4
17.3521,-16.886,3.83484,4,12
4.59635,-4.47287,-0.561109,15,5
16.9107,-16.4622,4.58743,16,13
4.81206,-4.68607,-0.352012,37,6
16.7786,-16.3449,5.40782,24,14
13.5724,-13.2263,-0.330793,100,7
17.4506,-17.0115,6.53,14,15
4.83751,-4.72898,0.118083,34,8
0.380364,-0.37196,-0.122823,15,1
4.50445,-4.40647,0.33024,38,9
0.444881,-0.435204,-0.120973,15,2
4.42293,-4.32823,0.541411,48,10
4.44087,-4.34731,-0.984286,30,3
17.6266,-17.2612,3.02918,51,11
8.87559,-8.69465,-1.52556,15,4
17.0631,-16.7211,3.78384,19,12
16.7438,-16.4139,4.55766,13,13
4.68159,-4.59096,-0.343638,37,6
16.7353,-16.4171,5.41232,42,14
13.5747,-13.3212,-0.33198,81,7
19.9456,-19.58,7.48919,10,15
8.89808,-8.75939,0.217946,30,8
0.379063,-0.373285,-0.122823,15,1
0.454548,-0.447776,-0.124026,14,2
4.40779,-4.34364,0.541411,99,10
4.37644,-4.31425,-0.973335,35,3
15.9973,-15.7755,2.75863,7,11
4.51374,-4.45271,-0.778501,8,4
17.5417,-17.3105,3.90335,15,12
4.54374,-4.48386,-0.558494,58,5
16.6738,-16.4598,4.55423,22,13
4.52911,-4.47255,-0.333589,35,6
16.6419,-16.4398,5.40062,48,14
13.5295,-13.3699,-0.332015,51,7
17.3451,-17.1465,6.53518,14,15
4.36271,-4.32481,0.107228,24,8
0.377758,-0.374606,-0.122823,15,1
19.3695,-19.2079,1.42961,25,9
0.447407,-0.44383,-0.122499,15,2
4.38553,-4.35198,0.54054,86,10
7.46939,-7.41484,-1.66697,62,3
18.8804,-18.749,3.26707,48,11
8.7682,-8.71024,-1.51752,13,4
17.4758,-17.3603,3.90148,27,12
4.53371,-4.50531,-0.559191,16,5
16.4617,-16.3643,4.51187,13,13
4.49789,-4.47284,-0.332438,35,6
16.4711,-16.3851,5.36373,35,14
6.56393,-6.52965,-0.161609,76,7
17.2868,-17.2025,6.53466,14,15
4.36675,-4.35761,0.107681,53,8
0.376513,-0.375857,-0.122823,15,1
19.2656,-19.2387,1.42689,12,9
0.440299,-0.439839,-0.120973,15,2
4.36045,-4.3574,0.53932,80,10
7.44756,-7.44236,-1.66759,58,3
18.8083,-18.8017,3.26537,39,11
4.51982,-4.51982,-0.784839,24,4
19.7739,-19.7808,4.42991,12,12
4.53345,-4.53661,-0.561109,30,5
16.2214,-16.2327,4.46073,28,13
6.4846,-6.49139,-0.480863,58,6
16.732,-16.7554,5.46676,30,14
6.63716,-6.64876,-0.163983,93,7
17.1147,-17.1506,6.49222,21,15
4.34728,-4.36858,0.107577,23,8
0.375199,-0.377169,-0.122823,15,1
4.67564,-4.70183,0.347511,1,9
0.430532,-0.432944,-0.118683,15,2
3.90292,-3.92752,-0.876972,17,3
17.4988,-17.6153,3.04868,8,11
4.57396,-4.606,-0.797026,33,4
17.3082,-17.4356,3.89115,2,12
4.49092,-4.52554,-0.557797,36,5
16.3195,-16.4453,4.50347,26,13
6.48159,-6.53384,-0.482328,29,6
16.4593,-16.5978,5.39658,17,14
4.7556,-4.79728,-0.117908,12,7
17.0507,-17.2061,6.49066,14,15
13.2673,-13.4257,0.329467,14,8
0.37388,-0.378476,-0.122823,15,1
18.4937,-18.7275,1.37937,11,9
0.43446,-0.440107,-0.12021,15,2
17.4023,-17.6346,2.16756,22,10
7.47457,-7.57702,-1.68574,38,3
17.203,-17.4388,3.00774,8,11
4.55646,-4.62053,-0.796782,34,4
18.5952,-18.8633,4.19526,14,12
4.44713,-4.51281,-0.554311,51,5
16.204,-16.4491,4.48821,26,13
4.42278,-4.49124,-0.330345,45,6
16.397,-16.6566,5.39613,5,14
4.10895,-4.174,-0.102236,53,7
16.897,-17.1705,6.45495,17,15
19.1863,-19.5583,0.478231,19,8
0.37249,-0.379844,-0.122823,15,1
18.3564,-18.7253,1.37424,27,9
0.449413,-0.458445,-0.124789,14,2
17.2067,-17.5587,2.15083,22,10
6.49287,-6.62799,-1.46955,32,3
17.6223,-17.9953,3.09256,35,11
4.54644,-4.64429,-0.798001,41,4
16.7589,-17.1256,3.7951,7,12
9.61486,-9.82866,-1.20292,25,5
16.0174,-16.3736,4.45234,17,13
4.40708,-4.50665,-0.330345,48,6
16.3633,-16.7389,5.40422,6,14
4.09921,-4.19475,-0.102376,100,7
17.0419,-17.4452,6.53466,14,15
4.85588,-4.9847,0.121469,37,8
0.357567,-0.367181,-0.118324,16,1
18.2993,-18.7979,1.37487,20,9
0.434038,-0.446019,-0.120973,15,2
17.1825,-17.663,2.15588,5,10
4.10119,-4.21735,-0.931724,10,3
17.6909,-18.1919,3.11571,17,11
4.51221,-4.64163,-0.794832,11,4
17.6406,-18.1529,4.0091,15,12
4.38279,-4.51164,-0.550301,8,5
16.5523,-17.0449,4.61834,24,13
4.37245,-4.50414,-0.328984,68,6
16.7741,-17.2854,5.56079,25,14
4.12075,-4.24635,-0.103283,95,7
16.7683,-17.2855,6.45288,17,15
4.62489,-4.78253,0.116128,52,8
0.369763,-0.3825,-0.122823,15,1
18.2677,-18.9036,1.37769,20,9
0.443392,-0.458826,-0.124026,14,2
17.0834,-17.6842,2.15118,22,10
4.0988,-4.24443,-0.93454,33,3
17.2022,-17.8196,3.04113,25,11
6.34093,-6.57081,-1.1212,19,4
17.5356,-18.1777,4.00034,21,12
16.2283,-16.8284,4.54431,28,13
4.36501,-4.528,-0.329612,74,6
16.7069,-17.3368,5.55854,19,14
4.11348,-4.27006,-0.103493,100,7
17.0359,-17.6905,6.58073,15,15
4.48905,-4.6746,0.113127,68,8
0.368425,-0.383788,-0.122823,15,1
18.2542,-19.022,1.38167,2,9
0.441788,-0.46037,-0.124026,14,2
16.9512,-17.6704,2.14229,10,10
6.42878,-6.70387,-1.47111,16,3
18.8089,-19.6206,3.33727,10,11
6.30971,-6.58431,-1.11974,15,4
17.6046,-18.3771,4.03069,26,12
4.3567,-4.54789,-0.550999,51,5
16.2781,-16.9984,4.57484,11,13
4.37957,-4.57495,-0.331915,26,6
16.4765,-17.2176,5.50185,31,14
4.0792,-4.26417,-0.103004,43,7
17.1236,-17.9063,6.63871,15,15
4.51135,-4.73077,0.114104,100,8
0.367083,-0.385072,-0.122823,15,1
18.1877,-19.0856,1.38167,11,9
0.434761,-0.456225,-0.122499,15,2
17.7607,-18.6441,2.2528,72,10
4.58536,-4.8151,-1.05312,15,3
19.4083,-20.3878,3.45621,10,11
6.2949,-6.61492,-1.1212,11,4
17.622,-18.5244,4.04946,13,12
4.39904,-4.62591,-0.558494,18,5
16.1199,-16.9512,4.54698,23,13
4.40348,-4.63219,-0.33495,35,6
16.266,-17.1168,5.45146,49,14
4.09046,-4.30593,-0.103667,60,7
16.4317,-17.3033,6.39387,16,15
4.43156,-4.67969,0.112498,53,8
0.346981,-0.366538,-0.116525,16,1
18.0798,-19.1054,1.37853,18,9
0.446577,-0.472077,-0.126316,14,2
16.7997,-17.7652,2.13915,5,10
4.07238,-4.30792,-0.93892,28,3
19.3152,-20.4324,3.45232,10,11
8.14649,-8.62069,-1.45634,26,4
17.503,-18.5283,4.03695,13,12
4.44579,-4.70787,-0.566512,33,5
16.0172,-16.9674,4.53553,7,13
4.45775,-4.72384,-0.340393,50,6
16.2954,-17.2741,5.48251,36,14
4.10559,-4.35218,-0.104435,50,7
16.3023,-17.2875,6.36695,13,15
4.58148,-4.87366,0.116757,34,8
0.348305,-0.370647,-0.117424,16,1
17.985,-19.1454,1.37665,18,9
0.442239,-0.470771,-0.125552,14,2
17.8246,-18.9813,2.27808,61,10
4.03568,-4.29907,-0.933914,13,3
19.0554,-20.3062,3.41917,10,11
6.07628,-6.47737,-1.09049,11,4
17.3201,-18.4699,4.01035,15,12
4.30723,-4.59476,-0.550999,50,5
16.6628,-17.7751,4.73588,12,13
4.30603,-4.59509,-0.330031,45,6
16.1804,-17.2726,5.46406,30,14
4.10602,-4.38471,-0.104854,87,7
16.2626,-17.3725,6.37627,23,15
4.62448,-4.95394,0.118292,9,8
0.34435,-0.369011,-0.116525,16,1
17.9112,-19.2007,1.37612,9,9
0.411053,-0.440801,-0.117157,16,2
17.8283,-19.1252,2.28749,30,10
4.47374,-4.80085,-1.03935,25,3
18.8707,-20.2506,3.39869,10,11
5.86962,-6.301,-1.05734,17,4
18.4456,-19.8081,4.28693,12,12
4.26673,-4.58352,-0.547861,33,5
16.5668,-17.803,4.7271,5,13
4.18577,-4.4997,-0.322076,32,6
16.117,-17.3318,5.46406,30,14
4.09886,-4.40781,-0.105063,100,7
16.2255,-17.4546,6.38558,16,15
15.3971,-16.6099,0.395332,7,8
0.361603,-0.390223,-0.122823,15,1
17.8563,-19.2763,1.37706,11,9
0.438941,-0.473847,-0.125552,14,2
15.7396,-16.9972,2.02672,24,10
4.04851,-4.37353,-0.943926,86,3
15.4806,-16.7292,2.79861,35,11
7.01899,-7.58778,-1.26915,26,4
17.0727,-18.4627,3.98282,15,12
4.20146,-4.54352,-0.541411,35,5
16.2798,-17.6113,4.66185,11,13
4.33213,-4.68811,-0.334531,35,6
16.0078,-17.3293,5.44652,49,14
4.11058,-4.45147,-0.105762,76,7
16.1003,-17.4416,6.36022,13,15
4.38799,-4.76689,0.113092,45,8
0.344404,-0.374274,-0.117424,16,1
18.4515,-20.0588,1.42835,12,9
0.421335,-0.458038,-0.120973,15,2
17.8946,-19.4602,2.31294,37,10
3.99178,-4.34255,-0.934227,68,3
18.9787,-20.6537,3.44403,21,11
18.2039,-19.8244,4.26284,14,12
3.85407,-4.19714,-0.498531,56,5
16.4187,-17.8865,4.71947,11,13
4.26983,-4.65317,-0.330973,58,6
15.7786,-17.2013,5.38893,41,14
4.0869,-4.45695,-0.105552,100,7
16.0902,-17.5532,6.38041,16,15
4.3956,-4.80874,0.11372,66,8
0.35887,-0.392737,-0.122823,15,1
18.401,-20.1376,1.42961,12,9
0.401196,-0.439212,-0.11563,16,2
17.7674,-19.4578,2.30527,50,10
4.00856,-4.39147,-0.941736,58,3
18.8021,-20.6054,3.42502,10,11
17.9011,-19.6249,4.20715,2,12
3.85416,-4.22677,-0.500448,58,5
15.8483,-17.3865,4.57293,24,13
3.94281,-4.32702,-0.306793,37,6
15.7736,-17.3168,5.40782,24,14
4.09903,-4.50004,-0.10625,94,7
15.8732,-17.4322,6.31726,23,15
4.57724,-5.04092,0.118851,78,8
0.357566,-0.393925,-0.122823,15,1
15.9054,-17.5289,1.24047,22,9
0.423403,-0.466785,-0.122499,15,2
17.6218,-19.4341,2.29516,24,10
7.12281,-7.85536,-1.67948,15,3
18.0005,-19.8587,3.29096,9,11
4.30131,-4.74702,-0.786545,64,4
17.8087,-19.6609,4.20152,14,12
4.00387,-4.42185,-0.521889,40,5
15.7813,-17.4288,4.57026,24,13
3.8936,-4.30158,-0.304072,37,6
15.7462,-17.4022,5.41817,30,14
4.17854,-4.61962,-0.108728,59,7
15.8434,-17.5219,6.32968,16,15
4.45249,-4.93805,0.116058,100,8
0.356189,-0.395171,-0.122823,15,1
15.8294,-17.568,1.23932,7,9
0.421853,-0.468186,-0.122499,15,2
17.6546,-19.6005,2.30788,25,10
6.12251,-6.79974,-1.44921,6,3
17.8739,-19.858,3.28048,19,11
4.27675,-4.75315,-0.785082,51,4
15.156,-16.8502,3.58955,17,12
3.84188,-4.27283,-0.502714,51,5
15.5576,-17.3027,4.52294,28,13
3.87989,-4.31663,-0.304177,71,6
15.6541,-17.4223,5.40737,30,14
4.27731,-4.76212,-0.11173,61,7
15.6711,-17.4535,6.28516,19,15
4.43122,-4.9491,0.115954,100,8
0.328814,-0.367371,-0.113825,16,1
15.7227,-17.5726,1.23576,9,9
0.412281,-0.460949,-0.12021,15,2
15.7115,-17.5723,2.06228,55,10
17.696,-19.7989,3.26049,19,11
4.27865,-4.78877,-0.788495,25,4
15.2905,-17.1196,3.63554,23,12
3.84021,-4.30108,-0.504457,61,5
15.5908,-17.468,4.55118,30,13
3.87069,-4.33827,-0.3047,71,6
15.5888,-17.4781,5.40692,6,14
4.27131,-4.78896,-0.11201,84,7
15.6487,-17.5514,6.30069,26,15
4.43564,-4.99071,0.116547,85,8
0.353352,-0.39771,-0.122823,15,1
17.2922,-19.4698,1.36471,18,9
0.410669,-0.462385,-0.12021,15,2
17.6263,-19.853,2.3227,31,10
3.86949,-4.35984,-0.923276,67,3
15.4693,-17.4358,2.86198,7,11
4.15438,-4.68413,-0.768752,45,4
15.2867,-17.242,3.64962,10,12
3.88785,-4.3867,-0.512824,46,5
15.4516,-17.4342,4.52828,21,13
3.8595,-4.35624,-0.305014,40,6
15.4166,-17.4069,5.36823,23,14
4.21528,-4.76116,-0.110997,95,7
15.6124,-17.6404,6.31208,13,15
4.13899,-4.68981,0.109182,66,8
0.351961,-0.398941,-0.122823,15,1
17.244,-19.5526,1.36628,24,9
0.408972,-0.463888,-0.12021,15,2
15.1967,-17.2434,2.01086,9,10
3.89527,-4.42143,-0.933288,56,3
15.5632,-17.6654,2.89074,30,11
3.60534,-4.09377,-0.669794,48,4
15.1389,-17.1959,3.62865,23,12
3.96992,-4.51092,-0.525723,61,5
15.4135,-17.5202,4.53591,21,13
4.20623,-4.78279,-0.333799,65,6
15.3964,-17.5131,5.38353,23,14
4.17619,-4.75032,-0.110404,100,7
15.3709,-17.4902,6.23909,6,15
4.18239,-4.77414,0.110788,30,8
0.350497,-0.400228,-0.122823,15,1
15.6606,-17.8889,1.24601,9,9
0.420282,-0.480084,-0.124026,14,2
4.09377,-4.67792,0.543852,28,10
3.86941,-4.4231,-0.930785,10,3
15.4801,-17.7014,2.88733,7,11
15.1343,-17.3182,3.64273,14,12
3.99348,-4.56976,-0.530953,51,5
17.8425,-20.4245,5.27167,18,13
4.04237,-4.62896,-0.322076,22,6
15.3019,-17.5285,5.37183,35,14
4.00098,-4.58479,-0.106215,41,7
14.7073,-16.8593,5.99477,11,15
4.15126,-4.77212,0.110404,97,8
0.323523,-0.372039,-0.113825,16,1
3.9231,-4.51301,0.313388,0,9
0.397995,-0.457841,-0.11792,16,2
4.08525,-4.7012,0.544898,24,10
3.95412,-4.55351,0.740478,2,11
3.75162,-4.32184,-0.702699,10,4
15.4427,-17.7962,3.7319,24,12
3.87435,-4.46479,-0.517182,57,5
15.3848,-17.7356,4.56377,19,13
3.84562,-4.4348,-0.307631,43,6
14.6905,-16.9472,5.17792,21,14
3.86316,-4.45818,-0.102969,100,7
17.6866,-20.4179,7.23813,4,15
4.01563,-4.64887,0.107228,100,8
0.347694,-0.402665,-0.122823,15,1
0.406657,-0.471117,-0.120973,15,2
4.04018,-4.68225,0.541063,52,10
3.87585,-4.49339,-0.939858,57,3
3.94339,-4.57329,0.741453,42,11
3.70023,-4.29281,-0.695874,26,4
17.7389,-20.587,4.30414,6,12
3.75393,-4.35819,-0.503237,55,5
15.6072,-18.1194,4.64849,14,13
3.75843,-4.36496,-0.301874,66,6
14.5651,-16.9216,5.15453,5,14
3.83584,-4.458,-0.102655,73,7
14.651,-17.0333,6.02013,5,15
3.99938,-4.66286,0.107228,56,8
0.346286,-0.403877,-0.122823,15,1
3.90969,-4.56152,0.314853,37,9
0.422811,-0.493477,-0.126316,14,2
4.00615,-4.67735,0.538797,43,10
3.85422,-4.50156,-0.938607,60,3
3.93256,-4.59306,0.742428,27,11
3.69684,-4.31927,-0.698068,70,4
4.03372,-4.71454,0.982721,1,12
3.74776,-4.38187,-0.504457,48,5
15.2332,-17.8169,4.55652,22,13
3.76836,-4.40907,-0.303967,84,6
15.1916,-17.7808,5.39928,24,14
3.84753,-4.50329,-0.103388,35,7
14.5563,-17.0432,6.00564,2,15
4.04319,-4.74905,0.108868,68,8
0.344804,-0.405143,-0.122823,15,1
16.9734,-19.9507,1.37277,20,9
0.418542,-0.491959,-0.125552,14,2
3.98721,-4.68827,0.538448,80,10
3.83976,-4.51649,-0.93892,36,3
3.90285,-4.59232,0.739991,17,11
3.67327,-4.32371,-0.696605,53,4
3.69504,-4.35088,-0.499402,58,5
18.0742,-21.2898,5.42852,11,13
3.75424,-4.42372,-0.304072,50,6
15.0425,-17.7312,5.36823,35,14
3.86592,-4.55854,-0.10433,65,7
17.8954,-21.109,7.41517,14,15
4.05111,-4.79215,0.109531,66,8
0.343387,-0.406344,-0.122823,15,1
17.1653,-20.3196,1.39402,16,9
0.411754,-0.487418,-0.124026,14,2
3.87313,-4.58647,0.5252,76,10
3.852,-4.56307,-0.945803,10,3
3.89063,-4.61047,0.740722,5,11
3.69527,-4.38051,-0.703674,47,4
4.01771,-4.76443,0.987102,27,12
3.6657,-4.347,-0.497485,58,5
14.9553,-17.7412,4.51034,10,13
14.4984,-17.2113,5.19547,5,14
3.83066,-4.54906,-0.103807,40,7
15.0747,-17.9081,6.27222,6,15
3.97651,-4.73734,0.107961,75,8
0.316914,-0.377684,-0.113825,16,1
4.59477,-5.47583,0.374621,6,9
0.405003,-0.482835,-0.122499,15,2
3.96847,-4.73279,0.540366,16,10
3.84264,-4.58598,0.734628,27,11
3.73477,-4.45882,-0.714154,48,4
3.99681,-4.77167,0.98585,22,12
3.63644,-4.34296,-0.495568,52,5
14.8795,-17.7767,4.50615,10,13
4.53585,-5.42097,-0.370434,56,6
14.9796,-17.909,5.39028,23,14
10.5127,-12.5686,-0.28601,100,7
14.988,-17.9254,6.26083,19,15
4.0709,-4.88258,0.110962,94,8
0.340614,-0.408672,-0.122823,15,1
0.408341,-0.49028,-0.124026,14,2
3.75678,-4.51544,-0.721223,34,4
3.97634,-4.78103,0.984912,13,12
3.57795,-4.30354,-0.489641,53,5
17.9143,-21.5473,5.44683,7,13
4.50891,-5.42523,-0.369701,80,6
14.9388,-17.9811,5.39703,23,14
4.09091,-4.92577,-0.111765,50,7
14.9598,-18.0192,6.27533,13,15
4.10867,-4.963,0.112463,66,8
0.339185,-0.409859,-0.122823,15,1
4.53988,-5.48777,0.37326,60,9
0.39545,-0.478017,-0.120591,15,2
3.76094,-4.54781,0.516311,43,10
4.01752,-4.8598,-0.998678,37,3
3.95929,-4.79106,0.763146,37,11
3.79663,-4.59586,-0.731947,43,4
18.1416,-21.9684,4.51251,16,12
3.57051,-4.32522,-0.490687,57,5
14.6444,-17.7398,4.47142,13,13
17.1676,-20.8112,6.22845,58,14
4.05079,-4.91225,-0.111137,22,7
17.5044,-21.2345,7.37375,14,15
4.07862,-4.96186,0.112114,94,8
0.337752,-0.41104,-0.122823,15,1
4.54858,-5.53754,0.375563,106,9
0.383729,-0.467325,-0.117538,16,2
3.77964,-4.60468,0.521191,75,10
3.9245,-4.78287,-0.979906,40,3
3.94506,-4.80792,0.763633,60,11
3.67103,-4.47555,-0.710742,53,4
18.1199,-22.0988,4.52628,16,12
3.59581,-4.38697,-0.496265,55,5
14.9115,-18.1988,4.57331,11,13
3.78277,-4.61836,-0.312864,40,6
14.7628,-18.0302,5.37993,23,14
3.99308,-4.87685,-0.11002,93,7
14.9927,-18.3176,6.34262,16,15
4.04903,-4.96283,0.1118,46,8
0.336243,-0.412275,-0.122823,15,1
4.52447,-5.54953,0.375249,65,9
0.389539,-0.477792,-0.119828,15,2
3.75599,-4.60858,0.520145,88,10
3.90404,-4.79194,-0.978967,22,3
3.97379,-4.8793,0.772652,37,11
3.65836,-4.4936,-0.711473,69,4
17.5612,-21.5783,4.40645,12,12
3.60234,-4.42794,-0.499402,51,5
14.8665,-18.2736,4.57903,11,13
3.78175,-4.65013,-0.31412,45,6
14.9002,-18.3281,5.45326,49,14
3.89068,-4.78748,-0.107681,57,7
14.8963,-18.3364,6.3302,16,15
4.06441,-5.01733,0.112708,79,8
0.310275,-0.383157,-0.113825,16,1
4.47868,-5.53269,0.373051,17,9
0.365555,-0.451745,-0.112959,16,2
3.75035,-4.63626,0.521714,16,10
3.93737,-4.86919,-0.991795,23,3
3.8444,-4.75422,0.750715,25,11
3.65763,-4.52487,-0.714398,22,4
17.4808,-21.6333,4.4052,21,12
3.59437,-4.44979,-0.500448,31,5
14.6329,-18.1218,4.52752,23,13
3.77974,-4.68261,-0.315377,29,6
17.0675,-21.1519,6.27478,42,14
3.86892,-4.7948,-0.107542,57,7
14.7388,-18.2725,6.29034,13,15
0.333285,-0.414671,-0.122823,15,1
17.3832,-21.6357,1.45452,12,9
0.38611,-0.480567,-0.119828,15,2
3.90922,-4.86905,-0.988979,31,3
3.66587,-4.56921,-0.719273,12,4
3.8078,-4.74781,0.963949,20,12
3.55389,-4.43122,-0.496962,50,5
14.7771,-18.4316,4.59201,13,13
3.83456,-4.78461,-0.321343,3,6
17.2993,-21.5931,6.38771,8,14
3.80507,-4.7512,-0.10625,36,7
14.714,-18.3792,6.30846,16,15
0.331835,-0.415832,-0.122823,15,1
4.44396,-5.57084,0.373469,1,9
0.381981,-0.478842,-0.119065,15,2
3.76882,-4.72619,0.528861,41,10
3.85034,-4.83014,-0.978341,47,3
3.63214,-4.55805,0.715617,75,11
3.56579,-4.47639,-0.702699,32,4
3.80105,-4.77344,0.966452,34,12
3.50737,-4.40463,-0.492604,48,5
14.4167,-18.1114,4.49966,28,13
4.38368,-5.50906,-0.368969,77,6
17.2469,-21.6823,6.39626,35,14
3.64782,-4.58759,-0.102306,39,7
14.6437,-18.4229,6.30587,13,15
3.7139,-4.68577,0.104365,59,8
0.330382,-0.416987,-0.122823,15,1
0.390059,-0.492485,-0.122118,15,2
3.79188,-4.78931,0.534439,24,10
3.92294,-4.95663,-1.00118,48,3
3.78002,-4.77776,0.748034,60,11
3.54891,-4.48726,-0.702455,36,4
3.60071,-4.55439,-0.507944,52,5
3.81345,-4.82693,-0.32239,19,6
23.7934,-30.1277,8.86307,13,14
3.53638,-4.47944,-0.0996183,41,7
14.4752,-18.3419,6.26083,26,15
0.298735,-0.379488,-0.12941,15,0
3.65176,-4.64056,0.103074,78,8
0.328924,-0.418138,-0.122823,15,1
3.77286,-4.79789,0.319877,53,9
0.383483,-0.48767,-0.120591,15,2
3.64831,-4.64118,0.516485,99,10
3.66762,-4.66741,-0.940171,27,3
17.8087,-22.6878,4.5682,32,12
3.58725,-4.57006,-0.508292,42,5
21.1968,-27.0138,6.6745,6,13
4.44126,-5.66211,-0.377133,28,6
23.6256,-30.1308,8.83968,12,14
3.5602,-4.54212,-0.100735,57,7
14.5517,-18.5718,6.32191,13,15
3.76073,-4.81178,0.106599,88,8
0.327536,-0.419226,-0.122823,15,1
3.74586,-4.79621,0.318935,50,9
0.367363,-0.470372,-0.116012,16,2
3.68808,-4.72392,0.524329,99,10
3.47225,-4.44908,-0.893867,25,3
3.93912,-5.0491,0.786301,15,11
3.44992,-4.42365,-0.688806,50,4
17.7735,-22.7982,4.57852,13,12
3.51739,-4.51341,-0.500623,43,5
17.6435,-22.6397,5.57926,33,13
4.43841,-5.69729,-0.378494,42,6
20.5705,-26.4144,7.72932,22,14
3.51686,-4.51761,-0.0999325,83,7
14.4805,-18.6077,6.31777,6,15
3.52938,-4.5484,0.100491,33,8
0.32607,-0.420367,-0.122823,15,1
3.67892,-4.74454,0.314644,33,9
0.380069,-0.490336,-0.120591,15,2
3.6805,-4.75001,0.525723,37,10
3.46076,-4.46802,-0.895118,25,3
3.91417,-5.0534,0.784839,10,11
3.5013,-4.52199,-0.702211,40,4
17.3407,-22.4039,4.48717,12,12
3.4248,-4.42639,-0.489641,47,5
17.5929,-22.7461,5.58956,41,13
20.3996,-26.3941,7.70142,11,14
3.4815,-4.50454,-0.099374,92,7
16.9348,-21.919,7.4219,4,15
3.51146,-4.55972,0.100456,53,8
0.324527,-0.42156,-0.122823,15,1
3.79306,-4.92894,0.325948,60,9
0.378355,-0.491659,-0.120591,15,2
3.66025,-4.75809,0.5252,58,10
3.44273,-4.47694,-0.894492,21,3
3.64398,-4.74036,0.734141,15,11
3.72178,-4.84331,-0.749984,55,4
17.2982,-22.519,4.49749,35,12
3.41055,-4.43989,-0.489815,37,5
17.499,-22.7887,5.58498,41,13
3.33463,-4.3442,-0.28701,11,6
19.9396,-25.9858,7.56195,11,14
3.41507,-4.45222,-0.0979429,67,7
16.9108,-22.0545,7.44674,5,15
3.52467,-4.61008,0.101294,48,8
0.323054,-0.42269,-0.122823,15,1
3.77462,-4.94057,0.325844,48,9
0.364718,-0.477377,-0.116775,16,2
3.60734,-4.72333,0.519971,73,10
3.39832,-4.45125,-0.886984,41,3
3.81408,-4.99765,0.77192,45,11
5.02689,-6.58919,-1.01761,28,4
17.2746,-22.6515,4.51188,35,12
3.41194,-4.47395,-0.492256,61,5
17.3944,-22.8169,5.57697,37,13
19.7284,-25.8972,7.51606,22,14
3.45161,-4.53252,-0.0994438,50,7
16.8091,-22.0811,7.43587,4,15
3.45778,-4.55546,0.0998278,74,8
0.305085,-0.402081,-0.116525,16,1
3.55819,-4.69115,0.308573,18,9
0.384405,-0.506802,-0.123644,14,2
3.56796,-4.70573,0.516659,63,10
3.38514,-4.46623,-0.887609,52,3
3.78343,-4.99353,0.769239,30,11
3.37865,-4.4609,-0.687099,9,4
17.1191,-22.6109,4.49186,34,12
3.40472,-4.49695,-0.493476,47,5
17.2969,-22.854,5.57124,12,13
19.8635,-26.2643,7.60245,11,14
3.45626,-4.57166,-0.100037,50,7
17.3469,-22.9534,7.70918,21,15
3.49,-4.63138,0.101224,72,8
0.320095,-0.424935,-0.122823,15,1
3.83735,-5.09603,0.334322,104,9
0.38972,-0.517551,-0.125934,14,2
3.6977,-4.91236,0.537925,15,10
3.40398,-4.5238,-0.896683,30,3
16.7273,-22.2383,3.41673,53,11
17.1077,-22.7605,4.50969,29,12
4.05699,-5.39751,-0.590742,32,5
17.217,-22.9142,5.57124,20,13
