x, y, z, intensity, ring
-0.149235,0.623525,-0.148018,12,1
-2.11245,8.83292,-1.76537,54,2
-3.0434,12.7354,1.14558,25,10
-2.60733,10.9191,-1.77803,47,3
-3.05132,12.7883,1.61428,29,11
-2.5109,10.5315,-1.32935,59,4
-6.09912,25.6015,4.16835,22,12
-2.74592,11.5262,-1.03663,56,5
-6.10682,25.6536,5.12589,38,13
-2.90158,12.1984,-0.65713,100,6
-6.78864,28.5621,6.77778,40,14
-2.79597,11.7727,-0.211209,100,7
-6.14095,25.8771,7.12632,27,15
-0.13313,0.564058,-0.155291,12,0
-2.8702,12.1702,0.21826,68,8
-0.148846,0.631629,-0.149817,12,1
-2.99468,12.708,0.68424,36,9
-2.0843,8.85171,-1.76765,78,2
-3.17461,13.4926,1.21268,26,10
-2.56876,10.9262,-1.77772,68,3
-3.02345,12.8704,1.6233,29,11
-2.49953,10.6484,-1.343,75,4
-6.02503,25.6677,4.17586,22,12
-6.0571,25.8449,5.15986,35,13
-6.70934,28.6729,6.79847,40,14
-2.7191,11.6203,-0.208312,27,7
-6.04894,25.871,7.11908,22,15
-0.13116,0.564519,-0.155291,12,0
-2.83707,12.2108,0.218818,56,8
-0.144106,0.62073,-0.147118,12,1
-3.05726,13.1795,0.709048,36,9
-2.19304,9.46138,-1.88786,59,2
-3.12794,13.5056,1.21286,55,10
-2.52359,10.8962,-1.77146,60,3
-4.51679,19.5177,2.45981,57,11
-2.4159,10.4478,-1.31668,20,4
-5.92784,25.6559,4.17054,27,12
-2.6246,11.3684,-1.02077,47,5
-5.97843,25.8954,5.16596,38,13
-6.62078,28.7235,6.80522,50,14
-6.50103,28.249,7.76716,22,15
-0.129287,0.564951,-0.155291,12,0
-2.78239,12.168,0.217876,60,8
-0.141938,0.621229,-0.147118,12,1
-3.00598,13.1564,0.707268,59,9
-2.17301,9.51837,-1.89779,42,2
-3.09333,13.5605,1.21687,31,10
-2.48773,10.9145,-1.77303,61,3
-4.45525,19.5624,2.46347,53,11
-5.85194,25.7158,4.17711,30,12
-2.59086,11.3945,-1.02234,24,5
-5.8854,25.9046,5.16367,38,13
-2.54679,11.2188,-0.60291,100,6
-6.57134,28.9707,6.85831,10,14
-2.73371,12.052,-0.215712,33,7
-6.16692,27.2097,7.47573,5,15
-0.127314,0.565399,-0.155291,12,0
-2.75651,12.2416,0.219028,68,8
-0.139877,0.621697,-0.147118,12,1
-2.95215,13.1318,0.705384,60,9
-2.1346,9.50291,-1.89321,64,2
-2.92031,13.0114,1.16667,27,10
-2.50041,11.1405,-1.80838,57,3
-4.39078,19.579,2.46371,26,11
-2.44109,10.894,-1.37079,49,4
-5.85622,26.1563,4.24532,31,12
-2.55281,11.4113,-1.02303,15,5
-5.79046,25.8838,5.15566,7,13
-2.52656,11.3032,-0.606992,100,6
-6.45867,28.9181,6.84076,10,14
-2.75043,12.3249,-0.220424,40,7
-6.09334,27.3272,7.50213,10,15
-0.125439,0.565818,-0.155291,12,0
-2.71593,12.2609,0.219202,60,8
-0.137707,0.622181,-0.147118,12,1
-2.91277,13.1713,0.706954,30,9
-2.09163,9.45818,-1.8829,68,2
-2.4926,11.29,-1.83122,61,3
-2.98738,13.5423,1.70276,41,11
-2.41287,10.9471,-1.37639,24,4
-5.74662,26.0937,4.23187,31,12
-2.48968,11.3049,-1.01275,11,5
-5.86504,26.6535,5.30487,15,13
-2.51796,11.4524,-0.614529,47,6
-7.23326,32.9261,7.78286,11,14
-2.66366,12.1352,-0.216864,100,7
-5.67676,25.884,7.10044,9,15
-0.112763,0.517177,-0.141833,14,0
-2.66588,12.2371,0.218609,30,8
-0.137192,0.630275,-0.148918,24,1
-2.87399,13.2145,0.708734,66,9
-2.04818,9.41746,-1.87336,59,2
-2.92137,13.4437,1.20362,42,10
-2.23816,10.3083,-1.67072,58,3
-2.80331,12.9221,1.62354,29,11
-5.64713,26.0749,4.22561,23,12
-6.03355,27.8827,5.54529,20,13
-2.48853,11.5099,-0.617146,100,6
-7.21045,33.3778,7.88363,11,14
-2.6639,12.3419,-0.220389,22,7
-5.59086,25.9244,7.10614,18,15
-0.121486,0.56668,-0.155291,12,0
-2.69519,12.5826,0.224612,65,8
-0.130913,0.611694,-0.144419,25,1
-2.88589,13.496,0.723283,37,9
-1.90404,8.90427,-1.76994,47,2
-2.90565,13.5999,1.21669,47,10
-2.2232,10.4146,-1.68668,53,3
-4.15653,19.488,2.44665,15,11
-5.63054,26.4442,4.28224,14,12
-2.33518,10.9673,-0.981025,34,5
-5.68659,26.7303,5.31212,3,13
-2.45,11.5263,-0.617564,87,6
-6.68583,31.4813,7.43013,10,14
-2.46639,11.6234,-0.207404,38,7
-6.59775,31.1201,8.52395,20,15
-0.109149,0.517952,-0.141833,14,0
-2.56143,12.1654,0.217003,41,8
-0.127573,0.606426,-0.143069,25,1
-2.85602,13.588,0.727679,36,9
-1.88102,8.94929,-1.77758,54,2
-2.85652,13.6022,1.216,57,10
-2.1349,10.1748,-1.64663,56,3
-4.19885,20.0289,2.5127,56,11
-2.4084,11.4983,-1.44245,89,4
-5.55235,26.5314,4.29319,12,12
-5.59364,26.7519,5.3125,18,13
-2.39668,11.4722,-0.614215,87,6
-6.48112,31.0505,7.32306,43,14
-2.44254,11.7122,-0.208835,19,7
-6.72238,32.2625,8.83039,14,15
-0.109691,0.52968,-0.144939,14,0
-0.125455,0.606868,-0.143069,25,1
-2.75969,13.3613,0.715014,57,9
-1.85295,8.97119,-1.78063,45,2
-2.73976,13.2765,1.18602,40,10
-2.09698,10.1706,-1.64475,55,3
-3.96551,19.2502,2.41326,41,11
-2.38025,11.5649,-1.44976,35,4
-5.65188,27.4851,4.4443,34,12
-2.47124,12.0177,-1.07341,4,5
-5.50221,26.7809,5.31441,7,13
-2.36304,11.5118,-0.61589,81,6
-6.35703,30.9965,7.30506,43,14
-2.37515,11.5914,-0.206532,25,7
-6.60701,32.2726,8.82677,7,15
-0.110923,0.545204,-0.14908,13,0
-2.5816,12.7003,0.226218,52,8
-0.126051,0.62067,-0.146218,25,1
-2.70787,13.3454,0.713653,53,9
-1.79663,8.85446,-1.75621,52,2
-2.69379,13.2879,1.18619,37,10
-2.07755,10.2573,-1.65758,30,3
-3.55456,17.5654,2.20047,23,11
-2.20965,10.9291,-1.36908,59,4
-5.73154,28.3741,4.58478,13,12
-2.39339,11.8485,-1.05755,42,5
-5.6188,27.8411,5.52087,16,13
-2.32995,11.5553,-0.617774,81,6
-6.25266,31.0376,7.30956,43,14
-2.40135,11.9309,-0.212431,26,7
-6.45089,32.0795,8.76775,14,15
-0.113562,0.568321,-0.155291,12,0
-2.55839,12.8151,0.228103,52,8
-0.125409,0.628751,-0.148018,24,1
-2.648,13.2881,0.710094,49,9
-1.76495,8.85683,-1.75544,49,2
-2.62717,13.1956,1.17713,70,10
-2.03441,10.2276,-1.65164,62,3
-3.51297,17.677,2.2129,38,11
-2.16453,10.9017,-1.36469,49,4
-5.62284,28.3455,4.57696,16,12
-2.32487,11.72,-1.04535,38,5
-6.12652,30.9129,6.12573,5,13
-2.2896,11.5633,-0.617774,40,6
-6.22974,31.4913,7.41124,10,14
-2.37481,12.0157,-0.213792,100,7
-6.23372,31.5693,8.6223,13,15
-0.10637,0.542174,-0.148044,13,0
-2.4844,12.6748,0.22545,55,8
-0.119468,0.61006,-0.143519,25,1
-2.59201,13.2483,0.707478,44,9
-1.74382,8.91303,-1.76537,78,2
-2.58682,13.234,1.17974,42,10
-2.00627,10.2735,-1.65789,50,3
-5.97495,30.6243,3.83108,12,11
-2.139,10.9735,-1.37274,53,4
-6.94439,35.6593,5.75397,5,12
-2.07106,10.6348,-0.947906,24,5
-5.99422,30.8088,6.10093,20,13
-2.25113,11.5811,-0.618297,37,6
-6.20523,31.9529,7.51472,11,14
-2.36067,12.1672,-0.21634,26,7
-6.11097,31.5264,8.6047,13,15
-0.10979,0.569061,-0.155291,12,0
-2.30681,11.9679,0.212745,13,8
-0.119025,0.618087,-0.145318,25,1
-2.5417,13.2113,0.70507,45,9
-1.72657,8.97437,-1.77643,76,2
-2.66257,13.8526,1.23413,60,10
-2.05705,10.7123,-1.72766,97,3
-5.23243,27.2741,3.4099,21,11
-2.17962,11.372,-1.42173,35,4
-6.22008,32.4836,5.23836,4,12
-2.04888,10.7101,-0.954007,16,5
-5.89483,30.814,6.09826,5,13
-6.10042,31.9492,7.50932,22,14
-2.27597,11.931,-0.212012,100,7
-6.0054,31.5113,8.59538,20,15
-0.100523,0.531496,-0.144939,14,0
-2.39954,12.6871,0.22538,40,8
-0.116505,0.616584,-0.144868,25,1
-2.48149,13.1455,0.701093,43,9
-1.67547,8.88418,-1.75735,61,2
-2.63908,14.0071,1.24702,22,10
-2.07916,11.0459,-1.78022,56,3
-3.32209,17.6492,2.2051,19,11
-2.16412,11.5083,-1.43781,52,4
-3.76328,20.0315,3.22818,17,12
-2.00303,10.6722,-0.949998,18,5
-5.78038,30.8277,6.09673,5,13
-2.36826,12.6424,-0.674087,32,6
-5.98329,31.9714,7.50932,44,14
-2.1692,11.591,-0.205834,86,7
-5.90317,31.5738,8.60677,27,15
-0.0916199,0.493855,-0.134586,15,0
-2.2284,12.0234,0.213443,58,8
-0.11318,0.611258,-0.143519,25,1
-2.55413,13.7943,0.735216,40,9
-1.76908,9.56372,-1.89054,64,2
-2.46163,13.3207,1.18514,37,10
-2.04956,11.1017,-1.78805,47,3
-3.25163,17.63,2.2012,47,11
-2.12106,11.5002,-1.43586,57,4
-3.69476,20.0523,3.22943,22,12
-2.20923,12.0017,-1.06766,42,5
-2.39484,13.0357,-0.694603,48,6
-5.90152,32.1233,7.54036,44,14
-2.13161,11.6142,-0.206113,21,7
-5.88769,32.1111,8.74757,14,15
-0.0920581,0.505559,-0.137692,14,0
-2.45837,13.5141,0.239761,64,8
-0.114637,0.630804,-0.148018,24,1
-2.56623,14.121,0.752172,39,9
-1.70895,9.41307,-1.85962,23,2
-3.12892,17.2516,1.53394,32,10
-1.96413,10.8402,-1.74487,76,3
-3.18501,17.5958,2.1956,9,11
-2.067,11.4193,-1.4249,26,4
-2.17332,12.0306,-1.06958,40,5
-5.88388,32.6032,6.4398,11,13
-5.77941,32.0564,7.52011,44,14
-2.226,12.3592,-0.219202,47,7
-5.80992,32.2901,8.79105,14,15
-0.0924199,0.517272,-0.140798,14,0
-2.29021,12.8312,0.22751,41,8
-0.11357,0.636936,-0.149367,24,1
-2.46754,13.8526,0.737414,37,9
-1.68737,9.4728,-1.87031,40,2
-3.07763,17.2952,1.5369,29,10
-1.90397,10.7105,-1.72297,63,3
-3.2936,18.5464,2.31284,39,11
-1.99696,11.2564,-1.40369,61,4
-5.77163,32.5662,5.23836,4,12
-2.13445,12.0436,-1.0701,57,5
-6.02044,34.0048,6.71266,6,13
-4.26951,24.1397,-1.28474,5,6
-5.69732,32.2452,7.55971,22,14
-2.25862,12.7962,-0.226811,35,7
-5.63979,31.9849,8.70253,28,15
-0.0859496,0.490951,-0.133551,15,0
-2.31913,13.2607,0.234979,71,8
-0.111346,0.637328,-0.149367,24,1
-2.45007,14.0382,0.746834,10,9
-1.64484,9.42448,-1.85962,64,2
-3.04291,17.4531,1.54998,48,10
-1.84997,10.6217,-1.70764,13,3
-3.1897,18.3328,2.28481,4,11
-1.98009,11.3924,-1.41978,70,4
-5.6748,32.6835,5.25401,4,12
-2.08251,11.9941,-1.06504,30,5
-5.63666,32.4975,6.41118,5,13
-2.16081,12.4708,-0.663306,71,6
-5.64953,32.6394,7.64744,45,14
-2.21769,12.8257,-0.227195,22,7
-5.52812,32.0044,8.70253,28,15
-0.0901123,0.525521,-0.142868,14,0
-2.29343,13.3889,0.237108,11,8
-0.103205,0.603138,-0.141269,26,1
-2.1702,12.6962,0.675029,21,9
-1.60399,9.38372,-1.85047,54,2
-2.96755,17.3791,1.54248,52,10
-2.0311,11.9074,-1.91319,42,3
-5.45246,31.999,3.98562,13,11
-1.91999,11.2798,-1.40491,52,4
-4.79212,28.1831,4.52784,13,12
-2.00156,11.7714,-1.04465,28,5
-5.69283,33.5157,6.6081,23,13
-2.1313,12.561,-0.667702,100,6
-5.54891,32.7377,7.66588,45,14
-2.19528,12.9655,-0.229534,100,7
-5.44858,32.2139,8.7543,28,15
-0.0850788,0.506781,-0.137692,14,0
-2.23841,13.3475,0.236236,44,8
-0.105928,0.632324,-0.148018,24,1
-2.13378,12.751,0.677541,44,9
-1.57835,9.43186,-1.85886,14,2
-2.33134,13.9465,1.23709,73,10
-1.97846,11.8482,-1.90256,63,3
-2.90389,17.4089,2.16708,46,11
-1.86854,11.214,-1.39589,67,4
-4.63955,27.8743,4.47559,34,12
-1.94933,11.7115,-1.03872,18,5
-5.62249,33.8162,6.66343,24,13
-2.09202,12.5959,-0.669168,65,6
-5.42887,32.7222,7.65778,45,14
-2.16798,13.0815,-0.231454,25,7
-5.35283,32.3338,8.78173,14,15
-0.0833094,0.507075,-0.137692,14,0
-2.13351,13.0001,0.229953,58,8
-0.10372,0.63269,-0.148018,24,1
-2.10733,12.8687,0.683403,41,9
-1.57683,9.62912,-1.89664,52,2
-2.28843,13.9899,1.24023,26,10
-1.93677,11.8531,-1.90224,32,3
-2.84278,17.417,2.16684,69,11
-1.82555,11.197,-1.39297,67,4
-4.51936,27.7499,4.45306,31,12
-1.90139,11.675,-1.03489,24,5
-5.47069,33.6282,6.6226,24,13
-2.03843,12.544,-0.666027,97,6
-5.19783,32.0216,7.48952,11,14
-2.12358,13.0969,-0.231593,32,7
-0.0809256,0.503547,-0.136656,14,0
-2.0561,12.808,0.226428,43,8
-0.102437,0.638821,-0.149367,24,1
-2.07945,12.9825,0.689055,19,9
-1.53638,9.59192,-1.88825,47,2
-2.0907,13.0673,1.15778,20,10
-1.89975,11.8871,-1.90662,52,3
-2.91903,18.2854,2.27359,24,11
-1.78176,11.1739,-1.38931,56,4
-4.4346,27.8416,4.46527,34,12
-1.97847,12.4214,-1.10043,59,5
-1.96328,12.3538,-0.65556,58,6
-5.10223,32.1415,7.51337,22,14
-2.47433,15.6046,-0.275783,24,7
-4.19193,26.4668,7.18016,9,15
-0.0773681,0.492376,-0.133551,15,0
-2.0737,13.2122,0.233443,64,8
-0.0999046,0.637249,-0.148918,24,1
-1.47069,9.39162,-1.84779,28,2
-2.76494,17.6767,1.56532,26,10
-1.8613,11.9132,-1.90975,32,3
-2.77743,17.7973,2.21168,23,11
-1.74,11.1624,-1.38712,33,4
-4.28845,27.5427,4.41489,34,12
-1.88577,12.1254,-1.07358,61,5
-5.34529,34.3698,6.76113,25,13
-1.93088,12.4297,-0.659224,52,6
-4.32845,27.8956,6.51728,46,14
-2.23087,14.3939,-0.254247,59,7
-4.0948,26.4507,7.17188,27,15
-0.077906,0.507933,-0.137692,14,0
-1.94784,12.6995,0.224263,42,8
-0.0973843,0.635668,-0.148468,24,1
-1.95162,12.7538,0.676181,52,9
-1.42172,9.30186,-1.8291,30,2
-1.89971,12.4437,1.1013,42,10
-1.66278,10.9045,-1.74706,17,3
-2.66024,17.4458,2.16684,23,11
-1.7336,11.3823,-1.41368,34,4
-2.79,18.3398,2.93815,16,12
-1.83746,12.0925,-1.0701,14,5
-5.22283,34.4125,6.76571,12,13
-1.90027,12.5354,-0.664457,35,6
-4.5188,29.8439,6.96853,10,14
-2.18032,14.3997,-0.254212,76,7
-4.66484,30.8448,8.35882,6,15
-0.0738432,0.492917,-0.133551,15,0
-1.94952,13.0289,0.229953,72,8
-0.0947659,0.634093,-0.148018,24,1
-1.91446,12.81,0.678797,34,9
-1.37853,9.23492,-1.81498,28,2
-1.90533,12.7794,1.13041,23,10
-1.64478,11.045,-1.76865,42,3
-2.64709,17.7971,2.20925,23,11
-1.67516,11.2626,-1.39809,27,4
-2.67488,18.0055,2.88309,6,12
-1.71335,11.547,-1.02129,40,5
-5.08511,34.312,6.74243,24,13
-2.12799,14.3933,-0.253967,100,7
-4.54076,30.75,8.3288,25,15
-0.0722081,0.493159,-0.133551,15,0
-0.0912543,0.624763,-0.145768,25,1
-1.88294,12.8913,0.682775,15,9
-1.3323,9.13259,-1.79399,30,2
-1.63801,11.2557,-1.8015,48,3
-2.59435,17.849,2.21461,52,11
-1.63096,11.2209,-1.39224,49,4
-1.68648,11.6315,-1.02826,24,5
-4.97188,34.3326,6.74319,6,13
-1.9044,13.1667,-0.69722,87,6
-4.10123,28.3553,6.61446,47,14
-1.78662,12.3677,-0.21812,29,7
-3.87848,26.8816,7.27747,23,15
-0.0727607,0.508695,-0.137692,14,0
-1.81046,12.6734,0.223461,40,8
-0.0905584,0.634708,-0.148018,24,1
-2.01404,14.1336,0.748195,60,9
-1.29066,9.05727,-1.77834,47,2
-2.52741,17.7585,1.56933,40,10
-1.70187,11.9729,-1.91538,17,3
-2.54351,17.9165,2.22192,23,11
-1.61658,11.4015,-1.41393,16,4
-2.55558,18.0468,2.88684,12,12
-1.78451,12.6017,-1.1135,21,5
-4.21713,29.8176,5.85364,9,13
-1.75429,12.4195,-0.65734,68,6
-1.71749,12.1897,-0.214874,85,7
-3.80401,27.0327,7.31474,23,15
-0.0725856,0.520426,-0.140798,14,0
-2.06389,14.8167,0.261123,13,8
-0.0867313,0.623439,-0.145318,25,1
-1.96496,14.1426,0.7483,25,9
-1.25741,9.05005,-1.77605,38,2
-1.79038,12.9026,1.13965,21,10
-1.66034,11.9807,-1.9157,47,3
-1.85201,13.381,1.65864,7,11
-1.5996,11.5722,-1.4344,57,4
-1.84775,13.3846,2.14002,14,12
-1.74514,12.6414,-1.11646,42,5
-4.11545,29.8497,5.85707,9,13
-1.70357,12.3721,-0.654514,58,6
-3.90052,28.364,6.60996,9,14
-2.01912,14.7017,-0.259029,92,7
-3.70542,27.0152,7.30646,28,15
-0.0671261,0.493877,-0.133551,15,0
-2.38307,17.5563,0.309257,15,8
-0.0856015,0.631462,-0.147118,24,1
-2.27008,16.7678,0.886781,40,9
-1.2266,9.06022,-1.77719,40,2
-3.75282,27.7565,2.45047,20,10
-1.62194,12.0119,-1.91976,42,3
-1.81245,13.4405,1.66522,26,11
-1.61881,12.0204,-1.48924,21,4
-2.42848,18.0563,2.88559,39,12
-1.70977,12.7125,-1.12222,11,5
-3.95085,29.4144,5.76892,17,13
-1.65852,12.3641,-0.653781,61,6
-3.75413,28.0239,6.52763,9,14
-1.68486,12.5939,-0.221785,9,7
-3.60854,27.0088,7.30129,28,15
-0.0669226,0.505599,-0.136656,14,0
-2.3278,17.6101,0.310059,20,8
-0.083907,0.635621,-0.148018,24,1
-2.22119,16.8489,0.890653,24,9
-1.19394,9.05666,-1.77567,42,2
-2.38813,18.1396,1.6007,77,10
-1.81075,13.7912,1.70788,42,11
-1.62666,12.4058,-1.53629,67,4
-3.58879,27.4075,4.37798,18,12
-1.67055,12.7579,-1.1257,35,5
-3.6333,27.785,5.44683,7,13
-1.58044,12.1025,-0.63965,97,6
-3.63082,27.8417,6.48219,45,14
-1.63107,12.5243,-0.220459,28,7
-3.52845,27.1304,7.33079,19,15
-0.0656508,0.509662,-0.137692,14,0
-2.94828,22.9196,0.40336,23,8
-0.0819359,0.637843,-0.148468,24,1
-2.15499,16.7991,0.887618,21,9
-1.16282,9.06467,-1.77643,40,2
-2.29644,17.9265,1.58118,43,10
-1.41672,11.0746,-1.76834,1,3
-1.74675,13.6734,1.69252,41,11
-1.6999,13.3251,-1.64938,28,4
-2.26442,17.775,2.83803,22,12
-1.63686,12.8668,-1.13477,40,5
-3.54471,27.8637,5.45981,7,13
-1.53214,12.0604,-0.637138,65,6
-3.49389,27.541,6.40931,44,14
-1.7306,13.6607,-0.240355,97,7
-3.41699,27.0103,7.29507,28,15
-0.0633029,0.506065,-0.136656,14,0
-2.2666,18.12,0.318751,16,8
-0.079709,0.638125,-0.148468,24,1
-2.06149,16.5271,0.872859,13,9
-1.12983,9.07082,-1.77681,38,2
-1.64175,13.1995,1.1637,12,10
-1.36736,11.0091,-1.75707,3,3
-1.69925,13.6813,1.69277,30,11
-1.52095,12.2632,-1.51727,67,4
-2.2043,17.7985,2.84054,26,12
-1.56406,12.647,-1.1149,49,5
-3.44257,27.8765,5.45981,19,13
-1.50601,12.2126,-0.644884,84,6
-3.37245,27.3873,6.37061,43,14
-1.54262,12.5275,-0.220319,33,7
-3.33801,27.1467,7.32872,19,15
-0.0615359,0.506283,-0.136656,14,0
-1.82433,15.0314,0.264299,39,8
-0.0766661,0.632609,-0.147118,24,1
-1.58603,13.1063,0.691881,27,9
-1.0991,9.0825,-1.77834,38,2
-1.59471,13.1972,1.16301,17,10
-1.32206,10.957,-1.748,13,3
-1.6472,13.6717,1.69082,33,11
-1.46295,12.1603,-1.50387,48,4
-1.59575,13.2837,2.11906,31,12
-1.5161,12.6207,-1.11211,47,5
-3.33728,27.8221,5.44683,27,13
-1.48333,12.3844,-0.653676,74,6
-3.13265,26.1934,6.09032,16,14
-1.58253,13.2518,-0.232955,100,7
-3.24605,27.2221,7.3458,19,15
-0.0624851,0.529517,-0.142868,14,0
-1.77442,15.0595,0.264683,36,8
-0.0765068,0.650292,-0.151167,23,1
-1.53958,13.1058,0.691567,16,9
-1.06739,9.08629,-1.77834,38,2
-1.54607,13.1809,1.16109,12,10
-1.29162,11.0282,-1.75864,57,3
-3.08088,26.3453,3.25684,19,11
-1.42349,12.191,-1.50704,51,4
-1.46165,12.5369,-1.10426,38,5
-3.22063,27.6659,5.41401,38,13
-3.04097,26.2023,6.08987,8,14
-1.54087,13.297,-0.233653,33,7
-3.16121,27.3215,7.36961,19,15
-0.0549241,0.47983,-0.12941,15,0
-1.59082,13.9193,0.244543,30,8
-0.0740156,0.648619,-0.150717,23,1
-1.47934,12.9841,0.684868,44,9
-1.03567,9.08996,-1.77834,38,2
-1.42146,12.4954,1.10025,4,10
-1.24977,11.0032,-1.75394,43,3
-1.50966,13.3121,1.64499,15,11
-1.38762,12.2551,-1.51435,33,4
-1.42438,12.5993,-1.10932,47,5
-3.1401,27.8193,5.44187,31,13
-1.36395,12.1027,-0.638289,32,6
-3.08656,27.4308,6.37286,8,14
-1.93402,17.2151,-0.30238,100,7
-3.07378,27.4034,7.38877,4,15
-0.0532492,0.480018,-0.12941,15,0
-1.54729,13.9704,0.245346,20,8
-0.0711083,0.643062,-0.149367,24,1
-1.4463,13.1003,0.69073,17,9
-1.00437,9.09742,-1.7791,30,2
-1.38482,12.5636,1.10583,49,10
-1.20206,10.9231,-1.74049,10,3
-1.50915,13.7356,1.69667,33,11
-1.34289,12.2421,-1.51215,60,4
-1.41677,12.9364,2.06118,11,12
-1.37561,12.5606,-1.10548,66,5
-2.95124,26.9909,5.27778,39,13
-1.32321,12.1213,-0.639022,26,6
-2.98994,27.4337,6.37106,8,14
-1.47806,13.5837,-0.238505,100,7
-2.96664,27.3083,7.3603,19,15
-0.0533962,0.495549,-0.133551,15,0
-1.91384,17.7906,0.312328,20,8
-0.0699203,0.651033,-0.151167,23,1
-1.47305,13.7383,0.72412,23,9
-0.975986,9.10248,-1.77948,33,2
-1.33538,12.4748,1.09764,66,10
-1.16018,10.8561,-1.72923,10,3
-1.36152,12.7612,1.57577,58,11
-1.304,12.2423,-1.51167,43,4
-1.40955,13.2551,2.11124,4,12
-1.32119,12.4242,-1.09311,45,5
-2.86537,26.9903,5.27587,36,13
-1.2805,12.0817,-0.636719,39,6
-2.83362,26.7801,6.2172,50,14
-1.42173,13.4591,-0.236236,22,7
-2.87111,27.2253,7.33545,23,15
-0.052868,0.507261,-0.136656,14,0
-1.44797,13.9167,0.244229,22,8
-0.0672445,0.647396,-0.150267,24,1
-1.42283,13.7215,0.722969,39,9
-0.945833,9.12145,-1.78254,33,2
-1.2631,12.2019,1.07324,54,10
-1.12532,10.8895,-1.73392,5,3
-1.30292,12.6296,1.55895,29,11
-1.24967,12.1342,-1.49777,51,4
-2.68613,26.1269,4.15991,16,12
-1.27353,12.3871,-1.08945,19,5
-2.77236,27.0119,5.27816,32,13
-1.23811,12.0841,-0.636615,74,6
-2.73892,26.7782,6.2145,50,14
-1.34834,13.2053,-0.231698,100,7
-2.81073,27.5753,7.42707,19,15
-0.0499356,0.49591,-0.133551,15,0
-1.41719,14.0988,0.247336,60,8
-0.0628442,0.626298,-0.145318,25,1
-0.91418,9.12665,-1.78292,28,2
-1.22862,12.2876,1.08038,45,10
-1.09398,10.9602,-1.74456,32,3
-1.34306,13.4795,1.66327,7,11
-1.20278,12.0931,-1.49217,25,4
-2.62508,26.3932,4.20089,17,12
-1.2417,12.5065,-1.09956,2,5
-2.68308,27.0722,5.28808,18,13
-1.20044,12.134,-0.639022,32,6
-2.64908,26.8245,6.22305,50,14
-1.21158,12.2684,-0.215188,29,7
-2.67568,27.1423,7.30801,19,15
-0.0493254,0.507618,-0.136656,14,0
-1.35399,13.9342,0.244369,16,8
-0.0611433,0.630382,-0.146218,25,1
-1.27299,13.1484,0.6923,12,9
-0.879864,9.10439,-1.77796,28,2
-1.19874,12.4266,1.09224,24,10
-1.05706,10.9579,-1.74362,13,3
-1.33621,13.8771,1.71178,42,11
-1.2977,13.5265,2.15223,7,12
-1.29509,13.5242,-1.18863,17,5
-2.59291,27.077,5.28732,18,13
-1.31546,13.7623,-0.724539,61,6
-2.57807,27.0213,6.26669,59,14
-1.24079,13.0291,-0.228452,100,7
-2.46501,25.9322,6.97983,4,15
-0.0465589,0.496238,-0.133551,15,0
-1.28987,13.7736,0.241471,31,8
-0.0600305,0.642234,-0.148918,24,1
-0.848024,9.08966,-1.77452,28,2
-1.15328,12.3849,1.08823,33,10
-1.01204,10.8888,-1.73204,13,3
-1.22983,13.2571,1.63476,45,11
-1.10269,11.9092,-1.46853,12,4
-1.25447,13.5742,2.15911,13,12
-1.24254,13.4451,-1.18131,65,5
-2.46719,26.7477,5.2213,29,13
-2.48016,26.9913,6.25769,59,14
-1.148,12.5176,-0.219412,26,7
-2.39069,26.1176,7.02745,4,15
-0.045869,0.507942,-0.136656,14,0
-0.058836,0.654085,-0.151617,23,1
-1.231,13.712,0.721504,44,9
-0.816292,9.09256,-1.77452,28,2
-1.13404,12.6568,1.11176,57,10
-0.970506,10.8529,-1.72579,37,3
-1.16255,13.026,1.60575,61,11
-1.2411,13.9338,-1.71763,26,4
-1.22177,13.7438,2.18539,14,12
-1.14814,12.9155,-1.13442,42,5
-2.38039,26.8305,5.2358,14,13
-1.10133,12.4382,-0.654409,32,6
-2.41424,27.3201,6.33192,34,14
-1.12731,12.7824,-0.223984,22,7
-2.29526,26.0777,7.01451,8,15
-0.0444296,0.511948,-0.137692,14,0
-1.13984,13.1607,0.230581,48,8
-0.0547064,0.63293,-0.146668,24,1
-0.784883,9.09927,-1.77529,28,2
-1.09464,12.7162,1.11664,19,10
-0.931768,10.8464,-1.72422,41,3
-1.14928,13.4058,1.65206,37,11
-1.02663,11.9997,-1.47876,30,4
-2.24022,26.1848,4.16241,27,12
-1.09796,12.8599,-1.12919,45,5
-2.27739,26.7291,5.21443,29,13
-1.05706,12.432,-0.653885,52,6
-2.3228,27.375,6.34272,26,14
-1.08407,12.7761,-0.22381,28,7
-2.21823,26.1968,7.04454,26,15
-0.0426424,0.5121,-0.137692,14,0
-1.12507,13.5112,0.236655,68,8
-0.0521232,0.627281,-0.145318,25,1
-0.752632,9.09609,-1.77414,28,2
-0.895142,10.8415,-1.72297,52,3
-1.05005,12.7448,1.57016,39,11
-1.00212,12.189,-1.50167,33,4
-2.1438,26.1314,4.15271,30,12
-1.06168,12.9689,-1.13843,28,5
-1.1232,13.7204,2.67591,7,13
-1.01518,12.4275,-0.653467,97,6
-2.22947,27.3514,6.33552,8,14
-1.0299,12.6623,-0.22175,25,7
-2.13741,26.3353,7.07974,21,15
-0.0406359,0.508387,-0.136656,14,0
-1.0779,13.515,0.236655,63,8
-0.050861,0.639115,-0.148018,24,1
-1.05638,13.3038,0.699418,62,9
-0.72013,9.06917,-1.76842,26,2
-0.965253,12.1831,1.06923,40,10
-0.853408,10.7953,-1.71515,57,3
-0.994006,12.6019,1.55213,39,11
-0.964395,12.2538,-1.50923,42,4
-1.07663,13.7104,2.17819,6,12
-1.01649,12.9446,-1.13599,30,5
-1.07454,13.7145,2.674,10,13
-0.968054,12.3832,-0.650955,100,6
-2.18233,27.9788,6.47904,36,14
-1.01952,13.1004,-0.22936,73,7
-2.032,26.1693,7.03315,8,15
-0.038861,0.508526,-0.136656,14,0
-0.96261,12.6254,0.221017,17,8
-0.0495164,0.650947,-0.150717,23,1
-1.00313,13.2178,0.694708,21,9
-0.687278,9.05597,-1.76537,23,2
-0.923023,12.1904,1.06958,65,10
-0.810212,10.7254,-1.70357,48,3
-0.966269,12.8211,1.5787,29,11
-0.928911,12.3541,-1.52117,13,4
-2.00344,26.7071,4.24188,23,12
-0.966975,12.8904,-1.13093,38,5
-1.73874,23.233,4.52866,28,13
-0.951295,12.741,-0.669586,74,6
-2.21465,29.7314,6.88305,10,14
-0.934956,12.5814,-0.220214,29,7
-1.94007,26.1685,7.03108,8,15
-0.0379288,0.520219,-0.139762,14,0
-0.908376,12.4891,0.218574,52,8
-0.0480899,0.662778,-0.153417,23,1
-0.649574,8.97412,-1.74896,28,2
-0.921644,12.7639,1.1196,21,10
-0.767656,10.6572,-1.69231,52,3
-0.92849,12.9214,1.59064,3,11
-0.899971,12.5553,-1.54555,78,4
-0.944716,13.1795,2.09278,11,12
-0.924244,12.9255,-1.13372,33,5
-1.66002,23.2722,4.53515,28,13
-0.918719,12.9116,-0.678379,91,6
-1.86332,26.2517,6.07593,15,14
-0.919708,12.9574,-0.226742,64,7
-1.85111,26.144,7.0228,17,15
-0.0345076,0.497222,-0.133551,15,0
-0.893955,12.8811,0.22538,47,8
-0.0442766,0.639605,-0.148018,24,1
-0.95868,13.8838,0.729354,43,9
-0.620131,9.00375,-1.7543,26,2
-0.872711,12.7034,1.11402,73,10
-0.744358,10.8351,-1.72015,57,3
-0.848991,12.3897,1.52483,17,11
-0.858199,12.5562,-1.5453,45,4
-0.896552,13.1512,2.08777,20,12
-0.883718,12.9962,-1.13965,28,5
-1.5783,23.211,4.52217,13,13
-0.874684,12.8966,-0.677437,71,6
-1.77507,26.2402,6.07188,39,14
-0.873802,12.9506,-0.226567,100,7
-1.76113,26.1696,7.02797,17,15
-0.0328584,0.497333,-0.133551,15,0
-0.839653,12.7424,0.222902,30,8
-0.0421719,0.6417,-0.148468,24,1
-0.588983,8.98617,-1.75048,26,2
-0.810184,12.3941,1.08666,54,10
-0.693689,10.6405,-1.68887,35,3
-0.813462,12.5114,1.53945,38,11
-0.817444,12.6067,-1.55115,19,4
-0.849248,13.1325,2.08433,20,12
-0.838433,12.9653,-1.13669,42,5
-1.66139,25.7613,5.0179,13,13
-0.822992,12.796,-0.671994,81,6
-1.43924,22.4385,5.19097,21,14
-0.826417,12.9196,-0.225974,22,7
-1.66312,26.0714,7.00002,8,15
-0.0320876,0.51287,-0.137692,14,0
-0.829159,13.2901,0.232431,47,8
-0.0398105,0.639898,-0.148018,24,1
-0.555065,8.94702,-1.74247,26,2
-0.784874,12.6872,1.11211,14,10
-0.675026,10.9425,-1.73642,67,3
-0.763942,12.4191,1.52775,21,11
-0.7642,12.4588,-1.53263,49,4
-1.39286,22.773,3.61364,25,12
-0.827832,13.5349,-1.18636,35,5
-1.55031,25.4201,4.95035,35,13
-0.78196,12.8586,-0.675134,100,6
-1.57604,25.9913,6.01159,38,14
-0.768518,12.7108,-0.222274,100,7
-1.66255,27.5773,7.40274,9,15
-0.0284746,0.482123,-0.12941,15,0
-0.748317,12.708,0.222204,30,8
-0.0384905,0.655597,-0.151617,23,1
-0.785814,13.4246,0.704756,48,9
-0.522337,8.92342,-1.73751,26,2
-0.622256,10.6944,-1.69669,42,3
-0.738518,12.7308,1.56578,39,11
-0.718639,12.4258,-1.52824,57,4
-1.30711,22.6693,3.59643,25,12
-0.747806,13.0088,-1.14,19,5
-1.31138,22.8127,4.44165,12,13
-0.732839,12.7874,-0.671261,55,6
-1.30857,22.9032,5.29625,28,14
-0.721651,12.6695,-0.221506,26,7
-1.53999,27.1201,7.27851,23,15
-0.0284167,0.513086,-0.137692,14,0
-0.0364165,0.659618,-0.152517,23,1
-0.821367,14.9249,0.783365,18,9
-0.488012,8.89587,-1.73178,23,2
-0.673614,12.3185,1.07934,33,10
-0.584987,10.7321,-1.70232,52,3
-0.728645,13.3676,1.64377,41,11
-0.676986,12.4599,-1.53214,66,4
-0.734323,13.5589,2.15066,22,12
-0.64332,11.9171,-1.04413,21,5
-1.38662,25.7697,5.01637,13,13
-0.68982,12.8618,-0.675029,35,6
-1.22419,22.9001,5.29445,50,14
-0.678273,12.6879,-0.221785,34,7
-1.43401,26.9131,7.22157,32,15
-0.0270258,0.520899,-0.139762,14,0
-0.656329,12.6931,0.221855,45,8
-0.0327953,0.636394,-0.147118,24,1
-0.736684,14.2954,0.750184,11,9
-0.455448,8.86811,-1.72606,26,2
-0.647717,12.655,1.10862,100,10
-0.545109,10.6867,-1.69481,56,3
-0.683075,13.4376,1.65206,41,11
-0.633592,12.4642,-1.53239,61,4
-0.682788,13.4785,2.13752,48,12
-1.42125,28.2508,5.49835,32,13
-0.668916,13.3429,-0.70015,81,6
-1.14619,22.8631,5.285,45,14
-0.592774,11.8654,-0.20737,100,7
-1.16351,23.3716,6.27015,22,15
-0.0243612,0.50169,-0.134586,15,0
-0.616851,12.7491,0.222797,40,8
-0.0312476,0.648178,-0.149817,24,1
-0.828144,17.1784,0.90133,11,9
-0.425188,8.85192,-1.72262,23,2
-0.587564,12.277,1.07533,58,10
-0.507783,10.649,-1.68855,50,3
-1.07806,22.6918,2.78935,49,11
-0.584151,12.2957,-1.51142,45,4
-0.635289,13.4215,2.12813,13,12
-0.566318,12.0087,-1.0518,42,5
-1.26803,26.9885,5.25183,14,13
-0.55743,11.9086,-0.624787,54,6
-1.07046,22.8688,5.28545,56,14
-0.559848,12.0051,-0.209778,100,7
-1.079,23.2248,6.22977,32,15
-0.0232213,0.513348,-0.137692,14,0
-0.59572,13.2206,0.231,25,8
-0.0287486,0.640491,-0.148018,24,1
-0.556218,12.4405,0.652629,28,9
-0.392978,8.82394,-1.7169,26,2
-0.547643,12.2968,1.0769,45,10
-0.473432,10.6723,-1.692,57,3
-0.629076,14.2371,1.7498,7,11
-0.54158,12.3056,-1.5124,70,4
-0.595099,13.5756,2.15223,35,12
-0.780166,17.8687,-1.56479,16,5
-1.13313,26.0572,5.0698,13,13
-0.516465,11.9244,-0.625519,97,6
-0.991731,22.8977,5.2913,45,14
-0.513546,11.9051,-0.207998,100,7
-0.99245,23.101,6.19561,25,15
-0.0200559,0.482546,-0.12941,15,0
-0.027043,0.656168,-0.151617,23,1
-0.510041,12.4285,0.651897,54,9
-0.358949,8.78412,-1.70889,26,2
-0.502892,12.3067,1.07759,29,10
-0.433592,10.6562,-1.68918,37,3
-0.535985,13.2297,1.62574,41,11
-0.497511,12.3333,-1.51557,24,4
-0.504413,12.6137,-1.10444,45,5
-1.04308,26.1985,5.09651,23,13
-0.482015,12.1597,-0.637766,35,6
-0.902711,22.7726,5.26161,38,14
-0.43994,11.1476,-0.194734,100,7
-1.05598,26.8764,7.20708,13,15
-0.0190187,0.501921,-0.134586,15,0
-0.831547,22.047,0.385105,10,8
-0.0246376,0.656263,-0.151617,23,1
-0.468755,12.4861,0.654828,49,9
-0.327773,8.77159,-1.70621,26,2
-0.457045,12.2885,1.07585,11,10
-0.392848,10.6124,-1.68198,28,3
-0.490711,13.3189,1.63646,26,11
-0.45519,12.3548,-1.518,39,4
-0.833736,22.7371,3.60362,27,12
-0.459656,12.5955,-1.10269,54,5
-0.953696,26.2589,5.10758,7,13
-0.433792,12.0017,-0.629392,35,6
-0.822645,22.7601,5.25801,44,14
-0.404544,11.247,-0.196444,30,7
-0.964027,26.9321,7.22105,18,15
-0.0173543,0.501982,-0.134586,15,0
-0.433622,12.6066,0.22018,20,8
-0.0219279,0.64076,-0.148018,24,1
-0.430623,12.5834,0.659852,33,9
-0.29775,8.74516,-1.70087,30,2
-0.426675,12.5966,1.10269,2,10
-0.353859,10.5011,-1.66415,37,3
-0.445812,13.2986,1.63378,22,11
-0.761157,22.8246,3.61708,38,12
-0.402688,12.1389,-1.0626,28,5
-0.747025,22.6377,4.40273,12,13
-0.38619,11.7655,-0.616936,20,6
-0.752402,22.9224,5.2949,33,14
-0.365094,11.1823,-0.195292,39,7
-0.726235,22.3629,5.99528,25,15
-0.0164136,0.525207,-0.140798,14,0
-0.379518,12.2122,0.213268,62,8
-0.0198033,0.64083,-0.148018,24,1
-0.386187,12.4969,0.655246,54,9
-0.267841,8.71666,-1.69515,28,2
-0.418551,13.6993,1.19909,42,10
-0.318802,10.4943,-1.6629,28,3
-0.396732,13.1353,1.61355,14,11
-0.342975,11.3555,-1.39492,1,4
-0.684282,22.7876,3.61082,25,12
-0.377946,12.66,-1.1081,26,5
-0.674391,22.7225,4.41876,27,13
-0.347233,11.7687,-0.617041,74,6
-0.655066,22.2021,5.12798,25,14
-0.328242,11.1915,-0.195432,39,7
-0.64835,22.2378,5.96112,31,15
-0.0140246,0.502086,-0.134586,15,0
-0.351278,12.6552,0.220982,23,8
-0.0173556,0.629204,-0.145318,25,1
-0.375524,13.6141,0.713758,42,9
-0.238344,8.69592,-1.69095,26,2
-0.359719,13.2086,1.15603,82,10
-0.277905,10.2702,-1.62723,37,3
-0.353921,13.1643,1.61696,18,11
-0.309001,11.4935,-1.41173,5,4
-0.608653,22.7877,3.61051,25,12
-0.321384,12.1115,-1.05999,28,5
-0.602611,22.86,4.44509,20,13
-0.307992,11.7618,-0.616622,100,6
-0.581687,22.2139,5.13023,41,14
-0.297167,11.4244,-0.199481,26,7
-0.574708,22.2436,5.96216,31,15
-0.0117158,0.482821,-0.12941,15,0
-0.404584,16.7946,0.293235,15,8
-0.0154219,0.644849,-0.148918,24,1
-0.30714,12.8427,0.67325,84,9
-0.205774,8.66729,-1.68523,26,2
-0.312669,13.2676,1.16109,35,10
-0.238365,10.1902,-1.6144,30,3
-0.303737,13.0822,1.60673,7,11
-0.288963,12.5405,-1.54018,72,4
-0.521583,22.6358,3.5861,23,12
-0.295618,12.9272,-1.13128,11,5
-0.505819,22.289,4.33365,19,13
-0.266008,11.8128,-0.619239,100,6
-0.493215,22.0737,5.09739,40,14
-0.263777,11.8053,-0.206113,77,7
-0.496736,22.4059,6.00512,17,15
-0.0106722,0.513762,-0.137692,14,0
-0.255035,12.2775,0.21435,10,8
-0.0129622,0.62931,-0.145318,25,1
-0.262597,12.8577,0.673983,23,9
-0.17476,8.63066,-1.67797,26,2
-0.26839,13.3702,1.16998,25,10
-0.203419,10.1336,-1.60533,28,3
-0.315365,15.8478,1.94625,37,11
-0.256226,12.9899,-1.59527,35,4
-0.442676,22.6434,3.58704,38,12
-0.255473,13.1852,-1.15377,26,5
-0.429882,22.1865,4.31343,28,13
-0.232089,12.0872,-0.633579,58,6
-0.419896,22.0694,5.09604,50,14
-0.215785,11.4462,-0.19983,25,7
-0.428797,22.958,6.15265,28,15
-0.00890082,0.509931,-0.136656,14,0
-0.258927,14.9835,0.261577,1,8
-0.0109658,0.641042,-0.148018,24,1
-0.218792,12.9224,0.677332,7,9
-0.145804,8.61156,-1.67416,26,2
-0.231632,13.8232,1.20955,60,10
-0.166677,10.0513,-1.59219,25,3
-0.224836,13.7032,1.68277,3,11
-0.198248,12.2127,-1.49972,22,4
-0.251938,15.6884,2.48512,12,12
-0.210919,13.1341,-1.14924,45,5
-0.362374,22.8141,4.43516,20,13
-0.190425,12.1219,-0.635359,35,6
-0.343841,22.1331,5.11044,35,14
-0.339469,22.3547,5.99063,17,15
-0.00744456,0.533139,-0.142868,14,0
-0.158094,11.4652,0.200144,11,8
-0.00872795,0.641076,-0.148018,24,1
-0.173874,12.9371,0.678065,39,9
-0.11527,8.57668,-1.66729,26,2
-0.129389,9.88394,-1.5656,33,3
-0.174723,13.5273,1.66108,15,11
-0.15572,12.2212,-1.5007,16,4
-0.163991,13.0491,-1.14174,42,5
-0.282803,22.8211,4.43631,22,13
-0.157313,12.8754,-0.67482,65,6
-0.262444,21.7912,5.03126,39,14
-0.139068,11.7174,-0.204542,22,7
-0.261213,22.3365,5.98545,23,15
-0.00558363,0.533162,-0.142868,14,0
-0.118831,11.5396,0.201436,66,8
-0.00649026,0.641103,-0.148018,24,1
-0.128916,12.9576,0.679111,18,9
-0.0850208,8.54562,-1.66118,33,2
-0.137497,14.0676,1.23081,100,10
-0.0941118,9.80334,-1.55277,32,3
-0.13701,14.5362,1.7849,7,11
-0.106611,11.525,-1.41515,11,4
-0.118353,13.0397,-1.14087,40,5
-0.196638,22.0897,4.29397,9,13
-0.11233,12.8718,-0.674611,61,6
-0.191181,22.3532,5.16083,42,14
-0.0973143,11.6158,-0.202762,26,7
-0.181779,22.1595,5.93783,19,15
-0.0035875,0.51386,-0.137692,14,0
-0.080199,11.7819,0.205659,75,8
-0.00438143,0.660608,-0.152517,23,1
-0.0744074,11.5219,0.603852,37,9
-0.0549854,8.51446,-1.65508,28,2
-0.0856651,13.6337,1.19281,57,10
-0.0598644,9.79966,-1.55214,33,3
-0.0828599,13.9629,1.71446,42,11
-0.0659598,11.4518,-1.40613,8,4
-0.129834,23.2459,3.68184,24,12
-0.0727758,13.03,-1.14,54,5
-0.118366,21.8762,4.25237,24,13
-0.110977,21.925,5.06185,35,14
-0.0568378,11.6301,-0.203006,27,7
-0.104905,22.2605,5.96474,31,15
-0.00173993,0.498415,-0.133551,15,0
-0.0378276,11.4062,0.199097,66,8
-0.00204466,0.650876,-0.150267,24,1
-0.0342555,11.5441,0.605004,7,9
-0.0252309,8.50282,-1.65279,28,2
-0.0381049,13.6438,1.19369,17,10
-0.025618,9.78598,-1.54995,36,3
-0.0342053,13.9968,1.7186,31,11
-0.0262928,11.5889,-1.42295,11,4
-0.0460152,21.9721,3.48004,8,12
-0.0273053,13.0382,-1.14069,11,5
-0.0421961,21.9747,4.27145,24,13
-0.0211683,12.1293,-0.635673,81,6
-0.0353346,22.4962,5.19367,53,14
-0.0183938,13.17,-0.229883,100,7
-0.0271687,22.2395,5.95905,30,15
6.26609e-09,0.525464,-0.140798,14,0
0.00199022,11.4343,0.199586,16,8
0.000226514,0.64893,-0.149817,24,1
0.00445192,8.50285,-1.65279,28,2
0.00948865,13.5921,1.18915,20,10
0.0085533,9.80182,-1.55246,35,3
0.0152742,14.5865,1.79099,44,11
0.0144513,11.8292,-1.45244,41,4
0.0307269,22.0077,3.48567,22,12
0.0166989,11.9603,-1.04639,28,5
0.0345283,21.9825,4.27298,36,13
0.0220958,12.6606,-0.663515,97,6
0.0438832,22.8587,5.27735,61,14
0.0283397,13.5319,-0.236201,100,7
0.0504876,22.2529,5.96267,17,15
0.00188805,0.540915,-0.144939,14,0
0.0447645,12.2141,0.213199,58,8
0.00246194,0.641131,-0.148018,24,1
0.0340282,8.47726,-1.64783,28,2
0.0588086,14.0402,1.22837,60,10
0.0428482,9.8195,-1.55527,33,3
0.063566,14.0087,1.72006,23,11
0.0525228,11.575,-1.42124,23,4
0.0686385,14.5663,2.3071,29,12
0.0624531,12.779,-1.11803,38,5
0.1109,21.9096,4.25886,31,13
0.0654397,12.4987,-0.655037,81,6
0.118232,22.5817,5.21347,48,14
0.066779,12.3419,-0.215433,38,7
0.124632,22.3145,5.97924,23,15
0.0034187,0.50227,-0.134586,15,0
0.08488,12.1579,0.212221,86,8
0.00464365,0.648914,-0.149817,24,1
0.0618357,8.43588,-1.63981,26,2
0.104773,13.9603,1.2214,60,10
0.0754996,9.83116,-1.55715,33,3
0.1064,13.5478,1.66352,41,11
0.0957526,12.1921,-1.49704,58,4
0.117009,14.5739,2.30835,25,12
0.101902,12.4221,-1.08683,23,5
0.183901,21.9523,4.26725,18,13
0.0969661,11.338,-0.594222,37,6
0.191988,22.4487,5.18287,52,14
0.120111,13.7634,-0.24025,29,7
0.199336,22.3951,6.00098,17,15
0.00488885,0.482938,-0.12941,15,0
0.125173,12.1555,0.212186,77,8
0.00683649,0.652792,-0.150717,23,1
0.121816,11.4416,0.599665,30,9
0.0898121,8.43563,-1.63981,26,2
0.145545,13.4498,1.17678,25,10
0.108103,9.83086,-1.55715,33,3
0.153636,13.7538,1.68887,41,11
0.132121,11.6458,-1.43001,20,4
0.256082,22.2294,3.52103,30,12
0.266276,22.7702,4.42639,30,13
0.134206,11.3077,-0.592652,37,6
0.263125,21.8477,5.0443,48,14
0.277849,22.4213,6.00823,20,15
0.006659,0.482917,-0.12941,15,0
0.177064,12.8408,0.224159,53,8
0.00881538,0.63133,-0.145768,25,1
0.19259,13.6219,0.713967,63,9
0.120647,8.42935,-1.63867,26,2
0.144132,9.83039,-1.55715,32,3
0.204238,13.9299,1.71056,15,11
0.171891,11.5857,-1.4227,57,4
0.334609,22.2916,3.53104,40,12
0.347475,22.6219,4.39777,30,13
0.175958,11.3271,-0.593699,100,6
0.342643,21.8115,5.0362,39,14
0.185538,11.8107,-0.206183,77,7
0.360721,22.7099,6.08587,33,15
0.00867833,0.502207,-0.134586,15,0
0.0111978,0.635191,-0.146668,24,1
0.247346,14.0306,0.735425,50,9
0.149789,8.41318,-1.63561,26,2
0.253175,14.0819,1.23221,26,10
0.178341,9.82391,-1.55621,30,3
0.249069,13.5896,1.66888,30,11
0.213966,11.6744,-1.43367,37,4
0.413412,22.3436,3.53949,34,12
0.236075,12.6395,-1.10601,38,5
0.414629,21.9944,4.27603,38,13
0.240688,12.6503,-0.663097,45,6
0.427941,22.4922,5.19367,48,14
0.222199,11.5721,-0.202029,26,7
0.439687,22.6931,6.08173,24,15
0.00994573,0.48286,-0.12941,15,0
0.246106,11.8476,0.206846,17,8
0.0133859,0.639047,-0.147568,24,1
0.285845,13.6463,0.715328,70,9
0.177396,8.39889,-1.63294,30,2
0.300426,14.1069,1.23447,44,10
0.210826,9.81931,-1.55558,28,3
0.296965,13.7197,1.68497,11,11
0.254437,11.7549,-1.44366,52,4
0.492336,22.5633,3.57453,34,12
0.278285,12.6526,-1.10723,52,5
0.488342,22.0282,4.2829,28,13
0.250829,11.2258,-0.588466,77,6
0.489472,21.9062,5.0587,25,14
0.259625,11.5293,-0.201296,24,7
0.514538,22.6741,6.07707,33,15
0.0120089,0.502138,-0.134586,15,0
0.286835,11.9067,0.207893,16,8
0.0155049,0.638999,-0.147568,24,1
0.332847,13.6192,0.713967,41,9
0.204481,8.36685,-1.62684,23,2
0.346663,14.0839,1.23256,21,10
0.243287,9.81461,-1.55496,28,3
0.340234,13.6294,1.674,7,11
0.297267,11.8254,-1.45244,46,4
0.56699,22.3995,3.54887,32,12
0.322564,12.7432,-1.11524,11,5
0.562294,22.0618,4.28977,38,13
0.288308,11.2349,-0.588989,74,6
0.580527,22.4693,5.18917,26,14
0.301581,11.5943,-0.202448,24,7
0.587266,22.4269,6.01133,28,15
0.0132325,0.482782,-0.12941,15,0
0.391084,14.1784,0.24758,1,8
0.0182221,0.656473,-0.151617,23,1
0.379775,13.596,0.712816,41,9
0.233359,8.35431,-1.62455,26,2
0.378243,13.4573,1.17782,12,10
0.27643,9.77421,-1.5487,27,3
0.474713,16.6819,2.04911,8,11
0.333201,11.6378,-1.42953,31,4
0.644318,22.3678,3.54418,32,12
0.424926,14.7515,-1.29113,18,5
0.639875,22.0793,4.29358,28,13
0.327172,11.2218,-0.588361,100,6
0.682147,23.258,5.37183,29,14
0.3417,11.5812,-0.202238,26,7
0.668408,22.5213,6.03721,5,15
0.0156333,0.505904,-0.135621,15,0
0.427471,13.7553,0.240215,42,8
0.0208789,0.668092,-0.154316,22,1
0.430993,13.7144,0.719096,41,9
0.261963,8.33579,-1.62111,23,2
0.426288,13.4897,1.18079,5,10
0.30942,9.73764,-1.54307,33,3
0.687741,21.5253,2.64432,51,11
0.377076,11.7378,-1.44196,45,4
0.722589,22.3713,3.54512,24,12
0.407597,12.6192,-1.10461,26,5
0.732549,22.5577,4.38708,25,13
0.728812,22.2037,5.12888,20,14
0.376846,11.42,-0.199446,29,7
0.869489,26.2105,7.02694,8,15
0.0179306,0.521292,-0.139762,14,0
0.57884,16.7434,0.292433,17,8
0.022534,0.648539,-0.149817,24,1
0.468404,13.4134,0.703395,46,9
0.290646,8.32305,-1.61882,23,2
0.571902,16.2957,1.42657,68,10
0.342502,9.71084,-1.539,25,3
0.570482,16.0949,1.97745,25,11
0.414163,11.6273,-1.42855,15,4
0.807313,22.5542,3.57453,25,12
0.415935,11.6201,-1.01728,11,5
0.81241,22.5864,4.39319,27,13
0.481622,13.325,-0.69879,81,6
0.856454,23.5817,5.44786,55,14
0.415975,11.3987,-0.199097,20,7
0.804606,21.9427,5.88347,11,15
0.0190185,0.501921,-0.134586,15,0
0.63972,16.8053,0.293549,22,8
0.0248724,0.650404,-0.150267,24,1
0.514488,13.4537,0.705593,33,9
0.318866,8.30041,-1.61463,23,2
0.619105,16.0427,1.4046,18,10
0.375634,9.68985,-1.53587,25,3
0.625576,16.0651,1.97404,34,11
0.445744,11.3956,-1.40028,38,4
0.896313,22.9146,3.6321,23,12
0.561861,14.3003,-1.25208,27,5
0.877152,22.2264,4.32373,33,13
0.484699,12.2276,-0.641325,29,6
0.883882,22.2,5.12933,41,14
0.455844,11.4492,-0.200005,30,7
1.03591,25.9047,6.9467,17,15
0.0215694,0.521154,-0.139762,14,0
0.559826,13.5264,0.236306,45,8
0.026948,0.648371,-0.149817,24,1
0.562527,13.4778,0.706954,48,9
0.346196,8.26001,-1.60699,26,2
0.406434,9.65697,-1.53087,28,3
0.709612,16.7908,2.06349,8,11
0.475028,11.1938,-1.37566,34,4
0.967124,22.6962,3.59799,23,12
0.616626,14.4117,-1.26202,27,5
0.952788,22.2685,4.33251,28,13
0.526871,12.2638,-0.643314,3,6
1.00981,23.4099,5.40962,54,14
1.02007,23.4576,6.29137,13,15
0.0238154,0.532659,-0.142868,14,0
0.52966,11.8003,0.206183,72,8
0.0297373,0.659953,-0.152517,23,1
0.611198,13.5116,0.708838,45,9
0.373055,8.24705,-1.6047,26,2
0.601847,13.2537,1.16074,72,10
0.43843,9.618,-1.52492,28,3
0.604161,13.2029,1.62281,21,11
0.5131,11.1702,-1.37298,55,4
1.04825,22.7342,3.60456,25,12
0.68249,14.8017,-1.29635,31,5
1.04223,22.518,4.38174,35,13
1.09478,23.4763,5.42582,24,14
0.532584,11.3778,-0.198818,23,7
1.20722,25.6943,6.89235,28,15
0.0232556,0.482403,-0.12941,15,0
0.557992,11.5328,0.20154,96,8
0.0307177,0.632595,-0.146218,25,1
0.658453,13.5114,0.708943,35,9
0.400979,8.22805,-1.60127,26,2
0.654334,13.3788,1.1719,40,10
0.470259,9.5809,-1.51929,25,3
0.658836,13.3752,1.64426,41,11
0.551008,11.1466,-1.3703,55,4
1.1279,22.7363,3.6055,23,12
1.13439,22.7868,4.43478,37,13
0.653234,13.0757,-0.686124,39,6
1.18034,23.5443,5.44247,24,14
0.576419,11.4578,-0.200249,100,7
1.30293,25.8095,6.92445,29,15
0.0261366,0.50547,-0.135621,15,0
0.620525,11.9601,0.209045,52,8
0.0330269,0.63443,-0.146668,24,1
0.637789,12.2106,0.640801,40,9
0.428569,8.20504,-1.59707,26,2
0.714068,13.6252,1.19369,30,10
0.50235,9.55355,-1.51522,25,3
0.707295,13.4065,1.6484,30,11
0.602403,11.3805,-1.3993,34,4
1.21376,22.8545,3.6249,12,12
0.732138,13.7858,-1.2078,27,5
0.687788,12.8659,-0.675239,100,6
1.62729,30.3412,7.01487,41,14
0.611246,11.3598,-0.198573,20,7
1.39636,25.8665,6.94101,29,15
0.028114,0.509233,-0.136656,14,0
0.654189,11.8121,0.206497,66,8
0.0351333,0.632365,-0.146218,25,1
0.455571,8.17409,-1.59135,26,2
0.764507,13.6743,1.19822,34,10
0.534259,9.5261,-1.51116,26,3
1.28395,22.8222,2.80665,21,11
0.644466,11.4199,-1.40442,39,4
1.32668,23.4359,3.71782,38,12
0.76674,13.5445,-1.18689,27,5
1.29823,22.8626,4.45119,22,13
0.819913,14.3949,-0.755627,19,6
1.48519,25.9947,6.01114,7,14
0.650784,11.3556,-0.198539,20,7
1.48908,25.9039,6.9524,29,15
0.0294384,0.501418,-0.134586,15,0
0.683078,11.6001,0.202832,31,8
0.0391789,0.663364,-0.153417,23,1
0.483171,8.15677,-1.58829,23,2
0.993734,16.7265,1.46596,25,10
0.565161,9.48474,-1.5049,28,3
0.803479,13.4449,1.65377,67,11
0.686347,11.4513,-1.40857,33,4
0.995055,16.5534,2.62653,18,12
0.814735,13.5537,-1.18793,62,5
1.37767,22.852,4.45005,27,13
0.74685,12.3525,-0.648547,16,6
1.61756,26.676,6.16996,8,14
0.755233,12.4192,-0.217178,100,7
1.59735,26.1917,7.03108,17,15
0.0314285,0.505168,-0.135621,15,0
0.732036,11.7334,0.205205,18,8
0.0410071,0.655444,-0.151617,23,1
0.769251,12.261,0.643837,77,9
0.508692,8.108,-1.57914,23,2
0.929392,14.7723,1.29496,37,10
0.596269,9.45117,-1.49989,40,3
0.843264,13.3291,1.63987,18,11
0.733608,11.5637,-1.4227,31,4
1.50894,23.7198,3.76444,19,12
0.790185,12.4213,-1.08892,21,5
1.44594,22.6668,4.41494,27,13
2.43026,37.8895,8.76544,12,14
0.786903,12.2349,-0.214001,24,7
1.67112,25.9122,6.95757,8,15
0.0331916,0.505056,-0.135621,15,0
0.80704,12.2476,0.214246,37,8
0.043038,0.651408,-0.150717,23,1
0.818067,12.382,0.650327,21,9
0.534658,8.07092,-1.57227,26,2
0.98042,14.761,1.29426,34,10
0.627027,9.41552,-1.49458,23,3
1.0961,16.4159,2.02011,21,11
0.762165,11.3848,-1.40101,39,4
1.11707,16.6862,2.64875,20,12
0.902793,13.4502,-1.17939,27,5
1.896,28.1738,5.48881,20,13
0.875152,12.9707,-0.68131,58,6
2.29105,33.8677,7.83684,11,14
0.841505,12.4397,-0.217632,76,7
1.75496,25.8757,6.94929,8,15
0.0373557,0.539627,-0.144939,14,0
0.797104,11.5147,0.201471,38,8
0.0442536,0.637653,-0.147568,24,1
0.85629,12.3073,0.646558,63,9
0.562685,8.06704,-1.57188,23,2
1.03222,14.7614,1.29461,46,10
0.656596,9.38974,-1.49082,28,3
1.1465,16.3547,2.01304,17,11
0.798102,11.3565,-1.39784,28,4
1.6923,24.0203,3.81387,19,12
0.927984,13.139,-1.15237,28,5
1.66243,23.5377,4.58667,24,13
0.923799,13.0474,-0.685496,97,6
2.39728,33.7744,7.81705,11,14
0.935311,13.1448,-0.230023,35,7
2.63682,36.9667,9.93037,9,15
0.0391451,0.5395,-0.144939,14,0
0.83686,11.5058,0.201366,65,8
0.0466208,0.639438,-0.148018,24,1
0.910895,12.4636,0.654932,57,9
0.587718,8.04164,-1.56731,21,2
1.03429,14.1181,1.23848,31,10
0.688353,9.3736,-1.48863,26,3
1.20081,16.313,2.00841,25,11
0.82518,11.1834,-1.37688,28,4
0.9972,13.4827,2.14128,16,12
0.995648,13.4617,-1.18096,20,5
2.5419,34.2864,6.68289,12,13
0.967268,13.0162,-0.684031,58,6
1.72333,23.1357,5.35608,5,14
0.906443,12.1404,-0.2125,67,7
2.7634,36.9245,9.92157,18,15
0.0383907,0.504687,-0.135621,15,0
0.963668,12.6394,0.221262,65,8
0.0501888,0.656759,-0.152067,23,1
0.981245,12.8108,0.673354,66,9
0.612189,7.99256,-1.55815,26,2
0.916566,11.9391,1.04761,54,10
0.7194,9.34948,-1.48519,28,3
1.25974,16.3345,2.01158,17,11
0.856102,11.0755,-1.36396,22,4
1.04471,13.485,2.14221,36,12
1.04217,13.4522,-1.18044,27,5
2.65808,34.2323,6.67412,24,13
0.940481,12.0848,-0.635254,16,6
1.80151,23.0965,5.34844,28,14
0.946793,12.1112,-0.212047,100,7
2.89257,36.9185,9.9226,18,15
0.040152,0.50455,-0.135621,15,0
1.0116,12.6838,0.222099,58,8
0.052947,0.662408,-0.153417,23,1
0.638358,7.96884,-1.55395,26,2
0.959355,11.9498,1.04883,33,10
0.750133,9.32328,-1.48143,28,3
1.08987,13.5163,1.66498,45,11
0.887725,10.9854,-1.35324,23,4
1.80884,22.3356,3.54919,22,12
1.08767,13.4306,-1.17887,50,5
2.77358,34.1739,6.66458,6,13
1.09309,13.4391,-0.70664,71,6
3.0529,37.4533,8.67546,12,14
0.992479,12.1497,-0.21278,19,7
3.029,37.0006,9.94745,18,15
0.0419129,0.504407,-0.135621,15,0
1.05388,12.6563,0.22168,77,8
0.0557449,0.668045,-0.154766,22,1
0.664042,7.94113,-1.54899,26,2
0.999734,11.9305,1.04744,18,10
0.779365,9.28124,-1.47518,35,3
1.93885,23.0409,2.83907,44,11
0.920898,10.9209,-1.34568,23,4
1.89744,22.4551,3.56921,25,12
1.18101,13.9766,-1.22715,30,5
3.02753,35.7545,6.97483,33,13
2.57043,30.2309,7.00453,10,14
1.06697,12.5227,-0.219377,28,7
3.06693,35.9215,9.66016,8,15
0.0466737,0.538901,-0.144939,14,0
1.11171,12.8099,0.224438,50,8
0.0548689,0.630959,-0.146218,25,1
1.08958,12.5295,0.659119,58,9
0.6892,7.90943,-1.54326,23,2
1.04102,11.9229,1.04709,9,10
0.807456,9.22926,-1.46736,31,3
1.43452,16.3639,2.01694,13,11
0.953974,10.8603,-1.33861,20,4
1.9999,22.7674,3.61989,23,12
1.26229,14.3416,-1.25957,27,5
3.15404,35.7632,6.97865,33,13
2.6842,30.3149,7.02612,10,14
3.18057,35.8496,9.6436,34,15
0.0475142,0.527191,-0.141833,14,0
1.15328,12.7962,0.224263,37,8
0.0571361,0.632715,-0.146668,24,1
1.16858,12.9154,0.679635,43,9
0.713971,7.87569,-1.53716,23,2
1.08066,11.8974,1.04517,20,10
0.835022,9.19309,-1.46204,32,3
1.48357,16.3017,2.00987,17,11
0.973757,10.6792,-1.31668,20,4
2.07559,22.719,3.61332,14,12
1.3167,14.3847,-1.26376,27,5
3.31466,36.212,7.06833,27,13
1.16812,12.737,-0.670319,100,6
3.60496,39.2324,9.09567,13,14
1.1718,12.7282,-0.223112,9,7
3.30586,35.8402,9.64412,34,15
0.0492623,0.52703,-0.141833,14,0
1.18862,12.6925,0.222518,56,8
0.0593442,0.632511,-0.146668,24,1
1.31684,14.0089,0.737414,46,9
0.736411,7.83419,-1.52953,26,2
1.35343,14.3713,1.26289,22,10
0.866358,9.18225,-1.46079,27,3
1.87019,19.7846,2.44007,26,11
1.00111,10.571,-1.30376,20,4
2.91352,30.7076,4.88545,18,12
1.28911,13.5869,-1.19403,27,5
3.43381,36.124,7.05345,33,13
2.89676,30.3619,7.04142,10,14
1.18064,12.3518,-0.216584,21,7
3.43353,35.8554,9.65136,25,15
0.0533398,0.549929,-0.148044,13,0
1.32401,13.6257,0.238958,66,8
0.0641952,0.659454,-0.152967,23,1
1.3729,14.0778,0.741287,39,9
0.76204,7.81398,-1.52609,26,2
1.3782,14.1067,1.24005,23,10
0.894943,9.14379,-1.45515,28,3
1.96211,20.011,2.46883,21,11
1.03956,10.5832,-1.30571,24,4
1.92656,19.5782,3.11586,7,12
1.30825,13.2948,-1.16876,20,5
3.55777,36.0903,7.04925,27,13
1.22168,12.3708,-0.651478,32,6
3.52381,35.6186,8.26335,12,14
1.22158,12.3257,-0.2162,100,7
3.57221,35.9796,9.68812,34,15
0.0510081,0.507452,-0.136656,14,0
1.36856,13.5912,0.238435,31,8
0.0657143,0.651471,-0.151167,23,1
1.40476,13.902,0.732285,49,9
0.785951,7.77807,-1.5196,26,2
1.30945,12.9362,1.13756,2,10
0.924865,9.12095,-1.45202,28,3
1.45499,14.3242,1.76784,19,11
1.0781,10.5953,-1.30766,24,4
2.99244,29.358,4.67395,27,12
1.17059,11.4844,-1.00996,9,5
3.02402,29.6168,5.78686,17,13
3.64933,35.6177,8.26605,12,14
1.21845,11.8718,-0.208312,26,7
3.7055,36.0419,9.7083,17,15
0.0519796,0.499585,-0.134586,15,0
1.32851,12.747,0.223705,13,8
0.0657623,0.629917,-0.146218,25,1
1.35856,12.9912,0.684554,46,9
0.811873,7.76356,-1.51731,26,2
1.3658,13.0386,1.14697,15,10
0.954222,9.09409,-1.44827,31,3
1.49752,14.2479,1.75906,31,11
1.1157,10.5974,-1.30839,30,4
3.09013,29.3022,4.66675,13,12
1.21151,11.4882,-1.01066,9,5
3.0878,29.2312,5.71358,34,13
3.76582,35.5311,8.24895,48,14
1.2601,11.8695,-0.208347,33,7
3.84232,36.1325,9.73625,17,15
0.0578555,0.537816,-0.144939,14,0
1.40042,12.9968,0.228173,12,8
0.0704702,0.652934,-0.151617,23,1
1.93089,17.8613,0.941524,9,9
0.831792,7.69432,-1.50434,33,2
1.40101,12.9387,1.1386,4,10
0.983194,9.06518,-1.4442,30,3
1.55517,14.3156,1.76808,3,11
1.15376,10.6033,-1.30961,33,4
3.229,29.6271,4.72025,7,12
1.41221,12.9575,-1.14035,11,5
3.20238,29.3354,5.7361,26,13
3.90341,35.6418,8.27775,24,14
1.30087,11.859,-0.208242,100,7
3.95912,36.0344,9.71348,17,15
0.055466,0.49921,-0.134586,15,0
1.45065,13.0355,0.228941,6,8
0.0733961,0.658494,-0.152967,23,1
1.44634,12.9556,0.683194,27,9
0.857123,7.67771,-1.50167,23,2
1.63702,14.6405,1.28886,11,10
1.01483,9.06169,-1.4442,33,3
1.61354,14.3851,1.77734,7,11
1.19187,10.6091,-1.31083,20,4
3.3304,29.5979,4.71744,14,12
