x, y, z, intensity, ring
10.8144,-0.413559,0.188905,58,8
0.531614,-0.0204225,-0.122823,15,1
0.718012,-0.0278342,-0.139672,23,2
15.4373,-0.601136,1.35161,24,10
6.65588,-0.260347,-1.05499,48,3
12.5025,-0.489038,1.53629,45,11
7.1924,-0.28259,-0.883797,4,4
8.68796,-0.344388,-0.760695,27,5
8.81684,-0.35258,-0.462441,47,6
17.9665,-0.721611,4.15125,25,14
11.7088,-0.470273,-0.204542,28,7
11.9716,-0.482922,3.21039,35,15
11.1945,-0.469187,0.195572,26,8
0.531536,-0.0223709,-0.122823,15,1
12.4458,-0.525985,0.652839,21,9
0.70418,-0.0297601,-0.137001,24,2
15.2161,-0.645726,1.33244,43,10
6.71611,-0.286186,-1.06469,32,3
12.4728,-0.533671,1.53287,42,11
7.98858,-0.343202,-0.98178,66,4
13.9529,-0.601879,2.21198,64,12
8.01783,-0.347262,-0.702127,15,5
16.1111,-0.69779,3.13461,22,13
9.32039,-0.405307,-0.488923,77,6
18.2793,-0.798092,4.22413,24,14
8.84416,-0.387691,-0.154524,67,7
11.7073,-0.515245,3.13999,14,15
0.550921,-0.0251135,-0.127322,15,1
12.4738,-0.570796,0.654409,9,9
0.719755,-0.0330615,-0.140054,35,2
12.5268,-0.577602,1.09712,49,10
6.85117,-0.317101,-1.08628,57,3
12.4927,-0.578215,1.53555,35,11
13.8521,-0.645979,2.19634,13,12
8.61562,-0.403288,-0.754594,26,5
14.4866,-0.680636,2.81901,14,13
9.24901,-0.436172,-0.485259,47,6
17.6631,-0.83606,4.08241,40,14
8.80879,-0.416953,-0.15393,100,7
9.33542,-0.456578,0.163145,55,8
0.531366,-0.0260811,-0.122823,15,1
0.723564,-0.0356413,-0.140817,34,2
15.1217,-0.747512,1.32459,14,10
6.82444,-0.338547,-1.08221,48,3
12.5481,-0.624682,1.54262,21,11
13.8992,-0.694375,2.20416,51,12
14.1568,-0.712198,2.75528,28,13
9.1398,-0.461403,-0.479607,36,6
11.3369,-0.574301,2.62068,46,14
8.87926,-0.449804,-0.155187,92,7
11.6321,-0.591293,3.12084,28,15
9.25597,-0.483465,0.161784,35,8
0.507924,-0.0266192,-0.117424,16,1
13.3771,-0.703407,0.702035,56,9
0.727356,-0.0383737,-0.14158,23,2
6.94361,-0.367545,-1.1013,53,3
12.4528,-0.661342,1.53117,38,11
8.73195,-0.465263,-1.07367,27,4
13.155,-0.703239,2.08652,9,12
7.65571,-0.410598,-0.670751,1,5
16.2403,-0.871013,3.16132,10,13
9.08238,-0.488705,-0.476676,14,6
11.3816,-0.614414,2.63148,40,14
8.88962,-0.481444,-0.155396,100,7
11.6917,-0.635247,3.1374,12,15
9.23226,-0.514547,0.1614,41,8
0.515611,-0.0288271,-0.119224,16,1
11.3885,-0.638707,0.597781,23,9
0.719377,-0.0404713,-0.140054,23,2
11.9375,-0.671587,1.04604,24,10
7.18487,-0.40547,-1.13978,43,3
12.2938,-0.695942,1.51191,49,11
7.43411,-0.422139,-0.914264,5,4
13.9729,-0.795885,2.21668,15,12
9.03669,-0.516305,-0.791897,16,5
14.1985,-0.813709,2.76444,30,13
11.7763,-0.676954,2.72326,51,14
19.4986,-1.12428,-0.340915,29,7
9.18241,-0.545536,0.160562,25,8
0.546627,-0.0325713,-0.126422,15,1
11.402,-0.681397,0.598619,58,9
0.707465,-0.0424029,-0.137764,36,2
11.7002,-0.70127,1.02547,25,10
7.36474,-0.442706,-1.16857,60,3
12.2615,-0.739205,1.50826,28,11
8.08243,-0.488679,-0.99421,35,4
14.1197,-0.85618,2.24045,11,12
7.74008,-0.470692,-0.67842,5,5
16.1962,-0.987765,3.15407,5,13
9.18421,-0.56173,-0.482224,100,6
11.8379,-0.724038,2.7381,55,14
11.6723,-0.715952,-0.204123,19,7
9.04663,-0.570751,0.158224,58,8
0.554283,-0.0350668,-0.128222,14,1
0.722987,-0.0458666,-0.140817,23,2
11.974,-0.761731,1.0497,11,10
7.52078,-0.479757,-1.1936,51,3
17.3024,-1.10677,2.12881,18,11
8.18558,-0.525034,-1.00713,11,4
12.9515,-0.832994,2.05555,15,12
8.90551,-0.572772,-0.780741,39,5
16.1691,-1.04278,3.14949,16,13
9.12838,-0.590306,-0.479397,100,6
8.88189,-0.57748,-0.155361,100,7
11.9155,-0.776805,3.19952,22,15
9.10245,-0.60618,0.159236,30,8
0.530824,-0.0354434,-0.122823,15,1
11.8153,-0.790986,0.6206,19,9
0.730658,-0.0489146,-0.142344,34,2
13.651,-0.916273,1.197,86,10
7.59395,-0.511046,-1.20548,56,3
12.5233,-0.844968,1.54116,7,11
6.48239,-0.438515,-0.797757,4,4
12.9741,-0.879936,2.05962,36,12
9.03863,-0.613022,-0.792594,40,5
17.1115,-1.16354,3.33381,27,13
9.06051,-0.617683,-0.475943,65,6
17.3462,-1.18559,4.01403,13,14
8.8878,-0.609026,-0.155501,100,7
11.8491,-0.814024,3.18244,29,15
8.71129,-0.610681,0.152429,60,8
0.530697,-0.0372961,-0.122823,15,1
11.8165,-0.832505,0.620809,44,9
0.726566,-0.0511888,-0.14158,23,2
7.09557,-0.502393,-1.12664,25,3
12.5064,-0.887693,1.53945,3,11
7.94213,-0.565119,-0.977636,45,4
12.9631,-0.924656,2.05837,56,12
7.86589,-0.561074,-0.689925,36,5
13.512,-0.966179,2.63316,28,13
9.3372,-0.669299,-0.490597,73,6
13.6586,-0.981455,3.16146,45,14
9.08308,-0.65427,-0.158957,58,7
12.2566,-0.885015,3.2927,8,15
8.70512,-0.640791,0.15236,42,8
0.518903,-0.038288,-0.120124,15,1
11.8354,-0.875367,0.621961,60,9
0.718552,-0.0531454,-0.140054,35,2
11.7766,-0.873084,1.03314,27,10
7.54489,-0.560682,-1.19829,70,3
12.6299,-0.94078,1.55505,18,11
8.4449,-0.630528,-1.03979,20,4
12.9046,-0.965772,2.0496,79,12
7.8619,-0.588379,-0.689751,12,5
13.4556,-1.00937,2.62286,37,13
9.04004,-0.679724,-0.475106,68,6
13.7037,-1.03279,3.17271,20,14
8.85741,-0.669101,-0.155047,100,7
11.3705,-0.876909,0.199062,28,8
0.549853,-0.042502,-0.127322,15,1
11.9876,-0.928708,0.630125,33,9
0.718362,-0.0556533,-0.140054,23,2
11.7993,-0.916191,1.03541,46,10
7.67484,-0.597284,-1.21925,42,3
12.4464,-0.970814,1.53287,21,11
8.48619,-0.663406,-1.04515,39,4
13.2891,-1.04121,2.11124,45,12
7.85384,-0.615352,-0.689228,32,5
13.6673,-1.07324,2.66484,14,13
9.02567,-0.710335,-0.474478,76,6
13.4766,-1.06299,3.12097,21,14
8.90685,-0.704113,-0.155955,100,7
0.530277,-0.0428514,-0.122823,15,1
11.9106,-0.964582,0.626252,21,9
0.710336,-0.0575266,-0.138527,36,2
11.7682,-0.955117,1.03297,53,10
7.73374,-0.629035,-1.22895,62,3
16.8749,-1.37551,2.07885,45,11
8.48777,-0.693348,-1.04564,49,4
13.0295,-1.06664,2.07057,52,12
9.09273,-0.744363,-0.798172,13,5
9.36949,-0.770312,-0.492691,52,6
13.4417,-1.10747,3.11377,42,14
8.16696,-0.674317,-0.14304,8,7
11.4592,-0.94816,3.08098,10,15
0.530125,-0.0447022,-0.122823,15,1
11.744,-0.992362,0.617669,21,9
0.706218,-0.0596752,-0.137764,24,2
11.3598,-0.961896,0.99741,21,10
7.72166,-0.655192,-1.22738,53,3
12.5402,-1.06626,1.5453,10,11
8.74639,-0.745217,-1.07781,16,4
13.1969,-1.12673,2.09779,65,12
8.93722,-0.763048,-0.78475,25,5
13.4893,-1.15407,2.63164,15,13
9.03442,-0.774523,-0.475211,39,6
13.4494,-1.15538,3.11647,23,14
8.16655,-0.702992,-0.143075,64,7
11.4982,-0.991807,3.09237,3,15
12.4344,-1.09006,0.217876,8,8
0.529965,-0.0465524,-0.122823,15,1
11.2232,-0.98782,0.590454,20,9
0.721651,-0.063517,-0.140817,34,2
11.2651,-0.993492,0.989392,23,10
7.72129,-0.682316,-1.2277,60,3
13.9127,-1.23188,1.71495,42,11
8.36409,-0.742061,-1.03101,48,4
13.2303,-1.17611,2.10373,52,12
8.9742,-0.797768,-0.788237,7,5
14.156,-1.26089,2.76253,35,13
8.83272,-0.7883,-0.464743,43,6
13.4511,-1.20284,3.11782,36,14
13.0059,-1.16532,-0.227928,92,7
18.3714,-1.6493,4.94241,3,15
11.4268,-1.04194,0.200284,22,8
0.56085,-0.0512388,-0.130022,14,1
12.4826,-1.1426,0.656921,54,9
0.717515,-0.0656778,-0.140054,23,2
11.3032,-1.03663,0.993053,23,10
7.65985,-0.703841,-1.21831,57,3
13.6612,-1.25769,1.68448,41,11
8.3061,-0.766147,-1.02419,61,4
13.2654,-1.22592,2.10999,42,12
13.6491,-1.26378,2.66446,25,13
9.53194,-0.884251,-0.501693,70,6
19.4309,-1.80597,4.50532,20,14
9.14902,-0.85195,-0.160388,76,7
12.2777,-1.14545,3.30408,6,15
11.4829,-1.08747,0.201331,13,8
0.549028,-0.0520918,-0.127322,15,1
12.6316,-1.20072,0.664981,56,9
0.71336,-0.0679349,-0.139291,48,2
11.101,-1.05913,0.975621,44,10
7.7575,-0.741497,-1.23427,53,3
16.688,-1.59512,2.05837,17,11
8.2599,-0.790973,-1.01883,45,4
13.2768,-1.27373,2.11249,18,12
8.11943,-0.780382,-0.713631,15,5
13.6072,-1.31022,2.65721,18,13
9.48887,-0.915346,-0.499599,56,6
17.0112,-1.64399,3.94564,13,14
13.0751,-1.26359,-0.22929,100,7
20.0362,-1.93986,5.39379,8,15
9.04294,-0.889855,0.158607,13,8
0.546894,-0.0539125,-0.126872,15,1
0.720934,-0.0711964,-0.140817,46,2
7.72931,-0.766039,-1.2302,66,3
11.5026,-1.14203,1.41929,47,11
8.25892,-0.821438,-1.01907,55,4
13.561,-1.35118,2.15848,36,12
8.95726,-0.892475,-0.787539,46,5
13.6612,-1.36356,2.66865,35,13
8.21173,-0.821087,-0.432504,18,6
17.5289,-1.7558,4.06711,23,14
13.1937,-1.32389,-0.231454,45,7
18.6315,-1.87281,5.01747,13,15
13.8103,-1.40767,0.242309,4,8
0.527316,-0.0538417,-0.122373,15,1
9.48543,-0.970185,0.499704,4,9
0.716775,-0.0733129,-0.140054,23,2
10.8694,-1.11365,0.955924,55,10
11.4611,-1.17832,1.41466,50,11
8.34684,-0.859617,-1.03028,23,4
12.8468,-1.32532,2.04554,13,12
8.39917,-0.866488,-0.738732,17,5
13.5958,-1.40499,2.65682,52,13
8.1651,-0.845222,-0.430202,68,6
19.587,-2.03103,4.54626,31,14
9.48154,-0.984839,-0.166391,69,7
11.1446,-1.15954,3.0023,17,15
11.8027,-1.24468,0.20716,16,8
0.527125,-0.0556821,-0.122373,15,1
9.48596,-1.00371,0.499913,20,9
0.71261,-0.0754013,-0.139291,36,2
10.9308,-1.15852,0.961676,17,10
11.4727,-1.22,1.41661,33,11
8.16218,-0.869404,-1.00786,46,4
7.80373,-0.832601,-0.686613,35,5
13.1613,-1.40654,2.57287,19,13
9.62374,-1.03018,-0.50724,80,6
17.6112,-1.88831,4.08916,11,14
13.1822,-1.41575,-0.231419,36,7
11.1789,-1.20257,3.01265,42,15
16.1936,-1.76491,0.284335,17,8
0.554048,-0.0604824,-0.128672,14,1
9.49232,-1.0379,0.500436,34,9
0.708439,-0.0774616,-0.138527,36,2
7.7189,-0.846721,-1.22989,41,3
11.5433,-1.26828,1.42587,16,11
7.76446,-0.854462,-0.959112,47,4
13.1388,-1.45053,2.56943,38,13
8.04585,-0.889691,-0.424235,54,6
15.1988,-1.68334,3.53038,13,14
8.97159,-0.995228,-0.15756,83,7
11.1324,-1.23689,3.00127,16,15
8.93425,-1.00529,0.156932,36,8
0.526723,-0.0593607,-0.122373,15,1
9.44895,-1.06655,0.498343,20,9
0.704263,-0.0794936,-0.137764,24,2
10.9838,-1.24174,0.96708,38,10
7.62561,-0.863436,-1.2155,52,3
11.5408,-1.30879,1.42612,37,11
7.73974,-0.879095,-0.956431,26,4
18.0158,-2.04945,2.87182,12,12
8.01533,-0.913231,-0.705787,8,5
13.1648,-1.49994,2.57554,10,13
9.20554,-1.05047,-0.485573,39,6
18.7728,-2.14553,4.36225,15,14
8.53496,-0.976963,-0.149951,82,7
11.8477,-1.35826,3.19538,18,15
8.92473,-1.03578,0.156827,27,8
0.526513,-0.061199,-0.122373,15,1
9.46501,-1.10184,0.49939,20,9
0.700066,-0.0816196,-0.137001,24,2
11.0722,-1.29285,0.975273,44,10
7.61455,-0.890462,-1.21424,52,3
11.4494,-1.33892,1.41539,43,11
7.93575,-0.929429,-0.981048,35,4
16.7549,-1.96528,2.6719,11,12
7.74693,-0.910056,-0.682429,8,5
16.7839,-1.97463,3.28497,16,13
9.1084,-1.07322,-0.480653,94,6
15.3083,-1.80644,3.55873,24,14
8.56327,-1.0105,-0.15051,90,7
11.0736,-1.30869,2.98781,11,15
16.1958,-1.93983,0.284719,16,8
0.545633,-0.0654492,-0.126872,15,1
11.6048,-1.392,0.61254,22,9
0.699777,-0.0840628,-0.137001,24,2
11.0459,-1.32887,0.973355,57,10
7.62904,-0.919163,-1.21706,85,3
11.3577,-1.37041,1.40467,26,11
7.67018,-0.926836,-0.948631,22,4
17.9442,-2.16831,2.86275,2,12
7.82876,-0.947384,-0.689925,15,5
15.0579,-1.82488,2.94838,9,13
8.83892,-1.07276,-0.466627,43,6
15.3406,-1.86457,3.56772,38,14
11.5611,-1.40519,-0.203286,66,7
11.0536,-1.34546,2.98367,35,15
8.98079,-1.10588,0.157944,13,8
0.526073,-0.0648732,-0.122373,15,1
9.40753,-1.16177,0.496773,23,9
0.703376,-0.0869869,-0.137764,24,2
11.6541,-1.44333,1.02739,17,10
7.60831,-0.942272,-1.21424,50,3
11.3314,-1.40538,1.40199,35,11
7.73799,-0.961074,-0.957406,13,4
17.4347,-2.16851,2.78266,19,12
7.75226,-0.965594,-0.683475,50,5
15.0869,-1.87917,2.95525,15,13
8.70649,-1.08599,-0.459824,72,6
15.3459,-1.91688,3.57042,11,14
8.64332,-1.08118,-0.152045,16,7
0.525843,-0.0667091,-0.122373,15,1
9.43731,-1.19723,0.498552,35,9
0.703084,-0.0893189,-0.137764,24,2
12.9873,-1.6522,1.1454,40,10
7.68336,-0.978809,-1.22676,72,3
11.8818,-1.51576,1.47072,17,11
7.47663,-0.955126,-0.925476,40,4
19.6631,-2.51193,3.13964,19,12
7.84585,-1.00368,-0.692017,35,5
8.84924,-1.13518,-0.467569,39,6
15.4184,-1.98061,3.58887,18,14
8.58811,-1.10321,-0.151138,90,7
19.0591,-2.45167,5.14895,19,15
8.95719,-1.16493,0.157665,56,8
0.544943,-0.0709692,-0.126872,15,1
9.35781,-1.22035,0.494575,18,9
0.687194,-0.0897388,-0.134711,25,2
11.8238,-1.54614,1.04325,10,10
7.71141,-1.00838,-1.23177,46,3
11.3728,-1.48918,1.40832,3,11
8.17609,-1.07205,-1.01249,30,4
7.87588,-1.03548,-0.69498,21,5
16.6796,-2.19295,3.27008,24,13
7.79,-1.02557,-0.411779,14,6
17.9582,-2.36743,4.18184,6,14
8.54654,-1.12821,-0.150475,90,7
19.0542,-2.51869,5.14998,3,15
8.92511,-1.19404,0.157176,55,8
0.548542,-0.0734835,-0.127772,14,1
0.690768,-0.0926591,-0.135474,37,2
10.0016,-1.34339,0.882888,40,10
7.39834,-0.995035,-1.18233,60,3
17.1158,-2.30502,2.12053,9,11
7.75701,-1.04603,-0.961062,28,4
18.5954,-2.51089,2.97194,16,12
7.86827,-1.06243,-0.694631,13,5
16.617,-2.2467,3.2594,12,13
7.79806,-1.05573,-0.412407,3,6
17.9165,-2.42878,4.17419,15,14
8.44724,-1.14662,-0.148799,100,7
15.873,-2.1574,4.29226,1,15
11.0724,-1.52066,0.195083,10,8
0.548282,-0.0753978,-0.127772,14,1
9.3983,-1.29409,0.497192,30,9
0.706,-0.0972121,-0.138527,36,2
13.4844,-1.85913,1.1909,20,10
7.60224,-1.04949,-1.2155,43,3
16.852,-2.32942,2.08884,9,11
7.53701,-1.04317,-0.93425,26,4
13.0882,-1.81381,2.09278,11,12
7.80925,-1.08223,-0.689751,13,5
15.0942,-2.09449,2.96212,0,13
7.74685,-1.07634,-0.409895,14,6
16.8502,-2.34416,3.92765,28,14
10.0574,-1.40094,-0.177247,44,7
9.02327,-1.2585,2.44118,14,15
8.17995,-1.15253,0.144192,13,8
0.513282,-0.0724112,-0.119674,16,1
9.35813,-1.32186,0.495308,43,9
0.705639,-0.0997991,-0.138527,24,2
8.97604,-1.26949,0.793117,1,10
7.43228,-1.05248,-1.1889,48,3
17.516,-2.48353,2.1722,50,11
7.66304,-1.08788,-0.950337,28,4
8.85855,-1.26076,-0.782833,16,5
15.0825,-2.14924,2.96136,3,13
14.3943,-2.05373,-0.762012,9,6
16.1223,-2.30029,3.75983,27,14
10.1316,-1.44735,-0.178643,88,7
9.00735,-1.28835,2.43808,26,15
8.62097,-1.24691,0.152045,17,8
0.540014,-0.0782021,-0.125973,15,1
9.30776,-1.34956,0.4929,44,9
0.697497,-0.101257,-0.137001,24,2
9.00879,-1.30782,0.796429,26,10
7.38732,-1.07374,-1.18233,52,3
15.8173,-2.30186,1.96258,12,11
7.71007,-1.1234,-0.956674,35,4
15.8173,-2.3075,2.53174,26,12
7.85828,-1.1478,-0.694806,8,5
17.5902,-2.5724,3.45555,15,13
7.75456,-1.13542,-0.410733,7,6
16.8234,-2.46326,3.9254,34,14
10.9335,-1.60282,-0.192884,100,7
16.0116,-2.35011,4.33625,11,15
0.524303,-0.07789,-0.122373,15,1
9.22002,-1.36972,0.488504,75,9
0.701023,-0.104268,-0.137764,24,2
9.07882,-1.35198,0.803053,41,10
15.7794,-2.35543,1.95893,17,11
7.81389,-1.16779,-0.97008,12,4
7.72418,-1.15576,-0.683301,5,5
17.5228,-2.62506,3.4441,16,13
8.60777,-1.29105,-0.45616,43,6
17.005,-2.55356,3.96994,24,14
8.34317,-1.25285,-0.147263,40,7
16.1141,-2.42264,4.36628,15,15
8.05057,-1.22185,0.142132,40,8
0.524042,-0.0796282,-0.122373,15,1
9.00391,-1.36975,0.477304,42,9
0.685128,-0.10435,-0.134711,25,2
9.46994,-1.44403,0.83809,38,10
6.49698,-0.990696,-1.04092,36,3
9.3467,-1.42691,1.16093,23,11
7.81782,-1.1949,-0.971055,25,4
7.75555,-1.18815,-0.686439,1,5
14.1742,-2.17149,2.78734,16,13
8.62121,-1.32231,-0.457102,61,6
9.07608,-1.3937,2.11994,11,14
10.4022,-1.59919,-0.183704,72,7
13.5928,-2.09213,3.68507,5,15
8.03637,-1.24841,0.141958,58,8
0.508356,-0.0790612,-0.118774,16,1
14.1242,-2.19916,0.749137,22,9
0.678958,-0.105715,-0.133566,26,2
9.28005,-1.44658,0.821704,44,10
9.34559,-1.46014,1.16141,34,11
7.90774,-1.2369,-0.982754,55,4
15.802,-2.47453,2.5333,13,12
8.87158,-1.38925,-0.785622,10,5
17.7819,-2.78775,3.49867,8,13
10.3728,-1.63176,-0.183285,72,7
18.4078,-2.89904,4.99314,6,15
8.14651,-1.29465,0.143982,36,8
0.546568,-0.086959,-0.127772,14,1
14.0277,-2.23432,0.744427,17,9
0.705729,-0.112408,-0.138909,24,2
9.32414,-1.48681,0.826062,24,10
6.13683,-0.979666,-0.984286,1,3
9.34828,-1.494,1.16239,13,11
7.63875,-1.22216,-0.94985,10,4
15.8011,-2.53093,2.53455,12,12
9.68705,-1.55161,-0.85831,19,5
14.3022,-2.2934,2.81558,10,13
9.2369,-1.48282,-0.490283,28,6
9.08152,-1.4595,2.12354,35,14
8.36711,-1.34619,-0.147927,100,7
12.3839,-1.99467,3.36102,9,15
8.43801,-1.37119,0.149218,13,8
0.52318,-0.0851115,-0.122373,15,1
8.95359,-1.45818,0.47542,17,9
0.701437,-0.114362,-0.138146,24,2
9.88129,-1.61104,0.875915,22,10
5.66938,-0.925348,-0.909823,2,3
9.39394,-1.53495,1.16873,13,11
7.28377,-1.19146,-0.90622,21,4
15.6713,-2.56628,2.51515,10,12
9.64394,-1.58098,-0.854998,22,5
8.63278,-1.41677,1.70049,13,13
9.20775,-1.51278,-0.489027,14,6
9.04945,-1.48677,2.11724,53,14
8.33868,-1.37149,-0.147508,48,7
8.71501,-1.44901,0.154209,10,8
0.499797,-0.083189,-0.116975,16,1
8.91666,-1.48574,0.473745,35,9
0.695203,-0.115963,-0.137001,24,2
9.81832,-1.63774,0.87086,40,10
5.69517,-0.951001,-0.914516,2,3
9.44503,-1.57886,1.1758,16,11
15.7904,-2.64524,2.5358,13,12
9.68524,-1.62423,-0.859181,29,5
8.67593,-1.45652,1.71003,8,13
9.18639,-1.54387,-0.48819,45,6
9.01511,-1.51508,2.11049,13,14
8.31979,-1.39972,-0.147263,89,7
0.503331,-0.0856742,-0.117874,16,1
8.74577,-1.49023,0.464953,127,9
0.685117,-0.11674,-0.135093,25,2
14.3727,-2.45161,1.27561,22,10
5.94673,-1.01542,-0.955502,10,3
9.44114,-1.6138,1.17604,22,11
7.27093,-1.24415,-0.905733,37,4
9.70504,-1.6624,-0.861447,8,5
8.65531,-1.48414,1.70698,15,13
9.30299,-1.59687,-0.49468,28,6
8.32249,-1.43156,-0.147403,89,7
18.0426,-3.10678,4.90566,7,15
8.56257,-1.48671,0.151696,25,8
0.552947,-0.096107,-0.129572,14,1
8.19153,-1.42523,0.435749,34,9
0.688574,-0.119804,-0.135856,25,2
14.2267,-2.47783,1.26341,22,10
9.40416,-1.64129,1.17214,35,11
7.19223,-1.25654,-0.896471,16,4
8.65511,-1.51367,1.39164,49,12
9.69918,-1.69627,-0.861447,15,5
14.5386,-2.54524,2.869,7,13
9.20293,-1.61279,-0.489655,7,6
9.04243,-1.58629,2.11949,16,14
8.2682,-1.45196,-0.14653,73,7
13.9999,-2.461,3.80878,4,15
8.54748,-1.51484,0.151522,48,8
0.521908,-0.0925901,-0.122373,15,1
8.23763,-1.4629,0.438471,105,9
0.693951,-0.123237,-0.137001,24,2
8.14275,-1.44751,0.723567,15,10
9.37687,-1.67028,1.16946,30,11
8.7684,-1.56505,1.41073,41,12
8.67327,-1.54807,-0.770805,6,5
9.16578,-1.63928,-0.48798,28,6
16.6484,-2.98053,3.9047,10,14
8.26308,-1.48081,-0.14653,32,7
14.0102,-2.51327,3.81396,1,15
8.48507,-1.53435,0.15051,75,8
0.521582,-0.0944113,-0.122373,15,1
8.11259,-1.46992,0.432086,43,9
0.681925,-0.123558,-0.134711,25,2
8.13765,-1.47593,0.723567,26,10
9.58973,-1.74275,1.19676,30,11
8.72013,-1.58786,1.40384,77,12
9.55185,-1.73931,-0.84942,21,5
8.6026,-1.56801,1.69973,12,13
14.3118,-2.61121,-0.76243,13,6
9.07523,-1.65743,2.12984,13,14
8.24803,-1.50785,-0.146356,40,7
14.8166,-2.71134,4.03602,20,15
8.46197,-1.5607,0.150195,57,8
0.521249,-0.0962314,-0.122373,15,1
8.05268,-1.48666,0.429155,57,9
0.685351,-0.126651,-0.135474,25,2
8.15008,-1.50759,0.725136,13,10
7.6529,-1.417,-1.2327,31,3
9.56212,-1.77223,1.19408,22,11
7.49316,-1.38877,-0.935713,17,4
8.73618,-1.62073,1.40728,17,12
9.57314,-1.77773,-0.85186,31,5
8.57584,-1.59408,1.69553,28,13
9.15019,-1.7025,-0.487771,18,6
9.0716,-1.68787,2.13029,16,14
8.18597,-1.52457,-0.145344,100,7
14.0802,-2.62486,3.83777,11,15
0.474675,-0.0890902,-0.12941,15,0
8.44102,-1.58579,0.149916,16,8
0.520927,-0.0979594,-0.122373,15,1
8.17333,-1.53698,0.435854,45,9
0.671422,-0.126381,-0.132803,26,2
8.1235,-1.53055,0.723218,7,10
7.1027,-1.3395,-1.14479,25,3
9.52693,-1.79841,1.19042,30,11
7.39098,-1.3952,-0.923526,10,4
14.779,-2.79252,2.38218,22,12
9.67878,-1.83057,-0.861796,15,5
15.3856,-2.91271,3.04379,9,13
8.96788,-1.69936,-0.478351,21,6
16.3111,-3.09085,3.83272,21,14
8.18087,-1.55171,-0.145344,40,7
14.0638,-2.6701,3.8357,13,15
8.46322,-1.61904,0.150405,27,8
0.520599,-0.0996863,-0.122373,15,1
8.31895,-1.59445,0.443914,110,9
0.684496,-0.131194,-0.135474,37,2
8.32774,-1.59764,0.74187,7,10
9.47413,-1.821,1.18457,13,11
14.7944,-2.84895,2.38625,32,12
9.62929,-1.85605,-0.857961,19,5
10.489,-2.02176,2.07638,21,13
8.95632,-1.72796,-0.478037,47,6
15.3129,-2.95711,3.60057,30,14
9.68523,-1.87209,-0.172185,70,7
14.098,-2.72761,3.8476,24,15
8.53799,-1.66426,0.151836,30,8
0.504947,-0.0985176,-0.118774,16,1
8.44075,-1.64836,0.450717,41,9
0.680157,-0.132948,-0.134711,38,2
8.53105,-1.66909,0.760521,43,10
5.78465,-1.13281,-0.933601,1,3
14.5951,-2.85815,1.82609,44,11
7.42586,-1.45555,-0.929132,23,4
9.7522,-1.91331,1.57404,17,12
8.46146,-1.66161,-0.75442,5,5
9.05598,-1.78,1.79399,8,13
9.15177,-1.80048,-0.488818,10,6
13.3134,-2.62164,3.13267,19,14
9.25876,-1.82321,-0.164716,43,7
14.1566,-2.79025,3.86624,18,15
8.46514,-1.68229,0.150649,33,8
0.519872,-0.103409,-0.122373,15,1
8.59724,-1.71166,0.459405,8,9
0.681614,-0.135705,-0.135093,25,2
8.53494,-1.7008,0.761393,41,10
5.6683,-1.13058,-0.915455,1,3
9.28371,-1.85338,1.16239,26,11
15.2984,-3.05692,-1.91554,23,4
9.74319,-1.94865,1.57373,26,12
8.35597,-1.6712,-0.74553,15,5
10.5359,-2.1091,2.0886,9,13
13.5654,-2.71802,-0.725062,48,6
8.93824,-1.79253,2.10464,41,14
11.0028,-2.20857,-0.195886,100,7
14.2221,-2.85734,3.88694,14,15
11.846,-2.39719,0.210965,38,8
0.519508,-0.105223,-0.122373,15,1
8.60295,-1.74404,0.460033,24,9
0.667668,-0.135353,-0.132421,26,2
8.52505,-1.72979,0.761044,33,10
5.57527,-1.13227,-0.901063,10,3
14.4867,-2.94472,1.81512,44,11
9.72426,-1.97842,-1.21845,19,4
14.1999,-2.89159,2.29521,33,12
8.34032,-1.69837,-0.744659,15,5
13.6087,-2.77613,-0.727889,26,6
8.9071,-1.81865,2.09879,35,14
10.9833,-2.24456,-0.195676,65,7
14.2215,-2.90891,3.88953,24,15
11.8827,-2.4478,0.211768,8,8
0.519138,-0.107036,-0.122373,15,1
8.63593,-1.78213,0.462127,69,9
0.676805,-0.139667,-0.13433,25,2
8.46433,-1.74826,0.756163,54,10
14.5794,-3.01659,1.82804,44,11
9.72313,-2.01356,-1.21918,12,4
14.1453,-2.93192,2.28801,20,12
15.3317,-3.18063,-1.36991,26,5
10.4036,-2.15827,2.06532,18,13
9.1813,-1.90637,-0.491435,21,6
13.2127,-2.74584,3.11557,23,14
8.93145,-1.85774,-0.159236,16,7
14.2434,-2.96522,3.89833,16,15
15.1757,-3.18144,0.270652,16,8
0.495875,-0.104045,-0.116975,16,1
8.63552,-1.81349,0.462441,34,9
0.676288,-0.142147,-0.13433,25,2
8.44421,-1.7764,0.754943,22,10
7.74358,-1.63042,-1.25335,28,3
9.06566,-1.90878,1.13753,10,11
7.94648,-1.67459,-0.997135,16,4
14.1543,-2.98536,2.29114,15,12
15.0574,-3.17858,-1.34638,55,5
10.4245,-2.20248,2.07104,45,13
9.18598,-1.94249,-0.492063,31,6
13.2293,-2.7999,3.12187,29,14
10.3452,-2.18951,-0.184577,54,7
14.2991,-3.02894,3.91645,9,15
8.6439,-1.8452,0.154279,10,8
0.537416,-0.11482,-0.126872,15,1
8.96671,-1.91739,0.480549,12,9
0.668109,-0.142864,-0.132803,26,2
7.45798,-1.59613,0.667264,9,10
5.81014,-1.24453,-0.94111,7,3
9.07219,-1.94491,1.13923,28,11
9.65801,-2.07226,-1.21284,28,4
9.05608,-1.94476,1.46704,34,12
15.0846,-3.24212,-1.34987,57,5
12.9254,-2.77804,2.56982,28,13
9.14985,-1.96824,-0.490493,14,6
13.1927,-2.84032,3.11557,23,14
9.52002,-2.05134,-0.169986,17,7
14.3767,-3.10047,3.94078,12,15
0.56636,-0.122969,-0.155291,12,0
8.72534,-1.89446,0.15585,55,8
0.495117,-0.107591,-0.116975,16,1
0.671417,-0.146147,-0.133566,26,2
7.51048,-1.63618,0.672494,7,10
5.69553,-1.24183,-0.923276,5,3
14.8044,-3.22788,1.86046,20,11
9.41604,-2.05475,-1.18335,24,4
9.32521,-2.03663,1.51178,20,12
15.0265,-3.28454,-1.34568,52,5
12.7962,-2.79938,2.54616,17,13
9.14258,-2.00176,-0.490493,14,6
13.2717,-2.90826,3.13672,21,14
13.1753,-2.88714,-0.235433,72,7
14.562,-3.19367,3.99461,13,15
8.79254,-1.94282,0.157176,47,8
0.517553,-0.114454,-0.122373,15,1
8.32874,-1.84339,0.447054,13,9
0.67857,-0.150187,-0.135093,25,2
8.34701,-1.84896,0.747971,41,10
7.49436,-1.66146,-1.21581,45,3
14.8991,-3.30577,1.87386,20,11
9.69913,-2.1538,-1.21991,38,4
14.1848,-3.15248,2.30146,30,12
15.083,-3.3521,-1.35179,28,5
12.7442,-2.83466,2.53776,30,13
9.13164,-2.0328,-0.490283,28,6
13.1393,-2.92975,-0.234979,100,7
8.98428,-2.00493,2.46655,7,15
9.29494,-2.08789,0.166287,60,8
0.505742,-0.113696,-0.119674,16,1
7.44735,-1.6756,0.400056,36,9
0.655058,-0.147383,-0.130513,27,2
8.24138,-1.85576,0.739081,30,10
7.33435,-1.65287,-1.19078,57,3
14.9629,-3.37479,1.88337,24,11
9.68187,-2.18545,-1.21869,23,4
14.7806,-3.33909,2.40002,50,12
10.1796,-2.29968,-0.913044,9,5
13.0138,-2.94234,2.59348,21,13
9.22773,-2.08802,-0.495831,38,6
8.72002,-1.97474,2.06415,35,14
13.1387,-2.97781,-0.235154,72,7
8.96404,-2.03329,2.46292,22,15
9.95434,-2.27253,0.178224,21,8
0.497743,-0.113724,-0.117874,16,1
7.45314,-1.70426,0.400684,55,9
0.667936,-0.152732,-0.133185,26,2
7.09554,-1.6251,-1.15292,33,3
8.06666,-1.84899,1.01615,6,11
9.84208,-2.25956,1.59939,21,12
13.1212,-3.01239,-1.17782,20,5
9.79086,-2.2496,1.95274,25,13
13.3878,-3.0785,-0.719933,19,6
8.68458,-1.99861,2.0574,66,14
9.63816,-2.21983,-0.172639,26,7
8.84582,-2.03897,2.43238,53,15
8.71717,-2.02214,0.156199,13,8
0.535309,-0.124275,-0.126872,15,1
9.67273,-2.24736,0.520429,12,9
0.676961,-0.157285,-0.135093,25,2
7.12983,-1.65785,0.64042,13,10
7.12061,-1.65702,-1.15793,60,3
8.05628,-1.87624,1.01566,24,11
15.8625,-3.69716,-1.99988,9,4
14.8128,-3.45521,2.40909,41,12
9.08256,-2.11859,-0.815952,17,5
9.79442,-2.28644,1.95503,8,13
13.3536,-3.11976,-0.718677,19,6
8.86351,-2.07239,2.10149,24,14
9.202,-2.15323,-0.16496,25,7
8.83074,-2.08099,0.158363,27,8
0.515904,-0.121669,-0.122373,15,1
7.57519,-1.78791,0.407906,22,9
0.680229,-0.160549,-0.135856,25,2
7.18217,-1.69647,0.64565,16,10
9.10443,-2.15387,1.14874,26,11
15.3029,-3.62308,-1.9309,2,4
14.866,-3.52238,2.41973,28,12
9.51713,-2.25502,-0.855695,22,5
13.4087,-3.18204,-0.722236,13,6
8.82589,-2.09611,2.09429,26,14
7.62052,-1.81125,-0.136722,31,7
8.78626,-2.08994,2.41996,38,15
8.79425,-2.10482,0.15784,58,8
0.515477,-0.12347,-0.122373,15,1
7.42906,-1.78082,0.40037,7,9
0.660573,-0.158346,-0.13204,26,2
7.19171,-1.72525,0.647044,15,10
5.19191,-1.24647,-0.845685,3,3
9.88051,-2.37392,1.2477,5,11
7.38643,-1.77605,-0.932788,5,4
14.6942,-3.5359,2.39376,9,12
19.402,-4.66874,-1.7459,20,5
9.76485,-2.35155,1.95236,32,13
10.1802,-2.45344,-0.548795,28,6
8.84504,-2.13331,2.10059,48,14
7.6608,-1.8491,-0.13756,38,7
0.469322,-0.113975,-0.12941,15,0
8.86069,-2.15345,0.159166,27,8
0.515042,-0.125268,-0.122373,15,1
7.38981,-1.79871,0.398591,20,9
0.660016,-0.16065,-0.13204,26,2
7.18177,-1.7494,0.646696,35,10
5.21056,-1.2702,-0.849439,3,3
9.95894,-2.42957,1.25867,20,11
17.6839,-4.31741,-2.23508,9,4
19.3817,-4.73549,-1.74556,16,5
13.1722,-3.22077,2.63584,10,13
9.14914,-2.23878,-0.493633,17,6
8.8754,-2.17344,2.10959,13,14
7.82133,-1.91676,-0.140562,88,7
9.5501,-2.3422,2.63478,19,15
8.59684,-2.12113,0.154559,70,8
0.514602,-0.127065,-0.122373,15,1
7.40093,-1.8288,0.399533,57,9
0.657545,-0.162482,-0.131658,26,2
7.16014,-1.77063,0.645301,18,10
14.756,-3.65448,1.86655,57,11
9.80931,-2.43119,-1.24087,44,4
18.6187,-4.61802,3.03827,15,12
19.5352,-4.84533,-1.76089,8,5
13.1799,-3.27146,2.63965,8,13
9.13933,-2.27022,-0.493528,7,6
7.55262,-1.87888,-0.13585,53,7
9.0001,-2.24064,2.48518,9,15
8.4633,-2.11955,0.15229,71,8
0.514155,-0.128861,-0.122373,15,1
0.65507,-0.164299,-0.131277,27,2
7.18291,-1.80289,0.647916,7,10
5.32227,-1.33686,-0.86915,12,3
14.5064,-3.64645,1.83657,16,11
6.54376,-1.64854,-0.590393,10,5
13.0922,-3.29826,2.62439,15,13
10.0125,-2.52427,-0.541154,14,6
8.59547,-2.16861,2.0466,64,14
7.48397,-1.88957,-0.134733,22,7
9.06714,-2.29097,2.50589,10,15
8.65353,-2.19932,0.15585,21,8
0.513702,-0.130655,-0.122373,15,1
7.23508,-1.84151,0.391264,21,9
0.662073,-0.168637,-0.132803,26,2
8.81152,-2.24603,0.795558,35,10
5.27139,-1.34464,-0.861641,5,3
9.73868,-2.48417,1.23405,23,11
9.93251,-2.53546,-1.25867,6,4
14.0099,-3.57888,2.2902,14,12
9.21145,-2.35482,-0.831814,8,5
8.76442,-2.24217,1.7585,23,13
14.0606,-3.59969,-0.760651,19,6
8.58369,-2.19913,2.04571,48,14
7.44633,-1.90774,-0.134174,82,7
8.96489,-2.31347,0.161609,20,8
0.51322,-0.132537,-0.122373,15,1
7.25729,-1.87551,0.392834,57,9
0.642472,-0.166035,-0.128987,27,2
8.75154,-2.2633,0.790851,15,10
9.76987,-2.5303,1.23917,31,11
9.66181,-2.50411,-1.22552,5,4
8.4152,-2.18259,1.37694,10,12
10.7287,-2.78262,-0.969695,17,5
8.93137,-2.31813,1.7936,40,13
14.481,-3.76122,-0.784097,29,6
8.56653,-2.22663,2.04346,42,14
7.42187,-1.93049,-0.13386,82,7
0.512754,-0.134327,-0.122373,15,1
7.17148,-1.88007,0.388542,42,9
0.636192,-0.166783,-0.127842,28,2
7.20185,-1.88937,0.651402,15,10
6.80185,-1.7857,-1.11381,16,3
9.86081,-2.59061,1.25184,17,11
9.16921,-2.41063,-1.1641,42,4
8.10228,-2.13164,-0.73298,32,5
9.10738,-2.39777,1.83062,36,13
11.3795,-2.9981,-0.616727,10,6
8.38912,-2.2118,2.00296,48,14
7.4789,-1.97322,-0.135012,100,7
7.49125,-1.98907,0.135291,41,8
0.512282,-0.136116,-0.122373,15,1
7.37334,-1.96052,0.399847,33,9
0.652682,-0.173543,-0.131277,27,2
7.18366,-1.91142,0.650356,15,10
6.9731,-1.8567,-1.14291,36,3
8.98853,-2.39502,1.14216,2,11
9.18568,-2.44927,-1.16726,41,4
8.43602,-2.25096,1.38288,11,12
8.00431,-2.13577,-0.724787,28,5
8.1847,-2.18543,1.64668,69,13
9.09211,-2.42942,-0.493214,38,6
8.4077,-2.24812,2.00926,15,14
7.47196,-1.99931,-0.135012,90,7
14.6994,-3.93593,4.07744,21,15
8.93438,-2.40566,0.161505,65,8
0.534384,-0.143988,-0.127772,14,1
7.19868,-1.941,0.39074,49,9
0.663445,-0.178887,-0.133566,26,2
7.19041,-1.94012,0.651576,16,10
7.09625,-1.91604,-1.16419,10,3
9.04719,-2.44451,1.15069,47,11
9.82094,-2.65541,-1.24916,46,4
8.4262,-2.27988,1.38257,21,12
7.99104,-2.16213,-0.724264,17,5
8.57876,-2.32276,1.72758,48,13
9.08743,-2.46219,-0.493423,35,6
7.41862,-2.01281,-0.134174,67,7
14.6725,-3.98368,4.07381,14,15
0.513199,-0.140203,-0.122823,15,1
7.25158,-1.98245,0.393985,40,9
0.659029,-0.180166,-0.132803,26,2
7.18936,-1.96679,0.652099,22,10
5.27761,-1.44478,-0.866647,13,3
9.38322,-2.57048,1.19456,33,11
10.3036,-2.82455,-1.3118,19,4
8.39153,-2.30196,1.37819,46,12
9.80878,-2.69074,-0.88986,31,5
8.54788,-2.34646,1.72301,11,13
9.98011,-2.74148,-0.54241,28,6
8.92733,-2.45397,2.13749,42,14
7.98997,-2.19781,-0.144646,32,7
9.73197,-2.67881,2.70466,27,15
0.558585,-0.15449,-0.155291,12,0
8.07709,-2.23542,0.146286,20,8
0.512707,-0.141993,-0.122823,15,1
7.20805,-1.99761,0.391996,75,9
0.658396,-0.182466,-0.132803,26,2
7.16709,-1.98761,0.650705,26,10
9.20314,-2.55399,-1.51272,11,3
9.28812,-2.57932,1.1836,30,11
8.30541,-2.30954,1.36536,12,12
9.2177,-2.56323,-0.837044,8,5
9.83194,-2.73773,-0.534873,38,6
9.05387,-2.52278,2.16988,24,14
7.33504,-2.04522,-0.132918,81,7
14.261,-3.97906,3.96718,6,15
8.08849,-2.269,0.146635,27,8
0.512208,-0.143782,-0.122823,15,1
7.27987,-2.04491,0.396288,55,9
0.635074,-0.178392,-0.128224,28,2
7.53029,-2.11667,0.684347,16,10
9.27023,-2.60749,-1.52524,6,3
9.24658,-2.60258,1.17945,24,11
10.4938,-2.95562,-1.33861,28,4
6.84195,-1.92963,-0.621943,12,5
8.57664,-2.41886,1.73216,26,13
11.1467,-3.1458,-0.606992,13,6
8.55553,-2.41613,2.05245,13,14
14.5018,-4.09812,-0.263043,8,7
8.95458,-2.5322,2.49346,35,15
0.511703,-0.145569,-0.122823,15,1
0.641969,-0.18287,-0.12975,27,2
7.76391,-2.21307,0.70631,15,10
6.68854,-1.9078,-1.10161,30,3
9.53332,-2.71924,1.21723,54,11
8.5778,-2.44992,1.41292,45,12
9.23936,-2.64062,-0.840704,17,5
8.54884,-2.44488,1.72835,45,13
15.396,-4.406,-0.83926,16,6
13.056,-3.73881,3.13537,55,14
8.00112,-2.29126,-0.145274,8,7
14.2812,-4.09236,3.98064,11,15
7.43413,-2.14294,0.135047,39,8
0.511166,-0.147444,-0.122823,15,1
0.656416,-0.189465,-0.132803,26,2
7.83653,-2.26338,0.713631,37,10
6.73307,-1.94595,-1.11006,12,3
6.62473,-1.91589,0.846748,9,11
8.61473,-2.49303,1.42043,17,12
9.28175,-2.68782,-0.845411,19,5
8.51763,-2.46815,1.72377,36,13
15.3652,-4.45527,-0.838422,16,6
12.9437,-3.75558,3.11152,25,14
8.04877,-2.33534,-0.146286,40,7
14.3725,-4.17289,4.01014,12,15
7.48265,-2.18383,0.136059,60,8
0.510674,-0.149138,-0.122823,15,1
7.96354,-2.32719,0.434807,43,9
0.651982,-0.190653,-0.13204,26,2
7.69664,-2.25211,0.701604,20,10
6.68487,-1.95606,-1.10318,45,3
6.89649,-2.01929,0.882334,11,11
10.113,-2.9649,1.66916,41,12
6.78313,-1.98995,-0.618457,10,5
8.70532,-2.55386,1.76346,27,13
8.96296,-2.63115,-0.489551,28,6
12.7236,-3.73752,3.06158,23,14
14.554,-4.27795,-0.264788,24,7
14.4765,-4.25792,4.04327,6,15
7.74537,-2.28987,0.140981,38,8
0.510151,-0.15092,-0.122823,15,1
7.80599,-2.31076,0.426643,27,9
0.640018,-0.189582,-0.12975,27,2
7.59743,-2.25046,0.693237,18,10
6.69126,-1.98331,-1.10537,47,3
6.65531,-1.97392,0.852354,19,11
9.56092,-2.83752,-1.22454,1,4
12.0549,-3.57998,1.99172,14,12
10.5806,-3.14415,-0.965686,22,5
8.74106,-2.59918,1.77262,14,13
14.2846,-4.25029,-0.781062,6,6
13.1382,-3.90918,3.16461,24,14
8.03036,-2.3909,-0.146251,16,7
8.56636,-2.56677,0.156094,60,8
0.509594,-0.152789,-0.122823,15,1
7.9639,-2.38928,0.435749,120,9
0.639319,-0.191927,-0.12975,27,2
7.54906,-2.26626,0.689576,41,10
6.6726,-2.00441,-1.10349,16,3
6.63282,-1.99373,0.850404,19,11
9.46492,-2.84682,-1.21358,45,4
12.036,-3.62243,1.99079,25,12
6.68096,-2.01201,-0.610439,3,5
9.87249,-2.97504,2.00426,25,13
14.4697,-4.36316,-0.792052,19,6
12.6555,-3.81609,3.05169,38,14
7.049,-2.12688,-0.12852,7,7
9.32837,-2.8164,2.61097,0,15
0.462154,-0.140237,-0.12941,15,0
8.56263,-2.59989,0.156199,11,8
0.509031,-0.154655,-0.122823,15,1
7.49074,-2.27729,0.410314,33,9
0.638611,-0.194269,-0.12975,27,2
7.48161,-2.27594,0.684173,33,10
6.31938,-1.92359,-1.04623,6,3
6.61218,-2.01398,0.848698,16,11
9.28162,-2.82882,-1.19139,45,4
12.0132,-3.66364,1.98922,28,12
6.73833,-2.05626,-0.616365,5,5
14.152,-4.3213,2.87625,9,13
6.44846,-1.97026,-0.353372,16,6
13.1092,-4.00538,3.16461,49,14
6.94554,-2.12346,-0.126774,6,7
9.34385,-2.85848,2.61821,11,15
0.50846,-0.15652,-0.122823,15,1
7.65222,-2.35706,0.41963,44,9
0.641648,-0.197764,-0.130513,27,2
7.52844,-2.32036,0.689228,22,10
6.26321,-1.9316,-1.0381,47,3
6.59148,-2.0341,0.846992,49,11
9.3243,-2.87922,-1.19822,9,4
9.32724,-2.88191,1.5462,7,12
8.92167,-2.75831,-0.816998,16,5
8.91452,-2.7578,1.81383,26,13
6.4412,-1.99388,-0.353372,33,6
13.141,-4.06781,3.17586,27,14
7.03322,-2.17849,-0.12852,7,7
9.32593,-2.89042,2.61614,17,15
0.507966,-0.158117,-0.122823,15,1
0.644807,-0.200835,-0.131277,27,2
7.45834,-2.32444,0.683475,28,10
6.27408,-1.95656,-1.04092,47,3
6.61158,-2.06308,0.850404,21,11
9.41374,-2.93927,-1.21089,13,4
6.7508,-2.1104,-0.618806,6,5
9.33353,-2.9178,1.90084,18,13
9.1325,-2.8567,-0.501483,38,6
8.82089,-2.76092,2.13389,20,14
6.88894,-2.15754,-0.126006,41,7
9.33339,-2.92491,2.6208,7,15
6.68909,-2.10649,0.122411,8,8
0.53715,-0.16926,-0.130022,14,1
6.60401,-2.08224,0.362898,15,9
0.644066,-0.203197,-0.131277,27,2
7.57137,-2.39015,0.694631,20,10
8.82297,-2.78695,-1.46548,13,3
7.07378,-2.23443,0.910852,27,11
9.30689,-2.9416,-1.19846,34,4
13.6285,-4.31013,2.26392,15,12
6.36538,-2.01433,-0.584118,2,5
14.3538,-4.54503,2.92663,7,13
7.87295,-2.49442,-0.432818,29,6
8.80142,-2.79028,2.13164,41,14
6.7689,-2.14592,-0.123947,33,7
8.77126,-2.79758,0.160702,10,8
0.506822,-0.161747,-0.122823,15,1
6.62107,-2.11433,0.364258,4,9
0.624651,-0.199472,-0.12746,28,2
6.95566,-2.22251,0.638852,15,10
8.7906,-2.81051,-1.46172,38,3
6.92752,-2.21618,0.893059,26,11
9.24122,-2.95814,-1.19139,45,4
5.89154,-1.88703,-0.541237,31,5
10.4717,-3.35805,-0.576324,16,6
6.70959,-2.15421,-0.123005,66,7
8.92414,-2.86695,2.51158,7,15
6.78612,-2.19055,0.124471,12,8
0.506254,-0.163516,-0.122823,15,1
6.46161,-2.08829,0.355885,3,9
0.633292,-0.20467,-0.129368,27,2
6.67108,-2.15727,0.613402,84,10
8.80329,-2.84848,-1.46548,18,3
6.41927,-2.07832,0.828468,95,11
9.23462,-2.9916,-1.19188,39,4
6.86443,-2.22509,1.14291,27,12
5.95315,-1.9297,-0.547512,32,5
7.30559,-2.3695,1.49289,6,13
6.36597,-2.06597,-0.350756,30,6
6.76669,-2.19863,-0.124191,66,7
6.63017,-2.16579,0.121748,41,8
0.524203,-0.171336,-0.127322,15,1
0.656831,-0.214812,-0.13433,25,2
6.52717,-2.13593,0.600852,22,10
6.46168,-2.11575,-1.07689,20,3
6.50441,-2.131,0.840411,35,11
6.25316,-2.04989,-0.807994,30,4
7.23014,-2.37156,1.20517,56,12
5.93123,-1.9455,-0.546118,31,5
9.66815,-3.17312,1.97793,44,13
6.19363,-2.03397,-0.341649,23,6
8.8754,-2.91637,2.15683,30,14
6.70388,-2.20412,-0.123179,26,7
9.19018,-3.02336,2.59233,17,15
8.20416,-2.71168,0.150824,10,8
0.5051,-0.167046,-0.122823,15,1
6.6308,-2.19421,0.366038,18,9
0.644894,-0.213403,-0.13204,26,2
6.47429,-2.14367,0.596668,15,10
6.46364,-2.1414,-1.07846,13,3
6.66652,-2.2099,0.862348,19,11
6.23466,-2.06795,-0.806531,12,4
6.95747,-2.30905,1.16106,54,12
5.89415,-1.95615,-0.543329,13,5
9.68124,-3.21489,1.98289,30,13
6.13721,-2.0392,-0.338928,32,6
8.82818,-2.93503,2.14783,24,14
9.48732,-3.15601,-0.174524,8,7
13.8225,-4.60082,3.90351,12,15
6.26214,-2.09407,0.115256,26,8
0.504514,-0.168808,-0.122823,15,1
6.63636,-2.22178,0.36677,18,9
0.640422,-0.214406,-0.131277,27,2
6.49132,-2.17449,0.598934,43,10
6.52729,-2.1878,-1.09035,13,3
6.66629,-2.23569,0.863322,26,11
6.21047,-2.08402,-0.804338,11,4
6.93438,-2.32829,1.15855,42,12
6.60691,-2.21834,-0.609742,12,5
6.13384,-2.06188,-0.339137,42,6
9.03398,-3.03852,2.20047,28,14
6.68644,-2.25023,-0.123144,6,7
9.11942,-3.07079,2.57836,7,15
7.48416,-2.53179,0.137909,46,8
0.503922,-0.170568,-0.122823,15,1
0.621075,-0.210343,-0.12746,28,2
6.47992,-2.19585,0.598586,52,10
8.87304,-3.00854,-1.48394,12,3
6.66033,-2.25958,0.863566,42,11
12.2804,-4.16862,-1.59234,22,4
6.92621,-2.35248,1.15855,68,12
6.48027,-2.20102,-0.59876,36,5
7.69933,-2.61657,1.58066,14,13
6.14552,-2.08971,-0.340184,22,6
8.76504,-2.98216,2.13749,33,14
6.69936,-2.28065,-0.123528,26,7
9.08487,-3.09451,2.57163,10,15
7.74961,-2.65177,0.14297,31,8
0.481199,-0.164751,-0.117424,16,1
6.51865,-2.23311,0.361118,33,9
0.646339,-0.221417,-0.132803,26,2
6.47975,-2.22104,0.599283,58,10
6.5455,-2.24485,-1.09598,28,3
6.84204,-2.34789,0.888184,26,11
10.5797,-3.63257,-1.37347,16,4
7.34391,-2.52298,1.22989,27,12
6.36665,-2.18848,-0.588998,30,5
7.64931,-2.62939,1.57227,41,13
6.11174,-2.10206,-0.338718,42,6
9.27237,-3.19092,2.26391,32,14
10.1987,-3.51169,-0.188277,27,7
9.16351,-3.15704,2.59699,7,15
5.85248,-2.02546,0.1081,13,8
0.480621,-0.16643,-0.117424,16,1
6.65236,-2.30489,0.368969,21,9
0.634393,-0.219926,-0.130513,27,2
8.76731,-3.04281,-1.46986,10,3
6.59751,-2.28975,0.857473,52,11
10.507,-3.64864,-1.36567,13,4
7.52352,-2.61408,1.26149,35,12
6.36273,-2.212,-0.589347,25,5
7.31141,-2.54324,1.50472,15,13
5.8833,-2.04763,-0.326472,26,6
5.78626,-2.01499,-0.106948,5,7
9.15426,-3.18964,2.59751,8,15
0.502077,-0.175923,-0.122823,15,1
0.622505,-0.218242,-0.128224,28,2
6.52386,-2.28846,0.604861,78,10
8.83678,-3.10152,-1.48331,13,3
6.72954,-2.36325,0.875753,26,11
12.3832,-4.35111,-1.6116,39,4
6.92873,-2.43591,1.16325,42,12
6.35497,-2.2342,-0.589347,30,5
7.30064,-2.5681,1.50434,13,13
6.08524,-2.14176,-0.33809,16,6
8.70706,-3.06624,2.13119,46,14
8.16656,-2.8775,-0.151138,8,7
9.19899,-3.24308,2.61355,10,15
6.06403,-2.14739,0.112289,56,8
0.479418,-0.169865,-0.117424,16,1
7.92707,-2.81024,0.440773,33,9
0.629141,-0.223038,-0.12975,27,2
6.44823,-2.28724,0.598586,73,10
6.48399,-2.3012,-1.08972,51,3
6.78298,-2.40864,0.883797,26,11
10.4825,-3.7244,-1.36591,15,4
7.03744,-2.50177,1.18296,18,12
6.45226,-2.29374,-0.599109,11,5
7.33047,-2.60738,1.51235,19,13
6.09278,-2.16834,-0.338928,42,6
8.77341,-3.12407,2.15008,15,14
5.68316,-2.0248,-0.105308,56,7
14.7504,-5.25818,4.19597,15,15
6.08286,-2.17798,0.112777,44,8
0.478822,-0.171537,-0.117424,16,1
6.58232,-2.3594,0.366456,15,9
0.622815,-0.223245,-0.128605,28,2
6.50585,-2.33327,0.604686,60,10
6.51125,-2.33649,-1.09567,11,3
6.76332,-2.42828,0.882334,26,11
10.7011,-3.84419,-1.39614,8,4
6.9097,-2.48356,1.16293,5,12
6.35945,-2.28703,-0.591265,6,5
7.1994,-2.5891,1.48717,7,13
5.99685,-2.15782,-0.334008,32,6
5.71744,-2.05953,-0.106076,56,7
5.77437,-2.09029,0.107193,74,8
0.481885,-0.174535,-0.118324,16,1
6.544,-2.37148,0.364782,16,9
0.621992,-0.225527,-0.128605,28,2
6.60775,-2.39719,0.614971,18,10
6.47664,-2.35091,-1.09129,26,3
6.81265,-2.47287,0.88989,28,11
10.7156,-3.89168,-1.39979,35,4
8.68078,-3.15611,-0.808108,13,5
9.25438,-3.36649,1.9142,24,13
6.03207,-2.19549,-0.336416,26,6
8.72886,-3.17877,2.14468,40,14
5.74404,-2.0918,-0.106704,42,7
5.8399,-2.13826,0.108554,45,8
0.514179,-0.188366,-0.126422,15,1
6.53714,-2.39613,0.364886,22,9
0.626731,-0.229723,-0.12975,27,2
6.62553,-2.42985,0.617411,20,10
9.71558,-3.56501,-1.63912,13,3
6.76814,-2.48483,0.885259,40,11
10.7199,-3.93777,-1.40223,31,4
6.69706,-2.46139,1.13008,33,12
6.31714,-2.32175,-0.588824,5,5
6.79742,-2.49962,1.40779,8,13
5.9119,-2.17516,-0.330135,13,6
8.73051,-3.21393,2.14783,33,14
5.73634,-2.11283,-0.106704,57,7
8.55766,-3.15369,2.44377,25,15
5.8324,-2.15863,0.108554,61,8
0.498898,-0.184746,-0.122823,15,1
7.79665,-2.88871,0.435749,6,9
0.625926,-0.23191,-0.12975,27,2
6.46943,-2.39825,0.603641,50,10
6.70359,-2.48772,0.877947,40,11
10.8345,-4.02285,-1.41905,19,4
6.12551,-2.27562,1.03497,63,12
6.27725,-2.33199,-0.585861,22,5
6.84754,-2.54522,1.42,9,13
6.14014,-2.2835,-0.343324,27,6
8.61696,-3.20633,2.12264,16,14
5.77015,-2.14819,-0.107472,42,7
14.6257,-5.44797,4.182,12,15
5.84544,-2.18668,0.108938,52,8
0.49825,-0.186486,-0.122823,15,1
6.41738,-2.40319,0.359129,23,9
0.614081,-0.229962,-0.12746,28,2
8.22921,-3.08496,-1.39195,22,3
6.73761,-2.52714,0.883553,28,11
11.0694,-4.1541,-1.45171,15,4
6.16746,-2.31574,1.04342,34,12
6.93602,-2.6057,1.44023,6,13
6.05174,-2.2747,-0.338823,35,6
8.59477,-3.23227,2.11994,17,14
5.93481,-2.23311,-0.110683,44,7
14.5506,-5.47789,4.16595,15,15
5.85273,-2.21273,0.109217,60,8
0.472079,-0.178572,-0.116525,16,1
6.43323,-2.43477,0.36049,36,9
0.609602,-0.230714,-0.126697,28,2
6.10968,-2.31353,0.571567,7,10
8.21654,-3.11297,-1.39164,21,3
6.77887,-2.56964,0.890134,33,11
10.6428,-4.03644,-1.3976,27,4
6.5361,-2.48022,1.10724,37,12
6.27199,-2.38,-0.586907,25,5
7.56561,-2.8724,1.57303,24,13
5.86266,-2.22702,-0.32867,35,6
8.60529,-3.27056,2.12534,13,14
5.88959,-2.2396,-0.109985,44,7
14.4627,-5.50255,4.14628,18,15
5.7908,-2.21245,0.108205,57,8
0.475093,-0.18161,-0.117424,16,1
6.44522,-2.46506,0.361641,15,9
0.634465,-0.242659,-0.13204,26,2
7.44321,-2.84824,0.697246,16,10
8.19456,-3.13739,-1.38976,45,3
6.60673,-2.53079,0.868685,26,11
10.6138,-4.06788,-1.39565,15,4
6.24521,-2.39481,1.05937,54,12
6.28369,-2.41082,-0.588824,10,5
6.97265,-2.67515,1.45167,21,13
5.87536,-2.25534,-0.329821,35,6
9.28875,-3.56748,2.2972,39,14
5.92654,-2.27736,-0.110823,50,7
14.4885,-5.57033,4.15922,21,15
5.7476,-2.21897,0.107542,60,8
0.47082,-0.181863,-0.116525,16,1
0.626247,-0.242151,-0.130513,27,2
6.11713,-2.36654,0.573833,7,10
6.59785,-2.55384,0.868685,33,11
10.3607,-4.01243,-1.36421,15,4
6.0784,-2.35522,1.03247,87,12
7.77067,-3.01248,-0.729145,7,5
6.74681,-2.61692,1.40664,9,13
5.8354,-2.26458,-0.328042,19,6
14.7145,-5.71331,3.64421,16,14
5.92974,-2.30238,-0.111032,28,7
14.5302,-5.64465,4.17682,18,15
5.77109,-2.25238,0.108135,64,8
0.459259,-0.179335,-0.113825,16,1
6.73809,-2.63249,0.379122,3,9
0.62174,-0.242907,-0.12975,27,2
6.08842,-2.3799,0.571916,33,10
7.4213,-2.9024,-1.26211,45,3
6.48862,-2.53895,0.855523,28,11
7.42906,-2.90843,-0.979586,35,4
6.56818,-2.57272,1.11726,45,12
7.43865,-2.91518,-0.698989,11,5
6.9972,-2.74217,1.46083,19,13
6.20121,-2.43148,-0.349081,37,6
18.1577,-7.12324,4.50307,3,14
5.88403,-2.30948,-0.110334,44,7
14.5256,-5.70423,4.18148,12,15
5.77436,-2.27691,0.108345,63,8
0.476758,-0.188088,-0.118324,16,1
6.71957,-2.65233,0.378598,7,9
0.598934,-0.23653,-0.125171,29,2
6.43358,-2.54204,0.605209,9,10
7.12404,-2.81629,-1.21331,6,3
6.45203,-2.55063,0.851867,47,11
7.67545,-3.03583,-1.01347,19,4
6.6859,-2.64579,1.13884,33,12
12.2967,-4.86862,-1.15708,11,5
7.17693,-2.843,1.50052,16,13
6.22382,-2.4667,-0.35086,33,6
18.2456,-7.235,4.53141,10,14
5.87779,-2.33074,-0.110369,38,7
14.4984,-5.75205,4.17941,11,15
5.79941,-2.31138,0.108973,64,8
0.492357,-0.196331,-0.122373,15,1
0.619986,-0.247349,-0.12975,27,2
6.45554,-2.57942,0.853573,38,11
7.73431,-3.09194,-1.02273,15,4
6.09841,-2.43919,1.04029,74,12
7.41205,-2.96611,-0.698466,10,5
7.40938,-2.96504,1.55128,13,13
5.74792,-2.30133,-0.324483,13,6
23.4826,-9.40664,5.84018,7,14
5.80796,-2.32772,-0.109217,43,7
17.7137,-7.10293,5.11375,16,15
5.74679,-2.31369,0.108135,57,8
0.491668,-0.198048,-0.122373,15,1
7.53773,-3.03779,0.42591,55,9
0.615434,-0.248152,-0.128987,27,2
6.01981,-2.4285,0.567907,16,10
6.18695,-2.49718,0.819206,28,11
13.6836,-5.52575,-1.81195,22,4
6.43969,-2.6018,1.10005,30,12
7.59376,-3.06962,-0.716594,13,5
6.34487,-2.56736,-0.358711,37,6
17.5539,-7.1065,4.37215,15,14
5.79053,-2.34423,-0.109043,48,7
16.7721,-6.79339,4.84872,3,15
5.828,-2.36888,0.109811,63,8
0.512671,-0.208487,-0.127772,14,1
7.77182,-3.16213,0.439727,15,9
0.625562,-0.254523,-0.131277,27,2
6.0749,-2.47294,0.573833,28,10
7.3892,-3.00946,-1.26368,53,3
6.40842,-2.61132,0.849673,57,11
13.9097,-5.67076,-1.84437,8,4
6.45114,-2.63135,1.10349,49,12
12.2635,-5.00465,-1.15882,11,5
6.48381,-2.64599,1.36123,14,13
6.28869,-2.56765,-0.355989,30,6
5.82345,-2.38006,-0.109811,33,7
16.7959,-6.86798,4.86217,12,15
5.85485,-2.40364,0.110474,61,8
0.490309,-0.20139,-0.122373,15,1
6.17386,-2.53712,0.349814,36,9
0.617362,-0.253828,-0.12975,27,2
6.06211,-2.49367,0.573485,33,10
7.07306,-2.91097,-1.21143,10,3
6.44883,-2.65407,0.856254,26,11
7.37717,-3.03764,-0.979586,35,4
6.7652,-2.78703,1.15887,46,12
7.50269,-3.09239,-0.709971,7,5
7.07664,-2.91823,1.48793,8,13
6.20723,-2.56097,-0.351907,20,6
5.77259,-2.38283,-0.109008,32,7
15.6898,-6.47969,4.54849,4,15
5.8109,-2.41052,0.109811,63,8
0.489567,-0.203186,-0.122373,15,1
9.09183,-3.77526,0.515928,39,9
0.605594,-0.251464,-0.12746,28,2
6.00001,-2.49265,0.56843,18,10
7.61738,-3.16613,-1.30654,37,3
6.31076,-2.62433,0.839192,19,11
7.51627,-3.12718,-0.999572,6,4
6.47409,-2.6949,1.11068,40,12
7.39383,-3.07927,-0.700732,13,5
6.27938,-2.61642,-0.356513,20,6
15.6703,-6.53255,3.91955,10,14
5.76935,-2.40628,-0.109112,16,7
15.6321,-6.52302,4.53865,17,15
5.94447,-2.49028,0.112498,61,8
0.488855,-0.204894,-0.122373,15,1
7.44854,-3.12343,0.423293,38,9
0.604668,-0.253682,-0.12746,28,2
5.96511,-2.50383,0.565989,7,10
11.4377,-4.80328,-1.96482,23,3
6.14233,-2.57947,0.817987,26,11
7.29851,-3.06651,-0.97203,10,4
6.42458,-2.70065,1.1038,30,12
10.0277,-4.21732,-0.951741,10,5
10.6349,-4.47489,2.24277,23,13
6.27343,-2.64097,-0.356722,16,6
6.5085,-2.74127,1.63045,27,14
5.79962,-2.4427,-0.109845,27,7
15.5896,-6.5693,4.53296,16,15
5.90952,-2.50114,0.11201,30,8
0.509635,-0.215802,-0.127772,14,1
10.2423,-4.33706,0.582918,13,9
0.614625,-0.260387,-0.12975,27,2
5.95817,-2.52541,0.566164,31,10
11.5336,-4.89099,-1.98422,6,3
6.12735,-2.59964,0.817256,21,11
7.68009,-3.26,-1.02443,27,4
7.71692,-3.27723,-0.733503,2,5
6.56995,-2.79149,1.38756,22,13
6.23108,-2.64879,-0.354838,30,6
5.7745,-2.45589,-0.109531,49,7
15.5915,-6.63426,4.5402,12,15
5.92326,-2.53015,0.112428,52,8
0.487413,-0.208302,-0.122373,15,1
0.610102,-0.260986,-0.128987,27,2
5.89437,-2.52268,0.560934,54,10
11.3884,-4.87403,-1.962,15,3
6.12234,-2.62151,0.817743,66,11
12.7802,-5.47497,-1.70715,16,4
7.38864,-3.1683,-0.703347,13,5
6.58953,-2.82564,1.39367,14,13
6.1984,-2.6592,-0.353477,27,6
6.61146,-2.83778,1.66104,9,14
5.75303,-2.47051,-0.109287,22,7
16.9989,-7.30329,4.95742,3,15
5.92174,-2.55398,0.112568,60,8
0.486683,-0.210002,-0.122373,15,1
0.598373,-0.258443,-0.126697,28,2
7.18982,-3.10684,-1.24053,58,3
6.09311,-2.6342,0.815062,59,11
12.7355,-5.50852,-1.70373,10,4
6.04968,-2.61793,1.04404,35,12
7.71213,-3.33894,-0.735246,1,5
6.32511,-2.73974,1.33986,7,13
6.13181,-2.65728,-0.350232,20,6
6.54966,-2.83837,1.64799,13,14
5.7939,-2.51205,-0.110229,16,7
17.2887,-7.49943,5.04956,6,15
5.86651,-2.5557,0.111695,75,8
0.468046,-0.203998,-0.117874,16,1
7.44941,-3.24838,0.42591,28,9
0.611818,-0.266915,-0.12975,27,2
6.04462,-2.63706,0.576971,1,10
7.05165,-3.07786,-1.21862,52,3
6.18893,-2.70259,0.829199,28,11
7.02705,-3.07004,-0.941563,13,4
5.91697,-2.58629,1.02277,25,12
6.96053,-3.04387,-0.66465,15,5
6.30244,-2.7574,1.33719,12,13
6.13666,-2.68615,-0.35107,37,6
6.58206,-2.88111,1.65879,15,14
5.8506,-2.56215,-0.111486,5,7
17.3425,-7.59841,5.07337,13,15
5.84978,-2.57397,0.111556,71,8
0.48513,-0.213564,-0.122373,15,1
7.502,-3.30252,0.429574,26,9
0.596509,-0.262719,-0.126697,28,2
6.97023,-3.07133,0.666393,7,10
7.02948,-3.09891,-1.21675,23,3
6.30249,-2.77973,0.845773,45,11
7.05025,-3.111,-0.946194,50,4
6.98814,-3.08505,-0.66831,10,5
7.07039,-3.12284,1.50243,16,13
6.16744,-2.72531,-0.353372,33,6
6.55007,-2.89576,1.65339,29,14
6.91704,-3.05799,-0.13201,14,7
19.618,-8.67711,5.74785,10,15
5.89421,-2.61688,0.112568,30,8
0.505791,-0.224664,-0.127772,14,1
7.30609,-3.24677,0.419002,58,9
0.599176,-0.266394,-0.12746,28,2
6.96857,-3.09969,0.667264,26,10
8.8439,-3.93386,-1.53306,30,3
6.12457,-2.72555,0.823106,64,11
12.765,-5.68336,-1.71568,16,4
6.85152,-3.05193,1.18796,26,12
7.12655,-3.17593,-0.682604,23,5
6.7139,-2.99203,1.42878,13,13
6.14195,-2.73843,-0.35243,37,6
6.68103,-2.98018,1.68893,20,14
6.05901,-2.70398,-0.115814,12,7
19.8045,-8.84241,5.81152,10,15
5.37409,-2.40845,0.102795,64,8
0.46944,-0.210482,-0.118774,16,1
7.57717,-3.39896,0.435226,33,9
0.605454,-0.271594,-0.128987,27,2
6.93281,-3.11136,0.664824,13,10
8.70757,-3.90968,-1.51178,26,3
6.37758,-2.86486,0.858448,19,11
6.98546,-3.13939,-0.940344,3,4
7.19935,-3.23703,1.25022,35,12
6.16696,-2.77542,-0.354419,20,6
6.6155,-2.97868,1.67499,12,14
7.76156,-3.49633,-0.14859,65,7
19.4002,-8.74321,5.70178,15,15
5.49684,-2.48654,0.105308,44,8
