x, y, z, intensity, ring
-3.46962,12.4268,0.225206,41,8
-0.164974,0.591269,-0.141719,13,1
-2.89991,10.4073,-2.10004,40,2
-3.27406,11.7581,1.06783,45,10
-3.32877,11.9545,-1.96544,33,3
-3.301,11.8628,1.51191,49,11
-4.27663,15.3897,2.52986,15,12
-2.86508,10.3172,2.08134,42,13
-4.10121,14.7784,-0.803776,68,6
-2.83303,10.2156,2.44747,17,14
-4.70079,16.962,-0.307232,27,7
-2.91632,10.5302,2.92776,25,15
-3.39913,12.3405,0.223426,15,8
-0.172218,0.625661,-0.149817,12,1
-3.11789,11.3349,0.616099,26,9
-2.82164,10.2579,-2.06799,47,2
-3.23294,11.7612,1.06713,11,10
-3.27551,11.9242,-1.95856,97,3
-3.27796,11.9413,1.52044,28,11
-3.52533,12.8512,-1.63622,56,4
-4.10176,14.9627,-1.35736,21,5
-2.8721,10.4843,2.11302,42,13
-4.04959,14.7927,-0.803776,58,6
-2.77936,10.1596,2.43172,57,14
-2.8826,10.5515,2.93087,48,15
-3.36023,12.3677,0.223705,23,8
-0.171055,0.63002,-0.150717,11,1
-3.0328,11.178,0.606992,69,9
-2.81358,10.37,-2.0886,38,2
-3.20698,11.8281,1.07219,24,10
-3.21888,11.8802,-1.94949,61,3
-3.21084,11.8587,1.5085,63,11
-3.20358,11.8401,-1.50606,34,4
-2.85742,10.5681,1.73392,11,12
-3.96474,14.6634,-1.32895,13,5
-2.74178,10.1474,2.04318,26,13
-3.98439,14.7566,-0.801054,29,6
-2.73322,10.1298,2.42227,89,14
-4.25221,15.7703,-0.285103,27,7
-2.87892,10.6846,2.96503,7,15
-0.162806,0.608024,-0.145318,12,1
-3.01028,11.2502,0.610342,61,9
-2.67688,10.0042,-2.01304,35,2
-3.17082,11.8585,1.07393,24,10
-3.20493,11.9944,-1.96638,37,3
-3.14382,11.774,1.49631,77,11
-3.18885,11.951,-1.51874,34,4
-2.79863,10.4959,1.72047,44,12
-3.89505,14.6079,-1.32268,23,5
-2.73363,10.2593,2.06379,43,13
-4.15486,15.6042,-0.846272,78,6
-2.84666,10.6985,2.55589,22,14
-4.16887,15.6788,-0.283183,100,7
-2.84657,10.7132,2.97021,11,15
-3.2595,12.3367,0.222728,50,8
-0.158693,0.601052,-0.143519,12,1
-2.84464,10.7817,0.584383,19,9
-2.66448,10.0989,-2.03021,26,2
-3.12738,11.8618,1.07324,27,10
-3.32359,12.6149,-2.06619,77,3
-3.15426,11.9807,1.52117,31,11
-3.15469,11.9908,-1.52239,15,4
-2.81672,10.7138,1.75457,14,12
-5.76099,21.9128,-1.98227,15,5
-2.73223,10.3998,2.09012,24,13
-4.04306,15.4003,-0.834445,13,6
-3.27662,12.4897,2.98105,36,14
-4.33673,16.5424,-0.298506,100,7
-3.06863,11.7136,3.24456,12,15
-4.57738,17.5729,0.316971,24,8
-0.155612,0.59783,-0.142619,13,1
-2.54421,9.78136,-1.96457,14,2
-3.08545,11.8707,1.07306,49,10
-3.10324,11.9477,-1.95512,12,3
-3.09246,11.9148,1.51142,80,11
-3.09338,11.9268,-1.51289,37,4
-2.75092,10.6065,1.73548,5,12
-4.38331,16.9125,-1.52854,34,5
-2.74956,10.6165,2.13172,12,13
-4.32756,16.7214,-0.905203,43,6
-2.56698,9.92576,2.36694,21,14
-4.25331,16.4463,-0.296516,100,7
-4.14237,16.1218,0.290548,13,8
-0.168167,0.654968,-0.156116,11,1
-2.7826,10.8454,0.586791,41,9
-2.4886,9.70651,-1.94778,38,2
-3.04548,11.8872,1.07358,47,10
-3.05085,11.9082,-1.94698,41,3
-3.5832,14.0064,-1.77515,22,4
-5.93432,23.2304,-2.09766,17,5
-4.96467,19.4488,-1.05195,23,6
-2.50467,9.81903,2.33949,14,14
-4.18995,16.4378,-0.296098,30,7
-4.45571,17.5959,0.316831,13,8
-0.152495,0.602654,-0.143519,12,1
-2.73192,10.7964,0.583651,41,9
-3.32232,13.149,1.18654,30,10
-3.00056,11.8843,-1.94135,60,3
-3.00255,11.9009,1.50704,100,11
-3.35764,13.3181,-1.68643,49,4
-3.21336,12.7552,-1.1508,26,5
-2.55789,10.1609,2.0367,33,13
-4.23947,16.8531,-0.91075,54,6
-4.12615,16.4148,-0.295434,34,7
-2.8233,11.24,3.10531,32,15
-4.57415,18.3187,0.329571,32,8
-0.152383,0.610719,-0.145318,12,1
-4.57234,18.3386,0.99051,28,9
-2.43244,9.76323,-1.95579,23,2
-3.01985,12.13,1.09363,72,10
-2.95589,11.8731,-1.93791,51,3
-3.01818,12.1323,1.53507,17,11
-3.21337,12.9266,-1.63549,54,4
-2.65966,10.7071,1.74737,70,12
-3.16834,12.7644,-1.15063,23,5
-2.82168,11.3678,2.27673,30,13
-2.52966,10.2066,2.42767,42,14
-4.09719,16.5436,-0.297494,32,7
-2.66941,10.7866,2.97745,61,15
-4.51257,18.3442,0.329746,22,8
-0.153041,0.622602,-0.148018,12,1
-4.49544,18.3021,0.987684,30,9
-2.41176,9.8189,-1.96533,26,2
-2.76809,11.2867,-1.84061,30,3
-3.196,13.0413,1.64865,41,11
-3.1569,12.8914,-1.62964,33,4
-2.5894,10.582,1.72547,74,12
-3.12693,12.7787,-1.15098,26,5
-2.48075,10.1456,2.03021,4,13
-4.17443,17.0853,-0.921741,21,6
-2.51435,10.2987,2.44747,52,14
-4.03894,16.5559,-0.297459,100,7
-2.74248,11.2501,3.10272,44,15
-4.48429,18.5076,0.332399,20,8
-0.150867,0.623132,-0.148018,12,1
-4.55457,18.8263,1.01511,43,9
-2.37885,9.83299,-1.96648,19,2
-2.93441,12.1387,1.09258,49,10
-2.71616,11.2444,-1.83216,100,3
-2.91059,12.0585,1.52312,49,11
-2.55708,10.6102,1.7286,86,12
-3.63642,15.0887,-1.35789,13,5
-4.11196,17.0881,-0.921113,14,6
-2.35402,9.79011,2.32464,86,14
-4.02878,16.7682,-0.301019,100,7
-2.61164,10.8782,2.99764,14,15
-0.134606,0.563707,-0.155291,12,0
-4.44287,18.6204,0.334144,22,8
-0.148691,0.623655,-0.148018,12,1
-4.42124,18.5441,0.999093,9,9
-2.3345,9.79922,-1.95808,30,2
-4.12348,17.322,1.55782,81,10
-2.65495,11.1616,-1.81714,58,3
-4.09684,17.2368,2.17537,78,11
-2.86821,12.0769,-1.5241,13,4
-2.5374,10.6839,1.73924,65,12
-3.01925,12.7227,-1.14401,26,5
-2.40849,10.157,2.02906,39,13
-2.9858,12.6013,-0.678693,16,6
-2.4617,10.3975,2.46681,31,14
-3.9773,16.799,-0.301333,100,7
-2.27356,9.61035,2.64617,10,15
-0.132638,0.564174,-0.155291,12,0
-3.76922,16.0324,0.287476,13,8
-0.146622,0.624145,-0.148018,12,1
-3.68236,15.6875,0.844493,8,9
-2.29984,9.80539,-1.9577,14,2
-2.83959,12.1162,1.08875,85,10
-2.63504,11.2434,-1.82903,58,3
-3.01402,12.8705,1.62306,47,11
-2.83222,12.1037,-1.52629,37,4
-2.52122,10.7831,1.75394,104,12
-2.58159,11.0501,2.20575,75,13
-4.17263,17.8742,-0.961935,38,6
-2.41083,10.3354,2.45017,64,14
-3.85236,16.5284,-0.296237,100,7
-2.22993,9.57495,2.63426,8,15
-0.130766,0.56461,-0.155291,12,0
-3.67762,15.8915,0.284719,6,8
-0.141808,0.613261,-0.145318,12,1
-2.26245,9.79193,-1.9535,42,2
-2.65395,11.5047,-1.87002,40,3
-2.93474,12.732,1.60429,18,11
-2.77168,12.0342,-1.5163,43,4
-3.51837,15.2885,-1.37253,23,5
-2.55313,11.103,2.21453,47,13
-3.74115,16.2955,-0.291839,28,7
-0.128794,0.565063,-0.155291,12,0
-4.01862,17.6311,0.315644,93,8
-0.138043,0.606128,-0.143519,12,1
-4.22031,18.5458,0.996791,28,9
-4.48474,19.7396,1.771,15,10
-2.62717,11.5635,-1.87815,38,3
-4.2056,18.526,2.33258,25,11
-2.82617,12.4595,-1.5687,19,4
-3.41571,15.083,-1.35301,28,5
-2.60866,11.5193,2.29581,28,13
-3.82782,16.9165,-0.908971,20,6
-2.811,12.4329,2.94281,25,14
-4.31879,19.1173,-0.342102,79,7
-0.12692,0.565487,-0.155291,12,0
-0.139335,0.621818,-0.147118,12,1
-4.14725,18.5234,0.994802,23,9
-2.17558,9.71706,-1.93557,38,2
-4.46275,19.9488,1.78844,33,10
-2.64625,11.8386,-1.92133,72,3
-4.16124,18.6316,2.34404,10,11
-2.69359,12.0702,-1.51849,66,4
-2.73893,12.2835,1.99329,26,12
-3.35743,15.0573,-1.34969,18,5
-3.56575,16.0047,3.18727,11,13
-3.76962,16.9337,-0.90918,33,6
-3.67416,16.5321,-0.295609,100,7
-2.39547,10.7874,2.96089,36,15
-0.124945,0.565927,-0.155291,12,0
-4.10135,18.5921,0.332329,12,8
-0.137163,0.622301,-0.147118,12,1
-3.41933,15.5261,0.833189,4,9
-2.14461,9.73801,-1.93824,52,2
-4.1349,18.7909,1.68333,14,10
-2.43863,11.0915,-1.79868,16,3
-2.74385,12.4901,1.57016,87,11
-2.6208,11.94,-1.50094,42,4
-3.39192,15.4659,-1.38525,28,5
-2.82319,12.8834,2.56371,4,13
-3.71989,16.9897,-0.911483,27,6
-3.61472,16.537,-0.295469,33,7
-2.37346,10.8674,2.98056,11,15
-0.122969,0.56636,-0.155291,12,0
-3.45435,15.9231,0.284404,39,8
-0.132926,0.613253,-0.144868,25,1
-4.08411,18.842,1.0104,12,9
-2.09481,9.67253,-1.92374,54,2
-4.0638,18.7799,1.68106,28,10
-2.4024,11.1116,-1.80056,12,3
-2.74718,12.7169,1.59746,43,11
-2.58622,11.9719,-1.50387,45,4
-2.67443,12.3907,2.00768,30,12
-3.31901,15.39,-1.37741,10,5
-2.77778,12.8913,2.56333,27,13
-3.52604,16.3777,-0.877988,22,6
-0.113017,0.52898,-0.144939,14,0
-3.95007,18.5042,0.330269,20,8
-0.12886,0.604162,-0.142619,26,1
-4.36615,20.4708,1.09696,13,9
-2.06272,9.67942,-1.92374,28,2
-3.99404,18.7582,1.67792,59,10
-2.68271,12.6211,1.5843,39,11
-2.51184,11.8173,-1.48339,57,4
-2.61773,12.326,1.99579,52,12
-3.25225,15.3269,-1.37079,28,5
-2.73542,12.9024,2.56371,33,13
-3.47046,16.3835,-0.877674,39,6
-2.40968,11.3757,2.68457,16,14
-4.04116,19.0941,-0.340671,65,7
-2.3437,11.0833,3.03543,32,15
-0.108878,0.518009,-0.141833,14,0
-3.84636,18.3156,0.326674,46,8
-0.127656,0.6084,-0.143519,25,1
-3.97748,18.973,1.01595,4,9
-2.03504,9.70734,-1.92793,30,2
-3.9118,18.6758,1.66938,56,10
-2.33756,11.1698,-1.80744,20,3
-3.86537,18.4864,2.31893,25,11
-2.47098,11.8279,-1.48364,40,4
-2.49881,11.9716,1.93697,74,12
-2.4869,11.9249,-1.06574,11,5
-3.29183,15.7846,3.13423,15,13
-3.4092,16.3617,-0.875895,61,6
-3.94068,18.9456,-0.337774,79,7
-0.103075,0.499484,-0.136656,14,0
-3.75452,18.1938,0.324266,20,8
-0.129073,0.626019,-0.147568,24,1
-3.90479,18.9554,1.01427,13,9
-1.98283,9.63397,-1.91191,54,2
-3.82645,18.6081,1.66206,49,10
-3.81521,18.5698,2.3277,10,11
-2.46041,11.9862,-1.50241,31,4
-2.55066,12.4369,2.01081,28,12
-2.81681,13.7468,-1.22768,17,5
-3.23041,15.7793,3.13079,8,13
-3.34879,16.3721,-0.87579,87,6
-2.62983,12.8685,3.03234,44,14
-3.87893,18.9808,-0.338158,50,7
-2.06337,10.1057,2.76367,6,15
-0.100563,0.496055,-0.135621,15,0
-3.80412,18.7817,0.334493,30,8
-0.125231,0.618848,-0.145768,25,1
-3.16753,15.6528,0.836957,12,9
-1.94413,9.61582,-1.90695,38,2
-3.75399,18.5842,1.65875,59,10
-2.1841,10.8222,-1.74862,47,3
-4.04257,20.0489,2.51124,45,11
-2.15773,10.7108,-1.34154,15,4
-2.52948,12.5561,2.02864,50,12
-2.77274,13.7761,-1.22942,20,5
-2.6199,13.0285,2.58317,10,13
-3.28927,16.3719,-0.875162,74,6
-2.3103,11.5096,2.71021,25,14
-3.81265,18.9942,-0.338158,58,7
-2.0296,10.1204,2.76574,16,15
-0.101848,0.51156,-0.139762,14,0
-3.73713,18.7707,0.334074,56,8
-0.120897,0.607792,-0.143069,25,1
-3.77354,18.9881,1.01459,20,9
-1.90979,9.6187,-1.90618,47,2
-2.16319,10.9049,-1.76083,66,3
-2.51306,12.6803,1.58723,18,11
-2.46301,12.4505,2.01018,22,12
-2.73467,13.8365,-1.23395,20,5
-2.58848,13.0968,2.595,30,13
-3.24115,16.4141,-0.876837,45,6
-2.25779,11.4446,2.69311,70,14
-3.69141,18.7288,-0.333201,100,7
-2.24882,11.4201,3.11877,48,15
-0.100152,0.511895,-0.139762,14,0
-3.68884,18.8719,0.335645,36,8
-0.118775,0.60821,-0.143069,25,1
-3.71755,19.0541,1.01741,6,9
-1.88879,9.68085,-1.91725,57,2
-3.83782,19.6888,1.75497,39,10
-2.11492,10.8601,-1.75238,50,3
-2.4741,12.7163,1.59064,25,11
-2.09727,10.7895,-1.34958,24,4
-2.43084,12.5172,2.01957,18,12
-2.06705,10.6539,-0.949475,22,5
-2.51994,12.9882,2.57172,35,13
-3.24768,16.7547,-0.894422,37,6
-2.19115,11.3146,2.66072,52,14
-3.62223,18.7219,-0.332852,88,7
-0.0982748,0.512258,-0.139762,14,0
-3.59809,18.7551,0.333341,46,8
-0.118485,0.618191,-0.145318,25,1
-3.645,19.0356,1.01574,15,9
-1.88243,9.84005,-1.9474,49,2
-3.11558,16.3015,1.45201,12,10
-2.06695,10.8251,-1.7455,76,3
-2.43155,12.7346,1.59186,29,11
-2.05104,10.7519,-1.34398,27,4
-2.38343,12.5062,2.01644,4,12
-2.03096,10.6669,-0.949998,10,5
-2.45802,12.9221,2.55684,33,13
-3.19073,16.7901,-0.895678,67,6
-2.16275,11.3915,2.67692,16,14
-3.54939,18.6951,-0.332154,100,7
-2.6572,14.0092,3.82069,12,15
-0.107207,0.569554,-0.155291,12,0
-3.52266,18.7328,0.332713,54,8
-0.115859,0.616706,-0.144868,25,1
-2.87751,15.3167,0.816755,11,9
-1.85785,9.89866,-1.9577,49,2
-3.69903,19.7275,1.75601,29,10
-2.09171,11.1662,-1.79931,57,3
-2.58132,13.7932,1.72299,34,11
-2.01021,10.7415,-1.34178,49,4
-2.3521,12.5805,2.02708,21,12
-2.60427,13.9427,-1.24092,20,5
-2.41433,12.9383,2.55837,12,13
-3.14418,16.8659,-0.899132,70,6
-2.13067,11.4293,2.68412,18,14
-3.81546,20.4866,-0.363743,30,7
-2.14218,11.5133,3.13792,12,15
-0.0912749,0.493919,-0.134586,15,0
-3.46343,18.7601,0.332992,64,8
-0.115934,0.628585,-0.147568,24,1
-1.81398,9.84491,-1.94587,52,2
-2.97461,16.1597,1.43755,71,10
-2.09469,11.3906,-1.83435,35,3
-3.70453,20.1646,2.51733,5,11
-2.2045,11.9996,-1.49802,51,4
-2.31393,12.6076,2.03021,34,12
-2.47394,13.4927,-1.20013,62,5
-2.40537,13.1316,2.595,30,13
-3.75873,20.5403,-1.09434,34,6
-3.00725,16.4337,3.85701,10,14
-2.96211,16.203,-0.287511,63,7
-2.1026,11.5127,3.13585,12,15
-0.0930841,0.513227,-0.139762,14,0
-3.38195,18.6652,0.331107,56,8
-0.111766,0.617461,-0.144868,25,1
-1.76805,9.77746,-1.93137,42,2
-2.79163,15.4842,1.93187,70,11
-2.14922,11.9329,-1.48876,27,4
-2.72415,15.1251,2.43412,36,12
-2.43447,13.5302,-1.20275,50,5
-3.22874,17.9625,3.54752,11,13
-2.96518,16.5129,-0.879244,40,6
-2.03735,11.3572,2.66387,18,14
-3.35325,18.6927,-0.331491,66,7
-2.07498,11.5786,3.1519,32,15
-0.087911,0.494528,-0.134586,15,0
-3.32984,18.7314,0.332084,50,8
-0.109378,0.615909,-0.144419,25,1
-1.77297,10.0039,-1.97487,49,2
-2.88886,16.3169,1.44975,31,10
-2.01186,11.3634,-1.82778,38,3
-3.31798,18.7598,2.33916,20,11
-2.10757,11.9283,-1.48729,25,4
-2.67958,15.1812,2.44163,42,12
-2.39276,13.57,-1.20554,55,5
-4.16328,23.6352,-1.25774,22,6
-3.43602,19.5265,4.5773,17,14
-3.25959,18.5428,-0.328629,100,7
-2.47794,14.1107,3.8388,6,15
-0.0875977,0.50243,-0.136656,14,0
-3.28845,18.8809,0.334528,32,8
-0.108229,0.622047,-0.145768,25,1
-2.79391,16.0746,0.855065,41,9
-1.6823,9.67901,-1.90962,57,2
-3.35452,19.32,1.71557,7,10
-1.9705,11.3607,-1.82622,53,3
-3.29383,19.0099,2.3689,20,11
-2.42717,14.0226,-1.74736,63,4
-2.63263,15.2255,2.44726,13,12
-2.37661,13.7448,-1.22035,32,5
-3.7065,21.4807,-1.14239,23,6
-1.96264,11.3862,2.66747,40,14
-2.71412,15.9117,0.281752,39,8
-0.107366,0.630105,-0.147568,24,1
-2.74146,16.1059,0.856216,9,9
-1.63532,9.60741,-1.89435,64,2
-5.13865,30.2211,2.68196,16,10
-1.88816,11.1162,-1.78586,67,3
-3.25302,19.1719,2.38766,30,11
-2.02822,11.9662,-1.49022,9,4
-2.35822,13.9278,-1.23587,27,5
-2.87498,16.9979,3.35099,6,13
-3.96223,23.451,-1.24643,22,6
-3.27886,19.427,4.54851,17,14
-2.75139,16.3192,-0.288872,7,7
-2.37423,14.0972,3.83052,9,15
-0.0828141,0.495407,-0.134586,15,0
-2.65066,15.8738,0.280914,60,8
-0.104846,0.628554,-0.147118,24,1
-3.20094,19.2104,1.02066,13,9
-1.61113,9.66922,-1.90542,42,2
-2.73312,16.4205,1.45637,12,10
-1.84999,11.1267,-1.78648,63,3
-2.25686,13.5884,1.6913,11,11
-2.25611,13.5986,-1.69252,61,4
-2.11513,12.7627,2.04898,42,12
-2.30926,13.934,-1.23569,30,5
-2.88201,17.4088,3.42998,11,13
-3.14195,18.9995,-1.00925,18,6
-3.26947,19.7921,4.63129,15,14
-2.68595,16.2774,-0.287965,15,7
-2.31747,14.0596,3.8181,4,15
-0.0873214,0.533824,-0.144939,14,0
-2.59201,15.8632,0.280565,52,8
-0.100767,0.617376,-0.144419,25,1
-2.62928,16.1266,0.856321,12,9
-1.57927,9.68641,-1.90771,40,2
-2.6761,16.4319,1.45655,46,10
-1.81304,11.1447,-1.78836,50,3
-3.11432,19.1648,2.38401,10,11
-2.07468,12.7953,2.05305,15,12
-2.26857,13.9911,-1.24005,40,5
-5.69016,35.1321,6.91797,6,13
-2.63254,16.2718,-0.863857,32,6
-2.30933,14.2898,3.34187,20,14
-2.6323,16.3064,-0.288314,7,7
-2.63404,16.3353,4.43357,6,15
-0.0787429,0.492158,-0.133551,15,0
-3.02294,18.915,0.334353,26,8
-0.09769,0.611951,-0.143069,25,1
-2.57138,16.1077,0.854856,55,9
-1.53957,9.65503,-1.90046,38,2
-2.62501,16.4805,1.46003,71,10
-1.59038,9.99611,-1.60314,20,3
-2.16132,13.5999,1.69082,30,11
-1.92086,12.1005,-1.50436,1,4
-2.40048,15.1218,2.42505,36,12
-2.51115,15.8369,-1.40286,16,5
-2.76931,17.4847,3.44105,5,13
-2.57636,16.2848,-0.864067,29,6
-2.75769,17.4508,-0.308384,100,7
-2.25786,14.3041,3.88022,29,15
-0.0812042,0.519151,-0.140798,14,0
-2.96853,18.9783,0.335296,34,8
-0.0968636,0.619973,-0.144868,25,1
-2.51205,16.0968,0.853809,12,9
-1.48409,9.52068,-1.87298,35,2
-2.90985,18.6886,1.65474,28,10
-1.56179,10.0306,-1.60783,40,3
-2.88343,18.5402,2.30382,4,11
-1.87128,12.046,-1.4968,60,4
-2.37705,15.3194,2.4554,12,12
-2.16932,13.9968,-1.23918,20,5
-2.19442,14.1588,2.78505,10,13
-2.51776,16.2637,-0.862497,42,6
-2.17985,14.0972,3.29328,20,14
-2.53406,16.4069,-0.28978,47,7
-2.2686,14.7052,3.98685,7,15
-0.0730535,0.477406,-0.12941,15,0
-2.91072,19.0439,0.336273,10,8
-0.0964633,0.631866,-0.147568,24,1
-2.48266,16.2812,0.863125,8,9
-1.43949,9.44015,-1.85619,38,2
-2.87846,18.899,1.67252,38,10
-1.51101,9.93249,-1.59125,23,3
-2.84286,18.7091,2.32356,45,11
-1.8307,12.0622,-1.49802,61,4
-2.43399,16.0561,2.5721,13,12
-2.11449,13.9649,-1.23569,50,5
-2.15087,14.2052,2.79268,17,13
-2.45858,16.2566,-0.861659,26,6
-2.12189,14.047,3.27979,18,14
-2.47261,16.388,-0.289291,86,7
-2.4513,16.266,4.40769,11,15
-0.0775781,0.519705,-0.140798,14,0
-2.40347,16.1011,0.28416,42,8
-0.0928204,0.622562,-0.145318,25,1
-2.39286,16.0685,0.851401,17,9
-1.39505,9.37934,-1.84322,38,2
-2.78019,18.7143,1.65526,77,10
-1.492,10.0552,-1.61002,10,3
-2.84542,19.1765,2.38035,25,11
-1.77578,11.9822,-1.48729,42,4
-2.38025,16.0802,2.5746,20,12
-2.06776,13.986,-1.23691,50,5
-2.09907,14.2149,2.79306,29,13
-2.40073,16.2773,-0.862287,9,6
-2.0758,14.0913,3.28833,4,14
-2.4046,16.3233,-0.288,39,7
-2.08039,14.1396,3.82949,36,15
-0.0696354,0.477916,-0.12941,15,0
-2.35537,16.185,0.285486,42,8
-0.0922199,0.634469,-0.148018,24,1
-2.71988,18.7356,0.992185,24,9
-1.35329,9.32198,-1.831,38,2
-2.72542,18.7969,1.66171,56,10
-1.44104,9.95087,-1.5925,57,3
-1.93798,13.3989,1.6623,26,11
-1.76478,12.2165,-1.51557,81,4
-2.02567,14.0398,2.24671,5,12
-2.02445,14.0487,-1.2418,45,5
-2.04133,14.1658,2.782,27,13
-2.31316,16.0721,-0.850983,45,6
-2.41117,16.7738,3.91235,13,14
-2.34817,16.3558,-0.288418,86,7
-2.02005,14.0879,3.81344,25,15
-0.0678832,0.478168,-0.12941,15,0
-2.28424,16.0902,0.283671,76,8
-0.0867216,0.611633,-0.142619,26,1
-2.17168,15.3357,0.811731,24,9
-1.31526,9.29966,-1.82566,28,2
-2.66264,18.8502,1.66555,49,10
-1.40235,9.94043,-1.59,47,3
-1.88537,13.3643,1.65718,67,11
-1.74151,12.3602,-1.53263,45,4
-1.95353,13.8825,2.22043,11,12
-1.97512,14.0537,-1.24162,25,5
-1.98393,14.1343,2.77436,11,13
-2.24897,16.0429,-0.848994,65,6
-1.98004,14.1424,3.29688,11,14
-2.29189,16.3698,-0.288523,26,7
-1.97889,14.1522,3.82897,21,15
-0.0700978,0.505169,-0.136656,14,0
-0.0862961,0.623499,-0.145318,25,1
-2.11774,15.3009,0.809533,26,9
-1.27663,9.23568,-1.8123,28,2
-2.374,17.1966,1.51878,100,10
-1.83643,13.3371,1.65304,63,11
-1.60356,11.6458,-1.44342,24,4
-1.925,14.0164,-1.23779,20,5
-1.93418,14.1016,2.76673,7,13
-2.19911,16.0538,-0.849203,32,6
-1.9304,14.0923,3.28384,20,14
-2.49063,18.2056,-0.32074,82,7
-1.94383,14.2273,3.8476,5,15
-0.0668673,0.493912,-0.133551,15,0
-2.41674,17.8746,0.314841,28,8
-0.0852709,0.631507,-0.147118,24,1
-2.07073,15.3356,0.810998,51,9
-1.24127,9.20484,-1.80543,28,2
-2.31615,17.1985,1.51825,100,10
-2.28848,17.0379,2.11078,36,11
-1.51288,11.2635,-1.3954,9,4
-1.85176,13.8047,2.20604,45,12
-1.85575,13.8529,-1.2228,20,5
-1.89184,14.141,2.77322,9,13
-2.25509,16.8787,-0.892433,20,6
-2.20083,16.4725,3.83677,23,14
-2.21046,16.5666,-0.291734,15,7
-1.89384,14.2126,3.84191,21,15
-0.0652291,0.494131,-0.133551,15,0
-2.34517,17.7894,0.313201,52,8
-0.0826677,0.627922,-0.146218,25,1
-2.33481,17.7586,0.938698,12,9
-1.20793,9.18749,-1.80124,28,2
-1.93789,14.7996,1.83267,20,11
-1.53172,11.7136,-1.45049,34,4
-1.77721,13.6094,2.17381,44,12
-1.80877,13.851,-1.2221,15,5
-1.84569,14.153,2.77436,17,13
-2.09439,16.0819,-0.849936,39,6
-1.84172,14.1611,3.29688,18,14
-2.157,16.608,-0.292328,85,7
-1.84969,14.2613,3.8533,13,15
-0.0639961,0.498188,-0.134586,15,0
-0.080723,0.63014,-0.146668,24,1
-1.94968,15.2407,0.805241,10,9
-1.17585,9.19166,-1.80124,35,2
-2.476,19.3819,1.70947,38,10
-1.25513,9.83863,-1.57092,13,3
-1.89701,14.8909,1.84315,48,11
-1.4069,11.0591,-1.36884,50,4
-1.73792,13.6802,2.18414,28,12
-1.75816,13.8395,-1.22053,27,5
-1.81259,14.2879,2.79955,30,13
-2.02619,15.994,-0.844912,29,6
-1.80133,14.239,3.31353,24,14
-2.02182,16.0043,-0.281577,39,7
-1.8584,14.7315,3.97857,12,15
-2.21053,17.722,0.311735,46,8
-0.0778002,0.624617,-0.145318,25,1
-2.3471,18.8705,0.996581,12,9
-1.14448,9.20155,-1.80238,30,2
-2.40612,19.3726,1.7079,49,10
-1.85453,14.9743,1.85266,44,11
-1.6749,13.5626,2.16443,54,12
-1.81655,14.7096,-1.2967,31,5
-1.77711,14.4111,2.82245,23,13
-2.14561,17.4243,-0.920066,43,6
-1.75376,14.2626,3.31758,24,14
-1.96447,15.9994,-0.281368,29,7
-1.81591,14.8107,3.99824,16,15
-0.0642408,0.529307,-0.142868,14,0
-1.99636,16.4729,0.28964,42,8
-0.0760875,0.628754,-0.146218,25,1
-1.8406,15.2321,0.80409,36,9
-1.11189,9.20159,-1.80162,30,2
-1.8714,15.5098,1.36678,27,10
-1.25918,10.4512,-1.66728,60,3
-1.62371,13.4966,1.66912,41,11
-1.25129,10.4163,-1.28816,19,4
-1.68447,14.043,2.24014,17,12
-1.30485,10.8782,-0.958539,18,5
-1.72237,14.3801,2.8152,18,13
-1.92824,16.1228,-0.850983,78,6
-1.8768,15.716,3.6541,11,14
-1.91147,16.03,-0.281787,26,7
-1.76534,14.8266,4.00082,9,15
-0.0587757,0.498831,-0.134586,15,0
-1.94165,16.5036,0.290059,50,8
-0.0759386,0.646434,-0.150267,24,1
-1.793,15.2861,0.806602,17,9
-1.07884,9.19761,-1.80009,30,2
-1.81864,15.5281,1.36782,24,10
-1.21948,10.4281,-1.6629,51,3
-1.57889,13.5219,1.67156,41,11
-1.29124,11.0752,-1.36908,30,4
-1.60301,13.7702,2.19571,20,12
-1.69791,14.5854,-1.28468,39,5
-1.67193,14.3841,2.81481,24,13
-1.83091,15.7999,3.6721,11,14
-1.86055,16.0803,-0.282554,32,7
-1.71046,14.8058,3.99358,20,15
-0.0579117,0.50671,-0.136656,14,0
-1.88948,16.558,0.290897,26,8
-0.0736815,0.646695,-0.150267,24,1
-2.28414,20.0788,1.05907,10,9
-1.0474,9.20718,-1.80124,28,2
-1.76533,15.5423,1.36852,39,10
-1.18708,10.4676,-1.66853,35,3
-1.57925,13.9475,1.72348,7,11
-1.31234,11.6083,-1.4344,53,4
-1.9451,17.2324,2.74668,20,12
-1.65592,14.6704,-1.29165,31,5
-1.62677,14.4347,2.82359,9,13
-1.71648,15.2547,-0.804508,48,6
-1.67349,14.896,3.46065,9,14
-1.79371,15.9913,-0.280879,33,7
-1.6519,14.7502,3.97701,12,15
-0.0578437,0.52227,-0.140798,14,0
-1.84419,16.6778,0.292886,50,8
-0.0690718,0.625642,-0.145318,25,1
-1.0159,9.21663,-1.80238,28,2
-2.15371,19.5706,1.72255,14,10
-1.12573,10.2459,-1.63255,56,3
-1.81952,16.5872,2.04887,21,11
-1.28327,11.7174,-1.44732,27,4
-1.57296,14.409,-1.26812,20,5
-1.88487,17.2663,3.37617,7,13
-1.62358,14.9211,3.46515,18,14
-1.73766,15.9954,-0.280844,26,7
-1.66393,15.3417,4.13489,15,15
-0.0514055,0.480219,-0.12941,15,0
-1.70083,15.8888,0.278924,9,8
-0.0656449,0.614253,-0.142619,26,1
-0.981281,9.21248,-1.80086,28,2
-1.86496,17.5378,1.54301,32,10
-1.0769,10.1438,-1.61566,47,3
-1.5795,14.878,1.83706,40,11
-1.29592,12.2272,-1.50972,60,4
-1.45769,13.7764,2.19415,36,12
-1.508,14.2757,-1.25591,80,5
-1.72357,16.3438,3.19452,36,13
-1.69929,16.1405,-0.850564,16,6
-1.57378,14.9735,3.47594,40,14
-1.68474,16.0293,-0.281333,29,7
-1.61581,15.3993,4.14887,6,15
-0.0513201,0.495769,-0.133551,15,0
-1.64464,15.9148,0.279273,35,8
-0.0663929,0.643566,-0.149367,24,1
-0.947908,9.20414,-1.79857,28,2
-1.61789,15.7366,1.38403,99,10
-1.05521,10.2812,-1.63693,52,3
-1.51747,14.8107,1.82804,44,11
-1.18585,11.594,-1.43099,12,4
-1.79228,17.523,2.78985,11,12
-1.43186,14.0232,-1.23325,35,5
-1.67168,16.4005,3.20445,21,13
-1.63566,16.0748,-0.846796,48,6
-1.52583,15.0215,3.48584,20,14
-1.62373,15.9853,-0.28046,94,7
-1.5334,15.1223,4.07278,38,15
-0.0495891,0.495945,-0.133551,15,0
-1.59185,15.9202,0.279273,63,8
-0.0629033,0.630209,-0.146218,25,1
-1.53823,15.4383,0.813092,66,9
-0.914411,9.19371,-1.79589,28,2
-1.56158,15.7283,1.38281,33,10
-1.02228,10.2964,-1.63881,60,3
-1.46404,14.7721,1.82268,44,11
-1.14192,11.5425,-1.42417,63,4
-2.27721,23.059,3.66995,24,12
-1.41065,14.3097,-1.25801,27,5
-1.63212,16.5564,3.23383,16,13
-1.56669,15.9211,-0.838422,65,6
-1.51735,15.4474,3.58347,18,14
-1.56968,16.0088,-0.280774,100,7
-1.47853,15.1064,4.06708,9,15
-0.0494312,0.51149,-0.137692,14,0
-1.54415,16.0072,0.280705,56,8
-0.0603294,0.626545,-0.145318,25,1
-1.47325,15.3282,0.807021,50,9
-0.882234,9.17911,-1.79246,28,2
-1.55794,16.2391,1.42726,25,10
-0.990844,10.3471,-1.64632,51,3
-1.37922,14.4294,1.77978,54,11
-1.09315,11.4575,-1.4132,24,4
-2.16917,22.7777,3.62396,8,12
-1.34751,14.1497,-1.24354,27,5
-1.56911,16.5072,3.22315,12,13
-1.50884,15.9027,-0.837166,46,6
-1.51964,16.0462,3.72114,20,14
-1.52094,16.0898,-0.282101,28,7
-0.0494366,0.530894,-0.142868,14,0
-1.49159,16.0484,0.281333,26,8
-0.0574221,0.61899,-0.143519,25,1
-1.41384,15.2696,0.803671,33,9
-0.849099,9.1704,-1.79017,26,2
-1.52177,16.4667,1.44679,43,10
-0.955811,10.3623,-1.64819,63,3
-1.29209,14.0348,1.73054,46,11
-1.06077,11.5443,-1.42343,30,4
-1.52498,16.6281,2.64468,28,12
-1.09759,11.9679,-1.05145,45,5
-1.49748,16.3911,-0.862601,71,6
-1.43513,15.739,3.64871,19,14
-1.46912,16.1428,-0.282938,24,7
-1.31677,14.4968,3.9004,31,15
-0.0444797,0.496429,-0.133551,15,0
-1.46424,16.3742,0.286952,56,8
-0.0561273,0.628892,-0.145768,25,1
-1.36586,15.3041,0.805241,22,9
-0.815513,9.15571,-1.78674,26,2
-1.4597,16.4203,1.44225,71,10
-0.919282,10.3616,-1.64757,55,3
-1.23871,13.9898,1.72445,46,11
-1.01653,11.4805,-1.41515,39,4
-1.46931,16.6271,2.64374,30,12
-1.05055,11.9121,-1.04622,42,5
-1.26931,14.4213,2.81405,14,13
-1.37263,15.6263,-0.822093,39,6
-1.37731,15.6796,3.63386,23,14
-1.42168,16.2173,-0.28416,36,7
-1.3128,15.0053,4.03602,15,15
-0.0451576,0.52352,-0.140798,14,0
-1.42605,16.5662,0.290234,27,8
-0.0542082,0.631016,-0.146218,25,1
-1.42211,16.5542,0.870766,33,9
-0.780454,9.10359,-1.77605,26,2
-1.34528,15.7243,1.38072,36,10
-0.887271,10.3922,-1.65195,56,3
-1.19231,13.9938,1.72445,50,11
-0.977445,11.472,-1.41368,49,4
-1.4135,16.624,2.64249,20,12
-1.03547,12.2034,-1.07149,30,5
-1.23066,14.564,-0.765989,22,6
-1.32842,15.721,3.64241,19,14
-1.49459,17.7244,-0.310478,83,7
-1.22286,14.5322,3.90765,9,15
-1.37078,16.5669,0.290164,50,8
-0.0537187,0.650614,-0.150717,23,1
-0.74784,9.07678,-1.77033,26,2
-1.28938,15.683,1.37671,69,10
-0.855709,10.4305,-1.65758,53,3
-1.14606,13.9997,1.7247,38,11
-0.957438,11.7206,-1.44391,37,4
-1.12564,13.8095,2.19446,14,12
-0.990787,12.1551,-1.06696,47,5
-1.18111,14.5214,2.83199,21,13
-1.18268,14.572,-0.766198,13,6
-1.26787,15.6556,3.62621,23,14
-1.85165,22.9138,-0.401266,8,7
-1.19185,14.7809,3.97339,29,15
-0.0394523,0.496854,-0.133551,15,0
-1.30994,16.5337,0.289501,78,8
-0.0496049,0.627485,-0.145318,25,1
-1.27651,16.1835,0.850773,14,9
-0.714301,9.05585,-1.76575,26,2
-1.24525,15.8224,1.38857,66,10
-0.812497,10.3468,-1.64381,43,3
-1.09905,14.0273,1.72762,19,11
-0.903675,11.5597,-1.42368,55,4
-1.08219,13.8744,2.20416,34,12
-0.960594,12.3154,-1.08073,16,5
-1.12844,14.4999,2.82703,29,13
-1.24081,15.9799,-0.839992,42,6
-1.36449,17.6126,4.07836,31,14
-1.23289,15.95,-0.279238,72,7
-1.14024,14.785,3.97339,7,15
-0.040349,0.531662,-0.142868,14,0
-1.25222,16.5381,0.289501,32,8
-0.0484416,0.641257,-0.148468,24,1
-0.681503,9.04263,-1.76269,26,2
-1.19032,15.8307,1.38891,24,10
-0.768245,10.2412,-1.62661,81,3
-1.04089,13.9084,1.71251,3,11
-0.865539,11.5924,-1.42733,45,4
-1.02986,13.7932,2.19071,52,12
-1.07331,14.4431,2.8152,21,13
-1.29046,17.4063,-0.914728,70,6
-1.30128,17.5939,4.07296,31,14
-1.17911,15.942,-0.279029,86,7
-1.14636,15.5362,4.17423,13,15
-0.0362618,0.500971,-0.134586,15,0
-1.19521,16.5123,0.288977,22,8
-0.0463147,0.641414,-0.148468,24,1
-1.16159,16.126,0.847319,49,9
-0.646845,9.00187,-1.7543,26,2
-1.14986,16.0414,1.40704,56,10
-0.727498,10.1491,-1.61159,36,3
-1.01473,14.1909,1.74688,42,11
-0.825399,11.5715,-1.42441,64,4
-0.980718,13.7829,2.18852,38,12
-0.854985,12.0456,-1.0565,23,5
-1.02791,14.4818,2.82207,4,13
-1.17857,16.6454,-0.874534,32,6
-1.24251,17.5923,4.07161,37,14
-1.12274,15.9361,-0.278855,100,7
-1.0706,15.2337,4.09193,13,15
-0.0359309,0.520361,-0.139762,14,0
-1.12478,16.3308,0.285731,53,8
-0.0434075,0.631851,-0.146218,25,1
-1.1042,16.114,0.846482,55,9
-0.615243,8.9785,-1.74934,28,2
-1.08552,15.8821,1.39275,21,10
-0.68978,10.1181,-1.60627,55,3
-0.966401,14.2122,1.74907,3,11
-0.79279,11.6892,-1.43855,45,4
-0.934597,13.8158,2.19321,41,12
-0.797551,11.7899,-1.03384,40,5
-1.09683,16.2561,3.16705,8,13
-1.01236,15.0433,-0.790168,65,6
-1.04654,15.6326,-0.273479,100,7
-1.04431,15.6402,4.20012,13,15
-0.0336088,0.512772,-0.137692,14,0
-1.06425,16.2808,0.284788,35,8
-0.0424698,0.651445,-0.150717,23,1
-1.05092,16.1636,0.848889,56,9
-0.582368,8.95709,-1.74476,26,2
-1.03768,16.0031,1.40303,68,10
-0.654081,10.1145,-1.60533,58,3
-0.918315,14.2393,1.75199,23,11
-0.756694,11.7652,-1.44756,41,4
-0.884604,13.7914,2.18883,34,12
-0.755762,11.7827,-1.03297,27,5
-0.96062,15.0177,2.9251,7,13
-0.942296,14.7717,-0.775724,55,6
-1.03282,16.2353,3.75578,27,14
-0.995383,15.6901,-0.274422,23,7
-0.0311013,0.501318,-0.134586,15,0
-0.966045,15.6158,0.273095,84,8
-0.0392355,0.636029,-0.147118,24,1
-1.00578,16.3506,0.858519,33,9
-0.549296,8.92967,-1.73903,26,2
-0.983279,16.0305,1.40512,34,10
-0.623833,10.1996,-1.61847,51,3
-0.869333,14.2543,1.75346,15,11
-0.718274,11.8113,-1.45293,55,4
-0.835019,13.7707,2.18508,15,12
-0.752732,12.4137,-1.08805,26,5
-0.889409,14.7529,-0.774572,9,6
-1.08933,18.1218,4.19129,12,14
-0.937374,15.6395,-0.273479,30,7
-0.856959,14.3397,3.84916,4,15
-0.0298026,0.509137,-0.136656,14,0
-0.919914,15.7628,0.275608,60,8
-0.0372417,0.640053,-0.148018,24,1
-0.951245,16.3979,0.860822,104,9
-0.517097,8.9139,-1.7356,26,2
-0.930648,16.0915,1.41018,46,10
-0.592777,10.2806,-1.63099,66,3
-0.878246,15.2779,1.87898,24,11
-0.678287,11.8356,-1.45561,41,4
-0.787962,13.7913,2.18789,21,12
-0.689396,12.0662,-1.05737,61,5
-1.00313,17.6113,3.42884,12,13
-0.74494,13.1188,-0.688637,26,6
-1.05063,18.5593,4.29162,18,14
-0.888533,15.7445,-0.275259,28,7
-0.868856,15.4439,4.14473,22,15
-0.0265389,0.482233,-0.12941,15,0
-0.856346,15.6101,0.272886,51,8
-0.0345815,0.632396,-0.146218,25,1
-0.911252,16.6642,0.874639,31,9
-0.484159,8.88232,-1.72911,26,2
-0.876205,16.1265,1.41297,71,10
-0.556885,10.2826,-1.63099,52,3
-0.936299,17.3443,2.13271,50,11
-0.634329,11.7505,-1.44488,56,4
-0.955876,17.7645,2.8177,33,12
-0.63948,11.9233,-1.04465,45,5
-0.699251,13.1233,-0.688741,13,6
-0.992291,18.623,4.30556,34,14
-0.840873,15.8333,-0.27676,100,7
-0.770054,14.5477,3.90351,25,15
-0.0257375,0.497753,-0.133551,15,0
-0.803036,15.5829,0.272362,63,8
-0.0328841,0.640292,-0.148018,24,1
-0.831712,16.1944,0.849831,44,9
-0.452492,8.84074,-1.72072,26,2
-0.817753,16.0318,1.40443,87,10
-0.524691,10.3218,-1.63693,63,3
-0.879175,17.3552,2.13369,50,11
-0.587623,11.5999,-1.42612,50,4
-0.853939,16.9153,2.68254,21,12
-0.604645,12.0188,-1.05284,47,5
-0.759464,15.1491,2.94838,23,13
-0.764603,15.3586,-0.268418,26,7
-0.72324,14.5791,3.91127,22,15
-0.0233402,0.482399,-0.12941,15,0
-0.747982,15.5156,0.271141,34,8
-0.0312279,0.65013,-0.150267,24,1
-0.788071,16.4665,0.863962,52,9
-0.421489,8.8069,-1.71385,26,2
-0.776442,16.2832,1.42622,50,10
-0.503206,10.5919,-1.67948,43,3
-0.81233,17.1618,2.10956,36,11
-0.556669,11.8041,-1.45098,35,4
-0.800261,17.0327,2.70068,15,12
-0.563287,11.9889,-1.05005,49,5
-0.707575,15.1162,2.94151,23,13
-0.727288,15.5956,-0.81822,52,6
-0.865595,18.6313,4.30601,12,14
-0.71126,15.3672,-0.268523,74,7
-0.671013,14.5526,3.90351,9,15
-0.0239083,0.532655,-0.142868,14,0
-0.696679,15.5821,0.272258,70,8
-0.0296521,0.665809,-0.153867,23,1
-0.734743,16.563,0.868882,55,9
-0.390133,8.79458,-1.71118,26,2
-0.724351,16.3933,1.43563,34,10
-0.455202,10.3429,-1.63975,57,3
-0.71678,16.3514,2.00963,17,11
-0.511827,11.7227,-1.44074,52,4
-0.51832,11.9192,-1.04378,40,5
-0.621847,14.3576,2.79344,11,13
-0.627831,14.5545,-0.763477,74,6
-0.798626,18.5894,4.29567,31,14
-0.777122,18.1626,-0.31732,60,7
-0.617418,14.4893,3.88591,27,15
-0.0212499,0.513433,-0.137692,14,0
-0.644263,15.6323,0.273095,40,8
-0.0257296,0.626967,-0.144868,25,1
-0.664686,16.2661,0.853181,28,9
-0.358949,8.78412,-1.70889,26,2
-0.667046,16.3938,1.43546,15,10
-0.423491,10.453,-1.65695,43,3
-0.659694,16.3538,2.00963,8,11
-0.470668,11.7185,-1.44001,63,4
-0.498601,12.4684,-1.09171,61,5
-0.603432,15.1561,2.94838,17,13
-0.588022,14.834,-0.778026,58,6
-0.731814,18.5434,4.28442,25,14
-0.620132,15.7834,-0.275713,100,7
-0.564273,14.4257,3.86831,18,15
-0.0182872,0.482617,-0.12941,15,0
-0.596019,15.8024,0.276027,63,8
-0.0238334,0.634842,-0.146668,24,1
-0.612009,16.3781,0.858938,62,9
-0.327553,8.7657,-1.70507,26,2
-0.60959,16.39,1.43493,53,10
-0.385468,10.413,-1.65038,42,3
-0.603997,16.3937,2.01426,4,11
-0.407425,11.111,-1.36518,30,4
-0.628485,17.2217,2.72947,35,12
-0.435968,11.9464,-1.04587,35,5
-0.686912,18.9133,3.6788,12,13
-0.561339,15.5305,-0.814452,68,6
-0.664064,18.4621,4.26507,24,14
-0.56704,15.8414,-0.27669,25,7
-0.516111,14.4894,3.88487,12,15
-0.0179305,0.521292,-0.139762,14,0
-0.540782,15.8023,0.275992,39,8
-0.0218827,0.642712,-0.148468,24,1
-0.554571,16.2882,0.854123,13,9
-0.295621,8.72755,-1.69744,26,2
-0.55237,16.392,1.43493,62,10
-0.34495,10.2899,-1.63067,72,3
-0.546632,16.3917,2.01377,4,11
-0.379231,11.4318,-1.40442,31,4
-0.577786,17.4172,2.76013,50,12
-0.381125,11.5496,-1.01101,69,5
-0.542306,16.5217,3.21322,19,13
-0.494085,15.1332,-0.793518,61,6
-0.613923,18.9045,4.36675,15,14
-0.516326,15.8992,-0.277668,88,7
-0.489884,15.1668,4.06605,13,15
-0.0164692,0.532937,-0.142868,14,0
-0.48079,15.5582,0.271699,57,8
-0.0201102,0.654468,-0.151167,23,1
-0.263789,8.6834,-1.68866,26,2
-0.495272,16.3979,1.43528,59,10
-0.30963,10.2515,-1.62442,42,3
-0.492096,16.3875,2.01304,8,11
-0.335334,11.2326,-1.3798,59,4
-0.524255,17.6639,2.79893,46,12
-0.339923,11.521,-1.00839,54,5
-0.477386,16.18,3.14644,31,13
-0.423987,14.4559,-0.757929,42,6
-0.549294,18.8402,4.35145,15,14
-0.461804,15.9349,-0.278261,23,7
-0.437213,15.1781,4.06864,13,15
-0.0133167,0.482779,-0.12941,15,0
-0.433762,15.8256,0.276341,60,8
-0.017507,0.642846,-0.148468,24,1
-0.441168,16.3036,0.854751,44,9
-0.233344,8.62338,-1.67683,30,2
-0.441163,16.4094,1.43615,78,10
-0.272786,10.213,-1.61816,38,3
-0.437842,16.5002,2.02669,48,11
-0.292626,11.1008,-1.36347,39,4
-0.464347,17.7328,2.80956,26,12
-0.373172,14.4434,-0.757197,39,6
-0.49007,19.0972,4.41039,13,14
-0.406021,15.9304,-0.278156,25,7
-0.381306,15.0636,4.03758,25,15
-0.0125618,0.521449,-0.139762,14,0
-0.378561,15.8291,0.276376,54,8
-0.0150322,0.633162,-0.146218,25,1
-0.395779,16.7943,0.880396,37,9
-0.203008,8.61433,-1.67492,38,2
-0.384902,16.4546,1.43999,75,10
-0.23627,10.1764,-1.61221,37,3
-0.37969,16.4778,2.02376,17,11
-0.267668,11.705,-1.43757,45,4
-0.410748,18.0997,2.86744,45,12
-0.321679,14.3966,-0.754685,45,6
-0.532221,24.0065,5.54369,31,14
-0.352569,16.0297,-0.279867,100,7
-0.329266,15.09,4.04431,16,15
-0.0119349,0.579433,-0.155291,12,0
-0.32245,15.7883,0.275643,46,8
-0.0129796,0.641004,-0.148018,24,1
-0.340757,16.9753,0.889816,44,9
-0.172383,8.58751,-1.66958,28,2
-0.328892,16.5276,1.44626,31,10
-0.200082,10.1436,-1.60689,35,3
-0.322126,16.4771,2.02352,4,11
-0.216082,11.1521,-1.36957,46,4
-0.343845,17.9074,2.83678,11,12
-0.227632,11.9641,-1.04691,38,5
-0.292871,15.3931,2.99265,21,13
-0.283435,15.0347,-0.788075,29,6
-0.369771,19.7977,4.57146,7,14
-0.297238,16.0648,-0.28046,25,7
-0.28031,15.2938,4.09866,14,15
-0.268315,15.8473,0.276656,43,8
-0.0106438,0.6352,-0.146668,24,1
-0.268862,16.2135,0.849831,24,9
-0.140362,8.55471,-1.66309,28,2
-0.271543,16.7279,1.46369,50,10
-0.161826,10.0771,-1.59626,35,3
-0.259105,16.1347,1.98135,25,11
-0.17592,11.0754,-1.36006,30,4
-0.259114,16.4943,2.61277,13,12
-0.190549,12.2657,-1.07324,54,5
-0.207612,13.6717,-0.716584,42,6
-0.30037,20.0094,4.62004,14,14
-0.234597,15.6279,-0.272816,100,7
-0.227406,15.3276,4.10746,22,15
-0.00675004,0.502236,-0.134586,15,0
-0.209888,15.8222,0.276202,33,8
-0.0083923,0.641081,-0.148018,24,1
-0.220417,16.8375,0.882489,42,9
-0.110374,8.54533,-1.66118,26,2
-0.125356,9.97486,-1.57999,41,3
-0.200398,16.1713,1.98574,8,11
-0.138461,11.1732,-1.37201,52,4
-0.230765,18.8871,2.99165,10,12
-0.143435,11.9096,-1.04203,31,5
-0.15961,13.6483,-0.715328,35,6
-0.23483,20.0804,4.63624,15,14
-0.181491,15.7546,-0.275015,29,7
-0.172298,15.1872,4.06967,13,15
-0.00508463,0.502256,-0.134586,15,0
-0.157541,15.8348,0.276411,39,8
-0.00618999,0.63331,-0.146218,25,1
-0.155401,15.8994,0.833293,32,9
-0.0818307,8.52406,-1.65699,26,2
-0.159033,16.8728,1.47624,40,10
-0.0917816,9.92189,-1.57154,38,3
-0.146043,16.0905,1.97575,46,11
-0.102227,11.263,-1.38297,24,4
-0.165217,18.5599,2.93972,7,12
-0.103641,11.8762,-1.03907,58,5
-0.134661,15.7447,3.06058,18,13
-0.102701,12.2587,-0.642476,48,6
-0.168283,20.0869,4.63759,18,14
-0.129767,15.8191,-0.276132,100,7
-0.119797,14.9211,3.99824,33,15
-0.00355042,0.521588,-0.139762,14,0
-0.104018,15.6833,0.273758,42,8
-0.00414029,0.641122,-0.148018,24,1
-0.0999296,15.9039,0.833503,14,9
-0.0533884,8.4968,-1.65164,26,2
-0.103197,16.8932,1.47799,68,10
-0.0587754,9.90437,-1.56873,37,3
-0.0930114,16.1485,1.98281,46,11
-0.065469,11.7218,-1.43928,53,4
-0.103225,19.0779,3.02169,6,12
-0.0625838,11.9522,-1.04569,59,5
-0.0826292,15.7804,3.06745,27,13
-0.074445,14.7076,-0.770804,26,6
-0.0983411,20.1224,4.64569,7,14
-0.0751443,15.9454,-0.278331,16,7
-0.0693016,15.2711,4.09193,12,15
-0.00157786,0.502279,-0.134586,15,0
-0.04886,15.5536,0.27149,36,8
-0.00188512,0.635287,-0.146668,24,1
-0.04449,15.9301,0.834863,3,9
-0.0222384,8.49497,-1.65126,26,2
-0.0412887,16.8954,1.47816,34,10
-0.0224981,9.91637,-1.5706,41,3
-0.0365883,16.1268,1.98013,51,11
-0.0246694,11.7795,-1.44635,66,4
-0.0336565,17.5275,2.77609,11,12
-0.0209706,12.0161,-1.05127,40,5
-0.0207404,16.9774,3.91955,2,14
-0.0195262,15.9836,-0.278994,100,7
-0.0162559,15.5244,4.15974,15,15
0.000175325,0.502281,-0.134586,15,0
0.00827548,15.8056,0.275888,34,8
0.000440776,0.631392,-0.145768,25,1
0.0110985,15.8982,0.833189,11,9
0.00738724,8.46555,-1.64554,26,2
0.0180592,17.2461,1.50884,29,10
0.0121266,9.92626,-1.57217,45,3
0.0224275,16.0634,1.97233,46,11
0.0186956,11.9026,-1.46146,57,4
0.0275214,17.5216,2.77515,4,12
0.0207067,11.8647,-1.03802,54,5
0.030996,16.1458,3.13843,19,13
0.0305137,14.57,-0.763582,68,6
0.0384034,16.9267,3.90785,13,14
0.036327,16.0115,-0.279483,25,7
0.0370106,15.1476,4.0588,32,15
0.00192875,0.502278,-0.134586,15,0
0.0614148,15.9934,0.279169,61,8
0.00255006,0.635284,-0.146668,24,1
0.0704885,16.8288,0.881966,27,9
0.0368027,8.43406,-1.63943,28,2
0.076556,16.8714,1.47607,65,10
0.0450412,9.92617,-1.57217,45,3
0.0757202,16.0691,1.97306,42,11
0.0580043,11.8687,-1.45731,33,4
0.103775,20.5022,3.24727,14,12
0.0626201,11.9602,-1.04639,61,5
0.0843592,16.1122,3.13194,17,13
0.0774501,14.3141,-0.750184,68,6
0.108253,19.3819,4.47473,35,14
0.0929857,16.1453,-0.281821,23,7
0.0913912,15.4005,4.12661,6,15
0.00345601,0.482951,-0.12941,15,0
0.118213,16.1271,0.281507,17,8
0.00492865,0.656707,-0.151617,23,1
0.134498,17.9209,0.939221,26,9
0.0647993,8.43782,-1.64019,26,2
0.132468,16.8671,1.47572,18,10
0.0795179,9.90422,-1.56873,36,3
0.130643,15.9259,1.95552,46,11
0.0942038,11.2452,-1.38078,59,4
0.171848,20.5136,3.24914,12,12
0.104022,12.1631,-1.06417,52,5
0.139766,16.0156,3.11324,13,13
0.126517,14.2139,-0.74495,29,6
0.176452,19.4418,4.48867,13,14
0.146802,16.1749,-0.282345,100,7
0.140581,15.1972,4.07226,6,15
0.00534737,0.502253,-0.134586,15,0
0.169929,15.9607,0.27861,12,8
0.00683208,0.631355,-0.145768,25,1
0.192226,17.481,0.916193,11,9
0.0940752,8.42184,-1.63714,26,2
0.191846,16.9103,1.47956,37,10
0.112382,9.90588,-1.56904,33,3
0.19224,16.6876,2.04911,43,11
0.131079,11.2091,-1.37639,50,4
0.210122,17.7041,2.80424,15,12
0.145114,12.0491,-1.05424,47,5
0.199381,16.5549,3.21818,39,13
0.180829,14.8006,-0.775724,81,6
0.265307,21.4092,4.94307,4,14
0.202889,16.1443,-0.281821,100,7
0.197145,15.4729,4.14628,23,15
0.00674304,0.482916,-0.12941,15,0
0.226889,16.048,0.280146,37,8
0.00906394,0.633276,-0.146218,25,1
0.25332,17.4862,0.916507,9,9
0.121546,8.39007,-1.63104,28,2
0.250234,17.067,1.49333,26,10
0.146903,9.90147,-1.56841,33,3
0.249256,16.6054,2.03912,21,11
0.169726,11.1768,-1.37249,64,4
0.316734,20.6205,3.26635,7,12
0.185894,12.1023,-1.05894,26,5
0.242488,15.6099,3.03463,18,13
0.251945,16.038,-0.84062,26,6
0.308072,19.3953,4.47833,26,14
0.259231,16.1435,-0.281821,100,7
0.250656,15.4412,4.138,15,15
0.00883341,0.506068,-0.135621,15,0
0.28004,15.8851,0.277319,16,8
0.0114477,0.642982,-0.148468,24,1
0.313858,17.4572,0.915042,25,9
0.150411,8.36604,-1.62646,35,2
0.306521,16.8847,1.47746,25,10
0.1811,9.88115,-1.56528,30,3
0.308067,16.6501,2.04472,17,11
0.209298,11.2059,-1.37615,63,4
0.330587,17.5363,2.77796,31,12
0.22791,12.0897,-1.0579,52,5
0.300378,15.7876,3.06935,23,13
0.304557,15.8613,-0.831409,26,6
0.375202,19.3649,4.47158,32,14
0.311637,15.9405,-0.278296,100,7
0.303911,15.4074,4.1292,5,15
0.0105188,0.502171,-0.134586,15,0
0.335914,15.904,0.277668,48,8
0.0138582,0.650732,-0.150267,24,1
0.336891,15.6908,0.822512,29,9
0.1794,8.35565,-1.62455,28,2
0.366222,16.9194,1.4806,53,10
0.215421,9.87256,-1.56403,31,3
0.418038,19.0066,2.33429,10,11
0.248405,11.2051,-1.37615,66,4
0.387654,17.3494,2.74855,15,12
0.269534,12.0629,-1.05563,54,5
0.354959,15.7629,3.06477,25,13
0.297698,13.1186,-0.687694,16,6
0.441776,19.3187,4.46123,16,14
0.355167,15.4136,-0.269116,81,7
0.356963,15.3753,4.12092,9,15
0.0122718,0.502132,-0.134586,15,0
0.372389,15.1291,0.26416,24,8
0.0162258,0.654576,-0.151167,23,1
0.391963,15.7016,0.82314,43,9
0.207784,8.32357,-1.61844,28,2
0.425485,16.926,1.4813,26,10
0.24848,9.81645,-1.55527,28,3
0.732472,28.7388,3.52982,11,11
0.286603,11.1684,-1.37176,59,4
0.536269,20.7563,3.28857,8,12
0.334536,12.9482,-1.1332,26,5
0.346524,13.2333,-0.693766,22,6
0.54397,20.6358,4.76581,16,14
0.426893,16.0879,-0.280914,100,7
0.489554,18.3287,4.9129,6,15
0.0147944,0.532986,-0.142868,14,0
0.423064,15.1458,0.264474,42,8
0.0179585,0.638934,-0.147568,24,1
0.438312,15.5944,0.817592,26,9
0.234939,8.30713,-1.61539,35,2
0.484279,17.0181,1.48949,74,10
0.280012,9.78003,-1.54964,25,3
0.991235,34.4112,4.22692,13,11
0.324618,11.2011,-1.37591,50,4
0.603655,20.8295,3.30045,3,12
0.37085,12.72,-1.11333,28,5
0.606072,20.6642,4.01844,38,13
0.389113,13.1882,-0.691463,26,6
0.506657,17.0712,3.94294,30,14
0.478735,16.1304,-0.281682,100,7
0.689921,23.1101,6.19509,3,15
0.0162929,0.521345,-0.139762,14,0
0.473471,15.1503,0.264578,24,8
0.0201386,0.640819,-0.148018,24,1
0.505933,16.01,0.839469,19,9
0.263251,8.28468,-1.61119,28,2
0.546476,17.1039,1.49716,32,10
0.312066,9.76721,-1.54776,25,3
0.600671,18.6979,2.29699,4,11
0.356631,11.0413,-1.35641,50,4
0.416228,12.7485,-1.11594,38,5
0.431663,13.1509,-0.689579,26,6
0.565197,17.1279,3.95644,11,14
0.56123,16.9181,-0.295469,100,7
0.672851,20.1766,5.40932,8,15
0.0177545,0.513566,-0.137692,14,0
0.52628,15.1466,0.264544,10,8
0.0223072,0.638797,-0.147568,24,1
0.551141,15.7827,0.827641,75,9
0.289482,8.24844,-1.60432,26,2
0.668501,18.9538,1.65927,49,10
0.345106,9.73644,-1.54307,25,3
0.753987,21.1675,2.60069,30,11
0.395168,11.04,-1.35641,50,4
0.459286,12.7689,-1.11786,64,5
0.73233,20.2613,3.94097,9,13
0.482274,13.279,-0.696382,6,6
1.18009,32.3373,7.47062,11,14
0.572768,15.6952,-0.274142,56,7
0.736151,20.0758,5.38292,12,15
0.0191063,0.501918,-0.134586,15,0
0.618498,16.2478,0.283811,40,8
0.0245745,0.642615,-0.148468,24,1
0.601473,15.6569,0.821151,30,9
0.317669,8.23169,-1.60127,30,2
0.73227,18.8896,1.65387,13,10
0.37594,9.69774,-1.53713,26,3
0.823236,21.1411,2.59777,100,11
0.434804,11.116,-1.36591,41,4
1.18966,30.2789,4.79941,14,12
0.504717,12.7892,-1.11978,28,5
0.621903,15.7586,3.06554,12,13
0.521247,13.1496,-0.689683,6,6
1.17748,29.574,6.83311,10,14
0.626916,15.6771,-0.273863,27,7
0.932824,23.2253,6.22822,3,15
0.0215694,0.521154,-0.139762,14,0
0.0272237,0.65226,-0.150717,23,1
0.660392,15.7565,0.82649,64,9
0.343894,8.20509,-1.59631,30,2
0.672919,15.9887,1.40007,28,10
0.407118,9.63321,-1.52711,28,3
0.474869,11.1441,-1.36957,61,4
1.16099,27.1346,4.30164,15,12
0.538867,12.5943,-1.10287,52,5
0.598731,13.88,-0.728098,39,6
1.23373,28.4853,6.58252,37,14
0.681024,15.6608,-0.273619,81,7
1.98783,45.529,12.2111,15,15
0.0230421,0.513356,-0.137692,14,0
0.722544,16.0353,0.280181,3,8
0.028796,0.636587,-0.147118,24,1
0.709957,15.6344,0.820209,35,9
0.372357,8.19992,-1.59554,28,2
0.727815,15.9664,1.39833,46,10
0.439119,9.59622,-1.52148,26,3
1.08267,23.57,2.89708,15,11
0.490723,10.6427,-1.30815,44,4
1.26046,27.233,4.3179,15,12
0.593238,12.8173,-1.12257,30,5
1.27768,27.5011,5.35143,22,13
0.646337,13.8599,-0.727156,42,6
1.32705,28.3504,6.55237,46,14
0.727901,15.4925,-0.270722,30,7
2.14482,45.4813,12.2002,30,15
0.02334,0.482399,-0.12941,15,0
0.905959,18.6572,0.326046,2,8
0.0310178,0.636483,-0.147118,24,1
0.735351,15.0354,0.788912,16,9
0.400113,8.18092,-1.59211,30,2
0.788041,16.0553,1.40635,18,10
0.472417,9.59068,-1.52086,26,3
1.09917,22.2357,2.73353,20,11
0.524922,10.5814,-1.30083,56,4
0.821792,16.5075,2.61777,27,12
0.630642,12.6679,-1.10967,9,5
1.37209,27.4651,5.34532,33,13
0.80072,15.972,-0.838108,45,6
1.42739,28.3729,6.55867,46,14
0.799918,15.8454,-0.276935,96,7
2.31277,45.6549,12.2489,31,15
0.0280268,0.540192,-0.144939,14,0
0.801623,15.3988,0.269151,37,8
0.0337475,0.646101,-0.149367,24,1
0.782921,14.939,0.783993,10,9
0.42795,8.16575,-1.58944,28,2
0.8763,16.6652,1.46003,34,10
0.504641,9.5653,-1.5171,27,3
1.17773,22.2495,2.73572,13,11
0.565121,10.641,-1.30839,57,4
0.876252,16.4454,2.60839,58,12
1.46775,27.4562,5.34456,26,13
0.747046,13.9288,-0.731029,26,6
1.51949,28.2393,6.52898,46,14
0.853396,15.8086,-0.276341,100,7
2.48812,45.9417,12.3281,15,15
0.0279889,0.505371,-0.135621,15,0
0.86092,15.4957,0.270896,100,8
0.0357859,0.642088,-0.148468,24,1
0.455131,8.14068,-1.58486,28,2
1.18237,21.0822,1.84735,16,10
0.5357,9.52206,-1.51053,27,3
1.51855,26.9088,3.30924,20,11
0.610674,10.7876,-1.32667,59,4
0.731829,12.8879,-1.12936,19,5
1.43406,25.1772,4.90188,12,13
0.893522,15.639,-0.820942,35,6
1.14508,19.9808,4.62049,14,14
0.906383,15.8156,-0.276516,27,7
2.63425,45.8251,12.2991,15,15
0.0283902,0.482128,-0.12941,15,0
0.910535,15.4629,0.270373,49,8
0.0387193,0.655583,-0.151617,23,1
0.4818,8.10965,-1.57914,28,2
0.971063,16.2967,1.42831,46,10
0.564573,9.47488,-1.50334,28,3
1.35697,22.7067,2.793,28,11
0.649054,10.8291,-1.33203,44,4
1.61307,26.8345,4.25783,31,12
0.760383,12.6128,-1.10548,35,5
1.51046,25.0547,4.87899,18,13
0.744921,12.3206,-0.646872,22,6
1.6842,27.775,6.42415,8,14
0.955391,15.7106,-0.274736,24,7
1.71613,28.1392,7.55389,20,15
0.029989,0.482031,-0.12941,15,0
0.953427,15.282,0.267266,70,8
0.0401553,0.641829,-0.148468,24,1
0.507709,8.09233,-1.57608,26,2
0.992069,15.7685,1.38229,21,10
0.596642,9.45708,-1.50083,31,3
1.46769,23.1991,2.85418,22,11
0.6954,10.9615,-1.34861,56,4
1.72063,27.0475,4.29256,33,12
0.817887,12.8568,-1.1271,28,5
1.7304,27.1261,5.2835,15,13
0.789584,12.3438,-0.648233,35,6
1.26721,19.7567,4.57056,31,14
1.51621,23.5101,6.3126,6,15
0.034205,0.520477,-0.139762,14,0
1.01123,15.3464,0.268453,45,8
0.0422672,0.639741,-0.148018,24,1
1.00717,15.2038,0.798542,15,9
0.53297,8.04545,-1.56731,26,2
1.37827,20.7508,1.81946,23,10
0.628077,9.43129,-1.49708,28,3
1.81727,27.2166,3.34921,41,11
0.754739,11.2739,-1.38736,22,4
1.82165,27.1399,4.30821,24,12
0.858628,12.7922,-1.12169,40,5
1.26273,18.7636,3.65552,15,13
0.999789,14.8179,-0.77834,22,6
1.33499,19.7346,4.56651,17,14
1.06411,15.6896,-0.274491,96,7
1.58135,23.256,6.24582,13,15
0.0373557,0.539627,-0.144939,14,0
1.02963,14.8361,0.259587,75,8
0.0447704,0.643477,-0.148918,24,1
1.1229,16.0987,0.845749,27,9
0.559816,8.02592,-1.56387,26,2
1.122,16.0454,1.40722,59,10
0.657677,9.38174,-1.48957,25,3
1.57269,22.3783,2.75449,27,11
0.783349,11.1187,-1.36859,57,4
1.90553,26.9797,4.2838,31,12
0.89467,12.636,-1.10827,47,5
1.90668,26.9293,5.24763,7,13
1.06707,15.0335,-0.789854,39,6
1.75449,24.6574,5.70701,13,14
1.10264,15.4584,-0.270512,100,7
1.64324,22.9806,6.17335,28,15
0.0384905,0.527926,-0.141833,14,0
1.11166,15.2472,0.266847,21,8
0.0477267,0.653035,-0.151167,23,1
1.10584,15.0948,0.793204,20,9
0.588368,8.01206,-1.56158,28,2
1.17861,16.0114,1.4046,62,10
0.689154,9.33987,-1.48331,28,3
1.65124,22.3786,2.75522,27,11
0.818932,11.0724,-1.36323,39,4
2.00363,27.026,4.29225,15,12
0.845902,11.383,-0.99863,8,5
2.07246,27.8227,5.42317,27,13
0.97315,13.0338,-0.684973,19,6
1.84499,24.6528,5.70746,34,14
1.15704,15.4604,-0.270617,30,7
1.72302,22.9689,6.1718,9,15
0.0368002,0.481559,-0.12941,15,0
1.13883,14.8682,0.260285,49,8
0.0490755,0.639255,-0.148018,24,1
1.20179,15.6544,0.822826,30,9
0.614824,7.99039,-1.55776,30,2
1.20799,15.6635,1.37445,63,10
0.719923,9.31377,-1.47956,28,3
1.74612,22.5387,2.7757,35,11
0.855362,11.0159,-1.35665,27,4
2.09261,26.9499,4.2813,23,12
0.889339,11.4277,-1.00281,23,5
1.45127,18.6062,3.62766,12,13
1.00681,12.879,-0.677018,19,6
1.92342,24.549,5.68496,33,14
1.20928,15.4343,-0.270233,100,7
1.87365,23.8603,6.41302,21,15
0.0415595,0.519942,-0.139762,14,0
1.18876,14.8723,0.260425,70,8
0.0510397,0.637146,-0.147568,24,1
1.25147,15.5884,0.819581,64,9
0.642084,7.98036,-1.55624,28,2
1.29612,16.0742,1.41088,100,10
0.749537,9.29558,-1.47705,31,3
1.9702,24.3808,3.00335,16,11
0.886117,10.9417,-1.34787,27,4
2.32681,28.6692,4.55569,16,12
0.935203,11.498,-1.00926,18,5
1.51582,18.6365,3.63453,25,13
1.1975,14.691,-0.772479,35,6
1.59231,19.4926,4.51522,10,14
1.26218,15.4181,-0.270024,40,7
2.21898,27.0478,7.27178,19,15
0.0448865,0.539053,-0.144939,14,0
