x, y, z, intensity, ring
8.10743,0.589684,-0.426015,14,6
23.963,1.73871,5.54684,6,14
14.5936,1.05633,-0.255399,100,7
18.2259,1.31605,4.89634,12,15
15.2395,1.07902,0.266673,45,8
0.554011,0.0391291,-0.128222,14,1
14.6276,1.03056,0.768501,40,9
0.675656,0.0474837,-0.131658,26,2
9.59173,0.672405,0.841227,30,10
6.24078,0.436397,-0.990856,50,3
9.71514,0.679348,1.19578,30,11
7.49338,0.522677,-0.922307,60,4
12.7656,0.888187,2.02677,68,12
7.23092,0.50183,-0.634145,6,5
11.536,0.798585,2.24773,31,13
8.13743,0.561893,-0.42748,3,6
18.2379,1.25613,4.22053,15,14
16.67,1.14814,-0.291665,38,7
17.6946,1.21561,4.75244,9,15
21.9952,1.47634,0.384791,15,8
0.530818,0.0355361,-0.122823,15,1
14.6353,0.977207,0.768711,46,9
0.6719,0.0448632,-0.130895,27,2
9.56818,0.637196,0.838961,70,10
6.25015,0.415135,-0.992108,56,3
9.74529,0.645575,1.19919,41,11
7.41008,0.48958,-0.911826,42,4
16.7997,1.107,2.66658,36,12
23.4241,1.53941,4.56301,13,13
8.23899,0.540013,-0.432714,21,6
11.4167,0.74629,2.64138,10,14
14.6088,0.95239,-0.255538,93,7
12.1007,0.78676,3.24921,37,15
18.9488,1.20545,0.331421,22,8
0.554277,0.0351637,-0.128222,14,1
0.675979,0.0426476,-0.131658,26,2
11.3998,0.71722,0.999328,19,10
6.24177,0.391604,-0.990543,51,3
9.70787,0.609065,1.19432,30,11
7.30079,0.456771,-0.898177,58,4
16.8666,1.05229,2.67659,23,12
11.7138,0.726713,2.28131,7,13
8.14922,0.504138,-0.427899,18,6
9.67853,0.597051,2.23871,15,14
8.97956,0.553932,-0.157037,100,7
11.9934,0.737758,3.21971,20,15
18.8673,1.13085,0.32992,28,8
0.531059,0.0317368,-0.122823,15,1
22.6806,1.35145,1.19075,6,9
0.683963,0.0407547,-0.133185,26,2
9.98419,0.593171,0.875044,30,10
6.22535,0.368764,-0.987727,45,3
10.7246,0.633405,1.31911,53,11
7.40744,0.436192,-0.911095,25,4
10.8676,0.638041,1.72422,5,12
7.11254,0.417581,-0.623338,13,5
8.43804,0.492446,-0.442972,39,6
9.73698,0.566547,2.25176,22,14
8.87772,0.514997,-0.155222,100,7
12.0289,0.695688,3.22851,11,15
15.2554,0.860926,0.266708,46,8
0.531166,0.0298829,-0.122823,15,1
0.688021,0.038587,-0.133948,26,2
9.95238,0.556427,0.87208,18,10
6.23449,0.347469,-0.988979,52,3
9.86261,0.547955,1.21284,27,11
7.44658,0.41242,-0.915726,37,4
7.13782,0.394067,-0.62543,13,5
9.88769,0.544151,1.92488,21,13
8.00097,0.438922,-0.419944,21,6
12.2218,0.668324,2.82583,34,14
17.7854,0.966345,4.77262,6,15
15.2304,0.806185,0.266219,12,8
0.531267,0.0280287,-0.122823,15,1
0.662665,0.0348447,-0.128987,27,2
10.0179,0.525018,0.877658,44,10
6.25145,0.326533,-0.991482,56,3
9.82481,0.511458,1.20797,30,11
7.44797,0.386422,-0.915726,35,4
9.54018,0.493306,1.51303,27,12
8.10624,0.417737,-0.710145,42,5
8.77637,0.450735,-0.460556,43,6
12.2396,0.626464,2.82943,34,14
10.3629,0.528592,-0.181121,21,7
11.9485,0.607378,3.20573,8,15
15.267,0.754698,0.266812,24,8
0.531362,0.026174,-0.122823,15,1
9.66309,0.474292,0.507031,111,9
0.668671,0.0327036,-0.130132,27,2
6.26444,0.304189,-0.993359,51,3
9.80077,0.475906,1.2048,27,11
7.34221,0.355242,-0.902564,47,4
10.5955,0.510793,1.68011,49,12
8.21511,0.394598,-0.719558,27,5
9.92663,0.475077,1.93175,54,13
7.57698,0.3613,-0.397544,18,6
12.1951,0.579371,2.81864,25,14
10.3667,0.492507,-0.181156,27,7
11.9911,0.567587,3.2166,9,15
14.9361,0.683468,0.260983,36,8
0.531454,0.0242264,-0.122823,15,1
9.5749,0.436472,0.502321,80,9
0.658974,0.0299238,-0.128224,28,2
6.29901,0.283836,-0.998678,53,3
9.5962,0.430726,1.17945,33,11
7.17291,0.320702,-0.881603,16,4
9.4684,0.423334,1.50115,87,12
9.87724,0.438159,1.92183,65,13
8.12691,0.359092,-0.426329,54,6
12.125,0.533636,2.80199,68,14
12.0297,0.527331,3.22644,12,15
15.2699,0.648018,0.266777,9,8
0.531532,0.0224637,-0.122823,15,1
9.55242,0.402037,0.501064,32,9
0.664959,0.0278698,-0.129368,27,2
9.3959,0.392164,0.82275,22,10
6.31373,0.263521,-1.00087,53,3
9.52617,0.395936,1.17068,46,11
7.74912,0.320718,-0.952287,56,4
9.47179,0.390364,1.50146,32,12
6.90778,0.283485,-0.604861,1,5
11.6147,0.476648,2.25956,19,13
8.41741,0.343962,-0.441506,83,6
9.7006,0.394706,2.24141,13,14
10.3599,0.419722,-0.180981,25,7
11.9407,0.481674,3.20211,31,15
16.9506,0.66007,0.296098,15,8
0.562763,0.0218158,-0.130022,14,1
9.43203,0.363994,0.49468,37,9
0.665048,0.0256651,-0.129368,27,2
9.43498,0.362459,0.826062,24,10
6.31067,0.241328,-1.00024,45,3
11.6877,0.444915,1.43611,30,11
7.58952,0.287583,-0.932544,36,4
9.82644,0.370623,1.55746,42,12
8.0134,0.299444,-0.420258,21,6
9.68049,0.360043,2.23646,24,14
10.3653,0.383702,-0.181051,99,7
12.0755,0.444906,3.23783,24,15
10.6397,0.377125,0.185833,40,8
0.531675,0.0187526,-0.122823,15,1
9.37336,0.328964,0.491539,127,9
0.674948,0.0235698,-0.131277,27,2
10.609,0.368629,0.928732,23,10
6.34902,0.219495,-1.00619,53,3
9.8005,0.338817,1.20407,19,11
7.156,0.246143,-0.879166,22,4
9.92243,0.339565,1.57248,56,12
8.35921,0.284608,-0.73176,17,5
9.89698,0.335235,1.92488,56,13
7.94059,0.26758,-0.416385,3,6
9.65253,0.323583,2.22971,43,14
14.7914,0.495854,-0.258331,42,7
12.1041,0.40365,3.24507,12,15
15.214,0.48344,0.265695,15,8
0.531741,0.0168034,-0.122823,15,1
9.39846,0.295361,0.492795,63,9
0.671102,0.0210904,-0.130513,27,2
13.7846,0.430794,1.20658,55,10
6.38331,0.198372,-1.01151,50,3
9.76795,0.301854,1.19993,49,11
6.71835,0.20644,-0.825299,28,4
9.79922,0.299392,1.55277,79,12
7.45009,0.226322,-0.652099,21,5
9.93734,0.301881,1.93251,62,13
15.9145,0.475117,-0.277912,72,7
13.9862,0.415108,3.74925,13,15
10.4482,0.295496,0.182447,15,8
0.531796,0.0149476,-0.122823,15,1
9.84864,0.275098,0.516347,65,9
0.673137,0.0186849,-0.130895,27,2
9.5678,0.263911,0.837392,16,10
6.41559,0.175842,-1.01651,56,3
9.78878,0.268297,1.20236,49,11
6.86984,0.187093,-0.843823,37,4
9.49019,0.256798,1.50365,77,12
7.25565,0.195066,-0.635017,5,5
9.87754,0.263829,1.92068,66,13
8.67104,0.230089,-0.45459,50,6
11.9436,0.314841,2.75835,63,14
15.954,0.42056,-0.278575,40,7
13.9239,0.364612,3.73217,25,15
13.266,0.326533,0.231628,27,8
0.531847,0.012998,-0.122823,15,1
9.88552,0.239873,0.518231,60,9
0.675161,0.0163828,-0.131277,27,2
9.63439,0.232097,0.843145,32,10
6.46751,0.154673,-1.02465,50,3
9.63491,0.228745,1.18335,52,11
6.73355,0.158687,-0.827005,12,4
9.52859,0.222888,1.50959,68,12
7.93753,0.184289,-0.694631,10,5
9.82344,0.228075,1.91,29,13
8.04682,0.185421,-0.421828,14,6
11.9485,0.273234,2.75925,63,14
9.0403,0.205156,-0.15784,8,7
18.5372,0.417438,4.96829,13,15
10.3861,0.219376,0.181331,33,8
0.531889,0.0111415,-0.122823,15,1
9.94221,0.206524,0.521161,38,9
0.690919,0.0142317,-0.13433,25,2
9.63916,0.196863,0.843493,26,10
6.50556,0.131729,-1.03059,57,3
11.8565,0.240078,1.4561,16,11
7.14688,0.143467,-0.877703,37,4
9.41673,0.187388,1.49176,90,12
7.91223,0.156068,-0.692365,42,5
9.8674,0.19291,1.91839,61,13
8.4588,0.163895,-0.44339,43,6
11.9806,0.23004,2.76645,21,14
8.69307,0.166916,-0.151766,66,7
13.8798,0.264083,3.71975,13,15
10.1769,0.179417,0.177666,7,8
0.531925,0.00928489,-0.122823,15,1
9.4616,0.163503,0.495936,65,9
0.679185,0.0117368,-0.13204,26,2
9.45848,0.161798,0.827631,100,10
6.54349,0.110791,-1.03653,51,3
9.40008,0.157517,1.15435,34,11
6.6809,0.110785,-0.820424,9,4
9.53979,0.156527,1.51116,77,12
7.88484,0.127997,-0.689925,25,5
8.65501,0.138988,-0.453648,83,6
15.0151,0.238502,3.46695,15,14
8.66961,0.136192,-0.151347,31,7
13.9057,0.216025,3.72648,9,15
10.2034,0.144256,0.178119,41,8
0.55144,0.00770028,-0.127322,15,1
9.45612,0.13039,0.495622,125,9
0.667445,0.00908684,-0.12975,27,2
9.36538,0.125873,0.819438,84,10
6.58138,0.0873037,-1.04248,46,3
9.3708,0.124306,1.15069,15,11
9.54225,0.123254,1.51147,31,12
8.07051,0.102831,-0.706136,32,5
10.0118,0.125819,1.94625,9,13
8.52564,0.105658,-0.446844,61,6
8.65004,0.105686,-0.150998,29,7
12.5349,0.150963,3.35895,6,15
0.570951,0.00587963,-0.131821,14,1
9.4805,0.0959752,0.496878,115,9
0.667472,0.0067571,-0.12975,27,2
9.34982,0.0930203,0.818044,58,10
6.57572,0.0642733,-1.04154,52,3
9.38508,0.090095,1.1524,2,11
7.45965,0.0703092,-0.91597,33,4
9.58214,0.0886372,1.51773,83,12
8.72368,0.0776552,-0.457207,97,6
11.6394,0.101573,2.68727,42,14
8.66636,0.0741198,-0.151277,24,7
12.4774,0.104536,3.34342,8,15
10.1642,0.0709595,0.177421,57,8
0.531994,0.00362142,-0.122823,15,1
9.50874,0.0630644,0.498343,78,9
0.70283,0.00466134,-0.136619,25,2
9.36404,0.0604703,0.819264,52,10
6.66874,0.0419042,-1.05625,100,3
9.35358,0.0571379,1.1485,13,11
7.74768,0.0459758,-0.951312,28,4
9.51721,0.0548199,1.5074,47,12
9.84557,0.0549883,1.91381,35,13
8.66598,0.0468877,-0.454171,50,6
11.7235,0.0613899,2.70661,38,14
10.4123,0.0527017,-0.181749,36,7
20.1934,0.0986845,5.41087,12,15
9.81445,0.0342599,0.171313,30,8
0.532003,0.00176425,-0.122823,15,1
9.5109,0.0298851,0.498448,127,9
0.687136,0.00215911,-0.133566,26,2
9.34028,0.0277144,0.817172,98,10
6.5602,0.0183205,-1.03904,36,3
10.2887,0.0269324,1.2633,31,11
6.97758,0.0170506,-0.856742,27,4
9.50944,0.0215778,1.50615,85,12
7.97352,0.0180927,-0.697595,21,5
9.81625,0.0205562,1.90809,57,13
8.54426,0.0164054,-0.447787,68,6
11.973,0.0208993,2.7642,19,14
19.259,0.0302469,-0.336168,100,7
12.5512,0.0175276,3.36309,6,15
9.78651,-0,0.170824,55,8
0.532006,-9.28526e-05,-0.122823,15,1
0.691066,-0.000241227,-0.13433,25,2
9.32837,-0.00488432,0.816126,100,10
6.68665,-0.00466816,-1.05906,72,3
10.2907,-0.00898034,1.26354,8,11
7.93441,-0.0083089,-0.974224,47,4
9.53119,-0.0116445,1.50959,86,12
7.97752,-0.00974639,-0.697943,15,5
10.0126,-0.0139802,1.94625,40,13
8.62216,-0.0135437,-0.451869,100,6
11.9068,-0.0207813,2.7489,19,14
16.6394,-0.0319455,-0.290443,86,7
12.5358,-0.0262549,3.35895,8,15
9.83044,-0.0343149,0.171592,77,8
0.532003,-0.0019499,-0.122823,15,1
10.5514,-0.0405148,0.552982,37,9
0.683207,-0.00262334,-0.132803,26,2
9.29442,-0.0373104,0.813163,54,10
6.67474,-0.0279592,-1.05718,55,3
13.8935,-0.0606223,1.70593,31,11
6.84254,-0.0310507,-0.840167,28,4
10.1672,-0.0479119,1.61034,63,12
8.04916,-0.0379311,-0.704218,38,5
12.225,-0.0597433,2.37634,15,13
8.47226,-0.0428823,-0.444018,39,6
11.6942,-0.0612314,2.69986,25,14
19.2708,-0.104266,-0.336378,66,7
12.4892,-0.0697537,3.34653,2,15
9.81427,-0.0685176,0.171313,86,8
0.531992,-0.00380692,-0.122823,15,1
0.687121,-0.00503695,-0.133566,26,2
9.26236,-0.0695145,0.810374,28,10
6.55016,-0.0503026,-1.03747,52,3
10.1078,-0.0793879,1.24112,54,11
7.92423,-0.0636212,-0.973005,51,4
10.242,-0.0840174,1.62223,29,12
7.8378,-0.0642953,-0.685741,18,5
9.99065,-0.0836994,1.94205,25,13
8.59988,-0.073549,-0.450717,43,6
11.8947,-0.103803,2.7462,23,14
19.3263,-0.172031,-0.337355,58,7
22.8857,-0.20771,6.13246,6,15
9.95394,-0.104241,0.173756,100,8
0.531976,-0.0056639,-0.122823,15,1
9.78001,-0.105834,0.512578,7,9
0.683173,-0.00739293,-0.132803,26,2
9.2262,-0.101451,0.807236,58,10
6.53414,-0.0729901,-1.03497,68,3
9.40476,-0.106698,1.15483,28,11
7.83663,-0.0902754,-0.96228,40,4
7.39324,-0.0877488,-0.64687,25,5
10.0217,-0.118946,1.94816,75,13
8.17019,-0.0983965,-0.428213,18,6
12.4067,-0.151584,2.86453,29,14
19.1936,-0.237856,-0.335051,81,7
21.3974,-0.268902,5.73388,5,15
0.531953,-0.00752081,-0.122823,15,1
0.679215,-0.00983995,-0.13204,26,2
9.24369,-0.135529,0.808805,82,10
6.53778,-0.096997,-1.0356,62,3
9.16813,-0.136022,1.12583,42,11
7.78267,-0.116825,-0.9557,50,4
9.52417,-0.14463,1.50865,41,12
8.2515,-0.126744,-0.721998,25,5
9.80331,-0.152291,1.9058,32,13
10.2335,-0.162547,2.36289,52,14
14.0501,-0.223169,-0.245276,70,7
22.4549,-0.36059,6.01754,14,15
9.84497,-0.173563,0.171871,25,8
0.531922,-0.00947046,-0.122823,15,1
0.687028,-0.012352,-0.133566,26,2
9.31289,-0.169061,0.814906,34,10
6.59468,-0.120867,-1.04467,47,3
9.2946,-0.171974,1.14143,78,11
7.88937,-0.147351,-0.968861,30,4
9.60258,-0.181026,1.52117,134,12
7.49005,-0.141201,-0.655411,10,5
10.8764,-0.206939,2.11455,44,13
10.2309,-0.19823,2.36244,80,14
19.1434,-0.374257,-0.334214,36,7
9.59171,-0.189194,2.57059,10,15
17.2915,-0.365225,0.301892,42,8
0.531886,-0.0113272,-0.122823,15,1
9.75237,-0.209392,0.511218,28,9
0.686981,-0.0147501,-0.133566,26,2
9.50745,-0.205793,0.831989,60,10
7.01882,-0.153151,-1.11194,42,3
9.1828,-0.201973,1.12778,31,11
7.6705,-0.17005,-0.94205,30,4
9.54659,-0.213308,1.51241,61,12
10.487,-0.236152,2.03899,33,13
8.44224,-0.191581,-0.442553,32,6
9.74895,-0.222937,2.25131,52,14
15.5355,-0.357976,-0.271245,65,7
20.6517,-0.479472,5.5351,11,15
0.582494,-0.0144393,-0.134521,14,1
10.095,-0.252005,0.529221,17,9
0.702626,-0.0175399,-0.136619,25,2
8.97886,-0.225711,0.785796,41,10
6.33301,-0.160305,-1.00337,76,3
9.09671,-0.231851,1.1173,37,11
7.90997,-0.202986,-0.971543,22,4
9.60503,-0.248161,1.52179,39,12
7.9828,-0.207643,-0.69864,15,5
8.69428,-0.226149,1.69057,69,13
7.99429,-0.209338,-0.419106,18,6
9.74227,-0.256812,2.24996,79,14
15.5861,-0.413582,-0.272153,48,7
23.9522,-0.639761,6.42027,10,15
9.67471,-0.271929,0.168939,62,8
0.551273,-0.015591,-0.127322,15,1
13.4162,-0.381777,0.703395,26,9
0.67312,-0.0192723,-0.130895,27,2
12.9292,-0.372438,1.13163,38,10
6.30868,-0.182829,-0.999616,48,3
9.09981,-0.263718,1.11779,65,11
7.4449,-0.217058,-0.914508,41,4
9.45601,-0.277344,1.49833,74,12
8.12741,-0.239796,-0.711365,50,5
8.67769,-0.257548,1.68751,16,13
8.07532,-0.24108,-0.423398,39,6
9.81723,-0.294798,2.26751,37,14
15.9144,-0.477888,-0.277912,27,7
26.0083,-0.785537,6.97207,17,15
19.6391,-0.624046,0.342975,23,8
0.555108,-0.0177359,-0.128222,14,1
15.1374,-0.486291,0.793727,10,9
0.686785,-0.022063,-0.133566,26,2
9.15225,-0.295616,0.801136,7,10
6.87859,-0.223379,-1.09004,66,3
9.17418,-0.29953,1.12705,36,11
7.35676,-0.241478,-0.903783,23,4
9.52403,-0.314281,1.50928,77,12
7.86765,-0.259622,-0.688705,21,5
8.72383,-0.289399,1.69667,41,13
8.0864,-0.269666,-0.424026,14,6
9.57658,-0.321034,2.21217,96,14
21.2884,-0.721087,5.70748,10,15
19.6888,-0.694428,0.343882,40,8
0.531672,-0.0188451,-0.122823,15,1
0.698476,-0.0248795,-0.135856,25,2
9.18899,-0.328916,0.804447,30,10
7.37721,-0.265353,-1.16919,40,3
9.30599,-0.336356,1.14338,47,11
7.59988,-0.276018,-0.933763,26,4
9.53077,-0.347812,1.51053,73,12
7.67953,-0.280254,-0.672319,20,5
8.85618,-0.324741,1.72262,60,13
8.17922,-0.301348,-0.428946,3,6
9.17618,-0.339683,2.11994,44,14
20.137,-0.748949,-0.351736,79,7
31.0425,-1.15998,8.32362,6,15
10.0489,-0.389554,0.175536,15,8
0.55497,-0.0216108,-0.128222,14,1
12.7567,-0.498983,0.669063,28,9
0.674843,-0.0263967,-0.131277,27,2
9.23358,-0.362788,0.808457,7,10
7.22031,-0.284949,-1.14447,48,3
9.33451,-0.370017,1.14703,44,11
7.62465,-0.303572,-0.936932,27,4
8.06472,-0.322503,-0.706136,30,5
8.90992,-0.357859,1.73331,25,13
9.44364,-0.382598,2.18203,82,14
22.7297,-0.924841,-0.397077,74,7
10.1646,-0.415362,2.72588,17,15
0.562679,-0.0238784,-0.130022,14,1
12.7449,-0.543084,0.66854,8,9
0.696323,-0.0296716,-0.135474,25,2
6.55813,-0.281747,-1.03966,15,3
9.48389,-0.409101,1.16556,73,11
7.77626,-0.336799,-0.9557,42,4
9.44325,-0.41065,1.49708,34,12
9.59314,-0.418845,1.86649,71,13
9.52178,-0.417395,-0.499494,100,6
9.17942,-0.403993,2.12129,37,14
19.504,-0.861795,-0.340776,36,7
10.1786,-0.451526,2.73002,11,15
0.531446,-0.0244117,-0.122823,15,1
0.678565,-0.0312882,-0.13204,26,2
9.11738,-0.421991,0.798521,15,10
6.58868,-0.306104,-1.04467,47,3
9.31187,-0.43425,1.1446,31,11
8.14782,-0.381391,-1.00152,55,4
9.43979,-0.443518,1.49677,71,12
8.64246,-0.407568,1.68179,20,13
9.51228,-0.450252,-0.499076,100,6
9.81253,-0.46618,2.26796,37,14
9.20014,-0.438696,-0.160772,100,7
9.29731,-0.457967,0.162482,37,8
0.531357,-0.0262666,-0.122823,15,1
9.67082,-0.47975,0.507449,43,9
0.701982,-0.0348239,-0.136619,25,2
7.3649,-0.367935,-1.16794,56,3
9.26867,-0.464665,1.13948,13,11
8.1623,-0.410628,-1.00347,15,4
9.52894,-0.481048,1.51116,60,12
11.6546,-0.588356,-1.02094,22,5
9.51351,-0.481934,1.85161,32,13
9.47874,-0.481831,-0.497401,100,6
9.60065,-0.489708,2.21937,25,14
9.19656,-0.470705,-0.160737,100,7
15.5348,-0.797832,4.16802,11,15
9.27569,-0.489365,0.162133,21,8
0.531262,-0.0281212,-0.122823,15,1
9.10665,-0.483635,0.477932,41,9
0.694014,-0.0368576,-0.135093,25,2
8.84081,-0.474158,1.08707,7,11
7.19151,-0.386961,-0.884284,33,4
9.53509,-0.514733,1.51241,49,12
7.67944,-0.414559,-0.672842,10,5
9.34318,-0.506008,1.81879,75,13
9.78374,-0.533294,2.26211,35,14
9.1689,-0.501385,-0.160283,26,7
15.5879,-0.855123,4.18303,13,15
9.26793,-0.521403,0.162028,81,8
0.562291,-0.0317323,-0.130022,14,1
9.08098,-0.514065,0.476676,57,9
0.697801,-0.0395019,-0.135856,25,2
10.0215,-0.569063,0.878181,26,10
6.38592,-0.363737,-1.01307,2,3
8.85297,-0.505808,1.08878,20,11
6.96617,-0.399227,-0.856742,6,4
9.33208,-0.53645,1.4805,56,12
8.03599,-0.461945,-0.704218,13,5
9.55107,-0.550711,1.85962,36,13
12.9246,-0.747493,-0.678483,13,6
9.47638,-0.549724,2.19147,42,14
14.0747,-0.821401,3.77772,12,15
9.28602,-0.554944,0.162377,28,8
0.569958,-0.0341612,-0.131821,14,1
9.121,-0.548277,0.478874,41,9
0.68982,-0.0414662,-0.13433,25,2
13.3407,-0.804269,1.16928,20,10
8.82341,-0.535026,1.08537,52,11
6.3921,-0.388718,-0.786301,8,4
9.56478,-0.583332,1.51773,77,12
8.11189,-0.494723,-0.711016,13,5
9.41976,-0.576137,1.83444,38,13
8.56214,-0.525183,-0.449566,58,6
9.43161,-0.580167,2.18158,48,14
8.95761,-0.552579,-0.156653,22,7
9.4268,-0.583174,2.53073,23,15
10.3198,-0.652883,0.180493,15,8
0.530939,-0.0336829,-0.122823,15,1
8.68849,-0.552723,0.456265,25,9
0.705346,-0.044871,-0.137382,24,2
9.68922,-0.618083,0.84942,54,10
8.8413,-0.567093,1.08781,22,11
6.30156,-0.405295,-0.775333,4,4
9.23743,-0.595739,1.4661,70,12
11.7168,-0.755639,-1.02722,18,5
9.42945,-0.609775,1.83673,72,13
12.9769,-0.841453,-0.681519,32,6
12.0451,-0.783142,2.78669,19,14
8.95363,-0.583713,-0.156618,100,7
9.42471,-0.616076,2.53073,7,15
20.3713,-1.36377,0.356378,27,8
0.530812,-0.0356287,-0.122823,15,1
0.707135,-0.0475877,-0.137764,24,2
8.96728,-0.605039,0.786319,52,10
6.55512,-0.443435,-1.0406,1,3
9.35014,-0.63415,1.15069,26,11
6.29409,-0.427984,-0.774602,5,4
9.23912,-0.62986,1.46673,90,12
13.4412,-0.918684,-1.17869,35,5
9.3586,-0.639646,1.82337,49,13
12.9777,-0.889283,-0.681728,26,6
9.73829,-0.669013,2.25356,22,14
8.93347,-0.615289,-0.156304,23,7
19.8338,-1.39735,0.347059,8,8
0.530684,-0.0374814,-0.122823,15,1
8.91542,-0.631245,0.468407,59,9
0.701081,-0.0497622,-0.136619,25,2
8.93519,-0.63578,0.783704,46,10
9.34985,-0.666925,1.15093,10,11
8.09241,-0.578652,-0.99616,30,4
9.31765,-0.667897,1.47956,49,12
8.39222,-0.603034,-0.736117,15,5
9.23478,-0.665198,1.79971,38,13
12.5481,-0.906061,-0.659328,26,6
9.74743,-0.705545,2.25626,34,14
8.96917,-0.649212,-0.156967,25,7
0.530543,-0.0394262,-0.122823,15,1
8.80759,-0.654517,0.462859,43,9
0.679367,-0.0506049,-0.132421,26,2
8.9508,-0.668301,0.785273,24,10
7.57414,-0.566844,-1.20298,67,3
11.2912,-0.847011,1.39029,19,11
8.10805,-0.609647,-0.998354,55,4
9.43148,-0.709157,1.49802,56,12
8.18344,-0.616753,-0.717989,25,5
9.28526,-0.701422,1.81001,57,13
12.503,-0.946689,-0.65713,39,6
9.66913,-0.733814,2.23871,58,14
13.9425,-1.06058,3.74666,13,15
9.0176,-0.698616,0.157874,25,8
0.53041,-0.0411853,-0.122823,15,1
8.93867,-0.69564,0.469872,63,9
0.692888,-0.0540447,-0.135093,25,2
10.3186,-0.808471,1.27085,3,11
7.90611,-0.620836,-0.973736,31,4
8.69046,-0.683954,1.38069,39,12
8.30439,-0.655028,-0.728796,31,5
9.369,-0.739002,1.82681,9,13
8.49779,-0.671775,-0.44674,36,6
9.69384,-0.768029,2.24501,33,14
19.6452,-1.55991,-0.343987,36,7
9.32455,-0.742046,2.5064,8,15
0.549686,-0.0446129,-0.127322,15,1
0.696618,-0.0566605,-0.135856,25,2
8.5747,-0.698942,0.752677,5,10
10.3158,-0.844485,1.27085,33,11
7.85245,-0.644209,-0.967399,32,4
8.65849,-0.711858,1.376,63,12
8.19494,-0.673747,-0.719384,20,5
10.5536,-0.871369,-0.554971,45,6
9.6911,-0.801862,2.24501,91,14
10.2393,-0.84902,-0.179341,18,7
14.0945,-1.17116,3.78963,13,15
9.01051,-0.761385,0.15784,60,8
0.514575,-0.0435718,-0.119224,16,1
18.7448,-1.59052,0.985905,11,9
0.69446,-0.0589258,-0.135474,25,2
8.57022,-0.7287,0.752503,24,10
7.64663,-0.651515,-1.2155,41,3
10.2989,-0.879307,1.26915,63,11
7.77302,-0.665016,-0.957893,18,4
8.69729,-0.74562,1.38257,79,12
7.91661,-0.678693,-0.695154,65,5
8.81128,-0.758491,-0.463487,94,6
9.66106,-0.833341,2.23871,16,14
16.2589,-1.40531,-0.284858,86,7
8.79067,-0.773722,0.154035,66,8
0.506655,-0.044683,-0.117424,16,1
0.705973,-0.0625096,-0.137764,24,2
8.55175,-0.757206,0.751108,54,10
7.78008,-0.690248,-1.23708,68,3
7.3139,-0.651462,-0.901589,18,4
8.65922,-0.772814,1.37694,63,12
7.9994,-0.715335,-0.70265,32,5
8.81242,-0.791138,-0.463697,76,6
11.3797,-1.02162,2.63778,22,14
17.8273,-1.60359,-0.312433,61,7
8.71609,-0.799362,0.152778,66,8
0.556942,-0.0511758,-0.129122,14,1
8.86629,-0.816258,0.466627,78,9
0.699874,-0.0645558,-0.136619,25,2
8.6005,-0.793302,0.75564,45,10
7.71062,-0.712578,-1.22645,51,3
8.97196,-0.830724,1.10633,5,11
7.78387,-0.722088,-0.959843,5,4
8.93563,-0.830506,1.42136,46,12
8.13559,-0.757581,-0.714851,28,5
9.42002,-0.878843,1.83902,39,13
8.78162,-0.82083,-0.462231,100,6
9.62574,-0.899731,2.23196,12,14
13.3396,-1.24922,-0.233862,82,7
9.35159,-0.877399,2.51676,42,15
8.70514,-0.830543,0.152639,86,8
0.506314,-0.0483957,-0.117424,16,1
8.87929,-0.848722,0.467465,108,9
0.701599,-0.0671855,-0.137001,24,2
8.63323,-0.828244,0.758778,65,10
7.91049,-0.7603,-1.25867,25,3
8.97478,-0.864173,1.10706,32,11
13.3693,-1.28732,-1.64914,15,4
8.67509,-0.836845,1.38038,54,12
8.17058,-0.789616,-0.718163,27,5
10.0363,-0.971694,1.95999,25,13
8.75882,-0.84955,-0.461184,90,6
9.40142,-0.911879,2.18068,16,14
8.73751,-0.849023,-0.153232,22,7
9.31002,-0.906294,2.5064,51,15
8.73219,-0.862354,0.153162,70,8
0.529422,-0.0523767,-0.122823,15,1
9.0076,-0.89114,0.474373,83,9
0.701372,-0.0695118,-0.137001,24,2
8.59079,-0.852932,0.755292,78,10
5.84789,-0.581636,-0.930785,5,3
11.0558,-1.10157,1.36421,22,11
10.7417,-1.07028,-1.32545,19,4
8.63296,-0.861684,1.37412,87,12
8.09258,-0.809173,-0.71154,26,5
9.53884,-0.955466,1.86344,43,13
7.96303,-0.799027,-0.41942,36,6
9.35957,-0.939159,2.17168,61,14
8.75056,-0.879593,-0.153511,100,7
9.31081,-0.937549,2.50744,39,15
8.73525,-0.891915,0.153267,100,8
0.517613,-0.0529423,-0.120124,15,1
9.04219,-0.926445,0.476362,76,9
0.693313,-0.0711578,-0.135474,25,2
8.61368,-0.88406,0.757558,39,10
5.86951,-0.603449,-0.93454,60,3
9.16039,-0.943403,1.1307,47,11
7.95966,-0.821147,-0.982511,35,4
8.70849,-0.899935,1.38664,73,12
8.2859,-0.857727,-0.728796,17,5
9.64285,-0.999893,1.88443,21,13
8.00986,-0.831977,-0.422037,50,6
9.33297,-0.969408,2.16628,73,14
10.1914,-1.06037,-0.178852,26,7
8.81544,-0.932763,0.154733,71,8
0.529043,-0.0560715,-0.122823,15,1
8.97121,-0.952411,0.472803,78,9
0.716475,-0.0761897,-0.140054,23,2
8.67972,-0.922998,0.763659,58,10
5.8378,-0.621819,-0.929847,40,3
10.3787,-1.10733,1.28158,33,11
7.75724,-0.82901,-0.957893,7,4
8.87209,-0.949719,1.41323,65,12
7.67453,-0.82288,-0.675283,25,5
8.14179,-0.875855,-0.429155,58,6
9.3623,-1.00715,2.17393,73,14
16.1282,-1.73784,-0.283148,51,7
9.32115,-1.00602,2.5121,8,15
8.83582,-0.967679,0.155152,50,8
0.528834,-0.0580101,-0.122823,15,1
8.74728,-0.961074,0.461184,63,9
0.68498,-0.0752595,-0.133948,39,2
8.72777,-0.960471,0.768191,61,10
5.85511,-0.645376,-0.932975,68,3
10.1201,-1.11726,1.25014,31,11
8.92549,-0.988537,1.4223,39,12
7.63992,-0.846155,-0.672494,25,5
8.05134,-0.894566,-0.424549,39,6
9.42052,-1.04836,2.18832,78,14
13.2022,-1.47153,-0.231873,21,7
9.3351,-1.05535,0.163983,41,8
0.513137,-0.0581018,-0.119224,16,1
8.28942,-0.940063,0.437215,63,9
0.694467,-0.0787562,-0.135856,25,2
8.56797,-0.973167,0.75442,46,10
5.85871,-0.66648,-0.933914,16,3
9.3173,-1.06157,1.15142,28,11
8.19093,-0.934687,-1.01225,30,4
8.2547,-0.943423,1.31593,42,12
7.71214,-0.881415,-0.679118,26,5
8.13548,-0.932674,-0.429155,54,6
9.39551,-1.07879,2.18337,28,14
8.90793,-1.02438,-0.156513,100,7
9.0527,-1.04263,2.4417,51,15
12.2293,-1.42579,0.214909,38,8
0.528416,-0.0617006,-0.122823,15,1
8.23848,-0.963426,0.434703,42,9
0.694188,-0.0811799,-0.135856,25,2
8.68721,-1.01744,0.765227,30,10
9.60926,-1.12883,1.18798,41,11
7.34382,-0.864,-0.907927,80,4
8.3004,-0.97801,1.32375,125,12
7.63763,-0.90127,-0.672842,26,5
8.97849,-1.0595,1.75735,58,13
8.04291,-0.950518,-0.424445,43,6
9.45168,-1.11868,2.19732,22,14
8.40586,-0.996387,-0.147752,73,7
9.19672,-1.09176,2.48156,40,15
12.1905,-1.46442,0.214316,7,8
0.497241,-0.0598206,-0.115625,16,1
8.97469,-1.08129,0.473745,43,9
0.695835,-0.0839588,-0.136238,37,2
8.6676,-1.04736,0.763833,78,10
6.02637,-0.729271,-0.961446,5,3
9.5225,-1.15235,1.17775,30,11
7.22252,-0.8753,-0.893302,45,4
8.27929,-1.00484,1.32093,73,12
7.66608,-0.931771,-0.675631,23,5
9.11486,-1.10948,1.78483,33,13
8.06317,-0.982891,-0.425701,61,6
9.44945,-1.15355,2.19777,52,14
8.3011,-1.01336,-0.145972,81,7
9.1871,-1.12315,2.48,43,15
9.16458,-1.13501,0.16119,15,8
0.508622,-0.0630818,-0.118324,16,1
8.2611,-1.02605,0.436273,60,9
0.689693,-0.0856613,-0.135093,25,2
8.71332,-1.08376,0.768191,80,10
9.23652,-1.15211,1.14289,100,11
7.2232,-0.902258,-0.89379,49,4
8.69109,-1.08715,1.38726,73,12
7.74977,-0.969406,-0.683301,28,5
9.10315,-1.14031,1.7833,72,13
7.99033,-1.00233,-0.422037,68,6
9.35062,-1.17463,2.17573,51,14
8.3013,-1.04428,-0.146042,56,7
9.20784,-1.15996,2.48673,33,15
16.0716,-2.04742,0.282799,16,8
0.527729,-0.0673228,-0.122823,15,1
8.31294,-1.06196,0.439203,78,9
0.704969,-0.0900585,-0.138146,24,2
8.64427,-1.10582,0.762438,75,10
9.21866,-1.18257,1.14118,65,11
7.3913,-0.94947,-0.914995,57,4
8.29539,-1.06708,1.32469,84,12
7.62975,-0.981454,-0.673017,30,5
8.84403,-1.13922,1.73331,68,13
7.97291,-1.02843,-0.421304,54,6
9.25176,-1.19503,2.15368,43,14
8.3928,-1.08557,-0.147717,56,7
9.11369,-1.18043,2.4624,37,15
16.0624,-2.10325,0.282764,22,8
0.527491,-0.0691645,-0.122823,15,1
8.32107,-1.09253,0.439831,21,9
0.694918,-0.0912409,-0.136238,25,2
8.57912,-1.12794,0.757035,73,10
5.75009,-0.757014,-0.918583,32,3
9.56479,-1.26093,1.18457,24,11
7.43124,-0.98098,-0.920357,75,4
8.82233,-1.16618,1.40947,66,12
7.5848,-1.0026,-0.669356,30,5
8.95094,-1.18477,1.75506,39,13
8.00095,-1.06045,-0.422979,72,6
9.89662,-1.31346,2.30485,29,14
8.38896,-1.11486,-0.147717,89,7
8.61907,-1.15922,0.151801,43,8
0.527246,-0.0710054,-0.122823,15,1
8.16083,-1.10049,0.431562,73,9
0.692649,-0.0934037,-0.135856,25,2
8.63041,-1.16534,0.761916,86,10
5.75133,-0.77761,-0.919209,52,3
9.20231,-1.24584,1.14021,86,11
7.115,-0.964515,-0.881603,14,4
8.64204,-1.17306,1.38132,79,12
7.61876,-1.03416,-0.672668,30,5
8.89811,-1.2094,1.74552,129,13
8.11594,-1.10453,-0.42926,61,6
9.72012,-1.32458,2.26481,35,14
8.42266,-1.14927,-0.14838,40,7
9.088,-1.24167,2.45775,7,15
9.16765,-1.26559,0.161539,31,8
0.526995,-0.0728454,-0.122823,15,1
8.19651,-1.13444,0.433656,63,9
0.700098,-0.0968975,-0.137382,24,2
8.63616,-1.19683,0.762787,69,10
5.81902,-0.807455,-0.930472,13,3
9.14089,-1.27003,1.13314,57,11
5.63107,-0.78338,-0.698068,3,4
8.44224,-1.17596,1.35003,117,12
7.66444,-1.06762,-0.677026,30,5
9.24189,-1.289,1.81383,38,13
8.1061,-1.13203,-0.428946,58,6
9.63245,-1.3469,2.24546,34,14
14.1756,-1.98468,-0.249849,100,7
9.06257,-1.27043,2.45205,21,15
9.22257,-1.306,0.162587,62,8
0.526738,-0.0746845,-0.122823,15,1
8.32103,-1.1813,0.440459,51,9
0.686149,-0.0974091,-0.134711,25,2
8.64771,-1.22921,0.764182,37,10
5.8631,-0.834442,-0.937981,38,3
9.07351,-1.29297,1.12534,52,11
7.51292,-1.07192,-0.931813,27,4
8.34618,-1.1923,1.33532,77,12
7.64292,-1.09183,-0.675457,26,5
9.23539,-1.32097,1.81345,42,13
7.53863,-1.07962,-0.399114,32,6
12.0004,-1.72073,2.79884,57,14
20.1958,-2.89947,-0.356134,36,7
9.05043,-1.30096,2.44998,48,15
14.1535,-2.05468,0.249639,42,8
0.526474,-0.0765227,-0.122823,15,1
8.74377,-1.27246,0.463069,45,9
0.687748,-0.100086,-0.135093,25,2
8.91544,-1.29903,0.788237,9,10
5.72723,-0.835513,-0.916706,36,3
9.04341,-1.3209,1.12217,42,11
7.70556,-1.12687,-0.956187,42,4
8.50419,-1.24517,1.36129,65,12
7.8224,-1.14535,-0.691668,22,5
9.2618,-1.35776,1.81955,36,13
12.0483,-1.77054,2.81144,61,14
20.3814,-2.99876,-0.359589,7,7
9.18344,-1.35282,2.48725,21,15
8.50513,-1.26503,0.150091,25,8
0.549333,-0.0818044,-0.128222,14,1
8.32444,-1.24112,0.441087,33,9
0.679627,-0.101328,-0.133566,26,2
10.0833,-1.50517,0.891952,22,10
5.71842,-0.854623,-0.915767,22,3
9.10549,-1.36245,1.13046,65,11
7.66624,-1.14846,-0.9518,71,4
8.29662,-1.24438,1.32875,50,12
7.81441,-1.17205,-0.691319,35,5
9.22012,-1.38454,1.8123,60,13
7.59214,-1.14143,-0.402359,39,6
12.0651,-1.81607,2.81684,34,14
23.6177,-3.55919,-0.416903,25,7
13.7747,-2.07831,3.73269,12,15
14.6112,-2.2254,0.257981,12,8
0.55675,-0.0848965,-0.130022,14,1
8.30821,-1.26837,0.440459,108,9
0.683151,-0.104293,-0.13433,25,2
10.4581,-1.59845,0.925594,46,10
7.24823,-1.10913,-1.16137,60,3
9.1203,-1.39723,1.1329,60,11
7.69162,-1.17973,-0.955456,35,4
8.1946,-1.25834,1.31311,79,12
7.95776,-1.22339,-0.704393,10,5
8.99596,-1.383,1.76918,48,13
7.89013,-1.21441,-0.418374,61,6
12.1319,-1.86945,2.83393,25,14
15.8876,-2.45101,-0.2806,63,7
13.7922,-2.13021,3.73942,16,15
8.4625,-1.31914,0.149497,38,8
0.544898,-0.0850365,-0.127322,15,1
8.31557,-1.29921,0.441087,47,9
0.680824,-0.106492,-0.133948,26,2
8.91292,-1.39573,0.789282,15,10
7.2246,-1.13263,-1.15824,60,3
8.69569,-1.36326,1.08074,20,11
7.67961,-1.20534,-0.954481,41,4
8.13747,-1.27866,1.30466,120,12
8.05578,-1.26726,-0.713457,31,5
9.18476,-1.44651,1.80734,18,13
7.7061,-1.21501,-0.408849,39,6
8.98354,-1.41803,2.09969,35,14
23.4994,-3.70933,-0.415263,43,7
13.8228,-2.18437,3.74977,7,15
0.525339,-0.0839577,-0.122823,15,1
8.28906,-1.32621,0.439936,52,9
0.684325,-0.109489,-0.134711,25,2
8.88635,-1.42336,0.787365,24,10
7.2284,-1.1591,-1.15949,28,3
9.18259,-1.4741,1.14192,31,11
5.73283,-0.92133,-0.712936,23,4
8.09958,-1.30314,1.29934,70,12
8.08672,-1.30107,-0.716594,6,5
9.07499,-1.4617,1.78674,75,13
7.75702,-1.25081,-0.411779,65,6
8.9516,-1.44503,2.09339,37,14
15.5341,-2.5104,-0.274666,100,7
16.0886,-2.62596,0.284544,16,8
0.486579,-0.0795059,-0.113825,16,1
8.94074,-1.4625,0.474792,69,9
0.668439,-0.109341,-0.131658,26,2
8.83021,-1.446,0.782833,28,10
7.41145,-1.215,-1.18953,12,3
9.41637,-1.54537,1.17165,27,11
5.79031,-0.951312,-0.720492,45,4
8.13396,-1.33782,1.3056,79,12
8.12341,-1.33608,-0.720255,13,5
8.02376,-1.32113,1.58066,23,13
7.74472,-1.27658,-0.411361,43,6
9.03111,-1.49023,2.11319,37,14
9.32223,-1.53994,-0.164925,94,7
8.87037,-1.46689,2.40909,34,15
0.547806,-0.0914747,-0.128222,14,1
8.88239,-1.48481,0.471966,39,9
0.685481,-0.114587,-0.135093,38,2
8.72096,-1.45939,0.773594,45,10
5.53881,-0.927874,-0.889486,28,3
8.61803,-1.44526,1.07294,12,11
5.79674,-0.973162,-0.72171,25,4
8.14678,-1.36915,1.30842,79,12
7.69822,-1.29377,-0.682952,26,5
8.10429,-1.36346,1.59745,68,13
7.86824,-1.32516,-0.418164,43,6
9.00087,-1.51754,2.10734,63,14
22.9913,-3.88043,-0.40699,16,7
13.6445,-2.30534,3.70784,11,15
7.92062,-1.34963,0.140248,96,8
0.509064,-0.0868329,-0.119224,16,1
8.90669,-1.52085,0.473536,51,9
0.679271,-0.115988,-0.133948,26,2
8.47621,-1.44887,0.752328,22,10
8.74794,-1.49846,1.08976,70,11
5.81091,-0.99641,-0.723904,6,4
8.16531,-1.40159,1.31217,79,12
7.7997,-1.33883,-0.692365,16,5
8.12076,-1.3954,1.60165,39,13
8.03284,-1.38174,-0.427166,39,6
8.9379,-1.53902,2.09384,31,14
13.6939,-2.36043,-0.242554,71,7
13.5278,-2.33423,3.67834,13,15
7.92374,-1.37864,0.140387,100,8
0.524116,-0.0912844,-0.122823,15,1
9.49553,-1.65553,0.505147,33,9
0.678862,-0.118358,-0.133948,26,2
8.15118,-1.42261,0.723916,65,10
5.74236,-1.00323,-0.923276,57,3
8.59013,-1.50231,1.07074,26,11
5.80154,-1.01566,-0.723173,8,4
8.18761,-1.43486,1.31655,48,12
7.87544,-1.38015,-0.699512,27,5
8.13905,-1.42781,1.60623,28,13
8.06535,-1.41633,-0.429155,39,6
15.7161,-2.76552,-0.27854,100,7
13.7118,-2.41529,3.73062,10,15
7.90509,-1.40384,0.140143,31,8
0.523794,-0.0931133,-0.122823,15,1
7.9107,-1.40769,0.421095,16,9
0.680377,-0.121071,-0.13433,25,2
8.11282,-1.44511,0.720952,60,10
5.66687,-1.01044,-0.9117,12,3
8.57506,-1.53054,1.06953,28,11
6.65973,-1.18988,-0.830662,33,4
8.37895,-1.49855,1.34815,74,12
5.85439,-1.04704,-0.52032,30,5
8.06831,-1.44445,1.59326,23,13
8.12326,-1.45575,-0.432504,32,6
11.0292,-1.97851,2.58694,50,14
10.959,-1.96789,-0.19435,22,7
13.5473,-2.43511,3.68817,13,15
7.80766,-1.41467,0.138502,49,8
0.538806,-0.0977233,-0.126422,15,1
7.92539,-1.43886,0.422142,37,9
0.683792,-0.124266,-0.135093,25,2
8.01167,-1.45597,0.712411,45,10
8.72786,-1.58927,1.08927,27,11
8.21237,-1.49836,1.32218,77,12
5.85247,-1.06885,-0.520494,40,5
11.1414,-2.03678,2.20155,31,13
8.17878,-1.49666,-0.435749,47,6
8.51683,-1.55852,1.99892,40,14
15.6944,-2.87481,-0.278506,100,7
13.5273,-2.48029,3.68507,6,15
7.7926,-1.44146,0.138328,57,8
0.553773,-0.102536,-0.130022,14,1
7.89061,-1.46244,0.420572,8,9
0.685263,-0.12713,-0.135474,25,2
7.8143,-1.44971,0.695328,95,10
5.5216,-1.02536,-0.889486,16,3
8.40776,-1.56284,1.05003,26,11
5.7943,-1.07809,-0.72366,12,4
8.17381,-1.52231,1.31687,19,12
5.79367,-1.08007,-0.515613,43,5
8.11926,-1.51508,1.60547,33,13
8.21643,-1.53469,-0.438052,32,6
8.54362,-1.59581,2.00656,52,14
12.7747,-2.38841,-0.226846,32,7
16.2184,-3.03519,4.42115,11,15
7.72242,-1.45777,0.137176,44,8
0.522756,-0.0987758,-0.122823,15,1
0.682886,-0.129156,-0.135093,25,2
7.79132,-1.475,0.69376,56,10
6.02242,-1.14121,-0.970832,10,3
8.32981,-1.57996,1.04101,35,11
5.90147,-1.12043,-0.737553,1,4
5.80748,-1.10364,-0.517182,25,5
8.10235,-1.54121,1.60318,66,13
11.0071,-2.09773,2.58694,48,14
14.9813,-2.86055,4.08675,13,15
0.522408,-0.1006,-0.122823,15,1
8.8213,-1.70031,0.470814,24,9
0.680503,-0.131167,-0.134711,25,2
8.08544,-1.55994,0.720429,30,10
5.88069,-1.13564,-0.948619,25,3
8.07672,-1.56118,1.01005,27,11
6.03005,-1.16666,-0.754128,10,4
8.89578,-1.72272,1.43513,25,12
7.66771,-1.4849,-0.683301,10,5
8.28195,-1.60535,1.63981,36,13
8.09768,-1.5711,-0.432295,39,6
8.54538,-1.65951,2.00971,43,14
9.40452,-1.82805,-0.167229,51,7
15.0035,-2.9191,4.09555,12,15
12.769,-2.50287,0.227126,18,8
0.506755,-0.0994214,-0.119224,16,1
0.676188,-0.132785,-0.133948,26,2
7.99197,-1.57086,0.712585,41,10
5.88057,-1.15692,-0.949244,25,3
8.03811,-1.58284,1.00591,40,11
6.6336,-1.30747,-0.830174,12,4
7.51392,-1.48235,-0.670053,26,5
8.35719,-1.65022,1.65584,44,13
8.12937,-1.60671,-0.434284,47,6
10.9578,-2.16772,2.57884,48,14
8.72947,-1.7269,-0.155326,100,7
12.153,-2.40636,3.31961,24,15
12.7489,-2.54285,0.226916,40,8
0.521711,-0.104153,-0.122823,15,1
7.7147,-1.54155,0.412303,27,9
0.67572,-0.135145,-0.133948,26,2
7.98449,-1.59836,0.712411,45,10
5.49512,-1.10003,-0.887609,72,3
7.94329,-1.59155,0.994698,51,11
10.263,-2.05821,-1.28523,17,4
7.50284,-1.50739,-0.66953,32,5
8.548,-1.71737,1.69477,61,13
16.1031,-3.23818,-0.860822,26,6
12.819,-2.5801,3.01884,27,14
17.388,-3.50287,-0.309606,76,7
8.37032,-1.68775,2.28796,8,15
8.66575,-1.75992,0.154349,48,8
0.551899,-0.112185,-0.130022,14,1
0.682939,-0.13907,-0.135474,25,2
7.91471,-1.61171,0.706659,54,10
5.47576,-1.11605,-0.885106,17,3
7.94157,-1.62006,0.995185,40,11
5.98854,-1.22274,-0.750471,29,4
11.2039,-2.28964,1.8112,33,12
7.49753,-1.53357,-0.66953,31,5
8.282,-1.69553,1.64325,30,13
8.23535,-1.68748,-0.440564,39,6
8.33502,-1.7079,1.96427,45,14
17.3913,-3.56676,-0.309885,45,7
0.520953,-0.107884,-0.122823,15,1
7.64675,-1.58496,0.409267,105,9
0.668969,-0.13878,-0.132803,26,2
7.92436,-1.64394,0.708053,37,10
6.17566,-1.28229,-0.998991,26,3
7.88699,-1.63906,0.989092,51,11
5.97431,-1.24266,-0.749253,62,4
10.9808,-2.286,1.77647,36,12
7.48991,-1.56063,-0.669356,30,5
8.48137,-1.76876,1.68408,30,13
16.7926,-3.50509,-0.899027,16,6
8.36113,-1.74521,1.97192,33,14
8.29562,-1.73304,-0.147927,8,7
8.08952,-1.69146,2.21446,43,15
9.21224,-1.94132,0.164332,6,8
0.543435,-0.114619,-0.128222,14,1
7.56105,-1.59474,0.404976,112,9
0.672322,-0.141926,-0.133566,26,2
7.92413,-1.67421,0.708576,43,10
5.81338,-1.22931,-0.94111,10,3
7.86734,-1.66508,0.987386,45,11
5.94641,-1.25961,-0.746328,44,4
8.39863,-1.77906,1.35973,15,12
7.53899,-1.59834,-0.674237,33,5
8.18323,-1.73641,1.62607,41,13
8.16641,-1.73433,-0.437529,50,6
8.40996,-1.78759,1.98497,10,14
8.22888,-1.7491,-0.146845,89,7
8.01743,-1.70562,2.19634,51,15
7.487,-1.60371,0.133651,20,8
0.520187,-0.111518,-0.122823,15,1
7.55153,-1.62029,0.404766,74,9
0.673742,-0.144684,-0.133948,26,2
8.11108,-1.74331,0.725833,41,10
5.39018,-1.15851,-0.873217,27,3
7.85789,-1.69032,0.986898,60,11
7.8576,-1.6917,-0.986898,34,4
7.6288,-1.64522,-0.682778,31,5
10.5821,-2.28213,2.10424,25,13
8.09814,-1.74792,-0.434179,65,6
8.21882,-1.77697,-0.146775,89,7
8.03975,-1.73972,2.2041,45,15
7.47941,-1.62941,0.133616,48,8
0.519794,-0.113333,-0.122823,15,1
7.56729,-1.65132,0.405918,108,9
0.680931,-0.148592,-0.135474,25,2
8.09942,-1.76892,0.72531,26,10
5.41698,-1.18406,-0.878223,10,3
7.91012,-1.73047,0.99421,18,11
7.82643,-1.71359,-0.983729,22,4
8.56931,-1.87782,1.38945,90,12
7.56881,-1.65857,-0.677897,26,5
8.3649,-1.83455,1.66462,58,13
8.06468,-1.77018,-0.432714,100,6
12.5393,-2.75465,2.96396,19,14
8.08562,-1.77774,-0.144506,100,7
8.19966,-1.80431,2.24966,31,15
7.54201,-1.67064,0.134837,39,8
0.519395,-0.115147,-0.122823,15,1
7.64533,-1.69633,0.410419,63,9
0.672742,-0.149266,-0.133948,26,2
8.09514,-1.79761,0.725484,22,10
10.8281,-2.40846,1.36201,6,11
7.85722,-1.7491,-0.98836,28,4
8.61284,-1.91889,1.39759,68,12
7.78856,-1.73524,-0.698117,21,5
8.47917,-1.89066,1.68866,27,13
8.15007,-1.81877,-0.437633,47,6
8.08912,-1.80813,-0.14468,100,7
11.0042,-2.46175,3.02145,11,15
7.57905,-1.70662,0.135605,68,8
0.51899,-0.11696,-0.122823,15,1
7.82055,-1.76387,0.420153,41,9
0.666471,-0.150318,-0.132803,26,2
7.99164,-1.80392,0.716769,52,10
5.5531,-1.2545,-0.901688,62,3
11.1662,-2.5246,1.40564,26,11
8.65618,-1.96028,1.40572,71,12
11.7368,-2.65793,-1.05284,35,5
8.29754,-1.88211,-0.445902,39,6
7.95502,-1.80588,1.88329,45,14
8.06131,-1.83148,-0.144296,88,7
11.0521,-2.513,3.03698,10,15
7.58474,-1.73574,0.135815,67,8
0.518579,-0.11877,-0.122823,15,1
7.88832,-1.80812,0.424131,37,9
0.675511,-0.154837,-0.134711,25,2
7.8513,-1.80107,0.704741,28,10
5.54676,-1.27343,-0.901375,61,3
8.61707,-1.9799,1.08561,27,11
5.96632,-1.37195,-0.75169,4,4
8.64928,-1.99049,1.40572,52,12
8.22478,-1.89279,-0.738383,11,5
8.19792,-1.88812,1.63523,21,13
6.21235,-1.43195,-0.334113,32,6
8.0645,-1.86035,1.91073,66,14
7.99836,-1.84657,-0.143284,88,7
11.1505,-2.57635,3.06649,11,15
7.62343,-1.77263,0.136617,68,8
0.533345,-0.124113,-0.126422,15,1
7.45791,-1.73688,0.401312,53,9
0.682614,-0.158975,-0.136238,25,2
7.92064,-1.84611,0.71154,78,10
5.48457,-1.27933,-0.891989,45,3
8.21962,-1.91881,1.03638,26,11
10.1079,-2.36147,-1.27451,11,4
8.69037,-2.03191,1.41354,48,12
7.48477,-1.75003,-0.672494,17,5
8.13584,-1.90375,1.62417,36,13
8.12669,-1.9031,-0.437424,39,6
8.27615,-1.93963,1.96247,18,14
7.95293,-1.86534,-0.142586,88,7
11.1791,-2.62409,3.07684,23,15
7.55881,-1.78544,0.13557,68,8
0.517737,-0.122388,-0.122823,15,1
7.96491,-1.88429,0.428946,34,9
0.659129,-0.155933,-0.131658,26,2
7.91415,-1.87374,0.71154,45,10
8.23991,-1.95391,1.03979,11,11
7.49789,-1.77934,-0.946194,13,4
8.02401,-1.90567,1.30623,52,12
7.44179,-1.76739,-0.669182,30,5
8.16353,-1.94031,1.63104,42,13
6.20609,-1.47621,-0.334322,35,6
8.26744,-1.96806,1.96202,41,14
8.01834,-1.91024,-0.143878,72,7
11.1962,-2.66937,3.08409,24,15
0.469619,-0.112745,-0.12941,15,0
7.9855,-1.91862,0.143354,32,8
0.517263,-0.124375,-0.122823,15,1
7.71489,-1.85645,0.415862,49,9
0.656617,-0.158003,-0.131277,27,2
7.75774,-1.8682,0.698117,58,10
5.64212,-1.35976,-0.919209,18,3
8.22849,-1.9846,1.0393,30,11
7.601,-1.83466,-0.960087,35,4
8.69445,-2.1002,1.41667,56,12
7.38847,-1.78473,-0.664998,23,5
10.7666,-2.60272,2.15309,14,13
6.18291,-1.4958,-0.33338,45,6
8.25035,-1.99749,1.95977,58,14
8.00901,-1.94054,-0.143843,64,7
11.2046,-2.71689,3.08926,18,15
0.516826,-0.12618,-0.122823,15,1
7.6327,-1.86489,0.411779,47,9
0.66369,-0.162158,-0.132803,26,2
7.68731,-1.87965,0.692365,37,10
5.59512,-1.36912,-0.912326,45,3
7.95543,-1.94815,1.00567,22,11
8.6084,-2.11124,1.40384,63,12
7.25641,-1.77966,-0.653668,25,5
10.6163,-2.60565,2.12485,7,13
7.97954,-1.95996,-0.43062,29,6
8.26982,-2.03279,1.96607,58,14
8.30122,-2.04205,-0.149218,48,7
7.88068,-1.95173,0.141714,6,8
0.516382,-0.127983,-0.122823,15,1
7.56605,-1.87661,0.408534,35,9
0.659309,-0.163529,-0.13204,26,2
7.87987,-1.95591,0.710319,61,10
5.81461,-1.44436,-0.948932,21,3
8.29727,-2.06259,1.04978,49,11
7.80954,-1.94279,-0.988117,37,4
8.58948,-2.13841,1.40197,58,12
7.30397,-1.81973,-0.658549,27,5
10.0579,-2.50771,-0.543247,24,6
10.9268,-2.72638,2.59998,22,14
8.32315,-2.07828,-0.149742,57,7
20.8301,-5.20512,5.75303,22,15
7.88933,-1.98313,0.141993,12,8
0.515933,-0.129785,-0.122823,15,1
8.36711,-2.10633,0.452183,43,9
0.662512,-0.166903,-0.132803,26,2
7.67752,-1.93558,0.692714,41,10
5.80736,-1.46518,-0.948619,7,3
8.29387,-2.09251,1.05027,57,11
7.5448,-1.90492,-0.955456,15,4
8.45173,-2.13548,1.38069,74,12
7.67038,-1.93948,-0.692191,13,5
11.0694,-2.80099,2.21949,21,13
8.1415,-2.06163,-0.440145,39,6
8.37981,-2.12353,-0.150894,90,7
12.2691,-3.1114,3.39157,34,15
0.467978,-0.119373,-0.12941,15,0
0.515453,-0.131675,-0.122823,15,1
8.23005,-2.1024,0.44517,53,9
0.658122,-0.168242,-0.13204,26,2
7.92744,-2.02805,0.715897,73,10
5.82518,-1.49132,-0.952373,20,3
8.3073,-2.12832,1.05295,52,11
6.05329,-1.55197,-0.767289,1,4
7.98116,-2.04624,1.30498,109,12
8.02831,-2.05983,-0.725136,32,5
10.9417,-2.80934,2.19583,26,13
8.14393,-2.09252,-0.440669,18,6
8.44022,-2.17022,2.01196,50,14
8.08959,-2.08006,-0.145797,89,7
12.0655,-3.10462,3.33825,16,15
7.92369,-2.05068,0.142865,51,8
0.488603,-0.126543,-0.116525,16,1
8.24393,-2.13663,0.446321,28,9
0.649929,-0.168567,-0.130513,27,2
7.75253,-2.01216,0.700732,43,10
5.8202,-1.51063,-0.952373,40,3
8.37513,-2.17531,1.06246,47,11
6.03466,-1.56854,-0.765583,44,4
8.07911,-2.10144,1.32218,63,12
7.71064,-2.00703,-0.697072,12,5
11.5137,-2.99694,2.31261,42,13
6.29695,-1.64023,-0.341021,40,6
10.1132,-2.63617,2.41283,38,14
7.5463,-1.96848,-0.136129,68,7
11.7293,-3.06182,3.24818,63,15
8.45031,-2.21847,0.152499,67,8
0.514545,-0.13518,-0.122823,15,1
7.3614,-1.93535,0.398905,8,9
0.656961,-0.172718,-0.13204,26,2
7.68031,-2.02062,0.694806,54,10
7.84934,-2.06656,-1.28558,38,3
8.51529,-2.24348,1.08122,37,11
6.01379,-1.58554,-0.763633,11,4
8.16723,-2.15483,1.33783,65,12
7.60149,-2.00698,-0.687833,28,5
11.431,-3.01807,2.2981,66,13
8.11212,-2.14331,-0.439727,14,6
10.2848,-2.71927,2.45602,96,14
7.44272,-1.96923,-0.134384,52,7
11.7111,-3.10077,3.24611,21,15
7.8087,-2.07919,0.14105,27,8
0.49524,-0.131958,-0.118324,16,1
0.671499,-0.179174,-0.135093,25,2
7.88074,-2.10427,0.713631,71,10
7.6127,-2.03412,-1.24803,23,3
8.36549,-2.23527,1.06319,54,11
6.00822,-1.60653,-0.763633,13,4
10.9152,-2.92063,1.78961,35,12
8.12755,-2.17625,-0.736117,15,5
11.4388,-3.06503,2.30192,42,13
6.2349,-1.6718,-0.3383,39,6
10.094,-2.70847,2.41283,43,14
7.49374,-2.01075,-0.135431,100,7
12.3159,-3.30695,3.41693,8,15
7.90913,-2.13701,0.143005,92,8
0.513565,-0.138859,-0.122823,15,1
7.38978,-1.99945,0.401207,69,9
0.667079,-0.180491,-0.13433,25,2
7.96951,-2.1578,0.722347,45,10
7.04501,-1.90881,-1.15605,65,3
8.34574,-2.2628,1.06173,59,11
6.09042,-1.65245,-0.774845,22,4
8.76164,-2.37884,1.43795,63,12
8.20604,-2.22953,-0.743961,11,5
8.01025,-2.17634,1.61348,69,13
6.10953,-1.66107,-0.33181,19,6
8.28123,-2.25306,1.98137,66,14
7.4979,-2.04135,-0.13564,83,7
12.2851,-3.34699,3.41175,8,15
7.82255,-2.14294,0.141574,48,8
0.513077,-0.140651,-0.122823,15,1
7.34038,-2.01361,0.398905,72,9
0.655054,-0.179817,-0.13204,26,2
7.87125,-2.16219,0.714154,48,10
7.04368,-1.93618,-1.15699,68,3
7.35586,-2.022,0.936688,11,11
6.16309,-1.69528,-0.784839,40,4
8.67519,-2.38792,1.42512,26,12
7.90431,-2.17721,-0.717292,31,5
6.07645,-1.67601,-0.330345,29,6
10.2059,-2.81692,2.44432,64,14
7.61988,-2.10316,-0.137979,62,7
12.2733,-3.38985,3.41175,12,15
0.465353,-0.129229,-0.12941,15,0
7.79923,-2.16732,0.141295,52,8
0.512558,-0.14253,-0.122823,15,1
7.33523,-2.03975,0.399009,80,9
0.661988,-0.184208,-0.133566,26,2
7.89244,-2.19767,0.716769,39,10
7.06542,-1.96871,-1.16168,61,3
7.40003,-2.06334,0.943269,2,11
6.1511,-1.71626,-0.784107,44,4
8.72008,-2.43305,1.43388,48,12
8.102,-2.26212,-0.735943,16,5
10.4734,-2.92619,2.11378,30,13
6.06671,-1.69614,-0.330135,45,6
10.1528,-2.84045,2.43397,47,14
7.76848,-2.17338,-0.140806,72,7
20.4394,-5.72216,5.68729,9,15
8.31365,-2.33999,0.150754,75,8
0.512082,-0.144229,-0.122823,15,1
7.33383,-2.06697,0.399323,29,9
0.653782,-0.184386,-0.13204,26,2
7.98443,-2.25335,0.725833,67,10
6.4543,-1.82152,-1.06219,45,3
7.36258,-2.07924,0.939369,2,11
6.10526,-1.72531,-0.778989,18,4
8.73245,-2.46939,1.43732,82,12
7.76239,-2.19654,-0.705787,30,5
11.3458,-3.21054,2.292,66,13
7.73678,-2.19075,-0.421409,29,6
7.82433,-2.21849,-0.141958,48,7
20.6479,-5.85833,5.75096,10,15
8.45158,-2.41069,0.153407,66,8
0.511576,-0.146016,-0.122823,15,1
7.39187,-2.11121,0.402882,43,9
0.664494,-0.189788,-0.13433,25,2
7.1321,-2.03836,0.648962,24,10
6.90371,-1.97439,-1.13728,32,3
8.77328,-2.51073,1.12047,5,11
7.71369,-2.20895,-0.985192,30,4
10.9171,-3.12835,1.79868,28,12
7.73208,-2.21568,-0.703695,27,5
13.7407,-3.94009,2.77856,11,13
6.06079,-1.73905,-0.330449,26,6
10.3304,-2.96806,-0.187613,36,7
12.2279,-3.51552,3.40916,34,15
8.05698,-2.32857,0.146391,55,8
0.511063,-0.147801,-0.122823,15,1
7.3691,-2.13256,0.402045,39,9
0.660056,-0.191015,-0.133566,26,2
7.23977,-2.0965,0.65942,65,10
9.54425,-2.76744,1.22016,63,11
7.7269,-2.24195,-0.987873,8,4
6.14959,-1.78546,-0.560237,10,5
13.774,-4.00172,2.7881,7,13
7.73472,-2.24861,-0.422142,39,6
10.2297,-2.97588,2.45961,43,14
10.2279,-2.97727,-0.185938,45,7
12.2322,-3.56304,3.41382,8,15
0.556232,-0.162759,-0.155291,12,0
8.03728,-2.35331,0.146181,68,8
0.510544,-0.149584,-0.122823,15,1
7.36161,-2.15827,0.402045,51,9
0.648081,-0.190003,-0.131277,27,2
7.4102,-2.17392,0.675631,41,10
6.05389,-1.77717,-0.999304,32,3
9.5631,-2.80913,1.22381,14,11
6.01067,-1.76676,-0.769239,50,4
17.2852,-5.08404,2.85368,1,12
7.7275,-2.27433,-0.704741,22,5
10.4622,-3.07918,2.11989,9,13
7.72683,-2.27559,-0.422142,39,6
10.2062,-3.00771,2.45647,66,14
6.94714,-2.04861,-0.126425,13,7
25.8012,-7.61329,7.20811,27,15
8.02519,-2.38022,0.146112,70,8
0.510019,-0.151365,-0.122823,15,1
7.30426,-2.16917,0.399323,75,9
0.662436,-0.196851,-0.13433,25,2
7.14628,-2.12497,0.652274,78,10
6.04923,-1.79991,-0.999616,21,3
6.43668,-1.91519,0.824568,64,11
6.59046,-1.9622,-0.844311,58,4
7.6966,-2.29446,-0.70265,30,5
10.1465,-3.0306,2.44477,35,14
11.5385,-3.44635,-0.210197,48,7
25.7893,-7.70773,7.21225,23,15
0.462544,-0.138946,-0.12941,15,0
8.29409,-2.49308,0.151173,53,8
0.509461,-0.153233,-0.122823,15,1
6.69955,-2.01634,0.366666,61,9
0.654225,-0.196899,-0.132803,26,2
7.12737,-2.14645,0.651228,69,10
7.69408,-2.31858,-1.27275,40,3
6.49804,-1.9594,0.833343,80,11
6.62123,-1.99781,-0.849186,15,4
17.0574,-5.14994,2.82208,15,12
7.71102,-2.32956,-0.704741,23,5
13.6367,-4.11975,2.76902,16,13
15.9369,-4.8177,-0.872545,19,6
10.2497,-3.10041,2.47221,16,14
8.58404,-2.59821,-0.156548,92,7
25.8404,-7.82628,7.23451,4,15
8.39055,-2.55404,0.153093,77,8
0.508923,-0.155011,-0.122823,15,1
6.68865,-2.03854,0.366456,69,9
0.657254,-0.200441,-0.133566,26,2
7.18044,-2.19117,0.656806,67,10
7.7082,-2.35369,-1.27651,17,3
6.49686,-1.98381,0.834074,95,11
7.57863,-2.31557,-0.973005,31,4
8.09151,-2.47537,-0.740301,16,5
17.7852,-5.44428,3.61545,21,13
7.76095,-2.3772,-0.425387,18,6
11.0301,-3.38066,2.66342,16,14
7.45645,-2.28536,-0.136129,38,7
25.8092,-7.9153,7.23348,18,15
8.45566,-2.60776,0.154454,63,8
0.530696,-0.163771,-0.128222,14,1
6.65096,-2.05246,0.364782,70,9
0.649047,-0.200417,-0.13204,26,2
7.21653,-2.22975,0.660815,54,10
9.57962,-2.96172,-1.58812,43,3
6.46299,-1.99939,0.830662,30,11
6.66745,-2.06392,-0.856985,6,4
10.8203,-3.34943,1.79399,13,12
7.49474,-2.32144,-0.686439,13,5
17.7661,-5.50633,3.61545,21,13
5.97851,-1.85409,-0.328042,19,6
17.7576,-5.51048,4.29252,15,14
7.41787,-2.30189,-0.13557,100,7
34.9656,-10.8571,9.81028,8,15
8.35725,-2.60779,0.152813,68,8
0.507828,-0.15856,-0.122823,15,1
6.5389,-2.0429,0.359025,24,9
0.652091,-0.203853,-0.132803,26,2
7.17447,-2.24422,0.657677,73,10
14.7241,-4.6058,-2.44351,17,3
6.44686,-2.01785,0.829443,73,11
7.47708,-2.34461,-0.685567,21,5
17.8227,-5.58872,3.63071,12,13
5.97614,-1.8751,-0.328251,42,6
17.7076,-5.55941,4.28487,18,14
6.13921,-1.92862,-0.112324,5,7
17.7126,-5.56776,4.97502,8,15
0.552671,-0.174469,-0.155291,12,0
8.36526,-2.64237,0.153127,56,8
0.507271,-0.160332,-0.122823,15,1
6.64028,-2.10004,0.364991,54,9
0.642017,-0.203167,-0.130895,27,2
6.96374,-2.20368,0.639026,99,10
6.2523,-1.97974,-1.03873,35,3
6.27135,-1.98698,0.80775,65,11
6.6154,-2.09726,-0.852111,30,4
6.21549,-1.97167,1.03278,109,12
7.42897,-2.35804,-0.681907,7,5
6.0092,-1.90969,-0.330449,13,6
13.2456,-4.2094,3.2087,18,14
6.10195,-1.94034,-0.111765,16,7
17.8292,-5.6729,5.01333,3,15
0.484409,-0.15506,-0.117424,16,1
6.72003,-2.15239,0.369806,57,9
