x, y, z, intensity, ring
4.25385,-9.00723,1.22308,34,11
2.25749,-4.78223,-0.64932,31,4
4.31832,-9.14787,1.6022,24,12
2.32361,-4.92453,-0.476393,40,5
4.2518,-9.01511,1.93747,12,13
2.59158,-5.49742,-0.318517,39,6
4.19814,-8.90938,2.27381,65,14
2.47104,-5.2441,-0.101189,52,7
4.00711,-8.50782,2.51986,10,15
0.205178,-0.437213,-0.12941,15,0
2.33537,-4.97643,0.0959533,8,8
0.225929,-0.48165,-0.122823,15,1
4.38178,-9.3456,0.540945,46,9
0.247437,-0.527982,-0.113341,16,2
3.54549,-7.56881,0.731237,56,10
0.296636,-0.633249,-0.110756,24,3
4.21217,-8.99611,1.21967,31,11
2.21637,-4.73575,-0.642008,45,4
4.34161,-9.28098,1.62285,22,12
2.32582,-4.97413,-0.480402,46,5
4.20525,-8.99359,1.92984,45,13
2.71456,-5.80816,-0.335997,35,6
4.15125,-8.88618,2.26436,71,14
2.4671,-5.28349,-0.101782,43,7
4.13341,-8.88842,0.171103,26,8
0.224246,-0.482436,-0.122823,15,1
4.33987,-9.34092,0.539793,40,9
0.262229,-0.564409,-0.120973,15,2
3.51198,-7.56246,0.729494,48,10
0.291928,-0.628906,-0.109817,24,3
4.21166,-9.07739,1.22869,25,11
2.19148,-4.72545,-0.63957,29,4
4.30005,-9.27637,1.61941,49,12
2.30596,-4.97458,-0.479705,30,5
4.1697,-8.9993,1.92793,50,13
2.7824,-6.00789,-0.346987,43,6
4.14149,-8.9466,2.27605,69,14
2.48559,-5.37192,-0.103318,55,7
3.84381,-8.31116,2.4536,36,15
4.10236,-8.9028,0.171103,46,8
0.222561,-0.483215,-0.122823,15,1
4.26548,-9.2653,0.53456,40,9
0.243838,-0.529654,-0.113341,16,2
3.4789,-7.56019,0.728099,26,10
0.28808,-0.626331,-0.109191,25,3
4.17497,-9.08121,1.22722,46,11
2.24045,-4.87557,-0.658826,67,4
6.82031,-14.8489,2.58805,26,12
2.26446,-4.93009,-0.47465,23,5
4.14154,-9.02094,1.92946,43,13
2.52234,-5.49659,-0.316947,22,6
4.17929,-9.11156,2.3143,55,14
2.49766,-5.44782,-0.10461,55,7
3.81398,-8.32277,2.45309,37,15
0.220873,-0.483989,-0.122823,15,1
4.23145,-9.2765,0.53435,53,9
0.241987,-0.530502,-0.113341,16,2
6.32804,-13.8792,1.33453,23,10
0.28835,-0.632726,-0.11013,37,3
4.12843,-9.06322,1.22284,37,11
2.22013,-4.87613,-0.657851,31,4
6.3405,-13.9323,2.42442,32,12
2.27943,-5.00869,-0.481448,43,5
4.14254,-9.10682,1.94473,43,13
2.5081,-5.51627,-0.317575,35,6
4.09183,-9.00368,2.28325,68,14
2.47697,-5.45287,-0.10454,40,7
3.80487,-8.38,2.46603,15,15
2.26484,-5.00673,0.0959184,22,8
0.219182,-0.484757,-0.122823,15,1
4.19576,-9.28393,0.533931,60,9
0.262773,-0.581436,-0.124026,14,2
3.96902,-8.7863,0.843493,10,10
0.29183,-0.646331,-0.11232,47,3
4.08371,-9.04862,1.21894,17,11
2.21044,-4.90014,-0.660044,59,4
6.29507,-13.9615,2.42567,14,12
2.39787,-5.31812,-0.510384,27,5
4.07282,-9.0371,1.92679,57,13
2.42648,-5.38659,-0.30962,15,6
4.21079,-9.35197,2.36783,54,14
2.54574,-5.6566,-0.108275,48,7
9.9034,-22.0155,6.46841,21,15
0.217489,-0.48552,-0.122823,15,1
4.22862,-9.44435,0.542305,38,9
0.238278,-0.532178,-0.113341,16,2
6.37261,-14.2395,1.36486,24,10
0.289572,-0.647346,-0.11232,47,3
6.10367,-13.6513,1.83608,40,11
2.22977,-4.98938,-0.671013,37,4
4.14916,-9.28861,1.61128,10,12
2.40449,-5.38286,-0.515788,32,5
4.09487,-9.17138,1.95236,18,13
2.40441,-5.38773,-0.309201,34,6
4.20829,-9.43424,2.38493,15,14
2.47386,-5.54856,-0.106041,56,7
9.73213,-21.8382,6.40629,3,15
2.48056,-5.58717,0.106704,61,8
0.215792,-0.486276,-0.122823,15,1
4.15837,-9.37507,0.53749,47,9
0.236419,-0.533007,-0.113341,16,2
4.18779,-9.44583,0.903979,46,10
0.290512,-0.655577,-0.113571,46,3
6.06161,-13.6852,1.83779,20,11
2.13841,-4.83014,-0.648589,98,4
4.29897,-9.7149,1.68261,46,12
2.39133,-5.40397,-0.517008,30,5
6.19908,-14.0154,2.97891,7,13
2.31452,-5.23534,-0.29999,27,6
4.21708,-9.54334,2.40878,21,14
2.4771,-5.60838,-0.107018,52,7
11.6048,-26.2867,7.69935,5,15
6.08216,-13.8359,0.263811,25,8
0.214009,-0.487063,-0.122823,15,1
4.15611,-9.46339,0.541677,41,9
0.234464,-0.53387,-0.113341,16,2
3.95774,-9.01597,0.861447,16,10
0.284932,-0.649401,-0.11232,47,3
5.98669,-13.651,1.83023,24,11
2.28008,-5.20156,-0.697336,49,4
4.26095,-9.72516,1.68167,39,12
2.39949,-5.47657,-0.523109,26,5
6.13428,-14.0075,2.97242,18,13
2.15917,-4.93275,-0.282196,22,6
4.18129,-9.55695,2.40833,42,14
3.73687,-8.54523,-0.162796,76,7
7.4587,-17.0642,4.99003,17,15
6.02744,-13.8423,0.263531,18,8
4.16209,-9.56759,0.546806,51,9
0.232599,-0.534685,-0.113341,16,2
6.30566,-14.502,1.38351,45,10
0.281089,-0.646769,-0.111694,48,3
6.99805,-16.1098,2.1566,18,11
2.20182,-5.0711,-0.678812,62,4
6.97864,-16.0805,2.7764,20,12
2.43191,-5.60371,-0.534439,10,5
6.05957,-13.9694,2.95983,33,13
2.17292,-5.01172,-0.286278,25,6
4.14635,-9.56791,2.40743,43,14
7.83767,-18.0945,-0.344196,58,7
8.98713,-20.7581,6.06102,24,15
7.04503,-16.3348,0.310513,20,8
0.210603,-0.488546,-0.122823,15,1
4.01802,-9.32526,0.532152,43,9
0.243161,-0.564342,-0.119446,15,2
6.03512,-14.0134,1.33488,23,10
0.278829,-0.647746,-0.111694,48,3
6.86959,-15.9663,2.13418,32,11
2.22489,-5.17359,-0.691487,34,4
7.00282,-16.2917,2.80862,38,12
2.38637,-5.55176,-0.528687,36,5
5.99527,-13.9544,2.9522,34,13
2.31855,-5.39916,-0.307945,25,6
4.10601,-9.56621,2.40338,66,14
3.67712,-8.57111,-0.162796,100,7
8.87731,-20.7023,6.03566,28,15
3.94566,-9.23705,0.175327,3,8
0.208897,-0.489278,-0.122823,15,1
3.97055,-9.30433,0.530163,53,9
0.244272,-0.57241,-0.120973,15,2
3.8076,-8.9268,0.849071,44,10
0.271144,-0.635995,-0.109504,50,3
6.87763,-16.14,2.15416,50,11
2.28616,-5.36761,-0.716348,43,4
6.77569,-15.9162,2.73979,17,12
2.37166,-5.57106,-0.529733,32,5
6.73365,-15.8251,3.34297,15,13
2.29969,-5.40722,-0.307945,9,6
4.10309,-9.65222,2.42137,36,14
3.61825,-8.51579,-0.161505,100,7
11.0984,-26.1334,7.60773,25,15
3.91806,-9.26182,0.175536,36,8
0.207187,-0.490004,-0.122823,15,1
3.95904,-9.3678,0.532989,47,9
0.226987,-0.537091,-0.113341,16,2
3.76789,-8.91985,0.847154,48,10
0.280447,-0.664235,-0.114197,45,3
6.84903,-16.2297,2.16294,37,11
2.2026,-5.22192,-0.695874,49,4
6.70244,-15.8978,2.7326,66,12
2.34581,-5.56686,-0.528512,33,5
6.72259,-15.9534,3.36511,33,13
2.28545,-5.42626,-0.308573,18,6
4.06635,-9.6593,2.41957,33,14
10.9651,-26.0723,7.57874,25,15
6.04298,-14.425,0.272991,19,8
0.205476,-0.490724,-0.122823,15,1
4.08979,-9.77216,0.55518,25,9
0.225017,-0.53792,-0.113341,16,2
3.72441,-8.90787,0.844713,42,10
0.266586,-0.637919,-0.109504,37,3
8.56046,-20.4845,2.72597,33,11
2.06347,-4.94016,-0.657363,25,4
6.59896,-15.8063,2.71289,44,12
2.19516,-5.26059,-0.498705,13,5
4.03092,-9.67414,2.41957,49,14
3.56871,-8.56484,-0.161958,100,7
6.67476,-16.0272,4.65201,16,15
5.97475,-14.4101,0.272292,16,8
0.203676,-0.491474,-0.122823,15,1
4.0012,-9.65976,0.547957,58,9
0.223138,-0.538702,-0.113341,16,2
3.68644,-8.90425,0.843145,30,10
0.268889,-0.649798,-0.111381,48,3
8.38821,-20.2809,2.69478,46,11
2.22054,-5.37146,-0.713667,19,4
8.18697,-19.814,3.39557,15,12
2.15168,-5.20746,-0.492953,38,5
4.07751,-9.87322,2.07638,13,13
3.99489,-9.68274,2.41822,42,14
8.3721,-20.3022,-0.383325,78,7
10.7452,-26.0697,7.55545,20,15
5.91909,-14.4179,0.272048,12,8
0.201959,-0.492182,-0.122823,15,1
4.01066,-9.779,0.553924,30,9
0.221256,-0.539477,-0.113341,16,2
8.30971,-20.2712,1.91673,21,10
0.265122,-0.647076,-0.110756,36,3
8.37905,-20.4607,2.71476,40,11
2.19576,-5.36448,-0.711717,46,4
10.6818,-26.1098,4.46808,25,12
2.178,-5.32374,-0.503237,46,5
4.04451,-9.89103,2.07715,28,13
2.2744,-5.56491,-0.315062,35,6
3.98981,-9.76699,2.43577,56,14
5.83849,-14.2997,-0.269605,48,7
10.6643,-26.1321,7.56269,5,15
8.30688,-20.4369,0.38507,5,8
0.20024,-0.492884,-0.122823,15,1
3.93968,-9.70226,0.548795,47,9
0.219371,-0.540246,-0.113341,16,2
5.70189,-14.0491,1.32651,40,10
0.259891,-0.640676,-0.109504,25,3
8.32399,-20.5303,2.72012,6,11
2.17628,-5.37028,-0.711473,49,4
8.1278,-20.0666,3.42904,20,12
2.21475,-5.46796,-0.516136,33,5
2.23248,-5.51727,-0.311922,34,6
3.88994,-9.61826,2.39528,70,14
10.4972,-25.9683,-0.488912,40,7
11.0109,-27.2528,7.87586,28,15
8.16383,-20.2877,0.381719,35,8
0.198518,-0.49358,-0.122823,15,1
3.87823,-9.64739,0.544922,49,9
0.217484,-0.541009,-0.113341,16,2
5.66173,-14.0911,1.3286,31,10
0.264278,-0.658077,-0.11232,23,3
10.6481,-26.5281,3.50984,11,11
2.18708,-5.45153,-0.721223,47,4
8.02903,-20.0233,3.41684,22,12
2.18675,-5.45346,-0.514045,16,5
10.8276,-27.0163,5.65749,29,13
2.26594,-5.65667,-0.319354,45,6
3.87517,-9.67882,2.40698,68,14
5.70137,-14.2472,-0.26786,22,7
10.6854,-26.7153,7.7097,21,15
5.88693,-14.7782,0.277668,33,8
0.196794,-0.49427,-0.122823,15,1
3.73465,-9.38,0.529117,58,9
0.215594,-0.541765,-0.113341,16,2
8.055,-20.2516,1.90679,21,10
0.259061,-0.651653,-0.111068,24,3
8.18852,-20.6082,2.72281,27,11
2.16731,-5.45729,-0.720979,60,4
3.91677,-9.86243,1.68073,9,12
2.30443,-5.80551,-0.546467,13,5
2.30729,-5.81865,-0.328042,39,6
3.87942,-9.7883,2.43082,31,14
5.64083,-14.2326,-0.267231,100,7
11.9094,-30.0644,8.66474,14,15
5.82762,-14.7716,0.277179,16,8
0.195154,-0.49492,-0.122823,15,1
3.76341,-9.54907,0.537909,58,9
0.213702,-0.542514,-0.113341,16,2
5.36177,-13.6186,1.28049,11,10
0.25328,-0.643318,-0.109504,25,3
8.09978,-20.5836,2.71598,20,11
2.16882,-5.51433,-0.72756,51,4
2.22222,-5.65589,-0.53165,33,5
2.30039,-5.85787,-0.329821,26,6
3.86972,-9.85916,2.44522,14,14
3.34036,-8.51484,-0.159655,93,7
11.8065,-30.1111,8.6663,14,15
5.74838,-14.7211,0.275853,22,8
3.80989,-9.76683,0.549423,60,9
0.211902,-0.54322,-0.113341,16,2
3.42111,-8.77469,0.82397,54,10
0.243143,-0.623952,-0.106063,26,3
8.04733,-20.6616,2.72256,20,11
2.14091,-5.49966,-0.724635,31,4
3.84066,-9.87113,1.6776,38,12
2.18152,-5.60976,-0.526595,23,5
3.87301,-9.95943,2.07715,16,13
2.27197,-5.84538,-0.32867,32,6
5.58259,-14.3779,-0.269221,100,7
11.6545,-30.0315,8.63162,13,15
5.54847,-14.3568,0.268662,45,8
0.191694,-0.49627,-0.122823,15,1
3.76714,-9.75771,0.548167,75,9
0.209909,-0.543993,-0.113341,16,2
5.27517,-13.678,1.28258,22,10
0.249381,-0.646957,-0.109817,24,3
7.64744,-19.8394,2.61069,12,11
1.98397,-5.1496,-0.677594,21,4
3.84001,-9.98272,2.07906,47,13
2.24838,-5.84808,-0.328356,42,6
3.80606,-9.90479,2.44972,56,14
5.54026,-14.4178,-0.269605,81,7
11.4803,-29.8917,8.57985,13,15
5.44154,-14.2351,0.26601,16,8
0.189874,-0.496969,-0.122823,15,1
3.77767,-9.89273,0.554971,56,9
0.208009,-0.544722,-0.113341,16,2
7.89224,-20.6786,1.93643,9,10
0.248529,-0.651515,-0.110443,36,3
5.20772,-13.6591,1.79489,28,11
1.98346,-5.20506,-0.683931,54,4
7.23752,-19.0029,3.22067,6,12
2.13237,-5.59879,-0.524155,25,5
5.49141,-14.4335,-0.809323,42,6
3.77285,-9.92166,2.45062,71,14
5.49235,-14.4511,-0.269849,40,7
9.98562,-26.2873,7.53474,5,15
5.48592,-14.5027,0.270652,43,8
3.72829,-9.86662,0.552772,60,9
0.206106,-0.545445,-0.113341,16,2
5.03595,-13.3343,1.24702,11,10
0.248346,-0.657923,-0.111381,48,3
5.13619,-13.6141,1.7866,44,11
1.96528,-5.21196,-0.683931,33,4
7.08824,-18.8081,3.18344,27,12
4.65775,-12.359,-1.15551,11,5
10.3806,-27.5586,5.72427,17,13
5.44029,-14.4507,-0.809219,42,6
3.75741,-9.98584,2.46321,77,14
10.2354,-27.2166,-0.507551,53,7
9.92575,-26.407,7.55907,10,15
5.41213,-14.46,0.2695,12,8
0.203514,-0.544322,-0.112959,16,2
3.52548,-9.43434,0.881145,40,10
0.241901,-0.647683,-0.109504,50,3
5.13029,-13.7435,1.80123,24,11
2.07614,-5.56472,-0.729266,9,4
7.07776,-18.9808,3.20847,42,12
2.10298,-5.63968,-0.526595,13,5
7.81264,-20.9628,4.34854,11,13
5.44071,-14.6062,-0.81686,19,6
3.72593,-10.008,2.46546,61,14
5.70515,-15.3325,-0.285556,86,7
9.85102,-26.4886,7.57253,10,15
4.92622,-13.303,0.247615,1,8
3.30315,-8.92958,0.498971,17,9
0.201612,-0.545029,-0.112959,16,2
3.48907,-9.43724,0.880273,24,10
0.243062,-0.657788,-0.111068,48,3
5.16206,-13.9773,1.8295,44,11
2.12819,-5.76561,-0.754615,11,4
7.00463,-18.9869,3.20534,9,12
2.07432,-5.62268,-0.524329,25,5
7.4039,-20.0799,4.16002,23,13
5.35377,-14.5277,-0.811417,45,6
3.69299,-10.0265,2.46681,8,14
5.7262,-15.555,-0.289326,63,7
9.8799,-26.8528,7.66674,15,15
4.86462,-13.2788,0.246847,9,8
0.182916,-0.499572,-0.122823,15,1
4.77011,-13.042,1.21495,52,10
0.239408,-0.654922,-0.110443,49,3
5.13299,-14.0494,1.83657,44,11
2.03996,-5.58653,-0.730241,48,4
7.7063,-21.1155,3.56014,23,12
2.05741,-5.63737,-0.525026,28,5
7.31156,-20.0448,4.14742,27,13
5.31055,-14.5669,-0.812568,29,6
7.66219,-21.0289,5.16713,42,14
5.69787,-15.6463,-0.290652,100,7
9.93939,-27.3083,7.78683,11,15
10.0248,-27.6631,0.513589,35,8
3.41001,-9.42004,0.525034,39,9
0.197802,-0.546423,-0.112959,16,2
3.48817,-9.64123,0.897007,48,10
0.24451,-0.676188,-0.113884,46,3
5.14127,-14.2259,1.85729,28,11
2.00426,-5.54881,-0.724391,54,4
5.21245,-14.4386,2.4313,19,12
7.17225,-19.8781,4.10774,25,13
2.03937,-5.65527,-0.315062,19,6
7.3066,-20.2726,4.97502,42,14
5.3762,-14.9248,-0.2769,32,7
7.46595,-20.7375,5.90573,22,15
5.30282,-14.7939,0.274317,16,8
3.34614,-9.34539,0.520219,40,9
3.44107,-9.61583,0.893521,50,10
0.244143,-0.682617,-0.114823,45,3
7.38814,-20.6684,2.69502,26,11
2.02562,-5.66981,-0.73926,38,4
5.16003,-14.4511,2.43037,12,12
2.01934,-5.65535,-0.525375,7,5
7.13251,-19.9863,4.12491,25,13
2.01827,-5.65859,-0.314853,32,6
7.23252,-20.2889,4.97277,38,14
8.33006,-23.3806,-0.433239,27,7
7.27557,-20.4322,5.81152,15,15
5.15827,-14.5504,0.269465,24,8
3.21149,-9.06896,0.504205,19,9
0.227267,-0.642494,-0.10794,38,3
7.28419,-20.6042,2.68332,13,11
1.93902,-5.4878,-0.714642,62,4
5.13981,-14.5547,2.44476,22,12
6.94881,-19.6774,-1.82574,17,5
7.04245,-19.9536,4.11308,23,13
2.00781,-5.69197,-0.316319,19,6
7.11759,-20.189,4.94217,37,14
5.25061,-14.9016,-0.275783,40,7
7.13683,-20.2661,5.75717,27,15
0.19207,-0.548465,-0.112959,16,2
3.34687,-9.56252,0.886374,26,10
0.225675,-0.645148,-0.108253,38,3
5.05688,-14.4644,1.88142,45,11
1.84848,-5.29027,-0.688074,41,4
7.08053,-20.2755,3.40151,20,12
6.86431,-19.6564,-1.82156,8,5
6.7625,-19.3757,3.98905,7,13
2.03332,-5.82907,-0.323541,35,6
7.10353,-20.3757,4.98177,38,14
5.05579,-14.5101,-0.268209,8,7
7.0832,-20.3402,5.77115,12,15
5.07884,-14.6503,0.270652,27,8
3.09059,-8.92508,0.494994,65,9
0.190154,-0.549132,-0.112959,16,2
3.33954,-9.64945,0.893346,50,10
0.22213,-0.642198,-0.107627,38,3
4.83837,-13.9961,1.81829,44,11
4.96039,-14.3572,-1.86509,14,4
7.15994,-20.7352,3.47441,16,12
1.96586,-5.69314,-0.526944,25,5
1.95826,-5.67753,-0.314748,35,6
7.06793,-20.5035,5.00696,42,14
4.59149,-13.3271,-0.246044,100,7
7.03857,-20.4415,5.79289,7,15
3.24004,-9.45261,0.174419,28,8
3.13963,-9.17012,0.507973,54,9
4.74105,-13.8554,1.28119,30,10
0.221166,-0.646708,-0.108253,25,3
4.78756,-14.0073,1.81756,44,11
1.81664,-5.31808,-0.690024,13,4
4.76437,-13.9553,2.33557,23,12
1.90188,-5.57397,-0.515265,43,5
6.61924,-19.4106,3.98638,1,13
1.95225,-5.72815,-0.317156,19,6
7.06986,-20.7439,5.0596,40,14
4.57911,-13.4434,-0.247894,43,7
7.14399,-20.9853,5.9399,13,15
3.20601,-9.46631,0.174454,38,8
0.170568,-0.503922,-0.122823,15,1
3.20969,-9.48806,0.52493,72,9
7.94915,-23.5118,2.1714,22,10
0.215632,-0.638157,-0.106688,26,3
4.76287,-14.1037,1.8278,48,11
3.08706,-9.1466,-1.1853,15,4
4.71508,-13.9783,2.33651,12,12
1.91453,-5.67908,-0.524329,47,5
4.82986,-14.3351,2.94037,4,13
4.67068,-13.8706,-0.767036,26,6
6.94155,-20.6145,5.02181,29,14
4.50876,-13.3975,-0.246742,24,7
7.1477,-21.2512,6.00771,2,15
4.63702,-13.8586,0.255084,48,8
3.17845,-9.50489,0.525244,57,9
0.184201,-0.551157,-0.112959,16,2
4.99473,-14.9537,1.37933,48,10
0.21767,-0.652059,-0.108878,25,3
4.48121,-13.4319,1.73859,31,11
2.03423,-6.09734,-0.789226,17,4
1.79895,-5.39841,-0.497834,17,5
6.40821,-19.2414,3.94211,15,13
4.58061,-13.7618,-0.760128,35,6
9.11222,-27.3764,6.66125,9,14
4.47775,-13.4606,-0.247615,78,7
6.96438,-20.9479,5.91505,5,15
4.60423,-13.9138,0.255817,7,8
4.30584,-13.0196,0.718677,27,9
0.182372,-0.551765,-0.112959,16,2
4.94449,-14.9683,1.37915,60,10
0.209933,-0.635895,-0.106063,26,3
4.40865,-13.3618,1.72762,58,11
4.78807,-14.5117,-1.8763,10,4
1.77668,-5.3911,-0.496613,13,5
4.71866,-14.3266,2.93197,11,13
4.56055,-13.8547,-0.764419,35,6
8.90988,-27.0677,6.57892,28,14
7.78133,-23.6531,-0.434635,9,7
6.87316,-20.9048,5.89642,22,15
4.65944,-14.2387,0.261507,39,8
2.90208,-8.87894,0.489551,32,9
0.180541,-0.552367,-0.112959,16,2
4.79955,-14.6929,1.35231,66,10
0.205984,-0.630955,-0.105124,27,3
4.37848,-13.4198,1.73323,46,11
4.68261,-14.3604,-1.85461,22,4
6.63723,-20.3668,3.39275,15,12
4.67964,-14.3683,2.93731,11,13
8.8069,-27.0727,6.57262,37,14
4.47753,-13.7722,-0.252781,8,7
6.78462,-20.8809,5.88296,5,15
4.61094,-14.2587,0.261577,36,8
4.461,-13.8115,0.760651,29,9
0.178612,-0.552994,-0.112959,16,2
4.7109,-14.5939,1.34168,43,10
0.210452,-0.652349,-0.108566,25,3
4.35171,-13.4973,1.74127,34,11
2.96613,-9.20529,-1.18749,8,4
2.1595,-6.70596,-0.616365,25,5
4.55848,-14.164,2.89228,24,13
4.81594,-14.973,-0.824291,35,6
6.73777,-20.9606,5.08299,20,14
4.38049,-13.6355,-0.249988,26,7
8.95168,-27.8812,7.84636,5,15
4.57209,-14.309,0.262205,16,8
4.46134,-13.9792,0.769025,10,9
0.176681,-0.553614,-0.112959,16,2
4.66174,-14.616,1.3422,25,10
0.202774,-0.636141,-0.10575,13,3
4.55523,-14.2993,1.84266,44,11
4.58947,-14.4154,-1.85753,16,4
4.37883,-13.7621,2.28738,49,12
2.13612,-6.71762,-0.616714,10,5
4.46737,-14.0489,2.86557,45,13
4.72554,-14.8698,-0.817697,42,6
6.65453,-20.9524,5.07535,40,14
4.36433,-13.7498,-0.251803,100,7
8.67614,-27.3507,7.68848,15,15
4.83756,-15.3241,0.280495,17,8
4.37648,-13.8804,0.762744,11,9
0.17465,-0.554258,-0.112959,16,2
4.36217,-13.8519,1.27056,13,10
0.202813,-0.644417,-0.107001,13,3
4.49992,-14.298,1.84047,32,11
4.61119,-14.6605,-1.88703,8,4
4.32307,-13.7528,2.28332,33,12
2.11027,-6.71743,-0.616017,15,5
4.56228,-14.5316,2.96059,12,13
6.64009,-21.1756,5.12349,41,14
4.33665,-13.8298,-0.25299,31,7
6.64993,-21.22,5.95853,5,15
4.75102,-15.2444,0.278715,7,8
7.97207,-25.6111,1.40574,16,9
4.68072,-15.0466,1.37863,81,10
0.194698,-0.626258,-0.103873,13,3
4.46221,-14.3618,1.84656,8,11
3.58378,-11.5416,-1.48388,3,4
4.19945,-13.5328,2.24421,53,12
2.09035,-6.73618,-0.617063,32,5
4.54526,-14.6562,2.98273,26,13
4.72544,-15.2466,-0.836538,12,6
6.50674,-21.0069,5.07715,25,14
8.58982,-27.7664,7.78787,22,15
4.8225,-15.666,0.286115,42,8
4.7331,-15.3947,0.844074,12,9
0.171354,-0.55734,-0.113341,16,2
0.19599,-0.638264,-0.10575,13,3
4.17328,-13.5992,1.74663,7,11
4.45262,-14.5185,-1.8646,18,4
4.16723,-13.5965,2.25234,39,12
4.44601,-14.506,-1.32738,13,5
4.41299,-14.4073,2.92892,30,13
4.34423,-14.1916,-0.777817,45,6
4.42156,-14.4532,3.48944,15,14
4.39543,-14.3768,-0.262414,35,7
8.61534,-28.1971,7.90019,5,15
4.35656,-14.3301,0.261437,67,8
4.4153,-14.5416,0.796449,46,9
0.169407,-0.557935,-0.113341,16,2
4.1139,-13.5575,1.23953,60,10
0.191468,-0.631383,-0.104498,13,3
4.11082,-13.5643,1.74029,23,11
2.01395,-6.64953,-0.853086,33,4
4.13463,-13.6601,2.26048,28,12
1.98036,-6.54275,-0.598063,8,5
4.3388,-14.3437,2.91289,45,13
4.37095,-14.459,-0.791634,29,6
10.3083,-34.1213,8.22916,12,14
6.40132,-21.2156,5.93783,22,15
4.77856,-15.9177,0.290094,16,8
3.98537,-13.2924,0.727261,60,9
4.0494,-13.5145,1.2343,78,10
0.190396,-0.635832,-0.105124,13,3
4.04068,-13.5025,1.73054,23,11
4.34774,-14.5378,-1.86314,20,4
4.07108,-13.6214,2.25172,43,12
1.94096,-6.49426,-0.593008,13,5
8.90026,-29.8173,-1.63079,8,6
9.90338,-33.1991,7.99836,11,14
4.15385,-13.9338,-0.253793,69,7
6.37025,-21.3822,5.9782,17,15
4.16605,-14.0553,0.255887,16,8
3.92874,-13.2717,0.725376,84,9
3.99259,-13.4961,1.23134,57,10
0.188175,-0.636493,-0.105124,13,3
3.92153,-13.2729,1.69935,18,11
1.95455,-6.61964,-0.84748,24,4
4.06767,-13.7852,2.27643,51,12
1.84949,-6.26786,-0.571742,32,5
4.29242,-14.5563,2.94991,10,13
4.43137,-15.0371,-0.82157,26,6
4.13838,-14.052,3.38191,11,14
4.07695,-13.8523,-0.252048,46,7
8.01379,-27.2461,7.6098,20,15
4.09675,-14.0007,0.254631,31,8
3.91096,-13.3831,0.730715,37,9
0.163555,-0.559678,-0.113341,16,2
0.187059,-0.640938,-0.10575,13,3
3.89907,-13.3684,1.70983,23,11
1.8931,-6.49492,-0.830662,56,4
4.05765,-13.9302,2.29802,42,12
1.83094,-6.28576,-0.572788,37,5
4.67844,-16.0823,-0.877779,45,6
8.03499,-27.6386,6.64505,9,14
6.22513,-21.441,5.98234,5,15
3.90961,-13.554,0.739298,19,9
0.161601,-0.560246,-0.113341,16,2
3.9794,-13.805,1.25696,30,10
0.184821,-0.641587,-0.10575,13,3
3.98638,-13.8474,1.7693,42,11
1.8545,-6.44617,-0.823593,19,4
4.20282,-14.6281,-1.33157,13,5
4.01722,-13.9821,2.82779,9,13
4.6796,-16.2982,-0.888665,40,6
7.97018,-27.777,6.6716,9,14
4.37149,-15.2452,-0.27683,88,7
6.11991,-21.3567,5.95284,30,15
4.41223,-15.479,0.280949,47,8
0.159546,-0.560834,-0.113341,16,2
3.91842,-13.7831,1.25365,100,10
0.182468,-0.64226,-0.10575,13,3
3.91415,-13.7772,1.75857,50,11
1.87699,-6.6111,-0.843823,25,4
4.00775,-14.1254,2.32556,23,12
4.15174,-14.6427,-1.33157,42,5
3.98949,-14.0798,2.84458,19,13
4.60296,-16.2557,-0.88542,47,6
4.13712,-14.6203,3.50789,60,14
4.32097,-15.27,-0.277005,100,7
6.04533,-21.378,5.95284,27,15
0.157588,-0.561388,-0.113341,16,2
3.92894,-14.0058,1.27265,35,10
0.182358,-0.650502,-0.107001,13,3
3.89843,-13.9157,1.77442,46,11
1.89556,-6.77086,-0.863322,5,4
3.9664,-14.1679,2.33025,9,12
4.04446,-14.4661,2.91976,38,13
4.57575,-16.3775,-0.891177,27,6
4.06142,-14.5464,3.48674,24,14
4.40585,-15.78,-0.285975,100,7
5.97015,-21.3971,5.95232,19,15
4.29443,-15.4747,0.280321,17,8
3.68265,-13.2882,0.722655,16,9
0.155627,-0.561934,-0.113341,16,2
3.87418,-13.9983,1.27073,63,10
0.179146,-0.647295,-0.106375,13,3
1.88102,-6.80581,-0.866979,5,4
3.89799,-14.1131,2.31898,10,12
11.5338,-41.7879,-3.79267,12,5
4.00221,-14.5003,2.92396,31,13
4.29901,-15.5968,3.73509,20,14
4.34384,-15.7702,-0.285521,47,7
7.60576,-27.6314,7.67916,26,15
3.74512,-13.6805,0.24758,22,8
3.65679,-13.3761,0.726737,40,9
0.153763,-0.562447,-0.113341,16,2
3.75318,-13.7382,1.24598,60,10
0.174804,-0.640294,-0.105124,13,3
4.15995,-15.248,1.94065,4,11
1.67555,-6.14585,-0.782157,16,4
3.85078,-14.1342,2.32024,11,12
8.00985,-29.4,-2.66592,8,5
7.49517,-27.5678,6.59556,28,14
4.00879,-14.7548,-0.266882,30,7
7.50723,-27.6503,7.67709,10,15
7.16273,-26.5278,0.479627,3,8
3.60747,-13.3792,0.726214,55,9
0.177354,-0.657758,-0.132421,13,2
3.63885,-13.5049,1.22367,52,10
0.170514,-0.633271,-0.103873,13,3
3.80651,-14.1468,1.79879,32,11
1.64636,-6.12291,-0.778501,30,4
4.13922,-15.4048,2.52642,18,12
1.77542,-6.6075,-0.598586,1,5
4.16817,-15.5233,3.12431,30,13
4.41825,-16.4661,-0.89348,6,6
7.30149,-27.2305,6.50873,27,14
3.93552,-14.6876,-0.265416,34,7
7.32772,-27.3665,7.59116,10,15
3.932,-14.7672,0.266743,13,8
3.52636,-13.2624,0.719201,42,9
3.6316,-13.6677,1.23726,31,10
0.175399,-0.660591,-0.108253,12,3
3.81514,-14.3788,1.82658,68,11
1.6209,-6.11327,-0.776551,7,4
1.75132,-6.6098,-0.598237,42,5
4.1215,-15.5662,3.13003,30,13
3.89892,-14.736,-0.798856,16,6
4.10855,-15.5392,3.71079,33,14
7.34656,-27.8253,7.71125,21,15
3.88753,-14.8079,0.267231,24,8
3.47194,-13.2437,0.717526,41,9
0.147864,-0.564027,-0.113341,16,2
3.5773,-13.6553,1.235,76,10
0.166089,-0.634445,-0.103873,13,3
3.79005,-14.488,1.83876,32,11
1.58148,-6.04975,-0.767777,48,4
3.63865,-13.9291,2.28019,9,12
4.04978,-15.514,3.11667,34,13
4.24068,-16.2569,-0.8805,16,6
4.02823,-15.4535,3.68695,42,14
6.50996,-24.9921,-0.450796,46,7
7.20949,-27.6975,7.66881,10,15
4.05176,-15.6557,0.282275,8,8
3.43119,-13.277,0.718677,41,9
0.145895,-0.564539,-0.113341,16,2
0.163873,-0.635021,-0.103873,13,3
3.72656,-14.4512,1.83243,52,11
1.5663,-6.0783,-0.770702,45,4
1.75035,-6.79745,-0.614099,10,5
3.90118,-15.1611,3.04302,19,13
3.69051,-14.3528,-0.776666,19,6
6.88597,-26.7997,6.38816,53,14
3.56169,-13.8719,-0.249988,86,7
7.10364,-27.6869,7.65897,5,15
3.72327,-14.5963,0.262938,37,8
3.38039,-13.2715,0.717735,16,9
0.143923,-0.565045,-0.113341,16,2
4.05884,-15.9467,1.43964,25,10
0.15776,-0.620274,-0.10137,14,3
3.63894,-14.3179,1.8139,44,11
3.66669,-14.4482,2.36091,15,12
1.72612,-6.80158,-0.613925,11,5
3.91,-15.4182,3.09187,8,13
3.59623,-14.1913,-0.767245,13,6
6.77516,-26.7555,6.37196,70,14
3.44654,-13.6206,-0.245241,100,7
6.92787,-27.3988,7.57253,15,15
3.72348,-14.8129,0.266603,15,8
3.82075,-15.2223,0.822512,29,9
3.73753,-14.9018,1.34412,69,10
0.157515,-0.628486,-0.102621,14,3
3.58026,-14.2958,1.80952,24,11
2.99657,-11.974,-1.51557,19,4
4.02149,-16.0815,-1.45027,14,5
6.8042,-27.2294,5.45561,7,13
4.03343,-16.1532,-0.872545,35,6
6.6704,-26.7336,6.36117,43,14
3.41348,-13.6907,-0.246288,96,7
6.75419,-27.1097,7.48608,20,15
6.26333,-25.29,0.454775,27,8
3.60697,-14.586,0.787447,41,9
0.139975,-0.566036,-0.113341,16,2
3.38343,-13.6923,1.23395,39,10
0.159108,-0.644374,-0.105124,13,3
3.40289,-13.7917,1.74419,11,11
3.31542,-13.4473,-1.70056,7,4
3.42255,-13.8923,2.26611,28,12
1.59281,-6.46525,-0.582549,6,5
3.93074,-15.979,-0.862392,39,6
6.67705,-27.1636,6.45789,36,14
3.99006,-16.2446,-0.291979,62,7
6.62728,-27.0018,7.44985,20,15
6.17074,-25.2942,0.454461,15,8
3.54706,-14.5616,0.785458,42,9
0.137998,-0.566521,-0.113341,16,2
3.31912,-13.6363,1.22785,23,10
0.159659,-0.656442,-0.107001,13,3
3.37864,-13.9019,1.75662,15,11
1.46816,-6.04556,-0.763877,8,4
3.35121,-13.8101,2.25078,42,12
3.5073,-14.4643,2.89305,37,13
3.35242,-13.8361,-0.746101,16,6
7.99823,-33.0355,7.84719,11,14
7.61274,-31.4673,-0.565109,11,7
7.6365,-31.5896,8.70823,14,15
3.78632,-15.7591,0.282904,30,8
0.13602,-0.567,-0.113341,16,2
3.45403,-14.4092,1.29635,28,10
0.153686,-0.641627,-0.104498,13,3
3.27787,-13.6954,1.72908,73,11
1.46413,-6.12208,-0.772895,40,4
3.25524,-13.6219,2.21824,23,12
1.54346,-6.45877,-0.58098,32,5
3.33139,-13.9513,2.7881,24,13
3.2647,-13.6826,-0.737204,35,6
7.47611,-31.3572,7.44228,10,14
3.55818,-14.9357,-0.267999,8,7
6.42743,-27.0004,7.43691,19,15
3.47165,-14.6746,0.263217,9,8
3.60463,-15.2605,0.821779,19,9
3.8957,-16.5057,1.48374,26,10
0.148725,-0.630624,-0.102621,14,3
3.22732,-13.6952,1.72762,31,11
1.61747,-6.86914,-0.866491,38,4
1.52571,-6.4896,-0.583246,10,5
3.29121,-13.9992,2.79535,21,13
1.47851,-6.2938,-0.338823,35,6
3.51898,-14.9915,3.55513,2,14
3.50374,-14.9383,-0.267825,100,7
6.30669,-26.9099,7.40585,24,15
3.41904,-14.6808,0.263112,7,8
3.4188,-14.703,0.79111,29,9
0.131959,-0.567958,-0.113341,16,2
3.3274,-14.3326,1.28729,30,10
0.151769,-0.654256,-0.106375,13,3
3.20147,-13.8011,1.73956,42,11
1.46439,-6.3178,-0.796294,12,4
3.30492,-14.2697,2.31992,32,12
1.65443,-7.14903,-0.641989,13,5
3.34293,-14.4568,2.88427,28,13
1.42891,-6.18436,-0.332647,35,6
3.41514,-14.7926,-0.264997,82,7
6.2023,-26.8865,7.39343,19,15
3.3469,-14.6133,0.261681,60,8
3.12419,-13.6519,0.73396,4,9
3.29066,-14.4024,1.29252,13,10
0.146846,-0.643227,-0.104498,13,3
3.16235,-13.8631,1.7459,42,11
1.40064,-6.14507,-0.77387,42,4
3.22348,-14.1425,2.2974,31,12
1.62548,-7.13728,-0.64042,18,5
3.33601,-14.6598,2.92243,20,13
1.4082,-6.1932,-0.332857,35,6
3.42716,-15.0847,3.57132,2,14
3.37589,-14.859,-0.265975,8,7
6.07847,-26.7761,7.35719,19,15
3.10704,-13.7758,0.246498,44,8
0.127991,-0.568866,-0.113341,16,2
0.143846,-0.639855,-0.103873,13,3
3.2112,-14.2957,1.79904,16,11
1.28852,-5.74099,-0.722442,18,4
3.06992,-13.6891,2.222,33,12
1.4642,-6.53438,-0.585861,13,5
3.33589,-14.8873,2.96555,51,13
1.4038,-6.26995,-0.33673,13,6
12.5661,-56.1715,13.2888,25,14
5.0078,-22.4036,-0.400707,57,7
5.97739,-26.7633,7.34787,28,15
3.04219,-13.7338,0.737204,23,9
0.126104,-0.569287,-0.113341,16,2
0.139905,-0.632639,-0.102621,14,3
3.06106,-13.8533,1.742,50,11
1.27019,-5.75321,-0.723417,48,4
3.02765,-13.7248,2.22606,32,12
1.58076,-7.1718,-0.642512,38,5
3.27925,-14.8777,2.96136,23,13
1.42099,-6.45231,-0.346255,20,6
12.367,-56.2017,13.2856,25,14
3.46745,-15.7709,-0.281856,63,7
5.87399,-26.7387,7.33545,14,15
3.55608,-16.296,0.291141,22,8
3.27397,-15.0284,0.806078,43,9
0.124016,-0.569745,-0.113341,16,2
3.10706,-14.2862,1.2791,57,10
0.139263,-0.640868,-0.103873,13,3
3.10415,-14.2848,1.79489,40,11
1.31033,-6.03501,-0.758271,51,4
3.1196,-14.3801,2.33056,55,12
1.38731,-6.40036,-0.572962,12,5
3.10918,-14.3562,2.85527,55,13
1.41043,-6.51799,-0.3495,47,6
3.21918,-14.8893,3.51688,24,14
3.54422,-16.3927,-0.292747,62,7
5.77246,-26.7212,7.3251,23,15
2.96481,-13.8296,0.246882,31,8
2.98054,-13.9148,0.745787,24,9
3.49796,-16.3583,1.46352,21,10
0.135375,-0.633623,-0.102621,14,3
3.04349,-14.2573,1.79002,20,11
1.2853,-6.02618,-0.756565,40,4
3.10235,-14.5454,2.35559,33,12
1.35873,-6.37593,-0.570347,25,5
3.09012,-14.5129,2.88427,22,13
1.37977,-6.48576,-0.347511,54,6
3.14814,-14.8108,3.49574,13,14
3.10199,-14.5937,-0.260425,28,7
5.65828,-26.643,7.29818,28,15
2.91605,-13.8257,0.246637,22,8
2.93401,-13.9349,0.746311,18,9
0.120036,-0.570597,-0.113341,16,2
2.96463,-14.1048,1.26097,2,10
0.134898,-0.641801,-0.103873,13,3
2.97824,-14.1818,1.77929,23,11
1.28202,-6.11007,-0.766558,34,4
3.01102,-14.3629,2.3243,36,12
1.32381,-6.32018,-0.564943,31,5
3.03473,-14.4885,2.8774,7,13
2.89162,-13.8173,-0.739821,22,6
6.8593,-32.805,7.73742,22,14
3.05021,-14.6005,-0.260355,26,7
5.55577,-26.6172,7.28576,19,15
2.82759,-13.6419,0.243182,6,8
2.90937,-14.0735,1.25731,55,10
0.133456,-0.646138,-0.104498,13,3
3.00374,-14.5557,1.82487,52,11
1.17691,-5.70817,-0.715617,52,4
1.30053,-6.31891,-0.564421,37,5
2.99759,-14.5644,2.89037,10,13
1.32071,-6.42262,-0.343638,40,6
2.99941,-14.599,3.44085,15,14
2.9948,-14.5895,-0.259971,100,7
5.46477,-26.6459,7.28834,4,15
2.78753,-13.6889,0.243845,37,8
3.27827,-16.1276,0.862497,1,9
2.85301,-14.0607,1.25522,24,10
0.135011,-0.665982,-0.107627,12,3
2.93359,-14.4708,1.81293,16,11
1.15343,-5.69473,-0.713423,49,4
3.36047,-16.6062,2.68348,17,12
1.29071,-6.38395,-0.569824,50,5
1.31494,-6.51551,-0.348348,20,6
3.06143,-15.183,3.57582,18,14
3.26441,-16.1897,-0.288279,86,7
11.4019,-56.5983,15.4701,22,15
2.72912,-13.6579,0.243112,34,8
2.84189,-14.2352,0.760756,13,9
2.76887,-13.8947,1.23953,5,10
0.131915,-0.662575,-0.107001,13,3
2.88053,-14.4814,1.81293,44,11
1.2703,-6.39206,-0.800194,69,4
2.89434,-14.5641,2.35184,36,12
1.29364,-6.51544,-0.581154,26,5
3.24818,-16.3745,3.2449,18,13
2.73076,-13.7787,-0.736158,35,6
3.25824,-16.4553,3.87276,31,14
3.19778,-16.1499,-0.287371,39,7
2.67418,-13.6178,0.242239,56,8
2.78296,-14.198,0.758243,29,9
0.112057,-0.572218,-0.113341,16,2
2.86534,-14.6453,1.30559,63,10
0.124407,-0.635868,-0.102621,14,3
2.83478,-14.5026,1.81439,28,11
1.13571,-5.81564,-0.72756,47,4
2.87639,-14.7428,2.37906,39,12
1.28499,-6.59227,-0.587604,17,5
2.85881,-14.6663,2.90449,20,13
1.28927,-6.62037,-0.353477,37,6
3.21295,-16.5138,3.884,13,14
2.65527,-13.6602,-0.242903,100,7
10.748,-55.3452,15.1068,21,15
2.5937,-13.4562,0.239203,41,8
2.72168,-14.1468,0.754999,60,9
0.110159,-0.572586,-0.113341,16,2
0.124421,-0.647938,-0.104498,13,3
2.73065,-14.2336,1.77954,15,11
1.15277,-6.01453,-0.751934,36,4
2.8238,-14.7469,2.37812,32,12
1.26762,-6.61998,-0.589696,21,5
1.24103,-6.4934,-0.346464,13,6
3.17284,-16.6168,3.9056,34,14
2.64617,-13.8717,-0.246498,78,7
10.6235,-55.7429,15.2051,21,15
2.58684,-13.6774,0.242972,77,8
2.67451,-14.168,0.755627,47,9
0.10816,-0.572967,-0.113341,16,2
2.82171,-14.9621,1.33209,63,10
0.12289,-0.652251,-0.105124,13,3
2.69527,-14.3191,1.78904,44,11
1.12957,-6.00682,-0.750471,22,4
1.10876,-5.90181,-0.525375,10,5
5.35951,-28.5556,5.64756,24,13
1.20695,-6.43683,-0.343219,50,6
3.08001,-16.442,3.86196,18,14
2.58927,-13.8357,-0.245695,21,7
6.19821,-33.1518,9.03693,7,15
2.59708,-13.999,0.248522,17,8
2.62431,-14.1733,0.755417,27,9
0.106159,-0.573341,-0.113341,16,2
2.76946,-14.9719,1.33209,74,10
0.119895,-0.648791,-0.104498,13,3
2.64744,-14.3402,1.7905,24,11
1.11616,-6.05172,-0.75559,48,4
3.05116,-16.5594,2.66689,5,12
1.26134,-6.85226,-0.609567,13,5
3.99523,-21.7043,4.28977,26,13
3.03175,-16.5025,3.87366,44,14
2.54204,-13.8505,-0.2458,100,7
3.05028,-16.636,4.53192,16,15
2.57482,-14.1824,0.755417,8,9
2.71351,-14.976,1.33157,43,10
0.113998,-0.629788,-0.10137,14,3
4.22275,-23.3289,2.91097,15,11
1.09326,-6.04581,-0.754371,24,4
3.0095,-16.6593,2.68129,22,12
1.06084,-5.87823,-0.522586,32,5
3.88779,-21.5642,4.25924,24,13
2.52952,-14.0444,-0.747881,19,6
2.99161,-16.6266,3.9002,18,14
2.59744,-14.436,-0.256027,93,7
5.97379,-33.2342,9.0478,30,15
2.48036,-13.9247,0.246882,33,8
2.52352,-14.1957,0.755627,30,9
0.102054,-0.574086,-0.113341,16,2
2.68873,-15.1404,1.34534,33,10
0.114559,-0.645742,-0.103873,13,3
2.27732,-12.8498,1.60234,25,11
1.13823,-6.42899,-0.801657,28,4
2.95461,-16.7053,2.68692,43,12
4.23094,-23.946,4.72672,14,13
2.4475,-13.8663,-0.737937,39,6
5.72971,-32.4948,7.61774,11,14
2.52612,-14.341,-0.254177,100,7
9.78616,-55.6136,15.1306,21,15
2.45237,-14.0514,0.248976,31,8
2.46984,-14.1808,0.754371,15,9
0.0999488,-0.574456,-0.113341,16,2
2.63595,-15.1658,1.34673,12,10
0.114219,-0.657835,-0.10575,13,3
2.8702,-16.5307,2.06008,30,11
1.07507,-6.19821,-0.772408,28,4
2.9128,-16.8108,2.70225,32,12
1.14176,-6.59634,-0.585687,6,5
2.8697,-16.5965,3.2739,12,13
6.10363,-35.3731,8.2872,12,14
2.51617,-14.5823,-0.258296,100,7
9.57885,-55.5712,15.1099,21,15
2.38806,-13.9854,0.24765,34,8
2.38195,-13.9791,0.743171,29,9
0.0979429,-0.574802,-0.113341,16,2
2.59437,-15.2417,1.35266,39,10
0.109935,-0.646545,-0.103873,13,3
2.81724,-16.5861,2.06569,26,11
1.03143,-6.07881,-0.757052,18,4
1.10926,-6.55137,-0.581329,25,5
2.81207,-16.6083,3.27428,12,13
2.55806,-15.1241,-0.80388,26,6
5.97428,-35.3596,8.2791,12,14
2.32227,-13.7593,-0.243566,8,7
2.38638,-14.2757,0.252641,56,8
2.31901,-13.9026,0.73867,17,9
3.7001,-22.2301,1.97164,23,10
0.108213,-0.650841,-0.104498,13,3
2.15374,-12.9536,1.61233,14,11
0.973126,-5.85913,-0.729266,22,4
3.75137,-22.6112,3.63022,4,12
1.10495,-6.66724,-0.591265,41,5
2.71367,-16.3919,3.22963,18,13
1.08055,-6.53417,-0.347092,6,6
5.8186,-35.2236,8.24221,24,14
2.42806,-14.6985,-0.260041,100,7
8.7318,-52.9165,14.3707,20,15
2.29585,-14.0353,0.248243,30,8
2.422,-14.839,0.78797,7,9
0.0939278,-0.575472,-0.113341,16,2
3.59687,-22.0613,1.9556,45,10
0.102879,-0.631699,-0.10137,14,3
2.11074,-12.9747,1.61404,61,11
0.987055,-6.07411,-0.75559,42,4
3.67211,-22.6222,3.62991,23,12
1.07338,-6.61993,-0.586732,27,5
2.65898,-16.3989,3.22925,25,13
1.0659,-6.58109,-0.349395,20,6
8.45989,-52.2907,12.2292,22,14
2.38024,-14.7286,-0.260425,22,7
2.23927,-13.9958,0.247405,31,8
2.37838,-14.8987,0.790692,9,9
3.51693,-22.0803,1.95612,49,10
0.101804,-0.639876,-0.102621,14,3
2.62999,-16.5304,2.0552,35,11
0.959304,-6.03635,-0.750471,22,4
3.57794,-22.5393,3.61458,10,12
1.0356,-6.53115,-0.57854,12,5
1.04833,-6.62638,-0.351593,74,6
5.25498,-33.2538,7.77251,11,14
2.32975,-14.7428,-0.26053,100,7
8.36759,-53.0105,14.38,20,15
2.17221,-13.9032,0.245625,15,8
3.5733,-22.9233,1.21587,8,9
0.0898074,-0.576129,-0.113341,16,2
3.41224,-21.9152,1.94044,58,10
0.10382,-0.667554,-0.107001,13,3
2.58401,-16.6341,2.0669,26,11
3.56247,-22.9856,3.68403,11,12
2.52174,-16.2894,3.20407,4,13
2.02078,-13.0685,-0.693033,29,6
5.13739,-33.2623,7.77026,11,14
2.26442,-14.6781,-0.259238,92,7
8.165,-52.9874,14.3655,20,15
2.10284,-13.7743,0.243217,48,8
3.89083,-25.5459,1.35425,11,9
0.0877958,-0.576439,-0.113341,16,2
2.01186,-13.2247,1.17033,25,10
0.0997088,-0.656195,-0.105124,13,3
1.98411,-13.073,1.62354,29,11
1.00475,-6.62793,-0.823106,36,4
3.48783,-23.035,3.68998,15,12
0.9518,-6.28607,-0.556228,11,5
2.46398,-16.2923,3.20292,12,13
1.97664,-13.0854,-0.693556,16,6
5.02299,-33.2916,7.77296,34,14
2.06686,-13.715,-0.2421,17,7
7.99495,-53.1149,14.3924,20,15
2.16798,-14.541,0.25662,24,8
3.79815,-25.5054,1.35142,9,9
0.0857831,-0.576742,-0.113341,16,2
1.97242,-13.277,1.17434,47,10
0.0904592,-0.609643,-0.0976151,15,3
2.45938,-16.5948,2.05984,39,11
3.42415,-23.1325,3.70374,27,12
0.991629,-6.70719,-0.593182,13,5
2.40853,-16.3105,3.20483,43,13
0.987916,-6.69825,-0.354838,6,6
4.91272,-33.3494,7.78241,11,14
2.04497,-13.882,-0.244927,100,7
2.03729,-13.9822,0.246637,20,8
2.01155,-13.8394,0.732913,4,9
0.0837694,-0.577038,-0.113341,16,2
3.28663,-22.6675,2.00388,38,10
0.0907046,-0.625579,-0.100118,14,3
2.12496,-14.6736,1.82048,40,11
0.823213,-5.69159,-0.706111,23,4
3.35581,-23.2303,3.71751,24,12
3.31886,-23.0028,4.51759,18,13
0.947753,-6.57695,-0.348243,37,6
4.82903,-33.5526,7.82605,11,14
2.10149,-14.6195,-0.257807,100,7
7.47783,-52.0857,14.0994,19,15
2.07599,-14.6049,0.257493,46,8
3.12765,-22.0588,1.16762,19,9
0.0895724,-0.631739,-0.124026,14,2
3.13322,-22.1259,1.95508,36,10
0.0885205,-0.625892,-0.100118,14,3
1.84466,-13.0593,1.6194,39,11
0.800012,-5.67084,-0.703186,12,4
3.31605,-23.5353,3.76444,26,12
0.903422,-6.41193,-0.566512,28,5
2.01923,-14.3494,2.81672,13,13
0.906165,-6.4477,-0.34123,50,6
3.26243,-23.2428,5.41862,48,14
2.03851,-14.5416,-0.256306,100,7
3.31745,-23.6949,6.41095,35,15
1.93002,-13.9268,0.245416,39,8
3.50105,-25.3281,1.34001,8,9
0.0798397,-0.577595,-0.113341,16,2
3.13444,-22.7051,2.00528,38,10
0.0906518,-0.657507,-0.105124,13,3
3.26183,-23.6889,2.93608,7,11
0.783729,-5.69916,-0.706355,4,4
3.21371,-23.3999,3.74097,20,12
0.903805,-6.58085,-0.581154,41,5
3.16139,-23.0488,4.52217,21,13
0.842724,-6.15203,-0.325425,35,6
3.06082,-22.3736,5.21347,5,14
1.91438,-14.0117,-0.246847,100,7
3.23759,-23.7274,6.41664,3,15
1.89237,-14.0147,0.246847,38,8
0.077823,-0.57787,-0.113341,16,2
1.95383,-14.5272,1.28241,13,10
0.0862525,-0.642157,-0.102621,14,3
3.18387,-23.7356,2.94046,24,11
0.792559,-5.91632,-0.732922,19,4
3.11577,-23.2896,3.72158,24,12
0.879772,-6.57607,-0.580457,41,5
3.14955,-23.5734,4.62292,30,13
0.864828,-6.48158,-0.342696,30,6
3.09596,-23.2341,5.41142,24,14
1.89632,-14.2502,-0.250931,94,7
4.05185,-30.489,8.24132,12,15
1.87419,-14.2551,0.250966,22,8
1.76827,-13.4859,0.712816,40,9
0.0758053,-0.578138,-0.113341,16,2
1.89561,-14.4767,1.27735,60,10
0.0819614,-0.626785,-0.100118,14,3
3.24725,-24.8665,3.07915,26,11
0.743665,-5.70253,-0.706111,20,4
3.04211,-23.3591,3.73096,18,12
0.854496,-6.56132,-0.578888,58,5
3.09814,-23.8218,4.66948,25,13
0.899305,-6.92426,-0.365933,47,6
1.90019,-14.6507,3.41071,24,14
0.891047,-6.87948,-0.121085,70,7
2.93656,-22.7033,6.13401,3,15
1.80945,-14.1446,0.248906,45,8
1.73306,-13.5851,0.717735,41,9
0.0737869,-0.578399,-0.113341,16,2
1.8579,-14.584,1.28624,33,10
0.0817673,-0.642743,-0.102621,14,3
1.82476,-14.3638,1.77783,23,11
0.801952,-6.32148,-0.782401,13,4
0.803935,-6.35488,-0.560411,50,5
1.84357,-14.5729,2.85527,17,13
0.86762,-6.86791,-0.362793,57,6
2.87637,-22.8008,5.3057,22,14
0.876525,-6.95794,-0.122411,71,7
2.86042,-22.7383,6.14074,34,15
1.74427,-14.0238,0.246672,30,8
1.68293,-13.5693,0.716584,39,9
0.0716664,-0.578666,-0.113341,16,2
1.78952,-14.4701,1.27561,46,10
0.0769899,-0.623434,-0.0994923,14,3
1.77072,-14.3386,1.77393,23,11
0.729103,-5.91248,-0.73146,11,4
2.76574,-22.4603,3.58423,23,12
0.785882,-6.39127,-0.563375,38,5
1.77412,-14.449,2.8297,11,13
0.806956,-6.58162,-0.347511,37,6
1.78749,-14.6001,3.39586,24,14
0.865597,-7.07013,-0.124331,33,7
2.87387,-23.5076,6.34573,20,15
1.69981,-14.0877,0.247685,41,8
1.62913,-13.5416,0.714805,48,9
0.069646,-0.578912,-0.113341,16,2
1.72641,-14.3714,1.26637,52,10
0.079989,-0.666848,-0.106375,13,3
1.72169,-14.3745,1.77759,38,11
0.729823,-6.10236,-0.754615,13,4
2.67168,-22.3722,3.56858,25,12
0.776325,-6.5008,-0.572788,36,5
0.797435,-6.69744,-0.353477,47,6
2.7037,-22.7414,5.28725,33,14
0.8385,-7.06332,-0.124156,26,7
2.82271,-23.8134,6.42544,7,15
1.64504,-14.0458,0.246847,34,8
1.6298,-13.9579,0.736472,36,9
0.0676249,-0.579152,-0.113341,16,2
1.63493,-14.0231,1.23517,31,10
0.0767471,-0.659275,-0.105124,13,3
1.6667,-14.3391,1.77247,42,11
0.726825,-6.26262,-0.774114,11,4
2.58357,-22.295,3.55482,12,12
0.774728,-6.68555,-0.588824,38,5
0.76901,-6.65653,-0.351174,33,6
2.62788,-22.7817,5.29445,5,14
0.800339,-6.949,-0.122097,39,7
2.77797,-24.157,6.51551,36,15
1.5969,-14.0594,0.246986,11,8
1.57679,-13.9258,0.734483,47,9
1.61171,-14.2564,1.25522,30,10
0.0744454,-0.659538,-0.105124,13,3
1.61752,-14.3527,1.77344,42,11
0.747133,-6.63992,-0.820424,12,4
2.50066,-22.2588,3.54762,30,12
0.760061,-6.76543,-0.595622,23,5
2.64535,-23.6584,5.496,43,14
1.59786,-14.3129,-0.251384,51,7
2.62601,-23.5599,6.35194,37,15
1.55219,-14.1047,0.247685,48,8
1.52796,-13.9292,0.734378,41,9
1.53395,-14.0064,1.23273,31,10
0.0721427,-0.659794,-0.105124,13,3
2.52389,-23.12,2.85564,15,11
0.724596,-6.64841,-0.821156,9,4
2.41546,-22.1986,3.53667,28,12
0.72825,-6.69278,-0.588998,52,5
2.49454,-22.9626,4.48974,13,13
0.755469,-6.96554,-0.367189,38,6
2.56254,-23.6655,5.49555,31,14
1.56358,-14.4635,-0.253933,77,7
1.59039,-14.7356,3.97132,12,15
1.47774,-13.8734,0.243531,52,8
0.0562561,-0.529023,-0.122823,15,1
1.45719,-13.7259,0.723388,21,9
0.0615564,-0.579828,-0.113341,16,2
1.56233,-14.7408,1.29688,34,10
0.0656821,-0.620754,-0.0988666,15,3
1.52103,-14.3991,1.77783,50,11
0.634557,-6.01719,-0.742916,5,4
2.34396,-22.2639,3.54574,24,12
0.718502,-6.83609,-0.601375,16,5
1.53091,-14.5656,2.84687,30,13
1.49898,-14.2859,-0.7528,13,6
2.67969,-25.5815,5.93826,30,14
1.51516,-14.4888,-0.254282,68,7
2.47631,-23.7198,6.39024,27,15
1.42439,-13.8307,0.242693,19,8
0.0544092,-0.529217,-0.122823,15,1
1.39091,-13.5521,0.713967,48,9
0.0594308,-0.58005,-0.113341,16,2
1.4568,-14.243,1.2526,24,10
0.0658143,-0.644572,-0.102621,14,3
1.47177,-14.4142,1.77905,46,11
0.612542,-6.0095,-0.741697,10,4
2.28163,-22.4233,3.56983,17,12
0.690407,-6.79693,-0.597714,30,5
1.47771,-14.5731,2.84725,32,13
1.46874,-14.5098,-0.764314,35,6
1.49407,-14.7858,3.43095,45,14
0.713291,-7.05897,-0.123842,46,7
2.35724,-23.3689,6.29344,29,15
1.39937,-14.0945,0.247231,53,8
1.43185,-14.4473,0.76086,19,9
1.4196,-14.3749,1.26376,49,10
0.063564,-0.644798,-0.102621,14,3
1.4166,-14.3958,1.77612,38,11
0.597304,-6.08085,-0.750228,8,4
2.23578,-22.7614,3.6224,27,12
0.672121,-6.85482,-0.602595,8,5
1.42856,-14.5958,2.85069,30,13
1.41944,-14.5288,-0.765047,26,6
1.42353,-14.597,3.38596,47,14
0.68884,-7.06341,-0.123877,53,7
2.27322,-23.352,6.28672,19,15
1.32646,-13.8264,0.242449,30,8
1.30463,-13.649,0.718573,40,9
0.0553799,-0.580451,-0.113341,16,2
1.37395,-14.4274,1.26794,30,10
0.0595526,-0.625341,-0.0994923,14,3
1.40248,-14.7542,1.81975,32,11
0.574698,-6.05711,-0.747059,8,4
2.15185,-22.7218,3.61489,17,12
1.38015,-14.6004,2.85069,6,13
0.613115,-6.49818,-0.342068,16,6
1.37,-14.5473,3.37337,38,14
1.34838,-14.3446,-0.251489,43,7
2.51454,-26.8007,7.21277,18,15
1.32088,-14.2929,0.250547,35,8
1.31813,-14.3177,0.753533,21,9
0.0534547,-0.580631,-0.113341,16,2
2.05296,-22.3422,1.96292,27,10
0.0591735,-0.645216,-0.102621,14,3
1.32039,-14.4249,1.77856,34,11
0.558248,-6.11047,-0.753396,4,4
2.05691,-22.5581,3.58767,36,12
0.580216,-6.3632,-0.559017,31,5
0.585009,-6.44061,-0.338928,35,6
1.31868,-14.5462,3.37202,31,14
2.06918,-22.8691,-0.400812,33,7
2.41732,-26.7689,7.2019,13,15
1.25505,-14.1182,0.247405,41,8
1.20878,-13.6518,0.718259,42,9
1.26817,-14.351,1.26045,22,10
0.0569209,-0.645418,-0.102621,14,3
1.26376,-14.3582,1.76979,46,11
0.544384,-6.19742,-0.763877,3,4
1.96557,-22.4215,3.56483,17,12
0.568789,-6.48824,-0.569824,32,5
1.24499,-14.2303,2.77665,9,13
1.23588,-14.1546,-0.744636,16,6
1.27501,-14.6322,3.39091,36,14
1.98986,-22.8821,-0.400917,74,7
2.24553,-25.8746,6.95913,17,15
1.20184,-14.0766,0.246603,20,8
1.16214,-13.6679,0.718887,41,9
0.0493998,-0.58099,-0.113341,16,2
1.22346,-14.4189,1.26602,60,10
0.0556677,-0.657423,-0.104498,13,3
1.21664,-14.3982,1.77417,42,11
0.472708,-5.60586,-0.690755,4,4
1.22755,-14.588,2.31867,11,12
0.593083,-7.04807,-0.618806,17,5
1.19695,-14.2541,2.78047,24,13
1.24747,-14.9182,3.45615,24,14
1.17049,-14.0271,-0.245695,43,7
1.22573,-14.72,3.95786,28,15
1.14536,-13.9911,0.245032,38,8
1.1188,-13.7256,0.721713,32,9
1.17829,-14.4866,1.2716,22,10
0.0546508,-0.673365,-0.107001,13,3
1.16269,-14.3568,1.76857,42,11
0.454416,-5.6233,-0.692705,4,4
1.81391,-22.4957,3.57453,19,12
0.557747,-6.91704,-0.607127,27,5
1.15034,-14.2973,2.7881,30,13
0.535912,-6.67533,-0.350965,47,6
1.1652,-14.5456,3.36887,51,14
1.11754,-13.9813,-0.244822,100,7
1.17971,-14.7916,3.97598,16,15
1.09817,-13.9848,0.244857,49,8
0.0415556,-0.530381,-0.122823,15,1
1.07577,-13.7611,0.723388,66,9
0.0452911,-0.579356,-0.112959,16,2
1.12529,-14.4269,1.26602,27,10
0.0502718,-0.64597,-0.102621,14,3
1.09986,-14.1647,1.74444,31,11
0.436073,-5.62874,-0.693193,2,4
1.13538,-14.6885,2.33338,15,12
0.511774,-6.62088,-0.58098,38,5
1.10503,-14.3285,2.79344,11,13
0.513313,-6.6711,-0.350651,50,6
1.13023,-14.7223,3.40891,27,14
2.37218,-30.9706,-0.542176,100,7
1.1386,-14.8994,4.00393,23,15
1.04726,-13.9606,0.244369,49,8
0.0397039,-0.530522,-0.122823,15,1
1.03517,-13.8643,0.728621,20,9
1.7239,-23.1432,2.03038,48,10
0.0465527,-0.626442,-0.0994923,14,3
1.05628,-14.2476,1.75419,31,11
0.0617898,-0.835427,-0.102858,5,4
1.6545,-22.4228,3.56107,21,12
0.492032,-6.66833,-0.584989,23,5
1.05602,-14.346,2.79612,27,13
0.479785,-6.53342,-0.343324,37,6
1.08069,-14.7514,3.41476,33,14
2.26639,-31.0106,-0.542735,100,7
1.0423,-14.5766,0.255084,41,8
0.0378519,-0.530658,-0.122823,15,1
0.0411442,-0.579665,-0.112959,16,2
1.65171,-23.2703,2.04101,40,10
0.0452029,-0.638424,-0.10137,14,3
1.02053,-14.4492,1.77856,38,11
0.0591522,-0.839598,-0.103345,11,4
1.57525,-22.4146,3.55888,23,12
0.467031,-6.66214,-0.584292,27,5
1.03493,-14.8002,2.88389,30,13
0.449164,-6.4395,-0.3383,39,6
1.02987,-14.7648,3.41701,27,14
2.15674,-30.9983,-0.542386,89,7
1.02546,-14.776,3.96873,20,15
1.00403,-14.8037,0.258994,36,8
0.0359067,-0.530793,-0.122823,15,1
0.914012,-13.5466,0.71156,27,9
0.0390193,-0.579812,-0.112959,16,2
0.92842,-13.796,1.20972,31,10
0.0433918,-0.646469,-0.102621,14,3
0.967957,-14.4588,1.77929,42,11
0.053165,-0.796234,-0.097983,13,4
1.49151,-22.3966,3.55513,48,12
0.422671,-6.36362,-0.557971,32,5
0.973929,-14.702,2.86404,31,13
0.421082,-6.37334,-0.334741,35,6
0.981911,-14.8618,3.4386,22,14
2.03785,-30.9262,-0.54099,55,7
0.962811,-14.6505,3.93405,23,15
0.950657,-14.8213,0.259238,12,8
0.86372,-13.5399,0.711036,50,9
0.0369952,-0.579944,-0.112959,16,2
1.65033,-25.9423,2.27424,24,10
0.0392711,-0.619024,-0.0982409,15,3
0.915459,-14.4702,1.78027,46,11
0.0518711,-0.822179,-0.101152,12,4
1.42132,-22.5912,3.58517,40,12
0.429479,-6.82638,-0.598411,21,5
0.911664,-14.5309,2.83008,32,13
0.397835,-6.35882,-0.333903,35,6
0.872828,-13.9901,3.23615,42,14
0.875142,-14.0667,-0.246009,100,7
0.907792,-14.6327,3.92836,9,15
0.89952,-14.8345,0.259413,4,8
0.817292,-13.5567,0.711769,13,9
0.0349705,-0.58007,-0.112959,16,2
1.55905,-25.9359,2.2732,48,10
0.0373465,-0.623101,-0.0988666,15,3
0.785955,-13.1516,1.61769,36,11
0.0480564,-0.806502,-0.0992016,13,4
1.338,-22.5211,3.57328,27,12
0.392178,-6.6011,-0.57854,12,5
0.864997,-14.6026,2.84344,13,13
0.375872,-6.36416,-0.334113,26,6
0.824448,-14.0008,3.23795,36,14
0.82615,-14.0716,-0.246044,24,7
1.53855,-26.2842,7.05489,17,15
1.87752,-32.8614,0.574533,17,8
1.25029,-22.0183,1.15579,13,9
1.2987,-22.9415,2.01033,53,10
0.0371746,-0.658728,-0.104498,13,3
0.845414,-15.0272,1.84803,16,11
0.0462412,-0.824503,-0.101395,12,4
1.25596,-22.4645,3.56358,17,12
0.755283,-13.5092,-1.18375,15,5
0.355981,-6.40731,-0.336311,45,6
0.776323,-14.0172,3.24109,24,14
0.78287,-14.1802,-0.247894,21,7
0.828332,-15.0515,4.03913,5,15
1.76847,-32.9736,0.576383,17,8
0.0283994,-0.531248,-0.122823,15,1
0.781716,-14.671,0.769967,20,9
0.0309201,-0.5803,-0.112959,16,2
1.21882,-22.9499,2.01068,53,10
0.0325778,-0.615456,-0.0976151,15,3
0.692555,-13.127,1.61404,39,11
0.042112,-0.800871,-0.0984704,6,4
1.23047,-23.4787,3.72377,24,12
0.767642,-14.6965,2.86061,37,13
0.344931,-6.62592,-0.34772,27,6
1.36158,-26.2435,6.06693,31,14
0.731919,-14.1549,-0.247405,21,7
0.775789,-15.0543,4.03913,4,15
1.32225,-26.3749,0.460953,12,8
1.13781,-22.9361,2.00911,38,10
0.0315997,-0.639242,-0.10137,14,3
0.646531,-13.1254,1.61355,21,11
0.0399002,-0.812909,-0.0999329,19,4
1.15125,-23.455,3.71939,9,12
0.339772,-6.94713,-0.608521,30,5
0.716048,-14.6932,2.85946,39,13
0.340108,-7.00412,-0.367503,52,6
1.28344,-26.5264,6.13127,32,14
0.680145,-14.0574,-0.24566,21,7
0.693304,-14.3814,3.85796,9,15
1.22805,-26.2353,0.45844,6,8
0.0247827,-0.531429,-0.122823,15,1
1.21231,-26.094,1.369,24,9
0.0268681,-0.580502,-0.112959,16,2
1.20118,-26.0507,2.28156,42,10
0.0294797,-0.639343,-0.10137,14,3
0.603368,-13.1354,1.61453,18,11
0.036932,-0.807088,-0.0992016,26,4
1.0727,-23.5319,3.73096,22,12
0.630586,-13.8866,-1.21617,15,5
0.677027,-14.9093,2.90106,29,13
1.21397,-26.9413,6.2262,25,14
0.633133,-14.1056,-0.246463,25,7
1.17498,-26.2798,7.04868,39,15
1.1465,-26.4711,0.462489,3,8
1.12867,-26.2717,1.37811,11,9
1.12067,-26.1919,2.29359,49,10
0.026575,-0.623653,-0.0988666,15,3
1.00511,-23.6847,2.91073,46,11
0.034282,-0.811179,-0.0996891,25,4
0.990298,-23.5296,3.73002,24,12
0.586293,-13.9304,-1.21983,5,5
1.53458,-36.7675,-1.92858,19,6
1.12349,-27.031,6.24599,8,14
0.594477,-14.3635,-0.250931,77,7
1.08244,-26.2644,7.0435,17,15
1.27413,-32.0018,0.559035,4,8
1.02609,-26.0001,1.36367,15,9
0.0229162,-0.580671,-0.112959,16,2
1.25748,-32.005,2.80223,34,10
0.0247068,-0.631638,-0.100118,14,3
0.922735,-23.696,2.9117,15,11
0.0313735,-0.80931,-0.0994454,25,4
0.909833,-23.5764,3.73691,9,12
0.265528,-6.88058,-0.60242,6,5
0.995851,-26.0412,-1.36576,6,6
1.22148,-32.0881,7.41349,10,14
