x, y, z, intensity, ring
7.77345,1.51523,-0.692888,32,5
14.898,2.90129,2.95029,12,13
8.99672,1.75042,-0.480339,72,6
17.1552,3.33464,4.03472,22,14
10.441,2.02952,-0.185659,73,7
14.6688,2.84868,4.00393,11,15
11.4239,2.20198,0.203076,32,8
0.53963,0.103916,-0.126872,15,1
0.699851,0.134517,-0.138527,36,2
6.14765,1.18051,-0.991482,52,3
13.869,2.66072,1.73396,19,11
6.85481,1.31383,-0.856985,46,4
13.0454,2.49799,2.10373,11,12
7.79434,1.49108,-0.694283,31,5
14.6897,2.81019,2.90717,9,13
9.02209,1.72432,-0.481386,79,6
17.1738,3.27919,4.03652,11,14
10.4814,1.99943,-0.186252,100,7
33.3767,6.3609,9.10422,7,15
11.5848,2.19107,0.205799,20,8
0.53999,0.102032,-0.126872,15,1
12.7137,2.39998,0.678065,112,9
0.688741,0.12989,-0.136238,37,2
6.15756,1.16014,-0.99242,53,3
13.8919,2.61486,1.73566,81,11
6.87887,1.29356,-0.859423,45,4
7.78971,1.46203,-0.693411,33,5
13.1369,2.46325,2.59806,10,13
9.02835,1.69124,-0.481386,87,6
17.0837,3.20021,4.01268,5,14
10.3448,1.93598,-0.183704,24,7
28.8735,5.39832,7.87069,11,15
11.345,2.10268,0.201401,33,8
0.559522,0.1036,-0.131371,14,1
11.8013,2.18299,0.628974,21,9
0.712379,0.131646,-0.140817,23,2
24.1611,4.46491,2.14961,22,10
6.15011,1.13542,-0.990543,48,3
13.9111,2.56573,1.73688,46,11
6.87966,1.26762,-0.858935,46,4
13.0746,2.40672,2.10561,20,12
7.77542,1.42987,-0.691668,33,5
13.084,2.40373,2.58584,35,13
9.0561,1.6621,-0.482538,87,6
14.5633,2.67286,3.41836,11,14
10.3892,1.9049,-0.184367,82,7
14.5159,2.65893,3.95424,9,15
11.8918,2.15896,0.210965,67,8
0.536888,0.0973755,-0.125973,15,1
0.689653,0.124958,-0.136238,37,2
24.1282,4.36745,2.14525,44,10
6.14063,1.11041,-0.988353,50,3
14.7839,2.6707,1.84461,20,11
6.89012,1.24345,-0.859666,48,4
7.78821,1.40413,-0.692365,36,5
14.5821,2.62636,2.88007,10,13
9.06971,1.6319,-0.482956,76,6
17.6456,3.17177,4.1391,14,14
10.3213,1.85338,-0.183041,99,7
14.6149,2.62174,3.97857,13,15
12.037,2.14196,0.213408,55,8
0.514201,0.0914081,-0.120574,15,1
0.697817,0.123923,-0.137764,36,2
24.1512,4.28458,2.14595,27,10
6.13474,1.08724,-0.986789,48,3
13.9721,2.47373,1.74224,42,11
6.90224,1.22078,-0.860641,43,4
13.0351,2.30313,2.09653,32,12
7.82053,1.38179,-0.694806,33,5
14.5351,2.56554,2.869,30,13
9.07929,1.60092,-0.483166,76,6
17.6527,3.10948,4.1382,14,14
10.4104,1.8319,-0.184507,45,7
14.4432,2.53893,3.92939,10,15
0.522196,0.09095,-0.122373,15,1
11.8121,2.05517,0.628346,30,9
0.694377,0.120813,-0.137001,49,2
13.356,2.32139,1.18602,22,10
6.15601,1.06886,-0.989605,52,3
19.4689,3.37687,2.42618,30,11
6.89081,1.19397,-0.858692,43,4
13.4168,2.3223,2.15661,17,12
7.84101,1.3572,-0.6962,36,5
9.07104,1.56685,-0.482433,83,6
27.2019,4.6937,6.37286,8,14
10.3655,1.78671,-0.183599,90,7
14.4463,2.48753,3.92784,28,15
10.6068,1.81116,0.187823,12,8
0.549405,0.0937139,-0.128672,14,1
12.0496,2.05318,0.640592,60,9
0.690923,0.117729,-0.136238,25,2
12.3269,2.09823,1.09398,2,10
6.18113,1.05101,-0.993046,57,3
19.551,3.32086,2.43495,31,11
6.8871,1.16858,-0.857717,43,4
7.8791,1.33548,-0.699163,30,5
14.4636,2.44893,2.85145,30,13
9.06661,1.5335,-0.48191,87,6
17.601,2.97382,4.1211,11,14
10.3066,1.73954,-0.182447,24,7
14.5082,2.44607,3.94233,30,15
10.6013,1.77214,0.187613,1,8
0.545884,0.091154,-0.127772,14,1
12.3325,2.05711,0.655246,39,9
0.702949,0.117255,-0.138527,36,2
6.17891,1.02846,-0.992108,50,3
14.622,2.43114,1.82,44,11
6.91856,1.14908,-0.861129,45,4
7.86035,1.30268,-0.697072,32,5
13.2305,2.19267,2.60683,10,13
9.0522,1.49858,-0.480863,94,6
14.5082,2.39921,3.39496,20,14
10.5238,1.73842,-0.186182,82,7
14.4843,2.39006,3.93353,9,15
11.085,1.81325,0.19606,7,8
0.546199,0.0892478,-0.127772,14,1
12.3672,2.01856,0.656712,43,9
0.691748,0.112782,-0.136238,37,2
12.2708,1.99843,1.0877,40,10
6.19044,1.00707,-0.993359,56,3
19.5071,3.17346,2.42666,5,11
6.9284,1.12588,-0.86186,49,4
13.5476,2.19909,2.17381,23,12
7.89828,1.28066,-0.700035,28,5
9.03792,1.46221,-0.479816,79,6
10.6245,1.71699,-0.187858,23,7
27.3449,4.41422,7.4219,4,15
11.0718,1.76945,0.195711,62,8
0.550371,0.0878598,-0.128672,14,1
12.5654,2.00591,0.666865,91,9
0.680505,0.108512,-0.133948,26,2
13.6944,2.18124,1.21321,49,10
6.18611,0.984214,-0.992108,47,3
13.9214,2.21241,1.73079,11,11
6.93837,1.10141,-0.862591,51,4
13.5279,2.14745,2.16943,14,12
7.89287,1.25152,-0.699163,32,5
13.4766,2.13449,2.65225,15,13
8.99168,1.42254,-0.477095,87,6
13.8128,2.18279,3.2285,24,14
10.4349,1.649,-0.184402,73,7
20.5993,3.25155,5.5879,11,15
0.542958,0.0848308,-0.126872,15,1
12.3809,1.93216,0.656712,20,9
0.696398,0.108555,-0.137001,37,2
13.2747,2.0669,1.17538,25,10
6.1952,0.964605,-0.993046,57,3
14.4328,2.24464,1.79343,44,11
6.95571,1.08053,-0.864297,47,4
13.3342,2.06902,2.13721,4,12
7.92081,1.22762,-0.701255,31,5
12.6921,1.96711,2.49655,13,13
8.98845,1.39149,-0.476676,87,6
13.7294,2.12297,3.20735,15,14
10.5453,1.62874,-0.186252,100,7
20.6029,3.17845,5.58583,4,15
11.1251,1.70039,0.196444,41,8
0.547103,0.083523,-0.127772,14,1
0.688991,0.105061,-0.135474,37,2
13.3308,2.03037,1.17974,37,10
6.21415,0.945349,-0.995549,52,3
13.6575,2.07526,1.69618,15,11
6.96729,1.05744,-0.865272,47,4
7.92505,1.19997,-0.701255,31,5
21.7523,3.29361,4.27641,19,13
8.9893,1.35951,-0.476467,76,6
23.6775,3.57665,5.5284,31,14
10.4422,1.57551,-0.184332,100,7
14.5296,2.18962,3.93716,28,15
12.373,1.84696,0.218365,55,8
0.535827,0.0798887,-0.125073,15,1
12.4534,1.85451,0.659852,47,9
0.671895,0.0999361,-0.13204,26,2
23.5092,3.4925,2.07936,20,10
6.21758,0.922568,-0.995549,52,3
13.1679,1.95386,1.63451,3,11
6.95327,1.03049,-0.863079,48,4
13.1823,1.95129,2.11061,15,12
7.92722,1.172,-0.701081,30,5
9.03769,1.33296,-0.478769,90,6
13.9043,2.04824,3.24469,11,14
10.4298,1.53643,-0.184018,90,7
13.3292,1.96116,3.61001,10,15
12.3381,1.79554,0.217632,77,8
0.559258,0.081288,-0.130472,14,1
0.697497,0.101257,-0.137001,49,2
23.5193,3.41014,2.07919,5,10
6.21685,0.900294,-0.994923,52,3
15.3518,2.22043,1.90457,45,11
6.97664,1.00784,-0.865516,46,4
15.381,2.21918,2.46134,13,12
7.93915,1.14547,-0.701778,30,5
13.1515,1.89516,2.58279,43,13
9.10753,1.31079,-0.482224,83,6
13.7107,1.97086,3.1979,9,14
10.5324,1.51211,-0.185729,100,7
12.3107,1.74769,0.217038,68,8
0.551821,0.0782409,-0.128672,14,1
13.6707,1.93589,0.723597,7,9
0.693958,0.0982706,-0.136238,37,2
16.2279,2.29513,1.43389,12,10
6.23169,0.880243,-0.996801,57,3
18.9192,2.66902,2.34598,15,11
6.99978,0.986249,-0.867954,43,4
7.95099,1.11885,-0.702475,28,5
13.1638,1.85006,2.58394,8,13
9.09227,1.27622,-0.481177,68,6
24.0365,3.36956,5.60353,6,14
9.92566,1.38966,-0.174943,97,7
13.0732,1.82801,3.53702,33,15
12.4197,1.71896,0.218853,18,8
0.559812,0.0773816,-0.130472,14,1
12.0411,1.66228,0.637033,10,9
0.696242,0.0961163,-0.136619,37,2
13.9305,1.92063,1.23029,5,10
6.23668,0.858756,-0.997113,50,3
15.0404,2.06831,1.86411,24,11
6.97761,0.958296,-0.864785,47,4
7.96669,1.09272,-0.703521,30,5
14.026,1.92133,2.75185,4,13
9.07292,1.24122,-0.479921,72,6
25.1313,3.43362,5.85593,21,14
9.53221,1.30067,-0.167927,69,7
13.0373,1.77663,3.52563,46,15
11.1296,1.50082,0.196025,33,8
0.525315,0.0707455,-0.122373,15,1
11.9756,1.61065,0.633265,39,9
0.682953,0.0918533,-0.133948,26,2
22.1359,2.97322,1.95403,36,10
6.26705,0.840659,-1.00149,60,3
15.0554,2.01685,1.86509,12,11
6.98681,0.934722,-0.865516,48,4
15.2605,2.0389,2.4385,22,12
7.98823,1.06728,-0.70509,31,5
24.7552,3.30304,4.85456,15,13
9.15243,1.21957,-0.483898,65,6
13.5452,1.8025,3.15471,24,14
10.1492,1.34879,-0.178713,26,7
13.1124,1.74025,3.54427,14,15
12.017,1.5778,0.211558,52,8
0.548745,0.0719514,-0.127772,14,1
12.1198,1.587,0.640592,104,9
0.696896,0.0912536,-0.136619,25,2
13.7757,1.80137,1.21547,57,10
6.2484,0.815962,-0.998052,57,3
13.7593,1.79434,1.70373,41,11
6.99004,0.910329,-0.865516,43,4
15.2323,1.98103,2.43287,12,12
7.98814,1.03748,-0.704741,32,5
13.6205,1.76899,2.6698,24,13
9.2319,1.19738,-0.487876,72,6
13.7678,1.78324,3.2051,22,14
10.1063,1.30719,-0.177875,97,7
13.4997,1.74372,3.64728,12,15
12.1137,1.5475,0.213164,11,8
0.537395,0.068556,-0.125073,15,1
12.1728,1.55074,0.643104,29,9
0.701121,0.0891937,-0.137382,24,2
15.0274,1.90906,1.32529,69,10
6.23567,0.791068,-0.995549,51,3
15.2956,1.94043,1.89312,8,11
7.02665,0.890163,-0.86966,40,4
13.6928,1.73224,2.18602,23,12
7.99369,1.00984,-0.704916,35,5
13.6581,1.72299,2.67591,4,13
9.4225,1.187,-0.497715,87,6
13.2426,1.66588,3.08138,23,14
10.085,1.26867,-0.177421,44,7
13.4961,1.69538,3.64469,20,15
0.537642,0.0665858,-0.125073,15,1
12.0753,1.49337,0.637661,70,9
0.703376,0.0869873,-0.137764,24,2
15.6133,1.92814,1.37636,15,10
6.2678,0.772921,-1.00024,56,3
13.7462,1.69269,1.70056,7,11
7.03775,0.865374,-0.870635,43,4
15.146,1.8597,2.41691,28,12
8.01513,0.982719,-0.706484,32,5
13.5354,1.65955,2.65072,15,13
13.3024,1.62627,3.09398,23,14
11.0126,1.34438,-0.193652,20,7
13.5482,1.65152,3.65711,9,15
11.1437,1.34261,0.195921,21,8
0.545611,0.0656398,-0.126872,15,1
12.4037,1.49003,0.654723,11,9
0.711488,0.0853434,-0.139291,24,2
13.7469,1.64652,1.21129,21,10
6.26079,0.748772,-0.998678,52,3
15.2677,1.82598,1.888,8,11
7.03481,0.840094,-0.869903,41,4
15.1093,1.80168,2.41003,14,12
8.01852,0.954733,-0.706484,31,5
13.5843,1.61502,2.65911,28,13
13.2522,1.57085,3.08093,55,14
13.5616,1.60512,3.65918,20,15
11.1406,1.30084,0.195781,13,8
0.565204,0.0658962,-0.131371,14,1
0.69033,0.0803627,-0.135093,38,2
19.4265,2.25803,1.71104,49,10
6.29476,0.730555,-1.00368,57,3
19.7762,2.29169,2.44446,31,11
7.04376,0.814991,-0.870635,42,4
8.03384,0.926709,-0.70753,30,5
13.4377,1.55005,2.62935,8,13
8.77586,1.01075,-0.462964,47,6
13.3912,1.53994,3.11197,23,14
10.9941,1.26234,-0.193163,100,7
11.1073,1.25767,0.195118,20,8
0.549939,0.0621717,-0.127772,14,1
13.5076,1.52467,0.712397,34,9
0.678915,0.0765123,-0.132803,26,2
19.405,2.18348,1.70843,17,10
6.29739,0.70748,-1.00368,51,3
19.7446,2.2182,2.43958,57,11
7.06629,0.792609,-0.873072,42,4
14.1128,1.58051,2.24921,2,12
8.039,0.89888,-0.707705,30,5
22.598,2.52279,4.4199,7,13
8.91052,0.993179,-0.469872,61,6
24.1323,2.68556,5.60578,26,14
10.905,1.21356,-0.191523,100,7
12.5666,1.39625,3.38794,4,15
11.2112,1.22783,0.196863,25,8
0.526917,0.0576139,-0.122373,15,1
17.6008,1.9245,0.927917,13,9
0.688936,0.0752077,-0.134711,25,2
14.3578,1.56483,1.26358,5,10
6.29197,0.68464,-1.00243,53,3
19.7467,2.14517,2.43885,31,11
7.0769,0.768798,-0.874047,42,4
14.0907,1.52825,2.24483,11,12
8.02823,0.869309,-0.706484,32,5
24.5859,2.65786,4.80686,15,13
8.82854,0.952851,-0.465371,61,6
13.9034,1.50057,3.2285,13,14
9.42798,1.01588,-0.165519,8,7
11.3067,1.20036,0.198469,32,8
0.527105,0.0558662,-0.122373,15,1
17.5972,1.86507,0.927393,12,9
0.700896,0.074162,-0.137001,24,2
18.9934,2.00634,1.67095,10,10
6.30599,0.665013,-1.00431,62,3
19.7379,2.07802,2.4369,26,11
7.08731,0.746158,-0.875022,42,4
8.03503,0.843099,-0.706833,31,5
23.1204,2.4219,4.51874,10,13
8.81576,0.921909,-0.464534,100,6
11.2312,1.17253,-0.197107,100,7
12.6085,1.31409,3.39674,37,15
11.1038,1.14159,0.194839,75,8
0.55055,0.0565056,-0.127772,14,1
17.5738,1.80058,0.925823,22,9
0.685526,0.0701166,-0.133948,26,2
20.0167,2.04734,1.76037,25,10
6.3062,0.643899,-1.004,50,3
19.7605,2.01416,2.43885,57,11
7.0879,0.721212,-0.874778,39,4
14.3464,1.45726,2.28394,41,12
8.03396,0.814642,-0.706484,31,5
8.8845,0.897759,-0.467988,65,6
13.7853,1.39298,3.1988,38,14
9.28944,0.937035,-0.162971,34,7
12.638,1.27258,3.40347,25,15
0.527482,0.0521849,-0.122373,15,1
12.5178,1.23621,0.659224,17,9
0.681871,0.0672185,-0.133185,26,2
11.3336,1.11726,0.996364,17,10
6.33014,0.622907,-1.00744,62,3
19.6986,1.93493,2.43032,15,11
7.1063,0.69678,-0.876728,45,4
8.01111,0.782674,-0.704218,33,5
13.4161,1.30837,2.62019,38,13
8.87779,0.86422,-0.467465,87,6
13.4315,1.30751,3.11557,48,14
8.55838,0.831618,-0.150091,16,7
12.6561,1.22756,3.40709,20,15
10.5863,1.01003,0.185624,5,8
0.562589,0.0535765,-0.130472,14,1
11.8779,1.13116,0.62531,5,9
0.695782,0.0661383,-0.135856,25,2
11.3356,1.07553,0.99619,42,10
6.31861,0.598397,-1.00525,55,3
19.3063,1.82498,2.38108,46,11
7.1088,0.670731,-0.876728,41,4
7.98404,0.751901,-0.701604,21,5
11.5814,1.08456,2.68547,54,14
8.91961,0.835298,-0.156374,16,7
12.6968,1.18679,3.41693,28,15
0.547239,0.0502842,-0.126872,15,1
0.686233,0.0628145,-0.133948,26,2
11.3393,1.03595,0.99619,59,10
6.3304,0.57834,-1.00681,57,3
19.2984,1.7597,2.37938,10,11
7.11692,0.647691,-0.877459,42,4
14.6444,1.33017,2.329,33,12
7.97471,0.72295,-0.700558,31,5
11.5538,1.04335,2.67827,56,14
9.22321,0.831264,-0.161644,42,7
12.6739,1.14004,3.40968,11,15
10.9375,0.96845,0.191662,23,8
0.543529,0.0480308,-0.125973,15,1
0.702083,0.0619184,-0.137001,24,2
11.3625,1.00008,0.997933,31,10
6.3127,0.554512,-1.00368,58,3
12.6363,1.10776,1.55749,3,11
7.12705,0.623535,-0.878434,43,4
14.5703,1.27217,2.31648,42,12
7.96329,0.693899,-0.699338,37,5
13.2763,1.15686,2.59042,15,13
8.68924,0.755624,-0.457102,43,6
12.2253,1.06098,2.83303,42,14
8.96308,0.77629,-0.157037,50,7
12.7048,1.09812,3.41693,5,15
11.0186,0.93688,0.193024,33,8
0.543694,0.046133,-0.125973,15,1
0.702305,0.0593449,-0.137001,24,2
11.4197,0.962953,1.00264,31,10
6.3206,0.531866,-1.00462,53,3
12.4601,1.04849,1.53531,28,11
7.12523,0.598325,-0.877947,42,4
11.7833,0.987401,1.87283,21,12
7.99148,0.668254,-0.701604,31,5
11.3944,0.950812,2.22254,27,13
8.84123,0.736204,-0.464953,100,6
12.2582,1.01858,2.83978,63,14
8.88004,0.737875,-0.155536,50,7
20.0668,1.66391,5.39534,10,15
11.0279,0.896967,0.193128,41,8
0.563283,0.0457166,-0.130472,14,1
12.687,1.02746,0.667074,20,9
0.679026,0.0549911,-0.132421,26,2
18.757,1.51574,1.64637,10,10
6.32045,0.509643,-1.00431,51,3
11.801,0.949485,1.45366,37,11
7.13529,0.572836,-0.878922,42,4
11.716,0.938531,1.86157,46,12
8.02554,0.642902,-0.704393,32,5
11.3957,0.910873,2.22216,40,13
8.88953,0.708987,-0.46736,50,6
8.79896,0.698677,-0.15407,82,7
12.7855,1.01297,3.4366,5,15
11.7646,0.915572,0.205973,31,8
0.547896,0.042543,-0.126872,15,1
12.6985,0.983788,0.667493,32,9
0.671384,0.0520141,-0.130895,27,2
12.2207,0.94463,1.07236,13,10
6.34188,0.489094,-1.00744,57,3
11.8398,0.911024,1.45805,100,11
7.14912,0.548843,-0.880384,45,4
11.7763,0.902001,1.87064,77,12
8.04561,0.616251,-0.705962,37,5
11.2813,0.86211,2.19926,54,13
8.65497,0.65989,-0.454904,100,6
11.4955,0.874443,2.66162,18,14
8.67971,0.658725,-0.151941,41,7
19.1266,1.44822,5.13963,9,15
11.4666,0.852119,0.200703,45,8
0.528607,0.0391896,-0.122373,15,1
12.664,0.936653,0.665504,28,9
0.691141,0.0511182,-0.134711,25,2
15.9794,1.17906,1.40181,12,10
6.34158,0.46681,-1.00713,56,3
11.8113,0.867366,1.45415,27,11
7.16683,0.525043,-0.882334,42,4
11.7419,0.858155,1.8647,76,12
8.07563,0.588788,-0.708402,40,5
11.3195,0.825298,2.20613,41,13
8.89626,0.647058,-0.467465,90,6
11.2517,0.816398,2.60448,40,14
8.72584,0.631601,-0.152709,41,7
19.0969,1.37894,5.13031,16,15
11.0506,0.782432,0.193373,20,8
0.52874,0.0373443,-0.122373,15,1
14.3945,1.01413,0.756255,54,9
0.699157,0.0491354,-0.136238,25,2
12.2629,0.859664,1.0755,100,10
6.36887,0.445354,-1.01119,52,3
11.8261,0.82696,1.45561,50,11
7.17654,0.500577,-0.883309,46,4
11.8867,0.827037,1.88723,47,12
8.13329,0.564456,-0.713283,35,5
11.3186,0.783536,2.20537,41,13
8.67939,0.599315,-0.455951,76,6
12.9693,0.893256,3.0013,23,14
9.03721,0.622434,-0.158119,33,7
12.8937,0.885793,3.463,19,15
0.528874,0.0354059,-0.122373,15,1
0.687571,0.0459096,-0.133948,26,2
12.1009,0.805862,1.06103,22,10
6.3763,0.423514,-1.01213,53,3
11.8073,0.782169,1.45293,40,11
7.16644,0.473483,-0.881847,43,4
11.9685,0.788657,1.89974,32,12
8.18094,0.539076,-0.717292,31,5
11.3447,0.745564,2.20995,45,13
8.69937,0.570188,-0.456893,50,6
15.8426,1.0356,3.66535,9,14
8.67426,0.565502,-0.151731,90,7
12.9258,0.840406,3.47076,8,15
11.032,0.701811,0.192954,28,8
0.560111,0.0355338,-0.129572,14,1
14.4811,0.916148,0.760442,22,9
0.683809,0.0432611,-0.133185,26,2
11.9982,0.75697,1.0518,18,10
6.38365,0.401627,-1.01307,57,3
14.0526,0.881652,1.72884,42,11
7.18192,0.449334,-0.883553,47,4
8.18675,0.510766,-0.71764,30,5
11.1043,0.690839,2.16263,47,13
8.78702,0.545138,-0.461394,94,6
15.8675,0.981615,3.6703,19,14
10.0015,0.616971,-0.174908,97,7
12.9768,0.798249,3.4837,22,15
10.9925,0.660776,0.192221,70,8
0.529108,0.0317131,-0.122373,15,1
23.103,1.38067,1.21294,14,9
0.680036,0.0406398,-0.132421,26,2
11.9769,0.713659,1.0497,18,10
6.40079,0.380277,-1.01557,52,3
11.7649,0.696902,1.44708,37,11
7.19335,0.424845,-0.884771,45,4
10.5973,0.62403,1.68136,36,12
8.25611,0.486166,-0.723567,30,5
11.1223,0.652997,2.16568,48,13
8.69716,0.509091,-0.456579,43,6
11.692,0.68235,2.70391,2,14
8.87164,0.516198,-0.155117,8,7
12.8793,0.747126,3.45679,23,15
9.09605,0.514921,0.159026,35,8
0.529215,0.0298658,-0.122373,15,1
11.7273,0.659769,0.615576,8,9
0.684094,0.0384865,-0.133185,26,2
12.1345,0.680552,1.0633,18,10
6.39616,0.357603,-1.01463,56,3
11.7415,0.654392,1.44391,81,11
7.20272,0.400175,-0.885746,43,4
10.6921,0.592171,1.69606,43,12
8.29356,0.459329,-0.726705,27,5
11.2519,0.6212,2.19049,50,13
8.66099,0.476642,-0.45459,39,6
13.1323,0.72042,3.03639,25,14
8.88936,0.486098,-0.155396,25,7
12.9319,0.704895,3.47025,17,15
10.8331,0.575321,0.189359,11,8
0.552669,0.0292543,-0.127772,14,1
11.7435,0.619568,0.616308,8,9
0.672461,0.0354779,-0.130895,27,2
12.0851,0.635467,1.05877,47,10
6.39342,0.335065,-1.01401,55,3
11.7714,0.61486,1.44732,40,11
7.21993,0.375854,-0.887696,43,4
10.8737,0.564155,1.72453,63,12
8.08826,0.41823,-0.708576,20,5
11.1972,0.578987,2.17942,24,13
13.1114,0.673372,3.03099,17,14
10.1052,0.517219,-0.176618,8,7
12.9613,0.66113,3.47749,30,15
0.529411,0.0261705,-0.122373,15,1
11.7656,0.579551,0.617355,20,9
0.703961,0.0345524,-0.137001,24,2
15.938,0.779502,1.39606,37,10
6.40447,0.312112,-1.01557,51,3
11.9123,0.580527,1.46438,38,11
7.21327,0.350262,-0.886721,43,4
10.5342,0.509683,1.67041,40,12
7.69961,0.371188,-0.674411,30,5
10.9796,0.527386,2.13668,53,13
19.1986,0.915464,4.43738,3,14
11.625,0.554326,-0.203146,19,7
12.3851,0.568899,0.21641,25,8
0.529503,0.0242298,-0.122373,15,1
12.005,0.54725,0.629811,48,9
0.688387,0.0313802,-0.133948,26,2
12.6486,0.574369,1.10775,11,10
6.41342,0.29011,-1.01682,48,3
12.0254,0.541869,1.47803,59,11
7.21847,0.324001,-0.887209,43,4
10.7491,0.480596,1.7042,57,12
7.64911,0.341993,-0.669879,32,5
10.2753,0.457619,1.9993,39,13
8.91898,0.39565,-0.467883,39,6
20.1031,0.888266,4.64569,3,14
13.1752,0.579858,-0.230197,100,7
20.927,0.917352,5.61275,9,15
10.7727,0.457165,0.188207,7,8
0.568525,0.0240271,-0.131371,14,1
11.7535,0.494672,0.616518,38,9
0.696339,0.0293071,-0.135474,25,2
12.6465,0.530043,1.1074,54,10
6.41834,0.267887,-1.01745,46,3
12.0451,0.500628,1.48023,42,11
7.22352,0.298964,-0.887696,45,4
10.883,0.448524,1.72516,17,12
7.59253,0.312913,-0.664824,28,5
10.6476,0.43696,2.07142,35,13
8.51719,0.34804,-0.44674,21,6
19.5453,0.795275,4.51612,10,14
8.81143,0.356986,-0.15393,24,7
18.7643,0.756927,5.03196,8,15
10.7902,0.420179,0.188486,16,8
0.553027,0.0214384,-0.127772,14,1
11.9906,0.462733,0.628869,36,9
0.706246,0.0272549,-0.137382,24,2
12.6702,0.486745,1.10932,26,10
6.41726,0.245404,-1.01714,50,3
12.2887,0.467795,1.50996,84,11
7.22849,0.273903,-0.888184,45,4
10.8904,0.410753,1.7261,44,12
8.3721,0.314307,-0.73298,50,5
10.7569,0.403839,2.09241,42,13
13.3046,0.494833,3.07373,27,14
13.8184,0.511529,-0.241367,35,7
18.7977,0.692574,5.04024,4,15
10.7636,0.381517,0.187997,38,8
0.560888,0.019783,-0.129572,14,1
19.7228,0.692183,1.03426,11,9
0.727924,0.0254197,-0.14158,23,2
12.652,0.439614,1.10758,11,10
6.42404,0.222088,-1.01808,48,3
10.2945,0.355895,1.26476,23,11
7.2175,0.248258,-0.886721,43,4
10.5325,0.360442,1.66916,83,12
8.40501,0.286167,-0.735769,60,5
10.3306,0.349924,2.00922,14,13
13.2401,0.443849,3.05843,29,14
11.4658,0.384369,-0.200249,76,7
18.8598,0.628945,5.05629,1,15
10.8329,0.344225,0.189184,20,8
0.529793,0.0167419,-0.122373,15,1
12.0236,0.377859,0.630439,28,9
0.722121,0.0226938,-0.140435,23,2
12.5718,0.392893,1.10043,16,10
6.43267,0.199906,-1.01933,48,3
19.5002,0.602604,2.39546,15,11
7.19852,0.221195,-0.884284,48,4
10.7154,0.327383,1.69794,25,12
8.36219,0.25403,-0.731934,57,5
13.1266,0.394175,3.03189,51,14
11.2073,0.334587,-0.195711,25,7
20.1963,0.599422,5.41398,16,15
10.784,0.304993,0.188311,13,8
0.529848,0.0148928,-0.122373,15,1
11.8611,0.331311,0.621856,30,9
0.726124,0.0201557,-0.141199,23,2
10.7309,0.295994,0.93919,8,10
6.46101,0.177087,-1.02371,57,3
11.4656,0.314255,1.40832,3,11
7.17543,0.195415,-0.881359,45,4
8.4168,0.226283,-0.73664,46,5
10.5114,0.280761,2.04395,44,13
8.12199,0.21552,-0.425805,32,6
13.2955,0.35048,3.07058,40,14
10.023,0.264213,-0.175013,53,7
20.1945,0.528813,5.41294,12,15
10.821,0.268242,0.18894,62,8
0.529897,0.0130431,-0.122373,15,1
19.6512,0.48026,1.03018,9,9
0.718337,0.0175556,-0.139672,23,2
18.3744,0.445856,1.60802,16,10
6.45563,0.155519,-1.02277,48,3
10.52,0.251589,1.29206,24,11
7.1721,0.170275,-0.880872,45,4
10.5061,0.247593,1.66446,49,12
8.29998,0.195603,-0.726356,50,5
10.3867,0.242961,2.01952,73,13
8.35029,0.193872,-0.437738,43,6
11.4419,0.263653,2.64228,52,14
11.6252,0.265841,-0.202971,47,7
20.0146,0.454203,5.36428,6,15
10.8359,0.230763,0.189184,48,8
0.529939,0.0111934,-0.122373,15,1
11.925,0.249793,0.625101,20,9
0.722319,0.0151304,-0.140435,23,2
20.8698,0.433515,1.82626,8,10
6.45416,0.132945,-1.02246,48,3
10.5109,0.214666,1.29084,45,11
7.17662,0.145317,-0.881359,46,4
10.4457,0.209687,1.65476,79,12
8.05162,0.161628,-0.704567,21,5
10.7644,0.214205,2.09279,30,13
8.32296,0.164169,-0.436273,21,6
11.3863,0.222604,2.62923,92,14
11.646,0.22565,-0.203321,38,7
19.7341,0.378916,5.28871,13,15
11.5804,0.206182,0.202169,27,8
0.529975,0.00934338,-0.122373,15,1
21.4074,0.373671,1.12208,11,9
0.718442,0.0125406,-0.139672,23,2
11.6199,0.200799,1.01676,12,10
6.44669,0.110278,-1.0212,48,3
10.2773,0.174011,1.26208,66,11
7.17312,0.1202,-0.880872,43,4
10.7505,0.178269,1.70295,51,12
8.20953,0.134701,-0.718338,32,5
10.2566,0.168289,1.99395,35,13
8.07585,0.131097,-0.423293,21,6
11.3772,0.182703,2.62698,38,14
11.6568,0.185157,-0.203495,28,7
19.5383,0.306928,5.23591,8,15
10.8852,0.155796,0.190022,11,8
0.54949,0.00776871,-0.126872,15,1
19.5692,0.273264,1.02568,10,9
0.745966,0.0102861,-0.145015,21,2
11.5707,0.157528,1.0124,17,10
6.46877,0.0869422,-1.02465,52,3
10.3791,0.139498,1.27451,30,11
7.19334,0.0954215,-0.883309,45,4
10.7372,0.140558,1.70076,71,12
8.03464,0.10378,-0.702998,27,5
10.3043,0.131293,2.00311,21,13
7.97642,0.10024,-0.41806,43,6
12.7071,0.157479,-0.22182,24,7
19.3943,0.236959,5.19709,7,15
11.0157,0.117285,0.192291,62,8
0.553412,0.00579561,-0.127772,14,1
0.71066,0.00731836,-0.138146,24,2
11.7943,0.119399,1.03192,2,10
6.47299,0.064399,-1.02527,52,3
10.4113,0.101764,1.27841,15,11
7.22937,0.0694006,-0.887696,43,4
10.7772,0.101578,1.70701,39,12
8.31786,0.078398,-0.72775,31,5
8.03664,0.0729421,-0.4212,43,6
10.5345,0.0937742,2.43217,14,14
13.4014,0.11695,-0.233932,63,7
19.4086,0.165994,5.20071,7,15
0.530044,0.00370041,-0.122373,15,1
11.6517,0.0793164,0.610656,40,9
0.712645,0.00485116,-0.138527,24,2
15.9208,0.105591,1.39292,6,10
6.47713,0.0418275,-1.0259,52,3
10.8384,0.0681048,1.33081,37,11
7.24347,0.0442479,-0.889403,39,4
10.576,0.0627593,1.6751,11,12
8.03317,0.0476699,-0.702824,43,5
10.5896,0.0609971,2.05845,30,13
8.10875,0.045288,-0.424968,54,6
12.8679,0.0673826,-0.224612,25,7
19.1096,0.0967233,5.12048,6,15
20.7047,0.0758986,0.361404,11,8
0.561234,0.00195913,-0.129572,14,1
0.730327,0.00242194,-0.141962,23,2
11.0537,0.0347329,0.96708,8,10
6.48711,0.0192485,-1.02746,57,3
11.5373,0.0322199,1.41661,57,11
7.28923,0.0190808,-0.895009,40,4
18.8352,0.046026,2.98321,6,12
8.01536,0.0195865,-0.701255,25,5
10.6094,0.0240738,2.06226,33,13
8.08888,0.0169389,-0.423921,18,6
10.5661,0.0202874,2.43937,29,14
13.3239,0.0232573,-0.232571,73,7
19.1697,0.0301066,5.13652,6,15
12.886,0.00225279,0.224927,11,8
0.553442,-0,-0.127772,14,1
11.1687,-0.0019493,0.585325,30,9
0.734257,-0.000128152,-0.142725,22,2
11.5359,-0.0040268,1.00926,38,10
6.48121,-0.00339355,-1.02652,48,3
11.4381,-0.0079853,1.40442,55,11
7.31705,-0.00638533,-0.898421,51,4
8.0353,-0.00841455,-0.702998,20,5
10.5819,-0.0129283,2.05692,12,13
8.14681,-0.0113751,-0.426957,39,6
10.5563,-0.0165818,2.43712,45,14
13.3719,-0.0233385,-0.233408,21,7
19.191,-0.0368441,5.14222,6,15
11.2582,-0.0353689,0.196514,33,8
0.553439,-0.00183528,-0.127772,14,1
12.5906,-0.0439498,0.659852,7,9
0.734252,-0.00269119,-0.142725,22,2
11.1693,-0.0409377,0.97719,12,10
6.50092,-0.0249619,-1.02965,56,3
7.36066,-0.0308324,-0.903783,41,4
11.0679,-0.0482933,1.753,52,12
8.05515,-0.0365534,-0.704741,30,5
10.5661,-0.049792,2.05387,8,13
8.01291,-0.0391588,-0.419944,39,6
10.527,-0.0514449,2.43037,43,14
13.3958,-0.0678028,-0.233827,42,7
20.6493,-0.10812,5.53303,11,15
11.0561,-0.0752574,0.192989,12,8
0.530044,-0.00370047,-0.122373,15,1
11.4999,-0.0822931,0.602701,0,9
0.714605,-0.00523842,-0.138909,24,2
11.428,-0.0837734,0.999851,29,10
6.49288,-0.0487294,-1.0284,47,3
10.5782,-0.0812367,1.29888,24,11
7.31682,-0.0574674,-0.898421,51,4
11.1269,-0.0893347,1.76239,41,12
7.6565,-0.062808,-0.669879,11,5
7.94481,-0.0679465,-0.416385,32,6
10.5442,-0.0901778,2.43442,8,14
13.4014,-0.116953,-0.233932,22,7
19.6462,-0.174879,5.26438,3,15
11.4196,-0.11959,0.199341,1,8
0.553411,-0.00589212,-0.127772,14,1
14.4353,-0.156212,0.756569,11,9
0.718509,-0.00777532,-0.139672,35,2
6.51241,-0.0727474,-1.03153,50,3
10.3536,-0.117463,1.27134,51,11
7.52697,-0.0867083,-0.924257,32,4
10.4668,-0.122401,1.65789,26,12
8.03675,-0.0939837,-0.703173,32,5
11.1898,-0.132809,2.17522,14,13
7.82869,-0.0942837,-0.410314,21,6
10.6549,-0.130181,2.46006,56,14
11.2574,-0.139507,-0.196514,100,7
19.9255,-0.250404,5.33944,13,15
12.6688,-0.176902,0.221157,6,8
0.553387,-0.00782384,-0.127772,14,1
11.4451,-0.16381,0.599875,26,9
0.722404,-0.0103395,-0.140435,23,2
11.8415,-0.171551,1.03611,12,10
6.50619,-0.0953926,-1.03059,46,3
10.1546,-0.150658,1.24697,43,11
7.62785,-0.114501,-0.936688,47,4
8.02243,-0.121825,-0.701952,27,5
11.1598,-0.171415,2.1695,28,13
8.01603,-0.124526,-0.420153,21,6
10.6544,-0.167373,2.46006,35,14
13.4523,-0.213673,-0.23484,53,7
10.7416,-0.172494,2.87859,10,15
11.2186,-0.195821,0.195851,52,8
0.529975,-0.00934327,-0.122373,15,1
11.5044,-0.204827,0.603015,8,9
0.730215,-0.0130009,-0.141962,34,2
11.4444,-0.205757,1.00142,76,10
6.52162,-0.11839,-1.03309,53,3
10.2235,-0.187376,1.2555,34,11
7.58176,-0.140282,-0.931082,47,4
11.1273,-0.207827,1.7627,42,12
8.05582,-0.15046,-0.704916,10,5
10.4093,-0.196234,2.02372,18,13
8.371,-0.15927,-0.438785,18,6
10.6245,-0.204001,2.45332,84,14
13.4274,-0.260164,-0.234421,21,7
10.8723,-0.212556,2.91378,2,15
11.1678,-0.233933,0.194978,30,8
0.529939,-0.0111932,-0.122373,15,1
11.228,-0.239115,0.58857,22,9
0.741942,-0.0158006,-0.144252,33,2
11.4815,-0.246517,1.00473,14,10
6.51919,-0.141111,-1.03278,50,3
10.6336,-0.232026,1.30595,36,11
7.35696,-0.161814,-0.903539,43,4
11.0001,-0.243866,1.74268,65,12
10.4066,-0.232524,2.02334,9,13
14.155,-0.31875,-0.742019,6,6
10.6393,-0.24144,2.45692,42,14
11.0453,-0.254511,2.96037,19,15
0.529897,-0.0130429,-0.122373,15,1
11.2332,-0.276495,0.588884,39,9
0.718331,-0.0178065,-0.139672,35,2
11.385,-0.284207,0.996364,17,10
6.53841,-0.164363,-1.03591,56,3
10.5811,-0.267837,1.29961,24,11
6.99518,-0.178288,-0.859179,38,4
10.2884,-0.262223,1.63005,47,12
8.44097,-0.216612,-0.738732,20,5
13.7684,-0.358135,-0.721818,19,6
11.141,-0.291738,2.57299,33,14
13.8911,-0.363752,-0.242554,100,7
10.9961,-0.289865,2.94743,32,15
13.6607,-0.379191,0.238539,17,8
0.553226,-0.015453,-0.127772,14,1
10.9786,-0.308577,0.575591,11,9
0.726114,-0.0205359,-0.141199,23,2
6.51808,-0.185482,-1.03278,51,3
11.4314,-0.327296,1.40418,94,11
7.26243,-0.209201,-0.892084,34,4
10.3289,-0.299336,1.63662,41,12
8.26092,-0.240849,-0.723044,33,5
10.4813,-0.305585,2.03822,23,13
13.7831,-0.404259,-0.722655,16,6
10.8712,-0.32075,2.5109,54,14
13.7738,-0.408798,-0.240529,24,7
10.7576,-0.321156,2.88376,45,15
13.7172,-0.428684,0.239552,16,8
0.553169,-0.017384,-0.127772,14,1
0.735849,-0.0233821,-0.143107,22,2
20.7562,-0.659542,1.81685,46,10
6.53121,-0.208675,-1.03497,57,3
11.1386,-0.357827,1.36835,39,11
7.67632,-0.247944,-0.943025,53,4
10.5864,-0.343788,1.6776,21,12
8.12661,-0.265328,-0.711365,21,5
10.4428,-0.342775,2.03097,43,13
12.7096,-0.419401,-0.666446,35,6
10.6538,-0.351562,2.46096,21,14
14.1201,-0.468411,-0.246603,25,7
10.8471,-0.361731,2.90809,15,15
13.7295,-0.479446,0.239796,45,8
0.529731,-0.0185912,-0.122373,15,1
11.024,-0.38882,0.578103,9,9
0.731834,-0.0259399,-0.142344,22,2
10.7442,-0.380828,0.940585,23,10
6.50474,-0.231697,-1.0309,51,3
10.5143,-0.376353,1.29182,15,11
7.72495,-0.277861,-0.949119,48,4
7.96232,-0.289182,-0.697072,12,5
10.3179,-0.376536,2.00693,42,13
8.18925,-0.300286,-0.429469,18,6
14.1762,-0.522296,-0.247615,100,7
10.8225,-0.400628,2.90188,25,15
13.5958,-0.524675,0.237492,53,8
0.549132,-0.0212875,-0.126872,15,1
13.6509,-0.531573,0.715956,20,9
0.735663,-0.0286471,-0.143107,22,2
12.1025,-0.473392,1.05964,20,10
6.51174,-0.255847,-1.03215,56,3
10.4969,-0.414261,1.28987,6,11
7.67033,-0.30405,-0.942538,46,4
10.3322,-0.413178,2.00998,52,13
12.6704,-0.508895,-0.664562,35,6
10.9333,-0.441037,2.5262,28,14
13.7666,-0.557737,-0.240494,100,7
10.7573,-0.4377,2.8848,10,15
13.6418,-0.574148,0.23833,26,8
0.529585,-0.0223814,-0.122373,15,1
11.2105,-0.47574,0.588047,25,9
0.727712,-0.0308819,-0.14158,23,2
11.7564,-0.500961,1.02948,2,10
6.49897,-0.278069,-1.03028,48,3
10.7374,-0.461294,1.3196,34,11
7.32414,-0.315937,-0.900127,31,4
7.71925,-0.33433,-0.67598,38,5
10.2777,-0.446939,1.99968,80,13
12.6905,-0.554078,-0.665713,39,6
11.0271,-0.483381,2.54825,41,14
13.7606,-0.605613,-0.240424,30,7
10.9642,-0.484457,2.9407,4,15
13.1723,-0.600455,0.230162,32,8
0.529503,-0.0242298,-0.122373,15,1
12.8688,-0.591119,0.675134,20,9
0.70995,-0.0326111,-0.138146,24,2
19.7177,-0.909168,1.7269,17,10
6.51572,-0.301575,-1.03309,53,3
10.2876,-0.477951,1.26452,54,11
7.15047,-0.333455,-0.878922,30,4
10.2864,-0.481495,1.63099,27,12
7.69216,-0.360062,-0.673714,31,5
10.5409,-0.495251,2.0512,59,13
12.7383,-0.600725,-0.66833,26,6
11.0331,-0.522238,2.55005,73,14
13.7744,-0.654401,-0.240704,26,7
11.0917,-0.528891,2.97538,15,15
13.5376,-0.664469,0.236585,53,8
0.552772,-0.0272285,-0.127772,14,1
12.6911,-0.627358,0.665923,46,9
0.719636,-0.0355738,-0.140054,23,2
10.9686,-0.544128,0.960805,29,10
6.52449,-0.324808,-1.03466,52,3
10.1946,-0.509302,1.2533,34,11
7.49622,-0.375807,-0.921576,35,4
10.2491,-0.515611,1.62535,37,12
7.96944,-0.400926,-0.698117,21,5
10.5312,-0.531646,2.04967,8,13
12.7402,-0.645389,-0.66854,35,6
11.4341,-0.581226,2.64317,82,14
13.7281,-0.700238,-0.239936,29,7
11.0628,-0.566223,2.96814,37,15
13.669,-0.718756,0.238923,38,8
0.529321,-0.0279258,-0.122373,15,1
12.5392,-0.663736,0.658072,41,9
0.723428,-0.0382931,-0.140817,23,2
11.7883,-0.626051,1.0328,23,10
6.52726,-0.347791,-1.03528,63,3
10.2146,-0.546051,1.25599,48,11
7.75057,-0.415686,-0.953018,51,4
10.1467,-0.545971,1.6094,65,12
8.0993,-0.435807,-0.709622,13,5
10.5019,-0.566922,2.04433,26,13
12.7957,-0.692988,-0.671575,35,6
11.395,-0.619127,2.63463,66,14
13.6596,-0.744562,-0.238784,100,7
10.9855,-0.600721,2.94795,28,15
15.9126,-0.892437,0.278191,16,8
0.552568,-0.0310869,-0.127772,14,1
12.3733,-0.698274,0.649489,48,9
0.711529,-0.0401544,-0.138527,24,2
10.686,-0.604924,0.936401,8,10
6.5339,-0.371022,-1.03653,55,3
10.2701,-0.584977,1.26305,80,11
7.68367,-0.439001,-0.944975,43,4
10.0836,-0.577883,1.5997,77,12
7.76952,-0.445267,-0.680861,18,5
10.5606,-0.60707,2.05616,22,13
12.7373,-0.73443,-0.668644,39,6
11.3013,-0.653611,2.61348,48,14
13.7707,-0.798839,-0.240773,26,7
10.9949,-0.639738,2.95105,12,15
12.7973,-0.762544,0.223775,15,8
0.560238,-0.0334805,-0.129572,14,1
12.7974,-0.767033,0.671889,31,9
0.727063,-0.0435775,-0.14158,23,2
10.5406,-0.633614,0.923851,8,10
6.54637,-0.394659,-1.03873,52,3
10.266,-0.620703,1.26281,23,11
7.7138,-0.467742,-0.948875,46,4
10.0677,-0.612238,1.59751,92,12
7.94691,-0.483269,-0.696549,10,5
11.0875,-0.676198,2.15919,56,13
10.9046,-0.666956,-0.572555,33,6
10.9411,-0.671103,2.5307,52,14
13.241,-0.814491,-0.231559,63,7
18.9425,-1.16853,5.08528,11,15
15.2653,-0.963087,0.266987,21,8
0.560117,-0.0354359,-0.129572,14,1
12.6352,-0.801583,0.663515,9,9
0.721028,-0.0457423,-0.140435,23,2
10.5543,-0.671416,0.925245,2,10
6.57452,-0.419394,-1.04342,52,3
11.9378,-0.763612,1.46877,3,11
7.7656,-0.498096,-0.955456,40,4
10.7436,-0.690992,1.70514,17,12
7.78015,-0.500392,-0.682081,10,5
11.1674,-0.720203,2.17522,35,13
12.7,-0.821273,-0.666969,48,6
10.8998,-0.706769,2.5217,61,14
13.2261,-0.859927,-0.231349,30,7
18.9422,-1.23489,5.08631,30,15
15.1681,-1.01012,0.265346,12,8
0.540546,-0.0360926,-0.125073,15,1
0.718905,-0.0481277,-0.140054,35,2
22.6603,-1.52098,1.98698,9,10
6.56907,-0.442076,-1.04279,50,3
13.4898,-0.910181,1.6601,41,11
7.71034,-0.521583,-0.948875,53,4
9.92323,-0.673018,1.5753,4,12
7.37672,-0.501601,-0.64687,31,5
11.2079,-0.76211,2.18362,53,13
12.7847,-0.871576,-0.671575,13,6
10.9012,-0.745077,2.5226,65,14
13.203,-0.904722,-0.231,23,7
18.9339,-1.30074,5.08528,40,15
12.6889,-0.889521,0.22203,31,8
0.513202,-0.0360666,-0.118774,16,1
12.719,-0.89609,0.668226,27,9
0.726557,-0.0513156,-0.14158,23,2
22.6366,-1.60276,1.98541,14,10
6.60485,-0.468807,-1.04874,46,3
13.6727,-0.970475,1.68302,41,11
7.32434,-0.52116,-0.901589,30,4
7.5518,-0.539995,-0.662384,10,5
11.1423,-0.798692,2.17141,35,13
13.4707,-0.967957,-0.707792,13,6
10.8653,-0.782647,2.51495,46,14
13.6605,-0.983991,-0.239063,25,7
12.6557,-0.933815,0.221506,15,8
0.528614,-0.0390972,-0.122373,15,1
12.7136,-0.942553,0.668121,75,9
0.73029,-0.0541417,-0.142344,34,2
11.7923,-0.87632,1.03454,8,10
6.62287,-0.493326,-1.05187,42,3
13.77,-1.02812,1.69545,18,11
7.40948,-0.554521,-0.912314,80,4
10.7081,-0.803264,1.70076,29,12
20.7323,-1.55887,4.04133,26,13
7.43269,-0.560172,-0.390636,35,6
10.8295,-0.818074,2.5073,71,14
13.6149,-1.03088,-0.23833,100,7
20.9872,-1.59277,5.63967,9,15
11.6216,-0.898311,0.20346,6,8
0.528474,-0.0409422,-0.122373,15,1
0.726182,-0.0563866,-0.14158,23,2
10.4563,-0.81375,0.917576,8,10
6.67034,-0.520282,-1.05969,52,3
10.2832,-0.803885,1.26647,6,11
7.47874,-0.585963,-0.921089,32,4
10.8785,-0.854246,1.72829,19,12
7.49422,-0.588491,-0.657677,13,5
11.0856,-0.872455,2.16148,7,13
13.0395,-1.02852,-0.685496,19,6
10.8363,-0.856639,2.50955,37,14
13.5614,-1.07445,-0.237457,21,7
34.3561,-2.72802,9.23466,7,15
12.4914,-1.00942,0.218748,40,8
0.563291,-0.0456181,-0.130472,14,1
12.7266,-1.0329,0.669168,22,9
0.718153,-0.0582859,-0.140054,23,2
10.4494,-0.849921,0.917227,90,10
6.71967,-0.547735,-1.06782,56,3
19.5872,-1.60003,2.41301,5,11
7.24715,-0.593277,-0.892815,55,4
10.8636,-0.891244,1.72641,32,12
7.44644,-0.610901,-0.653668,10,5
12.9782,-1.06928,-0.682461,32,6
20.6682,-1.7065,4.78786,37,14
13.5735,-1.1231,-0.237737,100,7
19.6182,-1.6267,5.27473,1,15
12.5117,-1.05503,0.219167,52,8
0.547593,-0.0462714,-0.126872,15,1
12.7548,-1.08002,0.670842,63,9
0.717945,-0.0607923,-0.140054,35,2
10.4841,-0.889592,0.920539,24,10
6.71772,-0.571188,-1.06782,56,3
10.1349,-0.863521,1.24892,54,11
7.16987,-0.612154,-0.883553,19,4
10.9589,-0.937579,1.74205,29,12
7.52367,-0.643683,-0.660641,26,5
10.956,-0.939261,2.13744,7,13
13.0898,-1.12449,-0.688532,26,6
20.6563,-1.77813,4.78651,33,14
13.0814,-1.12837,-0.229185,100,7
19.4258,-1.67904,5.22452,3,15
12.5976,-1.10658,0.220738,50,8
0.528016,-0.046474,-0.122373,15,1
15.4786,-1.36509,0.814348,14,9
0.731418,-0.0645054,-0.142725,34,2
11.1101,-0.981778,0.975796,93,10
6.72356,-0.59533,-1.06907,36,3
10.0765,-0.893982,1.24209,40,11
7.27842,-0.647021,-0.897202,35,4
10.9142,-0.972147,1.73548,46,12
7.45379,-0.665233,-0.654714,18,5
10.9624,-0.978371,2.13935,18,13
12.9584,-1.15879,-0.681833,42,6
11.0324,-0.988501,2.55724,16,14
13.0137,-1.16831,-0.228068,100,7
20.5107,-1.84497,5.51802,23,15
12.6215,-1.15309,0.221227,47,8
0.543376,-0.0497379,-0.125973,15,1
15.3803,-1.41054,0.809428,24,9
0.711627,-0.0653893,-0.138909,36,2
11.6163,-1.06943,1.02059,48,10
6.9377,-0.639928,-1.10349,47,3
10.1108,-0.932614,1.24672,48,11
7.41251,-0.685028,-0.91402,33,4
11.31,-1.04721,1.799,15,12
7.57442,-0.702658,-0.665521,21,5
18.3754,-1.70787,3.58721,15,13
13.1331,-1.22294,-0.691253,58,6
10.9996,-1.02622,2.55049,22,14
12.9777,-1.21075,-0.22751,100,7
19.604,-1.83241,5.27577,1,15
12.6212,-1.19972,0.221297,26,8
0.54319,-0.0517292,-0.125973,15,1
12.8141,-1.22258,0.674611,23,9
0.715303,-0.0682459,-0.139672,35,2
11.5788,-1.10675,1.01763,40,10
7.00425,-0.670731,-1.11444,48,3
10.1133,-0.970234,1.24745,31,11
7.70635,-0.740679,-0.950581,45,4
16.4204,-1.58111,2.61277,15,12
7.42715,-0.715153,-0.652797,13,5
18.1895,-1.75466,3.5521,26,13
13.089,-1.26494,-0.68916,22,6
17.0672,-1.6524,3.95869,22,14
12.8557,-1.24692,-0.22545,100,7
20.572,-1.99898,5.53821,15,15
12.8577,-1.26751,0.22552,27,8
0.50422,-0.0497946,-0.116975,16,1
15.3062,-1.51427,0.806078,37,9
0.722875,-0.0715155,-0.141199,34,2
11.6581,-1.15542,1.02495,23,10
7.00187,-0.695177,-1.11444,62,3
10.1138,-1.00592,1.24794,74,11
7.30865,-0.728212,-0.901833,21,4
16.1534,-1.61232,2.57116,10,12
8.21167,-0.819634,-0.721998,10,5
18.4138,-1.84119,3.59713,12,13
12.8897,-1.29111,-0.678902,32,6
16.9508,-1.70088,3.93304,34,14
13.8839,-1.39559,-0.243566,17,7
19.3347,-1.9469,5.20692,10,15
12.7816,-1.30507,0.224263,52,8
0.55057,-0.0563132,-0.127772,14,1
12.8272,-1.31424,0.675762,38,9
0.718715,-0.0736381,-0.140435,47,2
12.1218,-1.24411,1.06609,18,10
7.05245,-0.725068,-1.12289,61,3
10.1161,-1.04183,1.24867,14,11
7.26065,-0.749035,-0.896227,35,4
16.1064,-1.66443,2.56459,13,12
8.14931,-0.842149,-0.716769,11,5
22.27,-2.3053,4.35197,2,13
12.9984,-1.34784,-0.684868,52,6
17.0009,-1.76587,3.94609,30,14
13.2405,-1.37762,-0.232361,45,7
19.3124,-2.01278,5.20278,8,15
13.0414,-1.37762,0.228906,33,8
0.527115,-0.0557741,-0.122373,15,1
12.6398,-1.33965,0.666132,37,9
0.718454,-0.0761465,-0.140435,47,2
10.9504,-1.16253,0.96342,48,10
7.04988,-0.749681,-1.12289,50,3
18.7207,-1.99406,2.31162,53,11
7.67646,-0.819021,-0.9479,28,4
7.60151,-0.812367,-0.668833,12,5
21.7327,-2.3264,4.24855,6,13
13.1227,-1.40704,-0.691672,22,6
16.8842,-1.81335,3.92045,28,14
12.7226,-1.36864,-0.223356,37,7
21.5602,-2.32316,5.81049,15,15
12.7324,-1.38993,0.223565,47,8
0.507545,-0.0554956,-0.117874,16,1
12.4186,-1.36006,0.654723,21,9
0.729893,-0.0799363,-0.142725,34,2
10.9839,-1.20487,0.966731,10,10
6.85086,-0.752712,-1.0916,45,3
18.8281,-2.07199,2.32575,25,11
7.57687,-0.835155,-0.935957,36,4
10.9855,-1.21281,1.7505,79,12
12.3594,-1.36449,-1.08788,19,5
19.9019,-2.20071,3.89212,19,13
13.1792,-1.45966,-0.694917,35,6
16.7984,-1.86346,3.902,34,14
12.8828,-1.43137,-0.226253,55,7
21.1987,-2.35909,5.71524,20,15
12.7891,-1.44131,0.224647,50,8
0.526713,-0.0594527,-0.122373,15,1
0.702298,-0.079396,-0.137382,24,2
10.9697,-1.24209,0.96586,23,10
6.87764,-0.77996,-1.09629,53,3
18.6669,-2.12022,2.30674,39,11
7.35103,-0.836244,-0.908414,47,4
10.8654,-1.23795,1.73204,47,12
12.3922,-1.41191,-1.09119,26,5
51.5113,-5.87808,10.0778,13,13
13.1383,-1.50157,-0.693033,35,6
16.7337,-1.91544,3.8885,31,14
12.8956,-1.47838,-0.226567,100,7
20.9485,-2.4053,5.65002,9,15
12.8455,-1.4931,0.225729,62,8
0.557473,-0.0648962,-0.129572,14,1
0.698116,-0.0813923,-0.136619,37,2
16.1145,-1.88162,1.41942,31,10
6.91804,-0.80901,-1.10318,52,3
18.7737,-2.19876,2.32088,30,11
7.21794,-0.846636,-0.892327,47,4
10.9316,-1.28417,1.74331,71,12
12.3892,-1.45539,-1.09136,28,5
20.7089,-2.4364,4.05316,22,13
13.1271,-1.54672,-0.692719,19,6
16.7211,-1.97315,3.88715,31,14
12.9479,-1.53019,-0.227579,100,7
19.1789,-2.26997,5.17483,10,15
12.9673,-1.55315,0.227963,36,8
0.561112,-0.0673059,-0.130472,14,1
15.2771,-1.8352,0.806392,19,9
0.709523,-0.0852336,-0.138909,36,2
15.825,-1.90383,1.39449,53,10
6.96616,-0.839297,-1.11131,48,3
18.7403,-2.26119,2.31771,20,11
7.22085,-0.87254,-0.893059,32,4
10.9781,-1.32849,1.75144,39,12
12.3603,-1.49576,-1.08927,19,5
20.1643,-2.44372,3.94822,1,13
14.9417,-1.81344,-0.788808,35,6
16.7083,-2.0308,3.8858,31,14
16.8848,-2.05525,-0.2969,69,7
19.2188,-2.34274,5.18777,7,15
14.9028,-1.83776,0.2621,30,8
0.541534,-0.0668757,-0.125973,15,1
18.7592,-2.31995,0.990615,14,9
0.713118,-0.0881917,-0.139672,35,2
15.7965,-1.95636,1.39257,37,10
7.0514,-0.87455,-1.12539,63,3
18.7225,-2.32537,2.31649,30,11
7.21185,-0.897005,-0.892327,27,4
10.9302,-1.36143,1.74456,68,12
12.416,-1.54869,-1.09468,26,5
19.2497,-2.40109,3.77077,3,13
14.9194,-1.8636,-0.78797,19,6
16.6972,-2.08863,3.8849,28,14
15.4806,-1.93919,-0.272327,56,7
16.5096,-2.07102,4.45842,5,15
14.8388,-1.88247,0.261088,13,8
0.525831,-0.0668009,-0.122373,15,1
15.4006,-1.9592,0.813615,51,9
0.71279,-0.0908048,-0.139672,23,2
15.8604,-2.02332,1.39885,34,10
6.84437,-0.874356,-1.09285,46,3
22.9399,-2.93053,2.83956,36,11
7.35833,-0.941318,-0.910852,83,4
10.9999,-1.40912,1.75645,49,12
12.4224,-1.59355,-1.09572,26,5
21.0596,-2.70526,4.1272,12,13
12.0718,-1.55286,-0.637871,35,6
16.8267,-2.16749,3.91685,26,14
12.5226,-1.61307,-0.220389,100,7
16.6479,-2.14742,4.49776,20,15
12.8747,-1.68127,0.226637,36,8
0.525583,-0.0687277,-0.122373,15,1
15.1358,-1.98192,0.800007,13,9
0.696896,-0.0912532,-0.136619,37,2
15.8513,-2.07841,1.39868,56,10
7.12918,-0.936043,-1.13884,36,3
7.50047,-0.987455,-0.928888,46,4
11.1102,-1.46466,1.77491,77,12
8.56095,-1.12859,-0.755466,5,5
22.1477,-2.92367,4.34243,4,13
12.1238,-1.60258,-0.640906,52,6
16.3747,-2.1674,3.81337,10,14
17.0186,-2.25565,-0.299658,38,7
16.6534,-2.2102,4.50138,5,15
12.9025,-1.73072,0.22723,48,8
0.52534,-0.0705619,-0.122373,15,1
15.0892,-2.02942,0.797914,37,9
0.700465,-0.0942086,-0.137382,49,2
15.7965,-2.12735,1.39449,68,10
6.85767,-0.924756,-1.09598,15,3
52.6355,-7.10724,6.52147,32,11
7.4773,-1.01097,-0.926451,53,4
8.45626,-1.14483,-0.746576,2,5
22.1977,-3.00914,4.35426,9,13
12.1557,-1.65,-0.642895,52,6
16.3497,-2.22218,3.80932,25,14
18.0627,-2.45823,-0.318192,7,7
16.2455,-2.2138,4.39319,3,15
12.8409,-1.76811,0.226253,51,8
0.513507,-0.0707983,-0.119674,16,1
15.0722,-2.08071,0.797391,18,9
0.700132,-0.0966531,-0.137382,24,2
15.7633,-2.17893,1.39223,43,10
19.9579,-2.76584,2.47395,10,11
7.36558,-1.02206,-0.913045,33,4
11.1212,-1.54517,1.77835,9,12
8.05555,-1.11923,-0.71154,2,5
15.5718,-2.1663,3.056,8,13
12.225,-1.70289,-0.646872,48,6
16.3727,-2.28355,3.81652,22,14
20.1296,-2.81111,-0.354773,7,7
21.5565,-3.01422,5.83223,5,15
12.8465,-1.8146,0.226462,51,8
0.54413,-0.0769567,-0.126872,15,1
15.0925,-2.13723,0.798856,32,9
0.695902,-0.0985459,-0.136619,25,2
15.7872,-2.23842,1.39501,46,10
6.86474,-0.974553,-1.09817,22,3
16.2494,-2.30974,2.01523,8,11
7.5074,-1.06846,-0.931082,45,4
7.82279,-1.11474,-0.691319,6,5
22.0168,-3.14129,4.32297,4,13
12.2032,-1.74329,-0.646035,13,6
16.4784,-2.35697,3.84306,13,14
16.7426,-2.39773,-0.295225,100,7
17.4153,-2.49717,4.71413,10,15
12.8523,-1.85891,0.226672,41,8
0.509156,-0.0737334,-0.118774,16,1
15.2039,-2.20447,0.805136,21,9
0.703326,-0.102103,-0.138146,24,2
15.8586,-2.30221,1.40199,34,10
7.31304,-1.06295,-1.17044,47,3
15.5443,-2.26213,1.9287,33,11
7.45667,-1.08648,-0.925232,36,4
12.2617,-1.7888,1.96263,63,12
7.79717,-1.13887,-0.689402,8,5
15.6612,-2.2903,3.0766,9,13
14.8886,-2.17997,-0.788598,13,6
17.0856,-2.50166,3.98658,16,14
15.219,-2.23106,-0.268488,33,7
16.7761,-2.46232,4.54331,4,15
12.7979,-1.89896,0.225834,21,8
0.55129,-0.081899,-0.128672,14,1
15.1266,-2.24989,0.801473,30,9
0.691296,-0.102945,-0.135856,25,2
15.9131,-2.36971,1.40757,34,10
6.68975,-0.997402,-1.07126,41,3
15.5084,-2.31498,1.92529,45,11
7.62737,-1.13992,-0.946925,50,4
12.2395,-1.83139,1.96012,50,12
12.8391,-1.9234,-1.13581,14,5
15.6488,-2.34711,3.07584,35,13
12.224,-1.83561,-0.647815,32,6
16.8682,-2.53301,3.93799,5,14
14.9062,-2.24104,-0.263112,100,7
16.8071,-2.52983,4.55418,15,15
12.8087,-1.94856,0.226148,21,8
0.524014,-0.0798111,-0.122373,15,1
15.0713,-2.29546,0.798961,16,9
0.68705,-0.104765,-0.135093,25,2
15.9791,-2.43944,1.41419,43,10
6.688,-1.02221,-1.07158,33,3
15.5096,-2.37331,1.92651,45,11
7.36041,-1.1263,-0.914264,55,4
12.3365,-1.88995,1.97671,54,12
12.34,-1.89269,-1.09224,35,5
15.5144,-2.38235,3.05104,25,13
12.1978,-1.87524,-0.646768,32,6
16.6801,-2.56434,3.89615,10,14
14.8489,-2.28546,-0.26224,92,7
16.3915,-2.52582,4.44392,2,15
12.6263,-1.96368,0.223042,12,8
0.523747,-0.0815483,-0.122373,15,1
15.0695,-2.34635,0.799275,29,9
0.694458,-0.108253,-0.136619,37,2
15.9493,-2.48904,1.41227,21,10
6.64749,-1.03859,-1.06563,36,3
15.488,-2.42258,1.9248,45,11
7.35859,-1.15101,-0.914508,33,4
12.2521,-1.91863,1.96419,48,12
12.2884,-1.92651,-1.08823,21,5
15.2135,-2.38781,2.99341,26,13
12.223,-1.92063,-0.648443,29,6
21.6672,-3.40462,5.06365,5,14
15.0368,-2.36545,-0.265695,90,7
16.3601,-2.57655,4.43771,2,15
19.3956,-3.08237,0.3428,12,8
0.523473,-0.0832847,-0.122373,15,1
14.9646,-2.38354,0.794146,38,9
0.713484,-0.113643,-0.140435,23,2
15.9764,-2.54756,1.41541,3,10
7.08486,-1.13101,-1.13634,53,3
15.5053,-2.478,1.92797,45,11
7.50546,-1.20084,-0.933276,61,4
12.2921,-1.96888,1.9717,56,12
12.937,-2.07218,-1.14627,26,5
15.2908,-2.45193,3.0102,18,13
12.191,-1.95704,-0.647082,13,6
21.9053,-3.52043,5.12214,5,14
15.0008,-2.41348,-0.265207,16,7
18.8953,-3.04345,5.12824,8,15
12.7981,-2.07972,0.226323,13,8
0.542414,-0.0882406,-0.126872,15,1
14.9364,-2.43255,0.793099,8,9
0.697581,-0.113608,-0.137382,24,2
14.4709,-2.35933,1.28276,13,10
6.63442,-1.08286,-1.06469,50,3
15.4809,-2.52955,1.92602,49,11
7.32883,-1.19883,-0.911826,28,4
12.1585,-1.99103,1.95136,63,12
12.9278,-2.117,-1.1461,28,5
15.319,-2.51132,3.01745,23,13
14.9433,-2.45242,-0.793622,16,6
21.941,-3.60477,5.13338,10,14
16.6912,-2.74525,-0.29526,31,7
21.212,-3.49261,5.76028,10,15
14.7477,-2.4494,0.260948,12,8
0.522879,-0.0869372,-0.122373,15,1
14.9417,-2.48697,0.793832,32,9
0.701033,-0.11681,-0.138146,24,2
14.5334,-2.42162,1.28903,30,10
6.65593,-1.11024,-1.06876,36,3
15.472,-2.58357,1.92602,45,11
12.3307,-2.06345,1.98015,58,12
12.9101,-2.16273,-1.14523,11,5
15.451,-2.59116,3.04531,13,13
14.8673,-2.49593,-0.790064,3,6
16.893,-2.83602,3.95464,13,14
20.7261,-3.48324,-0.36685,22,7
16.2675,-2.73684,4.42011,5,15
14.9101,-2.53257,0.263985,21,8
0.522557,-0.0888531,-0.122373,15,1
14.8222,-2.52295,0.78797,9,9
0.687053,-0.11707,-0.135474,25,2
12.2343,-2.08465,1.08579,29,10
6.76281,-1.15356,-1.08659,33,3
14.6347,-2.49892,1.82292,40,11
12.0699,-2.06532,1.93947,71,12
12.4465,-2.13199,-1.10479,21,5
15.3156,-2.6262,3.02051,26,13
14.7714,-2.53554,-0.785458,6,6
18.4651,-3.16957,4.32536,15,14
17.3431,-2.9801,-0.307162,45,7
18.7286,-3.22152,5.09201,13,15
17.4246,-3.02541,0.308698,37,8
0.491509,-0.0854284,-0.115175,16,1
14.8487,-2.58083,0.789854,36,9
0.700179,-0.121823,-0.138146,24,2
12.2285,-2.12982,1.08596,29,10
6.83832,-1.19225,-1.09942,36,3
11.7567,-2.05187,1.46536,49,11
7.31151,-1.27738,-0.911339,37,4
12.1716,-2.12648,1.957,53,12
12.4272,-2.17336,-1.10374,33,5
15.3102,-2.68033,3.02127,15,13
12.2483,-2.14648,-0.651687,9,6
15.8084,-2.77323,3.70539,19,14
17.2125,-3.01954,-0.305033,68,7
18.7172,-3.28688,5.09201,4,15
17.5326,-3.1041,0.310792,22,8
0.521924,-0.092499,-0.122373,15,1
14.8534,-2.63509,0.790587,34,9
0.69975,-0.124266,-0.138146,24,2
12.2622,-2.17981,1.08962,31,10
6.65734,-1.18346,-1.07095,52,3
15.3752,-2.73597,1.91749,16,11
7.20366,-1.28317,-0.898421,36,4
11.9794,-2.13601,1.92727,49,12
12.9373,-2.30915,-1.14976,21,5
15.3225,-2.73488,3.02547,11,13
12.2352,-2.18603,-0.651373,35,6
15.7588,-2.81843,3.69595,28,14
14.3437,-2.56792,-0.254351,42,7
15.9959,-2.86659,4.35437,5,15
15.176,-2.74153,0.269186,12,8
0.536939,-0.0970944,-0.125973,15,1
14.8578,-2.68941,0.79132,6,9
0.693538,-0.125537,-0.137001,24,2
12.1549,-2.20235,1.08073,27,10
6.58903,-1.19505,-1.06063,66,3
11.7991,-2.14213,1.47243,63,11
11.9777,-2.17887,1.92821,71,12
13.0355,-2.3713,-1.15917,26,5
15.6837,-2.85587,3.09874,12,13
12.2216,-2.22765,-0.651059,35,6
15.6837,-2.86153,3.68065,33,14
14.5845,-2.6636,-0.258784,34,7
18.614,-3.40288,5.07027,9,15
15.1526,-2.79196,0.268942,7,8
0.521266,-0.0961404,-0.122373,15,1
19.9981,-3.692,1.06577,2,9
0.681512,-0.125819,-0.134711,25,2
12.1276,-2.24114,1.07899,63,10
6.63726,-1.22775,-1.06907,55,3
11.8071,-2.18619,1.47438,70,11
12.2572,-2.27396,-1.09067,26,5
15.691,-2.91383,3.10217,8,13
12.2236,-2.27212,-0.651583,26,6
15.4744,-2.87919,3.63386,28,14
14.6085,-2.72072,-0.259378,67,7
17.4948,-3.26143,4.76848,1,15
15.0347,-2.82452,0.267022,22,8
0.520927,-0.0979594,-0.122373,15,1
14.8171,-2.78901,0.790168,11,9
0.675281,-0.127107,-0.133566,39,2
12.0805,-2.27608,1.0755,40,10
6.71641,-1.26665,-1.08253,32,3
7.11766,-1.3449,-0.889403,40,4
11.4459,-2.16479,1.84499,5,12
12.2571,-2.31821,-1.09136,19,5
12.2116,-2.31403,-0.651373,35,6
15.4355,-2.92774,3.62711,33,14
14.6422,-2.7799,-0.260146,33,7
