x, y, z, intensity, ring
0.498898,-0.184746,-0.122823,15,1
8.71434,-3.22872,0.487038,73,9
0.638812,-0.236684,-0.132421,26,2
13.8169,-5.12199,1.28921,27,10
4.5765,-1.69744,-0.773099,53,3
14.3191,-5.31385,1.87533,45,11
9.63823,-3.5806,1.62848,28,12
5.97728,-2.22293,-0.334217,35,6
9.2288,-3.43399,2.27336,30,14
9.37955,-3.49195,-0.174699,97,7
9.05168,-3.37169,2.58819,11,15
14.9517,-5.59317,0.278645,21,8
0.49825,-0.186486,-0.122823,15,1
8.72359,-3.26683,0.48819,28,9
0.615919,-0.23065,-0.127842,28,2
19.9894,-7.48965,1.86757,4,10
4.57795,-1.71618,-0.774351,18,3
9.5925,-3.59794,1.25794,37,11
5.36372,-2.01288,-0.70343,11,4
13.9142,-5.22447,2.35403,41,12
9.32338,-3.50257,1.93595,18,13
5.7657,-2.16719,-0.322808,35,6
16.2246,-6.10167,4.00188,19,14
9.70793,-3.65284,-0.181051,36,7
9.03805,-3.40258,2.58767,4,15
9.2383,-3.49271,0.172395,15,8
0.497596,-0.188224,-0.122823,15,1
9.36405,-3.54399,0.52472,11,9
0.6298,-0.238358,-0.130895,27,2
14.7814,-5.59721,1.38281,15,10
9.80148,-3.71345,-1.66008,13,3
9.81191,-3.71936,1.2884,27,11
4.56968,-1.73312,-0.600085,35,4
26.6634,-10.1178,4.51689,16,12
13.8591,-5.25905,-1.29688,13,5
9.32395,-3.53997,1.93862,9,13
5.88133,-2.23411,-0.329717,35,6
16.1468,-6.13681,3.98793,11,14
5.95875,-2.2659,-0.111277,39,7
8.9232,-3.39495,2.55817,16,15
9.27587,-3.54582,0.173337,13,8
0.496903,-0.190047,-0.122823,15,1
0.625255,-0.239262,-0.130132,27,2
14.664,-5.61431,1.37375,9,10
9.73148,-3.72972,1.27963,21,11
4.55032,-1.74488,-0.598379,12,4
13.8599,-5.31754,2.35121,18,12
5.51916,-2.1175,-0.517182,13,5
10.3795,-3.9843,2.1611,16,13
5.72394,-2.19836,-0.321343,35,6
8.93159,-3.4321,2.20902,6,14
5.9896,-2.30279,-0.11201,28,7
12.057,-4.63792,3.46145,12,15
9.29515,-3.59043,0.173931,12,8
0.496237,-0.19178,-0.122823,15,1
14.8972,-5.7603,0.837061,24,9
0.642727,-0.248523,-0.133948,26,2
14.6648,-5.67337,1.37567,36,10
9.86279,-3.81958,1.29864,21,11
5.33458,-2.06701,-0.702455,30,4
13.7197,-5.31876,2.33056,38,12
10.3655,-4.02051,2.1611,21,13
5.7032,-2.21327,-0.32061,48,6
8.99586,-3.49288,2.22792,21,14
6.17352,-2.39827,-0.115605,18,7
12.3541,-4.80175,3.55152,9,15
5.86982,-2.29091,0.109985,15,8
0.510086,-0.199182,-0.126422,15,1
5.85071,-2.2858,0.329193,27,9
0.638198,-0.249337,-0.133185,26,2
14.6653,-5.7325,1.37758,27,10
5.3075,-2.07571,-0.902627,18,3
10.4151,-4.07533,1.37322,6,11
5.65451,-2.2137,-0.745597,34,4
15.9763,-6.25781,2.71758,23,12
5.15697,-2.021,-0.484586,35,5
9.31132,-3.64907,1.94396,21,13
5.68243,-2.22806,-0.319877,65,6
12.982,-5.09281,3.2195,24,14
5.871,-2.30437,-0.11009,49,7
12.3211,-4.83849,3.54686,1,15
5.80598,-2.28938,0.108938,39,8
0.476758,-0.188088,-0.118324,16,1
5.83527,-2.30328,0.328775,66,9
0.640932,-0.253116,-0.133948,26,2
8.78502,-3.47114,0.826411,8,10
5.24658,-2.07409,-0.893554,11,3
10.4119,-4.11604,1.37469,19,11
5.48431,-2.16918,-0.724148,23,4
13.9651,-5.52635,2.37874,32,12
4.53116,-1.79401,-0.426366,41,5
9.31614,-3.6904,1.94778,4,13
5.64823,-2.23857,-0.318412,48,6
12.9741,-5.14466,3.2222,18,14
5.79972,-2.29978,-0.108903,53,7
20.2321,-8.02679,5.83223,10,15
5.79755,-2.31064,0.108938,45,8
0.494167,-0.197053,-0.122823,15,1
5.80678,-2.3155,0.327623,102,9
0.618163,-0.246622,-0.129368,27,2
15.0402,-6.00348,1.4168,53,10
5.17511,-2.06675,-0.882603,12,3
10.4059,-4.15786,1.37591,6,11
5.17034,-2.06694,-0.683687,67,4
13.7788,-5.50833,2.35027,41,12
5.13164,-2.05251,-0.48354,58,5
9.28132,-3.71414,1.9432,14,13
5.6478,-2.26124,-0.318831,35,6
13.1207,-5.25586,3.26314,24,14
5.79908,-2.32299,-0.109043,32,7
12.2888,-4.92511,3.54737,8,15
5.75461,-2.31567,0.108275,74,8
0.511588,-0.205968,-0.127322,15,1
5.80237,-2.33724,0.327832,43,9
0.610014,-0.245843,-0.127842,28,2
8.97122,-3.61733,0.846282,44,10
11.7673,-4.74711,1.55798,21,11
5.15978,-2.08259,-0.6832,35,4
13.7338,-5.54604,2.34589,46,12
10.0936,-4.07806,2.11607,28,13
9.55475,-3.86231,-0.540107,17,6
13.3001,-5.37898,3.31218,27,14
5.75757,-2.32972,-0.108414,32,7
12.2858,-4.97378,3.55152,18,15
0.472504,-0.19196,-0.136656,14,0
5.76872,-2.34478,0.108694,19,8
0.471152,-0.191602,-0.117424,16,1
8.71162,-3.54451,0.4929,120,9
0.609196,-0.247864,-0.127842,28,2
8.96656,-3.65006,0.846979,18,10
12.0763,-4.91841,-2.06525,23,3
11.2965,-4.60314,1.49777,35,11
5.12123,-2.08785,-0.679056,9,4
13.8058,-5.63125,2.36154,27,12
12.7247,-5.19286,-1.2024,10,5
10.1974,-4.16148,2.14088,18,13
4.52838,-1.84892,-0.256342,20,6
13.182,-5.38484,3.28743,20,14
5.73274,-2.34299,-0.1081,59,7
5.73276,-2.35351,0.10817,60,8
0.481296,-0.197688,-0.120124,15,1
8.73429,-3.58932,0.494889,42,9
0.626441,-0.257561,-0.131658,26,2
10.4696,-4.3067,0.990438,29,10
8.14535,-3.35228,-1.39508,47,3
11.3612,-4.67578,1.5085,21,11
9.11178,-3.75189,-1.20992,6,4
10.6884,-4.40327,1.83091,12,12
9.60632,-3.95944,-0.909034,20,5
9.99514,-4.12174,2.10157,14,13
4.51603,-1.86322,-0.256028,12,6
5.73932,-2.36909,-0.108379,59,7
11.9758,-4.94586,3.4718,8,15
5.7167,-2.37144,0.10803,13,8
0.491367,-0.203933,-0.122823,15,1
8.82068,-3.66267,0.500541,127,9
0.607407,-0.252217,-0.127842,28,2
15.1279,-6.28475,1.43319,28,10
8.15731,-3.39055,-1.39915,35,3
11.3091,-4.70291,1.50387,21,11
8.81022,-3.66554,-1.17165,5,4
12.7841,-5.32149,2.19321,11,12
9.50898,-3.96015,-0.90119,20,5
9.40247,-3.91772,-0.533827,24,6
5.73613,-2.39242,-0.108484,59,7
16.4852,-6.90604,0.311979,20,8
0.490652,-0.205647,-0.122823,15,1
8.806,-3.69266,0.500436,73,9
0.61734,-0.258999,-0.130132,27,2
14.989,-6.29157,1.42221,71,10
13.9795,-5.87068,1.86168,8,11
8.65097,-3.63475,-1.15215,6,4
12.7581,-5.36302,2.19196,19,12
12.8083,-5.38674,-1.21565,15,5
9.85501,-4.14671,2.07829,52,13
9.34755,-3.93511,-0.531524,42,6
9.08748,-3.82749,2.2765,21,14
5.68536,-2.39458,-0.107681,42,7
9.97474,-4.20324,2.90033,11,15
12.6441,-5.35146,0.239656,17,8
0.471951,-0.199845,-0.118324,16,1
8.84639,-3.74596,0.503472,21,9
0.605586,-0.256557,-0.127842,28,2
11.6467,-4.93653,1.1067,21,10
4.57745,-1.94113,-0.787491,18,3
13.9396,-5.91413,1.85924,16,11
4.97022,-2.10973,-0.662969,50,4
9.69541,-4.11546,1.66822,15,12
9.42608,-4.00308,-0.895961,20,5
9.89829,-4.20565,2.0905,21,13
9.33376,-3.96771,-0.531524,17,6
8.93956,-3.80199,2.24276,19,14
9.52479,-4.05088,-0.180667,100,7
19.1343,-8.17331,0.363185,40,8
0.489205,-0.209067,-0.122823,15,1
8.8149,-3.76897,0.502425,65,9
0.615517,-0.263303,-0.130132,27,2
10.9517,-4.6871,1.04221,10,10
8.0469,-3.44392,-1.38632,41,3
10.4125,-4.45852,1.39077,6,11
4.98692,-2.13637,-0.666138,40,4
9.68462,-4.15083,1.66884,19,12
9.44684,-4.05087,-0.899273,20,5
17.856,-7.65676,3.77649,9,13
4.54831,-1.95129,-0.259377,12,6
9.02361,-3.87312,2.26706,60,14
9.44628,-4.05649,-0.179446,99,7
8.45062,-3.63067,2.46447,7,15
12.2566,-5.28615,0.23299,15,8
0.488472,-0.210774,-0.122823,15,1
8.96489,-3.87017,0.511741,23,9
0.60378,-0.260779,-0.127842,28,2
10.9104,-4.71233,1.03977,8,10
8.08379,-3.49314,-1.39477,42,3
13.1811,-5.69851,1.76321,7,11
5.09604,-2.2042,-0.681737,8,4
13.508,-5.84543,2.33119,12,12
9.42716,-4.08145,-0.89875,26,5
9.17022,-3.97401,-0.523778,31,6
9.54031,-4.13637,-0.181505,99,7
9.67142,-4.19522,2.82475,11,15
12.2353,-5.33024,0.232955,24,8
0.487696,-0.212563,-0.122823,15,1
8.9781,-3.91498,0.513311,50,9
0.610018,-0.26613,-0.129368,27,2
10.9041,-4.75707,1.04081,17,10
7.98222,-3.48403,-1.37944,10,3
13.1819,-5.75631,1.76613,23,11
4.92785,-2.15292,-0.660288,40,4
14.3263,-6.262,2.47636,5,12
9.42127,-4.11997,-0.899622,20,5
9.57417,-4.18882,2.03135,11,13
4.41862,-1.93412,-0.252783,15,6
15.6563,-6.85308,3.94564,22,14
9.42251,-4.12639,-0.17955,100,7
9.76568,-4.27871,2.85684,4,15
12.2798,-5.40323,0.234176,16,8
0.486914,-0.214349,-0.122823,15,1
15.6456,-6.8875,0.895887,18,9
0.619866,-0.273006,-0.131658,26,2
11.078,-4.88136,1.05912,4,10
7.98024,-3.51804,-1.38132,28,3
13.1807,-5.8134,1.76881,38,11
8.64664,-3.81543,-1.16044,67,4
9.33028,-4.11903,-0.8923,18,5
13.1405,-5.80386,2.7923,11,13
4.36251,-1.92774,-0.249957,28,6
12.3177,-5.4456,3.10927,10,14
9.41719,-4.1633,-0.179725,72,7
10.3726,-4.58784,3.03905,2,15
9.16391,-4.06854,0.175013,20,8
0.500448,-0.222291,-0.126422,15,1
8.57822,-3.8121,0.491958,9,9
0.618909,-0.275168,-0.131658,26,2
9.92858,-4.41634,0.950695,10,10
12.4446,-5.5355,-2.15723,24,3
10.236,-4.55523,1.37566,19,11
8.65752,-3.85457,-1.16361,53,4
9.62858,-4.28893,1.66947,11,12
9.30674,-4.14752,-0.891429,11,5
11.509,-5.12897,2.44922,4,13
4.36887,-1.94789,-0.250689,19,6
8.91456,-3.97648,2.25356,17,14
9.2346,-4.12117,-0.176514,79,7
8.45314,-3.77419,2.48052,11,15
9.14782,-4.09968,0.174978,43,8
0.485444,-0.217658,-0.122823,15,1
13.5234,-6.0663,0.77677,46,9
0.610828,-0.274005,-0.130132,27,2
11.0445,-4.95665,1.05912,13,10
12.409,-5.57162,-2.15442,52,3
10.1983,-4.58118,1.37274,6,11
12.3413,-5.54642,-1.66132,31,4
10.9911,-4.94421,-1.05441,45,5
9.2814,-4.17707,-0.533408,24,6
9.14051,-4.11558,2.3143,13,14
9.40248,-4.23551,-0.180004,99,7
8.45929,-3.81241,2.48622,5,15
9.15714,-4.14231,0.175432,47,8
0.505986,-0.228993,-0.128222,14,1
12.1048,-5.48078,0.696382,4,9
0.62055,-0.281102,-0.132421,26,2
9.97372,-4.52008,0.958016,25,10
7.99694,-3.62589,-1.3907,30,3
12.6194,-5.72175,1.7013,15,11
6.53878,-2.96612,-0.881603,12,4
11.5555,-5.24424,2.00987,10,12
11.1135,-5.04598,-1.06783,28,5
9.33243,-4.23927,1.99243,32,13
4.42573,-2.01133,-0.254771,22,6
9.08989,-4.13292,2.3053,14,14
18.6715,-8.48943,-0.358019,29,7
10.9254,-4.96977,3.21609,2,15
9.1328,-4.17169,0.175257,40,8
0.483874,-0.221126,-0.122823,15,1
0.598139,-0.273471,-0.127842,28,2
15.1941,-6.94999,1.46178,25,10
7.87825,-3.60528,-1.37224,60,3
12.3168,-5.63905,1.66327,18,11
8.63584,-3.95562,-1.16629,11,4
10.4066,-4.76893,1.81308,7,12
11.0134,-5.04931,-1.05999,19,5
9.26046,-4.24564,1.98022,12,13
4.40053,-2.01844,-0.253725,12,6
9.17385,-4.21174,-0.176199,88,7
8.50552,-3.90671,2.50796,5,15
9.04736,-4.17089,0.173896,43,8
0.504334,-0.232608,-0.128222,14,1
8.47814,-3.91206,0.489341,32,9
0.575743,-0.265787,-0.123263,30,2
15.4995,-7.15851,1.49368,13,10
9.51287,-4.39557,1.2867,6,11
8.60757,-3.97908,-1.16434,45,4
13.0685,-6.04405,2.2805,17,12
10.88,-5.03418,-1.04883,14,5
7.89615,-3.65523,1.69133,9,13
4.39673,-2.03623,-0.253934,27,6
12.6442,-5.85849,3.21725,11,14
9.1228,-4.22692,-0.175501,100,7
10.1148,-4.68871,2.98729,22,15
9.05739,-4.21584,0.174384,62,8
0.482279,-0.224583,-0.122823,15,1
9.07567,-4.2282,0.52472,26,9
0.599726,-0.279402,-0.128605,28,2
15.4889,-7.2193,1.49507,32,10
6.48804,-3.02542,-1.13384,45,3
13.4382,-6.2692,1.82073,16,11
8.58033,-4.00472,-1.16263,49,4
4.9591,-2.31563,-0.478834,35,5
7.8869,-3.68443,1.69209,17,13
4.44206,-2.07609,-0.25697,20,6
13.1726,-6.1593,3.35717,24,14
9.10362,-4.25864,-0.175432,88,7
9.66715,-4.52431,2.85995,10,15
8.9847,-4.22022,0.173267,57,8
0.481492,-0.226265,-0.122823,15,1
9.0717,-4.26495,0.525348,32,9
0.584534,-0.274811,-0.125552,29,2
15.4979,-7.28944,1.49838,19,10
6.50962,-3.06319,-1.13947,17,3
34.5877,-16.2831,4.69392,15,11
8.6094,-4.05495,-1.16848,45,4
11.9617,-5.63642,2.09434,10,12
4.97081,-2.34226,-0.480751,41,5
7.88465,-3.71696,1.69438,11,13
4.44201,-2.09499,-0.257388,27,6
13.2233,-6.23934,3.37562,27,14
9.12849,-4.30917,-0.176199,100,7
0.52375,-0.248135,-0.155291,12,0
9.04401,-4.28667,0.174699,60,8
0.45957,-0.217925,-0.117424,16,1
9.04773,-4.29231,0.524825,48,9
0.590666,-0.280216,-0.127079,28,2
11.8958,-5.64601,1.15202,7,10
6.49889,-3.0859,-1.13947,32,3
34.4518,-16.3663,4.6832,15,11
6.59072,-3.13233,-0.895983,26,4
12.0009,-5.70613,2.10467,6,12
4.9716,-2.36388,-0.481623,30,5
11.3557,-5.40668,2.90367,8,14
9.14949,-4.35821,-0.176898,100,7
9.01997,-4.3139,0.174524,52,8
0.479901,-0.229621,-0.122823,15,1
11.9457,-5.7183,0.69408,110,9
0.589684,-0.282276,-0.127079,28,2
10.4475,-5.00335,1.01345,8,10
6.5148,-3.12137,-1.14416,41,3
10.1103,-4.84622,1.37664,16,11
6.52784,-3.13042,-0.888915,6,4
11.7102,-5.61811,2.05711,9,12
9.43264,-4.52544,-0.91531,18,5
7.90099,-3.7923,1.70354,42,13
5.08444,-2.44151,-0.295594,36,6
8.77575,-4.21594,2.24771,1,14
9.26039,-4.45075,-0.179341,90,7
9.61576,-4.62362,2.85892,10,15
12.0341,-5.80714,0.233234,16,8
0.479096,-0.231295,-0.122823,15,1
11.9365,-5.76517,0.694708,34,9
0.567481,-0.274087,-0.122499,30,2
10.5017,-5.07446,1.02042,2,10
6.46473,-3.12517,-1.13728,28,3
11.7696,-5.69219,1.60526,10,11
6.43468,-3.11342,-0.877703,9,4
9.3666,-4.53404,1.64819,2,12
9.37116,-4.53827,-0.910952,7,5
7.91067,-3.83098,1.7085,28,13
5.05072,-2.44706,-0.294128,18,6
8.78027,-4.2559,2.25266,17,14
9.18722,-4.45513,-0.178224,17,7
12.7994,-6.23164,0.248487,27,8
0.478286,-0.232966,-0.122823,15,1
13.2988,-6.48049,0.775305,17,9
0.577061,-0.281327,-0.124789,29,2
10.492,-5.11729,1.02129,29,10
6.43193,-3.13845,-1.13352,25,3
11.7854,-5.75065,1.61014,39,11
7.4495,-3.63659,-1.01785,41,4
9.59034,-4.68374,1.69043,4,12
9.36958,-4.57795,-0.912346,7,5
9.54397,-4.66522,2.06493,20,13
5.05069,-2.46994,-0.294651,33,6
7.75634,-3.79476,1.99352,15,14
12.8988,-6.31069,-0.250651,69,7
11.0095,-5.38876,3.28441,12,15
0.477429,-0.234717,-0.122823,15,1
9.05425,-4.45328,0.528803,12,9
0.604262,-0.297203,-0.130895,27,2
10.3632,-5.09934,1.01048,10,10
6.02041,-2.96371,-1.06282,20,3
8.65664,-4.26335,1.18481,35,11
9.50401,-4.6848,1.67823,9,12
9.29198,-4.5823,-0.90642,9,5
12.5122,-6.17032,2.71178,13,13
12.9266,-6.3775,-0.755417,26,6
13.0244,-6.43141,-0.253549,60,7
10.5948,-5.23398,3.16639,22,15
12.1704,-6.03352,0.237108,45,8
0.476607,-0.236382,-0.122823,15,1
9.04939,-4.49019,0.529431,6,9
0.57855,-0.287195,-0.125552,29,2
11.8042,-5.8622,1.15307,27,10
10.2995,-5.11719,-1.82152,10,3
8.5297,-4.23789,1.16946,33,11
7.45173,-3.70394,-1.02175,1,4
8.7518,-4.35205,1.54808,5,12
9.30626,-4.62979,-0.909383,15,5
5.06328,-2.52115,-0.296431,15,6
8.97441,-4.47057,2.31475,24,14
12.8551,-6.40372,-0.250686,51,7
10.5748,-5.27007,3.16587,7,15
10.5638,-5.28533,0.206183,20,8
0.475737,-0.238128,-0.122823,15,1
9.03287,-4.52332,0.529431,6,9
0.60212,-0.301519,-0.130895,13,2
6.61058,-3.31178,0.64687,37,10
11.0762,-5.55141,-1.96231,13,3
8.50702,-4.26557,1.16848,31,11
7.3902,-3.70719,-1.01517,5,4
9.22415,-4.62918,-0.902933,5,5
11.5167,-5.78225,2.50494,52,13
5.10085,-2.56212,-0.299152,33,6
5.17765,-2.60295,-0.101154,4,7
16.4354,-8.26613,4.92947,17,15
0.454028,-0.229247,-0.117424,16,1
9.03129,-4.56203,0.530268,20,9
0.580036,-0.292997,-0.126316,28,2
6.60787,-3.33932,0.647741,24,10
10.2564,-5.1854,-1.82027,2,3
8.50625,-4.30241,1.17043,33,11
7.3843,-3.73655,-1.01615,5,4
8.70105,-4.40475,1.54463,36,12
9.08706,-4.60016,-0.89108,39,5
9.48232,-4.80234,2.06608,20,13
5.15246,-2.6106,-0.302711,18,6
7.74885,-3.92781,2.00566,1,14
13.0283,-6.60679,-0.25498,34,7
10.9623,-5.5615,3.29373,6,15
8.54497,-4.35012,0.167369,13,8
0.501847,-0.255593,-0.130022,14,1
10.6223,-5.41231,0.624787,10,9
0.603499,-0.307498,-0.131658,26,2
8.85585,-4.51423,0.86964,42,10
9.49391,-4.84156,-1.68793,5,3
8.5513,-4.36274,1.17872,22,11
9.67858,-4.94,-1.33423,41,4
8.90729,-4.54828,1.58406,47,12
9.05595,-4.62619,-0.889686,15,5
11.0373,-5.63833,2.40915,31,13
5.15398,-2.63402,-0.303339,33,6
7.75071,-3.96282,2.00971,43,14
8.78941,-4.49583,-0.172325,96,7
10.5404,-5.3938,3.1726,12,15
8.37853,-4.30228,0.164402,6,8
0.452417,-0.232411,-0.117424,16,1
0.574432,-0.295345,-0.125552,29,2
6.6033,-3.39655,0.649659,18,10
10.3491,-5.32555,-1.84342,6,3
8.51483,-4.38167,1.1758,13,11
11.4545,-5.8969,-1.58186,17,4
8.54013,-4.39845,1.52148,36,12
9.67911,-4.98721,-0.952612,16,5
12.6272,-6.50901,2.76139,9,13
5.11057,-2.6355,-0.30135,39,6
7.69976,-3.97244,2.00026,41,14
8.79321,-4.53657,-0.172709,8,7
8.36981,-4.33664,0.164541,13,8
0.472323,-0.244829,-0.122823,15,1
8.51312,-4.41278,0.50253,39,9
0.594312,-0.308194,-0.130132,27,2
6.67629,-3.46362,0.658026,48,10
10.9107,-5.66284,-1.94698,36,3
8.9462,-4.6452,1.23771,14,11
11.3852,-5.91414,-1.57528,13,4
8.65269,-4.49471,1.54432,19,12
9.90031,-5.14499,-0.976144,40,5
9.04384,-4.70391,-0.534245,28,6
8.97955,-4.67246,-0.176688,8,7
11.5718,-6.02388,3.49561,8,15
9.83361,-5.13652,0.193652,35,8
0.454237,-0.237369,-0.118324,16,1
13.1527,-6.87607,0.777817,19,9
0.589753,-0.308446,-0.129368,13,2
6.6624,-3.48598,0.657852,45,10
9.58621,-5.01581,-1.71358,10,3
8.52449,-4.46218,1.1814,5,11
9.869,-5.16817,-1.36786,20,4
8.67719,-4.54597,1.55152,6,12
10.0146,-5.24889,-0.989218,51,5
11.4471,-5.99968,2.51219,10,13
5.09428,-2.67115,-0.301455,18,6
12.4424,-6.52688,3.24379,11,14
8.89767,-4.6694,-0.175397,97,7
12.6984,-6.6668,3.84295,14,15
9.17693,-4.83435,0.181051,20,8
0.470646,-0.248038,-0.122823,15,1
0.56094,-0.29575,-0.123263,30,2
6.63494,-3.49969,0.656283,46,10
11.3017,-5.96377,-2.02395,39,3
8.4246,-4.44742,1.1697,38,11
13.3861,-7.06965,-1.85875,2,4
10.1125,-5.34527,-1.00072,10,5
12.0544,-6.37172,2.65034,33,13
5.10258,-2.69826,-0.302502,24,6
10.7315,-5.67723,2.80289,23,14
8.90782,-4.71446,-0.17592,53,7
12.7177,-6.73368,3.85589,18,15
8.89511,-4.72563,0.175816,32,8
0.469777,-0.24968,-0.122823,15,1
8.5846,-4.56451,0.509543,29,9
0.580652,-0.308868,-0.127842,14,2
6.62207,-3.52398,0.656283,48,10
11.1298,-5.92532,-1.99704,55,3
8.47035,-4.50945,1.17823,33,11
9.91152,-5.27893,-1.37883,5,4
8.49706,-4.52748,1.52492,65,12
10.0622,-5.36366,-0.997585,23,5
9.09805,-4.85383,-0.540421,21,6
8.70961,-4.64854,-0.172325,43,7
11.6018,-6.19477,3.52408,7,15
8.85306,-4.74498,0.175327,48,8
0.451685,-0.242191,-0.118324,16,1
8.74029,-4.68847,0.519801,37,9
0.57957,-0.310893,-0.127842,14,2
6.60446,-3.54425,0.65576,41,10
10.3242,-5.54273,-1.85594,18,3
8.48,-4.55456,1.18189,33,11
13.0117,-6.99144,-1.81366,24,4
8.08719,-4.34722,1.45421,49,12
9.15101,-4.92113,-0.909034,20,5
8.05755,-4.3331,1.77834,9,13
9.37127,-5.04169,-0.557692,13,6
12.684,-6.82962,-0.251454,17,7
12.1811,-6.56157,3.70732,10,15
9.65095,-5.21607,0.191488,48,8
0.457693,-0.247474,-0.120124,15,1
8.81698,-4.76931,0.525348,55,9
0.59224,-0.32049,-0.130895,13,2
6.59668,-3.57128,0.656283,46,10
4.60821,-2.49581,-0.830041,18,3
8.64034,-4.67962,1.20651,30,11
11.3239,-6.13558,-1.58138,32,4
8.07717,-4.37825,1.45515,63,12
9.16005,-4.96729,-0.911649,3,5
8.73834,-4.74256,-0.521057,3,6
8.99622,-4.88455,2.36334,19,14
8.98366,-4.87773,-0.178433,44,7
8.44548,-4.58743,2.57525,10,15
9.67741,-5.2763,0.192395,45,8
0.467048,-0.254748,-0.122823,15,1
8.87308,-4.84178,0.529745,38,9
0.580778,-0.316913,-0.128605,28,2
6.59292,-3.59905,0.657154,45,10
4.57347,-2.49768,-0.825348,30,3
8.64927,-4.72553,1.21016,27,11
11.2874,-6.16943,-1.57943,35,4
8.1044,-4.43152,1.46298,35,12
10.1636,-5.55747,-1.01345,24,5
8.01773,-4.38594,1.77643,24,13
9.75545,-5.33874,-0.582813,40,6
8.96202,-4.90656,2.35884,40,14
10.6389,-5.82704,-0.211733,57,7
7.48494,-4.10128,2.28693,22,15
8.4761,-4.65978,0.168835,18,8
0.455911,-0.250743,-0.120124,15,1
8.84212,-4.86502,0.528907,15,9
0.565907,-0.311367,-0.125552,29,2
6.60475,-3.6355,0.659595,39,10
8.69705,-4.79113,1.21918,31,11
9.71326,-5.35317,-1.36177,20,4
12.5364,-6.91189,2.26736,8,12
7.9783,-4.40063,1.77109,40,13
9.88539,-5.45478,-0.59171,37,6
8.91242,-4.91992,2.35029,16,14
10.5835,-5.84481,-0.211035,28,7
7.46551,-4.12458,2.28537,48,15
8.63993,-4.78919,0.17243,13,8
0.465258,-0.258003,-0.122823,15,1
8.80762,-4.88616,0.527861,44,9
0.578551,-0.32096,-0.128605,28,2
6.60247,-3.66433,0.660641,22,10
4.54728,-2.52475,-0.823784,22,3
8.6768,-4.81953,1.21869,14,11
9.61296,-5.34172,-1.35031,50,4
9.33043,-5.18685,-0.933961,2,5
12.1579,-6.76147,2.70415,14,13
9.35142,-5.2028,-0.560832,13,6
7.94335,-4.42121,2.09879,31,14
10.5648,-5.88269,-0.211069,57,7
7.56076,-4.21172,2.31902,41,15
9.95503,-5.56368,0.199062,41,8
0.464355,-0.259625,-0.122823,15,1
8.45932,-4.73163,0.507973,39,9
0.560293,-0.313394,-0.124789,29,2
6.61398,-3.70098,0.663081,24,10
4.53155,-2.53675,-0.822533,17,3
8.68937,-4.86628,1.22284,37,11
9.55616,-5.3539,-1.34495,49,4
8.51419,-4.77208,1.54589,42,12
9.2636,-5.19212,-0.92908,2,5
12.1171,-6.79427,2.70033,17,13
8.92211,-5.00481,-0.53613,17,6
7.94826,-4.46036,2.10419,23,14
8.7778,-4.92788,-0.175711,62,7
8.59931,-4.84546,0.17229,21,8
0.463445,-0.261245,-0.122823,15,1
8.38708,-4.72974,0.504623,39,9
0.569456,-0.321134,-0.127079,28,2
6.61317,-3.73089,0.664301,41,10
4.50718,-2.54381,-0.819717,11,3
8.54269,-4.82338,1.20456,30,11
16.4908,-9.31488,-2.32551,40,4
8.50092,-4.80371,1.54651,52,12
8.69035,-4.91076,-0.873301,3,5
12.0814,-6.82976,2.69766,19,13
9.4835,-5.36332,-0.570985,20,6
7.93095,-4.48712,2.10374,26,14
16.1584,-9.14573,-0.324091,37,7
6.95625,-3.93886,2.14199,11,15
8.77187,-4.98311,0.176095,15,8
0.4422,-0.251306,-0.117424,16,1
8.49727,-4.83104,0.512264,57,9
0.564918,-0.321179,-0.126316,28,2
6.58798,-3.74706,0.663081,30,10
4.50858,-2.56539,-0.821594,1,3
8.46369,-4.81782,1.19578,30,11
12.8788,-7.33406,-1.81975,16,4
8.3691,-4.76785,1.52555,54,12
8.87224,-5.05448,-0.893346,3,5
8.63076,-4.91891,1.93099,32,13
9.44564,-5.38551,-0.569834,43,6
7.88816,-4.49932,2.09654,6,14
16.1421,-9.211,-0.324405,45,7
9.43812,-5.40526,0.189847,13,8
0.444702,-0.254786,-0.118324,16,1
8.41451,-4.82293,0.508287,49,9
0.54676,-0.313386,-0.122499,30,2
8.5729,-4.91571,0.864585,18,10
5.36147,-3.07552,-0.978967,27,3
6.76125,-3.88004,0.957162,22,11
12.9151,-7.41455,-1.82853,36,4
8.41579,-4.83343,1.53713,21,12
10.1977,-5.85919,-1.02896,18,5
8.63226,-4.95976,1.93518,39,13
9.40081,-5.40352,-0.568264,33,6
8.67654,-4.98923,2.3107,26,14
10.4816,-6.02962,-0.211069,48,7
6.89844,-3.96999,2.13267,28,15
9.68589,-5.59215,0.195223,8,8
0.460684,-0.266083,-0.122823,15,1
8.5498,-4.94021,0.517498,43,9
0.549008,-0.317353,-0.123263,30,2
8.5807,-4.96206,0.8672,28,10
5.30571,-3.06943,-0.970832,25,3
6.75282,-3.9066,0.957893,33,11
13.1435,-7.60675,-1.8646,8,4
8.38348,-4.85387,1.53431,41,12
17.7751,-10.2956,-1.79715,17,5
7.80885,-4.52481,1.7543,38,13
9.11311,-5.28269,-0.55204,31,6
8.62785,-5.0034,2.3026,32,14
10.5193,-6.10028,-0.212256,100,7
6.87953,-3.99113,2.13112,41,15
8.52477,-4.96353,0.172185,6,8
0.439499,-0.256,-0.117424,16,1
8.37805,-4.88202,0.508182,44,9
0.558074,-0.325198,-0.125552,29,2
11.548,-6.7319,1.16946,12,10
5.29155,-3.08594,-0.970207,62,3
6.69559,-3.90632,0.9518,27,11
16.2306,-9.47302,-2.30747,20,4
8.66246,-5.05787,1.58875,56,12
10.2415,-5.98226,-1.03768,22,5
7.80318,-4.55798,1.75659,45,13
9.28775,-5.42732,-0.563763,16,6
8.68267,-5.07578,2.32194,37,14
10.5038,-6.14283,-0.212396,100,7
8.53671,-5.01046,0.172779,21,8
0.458769,-0.269373,-0.122823,15,1
8.34718,-4.90314,0.507345,39,9
0.550108,-0.323263,-0.124026,29,2
11.5027,-6.76207,1.16736,22,10
5.30064,-3.11733,-0.973961,43,3
6.72469,-3.95482,0.957893,24,11
9.92346,-5.83837,-1.41368,11,4
13.0591,-7.68623,2.40002,28,12
13.0534,-7.68598,-1.32529,15,5
7.79826,-4.59353,1.75926,48,13
7.02914,-4.14213,-0.427585,39,6
8.50956,-5.01652,2.28055,37,14
8.50985,-5.01669,-0.17243,43,7
8.19866,-4.83516,2.5504,21,15
8.56475,-5.06922,0.173721,17,8
0.457778,-0.271053,-0.122823,15,1
20.6278,-12.2187,1.25648,16,9
0.555733,-0.329183,-0.125552,29,2
8.86677,-5.25424,0.901713,8,10
5.38828,-3.19424,-0.992108,21,3
6.72893,-3.99058,0.960574,33,11
10.7471,-6.37607,-1.53434,37,4
13.075,-7.76026,2.40815,32,12
10.8574,-6.4441,-1.10461,19,5
7.86996,-4.67284,1.7791,48,13
7.01636,-4.16766,-0.427689,39,6
8.46687,-5.03126,2.27381,40,14
10.6521,-6.33228,-0.216305,100,7
8.20911,-4.88197,2.5592,32,15
8.70156,-5.19129,0.176863,1,8
0.47691,-0.284634,-0.128222,14,1
13.1906,-7.87568,0.805136,24,9
0.547838,-0.327095,-0.124026,29,2
8.63627,-5.15847,0.880099,16,10
5.38218,-3.21607,-0.993046,35,3
6.71666,-4.01506,0.960818,27,11
12.8067,-7.65856,-1.83218,22,4
13.1732,-7.88089,2.4313,21,12
13.314,-7.96513,-1.35736,26,5
7.88056,-4.71642,1.78521,38,13
7.00005,-4.1911,-0.427585,39,6
8.68164,-5.19997,2.33634,13,14
10.8958,-6.52874,-0.221715,75,7
8.2119,-4.92251,2.56541,33,15
9.54196,-5.73792,0.19435,41,8
0.435836,-0.262188,-0.117424,16,1
0.556785,-0.33508,-0.126316,28,2
8.58237,-5.16701,0.876438,34,10
7.02417,-4.23056,-1.29872,41,3
6.72641,-4.05283,0.96423,27,11
10.0801,-6.07588,-1.44513,8,4
10.0246,-6.04483,1.85406,21,12
17.9268,-10.8142,-1.83167,13,5
7.7884,-4.69826,1.76804,40,13
6.98538,-4.21551,-0.427585,39,6
8.52663,-5.14765,2.29945,13,14
10.6281,-6.4189,-0.216724,38,7
8.24592,-4.98211,2.58146,27,15
0.454915,-0.275832,-0.122823,15,1
0.545483,-0.331007,-0.124026,29,2
8.4135,-5.10744,0.861099,30,10
6.95458,-4.22347,-1.28871,27,3
6.83608,-4.1515,0.982023,20,11
10.656,-6.47383,-1.53092,9,4
13.701,-8.33036,-1.40286,5,5
7.67552,-4.66862,1.74628,38,13
6.97159,-4.24213,-0.427689,39,6
13.2435,-8.06165,3.57942,24,14
10.6279,-6.46948,-0.217178,100,7
7.96779,-4.85211,2.49967,15,15
9.4051,-5.74766,0.192395,60,8
0.4406,-0.269365,-0.119224,16,1
10.8075,-6.6099,0.663934,32,9
0.540975,-0.330861,-0.123263,30,2
8.4602,-5.1763,0.867723,54,10
7.22285,-4.42097,-1.34127,27,3
6.97318,-4.26982,1.00396,31,11
10.1853,-6.2391,-1.46658,34,4
15.0845,-9.24377,2.80205,5,12
8.62986,-5.28838,-0.885502,19,5
7.74119,-4.74566,1.76498,40,13
6.93971,-4.25599,-0.426643,36,6
8.5527,-5.24726,2.31655,11,14
10.5751,-6.4906,-0.216584,100,7
7.96641,-4.89139,2.50485,35,15
10.6858,-6.58167,0.219063,31,8
0.452929,-0.27908,-0.122823,15,1
10.8439,-6.68427,0.667598,55,9
0.553187,-0.340988,-0.126316,28,2
8.31998,-5.1305,0.855172,40,10
9.12564,-5.62951,-1.69825,40,3
6.8383,-4.22012,0.986654,24,11
10.1026,-6.23708,-1.4578,4,4
15.0067,-9.26834,2.79361,6,12
8.58592,-5.30277,-0.882888,28,5
7.64441,-4.72313,1.74667,32,13
9.49529,-5.86899,-0.585011,13,6
8.53102,-5.27504,2.31565,17,14
10.566,-6.53589,-0.216864,76,7
7.95915,-4.92527,2.50796,14,15
8.02426,-4.98107,0.164855,26,8
0.451952,-0.280659,-0.122823,15,1
10.8641,-6.74653,0.670214,21,9
0.548658,-0.340845,-0.125552,29,2
8.35448,-5.19211,0.860576,50,10
9.11935,-5.66967,-1.70076,62,3
6.69879,-4.16638,0.968618,33,11
17.7767,-11.0607,-2.57071,5,4
8.55552,-5.32534,-0.881667,40,5
7.56788,-4.71242,1.73293,48,13
6.90983,-4.30434,-0.426643,36,6
13.4031,-8.35243,3.64601,21,14
6.94127,-4.3256,-0.142761,8,7
7.77555,-4.84739,2.45516,47,15
8.01448,-5.01189,0.164995,38,8
0.470844,-0.294559,-0.128222,14,1
8.21121,-5.13891,0.507659,50,9
0.544136,-0.340675,-0.124789,14,2
8.27382,-5.18211,0.854126,36,10
9.02517,-5.6527,-1.68668,43,3
6.90361,-4.32559,1.0003,18,11
19.3815,-12.1486,-2.8086,13,4
6.67419,-4.18509,1.24772,48,12
7.71852,-4.84182,1.77109,33,13
6.87691,-4.31555,-0.425491,43,6
13.3506,-8.38129,3.63926,19,14
5.99813,-3.767,-0.123633,33,7
7.72914,-4.856,2.44584,43,15
7.95464,-5.01318,0.164122,35,8
0.450031,-0.283729,-0.122823,15,1
8.3064,-5.23892,0.514672,17,9
0.526398,-0.332004,-0.120973,30,2
8.14538,-5.13935,0.842622,34,10
8.97364,-5.66414,-1.68073,68,3
6.56285,-4.14405,0.953018,9,11
10.5179,-6.64398,-1.52751,10,4
6.6896,-4.22735,1.25335,70,12
4.96133,-3.13642,-0.513522,26,5
7.65677,-4.84041,1.76079,46,13
11.3533,-7.18278,3.10163,38,14
5.98663,-3.78898,-0.123668,26,7
7.79702,-4.93669,2.47276,7,15
7.96241,-5.057,0.164646,41,8
0.449038,-0.285298,-0.122823,15,1
8.91848,-5.66858,0.553819,21,9
0.545058,-0.346572,-0.125552,29,2
8.93949,-5.6885,-1.67823,15,3
6.46963,-4.11685,0.941563,27,11
12.1658,-7.74452,-1.77076,22,4
6.6998,-4.2666,1.25805,58,12
4.95707,-3.158,-0.514219,41,5
7.46348,-4.75659,1.72033,38,13
11.1689,-7.12087,-0.694184,16,6
13.1637,-8.39592,3.60462,28,14
6.00203,-3.82813,-0.124261,13,7
14.2631,-9.10062,4.53347,15,15
7.77205,-4.97617,0.161086,12,8
0.44799,-0.286942,-0.122823,15,1
11.1258,-7.12896,0.692509,27,9
0.557069,-0.356946,-0.128605,28,2
7.06508,-4.52874,0.7342,16,10
8.99274,-5.76659,-1.692,43,3
6.49293,-4.16518,0.947169,27,11
13.1064,-8.4109,-1.91213,25,4
6.6891,-4.29433,1.25898,19,12
4.92032,-3.16,-0.511604,31,5
7.61367,-4.88977,1.75888,36,13
11.2415,-7.22243,-0.700255,35,6
13.1032,-8.4218,3.59607,40,14
5.99805,-3.8566,-0.124471,27,7
6.99177,-4.51107,0.145239,13,8
0.446985,-0.288504,-0.122823,15,1
11.1193,-7.17967,0.693661,33,9
0.535968,-0.346203,-0.124026,29,2
7.07186,-4.56974,0.73664,22,10
8.99311,-5.81346,-1.69606,56,3
5.2141,-3.37186,-0.762415,1,4
6.72548,-4.35091,1.26868,25,12
7.74073,-5.01153,1.79246,37,13
11.2082,-7.25924,-0.699836,16,6
10.5013,-6.804,2.88882,25,14
5.94763,-3.85359,-0.123703,13,7
7.65972,-4.96478,2.44584,35,15
6.99698,-4.55084,0.145693,38,8
0.445925,-0.290141,-0.122823,15,1
0.544628,-0.354497,-0.126316,14,2
7.05085,-4.59113,0.736117,20,10
6.10929,-3.97956,-1.1548,17,3
6.61596,-4.31125,0.969593,2,11
5.19006,-3.38336,-0.760709,29,4
6.63007,-4.32374,1.25367,24,12
13.2226,-8.62631,-1.38124,13,5
7.47326,-4.87547,1.73445,30,13
11.4103,-7.44678,-0.714072,68,6
15.048,-9.82466,4.149,17,14
5.96695,-3.89723,-0.124401,39,7
7.73527,-5.05411,2.47586,61,15
6.99945,-4.58729,0.146077,41,8
0.444909,-0.291695,-0.122823,15,1
0.533477,-0.350029,-0.124026,29,2
7.04231,-4.62241,0.736989,9,10
5.64388,-3.70593,-1.06939,8,3
6.6324,-4.35502,0.974224,24,11
4.95258,-3.25324,-0.72756,21,4
6.58027,-4.32407,1.2471,42,12
9.66625,-6.35437,-1.01205,9,5
7.94908,-5.22753,1.84932,17,13
10.3517,-6.81017,-0.649385,9,6
14.854,-9.77583,4.10536,28,14
6.00676,-3.95321,-0.125518,67,7
7.76599,-5.11295,2.49139,27,15
6.27682,-4.14667,0.131312,20,8
0.443837,-0.293324,-0.122823,15,1
6.87084,-4.54254,0.431667,43,9
0.548629,-0.362716,-0.127842,14,2
8.04814,-5.32291,0.844191,30,10
6.60481,-4.37163,0.972517,13,11
4.82476,-3.19465,-0.710498,16,4
6.61213,-4.3798,1.25617,71,12
5.33194,-3.53181,-0.55954,5,5
7.86696,-5.21295,1.83444,18,13
11.2352,-7.44768,-0.706431,39,6
10.4786,-6.9488,2.90277,14,14
6.01056,-3.98736,-0.125902,74,7
7.65545,-5.08049,2.46189,45,15
6.29061,-4.18739,0.131905,24,8
0.442811,-0.294872,-0.122823,15,1
0.537556,-0.358099,-0.125552,14,2
5.54588,-3.69585,0.583072,30,10
11.0073,-7.34095,1.62452,7,11
4.7789,-3.18834,-0.70538,42,4
6.60502,-4.40833,1.25773,70,12
5.31958,-3.5504,-0.55954,18,5
7.73768,-5.16625,1.80849,38,13
10.3139,-6.88893,-0.650013,19,6
15.1046,-10.0926,4.19399,12,14
6.02986,-4.03055,-0.1266,55,7
7.68424,-5.13832,2.4769,37,15
6.82068,-4.57467,0.143354,35,8
0.441779,-0.296415,-0.122823,15,1
0.536302,-0.359973,-0.125552,29,2
8.55829,-5.7466,0.901888,12,10
22.1115,-14.8583,3.27097,9,11
4.85835,-3.26591,-0.718785,47,4
6.62315,-4.45225,1.26399,54,12
5.31873,-3.57673,-0.56076,6,5
7.73752,-5.20528,1.81269,21,13
8.30143,-5.58674,-0.524406,14,6
14.8284,-9.98308,4.12695,8,14
5.9385,-3.99803,-0.124959,67,7
7.75528,-5.22313,2.50537,34,15
0.466627,-0.315337,-0.130022,14,1
6.142,-4.15219,0.388542,45,9
0.53179,-0.359643,-0.124789,29,2
5.51665,-3.73224,0.582723,22,10
4.9378,-3.34063,-0.944239,33,3
7.01975,-4.75094,1.04076,26,11
4.85407,-3.28645,-0.71976,49,4
6.66318,-4.51301,1.27463,67,12
5.33425,-3.61428,-0.563723,23,5
7.7446,-5.24743,1.81841,18,13
8.22664,-5.57614,-0.520847,35,6
10.5001,-7.11977,2.92886,31,14
5.89803,-4.00077,-0.124401,66,7
7.71143,-5.23281,2.49709,36,15
5.3462,-3.63873,0.112882,15,8
0.455859,-0.310383,-0.127322,15,1
6.29088,-4.28492,0.398905,110,9
0.517552,-0.352653,-0.121736,30,2
4.91958,-3.3534,-0.942987,57,3
13.0288,-8.88429,1.93626,8,11
4.88685,-3.33358,-0.726341,53,4
6.71429,-4.58189,1.28746,63,12
8.03506,-5.48526,-0.851163,8,5
7.67181,-5.23924,1.80582,14,13
8.16492,-5.57809,-0.518231,49,6
15.2927,-10.4476,4.27587,18,14
5.89228,-4.02698,-0.124575,74,7
5.23554,-3.59156,0.110823,44,8
0.43865,-0.301025,-0.122823,15,1
6.27349,-4.30682,0.3988,42,9
0.529203,-0.363439,-0.124789,14,2
6.7091,-4.60759,0.712062,41,10
4.9268,-3.38483,-0.946742,13,3
6.91032,-4.74933,1.02955,14,11
5.03327,-3.46056,-0.749984,43,4
6.59979,-4.5393,1.26868,20,12
5.34436,-3.6772,-0.567558,13,5
7.56361,-5.2061,1.78483,42,13
8.10988,-5.58419,-0.516033,66,6
7.59988,-5.23303,2.13029,24,14
5.81655,-4.00658,-0.123284,72,7
5.28649,-3.65508,0.112184,60,8
0.453571,-0.313717,-0.127322,15,1
5.61219,-3.88317,0.357664,21,9
0.527931,-0.365284,-0.124789,29,2
6.71346,-4.64689,0.714328,33,10
9.92291,-6.87095,-1.91163,8,3
6.93203,-4.80176,1.0354,26,11
5.09887,-3.53326,-0.761683,44,4
9.37105,-6.49609,-0.997585,17,5
6.9275,-4.80399,1.63867,17,13
8.04767,-5.58287,-0.513311,59,6
7.56784,-5.25196,2.12669,11,14
5.74762,-3.99024,-0.122132,32,7
6.86734,-4.76937,2.24034,44,15
5.318,-3.70437,0.113127,19,8
0.414101,-0.288559,-0.116525,16,1
5.65431,-3.94157,0.361223,54,9
0.520211,-0.362634,-0.123263,30,2
8.09449,-5.6447,0.863365,16,10
4.92189,-3.43356,-0.950496,45,3
6.9136,-4.82479,1.03516,30,11
5.06046,-3.53285,-0.757784,35,4
7.04652,-4.92121,1.36129,32,12
5.33653,-3.72697,-0.569476,10,5
6.9123,-4.82926,1.63905,38,13
8.05105,-5.62694,-0.514777,38,6
8.44384,-5.90366,2.37863,43,14
5.65008,-3.95182,-0.120352,70,7
6.70028,-4.6881,2.19116,39,15
5.44745,-3.82285,0.116163,39,8
0.45137,-0.316875,-0.127322,15,1
12.5134,-8.78805,0.801368,7,9
0.525368,-0.368961,-0.124789,14,2
6.86182,-4.82078,0.733677,16,10
4.33129,-3.04408,-0.838489,40,3
6.92757,-4.87059,1.03979,30,11
5.10817,-3.59275,-0.766802,28,4
6.86128,-4.82756,1.32875,57,12
5.02204,-3.53348,-0.537228,11,5
7.54881,-5.31327,1.79437,6,13
10.8092,-7.61092,-0.692823,13,6
8.09339,-5.7008,2.2855,63,14
5.43356,-3.82869,-0.116024,54,7
6.67124,-4.70255,2.18702,10,15
6.11986,-4.32669,0.130823,15,8
0.434351,-0.307196,-0.122823,15,1
5.69024,-4.02593,0.365305,18,9
0.530488,-0.375328,-0.126316,14,2
7.21411,-5.10599,0.773246,24,10
4.3158,-3.05576,-0.83755,63,3
6.87813,-4.87179,1.03491,35,11
11.7364,-8.31599,-1.76613,16,4
6.846,-4.85262,1.32907,35,12
4.95603,-3.51296,-0.531476,23,5
5.83519,-4.13919,-0.374935,17,6
7.28358,-5.16852,2.0619,15,14
5.14785,-3.65433,-0.110194,27,7
6.66896,-4.73588,2.19168,21,15
5.94672,-4.2355,0.127437,13,8
0.420579,-0.299664,-0.119224,16,1
12.7055,-9.05603,0.817697,9,9
0.532372,-0.379457,-0.127079,14,2
7.24167,-5.16352,0.778126,16,10
4.30189,-3.06851,-0.836924,56,3
6.88694,-4.91422,1.03881,19,11
5.18152,-3.69868,-0.78167,10,4
4.97392,-3.55311,-0.534788,36,5
6.96519,-4.97556,1.66385,35,13
7.88444,-5.6343,-0.507868,14,6
5.13994,-3.67577,-0.110299,55,7
6.64925,-4.75688,2.19064,14,15
10.1676,-7.29539,0.218434,10,8
0.413198,-0.296585,-0.117424,16,1
12.8052,-9.19469,0.826176,11,9
0.511843,-0.367661,-0.122499,15,2
7.93946,-5.70508,0.855346,24,10
4.30024,-3.09118,-0.838802,55,3
6.86974,-4.93823,1.03881,28,11
10.3855,-7.46825,-1.57065,27,4
7.09578,-5.10447,1.38445,35,12
5.20892,-3.7485,-0.561457,7,5
7.05525,-5.07905,1.6898,38,13
7.21058,-5.19279,-0.465685,7,6
7.08197,-5.10204,2.01511,43,14
5.14006,-3.70304,-0.110578,60,7
6.64357,-4.78797,2.19427,21,15
5.66347,-4.09515,0.121992,15,8
0.415266,-0.300382,-0.118324,16,1
5.70207,-4.12609,0.368864,8,9
0.516919,-0.374049,-0.124026,14,2
7.93564,-5.74444,0.85709,10,10
4.58221,-3.31819,-0.896057,18,3
6.89661,-4.99598,1.04564,35,11
10.432,-7.55984,-1.58186,22,4
7.04984,-5.11074,1.37913,9,12
5.74265,-4.16309,-0.620549,6,5
6.86265,-4.97686,1.64783,37,13
5.17647,-3.75541,-0.33516,19,6
7.13351,-5.17709,2.03491,53,14
5.09732,-3.7007,-0.10995,88,7
6.89014,-5.00414,2.28175,36,15
8.20136,-5.97396,0.177107,18,8
0.411065,-0.299534,-0.117424,16,1
5.67149,-4.13421,0.367817,28,9
0.51561,-0.375851,-0.124026,14,2
6.02399,-4.39277,0.652274,18,10
7.02665,-5.12768,1.06806,26,11
7.7697,-5.672,-1.18116,15,4
5.15849,-3.76715,-0.558843,2,5
6.83256,-4.99152,1.64477,33,13
5.20525,-3.80409,-0.337881,35,6
7.72421,-5.64706,2.20902,30,14
5.11827,-3.74326,-0.110683,33,7
6.86328,-5.02132,2.27864,32,15
7.30502,-5.36018,0.158154,1,8
0.428869,-0.314805,-0.122823,15,1
5.71176,-4.19417,0.371376,20,9
0.514295,-0.377649,-0.124026,14,2
6.00219,-4.40905,0.651576,31,10
5.01897,-3.68815,-0.986476,46,3
7.12707,-5.23918,1.0861,27,11
5.63567,-4.14436,-0.858935,19,4
6.69257,-4.92338,1.31593,65,12
5.16778,-3.80167,-0.561283,13,5
6.68543,-4.91992,1.61348,11,13
5.0697,-3.73225,-0.329926,29,6
7.29177,-5.37006,2.0907,19,14
5.38048,-3.96393,-0.116652,90,7
6.92813,-5.10599,2.30608,24,15
7.77191,-5.74461,0.168695,1,8
0.418366,-0.309348,-0.120124,15,1
5.69548,-4.2129,0.371271,30,9
0.528757,-0.391117,-0.127842,14,2
5.98036,-4.42523,0.650879,16,10
5.11403,-3.78556,-1.00775,25,3
7.35601,-5.44714,1.12388,26,11
5.16816,-3.82843,-0.789713,11,4
8.10532,-6.00638,1.59782,31,12
5.26172,-3.89916,-0.572962,38,5
6.69976,-4.96661,1.62111,27,13
5.03419,-3.73327,-0.328461,39,6
7.25107,-5.37923,2.0844,30,14
5.07596,-3.76699,-0.110334,44,7
6.88079,-5.10826,2.29624,45,15
7.28827,-5.42657,0.158607,38,8
0.401655,-0.299166,-0.115625,16,1
5.65191,-4.21127,0.369387,30,9
0.52732,-0.393052,-0.127842,14,2
5.64698,-4.20913,0.616191,15,10
5.15304,-3.84236,-1.01808,8,3
6.61296,-4.93274,1.01298,2,11
5.08476,-3.79421,-0.778989,14,4
5.18673,-3.87312,-0.566338,13,5
6.80577,-5.08396,1.65126,34,13
5.11166,-3.81984,-0.334427,29,6
7.0418,-5.26219,2.02951,13,14
5.05957,-3.78229,-0.110264,60,7
7.00061,-5.23522,2.34231,20,15
7.3771,-5.53486,0.160981,13,8
0.425493,-0.319353,-0.122823,15,1
5.69394,-4.27513,0.373155,19,9
0.500759,-0.376117,-0.121736,15,2
7.20548,-5.41199,0.788411,15,10
6.58849,-4.95218,1.012,15,11
5.05337,-3.7997,-0.776308,42,4
6.59715,-4.96229,1.30748,35,12
7.48732,-5.63391,-0.819787,17,5
6.77768,-5.10178,1.64897,35,13
5.04976,-3.80251,-0.331287,35,6
6.78273,-5.10744,1.96022,13,14
5.07602,-3.82367,-0.110927,67,7
6.86103,-5.17016,2.30194,9,15
5.66273,-4.28114,0.123912,17,8
0.399451,-0.302102,-0.115625,16,1
5.76819,-4.36245,0.379017,57,9
0.508837,-0.38497,-0.124026,29,2
5.697,-4.31173,0.625081,28,10
4.36091,-3.30172,-0.866334,22,3
12.4158,-9.40366,1.91237,16,11
5.07897,-3.84816,-0.782401,33,4
6.58609,-4.99006,1.30873,60,12
7.42632,-5.62872,-0.815255,40,5
6.80519,-5.15981,1.66004,30,13
5.011,-3.8008,-0.329612,35,6
6.87418,-5.2159,1.99217,13,14
5.03556,-3.82081,-0.110334,60,7
7.54672,-5.7449,0.165554,35,8
0.407749,-0.310509,-0.118324,16,1
7.97243,-6.07336,0.525244,37,9
0.498121,-0.379604,-0.121736,15,2
9.29926,-7.08927,1.02303,10,10
5.33649,-4.06826,-1.06282,11,3
8.64837,-6.59545,1.33544,25,11
5.08985,-3.88305,-0.786057,38,4
5.1262,-3.91361,-0.564246,11,5
6.74435,-5.14899,1.64935,39,13
5.32535,-4.06712,-0.351174,37,6
4.9793,-3.80558,-0.109392,38,7
4.68081,-3.57875,1.5788,65,15
7.45045,-5.7128,0.163878,70,8
0.40357,-0.309559,-0.117424,16,1
7.8165,-5.99781,0.516347,16,9
0.499975,-0.383644,-0.122499,15,2
7.56723,-5.80864,0.834603,2,10
5.32226,-4.08686,-1.06282,36,3
8.54816,-6.56635,1.3235,18,11
5.01016,-3.84999,-0.77582,51,4
4.94667,-3.80395,-0.545944,6,5
6.60495,-5.07915,1.61959,38,13
4.9676,-3.82142,-0.328461,22,6
7.09335,-5.45867,2.0664,30,14
4.66676,-3.59389,1.57828,58,15
7.44471,-5.74977,0.164192,25,8
0.420993,-0.325263,-0.122823,15,1
7.72914,-5.97376,0.51195,23,9
0.510991,-0.395081,-0.125552,14,2
8.41584,-6.50919,0.930823,21,10
5.17288,-4.00238,-1.03591,20,3
8.58328,-6.64109,1.33252,18,11
4.9857,-3.85895,-0.774114,22,4
6.49598,-5.02973,1.30122,61,12
4.91131,-3.80412,-0.543503,26,5
6.66854,-5.16706,1.63981,20,13
5.66707,-4.39266,-0.375772,17,6
7.31513,-5.67215,-0.161574,93,7
4.69235,-3.63976,1.59122,55,15
5.75391,-4.47768,0.127263,52,8
0.419798,-0.326803,-0.122823,15,1
5.79261,-4.51105,0.384774,17,9
0.491021,-0.382387,-0.120973,15,2
7.27871,-5.6704,0.807236,20,10
7.14518,-5.57039,1.11242,12,11
5.50687,-4.2947,-0.857473,40,4
6.50242,-5.07294,1.30623,23,12
4.89734,-3.82209,-0.543503,10,5
6.65046,-5.1903,1.63981,35,13
5.69578,-4.44683,-0.378703,21,6
6.89284,-5.38334,2.01916,8,14
5.66021,-4.42224,-0.125378,6,7
4.75356,-3.71522,1.61658,69,15
5.74926,-4.50637,0.127507,13,8
0.403319,-0.316242,-0.118324,16,1
7.28232,-5.71212,0.48505,15,9
0.483438,-0.379337,-0.119446,15,2
7.34721,-5.76716,0.817172,8,10
7.17878,-5.63698,1.12071,10,11
5.23739,-4.11402,-0.817743,25,4
6.45983,-5.07608,1.30122,48,12
4.87144,-3.82931,-0.542109,11,5
6.58046,-5.1746,1.62722,35,13
5.09235,-4.00585,-0.339556,22,6
6.77463,-5.33111,-0.150475,41,7
4.72386,-3.71865,1.61089,65,15
5.76566,-4.55344,0.12824,17,8
0.417448,-0.329799,-0.122823,15,1
0.497514,-0.393195,-0.123263,15,2
7.61149,-6.01766,0.848897,26,10
4.29332,-3.39553,-0.86696,53,3
6.48087,-5.12747,1.01468,24,11
5.43241,-4.2995,-0.850648,52,4
6.42104,-5.08378,1.29715,35,12
5.44694,-4.31255,-0.607824,25,5
6.57159,-5.20485,1.62951,38,13
5.39456,-4.27414,-0.360699,43,6
6.9809,-5.53299,2.0565,24,14
5.74124,-4.55208,-0.127891,21,7
4.67387,-3.70712,1.59847,63,15
6.39607,-5.08766,0.142656,35,8
0.416294,-0.331254,-0.122823,15,1
7.21157,-5.74045,0.483061,78,9
0.489994,-0.390038,-0.121736,15,2
7.18987,-5.72523,0.804099,46,10
4.28144,-3.41049,-0.86696,51,3
6.45207,-5.14141,1.01298,24,11
5.37391,-4.28379,-0.843823,36,4
6.91292,-5.51259,1.4004,50,12
4.99569,-3.98372,-0.559017,38,5
6.55953,-5.23265,1.63104,33,13
5.07987,-4.05376,-0.340602,23,6
7.34077,-5.86006,2.16853,39,14
5.5253,-4.41237,-0.123423,39,7
4.80279,-3.83676,1.64712,61,15
5.48403,-4.39354,0.122656,24,8
0.390805,-0.313206,-0.115625,16,1
7.18938,-5.76184,0.482852,78,9
0.494757,-0.396659,-0.123263,15,2
7.14497,-5.73035,0.80131,48,10
4.30494,-3.45385,-0.874156,17,3
7.83051,-6.28465,1.23283,2,11
5.30165,-4.25654,-0.834805,38,4
7.60625,-6.10684,1.54495,14,12
8.88388,-7.13517,-0.996887,12,5
6.55653,-5.26781,1.63485,38,13
5.39572,-4.33672,-0.362793,43,6
7.40228,-5.95158,2.19282,54,14
5.50441,-4.42566,-0.123284,26,7
4.80509,-3.86477,1.6523,61,15
5.47877,-4.41923,0.122865,33,8
0.383698,-0.309605,-0.113825,16,1
7.14436,-5.76683,0.481177,66,9
0.48115,-0.388516,-0.12021,15,2
7.14663,-5.77278,0.80375,65,10
4.31344,-3.48424,-0.878223,26,3
7.05923,-5.70422,1.11437,15,11
5.27669,-4.26536,-0.833099,54,4
6.95512,-5.62411,1.41667,8,12
8.71796,-7.05211,-0.981025,10,5
9.02855,-7.30335,2.25727,36,13
5.50242,-4.45259,-0.370957,38,6
7.3931,-5.98468,2.19597,37,14
6.75237,-5.46796,-0.151661,66,7
4.76305,-3.85842,1.64247,56,15
5.51453,-4.47994,0.124017,100,8
0.412861,-0.335523,-0.122823,15,1
7.09784,-5.77031,0.479397,51,9
0.482837,-0.392671,-0.120973,15,2
7.12126,-5.79142,0.803053,73,10
4.27674,-3.47933,-0.873217,10,3
7.03312,-5.72382,1.1134,42,11
5.27101,-4.29128,-0.834561,32,4
4.93052,-4.01694,-0.556402,13,5
8.27123,-6.74105,2.07409,31,13
5.39628,-4.39953,-0.364886,37,6
7.27399,-5.93041,2.16673,42,14
10.0046,-8.15952,-0.225345,37,7
4.79146,-3.90922,1.65696,69,15
5.54295,-4.53685,0.125029,27,8
0.435754,-0.356787,-0.130022,14,1
7.29914,-5.97853,0.49447,26,9
0.508729,-0.416835,-0.127842,14,2
7.08458,-5.80485,0.80131,46,10
6.56386,-5.38203,1.04223,19,11
5.29055,-4.33952,-0.840167,31,4
6.5772,-5.39681,1.34753,47,12
4.92655,-4.04383,-0.557622,15,5
8.23433,-6.76135,2.07104,17,13
5.42024,-4.45224,-0.367608,31,6
7.34105,-6.03001,2.19327,52,14
8.65206,-7.10941,-0.195467,28,7
4.86068,-3.99545,1.68595,61,15
9.8029,-8.08376,0.221785,12,8
0.410391,-0.338541,-0.122823,15,1
6.55161,-5.4065,0.44517,35,9
0.492128,-0.406112,-0.124026,14,2
7.08169,-5.846,0.803402,56,10
6.54562,-5.40731,1.04247,33,11
5.27767,-4.36141,-0.840655,25,4
6.57261,-5.43347,1.35066,58,12
8.8543,-7.31971,-1.00508,24,5
6.76281,-5.59269,1.70583,35,13
5.49546,-4.54624,-0.373783,21,6
7.21381,-5.9699,2.16178,28,14
5.41894,-4.48612,-0.122795,6,7
4.81624,-3.98859,1.67559,56,15
5.33343,-4.42947,0.121015,11,8
0.391219,-0.325027,-0.117424,16,1
6.49123,-5.39487,0.442344,37,9
0.496747,-0.412847,-0.125552,14,2
4.28592,-3.56456,-0.882916,6,3
7.02571,-5.84529,1.12217,44,11
5.21816,-4.34298,-0.833586,19,4
6.55663,-5.4589,1.35128,50,12
8.89454,-7.40539,-1.01258,27,5
6.79906,-5.66275,1.71995,49,13
7.1644,-5.96915,-0.488713,56,6
6.91,-5.75924,2.07675,44,14
10.1445,-8.4581,-0.230546,100,7
4.81713,-4.01775,1.68077,51,15
0.370512,-0.309796,-0.12941,15,0
5.33788,-4.46474,0.121469,24,8
0.387093,-0.32389,-0.116525,16,1
0.492292,-0.412058,-0.124789,14,2
7.3172,-6.12681,0.834952,6,10
4.29617,-3.59853,-0.887609,51,3
6.93983,-5.81496,1.11169,37,11
5.19384,-4.35352,-0.832124,37,4
6.53451,-5.47922,1.35066,49,12
8.84726,-7.41847,-1.01014,24,5
6.86499,-5.75837,1.7417,42,13
7.15423,-6.00311,-0.489446,70,6
6.75552,-5.67056,2.03626,27,14
5.56207,-4.67044,-0.126774,20,7
4.82082,-4.04945,1.68698,12,15
5.37885,-4.53101,0.12276,12,8
0.406823,-0.34282,-0.122823,15,1
0.484847,-0.408713,-0.123263,15,2
6.76115,-5.70149,0.773769,9,10
4.28811,-3.61732,-0.888548,43,3
6.86943,-5.7969,1.10365,30,11
4.30489,-3.63406,-0.69173,8,4
6.98472,-5.89837,1.44796,67,12
8.65691,-7.31048,-0.991309,27,5
6.95283,-5.87351,1.76918,48,13
5.54214,-4.68347,-0.380273,31,6
6.74759,-5.70418,2.03986,53,14
5.561,-4.70274,-0.127123,34,7
4.80371,-4.06376,1.68595,4,15
7.29045,-6.18493,0.16688,10,8
0.387794,-0.329106,-0.117424,16,1
5.49191,-4.66242,0.377552,28,9
0.489404,-0.415485,-0.124789,14,2
6.85966,-5.82565,0.787365,3,10
4.27395,-3.63099,-0.888235,26,3
6.92024,-5.88126,1.1151,30,11
4.28462,-3.64263,-0.690512,29,4
6.84972,-5.82545,1.42418,10,12
7.14548,-6.07698,-0.820658,13,5
5.40407,-4.5976,1.37917,9,13
7.1304,-6.06844,-0.490702,28,6
6.83299,-5.81739,2.0718,56,14
5.54455,-4.72212,-0.127123,61,7
6.03209,-5.13916,2.12335,16,15
8.94576,-7.6431,0.20538,6,8
0.389606,-0.33299,-0.118324,16,1
0.478997,-0.409536,-0.122499,15,2
6.67727,-5.711,0.768714,15,10
4.27025,-3.65359,-0.890112,47,3
6.8861,-5.89377,1.11291,42,11
6.86685,-5.88145,1.432,38,12
7.07126,-6.05652,-0.814558,14,5
5.40588,-4.63176,1.38375,21,13
7.09401,-6.0803,-0.489655,66,6
6.91176,-5.92619,2.10194,63,14
8.6867,-7.45066,-0.19976,57,7
6.00238,-5.15012,2.11921,63,15
5.39628,-4.64318,0.124261,20,8
0.403211,-0.347061,-0.122823,15,1
0.480468,-0.413851,-0.123263,15,2
6.62107,-5.70306,0.76453,3,10
4.3742,-3.76905,-0.914516,23,3
6.83992,-5.89574,1.10877,32,11
4.21399,-3.63357,-0.6832,2,4
7.68842,-6.63178,1.60815,79,12
5.36407,-4.62851,-0.619852,13,5
5.40967,-4.6695,1.38909,19,13
7.28482,-6.29031,-0.504414,17,6
6.84088,-5.90698,2.08665,48,14
6.43608,-5.5594,-0.14845,89,7
5.7958,-5.0081,2.05244,42,15
5.38376,-4.66685,0.124366,48,8
0.401936,-0.348537,-0.122823,15,1
6.70627,-5.81735,0.465267,23,9
0.49081,-0.425903,-0.126316,14,2
6.64527,-5.76647,0.76976,33,10
4.30815,-3.73974,-0.903566,52,3
6.82426,-5.92597,1.10974,12,11
4.22761,-3.67242,-0.687587,29,4
7.5403,-6.55237,1.58218,71,12
5.32301,-4.62722,-0.617063,18,5
5.39549,-4.69188,1.38985,20,13
5.54235,-4.82129,-0.384983,17,6
6.2002,-5.39355,1.89724,20,14
9.69062,-8.43284,-0.224229,28,7
5.77158,-5.02424,2.05036,34,15
5.39072,-4.7076,0.124924,66,8
0.400656,-0.350007,-0.122823,15,1
9.07913,-7.9342,0.631904,28,9
0.468624,-0.409528,-0.120973,15,2
6.62259,-5.78947,0.769585,30,10
4.26913,-3.73339,-0.898247,48,3
6.80549,-5.95356,1.11023,2,11
5.49136,-4.80563,-0.895983,11,4
7.48205,-6.55004,1.57498,54,12
5.3518,-4.68515,-0.622292,28,5
5.39384,-4.72362,1.39367,25,13
9.42698,-8.25851,-0.656816,35,6
5.61027,-4.91661,1.72223,39,14
9.73934,-8.53817,-0.226078,100,7
5.65727,-4.96129,2.0162,21,15
6.58605,-5.7921,0.153093,58,8
0.428694,-0.377148,-0.131821,14,1
6.78292,-5.96943,0.473536,22,9
0.484877,-0.426725,-0.125552,14,2
4.37912,-3.85664,-0.924215,37,3
6.75487,-5.95103,1.10536,27,11
11.378,-10.0275,-1.86216,8,4
6.72419,-5.92817,1.4198,17,12
5.27563,-4.6511,-0.61532,18,5
5.37732,-4.74242,1.39367,19,13
8.72263,-7.69545,-0.609609,16,6
5.54048,-4.88975,1.70603,10,14
6.79379,-5.99796,-0.158189,100,7
5.62254,-4.96566,2.00999,61,15
6.45202,-5.71429,0.15044,57,8
0.383617,-0.339873,-0.118324,16,1
8.78124,-7.77992,0.614843,37,9
0.489262,-0.433624,-0.127079,14,2
6.45678,-5.72454,0.754943,37,10
4.30208,-3.81554,-0.910762,23,3
8.45358,-7.50017,1.3876,16,11
7.99351,-7.09447,-1.31229,11,4
5.58267,-4.95653,-0.653145,30,5
5.37541,-4.77419,1.39749,19,13
8.70319,-7.73248,-0.610133,50,6
5.50007,-4.88834,1.69883,15,14
6.44503,-5.7282,-0.15051,82,7
5.58438,-4.96502,2.00222,45,15
6.4405,-5.74231,0.150614,27,8
0.397031,-0.354115,-0.122823,15,1
6.60949,-5.89712,0.46422,55,9
0.481886,-0.4301,-0.125552,14,2
6.44567,-5.755,0.755989,43,10
13.7729,-12.2971,-2.92439,10,3
21.2738,-19.0009,3.50228,22,11
5.10852,-4.56433,-0.841142,37,4
5.39008,-4.81928,-0.632576,11,5
5.36248,-4.79461,1.39825,20,13
8.70131,-7.78261,-0.611807,40,6
5.47366,-4.89746,1.69568,33,14
6.84965,-6.13075,-0.160457,93,7
6.78347,-6.09074,0.159131,70,8
0.395792,-0.355498,-0.122823,15,1
6.48784,-5.82939,0.457102,72,9
0.45702,-0.410781,-0.119446,15,2
6.41766,-5.76836,0.754943,15,10
4.60504,-4.14058,-0.980844,13,3
21.2472,-19.1109,3.50886,33,11
5.02025,-4.51708,-0.829199,34,4
5.44577,-4.9034,-0.641118,13,5
5.36529,-4.83263,1.40359,19,13
6.32983,-5.70341,-0.44653,21,6
5.46377,-4.92306,1.69793,36,14
6.62175,-5.96853,-0.155606,83,7
8.23686,-7.42692,2.97176,18,15
6.57424,-5.94654,0.154733,43,8
0.394487,-0.356947,-0.122823,15,1
6.50049,-5.88395,0.45951,41,9
0.455512,-0.412453,-0.119446,15,2
6.31082,-5.71427,0.744833,3,10
4.23261,-3.83386,-0.904504,65,3
8.30691,-7.52697,1.37639,35,11
4.93306,-4.47145,-0.8175,12,4
5.29347,-4.80151,-0.625255,27,5
5.33591,-4.84171,1.40054,23,13
6.30297,-5.7212,-0.446112,47,6
5.45724,-4.95353,1.70153,30,14
6.74639,-6.12584,-0.159061,92,7
6.64803,-6.03865,2.4065,21,15
6.48293,-5.90729,0.153093,56,8
0.393176,-0.35839,-0.122823,15,1
