x, y, z, intensity, ring
-2.57789,14.9555,1.86338,44,11
-1.85945,10.7988,-1.34544,45,4
-4.25782,24.7273,3.97406,10,12
-1.79955,10.4618,-0.928732,40,5
-4.01831,23.3852,4.61224,88,13
-1.92463,11.2124,-0.596211,91,6
-2.01863,11.7724,-0.208486,31,7
-4.35197,25.4067,6.90685,16,15
-0.0808757,0.476143,-0.12941,15,0
-2.17092,12.781,0.226288,80,8
-0.105622,0.622495,-0.145768,25,1
-2.5363,14.9637,0.795402,66,9
-1.71248,10.1141,-1.99395,49,2
-2.43619,14.4036,1.27805,8,10
-1.80825,10.691,-1.71734,60,3
-3.16258,18.7181,2.33087,35,11
-1.81108,10.7305,-1.33618,85,4
-3.96491,23.5168,3.77727,54,12
-3.9453,23.4255,4.61758,55,13
-1.95272,11.6067,-0.616832,91,6
-4.71836,28.0754,6.57262,46,14
-1.92323,11.4559,-0.202762,41,7
-4.2441,25.3074,6.87579,8,15
-0.0818337,0.491654,-0.133551,15,0
-0.104087,0.626704,-0.146668,24,1
-2.47359,14.9095,0.792052,14,9
-1.69596,10.2223,-2.01418,35,2
-2.48451,14.9915,1.32947,11,10
-1.94837,11.7691,-1.88942,36,3
-3.09657,18.7252,2.33039,10,11
-2.41851,14.6566,2.35277,40,12
-1.91284,11.6174,-0.617041,77,6
-5.15894,31.3664,7.3388,21,14
-1.8145,11.0442,-0.195362,100,7
-4.14916,25.282,6.86492,4,15
-0.0869485,0.533885,-0.144939,14,0
-1.94068,11.9293,0.210965,13,8
-0.0997113,0.613599,-0.143519,25,1
-2.91979,17.9876,0.955027,4,9
-1.59735,9.8406,-1.93786,61,2
-2.32502,14.3392,1.27091,33,10
-1.74936,10.8009,-1.73298,72,3
-3.82029,23.6133,2.93705,100,11
-1.69052,10.4607,-1.30108,11,4
-2.36545,14.6533,2.3509,49,12
-1.83175,11.3472,-1.0056,24,5
-4.24203,26.3074,5.1797,17,13
-1.83194,11.3736,-0.603748,100,6
-4.22045,26.2318,6.13397,32,14
-1.77213,11.0268,-0.194943,28,7
-4.0425,25.1819,6.83386,8,15
-0.0783995,0.492213,-0.133551,15,0
-1.8962,11.9183,0.210651,55,8
-0.0994038,0.625491,-0.146218,25,1
-2.84007,17.8709,0.948328,9,9
-1.55931,9.82285,-1.93328,57,2
-2.27308,14.3355,1.26986,68,10
-1.56548,9.88405,-1.58499,17,3
-2.3243,14.6916,1.82633,32,11
-1.65833,10.494,-1.30449,6,4
-1.79213,11.3535,-1.0056,40,5
-4.13518,26.2271,5.161,28,13
-1.80341,11.451,-0.607516,100,6
-3.84418,24.4368,5.71106,20,14
-1.79646,11.4198,-0.201785,23,7
-3.95417,25.1646,6.82558,4,15
-0.0808417,0.519208,-0.140798,14,0
-1.98465,12.7465,0.225171,58,8
-0.09673,0.621966,-0.145318,25,1
-1.53223,9.8748,-1.94244,64,2
-2.22028,14.3256,1.26829,46,10
-1.56355,10.0883,-1.61691,60,3
-2.2704,14.6659,1.82219,44,11
-3.99307,25.8534,4.14332,30,12
-1.77467,11.5035,-1.01833,29,5
-4.04222,26.2018,5.15337,28,13
-1.7703,11.4885,-0.609191,81,6
-4.00947,26.05,6.08493,40,14
-1.74657,11.3608,-0.200633,100,7
-3.84521,25.0408,6.78831,36,15
-0.0773741,0.508014,-0.137692,14,0
-1.94104,12.7592,0.225276,13,8
-0.0963152,0.63386,-0.148018,24,1
-2.1638,14.2569,0.755731,48,9
-1.5089,9.94194,-1.95465,68,2
-2.19247,14.4629,1.27979,88,10
-1.53957,10.1679,-1.6288,66,3
-2.26757,14.9936,1.86192,44,11
-1.75972,11.6494,-1.44659,42,4
-4.07463,27.0059,4.32573,27,12
-2.3417,15.5204,-1.37323,18,5
-3.75383,24.9093,4.89654,15,13
-1.73999,11.5597,-0.612645,74,6
-3.52624,23.4545,5.47576,6,14
-1.6971,11.3015,-0.199481,100,7
-4.12082,27.4746,7.44415,10,15
-0.0773055,0.519746,-0.140798,14,0
-1.91677,12.9024,0.227684,20,8
-0.0923858,0.622626,-0.145318,25,1
-2.10611,14.2111,0.752905,54,9
-1.47994,9.98598,-1.96228,78,2
-2.16152,14.6025,1.29147,33,10
-1.55347,10.5074,-1.6823,56,3
-3.9215,26.5564,3.29608,39,11
-1.44533,9.7996,-1.21626,27,4
-4.70264,31.9233,5.11071,28,12
-1.75759,11.9312,-1.05511,19,5
-3.65199,24.8212,4.8767,28,13
-1.68511,11.4669,-0.607411,100,6
-3.45821,23.5612,5.4978,25,14
-1.69534,11.5646,-0.204019,100,7
-4.02154,27.4659,7.43794,14,15
-0.0738259,0.508542,-0.137692,14,0
-2.68606,18.5254,0.326744,18,8
-0.0904912,0.624874,-0.145768,25,1
-2.05907,14.2361,0.753847,40,9
-1.45351,10.0494,-1.97373,85,2
-1.41241,9.78934,-1.56653,28,3
-3.775,26.1966,3.24977,28,11
-1.68401,11.7007,-1.45146,15,4
-3.91156,27.2116,4.3542,3,12
-1.60849,11.1898,-0.989043,8,5
-3.73805,26.0367,5.11292,38,13
-1.64706,11.4866,-0.608144,70,6
-3.38423,23.631,5.5113,25,14
-1.61618,11.2993,-0.199237,85,7
-3.37486,23.6243,6.39438,28,15
-0.0698832,0.493494,-0.133551,15,0
-1.81321,12.8204,0.226009,7,8
-0.0880368,0.623256,-0.145318,25,1
-1.91701,13.5886,0.719201,66,9
-1.41897,10.0583,-1.97449,42,2
-2.08065,14.7672,1.30472,74,10
-1.37383,9.76292,-1.56153,65,3
-2.6663,18.9717,2.35232,10,11
-1.39565,9.94313,-1.23283,27,4
-3.79708,27.0862,4.33198,12,12
-1.57136,11.2092,-0.990264,21,5
-3.59568,25.6821,5.04079,13,13
-1.61608,11.5575,-0.611598,33,6
-3.31493,23.7372,5.53335,6,14
-1.79577,12.8754,-0.226916,100,7
-3.31849,23.8235,6.44511,21,15
-0.0686887,0.497563,-0.134586,15,0
-0.0863921,0.627421,-0.146218,25,1
-1.96429,14.2656,0.754685,38,9
-1.39455,10.141,-1.98976,71,2
-2.07003,15.0724,1.33104,57,10
-1.39799,10.1923,-1.62942,36,3
-2.62485,19.1618,2.37475,25,11
-1.36524,9.97941,-1.23673,11,4
-3.11686,22.7831,3.64211,10,12
-1.68946,12.3654,-1.09189,26,5
-3.0755,22.5394,4.42181,27,13
-1.61537,11.854,-0.626985,19,6
-3.03574,22.3062,5.19727,64,14
-1.6088,11.8212,-0.208242,38,7
-2.98971,21.9967,5.94818,22,15
-1.82186,13.546,0.238574,34,8
-0.0853489,0.635429,-0.148018,24,1
-2.10275,15.6759,0.828897,7,9
-1.35836,10.1399,-1.98861,23,2
-1.35554,10.1323,-1.6191,47,3
-2.51765,18.8438,2.33429,30,11
-1.46603,10.9874,-1.36104,48,4
-3.03626,22.7861,3.64086,46,12
-1.64445,12.3574,-1.09067,26,5
-3.0028,22.565,4.42486,27,13
-3.15995,23.8094,5.54504,25,14
-1.48082,11.1726,-0.196724,31,7
-2.91722,22.0395,5.95698,2,15
-0.0653002,0.498019,-0.134586,15,0
-1.76132,13.4511,0.236794,66,8
-0.0831304,0.635723,-0.148018,24,1
-1.73794,13.3086,0.703395,30,9
-1.28151,9.81344,-1.92374,97,2
-3.49856,26.8275,2.36698,13,10
-1.39159,10.6854,-1.7067,72,3
-2.43419,18.7166,2.31747,40,11
-1.59987,12.3352,-1.08823,26,5
-1.53131,11.839,-0.625624,64,6
-3.07108,23.7759,5.5347,44,14
-1.50423,11.6616,-0.20524,35,7
-2.84791,22.109,5.97303,5,15
-0.0630726,0.494411,-0.133551,15,0
-1.69111,13.2747,0.233583,56,8
-0.0794351,0.624411,-0.145318,25,1
-1.75994,13.8535,0.731866,15,9
-1.24206,9.77696,-1.91572,49,2
-1.94655,15.3439,1.35318,66,10
-1.39252,10.992,-1.75488,40,3
-2.34866,18.5655,2.29772,58,11
-1.24374,9.84523,-1.21845,45,4
-3.2272,25.5818,4.08388,5,12
-1.50743,11.9493,-1.05371,52,5
-3.74378,29.7185,5.82235,18,13
-1.45084,11.5331,-0.609191,100,6
-2.98952,23.7981,5.5374,6,14
-1.42444,11.3553,-0.19976,100,7
-2.99644,23.9206,6.45961,17,15
-0.0618218,0.498462,-0.134586,15,0
-1.71186,13.8223,0.243112,31,8
-0.0770159,0.62275,-0.144868,25,1
-1.71597,13.8952,0.73375,9,9
-1.27216,10.3015,-2.01761,61,2
-1.89688,15.3823,1.35597,18,10
-2.3197,18.8652,2.3338,20,11
-1.19993,9.77267,-1.20894,23,4
-3.16482,25.8125,4.11892,33,12
-1.38469,11.31,-0.996887,34,5
-3.64981,29.8113,5.83799,18,13
-1.39239,11.3895,-0.60134,100,6
-2.92413,23.9534,5.57114,32,14
-1.40996,11.5666,-0.20339,25,7
-2.8821,23.6778,6.39128,20,15
-0.0646095,0.537046,-0.144939,14,0
-1.65548,13.7607,0.241925,60,8
-0.076236,0.634624,-0.147568,24,1
-1.226,10.2359,-2.00388,61,2
-2.21311,18.5322,2.29163,9,11
-1.16746,9.79059,-1.21065,59,4
-3.59527,30.1957,4.81631,18,12
-1.36661,11.4948,-1.01275,27,5
-3.54169,29.8342,5.8399,9,13
-1.35464,11.4282,-0.60312,100,6
-2.82579,23.875,5.55044,31,14
-1.36299,11.5159,-0.202413,22,7
-2.75274,23.2925,6.28464,6,15
-0.0595976,0.510405,-0.137692,14,0
-1.35701,11.6394,0.204542,40,8
-0.0730083,0.627157,-0.145768,25,1
-1.61119,13.8615,0.731343,28,9
-1.20839,10.3961,-2.03441,59,2
-1.21766,10.5078,-1.67541,63,3
-2.14882,18.5717,2.29553,29,11
-1.13749,9.84608,-1.21699,75,4
-3.49318,30.2832,4.82819,14,12
-1.37145,11.8894,-1.04709,59,5
-3.80546,33.0411,6.46499,33,13
-1.4197,12.3456,-0.651269,87,6
-3.17213,27.627,6.4201,8,14
-1.32305,11.5406,-0.202762,37,7
-2.64053,23.0683,6.22149,22,15
-0.0543379,0.479896,-0.12941,15,0
-1.32155,11.6897,0.205345,36,8
-0.0716928,0.635153,-0.147568,24,1
-1.49345,13.2518,0.698894,21,9
-1.15978,10.291,-2.01304,61,2
-2.03154,18.0547,1.58955,27,10
-1.10025,9.79355,-1.5609,26,3
-2.10279,18.7468,2.31625,35,11
-3.08847,27.6214,4.40207,12,12
-1.33459,11.9357,-1.05075,35,5
-3.38732,30.3421,5.93454,19,13
-1.37107,12.3008,-0.648652,74,6
-2.58985,23.2724,5.40602,48,14
-2.5566,23.0466,6.21321,34,15
-0.0560329,0.510809,-0.137692,14,0
-1.28095,11.6963,0.20538,33,8
-0.0686285,0.627651,-0.145768,25,1
-1.49163,13.6419,0.719201,10,9
-1.12108,10.2696,-2.00807,57,2
-1.98167,18.1825,1.60018,27,10
-1.1729,10.7792,-1.71734,72,3
-2.02898,18.677,2.30674,29,11
-1.10603,10.1812,-1.25745,11,4
-3.29144,30.3475,4.83476,7,12
-1.26975,11.7264,-1.03192,67,5
-2.52915,23.3953,4.57407,2,13
-1.31912,12.2222,-0.644256,61,6
-2.51142,23.2692,5.40332,60,14
-1.38778,12.8795,-0.226113,100,7
-2.51941,23.4199,6.31156,6,15
-0.0543388,0.510992,-0.137692,14,0
-0.0667519,0.629813,-0.146218,25,1
-1.48384,14.0003,0.737832,8,9
-1.10004,10.3963,-2.03212,30,2
-1.90838,18.0661,1.58937,13,10
-1.14316,10.84,-1.72641,62,3
-1.97036,18.7152,2.31064,29,11
-2.48626,23.6552,3.76726,26,12
-1.25103,11.9228,-1.04883,45,5
-1.25739,12.0238,-0.633579,29,6
-2.45085,23.4364,5.44022,6,14
-1.32617,12.703,-0.222937,32,7
-2.81402,27.0001,7.27385,42,15
-0.0494773,0.480422,-0.12941,15,0
-0.0648621,0.631969,-0.146668,24,1
-3.46415,33.7521,1.77817,82,9
-1.06255,10.3706,-2.02639,45,2
-1.86246,18.2091,1.6014,6,10
-1.00327,9.8258,-1.56434,17,3
-2.75292,27.0082,3.33337,40,11
-1.03647,10.1686,-1.25501,31,4
-2.40821,23.6673,3.76788,40,12
-1.21148,11.9268,-1.04883,61,5
-2.45516,24.2548,5.62828,6,14
-1.26314,12.5004,-0.219307,22,7
-2.72485,27.0132,7.27489,42,15
-1.3569,13.6426,0.239307,38,8
-0.0641136,0.645756,-0.149817,24,1
-1.02467,10.3389,-2.01952,47,2
-1.79774,18.1715,1.59756,6,10
-1.08697,11.0066,-1.75175,41,3
-2.35,23.8386,2.9412,88,11
-1.00508,10.1956,-1.25794,9,4
-1.17524,11.9645,-1.0518,35,5
-2.98981,30.4923,5.95553,4,13
-1.15972,11.849,-0.623949,47,6
-2.6547,27.1235,6.29188,85,14
-1.20632,12.3473,-0.216549,66,7
-2.6797,27.4777,7.39757,24,15
-0.0461223,0.480756,-0.12941,15,0
-1.27677,13.333,0.233792,66,8
-0.0619317,0.647926,-0.150267,24,1
-2.51421,26.352,1.38732,45,9
-0.981179,10.2839,-2.00807,45,2
-2.28513,23.9954,2.10882,10,10
-1.13017,11.8895,-1.89161,35,3
-2.27123,23.9379,2.95241,8,11
-1.28859,13.6065,-1.67814,56,4
-2.91509,30.8384,4.9061,7,12
-1.63236,17.3008,-1.52034,15,5
-2.5977,27.5321,5.37547,15,13
-1.10261,11.7081,-0.616308,91,6
-2.54945,27.1219,6.28918,93,14
-1.15684,12.33,-0.216166,100,7
-2.58011,27.5513,7.41465,19,15
-0.0457794,0.496311,-0.133551,15,0
-1.29635,14.0542,0.246358,26,8
-0.0578832,0.628733,-0.145768,25,1
-0.938277,10.2308,-1.99701,42,2
-2.19717,24.0036,2.10882,42,10
-1.06664,11.6752,-1.85688,72,3
-2.49451,27.3044,3.36652,41,11
-1.24198,13.6208,-1.67936,38,4
-2.52044,27.6949,4.40457,12,12
-1.08372,11.9311,-1.04813,19,5
-2.47355,27.2853,5.32548,18,13
-1.05844,11.6981,-0.615576,43,6
-2.1973,24.3323,5.64042,26,14
-1.09258,12.0989,-0.212047,29,7
-2.22345,24.6702,6.63716,45,15
-0.0454123,0.511862,-0.137692,14,0
-1.22066,13.786,0.241576,57,8
-0.0566078,0.640588,-0.148468,24,1
-1.2152,13.7515,0.723492,16,9
-0.858404,9.73334,-1.89931,45,2
-1.61586,18.3586,1.61238,13,10
-0.863056,9.82522,-1.56215,98,3
-1.628,18.5708,2.28895,29,11
-2.41772,27.6347,4.39362,34,12
-1.04328,11.9487,-1.04936,26,5
-2.37438,27.2488,5.3167,56,13
-1.13387,13.0388,-0.685915,29,6
-2.16352,24.8792,5.7655,35,14
-1.0346,11.9214,-0.20887,100,7
-0.0424,0.496611,-0.133551,15,0
-1.17341,13.772,0.241262,28,8
-0.0554736,0.652423,-0.151167,23,1
-1.48195,17.4291,0.916717,11,9
-0.822306,9.69114,-1.89054,73,2
-2.3296,27.5121,2.41561,40,10
-0.82714,9.78866,-1.5559,47,3
-2.29899,27.2638,3.35945,61,11
-1.15558,13.7041,-1.68862,5,4
-2.32259,27.6012,4.38705,33,12
-0.999148,11.8985,-1.04465,26,5
-2.28729,27.2957,5.32433,33,13
-1.17667,14.0715,-0.74003,16,6
-2.08589,24.9445,5.77899,77,14
-0.983755,11.7892,-0.206497,19,7
-2.2461,26.9738,7.25263,23,15
-0.0410687,0.5006,-0.134586,15,0
-0.961479,11.7449,0.205694,10,8
-0.052358,0.640949,-0.148468,24,1
-1.4258,17.4919,0.919752,30,9
-0.809302,9.92862,-1.93633,35,2
-2.23673,27.4998,2.41387,67,10
-0.794997,9.79529,-1.55652,21,3
-2.21641,27.3682,3.37139,62,11
-1.09335,13.53,-1.66669,17,4
-2.20639,27.363,4.34794,36,12
-0.96192,11.9556,-1.04936,33,5
-2.02151,25.125,4.89959,56,13
-0.980719,12.2159,-0.642267,3,6
-0.922041,11.5354,-0.201994,47,7
-2.27172,28.4836,7.65638,10,15
-0.038932,0.496895,-0.133551,15,0
-0.92079,11.7522,0.205764,1,8
-0.0504239,0.645014,-0.149367,24,1
-1.35946,17.4291,0.916193,11,9
-0.766511,9.84931,-1.9203,35,2
-2.1367,27.5177,2.41474,74,10
-0.817831,10.5564,-1.67698,38,3
-2.07825,26.8256,3.30363,40,11
-1.03724,13.4189,-1.65255,1,4
-2.11116,27.3745,4.34857,36,12
-0.905968,11.7741,-1.03314,36,5
-1.92986,25.1381,4.90074,25,13
-0.935637,12.2154,-0.642058,48,6
-0.88207,11.5426,-0.202064,100,7
-2.19197,28.7494,7.72575,10,15
-0.0371971,0.497028,-0.133551,15,0
-0.872204,11.6817,0.204472,6,8
-0.0476254,0.639364,-0.148018,24,1
-1.30677,17.5433,0.92195,4,9
-0.725139,9.75795,-1.90198,28,2
-1.97686,26.6647,2.33926,25,10
-0.799775,10.8133,-1.71734,15,3
-2.02855,27.4922,3.3848,31,11
-0.985716,13.3909,-1.64865,31,4
-1.86274,25.3052,4.0188,65,12
-0.862677,11.7474,-1.03053,38,5
-2.03087,27.7215,5.40295,7,13
-0.891678,12.2007,-0.641116,35,6
-2.21358,30.3607,7.02792,100,14
-0.845563,11.5974,-0.202971,100,7
-2.11163,29.0324,7.79977,11,15
-0.036287,0.508716,-0.136656,14,0
-0.833748,11.6885,0.204542,60,8
-0.046058,0.647294,-0.149817,24,1
-0.684563,9.66838,-1.88405,28,2
-1.88699,26.7171,2.34327,70,10
-1.79396,25.4632,3.13424,99,11
-0.919883,13.0892,-1.61111,50,4
-2.14572,30.6084,4.85979,22,12
-0.8193,11.7165,-1.02757,36,5
-1.96674,28.1256,5.48042,28,13
-0.852334,12.2195,-0.641953,39,6
-3.25784,46.8242,10.8363,18,14
-0.799811,11.5245,-0.201645,100,7
-2.0112,29.0531,7.80339,11,15
-0.0366966,0.539672,-0.144939,14,0
-0.907279,13.3772,0.234037,16,8
-0.0427458,0.631896,-0.146218,25,1
-1.16101,17.2072,0.903842,23,9
-0.651438,9.65493,-1.881,28,2
-1.45284,21.5885,1.89302,17,10
-0.751812,11.2009,-1.77803,47,3
-1.86578,27.8699,3.42965,31,11
-0.748545,11.2107,-1.37956,13,4
-1.86073,27.9411,4.43523,12,12
-0.778585,11.6913,-1.02513,22,5
-1.93686,29.1608,5.68077,17,13
-2.74133,41.4918,9.60001,15,14
-0.757871,11.5013,-0.201191,9,7
-2.01989,30.7351,8.25322,6,15
-0.0323259,0.50124,-0.134586,15,0
-0.879314,13.6717,0.239133,39,8
-0.041164,0.641765,-0.148468,24,1
-1.10565,17.2849,0.907715,8,9
-0.6161,9.63167,-1.87603,28,2
-1.37822,21.6054,1.89407,46,10
-0.676473,10.6337,-1.68762,42,3
-1.77036,27.9059,3.4333,21,11
-0.702887,11.1102,-1.36689,15,4
-1.76495,27.975,4.43961,34,12
-0.892711,14.1497,-1.2404,12,5
-1.77539,28.219,5.49606,4,13
-0.764999,12.1933,-0.640278,71,6
-2.04929,32.7547,7.5768,11,14
-0.800644,12.8331,-0.224438,27,7
-1.78099,28.6269,7.68537,15,15
-0.0312817,0.51292,-0.137692,14,0
-0.839235,13.8004,0.241332,38,8
-0.0402208,0.663302,-0.153417,23,1
-0.835324,13.7758,0.723283,21,9
-0.582236,9.62985,-1.87527,28,2
-1.3028,21.6101,1.89407,34,10
-0.675973,11.2453,-1.78429,50,3
-1.69692,28.3122,3.48254,21,11
-0.663985,11.1106,-1.36664,11,4
-1.25442,20.9904,3.33049,7,12
-0.715438,12.0068,-1.05232,26,5
-1.65824,27.9115,5.435,3,13
-0.726568,12.2656,-0.643942,35,6
-1.93263,32.7227,7.5678,11,14
-0.759383,12.8576,-0.224822,92,7
-1.67627,28.4668,7.64086,10,15
-0.028826,0.501454,-0.134586,15,0
-0.793699,13.8071,0.241402,53,8
-0.0362368,0.632303,-0.146218,25,1
-0.984557,17.2322,0.904575,5,9
-0.548066,9.62202,-1.87336,28,2
-1.58011,27.8267,2.43844,34,10
-0.606647,10.6834,-1.69481,28,3
-1.5879,28.0501,3.44963,53,11
-0.629041,11.1464,-1.37079,1,4
-1.20632,21.4424,3.40151,26,12
-0.673631,12.0112,-1.05249,11,5
-1.58668,28.2912,5.50789,20,13
-0.674074,12.0566,-0.632846,19,6
-2.33725,41.9361,9.69674,15,14
-0.669124,12.0436,-0.210546,31,7
-1.55288,28.0384,7.52439,20,15
-0.0261181,0.482256,-0.12941,15,0
-0.699468,12.9572,0.226497,18,8
-0.034239,0.636318,-0.147118,24,1
-0.515312,9.6081,-1.87031,28,2
-1.48762,27.8278,2.43809,55,10
-0.575344,10.7979,-1.71264,22,3
-1.11308,20.9588,2.57705,6,11
-0.598206,11.3012,-1.38955,11,4
-1.12752,21.3715,3.38962,26,12
-0.633169,12.0014,-1.05145,33,5
-1.82461,34.6997,6.75426,12,13
-1.44007,27.7562,7.44726,25,15
-0.0281484,0.555661,-0.14908,13,0
-0.657968,13.0334,0.227789,42,8
-0.0320178,0.636433,-0.147118,24,1
-0.683717,13.6381,0.715642,14,9
-0.480391,9.58239,-1.86497,28,2
-1.34425,26.9075,2.35704,6,10
-0.535196,10.7505,-1.70482,37,3
-1.06951,21.5594,2.65041,95,11
-0.56052,11.3389,-1.39394,30,4
-1.05408,21.399,3.39338,24,12
-0.550302,11.1717,-0.978585,17,5
-1.72262,35.0961,6.8302,25,13
-0.594082,12.1468,-0.637347,97,6
-1.36108,27.9293,6.45565,9,14
-0.632939,13.0347,-0.227789,27,7
-1.34066,27.709,7.43328,92,15
-0.0247527,0.52488,-0.140798,14,0
-0.648316,13.7987,0.241122,97,8
-0.0305248,0.652114,-0.150717,23,1
-0.637319,13.6664,0.717003,38,9
-0.445753,9.55851,-1.86001,28,2
-1.0087,21.7116,1.90156,80,10
-0.51118,11.0444,-1.75113,52,3
-0.995719,21.5947,2.65431,51,11
-0.612204,13.3278,-1.63817,12,4
-1.26607,27.6678,4.38674,21,12
-0.622684,13.6077,-1.19177,27,5
-1.2813,28.1082,5.46935,8,13
-0.553215,12.1827,-0.639127,71,6
-1.26165,27.8911,6.44575,100,14
-0.585458,12.9928,-0.227021,24,7
-1.24531,27.7444,7.44157,35,15
-0.0224149,0.513383,-0.137692,14,0
-0.56922,13.0896,0.228696,25,8
-0.0282484,0.652216,-0.150717,23,1
-0.897503,20.8061,1.09141,35,9
-0.411963,9.55021,-1.8581,30,2
-0.933586,21.7309,1.90296,65,10
-0.486814,11.3776,-1.80369,93,3
-0.936903,21.9868,2.70209,39,11
-0.599003,14.1152,-1.73469,18,4
-1.16899,27.6602,4.38486,6,12
-1.18094,28.0595,5.45905,100,13
-0.573494,13.6832,-0.717735,35,6
-1.1651,27.9148,6.45025,99,14
-0.544001,13.0887,-0.228661,100,7
-1.60404,38.7565,10.3937,19,15
-0.0206228,0.513459,-0.137692,14,0
-0.521604,13.0436,0.227859,58,8
-0.0251962,0.632839,-0.146218,25,1
-0.681025,17.105,0.897143,26,9
-0.37676,9.5045,-1.84894,26,2
-1.07018,27.1172,2.3743,32,10
-0.43639,11.1069,-1.76051,35,3
-0.856274,21.8907,2.6899,72,11
-0.459948,11.7586,-1.44488,24,4
-1.09769,28.189,4.46808,50,12
-0.523193,13.4963,-1.18166,15,5
-1.08353,28.0772,5.46172,65,13
-0.500673,13.0924,-0.228696,33,7
-1.07098,28.1344,7.54406,5,15
-0.0193467,0.525107,-0.140798,14,0
-0.478276,13.0432,0.227824,48,8
-0.0234529,0.642657,-0.148468,24,1
-0.800573,21.9373,1.15045,34,9
-0.343884,9.46842,-1.84169,26,2
-1.00508,27.8076,2.43443,40,10
-0.414962,11.5366,-1.82841,62,3
-1.01197,28.2714,3.47352,21,11
-0.416121,11.6252,-1.42831,5,4
-0.480337,13.5517,-1.18636,5,5
-1.23636,35.0537,6.81799,31,13
-0.525602,14.9762,-0.785353,48,6
-1.25731,35.825,8.27595,36,14
-0.460252,13.18,-0.230197,100,7
-0.960244,27.6359,7.40947,4,15
-0.0174759,0.521307,-0.139762,14,0
-0.43535,13.0548,0.227998,47,8
-0.0213861,0.644678,-0.148918,24,1
-0.428035,12.9711,0.680158,9,9
-0.31119,9.43027,-1.83406,26,2
-0.898346,27.3687,2.39574,19,10
-0.362072,11.0898,-1.75738,40,3
-0.700825,21.5805,2.65115,31,11
-0.373229,11.5552,-1.41953,1,4
-0.864882,26.9223,4.26628,11,12
-0.431943,13.4457,-1.17695,27,5
-1.41642,44.3312,8.62151,9,13
-0.477264,15.0198,-0.787552,26,6
-0.763975,24.1757,5.58419,19,14
-0.412178,13.1155,-0.229045,26,7
-0.748265,23.9433,6.41871,56,15
-0.0144962,0.482745,-0.12941,15,0
-0.388462,13.0122,0.22723,31,8
-0.0190202,0.640853,-0.148018,24,1
-0.384165,13.0205,0.68267,3,9
-0.277457,9.40382,-1.82871,26,2
-0.621959,21.2058,1.85607,16,10
-0.317778,10.8994,-1.72704,68,3
-0.62583,21.5947,2.65261,19,11
-0.348264,12.0902,-1.4851,12,4
-0.771641,26.9509,4.27035,14,12
-0.693039,24.3541,4.73588,36,13
-0.415794,14.7019,-0.770804,39,6
-0.679313,24.1685,5.58194,71,14
-0.369462,13.2268,-0.230965,31,7
-0.66532,23.9689,6.42492,17,15
-0.0133236,0.502105,-0.134586,15,0
-0.353428,13.4073,0.234107,9,8
-0.0167829,0.640916,-0.148018,24,1
-0.352686,13.5588,0.710827,9,9
-0.243866,9.3753,-1.82299,26,2
-0.686118,26.5557,2.3241,37,10
-0.278054,10.8353,-1.71671,56,3
-0.630455,24.7361,3.0382,51,11
-0.300341,11.8651,-1.45731,13,4
-0.616494,24.5245,3.88552,55,12
-0.354561,14.2033,-1.24302,27,5
-0.608506,24.376,4.7397,24,13
-0.442833,17.864,-0.9365,28,6
-0.325679,13.326,-0.232675,41,7
-0.836225,34.4618,9.23674,15,15
-0.0123664,0.540777,-0.144939,14,0
-0.305937,13.3785,0.233583,33,8
-0.0142807,0.629281,-0.145318,25,1
-0.470235,20.882,1.09466,16,9
-0.20893,9.35061,-1.81803,26,2
-0.551384,24.8709,2.17645,67,10
-0.237516,10.7987,-1.71077,58,3
-0.543326,24.7025,3.03382,51,11
-0.259352,11.8859,-1.45975,15,4
-0.531671,24.562,3.89115,12,12
-0.41708,19.4253,-1.69989,11,5
-0.745098,34.9871,6.80234,31,13
-0.378565,17.9234,-0.939535,45,6
-0.598054,28.5506,6.59287,37,14
-0.279666,13.351,-0.233094,24,7
-0.605745,29.1608,7.8153,5,15
-0.0107033,0.552406,-0.148044,13,0
-0.251452,13.0956,0.228627,32,8
-0.0120108,0.631278,-0.145768,25,1
-0.393737,20.8856,1.09476,12,9
-0.17544,9.30614,-1.80925,26,2
-0.464596,24.8746,2.17663,61,10
-0.19704,10.6494,-1.68699,51,3
-0.513247,28.003,3.43891,43,11
-0.216582,11.9304,-1.46511,10,4
-0.512359,28.4981,4.51439,35,12
-0.276438,15.5262,-1.35858,13,5
-0.50411,28.3135,5.50446,44,13
-0.256935,14.5737,-0.763896,45,6
-0.574327,32.9034,7.5975,11,14
-0.226173,13.0881,-0.228487,83,7
-0.579655,33.8855,9.08093,15,15
-0.00758605,0.482903,-0.12941,15,0
-0.220717,14.0501,0.245276,19,8
-0.00986813,0.635213,-0.146668,24,1
-0.321929,20.9588,1.09853,45,9
-0.140881,9.27727,-1.80353,26,2
-0.158419,10.6777,-1.69137,81,3
-0.42182,28.4313,3.49131,44,11
-0.174612,11.9093,-1.46243,27,4
-0.41277,28.4918,4.51313,26,12
-0.186764,13.0488,-1.14174,9,5
-0.399964,28.2896,5.4995,16,13
-0.191635,13.7238,-0.719305,16,6
-0.394676,28.6223,6.60861,9,14
-0.180206,13.0688,-0.228138,100,7
-0.464516,34.1191,9.14304,15,15
-0.0061533,0.482924,-0.12941,15,0
-0.00801691,0.646932,-0.149367,24,1
-0.168196,13.7661,0.721504,10,9
-0.112924,9.24231,-1.79666,26,2
-0.320556,26.6164,2.3288,37,10
-0.126546,10.6623,-1.68887,57,3
-0.336032,28.7342,3.52836,11,11
-0.136468,11.8462,-1.45463,34,4
-0.323385,28.5048,4.51501,16,12
-0.146662,13.129,-1.14871,26,5
-0.395526,35.407,6.88286,25,13
-0.150192,13.6584,-0.715851,42,6
-0.309003,28.5552,6.59287,37,14
-0.13864,13.0213,-0.2273,30,7
-0.35895,34.275,9.18445,15,15
-0.0045587,0.502261,-0.134586,15,0
-0.115701,12.7475,0.222518,27,8
-0.00570705,0.64111,-0.148018,24,1
-0.0787647,9.20929,-1.79017,26,2
-0.225981,26.974,2.36,52,10
-0.0870634,10.6133,-1.68104,56,3
-0.235265,28.6797,3.52154,22,11
-0.0955431,11.9002,-1.46121,19,4
-0.100431,13.0777,-1.14418,9,5
-0.265461,35.371,6.87561,31,13
-0.0998927,13.6269,-0.714177,45,6
-0.265496,37.1011,8.56569,12,14
-0.0943137,13.1797,-0.230058,100,7
-0.23981,34.3494,9.20412,15,15
-0.00280532,0.502274,-0.134586,15,0
-0.0717233,13.2558,0.231384,100,8
-0.00325502,0.62164,-0.143519,25,1
-0.0725748,14.3381,0.75144,12,9
-0.0464564,9.1781,-1.78406,26,2
-0.13139,26.885,2.35216,51,10
-0.0501107,10.6333,-1.68417,63,3
-0.128604,28.3389,3.47961,21,11
-0.0509497,11.6762,-1.43367,23,4
-0.163486,39.0272,6.18135,11,12
-0.0553513,13.2134,-1.15603,9,5
-0.129129,32.1657,6.25243,21,13
-0.051937,13.5253,-0.708838,48,6
-0.135892,37.0784,8.56029,12,14
-0.0457169,13.0959,-0.228592,29,7
-0.101003,30.4555,8.16056,24,15
-0.00113282,0.540917,-0.144939,14,0
-0.0253775,13.216,0.230686,45,8
-0.00110191,0.631391,-0.145768,25,1
-0.0143359,9.12716,-1.77414,35,2
-0.030267,21.6712,1.89599,46,10
-0.0132678,10.8606,-1.72015,57,3
-0.0287163,27.424,3.36725,20,11
-0.0120574,13.8103,-1.69569,28,4
-0.0261783,37.5005,5.9395,22,12
-0.0091587,13.1199,-1.14784,26,5
-0.00479359,13.7152,-0.718782,48,6
-0.00645599,36.9949,8.54094,12,14
1.581e-07,13.258,-0.231419,63,7
0.00527548,30.3088,8.12122,18,15
0.000701281,0.502281,-0.134586,15,0
0.0208182,13.254,0.231349,67,8
0.00112573,0.645032,-0.148918,24,1
0.0238316,13.6552,0.715642,11,9
0.0175144,9.12323,-1.77338,26,2
0.0593764,28.3516,2.48045,56,10
0.024049,10.5998,-1.67885,51,3
0.0674375,27.6006,3.38894,20,11
0.0337315,12.8852,-1.58211,45,4
0.072149,27.5604,4.36515,9,12
0.0366578,13.1278,-1.14854,28,5
0.109208,36.8089,7.15496,20,13
0.0433171,13.789,-0.722655,39,6
0.0904858,27.2881,6.29998,8,14
0.043326,13.0659,-0.228068,26,7
0.131624,37.7095,10.1043,9,15
0.00236029,0.482957,-0.12941,15,0
0.0647051,13.2398,0.231105,56,8
0.00327477,0.646973,-0.149367,24,1
0.0716512,13.685,0.717212,21,9
0.0490334,9.06225,-1.76155,26,2
0.104279,18.6704,1.63347,37,10
0.0595993,10.6708,-1.69012,66,3
0.158033,27.4395,3.3692,41,11
0.0685358,11.5491,-1.41807,15,4
0.167925,27.4888,4.35388,33,12
0.0824794,13.1276,-1.14854,28,5
0.171107,27.2337,5.29381,15,13
0.086609,13.4113,-0.702872,52,6
0.246744,37.2026,8.58908,50,14
0.0909596,13.3637,-0.233269,45,7
0.288269,41.2904,11.064,48,15
0.110811,13.2275,0.230895,48,8
0.00546631,0.639163,-0.147568,24,1
0.156953,18.3521,0.96183,31,9
0.0789972,9.05222,-1.75964,26,2
0.237077,26.6352,2.33037,38,10
0.0957871,10.554,-1.67166,51,3
0.247394,26.744,3.28389,39,11
0.110119,11.6837,-1.43465,13,4
0.259019,27.4822,4.35295,33,12
0.125824,13.1073,-1.1468,26,5
0.265582,27.1721,5.28197,41,13
0.133009,13.369,-0.700674,35,6
0.326333,32.2364,7.44273,10,14
0.135177,13.3533,-0.233094,100,7
0.330514,32.096,8.60056,20,15
0.00609918,0.521564,-0.139762,14,0
0.151965,12.9951,0.226846,35,8
0.00749319,0.631347,-0.145768,25,1
0.222605,18.4833,0.968739,22,9
0.110425,9.03815,-1.75697,26,2
0.228169,18.4123,1.61099,27,10
0.130636,10.5418,-1.66978,60,3
0.334814,26.6418,3.27146,19,11
0.150682,11.8262,-1.4522,33,4
0.355274,27.5068,4.35701,36,12
0.17085,13.051,-1.14191,38,5
0.357672,27.3222,5.31136,26,13
0.176405,13.2986,-0.69701,45,6
0.431679,32.1201,7.41619,43,14
0.2361,17.3418,-0.302729,30,7
0.479954,34.8067,9.32732,16,15
0.00782862,0.521541,-0.139762,14,0
0.198119,13.0465,0.227754,31,8
0.00984677,0.64106,-0.148018,24,1
0.285807,18.3985,0.964342,32,9
0.139571,8.98473,-1.74667,30,2
0.420669,26.7784,2.34309,51,10
0.184942,11.6434,-1.84436,43,3
0.427313,26.6107,3.2678,48,11
0.190966,11.7641,-1.44464,38,4
0.450259,27.4422,4.347,24,12
0.216642,13.2038,-1.15534,11,5
0.455498,27.47,5.34036,15,13
0.221992,13.248,-0.694394,52,6
0.530906,31.3566,7.24027,42,14
0.226681,13.252,-0.231349,9,7
0.554812,32.1064,8.60418,6,15
0.00929185,0.502196,-0.134586,15,0
0.244558,13.0937,0.228592,28,8
0.0120476,0.639073,-0.147568,24,1
0.353528,18.5811,0.973972,49,9
0.170076,8.93904,-1.73789,28,2
0.350249,18.2409,1.59617,16,10
0.215632,11.1292,-1.76302,38,3
0.521642,26.6825,3.27682,19,11
0.231171,11.7197,-1.43928,59,4
0.544391,27.3575,4.33386,30,12
0.262014,13.1671,-1.1522,23,5
0.627279,31.2487,6.07536,20,13
0.269694,13.319,-0.698162,13,6
0.639396,31.3078,7.22948,42,14
0.269276,13.0732,-0.228243,74,7
0.66677,32.0985,8.60263,13,15
0.0114695,0.521474,-0.139762,14,0
0.286885,12.9409,0.225939,16,8
0.014409,0.644872,-0.148918,24,1
0.423427,18.8034,0.985696,15,9
0.200927,8.92269,-1.73484,28,2
0.60425,26.6274,2.3302,63,10
0.254346,11.1224,-1.76208,57,3
0.617803,26.8115,3.29291,39,11
0.269261,11.5978,-1.42441,63,4
0.716435,30.6277,4.85228,7,12
0.309375,13.2258,-1.15743,4,5
0.894457,37.9549,7.37973,7,13
0.31608,13.314,-0.697952,13,6
0.745424,31.169,7.19798,10,14
0.313756,13.0242,-0.227405,20,7
0.750625,30.9353,8.29153,25,15
0.0127976,0.502118,-0.134586,15,0
0.0166095,0.64287,-0.148468,24,1
0.569242,21.8846,1.14731,6,9
0.231304,8.8925,-1.72911,26,2
0.700642,26.7566,2.3417,51,10
0.296446,11.2459,-1.78179,43,3
0.53051,19.9928,2.45567,10,11
0.310223,11.6146,-1.4266,64,4
0.530726,19.7407,3.12775,26,12
0.343871,12.7905,-1.11943,21,5
0.848022,31.3397,6.09406,25,13
0.378868,13.9117,-0.729354,35,6
0.854228,31.1662,7.19798,42,14
0.479909,17.3987,-0.303811,53,7
0.951024,34.2617,9.18394,7,15
0.01511,0.521381,-0.139762,14,0
0.37221,12.7666,0.222937,27,8
0.0186819,0.636964,-0.147118,24,1
0.81331,27.73,1.45389,20,9
0.261593,8.86613,-1.72415,26,2
0.598449,20.1641,1.7649,47,10
0.335638,11.2428,-1.78148,66,3
0.59881,19.9412,2.44957,57,11
0.350641,11.6095,-1.42612,60,4
0.596232,19.7408,3.12806,50,12
0.544708,17.9312,-1.5695,10,5
0.955503,31.2738,6.08185,55,13
0.423866,13.7945,-0.723283,16,6
0.967807,31.3188,7.23398,10,14
0.540687,17.497,-0.305557,83,7
0.964313,31.0299,8.31845,25,15
0.0169298,0.521325,-0.139762,14,0
0.412016,12.6874,0.221576,51,8
0.0207942,0.636899,-0.147118,24,1
0.61624,18.7741,0.984439,2,9
0.291631,8.83769,-1.71881,26,2
0.66844,20.1499,1.76386,100,10
0.373118,11.2475,-1.78241,46,3
0.66579,19.9649,2.45274,57,11
0.391801,11.6876,-1.43586,16,4
0.392547,11.5891,-1.01449,9,5
1.02843,30.362,5.90516,4,13
0.466078,13.6893,-0.71784,26,6
1.79295,52.3924,12.1028,22,14
0.451014,13.1122,-0.22901,74,7
1.02856,29.7521,7.9768,23,15
0.019073,0.53285,-0.142868,14,0
0.462192,12.8497,0.224438,43,8
0.0232286,0.642665,-0.148468,24,1
0.678939,18.694,0.980357,14,9
0.319652,8.80136,-1.71194,28,2
0.736341,20.1774,1.76647,29,10
0.413249,11.2699,-1.78617,63,3
1.00772,27.3519,3.36067,30,11
0.436412,11.7893,-1.44854,13,4
1.49305,40.1435,6.3625,12,12
0.654984,17.6105,-1.54179,26,5
1.13381,30.3425,5.9021,4,13
0.728675,19.4097,-1.01793,33,6
1.21491,32.2112,7.44183,10,14
0.663129,17.5008,-0.305696,30,7
1.20304,31.6035,8.47425,13,15
0.018961,0.482591,-0.12941,15,0
0.509407,12.908,0.225485,11,8
0.0250086,0.630896,-0.145768,25,1
0.743717,18.6795,0.979729,9,9
0.34975,8.78449,-1.70889,26,2
1.0804,27.0171,2.36558,13,10
0.450839,11.2249,-1.77929,50,3
1.09856,27.2332,3.34653,50,11
0.478369,11.8076,-1.45098,60,4
1.13316,27.8495,4.41458,28,12
0.717097,17.624,-1.54318,35,5
1.29103,31.5938,6.14634,20,13
0.722641,17.609,-0.923625,21,6
1.23417,29.9462,6.91949,40,14
0.773255,18.6832,-0.326395,100,7
0.851413,20.4851,5.49369,4,15
0.022297,0.521123,-0.139762,14,0
0.553606,12.8861,0.225136,15,8
0.0280503,0.650275,-0.150267,24,1
1.15529,26.6744,1.39925,26,9
0.379561,8.76361,-1.70507,26,2
1.18023,27.1406,2.37674,13,10
0.472697,10.8266,-1.7164,37,3
0.870819,19.8656,2.44153,42,11
0.517747,11.7642,-1.44586,26,4
1.75251,39.6624,6.28804,24,12
0.618812,14.0048,-1.22646,2,5
1.33449,30.0828,5.85326,49,13
0.79654,17.8857,-0.938279,17,6
1.3891,31.0689,7.17999,10,14
0.815607,18.1709,-0.317494,90,7
1.39841,31.0346,8.32414,19,15
0.0241161,0.521042,-0.139762,14,0
0.840899,18.0997,0.316273,9,8
0.0297752,0.638493,-0.147568,24,1
1.29164,27.5939,1.44772,22,9
0.409692,8.75242,-1.70316,26,2
1.30938,27.8687,2.44088,48,10
0.505738,10.7243,-1.70044,33,3
1.29644,27.3894,3.36676,20,11
0.561072,11.8099,-1.45171,63,4
1.65609,34.7311,5.50712,38,12
0.663889,13.9229,-1.21948,2,5
1.6575,34.6334,6.73976,18,13
0.841916,17.5277,-0.919648,30,6
1.50813,31.2838,7.23083,42,14
0.880186,18.1919,-0.317913,67,7
1.45614,29.9876,8.04461,29,15
0.0263188,0.528673,-0.141833,14,0
0.663809,13.2874,0.232222,23,8
0.0316137,0.6306,-0.145768,25,1
1.40293,27.9844,1.46844,28,9
0.438961,8.72545,-1.6982,26,2
1.3972,27.6769,2.4245,54,10
0.53138,10.4896,-1.66352,33,3
1.39255,27.3946,3.36798,30,11
0.604871,11.8992,-1.46292,61,4
1.48115,29.0378,4.60512,6,12
0.716359,13.9961,-1.22611,27,5
1.78635,34.7823,6.7699,6,13
0.705636,13.693,-0.718573,26,6
1.77725,34.4879,7.97272,47,14
0.991825,19.1814,-0.335261,29,7
1.58802,30.6077,8.21233,31,15
0.0276622,0.520866,-0.139762,14,0
0.955666,17.9358,0.313515,16,8
0.034225,0.640221,-0.148018,24,1
1.49691,28.0015,1.46959,13,9
0.465789,8.68474,-1.69057,26,2
1.48362,27.5726,2.41578,60,10
0.564993,10.4661,-1.66008,31,3
1.57517,29.0846,3.57638,46,11
0.632945,11.687,-1.43708,20,4
1.56789,28.8572,4.57727,26,12
0.715274,13.1223,-1.14976,11,5
1.73563,31.7396,6.17878,10,13
0.754538,13.7544,-0.721922,6,6
1.78122,32.4698,7.50752,11,14
0.971921,17.6606,-0.308733,38,7
1.65606,29.9965,8.04979,11,15
0.0304774,0.540059,-0.144939,14,0
1.01639,17.9545,0.313899,43,8
0.0363477,0.640104,-0.148018,24,1
1.58099,27.7569,1.45703,30,9
0.493129,8.65766,-1.68561,26,2
1.11159,19.4558,1.70494,38,10
0.597548,10.4267,-1.65414,28,3
1.22537,21.3165,2.62165,37,11
0.709272,12.301,-1.51289,58,4
1.22095,21.1111,3.34926,41,12
0.881873,15.2482,-1.33627,10,5
1.21097,20.75,4.79866,55,14
1.05355,17.9984,-0.314702,7,7
1.75611,29.9115,8.02857,23,15
0.031669,0.528379,-0.141833,14,0
1.07402,17.867,0.312433,37,8
0.0388163,0.643864,-0.148918,24,1
1.45055,23.9912,1.25962,15,9
0.522283,8.63825,-1.68217,26,2
1.3048,21.5181,1.88605,17,10
0.632139,10.395,-1.64945,27,3
1.29722,21.2704,2.61653,36,11
0.737303,12.0548,-1.48291,60,4
1.29572,21.1245,3.35208,20,12
0.729678,11.8961,-1.04273,13,5
1.28927,20.9594,4.08179,26,13
0.900783,14.6022,-0.766722,45,6
1.28436,20.7612,4.80226,42,14
1.11537,17.9787,-0.314423,67,7
1.26973,20.4092,5.4792,93,15
0.0342472,0.539833,-0.144939,14,0
1.13992,17.919,0.31341,22,8
0.0418081,0.655393,-0.151617,23,1
1.39149,21.7536,1.14239,18,9
0.551432,8.6207,-1.67912,26,2
1.25223,19.5232,1.71156,17,10
0.666522,10.3631,-1.64475,27,3
1.37581,21.3331,2.62482,37,11
0.77668,12.0105,-1.47779,37,4
1.86795,28.8077,4.57227,13,12
0.76901,11.8597,-1.03977,22,5
1.87907,28.9009,5.62963,20,13
0.764249,11.723,-0.61568,43,6
1.87697,28.7138,6.64325,38,14
1.29975,19.8304,-0.346884,21,7
0.0361313,0.53971,-0.144939,14,0
1.21774,18.1424,0.317389,26,8
0.0429181,0.637744,-0.147568,24,1
1.46661,21.7367,1.14176,43,9
0.576761,8.54821,-1.66538,33,2
1.31675,19.465,1.70686,14,10
0.699486,10.3135,-1.63724,35,3
1.95003,28.6779,3.52934,55,11
0.819548,12.0216,-1.47949,16,4
2.01323,29.4553,4.67614,23,12
0.816792,11.9504,-1.04796,11,5
1.98033,28.9,5.63077,45,13
1.01502,14.7749,-0.776142,35,6
2.45241,35.6068,8.23996,12,14
1.40946,20.4123,-0.357146,51,7
2.65946,38.4176,10.3186,9,15
0.0381093,0.539574,-0.144939,14,0
1.55101,21.9058,0.383325,67,8
0.0453931,0.639527,-0.148018,24,1
1.54559,21.7753,1.14406,9,9
0.607115,8.53233,-1.66271,28,2
1.38978,19.4839,1.70895,52,10
0.73418,10.2675,-1.63036,33,3
2.05087,28.6112,3.52202,66,11
0.859907,11.967,-1.47316,7,4
2.06322,28.7131,4.55944,16,12
0.858007,11.9115,-1.04482,4,5
2.04525,28.3247,5.5201,8,13
1.07767,14.8886,-0.782318,52,6
2.58205,35.5859,8.23726,12,14
1.34207,18.4965,-0.323707,100,7
2.4987,34.3542,9.22949,7,15
0.0385641,0.520172,-0.139762,14,0
1.46648,19.7807,0.346221,42,8
0.0491021,0.66075,-0.152967,23,1
2.12631,28.5456,1.50016,30,9
0.635431,8.51058,-1.65889,28,2
1.44678,19.3319,1.69605,35,10
0.766453,10.2413,-1.62661,27,3
2.16832,28.9051,3.55907,45,11
0.938134,12.4768,-1.53629,37,4
2.15378,28.5777,4.5391,35,12
1.46821,19.4358,3.7887,14,13
1.12809,14.8988,-0.783051,35,6
2.9671,39.0962,9.05203,13,14
1.35431,17.8038,-0.311665,83,7
2.77148,36.3505,9.76835,26,15
0.0500473,0.643089,-0.148918,24,1
2.63349,33.763,1.77482,3,9
0.66243,8.49277,-1.65584,26,2
1.51042,19.321,1.69553,42,10
0.798029,10.1854,-1.61816,26,3
2.24682,28.6124,3.52397,66,11
0.973273,12.3666,-1.52312,51,4
2.25289,28.5622,4.53785,35,12
0.977258,12.3621,-1.08491,4,5
1.53558,19.4247,3.78756,6,13
1.19918,15.1357,-0.795716,74,6
2.83593,35.7152,8.27145,24,14
1.42073,17.8528,-0.312607,30,7
3.03398,38.041,10.2254,9,15
0.0390691,0.48138,-0.12941,15,0
1.58934,19.5826,0.34294,23,8
0.051818,0.637083,-0.147568,24,1
2.34599,28.7809,1.51335,27,9
0.691793,8.46876,-1.65164,26,2
1.57488,19.2379,1.68873,42,10
0.830674,10.1253,-1.60909,31,3
2.34229,28.5509,3.51739,22,11
0.943075,11.4709,-1.4132,9,4
2.35664,28.6033,4.54567,26,12
1.32747,16.0777,-1.4114,19,5
2.58021,31.1838,6.08223,5,13
1.24953,15.0695,-0.792471,52,6
3.17353,38.1923,8.84777,52,14
1.48204,17.8358,-0.312398,83,7
0.0430313,0.50819,-0.136656,14,0
1.95427,23.0317,0.403465,39,8
0.053327,0.62718,-0.145318,25,1
2.44214,28.6627,1.50759,33,9
0.719353,8.44282,-1.64706,26,2
2.42508,28.4038,2.49405,49,10
0.864664,10.1066,-1.60658,35,3
2.47694,28.8923,3.56053,45,11
0.976619,11.3684,-1.40101,48,4
2.48992,28.9251,4.59824,35,12
1.52934,17.7662,-1.56009,16,5
2.48271,28.7824,5.61551,20,13
1.50301,17.3892,-0.914728,33,6
2.99641,34.597,8.01726,23,14
1.92362,22.1653,-0.388351,24,7
3.35415,38.5707,10.374,19,15
0.0509146,0.577315,-0.155291,12,0
2.02673,22.9351,0.401894,28,8
0.055688,0.628931,-0.145768,25,1
2.54323,28.6659,1.50822,30,9
0.746909,8.41874,-1.64287,26,2
2.55367,28.7266,2.52316,50,10
0.898363,10.0859,-1.60377,30,3
2.5836,28.9487,3.56858,34,11
1.02955,11.5133,-1.41929,31,4
2.58171,28.814,4.58197,32,12
1.58868,17.731,-1.55747,42,5
3.49722,38.9553,7.60259,15,13
1.55744,17.3142,-0.911064,33,6
3.12487,34.6718,8.03705,11,14
1.60999,17.8287,-0.312468,83,7
3.1829,35.1783,9.46449,8,15
0.0494008,0.538658,-0.144939,14,0
2.10111,22.8662,0.400812,13,8
0.0623492,0.677246,-0.157016,22,1
2.75381,29.9123,1.57427,27,9
0.774486,8.39653,-1.63905,26,2
2.65357,28.7135,2.52281,58,10
0.929924,10.0433,-1.59751,30,3
2.13563,23.0215,2.83882,59,11
1.08866,11.7132,-1.4444,22,4
2.69993,29.0491,4.62076,37,12
1.65002,17.7194,-1.55695,16,5
3.62223,38.8256,7.5797,7,13
1.62066,17.3385,-0.912635,50,6
2.96425,31.6533,7.3397,10,14
2.09123,22.3309,-0.391492,81,7
3.27535,34.9098,9.39513,8,15
0.050182,0.526943,-0.141833,14,0
2.68632,28.2081,0.494601,37,8
0.061263,0.642117,-0.148918,24,1
2.79208,29.2106,1.53784,23,9
0.803232,8.38792,-1.6379,26,2
2.75566,28.7239,2.52455,58,10
0.958123,9.98708,-1.58906,27,3
2.19849,22.874,2.82152,29,11
1.11304,11.5593,-1.42587,17,4
2.80982,29.128,4.63484,13,12
1.58498,16.4007,-1.44156,14,5
3.81499,39.4758,7.70906,16,13
1.69623,17.5199,-0.922474,49,6
2.77929,28.6543,6.6464,19,14
1.73576,17.8631,-0.313271,83,7
3.27347,33.6272,9.05297,22,15
0.0568569,0.57676,-0.155291,12,0
2.79675,28.3199,0.49673,20,8
0.0636961,0.643839,-0.149367,24,1
2.89797,29.2926,1.54265,17,9
0.830271,8.37739,-1.63638,26,2
2.89579,29.1666,2.5643,51,10
0.990636,9.96009,-1.58531,26,3
2.29013,22.9847,2.83614,44,11
1.26418,12.6655,-1.56285,17,4
2.93015,29.3564,4.6727,16,12
1.64451,16.4469,-1.44609,2,5
3.58804,35.8209,6.99773,26,13
1.7498,17.4384,-0.918496,37,6
2.87753,28.6269,6.64235,38,14
1.82258,18.1319,-0.318088,60,7
3.38304,33.5969,9.0478,15,15
0.0561222,0.549652,-0.148044,13,0
2.84555,27.8688,0.488982,22,8
0.0654344,0.639747,-0.148468,24,1
2.97171,29.0041,1.528,30,9
0.857498,8.35491,-1.63256,23,2
2.96173,28.8075,2.53362,50,10
1.01942,9.91548,-1.57874,30,3
1.29456,12.5487,-1.54896,16,4
4.08971,39.5753,6.30149,6,12
1.2592,12.1643,-1.06992,7,5
2.33158,22.5238,4.40158,27,13
1.79999,17.359,-0.914623,20,6
2.99721,28.8557,6.69769,48,14
2.22835,21.4171,-0.375855,77,7
2.98842,28.6737,7.72471,10,15
0.050651,0.4803,-0.12941,15,0
2.27186,21.507,0.377496,33,8
0.0684875,0.647266,-0.150267,24,1
3.07209,28.9857,1.52758,27,9
0.881684,8.31883,-1.62607,26,2
3.1033,29.2314,2.57179,60,10
1.05152,9.8883,-1.57498,30,3
2.43811,22.8896,2.82639,14,11
1.22716,11.5019,-1.42027,9,4
4.45475,41.6841,6.63971,29,12
1.76268,16.4667,-1.44888,14,5
2.38971,22.3242,4.36418,26,13
3.36262,31.3096,7.26997,53,14
2.30588,21.435,-0.376309,85,7
3.36583,31.2369,8.41835,13,15
0.0549266,0.503156,-0.135621,15,0
2.33151,21.3578,0.375017,35,8
0.0713815,0.652835,-0.151617,23,1
2.38962,21.8194,1.15034,12,9
0.907457,8.27261,-1.61768,26,2
3.22042,29.311,2.57981,60,10
1.08473,9.85689,-1.5706,26,3
2.42767,22.0602,2.725,33,11
1.35452,12.2887,-1.518,36,4
3.15416,28.5701,4.55256,6,12
1.39402,12.6067,-1.10967,11,5
2.46936,22.2958,4.36037,23,13
2.0041,18.0662,-0.952619,73,6
4.19761,37.7796,8.77579,12,14
2.18791,19.6918,-0.345837,14,7
3.20948,28.8403,7.77544,27,15
0.0592789,0.525998,-0.141833,14,0
2.44006,21.6174,0.379729,21,8
0.0742118,0.656441,-0.152517,23,1
2.46397,21.7951,1.14951,7,9
0.935667,8.26354,-1.61653,26,2
3.32766,29.3431,2.58364,22,10
1.11311,9.80004,-1.56215,25,3
2.50536,22.0235,2.72159,74,11
1.40247,12.3093,-1.52117,51,4
3.38693,29.7267,4.73871,14,12
1.38809,12.1643,-1.07114,23,5
2.56768,22.4665,4.39548,27,13
2.06829,18.0691,-0.953143,56,6
3.96502,34.5858,8.03705,11,14
2.25482,19.6682,-0.345558,43,7
3.4289,29.8634,8.05445,5,15
0.0624531,0.537301,-0.144939,14,0
2.50643,21.5635,0.378927,64,8
0.0732334,0.629092,-0.146218,25,1
2.54234,21.8062,1.15055,6,9
0.961777,8.23683,-1.61195,26,2
2.99592,25.6189,2.25664,90,10
1.13986,9.74725,-1.55433,22,3
2.57237,21.9638,2.71525,74,11
1.45739,12.4249,-1.53604,28,4
4.65361,39.6144,6.31745,18,12
1.42077,12.0763,-1.06382,21,5
5.87983,49.9774,9.78163,12,13
2.13825,18.1474,-0.957643,38,6
3.0634,25.9603,6.03499,7,14
2.51097,21.2469,-0.373447,100,7
3.41142,28.823,7.777,5,15
0.0628579,0.525582,-0.141833,14,0
2.60356,21.7373,0.382138,42,8
0.0772858,0.644312,-0.149817,24,1
2.64703,22.0351,1.16311,11,9
0.986274,8.2102,-1.60738,26,2
3.5285,29.3297,2.58452,37,10
1.1701,9.71183,-1.54933,28,3
2.64975,21.9606,2.71598,54,11
1.45217,12.0177,-1.48632,49,4
4.37111,36.1209,5.76273,10,12
1.45525,12.0079,-1.05824,19,5
2.71653,22.4154,4.38899,12,13
1.62839,13.417,-0.708315,35,6
3.02704,24.9048,5.79204,14,14
2.60928,21.4365,-0.376937,100,7
3.53982,29.0391,7.83859,22,15
0.063838,0.517679,-0.139762,14,0
2.68113,21.742,0.382382,50,8
0.0773849,0.626632,-0.145768,25,1
2.62563,21.2309,1.12114,37,9
1.01322,8.1812,-1.60241,26,2
3.63255,29.2889,2.58208,52,10
1.20155,9.67415,-1.54401,28,3
2.71635,21.8705,2.70599,19,11
1.49386,12.0106,-1.48607,42,4
4.49181,36.0623,5.75585,26,12
1.50208,12.0423,-1.06173,23,5
2.80013,22.417,4.39128,27,13
1.67631,13.401,-0.707792,19,6
3.1229,24.9303,5.80059,64,14
2.68136,21.4054,-0.376553,54,7
3.63204,28.9537,7.81892,11,15
0.0632133,0.498288,-0.134586,15,0
2.76333,21.7518,0.382731,77,8
0.0811566,0.637943,-0.148468,24,1
2.71813,21.3662,1.12878,45,9
1.03805,8.1484,-1.59669,28,2
3.66921,28.7621,2.53675,43,10
1.23031,9.63071,-1.53775,26,3
2.80506,21.9273,2.71427,47,11
1.54166,12.0345,-1.48973,21,4
3.89201,30.3819,4.85135,15,12
1.61332,12.5765,-1.10932,26,5
2.90762,22.6349,4.43593,42,13
1.70422,13.2485,-0.700046,48,6
3.24103,25.1608,5.85683,29,14
2.76782,21.4872,-0.378159,15,7
3.76966,29.2244,7.89553,16,15
0.0659516,0.505727,-0.136656,14,0
2.90991,22.3136,0.392784,15,8
0.0852902,0.653129,-0.152067,23,1
1.06572,8.13889,-1.59554,26,2
2.85187,21.75,1.91917,26,10
1.25633,9.58153,-1.53056,27,3
2.86768,21.8411,2.70477,39,11
1.60278,12.1908,-1.50972,30,4
4.00037,30.3858,4.85416,33,12
1.57935,11.9802,-1.0572,19,5
2.97907,22.5979,4.43058,20,13
1.7803,13.4863,-0.71292,29,6
3.41562,25.8396,6.01744,15,14
2.85252,21.5507,-0.37945,86,7
3.29748,24.8791,6.72464,23,15
0.0701901,0.524653,-0.141833,14,0
2.8715,21.4352,0.377496,76,8
0.086274,0.64317,-0.149817,24,1
2.8106,20.9251,1.10649,42,9
1.09219,8.13142,-1.59478,26,2
2.85599,21.235,1.87455,41,10
1.2866,9.55359,-1.5268,27,3
2.93144,21.7385,2.69331,33,11
1.62726,12.0513,-1.49314,43,4
4.0921,30.2659,4.83727,3,12
1.61826,11.969,-1.05668,11,5
3.05504,22.5659,4.42639,27,13
1.82414,13.4563,-0.711664,71,6
3.41981,25.1942,5.86987,22,14
2.85528,21.0076,-0.370061,53,7
3.38483,24.8713,6.72567,31,15
0.0735983,0.535888,-0.144939,14,0
2.96591,21.5677,0.380009,42,8
0.0861263,0.62549,-0.145768,25,1
2.90981,21.1051,1.11654,39,9
1.11788,8.10811,-1.59097,26,2
2.99139,21.6689,1.91377,65,10
1.31399,9.50599,-1.51992,26,3
2.95478,21.3486,2.64627,31,11
1.66604,12.022,-1.49022,46,4
3.96288,28.559,4.56664,13,12
1.69043,12.1823,-1.07602,42,5
3.0595,22.0204,4.32144,19,13
1.84881,13.2896,-0.703186,19,6
3.49268,25.074,5.84468,36,14
2.92473,20.9698,-0.369572,53,7
3.59132,25.7165,6.95757,21,15
0.0673822,0.478239,-0.12941,15,0
3.01465,21.3691,0.376693,64,8
0.0913075,0.646411,-0.150717,23,1
3.0052,21.2753,1.12606,30,9
1.14095,8.06722,-1.58371,26,2
3.05948,21.6051,1.90906,56,10
1.34523,9.48766,-1.51773,27,3
4.31497,30.3947,3.76942,12,11
1.71024,12.0318,-1.49217,61,4
3.14826,22.1485,3.54324,50,12
1.75232,12.3124,-1.08805,30,5
3.28894,23.0805,4.53171,26,13
1.87855,13.1664,-0.69701,35,6
3.58515,25.0964,5.85278,29,14
2.91591,20.4116,-0.359904,59,7
3.72855,26.0678,7.05592,13,15
0.0745754,0.516241,-0.139762,14,0
3.05404,21.1413,0.372853,66,8
0.0934501,0.646105,-0.150717,23,1
3.07773,21.2528,1.12543,45,9
1.16629,8.04376,-1.5799,26,2
3.21558,22.1503,1.95822,41,10
1.37327,9.45969,-1.51397,31,3
3.08888,21.2514,2.63677,56,11
1.74955,12.0221,-1.49168,15,4
1.80794,12.393,-1.09572,21,5
3.41988,23.4424,4.60498,24,13
1.85321,12.6878,-0.671994,84,6
3.26935,22.3559,5.21617,43,14
3.03552,20.7318,-0.365733,82,7
3.63263,24.7797,6.71066,15,15
0.0706362,0.477769,-0.12941,15,0
3.11434,21.0395,0.371248,47,8
0.0939909,0.634209,-0.148018,24,1
3.18947,21.5211,1.14019,40,9
1.18892,8.01266,-1.57456,26,2
3.7194,25.0365,2.21445,11,10
1.40105,9.41967,-1.50834,23,3
3.14024,21.0874,2.61775,49,11
1.7394,11.6665,-1.4483,15,4
3.24213,21.7456,3.48223,22,12
1.86579,12.4992,-1.10566,47,5
3.40651,22.7935,4.47981,42,13
1.88034,12.5667,-0.665923,84,6
3.33465,22.2596,5.19637,37,14
3.1081,20.7473,-0.366186,82,7
3.70017,24.6701,6.68426,19,15
0.0798227,0.527182,-0.142868,14,0
3.12781,20.6574,0.364686,47,8
0.0978462,0.645454,-0.150717,23,1
3.25618,21.4545,1.13726,25,9
1.21452,7.99294,-1.5715,26,2
3.37558,22.189,1.96362,46,10
1.42842,9.38958,-1.50427,27,3
3.21314,21.0965,2.62019,12,11
1.77418,11.6351,-1.44513,31,4
3.35261,21.9606,3.51852,6,12
1.89978,12.4296,-1.10008,38,5
3.47347,22.7258,4.46875,28,13
1.93802,12.665,-0.67147,16,6
3.40107,22.2002,5.18512,26,14
1.9824,12.9249,-0.228243,21,7
3.793,24.7009,6.69617,42,15
0.0827528,0.534551,-0.144939,14,0
3.22318,20.7965,0.367338,38,8
0.0986048,0.63548,-0.148468,24,1
3.31511,21.3404,1.13182,76,9
1.23711,7.96364,-1.56654,26,2
3.43505,22.0871,1.9556,58,10
1.45815,9.36502,-1.50115,30,3
3.31825,21.2871,2.6453,25,11
1.78081,11.4111,-1.41807,27,4
3.42589,21.9273,3.51508,30,12
1.95391,12.5059,-1.1074,28,5
3.55187,22.7077,4.4676,28,13
2.00971,12.8338,-0.680786,81,6
3.48067,22.2017,5.18827,32,14
2.04703,13.0423,-0.230442,82,7
4.55452,28.9853,7.86189,5,15
0.0828051,0.52281,-0.141833,14,0
3.44419,21.7213,0.383883,20,8
0.0986833,0.621659,-0.145318,25,1
3.37893,21.2616,1.12826,36,9
1.25997,7.92825,-1.56044,26,2
3.80108,23.8911,2.11649,48,10
1.48773,9.34036,-1.49802,28,3
3.32596,20.8579,2.59338,48,11
1.81,11.3382,-1.40978,27,4
3.4968,21.8801,3.50945,26,12
1.96925,12.322,-1.09171,40,5
3.6795,22.9976,4.52713,28,13
2.05482,12.8286,-0.680891,68,6
3.5893,22.3837,5.23371,27,14
2.08146,12.966,-0.22922,100,7
4.12997,25.6981,6.97414,25,15
0.0772166,0.47675,-0.12941,15,0
3.38397,20.8702,0.369049,33,8
0.103351,0.636699,-0.148918,24,1
3.39898,20.9165,1.11057,30,9
1.28448,7.90443,-1.55662,28,2
3.62627,22.2907,1.97582,37,10
1.51524,9.30392,-1.49301,26,3
3.38117,20.7384,2.57997,42,11
1.84221,11.2868,-1.40418,20,4
3.58047,21.9126,3.51665,46,12
1.998,12.2144,-1.08282,28,5
4.31788,26.3966,5.19916,29,13
2.097,12.8056,-0.680053,91,6
4.23109,25.8095,6.03814,31,14
3.32689,20.2717,-0.358577,36,7
4.09499,24.9248,6.76812,8,15
0.0852807,0.514581,-0.139762,14,0
3.44308,20.7754,0.367583,54,8
0.107167,0.645947,-0.151167,23,1
3.5047,21.1016,1.12104,6,9
1.30926,7.87449,-1.55166,26,2
3.55812,21.3771,1.89599,34,10
1.54251,9.25739,-1.48644,25,3
3.45355,20.7264,2.57997,36,11
1.88062,11.2744,-1.40345,20,4
3.70314,22.1767,3.56107,34,12
2.04193,12.2152,-1.08352,26,5
4.14727,24.7831,4.88433,12,13
2.09244,12.4906,-0.663725,45,6
4.31374,25.7227,6.02149,15,14
3.40887,20.327,-0.359764,81,7
4.95792,29.5324,8.02391,64,15
0.0844963,0.499042,-0.135621,15,0
3.51117,20.7153,0.366745,26,8
0.107904,0.635944,-0.148918,24,1
4.83521,28.4667,1.51324,33,9
1.33082,7.83503,-1.54479,26,2
3.6344,21.3744,1.89686,51,10
1.56454,9.19158,-1.47674,33,3
3.60051,21.1305,2.63189,37,11
1.91859,11.2479,-1.40101,20,4
3.73054,21.8475,3.51039,18,12
2.20461,12.9111,-1.14592,33,5
3.88907,22.752,4.48668,26,13
2.13165,12.4576,-0.662364,61,6
4.3729,25.5289,5.97965,30,14
3.32687,19.4018,-0.343603,79,7
5.03278,29.3198,7.97111,28,15
0.0901877,0.521588,-0.141833,14,0
3.56062,20.5709,0.364406,74,8
0.110456,0.637483,-0.149367,24,1
5.30149,30.5651,1.62576,18,9
1.35515,7.81293,-1.54136,26,2
3.69876,21.3027,1.89163,46,10
1.59424,9.17244,-1.47455,28,3
3.66676,21.0747,2.62653,62,11
1.94796,11.1844,-1.39394,23,4
3.80507,21.8246,3.50883,30,12
2.22913,12.7856,-1.13547,52,5
4.0326,23.1057,4.55919,13,13
2.18303,12.4953,-0.664771,58,6
4.50797,25.7765,6.04129,7,14
3.4063,19.4571,-0.34479,100,7
0.0873063,0.494636,-0.134586,15,0
3.60526,20.4048,0.361684,24,8
0.111663,0.631337,-0.148018,24,1
4.0608,22.9597,1.22194,8,9
1.37591,7.77142,-1.5341,26,2
3.75432,21.1837,1.88222,29,10
1.62246,9.14542,-1.47111,33,3
3.83159,21.5759,2.69063,33,11
1.97761,11.1247,-1.38736,17,4
3.86222,21.7263,3.49506,12,12
2.26747,12.7424,-1.13233,45,5
4.10221,23.0297,4.54698,28,13
2.30692,12.9379,-0.688741,26,6
4.13978,23.1937,5.43932,24,14
3.46483,19.4122,-0.344196,94,7
6.41503,35.9048,9.77301,8,15
0.0890325,0.494328,-0.134586,15,0
3.63887,20.2038,0.358333,54,8
0.116522,0.646306,-0.151617,23,1
4.72336,26.1727,1.39381,9,9
1.40023,7.75112,-1.53105,23,2
3.8357,21.2116,1.88588,17,10
1.6454,9.09917,-1.46454,30,3
3.91973,21.6548,2.70209,39,11
