x, y, z, intensity, ring
-0.147282,-1.60903,-0.0282031,100,7
-0.148789,-1.60086,0.0280635,100,8
-0.150835,-1.61675,0.0850983,96,9
-0.0539816,-0.578611,-0.112959,16,2
-0.150749,-1.61278,0.141715,100,10
-0.0699896,-0.747373,-0.11889,10,3
-0.1515,-1.61473,0.199135,100,11
-0.0934467,-0.994119,-0.122601,7,4
-0.154468,-1.64021,0.260933,27,12
-0.147765,-1.56904,-0.13788,60,5
-1.15501,-12.2415,2.39007,46,13
-0.149991,-1.58674,-0.0835282,100,6
-2.73318,-28.8603,6.69274,39,14
-0.152995,-1.61251,-0.0282729,100,7
-0.155336,-1.61028,0.028238,100,8
-0.155515,-1.60627,0.0845749,100,9
-0.056001,-0.578419,-0.112959,16,2
-0.154839,-1.59638,0.140321,100,10
-0.0771831,-0.794311,-0.126399,8,3
-0.15675,-1.61024,0.198647,100,11
-0.0942189,-0.966127,-0.119188,7,4
-0.159808,-1.63573,0.260307,47,12
-0.154016,-1.57644,-0.138578,85,5
-1.09312,-11.1686,2.18133,29,13
-0.156698,-1.59813,-0.0841562,93,6
-0.158231,-1.60799,-0.0282031,100,7
-0.160558,-1.60575,0.0281682,100,8
-0.0530235,-0.529357,-0.122823,15,1
-0.160723,-1.60175,0.0843656,100,9
-0.0580198,-0.57822,-0.112959,16,2
-0.160809,-1.5998,0.140669,100,10
-0.0787678,-0.782244,-0.124522,18,3
-0.162968,-1.61561,0.199378,100,11
-0.0953953,-0.944067,-0.116507,10,4
-0.163726,-1.61747,0.257491,54,12
-0.151492,-1.49661,-0.131605,67,5
-1.31233,-12.9422,2.5286,49,13
-0.163487,-1.6095,-0.0847843,17,6
-0.818871,-8.04767,1.86754,25,14
-0.162627,-1.59549,-0.0279937,100,7
-0.165956,-1.60319,0.0281333,100,8
-0.054871,-0.529169,-0.122823,15,1
-0.166313,-1.60118,0.0843656,100,9
-0.0600378,-0.578014,-0.112959,16,2
-0.16598,-1.59526,0.140321,100,10
-0.0860028,-0.825189,-0.131405,7,3
-0.1684,-1.61305,0.199135,100,11
-0.0970386,-0.927933,-0.114557,11,4
-0.169989,-1.62278,0.25843,62,12
-0.116031,-1.10769,-0.0974401,48,5
-1.36201,-12.9805,2.537,47,13
-0.166599,-1.58508,-0.0835282,16,6
-0.168614,-1.59889,-0.0280635,100,7
-0.169423,-1.58272,0.0277842,100,8
-0.0567177,-0.528974,-0.122823,15,1
-0.172754,-1.60853,0.0847843,100,9
-0.062055,-0.577801,-0.112959,16,2
-0.171761,-1.59665,0.140495,100,10
-0.0846502,-0.785603,-0.125148,8,3
-0.17403,-1.61246,0.199135,100,11
-0.0987835,-0.913774,-0.112851,13,4
-0.175439,-1.62022,0.258117,67,12
-0.119468,-1.10331,-0.0970915,58,5
-1.40265,-12.9327,2.5286,12,13
-0.174628,-1.60227,-0.0281333,100,7
-0.175166,-1.5841,0.0278191,100,8
-0.0585639,-0.528773,-0.122823,15,1
-0.178588,-1.6099,0.0848889,100,9
-0.0640716,-0.57758,-0.112959,16,2
-0.178213,-1.60397,0.141192,100,10
-0.09198,-0.826531,-0.131718,14,3
-0.178778,-1.60395,0.19816,100,11
-0.101752,-0.911451,-0.112607,13,4
-0.181972,-1.62745,0.259368,72,12
-0.122655,-1.09695,-0.0965686,33,5
-1.44735,-12.9238,2.52784,30,13
-0.17677,-1.57594,-0.0831095,100,6
-0.181114,-1.6096,-0.0282729,100,7
-0.182055,-1.5954,0.0280286,100,8
-0.0604093,-0.528565,-0.122823,15,1
-0.183071,-1.59935,0.0843656,100,9
-0.181294,-1.58382,-0.309874,3,2
-0.184265,-1.60729,0.141541,100,10
-0.0941886,-0.820318,-0.130779,15,3
-0.185056,-1.60923,0.198891,100,11
-0.101754,-0.883481,-0.109195,16,4
-0.187425,-1.62484,0.259056,75,12
-0.126026,-1.09255,-0.0962199,6,5
-1.48953,-12.8933,2.52288,50,13
-0.182729,-1.57928,-0.0833189,100,6
-0.185118,-1.59505,-0.0280286,100,7
-0.188558,-1.6027,0.0281682,100,8
-0.062254,-0.528351,-0.122823,15,1
-0.188886,-1.60068,0.0844702,100,9
-0.190042,-1.61047,-0.315216,2,2
-0.189874,-1.60664,0.141541,100,10
-0.0965871,-0.816061,-0.130153,15,3
-0.190205,-1.60463,0.198403,100,11
-0.104135,-0.877207,-0.108464,17,4
-0.19123,-1.60848,0.256553,77,12
-0.127958,-1.07628,-0.0948254,5,5
-1.53522,-12.8939,2.52402,33,13
-0.188241,-1.57863,-0.0833189,100,6
-0.190447,-1.59241,-0.0279937,100,7
-0.19367,-1.59806,0.0280984,100,8
-0.0640978,-0.528131,-0.122823,15,1
-0.194915,-1.606,0.0847843,100,9
-0.191873,-1.57862,-0.309111,3,2
-0.194759,-1.60003,0.141018,100,10
-0.10326,-0.847092,-0.135159,13,3
-0.196767,-1.61184,0.199378,100,11
-0.104638,-0.857152,-0.106026,14,4
-0.196084,-1.60392,0.255927,80,12
-0.129293,-1.05605,-0.0930823,7,5
-1.57926,-12.8807,2.5225,13,13
-0.19521,-1.58986,-0.0839469,100,6
-0.196214,-1.59574,-0.0280635,100,7
-1.03862,-8.43451,2.27709,0,15
-0.197732,-1.58749,0.0279239,100,8
-0.0658488,-0.527915,-0.122823,15,1
-0.199993,-1.60336,0.0846796,100,9
-0.199569,-1.59543,0.140669,100,10
-0.101403,-0.809504,-0.129215,16,3
-0.201617,-1.60724,0.198891,100,11
-0.107727,-0.85877,-0.10627,9,4
-0.202386,-1.6111,0.257178,75,12
-0.131302,-1.04376,-0.0920365,6,5
-0.202981,-1.60902,-0.0849936,42,6
-0.202257,-1.60103,-0.0281682,100,7
-0.202742,-1.58484,0.0278889,100,8
-0.0675991,-0.527694,-0.122823,15,1
-0.205843,-1.60463,0.0847843,100,9
-0.20562,-1.60068,0.141192,100,10
-0.102575,-0.797408,-0.127338,16,3
-0.205424,-1.59475,0.197428,100,11
-0.111231,-0.862326,-0.106758,14,4
-0.208515,-1.6143,0.257804,77,12
-0.132389,-1.02353,-0.0902933,5,5
-0.210678,-1.62213,-0.0285521,42,7
-1.09027,-8.38318,2.26518,83,15
-0.207751,-1.58016,0.0278191,100,8
-0.0694407,-0.527455,-0.122823,15,1
-0.209876,-1.59202,0.0841562,100,9
-0.210173,-1.59213,-0.312164,3,2
-0.212008,-1.60387,0.141541,100,10
-0.10757,-0.812693,-0.129841,15,3
-0.211771,-1.59993,0.19816,100,11
-0.110328,-0.832414,-0.103101,11,4
-0.214149,-1.61356,0.257804,77,12
-0.132811,-0.999363,-0.0882016,5,5
-1.08147,-8.12691,1.59364,73,13
-0.146675,-1.10075,-0.0581976,6,6
-0.213958,-1.60354,-0.028238,10,7
-1.11979,-8.38124,2.2657,42,15
-0.215417,-1.59326,0.0280635,56,8
-0.0713735,-0.527197,-0.122823,15,1
-0.215978,-1.59322,0.0842609,96,9
-0.212565,-1.56804,-0.307584,3,2
-0.217873,-1.60509,0.141715,100,10
-0.110407,-0.812313,-0.129841,31,3
-0.217633,-1.59914,0.19816,100,11
-0.112575,-0.826104,-0.10237,11,4
-0.218993,-1.60494,0.256553,80,12
-0.133776,-0.979129,-0.0864585,3,5
-0.149434,-1.09231,-0.0577789,10,6
-0.219019,-1.5968,-0.0281333,6,7
-0.218779,-1.57665,0.0277842,11,8
-0.0732133,-0.526944,-0.122823,15,1
-0.224015,-1.61026,0.0852029,47,9
-0.221019,-1.5867,-0.3114,1,2
-0.221277,-1.58652,0.140146,100,10
-0.113383,-0.811903,-0.129841,31,3
-0.224861,-1.61017,0.199622,100,11
-0.116007,-0.829638,-0.102858,5,4
-0.225142,-1.60808,0.257178,80,12
-0.13415,-0.956952,-0.0845411,4,5
-0.152603,-1.08582,-0.0574649,19,6
-1.16875,-8.30555,1.93638,1,14
-0.225427,-1.60197,-0.028238,5,7
-1.21989,-8.65804,2.34283,10,15
-0.224838,-1.57782,0.0278191,6,8
-0.230199,-1.61342,0.0854123,9,9
-0.225121,-1.57391,0.139101,67,10
-0.112856,-0.788037,-0.126086,34,3
-0.229071,-1.59754,0.19816,100,11
-0.119612,-0.833137,-0.103345,5,4
-0.231315,-1.61119,0.257804,77,12
-0.136923,-0.952533,-0.0841924,4,5
-1.18499,-8.23347,1.61692,6,13
-0.152689,-1.05959,-0.0561041,10,6
-1.20358,-8.34192,1.94583,5,14
-0.229876,-1.59326,-0.0280984,5,7
-1.22331,-8.46827,2.29262,19,15
-0.230357,-1.57904,0.027854,5,8
-0.0768903,-0.52642,-0.122823,15,1
-0.235251,-1.60866,0.0852029,6,9
-0.113176,-0.772022,-0.123583,37,3
-0.233791,-1.59284,0.197672,100,11
-0.120065,-0.817024,-0.101395,6,4
-0.237225,-1.61233,0.258117,70,12
-0.140537,-0.954021,-0.0843668,2,5
-0.148042,-1.00375,-0.0531733,8,6
-1.2671,-8.58079,2.00251,18,14
-0.225199,-1.52321,-0.0268767,7,7
-1.23674,-8.35502,2.26311,55,15
-0.238528,-1.59603,0.0281682,9,8
-0.0787273,-0.526149,-0.122823,15,1
-0.239993,-1.60392,0.0849936,5,9
-0.23908,-1.59401,0.141018,5,10
-0.113817,-0.757948,-0.121393,39,3
-0.122325,-0.812674,-0.100908,6,4
-0.241394,-1.60372,0.256865,37,12
-0.141919,-0.941729,-0.0833209,2,5
-0.147965,-0.979528,-0.0519173,10,6
-1.29734,-8.57825,2.00296,40,14
-0.171939,-1.1369,-0.0200703,9,7
-0.244424,-1.59918,0.028238,9,8
-1.26939,-8.28582,0.439308,9,9
-0.245248,-1.59711,0.141367,5,10
-0.11633,-0.757567,-0.121393,19,3
-0.247342,-1.60887,0.199866,6,11
-0.123811,-0.804415,-0.0999329,6,4
-0.247593,-1.60677,0.257491,5,12
-0.142775,-0.925475,-0.0819264,2,5
-1.28774,-8.34717,1.64172,14,13
-0.149383,-0.967189,-0.0512892,11,6
-1.28617,-8.31776,1.94313,21,14
-0.1704,-1.10072,-0.019442,16,7
-3.27323,-20.9263,0.369712,9,8
-0.0823069,-0.525601,-0.122823,15,1
-0.247453,-1.5766,0.139624,7,10
-0.117747,-0.74935,-0.120142,20,3
-0.252339,-1.60408,0.199378,6,11
-0.127236,-0.8079,-0.10042,6,4
-0.255046,-1.6176,0.259368,5,12
-0.142277,-0.901355,-0.0798347,3,5
-0.152758,-0.966661,-0.0512892,5,6
-1.36331,-8.61733,2.01421,7,14
-0.175493,-1.10802,-0.0195816,30,7
-0.0841411,-0.52531,-0.122823,15,1
-1.32815,-8.28268,0.439622,106,9
-1.34171,-8.34858,0.739778,22,10
-0.115786,-0.719659,-0.115449,22,3
-1.3496,-8.38832,1.0432,19,11
-0.126899,-0.787853,-0.097983,6,4
-0.145422,-0.900852,-0.0798347,3,5
-1.34681,-8.33387,1.64096,41,13
-0.154067,-0.952294,-0.0505565,6,6
-0.177761,-1.09753,-0.0194071,18,7
-0.0860658,-0.524998,-0.122823,15,1
-1.24529,-7.58794,0.402987,17,9
-1.3618,-8.28879,0.734897,50,10
-0.117977,-0.717301,-0.115136,22,3
-1.37614,-8.35785,1.04003,30,11
-0.131077,-0.795217,-0.0989579,6,4
-1.36491,-8.27164,1.32782,30,12
-0.142727,-0.864955,-0.0766971,4,5
-1.37685,-8.33493,1.6421,23,13
-0.157065,-0.94978,-0.0504519,6,6
-1.38643,-8.37473,1.95977,58,14
-0.176551,-1.0653,-0.0188486,10,7
-0.0878979,-0.524695,-0.122823,15,1
-1.39631,-8.32615,0.442448,65,9
-3.53487,-21.0558,1.86792,33,10
-0.123427,-0.734418,-0.117952,21,3
-1.40333,-8.34125,1.03857,28,11
-0.127918,-0.759519,-0.0945706,7,4
-1.39181,-8.25514,1.32594,8,12
-0.146408,-0.868381,-0.0770457,4,5
-1.40626,-8.33201,1.64248,10,13
-0.155055,-0.917716,-0.0487771,9,6
-1.4111,-8.34294,1.95347,56,14
-0.174594,-1.03116,-0.0182552,7,7
-0.199461,-1.1669,0.0206636,1,8
-0.0897289,-0.524385,-0.122823,15,1
-1.41423,-8.25626,0.438994,34,9
-1.44017,-8.39887,0.74553,41,10
-0.124987,-0.728142,-0.117013,10,3
-1.44421,-8.40478,1.0471,14,11
-0.127203,-0.739505,-0.0921332,8,4
-0.149438,-0.867864,-0.0770457,4,5
-0.157239,-0.911265,-0.0484631,9,6
-1.46542,-8.4839,1.98767,42,14
-0.174444,-1.00887,-0.0178713,6,7
-0.191844,-1.09921,0.0194769,6,8
-0.0915588,-0.524068,-0.122823,15,1
-1.44649,-8.27094,0.440041,8,9
-1.47292,-8.41342,0.747273,73,10
-0.126164,-0.719918,-0.115762,11,3
-3.91845,-22.3366,2.78447,28,11
-0.13253,-0.754697,-0.0940831,7,4
-1.46924,-8.35806,1.34408,84,12
-1.45555,-8.27172,1.63256,35,13
-0.153836,-0.873338,-0.0464743,11,6
-0.175531,-0.994474,-0.0176269,6,7
-0.195838,-1.10054,0.0195118,13,8
-1.38065,-7.74308,0.412198,3,9
-1.50501,-8.43202,0.749365,54,10
-0.126466,-0.707828,-0.113884,11,3
-1.48985,-8.33027,1.03906,28,11
-0.136432,-0.76207,-0.0950581,7,4
-1.48893,-8.30843,1.33689,124,12
-0.168158,-0.937399,-0.0833209,2,5
-1.4854,-8.28037,1.63523,112,13
-0.15779,-0.87872,-0.0467883,11,6
-8.52723,-47.4399,11.1279,19,14
-0.175641,-0.976173,-0.0173128,3,7
-0.201107,-1.10772,0.0196514,18,8
-1.40052,-7.69891,0.410105,0,9
-1.44123,-7.90703,0.703173,41,10
-0.130477,-0.715133,-0.115136,11,3
-1.51927,-8.32697,1.0393,33,11
-0.142657,-0.781117,-0.0974955,6,4
-1.50834,-8.25071,1.32844,38,12
-0.171429,-0.936806,-0.0833209,2,5
-1.53484,-8.37915,1.65584,71,13
-0.159929,-0.872242,-0.0464743,11,6
-8.69261,-47.3623,11.1171,19,14
-0.178326,-0.971621,-0.017243,1,7
-0.202615,-1.09321,0.0194071,11,8
-0.0970417,-0.523081,-0.122823,15,1
-0.22296,-1.20182,0.0640592,1,9
-1.46991,-7.90782,0.703695,69,10
-0.127192,-0.683601,-0.11013,12,3
-1.54687,-8.30573,1.03735,38,11
-0.140295,-0.753293,-0.0940831,7,4
-1.52518,-8.18131,1.31812,108,12
-1.5803,-8.46059,1.67301,64,13
-0.160036,-0.855973,-0.045637,6,6
-0.175095,-0.935612,-0.0166147,2,7
-0.199933,-1.05913,0.0188137,7,8
-0.0987758,-0.522756,-0.122823,15,1
-0.216932,-1.14808,0.0612331,2,9
-1.49761,-7.91074,0.704393,52,10
-0.133871,-0.706465,-0.113884,11,3
-0.139832,-0.737221,-0.0921332,8,4
-1.56336,-8.23443,1.3275,57,12
-1.58083,-8.31065,1.64439,57,13
-0.165115,-0.86721,-0.046265,6,6
-0.181192,-0.950741,-0.0168939,2,7
-0.19665,-1.02311,0.0181854,6,8
-0.100509,-0.522426,-0.122823,15,1
-0.222827,-1.15712,0.0617564,7,9
-1.53401,-7.95855,0.709099,22,10
-0.134716,-0.698259,-0.112633,11,3
-4.21409,-21.8219,2.7289,27,11
-0.142028,-0.734779,-0.0918895,16,4
-1.60747,-8.30844,1.34033,82,12
-1.6304,-8.41908,1.66691,64,13
-0.16647,-0.858814,-0.0458463,6,6
-0.184509,-0.950103,-0.0168939,2,7
-0.195225,-0.99691,0.0177316,6,8
-0.102332,-0.522072,-0.122823,15,1
-0.223788,-1.14066,0.0609191,12,9
-1.5353,-7.81825,0.697072,9,10
-0.134867,-0.686155,-0.110756,12,3
-4.32204,-21.9687,2.74913,6,11
-0.147277,-0.747913,-0.0935957,31,4
-1.65022,-8.37255,1.35159,58,12
-1.6613,-8.42104,1.66843,64,13
-0.167145,-0.846471,-0.0452183,6,6
-0.193227,-0.968767,0.017243,6,8
-0.104153,-0.521711,-0.122823,15,1
-0.227377,-1.13791,0.0608144,13,9
-0.152338,-0.762378,-0.151121,9,2
-1.56609,-7.83042,0.69864,1,10
-0.136486,-0.681806,-0.11013,12,3
-1.50185,-7.49561,0.938638,4,11
-0.150277,-0.74934,-0.0938394,23,4
-1.69537,-8.44615,1.36442,21,12
-1.69803,-8.45176,1.67568,57,13
-0.164586,-0.81847,-0.0437529,7,6
-0.197006,-0.970047,0.0172779,3,8
-0.105974,-0.521344,-0.122823,15,1
-0.225773,-1.10971,0.059349,11,9
-0.154998,-0.761841,-0.151121,9,2
-0.13492,-0.661969,-0.107001,13,3
-1.52444,-7.47282,0.936444,29,11
-0.148921,-0.729362,-0.091402,25,4
-4.3922,-21.4924,3.47441,12,12
-1.7291,-8.45348,1.67721,59,13
-0.168244,-0.821804,-0.0439622,7,6
-0.194448,-0.948118,-0.0168939,2,7
-0.195937,-0.947812,0.0168939,2,8
-0.107793,-0.520971,-0.122823,15,1
-0.22195,-1.07176,0.0573602,9,9
-0.157657,-0.761296,-0.151121,9,2
-0.247476,-1.19396,0.106679,1,10
-0.144452,-0.69631,-0.112633,11,3
-1.55253,-7.47717,0.937663,38,11
-0.150254,-0.723007,-0.0906708,17,4
-1.75099,-8.41087,1.66996,44,13
-0.167037,-0.801659,-0.0429155,8,6
-0.16507,-0.790833,-0.0141015,4,7
-0.205831,-0.978432,0.0174524,1,8
-0.109611,-0.520592,-0.122823,15,1
-0.223219,-1.05925,0.0567322,6,9
-0.144239,-0.683873,-0.135856,12,2
-0.236212,-1.11897,0.100055,4,10
-0.144553,-0.684179,-0.110756,12,3
-1.58888,-7.52026,0.943756,24,11
-0.156062,-0.738015,-0.0926207,32,4
-1.81072,-8.55548,1.38507,33,12
-1.78995,-8.44281,1.67759,17,13
-0.174949,-0.824486,-0.0441716,7,6
-0.157859,-0.743307,-0.0132638,16,7
-0.209416,-0.977671,0.0174524,1,8
-0.22291,-1.0389,0.0556855,5,9
-0.142507,-0.66417,-0.13204,13,2
-0.2443,-1.13762,0.101798,13,10
-0.14445,-0.672083,-0.108878,12,3
-1.6227,-7.5435,0.947412,4,11
-0.15417,-0.716091,-0.0899396,25,4
-1.85829,-8.62409,1.39727,45,12
-4.74389,-21.9971,4.37411,20,13
-0.176141,-0.816061,-0.0437529,7,6
-1.81876,-8.41922,1.98857,5,14
-0.163963,-0.758359,-0.0135431,10,7
-0.212827,-0.976934,0.0174524,1,8
-0.113333,-0.519794,-0.122823,15,1
-0.221425,-1.0147,0.0544294,4,9
-0.142313,-0.652159,-0.12975,13,2
-0.246569,-1.12897,0.101101,16,10
-0.138359,-0.632978,-0.102621,14,3
-1.89253,-8.65091,1.08732,2,11
-0.152848,-0.698096,-0.0877459,36,4
-4.80256,-21.8979,4.3577,23,13
-0.176419,-0.803737,-0.0431248,8,6
-0.168327,-0.765594,-0.0136827,10,7
-0.221505,-0.998318,0.053592,3,9
-0.14714,-0.663159,-0.13204,13,2
-0.247053,-1.11255,0.0997062,11,10
-0.140568,-0.632492,-0.102621,14,3
-0.162185,-0.728561,-0.0916458,33,4
-0.177483,-0.795319,-0.0427061,8,6
-1.88004,-8.41773,1.99127,56,14
-0.164891,-0.737681,-0.013194,5,7
-0.116959,-0.51899,-0.122823,15,1
-0.224549,-0.995591,0.0534874,2,9
-0.15291,-0.677962,-0.135093,12,2
-0.2426,-1.07475,0.0963942,8,10
-0.157718,-0.697012,-0.0877459,18,4
-4.90659,-21.6665,3.51852,14,12
-10.8679,-47.9516,9.55724,11,13
-0.184676,-0.814172,-0.0437529,7,6
-1.91761,-8.44723,1.99981,67,14
-0.166579,-0.733201,-0.0131242,16,7
-0.218931,-0.955904,0.0513939,3,9
-0.148257,-0.646806,-0.128987,13,2
-0.239222,-1.04283,0.0936053,6,10
-0.14498,-0.631495,-0.102621,14,3
-0.276938,-1.20531,0.151849,2,11
-0.157481,-0.68485,-0.0862835,9,4
-4.98373,-21.6732,3.52228,8,12
-11.0714,-48.0702,9.58853,11,13
-0.184826,-0.801845,-0.0431248,8,6
-0.160919,-0.697571,-0.0124959,18,7
-0.222267,-0.955134,0.0513939,3,9
-0.154077,-0.661581,-0.13204,13,2
-0.238791,-1.02452,0.0920365,5,10
-0.169493,-0.727201,-0.118264,10,3
-0.266052,-1.14059,0.143806,4,11
-0.166971,-0.715253,-0.0901833,8,4
-5.0562,-21.6422,3.52009,10,12
-0.189304,-0.809007,-0.0435435,7,6
-0.168828,-0.720368,-0.0129148,5,7
-0.235074,-0.995211,0.053592,1,9
-0.149946,-0.634318,-0.126697,28,2
-0.236224,-0.998519,0.0897704,5,10
-0.149275,-0.630493,-0.102621,14,3
-0.272778,-1.15124,0.145268,16,11
-0.179543,-0.75716,-0.0955456,7,4
-5.11974,-21.5907,3.51446,2,12
-0.185661,-0.781137,-0.0420781,8,6
-0.180934,-0.760658,-0.0136478,20,7
-0.124014,-0.51735,-0.122823,15,1
-0.226433,-0.943888,0.0508706,1,9
-0.158576,-0.660517,-0.13204,13,2
-0.236915,-0.986064,0.0887245,2,10
-0.27381,-1.13875,0.143806,21,11
-0.183567,-0.761101,-0.0410314,9,6
-0.169971,-0.703652,-0.0126355,18,7
-0.125819,-0.516914,-0.122823,15,1
-0.25147,-1.03236,0.0556855,1,9
-0.158907,-0.652358,-0.130513,13,2
-0.237352,-0.973659,0.0876787,2,10
-0.153563,-0.629463,-0.102621,14,3
-0.2759,-1.13007,0.142831,12,11
-0.183373,-0.748816,-0.0404034,9,6
-0.180524,-0.736071,-0.0132289,22,7
-0.127623,-0.516472,-0.122823,15,1
-0.269456,-1.08964,0.0588256,1,9
-0.158355,-0.640364,-0.128224,28,2
-0.229263,-0.926408,0.0834952,4,10
-0.273635,-1.10405,0.139662,10,11
-0.299328,-1.20592,0.196795,1,12
-0.188876,-0.759801,-0.0410314,9,6
-0.182609,-0.733496,-0.013194,16,7
-0.129424,-0.516023,-0.122823,15,1
-0.273258,-1.08869,0.0588256,1,9
-0.161546,-0.643616,-0.128987,13,2
-0.23201,-0.923669,0.0833209,4,10
-0.270223,-1.07422,0.136006,8,11
-0.295332,-1.1723,0.191476,4,12
-0.189573,-0.751391,-0.0406127,9,6
-0.184189,-0.728976,-0.0131242,5,7
-0.259309,-1.01805,0.0550574,1,9
-0.160884,-0.631633,-0.126697,14,2
-0.242122,-0.949883,0.0857612,1,10
-0.160146,-0.62782,-0.102621,14,3
-0.264151,-1.0348,0.131131,9,11
-0.300401,-1.17509,0.192102,9,12
-0.187241,-0.731376,-0.039566,10,6
-0.190705,-0.743825,-0.0134034,5,7
-0.157387,-0.609449,-0.145318,12,1
-0.163088,-0.631068,-0.126697,14,2
-0.24843,-0.960606,0.0868071,1,10
-0.162337,-0.627257,-0.102621,14,3
-0.257808,-0.995435,0.126257,4,11
-0.304005,-1.17212,0.191789,11,12
-0.185776,-0.715253,-0.0387286,10,6
-0.154575,-0.590044,-0.140819,13,1
-0.284644,-1.08577,0.0588256,1,9
-0.159315,-0.607705,-0.122118,30,2
-0.258859,-0.986713,0.0892475,1,10
-0.174557,-0.6649,-0.108878,12,3
-0.260776,-0.992609,0.126013,4,11
-0.165554,-0.629711,-0.0799463,11,4
-0.299048,-1.13667,0.186157,10,12
-0.186237,-0.706875,-0.0383099,11,6
-0.168755,-0.634673,-0.151617,11,1
-0.16659,-0.62609,-0.125934,29,2
-0.262474,-0.985758,0.0892475,1,10
-0.166821,-0.62608,-0.102621,14,3
-0.261856,-0.982056,0.124794,4,11
-0.294356,-1.10317,0.180838,8,12
-0.195017,-0.729341,-0.039566,10,6
-0.138411,-0.513686,-0.122823,15,1
-0.292217,-1.08376,0.0588256,1,9
-0.167751,-0.621714,-0.125171,14,2
-0.177135,-0.656036,-0.107627,12,3
-0.262522,-0.971601,0.123576,2,11
-0.294594,-1.08879,0.178648,7,12
-0.336587,-1.24313,0.250341,1,13
-0.197435,-0.728691,-0.039566,10,6
-0.140203,-0.513199,-0.122823,15,1
-0.168777,-0.617366,-0.124407,14,2
-0.177338,-0.647793,-0.106375,13,3
-0.263814,-0.96302,0.122601,2,11
-0.290031,-1.05727,0.173642,5,12
-0.324814,-1.18326,0.238511,3,13
-0.188338,-0.685627,-0.0372632,11,6
-0.273105,-0.985453,0.053592,1,9
-0.174076,-0.628125,-0.126697,14,2
-0.173259,-0.624329,-0.102621,14,3
-0.268236,-0.965919,0.123088,2,11
-0.290545,-1.04484,0.171765,5,12
-0.332626,-1.19536,0.241183,9,13
-0.181087,-0.650332,-0.0353791,12,6
-0.276543,-0.984494,0.053592,1,9
-0.175206,-0.623734,-0.125934,14,2
-0.175437,-0.62372,-0.102621,14,3
-0.264077,-0.938225,0.119676,2,11
-0.28776,-1.021,0.168011,5,12
-0.3336,-1.18285,0.238893,12,13
-0.177931,-0.630474,-0.0343324,13,6
-0.30732,-1.07957,0.0588256,1,9
-0.174264,-0.611758,-0.123644,14,2
-0.177722,-0.623073,-0.102621,14,3
-0.283685,-0.994566,0.126988,2,11
-0.283184,-0.991499,0.163318,4,12
-0.335234,-1.17219,0.236985,10,13
-0.183538,-0.641339,-0.0349604,26,6
-0.147444,-0.511166,-0.122823,15,1
-0.311275,-1.07844,0.0588256,1,9
-0.178576,-0.618691,-0.125171,14,2
-0.179896,-0.622449,-0.102621,14,3
-0.293946,-1.0164,0.129913,2,11
-0.287915,-0.994249,0.163943,4,12
-0.327302,-1.12952,0.228589,5,13
-0.190225,-0.65604,-0.0357978,37,6
-0.367087,-1.26517,0.304134,1,14
-0.315037,-1.07734,0.0588256,1,9
-0.197265,-0.674594,-0.136619,12,2
-0.174296,-0.595276,-0.0982409,15,3
-0.292496,-0.997029,0.164569,2,12
-0.321289,-1.09447,0.22172,5,13
-0.183507,-0.624712,-0.034123,27,6
-0.35996,-1.22462,0.294686,4,14
-0.151009,-0.510124,-0.122823,15,1
-0.200176,-0.675784,-0.137001,12,2
-0.184237,-0.621178,-0.102621,14,3
-0.290178,-0.977117,0.16144,2,12
-0.323988,-1.08958,0.220957,5,13
-0.183978,-0.618324,-0.033809,55,6
-0.362008,-1.21588,0.292886,10,14
-0.1527,-0.509621,-0.122823,15,1
-0.183353,-0.611146,-0.124026,14,2
-0.181752,-0.605428,-0.100118,14,3
-0.283914,-0.94394,0.156122,2,12
-0.321942,-1.06969,0.217141,4,13
-0.188907,-0.627273,-0.0343324,40,6
-0.362665,-1.20348,0.290187,11,14
-0.169407,-0.557935,-0.113341,16,2
-0.188461,-0.619909,-0.102621,14,3
-0.2803,-0.920267,0.152367,3,12
-0.321095,-1.05354,0.214088,4,13
-0.188765,-0.618968,-0.0339137,27,6
-0.358901,-1.17611,0.283888,10,14
-0.329861,-1.0729,0.0588256,1,9
-0.182893,-0.594871,-0.120973,15,2
-0.190624,-0.619248,-0.102621,14,3
-0.289333,-0.93816,0.155496,2,12
-0.311455,-1.00927,0.20531,4,13
-0.19446,-0.629756,-0.0345417,26,6
-0.357251,-1.15623,0.279389,8,14
-0.193137,-0.620473,-0.126316,14,2
-0.185731,-0.595948,-0.0988666,15,3
-0.291428,-0.933373,0.15487,1,12
-0.310293,-0.993182,0.202258,2,13
-0.200233,-0.640511,-0.0351698,13,6
-0.352558,-1.12708,0.272641,7,14
-0.379339,-1.21121,0.340088,1,15
-0.198842,-0.63103,-0.128605,14,2
-0.18781,-0.595296,-0.0988666,15,3
-0.299447,-0.947418,0.157373,1,12
-0.311982,-0.986477,0.201113,2,13
-0.20307,-0.641712,-0.0352744,26,6
-0.344725,-1.08869,0.263643,6,14
-0.393489,-1.24119,0.348888,4,15
-0.198657,-0.62285,-0.127079,14,2
-0.193492,-0.605927,-0.100744,14,3
-0.302752,-0.946367,0.157373,1,12
-0.319014,-0.996601,0.203402,2,13
-0.208964,-0.652412,-0.0359025,25,6
-0.34436,-1.07449,0.260493,5,14
-0.391917,-1.22141,0.343712,8,15
-0.188317,-0.582692,-0.0969894,15,3
-0.325525,-1.00544,0.167385,1,12
-0.312205,-0.963731,0.196915,2,13
-0.207545,-0.640279,-0.0352744,26,6
-0.342096,-1.05474,0.255994,5,14
-0.387229,-1.19248,0.335947,11,15
-0.178069,-0.544481,-0.090732,16,3
-0.313042,-0.955494,0.15925,1,12
-0.31251,-0.953307,0.195007,2,13
-0.211646,-0.645244,-0.0355885,12,6
-0.34213,-1.04243,0.253295,4,14
-0.385358,-1.17276,0.330771,11,15
-0.16687,-0.505158,-0.122823,15,1
-0.207743,-0.628156,-0.128605,14,2
-0.193723,-0.58508,-0.0976151,15,3
-0.307344,-0.926069,0.189664,2,13
-0.220304,-0.663418,-0.0366352,12,6
-0.342261,-1.03008,0.250595,4,14
-0.379089,-1.14025,0.321971,8,15
-0.16872,-0.504543,-0.122823,15,1
-0.209934,-0.627427,-0.128605,14,2
-0.192,-0.573162,-0.0957379,15,3
-0.316199,-0.941741,0.193099,1,13
-0.222619,-0.662645,-0.0366352,12,6
-0.336541,-1.00117,0.243847,4,14
-0.375676,-1.11694,0.315759,6,15
-0.203311,-0.600656,-0.123263,15,2
-0.192632,-0.56878,-0.0951122,15,3
-0.316796,-0.93325,0.191572,1,13
-0.218391,-0.642992,-0.0355885,25,6
-0.332334,-0.977904,0.238448,4,14
-0.372106,-1.09368,0.309548,5,15
-0.17215,-0.503383,-0.122823,15,1
-0.196403,-0.573973,-0.11792,16,2
-0.185013,-0.540073,-0.0904191,33,3
-0.316226,-0.920998,0.189283,1,13
-0.215443,-0.627115,-0.0347511,13,6
-0.337646,-0.982267,0.239798,3,14
-0.368377,-1.07045,0.303336,4,15
-0.173906,-0.502779,-0.122823,15,1
-0.19722,-0.569539,-0.117157,16,2
-0.18958,-0.546857,-0.0916706,33,3
-0.318311,-0.916124,0.188519,1,13
-0.220364,-0.633867,-0.0351698,13,6
-0.339324,-0.975501,0.238448,2,14
-0.367032,-1.05456,0.299195,5,15
-0.175748,-0.502139,-0.122823,15,1
-0.204398,-0.58367,-0.12021,15,2
-0.194755,-0.555512,-0.0932349,16,3
-0.329317,-0.937234,0.193099,1,13
-0.222575,-0.633094,-0.0351698,13,6
-0.339493,-0.965119,0.236199,1,14
-0.366403,-1.04046,0.295571,4,15
-0.184002,-0.519893,-0.127322,15,1
-0.202602,-0.571814,-0.11792,16,2
-0.198771,-0.56038,-0.0941736,32,3
-0.222216,-0.624747,-0.0347511,13,6
-0.337801,-0.949181,0.232599,1,14
-0.364848,-1.02461,0.29143,4,15
-0.189755,-0.530256,-0.130022,14,1
-0.204497,-0.571139,-0.11792,16,2
-0.197296,-0.55042,-0.0926092,32,3
-0.226989,-0.631524,-0.0351698,13,6
-0.33765,-0.938886,0.23035,1,14
-0.361049,-1.0034,0.285736,4,15
-0.194163,-0.536954,-0.131821,14,1
-0.209163,-0.577806,-0.119446,15,2
-0.197102,-0.544191,-0.0916706,33,3
-0.229082,-0.630768,-0.0351698,26,6
-0.334106,-0.919446,0.225851,1,14
-0.356624,-0.980349,0.279525,3,15
-0.206741,-0.565558,-0.13902,13,1
-0.207031,-0.566046,-0.117157,16,2
-0.196283,-0.53608,-0.0904191,33,3
-0.228529,-0.622465,-0.0347511,13,6
-0.334625,-0.910957,0.224051,1,14
-0.360044,-0.979099,0.279525,2,15
-0.184398,-0.499027,-0.122823,15,1
-0.221261,-0.598466,-0.124026,14,2
-0.205696,-0.555769,-0.0938607,16,3
-0.231396,-0.623536,-0.0348557,26,6
-0.338482,-0.91161,0.224501,1,14
-0.356729,-0.959728,0.274348,2,15
-0.197048,-0.527589,-0.130022,14,1
-0.215101,-0.575621,-0.119446,15,2
-0.227013,-0.606852,-0.102621,14,3
-0.232168,-0.618984,-0.0346464,26,6
-0.345085,-0.919546,0.226751,1,14
-0.358718,-0.95486,0.273313,2,15
-0.187877,-0.497728,-0.122823,15,1
-0.206011,-0.545481,-0.113341,16,2
-0.231495,-0.6107,-0.0342277,27,6
-0.34,-0.89647,0.221352,1,14
-0.353821,-0.931929,0.267101,2,15
-0.217395,-0.569899,-0.140819,13,1
-0.207914,-0.544758,-0.113341,16,2
-0.237912,-0.621079,-0.0348557,26,6
-0.362655,-0.946229,0.233949,1,14
-0.356909,-0.930751,0.267101,2,15
-0.191261,-0.496437,-0.122823,15,1
-0.233485,-0.603522,-0.0339137,13,6
-0.392522,-1.01408,0.251045,1,14
-0.339217,-0.875459,0.251572,2,15
-0.192992,-0.495767,-0.122823,15,1
-0.211712,-0.543294,-0.113341,16,2
-0.233513,-0.597082,-0.0335997,28,6
-0.396059,-1.0127,0.251045,1,14
-0.35706,-0.912046,0.262443,2,15
-0.232763,-0.588792,-0.033181,28,6
-0.348316,-0.880194,0.253643,2,15
-0.23778,-0.595396,-0.0335997,28,6
-0.356406,-0.89153,0.257266,1,15
-0.247222,-0.613127,-0.0346464,26,6
-0.350835,-0.868784,0.251054,1,15
-0.239567,-0.588214,-0.0332857,28,6
-0.353866,-0.867554,0.251054,1,15
-0.238579,-0.579986,-0.032867,29,6
-0.351005,-0.852024,0.246913,1,15
-0.247499,-0.595749,-0.033809,27,6
-0.36273,-0.872261,0.253125,1,15
-0.247928,-0.591242,-0.0335997,28,6
-0.365772,-0.870989,0.253125,1,15
-0.246875,-0.583016,-0.033181,28,6
-0.368811,-0.869707,0.253125,1,15
-0.254204,-0.595974,-0.102621,14,3
-0.248909,-0.582151,-0.033181,28,6
-0.593224,-1.38677,0.348224,1,14
-0.409865,-0.957209,0.279007,1,15
-0.237531,-0.55154,-0.0951122,15,3
-0.24619,-0.570276,-0.032553,29,6
-0.577199,-1.33639,0.336077,1,14
-0.230633,-0.531689,-0.155291,12,0
-0.242605,-0.557954,-0.0963636,15,3
-0.242593,-0.556597,-0.0318203,30,6
-0.592765,-1.35937,0.342376,1,14
-0.260431,-0.593279,-0.102621,14,3
-0.254991,-0.579512,-0.033181,28,6
-0.600647,-1.36443,0.344175,1,14
-0.25458,-0.573143,-0.032867,29,6
-0.610946,-1.37479,0.347324,1,14
-0.311959,-0.70166,-0.0134034,5,7
-0.246774,-0.550381,-0.0316109,30,6
-0.60936,-1.35842,0.343725,1,14
-0.314406,-0.700566,-0.0134034,5,7
-0.259399,-0.573171,-0.0329717,28,6
-0.609276,-1.34564,0.341026,1,14
-0.247931,-0.543281,-0.0312969,31,6
-0.256608,-0.556881,-0.0321343,29,6
-0.263603,-0.566848,-0.0327623,29,6
-0.323914,-0.696221,-0.0134034,5,7
-0.258696,-0.551505,-0.0319249,30,6
-0.326342,-0.695086,-0.0134034,5,7
-0.247981,-0.525557,-0.112959,16,2
-0.257201,-0.543377,-0.0315063,30,6
-0.306506,-0.646957,-0.0124959,6,7
-0.249814,-0.524688,-0.112959,16,2
-0.256514,-0.537069,-0.0311922,31,6
-0.251644,-0.523813,-0.112959,16,2
-0.262723,-0.545167,-0.0317156,30,6
-0.333603,-0.691631,-0.0134034,5,7
-0.270694,-0.558217,-0.120591,15,2
-0.262972,-0.540608,-0.0315063,30,6
-0.325515,-0.668885,-0.0129846,5,7
-0.255386,-0.521999,-0.112959,16,2
-0.264857,-0.539687,-0.0315063,30,6
-0.338423,-0.689285,-0.0134034,5,7
-0.257115,-0.521149,-0.112959,16,2
-0.264874,-0.535226,-0.0312969,31,6
-0.340707,-0.688159,-0.0134034,5,7
-0.260405,-0.521835,-0.0305642,15,6
-0.343107,-0.686966,-0.0134034,5,7
-0.264021,-0.52449,-0.0307735,15,6
-0.345503,-0.685764,-0.0134034,5,7
-0.746382,-1.47056,0.320559,1,13
-0.269467,-0.530689,-0.0311922,15,6
-0.241857,-0.473852,-0.122823,15,1
-0.747292,-1.45908,0.318651,2,13
-0.273232,-0.533253,-0.0314016,15,6
-0.243592,-0.472962,-0.122823,15,1
-0.759589,-1.47042,0.321704,3,13
-0.273257,-0.528747,-0.0311922,15,6
-0.245159,-0.472152,-0.122823,15,1
-0.778063,-1.49401,0.327428,3,13
-0.265781,-0.510125,-0.0301455,16,6
-0.237686,-0.454072,-0.118324,16,1
-0.786664,-1.49837,0.328955,2,13
-0.280473,-0.533996,-0.0316109,15,6
-0.248367,-0.470472,-0.122823,15,1
-0.808425,-1.52685,0.335824,1,13
-0.263638,-0.497715,-0.0295175,16,6
-0.250008,-0.469603,-0.122823,15,1
-0.291722,-0.546118,-0.0324483,14,6
-0.251645,-0.468727,-0.122823,15,1
-0.267106,-0.495862,-0.0295175,16,6
-0.25328,-0.467846,-0.122823,15,1
-0.276753,-0.510991,-0.112959,16,2
-0.234219,-0.422368,-0.12941,15,0
-0.285629,-0.506083,-0.112959,16,2
-0.238556,-0.419934,-0.12941,15,0
-0.289067,-0.504127,-0.112959,16,2
-0.920137,-1.60146,0.292533,1,12
-0.289778,-0.50191,-0.155291,12,0
-0.290825,-0.503115,-0.112959,16,2
-0.922473,-1.59327,0.291594,2,12
-0.292492,-0.502148,-0.112959,16,2
-0.937706,-1.60727,0.294723,4,12
-0.2931,-0.499977,-0.155291,12,0
-0.294155,-0.501175,-0.112959,16,2
-0.946315,-1.60909,0.295661,2,12
-0.245776,-0.415749,-0.12941,15,0
-0.29599,-0.500094,-0.112959,16,2
-0.941852,-1.58879,0.292533,1,12
-0.297734,-0.499058,-0.112959,16,2
-0.299474,-0.498015,-0.112959,16,2
-0.301124,-0.49702,-0.112959,16,2
-0.302857,-0.495965,-0.112959,16,2
-1.05036,-1.70867,0.0350095,1,8
-1.05909,-1.72153,0.105928,1,9
-0.283926,-0.461515,-0.105327,18,2
-1.04579,-1.68799,0.0346605,6,8
-1.04615,-1.68727,0.104044,1,9
-0.285616,-0.460472,-0.105327,18,2
-1.04773,-1.67737,0.0345209,6,8
-1.06715,-1.70714,0.105509,5,9
-0.308034,-0.492767,-0.112959,16,2
-1.05677,-1.67878,0.0346256,2,8
-1.07523,-1.70678,0.105719,4,9
-0.288823,-0.458466,-0.105327,18,2
-1.04954,-1.66535,0.17222,3,10
-1.06216,-1.68407,0.24447,1,11
-0.299892,-0.472372,-0.108761,17,2
-1.0735,-1.69027,0.175183,4,10
-0.293075,-0.458093,-0.105708,18,2
-0.294593,-0.457118,-0.105708,18,2
-0.289771,-0.446208,-0.103418,18,2
-0.304227,-0.464907,-0.107998,17,2
-0.305848,-0.463842,-0.107998,17,2
-1.12958,-1.70016,0.106975,1,9
-0.322675,-0.485665,-0.113341,16,2
-1.15106,-1.71944,0.10844,1,9
-0.324368,-0.484536,-0.113341,16,2
-1.12195,-1.67532,0.176403,1,10
-1.04071,-1.54991,0.431006,1,14
-1.11623,-1.65675,0.0348699,1,8
-1.12996,-1.67587,0.105928,1,9
-0.325973,-0.483458,-0.113341,16,2
-1.1275,-1.67159,0.176403,1,10
-1.04584,-1.54645,0.431006,1,14
-1.12683,-1.6587,0.105091,1,9
-0.305594,-0.449838,-0.105708,18,2
-1.13333,-1.66764,0.176403,1,10
-1.05124,-1.54279,0.431006,1,14
-1.14164,-1.66794,0.105928,1,9
-0.329341,-0.48117,-0.113341,16,2
-1.16165,-1.69655,0.179889,1,10
-1.05661,-1.53911,0.431006,1,14
-0.331018,-0.480018,-0.113341,16,2
-1.06198,-1.53541,0.431006,1,14
-0.332692,-0.478859,-0.113341,16,2
-1.06733,-1.5317,0.431006,1,14
-0.320852,-0.458394,-0.108761,17,2
-1.07241,-1.52815,0.431006,1,14
-0.333661,-0.473872,-0.155291,12,0
-0.313321,-0.44449,-0.105708,18,2
-0.326238,-0.459401,-0.109524,17,2
-1.21294,-1.69672,0.0364057,1,8
-0.339263,-0.474227,-0.113341,16,2
-1.2057,-1.67976,-0.0360916,1,7
-1.20249,-1.66975,0.0359171,5,8
-1.20511,-1.67216,0.108021,1,9
-0.317959,-0.441185,-0.105708,18,2
-1.18402,-1.63927,0.393067,1,13
-1.23265,-1.70471,-0.0367199,1,7
-1.21536,-1.67526,0.0361265,7,8
-1.24585,-1.71665,0.111162,1,9
-0.342565,-0.471847,-0.113341,16,2
-1.22681,-1.67929,0.036301,5,8
-0.344128,-0.470708,-0.113341,16,2
-1.04528,-1.42558,-0.0308559,1,7
-1.30228,-1.77025,0.0383604,1,8
-0.345687,-0.469564,-0.113341,16,2
-0.995595,-1.34793,-0.0292502,1,7
-0.984777,-1.32359,-0.0287965,5,7
-1.32916,-1.77931,0.116395,1,9
-0.348956,-0.467139,-0.113341,16,2
-0.992989,-1.32494,-0.0289012,7,7
-1.33536,-1.77466,0.116395,1,9
-0.350666,-0.465857,-0.113341,16,2
-1.33273,-1.76987,0.193834,1,10
-1.00363,-1.32945,-0.0290757,9,7
-1.32738,-1.75066,0.115139,1,9
-0.35229,-0.46463,-0.113341,16,2
-1.3389,-1.76521,0.193834,1,10
-1.35981,-1.79148,0.276156,1,11
-1.00487,-1.32099,-0.028971,6,7
-1.32863,-1.73967,0.11472,1,9
-1.34505,-1.76052,0.193834,1,10
-1.34194,-1.75519,0.271281,1,11
-1.00825,-1.31588,-0.0289361,5,7
-1.34413,-1.74792,0.115558,1,9
-0.355525,-0.46216,-0.113341,16,2
-1.31716,-1.71161,0.188954,1,10
-1.37228,-1.78195,0.276156,1,11
-1.00773,-1.3062,-0.0287965,5,7
-1.37193,-1.77188,0.117442,1,9
-1.34724,-1.73873,0.19244,1,10
-1.34899,-1.73974,0.270306,1,11
-1.35722,-1.74972,0.350726,1,12
-1.01328,-1.30443,-0.0288314,6,7
-1.42724,-1.83007,0.121629,1,9
-0.358583,-0.459792,-0.113341,16,2
-1.3481,-1.72797,0.191743,1,10
-1.37186,-1.75716,0.273719,1,11
-1.37548,-1.76054,0.353855,1,12
-1.01783,-1.30089,-0.0288314,6,7
-0.336005,-0.427601,-0.105708,18,2
-1.3692,-1.74181,0.193834,1,10
-1.35589,-1.72427,0.269331,1,11
-1.38406,-1.75883,0.354481,1,12
-1.02979,-1.30675,-0.0290408,6,7
-0.361864,-0.457214,-0.113341,16,2
-1.39672,-1.76286,0.276156,1,11
-1.38068,-1.74136,0.351978,1,12
-1.41033,-1.77812,0.44115,1,13
-1.0184,-1.28261,-0.028587,5,7
-1.32531,-1.66853,0.570955,1,15
-1.38162,-1.73197,0.193834,1,10
-1.40287,-1.75797,0.276156,1,11
-1.37689,-1.72418,0.349475,1,12
-1.37271,-1.71772,0.427412,1,13
-1.03536,-1.29466,-0.0289361,5,7
-1.07721,-1.34313,0.030053,1,8
-1.45265,-1.80997,0.121629,1,9
-1.38706,-1.72762,0.193834,1,10
-1.38755,-1.72576,0.350726,1,12
-1.40517,-1.74706,0.435808,1,13
-1.03464,-1.28499,-0.0287965,6,7
-1.04419,-1.2927,0.0290059,1,8
-1.45896,-1.80489,0.121629,1,9
-1.41346,-1.74547,0.355732,1,12
-1.39179,-1.71749,0.429702,1,13
-1.42137,-1.75275,0.520987,1,14
-1.03282,-1.2736,-0.0286219,7,7
-1.03378,-1.27025,0.028587,4,8
-1.49047,-1.83076,0.123722,1,9
-1.41704,-1.73747,0.355106,1,12
-1.41516,-1.73392,0.435045,1,13
-1.40746,-1.72387,0.513788,1,14
-1.04232,-1.27619,-0.0287616,7,7
-1.03798,-1.26681,0.028587,4,8
-1.48387,-1.81036,0.122675,1,9
-1.47836,-1.80235,0.203944,1,10
-1.45288,-1.7694,0.362615,1,12
-1.41093,-1.71708,0.431992,1,13
-1.41317,-1.7192,0.513788,1,14
-1.04781,-1.27427,-0.0287965,10,7
-1.04981,-1.27262,0.0287965,5,8
-1.47747,-1.78977,0.121629,1,9
-1.46657,-1.77593,0.201504,1,10
-1.45905,-1.76432,0.362615,1,12
-1.41691,-1.71214,0.431992,1,13
-1.40176,-1.69324,0.50749,1,14
-1.04333,-1.25982,-0.0285521,10,7
-1.04425,-1.25646,0.0285172,5,8
-1.47125,-1.76898,0.120582,1,9
-1.48071,-1.77973,0.20255,1,10
-1.4478,-1.73771,0.358235,1,12
-1.41815,-1.70091,0.430465,1,13
-1.42543,-1.70904,0.513788,1,14
-1.05562,-1.2652,-0.0287616,10,7
-1.40996,-1.68929,0.58959,1,15
-1.04371,-1.24649,0.0283776,5,8
-1.49024,-1.77915,0.121629,1,9
-1.46163,-1.74375,0.199064,1,10
-1.51939,-1.81138,0.290293,1,11
-1.53513,-1.82949,0.378259,1,12
-1.40135,-1.66888,0.423596,1,13
-1.42667,-1.69784,0.511989,1,14
-1.05875,-1.25998,-0.0287267,12,7
-1.41585,-1.68435,0.58959,1,15
-1.05815,-1.25526,0.0286569,5,8
-1.48356,-1.75867,0.120582,1,9
-1.47542,-1.74778,0.20011,1,10
-1.51514,-1.7942,0.288343,1,11
-1.5415,-1.82412,0.378259,1,12
-1.46518,-1.7332,0.44115,1,13
-1.42978,-1.69012,0.511089,1,14
-1.06572,-1.25933,-0.0287965,12,7
-1.42172,-1.6794,0.58959,1,15
-1.05864,-1.24698,0.0285521,4,8
-1.47387,-1.73547,0.119326,1,9
-1.49153,-1.75502,0.201504,1,10
-1.50596,-1.77075,0.285418,1,11
-1.54754,-1.819,0.378259,1,12
-1.47122,-1.72807,0.44115,1,13
-1.43314,-1.68215,0.510189,1,14
-1.06211,-1.24665,-0.028587,12,7
-1.42728,-1.67468,0.58959,1,15
-1.06667,-1.24802,0.0286569,4,8
-1.47213,-1.72121,0.118698,1,9
-1.47951,-1.72861,0.199064,1,10
-1.51183,-1.76575,0.285418,1,11
-1.55388,-1.81359,0.378259,1,12
-1.47695,-1.72318,0.44115,1,13
-1.42349,-1.65964,0.50479,1,14
-1.06646,-1.24294,-0.028587,12,7
-1.43312,-1.66968,0.58959,1,15
-1.08145,-1.25642,0.0289361,5,8
-1.49868,-1.74054,0.120373,1,9
-0.379257,-0.440305,-0.112959,16,2
-1.47483,-1.71162,0.197669,1,10
-1.49983,-1.73942,0.282006,1,11
-1.55989,-1.80842,0.378259,1,12
-1.43437,-1.66056,0.50659,1,14
-1.07449,-1.24394,-0.0286918,16,7
-1.43107,-1.65615,0.586484,1,15
-1.07252,-1.23771,0.028587,5,8
-1.50737,-1.73831,0.120582,1,9
-0.380792,-0.438978,-0.112959,16,2
-1.48079,-1.70646,0.197669,1,10
-1.5134,-1.74343,0.283468,1,11
-1.55065,-1.78507,0.374504,1,12
-1.45521,-1.67344,0.511989,1,14
-1.07358,-1.23414,-0.0285521,14,7
-1.42416,-1.63657,0.581308,1,15
-1.08867,-1.24752,0.0289012,9,8
-0.349867,-0.400778,-0.122823,15,1
-1.50291,-1.721,0.119745,1,9
-1.49431,-1.71054,0.198715,1,10
-1.50903,-1.72618,0.281518,1,11
-1.56207,-1.7856,0.375756,1,12
-1.44564,-1.65076,0.50659,1,14
-1.44514,-1.64903,0.587519,1,15
-1.11545,-1.26925,0.0294946,22,8
-0.351264,-0.399555,-0.122823,15,1
-1.501,-1.70675,0.119117,1,9
-1.50057,-1.70506,0.198715,1,10
-1.52029,-1.72686,0.282493,1,11
-1.55262,-1.76235,0.372001,1,12
-1.45684,-1.65129,0.508389,1,14
-1.07555,-1.21912,-0.0283776,100,7
-1.456,-1.64977,0.58959,1,15
-1.1254,-1.27114,0.0296342,48,8
-0.352726,-0.398264,-0.122823,15,1
-1.44603,-1.63272,0.114302,1,9
-1.50915,-1.70279,0.199064,1,10
-1.51871,-1.71236,0.281031,1,11
-1.54303,-1.73918,0.368247,1,12
-1.46777,-1.65203,0.510189,1,14
-1.08379,-1.21984,-0.0284823,47,7
-1.45405,-1.63601,0.586484,1,15
-0.385613,-0.432651,-0.155291,12,0
-0.354045,-0.397092,-0.122823,15,1
-1.37994,-1.54717,0.108649,1,9
-1.51243,-1.69454,0.198715,1,10
-1.52438,-1.70732,0.281031,1,11
-1.53067,-1.71316,0.363867,1,12
-1.50442,-1.68201,0.520987,1,14
-1.08937,-1.21754,-0.0285172,12,7
-1.46748,-1.63956,0.58959,1,15
-0.3406,-0.379605,-0.136656,14,0
-1.11399,-1.24113,0.0291106,100,8
-0.337202,-0.375554,-0.116525,16,1
-1.35463,-1.50817,0.106242,2,9
-1.51272,-1.68359,0.198018,1,10
-1.53829,-1.71084,0.282493,1,11
-1.54721,-1.71956,0.36637,1,12
-1.58398,-1.75981,0.460231,1,13
-1.51028,-1.67675,0.520987,1,14
-1.10834,-1.23007,-0.0289012,10,7
-1.46544,-1.62582,0.586484,1,15
-0.341923,-0.378414,-0.136656,14,0
-1.12502,-1.24465,0.0292851,185,8
-0.330669,-0.365702,-0.113825,16,1
-1.36659,-1.51084,0.106765,3,9
-1.52661,-1.68716,0.199064,1,10
-1.53892,-1.69958,0.281518,1,11
-1.55055,-1.71122,0.365744,1,12
-1.55056,-1.71063,0.448783,1,13
-1.46591,-1.61497,0.584413,1,15
-0.32504,-0.357214,-0.12941,15,0
-1.14282,-1.2555,0.0296342,190,8
-0.358184,-0.393363,-0.122823,15,1
-1.37562,-1.51073,0.107079,4,9
-1.49223,-1.63764,0.193834,1,10
-1.5395,-1.68833,0.280543,1,11
-1.56687,-1.71774,0.368247,1,12
-1.57241,-1.72261,0.453362,1,13
-0.67298,-0.736749,-0.0174175,34,7
-1.46344,-1.60155,0.581308,1,15
-1.14833,-1.25318,0.0296691,191,8
-0.341051,-0.372062,-0.116525,16,1
-1.37118,-1.49586,0.106347,3,9
-1.49765,-1.63268,0.193834,1,10
-1.55851,-1.69784,0.282981,1,11
-1.56721,-1.70672,0.366995,2,12
-1.58874,-1.72895,0.456415,1,13
-1.10043,-1.19671,-0.0283776,50,7
-1.48967,-1.61943,0.58959,1,15
-1.15383,-1.25084,0.029704,190,8
-0.360785,-0.390979,-0.122823,15,1
-1.37639,-1.49106,0.106347,3,9
-1.48684,-1.61014,0.191743,1,10
-1.56413,-1.69266,0.282981,1,11
-1.56779,-1.69544,0.365744,2,12
-1.5758,-1.70349,0.451072,1,13
-1.10868,-1.19726,-0.0284823,45,7
-1.48743,-1.60572,0.586484,1,15
-1.15275,-1.24094,0.0295644,189,8
-1.39519,-1.50087,0.107393,4,9
-1.49516,-1.60786,0.192091,1,10
-1.5538,-1.66975,0.280056,1,11
-1.57639,-1.69284,0.36637,1,12
-1.5737,-1.68936,0.448783,1,13
-1.50094,-1.60899,0.58959,1,15
-0.345707,-0.369689,-0.135621,15,0
-1.15298,-1.23253,0.0294597,184,8
-1.39359,-1.4887,0.10687,4,9
-1.51438,-1.61717,0.193834,1,10
-1.5379,-1.64114,0.276156,1,11
-1.60121,-1.7075,0.37075,1,12
-1.58765,-1.69245,0.451072,1,13
-0.662541,-0.705534,-0.0168939,2,7
-1.52771,-1.62627,0.597872,1,15
-0.331102,-0.351603,-0.12941,15,0
-1.16687,-1.23868,0.029704,186,8
-1.3933,-1.47802,0.106451,4,9
-1.50362,-1.59448,0.191743,1,10
-1.51637,-1.60689,0.271281,1,11
-1.5936,-1.68754,0.367621,1,12
-1.59355,-1.6869,0.451072,1,13
-1.51744,-1.60409,0.59166,1,15
-1.17531,-1.23896,0.0298087,100,8
-1.39433,-1.4688,0.106137,4,9
-1.50094,-1.58056,0.190697,1,10
-1.5165,-1.59583,0.270306,1,11
-1.56409,-1.64475,0.359486,1,12
-1.61296,-1.69555,0.454889,1,13
-1.5177,-1.59319,0.58959,1,15
-0.333549,-0.349283,-0.12941,15,0
-1.3953,-1.45959,0.105823,4,9
-1.52297,-1.59259,0.192788,1,10
-1.555,-1.62495,0.276156,1,11
-1.55342,-1.62216,0.355732,1,12
-1.608,-1.67857,0.451836,1,13
-1.62097,-1.69092,0.540782,1,14
-1.49383,-1.55721,0.578202,1,15
-0.334766,-0.348116,-0.12941,15,0
-1.17146,-1.21775,0.0294946,7,8
-1.40845,-1.46359,0.106451,4,9
-1.51747,-1.57578,0.191394,1,10
-1.56067,-1.61951,0.276156,1,11
-1.55057,-1.60847,0.353855,1,12
-1.58932,-1.64751,0.444967,1,13
-1.63498,-1.69367,0.543482,1,14
-1.52046,-1.57448,0.586484,1,15
-1.17549,-1.21386,0.0294946,9,8
-0.343045,-0.354119,-0.113825,16,1
-1.41077,-1.4558,0.106242,4,9
-1.55902,-1.60766,0.195926,1,10
-1.54668,-1.59438,0.272744,1,11
-1.55067,-1.59738,0.352603,2,12
-1.5811,-1.62815,0.44115,1,13
-1.61886,-1.66588,0.536283,1,14
-1.53403,-1.57748,0.58959,1,15
-1.18112,-1.21118,0.0295295,8,8
-1.41026,-1.44515,0.105823,4,9
-1.55878,-1.59678,0.195229,1,10
-1.54391,-1.58045,0.271281,1,11
-1.559,-1.59478,0.353229,1,12
-1.58677,-1.62262,0.44115,1,13
-1.62467,-1.66022,0.536283,1,14
-1.56115,-1.5942,0.597872,1,15
-1.18954,-1.21133,0.0296342,6,8
-1.4111,-1.43594,0.105509,3,9
-1.54758,-1.57428,0.193137,1,10
-1.59397,-1.62033,0.279081,1,11
-1.57287,-1.59777,0.355106,1,12
-1.59242,-1.61707,0.44115,1,13
-1.6113,-1.6351,0.529985,1,14
-1.545,-1.56673,0.58959,1,15
-1.19376,-1.20717,0.0296342,5,8
-1.4299,-1.44545,0.106556,3,9
-1.5811,-1.59719,0.196623,1,10
-1.59682,-1.61194,0.278593,1,11
-1.56426,-1.57852,0.351978,1,12
-1.59806,-1.6115,0.44115,1,13
-1.60876,-1.62117,0.527285,1,14
-1.19776,-1.20321,0.0296342,4,8
-0.375396,-0.376972,-0.122823,15,1
-1.42789,-1.43338,0.106033,4,9
-1.57823,-1.58319,0.195577,1,10
-1.5601,-1.56447,0.271281,1,11
-1.58092,-1.58423,0.354481,1,12
-1.5923,-1.59508,0.438097,1,13
-1.60311,-1.60479,0.523686,1,14
-1.55563,-1.55617,0.58959,1,15
-1.21328,-1.21032,0.0299134,1,8
-1.43147,-1.42698,0.105928,4,9
-1.61169,-1.60608,0.199064,1,10
-1.55993,-1.55341,0.270306,1,11
-1.59484,-1.58707,0.356358,1,12
-1.59786,-1.58951,0.438097,1,13
-1.617,-1.60743,0.526385,1,14
-1.20613,-1.19481,0.0296342,1,8
-1.42508,-1.41073,0.105091,3,9
-1.61162,-1.59483,0.198366,1,10
-1.57663,-1.55912,0.272256,1,11
-1.59756,-1.57871,0.355732,1,12
-1.6006,-1.58116,0.437334,1,13
-1.62815,-1.60725,0.528185,1,14
-1.61597,-1.59412,0.608225,1,15
-1.21884,-1.19901,0.0298436,1,8
-0.351534,-0.345693,-0.113825,16,1
-1.38988,-1.36679,0.10216,1,9
-1.58023,-1.55289,0.193834,1,10
-1.5934,-1.56473,0.274206,1,11
-1.59433,-1.5651,0.353855,1,12
-1.62013,-1.58932,0.44115,1,13
-1.63931,-1.60702,0.529985,1,14
-1.20565,-1.17819,0.0294248,1,8
-1.24889,-1.21959,0.0914833,1,9
-1.24912,-1.21897,0.152697,1,10
-1.60994,-1.57053,0.276156,1,11
-1.60261,-1.56229,0.354481,1,12
-1.62539,-1.58393,0.44115,1,13
-1.63626,-1.59341,0.527285,1,14
-1.18393,-1.14891,0.0287965,1,8
-0.353879,-0.343292,-0.113825,16,1
-1.17285,-1.13736,0.0856216,1,9
-1.22455,-1.18708,0.149211,1,10
-1.64393,-1.59253,0.281031,1,11
-1.60238,-1.55119,0.353229,1,12
-1.63091,-1.57825,0.44115,1,13
-1.65021,-1.59582,0.529985,1,14
-1.65175,-1.59619,0.615472,1,15
-1.20233,-1.15864,0.0291455,1,8
-0.355075,-0.342055,-0.113825,16,1
-1.18544,-1.14157,0.0862497,1,9
-1.24878,-1.20215,0.151651,1,10
-1.62487,-1.56201,0.356983,1,12
-1.62225,-1.55895,0.437334,1,13
-1.65577,-1.59005,0.529985,1,14
-1.16302,-1.11296,0.0280984,1,8
-0.38443,-0.367755,-0.122823,15,1
-1.16469,-1.11417,0.0844702,2,9
-1.2184,-1.16474,0.147468,1,10
-1.6329,-1.55934,0.357609,1,12
-1.62484,-1.55056,0.436571,1,13
-1.64976,-1.57379,0.526385,1,14
-1.66257,-1.58491,0.615472,1,15
-1.16381,-1.10635,0.0280286,1,8
-0.385648,-0.366478,-0.122823,15,1
-1.17851,-1.11993,0.0852029,2,9
-1.21937,-1.15795,0.147119,1,10
-1.64093,-1.55664,0.358235,1,12
-1.62997,-1.54517,0.436571,1,13
-1.63799,-1.55223,0.520987,1,14
-1.59768,-1.51297,0.58959,1,15
-1.15729,-1.09287,0.0277842,2,8
-0.386861,-0.365197,-0.122823,15,1
-1.18822,-1.12129,0.0856216,3,9
-1.17103,-1.10468,0.140844,1,10
-1.65785,-1.56174,0.360738,1,12
-1.62365,-1.52898,0.433518,1,13
-1.64908,-1.55184,0.522786,1,14
-1.74369,-1.63973,0.641354,1,15
-1.14506,-1.07378,0.0274003,3,8
-0.388133,-0.363845,-0.122823,15,1
-1.19796,-1.1226,0.0860403,4,9
-1.17361,-1.09902,0.140669,2,10
-1.24487,-1.16533,0.209372,1,11
-1.69503,-1.58563,0.367621,1,12
-1.64072,-1.53375,0.436571,1,13
-1.66045,-1.55111,0.524586,1,14
-1.15045,-1.07093,0.0274352,3,8
-0.389464,-0.36242,-0.122823,15,1
-1.19329,-1.11004,0.0854123,4,9
-1.16869,-1.08677,0.139624,2,10
-1.2404,-1.15265,0.207909,1,11
-1.71531,-1.59285,0.37075,1,12
-1.64606,-1.52801,0.436571,1,13
-1.67157,-1.5506,0.526385,1,14
-1.16446,-1.07641,0.0276795,3,8
-0.390727,-0.361058,-0.122823,15,1
-1.18542,-1.09503,0.0845749,5,9
-1.17979,-1.08945,0.140495,2,10
-1.21524,-1.12139,0.203034,1,11
-1.75571,-1.61899,0.378259,1,12
-1.68026,-1.54887,0.444203,1,13
-1.67124,-1.53948,0.524586,1,14
-1.72409,-1.58705,0.627895,1,15
-1.17263,-1.0764,0.0277842,2,8
-0.391985,-0.359692,-0.122823,15,1
-1.18905,-1.09109,0.0845749,5,9
-1.188,-1.08936,0.141018,2,10
-1.1928,-1.093,0.198647,3,11
-1.76107,-1.61316,0.378259,1,12
-1.68496,-1.54182,0.527285,1,14
-1.70939,-1.56307,0.620648,1,15
-1.17028,-1.06712,0.0276446,2,8
-0.393176,-0.35839,-0.122823,15,1
-1.19561,-1.08983,0.0847843,4,9
-1.18129,-1.07602,0.139798,2,10
-1.21844,-1.10909,0.202303,2,11
-1.69872,-1.54409,0.529985,1,14
-1.6831,-1.52882,0.60926,1,15
-1.16344,-1.05383,0.0274003,2,8
-0.394362,-0.357084,-0.122823,15,1
-1.20218,-1.08854,0.0849936,2,9
-1.16269,-1.05205,0.137183,2,10
-1.19561,-1.08107,0.197916,3,11
-1.77744,-1.60548,0.465574,1,13
-1.69515,-1.53061,0.527285,1,14
-1.69677,-1.531,0.612366,1,15
-1.16544,-1.04863,0.0273654,2,8
-0.395544,-0.355775,-0.122823,15,1
-1.2043,-1.08321,0.0848889,2,9
-1.18988,-1.0695,0.139972,4,10
-1.19328,-1.0718,0.196941,3,11
-1.71763,-1.5406,0.532684,1,14
-1.71047,-1.5331,0.615472,1,15
-1.18699,-1.06054,0.0277842,2,8
-0.396783,-0.354392,-0.122823,15,1
-1.19485,-1.06682,0.0839469,2,9
-1.1951,-1.06666,0.140146,4,10
-1.19553,-1.0663,0.196697,6,11
-1.72473,-1.53452,0.618578,1,15
-1.17124,-1.03914,0.0273305,3,8
-0.398018,-0.353004,-0.122823,15,1
-1.20156,-1.06529,0.0841562,3,9
-1.18856,-1.05303,0.138926,3,10
-1.20816,-1.07002,0.19816,6,11
-1.71271,-1.51314,0.612366,1,15
-1.18704,-1.04541,0.0276097,4,8
-1.20527,-1.06109,0.0841562,3,9
-1.18325,-1.04098,0.13788,2,10
-1.21655,-1.06952,0.198891,6,11
-1.71798,-1.50716,0.612366,1,15
-1.17997,-1.03226,0.0273654,4,8
-0.400473,-0.350217,-0.122823,15,1
-1.21799,-1.06476,0.0847843,3,9
-1.17187,-1.02373,0.136137,4,10
-1.2171,-1.06287,0.198403,6,11
-1.70866,-1.48846,0.60719,1,15
-1.19413,-1.03731,0.0276097,3,8
-0.401693,-0.348817,-0.122823,15,1
-1.22773,-1.06574,0.0852029,4,9
-1.19482,-1.03682,0.138403,4,10
-1.2088,-1.04821,0.196453,6,11
-1.71385,-1.48249,0.60719,1,15
-1.21743,-1.05012,0.0280635,2,8
-1.21934,-1.05102,0.0843656,5,9
-1.20447,-1.03784,0.139101,4,10
-1.22148,-1.05175,0.197916,6,11
-1.81573,-1.55957,0.641354,1,15
-1.22261,-1.04716,0.0280984,1,8
-1.22585,-1.04957,0.0845749,5,9
-1.21414,-1.03881,0.139798,4,10
-1.22967,-1.05135,0.198647,6,11
-1.2413,-1.05606,0.0284474,1,8
-1.23255,-1.04787,0.0847843,5,9
-1.1965,-1.01651,0.137357,2,10
-1.22559,-1.04085,0.197428,4,11
-2.86613,-2.43238,0.59539,5,12
-1.28164,-1.08269,0.0292851,1,8
-1.25146,-1.05645,0.085831,5,9
-1.20901,-1.02024,0.138403,2,10
-1.22618,-1.034,0.196941,3,11
-2.88367,-2.42999,0.597267,9,12
-2.55708,-2.15402,0.649895,2,13
-2.32275,-1.95524,0.700947,1,14
-2.10371,-1.76961,0.736599,1,15
-1.24596,-1.04437,0.0852029,4,9
-1.20492,-1.00962,0.137532,2,10
-1.22674,-1.02717,0.196453,3,11
-2.88759,-2.41611,0.596328,10,12
-2.55856,-2.14005,0.648369,2,13
-2.35199,-1.96587,0.707696,1,14
-2.1084,-1.76102,0.736081,2,15
-1.32605,-1.10443,0.0301229,1,8
-1.25555,-1.04535,0.0856216,4,9
-1.20078,-0.999035,0.13666,2,10
-1.21963,-1.01399,0.194747,3,11
-2.8971,-2.40778,0.596641,9,12
-2.56752,-2.13236,0.648751,2,13
-2.339,-1.94188,0.701847,1,14
-2.11422,-1.75402,0.736081,2,15
-1.38517,-1.14591,0.0313794,1,8
-1.25901,-1.04118,0.0856216,4,9
-1.21023,-1.00012,0.137357,2,10
-1.24441,-1.02764,0.19816,3,11
-2.89136,-2.38685,0.593825,10,12
-2.65939,-2.19379,0.670121,1,13
-2.35595,-1.94279,0.704997,1,14
-2.11407,-1.74208,0.734011,2,15
-1.25937,-1.03446,0.0854123,3,9
-1.2043,-0.988521,0.136312,2,10
-1.24781,-1.02351,0.19816,3,11
-2.90231,-2.37975,0.594451,10,12
-2.63932,-2.16256,0.663252,1,13
-2.3401,-1.91603,0.698248,1,14
-2.12282,-1.73751,0.735046,2,15
-1.26917,-1.03511,0.085831,2,9
