x, y, z, intensity, ring
10.6963,18.2607,0.369398,35,8
0.308383,0.526257,-0.140819,13,1
3.18516,5.43333,-1.22423,21,2
13.3015,22.6809,2.30039,12,10
3.59859,6.13364,-1.12633,16,3
13.1039,22.3261,3.1786,18,11
4.14009,7.05098,-1.00396,19,4
16.5152,28.1158,5.16453,8,12
4.83972,8.23922,-0.835998,17,5
16.3203,27.7728,6.26159,21,13
5.88585,10.0122,-0.608667,33,6
17.8739,30.3923,8.14008,35,14
7.51287,12.7696,-0.25861,68,7
18.9122,32.1322,9.99042,9,15
0.265124,0.449195,-0.139762,14,0
10.6583,18.051,0.365907,38,8
0.3122,0.528533,-0.141719,13,1
11.8262,20.013,1.21828,14,9
3.20012,5.41542,-1.2227,19,2
13.4779,22.799,2.31712,31,10
3.61495,6.11254,-1.12476,16,3
13.1565,22.2375,3.1725,18,11
4.15457,7.0194,-1.00152,19,4
16.3597,27.6296,5.08569,20,12
4.85932,8.20684,-0.834429,17,5
16.5812,27.9927,6.32417,21,13
5.88716,9.93485,-0.605213,37,6
18.0206,30.3984,8.15852,12,14
7.51252,12.6676,-0.257074,93,7
18.2869,30.8232,9.60322,8,15
0.296323,0.498074,-0.155291,12,0
10.6773,17.9398,0.364406,24,8
0.300085,0.503998,-0.135421,13,1
11.9482,20.0591,1.22361,8,9
3.22101,5.40758,-1.22347,19,2
13.3453,22.3958,2.28087,30,10
3.63424,6.09649,-1.12414,17,3
16.5141,27.6916,3.9588,12,11
4.15871,6.97076,-0.996648,22,4
16.6757,27.9405,5.15358,17,12
4.88078,8.17785,-0.833209,17,5
18.9937,31.8117,7.2019,14,13
5.90849,9.89194,-0.603852,37,6
18.1616,30.3939,8.17427,48,14
7.53002,12.5967,-0.256166,68,7
18.3488,30.683,9.57941,8,15
0.272228,0.45396,-0.141833,14,0
10.6308,17.7207,0.360706,29,8
0.309865,0.516315,-0.13902,13,1
12.0012,19.9971,1.22225,47,9
3.22572,5.37274,-1.21812,19,2
13.5003,22.4772,2.29394,49,10
3.64532,6.06684,-1.12101,16,3
17.1281,28.4947,4.08214,13,11
4.17585,6.9443,-0.994941,15,4
16.869,28.0526,5.18455,8,12
4.89697,8.14028,-0.831117,17,5
5.91207,9.81993,-0.600712,37,6
18.3098,30.4004,8.19317,48,14
7.54698,12.5306,-0.255329,68,7
18.4884,30.6848,9.59908,8,15
0.249827,0.413327,-0.12941,15,0
10.5964,17.5313,0.357565,27,8
0.299476,0.495273,-0.133621,14,1
12.2188,20.1995,1.23722,37,9
3.23937,5.35305,-1.21622,21,2
13.2444,21.8777,2.23746,23,10
3.6644,6.05303,-1.1207,18,3
16.7124,27.5955,3.96124,12,11
4.18857,6.91343,-0.992504,16,4
16.8481,27.7976,5.14826,21,12
4.90367,8.08736,-0.827457,17,5
21.1611,34.8999,7.93346,25,13
5.94357,9.79856,-0.600608,37,6
18.4186,30.3529,8.19677,60,14
7.55747,12.4494,-0.254212,93,7
18.4961,30.4566,9.54784,16,15
0.251196,0.412497,-0.12941,15,0
10.3954,17.0638,0.348769,27,8
0.313373,0.514194,-0.13902,13,1
12.3038,20.1806,1.23869,20,9
3.25097,5.33222,-1.21393,21,2
14.5224,23.8102,2.44001,20,10
3.6711,6.01659,-1.11632,16,3
17.1934,28.1673,4.05191,13,11
4.20233,6.88183,-0.990067,17,4
19.746,32.3238,5.99926,11,12
4.92942,8.06936,-0.827282,17,5
21.2787,34.8191,7.93193,16,13
5.9569,9.74368,-0.598514,37,6
18.8813,30.8719,8.35468,24,14
7.56749,12.3684,-0.253095,69,7
18.6255,30.4298,9.55974,34,15
0.272846,0.444547,-0.139762,14,0
10.3565,16.8673,0.345488,27,8
0.313126,0.509776,-0.13812,13,1
12.3543,20.1052,1.2367,67,9
3.26751,5.3175,-1.21316,19,2
13.3846,21.7734,2.23607,11,10
3.68173,5.98691,-1.11319,16,3
19.1535,31.1336,4.4882,14,11
4.21592,6.85021,-0.987629,17,4
19.8121,32.179,5.98518,22,12
4.94502,8.03174,-0.825191,17,5
21.293,34.5707,7.89224,16,13
5.97202,9.69221,-0.59663,37,6
18.8366,30.5586,8.28765,60,14
7.59487,12.3164,-0.252571,86,7
18.7417,30.381,9.56492,8,15
0.274396,0.443592,-0.139762,14,0
10.3164,16.6712,0.342207,25,8
0.306697,0.495424,-0.134521,14,1
12.457,20.1146,1.23994,18,9
3.28398,5.30272,-1.2124,21,2
13.5676,21.8993,2.25385,36,10
3.69532,5.96227,-1.111,16,3
4.22725,6.81521,-0.984704,23,4
20.0545,32.3194,6.02429,28,12
4.96602,8.00002,-0.823796,17,5
19.8749,32.0175,7.32516,29,13
5.98369,9.63568,-0.594432,37,6
18.9678,30.5324,8.29844,36,14
7.62198,12.2643,-0.252048,69,7
18.8834,30.3728,9.58303,17,15
0.267841,0.429469,-0.135621,15,0
10.3386,16.5774,0.34102,27,8
0.329055,0.527417,-0.143519,12,1
12.5631,20.1286,1.2435,15,9
3.293,5.274,-1.20858,21,2
13.4155,21.4777,2.2155,23,10
3.71611,5.94701,-1.11068,16,3
16.8941,27.0363,3.91444,12,11
4.24365,6.78863,-0.982998,24,4
20.185,32.2777,6.02961,22,12
4.97701,7.95561,-0.821007,17,5
19.9026,31.8013,7.29234,28,13
5.99459,9.57475,-0.592024,37,6
19.0424,30.4033,8.28225,48,14
7.60743,12.1461,-0.250163,69,7
35.7281,57.0218,18.0304,42,15
0.271395,0.431803,-0.136656,14,0
10.345,16.453,0.33924,25,8
0.31646,0.503114,-0.13722,27,1
12.7091,20.1974,1.25062,22,9
3.31034,5.26081,-1.2082,21,2
13.881,22.0512,2.27965,24,10
3.73579,5.93233,-1.11037,17,3
16.8386,26.7289,3.87886,12,11
4.26745,6.77135,-0.982754,20,4
20.2979,32.1951,6.02805,28,12
4.99093,7.91628,-0.818741,16,5
20.0197,31.7416,7.29463,42,13
6.00453,9.5166,-0.589722,37,6
19.6341,31.1062,8.49235,12,14
7.622,12.0708,-0.249185,69,7
31.1951,49.3839,15.6513,23,15
0.272901,0.430853,-0.136656,14,0
10.3595,16.3492,0.337844,25,8
0.314041,0.495423,-0.135421,13,1
12.7924,20.1731,1.25188,22,9
3.32133,5.23761,-1.20553,19,2
14.0636,22.1692,2.2969,30,10
3.74271,5.89757,-1.1063,21,3
17.0957,26.9281,3.91639,25,11
4.28467,6.74636,-0.981292,19,4
20.3551,32.0374,6.01178,11,12
5.00785,7.88199,-0.816998,16,5
20.2768,31.9019,7.34767,7,13
6.02163,9.4703,-0.588152,37,6
19.8367,31.1854,8.53284,25,14
7.64155,12.0087,-0.248452,78,7
20.3022,31.8926,10.1302,9,15
0.311821,0.48852,-0.155291,12,0
10.3498,16.2085,0.33568,23,8
0.311572,0.487754,-0.133621,14,1
13.2811,20.783,1.29259,22,9
3.34593,5.23592,-1.20782,23,2
15.3739,24.0488,2.49719,28,10
3.76115,5.88115,-1.10568,20,3
4.29964,6.71799,-0.979342,15,4
20.6372,32.2323,6.06184,11,12
5.02674,7.85104,-0.815603,17,5
20.0005,31.2258,7.208,7,13
6.02233,9.39878,-0.585011,37,6
19.9896,31.1849,8.55174,50,14
7.65211,11.9331,-0.24744,78,7
20.2715,31.6004,10.0598,9,15
0.292623,0.454934,-0.144939,14,0
10.3284,16.0512,0.333166,22,8
0.315382,0.489941,-0.134521,14,1
13.2205,20.53,1.27972,24,9
3.36206,5.2209,-1.20706,23,2
14.4025,22.3569,2.32671,18,10
3.77951,5.86466,-1.10505,21,3
17.4424,27.055,3.95247,12,11
4.31123,6.68458,-0.976661,16,4
21.2615,32.9535,6.21139,42,12
5.04439,7.81838,-0.814035,17,5
21.0292,32.581,7.53772,30,13
6.03994,9.35421,-0.583546,37,6
22.064,34.158,9.38811,14,14
7.67201,11.8728,-0.246742,78,7
20.3377,31.4613,10.038,9,15
0.277397,0.427972,-0.136656,14,0
10.3539,15.9681,0.332189,22,8
0.322393,0.497012,-0.13677,27,1
13.3961,20.6519,1.29008,10,9
3.36744,5.18937,-1.20248,21,2
14.0921,21.7082,2.26431,24,10
3.79458,5.84315,-1.10349,17,3
17.0588,26.2582,3.84473,12,11
4.32255,6.65361,-0.974224,15,4
20.5989,31.6952,5.98706,11,12
5.05102,7.76898,-0.810723,16,5
21.1332,32.4926,7.53428,38,13
6.0671,9.3247,-0.583023,37,6
22.2824,34.2464,9.43265,14,14
7.67535,11.7919,-0.24559,78,7
20.4588,31.4196,10.0463,9,15
0.295713,0.452931,-0.144939,14,0
10.3379,15.8282,0.32999,22,8
0.330435,0.505728,-0.13947,26,1
13.2952,20.3482,1.27386,2,9
3.37282,5.1601,-1.19828,21,2
14.3341,21.9215,2.2915,30,10
3.80745,5.82061,-1.10161,17,3
17.2132,26.3045,3.85985,25,11
4.34459,6.63924,-0.974224,17,4
21.6289,33.0398,6.25456,6,12
5.06257,7.73052,-0.808457,16,5
21.3215,32.5455,7.56291,30,13
6.08814,9.28949,-0.582081,37,6
21.9386,33.4747,9.24009,13,14
7.67274,11.7029,-0.244264,78,7
20.6698,31.5148,10.0986,28,15
0.290844,0.442264,-0.141833,14,0
10.309,15.6702,0.327407,22,8
0.328897,0.499746,-0.13812,13,1
13.2739,20.1616,1.26506,9,9
3.38991,5.14889,-1.19828,21,2
14.4593,21.9537,2.29987,24,10
3.81695,5.79311,-1.0988,21,3
17.143,26.0086,3.82475,12,11
4.36446,6.61906,-0.973492,17,4
20.6031,31.2344,5.92636,38,12
5.0794,7.70039,-0.807062,16,5
21.2066,32.137,7.48429,30,13
6.0947,9.23258,-0.579778,37,6
21.1039,31.9571,8.84148,25,14
7.67496,11.6176,-0.243042,97,7
20.669,31.2748,10.0448,37,15
0.279581,0.421921,-0.135621,15,0
10.3018,15.5408,0.325452,22,8
0.315561,0.475858,-0.131821,14,1
13.565,20.448,1.286,2,9
3.40352,5.13048,-1.19675,21,2
13.5774,20.4588,2.14821,44,10
3.83169,5.77152,-1.09723,17,3
17.0426,25.6608,3.78234,12,11
4.37875,6.59056,-0.971543,17,4
20.7306,31.1903,5.93168,38,12
5.09522,7.66602,-0.805319,16,5
21.4632,32.2803,7.53505,30,13
6.10809,9.18298,-0.577998,37,6
21.1829,31.8346,8.82798,25,14
7.68666,11.5475,-0.242135,97,7
20.8369,31.2909,10.0732,18,15
0.321815,0.481995,-0.155291,12,0
10.3027,15.4249,0.323777,28,8
0.330212,0.494197,-0.13722,13,1
14.6086,21.8551,1.37769,27,9
3.41923,5.1153,-1.19599,21,2
15.2014,22.7333,2.3926,13,10
3.84522,5.74826,-1.09535,17,3
17.2424,25.7662,3.80671,24,11
4.38627,6.55214,-0.96813,15,4
20.9537,31.2884,5.96422,38,12
5.11885,7.64067,-0.804622,15,5
21.4883,32.0746,7.50452,30,13
6.12565,9.14003,-0.576638,37,6
21.2397,31.6795,8.80548,51,14
7.70688,11.4907,-0.241506,97,7
22.5584,33.6211,10.8487,22,15
0.291222,0.432731,-0.139762,14,0
10.3006,15.3059,0.322032,22,8
0.321052,0.476876,-0.132721,28,1
14.4974,21.5256,1.36011,20,9
3.42589,5.08483,-1.19179,19,2
14.6198,21.6911,2.28854,24,10
3.86516,5.73249,-1.09504,16,3
17.5387,26.012,3.85205,12,11
4.39691,6.51868,-0.965449,16,4
21.9014,32.4579,6.20169,18,12
5.13434,7.60624,-0.802879,13,5
21.6662,32.0852,7.52551,30,13
6.14457,9.09601,-0.575277,37,6
21.24,31.4303,8.75779,12,14
7.67864,11.3627,-0.239377,97,7
21.1933,31.3495,10.1395,18,15
0.284057,0.418921,-0.135621,15,0
10.3129,15.2035,0.320671,20,8
0.349059,0.514397,-0.143519,12,1
13.8089,20.3421,1.28851,4,9
3.43479,5.05984,-1.18874,19,2
14.6955,21.64,2.28854,42,10
3.87516,5.70426,-1.09223,16,3
20.6421,30.3739,4.50917,14,11
4.41854,6.49924,-0.964962,13,4
21.9491,32.2729,6.18167,11,12
5.13304,7.54454,-0.798347,16,5
22.7388,33.4215,7.85751,16,13
6.16955,9.0646,-0.574649,37,6
21.2201,31.1659,8.70471,12,14
7.68984,11.2898,-0.238435,99,7
21.3864,31.3866,10.1768,19,15
0.27251,0.398737,-0.12941,15,0
10.2689,15.0254,0.317669,20,8
0.337654,0.493871,-0.13812,13,1
15.2046,22.2308,1.4115,28,9
3.45332,5.04722,-1.18874,19,2
15.4938,22.6366,2.39992,26,10
3.88934,5.68024,-1.09035,16,3
17.5012,25.5598,3.80354,24,11
4.43334,6.47231,-0.963255,17,4
22.0013,32.1081,6.16477,23,12
5.15597,7.52165,-0.797824,16,5
21.8452,31.8564,7.50833,30,13
6.18578,9.01722,-0.573079,37,6
21.1093,30.7602,8.61293,12,14
7.70318,11.225,-0.237632,99,7
21.6084,31.4758,10.2301,9,15
0.286975,0.416927,-0.135621,15,0
10.2543,14.8923,0.315609,24,8
0.337165,0.48948,-0.13722,13,1
15.583,22.6227,1.43966,22,9
3.47115,5.03735,-1.18912,19,2
15.5722,22.59,2.40044,13,10
3.89918,5.6543,-1.08785,17,3
17.6974,25.6538,3.8267,12,11
4.45253,6.4519,-0.962524,15,4
22.0695,31.9797,6.15413,17,12
5.1639,7.47992,-0.795209,16,5
21.9642,31.8032,7.51291,30,13
6.1884,8.95722,-0.570567,37,6
21.1081,30.5409,8.57108,37,14
7.73467,11.1911,-0.237457,99,7
21.8522,31.6058,10.2958,19,15
0.308244,0.444498,-0.144939,14,0
10.2604,14.7958,0.314283,24,8
0.34323,0.494763,-0.13902,13,1
14.8603,21.413,1.36597,2,9
3.48199,5.01553,-1.18683,19,2
15.6987,22.6042,2.40776,13,10
3.91679,5.63971,-1.08753,18,3
18.206,26.2047,3.91786,12,11
4.45577,6.41102,-0.958624,15,4
21.8078,31.3656,6.05057,28,12
5.17747,7.44385,-0.793292,16,5
28.4089,40.8446,9.67096,23,13
6.19183,8.89894,-0.568159,37,6
21.2304,30.5011,8.57963,50,14
7.73598,11.1099,-0.236306,99,7
21.5748,30.9729,10.1141,9,15
0.298655,0.427635,-0.139762,14,0
10.257,14.6812,0.312607,30,8
0.333791,0.47759,-0.134521,14,1
15.601,22.3137,1.42689,12,9
3.48286,4.98143,-1.18149,23,2
16.2326,23.2084,2.47784,77,10
3.93531,5.62439,-1.08722,17,3
18.3542,26.2223,3.93004,25,11
4.47471,6.39054,-0.957893,17,4
21.7505,31.0514,6.00458,22,12
5.20326,7.42828,-0.793466,15,5
22.1429,31.5999,7.50032,7,13
6.21827,8.87073,-0.56774,37,6
21.2909,30.3614,8.56119,25,14
7.73108,11.0206,-0.234979,99,7
21.6285,30.8199,10.0888,28,15
0.277913,0.39499,-0.12941,15,0
10.2702,14.5913,0.311456,22,8
0.335456,0.476422,-0.134521,14,1
15.8697,22.5301,1.44426,27,9
3.49796,4.96603,-1.18073,19,2
16.4202,23.303,2.49405,28,10
3.93899,5.58802,-1.08284,16,3
20.0244,28.3969,4.2664,13,11
4.48897,6.36353,-0.956187,16,4
21.8417,30.9511,5.99989,5,12
5.20734,7.37914,-0.790154,16,5
22.2135,31.4663,7.48696,30,13
6.23653,8.83102,-0.566589,30,6
21.372,30.2519,8.55129,37,14
7.74642,10.9609,-0.234281,99,7
21.7337,30.7411,10.0877,28,15
0.301633,0.42554,-0.139762,14,0
10.2968,14.5211,0.310723,22,8
0.339372,0.478427,-0.135421,13,1
15.9482,22.4746,1.44426,25,9
3.51527,4.95379,-1.18073,26,2
18.0446,25.4194,2.72728,16,10
3.9539,5.56779,-1.08159,15,3
18.3679,25.8557,3.89421,25,11
4.51001,6.3462,-0.955943,17,4
22.0309,30.989,6.0221,22,12
5.22267,7.3463,-0.788585,16,5
22.2026,31.219,7.44651,30,13
6.243,8.77502,-0.564391,33,6
22.0345,30.9598,8.77309,12,14
7.75563,10.8931,-0.233408,100,7
21.9585,30.8302,10.1421,9,15
0.303117,0.424484,-0.139762,14,0
10.316,14.4412,0.30978,20,8
0.343306,0.48041,-0.13632,13,1
15.4737,21.6454,1.39444,9,9
3.53597,4.94628,-1.18187,21,2
16.9128,23.6497,2.54373,36,10
3.96411,5.5411,-1.07909,16,3
22.1907,31.0071,4.68173,15,11
4.52983,6.32719,-0.955456,16,4
22.2056,31.0051,6.04025,22,12
5.24248,7.31993,-0.787714,18,5
30.3827,42.4069,10.1404,13,13
6.2608,8.73532,-0.56324,37,6
7.77146,10.8351,-0.232745,100,7
22.1302,30.8429,10.1716,19,15
0.304597,0.423423,-0.139762,14,0
10.3161,14.3353,0.308279,20,8
0.342704,0.476046,-0.135421,13,1
15.9005,22.0791,1.42595,27,9
3.54862,4.92754,-1.18034,21,2
16.944,23.5194,2.53606,29,10
3.98343,5.52723,-1.07909,16,3
18.5421,25.7188,3.89299,12,11
4.53911,6.29363,-0.952775,17,4
22.5472,31.2509,6.10345,17,12
5.26334,7.29512,-0.787016,13,5
30.7799,42.646,10.2232,28,13
6.27956,8.69722,-0.562193,27,6
22.1931,30.7263,8.7506,12,14
7.77996,10.7674,-0.231873,100,7
22.24,30.7686,10.1726,19,15
0.297004,0.409843,-0.135621,15,0
10.325,14.2425,0.307058,20,8
0.335211,0.462226,-0.131821,14,1
15.7675,21.7341,1.40721,23,9
3.55312,4.89764,-1.17615,21,2
17.947,24.7291,2.67324,32,10
4.00038,5.51009,-1.07846,16,3
22.4137,30.8611,4.6832,15,11
4.54938,6.26169,-0.950337,16,4
22.7212,31.2615,6.12097,23,12
5.26417,7.24286,-0.783356,16,5
30.9009,42.5002,10.214,28,13
6.29343,8.65264,-0.560727,30,6
35.8042,49.208,14.0495,31,14
7.77866,10.6868,-0.230721,100,7
0.284764,0.39008,-0.12941,15,0
10.3263,14.1402,0.305627,19,8
0.350617,0.479936,-0.13722,13,1
15.6934,21.4817,1.39423,26,9
3.56325,4.8757,-1.17386,19,2
18.333,25.0765,2.71769,40,10
4.01143,5.48493,-1.07627,18,3
20.1043,27.4791,4.18061,27,11
4.57121,6.24577,-0.950337,16,4
22.8504,31.2211,6.12785,23,12
5.27883,7.20997,-0.781787,16,5
31.0491,42.3921,10.214,28,13
6.2988,8.59678,-0.558529,33,6
36.1601,49.3342,14.1215,31,14
7.78687,10.6238,-0.229918,100,7
0.299858,0.40776,-0.135621,15,0
10.3293,14.0462,0.304335,19,8
0.361445,0.491328,-0.140819,13,1
15.6298,21.2385,1.38198,24,9
3.57442,4.85533,-1.17195,21,2
18.1747,24.6787,2.68143,40,10
4.02256,5.46206,-1.07439,16,3
20.2354,27.4667,4.18889,13,11
4.58719,6.22419,-0.949362,16,4
23.0424,31.254,6.15007,11,12
5.29805,7.18348,-0.780915,16,5
31.4202,42.6018,10.2896,29,13
6.29526,8.53245,-0.555703,38,6
36.9472,50.0591,14.364,33,14
7.80134,10.566,-0.229255,100,7
28.252,38.2501,12.7417,17,15
0.301209,0.406763,-0.135621,15,0
10.345,13.9651,0.303358,19,8
0.351555,0.474407,-0.13632,13,1
15.5302,20.9496,1.3667,24,9
3.59167,4.84502,-1.17233,19,2
18.279,24.6487,2.68475,32,10
4.02984,5.43212,-1.07126,16,3
22.3162,30.0707,4.59789,15,11
4.59469,6.18901,-0.946437,16,4
23.9122,32.1979,6.35218,6,12
5.31234,7.15308,-0.779521,16,5
31.6097,42.547,10.3029,14,13
6.31072,8.49119,-0.554447,38,6
32.0814,43.1504,12.4137,70,14
7.82624,10.5227,-0.228906,100,7
29.0541,39.0502,13.0419,17,15
0.346519,0.464553,-0.155291,12,0
10.3302,13.844,0.301508,22,8
0.360203,0.482546,-0.13902,13,1
15.3535,20.5608,1.34482,23,9
3.60387,4.82616,-1.1708,21,2
18.3649,24.5847,2.68475,64,10
4.04759,5.41644,-1.07095,18,3
20.9377,28.0084,4.2937,14,11
4.59724,6.1475,-0.942538,15,4
23.305,31.1525,6.16195,5,12
5.33012,7.12492,-0.778475,16,5
32.5885,43.5461,10.5723,15,13
6.32117,8.44353,-0.552772,38,6
32.0624,42.812,12.3485,23,14
7.84015,10.4649,-0.228243,100,7
29.1718,38.9238,13.0336,17,15
0.306362,0.407739,-0.136656,14,0
10.3533,13.7743,0.300775,26,8
0.357201,0.475056,-0.13722,13,1
14.9725,19.9053,1.30536,18,9
3.61445,4.80351,-1.16851,19,2
18.5776,24.6892,2.70322,65,10
4.06053,5.39438,-1.06939,18,3
21.3578,28.3633,4.35951,14,11
4.61389,6.12507,-0.941563,15,4
24.9175,33.0666,6.55773,28,12
5.3406,7.08465,-0.776209,16,5
32.7029,43.3668,10.5578,15,13
6.34846,8.41552,-0.552458,38,6
7.85253,10.4055,-0.227544,100,7
29.0921,38.5365,12.9378,35,15
0.305522,0.403533,-0.135621,15,0
10.3783,13.7027,0.300042,19,8
0.368355,0.48617,-0.140819,13,1
15.0647,19.8758,1.30704,24,9
3.62373,4.77928,-1.16584,21,2
18.804,24.8004,2.72292,40,10
4.08028,5.37947,-1.06939,20,3
20.0985,26.4884,4.08262,13,11
4.63391,6.10496,-0.941075,15,4
25.6872,33.8293,6.72762,7,12
5.34725,7.03964,-0.77342,15,5
32.8783,43.2685,10.5632,15,13
6.3708,8.38107,-0.551726,38,6
32.1722,42.3239,12.2738,22,14
7.84341,10.3146,-0.226183,92,7
28.9863,38.1052,12.8286,17,15
0.351526,0.460776,-0.155291,12,0
10.38,13.601,0.298646,22,8
0.368951,0.483267,-0.140369,13,1
15.1473,19.8406,1.30819,18,9
3.64754,4.77596,-1.16813,21,2
18.9553,24.8104,2.73164,49,10
4.09157,5.35349,-1.0672,18,3
20.1954,26.4145,4.08262,13,11
4.64917,6.08086,-0.939856,15,4
24.5378,32.0825,6.39723,6,12
5.35848,7.00353,-0.771503,15,5
33.2726,43.4715,10.641,16,13
6.36724,8.31596,-0.5489,38,6
32.161,42.004,12.2135,22,14
7.87329,10.2792,-0.226009,100,7
28.4859,37.1773,12.5496,33,15
0.322454,0.419775,-0.141833,14,0
10.3556,13.4761,0.296656,28,8
0.351549,0.457321,-0.133171,14,1
15.1156,19.6635,1.29982,22,9
3.66455,4.7654,-1.16851,21,2
18.8868,24.5516,2.71002,32,10
4.10207,5.3305,-1.06532,18,3
20.8472,27.0804,4.19621,13,11
4.66083,6.0544,-0.93815,15,4
24.8912,32.3218,6.46137,20,12
5.37194,6.9731,-0.770108,15,5
33.0211,42.8478,10.5151,15,13
6.37648,8.27107,-0.547329,38,6
7.89146,10.2325,-0.225555,92,7
29.1766,37.8183,12.7986,34,15
0.312025,0.403422,-0.136656,14,0
10.3439,13.369,0.29505,33,8
0.362606,0.468481,-0.13677,13,1
15.0619,19.4527,1.28935,22,9
3.67155,4.74016,-1.16546,23,2
18.829,24.3093,2.69015,64,10
4.11368,5.30906,-1.06375,21,3
21.9925,28.373,4.40777,14,11
4.67099,6.02397,-0.935957,16,4
25.1394,32.4096,6.49641,27,12
5.39503,6.95273,-0.769934,15,5
6.39062,8.22984,-0.546073,38,6
7.90259,10.1733,-0.224857,92,7
29.5526,38.0304,12.9052,17,15
0.320626,0.411419,-0.139762,14,0
10.3498,13.2758,0.293829,33,8
0.373908,0.479443,-0.140369,13,1
15.0496,19.2903,1.28223,20,9
3.68044,4.71584,-1.16279,23,2
18.9683,24.3045,2.6973,64,10
4.13797,5.30017,-1.06501,20,3
20.9649,26.8435,4.18207,13,11
4.6857,5.99743,-0.934494,22,4
32.9447,42.1522,8.47343,13,12
5.40698,6.91564,-0.768016,15,5
6.40843,8.19063,-0.545027,38,6
7.91025,10.1065,-0.224019,93,7
0.298271,0.379852,-0.12941,15,0
10.3477,13.1733,0.292398,27,8
0.370847,0.47194,-0.13857,13,1
14.9918,19.0717,1.27135,15,9
3.69445,4.69987,-1.16203,23,2
18.9981,24.1596,2.68893,72,10
4.14515,5.26945,-1.06188,21,3
21.084,26.793,4.18621,27,11
4.7052,5.97709,-0.934007,15,4
25.0696,31.8349,6.41788,13,12
5.41753,6.87951,-0.766099,13,5
34.0537,43.2279,10.6968,16,13
6.42091,8.14781,-0.543666,35,6
40.5983,51.4988,15.1397,40,14
7.92371,10.0476,-0.223356,100,7
32.0226,40.5914,13.8535,19,15
0.313975,0.396992,-0.135621,15,0
10.3105,13.032,0.290059,32,8
0.372492,0.470643,-0.13857,13,1
14.9616,18.8971,1.26318,18,9
3.71205,4.68849,-1.16241,23,2
19.0588,24.0635,2.68562,16,10
4.15125,5.23946,-1.05875,16,3
21.1466,26.6803,4.18012,27,11
4.71617,5.94819,-0.932057,16,4
33.8912,42.7294,8.638,13,12
5.43903,6.85743,-0.76575,15,5
6.43317,8.10501,-0.542305,38,6
40.6736,51.2255,15.101,39,14
7.93137,9.9854,-0.222588,100,7
32.6737,41.1207,14.073,19,15
0.329803,0.414026,-0.141833,14,0
10.3497,12.9881,0.289884,26,8
0.359556,0.451053,-0.133171,14,1
14.8743,18.6527,1.25031,16,9
3.7284,4.6755,-1.16241,23,2
19.129,23.9797,2.6837,24,10
4.15597,5.20795,-1.05531,16,3
21.3275,26.7165,4.19742,27,11
4.73195,5.92549,-0.931082,16,4
25.2419,31.5974,6.40537,6,12
5.45547,6.82906,-0.764704,13,5
36.9775,46.2712,11.5134,20,13
6.4502,8.06847,-0.541363,35,6
35.94,44.9407,13.2852,25,14
7.94619,9.93268,-0.22203,100,7
29.4879,36.8465,12.6454,16,15
0.3385,0.421913,-0.144939,14,0
10.3487,12.8942,0.288593,34,8
0.375768,0.468031,-0.13857,13,1
14.8393,18.4761,1.24193,18,9
3.73732,4.65328,-1.16012,21,2
20.6415,25.6912,2.88329,17,10
4.17412,5.19342,-1.05531,16,3
21.3273,26.5259,4.17914,13,11
4.74638,5.9012,-0.929863,17,4
34.3719,42.7195,8.6843,13,12
5.47428,6.80377,-0.764007,15,5
40.5437,50.3721,12.569,25,13
6.46705,8.0319,-0.540421,38,6
36.2189,44.9668,13.3301,26,14
7.95698,9.87529,-0.221366,93,7
29.6018,36.7253,12.6392,16,15
0.332686,0.411713,-0.141833,14,0
10.3484,12.802,0.287336,30,8
0.365147,0.451563,-0.134071,14,1
14.7919,18.286,1.23262,17,9
3.74366,4.62799,-1.15707,21,2
21.0531,26.017,2.92808,36,10
4.18974,5.17574,-1.05468,15,3
23.3312,28.8116,4.55206,14,11
4.7557,5.87071,-0.92767,16,4
34.0234,41.9854,8.55916,13,12
5.48545,6.76914,-0.762264,15,5
40.8899,50.4408,12.6216,25,13
6.48372,7.99532,-0.539479,35,6
36.4124,44.8855,13.3436,26,14
7.97376,9.82572,-0.220878,100,7
33.6943,41.5052,14.3246,20,15
0.319488,0.392569,-0.135621,15,0
10.3412,12.7022,0.285905,30,8
0.366721,0.450285,-0.134071,14,1
14.761,18.1181,1.22477,19,9
3.75731,4.61185,-1.1563,21,2
21.1765,25.9835,2.93262,9,10
4.20404,5.15649,-1.05374,16,3
23.5671,28.8961,4.57839,15,11
4.76989,5.84639,-0.926451,15,4
34.1847,41.8847,8.56291,13,12
5.49016,6.7268,-0.759649,15,5
37.0006,45.3188,11.3722,19,13
6.49896,7.95717,-0.538432,35,6
36.5936,44.7883,13.3526,26,14
7.98143,9.76531,-0.220145,75,7
38.8965,47.5731,16.4656,29,15
0.330512,0.40352,-0.139762,14,0
10.3443,12.6248,0.284893,32,8
0.365663,0.446117,-0.133171,14,1
14.7621,18.0037,1.22016,19,9
3.76183,4.58788,-1.15325,23,2
21.814,26.5947,3.00931,28,10
4.21144,5.13257,-1.05155,13,3
22.1514,26.9868,4.28688,14,11
4.7832,5.82524,-0.925476,15,4
34.3838,41.8596,8.57981,13,12
5.50114,6.6972,-0.758255,15,5
37.063,45.1052,11.3478,19,13
6.51378,7.92437,-0.537595,35,6
33.7834,41.0847,12.2801,23,14
7.99175,9.71548,-0.219586,84,7
0.324543,0.393422,-0.136656,14,0
10.3336,12.5223,0.283392,35,8
0.374661,0.453855,-0.13587,13,1
14.6837,17.7811,1.20854,21,9
3.77782,4.57472,-1.15325,21,2
21.8217,26.4154,2.99763,28,10
4.22178,5.1087,-1.04968,16,3
22.7868,27.5642,4.3912,14,11
4.79085,5.7932,-0.923038,13,4
36.5142,44.138,9.07289,14,12
5.52195,6.67488,-0.757906,15,5
36.9924,44.7003,11.2783,18,13
6.51338,7.86774,-0.535292,31,6
7.99882,9.65519,-0.218853,85,7
34.2853,41.3702,14.3971,20,15
0.325914,0.392287,-0.136656,14,0
10.3504,12.4539,0.282659,34,8
0.37126,0.44655,-0.134071,14,1
14.6346,17.5962,1.19944,19,9
3.79251,4.55999,-1.15287,21,2
21.3467,25.6575,2.92007,9,10
4.2358,5.08938,-1.04874,16,3
26.0939,31.341,5.00737,16,11
4.79961,5.76272,-0.920845,15,4
36.6452,43.983,9.06726,14,12
5.53373,6.6418,-0.756338,15,5
38.5284,46.2268,11.6974,21,13
6.5293,7.83115,-0.53435,35,6
8.01326,9.60417,-0.21833,100,7
34.5161,41.3541,14.4333,20,15
0.339678,0.405963,-0.141833,14,0
10.3374,12.3502,0.281123,34,8
0.377821,0.451228,-0.13587,13,1
14.6651,17.5082,1.19692,16,9
3.79579,4.53168,-1.14905,21,2
21.0625,25.1369,2.86917,8,10
4.25481,5.07608,-1.04905,17,3
26.0156,31.0262,4.97154,33,11
4.80822,5.73224,-0.918651,15,4
40.2243,47.9375,9.91138,18,12
5.54664,6.61023,-0.754943,15,5
38.6971,46.101,11.6996,21,13
6.5232,7.76854,-0.531629,38,6
34.2544,40.7794,12.2954,23,14
8.012,9.53481,-0.217387,95,7
0.328645,0.390002,-0.136656,14,0
10.3327,12.2575,0.279832,32,8
0.381906,0.452886,-0.13677,13,1
14.6952,17.4203,1.19441,14,9
3.80906,4.5154,-1.14829,21,2
21.1578,25.0724,2.87021,8,10
4.26868,5.05667,-1.04811,21,3
26.1327,30.9458,4.97324,33,11
4.82435,5.71087,-0.91792,16,4
36.3164,42.9747,8.91145,14,12
5.55411,6.57008,-0.752677,15,5
6.54899,7.74419,-0.531524,35,6
34.3399,40.5926,12.2751,23,14
8.02973,9.48847,-0.216968,100,7
0.330072,0.388795,-0.136656,14,0
10.3353,12.1741,0.27875,37,8
0.393576,0.463433,-0.140369,13,1
14.6848,17.2852,1.18865,16,9
3.8205,4.49542,-1.14676,21,2
23.7829,27.9744,3.21239,20,10
4.28206,5.03497,-1.04686,20,3
26.6804,31.3715,5.0566,17,11
4.83783,5.68644,-0.916701,13,4
37.0193,43.4976,9.04661,14,12
5.56538,6.53699,-0.751108,13,5
6.57733,7.72014,-0.531524,31,6
34.52,40.5036,12.2864,23,14
8.03946,9.43298,-0.21634,95,7
36.7997,43.1632,15.1984,21,15
0.343981,0.402324,-0.141833,14,0
10.3448,12.0951,0.277807,28,8
0.375002,0.438296,-0.133171,14,1
14.6815,17.1595,1.18353,14,9
3.83999,4.48654,-1.14791,19,2
24.9779,29.1731,3.36003,11,10
4.29319,5.01249,-1.0453,18,3
26.7409,31.2102,5.04637,17,11
4.85476,5.66415,-0.91597,13,4
36.9807,43.1461,9.0003,14,12
5.58298,6.51148,-0.750411,13,5
6.58603,7.67591,-0.530059,28,6
8.04498,9.373,-0.215607,100,7
37.6423,43.8406,15.4831,22,15
0.345383,0.401121,-0.141833,14,0
10.3561,12.0274,0.277039,25,8
0.381541,0.442956,-0.134971,14,1
14.6722,17.0279,1.17798,16,9
3.8505,4.46716,-1.14638,19,2
23.6172,27.3897,3.1641,10,10
4.31108,4.99972,-1.04561,18,3
26.0793,30.2345,4.90256,16,11
4.85925,5.63149,-0.913289,15,4
5.59786,6.4829,-0.749365,15,5
37.9769,43.9811,11.2951,19,13
6.5997,7.64043,-0.529117,31,6
39.4404,45.6438,13.9267,30,14
8.04496,9.30704,-0.214734,95,7
0.379611,0.437927,-0.155291,12,0
10.3784,11.9685,0.276516,30,8
0.390746,0.450454,-0.13767,13,1
14.6556,16.8891,1.17191,13,9
3.86015,4.44843,-1.14485,20,2
23.8999,27.5325,3.18973,20,10
4.32721,4.98315,-1.0453,17,3
25.979,29.9065,4.86405,15,11
4.87107,5.6055,-0.911826,15,4
5.60608,6.44678,-0.747448,15,5
53.458,61.4748,15.8356,43,13
6.60535,7.59324,-0.527442,38,6
8.05377,9.25175,-0.214106,100,7
37.8003,43.4078,15.423,22,15
0.335468,0.384148,-0.136656,14,0
10.3793,11.8855,0.275434,33,8
0.389752,0.446152,-0.13677,13,1
14.6382,16.7506,1.16584,16,9
3.86997,4.42686,-1.14295,21,2
24.0596,27.5122,3.19757,30,10
4.34284,4.96428,-1.04467,18,3
36.3435,41.5441,6.7774,37,11
4.88668,5.58398,-0.911095,15,4
37.9171,43.3124,9.11731,14,12
5.61542,6.41218,-0.745705,15,5
6.62787,7.56297,-0.527023,38,6
8.07547,9.21155,-0.213827,86,7
37.8778,43.1913,15.393,21,15
0.318946,0.362666,-0.12941,15,0
10.3779,11.7963,0.274247,28,8
0.38366,0.435943,-0.134071,14,1
14.6402,16.6294,1.16113,17,9
3.8828,4.41038,-1.14218,21,2
22.6438,25.7115,2.99746,9,10
4.34578,4.93279,-1.04123,20,3
36.4168,41.3213,6.76277,37,11
4.90843,5.56752,-0.911339,15,4
37.3308,42.3286,8.93898,14,12
5.62459,6.3776,-0.743961,15,5
38.7911,43.9689,11.3974,19,13
6.64894,7.53379,-0.526604,28,6
39.4623,44.6983,13.7657,28,14
8.10123,9.1729,-0.213617,96,7
38.0563,43.0754,15.4013,21,15
0.384252,0.43386,-0.155291,12,0
10.3938,11.7316,0.273584,24,8
0.387764,0.437518,-0.134971,14,1
14.6411,16.5139,1.15662,12,9
3.89948,4.39827,-1.14256,23,2
24.1216,27.1974,3.18049,30,10
4.35904,4.91316,-1.04029,22,3
4.91993,5.54144,-0.909877,15,4
38.5146,43.3649,9.18615,14,12
5.63888,6.34899,-0.742916,15,5
39.033,43.933,11.4234,39,13
6.64999,7.48217,-0.524616,28,6
8.10928,9.11766,-0.212989,100,7
38.1525,42.8816,15.3795,21,15
0.352331,0.395032,-0.141833,14,0
10.3961,11.652,0.272572,28,8
0.376313,0.421623,-0.130472,14,1
14.6029,16.3554,1.14909,12,9
3.9148,4.38463,-1.14256,23,2
24.219,27.1161,3.18084,40,10
4.37221,4.89349,-1.03935,21,3
37.9716,42.4839,6.99628,41,11
4.92601,5.50944,-0.907439,15,4
38.6658,43.2301,9.18615,14,12
5.66366,6.33224,-0.743264,15,5
39.0055,43.5946,11.3707,19,13
6.66541,7.44701,-0.523778,31,6
8.10637,9.05057,-0.212082,96,7
38.0956,42.518,15.2967,21,15
0.353708,0.393799,-0.141833,14,0
10.4087,11.5844,0.271839,28,8
0.385598,0.429003,-0.133171,14,1
14.5584,16.1915,1.14113,15,9
3.92484,4.3651,-1.14104,21,2
23.4728,26.0966,3.07085,39,10
4.38662,4.87526,-1.03873,18,3
4.94388,5.49074,-0.907195,16,4
38.7873,43.0626,9.17926,14,12
5.6804,6.30651,-0.742567,15,5
39.2362,43.5457,11.3936,19,13
6.68468,7.41628,-0.523255,31,6
8.11916,9.00144,-0.211593,96,7
38.4509,42.6142,15.3795,21,15
0.323979,0.358177,-0.12941,15,0
10.4142,11.5094,0.270931,27,8
0.387094,0.427654,-0.133171,14,1
14.5356,16.0587,1.13517,16,9
3.93742,4.34846,-1.14027,23,2
23.8219,26.2995,3.10449,19,10
4.39964,4.85553,-1.03779,18,3
29.4791,32.5223,5.38955,19,11
4.95368,5.46315,-0.905489,15,4
5.6823,6.26451,-0.739952,13,5
6.70113,7.38255,-0.522522,31,6
8.12208,8.94485,-0.210895,86,7
38.4101,42.2863,15.3071,21,15
0.34344,0.377039,-0.136656,14,0
10.4226,11.4423,0.270163,22,8
0.39901,0.437892,-0.13677,13,1
14.4921,15.8987,1.12742,18,9
3.95125,4.33324,-1.13989,23,2
23.9538,26.2604,3.10972,29,10
4.41039,4.83508,-1.03653,18,3
4.97445,5.44963,-0.905977,16,4
39.0236,42.7364,9.16612,14,12
5.69742,6.23728,-0.739081,15,5
6.7121,7.34554,-0.521476,28,6
8.13032,8.89136,-0.210301,77,7
38.4793,42.0664,15.276,21,15
0.342077,0.37305,-0.135621,15,0
10.4152,11.3543,0.268942,25,8
0.39263,0.427881,-0.134071,14,1
14.4408,15.7317,1.11915,15,9
3.96161,4.31578,-1.13875,23,2
23.8467,25.9695,3.08462,19,10
4.41521,4.80656,-1.03372,18,3
30.3686,33.0488,5.51093,20,11
4.98135,5.41908,-0.903783,17,4
39.2849,42.722,9.1924,14,12
5.70161,6.19829,-0.736815,15,5
6.71201,7.29414,-0.519487,35,6
8.15182,8.85263,-0.210057,96,7
39.0081,42.3468,15.4272,22,15
0.346064,0.374632,-0.136656,14,0
10.4222,11.2826,0.268104,24,8
0.394122,0.426508,-0.134071,14,1
14.402,15.58,1.11193,16,9
3.97074,4.29402,-1.13684,21,2
23.7713,25.6976,3.06265,19,10
4.43548,4.79324,-1.03434,23,3
30.6186,33.0883,5.53531,20,11
4.99349,5.39437,-0.902564,17,4
39.4338,42.5846,9.1924,14,12
5.72457,6.17981,-0.736989,15,5
6.72105,7.25045,-0.518126,28,6
8.15004,8.78893,-0.209219,97,7
39.1662,42.2216,15.4313,22,15
0.360527,0.387566,-0.141833,14,0
10.4199,11.1975,0.266987,28,8
0.398338,0.427913,-0.134971,28,1
14.3923,15.4555,1.1068,16,9
3.98169,4.27582,-1.1357,23,2
23.6422,25.3798,3.03459,19,10
4.44545,4.77051,-1.03278,20,3
33.6662,36.1152,6.06227,23,11
5.00105,5.36297,-0.900371,16,4
5.73387,6.14668,-0.73542,12,5
6.73405,7.21381,-0.517184,31,6
8.16582,8.74146,-0.208801,86,7
39.4077,42.171,15.4655,22,15
0.33018,0.352468,-0.12941,15,0
10.4206,11.1202,0.26601,28,8
0.402495,0.429364,-0.13587,13,1
14.367,15.3207,1.10073,16,9
3.98853,4.2533,-1.13341,23,2
23.3994,24.944,2.99223,18,10
4.45397,4.74632,-1.0309,20,3
5.01566,5.34114,-0.89964,17,4
40.008,42.5893,9.25498,15,12
5.74848,6.11937,-0.734549,13,5
6.75645,7.18735,-0.516975,31,6
8.1908,8.70708,-0.208661,96,7
39.5984,42.0796,15.4826,22,15
0.349968,0.370987,-0.136656,14,0
10.4265,11.0488,0.265172,33,8
0.395965,0.419454,-0.133171,14,1
14.3546,15.2062,1.09591,15,9
4.01009,4.24649,-1.13531,21,2
23.2879,24.6521,2.96696,18,10
4.46101,4.72069,-1.02871,17,3
30.3173,32.0709,5.4188,19,11
5.03607,5.32736,-0.900127,17,4
5.76296,6.09203,-0.733677,13,5
6.76914,7.15066,-0.516033,28,6
8.21275,8.67261,-0.208486,100,7
0.332572,0.350213,-0.12941,15,0
10.4382,10.9881,0.264544,30,8
0.402723,0.423789,-0.134971,14,1
14.3252,15.0745,1.08984,16,9
4.02416,4.23317,-1.13531,21,2
23.1581,24.3524,2.94011,18,10
4.47392,4.70301,-1.02809,20,3
38.1717,40.1123,6.79885,37,11
5.0455,5.302,-0.898665,16,4
5.779,6.06855,-0.733154,13,5
6.77904,7.11372,-0.514986,28,6
8.21525,8.61783,-0.207823,100,7
0.349751,0.365865,-0.135621,15,0
10.4318,10.9086,0.263462,31,8
0.392002,0.409778,-0.130922,14,1
14.3005,14.949,1.08419,17,9
4.02731,4.20846,-1.13226,21,2
23.0982,24.1287,2.92233,18,10
4.49222,4.691,-1.02871,21,3
38.5572,40.2493,6.8437,38,11
5.04795,5.26947,-0.895983,13,4
40.4407,42.2006,9.25748,15,12
5.79082,6.04073,-0.732108,13,5
6.77079,7.05805,-0.512578,38,6
8.2244,8.57033,-0.207335,96,7
0.367037,0.381407,-0.141833,14,0
10.4471,10.8523,0.262938,24,8
0.393359,0.408475,-0.130922,14,1
14.2905,14.8396,1.07969,15,9
4.03307,4.18659,-1.12997,21,2
23.0219,23.8899,2.90263,18,10
4.51187,4.68034,-1.02965,18,3
39.4649,40.9242,6.98068,41,11
5.06402,5.25128,-0.89574,15,4
40.0208,41.4862,9.12983,14,12
5.80252,6.01289,-0.731062,13,5
6.80248,7.04418,-0.513206,31,6
8.23749,8.5272,-0.206951,86,7
0.354986,0.366189,-0.136656,14,0
10.4562,10.7824,0.26217,28,8
0.408423,0.421018,-0.135421,13,1
14.3112,14.7474,1.07697,15,9
4.04502,4.16685,-1.12883,21,2
22.8886,23.578,2.87492,17,10
4.51523,4.6496,-1.02652,17,3
5.07861,5.2261,-0.894765,15,4
5.81446,5.97914,-0.729668,13,5
6.80998,6.99797,-0.511741,35,6
8.24646,8.47115,-0.206357,96,7
0.369823,0.378707,-0.141833,14,0
10.4313,10.6782,0.260564,37,8
0.418135,0.427881,-0.13812,13,1
14.3149,14.6434,1.0732,15,9
4.06438,4.15621,-1.12997,21,2
22.7576,23.2717,2.84773,35,10
4.52672,4.62737,-1.02527,18,3
5.10328,5.21312,-0.89574,15,4
5.83354,5.95494,-0.729319,13,5
6.82999,6.96726,-0.511322,31,6
8.26625,8.42944,-0.206078,86,7
10.4564,10.6257,0.260215,25,8
0.406029,0.412458,-0.133621,14,1
14.2594,14.4852,1.06525,16,9
4.07473,4.1378,-1.12883,21,2
22.8022,23.147,2.84267,26,10
4.53533,4.60231,-1.02339,17,3
5.12006,5.19386,-0.895496,16,4
5.8459,5.92603,-0.728273,13,5
6.83743,6.92631,-0.510066,35,6
8.26752,8.37208,-0.20538,100,7
0.356145,0.359643,-0.135621,15,0
10.4747,10.5739,0.259797,24,8
0.412882,0.416646,-0.135421,13,1
14.282,14.4123,1.06336,15,9
4.08428,4.12008,-1.12768,19,2
22.7876,22.9793,2.83134,17,10
4.54221,4.57883,-1.02152,18,3
5.12047,5.15995,-0.892571,13,4
5.8585,5.89954,-0.727402,13,5
6.84769,6.89085,-0.509124,35,6
8.28819,8.33753,-0.205205,100,7
0.340969,0.342042,-0.12941,15,0
10.4885,10.5178,0.259273,24,8
0.417014,0.418034,-0.13632,13,1
14.2646,14.2945,1.05834,15,9
4.0896,4.09818,-1.12539,19,2
22.661,22.7006,2.80624,17,10
4.56017,4.56654,-1.02214,17,3
5.13845,5.14204,-0.892571,14,4
5.8724,5.87445,-0.726705,13,5
6.86768,6.86529,-0.508915,35,6
8.28895,8.28028,-0.204507,100,7
0.361322,0.359938,-0.136656,14,0
10.4926,10.4487,0.25847,33,8
0.432281,0.430324,-0.140819,13,1
14.2549,14.1854,1.05394,15,9
4.10388,4.08388,-1.12539,19,2
22.5579,22.4401,2.78375,16,10
4.57188,4.54641,-1.0212,21,3
5.15355,5.12128,-0.892084,14,4
5.87732,5.83847,-0.724787,13,5
6.87884,6.82861,-0.507973,35,6
8.30361,8.23721,-0.204158,100,7
0.376311,0.37226,-0.141833,14,0
10.4806,10.3642,0.257283,33,8
0.419922,0.415112,-0.13632,13,1
14.2617,14.0935,1.0508,18,9
4.11532,4.06677,-1.12463,19,2
22.4887,22.2156,2.76563,16,10
4.57788,4.52071,-1.01901,16,3
5.17281,5.10465,-0.892327,14,4
5.89199,5.81232,-0.72409,13,5
6.90406,6.80596,-0.508078,35,6
8.31094,8.18712,-0.203635,100,7
0.363826,0.357406,-0.136656,14,0
10.5053,10.3164,0.257004,19,8
0.421368,0.413644,-0.13632,13,1
14.2452,13.9792,1.04599,15,9
4.1351,4.05788,-1.12615,19,2
22.2119,21.7895,2.72222,16,10
4.5894,4.50056,-1.01808,18,3
5.18067,5.07684,-0.890621,13,4
5.91082,5.79032,-0.723916,12,5
6.90209,6.75667,-0.506193,38,6
8.34233,8.16086,-0.203704,95,7
0.414854,0.404698,-0.155291,12,0
10.5155,10.2545,0.256376,21,8
0.403274,0.393127,-0.130022,14,1
14.221,13.8583,1.04065,21,9
4.14502,4.03931,-1.12501,16,2
22.1166,21.545,2.70131,16,10
4.60508,4.48451,-1.01808,20,3
5.18983,5.05041,-0.889159,14,4
5.92813,5.76688,-0.723567,13,5
6.9199,6.72696,-0.505775,38,6
8.35355,8.11497,-0.203286,95,7
0.416264,0.403248,-0.155291,12,0
10.5283,10.1955,0.255817,18,8
0.415845,0.40256,-0.133621,14,1
14.2047,13.7461,1.03594,13,9
4.14922,4.01526,-1.12234,16,2
22.0298,21.3112,2.68161,24,10
4.61645,4.46429,-1.01714,18,3
5.20029,5.02537,-0.88794,15,4
5.94393,5.742,-0.723044,13,5
6.93185,6.69167,-0.504937,38,6
8.36312,8.06771,-0.202832,100,7
0.348058,0.334827,-0.12941,15,0
10.5436,10.1392,0.255329,19,8
0.425677,0.409209,-0.13632,13,1
14.2267,13.6715,1.03405,13,9
4.15896,3.99667,-1.12119,14,2
21.9561,21.092,2.66365,15,10
4.63058,4.44678,-1.01682,21,3
5.22353,5.01268,-0.888915,15,4
5.9448,5.70087,-0.720604,13,5
6.95805,6.6702,-0.505147,35,6
8.37245,8.02049,-0.202378,95,7
0.368843,0.352227,-0.136656,14,0
10.5457,10.0706,0.254526,20,8
0.429922,0.410412,-0.13722,13,1
14.2035,13.5542,1.02893,19,9
4.175,3.98275,-1.12158,16,2
21.8963,20.8807,2.64709,31,10
4.63541,4.41887,-1.01432,21,3
5.23525,4.98894,-0.88794,14,4
5.96034,5.67596,-0.720081,13,5
6.97087,6.63364,-0.504309,38,6
8.37143,7.96365,-0.20168,95,7
0.420534,0.398793,-0.155291,12,0
10.5172,9.96999,0.252955,24,8
0.41162,0.390067,-0.130922,14,1
14.2343,13.4842,1.02756,13,9
4.19885,3.97761,-1.12425,19,2
21.8171,20.6603,2.62879,31,10
4.65654,4.40809,-1.01557,20,3
5.24773,4.96426,-0.886965,14,4
5.97433,5.64964,-0.719384,13,5
6.97657,6.5928,-0.503053,35,6
8.38602,7.91919,-0.201331,95,7
0.385357,0.362888,-0.141833,14,0
10.5563,9.93733,0.25306,16,8
0.424333,0.399312,-0.134521,14,1
14.1867,13.3455,1.02076,19,9
4.20127,3.95216,-1.12119,19,2
21.6786,20.3861,2.60352,30,10
4.6719,4.39181,-1.01557,20,3
5.25345,4.93505,-0.885015,14,4
5.99982,5.63421,-0.720081,13,5
6.98643,6.5561,-0.502111,31,6
8.39173,7.86935,-0.200807,100,7
0.386621,0.361541,-0.141833,14,0
10.5413,9.85399,0.251873,27,8
0.431419,0.40315,-0.13632,13,1
14.1835,13.2495,1.0172,21,9
4.20357,3.92675,-1.11814,14,2
21.54,20.1145,2.57842,30,10
4.68576,4.37413,-1.01526,18,3
5.26919,4.91532,-0.884771,16,4
6.00488,5.59964,-0.718338,13,5
7.00927,6.53168,-0.502111,31,6
8.40012,7.82229,-0.200354,85,7
0.370893,0.344414,-0.135621,15,0
10.5756,9.81713,0.251873,22,8
0.429967,0.398991,-0.135421,13,1
14.2092,13.1809,1.01574,15,9
4.21293,3.90805,-1.117,14,2
21.4932,19.9308,2.56447,29,10
4.70245,4.35909,-1.01557,23,3
5.28486,4.89555,-0.884528,15,4
6.01708,5.57188,-0.717466,13,5
7.02616,6.50175,-0.501693,31,6
8.4171,7.78341,-0.200109,100,7
0.374934,0.345736,-0.136656,14,0
10.5745,9.74763,0.251035,16,8
0.439955,0.405411,-0.13812,13,1
14.2073,13.0918,1.01249,14,9
4.23521,3.9013,-1.11929,14,2
21.4161,19.7207,2.54704,29,10
4.70019,4.3266,-1.01182,23,3
5.30338,4.87842,-0.884771,16,4
6.02916,5.5441,-0.716594,13,5
7.03705,6.46637,-0.500855,35,6
8.43845,7.7514,-0.200005,95,7
0.373289,0.341817,-0.135621,15,0
10.5802,9.6882,0.250407,23,8
0.429798,0.393423,-0.134521,14,1
14.2338,13.0246,1.01113,18,9
4.24011,3.87855,-1.117,14,2
21.3554,19.5275,2.5317,29,10
4.71452,4.31098,-1.01182,22,3
5.31074,4.85277,-0.883309,16,4
6.04553,5.52033,-0.716246,13,5
7.04666,6.43223,-0.500018,35,6
8.45364,7.71112,-0.199725,85,7
0.377278,0.343177,-0.136656,14,0
10.577,9.61758,0.249535,30,8
0.422516,0.384056,-0.131821,14,1
14.1831,12.8875,1.00433,13,9
4.25876,3.86974,-1.11852,11,2
21.2209,19.2757,2.50817,28,10
4.72661,4.29185,-1.01119,23,3
5.3247,4.83153,-0.882822,15,4
6.0579,5.4949,-0.715549,13,5
7.06315,6.40223,-0.499599,31,6
8.46864,7.67082,-0.199446,95,7
0.358403,0.323729,-0.12941,15,0
10.5971,9.56854,0.24922,17,8
0.423854,0.382579,-0.131821,14,1
14.2013,12.8138,1.00244,13,9
4.25184,3.83644,-1.11318,19,2
21.1978,19.1202,2.49753,35,10
4.7401,4.274,-1.01088,20,3
5.33416,4.80627,-0.881603,18,4
6.08001,5.47639,-0.715897,13,5
7.081,6.37353,-0.499285,35,6
8.46861,7.61714,-0.198818,100,7
10.6007,9.50479,0.248522,17,8
0.439699,0.394104,-0.13632,13,1
14.231,12.7509,1.0014,13,9
4.2652,3.82158,-1.11318,16,2
21.1724,18.9636,2.48673,28,10
4.75351,4.25611,-1.01057,23,3
5.34203,4.77968,-0.88014,14,4
6.0783,5.43653,-0.713457,13,5
7.09427,6.34078,-0.498657,38,6
8.48023,7.57422,-0.198469,100,7
0.377966,0.336637,-0.135621,15,0
10.592,9.43049,0.247545,17,8
0.432338,0.384793,-0.133621,14,1
14.2397,12.6692,0.998884,13,9
4.28438,3.81188,-1.11471,11,2
21.1224,18.7863,2.47313,35,10
4.76096,4.23293,-1.009,26,3
5.36017,4.76232,-0.880384,15,4
6.0883,5.40735,-0.712411,13,5
7.11337,6.31333,-0.498448,38,6
8.49465,7.53395,-0.19819,100,7
0.361774,0.319958,-0.12941,15,0
10.5949,9.36697,0.246847,17,8
0.424917,0.375538,-0.130922,14,1
14.2194,12.5626,0.994383,13,9
4.29913,3.79821,-1.11509,14,2
21.0266,18.57,2.45431,34,10
4.76534,4.20713,-1.00681,25,3
5.37229,4.73965,-0.879653,16,4
6.10415,5.38342,-0.712062,13,5
7.11888,6.27393,-0.497296,38,6
8.51189,7.49633,-0.19798,93,7
0.435466,0.382432,-0.155291,12,0
10.6155,9.31938,0.246568,19,8
0.435013,0.381765,-0.133621,14,1
14.2001,12.4576,0.989987,13,9
4.30794,3.77929,-1.11394,11,2
20.9999,18.4164,2.44367,34,10
4.78891,4.19829,-1.00869,22,3
5.38134,4.71432,-0.878434,15,4
6.1289,5.36734,-0.71276,13,5
7.12571,6.23589,-0.49625,38,6
8.5365,7.46525,-0.197945,100,7
0.436865,0.380833,-0.155291,12,0
10.6315,9.26464,0.246149,20,8
0.424655,0.369928,-0.130022,14,1
14.1885,12.3556,0.986009,13,9
4.31732,3.75961,-1.1128,14,2
20.9635,18.249,2.43165,40,10
4.80725,4.1833,-1.00932,22,3
5.39259,4.68936,-0.877459,12,4
6.14853,5.34484,-0.71276,13,5
7.15153,6.21235,-0.496459,38,6
8.55172,7.42343,-0.197666,100,7
0.385608,0.333789,-0.136656,14,0
10.6426,9.20915,0.24566,19,8
0.422996,0.365894,-0.129122,14,1
14.2028,12.2812,0.984021,12,9
4.3319,3.7458,-1.11318,14,2
20.8719,18.0415,2.41369,33,10
4.81285,4.15874,-1.00744,22,3
5.41944,4.67959,-0.879166,18,4
6.15508,5.31293,-0.711365,13,5
7.16864,6.18343,-0.496145,38,6
8.56546,7.38309,-0.197387,100,7
0.439513,0.377774,-0.155291,12,0
10.6489,9.1498,0.245067,19,8
0.439053,0.377112,-0.133621,14,1
14.2268,12.2197,0.982869,12,9
4.33899,3.72554,-1.11165,11,2
20.8788,17.9206,2.40724,26,10
4.82134,4.13677,-1.00619,26,3
5.4267,4.65289,-0.877703,14,4
6.16603,5.28492,-0.710494,13,5
7.18259,6.15188,-0.495622,38,6
8.58383,7.34944,-0.197247,100,7
0.387929,0.331089,-0.136656,14,0
10.6624,9.10015,0.244683,19,8
0.434371,0.370595,-0.131821,14,1
14.2329,12.1389,0.980357,13,9
4.35496,3.71292,-1.11242,11,2
20.8457,17.7662,2.39626,39,10
4.82902,4.11564,-1.00494,22,3
5.43908,4.63229,-0.877216,18,4
6.18596,5.26466,-0.710668,13,5
7.18622,6.11379,-0.49447,38,6
8.59572,7.30777,-0.196933,100,7
0.389025,0.329801,-0.136656,14,0
10.6789,9.04995,0.244334,22,8
0.426741,0.361519,-0.129122,14,1
14.2218,12.0439,0.976694,13,9
4.36575,3.69719,-1.11203,11,2
20.7843,17.5952,2.38249,26,10
4.84788,4.10258,-1.00587,21,3
5.43854,4.59918,-0.874534,15,4
6.19425,5.2364,-0.709622,13,5
7.19684,6.07965,-0.493737,38,6
8.59519,7.2558,-0.19634,100,7
0.44338,0.373228,-0.155291,12,0
10.7012,9.0049,0.244124,20,8
0.451861,0.380098,-0.13632,13,1
14.2042,11.9441,0.972612,12,9
4.37112,3.67561,-1.11013,11,2
20.7846,17.4713,2.37552,32,10
4.8652,4.08818,-1.0065,20,3
5.45,4.57634,-0.873803,13,4
6.20944,5.21218,-0.709273,13,5
7.22567,6.06091,-0.494261,38,6
8.61587,7.22189,-0.196235,93,7
0.44468,0.371678,-0.155291,12,0
10.7065,8.94569,0.243531,19,8
0.447202,0.373521,-0.134521,14,1
14.1982,11.8547,0.969367,12,9
4.37488,3.65278,-1.10784,14,2
20.7277,17.3003,2.36209,32,10
4.87034,4.06357,-1.00462,20,3
5.47661,4.56619,-0.875509,16,4
6.21688,5.18155,-0.708053,13,5
7.24678,6.03565,-0.494261,38,6
8.62873,7.18154,-0.195956,100,7
0.392457,0.325709,-0.136656,14,0
10.71,8.88528,0.242903,22,8
0.445503,0.36947,-0.133621,14,1
14.2026,11.7745,0.966855,12,9
4.38911,3.63874,-1.10822,16,2
20.7312,17.1808,2.35565,26,10
4.87536,4.03899,-1.00275,21,3
5.49405,4.54831,-0.875753,18,4
6.23646,5.16109,-0.708228,13,5
7.25703,6.00141,-0.493528,38,6
8.65375,7.15138,-0.195956,100,7
0.447264,0.368565,-0.155291,12,0
10.7394,8.84657,0.242868,20,8
0.437764,0.36048,-0.130922,14,1
14.2375,11.7198,0.966436,13,9
4.4033,3.62464,-1.1086,14,2
20.691,17.0261,2.34432,31,10
4.88638,4.01944,-1.00212,20,3
38.2678,31.4671,6.08323,23,11
5.49149,4.51397,-0.872828,14,4
6.24918,5.13313,-0.70753,13,5
7.25787,5.95956,-0.492167,35,6
8.66939,7.11351,-0.195746,100,7
0.394778,0.322892,-0.136656,14,0
10.764,8.80396,0.242728,17,8
0.43902,0.35895,-0.130922,14,1
14.2211,11.6233,0.962563,12,9
4.41352,3.60599,-1.10784,14,2
20.653,16.8682,2.33298,25,10
4.89649,3.99775,-1.00118,17,3
5.5026,4.49101,-0.872097,16,4
6.2686,5.11255,-0.707705,13,5
7.27502,5.92913,-0.491853,38,6
8.68796,7.07816,-0.195607,100,7
10.7698,8.74303,0.242135,19,8
0.443359,0.359794,-0.131821,14,1
14.2155,11.532,0.959318,12,9
4.4154,3.58191,-1.10517,16,2
20.605,16.7094,2.32096,31,10
4.92269,3.99059,-1.00368,21,3
5.51285,4.46582,-0.871122,15,4
6.28177,5.08687,-0.707182,13,5
7.29567,5.9037,-0.491853,38,6
8.6983,7.0337,-0.195258,100,7
0.375968,0.303152,-0.12941,15,0
10.7831,8.69157,0.241751,17,8
0.441577,0.355799,-0.130922,14,1
14.2137,11.4485,0.956492,12,9
4.4233,3.56278,-1.10402,21,2
20.6275,16.6087,2.31695,25,10
4.93659,3.97338,-1.00368,23,3
37.5984,30.2515,5.92529,22,11
5.52996,4.44779,-0.871366,14,4
6.2824,5.05119,-0.705264,13,5
46.6819,37.5198,11.6416,20,13
7.31001,5.8732,-0.491435,38,6
8.71188,6.99452,-0.195013,100,7
0.452429,0.362205,-0.155291,12,0
10.8009,8.64389,0.241471,17,8
0.458034,0.366429,-0.135421,13,1
14.2313,11.3851,0.955131,12,9
4.43877,3.54977,-1.10478,16,2
20.5375,16.4184,2.30039,30,10
4.93037,3.94009,-0.999616,21,3
5.5563,4.43713,-0.873072,19,4
47.8063,38.1769,9.68986,16,12
6.29844,5.02798,-0.70509,13,5
7.32734,5.84515,-0.491225,38,6
8.73815,6.96809,-0.195083,100,7
10.8045,8.58812,0.240913,19,8
0.434835,0.345511,-0.128222,14,1
14.2271,11.3006,0.9522,12,9
4.45728,3.53914,-1.10631,11,2
20.5369,16.3007,2.29394,24,10
4.94186,3.92249,-0.999304,23,3
5.55388,4.40511,-0.870391,14,4
43.8343,34.7551,8.86014,14,12
6.31752,5.0072,-0.705264,13,5
38.8602,30.8002,9.63853,100,13
7.33259,5.80966,-0.490283,38,6
8.74988,6.92762,-0.194804,100,7
10.8297,8.54663,0.240808,22,8
0.429918,0.339164,-0.126422,15,1
14.254,11.241,0.951363,12,9
4.469,3.52434,-1.10631,11,2
20.4892,16.1524,2.28261,30,10
4.95862,3.90767,-0.999929,22,3
5.55831,4.3771,-0.868685,15,4
39.2461,30.8948,7.91089,11,12
6.34348,4.99362,-0.70631,13,5
35.0533,27.5842,8.67036,9,13
7.34341,5.77662,-0.489655,38,6
8.76772,6.89209,-0.194664,100,7
0.456135,0.357527,-0.155291,12,0
10.8469,8.49891,0.240529,22,8
0.446441,0.349677,-0.130922,14,1
14.2711,11.1739,0.949898,12,9
4.46581,3.49661,-1.10249,11,2
20.4937,16.0402,2.27686,24,10
4.96912,3.8879,-0.999304,17,3
5.57668,4.36012,-0.869172,14,4
36.7234,28.7018,7.38214,10,12
6.34674,4.96041,-0.704741,13,5
47.5831,37.176,11.7374,42,13
7.37612,5.76079,-0.490493,38,6
8.77596,6.84914,-0.194315,100,7
10.8686,8.45485,0.240355,23,8
0.469196,0.364864,-0.13722,13,1
14.2722,11.0946,0.947386,13,9
4.47799,3.48101,-1.10249,14,2
20.4567,15.8965,2.26657,24,10
4.98579,3.87295,-0.999929,20,3
5.58402,4.33454,-0.867954,14,4
6.34985,4.92723,-0.703173,13,5
47.7141,37.0109,11.7378,21,13
7.38987,5.73011,-0.490074,38,6
8.79191,6.81234,-0.194141,100,7
10.8774,8.40097,0.239901,17,8
0.451956,0.348934,-0.131821,14,1
14.2839,11.024,0.945606,13,9
4.49322,3.46775,-1.10326,11,2
20.4537,15.7799,2.26012,24,10
4.98989,3.84829,-0.998052,23,3
5.60541,4.31986,-0.868928,14,4
6.36859,4.90625,-0.703347,13,5
47.843,36.8441,11.7378,21,13
7.40983,5.70427,-0.490074,38,6
8.80454,6.77307,-0.193896,100,7
10.8988,8.35687,0.239726,17,8
0.465545,0.356838,-0.135421,13,1
14.2859,10.9461,0.943199,12,9
4.51153,3.45682,-1.10478,11,2
20.4391,15.6551,2.25245,24,10
4.99859,3.82724,-0.997113,18,3
5.61573,4.29665,-0.868197,15,4
43.9478,33.6128,8.76315,13,12
6.37777,4.87793,-0.702475,13,5
47.9807,36.684,11.7401,21,13
7.41224,5.66504,-0.488923,38,6
8.83131,6.74472,-0.193966,100,7
10.9072,8.30303,0.239273,22,8
0.45128,0.34341,-0.130922,14,1
14.2811,10.8635,0.940373,12,9
4.52826,3.44462,-1.10593,11,2
20.4524,15.5523,2.24792,23,10
5.02764,3.82172,-1.00024,25,3
5.62595,4.27342,-0.867466,15,4
44.0396,33.44,8.75814,13,12
6.39634,4.85685,-0.70265,13,5
48.1335,36.5353,11.7462,21,13
7.42401,5.63309,-0.488399,38,6
8.84843,6.70903,-0.193826,100,7
10.9281,8.25888,0.239098,28,8
0.455586,0.344182,-0.131821,14,1
14.3125,10.8088,0.939954,12,9
4.52302,3.41577,-1.10173,11,2
20.4572,15.4436,2.24252,23,10
5.03149,3.79701,-0.998365,21,3
5.63132,4.24659,-0.866004,15,4
44.1088,33.2504,8.74875,13,12
6.41569,4.83457,-0.702824,13,5
48.2545,36.3623,11.7447,42,13
7.44203,5.60594,-0.488295,38,6
8.85901,6.66847,-0.193547,100,7
10.9345,8.20388,0.238609,24,8
0.46302,0.347266,-0.133621,14,1
14.3326,10.7456,0.938803,12,9
4.53865,3.40153,-1.10249,11,2
20.4483,15.3196,2.23537,23,10
5.03589,3.77144,-0.996488,18,3
5.65406,4.23285,-0.867222,14,4
44,32.9282,8.70433,13,12
6.42615,4.80737,-0.702127,13,5
48.422,36.2111,11.7531,42,13
7.46253,5.57863,-0.488295,38,6
8.88223,6.63751,-0.193547,100,7
10.9629,8.16256,0.238574,22,8
0.458037,0.340913,-0.131821,14,1
14.3414,10.6703,0.936814,14,9
4.53948,3.37746,-1.09982,11,2
20.4409,15.2029,2.22875,23,10
5.04268,3.74912,-0.995236,22,3
5.66634,4.20974,-0.866735,14,4
44.0094,32.6843,8.68243,13,12
6.44372,4.78379,-0.702127,13,5
48.2864,35.8476,11.6897,20,13
7.47073,5.54421,-0.487562,39,6
8.89044,6.593,-0.193198,100,7
10.9881,8.12186,0.238505,22,8
0.456089,0.336996,-0.130922,14,1
14.3481,10.5976,0.934825,18,9
4.55498,3.36313,-1.10059,11,2
20.4388,15.0853,2.22247,23,10
5.04844,3.72475,-0.993672,22,3
5.67781,4.18757,-0.866247,22,4
45.0104,33.1845,8.85701,14,12
6.45396,4.75654,-0.701429,13,5
7.48779,5.51442,-0.487352,39,6
8.91823,6.56548,-0.193303,100,7
10.997,8.06926,0.238086,22,8
0.444692,0.326181,-0.127322,15,1
14.3673,10.5345,0.933674,17,9
4.58511,3.36194,-1.10517,11,2
20.4244,14.9703,2.2155,28,10
