x, y, z, intensity, ring
-1.20518,0.258149,0.330253,1,15
-0.566531,0.122178,-0.155291,12,0
-0.586701,0.126635,-0.13857,13,1
-0.644756,0.139401,-0.128224,14,2
-0.572425,0.124286,-0.0512476,31,5
-0.940724,0.204423,-0.0504519,3,6
-1.20428,0.262354,0.330253,1,15
-0.582449,0.127846,-0.13767,13,1
-0.663465,0.145751,-0.13204,13,2
-0.556445,0.12275,-0.0498531,44,5
-1.03752,0.229252,-0.0556855,2,6
-1.18076,0.261337,0.324041,1,15
-0.593434,0.132322,-0.140369,13,1
-0.636128,0.142075,-0.126697,14,2
-0.57351,0.128615,-0.0514219,21,5
-1.03675,0.232691,-0.0556855,2,6
-1.20246,0.270545,0.330253,1,15
-0.565265,0.127906,-0.155291,12,0
-0.566361,0.128362,-0.134071,14,1
-0.569195,0.129631,-0.0510733,21,5
-1.00478,0.229202,-0.0540107,2,6
-1.27689,0.291743,0.350959,4,15
-0.564815,0.129879,-0.155291,12,0
-0.573528,0.131988,-0.13587,13,1
-0.580386,0.134313,-0.0521191,21,5
-0.992335,0.229828,-0.0533827,2,6
-1.27775,0.296636,0.351476,8,15
-0.565474,0.132214,-0.134071,14,1
-0.593514,0.139426,-0.0533393,20,5
-0.975974,0.229631,-0.0525453,2,6
-1.17985,0.277818,0.279839,1,14
-1.28992,0.303973,0.3551,11,15
-0.565032,0.134089,-0.134071,14,1
-0.608528,0.145196,-0.0547338,19,5
-1.05985,0.252884,0.211798,1,13
-1.0024,0.239361,-0.0540107,2,6
-1.13722,0.271764,0.269941,1,14
-1.29073,0.308923,0.355617,7,15
-0.563471,0.13559,-0.155291,12,0
-0.583506,0.140626,-0.13857,13,1
-0.619662,0.150027,-0.0557797,19,5
-1.05591,0.256037,-0.0569415,2,6
-1.17414,0.284923,0.278939,1,14
-16.7416,4.0657,4.6163,30,15
-0.562995,0.137556,-0.155291,12,0
-0.609538,0.14904,-0.144868,12,1
-0.661698,0.162039,-0.132421,13,2
-0.636548,0.156469,-0.0573485,18,5
-1.05811,0.260092,0.211798,1,13
-0.93481,0.229957,-0.0504519,3,6
-1.20536,0.296734,0.286588,1,14
-16.1909,3.99185,4.46825,6,15
-0.562535,0.139422,-0.155291,12,0
-0.636025,0.158579,-0.0573485,18,5
-1.05719,0.263784,0.211798,1,13
-0.972757,0.242896,-0.0525453,2,6
-1.25725,0.314168,0.299185,5,14
-16.2301,4.05864,4.48275,5,15
-0.562045,0.141385,-0.155291,12,0
-0.755764,0.190536,-0.151502,9,2
-0.631272,0.159502,-0.0799463,11,4
-0.633536,0.160309,-0.0571742,18,5
-0.933223,0.236315,-0.0504519,3,6
-1.25998,0.319293,0.300085,11,14
-18.7043,4.74682,5.17069,10,15
-0.592253,0.151844,-0.0750715,12,4
-0.642622,0.164997,-0.0580457,17,5
-1.27773,0.328542,0.304584,11,14
-16.0853,4.14199,4.45065,15,15
-0.701745,0.181876,-0.167364,9,1
-0.584035,0.151912,-0.0740966,12,4
-0.649754,0.169248,-0.058743,17,5
-1.14936,0.299601,0.230879,1,13
-0.931508,0.242987,-0.0504519,3,6
-1.29915,0.339129,0.309983,6,14
-0.936472,0.244456,-0.0168939,2,7
-15.9044,4.15465,4.40458,15,15
-0.606844,0.159655,-0.144868,12,1
-0.658799,0.173447,-0.132421,13,2
-0.571984,0.150911,-0.0726341,12,4
-1.06765,0.281886,0.174894,1,12
-0.656865,0.173551,-0.0594402,17,5
-1.17488,0.310637,0.236222,1,13
-20.9472,5.54232,5.00246,19,14
-16.2297,4.30019,4.49879,6,15
-0.651502,0.173716,-0.155666,11,1
-0.571481,0.152807,-0.0726341,12,4
-1.02091,0.27317,0.167385,1,12
-0.665908,0.178305,-0.0603118,16,5
-1.17385,0.314531,0.236222,1,13
-15.9878,4.28691,3.82147,20,14
-16.2844,4.37253,4.51795,15,15
-0.699835,0.189092,-0.167364,9,1
-0.657635,0.177813,-0.132421,13,2
-0.56328,0.152723,-0.0716592,12,4
-1.05045,0.285008,0.172391,1,12
-0.653776,0.177382,-0.0592659,8,5
-1.21069,0.32871,0.243854,4,13
-19.4836,5.29723,4.66144,41,14
-16.0547,4.37098,4.45842,12,15
-0.616473,0.168879,-0.147568,12,1
-0.65701,0.180107,-0.132421,13,2
-0.589541,0.162055,-0.0750715,12,4
-1.03422,0.284482,0.169888,1,12
-0.695416,0.191288,-0.0631008,7,5
-1.23036,0.338666,0.248052,11,13
-15.2795,4.21729,4.24722,10,15
-0.604614,0.167901,-0.144868,12,1
-0.656377,0.1824,-0.132421,13,2
-0.59665,0.166139,-0.0760465,11,4
-1.07894,0.300636,0.177397,1,12
-1.23673,0.345069,0.249578,12,13
-15.7683,4.40258,3.77963,10,14
-15.3157,4.28198,4.2612,12,15
-0.575915,0.161991,-0.13812,27,1
-0.682226,0.192022,-0.137764,12,2
-0.626665,0.176738,-0.0799463,11,4
-1.08554,0.306358,0.178648,1,12
-1.2488,0.352905,0.25225,10,13
-15.7311,4.44849,3.77423,12,14
-0.931285,0.263527,-0.0168939,2,7
-15.6453,4.43011,4.35696,26,15
-0.601613,0.171374,-0.144419,25,1
-1.14909,0.328412,0.189286,2,12
-15.5359,4.44604,3.1411,8,13
-15.1834,4.35091,3.64646,33,14
-15.4652,4.43458,4.31089,7,15
-0.587935,0.169587,-0.141269,26,1
-1.14225,0.330773,0.188347,4,12
-15.836,4.58878,3.20483,12,13
-15.1334,4.39092,3.63791,61,14
-15.3532,4.46051,4.28397,15,15
-0.596692,0.174372,-0.143519,25,1
-0.746199,0.218204,-0.151121,9,2
-1.17331,0.344211,0.193666,7,12
-15.737,4.61971,3.18804,22,13
-15.2414,4.47999,3.6676,42,14
-0.928522,0.273103,-0.0168939,2,7
-15.1874,4.4699,4.24204,10,15
-0.956855,0.28307,0.0174175,1,8
-0.603554,0.178666,-0.145318,25,1
-1.19861,0.356183,0.198046,11,12
-15.5401,4.62089,3.1514,23,13
-15.2536,4.54151,3.67435,21,14
-15.5161,4.62553,4.33833,13,15
-0.60106,0.180212,-0.144868,25,1
-0.623517,0.187539,-0.0799463,11,4
-1.22006,0.367196,0.2018,11,12
-15.4412,4.6502,3.13461,11,13
-14.9951,4.52159,3.61586,11,14
-17.5582,5.30113,4.91446,14,15
-0.954856,0.289743,0.0174175,1,8
-0.594833,0.180611,-0.143519,25,1
-1.10525,0.336434,0.141856,2,11
-0.596273,0.181617,-0.076534,11,4
-16.9324,5.1606,2.80362,11,12
-15.4154,4.70707,3.72114,25,14
-0.82999,0.253595,-0.0151487,3,7
-15.1693,4.63773,4.25033,18,15
-0.60165,0.184977,-0.145318,25,1
-1.11545,0.343798,0.143318,2,11
-0.553903,0.170826,-0.0711717,26,4
-20.8245,6.42237,3.45157,8,12
-15.0763,4.65536,3.06706,37,13
-1.0419,0.321925,-0.0571509,2,6
-15.4398,4.77352,3.73104,37,14
-0.924669,0.285879,-0.0168939,2,7
-15.1686,4.69257,4.25447,32,15
-0.952861,0.296236,0.0174175,1,8
-0.612198,0.190444,-0.148018,24,1
-0.742278,0.231194,-0.151121,9,2
-0.739277,0.230401,-0.122645,9,3
-1.13515,0.353996,0.145999,4,11
-0.621553,0.193949,-0.0799463,11,4
-20.8566,6.5121,3.46064,20,12
-15.0945,4.71586,3.07393,14,13
-15.3273,4.80034,4.30364,22,15
-0.879338,0.276748,0.0160911,2,8
-0.607812,0.191409,-0.147118,12,1
-0.741507,0.233654,-0.151121,9,2
-0.68572,0.216338,-0.113884,11,3
-1.17366,0.370505,0.151118,14,11
-20.6673,6.52827,3.4328,24,12
-14.1794,4.48437,2.89076,11,13
-15.8826,5.0291,3.84621,26,14
-0.922701,0.292166,-0.0168939,2,7
-15.6078,4.94509,4.38698,13,15
-0.901281,0.286942,0.01651,2,8
-0.60903,0.194015,-0.147568,24,1
-0.740687,0.236241,-0.151121,9,2
-0.692527,0.221013,-0.115136,11,3
-1.17999,0.376811,0.152093,22,11
-16.0366,5.13643,3.8876,36,14
-0.921676,0.295385,-0.0168939,2,7
-0.900274,0.290087,0.01651,2,8
-0.606495,0.195542,-0.147118,12,1
-1.06558,0.343968,0.0979631,1,10
-0.733105,0.236786,-0.122019,9,3
-1.18812,0.38398,0.153312,16,11
-14.1206,4.57171,2.88503,30,13
-16.0083,5.18598,3.8849,26,14
-0.920691,0.29844,-0.0168939,2,7
-0.94874,0.30918,0.0174175,1,8
-0.605843,0.197552,-0.147118,12,1
-1.06716,0.347977,0.0588256,1,9
-0.739104,0.241148,-0.151121,9,2
-1.06444,0.3475,0.0979631,1,10
-0.683495,0.223269,-0.113884,11,3
-1.1774,0.384834,0.152093,2,11
-15.2624,4.99146,2.54331,5,12
-14.137,4.62889,2.89152,25,13
-19.5337,6.39969,4.74557,16,14
-0.919696,0.301492,-0.0168939,2,7
-15.1054,4.95471,4.25964,55,15
-0.94771,0.312324,0.0174175,1,8
-0.612587,0.202001,-0.148918,12,1
-1.06594,0.3517,0.0588256,1,9
-0.7383,0.243598,-0.151121,9,2
-1.07463,0.354775,0.0990089,2,10
-15.397,5.08908,1.9911,25,11
-15.1379,5.00933,2.52548,33,12
-14.1365,4.68068,2.89457,9,13
-0.913833,0.302753,-0.0504519,3,6
-19.4539,6.44882,4.73162,20,14
-0.918638,0.3047,-0.0168939,2,7
-14.8056,4.9137,4.17993,22,15
-0.946614,0.315631,0.0174175,1,8
-0.604484,0.201671,-0.147118,12,1
-1.0647,0.355418,0.0588256,1,9
-0.737445,0.246173,-0.151121,9,2
-1.11685,0.373042,0.103018,6,10
-0.689454,0.23042,-0.115136,11,3
-15.413,5.15413,1.99549,38,11
-15.0586,5.04144,2.51515,7,12
-14.1908,4.7537,2.90907,23,13
-0.912771,0.30594,-0.0504519,3,6
-15.1707,5.08782,3.69415,9,14
-0.898611,0.301543,-0.0165449,2,7
-15.4129,5.17503,4.35644,7,15
-0.945506,0.318933,0.0174175,1,8
-0.607469,0.205026,-0.148018,12,1
-1.06346,0.359133,0.0588256,1,9
-0.669619,0.226133,-0.137382,12,2
-1.14385,0.386505,0.105633,15,10
-0.651219,0.220172,-0.108878,12,3
-15.4344,5.22126,2.00061,46,11
-14.1797,4.8051,2.91022,22,13
-0.843604,0.286037,-0.0466837,5,6
-15.1639,5.1445,3.69685,38,14
-0.886192,0.300821,-0.0163355,2,7
-14.7435,5.00762,4.17216,11,15
-0.944387,0.322232,0.0174175,1,8
-0.617815,0.210923,-0.150717,11,1
-1.0622,0.362843,0.0588256,1,9
-0.735665,0.251444,-0.151121,9,2
-1.14997,0.393274,0.10633,15,10
-0.613028,0.209767,-0.102621,14,3
-15.3936,5.26739,1.99768,29,11
-14.3385,4.91754,2.94647,6,13
-0.861441,0.295609,-0.0477304,5,6
-15.0896,5.18106,3.68335,42,14
-0.877571,0.301315,-0.0161958,2,7
-14.673,5.04085,4.15715,15,15
-0.617038,0.213186,-0.150717,11,1
-1.0496,0.362635,0.0581976,1,9
-0.734783,0.25401,-0.151121,9,2
-1.14482,0.395983,0.105981,9,10
-0.612292,0.211905,-0.102621,14,3
-21.298,7.37507,2.76741,7,11
-13.7973,4.78044,2.31273,6,12
-14.2897,4.95662,2.93999,13,13
-0.909462,0.315641,-0.0504519,3,6
-15.1129,5.24512,3.69325,30,14
-0.876514,0.304377,-0.0161958,2,7
-14.6772,5.09964,4.16336,25,15
-0.627366,0.219086,-0.153417,11,1
-1.0993,0.383893,0.0610237,2,9
-0.733936,0.256446,-0.151121,9,2
-25.9056,9.0568,2.40097,13,10
-0.611586,0.213935,-0.102621,14,3
-15.2534,5.33866,1.98428,17,11
-14.1379,4.95657,2.91213,30,13
-0.908411,0.318655,-0.0504519,3,6
-15.8677,5.56613,3.88221,47,14
-0.890594,0.31258,-0.0164751,2,7
-14.8115,5.20141,4.20633,15,15
-0.622961,0.219868,-0.152517,11,1
-1.12439,0.396842,0.0624891,5,9
-0.677545,0.239266,-0.139672,11,2
-24.506,8.65877,2.27389,24,10
-0.629497,0.222546,-0.10575,13,3
-20.8949,7.39105,2.72134,20,11
-13.8528,4.90281,2.32743,27,12
-0.803831,0.284651,-0.0746053,4,5
-0.944998,0.335013,-0.0525453,2,6
-15.8152,5.60976,3.87411,23,14
-0.912169,0.323554,-0.0168939,2,7
-14.9034,5.28927,4.23739,12,15
-0.592861,0.211458,-0.145318,12,1
-1.12488,0.401436,0.0625938,12,9
-0.687799,0.245591,-0.141962,11,2
-15.6854,5.60384,1.45724,18,10
-0.610153,0.217986,-0.102621,14,3
-15.2905,5.46576,1.99378,21,11
-13.8524,4.95713,2.33025,10,12
-0.906277,0.324673,-0.0504519,3,6
-15.8203,5.67073,3.87996,21,14
-0.929857,0.333486,-0.017243,1,7
-14.9721,5.37258,4.26223,31,15
-0.636116,0.229392,-0.156116,11,1
-1.13474,0.409427,0.0632218,20,9
-0.664821,0.239875,-0.137382,12,2
-15.6424,5.64702,1.45498,50,10
-15.0996,5.45703,1.97136,29,11
-15.4083,5.57468,2.59525,31,12
-0.828104,0.299606,-0.0770457,4,5
-16.4905,5.96949,3.40899,36,13
-0.890115,0.322393,-0.0496145,3,6
-17.224,6.2418,4.22953,33,14
-0.928687,0.33673,-0.017243,1,7
-14.5937,5.29437,4.15974,33,15
-0.617002,0.224936,-0.151617,11,1
-1.13893,0.415439,0.0635359,14,9
-0.678734,0.247576,-0.140435,11,2
-15.9344,5.82171,2.08299,27,11
-23.0544,8.43214,3.88802,15,12
-0.774661,0.283332,-0.072165,5,5
-14.1466,5.17691,2.92815,42,13
-0.873981,0.320004,-0.0487771,4,6
-17.2844,6.33205,4.24977,18,14
-0.916241,0.33584,-0.0170335,4,7
-14.6477,5.37188,4.18045,22,15
-1.03018,0.379439,0.0191627,1,8
-0.68204,0.251348,-0.167813,9,1
-15.1105,5.56856,0.84397,8,9
-0.637341,0.235001,-0.13204,26,2
-24.0721,8.88067,2.24478,47,10
-23.709,8.7561,3.10328,8,11
-0.893268,0.330252,-0.0833209,2,5
-14.1505,5.23443,2.93273,27,13
-0.872858,0.323053,-0.0487771,4,6
-17.6917,6.55138,4.3555,25,14
-0.933875,0.345821,-0.0173826,3,7
-14.4106,5.33921,4.11781,22,15
-1.0514,0.391222,0.0195816,2,8
-15.1396,5.6394,0.846691,38,9
-0.658593,0.245452,-0.136619,25,2
-15.3416,5.72072,1.43249,15,10
-15.7717,5.88423,2.0669,26,11
-0.795971,0.297126,-0.10432,5,4
-16.1551,6.0337,2.73135,16,12
-0.798793,0.298497,-0.0746053,4,5
-14.1974,5.30538,2.94609,39,13
-0.901715,0.337137,-0.0504519,3,6
-17.7246,6.63049,4.369,25,14
-0.932662,0.349079,-0.0173826,3,7
-14.4027,5.39355,4.12092,27,15
-1.05939,0.398409,0.0197561,6,8
-15.1011,5.68517,0.845644,31,9
-0.650426,0.244868,-0.135093,25,2
-20.5058,7.72398,1.91708,35,10
-15.699,5.91964,2.06008,21,11
-0.794929,0.299903,-0.10432,5,4
-0.820167,0.309588,-0.0766971,4,5
-14.008,5.2904,2.9106,31,13
-0.900532,0.340283,-0.0504519,3,6
-17.8344,6.74263,4.40184,13,14
-0.953882,0.360822,-0.0178015,1,7
-1.08603,0.412761,0.0202797,13,8
-15.0719,5.7343,0.845121,35,9
-0.660577,0.251325,-0.137382,24,2
-17.5665,6.68692,1.64445,37,10
-15.4779,5.89807,2.03376,30,11
-0.793877,0.302676,-0.10432,5,4
-14.1506,5.39793,2.39877,51,12
-0.826527,0.315289,-0.0773943,3,5
-14.3398,5.47297,2.98349,8,13
-0.917997,0.350549,-0.0514986,2,6
-17.5851,6.7186,4.34605,25,14
-0.937673,0.358438,-0.0175222,1,7
-15.1045,5.77691,4.33315,18,15
-1.09952,0.422285,0.0205589,12,8
-15.1329,5.81505,0.849622,31,9
-0.648701,0.249403,-0.135093,25,2
-27.3002,10.5014,2.55907,29,10
-15.4498,5.9492,2.03278,48,11
-0.792869,0.305307,-0.10432,5,4
-14.1087,5.4356,2.3947,25,12
-0.844012,0.325339,-0.0791374,3,5
-19.7811,7.6289,4.12109,8,13
-0.913042,0.352313,-0.0512892,5,6
-17.9263,6.91718,4.43603,19,14
-1.02229,0.394675,-0.0191278,1,7
-15.0582,5.81652,4.32538,8,15
-1.08692,0.42159,0.0203495,5,8
-23.2336,9.01639,1.3061,48,9
-0.673492,0.261501,-0.140435,11,2
-27.2206,10.5746,2.55488,14,10
-15.3838,5.98242,2.02669,48,11
-0.791852,0.307934,-0.10432,5,4
-14.2912,5.56043,2.4288,49,12
-0.857782,0.333918,-0.0805319,3,5
-14.2729,5.55905,2.97738,7,13
-0.930478,0.362591,-0.052336,4,6
-17.9759,7.00489,4.45403,16,14
-1.07687,0.419855,-0.020175,1,7
-15.0532,5.87204,4.32952,16,15
-23.1609,9.07198,0.434181,40,8
-14.8263,5.81035,0.834549,19,9
-0.676277,0.265166,-0.141199,11,2
-15.1182,5.93086,1.42081,12,10
-15.5024,6.08782,2.04497,21,11
-0.790772,0.310697,-0.10432,5,4
-14.3407,5.63451,2.44038,22,12
-0.85667,0.33676,-0.0805319,3,5
-14.3421,5.64084,2.9957,14,13
-0.927412,0.364943,-0.0522313,4,6
-17.2424,6.78847,4.27812,25,14
-1.08106,0.425621,-0.0202797,7,7
-14.9816,5.9014,4.31451,13,15
-30.0816,11.898,0.564655,12,8
-14.7112,5.82457,0.829211,34,9
-0.668046,0.264633,-0.139672,11,2
-15.0734,5.97406,1.41855,46,10
-15.8475,6.28407,2.09323,9,11
-0.789738,0.313317,-0.10432,5,4
-14.343,5.69328,2.44413,22,12
-0.844379,0.335336,-0.079486,3,5
-16.4253,6.52314,3.43533,41,13
-0.946614,0.376129,-0.0533827,4,6
-17.62,7.00471,4.37755,31,14
-1.1,0.437522,-0.0206636,15,7
-15.0865,6.00366,4.35075,6,15
-23.7467,9.48837,0.446363,15,8
-14.5397,5.81253,0.820628,61,9
-0.685393,0.274138,-0.143488,22,2
-15.2126,6.08767,1.43354,18,10
-15.3556,6.15112,2.03107,52,11
-0.836547,0.335273,-0.110657,3,4
-14.3479,5.75037,2.4482,38,12
-0.854358,0.342584,-0.0805319,3,5
-15.8303,6.35091,3.3155,12,13
-0.934174,0.374967,-0.0527546,4,6
-15.6876,6.3,3.9029,28,14
-1.0837,0.435205,-0.0203844,16,7
-17.6819,7.10449,5.10598,1,15
-16.924,6.82742,0.318541,7,8
-0.680791,0.275058,-0.142725,11,2
-15.182,6.137,1.43267,50,10
-15.5357,6.28313,2.05764,39,11
-0.817029,0.330599,-0.10822,4,4
-14.509,5.8738,2.47917,19,12
-0.90117,0.365011,-0.085064,1,5
-15.7455,6.37757,3.30214,22,13
-0.97735,0.396066,-0.0552668,6,6
-17.0554,6.91506,4.24888,9,14
-1.06735,0.432972,-0.0201052,9,7
-15.1527,6.1498,4.38181,13,15
-14.976,6.10243,0.282275,22,8
-14.4647,5.89704,0.818639,43,9
-0.687147,0.28028,-0.144252,11,2
-15.501,6.32583,1.46474,15,10
-14.9274,6.09786,1.97989,42,11
-0.834246,0.340959,-0.110657,3,4
-14.5315,5.93907,2.48637,57,12
-0.87598,0.358194,-0.082798,5,5
-15.6595,6.40648,3.28878,9,13
-1.00923,0.413094,-0.0571509,4,6
-15.7309,6.44208,3.9245,10,14
-14.3268,5.8671,-0.270233,97,7
-15.2502,6.24835,4.41597,33,15
-15.0111,6.17488,0.283322,30,8
-14.4163,5.93608,0.817069,21,9
-0.682534,0.281181,-0.143488,22,2
-26.4667,10.9088,2.50451,57,10
-14.9347,6.15868,1.98355,46,11
-0.81476,0.336153,-0.10822,4,4
-14.5709,6.01463,2.49669,46,12
-0.876566,0.362011,-0.0829723,4,5
-18.4526,7.6207,3.88067,19,13
-1.0337,0.427116,-0.0586163,8,6
-16.2353,6.71161,4.05587,11,14
-14.3007,5.91479,-0.270128,100,7
-15.1533,6.27052,4.39423,26,15
-14.909,6.19685,0.281821,61,8
-24.3318,10.1184,1.38104,27,9
-0.717801,0.298645,-0.151121,9,2
-30.9165,12.8693,2.92983,9,10
-14.989,6.24544,1.99378,25,11
-0.842839,0.351358,-0.11212,3,4
-14.5006,6.04494,2.48825,55,12
-0.926785,0.386543,-0.087853,2,5
-18.1147,7.55899,3.81542,7,13
-1.04319,0.435519,-0.0592443,14,6
-22.898,9.56437,5.72905,6,14
-14.2818,5.96544,-0.270163,31,7
-15.2276,6.3636,4.42218,11,15
-15.0506,6.31434,0.284893,71,8
-24.3313,10.218,1.38303,20,9
-0.716754,0.301148,-0.151121,9,2
-27.1796,11.4253,2.57946,15,10
-14.7522,6.2043,1.96502,34,11
-0.845328,0.35569,-0.112607,3,4
-14.5377,6.12005,2.49826,60,12
-0.936447,0.394416,-0.0888989,2,5
-18.4008,7.7501,3.88106,3,13
-1.05278,0.443629,-0.0598723,22,6
-15.7822,6.6537,3.95419,30,14
-14.3162,6.03857,-0.27121,41,7
-15.4207,6.5076,4.48482,5,15
-14.4651,6.12813,0.274212,51,8
-0.715751,0.303524,-0.151121,9,2
-15.548,6.59653,1.47764,15,10
-0.778251,0.330348,-0.133908,6,3
-14.7835,6.27826,1.97209,25,11
-0.818503,0.347771,-0.109195,4,4
-14.5301,6.17362,2.50045,42,12
-0.938801,0.399078,-0.0892475,3,5
-15.259,6.48962,3.22315,14,13
-1.06409,0.452776,-0.060605,16,6
-15.4577,6.58051,3.87861,18,14
-24.0679,10.246,-0.45659,100,7
-12.948,5.51479,3.77099,13,15
-14.4263,6.16821,0.273863,61,8
-14.8087,6.33782,0.844179,47,9
-0.714688,0.30602,-0.151121,9,2
-15.3784,6.588,1.46369,15,10
-0.777151,0.332927,-0.133908,6,3
-14.7352,6.31552,1.96843,46,11
-0.853834,0.36613,-0.11407,3,4
-19.6695,8.43849,3.38994,11,12
-0.948388,0.407067,-0.0902933,5,5
-24.1405,10.3616,5.10643,14,13
-14.4027,6.18489,-0.821465,9,6
-15.3588,6.59865,3.85926,13,14
-24.1385,10.3757,-0.458614,100,7
-12.8968,5.54622,3.76168,10,15
-16.7445,7.23559,0.955969,14,9
-26.4115,11.4183,2.51741,29,10
-0.775985,0.335638,-0.133908,6,3
-15.2305,6.59081,2.03766,17,11
-0.858016,0.371474,-0.114801,2,4
-0.976285,0.422881,-0.0930823,5,5
-16.3601,7.08982,3.46585,15,13
-14.3975,6.24228,-0.822407,35,6
-13.1635,5.71,3.31263,31,14
-26.2025,11.3714,-0.49858,20,7
-12.8773,5.5912,3.76168,27,15
-14.5368,6.33589,0.276795,46,8
-25.0166,10.9191,2.38807,6,10
-0.811014,0.354155,-0.140165,5,3
-15.0564,6.57798,2.01743,8,11
-0.874903,0.382418,-0.117238,2,4
-14.5388,6.35789,2.51328,32,12
-1.01679,0.444647,-0.0970915,10,5
-18.6267,8.14943,3.95204,9,13
-14.3701,6.2901,-0.822093,71,6
-12.9471,5.66992,3.26314,9,14
-40.6544,17.8122,-0.774747,33,7
-12.9338,5.66947,3.78393,13,15
-14.4872,6.37451,0.276272,10,8
-15.5451,6.84324,0.89013,33,9
-25.7988,11.3679,2.46651,28,10
-0.773623,0.341047,-0.133908,6,3
-14.9298,6.58483,2.00353,46,11
-0.8591,0.378908,-0.115288,5,4
-14.4363,6.37019,2.4992,46,12
-1.04257,0.460263,-0.0997062,13,5
-19.013,8.39764,4.04019,8,13
-14.7372,6.51217,-0.844388,22,6
-12.5611,5.55057,3.17046,74,14
-37.3213,16.4995,-0.712268,13,7
-12.9626,5.73343,3.79791,5,15
-16.7398,7.43553,0.959946,23,9
-25.7792,11.4615,2.46825,21,10
-0.797756,0.35485,-0.138288,5,3
-14.926,6.64238,2.00597,46,11
-0.865093,0.384983,-0.116263,7,4
-14.0813,6.26939,2.44132,47,12
-1.03376,0.460475,-0.0990089,15,5
-14.4036,6.42193,-0.82649,65,6
-12.5533,5.59695,3.17316,65,14
-25.9491,11.575,-0.495963,100,7
-15.7062,7.00928,4.60853,60,15
-15.1819,6.80071,0.290373,37,8
-14.771,6.62286,0.848366,11,9
-18.1696,8.15049,1.74224,18,10
-0.789366,0.354258,-0.137037,6,3
-14.9945,6.73249,2.01816,8,11
-0.912635,0.409963,-0.122844,4,4
-13.9854,6.2853,2.42849,38,12
-1.02132,0.459,-0.0979631,6,5
-13.5511,6.09296,2.88809,28,13
-14.4132,6.48358,-0.828269,35,6
-12.6349,5.68632,3.1988,58,14
-20.2487,9.11714,-0.387618,100,7
-15.6535,7.05137,4.60025,11,15
-15.1343,6.84296,0.289919,47,8
-14.8242,6.70896,0.852762,27,9
-18.1701,8.22702,1.74503,54,10
-0.764732,0.346415,-0.132969,14,3
-14.9419,6.77168,2.01426,21,11
-0.94555,0.428721,-0.127475,5,4
-13.7961,6.25819,2.39939,61,12
-14.7477,6.68987,-1.4168,13,5
-13.4958,6.12481,2.88083,10,13
-20.3772,9.2521,-1.17285,19,6
-15.7697,7.16339,3.99873,60,14
-19.9364,9.06036,-0.382243,86,7
-13.6099,6.18804,4.006,6,15
-15.1358,6.90737,0.290408,35,8
-14.9418,6.82196,0.860822,45,9
-18.1086,8.27549,1.74189,18,10
-0.774298,0.354011,-0.134847,13,3
-14.8713,6.80233,2.00792,46,11
-0.987369,0.451844,-0.133325,9,4
-13.786,6.30883,2.40127,65,12
-14.8475,6.79771,-1.42866,24,5
-13.3798,6.12855,2.86061,36,13
-14.4311,6.61317,-0.831932,19,6
-13.0041,5.962,3.30273,24,14
-19.6845,9.02474,-0.377984,100,7
-13.5893,6.23314,4.006,13,15
-14.7841,6.80617,0.28409,53,8
-14.8707,6.85234,0.8581,21,9
-30.8908,14.2474,2.97619,37,10
-0.776707,0.358231,-0.135472,13,3
-18.3562,8.4701,2.48223,16,11
-0.996679,0.460108,-0.134787,16,4
-14.1621,6.54079,2.47073,30,12
-14.6953,6.79015,-1.41628,33,5
-13.3504,6.16877,2.8587,35,13
-14.4055,6.65931,-0.831723,13,6
-12.9825,6.00427,3.30228,33,14
-19.515,9.02958,-0.375331,85,7
-15.0821,6.98171,4.45324,5,15
-14.7512,6.85352,0.283916,40,8
-16.0451,7.45809,0.927289,27,9
-14.6232,6.8034,1.41105,50,10
-0.805897,0.375111,-0.140791,10,3
-14.8444,6.91261,2.0106,39,11
-0.987869,0.460231,-0.133813,27,4
-14.3856,6.70201,2.51359,18,12
-14.6347,6.82117,-1.41262,30,5
-13.5174,6.30329,2.89915,15,13
-14.86,6.93248,-0.859356,19,6
-18.1214,8.45783,4.6169,32,14
-19.764,9.22449,-0.380707,100,7
-15.1184,7.05947,4.47084,11,15
-15.0543,7.05514,0.290199,26,8
-16.2486,7.62177,0.940582,11,9
-14.5796,6.84508,1.40913,21,10
-0.808225,0.37946,-0.141417,10,3
-14.834,6.96771,2.01231,8,11
-1.00969,0.47448,-0.136981,16,4
-14.6839,6.90346,2.56991,25,12
-13.2691,6.24112,2.8503,32,13
-15.0754,7.09397,-0.873173,61,6
-12.6399,5.95056,3.22535,29,14
-19.681,9.26957,-0.379729,86,7
-12.5143,5.89678,3.70681,9,15
-14.9102,7.05122,0.287895,100,8
-14.534,6.8795,0.842714,5,9
-18.4085,8.71736,1.78199,18,10
-0.814036,0.385662,-0.142668,19,3
-18.7811,8.90184,2.55194,11,11
-1.03494,0.49076,-0.140637,9,4
-14.6276,6.93943,2.56427,17,12
-15.5474,7.3758,-1.50553,37,5
-13.2366,6.28235,2.84802,15,13
-14.5328,6.90067,-0.843132,48,6
-12.6437,6.00635,3.23165,13,14
-19.8707,9.44379,-0.384023,94,7
-14.7827,7.05414,0.285905,39,8
-24.4631,11.6893,2.37203,52,10
-0.837636,0.400429,-0.147048,15,3
-14.8369,7.09594,2.01938,13,11
-1.01173,0.484088,-0.137712,10,4
-14.7155,7.04419,2.58398,6,12
-15.4892,7.41455,-1.50239,25,5
-13.2234,6.33275,2.84992,37,13
-14.478,6.93669,-0.841353,61,6
-12.6683,6.07235,3.24334,27,14
-19.6681,9.43181,-0.380742,100,7
-12.1906,5.84863,3.62295,14,15
-14.7201,7.08748,0.285172,60,8
-14.5264,6.99733,0.845016,13,9
-0.700365,0.337514,-0.151121,9,2
-20.8382,10.0467,2.02393,63,10
-0.84157,0.405925,-0.147987,14,3
-16.0582,7.749,2.18926,100,11
-1.02621,0.495205,-0.139906,11,4
-13.6247,6.57766,2.39626,9,12
-15.4417,7.45817,-1.5003,37,5
-13.0739,6.31737,2.82245,11,13
-14.4879,7.0037,-0.843342,42,6
-18.1379,8.7682,4.65109,37,14
-19.7519,9.5527,-0.382976,100,7
-0.699242,0.339835,-0.151121,9,2
-0.866865,0.421675,-0.15268,12,3
-19.0222,9.2572,-2.59752,23,4
-13.681,6.66085,2.41003,1,12
-19.3808,9.44011,-1.88605,18,5
-14.4807,7.05958,-0.844284,13,6
-14.9505,7.2886,3.83991,26,14
-15.0867,7.35825,-0.292991,7,7
-20.2258,9.90415,0.393098,12,8
-23.1103,11.3266,1.3488,2,9
-0.698111,0.342152,-0.151121,9,2
-16.1074,7.8979,1.5695,3,10
-0.893838,0.438467,-0.157686,13,3
-12.7549,6.26236,-1.74468,35,4
-14.5921,7.16753,2.57491,7,12
-15.3901,7.55954,-1.50012,34,5
-13.3454,6.55807,2.89037,24,13
-14.4518,7.10492,-0.84397,26,6
-14.869,7.31322,3.82552,23,14
-24.6708,12.1396,-0.479941,10,7
-12.2157,6.01354,3.64831,13,15
-20.6823,10.2263,1.20917,1,9
-0.696912,0.344587,-0.151121,9,2
-0.92594,0.458232,-0.16363,17,3
-1.48012,0.732808,0.202791,1,11
-12.7934,6.3368,-1.75297,11,4
-18.1458,8.99189,3.20753,22,12
-15.3404,7.60172,-1.49786,18,5
-13.5652,6.72495,2.94304,36,13
-19.1381,9.49192,-1.11957,13,6
-12.6438,6.2737,3.25864,15,14
-12.1774,6.04755,3.64314,24,15
-1.41921,0.707591,0.0831095,2,9
-0.650028,0.324233,-0.141199,11,2
-1.41194,0.704581,0.138055,1,10
-0.945543,0.472049,-0.167385,22,3
-1.41718,0.707813,0.194503,10,11
-14.5518,7.2711,2.57648,58,12
-13.6821,6.84251,2.97357,31,13
-12.634,6.3239,3.26179,24,14
-12.1555,6.08703,3.64262,41,15
-1.42764,0.717404,0.0278889,1,8
-1.41673,0.712541,0.0831095,8,9
-0.648892,0.3265,-0.141199,11,2
-1.40591,0.707714,0.137706,12,10
-0.949266,0.477846,-0.168324,21,3
-1.41659,0.713401,0.194747,16,11
-14.7256,7.42233,2.61183,22,12
-13.6418,6.879,2.96975,26,13
-14.6467,7.39219,3.78773,20,14
-1.4459,0.730058,-0.0282729,3,7
-12.1704,6.14772,3.65349,30,15
-1.40551,0.712438,0.027505,12,8
-1.34176,0.680421,-0.347324,1,1
-1.4108,0.715428,0.0829002,19,9
-0.605786,0.307333,-0.13204,13,2
-1.42132,0.721389,0.139449,13,10
-0.938786,0.476685,-0.166759,16,3
-1.41586,0.719241,0.194991,9,11
-1.3945,0.708696,-0.192066,1,4
-15.2785,7.76466,2.71445,12,12
-1.41016,0.716963,-0.138403,1,5
-12.7287,6.47442,2.77589,9,13
-1.4276,0.726456,-0.0839469,5,6
-12.4257,6.32576,3.21905,31,14
-1.39892,0.712168,-0.0274003,18,7
-12.2102,6.21873,3.67161,12,15
-1.35897,0.694524,-0.408934,1,0
-1.41026,0.720735,0.0276446,27,8
-1.42252,0.727625,0.0837375,11,9
-0.692095,0.354163,-0.151121,9,2
-1.39751,0.715451,0.137357,6,10
-0.94775,0.485197,-0.168636,17,3
-1.41524,0.724837,0.195235,21,11
-1.39568,0.715127,-0.192554,8,4
-20.1224,10.3149,3.58141,10,12
-1.38106,0.708244,-0.135789,12,5
-12.6985,6.51212,2.77398,21,13
-1.38253,0.709304,-0.0814348,16,6
-12.2226,6.27349,3.17181,67,14
-1.40887,0.723441,-0.0276446,15,7
-11.9135,6.12008,3.58879,32,15
-1.34979,0.695487,-0.406864,2,0
-1.3793,0.710993,0.0270861,11,8
-1.39599,0.719907,-0.362621,1,1
-1.40577,0.72526,0.0829002,11,9
-0.624617,0.322251,-0.136619,12,2
-1.40221,0.723736,0.138055,25,10
-0.944295,0.487596,-0.168324,17,3
-1.40552,0.726374,-0.19426,19,4
-21.3269,11.0265,3.80261,9,12
-1.38224,0.714649,-0.136137,19,5
-13.6644,7.06782,2.99036,20,13
-1.40133,0.725141,-0.0826908,16,6
-12.1211,6.27491,3.15111,24,14
-1.39569,0.722837,-0.0274352,8,7
-12.2694,6.35715,3.70267,10,15
-1.36107,0.707321,-0.411005,2,0
-1.38568,0.720416,0.0272607,11,8
-1.35025,0.702294,-0.351374,2,1
-1.41209,0.734772,0.0834235,41,9
-0.602589,0.313554,-0.13204,13,2
-0.947844,0.493626,-0.169262,17,3
-1.4031,0.731031,0.19426,100,11
-1.38713,0.723018,-0.192066,14,4
-26.2696,13.6984,4.69241,13,12
-1.3921,0.725919,-0.137357,5,5
-13.5578,7.07279,2.97242,49,13
-1.38109,0.720787,-0.0816441,6,6
-12.087,6.31087,3.14796,92,14
-1.40024,0.731408,-0.0275748,12,7
-12.2454,6.39904,3.70215,28,15
-1.34833,0.706687,-0.407899,2,0
-1.40086,0.734535,0.0276097,29,8
-1.37195,0.719677,-0.357672,5,1
-0.643212,0.337551,-0.141199,11,2
-1.3936,0.731656,0.137706,100,10
-0.958357,0.503362,-0.171452,21,3
-1.39175,0.731307,0.193041,100,11
-1.37581,0.723237,-0.190847,9,4
-20.2337,10.6364,3.62052,21,12
-1.37545,0.723354,-0.135963,5,5
-1.38563,0.729325,-0.0820628,9,6
-12.2494,6.45017,3.1961,18,14
-1.3925,0.733251,-0.0274701,40,7
-14.335,7.5516,4.34143,27,15
-1.36783,0.723311,-0.357222,5,1
-1.39116,0.735961,0.0824815,100,9
-0.569151,0.301223,-0.125171,14,2
-1.38575,0.733719,0.137183,100,10
-0.961919,0.50931,-0.172391,24,3
-1.38581,0.73406,0.192554,100,11
-1.3699,0.725937,-0.19036,8,4
-17.1282,9.08041,3.0705,16,12
-1.38172,0.732819,-0.136835,9,5
-14.1077,7.48227,3.10408,20,13
-1.37262,0.728299,-0.0814348,30,6
-12.5085,6.63969,3.26944,45,14
-1.35814,0.721226,-0.0268418,81,7
-14.5508,7.73029,4.41494,22,15
-1.34178,0.71494,-0.407381,2,0
-1.39054,0.741231,0.027505,100,8
-1.35842,0.724414,-0.355423,4,1
-1.38519,0.738691,0.0822721,100,9
-0.620114,0.330832,-0.136619,12,2
-1.37452,0.733619,0.136312,100,10
-0.963621,0.514525,-0.173017,24,3
-1.39025,0.742634,0.193529,121,11
-1.36748,0.730475,-0.19036,10,4
-1.36171,0.728003,-0.135091,36,5
-13.9275,7.44907,3.07012,33,13
-12.8421,6.87144,3.36257,36,14
-1.36632,0.731388,-0.0270512,100,7
-11.8139,6.32659,3.59086,5,15
-1.3326,0.71573,-0.405311,2,0
-1.37046,0.736373,0.0271559,100,8
-1.36287,0.732605,-0.357222,4,1
-1.38273,0.74328,0.0822721,100,9
-0.622472,0.334746,-0.137382,12,2
-1.37033,0.737229,0.136137,100,10
-0.954952,0.513973,-0.171765,32,3
-1.37904,0.742535,0.19231,100,11
-1.38253,0.744417,-0.192797,25,4
-13.5181,7.28179,2.43193,5,12
-14.1774,7.64335,3.13079,15,13
-1.36411,0.735729,-0.0812254,100,6
-12.7952,6.90104,3.35627,56,14
-1.37445,0.741612,-0.0272607,100,7
-12.6207,6.81263,3.84295,12,15
-1.33871,0.724743,-0.407899,2,0
-1.36449,0.739009,0.0270861,100,8
-1.34502,0.728765,-0.353173,4,1
-1.38013,0.748102,0.0822721,100,9
-0.617906,0.334937,-0.136619,12,2
-1.37488,0.745569,0.136835,100,10
-0.941088,0.510544,-0.169575,34,3
-1.37308,0.74521,0.191822,100,11
-1.3712,0.744502,-0.191579,81,4
-1.36036,0.73892,-0.13544,100,5
-1.36342,0.741202,-0.0813301,100,6
-12.771,6.94566,3.35627,22,14
-1.37888,0.750229,-0.0274003,100,7
-12.5833,6.84925,3.8388,29,15
-1.33617,0.729412,-0.407899,2,0
-1.36541,0.745685,0.0271559,100,8
-1.33904,0.731587,-0.352273,4,1
-1.37751,0.752915,0.0822721,100,9
-0.630515,0.344625,-0.139672,11,2
-1.37577,0.752275,0.137183,100,10
-0.944499,0.51667,-0.170514,35,3
-1.36873,0.749045,0.191579,100,11
-1.35641,0.742611,-0.189872,100,4
-13.4964,7.39212,2.43725,19,12
-1.35777,0.743664,-0.13544,100,5
-1.35732,0.744037,-0.0811207,125,6
-15.0534,8.25518,3.96364,8,14
-1.36573,0.749267,-0.0271908,100,7
-12.5949,6.91265,3.84967,24,15
-1.33192,0.73314,-0.407381,2,0
-1.36105,0.749482,0.027121,100,8
-1.36801,0.753624,0.0818534,100,9
-0.582884,0.321238,-0.129368,13,2
-1.37488,0.758035,0.137357,100,10
-0.949608,0.523779,-0.171765,45,3
-1.37132,0.756696,0.19231,100,11
-1.35554,0.748301,-0.190116,100,4
-13.6534,7.53708,2.4701,37,12
-1.35865,0.750326,-0.135789,100,5
-14.1238,7.80317,3.13652,11,13
-1.36171,0.752635,-0.0815394,128,6
-17.0198,9.41097,4.49002,16,14
-1.35624,0.749921,-0.0270512,100,7
-14.0105,7.75015,4.29018,7,15
-1.3226,0.734035,-0.405311,2,0
-1.3708,0.760784,0.0273654,100,8
-1.33744,0.742577,-0.353173,4,1
-1.36886,0.760334,0.0820628,100,9
-0.581759,0.323271,-0.129368,13,2
-1.35829,0.755085,0.135963,100,10
-0.944413,0.525006,-0.171139,68,3
-1.37227,0.763169,0.192797,100,11
-1.35479,0.753757,-0.19036,100,4
-13.4803,7.50303,2.44351,41,12
-1.3421,0.74731,-0.134394,100,5
-1.3627,0.75909,-0.0817488,125,6
-13.8632,7.72566,3.664,19,14
-1.35711,0.756598,-0.027121,100,7
-18.9571,10.5731,5.81618,10,15
-1.32185,0.73936,-0.405828,2,0
-1.34719,0.753846,0.0269465,100,8
-1.35355,0.757711,-0.358122,5,1
-1.36968,0.76706,0.0822721,100,9
-0.556703,0.311769,-0.124026,14,2
-1.34535,0.753742,0.134917,100,10
-0.933959,0.52347,-0.169575,69,3
-1.37133,0.768925,0.193041,121,11
-1.35215,0.758481,-0.19036,100,4
-12.6082,7.07538,2.28989,19,12
-1.33266,0.747856,-0.133697,100,5
-14.702,8.25376,3.27734,12,13
-1.36004,0.763842,-0.0817488,128,6
-20.8324,11.7049,5.5167,62,14
-1.35446,0.76133,-0.027121,100,7
-1.31926,0.743969,-0.405828,2,0
-1.34455,0.758544,0.0269465,100,8
-1.3441,0.758601,-0.356322,5,1
-1.367,0.771836,0.0822721,100,9
-0.593222,0.334946,-0.132421,13,2
-1.3618,0.769212,0.136835,100,10
-0.926967,0.523812,-0.168636,34,3
-1.35308,0.764915,0.190847,100,11
-1.34777,0.762219,-0.190116,100,4
-11.3765,6.4365,2.07025,5,12
-1.34392,0.760352,-0.135091,100,5
-13.8616,7.84568,3.09607,9,13
-1.33998,0.758744,-0.0807021,134,6
-21.1729,11.9937,5.61793,59,14
-1.35875,0.769997,-0.0272607,100,7
-1.33345,0.758118,-0.411005,2,0
-1.3419,0.763233,0.0269465,100,8
-1.33637,0.760396,-0.354973,5,1
-1.35575,0.771426,0.0817488,100,9
-0.581812,0.331187,-0.130132,13,2
-1.36603,0.777905,0.137532,100,10
-0.925133,0.527044,-0.168636,13,3
-1.35386,0.771599,0.191335,100,11
-1.33648,0.762004,-0.188898,100,4
-1.33433,0.76109,-0.134394,100,5
-13.7846,7.8658,3.085,30,13
-1.33386,0.761437,-0.0804927,128,6
-14.257,8.14197,3.79043,2,14
-1.34924,0.770532,-0.027121,100,7
-16.8931,9.65128,5.21313,8,15
-1.31403,0.753161,-0.405828,2,0
-1.34283,0.769667,0.0270163,100,8
-1.35305,0.776154,0.0817488,100,9
-0.563624,0.323444,-0.126316,14,2
-1.35639,0.778701,0.136835,100,10
-1.25059,0.717959,-0.228394,6,3
-1.35129,0.776085,0.191335,100,11
-1.33911,0.769398,-0.189629,100,4
-11.3649,6.53249,2.0762,54,12
-1.32994,0.76475,-0.13422,100,5
-1.33825,0.769839,-0.0809114,125,6
-21.1178,12.1531,5.62513,53,14
-1.33961,0.771246,-0.0269814,100,7
-14.2193,8.18969,4.39682,13,15
-1.33667,0.772349,0.0269465,100,8
-1.3486,0.779873,0.0816441,100,9
-0.579544,0.33514,-0.130132,13,2
-1.3469,0.779203,0.136137,100,10
-1.29595,0.750025,-0.237155,11,3
-1.35544,0.784775,0.19231,100,11
-1.32611,0.768098,-0.188166,100,4
-11.5369,6.68503,2.11187,42,12
-1.32567,0.768157,-0.134046,100,5
-11.4684,6.64797,2.57668,10,13
-1.34592,0.780518,-0.0815394,139,6
-21.0314,12.2013,5.61343,26,14
-1.34729,0.78194,-0.0271908,100,7
-13.5625,7.87455,4.20219,32,15
-1.30887,0.762088,-0.405828,2,0
-1.33051,0.774997,0.0268767,100,8
-1.33857,0.780004,-0.357672,5,1
-1.35623,0.79061,0.0822721,100,9
-0.568194,0.331228,-0.127842,14,2
-1.34073,0.781893,0.135789,100,10
-1.2865,0.750563,-0.235903,13,3
-1.35441,0.790502,0.192554,100,11
-1.34056,0.782732,-0.190604,100,4
-11.5306,6.73522,2.11499,67,12
-1.31954,0.77077,-0.133697,100,5
-14.4843,8.46396,3.26093,19,13
-1.33629,0.781179,-0.0811207,131,6
-13.6241,7.96764,3.64376,2,14
-1.33765,0.782599,-0.0270512,100,7
-13.5316,7.91989,4.20115,56,15
-1.30621,0.766652,-0.405828,2,0
-1.3278,0.779637,0.0268767,100,8
-1.32912,0.780723,-0.355873,5,1
-1.35015,0.79308,0.0820628,100,9
-0.600887,0.353103,-0.135474,12,2
-1.34487,0.790607,0.136486,100,10
-1.29068,0.759054,-0.237155,16,3
-1.34309,0.790193,0.191335,100,11
-1.32071,0.777337,-0.188166,100,4
-11.595,6.82452,2.13095,34,12
-1.322,0.778404,-0.13422,100,5
-12.4552,7.33669,2.80985,5,13
-1.32323,0.779755,-0.0804927,131,6
-1.33505,0.787031,-0.0270512,100,7
-1.31183,0.776126,-0.408416,2,0
-1.32865,0.786072,0.0269465,100,8
-1.31143,0.776193,-0.351823,5,1
-1.34394,0.795753,0.0818534,100,9
-0.579381,0.343191,-0.130895,13,2
-1.34896,0.79936,0.137183,100,10
-1.28136,0.759302,-0.235903,11,3
-1.34217,0.795654,0.191579,100,11
-1.31983,0.782725,-0.18841,100,4
-1.32098,0.784031,-0.134394,100,5
-1.32408,0.786178,-0.0807021,139,6
-13.5779,8.06516,3.64601,92,14
-1.33229,0.791686,-0.0270512,100,7
-15.8885,9.44517,4.95276,6,15
-1.33448,0.795826,0.027121,100,8
-1.34129,0.800206,0.0818534,100,9
-0.57824,0.345111,-0.130895,13,2
-1.34288,0.801786,0.136835,100,10
-1.11928,0.668552,-0.206494,7,3
-1.34279,0.802371,0.192066,100,11
-1.31198,0.784272,-0.187679,100,4
-11.9315,7.13235,2.20166,38,12
-1.31838,0.788407,-0.134394,100,5
-12.5044,7.48077,2.83237,45,13
-1.32132,0.790795,-0.0807021,139,6
-13.548,8.11151,3.64556,59,14
-1.3228,0.791991,-0.0269116,100,7
-15.8704,9.50575,4.9569,21,15
-1.29493,0.778072,-0.404793,1,0
-1.32326,0.795098,0.0269465,100,8
-1.33507,0.802824,0.0816441,100,9
-0.560208,0.337007,-0.127079,14,2
-1.32641,0.79825,0.13544,100,10
-0.890264,0.535771,-0.164569,17,3
-1.34522,0.809891,0.192797,100,11
-1.30937,0.788618,-0.187679,100,4
-11.7305,7.06793,2.16912,56,12
-1.29855,0.782719,-0.132651,167,5
-1.32211,0.797235,-0.0809114,138,6
-1.3303,0.802803,-0.027121,100,7
-16.0306,9.67791,5.01747,13,15
-1.27912,0.774359,-0.400652,1,0
-1.31364,0.795568,0.0268069,100,8
-1.34265,0.813457,0.0822721,100,9
-0.565804,0.342933,-0.128605,14,2
-1.33228,0.807809,0.136312,100,10
-0.888389,0.538875,-0.164569,27,3
-1.34748,0.817671,0.193529,100,11
-1.31001,0.795244,-0.188166,100,4
-11.8522,7.19495,2.19603,24,12
-1.30787,0.79426,-0.133871,100,5
-1.32274,0.80392,-0.0811207,134,6
-11.9356,7.25694,3.2249,65,14
-1.32421,0.805132,-0.0270512,100,7
-14.4007,8.75922,4.51639,6,15
-1.32636,0.809294,0.027121,100,8
-1.31238,0.801081,-0.354973,2,1
-1.34151,0.819179,0.0823768,99,9
-0.564603,0.344906,-0.128605,14,2
-1.32775,0.811415,0.136137,88,10
-0.871427,0.532548,-0.161753,21,3
-1.33968,0.819029,0.192797,100,11
-1.31414,0.803727,-0.189141,100,4
-20.9092,12.7931,3.88239,17,12
-1.31189,0.802981,-0.134568,100,5
-11.0918,6.78908,2.52784,45,13
-1.30984,0.802044,-0.0804927,134,6
-11.9929,7.34635,3.24694,63,14
-1.32651,0.812884,-0.0271559,100,7
-14.3981,8.8266,4.52519,13,15
-1.29028,0.793164,-0.405828,1,0
-1.32523,0.814967,0.0271559,100,8
-1.33538,0.82153,0.0821675,87,9
-0.573488,0.35295,-0.130895,13,2
-1.34032,0.825215,0.137706,100,10
-0.861153,0.530407,-0.160189,14,3
-1.34019,0.825783,0.193285,88,11
-1.2978,0.799976,-0.187191,100,4
-11.3708,7.00906,2.11562,12,12
-1.316,0.81151,-0.135266,100,5
-11.0263,6.80198,2.5183,21,13
-1.31383,0.810807,-0.0809114,128,6
-12.0534,7.44141,3.27034,22,14
-1.3238,0.817279,-0.0271559,100,7
-13.2461,8.18096,4.17165,7,15
-1.29079,0.799698,-0.406864,1,0
-1.32252,0.819357,0.0271559,100,8
-1.32678,0.822315,-0.360372,2,1
-1.3376,0.829344,0.0824815,78,9
-0.578926,0.359089,-0.132421,13,2
-1.33912,0.830939,0.13788,84,10
-0.83589,0.518678,-0.155809,15,3
-1.34757,0.836504,0.194747,70,11
-1.29346,0.803228,-0.186948,100,4
-11.2372,6.98096,2.09528,27,12
-1.30808,0.812944,-0.134743,100,5
-11.0987,6.89758,2.54005,35,13
-1.31453,0.817269,-0.0811207,122,6
-1.31755,0.819781,-0.0270861,100,7
-13.1568,8.18937,4.15249,2,15
-1.35368,0.844889,-0.427569,1,0
-1.31626,0.82185,0.0270861,100,8
-1.33712,0.8352,-0.363971,1,1
-1.333,0.83295,0.0823768,65,9
-0.566078,0.353725,-0.12975,13,2
-1.32791,0.830095,0.137009,68,10
-0.800578,0.500645,-0.149551,26,3
-1.35474,0.84752,0.19621,37,11
-1.30242,0.81511,-0.188654,100,4
-11.2044,7.0149,2.09372,47,12
-1.29863,0.813048,-0.134046,100,5
-11.7584,7.36459,2.69689,42,13
-1.31844,0.826094,-0.0815394,100,6
-11.9083,7.46429,3.24469,56,14
-1.31637,0.825438,-0.027121,100,7
-13.5683,8.5114,4.29174,10,15
-1.30821,0.822866,-0.41411,1,0
-1.30323,0.820049,0.0268767,86,8
-1.30781,0.823253,-0.356772,1,1
-1.34529,0.847177,0.0833189,57,9
-0.564839,0.355698,-0.12975,13,2
-1.32501,0.834725,0.137009,55,10
-0.745347,0.469734,-0.13954,56,3
-1.36352,0.859655,0.197916,7,11
-1.31132,0.827064,-0.19036,100,4
-11.3453,7.15832,2.12469,25,12
-1.29241,0.81545,-0.133697,100,5
-10.7531,6.78732,2.47174,27,13
-1.31048,0.827492,-0.0812254,100,6
-11.8756,7.50165,3.24289,65,14
-1.32193,0.835369,-0.0272956,100,7
-14.1852,8.96749,4.49672,5,15
-1.31724,0.835303,0.0272258,86,8
-1.32797,0.842427,-0.363071,1,1
-1.34401,0.852937,0.0834235,52,9
-0.563594,0.357668,-0.12975,13,2
-1.33891,0.850024,0.138752,42,10
-0.735366,0.467038,-0.137975,54,3
-12.6853,8.05965,1.84535,20,11
-1.30005,0.826312,-0.189141,100,4
-11.3885,7.24134,2.13752,15,12
-1.29964,0.826371,-0.134743,100,5
-11.7614,7.48127,2.70949,37,13
-1.30085,0.827773,-0.0808067,100,6
-11.8789,7.56189,3.25099,51,14
-1.32744,0.845349,-0.0274701,93,7
-12.6385,8.05163,4.01532,5,15
-1.32274,0.84528,0.0274003,69,8
-1.31188,0.83866,-0.359472,1,1
-1.33598,0.854395,0.0831095,43,9
-0.562342,0.359633,-0.12975,13,2
-1.34264,0.858987,0.139449,9,10
-0.725412,0.464277,-0.136411,50,3
-12.6805,8.11887,1.84876,16,11
-1.29215,0.827633,-0.18841,100,4
-11.2967,7.23842,2.12501,13,12
-1.31017,0.839501,-0.136137,99,5
-11.6872,7.49155,2.69842,16,13
-1.30467,0.836621,-0.0812254,100,6
-11.9,7.63382,3.26404,56,14
-1.32448,0.849978,-0.0274701,82,7
-12.5941,8.08527,4.01014,13,15
-1.31979,0.849892,0.0274003,58,8
-1.35161,0.870719,0.0842609,19,9
-0.551182,0.355213,-0.12746,14,2
-13.5622,8.74357,1.41175,84,10
-0.727107,0.468948,-0.137037,30,3
-12.4786,8.05116,1.82341,16,11
-1.28606,0.829761,-0.187923,81,4
-11.2726,7.27584,2.12501,37,12
-1.30389,0.841908,-0.135789,85,5
-1.30845,0.845506,-0.0816441,96,6
-11.945,7.71872,3.28339,85,14
-1.31662,0.851108,-0.0273654,68,7
-13.9461,9.01868,4.45013,6,15
-1.33038,0.86297,0.0276795,47,8
-12.445,8.07572,0.777503,28,9
-0.559881,0.363452,-0.12975,13,2
-13.5281,8.78524,1.41123,100,10
-0.727205,0.472433,-0.137349,24,3
-19.9552,12.969,2.92218,23,11
-1.28829,0.837267,-0.188654,75,4
-11.2087,7.28734,2.1175,60,12
-1.29107,0.839709,-0.134743,74,5
-11.1867,7.27863,2.59424,32,13
-1.31736,0.857467,-0.0823768,79,6
-11.7528,7.64986,3.2375,31,14
-1.32385,0.862016,-0.0275748,57,7
-11.938,7.77637,3.81758,23,15
-1.32082,0.863001,0.0275399,11,8
-12.3115,8.05025,0.770909,67,9
-0.568532,0.371754,-0.13204,13,2
-13.4955,8.82787,1.41088,28,10
-0.695881,0.455372,-0.131718,14,3
-13.2039,8.64366,1.93772,4,11
-1.30695,0.855897,-0.191822,73,4
-11.1518,7.30585,2.11155,49,12
-1.30161,0.852721,-0.136137,63,5
-11.422,7.48572,2.65453,22,13
-1.31785,0.864021,-0.0825861,75,6
-11.4506,7.51021,3.16146,63,14
-1.32584,0.869923,-0.0276795,32,7
-11.8398,7.77135,3.79481,9,15
-20.5068,13.5012,0.428561,44,8
-12.39,8.16351,0.777608,69,9
-0.580346,0.382377,-0.135093,12,2
-21.7357,14.3266,2.27755,24,10
-0.68934,0.454536,-0.130779,15,3
-13.1952,8.70391,1.94089,24,11
-1.30727,0.86264,-0.19231,61,4
-11.1806,7.38065,2.12188,29,12
-1.31026,0.864943,-0.137357,56,5
-1.30983,0.865313,-0.0822721,61,6
-11.2959,7.46526,3.12592,59,14
-11.73,7.75512,-0.245451,100,7
-13.5742,9.00501,0.284335,9,8
-12.4361,8.25314,0.782213,60,9
-0.565923,0.375714,-0.13204,13,2
-11.7672,7.81518,1.23587,2,10
-0.705848,0.468964,-0.134221,13,3
-12.8688,8.55323,1.89726,24,11
-1.29268,0.859504,-0.190604,53,4
-14.191,9.43562,2.69912,7,12
-1.30889,0.870614,-0.137532,45,5
-1.32675,0.883161,-0.0835282,15,6
-11.1676,7.43659,3.09758,19,14
-13.5385,9.01538,-0.283916,94,7
-11.166,7.43834,3.595,10,15
-13.5243,9.03664,0.283916,39,8
-0.442295,0.295644,-0.122823,15,1
-12.2993,8.22434,0.77541,43,9
-0.577662,0.386419,-0.135093,12,2
-19.9346,13.34,2.09854,21,10
-0.732198,0.489979,-0.13954,28,3
-12.3653,8.27782,1.82707,24,11
-1.29312,0.865996,-0.191091,45,4
-11.0956,7.43349,2.11531,12,12
-1.3224,0.88627,-0.139275,12,5
-10.7718,7.21929,2.52059,66,13
-15.0331,10.079,-0.948537,63,6
-11.0927,7.43993,3.08363,27,14
-15.5178,10.4118,-0.326185,81,7
-11.0678,7.42882,3.5717,23,15
-13.4529,9.05699,0.283078,42,8
-12.4194,8.36438,0.784725,30,9
-0.576378,0.388333,-0.135093,12,2
-15.0825,10.1656,1.59129,43,10
-0.71738,0.483697,-0.137037,49,3
-11.9742,8.07672,1.77344,3,11
-1.29832,0.876055,-0.19231,25,4
-11.3116,7.63266,2.1613,45,12
-12.2367,8.25997,-1.29165,42,5
-10.5741,7.14039,2.48014,20,13
-14.9895,10.1258,-0.948014,38,6
-10.8971,7.36404,3.03639,55,14
-11.583,7.82755,-0.24402,100,7
-10.8942,7.36486,3.52356,24,15
-13.4409,9.1139,0.283462,37,8
-12.1273,8.22937,0.768083,118,9
-0.552278,0.374905,-0.12975,13,2
-15.0206,10.2003,1.5885,74,10
-0.699431,0.474976,-0.133908,34,3
-11.8817,8.07177,1.76369,15,11
-10.3173,7.01161,-1.53165,15,4
-11.1673,7.59214,2.13877,38,12
-12.1831,8.28583,-1.28903,36,5
-15.3935,10.4732,-0.975752,39,6
-11.016,7.49772,3.07643,36,14
-11.5226,7.84543,-0.243321,24,7
-10.8701,7.40393,3.52408,12,15
-10.9505,7.48112,0.231489,13,8
-12.0357,8.22558,0.764,47,9
-0.54779,0.374518,-0.128987,13,2
-12.5527,8.58539,1.33052,31,10
-0.684726,0.46849,-0.131405,37,3
-14.8643,10.174,2.21168,19,11
-10.3763,7.10478,-1.54408,53,4
-10.5003,7.19238,-1.1135,19,5
-10.0831,6.90924,2.37595,38,13
-15.1987,10.4184,-0.965703,58,6
-10.8982,7.47332,3.05079,42,14
-11.5113,7.89378,-0.243636,27,7
-0.43823,0.301638,-0.122823,15,1
-11.8901,8.18712,0.756569,46,9
-0.59175,0.407612,-0.139672,11,2
-12.5375,8.63933,1.33209,31,10
-0.702688,0.484209,-0.135159,33,3
-12.2008,8.41045,1.81951,32,11
-10.5471,7.27325,-1.57309,17,4
-12.1231,8.3663,-1.28868,31,5
-10.0521,6.93706,2.37405,31,13
-15.2791,10.5482,-0.97303,29,6
-10.7803,7.44518,3.02469,87,14
-13.5057,9.33087,-0.286534,100,7
-10.3633,7.16252,3.37552,8,15
-11.0291,7.64548,0.234246,81,8
-11.891,8.24907,0.758453,59,9
-0.532324,0.369286,-0.125934,14,2
-12.5153,8.68541,1.33279,23,10
-0.718843,0.49905,-0.138601,23,3
-12.1909,8.46658,1.82243,64,11
-10.3016,7.15712,-1.54018,60,4
-10.7284,7.45645,2.06932,70,12
-14.0831,9.78801,-1.50047,15,5
-10.0923,7.01694,2.38931,42,13
-13.4025,9.32192,-0.855588,39,6
-10.8183,7.52729,3.04269,23,14
-18.9433,13.1856,-0.402871,58,7
-10.2717,7.15228,3.35378,12,15
-11.1401,7.78011,0.237178,45,8
-11.1451,7.78939,0.712606,39,9
-0.57287,0.400383,-0.135856,12,2
-14.8068,10.3525,1.58066,20,10
-0.700909,0.490235,-0.135472,13,3
-12.2117,8.54436,1.82999,44,11
-10.4684,7.32735,-1.56895,19,4
-10.7218,7.50745,2.07307,58,12
-13.3895,9.37543,-1.43005,11,5
-10.0597,7.04649,2.3874,50,13
-13.3797,9.37552,-0.856216,58,6
-10.2701,7.19923,2.89557,57,14
-15.2396,10.6867,-0.324894,100,7
-10.2624,7.19919,3.35895,10,15
-10.8561,7.63829,0.231698,62,8
-0.435047,0.30621,-0.122823,15,1
-0.57468,0.404641,-0.136619,12,2
-14.6322,10.3066,1.56584,52,10
-10.2521,7.22406,-1.98641,3,3
-14.0412,9.89762,2.10931,49,11
-11.0901,7.8203,-1.6662,61,4
-10.65,7.50995,2.064,45,12
-13.3958,9.44967,-1.43423,31,5
-10.1265,7.14608,2.40915,48,13
-10.1287,7.15297,2.86273,25,14
-15.2465,10.7672,-0.325802,44,7
-10.1801,7.19194,3.3398,9,15
-10.6953,7.57829,0.228801,61,8
-0.434029,0.307651,-0.122823,15,1
-0.570061,0.404373,-0.135856,12,2
-14.4109,10.2261,1.54597,29,10
-10.0348,7.12083,-1.94886,5,3
-13.9694,9.91655,2.10347,9,11
-10.4604,7.42832,-1.57528,9,4
-10.6028,7.53221,2.05993,70,12
-10.532,7.48468,-1.13041,19,5
-10.1747,7.2308,2.42633,42,13
-20.198,14.3593,-1.29877,23,6
-9.98742,7.10294,2.82943,46,14
-13.1802,9.37709,-0.282345,28,7
-10.9356,7.78304,3.59655,12,15
-10.6671,7.61442,0.228766,68,8
-0.477358,0.340873,-0.135421,13,1
-12.1124,8.64928,0.780015,39,9
-0.552742,0.394849,-0.13204,13,2
-18.3808,13.1351,1.97652,50,10
-10.1352,7.24542,-1.97326,8,3
-10.7893,7.71585,1.62866,48,11
-10.3779,7.42437,-1.56675,17,4
-9.97687,7.13747,1.94292,13,12
-13.3522,9.55571,-1.4365,23,5
-10.2021,7.30399,2.43892,43,13
-9.87544,7.07534,2.80469,12,14
-16.6277,11.9131,-0.357041,100,7
-10.8862,7.80238,3.58879,18,15
-10.6029,7.62174,0.227928,58,8
-0.431925,0.310598,-0.122823,15,1
-12.1421,8.73466,0.783888,24,9
-0.583231,0.419711,-0.139672,11,2
-18.3268,13.1934,1.97565,50,10
-10.0871,7.26168,-1.96857,10,3
-13.9274,10.03,2.10736,13,11
-10.3258,7.43901,-1.56261,40,4
-10.0352,7.23231,1.95919,31,12
-10.5519,7.60747,-1.13808,26,5
-11.8213,8.52266,2.83275,24,13
-9.88827,7.13427,2.81504,23,14
-23.7984,17.1765,-0.512298,42,7
-10.8542,7.83694,3.58723,27,15
-10.9973,7.96364,0.237004,31,8
-0.462401,0.334969,-0.131821,14,1
-11.6943,8.47462,0.756883,43,9
-0.569118,0.412427,-0.136619,12,2
-23.4255,16.9821,2.53135,21,10
-10.1001,7.32468,-1.97608,6,3
-10.7076,7.76813,1.62427,7,11
-10.2275,7.42255,-1.55164,53,4
-10.1522,7.37058,1.98703,40,12
-10.5169,7.6354,-1.13703,26,5
-11.45,8.31583,2.7507,41,13
-13.2174,9.60299,-0.856216,19,6
-9.98311,7.25582,2.84923,55,14
-13.1655,9.57228,-0.284125,31,7
-10.8612,7.89978,3.59862,18,15
-10.9242,7.96898,0.236026,60,8
-0.461229,0.336581,-0.131821,14,1
-18.2512,13.3236,1.18426,21,9
-0.627931,0.458399,-0.151121,9,2
-33.1842,24.2339,3.595,12,10
-13.3268,9.73589,-2.61402,3,3
-10.6564,7.78789,1.62062,36,11
-10.397,7.60113,-1.58138,35,4
-10.0323,7.33718,1.96857,14,12
-10.4291,7.62737,-1.13041,26,5
-11.3226,8.28388,2.72704,20,13
-14.9583,10.9478,-0.97146,32,6
-9.92628,7.2676,2.84023,19,14
-10.9944,8.05257,-0.237876,99,7
-10.8475,7.94792,3.60328,11,15
-10.9092,8.01654,0.236306,68,8
-0.428649,0.315104,-0.122823,15,1
-11.9342,8.77614,0.776352,18,9
-0.578878,0.425695,-0.139672,11,2
-32.9566,24.2445,3.57949,49,10
-10.2523,7.54488,-2.01613,5,3
-14.3204,10.5424,2.18341,37,11
-10.2841,7.57381,-1.56821,32,4
-10.0719,7.42019,1.9814,22,12
-10.2581,7.55736,-1.11472,19,5
-11.0297,8.12883,2.66331,37,13
-21.9981,16.2184,-1.43233,28,6
-9.83184,7.25131,2.82044,34,14
-10.9356,8.06834,-0.237213,30,7
-11.0389,8.14749,3.67627,4,15
-11.0531,8.18187,0.24004,35,8
-0.427546,0.316599,-0.122823,15,1
-0.577388,0.427713,-0.139672,11,2
-33.0703,24.5065,3.6011,25,10
-9.97046,7.39122,-1.96576,13,3
-14.3728,10.6586,2.19706,28,11
-10.0791,7.4772,-1.54092,55,4
-10.2268,7.58956,-1.1142,80,5
-10.2099,7.57981,2.47174,8,13
-23.8046,17.6788,-1.55396,32,6
-9.94882,7.39134,2.86138,12,14
-10.1996,7.58315,3.40554,10,15
-11.063,8.2491,0.240878,66,8
-0.451431,0.336732,-0.130022,14,1
-0.575892,0.429726,-0.139672,11,2
-13.6479,10.1876,1.49001,26,10
-9.66128,7.21442,-1.90975,18,3
-13.6564,10.2014,2.09298,9,11
-10.0176,7.48326,-1.53531,36,4
-10.1161,7.55952,2.00017,52,12
-10.0151,7.48684,-1.09398,19,5
-9.94445,7.43669,2.41373,8,13
-19.3224,14.455,-1.26465,22,6
-9.92894,7.42779,2.86273,23,14
-18.109,13.5522,-0.394808,100,7
-10.1156,7.57294,3.38587,37,15
-18.633,13.9901,0.406711,26,8
-0.425381,0.319501,-0.122823,15,1
-0.561907,0.422198,-0.136619,12,2
-27.975,21.0271,3.06178,48,10
-9.90413,7.44705,-1.96263,10,3
-22.9125,17.2345,3.52032,33,11
-10.1197,7.6119,-1.55481,42,4
-10.1746,7.65597,2.01675,65,12
-10.0126,7.53678,-1.09642,26,5
-14.7963,11.1458,-0.970832,14,6
-9.86223,7.42902,2.85058,14,14
-18.0097,13.5713,-0.393622,100,7
-10.22,7.70412,3.42935,28,15
-18.6631,14.1097,0.408386,18,8
-0.455405,0.34442,-0.131821,14,1
-11.9187,9.01403,0.783155,29,9
-0.594948,0.450119,-0.145015,10,2
-22.9246,17.3503,2.51531,57,10
-9.63054,7.29145,-1.91319,15,3
-22.8663,17.3187,3.52202,44,11
-10.0456,7.61121,-1.5475,39,4
-9.98698,7.5668,1.98453,58,12
