x, y, z, intensity, ring
0.452978,0.279001,-0.122823,15,1
13.9564,8.59274,0.858938,16,9
0.737342,0.453793,-0.168294,39,2
19.4677,11.9766,1.9997,28,10
5.20279,3.19953,-0.967391,36,3
32.023,19.693,4.61592,15,11
5.81069,3.57197,-0.837486,27,4
6.57519,4.03876,-0.675108,16,5
7.58507,4.65542,-0.466418,39,6
8.93655,5.48277,-0.183006,99,7
10.9118,6.66841,0.223216,28,8
0.453997,0.277339,-0.122823,15,1
13.9946,8.5457,0.859356,16,9
0.742272,0.453263,-0.169057,51,2
19.5008,11.9034,1.99883,23,10
5.21561,3.18238,-0.967704,28,3
32.1865,19.6313,4.62909,15,11
5.82713,3.55271,-0.837974,23,4
6.59606,4.01993,-0.675806,16,5
7.6081,4.63307,-0.466837,39,6
8.93609,5.4375,-0.182587,99,7
10.9247,6.62407,0.223007,28,8
0.481627,0.291914,-0.130022,14,1
14.0278,8.49887,0.859566,18,9
0.757283,0.458808,-0.17211,52,2
19.5252,11.8249,1.99709,33,10
5.22331,3.1621,-0.967078,28,3
32.2582,19.5209,4.62957,15,11
5.84119,3.53338,-0.838217,24,4
6.61005,3.99688,-0.675806,15,5
7.62593,4.60752,-0.466941,39,6
8.96871,5.41454,-0.182866,99,7
10.9461,6.58486,0.222972,25,8
0.455922,0.274163,-0.122823,15,1
14.073,8.4626,0.860613,21,9
0.795899,0.478413,-0.180505,68,2
19.5954,11.7741,2.00005,33,10
5.23093,3.14182,-0.966452,28,3
32.4453,19.4797,4.64663,15,11
5.8586,3.51603,-0.838949,23,4
6.61371,3.96764,-0.67476,15,5
7.62826,4.57266,-0.466104,39,6
8.99348,5.38888,-0.183006,99,7
10.9816,6.55672,0.223251,27,8
0.47691,0.284634,-0.128222,14,1
14.1179,8.42263,0.861555,22,9
0.787447,0.469599,-0.178216,50,2
19.621,11.6965,1.99848,38,10
5.22775,3.11636,-0.963949,27,3
32.5949,19.4228,4.65882,15,11
5.87193,3.4976,-0.839192,22,4
6.63094,3.94657,-0.675108,15,5
7.6142,4.52997,-0.464325,43,6
9.00879,5.35542,-0.182936,100,7
11.0078,6.52039,0.223321,27,8
0.491315,0.29091,-0.131821,14,1
14.1558,8.37838,0.862078,20,9
0.697766,0.412987,-0.157608,68,2
19.6957,11.6526,2.00214,38,10
5.24539,3.10212,-0.965201,27,3
32.7753,19.3756,4.67491,15,11
5.87214,3.47001,-0.837486,20,4
50.2506,29.6826,9.24371,15,12
6.64399,3.92455,-0.675108,15,5
7.64373,4.51149,-0.465162,43,6
9.02227,5.32089,-0.182831,100,7
11.0374,6.48598,0.223461,23,8
0.485606,0.285245,-0.130022,14,1
14.1763,8.32386,0.861555,20,9
0.683967,0.401602,-0.154174,91,2
19.7826,11.6111,2.00685,33,10
5.2596,3.08579,-0.965827,25,3
32.9866,19.3454,4.69538,15,11
5.87394,3.44347,-0.836024,22,4
50.0471,29.3273,9.1874,14,12
6.65421,3.89932,-0.67476,15,5
7.67839,4.49589,-0.466313,39,6
9.04424,5.29138,-0.182901,100,7
11.0462,6.43936,0.223181,27,8
0.493334,0.287473,-0.131821,14,1
14.2208,8.28337,0.862497,18,9
0.678579,0.395259,-0.152647,95,2
19.8162,11.5379,2.00615,38,10
5.27034,3.06741,-0.965827,13,3
32.999,19.1982,4.68758,15,11
5.88764,3.42394,-0.836268,24,4
50.0399,29.0889,9.16737,14,12
6.65573,3.86906,-0.67354,17,5
7.69058,4.46705,-0.466104,47,6
9.06438,5.26078,-0.182936,99,7
11.072,6.40276,0.223251,27,8
0.460591,0.266244,-0.122823,15,1
14.267,8.24368,0.863543,15,9
0.685054,0.395835,-0.153792,92,2
19.8787,11.4816,2.00842,38,10
5.26562,3.04011,-0.963011,10,3
33.1518,19.1325,4.69977,15,11
5.90816,3.40833,-0.837486,23,4
45.7467,26.3799,8.36393,12,12
6.66919,3.84581,-0.67354,15,5
7.70786,4.44117,-0.466209,43,6
9.06016,5.21614,-0.182482,99,7
11.0902,6.35915,0.223146,25,8
0.495378,0.283936,-0.131821,14,1
14.2798,8.1814,0.862497,17,9
0.6865,0.393321,-0.153792,100,2
19.9501,11.4255,2.01138,39,10
5.26472,3.01391,-0.960821,5,3
33.1735,18.9832,4.69295,15,11
5.91544,3.38369,-0.836755,24,4
39.138,22.3783,7.14061,18,12
6.69535,3.82826,-0.67476,15,5
55.5461,31.7472,12.4362,24,13
7.69807,4.39803,-0.464639,58,6
9.10527,5.19777,-0.183006,100,7
11.1315,6.33127,0.22353,25,8
0.462485,0.262942,-0.122823,15,1
14.2961,8.1246,0.861764,19,9
0.696403,0.395773,-0.1557,97,2
20.028,11.3775,2.01522,39,10
5.30098,3.01015,-0.965514,1,3
33.6884,19.1221,4.75632,15,11
5.92376,3.36106,-0.836268,22,4
6.70521,3.8029,-0.674411,15,5
7.7099,4.36916,-0.464429,36,6
9.1338,5.17187,-0.183215,99,7
11.1622,6.29729,0.223705,26,8
0.497348,0.28047,-0.131821,14,1
14.3055,8.06734,0.860717,22,9
0.685809,0.386591,-0.153029,100,2
20.1196,11.3368,2.02044,34,10
34.0109,19.1485,4.79239,15,11
5.92681,3.3355,-0.835049,22,4
45.3146,25.5022,8.23565,12,12
6.73233,3.78729,-0.675806,15,5
7.74426,4.35299,-0.465581,39,6
9.12998,5.1298,-0.182797,99,7
11.1865,6.2622,0.223775,26,8
0.498276,0.27882,-0.131821,14,1
14.3371,8.0193,0.860927,22,9
0.692295,0.387069,-0.154174,100,2
20.1765,11.2762,2.02219,39,10
0.782855,0.437523,-0.142043,5,3
34.4555,19.2486,4.84601,15,11
5.9465,3.32067,-0.836268,24,4
6.72811,3.75405,-0.674062,15,5
55.4826,30.9574,12.3499,24,13
7.7604,4.32825,-0.465685,43,6
9.16006,5.10471,-0.183041,99,7
11.1926,6.21438,0.223461,25,8
0.499246,0.277078,-0.131821,14,1
14.4034,7.99052,0.863229,23,9
0.68334,0.378938,-0.151884,100,2
20.2469,11.2276,2.0255,39,10
0.72218,0.400311,-0.130779,15,3
35.8595,19.8691,5.03369,34,11
5.96848,3.30566,-0.83773,22,4
39.4618,21.847,7.14405,18,12
6.74466,3.73248,-0.674411,15,5
7.79194,4.30848,-0.466627,39,6
9.17432,5.07076,-0.182971,100,7
11.2153,6.17331,0.223461,27,8
0.500258,0.275247,-0.131821,14,1
14.4431,7.94345,0.863857,23,9
0.695047,0.382106,-0.154174,100,2
20.3228,11.1726,2.02899,39,10
0.737492,0.405272,-0.133282,77,3
36.033,19.7929,5.04783,17,11
5.97011,3.27803,-0.836268,22,4
41.9123,23.0034,7.57237,10,12
6.76528,3.71156,-0.675108,15,5
7.79542,4.27317,-0.465895,39,6
9.1981,5.03999,-0.183076,99,7
11.2396,6.13312,0.223496,25,8
0.501264,0.273412,-0.131821,14,1
14.4634,7.88568,0.863334,24,9
0.701547,0.382496,-0.155319,99,2
20.4248,11.1314,2.03509,39,10
0.735503,0.400677,-0.132656,100,3
35.6973,19.4386,4.99079,16,11
5.97163,3.25043,-0.834805,32,4
39.7337,21.6186,7.16439,9,12
6.7887,3.69364,-0.676154,15,5
7.80678,4.24403,-0.465685,39,6
9.20421,4.99956,-0.182831,99,7
11.2645,6.09576,0.223565,28,8
0.515927,0.279077,-0.135421,13,1
14.5049,7.84274,0.864171,23,9
0.687336,0.371641,-0.151884,100,2
20.4951,11.0771,2.03822,45,10
0.749063,0.404679,-0.134847,33,3
35.9501,19.4138,5.01663,16,11
5.97071,3.22297,-0.833099,22,4
39.8924,21.5248,7.1794,9,12
6.79454,3.66613,-0.675457,15,5
7.82154,4.21676,-0.465685,39,6
9.204,4.95792,-0.182482,99,7
11.2786,6.05261,0.223426,30,8
0.499726,0.268063,-0.130922,14,1
14.5361,7.79744,0.864485,23,9
0.69555,0.372951,-0.15341,100,2
20.5372,11.0073,2.03857,45,10
0.733059,0.392733,-0.131718,45,3
33.8162,18.1093,4.71001,15,11
6.00292,3.21335,-0.836024,23,4
40.0819,21.4557,7.20068,9,12
6.80027,3.63863,-0.67476,15,5
56.6516,30.3,12.4881,25,13
7.84678,4.19508,-0.466313,39,6
9.21334,4.9236,-0.182343,100,7
11.2704,6.00014,0.222867,33,8
0.49029,0.260912,-0.128222,14,1
14.5614,7.74571,0.864381,24,9
0.695114,0.369598,-0.153029,100,2
20.6106,10.9543,2.04206,45,10
0.730868,0.388446,-0.131092,52,3
33.245,17.6618,4.62226,15,11
6.02582,3.19994,-0.83773,19,4
36.6809,19.4708,6.57744,7,12
6.8094,3.61301,-0.674411,15,5
7.85007,4.16341,-0.465685,39,6
9.25874,4.90639,-0.182901,99,7
11.3142,5.9729,0.223321,37,8
0.504986,0.266474,-0.131821,14,1
14.6078,7.70508,0.865532,25,9
0.706755,0.372787,-0.155319,99,2
20.6698,10.8979,2.04433,40,10
0.730472,0.384972,-0.130779,48,3
34.448,18.147,4.78069,15,11
6.03519,3.17796,-0.837486,22,4
36.8746,19.4089,6.59997,7,12
6.82198,3.58922,-0.674411,15,5
7.86101,4.13413,-0.465476,39,6
9.2882,4.88055,-0.183146,99,7
11.3226,5.92688,0.223077,35,8
0.526633,0.275551,-0.13722,13,1
14.6382,7.6559,0.865742,26,9
0.708116,0.370194,-0.155319,99,2
20.759,10.8479,2.04921,40,10
0.738882,0.38595,-0.132031,53,3
31.3475,16.3742,4.34245,14,11
6.02865,3.14769,-0.835049,22,4
37.0016,19.3111,6.61061,7,12
6.84153,3.56907,-0.675108,15,5
7.8708,4.10252,-0.465162,43,6
9.29986,4.84533,-0.183041,99,7
11.3602,5.89363,0.223391,36,8
0.48958,0.253883,-0.127322,15,1
14.6803,7.60955,0.866579,25,9
0.700689,0.363203,-0.15341,100,2
20.8481,10.802,2.05426,45,10
0.741979,0.384277,-0.132344,40,3
33.6956,17.4437,4.65882,15,11
6.0472,3.12922,-0.836024,23,4
37.1388,19.2098,6.6225,14,12
6.85748,3.54699,-0.675457,15,5
7.87088,4.06769,-0.464325,39,6
9.30512,4.80479,-0.182797,99,7
11.395,5.86125,0.22367,40,8
0.493929,0.253954,-0.128222,14,1
14.721,7.56556,0.867416,25,9
0.701952,0.360755,-0.15341,100,2
20.9406,10.7574,2.05966,45,10
0.739801,0.37988,-0.131718,100,3
29.5213,15.1523,4.07434,13,11
6.06515,3.11171,-0.836999,23,4
36.8436,18.8944,6.55805,14,12
6.86628,3.52122,-0.675108,15,5
7.89392,4.04474,-0.464848,39,6
9.33607,4.77957,-0.183076,100,7
11.4261,5.8269,0.223879,35,8
0.494813,0.252229,-0.128222,14,1
14.7829,7.53226,0.86951,24,9
0.708455,0.360976,-0.154555,100,2
20.9833,10.6869,2.06019,45,10
0.714717,0.363852,-0.127025,68,3
29.5439,15.0339,4.07019,26,11
6.07598,3.09053,-0.836999,29,4
35.4055,18.0011,6.29086,6,12
6.87203,3.49242,-0.674411,15,5
37.5629,19.0897,8.19029,8,13
7.91511,4.02078,-0.465267,39,6
9.33309,4.737,-0.182692,100,7
11.4535,5.79058,0.224019,30,8
0.509605,0.257531,-0.131821,14,1
14.8091,7.48062,0.86951,26,9
0.708021,0.357492,-0.154174,91,2
21.0775,10.6378,2.06559,41,10
5.43031,2.73948,-0.963324,8,3
29.4916,14.8779,4.05581,13,11
6.08496,3.0684,-0.836755,21,4
35.5211,17.9041,6.30024,12,12
6.88418,3.46841,-0.674411,15,5
37.7343,19.0032,8.21242,8,13
7.92444,3.98904,-0.464953,39,6
9.35492,4.70709,-0.182797,100,7
11.4406,5.73155,0.223356,32,8
0.50706,0.253917,-0.130922,14,1
14.8436,7.42986,0.869928,26,9
0.714532,0.357655,-0.155319,90,2
21.1733,10.5936,2.07134,46,10
5.4416,2.72139,-0.963636,15,3
26.2877,13.141,3.60855,23,11
6.09794,3.04697,-0.836999,22,4
35.5158,17.7385,6.28773,12,12
6.88555,3.43901,-0.673365,15,5
37.688,18.8152,8.188,8,13
7.9401,3.96226,-0.465057,39,6
9.36675,4.67009,-0.182692,100,7
11.4731,5.6978,0.2236,35,8
0.525398,0.26081,-0.135421,13,1
14.9231,7.40464,0.873069,25,9
0.708741,0.351668,-0.153792,100,2
21.1852,10.5072,2.0689,46,10
5.46523,2.7094,-0.966139,26,3
26.3761,13.0703,3.6144,34,11
6.11387,3.02831,-0.83773,22,4
31.2208,15.4574,5.51776,9,12
6.90466,3.41849,-0.674062,15,5
40.3717,19.9793,8.75584,9,13
7.94673,3.93097,-0.464639,39,6
9.40629,4.64888,-0.183146,100,7
11.4965,5.65949,0.22367,33,8
0.512317,0.252092,-0.131821,14,1
14.926,7.34453,0.871812,26,9
0.708203,0.348325,-0.15341,84,2
21.3987,10.5202,2.08616,41,10
5.46756,2.68682,-0.964888,25,3
26.4911,13.0123,3.62391,35,11
6.12441,3.00695,-0.83773,21,4
31.263,15.3494,5.51619,9,12
6.91655,3.39437,-0.674062,15,5
40.4764,19.8555,8.76348,9,13
7.98551,3.91552,-0.466104,39,6
9.43423,4.62383,-0.18339,100,7
11.5296,5.62835,0.223949,40,8
0.527161,0.257228,-0.135421,13,1
14.9803,7.30639,0.873487,27,9
0.712943,0.347572,-0.154174,91,2
21.4013,10.4289,2.08285,41,10
5.47644,2.66867,-0.964888,26,3
26.4788,12.8974,3.61635,46,11
6.12899,2.98401,-0.836999,23,4
26.2933,12.7957,4.6314,6,12
6.92835,3.37021,-0.674062,15,5
31.1798,15.167,6.73976,12,13
8.00743,3.89338,-0.466627,39,6
9.45751,4.59436,-0.18353,100,7
11.5618,5.59417,0.224194,32,8
0.510513,0.246901,-0.130922,14,1
15.0165,7.25927,0.874115,26,9
0.724697,0.350333,-0.156463,78,2
21.3496,10.3162,2.07448,46,10
5.47861,2.6461,-0.963636,26,3
28.9316,13.9674,3.94467,25,11
6.11613,2.95139,-0.83383,25,4
26.3093,12.6901,4.62639,6,12
6.94667,3.35068,-0.67476,15,5
31.0752,14.9822,6.70579,6,13
8.00118,3.85587,-0.465476,43,6
9.45547,4.55265,-0.18318,99,7
11.5921,5.55896,0.224403,37,8
0.52543,0.251857,-0.134521,14,1
15.0418,7.20681,0.874115,26,9
0.732998,0.351194,-0.15799,68,2
21.3604,10.2296,2.07204,56,10
5.50028,2.63293,-0.965827,26,3
27.2612,13.0438,3.71068,12,11
6.1246,2.92916,-0.833586,27,4
31.5486,15.0817,5.53841,19,12
6.96551,3.32985,-0.675457,15,5
38.2838,18.2933,8.24753,8,13
8.00377,3.82275,-0.464848,43,6
9.45506,4.51186,-0.182866,100,7
11.6385,5.53134,0.224927,33,8
0.501663,0.238314,-0.128222,14,1
15.0921,7.16625,0.875581,26,9
0.73422,0.348633,-0.15799,68,2
21.4859,10.1977,2.08076,41,10
5.50587,2.61203,-0.965201,25,3
27.285,12.9384,3.70775,24,11
6.15811,2.91882,-0.836755,22,4
36.6798,17.3777,6.42852,13,12
6.96989,3.3021,-0.67476,15,5
38.39,18.1797,8.25669,8,13
8.02248,3.79735,-0.465162,43,6
9.47075,4.47883,-0.182866,100,7
11.6704,5.49664,0.225171,36,8
0.544806,0.256483,-0.13902,13,1
15.1279,7.11863,0.876209,26,9
0.708786,0.333529,-0.152266,38,2
21.3916,10.0616,2.06821,46,10
5.50065,2.58607,-0.962698,27,3
22.5852,10.6133,3.06404,17,11
6.18623,2.90574,-0.839192,22,4
26.3424,12.3677,4.60919,13,12
6.97056,3.27267,-0.673714,15,5
8.05016,3.77611,-0.465999,50,6
9.49176,4.44829,-0.182971,100,7
11.6678,5.44572,0.224752,31,8
0.51391,0.23975,-0.130922,14,1
15.1779,7.0776,0.877674,25,9
0.726019,0.338394,-0.1557,26,2
21.5133,10.0272,2.07657,56,10
5.47204,2.54933,-0.956128,27,3
22.6545,10.5495,3.06843,25,11
6.20173,2.88665,-0.839924,22,4
26.4588,12.3099,4.62201,3,12
7.00057,3.2555,-0.675457,15,5
44.2981,20.5907,9.49542,11,13
8.06394,3.74658,-0.465999,54,6
9.53806,4.42944,-0.183564,100,7
11.7003,5.40879,0.224996,31,8
0.518324,0.239499,-0.131821,14,1
15.2183,7.02862,0.878511,24,9
0.709429,0.327502,-0.151884,19,2
21.6711,10.0043,2.08825,71,10
5.49391,2.53505,-0.958318,27,3
29.0508,13.3987,3.92809,25,11
6.20506,2.86057,-0.838949,22,4
39.8983,18.3849,6.95789,8,12
7.00341,3.22565,-0.674585,16,5
44.2841,20.3871,9.47634,11,13
8.09032,3.72285,-0.466732,50,6
9.57059,4.40198,-0.183879,100,7
11.7455,5.37753,0.225485,35,8
0.497934,0.227867,-0.126422,15,1
15.2555,6.98127,0.879244,28,9
0.714139,0.326657,-0.152647,19,2
21.6315,9.88998,2.08093,56,10
5.51933,2.52229,-0.961133,26,3
22.7456,10.3898,3.07038,34,11
6.19876,2.83147,-0.836755,21,4
31.7754,14.5077,5.53246,9,12
7.00013,3.19457,-0.673191,18,5
44.1763,20.1509,9.43818,11,13
8.11962,3.70204,-0.467674,43,6
9.59863,4.37435,-0.184123,100,7
11.7815,5.34681,0.225834,33,8
0.541279,0.245535,-0.13722,13,1
15.2967,6.93889,0.880291,28,9
0.715218,0.324287,-0.152647,19,2
21.6097,9.79351,2.0757,71,10
5.54206,2.51049,-0.963636,26,3
22.6534,10.257,3.05331,34,11
6.20811,2.8109,-0.836755,24,4
31.7081,14.3501,5.51244,9,12
7.01249,3.17216,-0.673365,21,5
8.08272,3.65288,-0.464848,39,6
9.60033,4.33673,-0.183879,100,7
11.7882,5.30279,0.225625,38,8
0.527872,0.237346,-0.133621,14,1
15.3463,6.89692,0.881756,31,9
0.702019,0.315353,-0.149594,20,2
21.6094,9.70711,2.07256,61,10
5.55396,2.49372,-0.964262,26,3
22.8086,10.2362,3.06965,17,11
6.22332,2.79165,-0.837486,23,4
23.1403,10.3754,4.01661,10,12
7.05261,3.1607,-0.676154,21,5
40.1593,17.9894,8.55359,9,13
8.10636,3.62954,-0.465476,47,6
9.61175,4.30156,-0.183809,100,7
11.8113,5.26118,0.225695,38,8
0.528738,0.235409,-0.133621,14,1
15.439,6.87068,0.885629,27,9
0.730077,0.324746,-0.155319,18,2
21.6994,9.65214,2.07779,46,10
5.55404,2.46933,-0.962698,26,3
22.8097,10.1365,3.06477,34,11
6.24802,2.77527,-0.839436,22,4
38.4504,17.071,6.66317,15,12
7.06051,3.13321,-0.675806,21,5
40.1801,17.8222,8.54405,18,13
8.13604,3.60709,-0.466418,47,6
9.63111,4.26792,-0.183879,100,7
11.8414,5.2227,0.225904,40,8
0.522465,0.230326,-0.131821,14,1
15.5482,6.85108,0.890444,26,9
0.715037,0.315071,-0.151884,28,2
21.556,9.49384,2.06071,20,10
5.55763,2.44657,-0.961759,23,3
22.7449,10.008,3.05112,42,11
6.2527,2.74996,-0.838705,22,4
23.4129,10.2922,4.05071,5,12
7.08964,3.11657,-0.677549,17,5
8.1376,3.57386,-0.46579,47,6
9.65402,4.23581,-0.184018,100,7
11.8743,5.18774,0.226183,38,8
0.519694,0.22694,-0.130922,14,1
15.6196,6.81755,0.893165,26,9
0.730527,0.318856,-0.154937,27,2
20.0276,8.73736,1.91167,8,10
5.57881,2.43268,-0.963949,26,3
23.2001,10.1118,3.10742,26,11
6.23678,2.71701,-0.835293,24,4
40.3791,17.5825,6.97541,17,12
7.10231,3.09259,-0.677723,15,5
39.9759,17.3986,8.47459,18,13
8.15186,3.54623,-0.465895,50,6
9.67058,4.20288,-0.184053,100,7
11.896,5.14784,0.226253,40,8
0.538369,0.232862,-0.135421,13,1
15.6726,6.77566,0.89484,25,9
0.710011,0.306955,-0.150357,39,2
17.9529,7.75774,1.71104,3,10
5.59089,2.41477,-0.964575,25,3
23.1095,9.97644,3.09061,35,11
6.22254,2.685,-0.832124,27,4
40.6071,17.5134,7.0042,17,12
7.07098,3.04964,-0.673714,15,5
36.8002,15.8639,7.78959,8,13
8.18437,3.52644,-0.467046,47,6
9.67233,4.16356,-0.183809,100,7
35.3494,15.2092,10.3114,9,15
11.9083,5.10392,0.226148,43,8
0.532013,0.227911,-0.133621,14,1
15.7072,6.72562,0.895468,24,9
0.703859,0.301383,-0.148831,30,2
19.0202,8.1403,1.81005,15,10
5.60292,2.39679,-0.965201,25,3
23.2537,9.94253,3.10523,35,11
6.22639,2.66092,-0.831393,23,4
40.7061,17.3878,7.01077,17,12
7.05959,3.01554,-0.671622,15,5
36.2884,15.4933,7.66976,7,13
8.21316,3.50491,-0.467988,47,6
9.70152,4.13605,-0.184088,100,7
11.9334,5.06545,0.226288,41,8
0.52563,0.223008,-0.131821,14,1
15.7839,6.69337,0.898504,21,9
0.704907,0.298925,-0.148831,40,2
17.9277,7.59878,1.70355,45,10
5.61307,2.37799,-0.965514,25,3
23.4656,9.93638,3.12887,45,11
6.24296,2.64227,-0.832368,24,4
27.3111,11.5535,4.69679,14,12
7.07742,2.99399,-0.672319,23,5
36.3098,15.3528,7.66289,7,13
8.2327,3.47932,-0.468407,50,6
38.3049,16.1806,9.60001,15,14
9.74906,4.11616,-0.184716,100,7
11.9603,5.02764,0.226462,40,8
0.551557,0.23174,-0.13812,13,1
15.8311,6.64829,0.899864,23,9
0.716806,0.301023,-0.151121,29,2
17.9431,7.53153,1.7025,38,10
5.61405,2.35532,-0.964262,26,3
23.804,9.98185,3.16933,18,11
6.24848,2.61892,-0.83188,24,4
27.3203,11.4451,4.69147,3,12
7.09518,2.97234,-0.673017,21,5
35.3671,14.8089,7.453,7,13
8.22637,3.44286,-0.46736,47,6
35.8784,15.0083,8.9787,13,14
9.77075,4.08519,-0.184856,100,7
12.0036,4.99661,0.226951,45,8
0.523575,0.217836,-0.130922,14,1
15.7989,6.56998,0.896724,25,9
0.728729,0.303043,-0.15341,37,2
17.9582,7.46426,1.70145,31,10
5.60217,2.32737,-0.960821,26,3
23.8662,9.91012,3.17299,18,11
6.27042,2.60242,-0.833586,24,4
39.6908,16.4648,6.80584,8,12
7.12575,2.95595,-0.674934,17,5
35.415,14.6839,7.45224,30,13
8.23465,3.41259,-0.467151,54,6
9.77386,4.04647,-0.184646,100,7
35.2442,14.5842,10.2202,9,15
12.0247,4.95621,0.227021,41,8
0.527936,0.217492,-0.131821,14,1
15.77,6.4935,0.893794,24,9
0.71526,0.294517,-0.150357,29,2
17.9639,7.39319,1.69954,59,10
5.60295,2.3048,-0.959569,30,3
23.9906,9.86373,3.18493,37,11
6.29966,2.58882,-0.836268,29,4
26.9774,11.0808,4.6192,10,12
7.16183,2.94166,-0.677374,18,5
35.5278,14.5855,7.46521,15,13
8.2576,3.38837,-0.467779,50,6
36.1735,14.8358,9.02639,53,14
9.77498,4.00702,-0.184402,100,7
35.243,14.4398,10.2052,19,15
12.0548,4.9195,0.227265,43,8
0.539519,0.220064,-0.134521,14,1
15.8721,6.47083,0.898294,22,9
0.709012,0.289053,-0.148831,30,2
18.0948,7.3733,1.70947,28,10
5.6256,2.29118,-0.962072,28,3
25.1409,10.2342,3.33288,20,11
6.32888,2.57504,-0.838949,24,4
26.187,10.6494,4.47747,6,12
7.15226,2.90714,-0.675457,20,5
35.5166,14.4362,7.45224,15,13
8.28233,3.36479,-0.468512,61,6
35.956,14.6002,8.95935,13,14
9.80373,3.97889,-0.184681,100,7
35.2001,14.279,10.1783,19,15
12.0812,4.88113,0.22744,40,8
0.540283,0.218179,-0.134521,14,1
15.9705,6.44604,0.902586,29,9
0.702783,0.283515,-0.147305,42,2
18.0053,7.26,1.69849,42,10
5.64495,2.27498,-0.963949,30,3
25.6865,10.352,3.4004,42,11
6.34888,2.55739,-0.840411,24,4
25.4288,10.2378,4.34168,3,12
7.18269,2.89034,-0.677374,18,5
35.6567,14.3411,7.47055,15,13
8.30943,3.34037,-0.469349,54,6
36.3203,14.5933,9.03673,13,14
9.82127,3.94614,-0.184751,100,7
34.7137,13.9408,10.0235,9,15
12.1213,4.84573,0.227859,40,8
0.530222,0.211859,-0.131821,14,1
15.2614,6.09487,0.861241,20,9
0.722001,0.288342,-0.151121,29,2
18.1674,7.25175,1.71139,35,10
5.66204,2.25892,-0.965514,31,3
25.5933,10.2055,3.38309,41,11
6.36559,2.53704,-0.841386,24,4
31.5863,12.5825,5.3851,9,12
7.20014,2.8682,-0.678072,18,5
35.6883,14.2093,7.46674,15,13
8.30063,3.30322,-0.468197,50,6
35.6811,14.192,8.86532,13,14
9.84124,3.91233,-0.184856,100,7
34.752,13.8084,10.0199,18,15
12.1809,4.82031,0.228661,43,8
0.512836,0.20284,-0.127322,15,1
15.212,6.01365,0.857263,24,9
0.752216,0.297368,-0.157227,25,2
18.2204,7.19927,1.714,38,10
5.66988,2.23915,-0.965514,28,3
19.2641,7.60386,2.54293,34,11
6.35409,2.50679,-0.838705,22,4
27.0946,10.6838,4.61294,13,12
7.18045,2.83136,-0.675283,15,5
35.4071,13.9544,7.39767,14,13
8.31768,3.27642,-0.468512,54,6
36.2218,14.2609,8.98724,13,14
9.866,3.88234,-0.185065,100,7
24.9624,9.81787,7.18741,9,15
12.2684,4.80548,0.229988,47,8
0.517171,0.202469,-0.128222,14,1
15.1567,5.93067,0.852971,46,9
0.723997,0.283294,-0.151121,29,2
18.3679,7.18353,1.72551,52,10
5.68687,2.22294,-0.967078,27,3
19.37,7.56763,2.55341,23,11
6.37205,2.4882,-0.839924,24,4
25.8271,10.08,4.39112,3,12
7.19957,2.80989,-0.676154,16,5
35.1867,13.7258,7.34157,7,13
8.34396,3.25318,-0.469349,58,6
34.501,13.4445,8.54859,25,14
9.8739,3.8457,-0.184961,100,7
24.9966,9.73069,7.18741,9,15
12.3131,4.77346,0.230511,47,8
0.528777,0.204887,-0.130922,14,1
14.7377,5.70752,0.828269,10,9
0.713996,0.276511,-0.148831,40,2
18.4468,7.14022,1.73056,38,10
5.69091,2.20165,-0.966452,27,3
25.6988,9.93698,3.38309,10,11
6.3881,2.46881,-0.840899,24,4
27.5389,10.6374,4.67583,3,12
7.20562,2.78331,-0.675806,21,5
34.326,13.2522,7.15228,13,13
8.36644,3.22834,-0.469977,54,6
25.9931,10.0247,6.4318,72,14
9.88167,3.80906,-0.184856,20,7
25.1133,9.67531,7.21122,27,15
12.3764,4.74836,0.231384,37,8
0.551323,0.211413,-0.13632,13,1
0.73329,0.281043,-0.152647,38,2
18.2892,7.00594,1.71348,31,10
5.65428,2.16482,-0.958943,22,3
21.3728,8.17857,2.80982,36,11
6.36516,2.43444,-0.836755,27,4
27.3637,10.4601,4.63985,30,12
7.22646,2.76241,-0.676851,16,5
30.8453,11.7849,6.41843,28,13
8.37766,3.19911,-0.469977,54,6
26.3046,10.0395,6.50019,9,14
9.91172,3.78096,-0.18517,100,7
34.9865,13.3391,10.0329,9,15
12.4115,4.71223,0.231733,40,8
0.533838,0.202573,-0.131821,14,1
14.7511,5.59457,0.826804,11,9
0.726923,0.275697,-0.151121,29,2
18.4757,7.0035,1.72865,17,10
5.65626,2.14297,-0.958005,27,3
18.2656,6.91659,2.39815,20,11
6.38476,2.41642,-0.838217,25,4
27.2763,10.3177,4.61888,3,12
7.24724,2.7414,-0.677897,15,5
30.2362,11.4314,6.28334,10,13
8.37009,3.1628,-0.46893,61,6
34.3865,12.9867,8.48605,12,14
9.92673,3.74704,-0.185205,100,7
27.5824,10.406,7.89916,5,15
12.4579,4.68013,0.232292,45,8
0.51265,0.192488,-0.126422,15,1
14.778,5.54585,0.827222,12,9
0.727881,0.273158,-0.151121,39,2
18.6119,6.98094,1.73911,31,10
5.6896,2.13292,-0.962385,31,3
18.3399,6.87159,2.40473,5,11
6.38386,2.39064,-0.836999,23,4
27.4176,10.2619,4.63672,13,12
7.2493,2.71329,-0.6772,16,5
31.3388,11.7233,6.50392,28,13
8.39605,3.13916,-0.469768,65,6
25.8831,9.67213,6.37916,43,14
9.95661,3.71866,-0.185519,100,7
25.1807,9.39964,7.2019,27,15
12.4741,4.63661,0.232292,40,8
0.516972,0.192055,-0.127322,15,1
14.8366,5.50883,0.82942,29,9
0.721469,0.267882,-0.149594,40,2
18.7128,6.94436,1.74625,61,10
5.70442,2.11579,-0.963636,37,3
24.4968,9.08107,3.20784,18,11
6.41078,2.37524,-0.839436,24,4
27.3958,10.1449,4.62702,23,12
7.2662,2.69073,-0.677897,16,5
31.3077,11.5873,6.48903,23,13
8.40883,3.11052,-0.469872,54,6
26.2914,9.72025,6.47139,54,14
9.9639,3.6818,-0.185414,100,7
27.5819,10.1864,7.87845,22,15
12.5409,4.61167,0.233234,48,8
0.53593,0.196972,-0.131821,14,1
14.8726,5.46321,0.830362,25,9
0.718714,0.264008,-0.148831,40,2
18.8903,6.9353,1.76055,54,10
5.71177,2.09587,-0.963636,33,3
25.8497,9.48011,3.38066,10,11
6.41531,2.35148,-0.838949,24,4
35.5125,13.0098,5.99019,22,12
7.2704,2.66203,-0.677374,16,5
31.0511,11.3693,6.42759,22,13
8.42901,3.08458,-0.470396,58,6
25.8548,9.45639,6.35577,43,14
9.99735,3.65456,-0.185798,100,7
27.6245,10.0927,7.88052,5,15
12.5832,4.57744,0.233723,45,8
0.551266,0.200427,-0.135421,13,1
14.9704,5.4399,0.834759,38,9
0.730748,0.265393,-0.151121,39,2
16.7225,6.06997,1.55643,19,10
5.71199,2.07222,-0.962385,28,3
25.8136,9.36477,3.37164,20,11
6.42534,2.32975,-0.839192,27,4
18.2803,6.6246,3.07957,16,12
7.2834,2.63799,-0.677723,16,5
34.1552,12.364,7.0607,6,13
8.4365,3.05231,-0.470186,61,6
26.2723,9.50006,6.4498,54,14
10.0477,3.63323,-0.186496,21,7
25.0143,9.04023,7.12684,9,15
12.5774,4.52317,0.233304,45,8
0.526323,0.189177,-0.129122,14,1
15.0795,5.42005,0.839783,36,9
0.744604,0.267487,-0.153792,37,2
16.7323,6.00751,1.55538,22,10
5.75451,2.06495,-0.968329,28,3
25.8346,9.26541,3.36993,10,11
6.46374,2.3169,-0.843092,27,4
18.3386,6.57341,3.08551,16,12
7.29819,2.61457,-0.678246,15,5
31.0504,11.1176,6.4108,27,13
8.43582,3.0188,-0.469558,65,6
26.4172,9.44833,6.47724,36,14
10.0923,3.60959,-0.18709,20,7
25.062,8.95871,7.1315,31,15
12.6074,4.4868,0.233583,45,8
0.523275,0.186124,-0.128222,14,1
15.0174,5.33861,0.835282,20,9
0.728883,0.25897,-0.150357,39,2
16.8884,5.99708,1.56793,67,10
5.77064,2.04916,-0.969894,28,3
19.2128,6.81871,2.5032,33,11
6.44894,2.28749,-0.840167,25,4
18.2982,6.48692,3.07488,30,12
7.32229,2.5944,-0.67964,16,5
36.1631,12.8131,7.45758,15,13
8.46838,2.99881,-0.470814,58,6
26.6284,9.4244,6.52133,74,14
10.0935,3.57034,-0.18688,21,7
25.1988,8.90852,7.16152,31,15
12.6003,4.4348,0.233164,48,8
0.545982,0.192056,-0.133621,14,1
15.4788,5.44182,0.85988,42,9
0.718625,0.252645,-0.148068,41,2
16.7935,5.90076,1.5573,26,10
5.78521,2.03162,-0.971145,28,3
19.2421,6.75357,2.50393,44,11
6.44751,2.26168,-0.838949,24,4
18.4624,6.47267,3.09865,34,12
7.33319,2.56948,-0.679815,20,5
34.0139,11.9181,7.00574,6,13
8.48257,2.97056,-0.471024,58,6
26.709,9.34812,6.53303,46,14
10.121,3.54036,-0.18716,22,7
25.2006,8.81032,7.15324,22,15
12.5874,4.38093,0.232641,44,8
0.539286,0.187588,-0.131821,14,1
0.719546,0.25001,-0.148068,41,2
16.8037,5.83523,1.55625,19,10
5.79822,2.01235,-0.972084,28,3
19.1962,6.66228,2.49491,33,11
6.46475,2.24241,-0.840167,25,4
18.5017,6.414,3.10147,31,12
7.35152,2.54713,-0.680686,20,5
34.6751,12.0073,7.13282,20,13
8.51039,2.94532,-0.471966,50,6
26.953,9.32279,6.58432,37,14
10.1598,3.51417,-0.187648,21,7
25.1289,8.68694,7.12425,36,15
12.5958,4.33217,0.232501,40,8
0.565771,0.194479,-0.13812,13,1
0.729698,0.250686,-0.149976,40,2
5.78092,1.98376,-0.968017,28,3
19.0702,6.54035,2.47541,26,11
6.48419,2.22257,-0.84163,29,4
18.7231,6.41401,3.13463,37,12
7.36602,2.52339,-0.681209,18,5
30.4893,10.4388,6.26426,21,13
8.52439,2.91689,-0.472175,50,6
26.7844,9.15991,6.53528,18,14
10.1972,3.48531,-0.188102,20,7
25.1313,8.5848,7.11597,36,15
12.6411,4.29847,0.233059,53,8
0.529544,0.179963,-0.129122,14,1
15.1235,5.1367,0.837061,29,9
0.72871,0.247506,-0.149594,40,2
16.8497,5.71971,1.55678,32,10
5.77097,1.95786,-0.965201,37,3
26.1353,8.86157,3.38846,20,11
6.48815,2.19864,-0.841142,27,4
7.36724,2.49511,-0.680512,21,5
29.4396,9.96475,6.04139,19,13
8.52885,2.8852,-0.471861,54,6
26.4082,8.92842,6.43585,9,14
10.2472,3.4625,-0.1888,100,7
27.9579,9.44147,7.90692,11,15
12.8134,4.3072,0.235957,38,8
0.52278,0.17563,-0.127322,15,1
15.7151,5.2765,0.868777,40,9
0.733292,0.24621,-0.150357,39,2
15.6135,5.23935,1.44086,40,10
5.78526,1.94022,-0.966452,33,3
24.6133,8.24981,3.18737,37,11
6.49202,2.17472,-0.840655,25,4
18.1437,6.07432,3.03045,9,12
7.39334,2.47378,-0.682081,20,5
29.5151,9.87562,6.04979,24,13
8.53129,2.85288,-0.471442,58,6
28.7459,9.60709,6.99733,30,14
10.2877,3.43621,-0.189324,100,7
25.3373,8.45808,7.15738,22,15
12.8948,4.28452,0.237178,56,8
0.55668,0.184859,-0.135421,13,1
16.0708,5.33359,0.887409,13,9
0.728599,0.241667,-0.149213,40,2
15.5002,5.1382,1.42866,34,10
5.79421,1.91962,-0.966765,31,3
24.6645,8.17134,3.1903,37,11
6.50334,2.15329,-0.841142,27,4
18.1517,6.0066,3.02826,16,12
7.40004,2.44733,-0.681907,18,5
18.1877,6.0115,3.72345,11,13
8.55686,2.8266,-0.47228,54,6
25.5832,8.44598,6.2199,41,14
10.3091,3.40342,-0.189498,100,7
25.4565,8.39923,7.18275,18,15
12.8154,4.20605,0.235433,35,8
0.527727,0.1731,-0.128222,14,1
16.2924,5.34407,0.898608,12,9
0.723842,0.237287,-0.148068,41,2
15.4783,5.07104,1.425,28,10
5.81589,1.9043,-0.969268,33,3
24.8132,8.11978,3.20565,18,11
6.51685,2.1313,-0.841874,30,4
18.2138,5.95672,3.03514,12,12
7.39528,2.41715,-0.680686,20,5
18.3672,5.99979,3.75588,13,13
8.58376,2.80229,-0.473222,54,6
25.5533,8.33729,6.2055,41,14
10.3209,3.36741,-0.189498,21,7
25.3222,8.25701,7.13668,9,15
12.911,4.19007,0.236934,39,8
0.543127,0.176158,-0.131821,14,1
13.6738,4.43236,0.753324,8,9
0.724666,0.234759,-0.148068,41,2
15.5414,5.03171,1.42918,25,10
5.80526,1.87952,-0.966452,32,3
18.3656,5.94253,2.37012,5,11
6.53332,2.11273,-0.843092,27,4
18.4939,5.97693,3.07832,7,12
7.40746,2.39255,-0.681035,20,5
18.2525,5.89541,3.72841,30,13
8.5835,2.77074,-0.472698,65,6
25.0225,8.07241,6.07008,63,14
10.3687,3.34302,-0.190161,21,7
25.5881,8.24501,7.20345,18,15
12.8818,4.13093,0.236131,49,8
0.551162,0.176641,-0.133621,14,1
13.6493,4.3718,0.751126,5,9
0.717961,0.22996,-0.146541,42,2
15.3568,4.91576,1.4107,28,10
5.8099,1.85865,-0.966139,35,3
18.6944,5.97693,2.40984,15,11
6.55011,2.09293,-0.844311,24,4
7.42906,2.37092,-0.682255,18,5
18.2618,5.82808,3.72612,19,13
8.58171,2.73712,-0.47207,72,6
25.0561,7.98679,6.07143,39,14
10.4108,3.31652,-0.19072,20,7
27.6361,8.79854,7.7713,22,15
12.8008,4.05575,0.234386,49,8
0.544344,0.172362,-0.131821,14,1
13.7559,4.35305,0.75615,13,9
0.73003,0.230879,-0.148831,40,2
15.3614,4.85523,1.40948,25,10
5.82421,1.83972,-0.967391,30,3
18.8211,5.94512,2.42349,10,11
6.54791,2.06707,-0.843092,27,4
18.7443,5.91364,3.11305,16,12
7.44109,2.34617,-0.682604,17,5
18.4909,5.82661,3.76848,42,13
8.61454,2.71285,-0.473326,65,6
18.516,5.82743,4.48147,9,14
10.4262,3.28136,-0.19079,21,7
27.604,8.68233,7.7537,10,15
12.6286,3.95029,0.230965,55,8
0.526372,0.164552,-0.127322,15,1
13.8129,4.31812,0.758453,6,9
0.730832,0.228329,-0.148831,40,2
15.3574,4.79505,1.40757,34,10
5.86077,1.82879,-0.972397,40,3
22.4624,7.00487,2.88903,15,11
6.55355,2.04246,-0.842848,28,4
25.4315,7.92589,4.21904,31,12
7.44733,2.31959,-0.682429,21,5
18.4417,5.74043,3.75436,19,13
8.6354,2.68632,-0.473954,65,6
18.5325,5.76161,4.48058,48,14
10.4605,3.25207,-0.191209,22,7
27.4828,8.53891,7.71125,10,15
12.6416,3.90839,0.230965,46,8
0.54181,0.167408,-0.130922,14,1
13.7153,4.23511,0.752277,25,9
0.725997,0.224039,-0.147686,41,2
16.0937,4.96337,1.47345,18,10
5.8517,1.80469,-0.969894,37,3
19.363,5.96794,2.48784,33,11
6.56219,2.0213,-0.843092,29,4
25.5307,7.85917,4.23093,11,12
7.44396,2.29006,-0.681384,21,5
18.4944,5.68963,3.76123,17,13
8.66908,2.6653,-0.475315,76,6
18.6037,5.71615,4.49317,16,14
10.4985,3.22375,-0.191697,23,7
27.4608,8.42705,7.69676,10,15
12.7106,3.88118,0.231977,36,8
0.564758,0.172341,-0.13632,13,1
13.4893,4.11381,0.739088,24,9
0.738003,0.225067,-0.149976,40,2
16.131,4.91636,1.47537,34,10
5.86552,1.78656,-0.971145,41,3
18.8273,5.73093,2.41643,10,11
6.5749,2.00011,-0.843823,30,4
29.7349,9.03981,4.92237,19,12
7.47057,2.27116,-0.683127,21,5
18.5762,5.64387,3.77382,17,13
8.67451,2.63387,-0.475106,72,6
18.5918,5.64155,4.48552,32,14
10.5116,3.18766,-0.191732,23,7
30.755,9.32065,8.61091,13,15
12.345,3.72248,0.225066,27,8
0.535502,0.161372,-0.129122,14,1
13.5801,4.08973,0.743275,17,9
0.721865,0.217394,-0.146541,42,2
16.1958,4.87437,1.47973,46,10
5.85848,1.76209,-0.968955,33,3
18.9784,5.70462,2.43324,41,11
6.58374,1.97772,-0.844067,29,4
29.7965,8.94506,4.92737,3,12
7.47654,2.2445,-0.682952,21,5
18.7067,5.61229,3.79634,17,13
8.69704,2.60758,-0.475839,68,6
18.5816,5.56766,4.47833,26,14
10.5246,3.15153,-0.191767,23,7
27.419,8.20523,7.66881,10,15
12.4039,3.69306,0.225904,48,8
0.528591,0.157279,-0.127322,15,1
13.6479,4.05824,0.746206,18,9
0.733911,0.218231,-0.148831,40,2
16.2127,4.81782,1.47973,15,10
5.88164,1.74669,-0.971771,35,3
19.0381,5.65019,2.43836,36,11
6.5868,1.9536,-0.84358,31,4
29.9469,8.87635,4.94708,15,12
7.48663,2.21764,-0.683127,21,5
26.461,7.83811,5.3644,30,13
8.72524,2.58288,-0.476885,65,6
18.6345,5.51272,4.48642,35,14
10.5202,3.11024,-0.191488,23,7
27.3808,8.08978,7.65017,26,15
12.9635,3.81046,0.235852,23,8
0.525397,0.154334,-0.126422,15,1
12.7095,3.73098,0.694184,18,9
0.723402,0.212223,-0.146541,42,2
17.5304,5.13952,1.59826,43,10
5.8899,1.72568,-0.972084,30,3
23.1059,6.76977,2.95631,8,11
6.59167,1.93004,-0.843336,28,4
29.6952,8.6891,4.90047,18,12
7.50006,2.19317,-0.68365,21,5
26.482,7.73887,5.36288,11,13
8.77299,2.56208,-0.478979,65,6
10.5348,3.07462,-0.191558,24,7
27.2085,7.93573,7.59427,25,15
12.4973,3.6237,0.227126,47,8
0.544677,0.157831,-0.130922,14,1
12.89,3.7327,0.703291,36,9
0.712824,0.20642,-0.144252,44,2
5.91486,1.71059,-0.975213,37,3
18.3095,5.2917,2.34014,20,11
6.60633,1.90807,-0.844311,28,4
29.7857,8.59719,4.91017,15,12
7.50576,2.16643,-0.683475,20,5
27.0899,7.81397,5.48042,16,13
8.80108,2.53697,-0.480025,61,6
26.0215,7.49597,6.25184,8,14
10.5307,3.03156,-0.191278,24,7
26.8698,7.73019,7.49178,30,15
12.7905,3.66038,0.232222,43,8
0.53773,0.153786,-0.129122,14,1
12.5976,3.60042,0.686648,46,9
0.734305,0.209865,-0.148449,41,2
16.9949,4.85396,1.54632,45,10
5.898,1.68343,-0.971458,33,3
26.9907,7.6987,3.44622,10,11
6.6244,1.88826,-0.845773,32,4
29.958,8.53375,4.93363,19,12
7.50753,2.13857,-0.682952,22,5
27.2454,7.75591,5.50637,44,13
8.83293,2.5128,-0.481281,65,6
31.1142,8.8455,7.46793,33,14
10.5719,3.00352,-0.191837,24,7
27.443,7.79148,7.64396,63,15
13.1227,3.70593,0.238016,26,8
0.549516,0.155083,-0.131821,14,1
12.885,3.63394,0.701616,20,9
0.721806,0.20357,-0.145778,43,2
16.9695,4.78272,1.54248,29,10
5.91335,1.66551,-0.973022,46,3
18.5963,5.2342,2.37207,30,11
6.62522,1.86352,-0.845042,27,4
18.2599,5.13263,3.00417,24,12
7.53413,2.11775,-0.684695,22,5
27.3063,7.67031,5.51324,20,13
8.83396,2.47979,-0.480863,68,6
29.5557,8.29103,7.08686,20,14
10.6016,2.972,-0.192186,21,7
28.7666,8.05886,8.00476,23,15
12.2436,3.41158,0.221855,10,8
0.531281,0.147937,-0.127322,15,1
12.9457,3.60233,0.704233,30,9
0.731969,0.203681,-0.147686,41,2
16.9996,4.72719,1.5437,13,10
5.93055,1.64803,-0.9749,41,3
18.2989,5.08162,2.33185,40,11
6.62595,1.83878,-0.844311,28,4
18.3158,5.07942,3.01043,37,12
7.53379,2.08931,-0.683998,25,5
39.8368,11.0402,8.03535,8,13
8.88105,2.4596,-0.482956,54,6
27.5598,7.62748,6.60186,76,14
10.6428,2.9435,-0.192744,23,7
26.9717,7.45457,7.49799,20,15
13.2446,3.64072,0.239761,63,8
0.539311,0.148146,-0.129122,14,1
12.9653,3.5615,0.704651,17,9
0.719423,0.197487,-0.145015,43,2
17.0256,4.67045,1.54457,13,10
5.92483,1.62419,-0.973022,37,3
18.3031,5.01403,2.33014,20,11
6.64382,1.81879,-0.845773,30,4
18.3821,5.03221,3.01856,16,12
7.55641,2.0672,-0.685393,21,5
32.1637,8.79295,6.4814,11,13
8.90115,2.43174,-0.483584,72,6
26.9941,7.36956,6.46014,45,14
10.6544,2.90872,-0.192779,20,7
27.1118,7.3966,7.53008,15,15
12.7433,3.4575,0.230476,30,8
0.566131,0.153496,-0.135421,13,1
12.8215,3.47391,0.696173,63,9
0.727688,0.197027,-0.146541,42,2
18.1861,4.92061,1.64829,40,10
5.93019,1.60453,-0.973022,42,3
18.1414,4.90513,2.30747,63,11
6.64214,1.79468,-0.844798,28,4
18.3824,4.96339,3.01574,64,12
7.55204,2.0377,-0.684347,25,5
18.6192,5.02384,3.74863,17,13
8.92459,2.40637,-0.484422,65,6
31.4571,8.47601,7.52146,11,14
10.678,2.87515,-0.193024,21,7
28.0198,7.53935,7.77492,22,15
12.4868,3.34115,0.225625,65,8
0.540307,0.144472,-0.129122,14,1
12.5904,3.36417,0.682984,29,9
0.732131,0.195626,-0.147305,42,2
18.3024,4.88701,1.65735,31,10
5.92239,1.58025,-0.970832,33,3
18.0836,4.82182,2.29797,39,11
6.65604,1.77353,-0.845773,28,4
17.9892,4.78991,2.94848,16,12
7.57836,2.01645,-0.68609,25,5
18.4393,4.90632,3.70895,47,13
8.94258,2.37777,-0.484945,76,6
26.5012,7.04151,6.33057,8,14
10.7092,2.8435,-0.193408,22,7
28.2084,7.48461,7.81996,11,15
12.2779,3.23938,0.221646,27,8
0.544576,0.143579,-0.130022,14,1
12.4669,3.28458,0.675657,66,9
0.740437,0.194941,-0.148831,40,2
17.1179,4.50357,1.54858,3,10
5.93196,1.55954,-0.971458,38,3
16.2861,4.2817,2.06764,26,11
6.67179,1.7528,-0.846992,31,4
17.9103,4.70202,2.93283,43,12
7.58921,1.99099,-0.686439,26,5
18.4154,4.82775,3.70055,32,13
8.93578,2.34093,-0.484108,61,6
18.2903,4.78815,4.36495,15,14
10.723,2.80712,-0.193477,26,7
27.9017,7.29906,7.72782,26,15
12.5084,3.25121,0.22559,56,8
0.541327,0.140601,-0.129122,14,1
12.5098,3.2469,0.677332,68,9
0.737313,0.191369,-0.148068,41,2
17.1586,4.45029,1.55085,35,10
5.95076,1.54229,-0.973648,46,3
16.0077,4.14583,2.03034,48,11
6.66856,1.72585,-0.845773,24,4
17.9121,4.63237,2.93033,61,12
7.61348,1.96898,-0.688007,30,5
18.5405,4.79144,3.7223,21,13
8.94197,2.30922,-0.484003,72,6
18.2333,4.70528,4.3474,53,14
10.6654,2.75032,-0.192256,21,7
28.0106,7.21796,7.7506,10,15
12.2679,3.143,0.221052,42,8
0.549366,0.140645,-0.130922,14,1
12.5404,3.20816,0.678379,64,9
0.726564,0.185874,-0.145778,43,2
16.9906,4.34349,1.53429,32,10
5.9561,1.52152,-0.973648,37,3
18.1686,4.63787,2.30236,43,11
6.67455,1.70256,-0.845773,28,4
18.1463,4.62545,2.966,39,12
7.6203,1.94239,-0.688007,28,5
18.5247,4.71845,3.71581,19,13
8.97126,2.28341,-0.485154,76,6
18.2081,4.63105,4.33751,37,14
10.6711,2.71209,-0.192186,23,7
27.2454,6.91946,7.53215,10,15
12.05,3.0424,0.216933,48,8
0.549853,0.138726,-0.130922,14,1
12.6135,3.17999,0.681728,68,9
0.719594,0.181417,-0.144252,44,2
12.5852,3.17053,1.13547,7,10
5.96713,1.50216,-0.974587,38,3
14.7676,3.71483,1.86972,20,11
6.70548,1.68554,-0.848942,31,4
18.946,4.7589,3.09396,34,12
7.66022,1.92269,-0.690971,28,5
18.4326,4.62651,3.69406,34,13
8.99855,2.25694,-0.486201,68,6
18.347,4.59825,4.36675,28,14
10.665,2.67094,-0.191907,22,7
27.1532,6.79525,7.50006,40,15
12.241,3.04521,0.22018,48,8
0.531422,0.132105,-0.126422,15,1
12.9986,3.22887,0.70193,17,9
0.727876,0.18067,-0.145778,43,2
13.2446,3.28506,1.19386,40,10
5.98218,1.48266,-0.976151,41,3
18.2487,4.52286,2.30845,29,11
6.72095,1.66451,-0.850161,28,4
18.9778,4.69653,3.09646,39,12
7.70944,1.90647,-0.694806,27,5
18.2416,4.50759,3.65247,33,13
9.01646,2.22634,-0.486724,65,6
18.3562,4.52911,4.36495,50,14
10.6839,2.63609,-0.192081,22,7
28.9043,7.12633,7.9768,5,15
12.0112,2.94135,0.215851,57,8
0.550832,0.134788,-0.130922,14,1
13.1287,3.21014,0.708315,48,9
0.724688,0.177196,-0.145015,43,2
13.2966,3.24874,1.19752,23,10
5.9854,1.4613,-0.975838,38,3
14.9403,3.64483,1.88824,45,11
6.72508,1.6394,-0.849917,29,4
18.9757,4.62227,3.09334,48,12
7.71605,1.87954,-0.694806,27,5
18.2725,4.4476,3.65552,18,13
9.01641,2.19297,-0.486306,65,6
18.1863,4.4199,4.32086,62,14
10.6896,2.59597,-0.192011,25,7
28.0366,6.8035,7.73041,21,15
10.5732,2.5501,0.189847,15,8
0.543721,0.131038,-0.129122,14,1
13.0505,3.14279,0.7035,48,9
0.725302,0.174665,-0.145015,43,2
18.9584,4.562,1.70599,35,10
5.9943,1.44132,-0.976464,38,3
14.8044,3.55695,1.86948,49,11
6.73269,1.61638,-0.850161,30,4
19.1742,4.59979,3.12306,24,12
7.73806,1.85632,-0.6962,27,5
18.4903,4.43231,3.69597,43,13
9.02207,2.16101,-0.486201,76,6
18.4556,4.41718,4.38115,39,14
10.7025,2.55957,-0.192081,100,7
18.4531,4.40977,5.08372,6,15
8.73565,2.07468,0.156723,11,8
0.55176,0.130939,-0.130922,14,1
9.39775,2.23019,0.506193,26,9
0.718266,0.170321,-0.143488,44,2
13.8928,3.2918,1.24912,11,10
6.00122,1.42084,-0.976777,48,3
15.1567,3.58568,1.91237,86,11
6.74988,1.59561,-0.851623,32,4
16.4961,3.89951,2.68473,13,12
7.78327,1.83845,-0.699686,21,5
16.1975,3.82295,3.23498,28,13
9.049,2.13409,-0.487248,65,6
10.3762,2.44518,-0.186078,100,7
18.4582,4.34634,5.08114,19,15
0.574961,0.134433,-0.13632,13,1
13.023,3.04252,0.700883,54,9
0.726504,0.169598,-0.145015,43,2
12.8603,2.99979,1.15534,20,10
6.01167,1.40228,-0.977716,52,3
15.7272,3.66562,1.98281,42,11
6.75127,1.57231,-0.851136,32,4
7.78188,1.80947,-0.698989,21,5
16.0093,3.72253,3.19491,18,13
9.06381,2.10588,-0.487667,79,6
18.601,4.31833,4.40859,55,14
10.6593,2.47265,-0.190999,20,7
18.4413,4.27447,5.07234,8,15
11.3588,2.61613,0.20346,18,8
0.579225,0.133299,-0.13722,13,1
13.0627,3.00376,0.702453,22,9
0.715611,0.164423,-0.142725,45,2
12.7653,2.93304,1.14592,32,10
6.0069,1.37908,-0.976151,46,3
15.0317,3.44825,1.89361,16,11
6.75672,1.54874,-0.851136,33,4
18.0017,4.12294,2.92501,15,12
7.7998,1.78496,-0.700035,26,5
18.3883,4.20474,3.66659,12,13
9.08704,2.0762,-0.488504,66,6
18.6407,4.25902,4.41444,19,14
11.0734,2.52801,-0.198259,100,7
18.5616,4.23413,5.10132,4,15
11.2474,2.5471,0.201296,58,8
0.530292,0.119993,-0.125523,15,1
9.40147,2.12561,0.505147,23,9
0.727699,0.164395,-0.145015,43,2
12.8071,2.89326,1.14871,22,10
6.02733,1.36053,-0.978654,48,3
14.7596,3.32894,1.85778,96,11
6.78365,1.52876,-0.853817,32,4
18.0417,4.06257,2.92908,40,12
7.81795,1.75898,-0.701081,25,5
18.394,4.13516,3.66468,9,13
9.08874,2.04157,-0.48819,70,6
24.7519,5.55993,5.85683,7,14
9.10019,2.04247,-0.162796,17,7
25.7608,5.77713,7.07404,17,15
8.81095,1.96141,0.15756,45,8
0.545946,0.121433,-0.129122,14,1
13.0312,2.8985,0.699627,17,9
0.712936,0.158446,-0.141962,46,2
16.6493,3.69717,1.49211,26,10
6.02456,1.33672,-0.977403,37,3
14.7892,3.27868,1.85997,80,11
6.80057,1.50765,-0.855279,40,4
18.5187,4.10211,3.00417,24,12
7.8435,1.73599,-0.702824,27,5
15.7419,3.48125,3.13385,8,13
9.09971,2.0107,-0.488399,59,6
27.0413,5.97512,6.39356,8,14
9.1385,2.01759,-0.163355,59,7
25.7299,5.67593,7.06007,8,15
9.34481,2.04775,0.166985,30,8
0.553961,0.12129,-0.130922,14,1
12.8437,2.81213,0.689055,70,9
0.721129,0.157759,-0.143488,44,2
31.7463,6.93924,2.84302,35,10
6.03861,1.31884,-0.978967,45,3
18.481,4.03289,2.32259,25,11
6.79196,1.48213,-0.853573,38,4
16.2875,3.55126,2.6403,7,12
7.857,1.71167,-0.703521,26,5
15.8071,3.44072,3.14453,15,13
9.17269,1.99494,-0.491958,63,6
24.2484,5.27371,5.72905,55,14
9.05916,1.9686,-0.161819,51,7
26.0733,5.66107,7.1491,18,15
8.84722,1.90799,0.157979,52,8
0.56579,0.121915,-0.133621,14,1
9.25104,1.9917,0.495936,43,9
0.717837,0.154415,-0.142725,45,2
13.2803,2.85676,1.18846,25,10
6.04295,1.29881,-0.978967,38,3
15.616,3.35349,1.96112,63,11
6.83009,1.46549,-0.857717,34,4
19.3072,4.1391,3.12744,17,12
7.85513,1.68256,-0.702824,26,5
18.3992,3.93773,3.65743,9,13
9.19913,1.96708,-0.493005,56,6
27.2376,5.82432,6.43045,36,14
9.08162,1.9403,-0.162098,8,7
24.4152,5.2119,6.68944,7,15
11.1058,2.35252,0.198155,21,8
0.543355,0.114998,-0.128222,14,1
9.13517,1.93175,0.489341,31,9
0.718398,0.151783,-0.142725,45,2
8.96314,1.89373,0.801484,20,10
6.03994,1.27502,-0.977716,32,3
15.7739,3.32696,1.9794,51,11
6.85678,1.44495,-0.860398,45,4
18.5896,3.91406,3.00886,22,12
7.84955,1.6513,-0.701778,28,5
13.2107,2.7767,2.62401,12,13
9.20627,1.93336,-0.493005,59,6
27.1977,5.71164,6.41605,8,14
8.89688,1.86676,-0.158677,100,7
24.351,5.10492,6.66666,27,15
9.13898,1.90091,0.162936,13,8
0.559036,0.116178,-0.131821,14,1
8.71557,1.81126,0.466523,30,9
0.718923,0.149275,-0.142725,45,2
12.3938,2.57114,1.1074,85,10
6.05811,1.25568,-0.979906,35,3
16.0892,3.33192,2.01743,35,11
6.86786,1.42102,-0.861129,46,4
16.3709,3.38726,2.64781,23,12
7.86697,1.62631,-0.702824,23,5
13.2299,2.73256,2.62591,11,13
9.20905,1.9004,-0.492795,63,6
33.7153,6.95143,7.94752,11,14
8.89355,1.83367,-0.158503,67,7
30.2077,6.22275,8.26409,43,15
8.90622,1.82171,0.158677,8,8
0.532689,0.108861,-0.125523,15,1
8.87056,1.81119,0.474478,18,9
0.723287,0.147549,-0.143488,44,2
12.4632,2.5402,1.1128,47,10
6.07773,1.23874,-0.982409,37,3
16.2811,3.31539,2.04009,48,11
6.86476,1.39665,-0.860154,43,4
16.3187,3.31711,2.63749,10,12
7.89798,1.60399,-0.70509,28,5
18.2432,3.70498,3.6185,12,13
9.23292,1.87343,-0.493737,77,6
15.9972,3.24305,3.76838,12,14
9.00965,1.82485,-0.160457,42,7
30.146,6.1004,8.24132,12,15
0.521602,0.1047,-0.122823,15,1
8.775,1.75979,0.469035,23,9
0.723773,0.145149,-0.143488,44,2
8.9434,1.79194,0.797998,11,10
6.09364,1.21984,-0.984286,41,3
16.3003,3.26009,2.04107,48,11
6.89879,1.37852,-0.86381,41,4
16.3437,3.26284,2.63968,6,12
7.8974,1.57663,-0.704567,30,5
13.2366,2.64014,2.62362,3,13
9.25312,1.84392,-0.49447,70,6
32.7585,6.52202,7.71132,11,14
8.92379,1.77505,-0.158817,33,7
30.5517,6.07158,8.3464,6,15
10.6393,2.09892,0.189289,65,8
0.548731,0.108154,-0.129122,14,1
12.3574,2.43339,0.660061,118,9
0.720422,0.141864,-0.142725,45,2
17.3186,3.40719,1.54423,35,10
6.10949,1.20085,-0.986163,37,3
17.007,3.33973,2.12808,27,11
6.91914,1.35748,-0.86576,38,4
16.954,3.32318,2.73635,17,12
7.91263,1.55096,-0.705439,26,5
16.1415,3.161,3.1972,13,13
9.25754,1.81122,-0.494365,70,6
32.8059,6.41248,7.71717,11,14
10.5197,2.05434,-0.18709,30,7
19.4199,3.78891,5.30165,7,15
8.99352,1.74165,0.159899,48,8
0.556759,0.107719,-0.130922,14,1
12.409,2.39858,0.662364,27,9
0.705492,0.136367,-0.139672,47,2
14.175,2.73736,1.26306,22,10
6.08455,1.1739,-0.98147,45,3
16.8393,3.24578,2.10566,36,11
6.93358,1.3352,-0.866979,32,4
16.4049,3.15613,2.64593,5,12
7.92386,1.52446,-0.705962,23,5
13.1603,2.52951,2.60492,25,13
9.27165,1.7804,-0.494784,73,6
32.4836,6.23185,7.63619,11,14
9.02041,1.7289,-0.160318,93,7
19.4842,3.73091,5.31563,11,15
8.99954,1.71024,0.159899,57,8
0.541815,0.102867,-0.127322,15,1
12.0817,2.29161,0.644465,7,9
0.725253,0.137563,-0.143488,44,2
8.64651,1.63846,0.769934,41,10
6.08667,1.15229,-0.981157,35,3
15.6919,2.96785,1.96088,63,11
6.93235,1.30988,-0.866247,38,4
16.4644,3.108,2.65375,5,12
7.94872,1.50049,-0.707705,23,5
9.24248,1.74137,-0.4929,84,6
16.0639,3.0237,3.77378,20,14
9.39193,1.76614,-0.16681,21,7
19.5123,3.66573,5.31977,3,15
9.01587,1.67751,0.160073,32,8
0.542206,0.100786,-0.127322,15,1
8.90729,1.65409,0.474792,23,9
0.714194,0.132626,-0.141199,46,2
14.6237,2.71298,1.30124,71,10
6.10659,1.13179,-0.98366,37,3
18.3734,3.40199,2.29431,39,11
6.96661,1.28867,-0.869903,33,4
7.95834,1.47068,-0.708053,26,5
13.4468,2.48252,2.65797,10,13
9.25499,1.70696,-0.493214,70,6
16.062,2.95953,3.77063,10,14
19.9195,3.66311,5.42692,22,15
9.06889,1.65464,0.160911,13,8
0.534886,0.0974948,-0.125523,15,1
8.87174,1.61547,0.472594,20,9
0.718516,0.130836,-0.141962,46,2
14.2292,2.58846,1.26533,71,10
6.1416,1.11612,-0.988666,35,3
14.1409,2.56729,1.76467,23,11
6.97888,1.26576,-0.870878,30,4
16.0396,2.90623,2.58179,22,12
7.96734,1.44361,-0.708402,25,5
13.411,2.42752,2.64919,17,13
9.23338,1.66967,-0.491749,52,6
16.0703,2.9031,3.77018,67,14
9.07008,1.63687,-0.160876,93,7
19.8923,3.58635,5.41605,20,15
9.16712,1.63952,0.162552,28,8
0.558243,0.0997399,-0.130922,14,1
8.85373,1.58028,0.471338,58,9
0.715103,0.127637,-0.141199,46,2
14.1793,2.52828,1.2601,100,10
6.14935,1.09537,-0.989292,37,3
14.1615,2.52,1.76613,65,11
6.99889,1.24417,-0.872828,30,4
14.0094,2.4879,2.2536,38,12
7.9743,1.41613,-0.708576,30,5
13.4232,2.38137,2.64996,37,13
9.20965,1.6322,-0.490179,73,6
16.1168,2.85344,3.77873,15,14
9.19192,1.62574,-0.162936,23,7
20.2509,3.57807,5.51026,21,15
9.04279,1.58472,0.160248,43,8
0.554749,0.0971185,-0.130022,14,1
12.1959,2.13292,0.648861,56,9
0.707808,0.123787,-0.139672,47,2
13.4266,2.34572,1.19246,15,10
6.15119,1.07355,-0.988979,38,3
13.9903,2.43919,1.74371,93,11
7.01884,1.22246,-0.874778,34,4
13.6035,2.36685,2.18695,18,12
7.95171,1.3835,-0.706136,31,5
13.4392,2.33586,2.65148,22,13
9.21923,1.60072,-0.490388,66,6
16.0921,2.79116,3.77063,5,14
9.01232,1.56156,-0.159655,76,7
19.9092,3.44607,5.41398,4,15
9.10937,1.56364,0.16133,40,8
0.532036,0.0912294,-0.124623,15,1
9.01416,1.54406,0.479293,56,9
0.727587,0.12463,-0.143488,33,2
13.4386,2.29952,1.19281,30,10
6.15295,1.05174,-0.988666,41,3
13.9479,2.38165,1.73737,58,11
7.02502,1.19828,-0.875022,32,4
13.7694,2.34623,2.2123,45,12
7.96042,1.35641,-0.706484,23,5
13.4395,2.28761,2.64996,37,13
9.18341,1.5615,-0.48819,98,6
16.1402,2.7415,3.77963,17,14
9.00589,1.52808,-0.159445,100,7
19.8487,3.36428,5.39431,24,15
0.55157,0.0925979,-0.129122,14,1
8.90328,1.4931,0.473117,26,9
0.720272,0.120791,-0.141962,46,2
6.16243,1.03124,-0.989605,38,3
13.8699,2.31855,1.72664,31,11
7.02328,1.17278,-0.874291,33,4
7.98869,1.33255,-0.708576,28,5
13.3661,2.22713,2.63393,54,13
9.18486,1.52878,-0.48798,87,6
16.117,2.67971,3.77198,5,14
9.06443,1.50548,-0.160388,100,7
20.0643,3.32882,5.44969,14,15
10.004,1.6454,0.176967,38,8
0.536506,0.088145,-0.125523,15,1
9.06217,1.48724,0.481281,56,9
0.709066,0.116368,-0.139672,47,2
14.3804,2.35746,1.27491,49,10
6.17184,1.01068,-0.990543,42,3
13.9054,2.2746,1.73006,73,11
7.03713,1.14985,-0.875509,34,4
8.01099,1.30755,-0.710145,27,5
13.4261,2.18899,2.64423,30,13
9.15466,1.49093,-0.486096,97,6
16.0358,2.60874,3.75083,25,14
9.65388,1.56878,-0.170719,22,7
20.4476,3.31912,5.55063,11,15
8.90017,1.43195,0.157351,35,8
0.559899,0.0899821,-0.130922,14,1
10.0789,1.61799,0.534978,9,9
0.705591,0.11327,-0.138909,36,2
14.3885,2.30725,1.27491,22,10
6.19093,0.991628,-0.993046,42,3
13.8623,2.21789,1.72372,65,11
7.0313,1.12372,-0.874291,31,4
13.1846,2.10476,2.11468,50,12
8.04698,1.2846,-0.712934,28,5
13.4085,2.13809,2.63927,9,13
9.19137,1.464,-0.487771,100,6
13.3389,2.12223,3.11827,8,14
9.0293,1.43495,-0.159585,100,7
20.6995,3.28589,5.61586,19,15
9.90269,1.5578,0.174978,52,8
0.579461,0.091052,-0.135421,13,1
10.416,1.63483,0.552563,9,9
0.721518,0.113116,-0.141962,46,2
12.0423,1.88793,1.06644,38,10
6.21582,0.973372,-0.996488,50,3
13.9386,2.18024,1.73225,58,11
7.05087,1.10162,-0.876241,33,4
13.3363,2.08126,2.13783,56,12
8.06935,1.25786,-0.714503,28,5
13.3056,2.07171,2.61752,11,13
9.15128,1.42324,-0.485364,54,6
13.6024,2.11549,3.17811,9,14
9.05994,1.40741,-0.160039,100,7
20.1744,3.13037,5.4704,4,15
9.02285,1.38553,0.15934,15,8
0.564381,0.0865642,-0.131821,14,1
12.7713,1.95656,0.677123,10,9
