x, y, z, intensity, ring
9.7189,18.6778,1.10345,22,9
3.01864,5.80122,-1.27117,21,2
10.141,19.4806,1.92144,35,10
3.44352,6.61213,-1.18077,26,3
10.2436,19.661,2.72207,27,11
3.99036,7.65562,-1.06002,24,4
10.2715,19.6979,3.51852,76,12
4.71571,9.04337,-0.8923,22,5
12.4702,23.9042,5.24076,18,13
5.84023,11.1903,-0.661527,35,6
13.9864,26.7876,6.97663,41,14
7.70292,14.7469,-0.290408,70,7
18.7686,35.9162,10.8585,11,15
0.224203,0.427769,-0.12941,15,0
10.1321,19.3234,0.380846,45,8
0.276102,0.526344,-0.13722,13,1
10.4894,19.9878,1.183,13,9
3.03705,5.78717,-1.27041,21,2
10.3487,19.7115,1.94776,22,10
3.4574,6.58258,-1.17764,25,3
10.2577,19.5215,2.70769,66,11
4.00874,7.62584,-1.05783,23,4
10.4037,19.7825,3.54011,40,12
4.72313,8.98101,-0.887768,21,5
18.0292,34.2678,7.52665,15,13
5.86715,11.1469,-0.660166,35,6
14.354,27.2594,7.1125,10,14
7.71055,14.6367,-0.288768,63,7
13.6752,25.9483,7.8593,5,15
0.24375,0.461142,-0.139762,14,0
10.0453,18.9963,0.375087,28,8
0.283406,0.535712,-0.13992,13,1
11.9119,22.5072,1.33457,14,9
3.04713,5.75745,-1.26621,26,2
10.5135,19.8566,1.96571,37,10
3.46556,6.54254,-1.17263,27,3
10.3118,19.4592,2.70404,39,11
4.03255,7.60654,-1.05709,28,4
10.4819,19.7635,3.54324,38,12
4.74325,8.94334,-0.885677,21,5
10.4192,19.637,4.32106,4,13
5.87981,11.077,-0.657235,35,6
13.5287,25.4759,6.65945,28,14
7.72219,14.5356,-0.287302,63,7
14.4176,27.1269,8.23148,12,15
0.238089,0.446651,-0.135621,15,0
10.0654,18.8746,0.373377,54,8
0.27977,0.524404,-0.13722,13,1
11.3039,21.1792,1.25816,15,9
3.06905,5.75024,-1.26697,23,2
10.3125,19.3136,1.91551,61,10
3.48465,6.52344,-1.17138,27,3
10.303,19.2796,2.68405,71,11
4.04504,7.56615,-1.05344,27,4
10.6235,19.8627,3.56764,61,12
4.76096,8.89779,-0.882888,21,5
10.496,19.6161,4.3245,26,13
5.88828,11,-0.653885,35,6
13.6976,25.578,6.69859,9,14
7.73416,14.4363,-0.28587,70,7
14.1344,26.3715,8.01718,11,15
0.239724,0.445775,-0.135621,15,0
10.1871,18.9433,0.375436,61,8
0.276983,0.514843,-0.134971,28,1
11.3607,21.108,1.25627,15,9
3.08825,5.7355,-1.26621,23,2
10.3946,19.2967,1.9176,48,10
3.50198,6.49845,-1.16919,25,3
10.389,19.2784,2.68893,6,11
4.05635,7.52403,-1.04954,26,4
10.764,19.9576,3.59142,55,12
4.77686,8.85306,-0.880099,21,5
10.538,19.5222,4.31228,26,13
5.91052,10.945,-0.651897,35,6
13.0706,24.1937,6.34857,8,14
7.71703,14.2843,-0.283392,86,7
13.8341,25.5963,7.79615,5,15
0.257855,0.475503,-0.144939,14,0
10.2965,18.9796,0.376902,26,8
0.277009,0.510399,-0.134071,28,1
10.2301,18.8494,1.12397,9,9
3.09701,5.70398,-1.26163,26,2
10.4657,19.2673,1.9183,52,10
3.5237,6.48445,-1.16888,22,3
10.9337,20.1122,2.81079,29,11
4.06683,7.47772,-1.04515,27,4
10.7714,19.8054,3.57077,51,12
4.7944,8.81183,-0.877658,21,5
10.5835,19.4439,4.30312,4,13
5.93819,10.905,-0.650745,35,6
12.9033,23.6859,6.2271,16,14
7.69318,14.122,-0.280705,86,7
14.2839,26.2094,7.99803,5,15
0.259513,0.474601,-0.144939,14,0
10.6348,19.4489,0.38692,27,8
0.281505,0.514607,-0.135421,13,1
10.3448,18.9029,1.12931,16,9
3.11124,5.6828,-1.25934,23,2
10.5396,19.2429,1.91952,35,10
3.53569,6.4554,-1.16575,33,3
10.8353,19.7747,2.76863,56,11
4.08874,7.45897,-1.04442,24,4
10.8366,19.7607,3.56952,53,12
4.80787,8.7636,-0.874521,19,5
10.7396,19.5756,4.34014,21,13
5.95029,10.8415,-0.648129,35,6
12.9855,23.6498,6.22889,8,14
7.70199,14.0215,-0.279238,80,7
19.3175,35.1529,10.7477,11,15
0.257356,0.46697,-0.142868,14,0
10.1735,18.4521,0.367792,11,8
0.289889,0.525566,-0.13857,27,1
12.4534,22.5779,1.35131,11,9
3.12722,5.6673,-1.25819,23,2
10.6091,19.2183,1.92056,17,10
3.5477,6.424,-1.16231,25,3
10.9129,19.7524,2.77082,42,11
4.10515,7.42728,-1.04198,22,4
10.8553,19.64,3.55419,36,12
4.81956,8.71622,-0.871383,21,5
10.6833,19.313,4.29015,21,13
5.95232,10.756,-0.644256,35,6
13.1152,23.6896,6.25139,8,14
7.73973,13.9801,-0.278924,63,7
19.7026,35.5737,10.8963,23,15
0.243971,0.43905,-0.134586,15,0
10.423,18.7573,0.374564,11,8
0.292577,0.526305,-0.13902,13,1
11.1517,20.0522,1.20247,29,9
3.14222,5.64777,-1.25629,26,2
12.4852,22.4314,2.246,29,10
3.5613,6.39839,-1.15981,25,3
10.9252,19.6207,2.75742,56,11
4.1201,7.39628,-1.03955,24,4
10.8911,19.5433,3.54355,22,12
4.84025,8.68195,-0.86964,21,5
16.1726,29.0088,6.45583,11,13
5.96266,10.6908,-0.641534,35,6
13.6105,24.3931,6.4489,36,14
7.75534,13.8936,-0.277738,64,7
22.5628,40.4045,12.4,16,15
0.283271,0.505611,-0.155291,12,0
11.0119,19.647,0.393133,27,8
0.284973,0.508231,-0.134521,14,1
12.3098,21.9447,1.31866,19,9
3.15999,5.63334,-1.25552,26,2
12.5819,22.4207,2.24932,6,10
3.57796,6.37324,-1.15762,23,3
10.9912,19.5701,2.75595,70,11
4.13648,7.3621,-1.03686,23,4
11.0952,19.7392,3.58642,8,12
4.87248,8.66847,-0.869989,21,5
21.0488,37.432,8.34751,9,13
5.97438,10.6202,-0.638603,35,6
13.7476,24.4279,6.47139,45,14
7.75814,13.7797,-0.276027,56,7
14.182,25.1793,7.74335,5,15
0.256531,0.454157,-0.139762,14,0
10.8128,19.1349,0.383639,37,8
0.294417,0.520805,-0.13812,13,1
11.5162,20.363,1.22602,15,9
3.16804,5.60177,-1.25094,23,2
12.7406,22.5189,2.26361,12,10
3.59921,6.35899,-1.1573,25,3
11.1866,19.7562,2.78764,57,11
4.14553,7.31825,-1.03272,27,4
4.89092,8.63061,-0.867897,21,5
16.495,29.0955,6.50124,23,13
5.97693,10.5384,-0.63494,39,6
13.8462,24.4035,6.47769,45,14
7.75289,13.6587,-0.274142,56,7
14.4806,25.5009,7.85775,22,15
0.250467,0.439829,-0.135621,15,0
10.9458,19.2135,0.385977,35,8
0.298163,0.52316,-0.13902,13,1
11.4576,20.0954,1.21231,21,9
3.17979,5.57703,-1.24789,26,2
14.3363,25.1343,2.53153,14,10
3.61453,6.33438,-1.15511,25,3
11.2742,19.7498,2.79227,7,11
4.16218,7.28822,-1.03053,34,4
11.1201,19.464,3.55044,29,12
4.89729,8.57197,-0.863713,21,5
19.3661,33.8837,7.58618,15,13
5.98989,10.4759,-0.632428,39,6
14.2303,24.8777,6.61671,28,14
7.76874,13.576,-0.273025,56,7
22.9802,40.1419,12.3938,16,15
0.269314,0.469109,-0.144939,14,0
11.0457,19.2324,0.387129,37,8
0.309696,0.539013,-0.143519,12,1
11.669,20.3012,1.22717,45,9
3.2012,5.5693,-1.24865,23,2
13.0166,22.6366,2.28453,24,10
3.62086,6.29433,-1.15011,22,3
12.4719,21.6717,3.07013,8,11
4.17572,7.253,-1.0276,26,4
11.2471,19.5278,3.56921,17,12
4.91923,8.54101,-0.862319,21,5
16.2361,28.1785,6.3215,10,13
6.00149,10.4117,-0.629811,35,6
14.538,25.2111,6.71884,29,14
7.77311,13.4743,-0.271525,65,7
23.0371,39.9176,12.3493,15,15
0.265144,0.458134,-0.141833,14,0
11.0617,19.1054,0.385349,52,8
0.297901,0.51432,-0.13722,13,1
11.7668,20.307,1.23,40,9
3.21963,5.5564,-1.24827,23,2
13.1246,22.641,2.28958,18,10
3.64281,6.28165,-1.15011,22,3
12.3303,21.2537,3.017,16,11
4.20001,7.23667,-1.02736,28,4
12.4846,21.5025,3.93808,12,12
4.93301,8.49622,-0.85953,21,5
6.01371,10.3492,-0.627299,35,6
14.5691,25.0625,6.69274,19,14
7.79396,13.4021,-0.270617,65,7
22.9801,39.4996,12.2447,15,15
0.253112,0.433845,-0.134586,15,0
0.293799,0.50318,-0.134521,14,1
11.6271,19.9053,1.20812,42,9
3.22911,5.52817,-1.24446,23,2
13.2296,22.6398,2.29411,30,10
3.65973,6.26037,-1.14854,20,3
12.5387,21.4402,3.04966,17,11
4.20921,7.19455,-1.02346,27,4
13.7211,23.4432,4.30226,15,12
4.95257,8.46175,-0.857787,21,5
13.883,23.7103,5.34074,18,13
6.02355,10.2833,-0.624577,37,6
14.5541,24.8366,6.64595,38,14
7.79418,13.2955,-0.269011,65,7
23.282,39.6991,12.3317,15,15
0.256584,0.436289,-0.135621,15,0
11.2718,19.1587,0.388002,30,8
0.301485,0.512228,-0.13722,13,1
11.7157,19.8973,1.21011,21,9
3.23444,5.49318,-1.23911,21,2
12.7959,21.7231,2.20574,34,10
3.67253,6.23224,-1.14573,22,3
12.6618,21.4784,3.06136,17,11
4.22018,7.15587,-1.02005,24,4
13.8219,23.4275,4.30821,6,12
4.96689,8.41867,-0.855172,19,5
13.9617,23.655,5.33922,18,13
6.05027,10.2468,-0.623635,40,6
14.4336,24.435,6.55192,9,14
7.79781,13.1959,-0.267545,66,7
23.4145,39.6076,12.3286,15,15
0.258105,0.43539,-0.135621,15,0
11.304,19.0608,0.386815,20,8
0.309237,0.521229,-0.13992,13,1
11.5884,19.5248,1.18991,47,9
3.24859,5.47341,-1.23721,23,2
13.2877,22.379,2.27703,30,10
3.69225,6.21598,-1.1451,25,3
12.5238,21.0757,3.01017,25,11
4.23194,7.11892,-1.01688,27,4
12.7283,21.4028,3.94403,27,12
4.97486,8.36532,-0.851512,21,5
14.0462,23.6095,5.33998,7,13
6.07885,10.2136,-0.622903,37,6
14.6932,24.6775,6.63066,38,14
7.80699,13.1067,-0.266289,66,7
23.5388,39.5024,12.3213,15,15
10.3352,17.2894,0.351596,31,8
0.315055,0.526836,-0.141719,13,1
12.1487,20.307,1.24015,54,9
3.26767,5.46204,-1.23721,23,2
13.4128,22.4111,2.28505,49,10
3.69972,6.17933,-1.14072,22,3
12.5697,20.9859,3.00359,33,11
4.2435,7.08196,-1.01371,22,4
12.7928,21.3413,3.9409,10,12
4.99584,8.33423,-0.850117,19,5
14.0628,23.4508,5.31518,15,13
6.07748,10.1306,-0.619134,37,6
14.9588,24.9251,6.71119,39,14
7.82387,13.0314,-0.265311,66,7
23.7342,39.5161,12.3514,15,15
0.249178,0.413719,-0.12941,15,0
10.4213,17.296,0.352469,31,8
0.302808,0.502367,-0.135421,13,1
12.2638,20.338,1.24465,46,9
3.28469,5.44724,-1.23644,26,2
13.317,22.0759,2.25559,48,10
3.71514,6.15623,-1.13884,23,3
12.6542,20.9605,3.00627,16,11
4.25486,7.04502,-1.01054,26,4
13.0214,21.5518,3.98814,21,12
5.0146,8.29969,-0.848374,19,5
20.7955,34.4051,7.81439,16,13
6.0725,10.0427,-0.615052,37,6
14.8056,24.4759,6.60411,47,14
7.82479,12.9304,-0.263811,83,7
28.9744,47.8613,14.9913,21,15
0.300744,0.495417,-0.155291,12,0
10.5138,17.3125,0.353551,2,8
0.306583,0.504638,-0.13632,13,1
12.1694,20.0309,1.22833,45,9
3.2996,5.42903,-1.23492,21,2
13.3805,22.0071,2.25332,42,10
3.7325,6.13647,-1.13759,25,3
12.8717,21.1537,3.0404,17,11
4.27117,7.01656,-1.00859,23,4
12.9583,21.2875,3.94715,37,12
5.0311,8.26171,-0.846282,19,5
16.6419,27.3173,6.2177,26,13
6.08673,9.98734,-0.612959,37,6
15.0087,24.6171,6.6563,48,14
7.82703,12.8378,-0.262449,92,7
29.1108,47.7287,14.9799,21,15
0.276258,0.451519,-0.141833,14,0
10.8091,17.6665,0.361509,15,8
0.314359,0.513591,-0.13902,13,1
12.3185,20.1178,1.23628,33,9
3.30725,5.39907,-1.23072,23,2
13.4916,22.0163,2.25908,48,10
3.75077,6.12069,-1.13697,22,3
12.8941,21.033,3.02918,34,11
4.28611,6.98882,-1.00664,26,4
13.1234,21.3903,3.97469,26,12
5.04949,8.22712,-0.844539,19,5
17.5673,28.6223,6.52796,23,13
6.11772,9.9637,-0.612749,37,6
15.0984,24.5805,6.6599,48,14
7.8362,12.7525,-0.261263,92,7
0.30411,0.493358,-0.155291,12,0
10.8308,17.5639,0.360183,9,8
0.312057,0.505857,-0.13722,13,1
12.3383,19.9931,1.23126,38,9
3.31886,5.37579,-1.22805,23,2
15.0508,24.3788,2.5066,14,10
3.75861,6.08572,-1.1329,27,3
12.9257,20.9203,3.01944,33,11
4.31152,6.9755,-1.00688,27,4
12.9299,20.9109,3.89397,10,12
5.05721,8.17556,-0.841053,19,5
13.1017,21.1721,4.83968,6,13
6.14053,9.91913,-0.611389,37,6
15.2179,24.5823,6.67475,38,14
7.85118,12.6775,-0.260285,92,7
0.305916,0.49224,-0.155291,12,0
10.9004,17.5326,0.360357,24,8
0.311851,0.5014,-0.13632,13,1
13.0119,20.9126,1.29081,16,9
3.33647,5.36026,-1.22728,21,2
13.1796,21.174,2.18203,45,10
3.76837,6.05177,-1.12914,28,3
12.9435,20.7784,3.00579,41,11
4.33391,6.9546,-1.00615,26,4
13.1852,21.15,3.94747,27,12
5.07027,8.12992,-0.838264,19,5
17.7995,28.5294,6.53635,11,13
6.14407,9.84403,-0.608144,37,6
17.3819,27.8492,7.57905,11,14
7.85629,12.5825,-0.258924,93,7
28.5058,45.6366,14.4178,20,15
0.307718,0.491115,-0.155291,12,0
10.7468,17.1452,0.353202,33,8
0.311616,0.496951,-0.135421,13,1
12.6784,20.219,1.25072,50,9
3.35203,5.34359,-1.22614,23,2
14.7049,23.4325,2.42031,13,10
3.78527,6.02956,-1.12758,25,3
13.0154,20.7241,3.00481,41,11
4.34141,6.91009,-1.00201,22,4
13.2526,21.0938,3.94559,12,12
5.09014,8.09867,-0.836869,19,5
18.0202,28.6599,6.58062,11,13
6.15819,9.79041,-0.606155,37,6
17.598,27.9668,7.62854,22,14
7.87141,12.5093,-0.257981,93,7
0.282613,0.447568,-0.141833,14,0
10.8154,17.1281,0.353586,33,8
0.313262,0.495915,-0.135421,13,1
12.6625,20.0379,1.24225,39,9
3.36751,5.32688,-1.22499,23,2
13.3521,21.1128,2.18552,22,10
3.80102,6.0103,-1.12633,22,3
13.1095,20.7211,3.01066,8,11
4.35581,6.88224,-1.00006,24,4
13.3621,21.1042,3.95623,25,12
5.10346,8.05729,-0.834429,19,5
18.0237,28.4557,6.54742,17,13
6.17031,9.73788,-0.604166,37,6
17.7866,28.0597,7.66993,11,14
7.88933,12.4412,-0.257144,93,7
18.41,29.0208,9.20878,23,15
0.259211,0.407508,-0.12941,15,0
10.8987,17.1273,0.354354,31,8
0.323363,0.50797,-0.13902,13,1
13.1293,20.6169,1.28097,26,9
3.37567,5.30078,-1.22156,26,2
14.7002,23.0748,2.39365,26,10
3.81985,5.99366,-1.1257,22,3
13.6086,21.3448,3.10816,17,11
4.367,6.84691,-0.997135,22,4
13.3592,20.9375,3.9337,12,12
5.1144,8.01256,-0.83164,19,5
14.7607,23.1252,5.33273,11,13
6.19352,9.69944,-0.60312,40,6
15.4129,24.1282,6.60996,9,14
7.88102,12.3327,-0.255468,93,7
25.153,39.3458,12.5129,16,15
0.260703,0.406555,-0.12941,15,0
10.9822,17.1262,0.355122,29,8
0.325135,0.506838,-0.13902,13,1
13.2875,20.7054,1.28935,24,9
3.38977,5.28011,-1.21965,23,2
13.5799,21.1448,2.19859,40,10
3.83005,5.96134,-1.12226,25,3
13.6626,21.2654,3.10352,17,11
4.38122,6.81659,-0.994941,27,4
13.3895,20.8243,3.92119,12,12
5.12078,7.96114,-0.828154,19,5
13.4123,20.8437,4.81793,15,13
6.20416,9.63805,-0.600712,37,6
18.1769,28.2266,7.75091,11,14
7.87747,12.2328,-0.253967,94,7
17.6005,27.3211,8.70823,7,15
0.274702,0.425114,-0.135621,15,0
10.9689,16.9683,0.352678,24,8
0.322757,0.499098,-0.13722,13,1
13.4812,20.8467,1.30107,18,9
3.40498,5.2633,-1.21851,23,2
13.6504,21.0923,2.19807,23,10
3.8358,5.92472,-1.11788,25,3
16.0703,24.8124,3.62976,11,11
4.40185,6.79382,-0.993966,26,4
16.1345,24.9021,4.6996,17,12
5.1377,7.9265,-0.826411,19,5
16.9221,26.0977,6.04597,24,13
6.21168,9.57612,-0.5982,37,6
18.3304,28.248,7.77431,11,14
7.88202,12.1465,-0.252746,94,7
17.6032,27.1169,8.66267,7,15
0.276185,0.424152,-0.135621,15,0
10.9563,16.8262,0.350479,27,8
0.32441,0.498025,-0.13722,13,1
13.471,20.6723,1.29312,22,9
3.41476,5.23823,-1.21545,23,2
15.2193,23.3375,2.43757,55,10
3.84464,5.89542,-1.11475,25,3
16.1634,24.7756,3.63219,47,11
4.40917,6.75592,-0.990554,20,4
16.4427,25.1847,4.76374,14,12
5.15662,7.89517,-0.825016,19,5
18.5868,28.4577,6.60695,11,13
6.22701,9.53039,-0.59663,37,6
18.2619,27.9391,7.70592,11,14
7.88169,12.0537,-0.251384,94,7
17.7559,27.1442,8.69114,28,15
0.264876,0.403849,-0.12941,15,0
10.9349,16.6658,0.347931,25,8
0.328286,0.500148,-0.13812,13,1
13.5343,20.6118,1.29228,24,9
3.42564,5.21703,-1.21316,26,2
15.3907,23.4301,2.45256,55,10
3.86736,5.88526,-1.11538,22,3
16.2563,24.729,3.63366,23,11
4.42291,6.72556,-0.98836,22,4
17.3654,26.3962,5.00434,44,12
5.16525,7.8514,-0.822227,19,5
18.7658,28.514,6.63519,48,13
6.25804,9.50526,-0.596421,37,6
18.3508,27.8622,7.70232,11,14
7.87311,11.9493,-0.249779,94,7
18.0451,27.3773,8.78587,28,15
0.291847,0.441602,-0.141833,14,0
10.8794,16.4558,0.344336,23,8
0.323579,0.489246,-0.135421,27,1
13.475,20.3662,1.27982,8,9
3.43408,5.1903,-1.20973,23,2
15.7847,23.8481,2.50207,35,10
3.88679,5.87008,-1.11506,20,3
16.3458,24.6771,3.63439,23,11
4.43759,6.69684,-0.986411,23,4
18.9658,28.6108,5.43672,23,12
5.19593,7.8383,-0.82275,19,5
18.7285,28.2422,6.58711,11,13
6.27021,9.45173,-0.594432,37,6
18.9522,28.5578,7.91288,23,14
7.88049,11.8701,-0.248697,96,7
18.1203,27.2835,8.77604,21,15
0.280538,0.421286,-0.135621,15,0
10.7583,16.1497,0.338716,31,8
0.344737,0.517303,-0.143519,12,1
14.4024,21.6037,1.36074,56,9
3.45109,5.17665,-1.20935,21,2
15.4047,23.0983,2.42903,27,10
3.89739,5.84169,-1.11225,22,3
16.7062,25.031,3.69508,24,11
4.45652,6.67471,-0.985436,24,4
18.0408,27.0102,5.1445,8,12
5.20555,7.79361,-0.819961,17,5
18.9372,28.3415,6.62565,12,13
6.2854,9.40322,-0.592757,37,6
22.9644,34.3427,9.53792,14,14
7.8774,11.776,-0.247301,100,7
18.1821,27.1703,8.75999,7,15
0.282006,0.420304,-0.135621,15,0
10.7589,16.0291,0.336971,34,8
0.331332,0.493447,-0.13722,13,1
14.4677,21.5384,1.35979,27,9
3.47352,5.17109,-1.21087,21,2
15.7441,23.4297,2.46965,28,10
3.91115,5.81821,-1.11037,22,3
16.9896,25.2641,3.73822,24,11
4.47758,6.65581,-0.984948,24,4
17.9861,26.7258,5.10227,12,12
5.21382,7.74729,-0.816998,19,5
23.437,34.8123,8.15747,8,13
6.29811,9.35141,-0.590873,37,6
18.7374,27.8107,7.74192,22,14
7.91398,11.7418,-0.247161,96,7
18.7876,27.8643,9.00483,15,15
0.285636,0.422518,-0.136656,14,0
10.817,15.9947,0.337041,25,8
0.326501,0.482603,-0.134521,14,1
14.7812,21.84,1.38209,20,9
3.48494,5.14918,-1.20858,23,2
16.2726,24.0346,2.53937,29,10
3.92147,5.7898,-1.10756,20,3
17.3516,25.6089,3.79818,49,11
4.48854,6.62207,-0.982267,26,4
18.0992,26.6923,5.1079,16,12
5.23211,7.71329,-0.815429,19,5
19.5975,28.891,6.78593,12,13
6.30156,9.28639,-0.588152,37,6
18.8212,27.7258,7.73652,11,14
7.92234,11.6661,-0.246149,96,7
18.9347,27.8721,9.02864,15,15
0.285007,0.418275,-0.135621,15,0
10.8908,15.9833,0.337599,23,8
0.336964,0.494342,-0.13812,13,1
14.8799,21.8213,1.38418,11,9
3.50379,5.13637,-1.20858,23,2
16.4594,24.1196,2.55471,29,10
3.93375,5.76234,-1.10505,20,3
17.4364,25.5416,3.79721,12,11
4.50043,6.58997,-0.97983,26,4
18.1934,26.6306,5.10821,4,12
5.24889,7.68017,-0.81386,19,5
19.6666,28.7655,6.77334,25,13
6.31864,9.23851,-0.586581,37,6
19.2121,28.0796,7.85484,34,14
7.93818,11.6021,-0.245381,96,7
19.0079,27.7708,9.01726,30,15
0.273345,0.398166,-0.12941,15,0
10.9222,15.9037,0.336762,23,8
0.336567,0.489891,-0.13722,13,1
15.3507,22.3438,1.42071,26,9
3.51281,5.11117,-1.20553,26,2
16.6586,24.2295,2.57249,30,10
3.95608,5.75183,-1.10568,21,3
17.8832,25.9911,3.87374,12,11
4.50765,6.55132,-0.976417,23,4
21.8781,31.7853,6.11158,11,12
5.25758,7.63555,-0.811071,18,5
19.7391,28.6562,6.7638,6,13
6.32705,9.18186,-0.584383,37,6
19.0342,27.6226,7.74462,45,14
7.93209,11.5068,-0.24395,97,7
18.9643,27.5007,8.951,14,15
0.296637,0.429037,-0.139762,14,0
10.8975,15.7556,0.334388,22,8
0.33819,0.488772,-0.13722,13,1
15.4849,22.3798,1.42626,30,9
3.52415,5.09142,-1.20362,23,2
15.5979,22.5262,2.39713,19,10
3.96613,5.72569,-1.10318,21,3
17.4944,25.2463,3.77137,12,11
4.52709,6.53307,-0.97593,23,4
22.6519,32.6769,6.29743,37,12
5.27152,7.6017,-0.809328,18,5
19.7165,28.4212,6.72373,24,13
6.35746,9.16083,-0.584383,37,6
19.3912,27.942,7.85214,11,14
7.95652,11.4607,-0.243531,97,7
19.0896,27.4868,8.96704,7,15
0.302474,0.434393,-0.141833,14,0
10.8674,15.6012,0.331875,22,8
0.348722,0.500439,-0.140819,13,1
15.6132,22.3977,1.43087,22,9
3.54326,5.08292,-1.20439,23,2
15.7112,22.5299,2.40306,26,10
3.97606,5.69954,-1.10067,20,3
18.3119,26.2398,3.92882,12,11
4.54532,6.51072,-0.974955,20,4
22.8303,32.69,6.31526,6,12
5.28643,7.56948,-0.807759,16,5
19.1315,27.3836,6.49323,23,13
6.3489,9.08404,-0.580824,37,6
19.0353,27.2257,7.66948,56,14
7.9621,11.3837,-0.242484,97,7
23.2356,33.2086,10.86,22,15
0.332833,0.474454,-0.155291,12,0
10.8735,15.4944,0.330409,22,8
0.334791,0.476889,-0.134521,14,1
15.6454,22.2777,1.42668,30,9
3.55647,5.0641,-1.20286,23,2
15.8528,22.5646,2.41265,13,10
3.98798,5.67432,-1.09848,23,3
17.7389,25.2306,3.78697,24,11
4.55774,6.4802,-0.972761,18,4
21.013,29.8652,5.7837,21,12
5.30021,7.53305,-0.805842,18,5
22.9696,32.6339,7.75715,16,13
6.36332,9.03732,-0.579254,37,6
19.1639,27.2069,7.68298,45,14
7.96838,11.3085,-0.241471,100,7
19.2265,27.2755,8.94168,14,15
0.301039,0.42596,-0.139762,14,0
10.8802,15.3895,0.328978,22,8
0.329701,0.466172,-0.131821,14,1
15.76,22.2751,1.43003,20,9
3.56392,5.03723,-1.19943,23,2
16.8028,23.7402,2.5446,29,10
4.00091,5.65069,-1.09661,23,3
17.7971,25.1264,3.78063,24,11
4.56427,6.44158,-0.969349,20,4
20.2547,28.575,5.54748,9,12
5.31034,7.49175,-0.803402,18,5
19.9048,28.071,6.689,24,13
6.36825,8.97759,-0.576847,37,6
19.4505,27.41,7.75946,45,14
7.96961,11.2268,-0.24032,100,7
19.4401,27.3752,8.99655,15,15
0.302524,0.424907,-0.139762,14,0
10.848,15.2308,0.326395,20,8
0.338112,0.474541,-0.134521,14,1
16.2167,22.7518,1.46426,55,9
3.5678,5.00557,-1.19485,21,2
16.9735,23.8047,2.55785,29,10
4.01373,5.62704,-1.09473,22,3
17.7924,24.9349,3.76113,49,11
4.5775,6.41268,-0.967399,16,4
22.9842,32.1871,6.26426,18,12
5.32604,7.45858,-0.801833,16,5
23.1135,32.3562,7.72929,16,13
6.38678,8.93743,-0.575696,37,6
19.5778,27.3863,7.77206,45,14
7.97153,11.1468,-0.239203,97,7
19.5266,27.2946,8.99241,30,15
0.308509,0.430128,-0.141833,14,0
10.8533,15.1263,0.324964,22,8
0.348857,0.486023,-0.13812,13,1
3.57953,4.98512,-1.19294,26,2
16.8461,23.4524,2.5263,50,10
4.03334,5.613,-1.09473,22,3
19.2999,26.8487,4.05996,26,11
4.59522,6.39022,-0.966424,20,4
20.0165,27.8251,5.4289,18,12
5.34274,7.427,-0.800438,16,5
23.169,32.1956,7.71021,16,13
6.39343,8.88104,-0.573497,37,6
19.6675,27.3099,7.76981,45,14
8.00104,11.106,-0.238923,99,7
20.3209,28.1964,9.31283,8,15
0.310009,0.429048,-0.141833,14,0
10.844,15.0024,0.323114,22,8
0.357402,0.494277,-0.140819,13,1
16.6491,23.0167,1.48875,55,9
3.5877,4.95986,-1.18988,23,2
16.943,23.4145,2.52856,14,10
4.04133,5.58288,-1.0916,22,3
18.2874,25.2538,3.8284,25,11
4.61167,6.3661,-0.965205,22,4
20.2827,27.9886,5.47458,19,12
5.35928,7.3954,-0.799044,16,5
23.3423,32.1988,7.73044,32,13
6.39977,8.82472,-0.571299,40,6
19.7959,27.2868,7.78286,11,14
8.00569,11.031,-0.237911,99,7
26.1803,36.0606,11.9404,14,15
0.318326,0.437335,-0.144939,14,0
10.7962,14.8271,0.320147,24,8
0.343063,0.470974,-0.134521,14,1
16.6552,22.8567,1.48215,23,9
3.60268,4.94414,-1.18912,21,2
16.8897,23.17,2.50852,14,10
4.05614,5.56235,-1.09035,21,3
18.9662,25.9997,3.95149,25,11
4.62568,6.33874,-0.963499,21,4
20.534,28.1282,5.51588,38,12
5.36861,7.35412,-0.796603,16,5
23.4696,32.1377,7.7354,8,13
6.39637,8.75555,-0.568264,37,6
23.9868,32.8218,9.38541,14,14
8.02172,10.9724,-0.237248,99,7
26.6185,36.3962,12.0822,15,15
0.308427,0.420641,-0.139762,14,0
10.8006,14.7248,0.318751,24,8
0.34701,0.472916,-0.135421,13,1
16.781,22.8612,1.48624,31,9
3.61411,4.92362,-1.18721,23,2
17.323,23.5911,2.56064,22,10
4.07202,5.54339,-1.08941,18,3
18.6419,25.3686,3.86545,12,11
4.63837,6.30976,-0.961549,21,4
20.8018,28.2871,5.56125,9,12
5.38363,7.32089,-0.795035,16,5
20.4242,27.7636,6.69969,24,13
6.42452,8.72995,-0.568054,37,6
24.1151,32.7568,9.39081,14,14
8.03508,10.9105,-0.236515,100,7
27.7526,37.6702,12.5372,32,15
0.300711,0.407131,-0.135621,15,0
10.7937,14.6082,0.31704,30,8
0.369509,0.49991,-0.143519,12,1
16.7324,22.6291,1.47493,26,9
3.6196,4.89519,-1.1834,26,2
17.4479,23.5882,2.56691,14,10
4.0937,5.53231,-1.09004,20,3
18.7422,25.3194,3.86789,12,11
4.65092,6.28077,-0.959599,20,4
21.7246,29.327,5.78057,21,12
5.40204,7.29244,-0.793989,18,5
25.5052,34.418,8.32691,36,13
6.43712,8.68341,-0.566484,37,6
24.2095,32.6458,9.38316,14,14
8.03856,10.8358,-0.235503,99,7
27.9956,37.7236,12.5874,16,15
0.318275,0.427777,-0.142868,14,0
10.7766,14.479,0.315051,31,8
0.354958,0.476734,-0.13722,13,1
16.9557,22.7644,1.4876,28,9
3.6355,4.88095,-1.18302,23,2
18.3706,24.655,2.68997,16,10
4.10354,5.50532,-1.08753,21,3
18.9634,25.432,3.89519,12,11
4.66569,6.25495,-0.958137,20,4
21.6166,28.9692,5.72488,25,12
5.40601,7.2448,-0.790851,18,5
25.8882,34.6812,8.41239,9,13
6.45902,8.64968,-0.565752,37,6
27.1597,36.358,10.4773,17,14
8.03923,10.758,-0.234421,99,7
0.289644,0.386471,-0.12941,15,0
10.7467,14.3341,0.312712,31,8
0.361297,0.481728,-0.13902,13,1
15.9323,21.2352,1.3913,4,9
3.65723,4.87451,-1.18454,23,2
17.4998,23.316,2.55053,14,10
4.11087,5.47517,-1.0844,20,3
18.6705,24.8578,3.81719,25,11
4.68392,6.23386,-0.957406,18,4
21.0399,27.992,5.54623,4,12
5.41211,7.2004,-0.788062,18,5
26.7064,35.518,8.63792,19,13
6.46517,8.59516,-0.563658,37,6
27.4563,36.4887,10.5426,17,14
8.07313,10.7251,-0.234316,99,7
0.304958,0.40396,-0.135621,15,0
10.7135,14.1864,0.310304,33,8
0.355929,0.471134,-0.13632,13,1
15.8919,21.0281,1.38136,22,9
3.6754,4.86328,-1.18492,21,2
17.6592,23.3581,2.56186,7,10
4.11685,5.44345,-1.08096,18,3
20.7717,27.4552,4.22716,13,11
4.69727,6.20639,-0.9557,18,4
21.06,27.816,5.52589,19,12
5.43842,7.18305,-0.788237,18,5
26.1949,34.5857,8.43338,37,13
6.46618,8.53434,-0.561146,37,6
27.6247,36.447,10.5583,17,14
8.07305,10.6474,-0.233234,100,7
29.9628,39.5032,13.2852,18,15
0.306367,0.402893,-0.135621,15,0
10.6927,14.0566,0.308279,30,8
0.359931,0.472991,-0.13722,13,1
15.9301,20.9264,1.37832,27,9
3.6876,4.84417,-1.1834,21,2
18.2958,24.0254,2.64204,31,10
4.13463,5.42748,-1.08065,20,3
20.8145,27.313,4.21644,27,11
4.70446,6.17101,-0.952775,21,4
29.2126,38.3055,7.62994,10,12
5.44654,7.14185,-0.785796,18,5
26.3488,34.5377,8.44406,18,13
6.46928,8.47678,-0.558843,37,6
27.766,36.369,10.5637,17,14
8.08104,10.581,-0.232396,100,7
35.2211,46.1006,15.5452,22,15
0.307771,0.401821,-0.135621,15,0
10.7101,13.9779,0.307372,33,8
0.354467,0.462451,-0.134521,14,1
16.0395,20.9183,1.38146,9,9
3.69732,4.82192,-1.18111,21,2
18.3893,23.9741,2.64343,7,10
4.15115,5.40988,-1.08002,18,3
20.877,27.1977,4.20986,27,11
4.71509,6.14039,-0.950581,16,4
29.3582,38.2189,7.63306,10,12
5.4678,7.11805,-0.785273,16,5
27.8951,36.3012,8.89895,20,13
6.48543,8.43673,-0.557692,37,6
30.492,39.6518,11.5481,20,14
8.08989,10.5163,-0.231593,100,7
0.318612,0.41298,-0.139762,14,0
10.6978,13.8613,0.305627,28,8
0.365606,0.473552,-0.13812,13,1
16.0307,20.7562,1.37445,20,9
3.70333,4.795,-1.17767,23,2
18.3645,23.7694,2.62792,15,10
4.16638,5.39067,-1.07909,18,3
4.72313,6.10662,-0.9479,18,4
29.9919,38.763,7.76259,11,12
5.47799,7.07748,-0.783007,16,5
28.8172,37.2313,9.15158,42,13
6.51118,8.4093,-0.557378,37,6
30.5896,39.4928,11.5328,20,14
8.09103,10.4422,-0.230581,100,7
35.3882,45.6551,15.4779,22,15
0.310638,0.399608,-0.135621,15,0
10.6982,13.7623,0.304265,35,8
0.369649,0.475349,-0.13902,13,1
16.0822,20.6733,1.37267,27,9
3.71123,4.769,-1.17462,26,2
19.2127,24.6798,2.73634,24,10
4.17276,5.35821,-1.07564,21,3
21.558,27.6824,4.30808,14,11
4.7432,6.08853,-0.947656,18,4
27.3099,35.0433,7.03674,17,12
5.49042,7.0426,-0.781264,16,5
27.2426,34.9318,8.61083,9,13
6.52721,8.36649,-0.556122,38,6
30.6214,39.236,11.4905,20,14
8.10405,10.3839,-0.229918,100,7
35.6532,45.6668,15.524,22,15
0.326323,0.416774,-0.141833,14,0
10.7375,13.7088,0.303951,35,8
0.366582,0.467855,-0.13722,13,1
16.2441,20.7243,1.37999,24,9
3.72785,4.75602,-1.17462,23,2
19.6061,25.0046,2.77992,33,10
4.189,5.34051,-1.07502,20,3
22.4117,28.5621,4.45774,29,11
4.75813,6.06173,-0.946194,15,4
28.2092,35.9249,7.23447,9,12
5.50266,7.00772,-0.779521,18,5
28.4146,36.1735,8.94131,40,13
6.53787,8.3201,-0.554552,38,6
30.751,39.1197,11.4878,20,14
8.10745,10.3101,-0.228941,100,7
0.334953,0.424734,-0.144939,14,0
10.7828,13.6681,0.303881,31,8
0.353725,0.448216,-0.131821,14,1
16.4091,20.785,1.38785,26,9
3.73835,4.73527,-1.17271,30,2
20.87,26.4261,2.94604,18,10
4.20516,5.32275,-1.07439,21,3
23.1168,29.25,4.57766,30,11
4.76941,6.03263,-0.944244,17,4
22.5543,28.5178,5.75867,15,12
5.52214,6.98222,-0.778824,16,5
28.3921,35.8862,8.89475,20,13
6.55571,8.28313,-0.55361,38,6
8.11483,10.2457,-0.228138,100,7
36.3989,45.9405,15.7051,23,15
0.314806,0.396333,-0.135621,15,0
10.7969,13.5881,0.302939,24,8
0.362563,0.456132,-0.134521,14,1
16.5214,20.7777,1.39119,21,9
3.74753,4.71297,-1.17042,23,2
20.8344,26.1925,2.92808,18,10
4.22003,5.30341,-1.07345,22,3
22.3979,28.1378,4.41581,14,11
4.78302,6.00663,-0.942781,16,4
22.847,28.6815,5.80779,26,12
5.53159,6.94421,-0.776732,16,5
28.757,36.0878,8.96955,10,13
6.57214,8.24458,-0.552563,38,6
29.5799,37.094,10.9533,19,14
8.12685,10.1876,-0.227475,100,7
0.301706,0.37713,-0.12941,15,0
10.7767,13.466,0.301054,19,8
0.381204,0.476161,-0.140819,13,1
16.4203,20.5032,1.37665,24,9
3.76273,4.69833,-1.17004,26,2
21.0079,26.2222,2.93959,18,10
4.22616,5.27323,-1.07032,21,3
22.2886,27.8008,4.37511,28,11
4.79899,5.9837,-0.941806,16,4
22.4376,27.9667,5.67888,5,12
5.54208,6.90776,-0.774815,16,5
29.4493,36.6931,9.14548,42,13
6.58337,8.19978,-0.551098,38,6
31.4128,39.1115,11.5814,20,14
8.13105,10.1202,-0.226602,100,7
36.5614,45.4895,15.6378,23,15
0.317497,0.394181,-0.135621,15,0
10.7799,13.3788,0.299902,19,8
0.370552,0.459722,-0.13632,13,1
16.3929,20.3304,1.36869,18,9
3.77829,4.68583,-1.17004,21,2
21.5676,26.7386,3.00548,37,10
4.22998,5.24227,-1.06688,22,3
22.342,27.6789,4.36755,28,11
4.81631,5.96466,-0.941319,15,4
22.5476,27.9137,5.68326,25,12
5.55619,6.87849,-0.773594,15,5
29.0699,35.9753,8.99054,20,13
6.58918,8.1515,-0.549318,38,6
30.3317,37.51,11.1369,19,14
8.14067,10.0637,-0.225939,100,7
0.333475,0.411074,-0.141833,14,0
10.7623,13.2619,0.298122,19,8
0.377067,0.464478,-0.13812,13,1
16.0583,19.7739,1.33499,23,9
3.78843,4.66499,-1.16813,23,2
20.2613,24.9404,2.8113,8,10
4.24452,5.22288,-1.06594,21,3
22.3584,27.5022,4.35195,14,11
4.82583,5.93396,-0.939125,16,4
22.6649,27.8593,5.68827,35,12
5.57011,6.84669,-0.7722,15,5
30.1544,37.0522,9.28591,21,13
6.5949,8.10057,-0.547434,38,6
30.5806,37.549,11.1801,78,14
8.14544,9.99798,-0.225101,100,7
37.1143,45.5391,15.7414,23,15
0.330019,0.403923,-0.139762,14,0
10.7718,13.1794,0.29711,19,8
0.381153,0.466176,-0.13902,13,1
15.978,19.5353,1.32263,25,9
3.80096,4.64718,-1.16699,26,2
21.7083,26.5319,2.9992,37,10
4.26022,5.20497,-1.06532,20,3
22.414,27.3748,4.34415,14,11
4.83268,5.90018,-0.936444,16,4
22.6944,27.6975,5.67138,10,12
5.58892,6.82104,-0.771503,16,5
30.4914,37.2002,9.34964,10,13
6.60161,8.05124,-0.545655,38,6
30.6002,37.3064,11.1396,19,14
8.13589,9.91538,-0.223879,100,7
37.2118,45.3346,15.7155,23,15
10.7479,13.0568,0.29519,19,8
0.362958,0.440773,-0.131821,14,1
15.8645,19.2589,1.30767,20,9
3.80343,4.61722,-1.16279,23,2
21.0761,25.5764,2.8995,18,10
4.27836,5.19007,-1.06532,22,3
23.0045,27.8968,4.4397,14,11
4.84946,5.87868,-0.935713,17,4
27.4404,33.2524,6.82837,8,12
5.60129,6.78766,-0.769934,15,5
30.9135,37.4479,9.43894,22,13
6.61059,8.00505,-0.544085,38,6
30.8668,37.3646,11.1891,19,14
8.14116,9.85146,-0.223077,100,7
37.3747,45.2104,15.7176,23,15
0.369812,0.446233,-0.155291,12,0
10.7564,12.9745,0.294178,19,8
0.379422,0.457504,-0.13722,13,1
15.9521,19.228,1.30934,20,9
3.81576,4.59938,-1.16165,23,2
21.7823,26.2463,2.98404,46,10
4.29519,5.17358,-1.06501,22,3
23.2805,28.0316,4.47407,29,11
4.86234,5.85255,-0.93425,16,4
31.0714,37.3858,7.69939,22,12
5.61221,6.75275,-0.768191,15,5
30.773,37.0136,9.35651,21,13
6.63722,7.98039,-0.54398,38,6
37.6875,45.2982,13.6041,27,14
8.13711,9.77688,-0.22203,100,7
0.34661,0.415276,-0.144939,14,0
10.7465,12.8709,0.292677,17,8
0.373522,0.447202,-0.134521,14,1
15.9282,19.0634,1.30191,20,9
3.82676,4.58,-1.16012,23,2
21.9454,26.2557,2.9938,46,10
4.29168,5.1328,-1.05969,20,3
22.5326,26.9391,4.31223,28,11
4.87891,5.83098,-0.933519,18,4
31.17,37.2393,7.69157,22,12
5.60634,6.69797,-0.764182,15,5
31.0306,37.0595,9.39544,10,13
6.64708,7.93574,-0.542515,38,6
38.7615,46.2598,13.9335,30,14
8.1545,9.72849,-0.221576,100,7
39.164,46.707,16.3325,28,15
0.328168,0.390403,-0.136656,14,0
10.7296,12.7599,0.291001,17,8
0.380098,0.451861,-0.13632,13,1
15.8866,18.8793,1.29312,22,9
3.84272,4.56662,-1.16012,23,2
22.6463,26.9029,3.0766,39,10
4.30576,5.11325,-1.05875,21,3
22.5536,26.7738,4.29833,28,11
4.88901,5.80177,-0.931569,16,4
31.1559,36.9596,7.65622,22,12
5.62455,6.67227,-0.763484,15,5
38.5965,45.77,11.6378,20,13
6.65929,7.89417,-0.541259,38,6
39.8126,47.1786,14.252,32,14
8.17679,9.68622,-0.221262,100,7
10.7443,12.6872,0.290199,17,8
0.369076,0.435663,-0.131821,14,1
15.8594,18.714,1.28558,22,9
3.85483,4.54868,-1.15897,26,2
22.7813,26.8724,3.08218,39,10
4.32613,5.1012,-1.05937,23,3
27.1133,31.9597,5.14606,17,11
4.89895,5.77256,-0.929619,17,4
31.4305,37.0223,7.69188,11,12
5.64651,6.65108,-0.76331,16,5
39.5415,46.5598,11.8737,21,13
6.66741,7.84804,-0.539688,38,6
40.0401,47.1136,14.2745,33,14
8.18595,9.62867,-0.220598,100,7
0.313339,0.367521,-0.12941,15,0
10.7405,12.5933,0.288907,17,8
0.383243,0.449196,-0.13632,13,1
15.7898,18.5006,1.27469,24,9
3.86049,4.52325,-1.15592,19,2
22.8944,26.8154,3.08479,39,10
4.33493,5.07556,-1.05718,20,3
26.4369,30.9427,4.99713,33,11
4.91004,5.74486,-0.927913,17,4
36.9125,43.1732,8.99655,14,12
5.65934,6.61921,-0.761916,15,5
40.694,47.5793,12.1698,23,13
6.67918,7.80651,-0.538432,38,6
40.6098,47.4473,14.4185,34,14
8.17009,9.54231,-0.219272,100,7
0.332238,0.386945,-0.136656,14,0
10.7128,12.4723,0.286987,22,8
0.387349,0.450812,-0.13722,13,1
15.7645,18.3408,1.26747,18,9
3.86986,4.5023,-1.15401,23,2
22.8931,26.625,3.07207,58,10
4.34747,5.05441,-1.05593,21,3
26.4839,30.7795,4.98568,16,11
4.92618,5.72317,-0.927182,17,4
41.5407,48.2445,10.0835,18,12
5.67721,6.59338,-0.761218,15,5
40.7676,47.3298,12.1423,23,13
6.69726,7.77256,-0.5377,38,6
40.5742,47.0721,14.3474,33,14
8.17201,9.47739,-0.218434,100,7
0.33106,0.382861,-0.135621,15,0
10.7248,12.3986,0.28615,22,8
0.399121,0.461246,-0.140819,13,1
15.7277,18.1694,1.25941,22,9
3.88427,4.48729,-1.15363,23,2
23.0511,26.6203,3.08078,9,10
4.35216,5.02427,-1.0528,18,3
26.6899,30.8009,5.0042,16,11
4.94353,5.70294,-0.926695,16,4
40.5364,46.747,9.79999,17,12
5.69366,6.56599,-0.760347,13,5
40.7936,47.027,12.1011,23,13
6.7165,7.74008,-0.537072,38,6
40.6846,46.8683,14.3285,33,14
8.19586,9.43824,-0.21819,100,7
0.35523,0.407927,-0.144939,14,0
10.726,12.3128,0.285033,24,8
0.385366,0.44222,-0.135421,13,1
15.6415,17.9428,1.24748,20,9
3.90507,4.47962,-1.15516,23,2
24.0919,27.6268,3.20698,20,10
4.36707,5.00607,-1.05218,22,3
4.95296,5.67369,-0.924745,16,4
41.1619,47.1349,9.91138,18,12
5.71,6.53857,-0.759475,15,5
40.8826,46.7986,12.079,22,13
6.70799,7.67598,-0.534245,38,6
40.7146,46.5734,14.2817,33,14
8.22612,9.40656,-0.21812,100,7
0.34901,0.397969,-0.141833,14,0
10.732,12.2332,0.284055,24,8
0.392049,0.446731,-0.13722,13,1
15.5815,17.7485,1.23775,22,9
3.9155,4.46006,-1.15363,19,2
24.0068,27.336,3.18293,20,10
4.37409,4.97892,-1.04968,27,3
4.95832,5.63997,-0.922064,16,4
43.3978,49.3465,10.4082,20,12
5.72357,6.50813,-0.758255,15,5
40.6385,46.1928,11.9591,22,13
6.72947,7.64652,-0.533827,38,6
40.7739,46.314,14.2457,32,14
8.2338,9.34927,-0.217457,100,7
0.345281,0.390957,-0.139762,14,0
10.7363,12.1522,0.283043,22,8
0.383282,0.433678,-0.133621,14,1
15.4621,17.489,1.22341,21,9
3.91934,4.43313,-1.1502,21,2
24.2684,27.44,3.20489,20,10
4.3993,4.9725,-1.05155,20,3
30.1606,34.0784,5.58771,20,11
4.96482,5.60776,-0.919626,15,4
41.6,46.9706,9.93766,18,12
5.73173,6.4717,-0.756338,15,5
40.7474,45.9919,11.9439,22,13
6.73359,7.59758,-0.532047,38,6
8.23454,9.28457,-0.216619,100,7
10.7095,12.037,0.281228,26,8
0.395158,0.443983,-0.13722,13,1
15.3703,17.2634,1.21137,19,9
3.93087,4.41502,-1.14905,23,2
24.8145,27.861,3.26416,21,10
4.41137,4.95121,-1.0503,21,3
30.5145,34.2367,5.6311,20,11
4.97644,5.58151,-0.918164,15,4
5.73571,6.43084,-0.753897,15,5
40.8659,45.8025,11.9317,22,13
6.75609,7.56956,-0.531733,38,6
41.4388,46.412,14.3645,33,14
8.23226,9.21699,-0.215712,100,7
0.38667,0.431707,-0.155291,12,0
10.7074,11.9504,0.280076,24,8
0.388901,0.433894,-0.134521,14,1
15.3651,17.1367,1.20624,21,9
3.94626,4.40127,-1.14905,21,2
25.5156,28.4476,3.34329,32,10
4.41147,4.91667,-1.04623,23,3
30.4853,33.9645,5.6038,20,11
5.0065,5.57592,-0.920114,17,4
5.73549,6.38558,-0.750934,15,5
41.7131,46.4247,12.1316,23,13
6.77312,7.53553,-0.531001,38,6
48.2587,53.672,16.6635,52,14
8.24165,9.16292,-0.215118,100,7
0.354532,0.393058,-0.141833,14,0
10.7169,11.8773,0.279238,27,8
0.387802,0.429641,-0.133621,14,1
15.3606,17.0119,1.20122,19,9
3.96292,4.38893,-1.14943,23,2
25.4986,28.2297,3.32813,43,10
4.42464,4.89684,-1.0453,21,3
30.6303,33.8874,5.60867,20,11
5.00729,5.53779,-0.916701,13,4
43.7963,48.4193,10.3406,20,12
5.75641,6.36405,-0.75076,15,5
54.9497,60.7289,15.9196,43,13
6.77526,7.48519,-0.529117,38,6
48.4143,53.4685,16.6527,52,14
8.24673,9.10446,-0.21442,100,7
0.340315,0.374658,-0.135621,15,0
10.7099,11.7865,0.277982,30,8
0.384056,0.422516,-0.131821,14,1
15.3084,16.8355,1.19253,14,9
3.97557,4.37216,-1.14867,21,2
25.062,27.5525,3.25858,10,10
4.43506,4.87406,-1.04373,23,3
5.01189,5.50413,-0.91402,16,4
43.989,48.2924,10.3463,20,12
5.76786,6.33213,-0.749365,15,5
6.77444,7.43197,-0.527023,38,6
48.7425,53.4547,16.7013,52,14
8.25286,9.04755,-0.213757,100,7
0.391169,0.427635,-0.155291,12,0
10.7037,11.6974,0.27676,25,8
0.401318,0.438423,-0.13722,13,1
15.2726,16.6788,1.1852,16,9
3.98418,4.35102,-1.14676,21,2
25.9884,28.3713,3.36613,22,10
4.45471,4.86146,-1.04436,25,3
5.02302,5.47783,-0.912558,15,4
44.3335,48.3307,10.3876,20,12
5.78454,6.30608,-0.748668,15,5
6.80033,7.40828,-0.527023,38,6
8.27357,9.0069,-0.213478,100,7
0.34554,0.375115,-0.136656,14,0
10.6998,11.6115,0.275608,30,8
0.402846,0.437019,-0.13722,13,1
15.2779,16.5682,1.18112,13,9
3.99003,4.32698,-1.14409,21,2
25.7023,27.863,3.31645,10,10
4.46094,4.83427,-1.04185,22,3
5.04077,5.4588,-0.912314,16,4
5.78624,6.2639,-0.746053,16,5
53.1071,57.471,15.2105,39,13
6.82344,7.38156,-0.526814,38,6
8.29138,8.96329,-0.213129,100,7
0.359986,0.388069,-0.141833,14,0
10.6749,11.5037,0.273933,30,8
0.404369,0.43561,-0.13722,13,1
15.2093,16.3786,1.17138,16,9
4.01045,4.31878,-1.14562,23,2
26.0651,28.0593,3.35062,43,10
4.46703,4.8071,-1.03935,30,3
5.05979,5.44118,-0.912314,15,4
44.7183,48.0722,10.3988,20,12
5.80535,6.24075,-0.745705,15,5
53.3207,57.2997,15.2143,39,13
6.83964,7.34747,-0.526081,35,6
8.30081,8.91088,-0.21257,100,7
0.361338,0.38681,-0.141833,14,0
10.67,11.4182,0.272781,30,8
0.403226,0.431349,-0.13632,13,1
15.1763,16.2291,1.16448,16,9
4.02282,4.30189,-1.14485,25,2
26.4556,28.2809,3.38809,22,10
4.47838,4.7857,-1.0381,22,3
35.8228,38.2677,6.43616,30,11
5.07197,5.41624,-0.911095,16,4
44.9669,48.0023,10.4176,20,12
5.82983,6.22335,-0.746053,15,5
53.4855,57.076,15.2044,39,13
6.8393,7.29586,-0.524092,38,6
8.30861,8.85706,-0.211977,100,7
0.344155,0.365847,-0.134586,15,0
10.6714,11.3401,0.271804,33,8
0.386028,0.410074,-0.130022,14,1
15.1521,16.0903,1.1583,16,9
4.03781,4.28782,-1.14485,22,2
26.7577,28.4045,3.41406,45,10
4.49235,4.76717,-1.03747,22,3
34.3521,36.4408,6.14904,25,11
5.07587,5.38261,-0.908414,23,4
5.83784,6.18847,-0.74431,15,5
53.7195,56.926,15.2143,39,13
6.85512,7.26177,-0.52336,35,6
56.0849,59.3911,18.859,63,14
8.31201,8.79893,-0.211279,100,7
0.398573,0.420743,-0.155291,12,0
10.6586,11.2476,0.270477,28,8
0.400865,0.422866,-0.134521,14,1
15.0721,15.8938,1.14794,18,9
4.04194,4.2623,-1.1418,23,2
26.4837,27.9178,3.36665,22,10
4.5076,4.75002,-1.03716,20,3
34.3151,36.1479,6.11979,24,11
5.08232,5.35191,-0.90622,18,4
5.8498,6.15795,-0.74309,15,5
6.86117,7.21754,-0.521894,35,6
8.32062,8.74668,-0.21072,100,7
0.333366,0.349457,-0.12941,15,0
10.633,11.1423,0.268837,31,8
0.391573,0.410188,-0.130922,14,1
15.0779,15.7946,1.14438,16,9
4.04866,4.23965,-1.13951,23,2
26.7668,28.0196,3.39018,22,10
4.52416,4.73426,-1.03716,21,3
5.10097,5.33413,-0.90622,18,4
5.8506,6.11589,-0.740475,15,5
6.88218,7.18921,-0.52158,31,6
56.7677,59.2796,18.949,63,14
8.3316,8.70026,-0.210267,100,7
0.4015,0.41795,-0.155291,12,0
10.6505,11.0868,0.268348,27,8
0.392931,0.408887,-0.130922,14,1
15.0609,15.667,1.13894,18,9
4.06208,4.22407,-1.13913,21,2
26.4652,27.5111,3.33981,21,10
4.5234,4.70215,-1.03341,20,3
5.11175,5.31004,-0.905002,18,4
5.85257,6.07535,-0.738035,13,5
6.88519,7.14478,-0.52001,35,6
56.7597,58.8792,18.881,63,14
8.3411,8.64954,-0.209743,100,7
0.351852,0.363845,-0.135621,15,0
10.6529,11.0122,0.267441,24,8
0.402487,0.415915,-0.133621,14,1
14.9877,15.4823,1.12931,18,9
4.08016,4.21481,-1.14027,21,2
26.2348,27.0911,3.29937,21,10
4.53291,4.67924,-1.03184,17,3
38.9652,40.209,6.87489,39,11
5.12749,5.28931,-0.904514,16,4
5.86542,6.0463,-0.736989,15,5
6.88227,7.09204,-0.517917,35,6
8.35034,8.59885,-0.209219,100,7
0.353183,0.362553,-0.135621,15,0
10.6578,10.9406,0.266603,28,8
0.406657,0.417299,-0.134521,14,1
14.9692,15.3556,1.12386,16,9
4.0901,4.19421,-1.13875,21,2
25.9555,26.6069,3.25195,10,10
4.55969,4.67249,-1.03403,26,3
38.9944,39.9591,6.85539,38,11
5.12789,5.25291,-0.901346,13,4
5.88509,6.02436,-0.736815,15,5
6.90124,7.05962,-0.517393,38,6
8.34675,8.53534,-0.208382,100,7
0.405855,0.413723,-0.155291,12,0
10.6712,10.8743,0.26594,24,8
0.421835,0.429712,-0.13902,13,1
14.9218,15.1952,1.11612,15,9
4.09371,4.1687,-1.1357,19,2
25.7913,26.2546,3.21988,20,10
4.56628,4.64668,-1.03184,22,3
39.4189,40.099,6.90414,39,11
5.14711,5.23408,-0.901346,17,4
5.89491,5.99242,-0.73542,13,5
6.92163,7.03122,-0.517079,38,6
8.34851,8.47477,-0.207649,100,7
0.407297,0.412303,-0.155291,12,0
10.6712,10.7986,0.264997,28,8
0.420592,0.425466,-0.13812,13,1
14.9045,15.072,1.11088,16,9
4.09995,4.14601,-1.13341,19,2
25.454,25.7309,3.16654,20,10
4.5783,4.6265,-1.0309,20,3
39.5726,39.9753,6.90658,39,11
5.15977,5.21044,-0.900371,18,4
5.90036,5.95624,-0.733503,13,5
6.93489,6.99567,-0.516242,35,6
8.36395,8.43138,-0.2073,100,7
0.37331,0.37527,-0.141833,14,0
10.6594,10.7117,0.263776,21,8
0.413826,0.415708,-0.135421,13,1
14.8908,14.9533,1.10596,16,9
4.11717,4.13445,-1.13417,19,2
25.3271,25.4246,3.1397,20,10
4.58327,4.5993,-1.0284,20,3
5.18213,5.19662,-0.901102,17,4
5.90845,5.92291,-0.731934,13,5
6.95079,6.96294,-0.515614,35,6
8.38062,8.3894,-0.206986,100,7
0.341804,0.341208,-0.12941,15,0
10.6529,10.6306,0.262694,28,8
0.409756,0.408756,-0.133621,14,1
14.8623,14.8209,1.1,16,9
4.1288,4.11728,-1.13341,19,2
25.0996,25.0209,3.10065,9,10
4.5965,4.58048,-1.02777,20,3
5.1932,5.17149,-0.899883,16,4
5.92627,5.89944,-0.731585,13,5
6.95382,6.91751,-0.514044,38,6
8.39567,8.346,-0.206636,96,7
0.342993,0.340013,-0.12941,15,0
10.6644,10.568,0.262065,31,8
0.427794,0.423781,-0.13902,13,1
14.8061,14.6621,1.09204,16,9
4.14035,4.10008,-1.13264,21,2
24.7946,24.5449,3.05237,19,10
4.60965,4.56163,-1.02715,18,3
5.19146,5.13379,-0.896471,16,4
5.94399,5.87591,-0.731237,13,5
6.97082,6.88617,-0.51352,38,6
8.40767,8.29978,-0.206218,100,7
0.371712,0.365919,-0.139762,14,0
10.6798,10.5097,0.261542,28,8
0.426492,0.419552,-0.13812,13,1
14.7746,14.5291,1.08597,16,9
4.14064,4.07184,-1.12883,19,2
24.667,24.2487,3.02622,19,10
4.634,4.55382,-1.02903,18,3
5.20651,5.11286,-0.895983,16,4
5.95025,5.84117,-0.729494,13,5
6.98483,6.85201,-0.512788,38,6
8.41375,8.24798,-0.205659,96,7
10.6792,10.436,0.260634,19,8
0.416802,0.407166,-0.134521,14,1
14.7041,14.3642,1.07728,20,9
4.15202,4.05462,-1.12806,19,2
24.5947,24.0093,3.00705,18,10
4.63573,4.52382,-1.0259,18,3
5.21776,5.09002,-0.895009,16,4
5.96061,5.81063,-0.728273,13,5
6.99011,6.80946,-0.511427,38,6
8.40953,8.18935,-0.204891,96,7
0.379738,0.368764,-0.141833,14,0
10.6664,10.3546,0.259482,22,8
0.41815,0.405782,-0.134521,14,1
14.6958,14.2611,1.0732,15,9
4.16544,4.04083,-1.12806,19,2
24.3881,23.6502,2.97219,18,10
4.6351,4.4933,-1.02246,21,3
5.23888,5.07683,-0.89574,17,4
5.96983,5.78113,-0.727053,13,5
6.99973,6.77375,-0.510485,38,6
8.4194,8.14473,-0.204472,86,7
0.364274,0.351407,-0.135621,15,0
10.6705,10.29,0.258749,24,8
0.411075,0.396278,-0.131821,14,1
14.6793,14.146,1.06839,15,9
4.17952,4.02626,-1.12806,19,2
24.2641,23.3743,2.94761,18,10
4.64571,4.47379,-1.02152,25,3
5.24227,5.04475,-0.893302,14,4
5.98423,5.75473,-0.726356,13,5
6.99597,6.72298,-0.508496,38,6
8.44345,8.11113,-0.204368,100,7
0.382303,0.366104,-0.141833,14,0
10.6619,10.2066,0.257632,28,8
0.412525,0.394769,-0.131821,14,1
14.656,14.0203,1.06294,15,9
4.18858,4.00549,-1.12654,19,2
23.991,22.9424,2.9042,18,10
4.66064,4.45537,-1.0212,22,3
5.25068,5.0159,-0.891596,14,4
6.01393,5.74102,-0.727402,13,5
7.01624,6.69315,-0.508182,38,6
8.45141,8.05943,-0.203844,100,7
0.383642,0.3647,-0.141833,14,0
10.6543,10.1247,0.25655,34,8
0.428098,0.406676,-0.13632,13,1
14.6407,13.9032,1.05813,16,9
4.1826,3.97192,-1.12119,19,2
23.7441,22.5402,2.86429,17,10
4.67695,4.43825,-1.0212,23,3
5.26182,4.9898,-0.890377,14,4
6.02526,5.71176,-0.726356,13,5
7.0323,6.66176,-0.507659,38,6
8.46057,8.00915,-0.203355,95,7
0.370865,0.350097,-0.136656,14,0
10.6387,10.0394,0.255329,30,8
0.44369,0.418551,-0.140819,13,1
14.5932,13.7616,1.05122,18,9
4.20358,3.96403,-1.1231,21,2
23.5573,22.207,2.83239,17,10
4.68234,4.41242,-1.01901,25,3
5.27632,4.96868,-0.88989,13,4
6.02485,5.67158,-0.723916,13,5
7.0497,6.63169,-0.50724,38,6
8.46662,7.95903,-0.202832,100,7
0.369266,0.346158,-0.135621,15,0
10.643,9.97351,0.254596,27,8
0.422393,0.395684,-0.133621,14,1
14.5683,13.6423,1.04599,15,9
4.2131,3.9453,-1.12196,19,2
23.3874,21.8932,2.80275,17,10
4.69051,4.3893,-1.01745,26,3
5.29218,4.94887,-0.889646,14,4
6.04461,5.65051,-0.723916,13,5
7.05821,6.59341,-0.506193,38,6
8.48266,7.91851,-0.202553,100,7
0.381784,0.355397,-0.139762,14,0
10.65,9.91042,0.253933,23,8
0.415211,0.386243,-0.130922,14,1
14.5719,13.5505,1.04285,13,9
4.23259,3.93592,-1.12348,19,2
23.2652,21.6269,2.77905,33,10
4.69712,4.36483,-1.01557,27,3
5.30506,4.92632,-0.888915,14,4
6.06138,5.62667,-0.723567,13,5
7.06947,6.55787,-0.505356,38,6
8.49264,7.87254,-0.202134,100,7
0.383023,0.354062,-0.139762,14,0
10.6625,9.85283,0.253409,20,8
0.43946,0.405948,-0.13812,13,1
14.5736,13.4576,1.0396,12,9
4.24631,3.92112,-1.12348,19,2
23.099,21.3226,2.75029,24,10
4.71233,4.34841,-1.01557,30,3
5.30909,4.89566,-0.886721,16,4
6.06779,5.59332,-0.721998,13,5
7.08203,6.52367,-0.504623,38,6
8.50242,7.8266,-0.201715,100,7
0.392795,0.360562,-0.142868,14,0
10.6703,9.79121,0.252781,16,8
0.426514,0.391239,-0.133621,14,1
14.5366,13.3297,1.03364,13,9
4.24839,3.89566,-1.12043,19,2
22.8898,20.982,2.71664,32,10
4.73039,4.3346,-1.0162,30,3
5.32615,4.8771,-0.886721,16,4
6.07406,5.56,-0.720429,13,5
7.08707,6.48274,-0.503367,38,6
8.48688,7.75774,-0.200703,95,7
0.376919,0.343571,-0.136656,14,0
10.6659,9.71889,0.251873,20,8
0.439402,0.400246,-0.13722,13,1
14.493,13.1968,1.02725,15,9
4.23729,3.85834,-1.11394,26,2
22.8112,20.7638,2.69869,24,10
4.73234,4.3061,-1.01338,31,3
5.32992,4.84646,-0.884528,18,4
6.08016,5.5267,-0.718861,13,5
7.10227,6.45125,-0.502844,35,6
8.50651,7.72135,-0.200528,100,7
10.6657,9.65074,0.25107,22,8
0.440796,0.39871,-0.13722,13,1
14.4901,13.102,1.0238,14,9
4.26092,3.85274,-1.11661,26,2
22.6574,20.4797,2.67202,24,10
4.74001,4.28293,-1.01182,35,3
5.34386,4.82516,-0.88404,19,4
6.09646,5.50277,-0.718512,12,5
7.11881,6.42107,-0.502425,35,6
8.53044,7.68893,-0.200458,100,7
0.431032,0.387422,-0.155291,12,0
10.6621,9.58004,0.250198,20,8
0.424788,0.381542,-0.131821,14,1
14.5119,13.03,1.02212,13,9
4.26558,3.82997,-1.11432,23,2
22.579,20.2661,2.65442,15,10
4.74906,4.26108,-1.01057,31,3
5.3518,4.79853,-0.882578,20,4
6.11266,5.4788,-0.718163,13,5
7.12333,6.38019,-0.501169,38,6
8.53636,7.64044,-0.19997,100,7
0.432382,0.385915,-0.155291,12,0
10.6701,9.52013,0.249604,20,8
0.417391,0.372274,-0.129122,14,1
14.4634,12.8955,1.01553,13,9
4.27306,3.80984,-1.1128,26,2
22.4755,20.032,2.63402,15,10
4.77127,4.25105,-1.01213,31,3
5.35369,4.76661,-0.88014,22,4
6.12133,5.44816,-0.716943,13,5
7.13362,6.34466,-0.500332,35,6
8.54654,7.59598,-0.199586,100,7
0.381679,0.338275,-0.136656,14,0
10.6869,9.46824,0.24922,17,8
0.424524,0.375983,-0.130922,14,1
14.438,12.7827,1.01061,14,9
4.28486,3.7936,-1.11242,21,2
22.3946,19.8201,2.61642,15,10
4.78608,4.23437,-1.01213,37,3
5.36732,4.74527,-0.879653,23,4
6.12836,5.4162,-0.715549,13,5
7.15273,6.31708,-0.500122,35,6
8.55051,7.54625,-0.199062,100,7
10.6913,9.40578,0.248557,16,8
0.443393,0.389942,-0.13632,13,1
14.3836,12.6452,1.0037,20,9
4.29955,3.77991,-1.1128,21,2
22.2482,19.5524,2.59131,22,10
4.79045,4.20851,-1.00994,31,3
5.38386,4.7265,-0.879653,27,4
6.12926,5.37901,-0.713457,13,5
7.17173,6.28944,-0.499913,35,6
8.55875,7.50055,-0.198643,100,7
0.436399,0.381366,-0.155291,12,0
10.6924,9.34078,0.247824,19,8
0.418331,0.365319,-0.128222,14,1
14.3629,12.5384,0.999198,18,9
4.3216,3.77263,-1.11509,19,2
22.1482,19.3279,2.57179,30,10
4.80064,4.18787,-1.009,33,3
5.39284,4.70116,-0.878434,22,4
6.13599,5.34711,-0.712062,13,5
7.1846,6.2565,-0.499285,38,6
8.56829,7.45618,-0.198259,100,7
0.437728,0.379841,-0.155291,12,0
10.6993,9.28112,0.247231,19,8
0.422548,0.36641,-0.129122,14,1
14.3779,12.4634,0.997209,13,9
4.34364,3.76524,-1.11738,19,2
22.0453,19.103,2.55209,14,10
4.79732,4.15556,-1.00525,36,3
5.41372,4.6862,-0.879166,23,4
6.15311,5.32435,-0.711888,13,5
7.18827,6.21571,-0.498029,35,6
8.56854,7.404,-0.197666,100,7
0.439051,0.37831,-0.155291,12,0
10.7059,9.22153,0.246637,20,8
0.417918,0.359847,-0.127322,15,1
14.3669,12.3662,0.993441,12,9
4.35081,3.74493,-1.11585,21,2
21.8944,18.8388,2.52699,14,10
4.81029,4.13751,-1.00494,33,3
5.42252,4.66081,-0.877947,25,4
6.16561,5.29765,-0.711191,13,5
7.18719,6.17106,-0.496459,38,6
8.58978,7.37014,-0.197561,100,7
0.402203,0.344122,-0.141833,14,0
10.7198,9.1685,0.246219,20,8
0.439908,0.376115,-0.133621,14,1
14.3568,12.2705,0.989778,12,9
4.36086,3.72717,-1.11509,19,2
21.8192,18.6419,2.51078,21,10
4.82321,4.11941,-1.00462,31,3
5.4312,4.63541,-0.876728,33,4
6.17952,5.27221,-0.710668,15,5
7.19957,6.13816,-0.495831,38,6
8.59111,7.31936,-0.197003,100,7
10.7151,9.09996,0.245381,19,8
0.453102,0.384667,-0.13722,13,1
14.3188,12.1519,0.98423,13,9
4.36487,3.7043,-1.1128,19,2
21.7808,18.478,2.49893,14,10
4.85413,4.1166,-1.00806,35,3
5.42918,4.60102,-0.873803,23,4
6.18876,5.24289,-0.709622,15,5
7.20724,6.10137,-0.494889,38,6
8.60744,7.28158,-0.196793,100,7
0.442988,0.373692,-0.155291,12,0
10.73,9.04833,0.244997,20,8
0.454443,0.383083,-0.13722,13,1
14.2894,12.0413,0.979311,12,9
4.37627,3.68777,-1.11242,21,2
21.705,18.2838,2.48289,14,10
4.83825,4.07418,-1.00181,28,3
5.44065,4.57821,-0.873072,21,4
6.20093,5.21612,-0.708925,15,5
