x, y, z, intensity, ring
0.609879,14.4309,-0.252117,94,7
2.12191,50.0015,13.4099,18,15
0.0228427,0.5211,-0.139762,14,0
0.540067,12.3203,0.215258,60,8
0.0278466,0.632728,-0.146218,25,1
0.728943,16.4972,0.865427,5,9
0.375168,8.45724,-1.64554,28,2
2.61533,58.7253,5.14289,29,10
0.454481,10.165,-1.61159,27,3
2.57166,57.5182,7.0694,43,11
0.493303,10.9903,-1.3508,12,4
2.25278,49.9954,7.92654,23,12
0.533269,11.7889,-1.03245,27,5
2.53837,55.8991,10.8769,17,13
0.534235,11.7197,-0.614843,91,6
2.39564,52.3527,12.0992,22,14
0.532919,11.646,-0.203495,100,7
2.30212,50.1173,13.4431,18,15
0.023931,0.505579,-0.135621,15,0
0.586361,12.3422,0.215677,20,8
0.0301654,0.632622,-0.146218,25,1
0.403935,8.44019,-1.64248,26,2
2.79183,58.1227,5.09094,57,10
0.486435,10.0904,-1.60001,46,3
2.77534,57.3616,7.05136,42,11
0.531846,10.9527,-1.34641,1,4
2.49217,51.1391,8.10925,24,12
0.574317,11.7849,-1.03227,24,5
2.6554,54.2937,10.5662,15,13
2.47922,50.3314,11.634,21,14
0.575597,11.644,-0.203495,19,7
2.55144,51.4322,13.7982,19,15
0.0264803,0.520927,-0.139762,14,0
0.7147,14.0116,0.244892,28,8
0.0330709,0.646136,-0.149367,24,1
0.852098,16.5913,0.870661,43,9
0.432591,8.42304,-1.63943,26,2
2.98967,58.0151,5.0824,57,10
0.517474,10.0077,-1.58718,28,3
0.527554,10.1341,-1.24599,15,4
2.6927,51.5522,8.1762,24,12
0.617527,11.8227,-1.03576,18,5
2.92609,55.8329,10.8677,17,13
0.619188,11.7755,-0.617983,43,6
2.66043,50.4276,11.6583,21,14
0.691079,13.0557,-0.228208,37,7
2.73671,51.531,13.8271,19,15
0.0272501,0.501542,-0.134586,15,0
0.757188,13.8913,0.242833,57,8
0.0357519,0.6538,-0.151167,23,1
0.461662,8.4156,-1.63829,26,2
3.20126,58.1694,5.09687,29,10
0.548923,9.94273,-1.57717,35,3
3.13707,56.6432,6.96556,41,11
0.581869,10.4731,-1.28792,42,4
2.8676,51.614,8.18747,12,12
0.636843,11.4266,-1.00125,8,5
3.11019,55.6303,10.8303,16,13
0.659956,11.7673,-0.617669,70,6
2.84959,50.6515,11.7123,21,14
0.886901,15.7647,-0.275608,16,7
2.89666,51.3288,13.7754,19,15
0.02967,0.513015,-0.137692,14,0
0.925632,16.0048,0.279832,21,8
0.0378071,0.651732,-0.150717,23,1
3.25025,55.8607,2.93249,10,9
0.490922,8.41198,-1.6379,26,2
3.40361,58.146,5.09582,28,10
0.571158,9.75746,-1.54808,31,3
3.31187,56.4105,6.93827,40,11
0.755455,12.8293,-1.57796,14,4
3.05172,51.6708,8.19811,25,12
0.669889,11.3089,-0.991135,23,5
3.21189,54.2223,10.5582,31,13
0.695418,11.7053,-0.614529,64,6
3.02242,50.7234,11.7312,21,14
0.76048,12.7254,-0.222518,100,7
3.06612,51.1564,13.7319,38,15
0.0353811,0.578475,-0.155291,12,0
0.981246,15.9975,0.279762,26,8
0.0398421,0.647706,-0.149817,24,1
3.39904,55.2576,2.9014,19,9
0.518213,8.4005,-1.636,26,2
3.60304,58.2418,5.10523,29,10
0.603251,9.72386,-1.54307,30,3
3.38132,54.35,6.68624,35,11
0.696035,11.1564,-1.37249,39,4
0.709127,11.3345,-0.993575,55,5
3.4089,54.3342,10.5823,15,13
0.729253,11.5911,-0.608667,100,6
3.2382,51.3272,11.8734,21,14
0.761374,12.0682,-0.211069,100,7
0.0341584,0.528224,-0.141833,14,0
0.897887,13.8849,0.242868,42,8
0.0418639,0.645626,-0.149367,24,1
3.58738,55.1756,2.89774,19,9
0.545739,8.37122,-1.63065,26,2
3.89676,59.6126,5.22656,30,10
0.633563,9.69224,-1.53838,35,3
3.56802,54.4375,6.69843,35,11
0.676789,10.2983,-1.2672,15,4
3.4223,51.9366,8.24378,12,12
0.752237,11.3856,-0.998282,19,5
3.82176,57.8449,11.2684,18,13
0.768614,11.6026,-0.6094,100,6
0.779714,11.7083,-0.204821,100,7
0.0354766,0.520392,-0.139762,14,0
1.09169,15.9723,0.279448,40,8
0.0439633,0.64158,-0.148468,24,1
3.74084,54.4528,2.86047,19,9
0.574017,8.35555,-1.62798,26,2
0.667992,9.67409,-1.53587,33,3
0.757549,10.9156,-1.34349,68,4
3.60906,51.8724,8.23565,12,12
0.812025,11.6711,-1.02356,11,5
3.77063,54.0584,10.5334,15,13
0.833563,11.9205,-0.626252,60,6
4.07178,58.0839,13.4426,26,14
0.806357,11.4739,-0.200772,95,7
4.06436,57.6889,15.496,22,15
0.0381218,0.531826,-0.142868,14,0
1.1427,15.9026,0.278296,19,8
0.0470428,0.653085,-0.151167,23,1
3.93221,54.4573,2.86142,19,9
0.602192,8.33979,-1.62531,26,2
3.96374,54.761,4.8035,24,10
0.700187,9.65003,-1.53243,31,3
0.832021,11.4118,-1.40491,45,4
4.7338,64.7717,10.2862,19,12
0.877596,12.008,-1.05336,23,5
3.9586,54.0351,10.5315,31,13
0.873849,11.8996,-0.62531,54,6
4.28282,58.182,13.4687,26,14
0.839343,11.3753,-0.199097,23,7
4.21924,57.0463,15.3273,21,15
0.0376603,0.500868,-0.134586,15,0
1.04987,13.9304,0.243845,17,8
0.0475609,0.629598,-0.145768,25,1
0.628482,8.30044,-1.61806,26,2
4.14853,54.6634,4.79618,24,10
0.733121,9.63768,-1.53087,33,3
4.52796,59.3883,7.31314,48,11
0.8439,11.0685,-1.36299,12,4
4.51265,59.0516,9.38012,15,12
0.871274,11.3751,-0.998108,36,5
4.52213,58.9049,11.4836,19,13
0.902508,11.7292,-0.616518,94,6
0.879985,11.4104,-0.19976,100,7
0.0396237,0.504592,-0.135621,15,0
1.09638,13.9308,0.243915,42,8
0.0507207,0.643036,-0.148918,24,1
1.22342,15.5105,0.815394,49,9
0.65353,8.267,-1.61195,28,2
4.22404,53.3146,4.67904,23,10
0.766013,9.64701,-1.53275,27,3
4.2257,53.1001,6.54048,32,11
0.917137,11.5247,-1.41953,37,4
4.32872,54.275,8.62361,13,12
0.907084,11.3483,-0.996016,31,5
4.56946,57.0422,11.1234,18,13
0.944278,11.762,-0.618402,81,6
0.921345,11.4512,-0.200528,29,7
0.0441338,0.539115,-0.144939,14,0
1.17756,14.3536,0.251384,49,8
0.0525336,0.63898,-0.148018,24,1
0.680134,8.255,-1.61005,26,2
4.38999,53.1693,4.66754,45,10
0.799626,9.6641,-1.53587,28,3
4.3883,52.9236,6.5205,32,11
0.959166,11.5432,-1.42222,31,4
4.41323,52.9996,8.42337,26,12
0.933797,11.2142,-0.984511,42,5
0.992928,11.8742,-0.624473,64,6
0.969675,11.5476,-0.202273,100,7
4.67145,55.5145,14.9276,21,15
0.0410853,0.481212,-0.12941,15,0
1.21145,14.1601,0.248069,49,8
0.0567614,0.662092,-0.153417,23,1
1.42023,16.5323,0.869614,13,9
0.705922,8.21737,-1.60318,26,2
4.57469,53.1437,4.66667,45,10
0.83217,9.64747,-1.53368,28,3
4.59148,53.1215,6.54682,32,11
0.987461,11.4014,-1.40515,31,4
0.972422,11.2049,-0.983988,55,5
5.10391,58.6918,11.4516,19,13
1.02154,11.7234,-0.616727,91,6
5.11922,58.6308,13.5875,27,14
1.00493,11.4864,-0.201261,22,7
4.83514,55.1553,14.8355,21,15
0.0461859,0.519551,-0.139762,14,0
1.26336,14.1837,0.248557,39,8
0.0585523,0.656067,-0.152067,23,1
1.26677,14.166,0.745369,3,9
0.734251,8.21094,-1.60241,26,2
4.77405,53.2822,4.68026,46,10
0.862483,9.60713,-1.52774,28,3
4.76976,53.0261,6.53707,32,11
1.02387,11.3603,-1.40052,42,4
4.76252,52.7393,8.38708,26,12
1.02749,11.3561,-0.997585,48,5
1.05182,11.6024,-0.610551,100,6
1.16862,12.841,-0.225066,83,7
5.0487,55.369,14.8976,21,15
0.0470213,0.507837,-0.136656,14,0
0.0594019,0.640335,-0.148468,24,1
0.76325,8.19647,-1.60012,26,2
4.9382,52.9311,4.65098,45,10
0.890154,9.52326,-1.51491,30,3
4.93969,52.847,6.51709,32,11
1.07204,11.4476,-1.41173,56,4
4.94879,52.746,8.39083,26,12
1.06824,11.3643,-0.99863,36,5
5.11622,54.3263,10.6067,15,13
1.09565,11.6124,-0.611284,100,6
1.14437,12.1062,-0.212256,21,7
5.22193,55.1395,14.8407,21,15
0.0499025,0.519207,-0.139762,14,0
0.0608127,0.630414,-0.146218,25,1
5.12614,53.1401,2.79788,18,9
0.789588,8.1703,-1.59554,26,2
5.12487,52.9334,4.65272,45,10
0.923584,9.52206,-1.51522,27,3
5.11606,52.6508,6.49515,31,11
1.16171,11.9555,-1.47486,22,4
5.1417,52.8188,8.40522,26,12
1.10462,11.3268,-0.995667,25,5
5.28348,54.0795,10.562,31,13
1.18131,12.0697,-0.635568,32,6
5.28568,54.0046,12.5275,23,14
1.16438,11.8752,-0.208277,26,7
6.19544,63.0728,16.9816,33,15
0.0516239,0.519039,-0.139762,14,0
1.41163,14.1677,0.248522,45,8
0.0642579,0.643783,-0.149367,24,1
1.65359,16.5668,0.872545,5,9
0.811988,8.12075,-1.58639,26,2
5.29662,52.8784,4.64941,45,10
0.951993,9.4875,-1.51022,27,3
5.31683,52.8942,6.52732,32,11
1.14457,11.3867,-1.40515,28,4
5.32218,52.8545,8.41367,26,12
1.12737,11.1764,-0.982768,10,5
5.43948,53.8312,10.517,31,13
1.22596,12.1114,-0.637975,52,6
5.45101,53.8511,12.496,23,14
1.19266,11.7619,-0.206357,100,7
0.0553207,0.538082,-0.144939,14,0
1.46311,14.2067,0.24929,53,8
0.0669922,0.649382,-0.150717,23,1
0.836292,8.09263,-1.58142,26,2
1.58744,15.3352,1.34882,30,10
0.980188,9.45286,-1.50521,28,3
5.50329,52.9829,6.54048,32,11
1.18739,11.4122,-1.40881,27,4
5.55432,53.2934,8.48657,26,12
1.15657,11.0973,-0.976144,23,5
5.6243,53.8734,10.5288,15,13
1.24389,11.8947,-0.626776,58,6
5.65353,53.9713,12.5284,23,14
1.22097,11.6363,-0.204228,25,7
5.7975,55.1596,14.8614,21,15
0.055973,0.52636,-0.141833,14,0
1.49722,14.0563,0.246742,38,8
0.069879,0.654957,-0.152067,23,1
1.50667,14.0983,0.743066,15,9
0.862451,8.07014,-1.57761,26,2
1.64287,15.3474,1.35039,36,10
1.00749,9.39635,-1.49677,28,3
5.70475,53.1173,6.5595,33,11
1.22807,11.4159,-1.40978,31,4
5.69928,52.8927,8.42587,26,12
1.19787,11.1169,-0.978236,8,5
5.7723,53.4826,10.4563,30,13
1.26479,11.6997,-0.616727,37,6
5.85198,54.0442,12.55,23,14
1.22623,11.306,-0.198504,25,7
5.99292,55.1659,14.8686,21,15
0.0578097,0.526161,-0.141833,14,0
1.61584,14.6831,0.257842,13,8
0.0713109,0.646961,-0.150267,24,1
0.889749,8.05928,-1.57608,26,2
1.65767,14.991,1.31954,83,10
1.03768,9.36921,-1.49301,27,3
5.87915,52.9985,6.54731,32,11
1.22275,11.0051,-1.35957,19,4
5.95642,53.5243,8.52975,13,12
1.23755,11.1206,-0.978933,6,5
5.94739,53.3587,10.4361,30,13
1.26729,11.3518,-0.598619,100,6
1.27614,11.395,-0.200144,20,7
6.2182,55.4365,14.9473,21,15
0.0570339,0.502922,-0.135621,15,0
1.49444,13.1574,0.23114,38,8
0.0731281,0.642836,-0.149367,24,1
5.94316,52.1625,2.75141,17,9
0.913655,8.01906,-1.56883,26,2
1.71744,15.0505,1.32529,34,10
1.07015,9.36357,-1.4927,27,3
1.26659,11.0481,-1.36542,11,4
6.12518,53.3462,8.50472,26,12
1.44363,12.5731,-1.10723,40,5
6.12892,53.2966,10.4281,15,13
1.31102,11.383,-0.600503,30,6
7.95485,68.9627,16.0269,47,14
1.32027,11.4282,-0.200807,100,7
6.57466,56.823,15.3273,21,15
0.0614816,0.525745,-0.141833,14,0
1.5378,13.1302,0.230756,52,8
0.0762799,0.650318,-0.151167,23,1
1.75441,14.9347,0.788075,22,9
0.938891,7.99242,-1.56425,26,2
1.78137,15.1413,1.33383,54,10
1.10145,9.348,-1.49082,31,3
1.30468,11.0397,-1.36494,2,4
6.28119,53.0694,8.46404,26,12
1.49267,12.6115,-1.11106,47,5
6.26361,52.8421,10.3434,14,13
1.39302,11.6996,-0.205659,9,7
0.064703,0.537035,-0.144939,14,0
1.58866,13.1665,0.231489,21,8
0.0811208,0.671329,-0.156116,33,1
1.81974,15.0375,0.793832,9,9
0.962305,7.95206,-1.557,26,2
1.84237,15.2023,1.33976,40,10
1.13264,9.33234,-1.48894,25,3
1.80258,14.8307,1.83438,20,11
1.47465,12.1149,-1.49851,46,4
6.46734,53.055,8.4653,26,12
1.51739,12.448,-1.09712,47,5
6.47801,53.0655,10.3915,15,13
1.55866,12.7495,-0.673145,61,6
1.63729,13.354,-0.23484,100,7
0.0622974,0.502297,-0.135621,15,0
1.6383,13.1906,0.232012,10,8
0.0812988,0.653638,-0.152067,23,1
0.989573,7.94476,-1.55624,26,2
1.90726,15.2907,1.34812,39,10
1.16154,9.29892,-1.48425,22,3
1.42021,11.3376,-1.40296,17,4
6.70218,53.4281,8.52849,13,12
1.56034,12.4386,-1.09677,42,5
6.65123,52.9471,10.3728,29,13
1.60639,12.7697,-0.674506,74,6
1.99925,15.848,-0.27882,94,7
7.8797,62.3744,16.846,32,15
0.0611166,0.47908,-0.12941,15,0
1.69599,13.2761,0.233618,1,8
0.0820965,0.641752,-0.149367,24,1
1.95589,15.2681,0.806706,15,9
1.01505,7.92373,-1.5528,28,2
1.92234,14.9855,1.3218,34,10
1.1887,9.25367,-1.47768,31,3
1.46206,11.3503,-1.40515,31,4
6.85324,53.1301,8.48469,26,12
1.61471,12.5181,-1.10426,38,5
6.93986,53.7277,10.5304,15,13
1.64609,12.7264,-0.672517,58,6
8.47289,65.4165,15.2287,40,14
1.99026,15.3451,-0.270093,81,7
0.0658026,0.50185,-0.135621,15,0
1.73946,13.2483,0.233234,2,8
0.0858601,0.653054,-0.152067,23,1
1.04091,7.90651,-1.55013,26,2
1.97464,14.9787,1.3218,31,10
1.21376,9.19463,-1.46892,28,3
6.87543,52.0135,6.44201,30,11
1.4962,11.3038,-1.40004,50,4
6.92572,52.3237,8.35955,12,12
1.67331,12.6249,-1.1142,42,5
7.0158,52.8624,10.3655,14,13
1.68972,12.7146,-0.672203,74,6
1.49299,11.2194,-0.197561,26,7
0.0706477,0.524592,-0.141833,14,0
1.7687,13.1334,0.231314,28,8
0.087765,0.650835,-0.151617,23,1
2.05576,15.2248,0.805136,4,9
1.06377,7.86781,-1.54326,26,2
2.01756,14.9026,1.3157,63,10
1.24027,9.16119,-1.46423,28,3
7.0588,52.0711,6.45201,31,11
1.53741,11.3263,-1.40345,13,4
7.24772,53.3249,8.52349,13,12
1.73726,12.7651,-1.1271,45,5
7.20349,52.9303,10.3834,29,13
1.76611,12.9603,-0.685496,42,6
7.24024,53.0616,12.3638,23,14
1.53188,11.2121,-0.197526,100,7
0.0692168,0.50139,-0.135621,15,0
0.0895021,0.646664,-0.150717,23,1
1.97866,14.2778,0.755417,1,9
1.08716,7.8448,-1.53945,23,2
2.06313,14.8682,1.31326,54,10
1.26463,9.10202,-1.45547,33,3
7.28974,52.4001,6.49588,31,11
1.569,11.2638,-1.39638,30,4
7.41855,53.1897,8.50597,26,12
1.78345,12.7708,-1.12814,33,5
7.37978,52.8445,10.3716,29,13
7.42353,53.0225,12.3606,23,14
1.90803,13.6108,-0.239901,100,7
9.09126,64.7699,17.5252,38,15
0.0705117,0.497308,-0.134586,15,0
1.83003,12.9069,0.227544,52,8
0.0936757,0.659853,-0.153867,23,1
2.1679,15.2516,0.807335,10,9
1.11314,7.82132,-1.53563,23,2
2.12182,14.8901,1.31588,69,10
1.28822,9.02888,-1.44452,33,3
7.51636,52.6809,6.5339,32,11
1.59371,11.1561,-1.3837,24,4
7.45198,52.0997,8.33577,12,12
1.68793,11.7863,-1.04169,18,5
7.5751,52.8288,10.3739,29,13
1.85739,12.9374,-0.684973,48,6
7.61975,53.0085,12.3638,23,14
1.95553,13.6041,-0.239901,24,7
9.15219,63.5904,17.2146,35,15
0.0739144,0.508529,-0.137692,14,0
2.20821,15.1738,0.26765,9,8
0.0938463,0.644078,-0.150267,24,1
2.73785,18.7673,0.993965,7,9
1.13987,7.8135,-1.53487,26,2
1.32058,9.03019,-1.44545,46,3
7.75252,52.9476,6.57046,33,11
1.61443,11.0127,-1.36664,20,4
7.6544,52.1502,8.34828,25,12
1.71982,11.7031,-1.03489,24,5
7.77344,52.8972,10.3926,30,13
1.91155,12.9921,-0.688218,81,6
10.1455,68.8716,16.0719,47,14
1.99837,13.5493,-0.239063,100,7
9.38744,63.5717,17.2187,35,15
0.0786264,0.527362,-0.142868,14,0
1.8958,12.7155,0.224403,23,8
0.0935042,0.6264,-0.146218,25,1
1.16617,7.79374,-1.53181,23,2
2.19379,14.644,1.29548,23,10
1.35543,9.03701,-1.44733,37,3
2.28311,15.2221,1.88995,24,11
1.63724,10.903,-1.35372,26,4
7.97027,53.014,8.49095,26,12
1.77579,11.7975,-1.04378,9,5
7.97517,52.9208,10.4029,30,13
1.92906,12.7855,-0.677646,68,6
2.03132,13.4474,-0.237388,100,7
9.74682,64.4478,17.4651,37,15
0.0803747,0.527098,-0.142868,14,0
2.42515,15.8855,0.280495,9,8
0.0974569,0.637628,-0.148918,24,1
2.30758,15.0977,0.800426,33,9
1.18459,7.74131,-1.52227,23,2
2.22303,14.5106,1.28433,5,10
1.38449,9.02661,-1.44639,28,3
2.34407,15.2651,1.89629,33,11
1.66202,10.8108,-1.343,30,4
8.17006,53.1434,8.51598,13,12
1.80489,11.7266,-1.03802,4,5
8.06809,52.3585,10.2976,14,13
1.97145,12.7791,-0.677646,65,6
10.1019,65.4056,15.2791,41,14
2.00143,12.9584,-0.228871,28,7
9.99474,64.6366,17.5252,38,15
2.46794,15.8141,0.279378,39,8
0.100173,0.641152,-0.149817,24,1
2.34236,14.9751,0.794355,54,9
1.20401,7.68864,-1.51273,23,2
2.31348,14.7567,1.30681,63,10
1.41503,9.02587,-1.44702,31,3
8.26654,52.6688,6.54609,32,11
1.67906,10.6857,-1.32813,24,4
8.42367,53.5478,8.58544,27,12
2.00296,12.7181,-1.1264,33,5
2.04212,12.952,-0.687171,68,6
2.05382,12.9967,-0.229674,28,7
0.0790936,0.496015,-0.134586,15,0
2.03421,12.7427,0.225241,15,8
0.102717,0.642723,-0.150267,24,1
2.50821,15.6768,0.832037,24,9
1.23136,7.69624,-1.51502,26,2
1.43808,8.96821,-1.43857,40,3
2.45799,15.3115,1.90409,8,11
1.69903,10.5719,-1.31473,20,4
2.37942,14.7891,2.37249,12,12
2.00304,12.4497,-1.10322,52,5
8.61754,53.5021,10.5338,31,13
2.10004,13.0237,-0.691358,91,6
8.63697,53.5038,12.5122,23,14
2.10365,13.0171,-0.230162,27,7
10.4303,64.4699,17.4993,37,15
0.0839331,0.514803,-0.139762,14,0
2.07609,12.7197,0.224962,55,8
0.104017,0.636591,-0.148918,24,1
2.54648,15.5675,0.826699,41,9
1.25315,7.66089,-1.50892,23,2
2.52301,15.4072,1.3659,6,10
1.46842,8.95729,-1.43763,25,3
2.46031,14.9914,1.86533,44,11
1.71178,10.419,-1.29645,27,4
2.42301,14.732,2.36466,13,12
2.01738,12.2657,-1.08753,23,5
8.71942,52.9565,10.4323,30,13
2.14029,12.9847,-0.689683,45,6
8.79702,53.3118,12.4744,23,14
2.56462,15.5252,-0.274666,40,7
0.0857297,0.514507,-0.139762,14,0
3.14075,18.8289,0.333201,18,8
0.108165,0.647757,-0.151617,23,1
1.27729,7.64098,-1.50586,23,2
2.52351,15.0799,1.33767,14,10
1.49739,8.93847,-1.43544,26,3
2.51525,14.9983,1.86728,16,11
1.73368,10.3268,-1.28572,22,4
2.06943,12.3136,-1.09241,28,5
8.98075,53.3807,10.522,15,13
2.1876,12.989,-0.690311,48,6
2.25371,13.3673,-0.23662,100,7
9.79312,58.0236,15.7673,24,15
0.0810417,0.476115,-0.12941,15,0
2.61059,15.337,0.271559,16,8
0.110967,0.651237,-0.152517,23,1
2.52409,14.7977,0.786714,24,9
1.29767,7.59971,-1.49861,23,2
2.60097,15.2163,1.35057,33,10
1.5227,8.90815,-1.43138,27,3
2.58204,15.0897,1.87971,20,11
1.7716,10.3426,-1.2884,30,4
2.51756,14.682,2.35934,2,12
2.09555,12.2081,-1.08369,57,5
9.18295,53.4976,10.551,15,13
2.21814,12.9088,-0.686438,52,6
10.2049,59.3272,13.8979,29,14
2.25522,13.0972,-0.231977,20,7
0.0905518,0.521525,-0.141833,14,0
3.29041,18.9313,0.3354,10,8
0.114242,0.656605,-0.153867,23,1
2.52947,14.5231,0.772583,73,9
1.31917,7.57408,-1.49442,23,2
2.67948,15.3686,1.36486,24,10
1.55073,8.88526,-1.42856,26,3
2.59644,14.8616,1.85241,44,11
1.80974,10.3481,-1.28987,26,4
2.57969,14.7354,2.36936,12,12
2.15251,12.2953,-1.09206,28,5
9.32356,53.2023,10.4991,15,13
2.27699,12.9797,-0.690625,55,6
2.27531,12.9435,-0.229394,28,7
0.0923716,0.521205,-0.141833,14,0
2.86815,16.1671,0.286603,40,8
0.113466,0.638934,-0.149817,24,1
2.54974,14.3431,0.763477,56,9
1.34491,7.56557,-1.49365,23,2
2.73974,15.3964,1.36817,36,10
1.57515,8.84285,-1.42262,27,3
2.64481,14.8329,1.84998,32,11
1.84725,10.3495,-1.29084,23,4
2.19052,12.2603,-1.08962,28,5
9.57211,53.5211,10.5685,15,13
2.30821,12.893,-0.686438,55,6
11.6398,64.9516,15.2341,40,14
2.30529,12.8509,-0.227894,92,7
10.4507,58.1993,15.8439,24,15
0.0893778,0.494265,-0.134586,15,0
2.85226,15.7575,0.279518,9,8
0.116391,0.642369,-0.150717,23,1
2.57734,14.2103,0.756883,48,9
1.36851,7.54537,-1.4906,23,2
2.81518,15.5063,1.3788,45,10
1.60318,8.82174,-1.42011,26,3
2.71718,14.9369,1.86411,44,11
1.88408,10.3469,-1.29133,17,4
2.25044,12.3466,-1.09799,42,5
2.33167,12.767,-0.680158,58,6
2.90087,15.8523,-0.281298,100,7
10.6406,58.0902,15.8242,24,15
0.0911023,0.49395,-0.134586,15,0
3.03685,16.4495,0.291979,8,8
0.118986,0.643875,-0.151167,23,1
2.62473,14.1895,0.756255,61,9
1.39198,7.52511,-1.48755,23,2
1.63181,8.80444,-1.41823,26,3
2.77292,14.9468,1.86655,37,11
1.91946,10.3363,-1.29084,19,4
9.92788,53.41,8.60421,13,12
2.29862,12.3661,-1.10043,30,5
2.3711,12.7313,-0.678693,55,6
3.09851,16.6048,-0.294841,93,7
12.1791,65.2044,17.7736,40,15
0.0892558,0.474644,-0.12941,15,0
2.87047,15.2498,0.270861,18,8
0.123759,0.656861,-0.154316,22,1
2.73496,14.5021,0.773421,20,9
1.41096,7.48162,-1.47991,19,2
9.93428,52.626,4.68549,23,10
1.65813,8.7754,-1.41448,27,3
2.83209,14.9741,1.87118,24,11
1.95331,10.3179,-1.28938,17,4
9.95389,52.5288,8.4678,26,12
2.30505,12.1642,-1.08317,33,5
12.4845,65.8206,13.0223,27,13
2.43006,12.7995,-0.682775,29,6
2.70019,14.1953,-0.252222,60,7
0.0981852,0.512276,-0.139762,14,0
3.30495,17.2272,0.306185,21,8
0.122744,0.639201,-0.150267,24,1
2.82439,14.6945,0.784202,49,9
1.4341,7.46122,-1.47686,26,2
10.1491,52.7534,4.69996,46,10
1.68091,8.72882,-1.40791,27,3
9.99018,51.8296,6.48101,31,11
1.98555,10.2915,-1.28694,19,4
10.1615,52.6198,8.48814,26,12
2.33314,12.0818,-1.07655,47,5
10.1597,52.5611,10.406,15,13
2.62836,13.5851,-0.725167,65,6
11.1851,57.7575,13.5821,27,14
2.65497,13.6969,-0.243531,44,7
0.0955294,0.489177,-0.133551,15,0
3.20242,16.3834,0.291385,14,8
0.128342,0.655981,-0.154316,22,1
1.45863,7.44846,-1.47534,26,2
10.3612,52.8604,4.71269,23,10
1.70414,8.68607,-1.40197,21,3
10.2598,52.2463,6.53756,32,11
2.01381,10.2455,-1.28207,28,4
10.2796,52.2989,8.44183,26,12
2.38531,12.1244,-1.08108,35,5
10.3075,52.3443,10.3701,29,13
2.59003,13.1408,-0.70193,71,6
11.3097,57.328,13.4903,26,14
2.67522,13.5605,-0.241262,30,7
0.0979903,0.49263,-0.134586,15,0
2.68208,13.4837,0.239971,38,8
0.126711,0.636439,-0.149817,24,1
3.37439,16.9334,0.904889,18,9
1.48078,7.42407,-1.47152,26,2
10.5035,52.6129,4.69386,23,10
1.72868,8.65906,-1.39852,22,3
2.97134,14.8702,1.86192,36,11
2.04388,10.2193,-1.27963,16,4
10.4993,52.4487,8.47187,26,12
2.4781,12.368,-1.10357,33,5
10.491,52.3599,10.38,14,13
2.7467,13.6961,-0.732075,26,6
11.5442,57.5119,13.5425,26,14
2.70403,13.459,-0.239622,100,7
0.0988569,0.488516,-0.133551,15,0
2.72754,13.4665,0.239831,45,8
0.128158,0.632173,-0.148918,24,1
3.69839,18.227,0.974705,6,9
1.49993,7.39219,-1.46618,23,2
3.0224,14.8822,1.3286,11,10
1.75575,8.63749,-1.39602,22,3
10.5819,52.0119,6.51709,32,11
2.06726,10.1519,-1.27207,23,4
10.6618,52.3111,8.4556,26,12
2.51512,12.3402,-1.10182,47,5
10.6855,52.3806,10.3915,15,13
2.73536,13.3968,-0.716584,35,6
14.484,70.8743,16.7008,52,14
2.74618,13.4259,-0.239203,21,7
0.0974433,0.473031,-0.12941,15,0
3.32895,16.1459,0.287755,17,8
0.131939,0.639356,-0.150717,23,1
3.73573,18.0869,0.967901,12,9
1.51976,7.35807,-1.46045,23,2
1.78429,8.62357,-1.39477,22,3
10.7956,52.1301,6.53658,32,11
2.09664,10.1154,-1.26842,20,4
10.8476,52.289,8.4581,26,12
2.53998,12.2435,-1.09398,47,5
13.117,63.173,12.5415,25,13
3.05926,14.7208,-0.78797,16,6
2.79465,13.4241,-0.239342,25,7
0.102265,0.487814,-0.133551,15,0
2.84613,13.5645,0.241925,68,8
0.136172,0.648428,-0.152967,23,1
1.5414,7.3335,-1.45664,21,2
3.11228,14.7944,1.32268,11,10
1.80949,8.5941,-1.39102,22,3
11.0176,52.2825,6.56047,33,11
2.12416,10.0711,-1.26379,15,4
11.0908,52.5388,8.50472,13,12
2.5687,12.1683,-1.08805,49,5
13.2603,62.7618,12.469,24,13
2.85898,13.5201,-0.724225,35,6
2.84274,13.4201,-0.239447,100,7
0.108803,0.510126,-0.139762,14,0
2.87968,13.49,0.240773,53,8
0.137214,0.642231,-0.151617,23,1
1.56248,7.30696,-1.45244,23,2
3.15973,14.764,1.32093,11,10
1.83038,8.54523,-1.38413,23,3
11.2975,52.6979,6.61751,34,11
2.15888,10.0617,-1.26354,17,4
13.4109,62.4501,10.1166,19,12
2.63919,12.2898,-1.09973,40,5
13.528,62.9417,12.514,50,13
2.87381,13.3596,-0.716165,13,6
2.89716,13.4453,-0.240075,53,7
0.108126,0.498415,-0.136656,14,0
3.70279,17.054,0.304614,19,8
0.139454,0.641748,-0.151617,23,1
1.58505,7.28803,-1.44977,26,2
11.261,51.7344,4.63215,44,10
1.85473,8.5137,-1.38007,26,3
11.5363,52.9103,6.64919,34,11
2.18806,10.027,-1.26013,16,4
13.644,62.4723,10.1279,19,12
2.6723,12.2357,-1.09572,49,5
13.8239,63.2431,12.5835,25,13
2.91744,13.3359,-0.715433,35,6
3.29464,15.0349,-0.268662,100,7
0.110697,0.501808,-0.137692,14,0
3.73642,16.9238,0.30252,43,8
0.137069,0.620326,-0.146668,24,1
3.94737,17.8497,0.958062,9,9
1.60582,7.26137,-1.44557,28,2
3.96065,17.8949,1.60349,47,10
1.87974,8.48596,-1.37662,28,3
11.6109,52.3735,6.58679,33,11
2.21488,9.98245,-1.2555,16,4
13.9262,62.7136,10.1748,19,12
2.71585,12.2302,-1.09607,28,5
2.98653,13.427,-0.720876,42,6
3.44364,15.4566,-0.276411,64,7
0.112448,0.501419,-0.137692,14,0
3.67505,16.3741,0.292921,13,8
0.144786,0.644562,-0.152517,23,1
4.04024,17.9865,0.966122,15,9
1.62297,7.21933,-1.43832,23,2
3.31067,14.7145,1.31954,51,10
1.90544,8.462,-1.37381,26,3
2.24361,9.95568,-1.25306,17,4
14.2019,62.9677,10.2236,19,12
2.89102,12.8076,-1.14871,26,5
13.2631,58.71,11.6996,21,13
3.05452,13.51,-0.7259,45,6
12.5801,55.6411,13.17,25,14
3.38366,14.9536,-0.267615,100,7
0.107246,0.470905,-0.12941,15,0
3.93463,17.2626,0.309047,58,8
0.144755,0.634578,-0.150267,24,1
3.43492,15.058,0.809428,20,9
1.64472,7.20433,-1.43641,23,2
3.359,14.7015,1.31936,31,10
1.92909,8.43638,-1.37068,20,3
2.26687,9.90561,-1.2477,24,4
14.453,63.1051,10.2537,19,12
2.92858,12.7766,-1.1468,19,5
13.5315,58.9871,11.7638,21,13
3.11047,13.5485,-0.728517,13,6
3.30919,14.4025,-0.257947,100,7
12.8017,55.6719,15.3066,21,15
0.108807,0.470547,-0.12941,15,0
4.05498,17.5222,0.313934,20,8
0.14554,0.628399,-0.148918,24,1
3.45824,14.9317,0.803252,62,9
1.6686,7.19884,-1.43641,23,2
3.40774,14.6903,1.31936,43,10
1.95125,8.40492,-1.36661,22,3
13.9725,60.1385,7.58076,48,11
2.28488,9.83424,-1.23966,23,4
14.5781,62.6951,10.1948,19,12
2.92306,12.5611,-1.12832,26,5
13.8606,59.5156,11.8782,21,13
3.11413,13.3611,-0.718991,35,6
3.44869,14.7848,-0.264997,100,7
0.110367,0.470183,-0.12941,15,0
4.12632,17.5651,0.314946,20,8
0.149406,0.635502,-0.150717,23,1
3.57858,15.2215,0.819476,15,9
1.68842,7.17607,-1.43298,23,2
3.45049,14.6537,1.3171,31,10
1.97231,8.36957,-1.36192,21,3
2.30654,9.78023,-1.23381,22,4
14.2777,60.4931,9.84442,35,12
3.02654,12.8131,-1.15185,28,5
14.2124,60.1227,12.0088,22,13
3.12853,13.2243,-0.712188,19,6
3.41155,14.4094,-0.25847,93,7
13.0994,55.285,15.2237,21,15
0.115676,0.484808,-0.133551,15,0
4.00582,16.7757,0.301054,19,8
0.147206,0.615996,-0.146218,25,1
3.57986,14.9688,0.806602,62,9
1.71288,7.16219,-1.43145,23,2
3.50835,14.6584,1.31867,14,10
1.99791,8.34115,-1.35848,22,3
2.3325,9.72305,-1.22771,26,4
15.1029,62.908,10.2468,39,12
3.06314,12.7491,-1.14714,28,5
3.1583,13.1351,-0.708001,35,6
13.326,55.379,13.1502,25,14
3.72529,15.4693,-0.277738,100,7
0.113811,0.469362,-0.12941,15,0
4.09688,16.8957,0.303462,26,8
0.151193,0.623053,-0.148018,24,1
4.3094,17.7452,0.957015,38,9
1.73309,7.13107,-1.42649,23,2
4.08471,16.7944,1.51215,29,10
2.0238,8.31458,-1.35535,22,3
4.07361,16.736,2.11492,18,11
2.35844,9.68206,-1.22357,24,4
15.2952,62.7436,10.2286,19,12
3.03065,12.4228,-1.11873,26,5
3.20785,13.1292,-0.708315,45,6
14.038,57.412,13.6451,27,14
3.57977,14.6404,-0.263078,92,7
0.120066,0.48772,-0.134586,15,0
3.54983,14.4089,0.259029,16,8
0.155342,0.630063,-0.149817,36,1
4.0529,16.4385,0.887304,35,9
1.75468,7.11163,-1.42382,23,2
4.16241,16.8574,1.51912,13,10
2.04381,8.27102,-1.3494,20,3
4.12491,16.6805,2.1098,13,11
2.39486,9.6772,-1.22406,24,4
15.5066,62.6592,10.2236,19,12
3.05724,12.3445,-1.11263,26,5
3.58397,14.4497,-0.780225,42,6
14.2102,57.2492,13.6181,27,14
3.55378,14.3173,-0.257493,93,7
4.2986,17.2024,0.309501,33,8
0.157903,0.631435,-0.150267,24,1
4.12626,16.4882,0.890758,22,9
1.77663,7.09404,-1.42153,21,2
4.45906,17.7917,1.60471,37,10
2.0645,8.23738,-1.34502,21,3
4.18407,16.6821,2.11175,4,11
2.42888,9.67691,-1.22503,20,4
14.8556,59.1427,9.65827,33,12
3.07311,12.2255,-1.10287,28,5
14.4435,57.4596,11.5165,20,13
3.62505,14.4107,-0.778759,58,6
3.62767,14.3998,-0.259203,75,7
0.129078,0.509363,-0.140798,14,0
3.74712,14.776,0.266079,28,8
0.159626,0.628991,-0.149817,24,1
4.1887,16.4931,0.891805,11,9
1.79628,7.07288,-1.41847,26,2
4.5406,17.8656,1.61273,27,10
2.08642,8.20332,-1.34064,20,3
4.24815,16.6905,2.11468,18,11
2.45578,9.64144,-1.22162,19,4
15.9553,62.5953,10.2311,19,12
3.04879,11.9522,-1.07916,26,5
14.5634,57.093,11.4531,19,13
3.57802,14.0167,-0.758139,68,6
14.7548,57.7591,13.763,28,14
3.65315,14.2902,-0.257458,22,7
14.5124,56.7275,15.6896,23,15
0.129981,0.505145,-0.139762,14,0
3.78473,14.7086,0.265102,58,8
0.159877,0.620882,-0.148018,24,1
4.28761,16.6389,0.900493,30,9
1.82072,7.06055,-1.41733,23,2
4.32677,16.7666,1.51494,9,10
2.11302,8.18223,-1.33845,23,3
4.28951,16.6102,2.10639,31,11
2.48644,9.62128,-1.22016,17,4
16.2084,62.6731,10.253,19,12
3.04057,11.7486,-1.06173,21,5
3.66645,14.1465,-0.765884,52,6
15.0085,57.8669,13.8016,29,14
3.71205,14.3122,-0.258086,100,7
14.2978,55.0871,15.2496,21,15
3.97002,15.1976,0.274177,16,8
0.166095,0.635375,-0.151617,23,1
4.38305,16.7668,0.908238,9,9
1.83741,7.02376,-1.41122,26,2
4.34591,16.601,1.50134,26,10
2.13656,8.15569,-1.33532,22,3
4.33174,16.5234,2.09737,9,11
2.50793,9.56646,-1.21431,19,4
16.397,62.5015,10.2343,19,12
3.0421,11.5876,-1.04813,26,5
15.0644,57.3405,11.5241,20,13
3.7158,14.1337,-0.765884,68,6
14.8297,56.407,13.4651,26,14
3.73909,14.2121,-0.256515,25,7
3.77881,14.272,0.257702,48,8
0.164707,0.621634,-0.148468,24,1
4.3798,16.5301,0.896201,1,9
1.85012,6.97778,-1.40321,28,2
4.48984,16.9216,1.53167,6,10
2.15549,8.11801,-1.33032,18,3
4.39467,16.5396,2.10127,22,11
2.5376,9.55041,-1.21333,15,4
16.5188,62.1261,10.1817,19,12
3.04004,11.4253,-1.03436,20,5
15.4202,57.9125,11.6493,20,13
3.76368,14.1251,-0.766094,52,6
15.0307,56.4103,13.4777,26,14
3.80526,14.2711,-0.257807,24,7
14.6396,54.8653,15.2155,21,15
0.136088,0.507535,-0.140798,14,0
3.93961,14.6823,0.265346,66,8
0.169294,0.630495,-0.150717,23,1
4.60954,17.1551,0.930952,11,9
1.87529,6.97919,-1.40474,21,2
14.6006,54.3005,4.91942,26,10
2.17675,8.08984,-1.32688,22,3
4.4402,16.4904,2.09688,36,11
2.56472,9.51849,-1.21041,17,4
16.8385,62.4495,10.2443,19,12
3.05499,11.3223,-1.026,24,5
15.3063,56.7276,11.4211,19,13
3.81206,14.1183,-0.766408,52,6
3.99494,14.7751,-0.267161,27,7
0.130848,0.480936,-0.133551,15,0
3.97614,14.6145,0.264369,33,8
0.166887,0.612977,-0.146668,24,1
1.89724,6.95901,-1.40206,26,2
4.73949,17.3723,1.57543,47,10
2.20014,8.05894,-1.32312,25,3
4.50662,16.5074,2.10103,49,11
2.59166,9.48651,-1.20748,17,4
17.0803,62.478,10.2587,19,12
3.07399,11.2366,-1.0192,24,5
15.5006,56.6219,11.4111,19,13
3.88173,14.1698,-0.769967,52,6
3.97405,14.4969,-0.262379,83,7
0.135607,0.49165,-0.136656,14,0
4.00573,14.513,0.262798,18,8
0.168614,0.610483,-0.146218,25,1
4.74089,17.1649,0.933255,45,9
1.91943,6.94477,-1.40054,23,2
4.84472,17.517,1.59007,33,10
2.22246,8.03027,-1.31968,26,3
2.61792,9.44633,-1.20358,17,4
17.2761,62.338,10.2455,19,12
3.09562,11.1625,-1.01345,24,5
15.6782,56.4955,11.3966,19,13
4.07871,14.6775,-0.265905,90,7
15.2216,54.7388,15.2237,21,15
0.135242,0.483732,-0.134586,15,0
4.08722,14.6191,0.264962,42,8
0.171687,0.613674,-0.147118,24,1
4.80939,17.179,0.93493,44,9
1.9373,6.91535,-1.39596,23,2
4.93918,17.6189,1.60088,33,10
2.24162,7.99622,-1.3153,25,3
4.72684,16.8501,2.1488,4,11
2.63958,9.4032,-1.19919,28,4
17.5129,62.3458,10.2568,19,12
3.13618,11.1573,-1.01397,24,5
3.65685,13.001,-0.707792,9,6
4.12287,14.6382,-0.265451,100,7
0.131582,0.464693,-0.12941,15,0
4.14532,14.6297,0.265416,22,8
0.178081,0.62807,-0.150717,23,1
4.82626,17.0103,0.926661,34,9
1.95594,6.89377,-1.39291,23,2
4.88439,17.2038,1.56462,39,10
2.26411,7.96935,-1.31217,22,3
4.8296,16.9882,2.16854,9,11
2.66695,9.37484,-1.19676,17,4
17.4621,61.3419,10.1016,19,12
3.17238,11.1367,-1.0131,24,5
3.69236,12.9535,-0.705907,35,6
4.11467,14.416,-0.261681,92,7
0.133285,0.464207,-0.12941,15,0
4.91764,17.1273,0.311037,18,8
0.177582,0.618079,-0.148468,24,1
4.91928,17.1105,0.933046,69,9
1.97576,6.86769,-1.38909,23,2
4.89174,16.9924,1.54701,29,10
2.28402,7.92873,-1.30685,21,3
2.68866,9.32732,-1.19188,17,4
17.6761,61.2806,10.1016,19,12
3.20903,11.1179,-1.0124,24,5
18.4807,63.9861,12.946,27,13
4.08972,14.1506,-0.771955,68,6
4.2533,14.707,-0.267231,82,7
0.134904,0.463739,-0.12941,15,0
4.83841,16.6215,0.302171,19,8
0.177666,0.609941,-0.146668,24,1
4.70192,16.1421,0.881128,44,9
1.99808,6.8551,-1.38794,23,2
4.93875,16.9331,1.54318,16,10
2.30392,7.89416,-1.30247,20,3
15.4369,52.8585,6.76131,37,11
2.71448,9.28882,-1.18823,20,4
15.2359,52.1363,8.60296,13,12
3.25509,11.1315,-1.01467,24,5
4.16267,14.2168,-0.776352,58,6
18.7802,64.0985,15.4204,42,14
4.31585,14.7304,-0.267929,82,7
15.8757,54.1502,15.1202,21,15
0.136522,0.463265,-0.12941,15,0
4.9099,16.661,0.303183,52,8
0.178585,0.60561,-0.145768,25,1
2.01644,6.82925,-1.38413,23,2
4.97751,16.847,1.5369,26,10
2.32394,7.86564,-1.29903,22,3
15.4241,52.1712,6.6799,35,11
2.74189,9.26835,-1.18676,17,4
3.2894,11.1048,-1.01327,22,5
16.7669,56.604,11.4753,19,13
4.16381,14.0478,-0.767873,58,6
18.9449,63.8752,15.3817,42,14
4.38374,14.7709,-0.268942,89,7
0.138058,0.46281,-0.12941,15,0
5.0624,16.9599,0.308943,54,8
0.184044,0.616186,-0.148468,24,1
2.03345,6.80372,-1.38031,21,2
5.04705,16.8762,1.54109,16,10
2.34628,7.84045,-1.29622,25,3
2.7634,9.22259,-1.18213,20,4
3.32048,11.0748,-1.01153,22,5
4.1933,13.9681,-0.764314,52,6
4.4304,14.7486,-0.268802,41,7
0.148611,0.491914,-0.137692,14,0
0.187214,0.619303,-0.149367,24,1
5.00148,16.5344,0.905307,35,9
2.05207,6.77967,-1.37688,23,2
5.09611,16.826,1.53812,39,10
2.36711,7.81561,-1.2934,26,3
15.6637,51.685,6.63116,34,11
2.79109,9.20388,-1.18091,17,4
18.7614,61.8288,10.2336,19,12
3.33828,10.9945,-1.00525,22,5
4.11128,13.5318,-0.741182,39,6
4.50688,14.8153,-0.270303,65,7
0.141205,0.46186,-0.12941,15,0
4.78344,15.6362,0.285417,47,8
0.189375,0.618646,-0.149367,24,1
5.05566,16.5054,0.904679,65,9
2.07224,6.76532,-1.37535,23,2
5.12911,16.7348,1.53133,26,10
2.38511,7.77708,-1.28839,26,3
15.9838,52.0855,6.68965,35,11
2.81388,9.16372,-1.17701,17,4
18.9632,61.7176,10.2261,19,12
3.36025,10.9294,-1.00037,21,5
19.4859,63.3791,12.8888,27,13
4.11621,13.3799,-0.733645,45,6
4.47027,14.5128,-0.265067,99,7
0.157758,0.509318,-0.142868,14,0
4.84569,15.6442,0.28587,58,8
0.186918,0.60309,-0.145768,25,1
5.06413,16.3293,0.895992,45,9
2.09237,6.74268,-1.3723,23,2
5.20163,16.752,1.53464,42,10
2.40715,7.74754,-1.28495,26,3
17.142,55.1725,7.09377,43,11
2.83818,9.1292,-1.17385,17,4
18.7643,60.3193,10.0052,18,12
3.38949,10.8891,-0.997759,19,5
4.17948,13.4105,-0.736158,29,6
4.61556,14.8007,-0.270617,100,7
15.2793,48.966,13.7443,19,15
0.14913,0.475584,-0.133551,15,0
4.88384,15.5653,0.284753,45,8
0.182706,0.581949,-0.140819,26,1
5.17663,16.4783,0.905203,45,9
2.11177,6.72222,-1.36963,23,2
5.22602,16.6254,1.5247,29,10
2.42885,7.72213,-1.28214,25,3
2.85791,9.07518,-1.16824,17,4
19.3118,61.2864,10.1773,19,12
3.4185,10.8487,-0.995144,19,5
20.7548,65.8257,13.4162,29,13
4.63304,14.6673,-0.268488,100,7
15.3836,48.6721,13.6776,38,15
0.146114,0.46033,-0.12941,15,0
4.93391,15.5348,0.284509,9,8
0.192409,0.605451,-0.146668,24,1
5.22261,16.424,0.903214,34,9
2.12689,6.68861,-1.36428,26,2
5.29671,16.6469,1.52836,45,10
2.4498,7.69478,-1.27901,22,3
2.88294,9.04435,-1.16556,20,4
19.564,61.3391,10.1973,19,12
3.44727,10.8082,-0.99253,21,5
20.9748,65.7229,13.4101,29,13
4.37933,13.714,-0.754475,32,6
4.69394,14.6815,-0.269046,89,7
15.6282,48.8517,13.7433,19,15
0.160719,0.500281,-0.140798,14,0
5.31979,16.5493,0.303428,17,8
0.198102,0.615907,-0.149367,24,1
5.32213,16.5368,0.910436,28,9
2.15143,6.68489,-1.36505,26,2
5.37006,16.6758,1.53272,61,10
2.46634,7.65422,-1.27369,21,3
15.3552,47.626,6.14417,24,11
2.90414,9.00211,-1.16141,16,4
15.6771,48.5663,8.08297,12,12
3.47212,10.7563,-0.988869,21,5
21.2017,65.6418,13.4085,29,13
4.42963,13.7062,-0.754894,100,6
16.3518,50.5659,12.2693,22,14
4.61404,14.2598,-0.261612,100,7
15.7391,48.6131,13.6915,19,15
0.154102,0.473997,-0.133551,15,0
5.1907,15.9564,0.292886,24,8
0.200854,0.617064,-0.149817,24,1
4.9512,15.2021,0.837899,10,9
2.17354,6.6736,-1.36428,26,2
5.36279,16.4561,1.51424,39,10
2.48631,7.6249,-1.27025,22,3
5.93813,18.2,2.35062,5,11
2.93122,8.97871,-1.15971,17,4
16.1741,49.514,8.25004,12,12
3.48923,10.6816,-0.983117,21,5
21.4368,65.5861,13.4123,29,13
4.45447,13.6204,-0.751021,42,6
15.9731,48.812,11.8572,21,14
4.66566,14.2493,-0.261716,100,7
15.887,48.4918,13.6729,19,15
0.15688,0.477153,-0.134586,15,0
5.01237,15.2363,0.279971,26,8
0.200462,0.608991,-0.148018,24,1
2.19442,6.66263,-1.36352,26,2
5.43978,16.5064,1.52052,68,10
2.5054,7.59786,-1.26712,26,3
5.98601,18.1425,2.34574,5,11
2.95103,8.93878,-1.15581,16,4
17.078,51.6996,8.62361,13,12
3.50401,10.6076,-0.977364,23,5
4.56985,13.818,-0.762744,42,6
4.70723,14.2167,-0.261402,92,7
0.152447,0.458272,-0.12941,15,0
0.198891,0.597194,-0.145318,25,1
5.50728,16.5266,0.912948,35,9
2.21332,6.64189,-1.36085,23,2
5.50367,16.5062,1.52226,26,10
2.52815,7.57782,-1.26524,25,3
16.3225,48.8964,6.32941,28,11
2.97341,8.90206,-1.1524,17,4
16.671,49.8824,8.33014,25,12
3.51765,10.5254,-0.970915,23,5
20.2515,60.5605,12.4125,24,13
4.50462,13.4629,-0.744008,42,6
4.83685,14.4391,-0.2658,66,7
15.9712,47.6498,13.4658,18,15
0.166369,0.494356,-0.139762,14,0
5.13968,15.2634,0.281123,50,8
0.197242,0.585416,-0.142619,26,1
5.25915,15.6092,0.863229,8,9
2.22583,6.6025,-1.35436,26,2
5.55234,16.4604,1.51982,22,10
2.54764,7.54836,-1.2618,27,3
16.2721,48.1847,6.24459,26,11
2.99302,8.85778,-1.14801,17,4
16.7731,49.6396,8.29885,12,12
3.5365,10.4602,-0.966034,22,5
17.6179,52.0797,10.6868,16,13
4.50612,13.3128,-0.736576,45,6
16.9725,50.1142,12.2153,22,14
4.89112,14.4419,-0.266149,100,7
5.51441,16.1985,0.29868,45,8
0.202323,0.593982,-0.144868,25,1
2.2476,6.59097,-1.3536,21,2
6.30784,18.4869,1.70895,14,10
2.57202,7.538,-1.26149,26,3
16.4434,48.1642,6.24897,27,11
3.01147,8.81587,-1.14387,17,4
17.8995,52.3697,8.76565,13,12
3.56074,10.4119,-0.962722,22,5
4.54442,13.2807,-0.735634,39,6
16.8545,49.228,12.0128,22,14
5.04131,14.7161,-0.271525,100,7
0.16973,0.493212,-0.139762,14,0
5.52405,16.043,0.296167,31,8
0.207569,0.602484,-0.147118,24,1
5.43163,15.7657,0.873906,22,9
2.26561,6.57234,-1.35131,23,2
6.38601,18.5148,1.71348,7,10
2.58543,7.49163,-1.25523,27,3
16.5984,48.069,6.2441,26,11
3.03704,8.7903,-1.14192,19,4
16.9081,48.9381,8.20061,25,12
3.59785,10.4076,-0.96342,22,5
16.7346,48.3814,9.95107,13,13
4.56332,13.1855,-0.731238,35,6
16.2967,47.0622,11.4981,20,14
4.71384,13.6128,-0.251454,8,7
16.5969,47.9019,13.5839,18,15
0.175261,0.503564,-0.142868,14,0
0.203157,0.583389,-0.142619,26,1
5.39989,15.4977,0.860089,71,9
2.2853,6.55513,-1.3494,26,2
5.46693,15.6725,1.45219,15,10
2.60375,7.46437,-1.2521,22,3
16.5641,47.459,6.17195,25,11
3.05439,8.74644,-1.13753,16,4
17.4261,49.8727,8.36737,25,12
3.63745,10.4044,-0.964291,22,5
16.8535,48.207,9.92665,12,13
4.5569,13.027,-0.723283,39,6
16.4231,46.9233,11.4775,20,14
4.72695,13.4981,-0.249639,100,7
16.8343,48.0442,13.6408,18,15
0.170519,0.484756,-0.137692,14,0
5.28457,15.0147,0.277842,45,8
0.201956,0.573486,-0.140369,26,1
5.5044,15.6219,0.868044,49,9
2.29985,6.52714,-1.3452,21,2
5.50231,15.6073,1.44783,34,10
2.62453,7.44033,-1.2496,26,3
16.7336,47.4121,6.17341,25,11
3.073,8.70204,-1.13314,17,4
17.2704,48.8784,8.21062,12,12
3.67193,10.3923,-0.964291,18,5
17.2115,48.6847,10.0373,26,13
4.51509,12.7644,-0.709571,35,6
16.6206,46.9612,11.5008,20,14
5.37147,15.1686,-0.280879,25,7
17.0586,48.1454,13.6864,19,15
0.1748,0.491438,-0.139762,14,0
5.35774,15.0546,0.278924,42,8
0.211801,0.594807,-0.145768,25,1
5.4798,15.3806,0.855693,31,9
2.31142,6.48764,-1.33872,23,2
5.58954,15.6799,1.45637,31,10
2.64518,7.41624,-1.2471,26,3
6.74413,18.898,2.46371,10,11
3.09268,8.66134,-1.12924,22,4
17.5393,49.0932,8.25692,12,12
3.69813,10.3512,-0.961676,20,5
17.4011,48.6798,10.0488,13,13
4.56366,12.7598,-0.710199,35,6
16.8015,46.9506,11.5125,20,14
5.41831,15.1328,-0.280565,94,7
17.0885,47.7,13.5766,18,15
0.163439,0.454468,-0.12941,15,0
5.29246,14.7084,0.272851,21,8
0.213216,0.592231,-0.145318,25,1
5.45426,15.1415,0.843446,43,9
2.33272,6.47583,-1.33795,23,2
5.63208,15.6266,1.45323,34,10
2.661,7.37909,-1.2424,27,3
6.84847,18.9808,2.4776,43,11
3.11549,8.62996,-1.12656,20,4
17.328,47.9726,8.07859,12,12
3.71664,10.2895,-0.957144,20,5
17.7324,49.0656,10.1411,13,13
4.59052,12.695,-0.707478,35,6
17.0607,47.1556,11.5773,20,14
5.54122,15.3074,-0.28416,86,7
17.4707,48.2359,13.7464,19,15
0.165024,0.453894,-0.12941,15,0
5.30548,14.5846,0.270896,43,8
0.215949,0.593314,-0.145768,25,1
5.50776,15.1243,0.843551,38,9
2.35396,6.46396,-1.33719,23,2
5.65453,15.5188,1.44504,59,10
2.68403,7.36233,-1.24115,18,3
6.90856,18.9399,2.47541,10,11
3.13946,8.60225,-1.12437,22,4
17.5631,48.0974,8.10988,12,12
3.7416,10.2466,-0.954355,22,5
17.9413,49.1066,10.1625,13,13
4.61217,12.617,-0.704023,35,6
17.2386,47.1323,11.5863,20,14
5.54583,15.1547,-0.281682,100,7
17.6522,48.2109,13.7568,19,15
0.166608,0.453316,-0.12941,15,0
5.35153,14.5529,0.270652,66,8
0.211289,0.574268,-0.141269,26,1
5.57846,15.1537,0.846272,51,9
2.36973,6.43728,-1.33337,26,2
5.74517,15.5981,1.45428,25,10
2.70493,7.33994,-1.23896,23,3
17.1495,46.5108,6.08664,23,11
3.15642,8.55585,-1.11974,17,4
17.4477,47.2686,7.98035,12,12
3.77016,10.2085,-0.952089,22,5
18.1779,49.2205,10.1991,14,13
4.62434,12.5146,-0.699208,35,6
17.4774,47.2729,11.6358,21,14
5.56885,15.0546,-0.280181,31,7
18.1664,49.0838,14.0239,19,15
0.185768,0.499783,-0.142868,14,0
0.213293,0.573527,-0.141269,26,1
5.72327,15.3812,0.860089,23,9
2.39125,6.42304,-1.33223,26,2
5.95669,15.9914,1.49298,100,10
2.72768,7.31887,-1.23708,22,3
7.00941,18.8075,2.46444,10,11
3.171,8.50386,-1.11437,17,4
17.7548,47.5887,8.0448,24,12
3.79601,10.1691,-0.949649,24,5
4.61145,12.3405,-0.690416,35,6
5.74743,15.3722,-0.286464,100,7
18.3376,49.0201,14.0239,19,15
0.176641,0.470196,-0.134586,15,0
5.47594,14.5685,0.271664,13,8
0.222939,0.592806,-0.146218,25,1
5.91964,15.7406,0.881338,7,9
2.40813,6.39995,-1.32918,30,2
5.95913,15.8288,1.47973,37,10
2.74903,7.29821,-1.23521,23,3
17.68,46.9125,6.15562,25,11
3.19017,8.46488,-1.11072,17,4
19.8653,52.6833,8.9177,14,12
3.81953,10.1241,-0.946686,22,5
19.9177,52.7663,10.9631,17,13
4.60017,12.1804,-0.682356,35,6
5.71835,15.1332,-0.28238,86,7
0.189166,0.498507,-0.142868,14,0
5.55332,14.6269,0.273095,24,8
0.222135,0.584776,-0.144419,25,1
2.42237,6.37358,-1.32536,23,2
6.00379,15.7885,1.47781,78,10
2.7669,7.27244,-1.23239,20,3
17.8284,46.8351,6.15318,25,11
3.21046,8.43384,-1.10804,17,4
18.3399,48.1534,8.16119,12,12
3.83463,10.063,-0.942154,16,5
20.0142,52.4946,10.9204,17,13
4.61134,12.0886,-0.678065,35,6
21.6305,56.7041,14.0113,30,14
5.77492,15.1309,-0.282694,86,7
23.9168,62.6319,17.9641,41,15
0.193583,0.505092,-0.144939,14,0
5.62899,14.6793,0.274422,55,8
0.226168,0.589495,-0.145768,25,1
5.84484,15.2263,0.854751,52,9
2.43856,6.35268,-1.32269,23,2
2.78675,7.25216,-1.23051,25,3
18.0577,46.9684,6.17853,25,11
3.22848,8.39294,-1.10414,20,4
18.5206,48.1223,8.16682,12,12
3.85296,10.0112,-0.938493,22,5
4.66721,12.1142,-0.680368,35,6
5.85576,15.1835,-0.284055,94,7
0.181392,0.468384,-0.134586,15,0
5.66502,14.6205,0.273689,63,8
0.219067,0.565081,-0.13992,26,1
5.96729,15.3846,0.864799,46,9
2.46285,6.34962,-1.32383,26,2
7.37544,19.0052,1.78356,15,10
2.80561,7.22582,-1.2277,23,3
6.61895,17.0382,2.24435,9,11
3.25487,8.37422,-1.10316,20,4
20.4884,52.6858,8.95337,14,12
3.87272,9.95868,-0.934833,22,5
4.71163,12.1034,-0.680682,35,6
5.86226,15.0437,-0.281821,100,7
0.190065,0.485738,-0.139762,14,0
5.71967,14.6099,0.273863,49,8
0.220327,0.562498,-0.13947,26,1
6.00566,15.3246,0.862601,36,9
2.48253,6.33141,-1.32192,23,2
7.4461,18.9905,1.7846,48,10
2.82288,7.19575,-1.22426,20,3
18.8029,47.9056,6.31893,28,11
3.26667,8.31846,-1.09731,23,4
20.6635,52.5919,8.94962,28,12
3.90627,9.937,-0.934135,22,5
18.6428,47.4003,9.9007,12,13
4.75523,12.0842,-0.680577,35,6
5.90448,14.9971,-0.281333,100,7
0.19895,0.503003,-0.144939,14,0
5.80776,14.6762,0.275504,45,8
0.230996,0.58343,-0.144868,25,1
6.23022,15.7277,0.886571,39,9
2.49776,6.30219,-1.31773,23,2
8.15065,20.5652,1.93538,22,10
2.8405,7.16332,-1.2205,26,3
18.9667,47.8068,6.31503,28,11
3.28689,8.2806,-1.0939,17,4
20.7234,52.1817,8.89268,14,12
3.93016,9.89114,-0.931172,22,5
4.78694,12.0352,-0.678797,35,6
5.90247,14.8323,-0.278645,88,7
0.179279,0.448456,-0.12941,15,0
5.90162,14.7551,0.277389,52,8
0.233133,0.582579,-0.144868,25,1
6.2376,15.5872,0.879872,50,9
2.51026,6.26974,-1.31277,23,2
7.70957,19.2461,1.81389,7,10
2.86232,7.14186,-1.21862,20,3
19.2009,47.8844,6.33453,28,11
3.31278,8.25745,-1.09244,17,4
23.1723,57.7594,9.85694,17,12
3.94166,9.82004,-0.925768,20,5
25.1126,62.5326,13.0987,28,13
4.82818,12.0165,-0.678693,32,6
6.01538,14.9637,-0.281507,86,7
0.19531,0.483653,-0.139762,14,0
5.98571,14.8226,0.279029,71,8
0.229224,0.567348,-0.141269,26,1
6.26727,15.5042,0.876418,25,9
2.52992,6.25548,-1.31162,21,2
5.9607,14.731,1.39031,21,10
2.87636,7.10852,-1.21456,25,3
6.94185,17.1472,2.2714,4,11
3.32672,8.2133,-1.08805,15,4
23.2877,57.4658,9.82064,17,12
3.96319,9.77483,-0.922805,20,5
26.5459,65.4728,13.7329,31,13
4.85223,11.9616,-0.676495,29,6
5.9472,14.6462,-0.275923,88,7
0.201289,0.493736,-0.142868,14,0
6.03288,14.7905,0.27882,43,8
0.223839,0.548502,-0.13677,27,1
6.12093,14.9989,0.848994,55,9
2.54768,6.23979,-1.31009,21,2
6.03589,14.7757,1.39641,3,10
2.89517,7.08381,-1.21205,22,3
6.44643,15.765,2.09128,45,11
3.34861,8.1851,-1.08586,22,4
23.4871,57.4102,9.8244,17,12
3.98274,9.73029,-0.919842,20,5
26.2058,63.9917,13.4413,29,13
4.86291,11.8688,-0.672203,32,6
6.15729,15.0205,-0.283357,78,7
0.203011,0.493031,-0.142868,14,0
6.39788,15.5378,0.293305,31,8
0.232338,0.563973,-0.140819,26,1
6.1839,15.0033,0.850459,28,9
2.56047,6.20907,-1.30552,26,2
6.1011,14.7877,1.39955,43,10
2.92016,7.07782,-1.21268,22,3
6.48125,15.7014,2.08567,22,11
3.35983,8.13542,-1.08074,24,4
23.6708,57.2877,9.81752,17,12
4.01516,9.71265,-0.919493,20,5
23.7447,57.4382,12.0813,22,13
4.8969,11.8397,-0.67147,26,6
6.08653,14.7014,-0.277738,88,7
23.5892,56.9493,16.5168,30,15
0.191299,0.460245,-0.133551,15,0
6.40062,15.3917,0.290967,91,8
0.231311,0.555961,-0.13902,26,1
6.22212,14.955,0.848889,53,9
2.57123,6.17699,-1.30055,21,2
6.12712,14.7122,1.39432,12,10
2.94181,7.06029,-1.21143,26,3
7.14326,17.1353,2.27944,19,11
3.37979,8.10349,-1.07806,22,4
4.03584,9.6717,-0.916878,20,5
23.8664,57.1666,12.0416,22,13
4.92357,11.7875,-0.669482,26,6
6.10903,14.6184,-0.276551,88,7
0.186922,0.445324,-0.12941,15,0
6.41448,15.2818,0.289291,17,8
0.233153,0.555191,-0.13902,13,1
6.20234,14.762,0.839155,31,9
2.58441,6.14807,-1.29636,23,2
6.48045,15.4089,1.46247,40,10
2.95908,7.03593,-1.20893,22,3
8.61819,20.4818,2.72841,20,11
3.39972,8.07577,-1.07586,17,4
24.0908,57.198,9.83003,17,12
4.05334,9.61899,-0.913218,20,5
23.882,56.6746,11.9546,22,13
4.93005,11.6938,-0.665085,35,6
6.15225,14.5786,-0.276202,100,7
0.194587,0.458864,-0.133551,15,0
6.45046,15.2037,0.288279,9,8
0.241374,0.568642,-0.142619,26,1
6.21993,14.6461,0.833921,54,9
2.60692,6.13855,-1.29636,26,2
6.61168,15.5611,1.47921,28,10
2.98144,7.01361,-1.20705,22,3
8.68045,20.4102,2.72329,6,11
3.42681,8.05352,-1.07464,20,4
23.3137,54.7641,9.42705,15,12
4.06437,9.54724,-0.907814,20,5
24.1133,56.615,11.9614,22,13
4.96629,11.6546,-0.663934,29,6
22.3704,52.472,13.1691,25,14
6.32979,14.84,-0.281612,70,7
0.205313,0.479493,-0.139762,14,0
6.64681,15.5156,0.294632,1,8
0.235681,0.549885,-0.13812,13,1
6.30565,14.7051,0.838527,50,9
2.63143,6.13663,-1.29788,23,2
6.66125,15.5269,1.47816,43,10
2.99421,6.97593,-1.20236,27,3
7.06601,16.4545,2.19877,28,11
3.44158,8.01051,-1.0705,16,4
23.5765,54.8494,9.45584,15,12
4.09452,9.52568,-0.907117,18,5
4.97301,11.5583,-0.659433,35,6
6.3681,14.7866,-0.281019,86,7
0.203919,0.47168,-0.137692,14,0
6.84143,15.8172,0.30081,54,8
0.245338,0.566944,-0.142619,26,1
2.64816,6.1166,-1.29559,26,2
3.01226,6.95094,-1.19985,27,3
8.7335,20.1433,2.69575,19,11
3.46478,7.98752,-1.06904,20,4
23.6513,54.5244,9.41329,15,12
4.11188,9.47477,-0.903631,20,5
24.2593,55.8726,11.8401,21,13
4.99343,11.4951,-0.656816,35,6
6.42507,14.7837,-0.281368,86,7
0.199382,0.456801,-0.133551,15,0
6.52108,14.9404,0.284544,17,8
0.244098,0.558983,-0.140819,26,1
2.66477,6.09653,-1.2933,23,2
3.02342,6.91376,-1.19516,30,3
8.82173,20.1634,2.70233,19,11
3.47931,7.9487,-1.06538,22,4
23.9794,54.7564,9.46773,15,12
4.12814,9.42204,-0.89997,20,5
24.5233,55.9717,11.8782,21,13
5.00586,11.4199,-0.653467,35,6
23.1506,52.7885,13.3077,26,14
6.45173,14.7044,-0.280286,100,7
23.1165,52.6609,15.4101,22,15
0.202453,0.459673,-0.134586,15,0
6.58125,14.9358,0.284893,56,8
0.246834,0.559911,-0.141269,26,1
6.67655,15.1449,0.867416,40,9
2.6826,6.08227,-1.29216,26,2
6.90845,15.6562,1.49716,22,10
3.03717,6.87967,-1.19109,28,3
8.92734,20.2123,2.71306,6,11
3.49661,7.91291,-1.06221,17,4
25.986,58.807,10.1829,19,12
4.14003,9.36456,-0.895787,20,5
5.02468,11.3549,-0.650745,35,6
6.48508,14.6482,-0.279622,100,7
23.0406,52.0187,15.2444,21,15
0.196208,0.441311,-0.12941,15,0
6.59907,14.8427,0.283532,56,8
0.243145,0.546626,-0.13812,13,1
6.98842,15.7036,0.900807,21,9
2.69663,6.05672,-1.28872,26,2
6.61932,14.8603,1.42325,31,10
3.04871,6.8443,-1.18671,27,3
6.85948,15.3922,2.0691,4,11
3.52283,7.90127,-1.06221,20,4
8.94685,20.0573,3.47848,4,12
4.15808,9.3173,-0.892649,20,5
26.1342,58.5608,12.4652,24,13
5.05824,11.329,-0.650222,32,6
23.5316,52.6795,13.3203,52,14
6.46682,14.4703,-0.276656,56,7
0.218228,0.486487,-0.142868,14,0
6.60908,14.7265,0.281752,63,8
0.244253,0.543996,-0.13767,27,1
6.76084,15.0506,0.864695,51,9
2.71107,6.03521,-1.28605,23,2
7.20189,16.0249,1.53708,35,10
3.07015,6.82821,-1.18577,22,3
7.27718,16.1774,2.17805,50,11
3.53572,7.85634,-1.05783,17,4
8.96328,19.907,3.45783,30,12
4.17994,9.27912,-0.890383,20,5
23.9114,53.0813,11.3165,19,13
5.09201,11.2986,-0.649489,32,6
6.45316,14.3055,-0.273933,72,7
23.6893,52.4905,15.4308,22,15
0.207255,0.457528,-0.134586,15,0
6.68438,14.7562,0.282764,48,8
0.246955,0.544915,-0.13812,27,1
6.61621,14.5921,0.839678,46,9
2.72587,6.00914,-1.28262,23,2
6.71715,14.801,1.42203,12,10
3.09026,6.80612,-1.1839,26,3
9.04718,19.9259,2.68698,13,11
3.55656,7.82949,-1.05588,20,4
9.0082,19.8217,3.44844,20,12
4.1991,9.23545,-0.887594,19,5
24.0448,52.8593,11.2879,94,13
5.11767,11.2453,-0.647501,32,6
23.811,52.297,13.2663,25,14
6.64225,14.5886,-0.279797,86,7
0.213671,0.467343,-0.137692,14,0
6.69349,14.6334,0.280879,61,8
0.24814,0.542234,-0.13767,27,1
6.69121,14.6216,0.842714,36,9
2.74192,5.98888,-1.28033,21,2
6.7165,14.6633,1.41105,12,10
3.114,6.7953,-1.1839,25,3
8.92575,19.4686,2.6297,31,11
3.57695,7.79836,-1.05344,17,4
9.12263,19.8889,3.46565,16,12
4.22301,9.20263,-0.885851,19,5
9.07191,19.7601,4.22642,24,13
