x, y, z, intensity, ring
-1.49018,-1.80517,0.122675,1,9
-0.371203,-0.449665,-0.113341,16,2
-1.46403,-1.77286,0.201155,1,10
-1.45905,-1.76432,0.362615,1,12
-1.4041,-1.69727,0.428175,1,13
-1.39555,-1.68573,0.50524,1,14
-1.06246,-1.28292,-0.0290757,54,7
-1.06319,-1.27971,0.0290408,9,8
-1.48371,-1.7846,0.121629,1,9
-1.45237,-1.74629,0.198715,1,10
-1.43877,-1.72871,0.276156,1,11
-1.52841,-1.83511,0.378259,1,12
-1.40248,-1.6833,0.425886,1,13
-1.42139,-1.7048,0.512438,1,14
-1.40843,-1.68805,0.589072,1,15
-1.0715,-1.2806,0.0291455,15,8
-1.48993,-1.77941,0.121629,1,9
-1.4559,-1.73815,0.198366,1,10
-1.51876,-1.81191,0.290293,1,11
-1.53481,-1.82976,0.378259,1,12
-1.43358,-1.70848,0.433518,1,13
-1.4123,-1.68192,0.50704,1,14
-1.05853,-1.26016,-0.0287267,171,7
-1.44662,-1.72158,0.602531,1,15
-1.0837,-1.28602,0.0293549,44,8
-1.4781,-1.75282,0.120163,1,9
-0.374625,-0.444252,-0.112959,16,2
-1.4671,-1.73915,0.199064,1,10
-1.52507,-1.8066,0.290293,1,11
-1.54118,-1.82439,0.378259,1,12
-1.46488,-1.73345,0.44115,1,13
-1.42571,-1.6859,0.509739,1,14
-1.06034,-1.25341,-0.0286569,222,7
-1.42018,-1.67817,0.589072,1,15
-1.08818,-1.28223,0.0293549,100,8
-1.47357,-1.73573,0.119326,1,9
-0.376174,-0.442942,-0.112959,16,2
-1.46026,-1.71884,0.197321,1,10
-1.50823,-1.77404,0.285906,1,11
-1.54722,-1.81927,0.378259,1,12
-1.47092,-1.72833,0.44115,1,13
-1.42148,-1.66905,0.50614,1,14
-1.07486,-1.26206,-0.0289361,235,7
-1.42573,-1.67346,0.589072,1,15
-1.48611,-1.73817,0.119849,2,9
-1.48179,-1.7319,0.199412,1,10
-1.48829,-1.73887,0.281031,1,11
-1.55357,-1.81386,0.378259,1,12
-1.47665,-1.72344,0.44115,1,13
-1.42447,-1.66137,0.50524,1,14
-1.07665,-1.25527,-0.0288663,242,7
-1.41647,-1.65088,0.582861,1,15
-1.09688,-1.2748,0.0293549,188,8
-0.347061,-0.403211,-0.122823,15,1
-1.47783,-1.71632,0.118698,1,9
-0.37918,-0.440371,-0.112959,16,2
-1.47453,-1.71188,0.197669,1,10
-1.49953,-1.73968,0.282006,1,11
-1.53924,-1.78449,0.373253,1,12
-1.48265,-1.71828,0.44115,1,13
-1.43026,-1.65639,0.50524,1,14
-1.0758,-1.24545,-0.0287267,242,7
-1.43738,-1.66346,0.589072,1,15
-1.10526,-1.27549,0.0294597,188,8
-0.348466,-0.401997,-0.122823,15,1
-1.4969,-1.72624,0.119745,1,9
-0.380715,-0.439045,-0.112959,16,2
-1.47788,-1.70371,0.197321,1,10
-1.52381,-1.75542,0.285418,1,11
-1.54805,-1.78209,0.373878,1,12
-1.43347,-1.64844,0.50434,1,14
-1.08539,-1.24772,-0.0288663,235,7
-1.41782,-1.62929,0.578719,1,15
-1.10839,-1.27012,0.0294248,189,8
-0.349867,-0.400778,-0.122823,15,1
-1.49766,-1.71499,0.119326,1,9
-0.382245,-0.437713,-0.112959,16,2
-1.48906,-1.70454,0.198018,1,10
-1.51164,-1.72917,0.282006,1,11
-1.55687,-1.77965,0.374504,1,12
-1.45206,-1.65809,0.508839,1,14
-1.09106,-1.24543,-0.0289012,223,7
-1.42604,-1.62723,0.579755,1,15
-1.11941,-1.27375,0.0295993,191,8
-0.351264,-0.399555,-0.122823,15,1
-1.501,-1.70675,0.119117,1,9
-1.50027,-1.70532,0.198715,1,10
-1.52029,-1.72686,0.282493,1,11
-1.55262,-1.76235,0.372001,1,12
-1.45784,-1.65301,0.508839,1,14
-1.09275,-1.23861,-0.0288314,179,7
-1.40359,-1.59038,0.568367,1,15
-1.12385,-1.26984,0.0295993,214,8
-1.44339,-1.62973,0.114092,1,9
-1.49828,-1.69112,0.197669,1,10
-1.51314,-1.70669,0.280056,1,11
-1.54828,-1.74509,0.369498,1,12
-1.4843,-1.67122,0.516038,1,14
-1.44507,-1.6259,0.582861,1,15
-1.13094,-1.26889,0.0296691,220,8
-0.335889,-0.376729,-0.116525,16,1
-1.34537,-1.50842,0.105928,1,9
-1.52805,-1.71264,0.200807,1,10
-1.53231,-1.7162,0.282493,1,11
-1.53067,-1.71316,0.363867,1,12
-1.50312,-1.68056,0.520537,1,14
-1.44816,-1.61797,0.581825,1,15
-0.3406,-0.379605,-0.136656,14,0
-1.13803,-1.26792,0.0297389,214,8
-1.36131,-1.5156,0.106765,2,9
-1.51538,-1.68655,0.198366,1,10
-1.53829,-1.71084,0.282493,1,11
-1.54192,-1.71368,0.365118,1,12
-1.55246,-1.72479,0.451072,1,13
-1.50898,-1.6753,0.520537,1,14
-1.09763,-1.21819,-0.0286219,15,7
-1.44604,-1.60429,0.578719,1,15
-1.13173,-1.25207,0.0294597,182,8
-0.330669,-0.365702,-0.113825,16,1
-1.37463,-1.51973,0.107393,3,9
-1.52126,-1.68125,0.198366,1,10
-1.54425,-1.70546,0.282493,1,11
-1.5479,-1.70829,0.365118,1,12
-1.57693,-1.73972,0.456415,1,13
-1.09247,-1.20398,-0.0283776,23,7
-1.46461,-1.61354,0.583896,1,15
-1.37293,-1.50778,0.10687,4,9
-1.49223,-1.63764,0.193834,1,10
-1.54485,-1.6942,0.281518,1,11
-1.56687,-1.71774,0.368247,1,12
-1.57241,-1.72261,0.453362,1,13
-1.46474,-1.60297,0.581825,1,15
-0.341051,-0.372062,-0.116525,16,1
-1.37684,-1.5015,0.106765,3,9
-1.49794,-1.63242,0.193834,1,10
-1.55851,-1.69784,0.282981,1,11
-1.56751,-1.70644,0.366995,1,12
-1.57545,-1.71449,0.452599,1,13
-1.12907,-1.22743,-0.0291106,1,7
-1.48864,-1.61775,0.589072,1,15
-0.345802,-0.374873,-0.136656,14,0
-0.360853,-0.390916,-0.122823,15,1
-1.3642,-1.47785,0.105405,4,9
-1.48712,-1.60988,0.191743,1,10
-1.55365,-1.68073,0.281031,1,11
-1.55438,-1.68093,0.362615,1,12
-1.59476,-1.72339,0.456415,1,13
-1.47562,-1.59296,0.581825,1,15
-0.328701,-0.353848,-0.12941,15,0
-1.14731,-1.23508,0.0294248,5,8
-0.362148,-0.389717,-0.122823,15,1
-1.38159,-1.48625,0.106347,4,9
-1.4683,-1.57842,0.188605,1,10
-1.57814,-1.69591,0.284443,1,11
-1.57639,-1.69284,0.36637,1,12
-1.58441,-1.70086,0.451836,1,13
-0.610977,-0.655193,-0.0156374,3,7
-1.49962,-1.60758,0.589072,1,15
-0.329873,-0.352756,-0.12941,15,0
-1.14751,-1.22669,0.02932,4,8
-1.38404,-1.4785,0.106137,4,9
-1.24201,-1.32631,0.158972,1,10
-1.5379,-1.64114,0.276156,1,11
-1.58229,-1.68733,0.36637,1,12
-1.58765,-1.69245,0.451072,1,13
-1.50522,-1.60234,0.589072,1,15
-0.349709,-0.371232,-0.136656,14,0
-1.15179,-1.22267,0.02932,4,8
-0.36486,-0.387179,-0.122823,15,1
-1.38371,-1.46784,0.105719,4,9
-1.17987,-1.25074,0.150431,2,10
-1.54362,-1.63576,0.276156,1,11
-1.5936,-1.68754,0.367621,1,12
-1.59115,-1.68377,0.450309,1,13
-1.49753,-1.58304,0.583896,1,15
-1.15351,-1.21554,0.0292502,4,8
-0.366276,-0.38584,-0.122823,15,1
-1.38771,-1.46131,0.105614,2,9
-1.18972,-1.25239,0.151128,2,10
-1.5562,-1.63589,0.357609,1,12
-1.60243,-1.68389,0.451836,1,13
-1.60326,-1.68359,0.536733,1,14
-1.51665,-1.59152,0.589072,1,15
-0.33361,-0.349225,-0.12941,15,0
-1.15636,-1.21006,0.0292153,4,8
-1.38866,-1.45213,0.1053,1,9
-1.1872,-1.24103,0.150256,1,10
-1.17916,-1.23177,0.209372,1,11
-1.55097,-1.61904,0.355106,1,12
-1.61101,-1.68112,0.452599,1,13
-1.61992,-1.68923,0.540332,1,14
-1.51149,-1.57507,0.584931,1,15
-1.16751,-1.21322,0.0293899,2,8
-1.194,-1.24032,0.0902272,1,9
-1.16111,-1.20531,0.146422,1,10
-1.19172,-1.23622,0.210834,1,11
-1.52891,-1.58545,0.348849,1,12
-1.59233,-1.65006,0.44573,1,13
-1.62551,-1.68385,0.540332,1,14
-1.48181,-1.53392,0.571472,1,15
-1.15483,-1.19211,0.028971,2,8
-0.351244,-0.362455,-0.116525,16,1
-1.14251,-1.17898,0.0860403,1,9
-1.13182,-1.16713,0.142238,1,10
-1.1737,-1.20947,0.206934,1,11
-1.58138,-1.62787,0.44115,1,13
-1.63923,-1.68684,0.543032,1,14
-1.53268,-1.57609,0.589072,1,15
-0.337128,-0.34583,-0.12941,15,0
-1.15878,-1.18827,0.028971,2,8
-1.14104,-1.16927,0.0856216,1,9
-1.1329,-1.16052,0.14189,2,10
-1.14302,-1.17007,0.200841,2,11
-1.58677,-1.62262,0.44115,1,13
-1.64511,-1.68111,0.543032,1,14
-1.53817,-1.57073,0.589072,1,15
-1.17413,-1.19564,0.0292502,2,8
-1.13672,-1.15673,0.0849936,1,9
-1.13973,-1.1594,0.142238,2,10
-1.15824,-1.1774,0.202791,5,11
-1.25968,-1.27963,0.284398,1,12
-1.59242,-1.61707,0.44115,1,13
-1.61541,-1.63927,0.531334,1,14
-1.1572,-1.1702,0.0287267,1,8
-1.13212,-1.14444,0.0843656,1,9
-1.13536,-1.14692,0.141192,3,10
-1.16653,-1.17758,0.203522,6,11
-1.18605,-1.19687,0.266877,1,12
-1.59806,-1.6115,0.44115,1,13
-1.61014,-1.62255,0.527735,1,14
-1.61688,-1.62878,0.614954,1,15
-1.17095,-1.17628,0.028971,2,8
-0.356145,-0.35764,-0.116525,16,1
-1.12765,-1.13199,0.0837375,1,9
-1.12811,-1.13166,0.139798,4,10
-1.17604,-1.17932,0.204497,6,11
-1.18743,-1.18992,0.266251,1,12
-1.58952,-1.5923,0.437334,1,13
-1.60449,-1.60617,0.524136,1,14
-1.16089,-1.15806,0.0286219,3,8
-0.349112,-0.348139,-0.113825,16,1
-1.13442,-1.13086,0.0839469,1,9
-1.14032,-1.13635,0.140844,4,10
-1.18436,-1.17941,0.205228,8,11
-1.18318,-1.17741,0.264374,2,12
-1.59229,-1.58397,0.436571,1,13
-1.62667,-1.61705,0.529535,1,14
-1.15214,-1.14134,0.0283078,3,8
-1.13552,-1.12409,0.0837375,2,9
-1.1457,-1.13376,0.141018,2,10
-1.18142,-1.16829,0.204009,8,11
-1.19571,-1.1816,0.266251,2,12
-1.61457,-1.59496,0.44115,1,13
-1.62399,-1.60315,0.526835,1,14
-1.1604,-1.14151,0.0284125,3,8
-0.359871,-0.353891,-0.116525,16,1
-1.14494,-1.12592,0.0841562,2,9
-1.13117,-1.1116,0.138752,1,10
-1.17982,-1.1586,0.203034,6,11
-1.20244,-1.1804,0.266877,2,12
-1.60611,-1.57557,0.437334,1,13
-1.63236,-1.6002,0.527735,1,14
-1.18134,-1.15443,0.0288314,3,8
-0.361042,-0.352696,-0.116525,16,1
-1.136,-1.10936,0.0832142,2,9
-1.14075,-1.11321,0.139449,1,10
-1.18508,-1.15607,0.203278,5,11
-1.191,-1.16103,0.263436,3,12
-1.59727,-1.55653,0.433518,1,13
-1.62648,-1.5839,0.524136,1,14
-1.17245,-1.13777,0.0285172,3,8
-0.380455,-0.369073,-0.122373,15,1
-1.14111,-1.10697,0.0833189,2,9
-1.12727,-1.09278,0.137357,2,10
-1.18055,-1.14364,0.201816,2,11
-1.18916,-1.15158,0.262184,4,12
-1.63091,-1.57825,0.44115,1,13
-1.63761,-1.58363,0.525936,1,14
-1.17045,-1.12832,0.0283776,4,8
-1.14641,-1.10437,0.0834235,2,9
-1.13251,-1.09022,0.137532,2,10
-1.17862,-1.13421,0.200841,2,11
-1.20172,-1.15563,0.264061,4,12
-1.63613,-1.57283,0.44115,1,13
-1.64847,-1.58359,0.527735,1,14
-1.18036,-1.12955,0.0285172,3,8
-0.383022,-0.366408,-0.122373,15,1
-1.16488,-1.11396,0.0844702,2,9
-1.15215,-1.10141,0.139449,2,10
-1.18133,-1.12851,0.200597,5,11
-1.21166,-1.15668,0.265313,4,12
-1.61632,-1.54243,0.434281,1,13
-1.65426,-1.57754,0.527735,1,14
-1.59152,-1.51665,0.589072,1,15
-1.18285,-1.12405,0.0284823,2,8
-0.384299,-0.365069,-0.122373,15,1
-1.15718,-1.09889,0.0836329,2,9
-1.1401,-1.08229,0.137532,2,10
-1.19102,-1.12984,0.201572,6,11
-1.20422,-1.14157,0.26281,3,12
-1.61314,-1.52868,0.431992,1,13
-1.63712,-1.55031,0.520537,1,14
-1.73713,-1.64387,0.640836,1,15
-1.20567,-1.13776,0.0289361,1,8
-0.385571,-0.363725,-0.122373,15,1
-1.1521,-1.08682,0.0830048,2,9
-1.15547,-1.08924,0.138926,2,10
-1.19207,-1.12296,0.201084,6,11
-1.21951,-1.1484,0.265313,3,12
-1.63277,-1.53649,0.435808,1,13
-1.64225,-1.54488,0.520537,1,14
-1.67219,-1.57194,0.614954,1,15
-1.22402,-1.14743,0.0292851,1,8
-0.386775,-0.362444,-0.122373,15,1
-1.15715,-1.08436,0.0831095,1,9
-1.16925,-1.09493,0.140146,2,10
-1.21028,-1.13256,0.203522,5,11
-1.20888,-1.13086,0.262184,4,12
-1.63785,-1.53107,0.435808,1,13
-1.6616,-1.55273,0.525036,1,14
-1.67739,-1.56639,0.614954,1,15
-1.23075,-1.14609,0.0293549,1,8
-0.387975,-0.36116,-0.122373,15,1
-1.17555,-1.09392,0.0841562,1,9
-1.17871,-1.09648,0.140844,4,10
-1.20822,-1.12314,0.202547,6,11
-1.2244,-1.13739,0.264687,3,12
-1.65155,-1.53364,0.438097,1,13
-1.6613,-1.54162,0.523236,1,14
-1.66585,-1.54476,0.608742,1,15
-1.25823,-1.16351,0.0299134,1,8
-0.389233,-0.359803,-0.122373,15,1
-1.17936,-1.08981,0.0841562,2,9
-1.18272,-1.09215,0.140844,4,10
-1.20629,-1.11353,0.201572,5,11
-1.23708,-1.14114,0.266564,3,12
-1.66871,-1.53822,0.44115,1,13
-1.66694,-1.53552,0.523236,1,14
-1.69681,-1.56249,0.61806,1,15
-1.25071,-1.14807,0.0296342,1,8
-0.390549,-0.358374,-0.122373,15,1
-1.18022,-1.08299,0.0839469,2,9
-1.1924,-1.0934,0.141541,4,10
-1.19866,-1.09837,0.199622,4,11
-1.23086,-1.12748,0.264374,2,12
-1.68065,-1.53787,0.525936,1,14
-1.6937,-1.54873,0.614954,1,15
-1.26928,-1.15739,0.0299832,1,8
-1.19266,-1.08714,0.0845749,2,9
-1.19897,-1.09212,0.14189,4,10
-1.20229,-1.09439,0.199622,5,11
-1.23751,-1.12605,0.265,1,12
-1.75177,-1.59287,0.460231,1,13
-1.68574,-1.53229,0.525936,1,14
-1.69025,-1.53532,0.611848,1,15
-1.32647,-1.2015,0.0312398,1,8
-0.392917,-0.355776,-0.122373,15,1
-1.19644,-1.08297,0.0845749,2,9
-1.18781,-1.07477,0.140146,3,10
-1.20444,-1.08906,0.199378,4,11
-1.23557,-1.11642,0.263749,1,12
-1.75704,-1.58705,0.460231,1,13
-1.68529,-1.52118,0.524136,1,14
-1.70421,-1.53717,0.614954,1,15
-1.44216,-1.29716,0.0338577,2,8
-0.394157,-0.354403,-0.122373,15,1
-1.2329,-1.10816,0.0868777,2,9
-1.19007,-1.06929,0.139972,2,10
-1.22153,-1.09679,0.201572,2,11
-1.26298,-1.13321,0.268754,1,12
-1.75154,-1.56991,0.543032,1,14
-1.69517,-1.51832,0.609778,1,15
-1.41983,-1.26814,0.0332294,2,8
-0.395392,-0.353025,-0.122373,15,1
-1.2457,-1.11183,0.0875057,1,9
-1.20569,-1.07574,0.141367,2,10
-1.20609,-1.07534,0.198403,3,11
-1.70623,-1.51753,0.611848,1,15
-1.4452,-1.28175,0.033718,3,8
-0.396621,-0.351642,-0.122373,15,1
-1.34822,-1.19491,0.0944141,1,9
-1.21838,-1.07945,0.142412,2,10
-1.24551,-1.10271,0.204253,1,11
-1.70283,-1.50389,0.608742,1,15
-1.45116,-1.27802,0.033753,2,8
-0.397847,-0.350256,-0.122373,15,1
-1.45112,-1.27753,0.101322,2,9
-1.25655,-1.10546,0.146422,1,10
-1.25531,-1.1036,0.205228,1,11
-1.70491,-1.49569,0.607707,1,15
-1.4584,-1.27584,0.0338228,1,8
-1.47963,-1.29349,0.102997,3,9
-1.28441,-1.12204,0.149211,1,10
-1.2799,-1.11771,0.20864,1,11
-1.69846,-1.47958,0.603566,1,15
-1.44775,-1.25762,0.0334737,1,8
-1.49167,-1.29487,0.103521,4,9
-1.29715,-1.12561,0.150256,1,10
-1.73576,-1.50144,0.614954,1,15
-1.47333,-1.27085,0.0339624,1,8
-1.50677,-1.29878,0.104253,4,9
-1.29503,-1.11587,0.149559,1,10
-1.45346,-1.24489,0.0334039,1,8
-1.5022,-1.28572,0.103625,4,9
-1.31103,-1.12171,0.150954,2,10
-2.93915,-2.51116,0.612285,1,12
-1.52177,-1.29422,0.0348699,1,8
-1.50667,-1.28047,0.103625,4,9
-1.31646,-1.11842,0.151128,2,10
-2.92066,-2.47953,0.470416,1,11
-2.86053,-2.42676,0.594138,5,12
-1.48656,-1.25535,0.0339624,1,8
-1.51396,-1.27804,0.103835,2,9
-2.9293,-2.46932,0.470416,1,11
-2.87913,-2.42618,0.596328,10,12
-2.56797,-2.16243,0.652567,1,13
-2.33651,-1.96613,0.704997,1,14
-2.12589,-1.78826,0.744364,1,15
-1.48152,-1.2427,0.033753,1,8
-1.51842,-1.27275,0.103835,1,9
-2.91729,-2.44356,0.332935,1,10
-2.93747,-2.45959,0.470416,1,11
-2.8891,-2.41738,0.596641,11,12
-2.57061,-2.15012,0.651422,2,13
-2.34601,-1.96087,0.705896,1,14
-2.08912,-1.74492,0.729352,2,15
-1.47048,-1.22473,0.0334039,1,8
-1.55355,-1.29299,0.105928,1,9
-2.92537,-2.43387,0.332935,1,10
-2.94604,-2.44932,0.470416,1,11
-2.89296,-2.40349,0.595703,10,12
-2.58112,-2.14365,0.652185,2,13
-2.37083,-1.9676,0.711295,1,14
-2.11602,-1.75488,0.736599,2,15
-1.48708,-1.22978,0.0336831,1,8
-2.90981,-2.40464,0.19783,0,9
-2.93385,-2.42365,0.332935,1,10
-2.95457,-2.43902,0.470416,1,11
-2.90591,-2.39715,0.596641,10,12
-2.58404,-2.13088,0.65104,1,13
-2.35061,-1.93701,0.703197,1,14
-2.1281,-1.7524,0.73867,2,15
-1.49754,-1.22966,0.0338228,1,8
-2.89039,-2.37166,0.195946,0,9
-2.9423,-2.41339,0.332935,1,10
-2.96306,-2.4287,0.470416,1,11
-2.89745,-2.37322,0.5932,10,12
-2.64311,-2.16413,0.664015,1,13
-2.34831,-1.92139,0.700498,1,14
-2.14317,-1.75229,0.741775,2,15
-2.91414,-2.37417,0.196993,1,9
-2.9507,-2.40311,0.332935,1,10
-2.97152,-2.41834,0.470416,1,11
-2.90571,-2.36309,0.5932,10,12
-2.36559,-1.92178,0.703647,1,14
-2.14328,-1.73993,0.739705,2,15
-2.91889,-2.36198,0.196783,0,9
-2.95865,-2.39331,0.332935,1,10
-2.97953,-2.40847,0.470416,1,11
-2.92583,-2.36338,0.595703,10,12
-2.38105,-1.92127,0.706346,1,14
-2.15204,-1.73524,0.74074,2,15
-2.93646,-2.35929,0.197411,0,9
-2.96699,-2.38297,0.332935,1,10
-2.98792,-2.39806,0.470416,1,11
-2.93868,-2.35686,0.596641,11,12
-2.61317,-2.09504,0.65104,1,13
-2.40295,-1.92513,0.710845,1,14
-2.13094,-1.70599,0.731423,2,15
-2.93178,-2.33957,0.196574,0,9
-2.97529,-2.37259,0.332935,1,10
-2.99627,-2.38761,0.470416,1,11
-2.93876,-2.34094,0.595077,10,12
-2.6174,-2.08347,0.650277,2,13
-2.39593,-1.90581,0.706796,1,14
-2.15624,-1.71454,0.738152,2,15
-2.94932,-2.33676,0.197202,0,9
-2.98355,-2.36219,0.332935,1,10
-3.00417,-2.37766,0.470416,1,11
-2.93916,-2.32454,0.593512,11,12
-2.61659,-2.06869,0.648369,2,13
-2.38695,-1.88577,0.702297,1,14
-2.15463,-1.70102,0.735564,2,15
-0.416549,-0.327792,-0.122373,15,1
-2.9449,-2.31657,0.196365,0,9
-2.99137,-2.35229,0.332935,1,10
-3.01245,-2.36716,0.470416,1,11
-2.94415,-2.31183,0.592887,10,12
-2.63152,-2.0656,0.650277,2,13
-2.39658,-1.87984,0.703197,1,14
-2.14231,-1.67918,0.729352,2,15
-2.95297,-2.30628,0.196365,0,9
-2.99997,-2.34131,0.332935,1,10
-3.02069,-2.35663,0.470416,1,11
-2.95843,-2.3064,0.594138,11,12
-2.64062,-2.05715,0.650659,2,13
-2.41114,-1.87703,0.705446,1,14
-2.14206,-1.66695,0.727282,2,15
-0.418884,-0.324803,-0.122373,15,1
-2.95153,-2.28862,0.195736,1,9
-3.00813,-2.33082,0.332935,1,10
-3.02931,-2.34554,0.470416,1,11
-2.96178,-2.29243,0.5932,10,12
-2.64623,-2.04672,0.650277,2,13
-2.42539,-1.87456,0.707696,1,14
-2.17844,-1.68309,0.737634,2,15
-0.419959,-0.323412,-0.122373,15,1
-2.95,-2.27099,0.195108,0,9
-3.01624,-2.32031,0.332935,1,10
-3.03707,-2.33549,0.470416,1,11
-2.96976,-2.28208,0.5932,10,12
-2.63744,-2.02597,0.646461,2,13
-2.41304,-1.85226,0.702297,1,14
-2.19044,-1.68017,0.739705,2,15
-0.421085,-0.321944,-0.122373,15,1
-2.95117,-2.25634,0.19469,0,9
-3.02392,-2.31029,0.332935,1,10
-3.04521,-2.32487,0.470416,1,11
-2.96946,-2.26622,0.591635,11,12
-2.66791,-2.03461,0.652185,2,13
-2.4195,-1.84383,0.702297,1,14
-2.18678,-1.66588,0.736599,2,15
-0.422151,-0.320546,-0.122373,15,1
-2.95267,-2.2412,0.194271,0,9
-2.9907,-2.26842,0.328403,1,10
-3.0529,-2.31476,0.470416,1,11
-2.97736,-2.25585,0.591635,11,12
-2.67464,-2.02575,0.652185,2,13
-2.43647,-1.84403,0.705446,1,14
-2.19258,-1.65823,0.736599,2,15
-0.423267,-0.31907,-0.122373,15,1
-2.9828,-2.2477,0.195736,0,9
-3.03958,-2.28966,0.332935,1,10
-3.06096,-2.30409,0.470416,1,11
-2.98679,-2.24663,0.591948,11,12
-2.66444,-2.00343,0.647987,2,13
-2.44757,-1.83902,0.706796,1,14
-2.17827,-1.63549,0.72987,2,15
-0.424378,-0.317591,-0.122373,15,1
-3.00023,-2.24446,0.196365,0,9
-3.04795,-2.2785,0.332935,1,10
-2.9962,-2.23737,0.592261,10,12
-2.67648,-1.99717,0.649132,2,13
-2.44492,-1.82305,0.704097,1,14
-2.19791,-1.63827,0.734528,2,15
-0.425539,-0.316033,-0.122373,15,1
-2.97957,-2.21202,0.19448,0,9
-3.05588,-2.26785,0.332935,1,10
-3.00597,-2.22755,0.592574,11,12
-2.68659,-1.99015,0.649895,2,13
-2.43717,-1.80407,0.700048,1,14
-2.19302,-1.62216,0.730905,2,15
-0.42664,-0.314546,-0.122373,15,1
-2.99049,-2.20397,0.19469,0,9
-3.06378,-2.25716,0.332935,1,10
-3.00259,-2.20885,0.590384,11,12
-2.68878,-1.97727,0.648751,2,13
-2.45131,-1.80132,0.702297,1,14
-2.21269,-1.62479,0.735564,2,15
-0.396284,-0.290036,-0.113375,16,1
-2.98488,-2.18461,0.193852,0,9
-3.09323,-2.26059,0.470416,1,11
-3.00511,-2.19538,0.589445,11,12
-2.69566,-1.96787,0.648751,2,13
-2.44971,-1.78701,0.700048,1,14
-2.21806,-1.61744,0.735564,2,15
-0.397244,-0.28872,-0.113375,16,1
-3.02158,-2.1953,0.195736,0,9
-3.07947,-2.23572,0.332935,1,10
-3.05894,-2.22,0.464078,1,11
-3.02075,-2.19068,0.591009,10,12
-2.69423,-1.95316,0.646843,2,13
-2.44773,-1.77316,0.697798,1,14
-2.21118,-1.60063,0.731423,2,15
-0.429856,-0.310136,-0.122373,15,1
-3.0418,-2.19462,0.196574,0,9
-3.08686,-2.2255,0.332935,1,10
-3.10854,-2.23948,0.470416,1,11
-3.0312,-2.18296,0.591635,11,12
-2.7074,-1.94833,0.648369,2,13
-2.47922,-1.78281,0.704997,1,14
-2.22275,-1.59779,0.733493,2,15
-3.00722,-2.15375,0.193852,0,9
-3.09461,-2.21471,0.332935,1,10
-3.0372,-2.17121,0.591322,11,12
-2.70746,-1.93478,0.646843,2,13
-2.47719,-1.76892,0.702747,1,14
-2.2173,-1.58217,0.72987,2,15
-0.400196,-0.284615,-0.113375,16,1
-3.00658,-2.13746,0.193329,1,9
-3.10194,-2.20443,0.332935,1,10
-3.12371,-2.21827,0.470416,1,11
-3.03348,-2.1526,0.589132,11,12
-2.7222,-1.931,0.648751,2,13
-2.46745,-1.74899,0.698248,1,14
-2.23385,-1.58224,0.733493,2,15
-3.01566,-2.1281,0.193434,1,9
-3.10962,-2.19359,0.332935,1,10
-3.13144,-2.20735,0.470416,1,11
-3.04421,-2.14427,0.589758,10,12
-2.7209,-1.91583,0.646843,2,13
-2.48469,-1.74822,0.701397,1,14
-2.22987,-1.56776,0.730387,2,15
-3.05214,-2.13872,0.195318,1,9
-3.07482,-2.15301,0.328403,1,10
-3.13913,-2.19641,0.470416,1,11
-3.05939,-2.13982,0.591322,11,12
-2.73401,-1.91082,0.648369,2,13
-2.49078,-1.73953,0.701397,1,14
-2.22239,-1.55151,0.726246,2,15
-3.03335,-2.10981,0.193643,1,9
-3.08232,-2.14227,0.328403,1,10
-3.14639,-2.18599,0.470416,1,11
-3.05873,-2.1235,0.589758,10,12
-2.73549,-1.89838,0.647224,2,13
-2.48853,-1.72571,0.699148,1,14
-2.24526,-1.55585,0.73194,1,15
-3.02718,-2.09066,0.192806,1,9
-3.13204,-2.16146,0.332935,1,10
-3.154,-2.17499,0.470416,1,11
-3.06738,-2.11447,0.590071,10,12
-2.73725,-1.88548,0.646079,2,13
-2.49614,-1.71812,0.699598,1,14
-2.22971,-1.53416,0.725211,2,15
-3.04435,-2.08685,0.193434,0,9
-3.13956,-2.15051,0.332935,1,10
-3.1612,-2.16452,0.470416,1,11
-3.06659,-2.09817,0.588507,10,12
-2.75321,-1.88305,0.648369,2,13
-2.49539,-1.70543,0.697798,1,14
-2.2526,-1.53835,0.730905,2,15
-3.05786,-2.08124,0.193852,1,9
-3.08737,-2.09975,0.32666,1,10
-3.16873,-2.15347,0.470416,1,11
-3.07353,-2.08799,0.588507,11,12
-2.75489,-1.87012,0.647224,2,13
-2.50939,-1.70218,0.700048,1,14
-2.2497,-1.52545,0.728317,2,15
-3.07172,-2.07502,0.194271,1,9
-3.15413,-2.12909,0.332935,1,10
-3.17586,-2.14295,0.470416,1,11
-3.07425,-2.07283,0.587255,10,12
-2.74806,-1.85219,0.644171,2,13
-2.51179,-1.69167,0.699148,1,14
-2.2486,-1.51328,0.726246,2,15
-3.07729,-2.06318,0.194166,1,9
-3.09828,-2.07647,0.326311,1,10
-3.18332,-2.13185,0.470416,1,11
-3.09132,-2.06868,0.589132,11,12
-2.75777,-1.84477,0.644934,2,13
-2.52902,-1.69048,0.702297,1,14
-2.25226,-1.50434,0.725729,2,15
-0.410418,-0.273198,-0.113825,16,1
-3.07449,-2.04578,0.193538,1,9
-3.08596,-2.05186,0.324219,1,10
-3.14941,-2.09326,0.464322,1,11
-3.09523,-2.05569,0.588507,10,12
-2.78741,-1.84985,0.650277,2,13
-2.52546,-1.67473,0.699598,1,14
-2.28326,-1.51355,0.734011,2,15
-3.07364,-2.029,0.193015,1,9
-3.0931,-2.04108,0.324219,1,10
-3.0912,-2.03672,0.586316,11,12
-2.78893,-1.83687,0.649132,2,13
-2.52803,-1.66377,0.698698,1,14
-2.26942,-1.49244,0.727799,2,15
-3.0807,-2.01826,0.193015,0,9
-3.14021,-2.05646,0.328403,1,10
-3.2075,-2.09893,0.470659,1,11
-3.09994,-2.027,0.586629,10,12
-2.78218,-1.81853,0.646079,2,13
-2.53056,-1.6528,0.697798,1,14
-2.28109,-1.48873,0.72987,1,15
-3.0924,-2.0113,0.193329,1,9
-3.19081,-2.07372,0.332935,1,10
-3.2148,-2.08772,0.470659,1,11
-3.11824,-2.02424,0.588819,11,12
-2.80169,-1.81735,0.649132,2,13
-2.54257,-1.64864,0.699598,1,14
-2.2617,-1.4654,0.722105,2,15
-0.414192,-0.267441,-0.113825,16,1
-3.07892,-1.98803,0.192073,1,9
-3.11396,-2.00912,0.324219,1,10
-3.11996,-2.01068,0.587881,11,12
-2.78954,-1.79636,0.644934,2,13
-2.53655,-1.63282,0.696449,1,14
-2.27629,-1.46416,0.725211,2,15
-3.09761,-1.98482,0.192806,1,9
-3.20449,-2.05251,0.332935,1,10
-3.22858,-2.06635,0.470659,1,11
-3.12696,-1.99977,0.587881,11,12
-2.78887,-1.78287,0.643408,2,13
-2.55373,-1.6313,0.699598,1,14
-2.2993,-1.46764,0.730905,2,15
-3.09441,-1.96756,0.192178,1,9
-3.1511,-2.00284,0.32666,1,10
-3.23577,-2.05507,0.470659,1,11
-3.12892,-1.98567,0.586942,11,12
-2.80171,-1.77733,0.644934,2,13
-2.53801,-1.60881,0.693749,1,14
-2.28646,-1.44823,0.725211,2,15
-3.11105,-1.96368,0.192806,1,9
-3.21874,-2.03009,0.332935,1,10
-3.13047,-1.97213,0.586004,11,12
-2.81952,-1.77486,0.647606,2,13
-2.5733,-1.61861,0.701847,1,14
-2.28961,-1.43962,0.724693,1,15
-3.12635,-1.95811,0.193329,1,9
-3.16163,-1.97868,0.326311,1,10
-3.24969,-2.033,0.470659,1,11
-3.14236,-1.96433,0.586942,11,12
-2.81207,-1.75718,0.644553,2,13
-2.57701,-1.60904,0.701397,1,14
-2.30446,-1.43775,0.727799,2,15
-0.431946,-0.268549,-0.117424,16,1
-3.13147,-1.94613,0.193224,0,9
-3.17156,-1.97028,0.32666,1,10
-3.25676,-2.02164,0.470659,1,11
-3.15759,-1.95855,0.588507,10,12
-2.81318,-1.74425,0.643408,2,13
-2.5677,-1.5908,0.697348,1,14
-2.30782,-1.42868,0.727282,2,15
-3.12124,-1.92471,0.192178,1,9
-3.17876,-1.95865,0.32666,1,10
-3.2638,-2.01026,0.470659,1,11
-3.16104,-1.94545,0.587881,11,12
-0.427637,-0.263084,-0.0439265,12,5
-2.82625,-1.73804,0.644934,2,13
-0.479819,-0.294956,-0.0295175,16,6
-2.56853,-1.57832,0.695999,1,14
-2.31609,-1.42264,0.728317,2,15
-3.12657,-1.91221,0.192073,1,9
-3.24677,-1.98495,0.332935,1,10
-3.27114,-1.99828,0.470659,1,11
-3.15804,-1.92767,0.586004,11,12
-2.83397,-1.72919,0.645316,2,13
-2.57901,-1.57238,0.697348,1,14
-2.31963,-1.41313,0.727799,2,15
-3.16031,-1.91924,0.064539,1,8
-3.16908,-1.92305,0.194271,1,9
-3.16851,-1.92194,0.324219,1,10
-3.2781,-1.98685,0.470659,1,11
-3.15799,-1.91254,0.584752,11,12
-2.83831,-1.71827,0.644934,2,13
-2.57615,-1.55833,0.695099,1,14
-2.3229,-1.40403,0.727282,2,15
-3.18412,-1.91851,0.064888,1,8
-0.455731,-0.274481,-0.122823,15,1
-3.16176,-1.90428,0.193434,1,9
-3.1752,-1.91087,0.324219,1,10
-3.28502,-1.9754,0.470659,1,11
-3.18463,-1.91427,0.588507,11,12
-2.83083,-1.70026,0.641881,2,13
-2.58465,-1.55178,0.695999,1,14
-2.32092,-1.39234,0.725211,2,15
-3.15271,-1.88536,0.0641201,1,8
-0.433221,-0.25897,-0.116525,16,1
-3.16291,-1.89071,0.19312,1,9
-3.20546,-1.91463,0.32666,1,10
-3.29155,-1.96449,0.470659,1,11
-3.18078,-1.89763,0.586629,11,12
-2.83139,-1.68785,0.640737,2,13
-0.48384,-0.288312,-0.0295175,16,6
-2.5948,-1.5462,0.697348,1,14
-2.32054,-1.38167,0.723658,1,15
-3.17958,-1.88715,0.064539,1,8
-0.457541,-0.271452,-0.122823,15,1
-3.13685,-1.86031,0.191131,1,9
-3.22893,-1.91415,0.328403,1,10
-3.29804,-1.95357,0.470659,1,11
-3.19588,-1.89155,0.588194,10,12
-2.84711,-1.68445,0.643026,2,13
-0.484793,-0.286706,-0.0295175,16,6
-2.59683,-1.53515,0.696449,1,14
-2.32701,-1.37455,0.724176,2,15
-3.13445,-1.8456,0.0634919,1,8
-0.458486,-0.269853,-0.122823,15,1
-3.1571,-1.85745,0.191968,1,9
-3.19438,-1.87863,0.324219,1,10
-3.30484,-1.94204,0.470659,1,11
-3.18373,-1.86938,0.584752,11,12
-2.85805,-1.67748,0.644171,2,13
-0.485791,-0.285012,-0.0295175,16,6
-2.60217,-1.52607,0.696449,1,14
-2.34513,-1.37423,0.728317,2,15
-3.19268,-1.8649,0.064539,1,8
-3.16669,-1.84898,0.192178,1,9
-3.22156,-1.87952,0.326311,1,10
-3.3116,-1.9305,0.470659,1,11
-3.19503,-1.86179,0.585691,10,12
-0.433849,-0.252709,-0.0439265,12,5
-2.87577,-1.67441,0.646843,2,13
-2.60074,-1.51306,0.694649,1,14
-2.33465,-1.35771,0.723658,2,15
-3.19884,-1.85431,0.064539,1,8
-3.18522,-1.84492,0.19291,1,9
-3.20741,-1.85628,0.324219,1,10
-3.31799,-1.9195,0.470659,1,11
-3.20493,-1.85261,0.586316,11,12
-2.86431,-1.65504,0.643026,2,13
-2.61587,-1.51027,0.697348,1,14
-2.34606,-1.35341,0.725729,2,15
-3.2053,-1.84313,0.064539,1,8
-0.42745,-0.245695,-0.113825,16,1
-3.20691,-1.84331,0.193852,1,9
-3.23428,-1.85754,0.326311,1,10
-3.32467,-1.90791,0.470659,1,11
-3.21963,-1.84688,0.587881,11,12
-0.480498,-0.275518,-0.0484586,11,5
-2.86496,-1.64211,0.641881,2,13
-0.4887,-0.279994,-0.0295175,16,6
-2.6262,-1.50404,0.698698,1,14
-2.3321,-1.33507,0.720035,2,15
-3.19402,-1.82258,0.06419,1,8
-3.16995,-1.80737,0.191236,1,9
-3.2546,-1.85413,0.327706,1,10
-3.33097,-1.89687,0.470659,1,11
-3.22262,-1.83368,0.587255,10,12
-2.88233,-1.63939,0.644553,2,13
-0.489626,-0.278372,-0.0295175,16,6
-2.60576,-1.48088,0.691949,1,14
-2.36026,-1.34027,0.727282,2,15
-3.19688,-1.80945,0.0641201,1,8
-3.19883,-1.80908,0.192596,1,9
-3.21216,-1.81588,0.322825,1,10
-3.33758,-1.88524,0.470659,1,11
-3.2118,-1.81271,0.584126,10,12
-0.482362,-0.272241,-0.0484586,11,5
-2.89317,-1.63221,0.645698,2,13
-2.61431,-1.47369,0.692849,1,14
-2.36661,-1.33297,0.727799,1,15
-3.18226,-1.78653,0.0637013,1,8
-3.20339,-1.79692,0.192492,1,9
-3.27409,-1.83583,0.328403,1,10
-3.34414,-1.87357,0.470659,1,11
-3.22155,-1.80342,0.584752,10,12
-2.88171,-1.61252,0.641881,2,13
-0.491557,-0.274947,-0.0295175,16,6
-2.63134,-1.47121,0.695999,1,14
-2.34595,-1.31057,0.720035,2,15
-3.18498,-1.77346,0.0636315,1,8
-3.22155,-1.79309,0.193224,1,9
-3.22476,-1.79341,0.322825,1,10
-3.35066,-1.86189,0.470659,1,11
-3.22924,-1.79368,0.585065,11,12
-2.87188,-1.59387,0.638447,2,13
-2.64157,-1.46485,0.697348,1,14
-2.3638,-1.31028,0.724176,2,15
-3.18384,-1.75903,0.0634919,1,8
-3.21205,-1.77315,0.192282,1,9
-3.231,-1.78214,0.322825,1,10
-3.35681,-1.85077,0.470659,1,11
-3.24586,-1.78812,0.586942,11,12
-2.90466,-1.59949,0.644553,2,13
-2.63617,-1.45045,0.694649,1,14
-2.36836,-1.30202,0.724176,2,15
-3.22854,-1.76904,0.0642598,1,8
-3.20946,-1.75713,0.191759,1,9
-3.27185,-1.79054,0.326311,1,10
-3.24862,-1.77488,0.586316,10,12
-0.486069,-0.265564,-0.0484586,11,5
-2.89472,-1.58088,0.641118,2,13
-2.64464,-1.4431,0.695549,1,14
-2.37119,-1.29282,0.723658,2,15
-3.21713,-1.74821,0.0639107,1,8
-3.23313,-1.75544,0.192806,1,9
-3.27808,-1.77911,0.326311,1,10
-3.30683,-1.79322,0.461885,1,11
-3.2409,-1.756,0.583813,10,12
-0.486993,-0.263866,-0.0484586,11,5
-2.92094,-1.58198,0.645698,2,13
-0.495302,-0.268144,-0.0295175,16,6
-2.64109,-1.42923,0.693299,1,14
-3.3137,-1.79246,-0.0657607,2,7
-2.37569,-1.28453,0.723658,1,15
-3.20913,-1.72938,0.0636315,1,8
-3.23396,-1.74131,0.192492,1,9
-3.26322,-1.75633,0.324219,1,10
-3.37601,-1.81551,0.470659,1,11
-3.25919,-1.75123,0.586004,10,12
-2.91087,-1.56341,0.642263,2,13
-0.496234,-0.266413,-0.0295175,16,6
-2.64778,-1.42092,0.693749,1,14
-3.31993,-1.78088,-0.0657607,2,7
-2.36484,-1.26802,0.718999,2,15
-3.2222,-1.72194,0.0637711,1,8
-0.433157,-0.231381,-0.113375,16,1
-3.25059,-1.73565,0.19312,1,9
-3.26933,-1.74493,0.324219,1,10
-3.2618,-1.73798,0.585378,9,12
-0.443106,-0.2361,-0.0439265,12,5
-2.90592,-1.54771,0.639973,2,13
-0.497161,-0.264679,-0.0295175,16,6
-2.64413,-1.40709,0.6915,1,14
-3.32613,-1.76928,-0.0657607,2,7
-2.3846,-1.26792,0.723658,2,15
-3.23173,-1.71255,0.0638409,1,8
-3.26691,-1.73047,0.193748,1,9
-3.29653,-1.74469,0.326311,1,10
-3.3886,-1.7919,0.470659,1,11
-3.26929,-1.72808,0.585691,10,12
-2.92519,-1.54489,0.643026,2,13
-2.65592,-1.40149,0.693299,1,14
-3.26831,-1.72464,-0.0645041,2,7
-2.39563,-1.26361,0.725729,2,15
-3.25863,-1.713,0.0642598,1,8
-3.24995,-1.70698,0.192387,1,9
-3.28143,-1.72206,0.324219,1,10
-3.2788,-1.71849,0.586316,10,12
-2.92682,-1.53336,0.642263,2,13
-2.65364,-1.38906,0.6915,1,14
-3.3381,-1.7466,-0.0657607,2,7
-2.39318,-1.25165,0.723658,1,15
-3.26459,-1.70161,0.0642598,1,8
-3.24673,-1.69158,0.191864,1,9
-3.30833,-1.72221,0.326311,1,10
-3.40072,-1.76879,0.470659,1,11
-3.28273,-1.7067,0.586004,10,12
-0.445514,-0.231525,-0.0439265,12,5
-2.93564,-1.52494,0.643026,2,13
-2.66193,-1.38158,0.692399,1,14
-2.38703,-1.23837,0.720552,1,15
-3.26666,-1.68894,0.06419,1,8
-0.436266,-0.225463,-0.113375,16,1
-3.27214,-1.69032,0.193015,1,9
-3.32849,-1.71796,0.327706,1,10
-3.4048,-1.7566,0.470416,1,11
-3.27989,-1.6907,0.584439,9,12
-2.93195,-1.5107,0.641118,2,13
-0.500718,-0.257887,-0.0295175,16,6
-2.65611,-1.3674,0.6897,1,14
-3.34991,-1.72384,-0.0657607,2,7
-2.40679,-1.23799,0.725211,2,15
-3.25118,-1.66658,0.0637711,1,8
-3.2798,-1.6798,0.19312,1,9
-3.31288,-1.69602,0.325614,1,10
-3.41091,-1.7447,0.470416,1,11
-3.29808,-1.68554,0.586629,9,12
-2.9407,-1.50225,0.641881,2,13
-0.501616,-0.256138,-0.0295175,16,6
-2.6869,-1.37141,0.696449,1,14
-3.28465,-1.67578,-0.0643645,2,7
-2.40766,-1.22782,0.724176,2,15
-3.25698,-1.65522,0.0637711,1,8
-0.43783,-0.222412,-0.113375,16,1
-3.28742,-1.66925,0.193224,1,9
-3.32234,-1.68625,0.325962,1,10
-3.32846,-1.68789,0.458229,1,11
-3.30218,-1.67312,0.586316,9,12
-0.458538,-0.232328,-0.0449724,12,5
-2.93542,-1.48665,0.639592,2,13
-2.68297,-1.35762,0.694199,1,14
-3.36186,-1.70041,-0.0657607,2,7
-2.39986,-1.21331,0.720552,1,15
-3.28774,-1.65644,0.0642598,1,8
-3.28252,-1.65237,0.192596,1,9
-3.3104,-1.66568,0.324219,1,10
-3.30977,-1.66247,0.586629,9,12
-2.95288,-1.48256,0.642263,2,13
-0.503392,-0.25263,-0.0295175,16,6
-2.67028,-1.33951,0.6897,1,14
-3.30342,-1.6564,-0.0645041,2,7
-2.4179,-1.21185,0.724693,1,15
-3.27203,-1.63423,0.0638409,1,8
-0.45332,-0.226314,-0.116975,16,1
-3.28291,-1.63823,0.192282,1,9
-3.33046,-1.66123,0.325614,1,10
-3.429,-1.70889,0.470416,1,11
-3.30671,-1.6465,0.585065,9,12
-0.495819,-0.246882,-0.0484586,11,5
-2.94749,-1.46699,0.639973,2,13
-0.50427,-0.250871,-0.0295175,16,6
-2.68541,-1.33539,0.692399,1,14
-3.37365,-1.6769,-0.0657607,2,7
-2.41173,-1.19825,0.721588,2,15
-3.29922,-1.63344,0.0642598,1,8
-3.31518,-1.64062,0.193852,1,9
-3.35767,-1.66019,0.327706,1,10
-3.31038,-1.63465,0.584752,9,12
-2.96844,-1.46451,0.643408,2,13
-0.505143,-0.249109,-0.0295175,16,6
-2.7073,-1.33509,0.696898,1,14
-3.37919,-1.6657,-0.0657607,2,7
-2.4053,-1.18512,0.718482,2,15
-3.28308,-1.61192,0.0638409,1,8
-3.31881,-1.62874,0.193748,1,9
-3.31665,-1.62625,0.323173,1,10
-3.44055,-1.68551,0.470416,1,11
-3.32288,-1.62714,0.586004,9,12
-2.96269,-1.44949,0.641118,2,13
-0.505966,-0.247432,-0.0295175,16,6
-2.71521,-1.32782,0.697798,1,14
-3.3847,-1.65449,-0.0657607,2,7
-2.4231,-1.18392,0.722623,1,15
-3.29919,-1.60627,0.0640503,1,8
-0.448579,-0.218302,-0.115175,16,1
-3.31549,-1.61278,0.193224,1,9
-3.31844,-1.6135,0.322825,1,10
-3.44612,-1.67409,0.470416,1,11
-3.33032,-1.6164,0.586316,8,12
-0.45169,-0.219232,-0.0439265,12,5
-2.95512,-1.43366,0.638447,2,13
-0.506784,-0.245753,-0.0295175,16,6
-3.39045,-1.64266,-0.0657607,2,7
-2.42026,-1.17209,0.720552,1,15
-3.29758,-1.59127,0.0639107,1,8
-0.442317,-0.213348,-0.113375,16,1
-3.31031,-1.59599,0.192596,1,9
-3.35277,-1.61574,0.325614,1,10
-3.33416,-1.60391,0.586004,8,12
-0.456044,-0.219381,-0.0442751,12,5
-2.96541,-1.42588,0.639592,2,13
-0.507639,-0.243983,-0.0295175,16,6
-3.39617,-1.63082,-0.0657607,2,7
-2.44176,-1.17199,0.725729,1,15
-3.34641,-1.60046,0.0647484,1,8
-3.30685,-1.58012,0.192073,1,9
-3.39075,-1.61948,0.328751,1,10
-3.33439,-1.58971,0.585065,8,12
-0.500011,-0.238279,-0.0484586,11,5
-2.99696,-1.42819,0.645316,2,13
-3.40184,-1.61895,-0.0657607,2,7
-2.50864,-1.19333,0.744364,1,15
-3.31583,-1.57164,0.0640503,1,8
-3.33761,-1.58053,0.193538,1,9
-3.36785,-1.59341,0.325962,1,10
-3.46346,-1.63791,0.470416,1,11
-3.33992,-1.57806,0.585065,8,12
-2.98975,-1.41133,0.642645,1,13
-0.509372,-0.240344,-0.0295175,16,6
-3.40747,-1.60707,-0.0657607,2,7
-3.33243,-1.56457,0.0642598,1,8
-0.444563,-0.208627,-0.113375,16,1
-3.33796,-1.56575,0.193224,1,9
-3.35535,-1.57319,0.324219,1,10
-3.34926,-1.56748,0.585691,8,12
-3.41333,-1.59457,-0.0657607,2,7
-2.4716,-1.1541,0.730905,1,15
-3.33425,-1.55124,0.06419,1,8
-3.36514,-1.56419,0.19448,1,9
-3.35025,-1.55585,0.323173,1,10
-3.36187,-1.5591,0.586942,8,12
-0.455521,-0.211156,-0.0439265,12,5
-3.41888,-1.58264,-0.0657607,2,7
-2.42301,-1.12113,0.715376,1,15
-3.34274,-1.54244,0.0642598,1,8
-0.456555,-0.210571,-0.116075,16,1
-3.34075,-1.54081,0.192806,1,9
-3.41276,-1.57258,0.328751,1,10
-3.48014,-1.60216,0.470416,1,11
-3.36649,-1.54912,0.586942,8,12
-2.75725,-1.26644,0.700498,1,14
-2.45442,-1.12683,0.723658,1,15
-3.36238,-1.538,0.064539,1,8
-0.482063,-0.2204,-0.122373,15,1
-3.37154,-1.54076,0.194271,1,9
-3.42547,-1.56397,0.329449,1,10
-3.48544,-1.59061,0.470416,1,11
-3.36289,-1.53326,0.585378,8,12
-0.456875,-0.20821,-0.0439265,12,5
-0.512556,-0.233477,-0.0295175,16,6
-2.71887,-1.23791,0.6897,1,14
-2.44075,-1.11026,0.718482,1,15
-3.34951,-1.518,0.06419,1,8
-0.457978,-0.207459,-0.116075,16,1
-3.35324,-1.51828,0.19291,1,9
-3.44153,-1.55753,0.330495,1,10
-3.36462,-1.51989,0.584752,8,12
-0.468458,-0.211615,-0.0449724,12,5
-2.7214,-1.22761,0.68925,2,14
-2.88757,-1.30197,-0.0552892,1,7
-2.45871,-1.10808,0.722623,1,15
-3.37304,-1.51449,0.064539,1,8
-0.48359,-0.21703,-0.122373,15,1
-3.36945,-1.51147,0.193538,1,9
-3.39968,-1.52431,0.325962,1,10
-3.49646,-1.56624,0.470416,1,11
-3.38433,-1.51459,0.587255,8,12
-2.72744,-1.2189,0.6897,3,14
-2.84828,-1.27231,-0.0544515,1,7
-2.46256,-1.09949,0.722623,1,15
-0.462976,-0.20584,-0.116975,16,1
-3.38201,-1.50294,0.193957,1,9
-3.42319,-1.52052,0.327706,1,10
-3.5019,-1.55402,0.470416,1,11
-3.38598,-1.50117,0.586629,7,12
-0.514972,-0.228097,-0.0295175,16,6
-2.74237,-1.21411,0.692399,2,14
-2.83441,-1.25426,-0.0541025,1,7
-2.45931,-1.08776,0.720552,1,15
-0.463692,-0.204223,-0.116975,16,1
-3.3781,-1.4871,0.193434,1,9
-3.43942,-1.51338,0.328751,1,10
-3.39301,-1.49013,0.586942,6,12
-0.459703,-0.201891,-0.0439265,12,5
-2.73232,-1.19827,0.6888,2,14
-2.85709,-1.25239,-0.0544515,1,7
-2.46133,-1.0784,0.720035,2,15
-0.464402,-0.202603,-0.116975,16,1
-3.39791,-1.48169,0.194271,1,9
-3.43372,-1.49659,0.327706,1,10
-3.51267,-1.52954,0.470416,1,11
-3.4,-1.47907,0.587255,6,12
-0.507907,-0.22095,-0.0484586,11,5
-2.73827,-1.1895,0.68925,4,14
-2.83576,-1.23126,-0.0539628,1,7
-2.46685,-1.07057,0.720552,1,15
-2.93498,-1.26886,0.0558128,1,8
-0.486573,-0.210256,-0.122373,15,1
-3.4104,-1.47299,0.19469,1,9
-3.43892,-1.48459,0.327706,1,10
-3.51798,-1.51727,0.470416,1,11
-3.38337,-1.45781,0.583501,5,12
-2.7442,-1.1807,0.6897,4,14
-2.84372,-1.22293,-0.0540326,3,7
-2.47057,-1.06195,0.720552,2,15
-2.93939,-1.25861,0.0558128,1,8
-0.451473,-0.193222,-0.113375,16,1
-3.42261,-1.46481,0.195108,1,9
-3.40745,-1.45691,0.324219,1,10
-3.39909,-1.45124,0.585378,5,12
-2.75906,-1.1757,0.692399,4,14
-2.82568,-1.20409,-0.0536138,3,7
-2.46697,-1.05073,0.718482,1,15
-2.86991,-1.21761,0.0544166,1,8
-0.466464,-0.19781,-0.116975,16,1
-3.4277,-1.45286,0.195108,1,9
-3.46021,-1.46521,0.328751,1,10
-3.40777,-1.4409,0.586004,5,12
-0.510193,-0.215619,-0.0484586,11,5
-2.76474,-1.1673,0.692849,4,14
-2.87408,-1.21288,-0.0544515,3,7
-2.47062,-1.04211,0.718482,1,15
-2.94789,-1.23857,0.0558128,1,8
-0.488712,-0.205235,-0.122373,15,1
-3.42513,-1.43839,0.19469,0,9
-3.46505,-1.45373,0.328751,1,10
-3.41618,-1.43112,0.586629,5,12
-0.510905,-0.213926,-0.0484586,11,5
-2.75441,-1.15163,0.68925,4,14
-2.8744,-1.2018,-0.0543817,4,7
-2.47406,-1.03391,0.718482,1,15
-3.04428,-1.26721,0.057558,1,8
-3.4246,-1.42412,0.194376,1,9
-3.47746,-1.44468,0.329449,1,10
-3.40108,-1.41086,0.583188,4,12
-2.74561,-1.13727,0.686101,4,14
-2.85271,-1.18105,-0.053893,3,7
-2.49908,-1.03413,0.724693,1,15
-0.454061,-0.187058,-0.113375,16,1
-3.42586,-1.41064,0.194166,1,9
-3.51909,-1.44831,0.332935,1,10
-3.40598,-1.39898,0.583188,4,12
-2.80726,-1.15134,0.700498,1,14
-2.89012,-1.18474,-0.0545213,1,7
-2.4991,-1.02394,0.723658,1,15
-3.05306,-1.24593,0.057558,1,8
-3.45665,-1.40923,0.195632,1,9
-3.52412,-1.43601,0.332935,1,10
-3.54848,-1.4445,0.470416,1,11
-3.40353,-1.38411,0.581936,4,12
-0.513081,-0.208653,-0.0484586,11,5
-2.935,-1.19118,-0.0552892,1,7
-0.491495,-0.198477,-0.122373,15,1
-3.47612,-1.40374,0.196469,1,9
-3.52911,-1.4237,0.332935,1,10
-3.41176,-1.37429,0.582562,4,12
-2.93894,-1.18145,-0.0552892,1,7
-0.470438,-0.188162,-0.116975,16,1
-3.45133,-1.37973,0.194794,1,9
-3.50815,-1.40103,0.330495,1,10
-3.41287,-1.36091,0.581936,3,12
-2.95419,-1.17562,-0.0554987,1,7
-0.492835,-0.195127,-0.122373,15,1
-3.47841,-1.3765,0.196051,1,9
-3.46461,-1.37034,0.325962,1,10
-3.56317,-1.40788,0.470416,1,11
-3.4176,-1.34899,0.581936,3,12
-0.515202,-0.203359,-0.0484586,11,5
-3.08274,-1.21619,0.644171,1,13
-0.523964,-0.206606,-0.0295175,16,6
-2.94711,-1.1609,-0.0552892,1,7
-0.457225,-0.179185,-0.113375,16,1
-3.47761,-1.36216,0.195736,1,9
-3.50648,-1.37276,0.329449,1,10
-3.56806,-1.39544,0.470416,1,11
-3.38181,-1.32123,0.575053,2,12
-0.515909,-0.201559,-0.0484586,11,5
-3.07234,-1.19971,0.641118,2,13
-2.95115,-1.15061,-0.0552892,1,7
-3.44698,-1.33769,0.064539,1,8
-0.468749,-0.181816,-0.116075,16,1
-3.49142,-1.35423,0.19626,1,9
-3.5484,-1.37491,0.332935,1,10
-3.38801,-1.31072,0.575366,2,12
-0.516609,-0.199757,-0.0484586,11,5
-3.05453,-1.18048,0.636539,2,13
-2.8122,-1.08626,0.695999,1,14
-3.46633,-1.33199,0.0648182,1,8
-0.458434,-0.176068,-0.113375,16,1
-3.51081,-1.34838,0.197097,1,9
-3.53062,-1.35457,0.330843,1,10
-3.57748,-1.37112,0.470416,1,11
-3.39972,-1.30231,0.576617,2,12
-3.05843,-1.17035,0.636539,2,13
-2.81396,-1.07624,0.695549,4,14
-2.51204,-0.959756,0.720552,1,15
-3.48941,-1.32759,0.0651673,1,8
-0.473588,-0.180088,-0.116975,16,1
-3.48562,-1.32476,0.195422,1,9
-3.52019,-1.3372,0.329449,1,10
-3.58201,-1.35925,0.470416,1,11
-3.40425,-1.29043,0.576617,2,12
-0.517922,-0.196327,-0.0484586,11,5
-3.05495,-1.15742,0.635012,2,13
-2.79219,-1.05675,0.68925,5,14
-2.5226,-0.953714,0.722623,1,15
-3.50525,-1.31963,0.0653767,1,8
-3.50144,-1.3168,0.196051,1,9
-3.56214,-1.33892,0.332935,1,10
-3.58673,-1.34673,0.470416,1,11
-3.40133,-1.27577,0.575366,2,12
-3.07736,-1.15364,0.638829,2,13
-2.80316,-1.04973,0.69105,5,14
-2.5042,-0.936781,0.716411,1,15
-3.55856,-1.32554,0.0662842,1,8
-0.471181,-0.175418,-0.116075,16,1
-3.5004,-1.30248,0.195736,1,9
-3.56679,-1.32648,0.332935,1,10
-3.37613,-1.25289,0.57036,2,12
-3.09057,-1.1463,0.640737,2,13
-2.7995,-1.03723,0.68925,4,14
-2.50021,-0.925351,0.714341,1,15
-3.48436,-1.28407,0.0648182,1,8
-0.47179,-0.173772,-0.116075,16,1
-3.51805,-1.29509,0.196469,1,9
-3.5714,-1.31402,0.332935,1,10
-3.41016,-1.25199,0.575366,2,12
-0.51995,-0.190892,-0.0484586,11,5
-3.06137,-1.12334,0.633868,2,13
-2.82506,-1.0355,0.694649,4,14
-2.49254,-0.912633,0.711235,1,15
-3.52993,-1.28758,0.0655861,1,8
-0.472364,-0.172207,-0.116075,16,1
-3.5221,-1.28403,0.196469,1,9
-3.57574,-1.30217,0.332935,1,10
-3.40665,-1.23857,0.574115,2,12
-3.07616,-1.1172,0.636157,2,13
-2.81914,-1.0233,0.692399,4,14
-2.50629,-0.90875,0.714341,1,15
-3.5417,-1.27858,0.0657258,1,8
-0.461934,-0.166671,-0.113375,16,1
-3.52258,-1.27099,0.19626,1,9
-3.55755,-1.2822,0.330843,1,10
-3.60473,-1.29778,0.470416,1,11
-3.41073,-1.22727,0.574115,2,12
-3.08169,-1.10765,0.636539,2,13
-0.530063,-0.190416,-0.0295175,16,6
-2.81701,-1.01197,0.69105,4,14
-2.51293,-0.901738,0.715376,1,15
-3.57605,-1.2776,0.0662842,1,8
-0.477166,-0.170381,-0.116975,16,1
-3.53452,-1.26137,0.196679,1,9
-3.5843,-1.27843,0.332935,1,10
-3.40755,-1.21271,0.572863,2,12
-0.521823,-0.18571,-0.0484586,11,5
-3.10014,-1.10269,0.639592,2,13
-2.81135,-0.998865,0.6888,1,14
-2.52698,-0.896838,0.718482,1,15
-3.58049,-1.26511,0.0662842,1,8
-3.55209,-1.25367,0.197411,1,9
-3.58874,-1.26591,0.332935,1,10
-3.38568,-1.19162,0.568483,2,12
-3.10397,-1.09186,0.639592,2,13
-2.80378,-0.985169,0.686101,1,14
-2.51187,-0.881613,0.713305,1,15
-3.58489,-1.2526,0.0662842,1,8
-0.478344,-0.167045,-0.116975,16,1
-3.56021,-1.24259,0.197621,1,9
-3.59313,-1.25337,0.332935,1,10
-3.37676,-1.17525,0.566293,3,12
-0.523139,-0.181972,-0.0484586,11,5
-2.83114,-0.983691,0.691949,1,14
-2.54413,-0.882975,0.721588,1,15
-3.58924,-1.24008,0.0662842,1,8
-0.471556,-0.16283,-0.115175,16,1
-3.55886,-1.2282,0.197307,1,9
-3.5977,-1.24019,0.332935,1,10
-3.62228,-1.24796,0.470416,1,11
-3.38458,-1.16474,0.566919,4,12
-0.523771,-0.180144,-0.0484586,11,5
-2.8421,-0.975839,0.693749,1,14
-1.4601,-0.501327,-0.0269465,1,7
-2.53624,-0.870326,0.718482,1,15
-3.59376,-1.22692,0.0662842,1,8
-3.55935,-1.21447,0.197097,1,9
-3.60201,-1.22763,0.332935,1,10
-3.62683,-1.23467,0.470416,1,11
-3.38114,-1.15038,0.565667,4,12
-0.524396,-0.178315,-0.0484586,11,5
-2.83257,-0.961527,0.6906,1,14
-1.45426,-0.493656,-0.0268069,3,7
-2.53926,-0.861468,0.718482,1,15
-0.467142,-0.157665,-0.113825,16,1
-3.56924,-1.20396,0.197411,1,9
-3.60627,-1.21505,0.332935,1,10
-3.37765,-1.13605,0.564416,4,12
-0.525016,-0.176483,-0.0484586,11,5
-2.83944,-0.953369,0.6915,1,14
-1.43892,-0.482851,-0.0264928,5,7
-0.475084,-0.1585,-0.115625,16,1
-3.57342,-1.19149,0.197411,1,9
-3.61028,-1.20308,0.332935,1,10
-3.3666,-1.11927,0.561913,4,12
-0.525598,-0.174741,-0.0484586,11,5
-3.12628,-1.03876,0.640355,1,13
-2.8298,-0.939155,0.68835,1,14
-1.4292,-0.474048,-0.0262833,5,7
-3.60791,-1.18901,0.199086,0,9
-3.61446,-1.19047,0.332935,1,10
-3.37799,-1.10997,0.563164,4,12
-0.526205,-0.172906,-0.0484586,11,5
-3.1131,-1.02233,0.63692,2,13
-2.85158,-0.935346,0.692849,1,14
-1.45365,-0.476531,-0.0267022,5,7
-3.61943,-1.17952,0.199505,0,9
-3.6186,-1.17785,0.332935,1,10
-3.64351,-1.18455,0.470416,1,11
-3.40044,-1.10487,0.566293,4,12
-0.477536,-0.155069,-0.0439265,12,5
-3.11292,-1.01025,0.636157,2,13
-2.84185,-0.92118,0.6897,1,14
-1.45713,-0.472325,-0.0267371,5,7
-1.77951,-0.573738,0.032636,1,8
-0.469272,-0.151209,-0.113825,16,1
-3.59691,-1.15831,0.198039,0,9
-3.62268,-1.16521,0.332935,1,10
-3.64931,-1.17307,0.470659,1,11
-3.40427,-1.09299,0.566293,4,12
-3.12373,-1.00232,0.637684,2,13
-0.536325,-0.171989,-0.0295175,16,6
-2.84303,-0.911156,0.68925,1,14
-1.47019,-0.470896,-0.0269465,5,7
-1.73577,-0.552955,0.0317983,1,8
-3.62653,-1.15319,0.332935,1,10
-3.41165,-1.08289,0.566919,2,12
-0.527957,-0.167478,-0.0484586,11,5
-3.13657,-0.994375,0.639592,2,13
-2.84975,-0.9029,0.69015,1,14
-1.45078,-0.459377,-0.0265626,5,7
-1.69182,-0.532781,0.0309606,1,8
-0.47029,-0.148011,-0.113825,16,1
-3.63033,-1.14116,0.332935,1,10
-3.65721,-1.1482,0.470659,1,11
-3.45857,-1.08518,0.574115,2,12
-3.1361,-0.982795,0.638829,2,13
-0.537483,-0.168334,-0.0295175,16,6
-2.84715,-0.891698,0.6888,1,14
-1.44657,-0.452772,-0.0264578,5,7
-1.65921,-0.516469,0.0303323,1,8
-1.83474,-0.570405,0.100694,1,9
-3.6341,-1.12911,0.332935,1,10
-3.46611,-1.07427,0.57474,2,12
-3.13559,-0.971228,0.638065,1,13
-2.86886,-0.887513,0.693299,1,14
-1.46151,-0.451855,-0.0267022,5,7
-2.28504,-0.706029,0.640836,1,15
-1.6763,-0.515376,0.0306115,1,8
-0.471286,-0.144807,-0.113825,16,1
-1.74126,-0.534683,0.0954608,1,9
-3.63802,-1.11642,0.332935,1,10
-3.66494,-1.12328,0.470659,1,11
-3.48117,-1.06563,0.576617,2,12
-0.529626,-0.162125,-0.0484586,11,5
-3.15398,-0.964871,0.641118,1,13
-1.47264,-0.44967,-0.0268767,3,7
-1.67043,-0.507197,0.0304719,1,8
-1.74311,-0.528602,0.0954608,1,9
-3.64189,-1.10371,0.332935,1,10
-3.66884,-1.11048,0.470659,1,11
-3.46974,-1.0489,0.574115,2,12
-0.530188,-0.160275,-0.0484586,11,5
-3.14981,-0.951584,0.639592,1,13
-0.539188,-0.162791,-0.0295175,16,6
-2.20708,-0.665937,0.532234,1,14
-1.51632,-0.457227,-0.0276446,2,7
-1.66261,-0.498492,0.0302974,2,8
-0.490953,-0.147106,-0.118324,16,1
-1.72581,-0.516784,0.0944141,1,9
-3.67269,-1.09767,0.470659,1,11
-3.45445,-1.03113,0.570986,2,12
-0.530745,-0.158424,-0.0484586,11,5
-3.16817,-0.945073,0.642645,1,13
-2.19819,-0.65489,0.529535,1,14
-1.52174,-0.453073,-0.0277144,1,7
-1.6816,-0.497794,0.0306115,1,8
-0.472777,-0.139864,-0.113825,16,1
-1.73135,-0.512192,0.0946234,1,9
-3.48438,-1.02749,0.575366,2,12
-3.15261,-0.928462,0.638829,1,13
-0.540312,-0.159022,-0.0295175,16,6
-2.23026,-0.656401,0.536733,1,14
-1.54242,-0.453667,-0.0280635,1,7
-1.68708,-0.493337,0.0306813,1,8
-1.7292,-0.505327,0.0944141,1,9
-3.65306,-1.06616,0.332935,1,10
-3.49156,-1.01704,0.575992,2,12
-0.531811,-0.154807,-0.0484586,11,5
-3.14813,-0.915809,0.637302,1,13
-2.23991,-0.651177,0.538533,1,14
-1.60921,-0.467518,-0.0292502,1,7
-0.556769,-0.160914,-0.155291,12,0
-1.64644,-0.475533,0.0299134,1,8
-0.484928,-0.139967,-0.116525,16,1
-1.72319,-0.497375,0.0939954,1,9
-3.48732,-1.00327,0.57474,2,12
-2.18972,-0.628306,0.525936,1,14
-1.64919,-0.47321,-0.0299483,3,7
-1.6557,-0.472264,0.030053,4,8
-0.489138,-0.139427,-0.117424,16,1
-1.72492,-0.491357,0.0939954,1,9
-3.468,-0.984615,0.570986,2,12
-0.532852,-0.151184,-0.0484586,11,5
-2.24054,-0.634854,0.537633,1,14
-1.64314,-0.465271,-0.0298087,4,7
-1.65542,-0.46594,0.0300181,4,8
-0.512133,-0.144051,-0.122823,15,1
-1.73423,-0.487797,0.0944141,1,9
-3.30386,-0.926186,0.543453,2,12
-0.53335,-0.149416,-0.0484586,11,5
-2.24599,-0.628782,0.453362,1,13
-0.5424,-0.151747,-0.0295175,16,6
-2.3591,-0.659561,0.565527,1,14
-1.64082,-0.458743,-0.0297389,4,7
-1.65695,-0.460448,0.0300181,5,8
-1.71668,-0.4764,0.0933674,1,9
-3.27471,-0.905696,0.538135,3,12
-2.214,-0.611916,0.446493,1,13
-0.5429,-0.149947,-0.0295175,16,6
-2.20348,-0.608182,0.527735,1,14
-1.64048,-0.45248,-0.029704,5,7
-1.64891,-0.452018,0.0298436,4,8
-0.490547,-0.134383,-0.117424,16,1
-1.73374,-0.474623,0.0942047,1,9
-3.2607,-0.889581,0.535319,2,12
-2.22749,-0.607283,0.448783,1,13
-2.22063,-0.604582,0.531334,1,14
-1.64398,-0.447276,-0.0297389,4,7
-1.66592,-0.450435,0.0301229,4,8
-1.71225,-0.462321,0.0929487,1,9
-0.534861,-0.143916,-0.0484586,11,5
-2.19168,-0.589308,0.44115,1,13
-2.23026,-0.598848,0.533134,1,14
-1.6436,-0.441017,-0.029704,4,7
-0.492769,-0.131484,-0.136656,14,0
-1.66748,-0.444617,0.0301229,5,8
-0.476409,-0.126941,-0.113825,16,1
-1.70613,-0.454286,0.09253,1,9
-2.19372,-0.581654,0.44115,1,13
-2.21726,-0.587069,0.529535,1,14
-1.63933,-0.433742,-0.0295993,3,7
-0.467069,-0.122882,-0.12941,15,0
-1.67676,-0.440828,0.0302625,5,8
-0.47685,-0.125277,-0.113825,16,1
-1.7193,-0.451371,0.093158,1,9
-2.22639,-0.582422,0.364492,1,12
-0.535852,-0.140178,-0.0484586,11,5
-2.2457,-0.586216,0.535833,1,14
-1.64858,-0.430037,-0.0297389,3,7
-1.67054,-0.432965,0.0301229,4,8
-0.488603,-0.126543,-0.116525,16,1
-1.71313,-0.443365,0.0927393,1,9
-2.21694,-0.571688,0.362615,1,12
-0.486177,-0.125372,-0.0439265,12,5
-2.19773,-0.566325,0.44115,1,13
-2.24018,-0.576432,0.534034,1,14
-1.63457,-0.420295,-0.0294597,3,7
-0.561498,-0.143542,-0.155291,12,0
-1.66623,-0.425646,0.0300181,2,8
-0.500371,-0.127729,-0.119224,16,1
-1.71467,-0.437381,0.0927393,1,9
-2.23423,-0.567839,0.365118,1,12
-2.19969,-0.55865,0.44115,1,13
-2.27996,-0.578189,0.543032,1,14
-1.63603,-0.414587,-0.0294597,3,7
-1.66965,-0.420316,0.030053,1,8
-1.72385,-0.433642,0.093158,1,9
-2.23227,-0.559466,0.364492,1,12
-0.537291,-0.134559,-0.0484586,11,5
