x, y, z, intensity, ring
30.6628,11.0756,6.33715,21,13
8.34846,3.01386,-0.465162,58,6
27.4447,9.90236,6.73593,9,14
9.82697,3.54375,-0.182343,100,7
25.5837,9.2208,7.28679,28,15
11.9142,4.2753,0.220947,31,8
0.509946,0.182888,-0.125073,15,1
15.261,5.47023,0.849622,24,9
0.704176,0.25227,-0.145396,43,2
17.6285,6.31193,1.63818,27,10
5.74887,2.05726,-0.967078,28,3
22.0844,7.903,2.88002,30,11
6.42049,2.29634,-0.837242,25,4
22.6877,8.10999,3.81606,16,12
7.26669,2.59613,-0.675108,21,5
20.6728,7.38159,4.26687,20,13
8.36133,2.98392,-0.465267,47,6
21.1411,7.54048,5.18197,21,14
9.84682,3.51211,-0.182482,100,7
25.6867,9.15673,7.30698,4,15
11.9279,4.23093,0.220913,36,8
0.536327,0.190134,-0.131371,14,1
15.1435,5.36557,0.841981,31,9
0.69765,0.247188,-0.14387,44,2
18.3472,6.4971,1.70285,17,10
5.76905,2.0418,-0.969268,27,3
24.3458,8.61176,3.1708,18,11
6.42138,2.27015,-0.836268,27,4
21.9462,7.75433,3.68654,4,12
7.28323,2.57341,-0.675806,20,5
20.9928,7.41333,4.32755,26,13
8.4056,2.96668,-0.467151,47,6
20.9284,7.38236,5.12349,20,14
9.86151,3.47666,-0.182517,100,7
30.585,10.7767,8.68907,7,15
11.8917,4.1714,0.21997,48,8
0.544343,0.19084,-0.133171,14,1
15.2658,5.349,0.847738,15,9
0.694803,0.243453,-0.143107,45,2
18.0595,6.32437,1.67409,45,10
5.77988,2.02295,-0.969894,30,3
22.4233,7.84374,2.91682,31,11
6.44988,2.25493,-0.838949,28,4
22.2715,7.78193,3.73659,20,12
7.2884,2.54665,-0.675457,20,5
21.0612,7.35489,4.33633,23,13
8.41402,2.93666,-0.467046,47,6
25.5356,8.90745,6.24374,33,14
9.86414,3.43892,-0.182343,100,7
29.6318,10.3247,8.408,13,15
11.8703,4.11741,0.219307,55,8
0.552371,0.191491,-0.134971,14,1
15.2825,5.29503,0.847633,8,9
0.699401,0.242189,-0.14387,44,2
17.752,6.1472,1.64358,74,10
5.77197,1.99759,-0.967391,33,3
22.5406,7.79657,2.92852,15,11
6.46334,2.23434,-0.83968,23,4
21.1746,7.31579,3.54825,4,12
7.30145,2.52122,-0.675806,17,5
20.8542,7.19696,4.28824,33,13
8.42095,2.9045,-0.466837,72,6
20.8247,7.1827,5.08569,50,14
9.90255,3.41359,-0.182831,100,7
11.9212,4.0862,0.21997,51,8
0.527259,0.180624,-0.128672,14,1
0.718859,0.245981,-0.147686,41,2
17.9083,6.12789,1.65596,63,10
5.77364,1.97451,-0.966452,28,3
19.1034,6.52937,2.47882,32,11
6.48276,2.21449,-0.841142,22,4
21.1208,7.2107,3.53479,16,12
7.31065,2.49444,-0.675806,16,5
21.2836,7.25798,4.37105,17,13
8.41641,2.86846,-0.465999,58,6
21.0095,7.16039,5.12438,20,14
9.91689,3.37792,-0.182866,100,7
29.2203,9.94743,8.27082,6,15
11.9797,4.05723,0.220773,48,8
0.535301,0.18119,-0.130472,14,1
15.7797,5.34114,0.873069,26,9
0.704836,0.238437,-0.144633,44,2
17.7098,5.98754,1.63556,27,10
5.79769,1.95903,-0.969268,28,3
21.7433,7.34278,2.81786,14,11
6.49045,2.19185,-0.841142,23,4
21.4828,7.25063,3.59111,6,12
7.3212,2.46955,-0.67598,16,5
21.1935,7.14475,4.34739,26,13
8.43395,2.84161,-0.466418,58,6
21.0233,7.08327,5.12169,51,14
9.93241,3.34456,-0.182936,100,7
26.4718,8.90877,7.48401,5,15
12.0348,4.03146,0.221541,37,8
0.535899,0.179414,-0.130472,14,1
0.694452,0.23236,-0.142344,45,2
17.6162,5.89088,1.62511,43,10
5.81352,1.94292,-0.970832,27,3
19.1504,6.39647,2.47907,26,11
6.49015,2.16779,-0.840167,23,4
18.891,6.30618,3.15435,16,12
7.33313,2.44652,-0.676329,16,5
21.6994,7.23527,4.44623,27,13
8.44143,2.813,-0.466313,50,6
21.0947,7.02954,5.13338,35,14
9.92637,3.30592,-0.182622,100,7
26.6222,8.8612,7.51818,5,15
12.0386,3.98838,0.221366,40,8
0.536491,0.177635,-0.130472,14,1
15.6792,5.18843,0.865532,30,9
0.698946,0.23129,-0.143107,45,2
17.4465,5.76987,1.60767,30,10
5.82931,1.92673,-0.972397,27,3
19.1526,6.32671,2.47663,10,11
6.49579,2.14451,-0.839924,23,4
20.7194,6.83624,3.45564,2,12
7.34162,2.42091,-0.676329,18,5
21.7121,7.15958,4.44394,12,13
8.4564,2.78687,-0.466627,61,6
21.2302,6.99245,5.16038,42,14
9.95685,3.2775,-0.182971,100,7
26.8016,8.81712,7.5601,15,15
12.0125,3.93327,0.220633,43,8
0.540812,0.176974,-0.131371,14,1
15.0707,4.9288,0.83099,15,9
0.688592,0.225067,-0.140817,46,2
17.5717,5.73991,1.61726,3,10
5.8307,1.90351,-0.971458,26,3
16.8101,5.48789,2.17122,37,11
6.50135,2.1212,-0.83968,28,4
17.9786,5.86243,2.99509,12,12
7.34813,2.39465,-0.676154,16,5
20.411,6.64768,4.17261,23,13
8.47415,2.75833,-0.467046,61,6
21.3465,6.94413,5.18242,42,14
9.98154,3.24706,-0.183215,100,7
25.7354,8.36692,7.25107,18,15
11.9907,3.87752,0.21997,45,8
0.526623,0.170196,-0.127772,14,1
15.4033,4.97811,0.848366,22,9
0.70432,0.227489,-0.14387,44,2
15.3448,4.95327,1.4107,50,10
5.83731,1.88315,-0.971458,26,3
16.9869,5.4768,2.19145,23,11
6.51664,2.09979,-0.840655,32,4
7.37921,2.37631,-0.678246,15,5
8.47612,2.72628,-0.466627,58,6
21.4374,6.89104,5.19862,43,14
9.97758,3.20729,-0.182936,100,7
25.8748,8.31249,7.28213,19,15
11.9692,3.82678,0.219342,46,8
0.527184,0.168449,-0.127772,14,1
15.4739,4.94133,0.851297,51,9
0.70885,0.226223,-0.144633,44,2
17.6474,5.6286,1.62057,30,10
5.84916,1.86558,-0.972397,28,3
16.899,5.38667,2.17781,50,11
6.50465,2.07215,-0.838217,24,4
18.9659,6.0382,3.15247,29,12
7.40264,2.35537,-0.67964,15,5
21.5446,6.85503,4.39471,32,13
8.47751,2.69574,-0.466209,65,6
21.5232,6.83997,5.21392,48,14
9.99444,3.17426,-0.183041,100,7
25.6919,8.15491,7.2226,13,15
11.9978,3.78979,0.219621,42,8
0.538919,0.170128,-0.130472,14,1
15.7958,4.98343,0.868044,26,9
0.690874,0.217964,-0.140817,46,2
15.2831,4.81875,1.40199,25,10
5.85941,1.84634,-0.973022,33,3
16.9594,5.34077,2.18317,50,11
6.51563,2.05062,-0.838705,24,4
18.9793,5.9696,3.15122,42,12
7.41082,2.32952,-0.67964,15,5
16.77,5.27147,3.41701,15,13
8.50211,2.67092,-0.467046,61,6
21.6009,6.78174,5.22696,49,14
10.0055,3.13936,-0.183041,100,7
26.1369,8.19581,7.33959,14,15
12.0415,3.75742,0.22018,45,8
0.524627,0.163604,-0.126872,15,1
0.710412,0.221269,-0.144633,44,2
15.2436,4.74494,1.39676,68,10
5.84162,1.81722,-0.968955,32,3
16.7334,5.20547,2.15173,41,11
6.53223,2.03081,-0.839924,25,4
18.4115,5.72044,3.0536,25,12
7.39988,2.29772,-0.677897,16,5
16.8379,5.2251,3.42693,13,13
8.52328,2.64329,-0.467674,72,6
24.4828,7.58807,5.91756,30,14
10.0297,3.10855,-0.183285,100,7
25.9605,8.04108,7.28213,19,15
12.0972,3.72621,0.220947,41,8
0.532673,0.163974,-0.128672,14,1
15.5027,4.76926,0.850041,24,9
0.699921,0.215324,-0.142344,45,2
15.3667,4.72448,1.40652,25,10
5.83659,1.79334,-0.967078,33,3
16.4374,5.04738,2.11126,72,11
6.54722,2.00918,-0.840899,25,4
16.1472,4.9521,2.67503,13,12
7.40785,2.27188,-0.677897,16,5
17.0213,5.21692,3.46051,20,13
8.55156,2.61937,-0.468721,72,6
26.8272,8.21216,6.47724,36,14
10.0678,3.07996,-0.183774,21,7
25.9325,7.92836,7.26609,9,15
12.1675,3.70142,0.221995,48,8
0.5407,0.16438,-0.130472,14,1
15.418,4.68434,0.844493,16,9
0.715697,0.217445,-0.145396,32,2
15.2821,4.64014,1.39728,56,10
5.85227,1.77583,-0.968642,42,3
16.4207,4.9796,2.10688,58,11
6.55609,1.9869,-0.841142,24,4
7.41955,2.24716,-0.678246,16,5
19.174,5.80357,3.89403,14,13
8.54153,2.58372,-0.467674,61,6
26.9229,8.13876,6.49344,18,14
10.0651,3.04075,-0.18353,24,7
24.658,7.44471,6.90167,16,15
12.2321,3.67445,0.222937,45,8
0.507674,0.152406,-0.122373,15,1
16.209,4.86294,0.886885,28,9
0.723973,0.217203,-0.146923,42,2
16.8383,5.04853,1.53795,32,10
5.87357,1.75992,-0.971145,31,3
16.476,4.93365,2.11175,54,11
6.55538,1.96172,-0.840167,24,4
16.0564,4.80189,2.65438,17,12
7.43919,2.22338,-0.679292,15,5
16.967,5.07098,3.44219,44,13
8.55815,2.55618,-0.468093,72,6
17.3886,5.19036,4.18949,27,14
10.0833,3.00789,-0.183669,22,7
24.4728,7.29567,6.84266,20,15
12.2908,3.64539,0.223775,47,8
0.545571,0.161709,-0.131371,14,1
15.479,4.5851,0.846063,19,9
0.702174,0.207861,-0.142344,45,2
22.3953,6.6253,2.04328,15,10
5.89892,1.74398,-0.974274,33,3
16.5369,4.88905,2.11736,58,11
6.57171,1.94164,-0.841386,25,4
16.0807,4.74806,2.65563,37,12
7.44309,2.19627,-0.678943,15,5
16.9271,4.99153,3.43036,21,13
8.57896,2.52818,-0.468721,61,6
26.1392,7.69816,6.29098,8,14
10.0669,2.96476,-0.18318,24,7
24.235,7.13274,6.76915,24,15
12.3905,3.62558,0.225345,40,8
0.54616,0.159709,-0.131371,14,1
15.5628,4.54795,0.849727,8,9
0.680282,0.1988,-0.137764,49,2
21.5596,6.2963,1.96501,13,10
5.90118,1.72228,-0.973648,35,3
16.8635,4.91845,2.15684,41,11
6.59021,1.92087,-0.842848,25,4
16.2497,4.73328,2.68066,47,12
7.43961,2.16563,-0.677897,16,5
16.9991,4.94834,3.44143,11,13
8.59924,2.50156,-0.469349,65,6
26.2427,7.62918,6.30943,34,14
10.0278,2.91334,-0.182273,100,7
23.7972,6.90921,6.63974,26,15
12.551,3.62504,0.228033,37,8
0.554203,0.159963,-0.133171,14,1
14.4771,4.17586,0.789645,1,9
0.711189,0.205005,-0.14387,44,2
18.9309,5.4534,1.72359,28,10
5.88847,1.69517,-0.97052,35,3
16.789,4.83319,2.14514,27,11
6.59879,1.89841,-0.843092,28,4
16.4332,4.72456,2.70819,32,12
7.45287,2.1413,-0.67842,16,5
17.0076,4.88329,3.43952,6,13
8.60067,2.46783,-0.46893,58,6
17.3313,4.96967,4.16249,15,14
10.0129,2.87115,-0.181819,23,7
23.94,6.86016,6.67287,23,15
12.8187,3.65635,0.232675,20,8
0.528494,0.150645,-0.126872,15,1
14.5293,4.13877,0.791738,35,9
0.71183,0.20277,-0.14387,44,2
19.9138,5.66883,1.81144,31,10
5.89947,1.67828,-0.971458,38,3
16.7552,4.76337,2.13881,23,11
6.62414,1.88194,-0.84553,24,4
16.4754,4.6776,2.71257,50,12
7.47335,2.12038,-0.67964,15,5
17.0286,4.83144,3.44067,48,13
8.59685,2.43753,-0.468302,61,6
17.2756,4.89502,4.1454,14,14
10.0416,2.84338,-0.182168,25,7
24.4496,6.91855,6.80849,20,15
0.529016,0.1488,-0.126872,15,1
0.712568,0.20016,-0.14387,44,2
18.8698,5.29695,1.7147,45,10
5.90558,1.65665,-0.971458,32,3
16.6189,4.66197,2.11931,67,11
6.6192,1.85559,-0.844067,24,4
16.3813,4.58915,2.69443,55,12
7.48454,2.09535,-0.679989,15,5
17.0121,4.75948,3.4338,23,13
8.61342,2.40815,-0.468721,68,6
17.2033,4.80649,4.1238,31,14
10.117,2.82661,-0.183355,25,7
25.0951,7.00668,6.98139,8,15
13.5729,3.76665,0.24587,55,8
0.518291,0.143735,-0.124173,15,1
13.5461,3.75413,0.736681,12,9
0.698127,0.193477,-0.140817,46,2
18.8805,5.22893,1.714,17,10
5.90752,1.63497,-0.970832,33,3
16.6263,4.59838,2.11809,22,11
6.62596,1.83132,-0.844067,24,4
7.49949,2.07134,-0.680686,21,5
17.2955,4.77371,3.48761,16,13
8.62948,2.3802,-0.46914,61,6
17.3459,4.78111,4.15395,11,14
10.1292,2.79004,-0.18339,23,7
26.4393,7.27764,7.34787,9,15
13.6824,3.74565,0.247615,60,8
0.522549,0.142953,-0.125073,15,1
0.695011,0.190003,-0.140054,47,2
18.814,5.13988,1.70634,35,10
5.91891,1.6159,-0.971771,35,3
16.5292,4.50949,2.10371,36,11
6.63231,1.80818,-0.844067,24,4
7.51436,2.04725,-0.681384,20,5
17.2078,4.68495,3.46662,37,13
8.64544,2.35216,-0.469558,61,6
17.244,4.68833,4.1256,14,14
10.1755,2.76463,-0.184053,22,7
28.0101,7.60493,7.777,5,15
0.571962,0.154327,-0.13677,13,1
0.703252,0.18962,-0.14158,46,2
16.7426,4.51125,1.51703,19,10
5.92261,1.59472,-0.971458,33,3
16.5928,4.46466,2.1098,49,11
6.63666,1.7845,-0.843823,25,4
7.51569,2.01945,-0.680861,18,5
17.1919,4.61619,3.46013,15,13
8.66517,2.32507,-0.470186,58,6
17.2301,4.62002,4.1184,25,14
10.1537,2.72258,-0.183495,25,7
22.3382,5.9855,6.19665,18,15
11.5743,3.08403,0.20908,23,8
0.527276,0.140396,-0.125973,15,1
13.3853,3.56154,0.7259,28,9
0.703909,0.187165,-0.14158,46,2
16.5927,4.40877,1.50204,6,10
5.92595,1.57456,-0.971145,36,3
16.9509,4.50079,2.15343,18,11
6.6483,1.76401,-0.844555,24,4
17.6715,4.68551,2.8956,28,12
7.5381,1.99728,-0.682255,17,5
21.2683,5.63522,4.27679,26,13
8.66511,2.29428,-0.469768,54,6
17.1719,4.54342,4.10086,23,14
10.1902,2.69428,-0.183983,100,7
22.3515,5.90553,6.19458,25,15
11.5889,3.04462,0.20915,41,8
0.531532,0.139544,-0.126872,15,1
13.4247,3.5219,0.727365,44,9
0.712122,0.186822,-0.143107,45,2
13.3868,3.50946,1.21077,10,10
5.94097,1.55637,-0.97271,32,3
17.752,4.64721,2.25312,9,11
6.64097,1.73727,-0.842848,29,4
17.7069,4.62879,2.89873,22,12
7.55047,1.97378,-0.682778,16,5
8.68466,2.26704,-0.470396,68,6
17.165,4.47754,4.09546,31,14
10.1976,2.65819,-0.183948,21,7
22.428,5.84207,6.2101,18,15
11.5782,2.99863,0.208766,15,8
0.547109,0.141594,-0.130472,14,1
13.4214,3.47101,0.726528,50,9
0.693763,0.179419,-0.139291,36,2
5.96549,1.54056,-0.975838,33,3
17.0223,4.39276,2.15855,9,11
6.66238,1.71805,-0.844798,25,4
17.6483,4.54774,2.88653,15,12
7.53995,1.94295,-0.681209,17,5
17.0788,4.3978,3.42807,15,13
8.68092,2.23373,-0.469768,65,6
17.39,4.47148,4.1454,48,14
10.1875,2.6176,-0.183599,21,7
30.6047,7.85794,8.46649,6,15
11.5886,2.9582,0.208766,22,8
0.5476,0.139683,-0.130472,14,1
0.694385,0.176997,-0.139291,36,2
5.98423,1.52314,-0.978028,42,3
17.076,4.34311,2.16342,18,11
6.66833,1.69478,-0.844798,25,4
17.2543,4.38205,2.81958,19,12
7.56246,1.91922,-0.682604,21,5
17.3357,4.3995,3.47654,24,13
8.70415,2.20734,-0.470605,58,6
17.33,4.39159,4.1274,46,14
10.1636,2.57368,-0.183006,25,7
21.9289,5.54887,6.06102,15,15
14.0093,3.5241,0.252152,16,8
0.544304,0.136821,-0.129572,14,1
0.691221,0.173494,-0.138527,48,2
13.7867,3.45786,1.24354,28,10
5.98211,1.49927,-0.976777,41,3
17.145,4.29699,2.17025,4,11
6.68576,1.67438,-0.846261,33,4
17.5014,4.37982,2.85743,46,12
7.58072,1.89571,-0.68365,26,5
17.5441,4.38399,3.51508,22,13
8.73544,2.18123,-0.471861,68,6
17.068,4.2587,4.06127,31,14
10.1628,2.53577,-0.182831,21,7
21.9275,5.46714,6.05533,33,15
11.5629,2.86366,0.207928,36,8
0.533452,0.132016,-0.126872,15,1
13.7911,3.4104,0.744531,45,9
0.703257,0.173909,-0.140817,46,2
16.1565,3.99234,1.45602,34,10
5.99114,1.47933,-0.977403,41,3
17.4709,4.31068,2.20949,19,11
6.68993,1.6494,-0.846017,30,4
17.151,4.22539,2.79767,23,12
7.58148,1.8678,-0.683127,21,5
17.8185,4.38656,3.56698,18,13
8.73136,2.14786,-0.471233,65,6
17.2947,4.25119,4.11166,43,14
10.1546,2.4942,-0.182517,23,7
21.8892,5.37247,6.03928,34,15
11.5009,2.80575,0.206636,55,8
0.537696,0.131076,-0.127772,14,1
13.8107,3.36413,0.74495,37,9
0.707675,0.172382,-0.14158,46,2
6.00011,1.45934,-0.978028,41,3
17.293,4.20279,2.18512,41,11
6.68986,1.62463,-0.845286,29,4
7.59377,1.84274,-0.68365,22,5
17.166,4.1624,3.43342,16,13
8.73492,2.11643,-0.471024,58,6
17.2261,4.17062,4.09186,31,14
10.1885,2.46486,-0.182971,22,7
22.0487,5.33007,6.07811,33,15
0.54952,0.131928,-0.130472,14,1
13.6184,3.26698,0.73396,26,9
0.708272,0.169911,-0.14158,46,2
13.2719,3.1814,1.19403,80,10
6.01285,1.44023,-0.97928,37,3
18.4775,4.42241,2.33282,20,11
6.69162,1.60035,-0.844798,27,4
17.5355,4.19049,2.85556,15,12
7.61178,1.819,-0.684695,22,5
19.3859,4.62911,3.87419,14,13
8.7306,2.08314,-0.470396,68,6
17.2652,4.11634,4.09771,28,14
10.2359,2.43854,-0.183669,23,7
17.8161,4.24111,4.90721,10,15
11.5085,2.72262,0.206427,26,8
0.549977,0.130009,-0.130472,14,1
13.0855,3.09086,0.704651,27,9
0.689754,0.162924,-0.137764,36,2
13.5505,3.19821,1.21809,52,10
6.0063,1.41651,-0.977403,35,3
13.9174,3.27968,1.75565,89,11
6.71263,1.58062,-0.846748,29,4
7.60645,1.78968,-0.68365,25,5
17.443,4.10087,3.48303,6,13
8.72226,2.049,-0.469558,72,6
17.2396,4.0467,4.08826,34,14
10.2989,2.41559,-0.184646,24,7
17.8477,4.18287,4.91187,18,15
11.5296,2.68516,0.206636,15,8
0.554224,0.128972,-0.131371,14,1
13.5942,3.16096,0.731447,4,9
0.697996,0.162172,-0.139291,48,2
13.6664,3.17524,1.2275,63,10
6.00352,1.39375,-0.976151,36,3
13.5246,3.13732,1.70471,23,11
6.72777,1.55942,-0.847967,24,4
18.0204,4.1736,2.9297,31,12
7.6246,1.76448,-0.684695,23,5
17.4886,4.04399,3.48913,15,13
8.71999,2.01477,-0.469035,76,6
17.2252,3.97991,4.08151,31,14
10.3345,2.38592,-0.185135,21,7
17.465,4.02892,4.80265,7,15
11.5472,2.64467,0.206776,7,8
0.554693,0.12694,-0.131371,14,1
0.698586,0.159613,-0.139291,48,2
13.8391,3.16196,1.24197,26,10
6.00666,1.3713,-0.975838,33,3
13.896,3.16985,1.75004,11,11
6.72957,1.53386,-0.84748,24,4
17.8834,4.07287,2.90499,46,12
7.65433,1.74183,-0.686787,28,5
17.0764,3.88279,3.40403,23,13
8.73121,1.98368,-0.469244,83,6
17.3252,3.93618,4.10176,17,14
10.3861,2.35776,-0.185903,20,7
17.41,3.94906,4.78349,24,15
11.2174,2.52589,0.200703,41,8
0.539944,0.121484,-0.127772,14,1
13.5215,3.03977,0.726318,23,9
0.716378,0.161049,-0.142725,45,2
13.6543,3.06711,1.22436,100,10
6.02514,1.3523,-0.978028,42,3
20.2686,4.54543,2.55048,11,11
6.73128,1.50832,-0.846992,28,4
17.692,3.96111,2.87151,23,12
7.67981,1.71945,-0.68853,28,5
17.0917,3.82359,3.40441,13,13
8.76147,1.95842,-0.4705,83,6
18.4064,4.11095,4.35415,34,14
10.4142,2.32404,-0.186252,22,7
17.4639,3.89405,4.79436,18,15
10.9879,2.43396,0.196444,40,8
0.532754,0.117914,-0.125973,15,1
11.344,2.50867,0.608877,34,9
0.693932,0.15346,-0.138146,36,2
13.5891,3.00268,1.21757,91,10
6.04139,1.33381,-0.979906,41,3
19.0437,4.20097,2.39449,5,11
6.73456,1.48439,-0.846748,27,4
18.0935,3.98473,2.9344,9,12
7.66241,1.6875,-0.686439,28,5
17.0896,3.76053,3.40136,33,13
8.78191,1.93083,-0.471233,76,6
17.6993,3.8882,4.18364,21,14
10.4418,2.29196,-0.186601,20,7
17.451,3.82727,4.78712,18,15
11.0862,2.41517,0.19805,103,8
0.552204,0.120198,-0.130472,14,1
11.4112,2.48179,0.612017,72,9
0.705974,0.15354,-0.140435,47,2
13.6189,2.95945,1.21931,15,10
6.04987,1.31355,-0.980531,41,3
20.0205,4.34322,2.51538,33,11
6.74552,1.46213,-0.84748,24,4
17.2153,3.72837,2.78985,34,12
7.68607,1.66319,-0.688007,31,5
23.0089,4.9789,4.57598,13,13
8.81787,1.90649,-0.472803,68,6
17.6727,3.81775,4.17419,45,14
10.4947,2.2652,-0.187404,23,7
17.3434,3.74028,4.75399,18,15
0.537376,0.115007,-0.126872,15,1
11.6014,2.48078,0.621751,15,9
0.698852,0.149311,-0.138909,36,2
13.6355,2.91077,1.21983,31,10
6.04885,1.29014,-0.979593,38,3
19.3327,4.1234,2.42715,25,11
6.76223,1.44106,-0.848942,28,4
17.3751,3.69953,2.81363,45,12
7.68793,1.63552,-0.687659,26,5
18.4027,3.91162,3.65705,45,13
8.83066,1.87541,-0.473117,65,6
17.7552,3.76752,4.19039,21,14
10.3871,2.20406,-0.185345,23,7
17.4376,3.69694,4.77625,25,15
9.96044,2.09536,0.177666,16,8
0.55305,0.116243,-0.130472,14,1
11.6183,2.43989,0.62217,35,9
0.699369,0.146871,-0.138909,36,2
13.6885,2.87215,1.22367,47,10
6.05525,1.26942,-0.979906,42,3
19.2078,4.02322,2.4096,56,11
6.79661,1.42236,-0.852598,38,4
7.67994,1.60582,-0.686439,27,5
18.4662,3.85781,3.66697,16,13
8.82934,1.84294,-0.472698,65,6
17.7072,3.69278,4.17599,24,14
10.3051,2.14721,-0.183739,28,7
17.504,3.64403,4.79074,10,15
0.553453,0.114313,-0.130472,14,1
0.71526,0.147602,-0.141962,23,2
13.7472,2.8344,1.22802,36,10
6.05964,1.24828,-0.979906,37,3
19.2334,3.95854,2.41106,30,11
6.78598,1.39543,-0.850648,33,4
19.1368,3.9317,3.09427,13,12
7.6855,1.57901,-0.686439,21,5
18.0046,3.69581,3.57271,18,13
8.84745,1.81451,-0.473326,65,6
17.3783,3.56094,4.09546,37,14
10.2772,2.10401,-0.183111,35,7
17.4977,3.57903,4.78556,18,15
9.98266,2.02737,0.177805,18,8
0.542389,0.110055,-0.127772,14,1
0.688833,0.139644,-0.136619,50,2
13.7492,2.78482,1.22733,55,10
6.07945,1.23025,-0.982409,35,3
19.9164,4.0267,2.49491,22,11
6.78498,1.37056,-0.849917,30,4
17.8705,3.60656,2.88747,2,12
7.69878,1.55375,-0.687136,25,5
18.0559,3.6407,3.58034,18,13
8.86157,1.7852,-0.473745,68,6
17.3849,3.4991,4.09411,37,14
10.41,2.09335,-0.185345,24,7
17.5404,3.52402,4.79385,9,15
0.554237,0.110446,-0.130472,14,1
10.1329,2.01741,0.541468,8,9
0.697018,0.138772,-0.138146,24,2
15.498,3.08275,1.38246,15,10
6.07596,1.20748,-0.981157,42,3
20.0686,3.98462,2.51221,33,11
6.80919,1.35073,-0.852354,30,4
17.9217,3.55185,2.89373,23,12
7.69243,1.52454,-0.68609,25,5
18.1397,3.59177,3.59446,16,13
8.8795,1.75658,-0.474373,65,6
17.4199,3.44292,4.09951,23,14
10.5212,2.07754,-0.187195,25,7
21.9251,4.32538,5.98804,23,15
10.0064,1.95955,0.17798,58,8
0.546969,0.107014,-0.128672,14,1
10.1242,1.97896,0.540631,8,9
0.705205,0.137845,-0.139672,35,2
13.7722,2.68953,1.22768,68,10
6.0782,1.18589,-0.980844,33,3
22.6231,4.40979,2.83005,29,11
6.82945,1.32999,-0.854304,30,4
22.3666,4.35168,3.60894,14,12
7.70357,1.49882,-0.686613,28,5
8.88362,1.72519,-0.474268,72,6
17.583,3.41142,4.13505,11,14
10.442,2.02405,-0.185659,25,7
21.9438,4.24956,5.98907,23,15
9.86392,1.89592,0.175327,30,8
0.53203,0.102164,-0.125073,15,1
11.3727,2.18181,0.606888,31,9
0.717251,0.137602,-0.141962,34,2
13.805,2.64594,1.22977,21,10
6.08618,1.1654,-0.98147,32,3
24.6525,4.7161,3.08183,35,11
6.836,1.30651,-0.854548,38,4
21.4503,4.09574,3.45877,10,12
7.71463,1.47304,-0.687136,28,5
18.1123,3.45511,3.58416,18,13
8.85427,1.68744,-0.472384,72,6
17.5833,3.34783,4.13235,2,14
10.4805,1.99357,-0.186217,22,7
22.0382,4.18808,6.01081,20,15
0.536213,0.101028,-0.125973,15,1
0.706151,0.132918,-0.139672,35,2
13.8318,2.60105,1.23134,55,10
6.09604,1.14525,-0.982409,36,3
20.119,3.77607,2.51343,33,11
6.83077,1.28081,-0.853329,36,4
21.3771,4.00447,3.44469,8,12
7.73172,1.44695,-0.688182,26,5
17.416,3.25932,3.4441,16,13
8.84244,1.65322,-0.471442,72,6
18.3075,3.41954,4.29971,25,14
10.6957,1.99586,-0.189917,31,7
17.3334,3.23133,4.72448,28,15
10.2328,1.89285,0.181645,52,8
0.551893,0.101989,-0.129572,14,1
9.95783,1.83839,0.530687,86,9
0.706633,0.130329,-0.139672,35,2
13.853,2.5525,1.23238,76,10
6.09825,1.12254,-0.982096,32,3
20.0852,3.69719,2.50758,28,11
6.85081,1.25983,-0.855279,37,4
19.8891,3.65391,3.20284,8,12
7.71517,1.416,-0.686264,30,5
19.0441,3.49182,3.76352,37,13
8.84451,1.62008,-0.471233,68,6
17.7237,3.24332,4.15979,24,14
10.3092,1.88651,-0.182936,90,7
17.2837,3.1597,4.70792,18,15
9.85403,1.78546,0.174803,50,8
0.552263,0.0999649,-0.129572,14,1
10.0153,1.81286,0.533408,37,9
0.695492,0.125765,-0.137382,37,2
13.8912,2.50945,1.235,39,10
6.1138,1.10335,-0.983973,33,3
20.1103,3.62567,2.50905,33,11
6.86906,1.23718,-0.856985,45,4
19.8998,3.58413,3.20253,17,12
7.67889,1.38165,-0.682604,30,5
19.1142,3.43574,3.77497,22,13
8.85011,1.5892,-0.471233,68,6
17.1614,3.07856,4.02527,35,14
10.3138,1.85017,-0.182901,23,7
17.2681,3.09457,4.70067,18,15
9.87761,1.75592,0.175117,52,8
0.541079,0.0960887,-0.126872,15,1
10.055,1.78382,0.535188,32,9
0.699793,0.124022,-0.138146,36,2
6.11159,1.08204,-0.983034,36,3
18.316,3.2395,2.28383,9,11
6.86922,1.2137,-0.856498,41,4
22.8826,4.03895,3.68028,11,12
7.69544,1.35691,-0.68365,30,5
21.171,3.73302,4.17872,17,13
8.875,1.56331,-0.47228,68,6
17.2042,3.02737,4.03292,27,14
10.0937,1.77434,-0.178887,97,7
17.3415,3.0453,4.71775,7,15
10.3013,1.79416,0.182517,68,8
0.533732,0.0928631,-0.125073,15,1
10.0021,1.73846,0.532047,28,9
0.72728,0.126408,-0.143488,44,2
6.11727,1.06103,-0.983347,33,3
14.9806,2.59569,1.86679,37,11
6.87145,1.18938,-0.856254,37,4
22.9102,3.9614,3.68247,9,12
7.70798,1.3314,-0.684347,36,5
17.986,3.10674,3.5479,12,13
8.90599,1.53673,-0.47364,76,6
18.4149,3.17419,4.31411,3,14
10.1767,1.75233,-0.180248,100,7
20.9771,3.60829,5.70334,27,15
10.3115,1.75886,0.182587,58,8
0.545579,0.0929636,-0.127772,14,1
0.704513,0.119792,-0.138909,36,2
14.5237,2.46693,1.28886,55,10
6.13475,1.04092,-0.985537,41,3
14.9544,2.5374,1.86241,36,11
6.86382,1.16339,-0.854792,34,4
30.0738,5.092,4.83101,18,12
7.74401,1.3098,-0.687136,28,5
22.682,3.83229,4.47142,13,13
8.93125,1.5074,-0.474687,65,6
21.697,3.6581,5.07984,20,14
10.8117,1.82285,-0.191383,46,7
19.1245,3.22093,5.19657,7,15
10.2705,1.71317,0.181749,63,8
0.538227,0.0896822,-0.125973,15,1
0.689434,0.114753,-0.135856,37,2
14.5362,2.41687,1.28921,79,10
6.14614,1.02079,-0.986789,36,3
15.0556,2.49784,1.87386,4,11
6.87783,1.13985,-0.85601,33,4
29.9597,4.95979,4.80973,18,12
7.74264,1.28179,-0.686613,30,5
18.5618,3.06956,3.65705,9,13
8.97981,1.48338,-0.47699,79,6
17.5354,2.89353,4.10311,14,14
10.2383,1.6876,-0.181121,25,7
17.3082,2.84983,4.70015,9,15
9.82053,1.6029,0.173686,100,8
0.55777,0.0909386,-0.130472,14,1
0.697581,0.113608,-0.137382,37,2
6.14772,0.999018,-0.986476,33,3
22.0281,3.57567,2.74011,34,11
6.8994,1.1187,-0.858204,34,4
18.1308,2.93655,2.90906,5,12
7.74117,1.2538,-0.68609,30,5
32.6601,5.28394,6.43103,5,13
8.99874,1.45425,-0.477723,76,6
17.4588,2.81833,4.08286,37,14
10.327,1.66522,-0.182587,25,7
17.3333,2.79185,4.7043,6,15
9.9722,1.59193,0.176269,51,8
0.554235,0.0883772,-0.129572,14,1
0.705729,0.112408,-0.138909,24,2
14.3677,2.28591,1.27282,49,10
6.14922,0.977241,-0.986163,37,3
21.815,3.46297,2.71208,13,11
6.90915,1.09554,-0.858935,38,4
19.3233,3.0605,3.09865,3,12
7.78704,1.23196,-0.689751,27,5
22.6937,3.59028,4.46608,26,13
9.05703,1.43125,-0.480549,65,6
17.5706,2.77347,4.10671,14,14
10.2083,1.60954,-0.180388,34,7
18.0032,2.83533,4.8834,22,15
10.0093,1.56205,0.176828,77,8
0.523732,0.08164,-0.122373,15,1
9.78254,1.52316,0.518859,11,9
0.717775,0.111631,-0.141199,34,2
14.3465,2.22864,1.27021,66,10
6.15862,0.955606,-0.987102,38,3
14.8553,2.30504,1.84583,40,11
6.91685,1.07202,-0.859423,38,4
30.3301,4.69536,4.86105,7,12
7.7972,1.20568,-0.690273,28,5
23.0928,3.56671,4.54202,10,13
9.08985,1.40231,-0.482014,76,6
18.0525,2.78177,4.21693,33,14
10.4866,1.61592,-0.185205,27,7
17.9557,2.76365,4.86787,18,15
10.1316,1.54312,0.178887,86,8
0.551,0.0838227,-0.128672,14,1
0.692928,0.105291,-0.136238,25,2
11.494,1.74446,1.01711,31,10
6.16777,0.934989,-0.98804,41,3
14.7027,2.22621,1.82585,84,11
6.93448,1.04874,-0.861129,42,4
19.6298,2.96523,3.14433,17,12
7.81712,1.18083,-0.691668,28,5
18.4364,2.78166,3.62423,10,13
9.15591,1.3798,-0.485259,76,6
18.6074,2.80082,4.34425,12,14
10.2334,1.53853,-0.180632,32,7
17.7231,2.66139,4.80213,16,15
10.2872,1.5301,0.18154,32,8
0.539724,0.0801808,-0.125973,15,1
11.1406,1.65304,0.590245,40,9
0.693291,0.102871,-0.136238,25,2
11.4921,1.70316,1.01641,48,10
6.16709,0.912877,-0.987414,42,3
14.7752,2.18445,1.83389,48,11
6.92828,1.02308,-0.85991,37,4
29.4777,4.34763,4.71932,14,12
7.83499,1.15557,-0.692888,30,5
18.3624,2.70498,3.60782,6,13
9.17845,1.35045,-0.486201,79,6
18.3954,2.70327,4.29252,18,14
10.4821,1.53851,-0.184926,100,7
17.7246,2.59838,4.80006,28,15
10.2549,1.48872,0.180877,48,8
0.563143,0.081652,-0.131371,14,1
10.7944,1.5632,0.571613,38,9
0.691703,0.100169,-0.135856,37,2
16.6465,2.4077,1.47154,21,10
6.17219,0.891628,-0.987727,38,3
14.8672,2.14506,1.84437,48,11
6.95342,1.002,-0.862591,38,4
18.5395,2.66828,2.96662,40,12
7.83503,1.12765,-0.69254,28,5
9.10601,1.30733,-0.482119,94,6
18.7172,2.68386,4.3654,3,14
10.2122,1.46251,-0.180074,54,7
17.8215,2.54908,4.82387,19,15
10.2165,1.44675,0.180109,50,8
0.54413,0.0769569,-0.126872,15,1
10.1314,1.43109,0.536234,18,9
0.684273,0.0966554,-0.13433,38,2
16.7476,2.36266,1.47973,34,10
6.16353,0.868425,-0.98585,45,3
14.8137,2.08457,1.83681,36,11
6.95294,0.977172,-0.862104,39,4
7.83695,1.10002,-0.692365,27,5
9.01557,1.26224,-0.477095,100,6
18.7535,2.62229,4.3717,6,14
10.3718,1.44843,-0.182797,99,7
17.8935,2.49566,4.84095,12,15
10.3344,1.42667,0.182098,63,8
0.544395,0.075057,-0.126872,15,1
0.696276,0.0958732,-0.136619,25,2
6.17827,0.848516,-0.987727,45,3
14.754,2.02368,1.82853,76,11
6.93468,0.949934,-0.859423,42,4
19.7652,2.70399,3.15966,17,12
7.85277,1.0729,-0.693411,27,5
18.9947,2.59519,3.7265,8,13
8.98628,1.22618,-0.475315,79,6
18.9382,2.58075,4.41264,13,14
10.3252,1.4052,-0.181889,100,7
21.4205,2.9114,5.79237,15,15
10.2125,1.37352,0.179865,68,8
0.52534,0.0705619,-0.122373,15,1
10.7568,1.44291,0.568787,47,9
0.694676,0.0930598,-0.136238,25,2
11.1576,1.4927,0.98486,46,10
6.197,0.82796,-0.99023,45,3
6.90843,0.921782,-0.855767,41,4
17.6872,2.35684,2.82615,1,12
7.85647,1.04549,-0.693411,28,5
17.7099,2.35357,3.47272,4,13
8.99864,1.19428,-0.475734,18,6
34.5916,4.5848,8.05595,11,14
10.3519,1.37205,-0.182273,36,7
18.1154,2.3978,4.89634,15,15
10.4118,1.36149,0.183285,60,8
0.525595,0.0686361,-0.122373,15,1
10.5243,1.37247,0.556227,57,9
0.691103,0.0901264,-0.135474,25,2
10.8071,1.40744,0.953484,57,10
6.19985,0.806322,-0.99023,38,3
24.2408,3.14833,3.0014,33,11
6.91374,0.896711,-0.85601,48,4
24.6777,3.19632,3.94121,5,12
7.85037,1.0154,-0.69254,30,5
17.681,2.28695,3.46547,6,13
10.0011,1.29182,-0.528489,56,6
10.46,1.34737,-0.184088,22,7
18.1662,2.33682,4.90773,6,15
10.4601,1.33069,0.184053,68,8
0.560629,0.0712217,-0.130472,14,1
10.7609,1.36514,0.568473,60,9
0.687534,0.0870994,-0.134711,25,2
11.4823,1.45259,1.01258,23,10
6.22237,0.78607,-0.993359,50,3
24.2379,3.06197,2.99969,16,11
6.90107,0.870583,-0.85406,43,4
19.5655,2.46476,3.12337,16,12
7.82421,0.984269,-0.689925,28,5
19.1327,2.40345,3.74825,34,13
10.2594,1.28697,-0.541887,87,6
18.062,2.26256,4.20254,33,14
10.1908,1.27656,-0.179271,90,7
23.4841,2.93759,6.34158,6,15
9.87348,1.21931,0.173651,43,8
0.560886,0.0691663,-0.130472,14,1
10.4803,1.29054,0.5534,39,9
0.693679,0.0854193,-0.135856,25,2
11.4418,1.4069,1.00857,17,10
6.21723,0.76338,-0.992108,45,3
6.93574,0.849145,-0.85796,43,4
24.2921,2.96979,3.87613,10,12
7.82183,0.954863,-0.689402,31,5
18.8837,2.30526,3.69788,11,13
10.5077,1.28088,-0.554761,87,6
18.122,2.20585,4.21468,33,14
10.0445,1.22086,-0.176618,26,7
21.3813,2.595,5.77115,12,15
10.3979,1.24723,0.182797,70,8
0.526296,0.0630366,-0.122373,15,1
0.709583,0.0847381,-0.138909,24,2
11.4449,1.36472,1.00839,46,10
6.21214,0.739655,-0.990856,45,3
36.0211,4.2889,4.45408,14,11
6.93078,0.82399,-0.856985,42,4
19.3198,2.2935,3.08145,16,12
7.82314,0.927317,-0.689228,30,5
18.8219,2.22771,3.68414,19,13
10.4766,1.23814,-0.552877,87,6
17.0888,2.01655,3.97264,22,14
9.87795,1.16564,-0.173617,100,7
21.5706,2.54159,5.81981,15,15
10.3011,1.19734,0.181016,71,8
0.545881,0.0633537,-0.126872,15,1
0.696223,0.0806792,-0.136238,25,2
11.3486,1.31308,0.999502,40,10
6.21861,0.718418,-0.991482,38,3
17.2137,1.98562,2.1276,40,11
6.94755,0.800174,-0.858692,39,4
22.6603,2.60586,3.6127,8,12
7.83242,0.899317,-0.689751,30,5
10.4392,1.19678,-0.550679,100,6
17.1035,1.95777,3.97444,16,14
10.1186,1.15645,-0.17777,32,7
21.6546,2.47106,5.83999,10,15
10.4403,1.1766,0.18339,40,8
0.526733,0.0592689,-0.122373,15,1
10.9837,1.23397,0.579254,36,9
0.673102,0.0755003,-0.131658,26,2
11.4544,1.28279,1.00839,82,10
6.22905,0.6965,-0.992733,38,3
17.2186,1.92529,2.12735,49,11
6.96609,0.777677,-0.860641,38,4
30.4711,3.39635,4.85604,3,12
7.84146,0.872634,-0.690273,28,5
30.1292,3.34758,5.89256,13,13
10.2708,1.13936,-0.541573,42,6
17.6199,1.95149,4.09276,71,14
9.91187,1.09779,-0.17407,100,7
21.7188,2.40161,5.855,21,15
10.868,1.18448,0.190825,100,8
0.550195,0.0598677,-0.127772,14,1
10.9385,1.18831,0.576638,85,9
0.690927,0.0750587,-0.135093,25,2
11.2964,1.22518,0.994098,61,10
6.2609,0.677941,-0.997426,46,3
17.2472,1.86451,2.13003,49,11
6.98665,0.754059,-0.862835,37,4
24.6483,2.6559,3.92651,10,12
7.84247,0.845042,-0.690099,30,5
17.8119,1.91612,3.48226,15,13
17.7177,1.89974,4.1139,31,14
9.84226,1.05357,-0.172779,23,7
22.7359,2.42977,6.12676,12,15
0.558152,0.0587628,-0.129572,14,1
10.8731,1.14281,0.572974,53,9
0.68728,0.0722362,-0.13433,25,2
11.1341,1.16828,0.979456,70,10
6.27698,0.657524,-0.999616,50,3
16.6179,1.73782,2.05155,35,11
7.00899,0.731729,-0.865272,32,4
17.7907,1.85418,2.83303,2,12
7.87312,0.820554,-0.69254,30,5
17.8068,1.85272,3.47997,6,13
10.0958,1.04864,-0.531943,73,6
17.7727,1.84291,4.12515,31,14
9.824,1.01695,-0.172395,100,7
21.1397,2.18457,5.69454,4,15
9.57691,0.976164,0.168032,26,8
0.558354,0.056814,-0.129572,14,1
10.5929,1.07599,0.558006,40,9
0.695341,0.0706304,-0.135856,25,2
10.9201,1.10729,0.960282,48,10
6.28514,0.636204,-1.00055,46,3
16.5923,1.67661,2.04765,35,11
7.00952,0.707057,-0.865029,31,4
21.9363,2.20886,3.49193,4,12
7.8799,0.793464,-0.692888,31,5
21.7336,2.18464,4.24588,2,13
10.0616,1.0096,-0.529954,77,6
17.7984,1.78279,4.12965,40,14
9.91703,0.991604,-0.173966,100,7
21.1242,2.10847,5.68832,14,15
0.546913,0.0537217,-0.126872,15,1
10.4236,1.02205,0.5489,48,9
0.701445,0.0687773,-0.137001,24,2
10.5412,1.03172,0.92664,24,10
6.27749,0.613302,-0.998991,50,3
22.5924,2.20326,2.78715,7,11
6.98626,0.680086,-0.86186,46,4
21.9458,2.13247,3.49224,8,12
7.93021,0.770579,-0.697072,28,5
24.8462,2.40993,4.85227,9,13
10.0432,0.972359,-0.528803,91,6
17.9054,1.73041,4.15305,28,14
10.5196,1.01477,-0.184472,21,7
21.2545,2.04658,5.72145,10,15
0.562617,0.053282,-0.130472,14,1
10.3576,0.979075,0.545236,38,9
0.684089,0.0646654,-0.133566,26,2
11.4155,1.07708,1.00316,46,10
6.27566,0.591014,-0.998365,45,3
17.3249,1.62854,2.13661,9,11
6.99452,0.656253,-0.862591,40,4
18.0058,1.6862,2.86432,2,12
7.97451,0.746792,-0.700732,27,5
17.7392,1.65811,3.46318,41,13
10.0704,0.939524,-0.530059,100,6
17.8318,1.66048,4.1346,31,14
10.4374,0.970087,-0.182971,28,7
17.8894,1.65956,4.81403,6,15
0.566681,0.0516721,-0.131371,14,1
10.4405,0.950158,0.549423,128,9
0.684311,0.0622772,-0.133566,26,2
16.1317,1.46526,1.41715,56,10
6.28555,0.569819,-0.999616,50,3
15.9921,1.44695,1.9716,4,11
7.04224,0.635938,-0.868197,33,4
17.8502,1.6088,2.83866,31,12
7.98303,0.71949,-0.701255,30,5
17.8055,1.60163,3.47501,11,13
9.71952,0.872575,-0.511427,87,6
18.0781,1.61979,4.19039,18,14
10.0285,0.896781,-0.175746,100,7
16.5963,1.48118,4.46463,11,15
11.0398,0.969744,0.193442,41,8
0.578506,0.0507146,-0.134071,14,1
10.8057,0.947277,0.568473,23,9
0.664966,0.0581769,-0.12975,27,2
16.6429,1.45314,1.4616,25,10
6.26389,0.545818,-0.995862,52,3
16.0089,1.39215,1.97306,59,11
7.06024,0.612727,-0.870147,34,4
17.7138,1.5373,2.81613,39,12
8.00931,0.693684,-0.703347,23,5
17.7895,1.5376,3.47082,8,13
9.76429,0.842249,-0.513625,98,6
14.3093,1.23178,3.31578,15,14
10.1987,0.877929,-0.178678,100,7
18.5104,1.59016,4.97813,11,15
9.57043,0.808703,0.167648,8,8
0.555369,0.0468308,-0.128672,14,1
10.2735,0.864499,0.540316,39,9
0.684729,0.0574986,-0.133566,26,2
11.1422,0.933682,0.978236,4,10
6.26173,0.524712,-0.995236,52,3
15.9818,1.33641,1.96917,42,11
7.06223,0.589312,-0.870147,32,4
17.6659,1.47103,2.80769,48,12
8.0772,0.671164,-0.709099,28,5
17.7475,1.47471,3.46166,15,13
10.3403,0.857399,-0.543771,66,6
16.8477,1.39402,3.9029,5,14
10.0642,0.830967,-0.176269,100,7
18.5351,1.52713,4.9833,29,15
10.0994,0.817902,0.176863,6,8
0.551644,0.0445779,-0.127772,14,1
10.9096,0.879682,0.573602,40,9
0.684926,0.055108,-0.133566,26,2
11.32,0.910791,0.993575,46,10
6.26943,0.503323,-0.996175,48,3
16.0675,1.28712,1.97916,38,11
7.0405,0.562757,-0.867222,30,4
17.6473,1.40746,2.80393,15,12
8.10532,0.645022,-0.711365,28,5
17.7782,1.41167,3.46662,12,13
10.3593,0.820749,-0.544608,42,6
17.1187,1.35628,3.96454,41,14
11.0478,0.873368,-0.193442,23,7
10.1322,0.783195,0.177386,10,8
0.567348,0.0437546,-0.131371,14,1
10.855,0.835244,0.570567,120,9
0.681208,0.0522968,-0.132803,26,2
11.2518,0.863807,0.9873,57,10
6.27714,0.480795,-0.997113,52,3
11.6206,0.888036,1.43099,20,11
7.04054,0.536799,-0.866979,31,4
7.90896,0.600231,-0.693934,38,5
14.6765,1.11127,2.86099,16,13
10.2288,0.772697,-0.537595,91,6
16.8651,1.27401,3.9047,44,14
10.2593,0.773205,-0.179585,100,7
21.6548,1.62825,5.81877,13,15
0.528634,0.0388205,-0.122373,15,1
10.8958,0.798228,0.572555,25,9
0.685302,0.0502053,-0.133566,26,2
11.0542,0.807891,0.969695,19,10
6.27098,0.457212,-0.995862,56,3
13.4591,0.978931,1.65694,15,11
7.0484,0.511417,-0.86771,32,4
16.5597,1.19864,2.62966,21,12
7.88527,0.569375,-0.691668,40,5
14.6411,1.0572,2.85336,18,13
9.96447,0.717756,-0.523569,70,6
16.9999,1.22155,3.93484,16,14
9.93499,0.712152,-0.173861,23,7
16.7951,1.20094,4.51173,16,15
10.4089,0.729688,0.182133,55,8
0.55987,0.0391499,-0.129572,14,1
11.4066,0.795631,0.599247,73,9
0.693316,0.0482385,-0.135093,25,2
15.9764,1.10877,1.40112,12,10
6.28049,0.434772,-0.997113,48,3
11.3553,0.786082,1.3976,32,11
7.04816,0.486678,-0.867466,33,4
18.9484,1.30506,3.00824,18,12
7.90311,0.542941,-0.693062,38,5
12.9703,0.888778,2.52707,5,13
10.2699,0.701933,-0.539479,98,6
16.8312,1.14743,3.8948,21,14
9.90151,0.675017,-0.173233,100,7
13.912,0.945985,3.73631,24,15
10.0144,0.665157,0.175187,55,8
0.563899,0.0373553,-0.130472,14,1
10.9471,0.723267,0.574963,52,9
0.681726,0.0450413,-0.132803,26,2
16.4136,1.08156,1.43912,12,10
6.31154,0.414788,-1.00181,48,3
13.438,0.880777,1.65352,56,11
7.03999,0.460193,-0.866247,34,4
18.1468,1.18305,2.88027,16,12
7.9149,0.515997,-0.693934,32,5
12.9361,0.841074,2.51982,6,13
9.93348,0.644112,-0.521685,87,6
14.342,0.927459,3.31803,24,14
10.315,0.665236,-0.180423,25,7
16.8669,1.08483,4.52882,19,15
10.1324,0.637481,0.177212,52,8
0.529017,0.0331902,-0.122373,15,1
11.3821,0.712116,0.597677,24,9
0.685798,0.0429067,-0.133566,26,2
15.9957,0.997961,1.40216,6,10
6.32084,0.393243,-1.00306,48,3
13.4113,0.832024,1.64987,56,11
7.02571,0.434633,-0.864297,34,4
16.3349,1.00767,2.59212,23,12
9.18936,0.566875,-0.805493,25,5
12.9507,0.79664,2.52211,10,13
9.85194,0.604296,-0.517289,100,6
17.1753,1.05048,3.97264,30,14
10.4789,0.639088,-0.18325,100,7
10.436,0.620014,0.182482,75,8
0.52913,0.0313435,-0.122373,15,1
11.3666,0.671318,0.596735,112,9
0.682024,0.0402808,-0.132803,26,2
11.329,0.667117,0.992878,48,10
6.33795,0.372104,-1.00556,41,3
13.4339,0.786361,1.6523,45,11
7.02124,0.409761,-0.863566,33,4
16.3364,0.950535,2.59181,43,12
7.81289,0.454594,-0.684695,6,5
12.9514,0.751312,2.52173,7,13
10.1551,0.587318,-0.533094,56,6
14.3248,0.825964,3.31263,33,14
11.2757,0.648178,-0.197142,65,7
17.5761,1.00728,4.71724,9,15
10.0308,0.560812,0.175362,80,8
0.529236,0.0294961,-0.122373,15,1
11.1575,0.619895,0.585639,21,9
0.688041,0.0382268,-0.133948,26,2
13.1535,0.728492,1.15255,15,10
6.34118,0.350085,-1.00587,38,3
13.6348,0.750367,1.67668,41,11
7.03253,0.385795,-0.864785,34,4
16.2587,0.889078,2.57898,35,12
7.9139,0.432757,-0.693411,5,5
13.0049,0.708873,2.53165,7,13
10.3804,0.564004,-0.544817,77,6
16.2812,0.881759,3.76433,22,14
13.0091,0.702268,-0.227405,25,7
16.7886,0.903368,4.505,2,15
10.4441,0.547351,0.182552,51,8
0.529336,0.0276489,-0.122373,15,1
0.690131,0.0359267,-0.13433,25,2
6.33842,0.327749,-1.00525,45,3
13.6552,0.703691,1.67887,60,11
7.03186,0.361141,-0.864541,33,4
16.2734,0.835768,2.58086,32,12
7.85169,0.401876,-0.687833,3,5
17.9738,0.916805,3.49829,15,13
9.82781,0.499576,-0.515719,66,6
14.4178,0.730375,3.33287,31,14
13.249,0.671166,-0.231559,63,7
13.9746,0.705479,3.74925,9,15
10.3939,0.510162,0.181645,55,8
0.529425,0.0258933,-0.122373,15,1
10.926,0.532463,0.573288,72,9
0.682409,0.0331364,-0.132803,26,2
11.1205,0.538048,0.974053,38,10
6.33947,0.306726,-1.00525,45,3
13.5742,0.654393,1.66864,82,11
7.035,0.337914,-0.864785,32,4
16.2644,0.778395,2.57898,15,12
14.5116,0.691969,2.82397,7,13
9.75759,0.463568,-0.51195,100,6
14.5797,0.690118,3.36977,27,14
11.4276,0.538914,-0.19969,100,7
14.5289,0.682621,3.8973,6,15
10.3796,0.473156,0.181365,56,8
0.529512,0.024045,-0.122373,15,1
11.0036,0.497747,0.577266,39,9
0.709972,0.0321154,-0.138146,24,2
11.4566,0.516238,1.00334,57,10
6.35234,0.285125,-1.00713,45,3
13.6398,0.60984,1.67643,71,11
7.05993,0.31442,-0.86771,30,4
13.6503,0.605531,2.16411,16,12
9.51434,0.420397,-0.833209,30,5
14.5767,0.644079,2.83618,25,13
9.90281,0.435835,-0.519487,100,6
19.0346,0.834396,4.39869,16,14
10.9998,0.480264,-0.192186,100,7
14.7396,0.640976,3.9532,11,15
10.4332,0.439105,0.182273,27,8
0.552957,0.0231756,-0.127772,14,1
10.7559,0.448925,0.564182,37,9
0.712047,0.0295947,-0.138527,24,2
26.5378,1.09834,2.32375,50,10
6.36321,0.262249,-1.00869,46,3
13.6459,0.56239,1.67692,26,11
7.08875,0.290912,-0.871122,37,4
13.6108,0.556182,2.15754,33,12
9.5038,0.386699,-0.832163,19,5
13.0861,0.530172,2.54577,10,13
9.77862,0.394457,-0.512892,91,6
14.376,0.577402,3.32163,20,14
10.7637,0.432317,-0.188032,21,7
14.707,0.588128,3.94388,9,15
14.3432,0.551017,0.250547,39,8
0.52967,0.0202552,-0.122373,15,1
0.716069,0.0272586,-0.139291,36,2
26.5574,1.00632,2.32514,12,10
6.37396,0.240406,-1.01025,52,3
13.6498,0.512443,1.67717,90,11
7.11953,0.266041,-0.874778,38,4
13.1428,0.48652,2.55646,10,13
9.59032,0.353342,-0.502949,100,6
19.2387,0.70545,4.44458,26,14
10.7672,0.392933,-0.188067,26,7
14.2805,0.518658,3.82897,11,15
14.9866,0.523345,0.261751,63,8
0.529738,0.0184066,-0.122373,15,1
11.1979,0.387128,0.587209,8,9
0.727937,0.0250386,-0.14158,34,2
16.3161,0.558368,1.42831,3,10
6.36493,0.216708,-1.00869,48,3
13.3817,0.45561,1.64402,30,11
7.14422,0.241993,-0.877703,38,4
8.33347,0.279363,-0.729494,13,5
14.7241,0.491024,2.86366,6,13
9.6215,0.319175,-0.504519,87,6
17.9303,0.591682,4.1418,2,14
10.9524,0.361416,-0.191278,23,7
19.4336,0.637893,5.21003,10,15
14.2469,0.445242,0.248801,48,8
0.560966,0.017433,-0.129572,14,1
11.2073,0.346332,0.587628,20,9
0.729982,0.0225583,-0.141962,23,2
18.7654,0.576621,1.64254,6,10
6.36762,0.194548,-1.009,50,3
16.1413,0.490347,1.98281,8,11
7.17284,0.216647,-0.881115,39,4
8.29461,0.247631,-0.726007,32,5
13.3246,0.397797,2.59119,10,13
10.3892,0.308347,-0.544713,63,6
18.0745,0.53328,4.17464,15,14
13.9599,0.409448,-0.243775,88,7
14.5271,0.423549,3.89419,12,15
13.9485,0.387181,0.243566,37,8
0.529856,0.0146152,-0.122373,15,1
14.0614,0.385404,0.737204,30,9
0.728097,0.019829,-0.14158,34,2
19.6437,0.531546,1.71923,7,10
6.38211,0.171581,-1.01119,46,3
11.8447,0.318442,1.45488,3,11
7.19141,0.192083,-0.883309,40,4
13.5661,0.35998,2.14941,14,12
8.3731,0.220721,-0.732805,36,5
8.44355,0.219629,-0.442658,50,6
14.4159,0.37246,3.32928,9,14
13.9752,0.361075,-0.24402,25,7
13.4451,0.345031,3.6038,1,15
21.5145,0.518294,0.375646,19,8
0.56887,0.0136047,-0.131371,14,1
11.2214,0.268364,0.588256,17,9
0.712461,0.0169147,-0.138527,24,2
16.1697,0.381066,1.41506,40,10
6.3886,0.149439,-1.01213,38,3
13.3581,0.310139,1.64061,63,11
7.17222,0.165268,-0.880872,51,4
16.2432,0.374287,2.57335,35,12
8.40569,0.192218,-0.735594,35,5
13.2015,0.299588,2.56676,24,13
8.47422,0.19083,-0.444228,97,6
14.456,0.323004,3.33827,9,14
13.9024,0.310633,-0.242728,26,7
14.4448,0.320236,3.87142,23,15
13.717,0.284934,0.239482,6,8
0.529945,0.010916,-0.122373,15,1
11.2402,0.229562,0.589198,59,9
0.720367,0.0145864,-0.140054,23,2
6.38906,0.128254,-1.01213,50,3
11.8427,0.235663,1.45439,27,11
7.18265,0.141677,-0.88209,47,4
17.7138,0.346309,2.80612,8,12
8.22304,0.159327,-0.719558,33,5
13.222,0.256185,2.57058,37,13
8.4808,0.16284,-0.444542,47,6
14.42,0.274362,3.32973,18,14
14.1793,0.267307,-0.247545,100,7
14.3879,0.268727,3.85589,9,15
13.7019,0.236778,0.239203,13,8
0.561155,0.00959919,-0.129572,14,1
11.1012,0.18796,0.581871,29,9
0.732189,0.0123971,-0.142344,34,2
11.6758,0.19565,1.02164,46,10
6.37564,0.105723,-1.00994,48,3
13.2547,0.21748,1.62769,60,11
7.22081,0.117217,-0.886721,43,4
15.9847,0.256693,2.53205,12,12
8.20761,0.130371,-0.718163,53,5
8.48131,0.133234,-0.444542,90,6
14.3137,0.222364,3.30498,11,14
14.1282,0.217008,-0.246637,22,7
16.6931,0.253492,4.47343,5,15
13.7326,0.189358,0.239726,42,8
0.553391,0.00753407,-0.127772,14,1
10.7583,0.144594,0.563868,30,9
0.736156,0.0097653,-0.143107,22,2
6.36611,0.0822287,-1.00838,52,3
13.3387,0.172291,1.63792,56,11
7.34226,0.0935522,-0.901589,42,4
8.21797,0.101845,-0.719035,56,5
8.57361,0.103255,-0.449357,39,6
14.1508,0.16796,3.26719,33,14
14.1568,0.168032,-0.247126,52,7
13.7932,0.139634,0.240773,49,8
0.530031,0.00527322,-0.122373,15,1
10.6129,0.103734,0.556227,37,9
0.724406,0.0070806,-0.140817,34,2
11.6649,0.111981,1.02059,6,10
6.36241,0.0599674,-1.00775,50,3
13.4107,0.124052,1.6467,22,11
7.4557,0.0676694,-0.915483,33,4
12.9382,0.115171,2.04929,10,12
8.30595,0.0724831,-0.726705,33,5
12.9236,0.11278,2.51219,40,13
8.48205,0.0725434,-0.444542,61,6
14.0675,0.117858,3.24784,24,14
8.41843,0.0690567,-0.146949,16,7
13.5456,0.0898381,0.236445,22,8
0.557328,0.00359907,-0.128672,14,1
14.2422,0.0894931,0.746415,17,9
0.704795,0.00430536,-0.137001,24,2
11.6911,0.0693768,1.02286,48,10
6.34283,0.0365352,-1.00462,50,3
13.2403,0.0762655,1.62574,15,11
7.47376,0.0417415,-0.917676,42,4
12.9109,0.0698549,2.04491,11,12
8.28823,0.0434013,-0.725136,10,5
13.0496,0.0660504,2.53661,36,13
8.45629,0.0413256,-0.443181,14,6
12.5848,0.0593112,2.90547,34,14
13.7638,0.0648674,-0.24025,44,7
18.5359,0.0841145,4.96674,13,15
10.8843,0.0322958,0.189987,38,8
0.530055,0.00148027,-0.122373,15,1
11.5401,0.0302082,0.604794,35,9
0.706769,0.00185009,-0.137382,24,2
11.6734,0.0285253,1.02129,17,10
6.34687,0.0144017,-1.00525,50,3
12.6152,0.0264175,1.54896,18,11
7.99792,0.0153564,-0.982023,67,4
12.9861,0.0226676,2.0568,27,12
12.8318,0.0201527,2.49426,43,13
12.62,0.0154212,2.91357,19,14
8.61668,0.00902132,-0.150405,74,7
18.5303,0.0161754,4.96518,6,15
10.9403,-0.00572835,0.190964,37,8
0.561237,-0.000391817,-0.129572,14,1
13.839,-0.0120768,0.725272,23,9
0.72444,-0.000758632,-0.140817,23,2
12.6058,-0.0154009,1.10287,19,10
6.33305,-0.00884261,-1.00306,46,3
13.3934,-0.0187007,1.64451,3,11
7.51555,-0.0118054,-0.922795,41,4
13.0138,-0.0227133,2.06118,21,12
8.33614,-0.0160043,-0.729319,13,5
12.7886,-0.0267844,2.48586,48,13
8.45038,-0.0191733,-0.442867,83,6
12.5109,-0.0305699,2.88837,19,14
10.1284,-0.0247485,-0.176793,71,7
13.5306,-0.0354232,3.62554,12,15
10.9642,-0.0440135,0.191383,62,8
0.530053,-0.00222029,-0.122373,15,1
12.9581,-0.0565407,0.679111,4,9
0.74014,-0.00322949,-0.14387,22,2
6.34484,-0.0298996,-1.00494,53,3
13.3119,-0.0650546,1.63451,100,11
8.29758,-0.0419982,-1.01883,74,4
12.3578,-0.0647058,1.95731,32,12
8.25435,-0.0446608,-0.722172,35,5
12.6864,-0.0686405,2.46602,52,13
8.3584,-0.0466826,-0.438052,94,6
12.3529,-0.0711481,2.85193,42,14
14.2736,-0.0847021,-0.249151,94,7
12.75,-0.0778862,3.41641,9,15
13.4576,-0.101,0.234909,23,8
0.530042,-0.00407051,-0.122373,15,1
13.9704,-0.109725,0.73218,33,9
0.728344,-0.00584764,-0.14158,34,2
12.1831,-0.0999404,1.06591,36,10
6.34271,-0.0531378,-1.00462,50,3
13.3652,-0.11197,1.64109,15,11
8.07506,-0.0690605,-0.991529,61,4
12.3693,-0.107946,1.95919,49,12
8.25215,-0.0734558,-0.721998,43,5
12.8215,-0.116367,2.49235,42,13
8.37015,-0.0774282,-0.43868,65,6
12.3895,-0.116772,2.86048,53,14
8.47033,-0.0798334,-0.147857,32,7
11.0576,-0.12352,0.193024,58,8
0.549509,-0.00623425,-0.126872,15,1
11.9987,-0.138222,0.628869,7,9
0.720467,-0.00829955,-0.140054,23,2
12.1089,-0.141605,1.05947,20,10
6.35631,-0.0754418,-1.00681,48,3
13.3091,-0.160286,1.63427,71,11
8.28714,-0.101252,-1.01761,49,4
12.4696,-0.154529,1.97514,35,12
8.25981,-0.102359,-0.722695,41,5
12.8877,-0.161961,2.50532,12,13
8.53559,-0.108757,-0.447368,100,6
12.3793,-0.159893,2.85823,17,14
8.39,-0.109831,-0.146461,100,7
11.0051,-0.161355,0.192116,66,8
0.580661,-0.00861491,-0.134071,14,1
15.2354,-0.228698,0.798542,25,9
0.736138,-0.0110501,-0.143107,22,2
11.7677,-0.178699,1.02966,48,10
6.40144,-0.0983268,-1.01401,52,3
12.6058,-0.195827,1.54798,65,11
7.84809,-0.123288,-0.963743,48,4
8.21359,-0.130463,-0.718686,27,5
8.62103,-0.139945,-0.451869,50,6
16.4101,-0.269249,3.78908,27,14
8.41156,-0.139482,-0.146845,100,7
10.5567,-0.191639,0.184297,56,8
0.529968,-0.00971326,-0.122373,15,1
11.686,-0.214181,0.61254,35,9
0.728243,-0.0134744,-0.14158,23,2
11.9224,-0.222676,1.04325,40,10
6.39513,-0.12056,-1.01307,48,3
12.5911,-0.239564,1.54628,83,11
7.82181,-0.150186,-0.960574,37,4
7.3844,-0.143077,-0.646173,6,5
13.1964,-0.257993,2.56562,13,13
8.77824,-0.173149,-0.460138,47,6
8.80891,-0.175292,-0.153791,100,7
12.7477,-0.255896,3.41641,37,15
8.92259,-0.191575,0.15578,16,8
0.529933,-0.0114707,-0.122373,15,1
11.6832,-0.254928,0.612435,15,9
0.743893,-0.0163617,-0.144633,44,2
9.64478,-0.213818,0.844016,44,10
6.4026,-0.141941,-1.01432,48,3
11.6992,-0.261406,1.43684,16,11
7.43626,-0.167454,-0.913289,65,4
12.0704,-0.273916,1.91226,44,12
7.44361,-0.170219,-0.651402,10,5
13.3408,-0.305074,2.59386,41,13
8.29841,-0.191215,-0.435017,58,6
12.8719,-0.298847,2.9725,29,14
10.1337,-0.237044,-0.176932,100,7
12.7448,-0.300347,3.41589,56,15
8.91786,-0.22262,0.15571,52,8
0.549371,-0.0138101,-0.126872,15,1
0.739907,-0.0188582,-0.14387,33,2
9.64203,-0.245749,0.843842,38,10
6.42379,-0.164847,-1.01776,45,3
11.724,-0.302909,1.44001,57,11
7.45944,-0.194029,-0.916214,53,4
11.9351,-0.312531,1.89098,54,12
7.53858,-0.198721,-0.659769,11,5
12.688,-0.336678,2.46716,47,13
10.2403,-0.273517,-0.536862,87,6
12.4149,-0.3316,2.86723,51,14
10.1008,-0.271556,-0.176374,100,7
12.5157,-0.338666,3.35481,26,15
8.91499,-0.255247,0.155675,46,8
0.549317,-0.0158236,-0.126872,15,1
9.28735,-0.269153,0.486934,108,9
0.724133,-0.0211123,-0.140817,34,2
9.62115,-0.280507,0.842099,24,10
6.43301,-0.18868,-1.01933,42,3
11.8101,-0.348453,1.45073,40,11
7.72853,-0.229377,-0.949362,22,4
11.9339,-0.356273,1.89098,47,12
7.47009,-0.224317,-0.653842,23,5
12.667,-0.382587,2.46334,60,13
10.2372,-0.310987,-0.536758,100,6
12.4993,-0.379705,2.88702,70,14
10.1457,-0.30998,-0.177177,100,7
12.4662,-0.383053,3.34187,25,15
8.91399,-0.28792,0.155675,66,8
0.568732,-0.0184693,-0.131371,14,1
9.30033,-0.302024,0.487667,65,9
0.731904,-0.0238961,-0.142344,34,2
9.6081,-0.315376,0.841053,52,10
6.44807,-0.212778,-1.02183,48,3
11.7354,-0.389302,1.44171,91,11
7.55702,-0.252012,-0.928401,57,4
11.972,-0.399245,1.89724,54,12
7.92526,-0.265677,-0.69376,18,5
12.6931,-0.427727,2.46869,38,13
10.278,-0.34814,-0.538956,59,6
12.7276,-0.433339,2.94011,99,14
12.4763,-0.426962,3.34498,44,15
9.08885,-0.323743,0.158747,38,8
0.549193,-0.0196581,-0.126872,15,1
9.31918,-0.335204,0.488713,61,9
0.739664,-0.0267344,-0.14387,33,2
11.8469,-0.430266,1.03715,38,10
6.47694,-0.235235,-1.02652,50,3
11.974,-0.436976,1.47121,66,11
7.6097,-0.279035,-0.934982,68,4
12.0239,-0.442996,1.90568,52,12
8.05569,-0.298205,-0.705264,18,5
12.7622,-0.472431,2.48242,14,13
8.27891,-0.307914,-0.434179,61,6
12.804,-0.478454,2.95811,42,14
10.4131,-0.39093,-0.181889,45,7
12.5693,-0.474078,3.37034,19,15
0.553016,-0.021728,-0.127772,14,1
9.30198,-0.367102,0.487876,42,9
