x, y, z, intensity, ring
7.97124,-7.5196,-0.191278,27,7
6.6275,-6.25418,2.4417,18,15
6.9427,-6.56998,0.166845,10,8
0.365123,-0.345642,-0.116075,16,1
7.48013,-7.08351,0.539898,52,9
0.451812,-0.428005,-0.120973,15,2
6.53242,-6.19037,0.787365,3,10
4.42625,-4.19449,-0.965827,62,3
7.35762,-6.97725,-1.24502,28,4
7.35766,-6.97972,1.60627,68,12
11.7295,-11.1309,-1.41471,30,5
6.61777,-6.28003,1.77338,9,13
15.9584,-15.1492,-1.15317,9,6
11.4574,-10.8803,3.64781,14,14
7.94494,-7.54738,-0.191278,83,7
6.59022,-6.26264,2.43601,63,15
13.5427,-12.9055,0.326535,24,8
0.383661,-0.365739,-0.122373,15,1
7.4091,-7.06546,0.536548,32,9
0.458915,-0.43763,-0.123263,15,2
6.48735,-6.18862,0.784402,15,10
4.47018,-4.26583,-0.978654,32,3
6.73138,-6.42591,1.14265,15,11
7.31169,-6.98232,-1.24136,20,4
7.91032,-7.55662,1.73267,47,12
7.98576,-7.63135,-0.966383,42,5
6.59864,-6.3058,1.77414,16,13
15.7971,-15.1013,-1.14532,13,6
6.42092,-6.14025,2.0511,5,14
17.9034,-17.1268,-0.432471,27,7
6.55576,-6.27358,2.43135,40,15
6.54462,-6.28045,0.158328,10,8
0.371136,-0.356279,-0.118774,16,1
6.38176,-6.12844,0.463697,104,9
0.462971,-0.444749,-0.124789,14,2
7.81645,-7.51143,0.948429,10,10
4.37049,-4.20141,-0.960195,47,3
6.66741,-6.40947,1.13558,5,11
4.83624,-4.65077,-0.823837,15,4
7.5465,-7.25962,1.65852,60,12
7.94902,-7.64951,-0.965163,84,5
6.39276,-6.15834,2.0493,20,14
7.91222,-7.62208,-0.191767,100,7
6.28065,-6.05245,2.33714,62,15
6.49712,-6.28077,0.157735,6,8
0.381034,-0.368475,-0.122373,15,1
6.38652,-6.17818,0.465685,15,9
0.447305,-0.432712,-0.120973,15,2
7.78016,-7.52897,0.947209,23,10
4.56727,-4.42136,-1.00681,13,3
6.40572,-6.20324,1.09487,27,11
7.26011,-7.03308,-1.24112,50,4
9.62925,-9.3314,2.12375,14,12
7.9338,-7.69108,-0.966731,72,5
7.87873,-7.64035,-0.575172,66,6
6.21545,-6.03372,2.32109,52,15
6.46799,-6.29644,0.15756,43,8
0.3602,-0.350769,-0.116075,16,1
0.459776,-0.448051,-0.124789,14,2
6.43284,-6.27098,0.785971,3,10
4.73065,-4.61322,-1.04655,47,3
6.35703,-6.19923,1.09024,22,11
7.22557,-7.04868,-1.23941,59,4
7.78418,-7.59626,1.72266,22,12
12.0058,-11.72,-1.46788,51,5
7.33346,-7.16142,1.99243,56,13
7.87639,-7.6943,-0.577056,100,6
26.0087,-25.4163,8.39562,12,14
7.84174,-7.66313,-0.191383,49,7
6.25514,-6.1148,2.34387,45,15
6.45058,-6.3257,0.1577,51,8
0.378388,-0.371192,-0.122373,15,1
0.461012,-0.452403,-0.125552,14,2
6.37963,-6.26269,0.782136,48,10
4.7117,-4.62694,-1.04592,60,3
6.31161,-6.20023,1.08634,72,11
7.18836,-7.06398,-1.23746,22,4
7.73093,-7.59981,1.71702,10,12
12.0032,-11.7996,-1.47258,18,5
7.31262,-7.19111,1.99357,13,13
6.79353,-6.68531,2.20047,40,14
6.30426,-6.20817,2.37078,44,15
7.77448,-7.67739,0.19072,51,8
0.349362,-0.34512,-0.113375,16,1
7.73676,-7.64548,0.570043,131,9
0.453844,-0.44849,-0.124026,14,2
6.37049,-6.29752,0.783704,75,10
6.21808,-6.14901,-1.38507,38,3
6.34073,-6.27248,1.09512,25,11
4.82281,-4.77257,-0.833099,40,4
11.9152,-11.7952,-1.46683,6,5
11.8763,-11.7649,-0.876104,45,6
6.76739,-6.70624,2.19957,28,14
15.6387,-15.5029,-0.384372,64,7
7.3525,-7.29116,2.77454,33,15
9.1443,-9.09338,0.225101,37,8
0.375787,-0.373825,-0.122373,15,1
7.72276,-7.68512,0.570985,131,9
0.441143,-0.438992,-0.120973,15,2
6.37106,-6.34221,0.786493,76,10
6.23997,-6.21389,-1.39477,25,3
6.25129,-6.22733,1.08342,72,11
4.79768,-4.78096,-0.831636,40,4
11.881,-11.8437,-1.4677,3,5
11.3063,-11.2787,-0.836957,25,6
6.71359,-6.69954,2.18967,61,14
15.5746,-15.5475,-0.384127,39,7
7.37758,-7.36729,2.79369,32,15
9.07294,-9.08562,0.224124,8,8
0.37448,-0.375134,-0.122373,15,1
0.456249,-0.457206,-0.125552,14,2
6.20569,-6.22304,-1.39195,35,3
6.20569,-6.22522,1.07927,65,11
7.07616,-7.10091,-1.23088,55,4
10.9073,-10.9493,-1.35213,21,5
6.47637,-6.50356,1.78406,28,13
11.7826,-11.8362,-0.875267,13,6
11.7872,-11.8491,-0.291734,31,7
26.397,-26.619,0.654361,23,8
0.356705,-0.359831,-0.116975,16,1
6.62414,-6.6822,0.493109,35,9
0.457414,-0.461585,-0.126316,14,2
8.87859,-8.96266,1.10374,19,10
6.62455,-6.68961,-1.49113,11,3
6.16856,-6.23132,1.07659,22,11
4.75162,-4.80164,-0.829443,12,4
7.58372,-7.66356,1.70764,115,12
8.86953,-8.96603,-1.10339,11,5
10.3315,-10.4512,-0.770176,6,6
8.40796,-8.51132,3.20573,21,15
9.07264,-9.20985,0.22566,50,8
0.371918,-0.377674,-0.122373,15,1
6.59937,-6.70386,0.493005,42,9
0.453046,-0.46038,-0.125552,14,2
26.0094,-26.4397,3.24481,21,10
9.48513,-9.64204,-2.14221,45,3
6.13394,-6.23759,1.07416,12,11
7.05411,-7.1758,-1.23551,19,4
8.82003,-8.97846,-1.10113,26,5
7.85063,-7.99444,-0.587209,40,6
7.41966,-7.55821,2.44522,100,14
11.3799,-11.5965,-0.283602,86,7
6.77913,-6.91055,2.59388,21,15
8.94115,-9.13997,0.223181,45,8
0.351522,-0.359465,-0.116075,16,1
6.59268,-6.74399,0.494261,48,9
0.426814,-0.43661,-0.118683,15,2
8.91207,-9.11979,1.11559,9,10
9.23884,-9.45748,-2.09403,35,3
6.11768,-6.26464,1.07513,25,11
9.06048,-9.28138,-1.59259,13,4
10.467,-10.7259,-1.31117,13,5
10.3271,-10.5899,-0.7752,16,6
7.23407,-7.4208,2.39258,64,14
10.0917,-10.3558,-0.252397,21,7
6.67813,-6.85529,2.56438,21,15
9.04017,-9.30595,0.226462,31,8
0.369272,-0.380262,-0.122373,15,1
6.5065,-6.70247,0.489551,40,9
0.441697,-0.455001,-0.123263,15,2
8.8774,-9.14798,1.11524,9,10
9.15075,-9.43296,-2.08152,31,3
7.32571,-7.55427,1.29206,84,11
8.52094,-8.78986,-1.50314,4,4
8.76841,-9.0483,-1.10235,11,5
8.09753,-8.36184,-0.610028,3,6
7.28538,-7.52581,2.41822,71,14
6.68102,-6.90633,2.57473,4,15
9.05344,-9.38494,0.227614,25,8
0.367943,-0.381548,-0.122373,15,1
6.49692,-6.73952,0.490597,23,9
0.450925,-0.467926,-0.126316,14,2
7.27763,-7.55202,0.917576,44,10
9.15203,-9.50041,-2.08934,37,3
7.27451,-7.55406,1.28767,12,11
8.29059,-8.61218,-1.46779,1,4
6.14461,-6.38519,1.40353,88,12
8.60535,-8.94541,-1.08596,4,5
8.29562,-8.62645,2.32634,30,13
8.59557,-8.94148,-0.650013,13,6
7.31849,-7.61301,2.43802,77,14
11.3632,-11.8246,-0.286254,63,7
8.98441,-9.38196,0.226742,33,8
0.347676,-0.363187,-0.116075,16,1
9.00609,-9.41117,0.68267,6,9
0.430207,-0.449715,-0.120973,15,2
11.4671,-11.987,1.45132,34,10
5.57159,-5.82626,-1.27682,33,3
8.12879,-8.50332,1.4444,3,11
8.41257,-8.80325,-1.49509,16,4
6.0352,-6.31768,1.38382,68,12
9.51507,-9.96391,-1.20536,47,5
8.30326,-8.69798,2.33741,35,13
8.63444,-9.04806,-0.655456,16,6
8.45294,-8.85787,2.82674,36,14
7.82764,-8.20548,-0.197945,37,7
6.65276,-6.97633,2.58301,42,15
8.36579,-8.80031,0.211942,18,8
0.365136,-0.384235,-0.122373,15,1
9.19057,-9.67131,0.699208,34,9
0.417818,-0.439826,-0.11792,16,2
11.493,-12.1027,1.46021,28,10
5.55428,-5.85094,-1.27776,57,3
8.50613,-8.9636,1.51727,35,11
8.36522,-8.81818,-1.49241,24,4
5.94378,-6.26562,1.36786,65,12
9.55289,-10.0737,-1.2146,30,5
8.23233,-8.68417,2.32596,36,13
8.58632,-9.06075,-0.6542,19,6
8.4298,-8.89869,2.82988,25,14
13.9669,-14.7438,-0.354493,7,7
6.62306,-6.9939,2.58094,42,15
6.30871,-6.68061,0.160388,31,8
0.345132,-0.365605,-0.116075,16,1
6.34804,-6.72696,0.484736,22,9
0.41628,-0.441282,-0.11792,16,2
11.4945,-12.1891,1.46579,6,10
5.53078,-5.86502,-1.27682,25,3
6.5891,-6.98973,1.17945,30,11
8.21476,-8.7173,-1.47072,6,4
6.10743,-6.48332,1.41073,71,12
8.3703,-8.88856,-1.06818,11,5
8.41345,-8.93439,2.38549,15,13
7.96482,-8.46093,-0.608981,16,6
8.43763,-8.96633,2.84248,57,14
13.8249,-14.6963,-0.35219,21,7
6.43715,-6.84528,2.51779,54,15
8.33168,-8.88476,0.212605,8,8
0.362512,-0.386712,-0.122373,15,1
6.26989,-6.69079,0.480549,120,9
0.444265,-0.474254,-0.126316,14,2
6.99852,-7.47093,0.895612,2,10
5.49677,-5.86987,-1.27369,7,3
8.38795,-8.96042,1.50704,31,11
7.91573,-8.45893,-1.42246,6,4
8.33242,-8.91045,-1.06731,19,5
8.03466,-8.59805,-0.616727,16,6
8.35439,-8.9402,2.82494,44,14
8.07299,-8.64209,-0.206427,9,7
6.50814,-6.96937,2.55506,52,15
6.26756,-6.7329,0.160562,2,8
0.361092,-0.388038,-0.122373,15,1
6.24125,-6.70934,0.480235,114,9
0.423807,-0.455751,-0.120973,15,2
25.8139,-27.7596,3.31645,32,10
5.43353,-5.84513,-1.26399,10,3
8.28343,-8.91403,1.49412,10,11
8.28458,-8.91839,-1.49461,45,4
5.98427,-6.44435,1.39289,12,12
8.21838,-8.85332,-1.05685,23,5
8.74703,-9.42611,2.4996,10,13
7.89987,-8.51616,-0.608772,13,6
8.22615,-8.8679,2.79254,53,14
7.84547,-8.46048,-0.201401,66,7
6.25505,-6.76905,0.160876,12,8
0.333221,-0.360729,-0.113375,16,1
6.22203,-6.73803,0.480653,60,9
0.427541,-0.462997,-0.122499,15,2
8.81122,-9.54528,1.13651,19,10
5.36786,-5.8171,-1.25367,33,3
8.02997,-8.70504,1.45415,37,11
8.25587,-8.95307,-1.49534,51,4
11.1474,-12.093,2.60495,10,12
8.27655,-8.97864,-1.06836,45,5
7.24399,-7.86124,2.07791,10,13
9.35723,-10.1581,-0.723806,26,6
8.26223,-8.97253,2.81594,42,14
7.69252,-8.35676,-0.198259,9,7
6.49743,-7.06096,2.57111,14,15
7.83621,-8.53975,0.202308,13,8
0.358306,-0.390612,-0.122373,15,1
8.98185,-9.79511,0.696487,26,9
0.412654,-0.450017,-0.118683,15,2
8.67014,-9.45848,1.12257,21,10
5.33818,-5.8256,-1.25148,16,3
8.04244,-8.77986,1.46194,38,11
8.21653,-8.97305,-1.49387,45,4
25.5419,-27.9035,5.99144,11,12
8.23843,-9.00012,-1.06748,52,5
7.82135,-8.55047,-0.607306,33,6
8.13146,-8.89573,-0.210371,21,7
6.42453,-7.03083,2.55196,26,15
0.356941,-0.39186,-0.122373,15,1
6.21384,-6.82413,0.483689,15,9
0.419011,-0.460164,-0.120973,15,2
6.82114,-7.49371,0.886548,16,10
7.55395,-8.30169,-1.77772,11,3
7.77398,-8.54649,1.41856,47,11
8.37605,-9.21485,1.97233,7,12
8.19088,-9.01114,-1.06539,47,5
8.22386,-9.05377,-0.641011,61,6
7.02955,-7.74164,2.41417,1,14
8.61243,-9.4882,-0.22367,22,7
6.41293,-7.06752,2.55713,7,15
7.72408,-8.53642,0.200947,23,8
8.67749,-9.59684,0.678065,58,9
0.406868,-0.449974,-0.11792,16,2
8.51572,-9.42123,1.11106,19,10
5.28546,-5.84954,-1.24866,65,3
7.71483,-8.54117,1.4132,43,11
9.54788,-10.5743,-1.74931,48,4
8.16472,-9.04559,-1.06609,47,5
10.9149,-12.0967,3.16705,5,13
8.13335,-9.01716,-0.636405,74,6
0.354196,-0.394342,-0.122373,15,1
6.59971,-7.35034,0.517707,65,9
0.415788,-0.463078,-0.120973,15,2
6.84452,-7.62566,0.896484,10,10
5.24522,-5.8459,-1.24397,70,3
7.71413,-8.60055,1.41856,37,11
8.96228,-9.99565,-1.6484,21,4
8.05321,-8.98807,2.34581,18,13
8.13114,-9.07823,-0.638708,81,6
7.02993,-7.85151,2.43307,24,14
8.15789,-9.11449,-0.213513,24,7
5.98085,-6.68453,2.40339,40,15
0.352817,-0.395576,-0.122373,15,1
6.56471,-7.36289,0.516975,17,9
0.411556,-0.461596,-0.12021,15,2
6.80195,-7.63166,0.894392,16,10
5.21033,-5.84795,-1.24053,40,3
6.32417,-7.10058,1.16751,10,11
9.09366,-10.2137,-1.67912,28,4
6.80556,-7.64645,1.62129,9,12
9.73992,-10.9434,-1.28171,21,5
8.10662,-9.11146,2.37061,16,13
8.11798,-9.12745,-0.640173,68,6
7.00507,-7.87891,2.43397,10,14
8.1061,-9.12049,-0.212989,23,7
5.96775,-6.71691,2.40753,9,15
7.90081,-8.91768,0.207963,15,8
0.351434,-0.396806,-0.122373,15,1
5.85846,-6.61713,0.463173,20,9
0.402134,-0.45421,-0.11792,16,2
6.19559,-7.00038,0.817869,8,10
9.05776,-10.2379,-2.16505,9,3
7.89456,-8.92632,1.46316,31,11
6.47955,-7.32895,-1.20114,11,4
9.82437,-11.1162,-1.29792,10,5
8.23594,-9.32215,2.41793,11,13
9.52586,-10.786,-0.754161,35,6
6.993,-7.92085,2.43937,29,14
8.0504,-9.12175,-0.212361,26,7
8.04134,-9.14039,0.2125,57,8
0.350047,-0.39803,-0.122373,15,1
5.8195,-6.61954,0.461917,36,9
0.421286,-0.479203,-0.124026,14,2
6.18558,-7.03842,0.819787,44,10
6.33493,-7.2109,-1.52023,22,3
7.76904,-8.84643,1.44561,30,11
6.49452,-7.39777,-1.2087,9,4
10.0891,-11.4963,-1.33819,5,5
9.53161,-10.8687,-0.757615,16,6
6.93961,-7.9159,2.43037,10,14
8.05145,-9.18739,-0.213234,22,7
5.96399,-6.80782,2.42513,14,15
7.98702,-9.1428,0.211907,58,8
0.348656,-0.399249,-0.122373,15,1
5.71887,-6.55104,0.455742,32,9
0.414447,-0.474754,-0.122499,15,2
6.14657,-7.04346,0.817869,22,10
6.17987,-7.08411,-1.48894,13,3
7.7055,-8.83609,1.43952,20,11
6.43474,-7.38149,-1.20236,16,4
8.06573,-9.2557,1.94448,16,12
9.99785,-11.4729,-1.33139,23,5
7.03327,-8.07376,2.08134,13,13
7.85276,-9.01766,-0.626671,29,6
6.94905,-7.9827,2.44342,26,14
12.1163,-13.9235,-0.322171,67,7
7.98257,-9.20235,0.21264,22,8
0.34726,-0.400464,-0.122373,15,1
8.02851,-9.26183,0.642372,44,9
0.417931,-0.482132,-0.124026,14,2
8.00602,-9.23914,1.06958,29,10
6.29737,-7.26988,-1.52336,28,3
7.9358,-9.16457,1.48851,38,11
6.45051,-7.45193,-1.21016,35,4
8.06569,-9.32114,1.9523,32,12
9.87169,-11.4083,-1.31989,28,5
7.6421,-8.83474,2.27063,4,13
9.39149,-10.861,-0.752486,29,6
6.12848,-7.0899,2.16358,13,14
10.8151,-12.5162,-0.288733,100,7
6.17141,-7.14461,2.5297,48,15
7.94518,-9.22409,0.2125,15,8
0.34586,-0.401674,-0.122373,15,1
7.97137,-9.26104,0.640383,64,9
0.416161,-0.483661,-0.124026,14,2
7.97372,-9.26703,1.06958,60,10
6.30673,-7.33225,-1.53181,43,3
7.70316,-8.95891,1.45073,37,11
9.31256,-10.8345,-1.75419,13,4
8.02666,-9.34175,1.95074,23,12
11.3656,-13.2324,-1.5261,21,5
7.73337,-9.00994,2.74125,23,14
10.9068,-12.7117,-0.292363,69,7
6.19674,-7.22476,2.5504,56,15
6.31294,-7.38367,0.169568,57,8
0.344385,-0.402939,-0.122373,15,1
7.94386,-9.29778,0.640906,58,9
0.386335,-0.45234,-0.11563,16,2
7.90347,-9.25377,1.06469,47,10
7.88161,-9.23471,1.49071,59,11
7.53728,-8.83438,-1.42587,11,4
11.2924,-13.2451,-1.52279,15,5
7.814,-9.16844,2.34161,23,13
9.61212,-11.2822,-0.77677,39,6
6.02956,-7.0772,2.14648,24,14
10.877,-12.7713,-0.292816,100,7
6.45325,-7.57986,2.66739,26,15
7.63022,-8.99088,0.205834,15,8
0.342906,-0.404198,-0.122373,15,1
8.12417,-9.5797,0.658282,41,9
0.384753,-0.453686,-0.11563,16,2
7.88367,-9.2994,1.06661,27,10
6.28356,-7.41719,1.19359,16,11
5.63954,-6.65934,-1.07148,5,4
11.8865,-14.0409,2.91375,33,12
11.4045,-13.4715,-1.54423,6,5
6.31839,-7.46623,1.90122,32,13
9.62944,-11.3828,-0.781376,26,6
7.88859,-9.32828,2.82044,40,14
10.7539,-12.721,-0.290757,39,7
6.35809,-7.52378,2.63944,37,15
7.59879,-9.01746,0.205834,28,8
7.89643,-9.37731,0.642476,10,9
0.410988,-0.488064,-0.124026,14,2
6.47185,-7.68829,0.879227,46,10
7.87155,-9.35771,1.50143,38,11
5.62648,-6.69114,-1.07343,27,4
7.89842,-9.3963,1.94417,35,12
11.6945,-13.9123,-1.59007,13,5
6.18746,-7.36348,1.86955,36,13
8.00186,-9.52611,-0.652001,29,6
7.71187,-9.18413,2.7687,51,14
10.685,-12.7294,-0.290094,24,7
6.25976,-7.4601,2.60941,30,15
7.93299,-9.48102,0.215782,47,8
0.340076,-0.406582,-0.122373,15,1
7.90373,-9.4494,0.645616,25,9
0.396689,-0.474434,-0.12021,15,2
7.82494,-9.36185,1.06748,24,10
5.92631,-7.09281,-1.46391,22,3
6.21254,-7.43802,1.18993,30,11
9.13238,-10.9377,-1.74956,37,4
7.83176,-9.37998,1.93541,50,12
11.5731,-13.8659,-1.58013,27,5
6.5881,-7.89607,1.99892,20,13
6.41557,-7.69748,2.68499,65,15
7.88233,-9.4842,0.215258,16,8
0.338726,-0.407708,-0.122373,15,1
5.89281,-7.09541,0.483375,56,9
0.397538,-0.478837,-0.120973,15,2
7.88638,-9.50256,1.08038,22,10
5.86743,-7.06986,-1.45515,17,3
6.13841,-7.399,1.18043,74,11
9.1252,-11.0031,-1.75516,15,4
7.82545,-9.4392,1.94198,40,12
11.2933,-13.627,-1.54841,26,5
6.75605,-8.15217,2.05807,8,13
6.68961,-8.07773,2.42137,14,14
14.3676,-17.3551,-0.393273,32,7
6.25318,-7.55611,2.62805,20,15
7.86572,-9.53171,0.215712,42,8
0.31994,-0.387842,-0.116075,16,1
6.16408,-7.47497,0.507764,82,9
0.415933,-0.504388,-0.127079,14,2
8.15011,-9.88687,1.121,19,10
5.83015,-7.07506,-1.45202,26,3
7.91488,-9.60834,1.52849,17,11
8.03224,-9.75776,2.00174,11,12
5.38039,-6.53855,-0.740824,16,5
7.78665,-9.46278,2.38206,26,13
10.394,-12.6359,-0.857472,16,6
6.6589,-8.09803,2.42047,17,14
13.0511,-15.8773,-0.358752,100,7
13.2733,-16.1994,0.365558,14,8
0.335871,-0.410062,-0.122373,15,1
6.13668,-7.49489,0.507659,26,9
0.369316,-0.451216,-0.113341,16,2
8.89353,-10.8696,1.22872,28,10
5.81419,-7.10861,-1.45453,31,3
7.92025,-9.68355,1.53604,17,11
5.52867,-6.76193,-1.07245,38,4
10.3583,-12.6734,2.59243,25,12
5.30459,-6.49249,-0.733503,7,5
7.75067,-9.48973,2.38168,39,13
6.44579,-7.89487,-0.534141,56,6
6.62178,-8.11332,2.41777,19,14
11.3822,-13.946,-0.314213,90,7
6.48971,-7.95434,2.75073,41,15
13.2378,-16.2775,0.366221,49,8
0.334366,-0.411291,-0.122373,15,1
6.12177,-7.53283,0.508706,65,9
0.391264,-0.48145,-0.120591,15,2
10.5678,-13.0084,1.46631,65,10
5.76319,-7.09666,-1.44796,40,3
7.84342,-9.66165,1.528,21,11
5.61517,-6.91933,-1.09414,35,4
5.9337,-7.31445,1.49176,26,12
5.25177,-6.47383,-0.729319,2,5
5.92693,-7.30871,1.8291,30,13
6.45089,-7.95766,-0.536862,42,6
6.59219,-8.13487,2.41732,14,14
12.956,-15.9936,-0.359275,81,7
7.67505,-9.4779,3.26785,13,15
13.2902,-16.4589,0.369258,28,8
0.332928,-0.412455,-0.122373,15,1
6.08666,-7.54328,0.507973,75,9
0.38465,-0.476701,-0.119065,15,2
13.8159,-17.1284,1.92527,35,10
5.68507,-7.05061,-1.4345,23,3
7.81587,-9.6967,1.52922,17,11
5.58351,-6.92962,-1.09268,52,4
7.85231,-9.74887,1.98265,19,12
5.56533,-6.90952,-0.776209,12,5
5.90262,-7.33089,1.82948,24,13
7.78308,-9.66982,-0.650536,35,6
11.7385,-14.5894,4.32311,12,14
6.41057,-7.97029,-0.178538,100,7
6.44957,-8.02165,2.75798,28,15
13.1113,-16.3539,0.365872,57,8
0.331487,-0.413615,-0.122373,15,1
0.377991,-0.471978,-0.117538,16,2
10.539,-13.1596,1.47502,18,10
5.41474,-6.76354,-1.37224,25,3
7.2511,-9.06058,1.4249,37,11
8.102,-10.1311,2.05461,14,12
5.15803,-6.45211,-0.722695,17,5
5.78378,-7.23745,1.80086,51,13
7.78249,-9.74198,-0.653467,35,6
11.3263,-14.178,4.18949,33,14
10.5493,-13.2101,-0.295085,54,7
7.66896,-9.60674,3.29373,12,15
10.8823,-13.676,0.305068,28,8
0.329968,-0.414827,-0.122373,15,1
10.7176,-13.4787,0.902481,8,9
0.393361,-0.494877,-0.122881,15,2
13.9472,-17.5465,1.961,37,10
5.09867,-6.4168,-1.29809,13,3
7.62776,-9.60316,1.50582,28,11
5.56094,-7.0036,-1.09804,8,4
7.72463,-9.73209,1.96795,26,12
4.95726,-6.24778,-0.697769,52,5
5.74746,-7.24629,1.7978,66,13
7.65242,-9.65149,-0.645512,52,6
7.19774,-9.07804,2.67467,8,14
6.3335,-7.99089,-0.17798,25,7
10.1459,-12.8055,4.37767,11,15
10.7862,-13.6577,0.303777,21,8
0.328446,-0.416034,-0.122373,15,1
10.6284,-13.4627,0.898922,26,9
0.384334,-0.487,-0.120591,15,2
6.24539,-7.91655,0.88219,26,10
5.05555,-6.41063,-1.29309,36,3
7.38973,-9.37383,1.4656,28,11
5.5168,-6.99802,-1.09414,55,4
7.80677,-9.90639,1.99767,35,12
4.94898,-6.28226,-0.699686,45,5
5.72091,-7.26477,1.79742,23,13
7.65451,-9.72366,-0.648547,35,6
6.34756,-8.06341,2.36918,1,14
6.27342,-7.97209,-0.177072,26,7
7.54866,-9.59608,3.27147,12,15
7.33831,-9.35553,0.207544,13,8
0.327064,-0.417121,-0.122373,15,1
6.07687,-7.75012,0.516137,21,9
0.39725,-0.506814,-0.125171,14,2
6.16872,-7.87292,0.875044,40,10
6.96332,-8.89343,1.38687,35,11
4.93429,-6.30199,-0.982754,12,4
6.05839,-7.74045,1.55684,35,12
4.98337,-6.36925,-0.70753,11,5
5.6472,-7.22029,1.78177,27,13
13.1482,-16.8168,-1.11873,26,6
6.32558,-8.09055,2.37098,22,14
6.24202,-7.98655,-0.176932,97,7
7.51323,-9.61649,3.26992,28,15
10.4877,-13.4624,0.297878,24,8
0.301732,-0.387453,-0.113375,16,1
6.06818,-7.79492,0.517707,25,9
0.373776,-0.480309,-0.118302,15,2
6.14502,-7.89647,0.875392,16,10
5.2179,-6.70751,-1.34596,21,3
7.02884,-9.0387,1.40588,35,11
4.90983,-6.31604,-0.982267,24,4
6.04224,-7.77559,1.55965,26,12
5.03322,-6.47944,-0.717815,6,5
6.65147,-8.56576,2.10806,28,13
10.6107,-13.6693,-0.906878,50,6
6.31164,-8.13106,2.37638,12,14
5.0495,-6.50742,-0.143773,64,7
7.05573,-9.09619,3.08461,22,15
10.4004,-13.4517,0.296796,19,8
0.324144,-0.419394,-0.122373,15,1
6.01759,-7.78866,0.515823,25,9
0.396013,-0.512751,-0.125934,14,2
6.53864,-8.46611,0.935878,57,10
4.94219,-6.40137,-1.28089,23,3
5.80708,-7.52434,1.16702,2,11
4.88543,-6.33242,-0.982023,22,4
7.7967,-10.1096,2.02207,43,12
5.15298,-6.68404,-0.738383,28,5
7.38462,-9.5822,2.35153,18,13
10.9725,-14.2429,-0.942257,28,6
5.02195,-6.52113,-0.143668,100,7
7.0683,-9.18169,3.10479,23,15
10.1782,-13.2644,0.291839,37,8
0.322605,-0.420579,-0.122373,15,1
5.98915,-7.80804,0.515719,20,9
0.387054,-0.504783,-0.123644,14,2
6.52332,-8.51058,0.938144,51,10
5.28032,-6.89141,-1.37506,13,3
6.84652,-8.9387,1.38249,35,11
4.9527,-6.4685,-1.0003,6,4
7.74095,-10.1101,2.01675,13,12
5.1829,-6.7716,-0.746053,28,5
5.53303,-7.23167,1.76994,20,13
10.9421,-14.3065,-0.943931,14,6
6.19979,-8.10899,2.35659,24,14
4.96029,-6.48779,-0.142551,72,7
7.11363,-9.30761,3.13896,10,15
10.105,-13.2599,0.291001,27,8
0.321209,-0.421647,-0.122373,15,1
8.58522,-11.2738,0.742647,15,9
0.373398,-0.490509,-0.119828,15,2
4.98829,-6.55518,-1.30466,23,3
7.30839,-9.60754,1.48218,10,11
4.94924,-6.50859,-1.00396,39,4
8.36906,-11.0099,2.1904,38,12
4.91694,-6.47079,-0.711016,30,5
5.50189,-7.2406,1.76765,14,13
16.9846,-22.3602,-1.47158,14,6
9.78608,-12.888,3.73599,15,14
4.94124,-6.50984,-0.142656,72,7
7.20371,-9.49398,3.19331,24,15
5.48118,-7.24479,0.158573,43,8
0.319735,-0.422765,-0.122373,15,1
5.92968,-7.84328,0.5153,8,9
0.367033,-0.485481,-0.118302,15,2
6.09405,-8.06362,0.884282,52,10
4.92489,-6.51897,-1.29403,18,3
5.71601,-7.56889,1.16458,10,11
4.93008,-6.53058,-1.00469,34,4
8.30321,-11.0027,2.1832,42,12
5.0911,-6.74877,-0.739604,28,5
7.01244,-9.29569,2.26338,19,13
10.8721,-14.4173,-0.946339,31,6
6.48815,-8.60695,2.48841,30,14
6.41076,-8.50737,-0.185938,100,7
7.2763,-9.65948,3.24041,21,15
5.47867,-7.29426,0.159236,27,8
0.318257,-0.423879,-0.122373,15,1
5.92984,-7.90067,0.517707,8,9
0.372321,-0.496245,-0.120591,15,2
6.05608,-8.07475,0.883062,22,10
4.66753,-6.22561,-1.23239,33,3
5.63359,-7.51415,1.15313,23,11
5.41679,-7.22762,-1.10901,39,4
8.28133,-11.0538,2.18758,52,12
5.10334,-6.81434,-0.744833,31,5
7.06304,-9.43449,2.29085,38,13
10.112,-13.5121,-0.884478,20,6
6.44839,-8.61975,2.48526,20,14
4.95796,-6.62745,-0.144471,100,7
7.02272,-9.39087,3.14206,21,15
5.45549,-7.3191,0.15934,7,8
0.316701,-0.425042,-0.122373,15,1
12.82,-17.2056,1.12449,3,9
0.370586,-0.497542,-0.120591,15,2
6.07307,-8.15656,0.889686,28,10
4.62572,-6.21493,-1.22707,5,3
5.64392,-7.58571,1.16093,21,11
4.83584,-6.50197,-0.994941,39,4
8.25684,-11.1017,2.19133,45,12
5.06764,-6.81612,-0.74309,15,5
7.09096,-9.54102,2.3107,38,13
10.0386,-13.512,-0.882175,33,6
7.10727,-9.56994,2.75205,40,14
4.76073,-6.41032,-0.139375,24,7
6.9945,-9.42154,3.14413,40,15
5.46688,-7.38537,0.160388,13,8
0.31529,-0.42609,-0.122373,15,1
0.359509,-0.486204,-0.117538,16,2
6.04812,-8.18252,0.890209,24,10
5.15694,-6.97685,-1.37412,25,3
5.59043,-7.56607,1.15508,31,11
4.84963,-6.56588,-1.00225,56,4
7.91298,-10.7172,2.10999,20,12
5.09587,-6.9043,-0.75076,27,5
7.06977,-9.5787,2.31413,22,13
6.99724,-9.4839,-0.617669,47,6
17.5574,-23.8056,6.82906,50,14
4.68611,-6.35608,-0.137839,85,7
7.14839,-9.69938,3.22851,21,15
7.23265,-9.84246,0.213199,18,8
0.313801,-0.427188,-0.122373,15,1
5.87773,-8.00156,0.520324,20,9
0.367191,-0.500053,-0.120591,15,2
5.99383,-8.16559,0.8862,16,10
4.93273,-6.72247,-1.32062,22,3
5.57103,-7.59514,1.15654,34,11
4.84429,-6.60678,-1.00591,57,4
7.92178,-10.8039,2.12188,24,12
4.86094,-6.63191,-0.719384,32,5
7.04674,-9.61757,2.31757,26,13
7.22491,-9.86436,-0.640801,35,6
7.2204,-9.86181,2.82179,25,14
4.7158,-6.44097,-0.13934,94,7
7.1139,-9.71991,3.22747,28,15
5.51196,-7.55325,0.163215,15,8
0.312383,-0.428226,-0.122373,15,1
0.353878,-0.485466,-0.116775,16,2
8.2146,-11.2733,1.22035,21,10
4.83479,-6.63502,-1.30028,17,3
5.56568,-7.64085,1.16068,49,11
4.77795,-6.56183,-0.996648,57,4
5.28352,-7.25882,1.42199,19,12
4.79087,-6.5844,-0.712411,11,5
5.93827,-8.16134,1.9619,6,13
7.13694,-9.81235,-0.635882,29,6
4.8767,-6.70973,-0.144785,100,7
7.02656,-9.67123,3.20314,22,15
5.48629,-7.58179,0.163355,33,8
0.310661,-0.429477,-0.122373,15,1
5.85847,-8.10209,0.523988,52,9
0.362365,-0.50114,-0.12021,15,2
7.46979,-10.3343,1.11559,9,10
4.83588,-6.6928,-1.30779,27,3
5.57913,-7.72428,1.16995,19,11
4.82594,-6.68396,-1.01225,46,4
5.24278,-7.26395,1.41886,6,12
4.86719,-6.74852,-0.436063,68,6
6.76955,-9.38966,2.67242,22,14
4.84505,-6.72277,-0.144646,100,7
6.94138,-9.63509,3.18192,22,15
0.338112,-0.470706,-0.155291,12,0
0.30916,-0.430559,-0.122373,15,1
5.87325,-8.18253,0.527861,38,9
0.369682,-0.515226,-0.123263,15,2
4.7906,-6.68158,-1.30216,26,3
8.70297,-12.1383,1.83389,8,11
4.81762,-6.72174,-1.01542,27,4
6.75443,-9.42753,1.83685,14,12
5.26453,-7.3507,-0.791025,43,5
6.90513,-9.64499,2.30574,24,13
6.99396,-9.77267,-0.629811,48,6
6.70674,-9.37479,2.66117,52,14
4.82969,-6.75102,-0.14489,100,7
6.88186,-9.62312,3.17002,35,15
4.84228,-6.79364,0.145623,38,8
0.30758,-0.431689,-0.122373,15,1
5.80061,-8.14117,0.523883,19,9
0.361048,-0.506918,-0.120973,15,2
8.05548,-11.3142,1.21513,26,10
4.79016,-6.73045,-1.30842,12,3
8.59858,-12.086,1.82122,16,11
4.79985,-6.74905,-1.01688,30,4
6.73636,-9.47197,1.84092,31,12
4.9433,-6.95333,-0.746402,31,5
6.93852,-9.76345,2.32825,32,13
7.05581,-9.93216,-0.638499,22,6
6.6311,-9.33777,2.64407,10,14
4.82231,-6.79066,-0.145379,48,7
6.88625,-9.70065,3.18762,32,15
6.61961,-9.35267,0.200005,13,8
0.306147,-0.432707,-0.122373,15,1
5.78369,-8.17767,0.52493,22,9
0.350209,-0.495351,-0.11792,16,2
6.46358,-9.14575,0.979805,23,10
4.82938,-6.83341,-1.32531,16,3
8.50348,-12.0366,1.80952,8,11
4.80378,-6.80223,-1.02248,46,4
6.92541,-9.81012,1.90193,23,12
4.91096,-6.95915,-0.745182,13,5
6.79857,-9.63402,2.292,23,13
4.73754,-6.71589,-0.430725,29,6
6.59224,-9.34856,2.64093,66,14
4.8124,-6.82707,-0.145797,32,7
6.85902,-9.7341,3.19072,33,15
4.78558,-6.81171,0.145309,62,8
0.304634,-0.433773,-0.122373,15,1
7.86436,-11.2023,0.717317,31,9
0.364357,-0.519005,-0.123263,15,2
6.42978,-9.16224,0.979282,36,10
12.2636,-17.4882,2.62263,37,11
4.76519,-6.79782,-1.01932,28,4
6.73695,-9.61422,1.85938,24,12
6.87303,-9.81206,2.32863,25,13
4.75874,-6.79619,-0.434807,39,6
6.60985,-9.44335,2.66117,50,14
4.7851,-6.83891,-0.145693,32,7
6.75414,-9.65667,3.15759,16,15
4.71945,-6.76769,0.144017,33,8
0.303118,-0.434833,-0.122373,15,1
4.77757,-6.85613,0.437947,34,9
0.333277,-0.478452,-0.113341,16,2
4.64042,-6.66675,-1.28652,6,3
5.52286,-7.93452,1.18701,5,11
4.67454,-6.71828,-1.00493,49,4
6.66838,-9.5874,1.84968,40,12
4.64502,-6.68081,-0.711888,21,5
8.23535,-11.8491,2.80489,15,13
4.73266,-6.81194,-0.434703,14,6
6.58854,-9.48672,2.66657,52,14
4.7304,-6.81123,-0.14475,65,7
7.07734,-10.1943,3.32531,36,15
6.54356,-9.45715,0.200738,41,8
0.301523,-0.435941,-0.122373,15,1
4.76156,-6.88426,0.43868,30,9
0.349469,-0.50545,-0.119446,15,2
5.75234,-8.32294,0.885154,8,10
4.72716,-6.84218,-1.31718,13,3
5.45651,-7.90081,1.17896,38,11
4.65327,-6.74027,-1.00567,49,4
6.63937,-9.61713,1.85093,32,12
4.5549,-6.60024,-0.701604,33,5
5.75805,-8.34678,1.97106,9,13
4.70205,-6.81856,-0.434074,29,6
6.57087,-9.53213,2.67287,42,14
4.70206,-6.82111,-0.144611,65,7
7.05596,-10.2397,3.33204,8,15
6.49857,-9.45901,0.200319,22,8
0.300075,-0.436939,-0.122373,15,1
4.73976,-6.90413,0.438889,13,9
0.361033,-0.526092,-0.124026,14,2
4.72016,-6.88074,0.730016,39,10
4.72232,-6.88388,-1.32218,13,3
5.34496,-7.79444,1.16044,21,11
4.63426,-6.76057,-1.0064,35,4
6.59236,-9.62069,1.84718,40,12
4.435,-6.47474,-0.686613,58,5
5.75031,-8.39498,1.97793,13,13
6.85946,-10.018,-0.636301,29,6
6.48749,-9.47828,2.65172,54,14
7.00055,-10.2355,3.32272,27,15
4.69451,-6.88447,0.145448,8,8
0.298548,-0.437984,-0.122373,15,1
4.71113,-6.91403,0.438471,9,9
0.34602,-0.507818,-0.119446,15,2
6.29225,-9.23795,0.977887,51,10
4.61488,-6.77786,-1.29872,7,3
6.5698,-9.65267,1.43367,16,11
4.6084,-6.77343,-1.00591,37,4
6.64094,-9.76451,1.87033,17,12
4.51543,-6.64176,-0.70265,30,5
6.50909,-9.57423,2.2504,33,13
4.66339,-6.86197,-0.434807,14,6
6.48064,-9.53956,2.66252,54,14
6.93149,-10.207,-0.215363,26,7
7.17093,-10.5636,3.42107,8,15
4.66933,-6.89916,0.145413,13,8
0.297018,-0.439023,-0.122373,15,1
4.69704,-6.94533,0.439413,3,9
0.357351,-0.5286,-0.124026,14,2
10.097,-14.9413,1.57769,30,10
4.59775,-6.80619,-1.30091,18,3
5.24152,-7.75918,1.14972,42,11
4.57584,-6.77631,-1.00396,37,4
6.73944,-9.98411,1.90788,21,12
4.57803,-6.78465,-0.716072,22,5
7.4642,-11.0661,2.59462,18,13
5.14848,-7.63581,-0.482642,58,6
6.42167,-9.5277,2.65262,56,14
6.52365,-9.67899,-0.203739,100,7
7.99109,-11.8607,3.83207,45,15
5.81226,-8.65608,0.181994,13,8
0.295407,-0.440109,-0.122373,15,1
0.324876,-0.484196,-0.113341,16,2
10.0737,-15.0195,1.58223,27,10
6.45063,-9.6213,-1.83466,8,3
5.25726,-7.84431,1.15947,15,11
4.56755,-6.81777,-1.00762,35,4
7.69426,-11.4892,2.19008,41,12
4.49217,-6.71033,-0.706484,38,5
7.28136,-10.8768,2.54425,26,13
5.1229,-7.65539,-0.482747,72,6
6.31253,-9.43667,2.62113,56,14
6.84605,-10.2381,-0.214979,100,7
7.6577,-11.4562,3.69231,9,15
0.293868,-0.441137,-0.122373,15,1
5.51954,-8.28873,0.521894,35,9
0.333978,-0.501726,-0.117157,16,2
10.0108,-15.0447,1.58101,13,10
5.31036,-7.98367,-1.51867,6,3
5.33428,-8.01963,1.18262,30,11
4.53493,-6.82045,-1.00567,59,4
6.59019,-9.91527,1.88566,40,12
4.55031,-6.84877,-0.719384,13,5
7.27729,-10.9574,2.55684,27,13
6.28456,-9.46618,-0.595479,70,6
6.41475,-9.66595,2.67827,50,14
4.45946,-6.71966,-0.140771,88,7
7.68495,-11.5843,3.72492,30,15
5.44799,-8.24039,0.17243,56,8
0.29225,-0.442211,-0.122373,15,1
5.05206,-7.64733,0.480339,14,9
0.334389,-0.506165,-0.11792,16,2
4.59485,-6.95788,0.729494,26,10
4.40423,-6.67176,-1.26618,8,3
5.31907,-8.06067,1.18579,24,11
4.46071,-6.76246,-0.994698,27,4
6.53097,-9.90473,1.87909,49,12
5.75434,-8.73022,-0.914787,5,5
7.20659,-10.9335,2.54539,43,13
5.22513,-7.93035,-0.497715,38,6
6.38848,-9.69968,2.68142,54,14
4.53487,-6.88794,-0.143947,24,7
7.5734,-11.5075,3.69128,39,15
5.55742,-8.47002,0.176828,10,8
0.290704,-0.443229,-0.122373,15,1
5.04067,-7.6883,0.481805,9,9
0.34114,-0.520524,-0.120973,15,2
11.901,-18.1658,1.9,34,10
5.01068,-7.65129,-1.44858,11,3
5.28872,-8.07586,1.1853,27,11
6.23105,-9.51842,-1.39687,15,4
6.6967,-10.2375,-1.07027,26,5
7.16109,-10.9516,2.54348,38,13
5.15232,-7.88257,-0.493528,100,6
6.35075,-9.71977,2.68052,38,14
4.42985,-6.77985,-0.141364,8,7
7.59869,-11.6342,3.72337,43,15
5.4587,-8.38643,0.174664,30,8
0.289078,-0.444291,-0.122373,15,1
5.02661,-7.72849,0.483166,36,9
0.352166,-0.541461,-0.125552,14,2
6.84402,-10.5268,1.09851,23,10
4.92259,-7.57433,-1.43075,2,3
5.12823,-7.89377,1.15581,28,11
5.71176,-8.79534,-1.28767,27,4
6.56963,-10.1202,1.911,14,12
5.55439,-8.55628,-0.892475,20,5
11.5622,-17.8178,4.12873,29,13
4.97804,-7.6743,-0.479397,72,6
7.82123,-12.0621,3.31893,38,14
5.00862,-7.72735,-0.160737,100,7
5.36864,-8.31136,0.172709,70,8
0.287525,-0.445298,-0.122373,15,1
4.98119,-7.71746,0.481386,58,9
0.343886,-0.53279,-0.123263,15,2
4.86725,-7.54381,0.785448,15,10
4.85115,-7.52174,-1.41761,12,3
5.03396,-7.80818,1.1407,63,11
4.53794,-7.0415,-1.02858,22,4
11.6008,-18.0078,3.39275,30,12
4.48757,-6.96601,-0.724961,25,5
7.30024,-11.3364,2.62095,5,13
4.8669,-7.56064,-0.471233,72,6
7.13162,-11.0831,3.04269,14,14
6.14778,-9.55779,-0.198364,100,7
6.95314,-10.814,3.44488,11,15
4.9047,-7.65159,0.158642,13,8
0.285969,-0.446299,-0.122373,15,1
4.81095,-7.51112,0.467465,47,9
0.344142,-0.537293,-0.124026,14,2
4.88064,-7.62284,0.791897,43,10
4.82593,-7.54029,-1.41792,6,3
5.04732,-7.88925,1.14996,31,11
4.50798,-7.04894,-1.02736,39,4
11.8464,-18.5308,3.48348,24,12
4.42338,-6.92197,-0.718686,32,5
7.17499,-11.2279,2.59004,3,13
4.85876,-7.60619,-0.473012,39,6
7.01003,-10.9782,3.00715,25,14
4.83405,-7.57335,-0.156827,92,7
7.278,-11.4066,3.62554,40,15
4.90264,-7.70748,0.159445,41,8
0.284409,-0.447294,-0.122373,15,1
4.91434,-7.73182,0.48013,19,9
0.312691,-0.492153,-0.113341,16,2
4.87189,-7.67095,0.795035,16,10
4.6998,-7.40284,-1.38883,5,3
5.06231,-7.97385,1.15971,28,11
5.61084,-8.84126,-1.28572,37,4
7.60188,-11.9833,2.24765,20,12
4.41306,-6.95924,-0.720952,30,5
6.23195,-9.83136,2.26261,26,13
4.85543,-7.66276,-0.47542,79,6
6.85504,-10.8227,2.95766,38,14
8.72706,-13.7782,-0.284684,7,7
7.29911,-11.5282,3.65608,6,15
4.88183,-7.73723,0.15969,85,8
0.261976,-0.415368,-0.113375,16,1
0.310971,-0.493241,-0.113341,16,2
4.88758,-7.75533,0.802007,16,10
4.78764,-7.5997,-1.42262,7,3
4.97805,-7.905,1.14703,5,11
4.66071,-7.40107,-1.07391,59,4
11.3747,-18.0698,3.3818,43,12
4.36434,-6.93582,-0.716943,26,5
6.19864,-9.85471,2.26299,46,13
4.82227,-7.66951,-0.474792,47,6
6.76725,-10.7629,2.93516,44,14
4.74914,-7.55612,-0.15578,100,7
7.68841,-12.2374,3.87245,13,15
4.8986,-7.82117,0.161086,90,8
0.28128,-0.449269,-0.122373,15,1
5.0121,-8.00548,0.494994,35,9
0.309334,-0.49427,-0.113341,16,2
4.83647,-7.73096,0.797824,50,10
4.60007,-7.35594,-1.37412,6,3
7.25093,-11.5994,1.6796,30,11
4.55091,-7.28014,-1.05417,63,4
11.6434,-18.6334,3.48004,12,12
4.4247,-7.08375,-0.730714,35,5
6.16073,-9.86689,2.26109,42,13
4.81797,-7.71935,-0.476885,39,6
6.71089,-10.7522,2.92616,34,14
5.27341,-8.45235,-0.173896,87,7
7.60486,-12.194,3.85071,30,15
4.73538,-7.6166,0.156548,43,8
0.279788,-0.450199,-0.122373,15,1
5.00415,-8.05516,0.496982,78,9
0.307607,-0.495346,-0.113341,16,2
4.85285,-7.81466,0.804796,15,10
4.62774,-7.45507,-1.38976,10,3
5.27718,-8.50459,1.22893,31,11
4.52651,-7.29767,-1.05441,55,4
4.41884,-7.12964,-0.733851,38,5
7.89743,-12.7472,2.9148,16,13
6.71128,-10.8369,2.94281,63,14
5.28493,-8.53701,-0.175257,100,7
7.56021,-12.2172,3.84967,18,15
4.97613,-8.06964,0.165484,81,8
0.278136,-0.451222,-0.122373,15,1
4.89496,-7.94421,0.489027,86,9
0.305789,-0.49647,-0.113341,16,2
4.84298,-7.86293,0.807934,9,10
4.61074,-7.4888,-1.39289,10,3
4.67789,-7.60083,1.09585,10,11
4.49349,-7.30407,-1.05295,55,4
5.13559,-8.35105,1.55277,60,12
4.48554,-7.29685,-0.749365,12,5
5.32217,-8.66121,1.97602,18,13
4.76574,-7.75873,-0.477199,100,6
6.67152,-10.8614,2.94281,36,14
5.28394,-8.60575,-0.176269,8,7
14.1758,-23.0967,7.26143,18,15
4.53127,-7.40886,0.151592,31,8
0.276481,-0.452238,-0.122373,15,1
4.58878,-7.50878,0.461184,56,9
0.303967,-0.497588,-0.113341,16,2
4.73048,-7.74673,-1.43763,2,3
4.69033,-7.684,1.10536,32,11
4.49874,-7.37302,-1.06051,57,4
5.04221,-8.26695,1.53368,35,12
4.37268,-7.17204,-0.734897,5,5
5.83041,-9.57051,-0.587314,30,6
6.61949,-10.8658,2.93741,38,14
5.47182,-8.98543,-0.183634,100,7
6.8557,-11.2624,3.53288,26,15
4.90129,-8.08025,0.16496,28,8
0.274821,-0.453248,-0.122373,15,1
4.584,-7.56312,0.463487,49,9
0.302142,-0.498699,-0.113341,16,2
4.7336,-7.81302,0.799218,50,10
0.370434,-0.611659,-0.113259,23,3
4.68064,-7.73171,1.10974,20,11
4.47889,-7.40135,-1.06221,13,4
4.69288,-7.75803,1.43607,45,12
4.31028,-7.12835,-0.728796,13,5
4.74695,-7.85671,-0.481072,21,6
6.48187,-10.7282,2.89377,61,14
5.42024,-8.97461,-0.183006,36,7
7.17981,-11.8927,3.72234,13,15
4.42915,-7.35388,0.149846,62,8
0.273396,-0.454109,-0.122373,15,1
0.300661,-0.499593,-0.113341,16,2
5.09212,-8.46466,0.864236,12,10
4.38141,-7.28613,-1.34659,3,3
4.65224,-7.73957,1.10877,15,11
5.28069,-8.78854,-1.25891,60,4
4.63899,-7.72363,1.427,27,12
4.26244,-7.0967,-0.724264,12,5
5.21956,-8.69368,1.97106,48,13
4.75651,-7.92556,-0.484422,3,6
5.38482,-8.97959,-0.182762,18,7
7.1295,-11.8937,3.71561,12,15
4.41576,-7.3899,0.150265,62,8
0.271809,-0.455061,-0.122373,15,1
0.339173,-0.568066,-0.128605,14,2
5.29841,-8.87759,0.904502,46,10
4.35392,-7.29798,-1.34596,6,3
5.16102,-8.65426,1.23722,31,11
5.86087,-9.83169,-1.4054,8,4
5.30668,-8.90557,1.64194,50,12
4.24988,-7.13207,-0.726356,13,5
5.17713,-8.6916,1.96648,27,13
5.69338,-9.56211,-0.583232,3,6
6.38566,-10.7291,2.88252,8,14
5.42911,-9.12551,-0.185345,9,7
7.0751,-11.8969,3.70888,24,15
4.37974,-7.38807,0.149916,58,8
0.270219,-0.456007,-0.122373,15,1
4.87772,-8.23464,0.501588,27,9
0.333087,-0.562548,-0.127079,14,2
5.29277,-8.93889,0.90886,52,10
4.30528,-7.27404,-1.33877,5,3
6.95122,-11.7492,1.67619,30,11
12.516,-21.1634,-3.01895,11,4
7.25189,-12.2672,2.25704,13,12
4.24196,-7.17848,-0.729494,13,5
5.12926,-8.68347,1.96037,47,13
7.15767,-12.1223,3.25009,27,14
5.35656,-9.07552,-0.183948,100,7
7.01291,-11.8866,3.69801,14,15
4.24825,-7.22651,0.146321,47,8
0.268546,-0.456994,-0.122373,15,1
5.64665,-9.61295,0.584279,118,9
0.321083,-0.546835,-0.123263,15,2
6.18102,-10.5269,1.06801,27,10
0.363965,-0.620116,-0.113884,23,3
5.27074,-8.98375,1.2789,54,11
4.5391,-7.7398,-1.1017,41,4
6.59448,-11.249,2.06525,11,12
4.41809,-7.53949,-0.76453,15,5
5.01504,-8.56161,1.9287,27,13
4.5273,-7.73514,-0.156443,92,7
6.99564,-11.9572,3.71198,21,15
4.23785,-7.26967,0.146879,10,8
0.266869,-0.457976,-0.122373,15,1
4.6986,-8.06653,0.489237,35,9
0.313243,-0.537774,-0.120973,15,2
5.18199,-8.89997,0.901016,18,10
0.367652,-0.631689,-0.115762,22,3
4.63783,-7.97179,1.13241,13,11
4.52467,-7.78041,-1.10511,56,4
4.37272,-7.52214,-0.761218,16,5
4.90227,-8.43648,1.89664,11,13
5.13916,-8.84771,-0.536234,38,6
6.37095,-10.9728,2.92931,63,14
16.751,-28.8621,-0.582492,11,7
6.87324,-11.8474,3.67005,9,15
4.19943,-7.26192,0.146426,1,8
0.265269,-0.458904,-0.122373,15,1
4.72238,-8.17281,0.49468,36,9
0.311364,-0.538864,-0.120973,15,2
5.14491,-8.90765,0.89997,16,10
0.360506,-0.624415,-0.114197,22,3
4.60601,-7.98105,1.13144,49,11
4.50244,-7.80475,-1.10633,70,4
4.69516,-8.1421,1.48863,54,12
4.40914,-7.6461,-0.7722,20,5
6.81602,-11.8247,2.65301,25,13
6.27037,-10.8869,2.90052,40,14
6.03029,-10.4743,-0.210965,86,7
6.71333,-11.6654,3.60638,12,15
6.07154,-10.5844,0.212989,37,8
0.263666,-0.459827,-0.122373,15,1
4.71666,-8.22909,0.497087,8,9
0.289955,-0.505881,-0.113341,16,2
5.11378,-8.92556,0.89997,8,10
0.352434,-0.615385,-0.11232,23,3
4.46729,-7.80664,-1.10438,49,4
5.02765,-8.78944,1.60377,49,12
4.33395,-7.5767,-0.763659,23,5
5.94049,-10.3937,-0.627403,26,6
4.93501,-8.63798,2.29675,14,14
4.45064,-7.79332,-0.156653,58,7
6.72141,-11.7743,3.63278,36,15
6.29465,-11.0626,0.222169,43,8
0.262059,-0.460745,-0.122373,15,1
4.66027,-8.19689,0.494156,22,9
0.315357,-0.554678,-0.124026,14,2
5.95775,-10.4833,1.05493,100,10
0.356138,-0.626917,-0.114197,22,3
4.74818,-8.36171,1.18067,13,11
5.01253,-8.83442,1.60877,42,12
4.0597,-7.15509,-0.719732,38,5
6.80207,-11.9933,2.6801,18,13
4.88177,-8.61446,2.28595,48,14
4.63433,-8.18115,-0.164122,34,7
6.63648,-11.7204,3.60897,25,15
6.25599,-11.0845,0.222169,26,8
0.260449,-0.461657,-0.122373,15,1
4.68755,-8.31227,0.500122,104,9
0.286417,-0.507893,-0.113341,16,2
5.92993,-10.5196,1.0565,20,10
0.355887,-0.631598,-0.114823,33,3
6.90017,-12.2508,1.7264,23,11
6.0079,-10.671,-1.50362,16,4
4.65324,-8.26828,1.50271,25,12
4.02271,-7.15082,-0.717815,43,5
4.88414,-8.68921,2.30125,14,14
4.62142,-8.22517,-0.164681,25,7
6.63715,-11.8176,3.63175,39,15
4.09079,-7.30763,0.146181,15,8
0.258836,-0.462563,-0.122373,15,1
4.69068,-8.38611,0.503577,85,9
0.284553,-0.508939,-0.113341,16,2
5.85731,-10.4804,1.0504,47,10
0.367058,-0.657041,-0.119203,41,3
4.86686,-8.71179,1.22527,28,11
5.77317,-10.3384,-1.4539,35,4
7.16711,-12.8398,2.329,17,12
4.09965,-7.34751,-0.736117,15,5
4.79105,-8.59016,1.91191,25,13
4.88736,-8.77004,2.3179,22,14
4.85745,-8.71638,-0.174175,8,7
6.48117,-11.6348,3.5686,25,15
5.53606,-9.97499,0.199132,50,8
0.257139,-0.463509,-0.122373,15,1
4.65653,-8.3937,0.503053,44,9
0.282775,-0.50993,-0.113341,16,2
4.66254,-8.41145,0.841402,20,10
0.342742,-0.618578,-0.112007,47,3
4.85702,-8.76951,1.23088,14,11
5.09682,-9.20627,-1.29206,8,4
3.93217,-7.10552,-0.710494,20,5
4.74868,-8.5845,1.90695,20,13
5.15703,-9.32656,-0.558529,33,6
4.76716,-8.62501,2.27515,14,14
5.76725,-10.4344,-0.208102,19,7
6.36111,-11.5136,3.5246,22,15
4.00977,-7.28171,0.145099,30,8
0.242444,-0.440458,-0.116075,16,1
4.6455,-8.44315,0.505042,18,9
0.280993,-0.510914,-0.113341,16,2
4.81264,-8.75416,0.873998,30,10
0.341641,-0.621442,-0.11232,47,3
4.82791,-8.78557,1.23088,14,11
4.99745,-9.09785,-1.27451,63,4
4.54643,-8.2802,1.49614,58,12
3.90063,-7.10697,-0.709273,32,5
4.26016,-7.76204,1.7211,3,13
5.18564,-9.45217,-0.565019,13,6
4.73853,-8.64078,2.27515,14,14
6.32273,-11.5391,3.52563,29,15
5.92235,-10.8443,0.215677,17,8
0.253978,-0.465248,-0.122373,15,1
0.279297,-0.511843,-0.113341,16,2
5.67276,-10.4003,1.03646,8,10
0.344197,-0.631302,-0.113884,57,3
4.70602,-8.63504,1.20748,66,11
4.96092,-9.10652,-1.27329,74,4
4.57418,-8.40011,1.51491,65,12
4.00249,-7.35329,-0.732457,30,5
5.13734,-9.44214,-0.563344,13,6
4.66365,-8.57509,2.25356,40,14
5.55004,-10.2092,-0.202832,47,7
6.33776,-11.663,3.55669,42,15
4.15978,-7.68054,0.152464,13,8
4.84595,-8.95491,0.533617,60,9
0.303574,-0.561214,-0.124026,14,2
4.78742,-8.85415,0.880622,66,10
0.34282,-0.634297,-0.114197,45,3
4.62205,-8.55187,1.19359,30,11
4.42938,-8.20223,1.47643,79,12
3.99951,-7.40929,-0.73664,33,5
5.10649,-9.46794,-0.563763,16,6
6.09888,-11.3127,2.9671,17,14
5.70606,-10.584,-0.209883,21,7
6.31809,-11.7242,3.5686,25,15
4.12215,-7.67811,0.152115,25,8
0.250642,-0.467054,-0.122373,15,1
5.99984,-11.185,0.66519,14,9
0.301613,-0.56227,-0.124026,14,2
4.73954,-8.8392,0.877484,32,10
0.342471,-0.638972,-0.114823,45,3
4.63755,-8.65624,1.20578,22,11
4.76442,-8.8968,-1.23917,12,4
4.3881,-8.19751,1.47267,31,12
4.22142,-7.88943,-0.782833,36,5
4.56174,-8.53263,2.23376,16,14
4.99617,-9.34914,-0.18503,100,7
6.39887,-11.979,3.639,31,15
4.02296,-7.55654,0.149428,48,8
0.24901,-0.467926,-0.122373,15,1
4.65418,-8.74955,0.519382,6,9
0.29955,-0.563371,-0.124026,14,2
4.8109,-9.0518,0.896833,18,10
0.333639,-0.628012,-0.112633,58,3
4.31486,-8.12192,1.12924,39,11
5.6895,-10.7139,-1.48949,6,4
4.3678,-8.22848,1.47549,32,12
3.94545,-7.43596,-0.736466,6,5
4.67297,-8.81083,1.93862,37,13
5.05077,-9.52718,-0.565124,77,6
6.005,-11.3319,2.96081,34,14
4.42792,-8.35584,-0.165065,100,7
3.99057,-7.56239,0.149253,41,8
0.247294,-0.468836,-0.122373,15,1
4.67052,-8.85842,0.524825,31,9
4.29345,-8.1467,0.805668,20,10
0.333286,-0.632668,-0.113259,58,3
4.21015,-7.9954,1.1095,12,11
2.99106,-5.68267,-0.788495,7,4
4.55007,-8.64827,1.54776,60,12
3.95379,-7.51493,-0.742916,15,5
5.40688,-10.2855,-0.608981,16,6
4.57218,-8.70133,2.26931,56,14
4.40564,-8.38794,-0.165379,22,7
17.7922,-33.8891,10.256,9,15
3.95951,-7.56742,0.149078,70,8
0.245655,-0.469696,-0.122373,15,1
0.270142,-0.516733,-0.113341,16,2
4.30836,-8.24463,0.81386,44,10
0.338392,-0.647835,-0.115762,55,3
4.46244,-8.54675,1.18384,11,11
9.9276,-19.0221,-2.63457,27,4
5.68568,-10.8989,1.94698,40,12
4.00956,-7.6859,-0.758429,33,5
3.03165,-5.81632,-0.343743,6,6
4.50126,-8.63947,2.24906,47,14
4.70793,-9.03999,-0.17791,100,7
4.49761,-8.63984,2.60993,1,15
3.88979,-7.49776,0.147438,52,8
0.244014,-0.470551,-0.122373,15,1
4.68301,-9.03444,0.533303,8,9
0.268336,-0.517673,-0.113341,16,2
4.25847,-8.21893,0.809851,37,10
0.334312,-0.645504,-0.115136,56,3
4.44627,-8.58872,1.18749,71,11
10.1111,-19.5397,-2.70136,25,4
4.49775,-8.69561,1.55058,12,12
3.92229,-7.58305,-0.746925,12,5
4.54529,-8.79127,1.92374,61,13
4.49433,-8.70014,2.26076,74,14
4.34881,-8.42205,-0.165449,94,7
17.9229,-34.7249,10.4708,20,15
4.02824,-7.83138,0.153721,20,8
0.24237,-0.471399,-0.122373,15,1
4.38304,-8.52847,0.50253,9,9
0.266528,-0.518607,-0.113341,16,2
4.26617,-8.30464,0.816824,22,10
0.327545,-0.637881,-0.113571,46,3
4.23225,-8.24568,1.13802,52,11
2.87883,-5.61124,-0.774358,4,4
3.88034,-7.56656,-0.743961,15,5
4.4435,-8.67589,2.25041,17,14
5.45755,-10.6604,-0.209045,25,7
4.39671,-8.59192,2.58612,3,15
3.92911,-7.70466,0.150963,27,8
0.240723,-0.472243,-0.122373,15,1
0.264716,-0.519534,-0.113341,16,2
4.29141,-8.426,0.827282,24,10
0.31277,-0.614375,-0.109191,50,3
4.24665,-8.34532,1.14972,31,11
2.88803,-5.67787,-0.782157,12,4
4.168,-8.19429,1.45609,70,12
3.86474,-7.60137,-0.746053,31,5
3.67976,-7.2438,-0.425805,7,6
5.87425,-11.5688,2.99545,29,14
5.42488,-10.6838,-0.20915,23,7
4.39355,-8.65641,2.60113,14,15
4.73569,-9.36289,0.183146,8,8
0.239156,-0.473038,-0.122373,15,1
4.52487,-8.95384,0.525767,118,9
0.294767,-0.58354,-0.127079,14,2
4.11739,-8.15458,0.799218,43,10
0.316963,-0.627752,-0.111381,48,3
4.22522,-8.37177,1.15142,13,11
2.87097,-5.69096,-0.782645,25,4
4.41865,-8.76263,1.55433,39,12
4.8883,-9.69821,-0.950172,20,5
4.00474,-7.94525,1.72949,11,13
2.95567,-5.86648,-0.344266,27,6
5.40464,-10.7366,-0.209813,77,7
5.54856,-11.0273,3.30771,12,15
3.99847,-7.97434,0.15571,36,8
0.237503,-0.47387,-0.122373,15,1
4.40119,-8.78131,0.514777,45,9
0.261173,-0.521324,-0.113341,16,2
4.04572,-8.07912,0.790503,46,10
0.317422,-0.634154,-0.11232,47,3
4.35585,-8.70602,1.19529,66,11
4.12538,-8.24898,1.46079,47,12
4.86413,-9.73041,-0.951741,10,5
2.95302,-5.9125,-0.346359,6,6
5.42456,-10.8657,2.80379,29,14
3.97026,-7.95268,-0.155152,100,7
4.31037,-8.63771,2.58664,10,15
5.29779,-10.6537,0.207684,60,8
0.235931,-0.474655,-0.122373,15,1
4.3083,-8.67141,0.507449,10,9
0.259352,-0.522232,-0.113341,16,2
4.05647,-8.17171,0.798172,18,10
0.317953,-0.640511,-0.113259,34,3
4.2449,-8.55504,1.17263,24,11
2.80218,-5.64991,-0.774358,13,4
5.42581,-10.9446,1.93478,11,12
9.21088,-18.5878,-1.81493,17,5
3.99415,-8.06028,1.74857,1,13
3.76492,-7.60104,-0.444542,21,6
4.27915,-8.64301,2.22657,12,14
3.9611,-8.00412,-0.155885,83,7
4.35129,-8.79643,2.6296,0,15
5.24271,-10.6452,0.207125,51,8
0.234106,-0.475558,-0.122373,15,1
0.257436,-0.523179,-0.113341,16,2
4.4266,-9,0.877484,40,10
0.32072,-0.652364,-0.115136,33,3
4.41601,-8.98639,1.22942,31,11
2.78134,-5.66241,-0.774602,4,4
6.0922,-12.4083,-1.20937,5,5
2.86226,-5.83486,-0.340602,37,6
5.08673,-10.3787,-0.20175,66,7
4.23674,-8.64826,2.58043,18,15
5.20026,-10.6527,0.206916,66,8
0.232445,-0.476372,-0.122373,15,1
4.38991,-9.00465,0.876438,80,10
0.299404,-0.614413,-0.108253,25,3
4.24466,-8.71442,1.19018,41,11
4.16406,-8.55274,-1.168,41,4
4.67744,-9.61145,-0.935181,22,5
4.18229,-8.5978,1.85848,39,13
3.69775,-7.60508,-0.443181,68,6
4.25827,-8.76178,2.24906,48,14
3.9032,-8.03474,-0.15592,100,7
5.24404,-10.8382,0.210162,30,8
0.230781,-0.47718,-0.122373,15,1
0.253777,-0.524964,-0.113341,16,2
5.31111,-10.9915,1.06801,22,10
0.302412,-0.626127,-0.11013,37,3
4.05542,-8.40025,1.14533,21,11
3.97285,-8.2329,-1.12242,46,4
4.74861,-9.84927,-0.956621,10,5
3.6339,-7.54058,-0.43868,36,6
4.24881,-8.82049,2.26031,61,14
4.88229,-10.1401,-0.196444,100,7
4.33125,-8.99966,2.67619,39,15
5.15689,-10.7536,0.208172,47,8
0.229114,-0.477983,-0.122373,15,1
0.251852,-0.52589,-0.113341,16,2
4.36064,-9.10951,0.883585,14,10
0.312051,-0.652178,-0.11451,22,3
4.05434,-8.47345,1.15337,44,11
4.02717,-8.42043,-1.14606,17,4
3.95573,-8.27477,1.45265,61,12
5.64879,-11.8217,-1.14627,26,5
3.57956,-7.49797,-0.435435,54,6
4.19379,-8.78851,2.24816,43,14
4.86581,-10.1968,-0.197212,100,7
4.30064,-9.01647,2.67671,40,15
4.6069,-9.69773,0.187404,13,8
0.22736,-0.47882,-0.122373,15,1
4.82313,-10.1621,0.589512,23,9
0.250014,-0.526766,-0.113341,16,2
4.44068,-9.36049,0.90642,22,10
0.301309,-0.635414,-0.111381,24,3
3.95864,-8.35192,1.13485,60,11
3.91639,-8.26651,-1.12315,57,4
3.83238,-8.09283,1.41823,63,12
4.10348,-8.66924,-0.839135,9,5
3.87129,-8.17869,1.75888,21,13
3.52347,-7.44723,-0.431772,50,6
4.20391,-8.88942,2.27021,58,14
3.44911,-7.29664,-0.140876,72,7
4.26921,-9.03567,2.67774,24,15
0.225688,-0.47961,-0.122373,15,1
5.27727,-11.2199,0.649803,60,9
0.248082,-0.527679,-0.113341,16,2
4.67327,-9.94471,0.961328,10,10
0.300658,-0.64009,-0.112007,23,3
3.90161,-8.3064,1.1268,26,11
3.80494,-8.10794,1.41855,13,12
4.7768,-10.1927,-0.589931,40,6
4.18039,-8.92418,2.27515,34,14
4.76388,-10.1698,-0.196025,9,7
4.19996,-8.97003,2.65393,8,15
4.54161,-9.73951,0.187578,50,8
0.223928,-0.480434,-0.122373,15,1
0.287693,-0.617522,-0.132421,13,2
0.296755,-0.637554,-0.111381,24,3
4.14161,-8.90199,1.20553,41,11
8.85849,-19.0405,-2.57851,11,4
4.07058,-8.7573,-0.844888,16,5
4.75213,-10.2329,-0.591292,30,6
4.05146,-8.72413,2.22072,16,14
4.72162,-10.1719,-0.195746,9,7
4.10683,-8.85146,2.61459,22,15
4.21057,-9.10833,0.175152,48,8
0.222334,-0.481174,-0.122373,15,1
4.21642,-9.12517,0.526814,26,9
0.257655,-0.557873,-0.119446,15,2
3.95327,-8.56351,0.825191,8,10
0.292984,-0.634947,-0.110756,36,3
4.10708,-8.90486,1.20407,27,11
8.90089,-19.2987,-2.60947,15,4
4.01817,-8.72008,-0.840007,79,5
4.14927,-9.00874,1.92793,80,13
3.98067,-8.64664,-0.498866,3,6
3.57441,-7.76776,-0.149253,89,7
4.1493,-9.02123,2.66066,11,15
4.18534,-9.13315,0.175362,43,8
0.220737,-0.481909,-0.122373,15,1
4.17124,-9.11077,0.525139,69,9
0.258974,-0.56591,-0.120973,15,2
3.91656,-8.55846,0.823447,42,10
0.295806,-0.646693,-0.112633,47,3
3.88686,-8.50139,1.14777,47,11
4.69644,-10.2769,-1.38736,11,4
3.85696,-8.44769,-0.812466,16,5
2.68061,-5.87663,-0.338509,6,6
4.22733,-9.26745,2.35164,32,14
3.53981,-7.76381,-0.148939,40,7
4.15928,-9.16482,0.175676,12,8
0.218969,-0.482715,-0.122373,15,1
4.12792,-9.10417,0.523883,61,9
0.24069,-0.531091,-0.113341,16,2
3.8901,-8.58364,0.824493,40,10
0.291804,-0.644175,-0.112007,47,3
3.92282,-8.66387,1.16775,63,11
4.68575,-10.3537,-1.3954,12,4
3.96141,-8.76132,-0.841227,14,5
5.11396,-11.3156,2.41373,33,13
2.66646,-5.90279,-0.339451,39,6
3.86762,-8.56185,2.16898,33,14
3.69813,-8.19045,-0.156862,25,7
5.64221,-12.5019,3.67523,13,15
4.08139,-9.08151,0.173791,35,8
0.217198,-0.483514,-0.122373,15,1
3.36479,-7.49399,0.430516,21,9
0.267785,-0.596405,-0.127079,14,2
3.98016,-8.86868,0.850466,16,10
0.288633,-0.643438,-0.111694,48,3
3.88372,-8.66189,1.16556,39,11
2.45256,-5.47252,-0.736335,26,4
3.94812,-8.81374,1.52962,57,12
3.56102,-7.94959,-0.76209,1,5
4.12293,-9.20829,1.96114,39,13
3.97813,-8.88907,-0.51038,52,6
3.83701,-8.57774,2.16943,24,14
2.496,-5.58248,-0.106739,5,7
4.94686,-11.0692,3.2487,7,15
4.03665,-9.06647,0.173233,26,8
0.215509,-0.484269,-0.122373,15,1
