x, y, z, intensity, ring
-11.7106,8.93401,1.80854,20,11
-11.2388,8.57717,-1.73591,48,4
-10.8195,8.25716,2.15567,9,12
-8.96333,6.84308,-0.986603,8,5
-10.9234,8.34251,2.67171,45,13
-9.51134,7.26671,-0.627299,71,6
-17.1042,13.0724,4.97007,19,14
-10.154,7.76052,-0.223077,100,7
-17.3466,13.2625,5.85086,10,15
-15.4325,11.8332,0.339449,10,8
-0.476244,0.365303,-0.13857,13,1
-10.2155,7.83861,0.67482,31,9
-0.569989,0.437526,-0.139672,11,2
-10.88,8.35454,1.20013,60,10
-11.4483,8.7909,-2.28613,6,3
-11.64,8.94136,1.8022,20,11
-11.0859,8.51884,-1.71665,41,4
-8.97414,6.90104,-0.990438,23,5
-11.2147,8.62402,2.74994,28,13
-9.49986,7.30795,-0.628136,35,6
-10.84,8.34191,3.15786,24,14
-9.27596,7.14087,-0.204333,23,7
-19.541,15.0486,6.60869,11,15
-10.9676,8.47064,0.24189,17,8
-0.41945,0.324071,-0.122373,15,1
-0.584068,0.451419,-0.143488,11,2
-17.7434,13.7186,1.96222,18,10
-11.4222,8.83444,-2.28707,27,3
-11.6542,9.01716,1.80927,32,11
-11.0473,8.55066,2.21261,45,12
-8.93545,6.91857,-0.988695,63,5
-9.33694,7.23464,-0.61903,100,6
-10.8339,8.3976,3.16461,36,14
-9.62049,7.45704,-0.212466,25,7
-19.0574,14.7771,6.46168,31,15
-16.8055,13.0686,0.371597,19,8
-0.418374,0.32546,-0.122373,15,1
-10.4645,8.14348,0.694917,53,9
-0.566997,0.441395,-0.139672,11,2
-17.7772,13.8441,1.97129,18,10
-11.3663,8.85163,-2.28175,13,3
-17.4528,13.5964,2.71647,13,11
-8.54752,6.66125,-1.33057,42,4
-11.1249,8.67298,2.2342,30,12
-8.66773,6.7598,-0.961676,52,5
-10.744,8.37901,2.64843,17,13
-9.15699,7.14394,-0.608667,77,6
-10.7692,8.40471,3.15381,27,14
-9.58336,7.48196,-0.212221,34,7
-19.0803,14.9018,6.48704,21,15
-16.7031,13.0828,0.37034,26,8
-0.417235,0.326919,-0.122373,15,1
-10.4125,8.16147,0.693347,24,9
-0.56553,0.443273,-0.139672,11,2
-17.416,13.6559,1.93625,18,10
-13.0731,10.2543,-2.63154,13,3
-11.2802,8.8512,1.76052,31,11
-13.2852,10.4282,-2.07373,15,4
-8.66407,6.80327,-0.963768,16,5
-10.7224,8.42252,2.65034,32,13
-11.4657,9.00962,-0.76421,35,6
-20.4699,16.0909,6.01114,38,14
-9.05575,7.12106,-0.201087,76,7
-18.9887,14.9373,6.47358,21,15
-16.797,13.2512,0.373447,26,8
-0.471162,0.371834,-0.13857,13,1
-10.3557,8.17549,0.691463,50,9
-0.579389,0.45741,-0.143488,11,2
-14.9728,11.8248,1.66921,10,10
-12.7876,10.1027,-2.58117,18,3
-11.2944,8.92621,1.76759,23,11
-9.18598,7.26246,-1.43781,27,4
-16.7937,13.2819,3.39119,46,12
-8.64808,6.83965,-0.96464,30,5
-9.13039,7.22629,-0.610237,74,6
-20.2807,16.057,5.972,30,14
-9.0136,7.13896,-0.200703,100,7
-19.0243,15.073,6.5036,21,15
-0.453817,0.360465,-0.155291,12,0
-19.6173,15.5876,0.437357,14,8
-0.414942,0.329824,-0.122373,15,1
-10.3238,8.20606,0.691149,34,9
-0.547055,0.434992,-0.135856,12,2
-14.9284,11.8746,1.66886,28,10
-11.6672,9.28382,-2.36154,1,3
-16.6541,13.2567,2.61361,18,11
-13.6469,10.8669,-2.14198,16,4
-16.7248,13.3178,3.38618,24,12
-11.7783,9.38235,-1.31745,15,5
-16.2521,12.9507,4.03943,10,13
-8.61628,6.86844,-0.577475,60,6
-19.8741,15.8482,5.86852,29,14
-8.97111,7.15385,-0.200284,38,7
-19.0285,15.1794,6.52224,18,15
-10.042,8.03364,0.224473,28,8
-0.444276,0.355551,-0.131371,14,1
-10.4043,8.32942,0.698476,66,9
-0.570052,0.456534,-0.141962,11,2
-15.3797,12.3215,1.72411,28,10
-8.40196,6.73124,-1.70514,30,3
-11.2737,9.03516,1.77393,27,11
-8.35264,6.69652,-1.31448,42,4
-16.7337,13.4206,3.39744,31,12
-9.09276,7.2951,-1.0199,24,5
-10.4988,8.42314,2.61637,30,13
-8.57788,6.88447,-0.576428,47,6
-19.7758,15.8774,5.85503,29,14
-11.7431,9.43157,-0.262903,75,7
-18.9664,15.2385,6.51913,18,15
-17.4912,14.0935,0.392086,27,8
-10.2056,8.22904,0.687066,52,9
-0.568535,0.458422,-0.141962,11,2
-15.545,12.5388,1.7473,7,10
-8.36765,6.75184,-1.70295,27,3
-10.5871,8.5458,1.67059,22,11
-11.2853,9.11259,-1.781,16,4
-10.454,8.44435,2.12845,4,12
-9.09486,7.34649,-1.02286,31,5
-10.4861,8.47331,2.62057,10,13
-8.77591,7.09392,-0.591396,40,6
-19.6703,15.9059,5.84018,29,14
-11.7008,9.46496,-0.262694,100,7
-19.0693,15.431,6.57297,7,15
-0.450081,0.365119,-0.155291,12,0
-16.9761,13.7764,0.381614,25,8
-0.411524,0.334079,-0.122373,15,1
-10.1955,8.27972,0.688323,46,9
-0.551691,0.448028,-0.138146,12,2
-15.4285,12.5339,1.73911,49,10
-8.41762,6.84081,-1.71796,6,3
-10.9192,8.87698,1.72786,11,11
-9.8889,8.04222,-1.56505,13,4
-20.3325,16.5415,4.15146,13,12
-8.6766,7.05883,-0.978585,46,5
-16.1758,13.1644,4.05393,36,13
-10.0909,8.21525,-0.681938,29,6
-20.0135,16.2994,5.95895,7,14
-16.9806,13.8342,-0.382312,86,7
-19.6802,16.0393,6.8028,16,15
-10.0951,8.25098,0.227579,2,8
-0.410356,0.335513,-0.122373,15,1
-10.1185,8.27303,0.684973,36,9
-0.556203,0.454922,-0.139672,11,2
-15.4016,12.6016,1.74102,39,10
-8.26681,6.7663,-1.692,30,3
-10.9726,8.98421,1.74127,7,11
-8.48906,6.95069,-1.34714,19,4
-20.2164,16.5587,4.13894,13,12
-8.93085,7.31763,-1.01014,24,5
-15.5907,12.779,3.91845,18,13
-11.5062,9.43449,-0.779806,39,6
-19.9127,16.3274,5.94501,37,14
-8.81596,7.23121,-0.199027,100,7
-19.4596,15.9673,6.74482,24,15
-10.0275,8.25138,0.226672,10,8
-0.439332,0.361642,-0.131371,14,1
-13.084,10.7703,0.888141,30,9
-0.554691,0.456764,-0.139672,11,2
-10.7109,8.82311,1.21408,23,10
-8.21841,6.77232,-1.68668,10,3
-20.0536,16.5309,3.19103,9,11
-8.30053,6.84243,-1.32082,15,4
-16.5235,13.6258,3.39213,15,12
-8.53921,7.04418,-0.968475,34,5
-15.7784,13.0206,3.97646,24,13
-9.81445,8.10192,-0.666969,16,6
-19.8298,16.3697,5.93646,7,14
-8.74568,7.22221,-0.19798,9,7
-19.4349,16.0551,6.75466,16,15
-16.1951,13.4168,0.367094,11,8
-0.408121,0.338228,-0.122373,15,1
-15.2328,12.6286,1.03698,27,9
-0.574333,0.476143,-0.145015,10,2
-15.0355,12.4694,1.70895,24,10
-11.2076,9.30146,1.78831,44,11
-10.3821,8.62248,2.13752,1,12
-8.88083,7.37825,-1.01014,54,5
-15.0465,12.5007,3.80244,13,13
-9.06407,7.53315,-0.617669,40,6
-23.7346,19.7328,7.126,10,14
-10.9144,9.07737,-0.247789,52,7
-19.401,16.1414,6.76242,16,15
-36.6463,30.5759,0.833073,10,8
-0.406938,0.33965,-0.122373,15,1
-15.227,12.7137,1.0396,14,9
-0.533407,0.445523,-0.135093,12,2
-14.9867,12.5219,1.7086,28,10
-34.1604,28.5524,5.46657,19,11
-8.1688,6.83018,-1.30741,55,4
-15.6659,13.1033,3.23475,3,12
-15.0081,12.5621,3.80435,29,13
-23.686,19.8397,7.1332,10,14
-20.3411,17.038,-0.463152,57,7
-17.2478,14.4521,6.02945,14,15
-10.7687,9.05204,0.245555,1,8
-0.405691,0.341139,-0.122373,15,1
-15.1886,12.7719,1.04002,50,9
-0.546873,0.46002,-0.138909,12,2
-10.3832,8.73724,1.18724,20,10
-8.57623,7.2193,-1.77553,57,3
-10.5623,8.89425,1.69545,7,11
-8.26335,6.95838,-1.32643,60,4
-15.5822,13.1261,3.22693,24,12
-7.96067,6.70826,-0.910778,35,5
-14.9912,12.6372,3.81122,19,13
-22.0246,18.5727,6.65135,38,14
-9.1755,7.74018,-0.209534,77,7
-19.1756,16.1817,6.72308,11,15
-10.6867,9.04379,0.244369,15,8
-0.478924,0.405439,-0.144868,12,1
-15.2818,12.937,1.04934,13,9
-0.518377,0.438993,-0.13204,13,2
-14.1744,12.008,1.62528,27,10
-8.57184,7.2643,-1.7796,30,3
-33.8755,28.7183,5.45292,19,11
-8.14786,6.90744,-1.31156,56,4
-15.3639,13.0295,3.19064,13,12
-9.43384,8.00898,-0.648547,61,6
-15.9492,13.5403,4.83015,17,14
-9.12387,7.74856,-0.20894,87,7
-17.4022,14.7843,6.11848,24,15
-10.8987,9.28537,0.249918,11,8
-0.403419,0.343822,-0.122373,15,1
-15.2427,12.9955,1.04975,13,9
-0.525882,0.448352,-0.13433,12,2
-14.1618,12.0782,1.62842,13,10
-9.14279,7.80041,-1.90349,33,3
-23.3344,19.9154,3.76674,12,11
-8.20221,7.00287,-1.32423,45,4
-15.3453,13.1062,3.19627,17,12
-7.95994,6.79843,-0.915833,31,5
-15.5206,13.2605,3.96806,22,13
-8.85003,7.56398,-0.610133,50,6
-28.3363,24.2271,8.60708,12,14
-9.07093,7.75826,-0.208347,20,7
-19.705,16.8595,6.94877,17,15
-15.3888,13.2037,0.353935,11,8
-15.0699,12.9393,1.04096,22,9
-0.524314,0.450185,-0.13433,12,2
-9.07902,7.79816,1.04709,29,10
-9.68935,8.32533,-2.02332,8,3
-15.155,13.0262,2.45372,31,11
-8.21233,7.06122,-1.32984,52,4
-15.3205,13.1777,3.20065,8,12
-15.4712,13.312,3.9673,33,13
-8.81903,7.59092,-0.609819,60,6
-22.3682,19.2601,6.81467,10,14
-9.03319,7.78074,-0.208102,96,7
-16.9796,14.6305,6.00564,8,15
-8.46414,7.31379,0.195258,37,8
-0.401009,0.34663,-0.122373,15,1
-14.9763,12.95,1.03761,13,9
-0.525709,0.454581,-0.135093,12,2
-9.05475,7.83241,1.04744,56,10
-9.54072,8.2557,-1.99829,65,3
-15.0615,13.0374,2.44592,42,11
-8.21014,7.10934,-1.33349,17,4
-15.2953,13.2492,3.20503,6,12
-8.70442,7.54,-1.00752,42,5
-15.3801,13.3274,3.95585,13,13
-8.92528,7.73678,-0.61903,27,6
-20.9139,18.1354,6.39086,8,14
-9.42289,8.17388,-0.217736,23,7
-16.9459,14.7049,6.01185,25,15
-8.4989,7.3958,0.196654,51,8
-0.473289,0.412004,-0.144868,12,1
-15.8769,13.8259,1.10335,12,9
-0.512275,0.446099,-0.13204,13,2
-8.98529,7.82733,1.04256,12,10
-9.68014,8.4356,-2.03365,11,3
-14.938,13.0221,2.43324,30,11
-7.92046,6.90703,-1.29035,61,4
-15.0495,13.1285,3.16311,19,12
-8.78314,7.66202,-1.01972,18,5
-15.2684,13.3242,3.93906,39,13
-13.4331,11.7267,-0.934511,14,6
-20.8021,18.166,6.37601,26,14
-9.64429,8.42511,-0.22353,93,7
-16.8712,14.7436,6.00357,23,15
-0.435933,0.381899,-0.155291,12,0
-8.3813,7.34502,0.194525,62,8
-0.398579,0.349421,-0.122373,15,1
-0.510714,0.447884,-0.13204,13,2
-23.0965,20.2622,2.68806,24,10
-9.41605,8.26346,-1.98422,37,3
-14.8955,13.0768,2.43373,15,11
-7.81278,6.86128,-1.2767,70,4
-14.9925,13.1666,3.16029,19,12
-8.62463,7.57692,-1.00438,8,5
-15.3855,13.5213,3.98142,22,13
-13.4041,11.7841,-0.935348,7,6
-15.8071,13.9015,4.85984,43,14
-8.25885,7.26324,-0.191976,30,7
-17.2225,15.1517,6.14643,18,15
-8.50385,7.50243,0.197945,68,8
-0.397418,0.350741,-0.122373,15,1
-8.94603,7.89809,0.625415,40,9
-0.523863,0.46266,-0.135856,12,2
-14.2609,12.5992,1.66485,70,10
-8.96076,7.91666,-1.8938,35,3
-14.9904,13.2484,2.4564,36,11
-7.83757,6.92922,-1.2845,70,4
-17.5004,15.4776,3.7003,11,12
-8.60409,7.61226,-1.00508,24,5
-11.2516,9.95808,-0.787447,29,6
-15.5887,13.8014,4.80675,42,14
-8.06428,7.1422,-0.188032,82,7
-16.7676,14.8556,6.00253,17,15
-8.49704,7.54933,0.198399,71,8
-0.448629,0.398731,-0.13857,13,1
-8.88546,7.8972,0.623007,60,9
-0.516457,0.459177,-0.13433,12,2
-14.2295,12.6557,1.66607,17,10
-8.86371,7.88618,-1.87909,53,3
-14.5822,12.9786,2.39693,30,11
-7.88006,7.01594,-1.29547,39,4
-14.8169,13.1921,3.14214,40,12
-9.88958,8.8082,-1.15865,28,5
-20.4925,18.2581,5.33502,15,13
-9.36943,8.35079,-0.657758,68,6
-18.355,16.3652,5.67731,27,14
-8.16742,7.28202,-0.190999,22,7
-16.822,15.0037,6.0398,14,15
-8.47345,7.5788,0.198434,86,8
-0.395022,0.353438,-0.122373,15,1
-8.92778,7.99077,0.627927,43,9
-0.520702,0.466216,-0.135856,12,2
-14.2654,12.7771,1.67548,14,10
-8.65211,7.74947,-1.83967,33,3
-14.5332,13.0216,2.39595,35,11
-8.1317,7.28847,-1.34081,37,4
-9.8914,8.87193,-1.16248,45,5
-20.4026,18.2997,5.32739,33,13
-8.90463,7.98967,-0.626985,65,6
-15.551,13.958,4.8243,29,14
-8.06756,7.24369,-0.189254,26,7
-16.9291,15.2056,6.09726,3,15
-8.35334,7.52402,0.196235,50,8
-0.393786,0.354815,-0.122373,15,1
-8.97104,8.08607,0.632951,59,9
-0.498737,0.449538,-0.130513,13,2
-17.4679,15.7503,2.05775,25,10
-8.67634,7.82593,-1.85062,62,3
-14.4361,13.0257,2.38742,30,11
-7.61992,6.87788,-1.26037,49,4
-14.767,13.3337,3.15122,21,12
-8.05782,7.2757,-0.949823,20,5
-20.088,18.1445,5.26175,3,13
-8.78185,7.93501,-0.620286,91,6
-14.6217,13.2164,4.55031,38,14
-16.3243,14.7657,5.89797,16,15
-8.3211,7.54775,0.196095,48,8
-0.392545,0.356187,-0.122373,15,1
-9.06107,8.22473,0.641325,56,9
-0.502979,0.456554,-0.13204,13,2
-17.5441,15.9303,2.07326,41,10
-8.68114,7.88539,-1.8575,45,3
-14.3538,13.0426,2.38133,35,11
-7.62378,6.92981,-1.265,60,4
-15.682,14.2596,3.35708,15,12
-8.04564,7.31584,-0.951392,2,5
-17.2433,15.6847,4.53095,23,13
-8.92398,8.12019,-0.632323,68,6
-8.01088,7.29445,-0.189114,27,7
-16.8439,15.3429,6.10502,15,15
-8.28141,7.56462,0.195781,62,8
-0.414317,0.378588,-0.129572,14,1
-9.04112,8.26147,0.641848,14,9
-0.510077,0.466254,-0.13433,12,2
-13.811,12.6289,1.63731,27,10
-14.2247,13.0163,2.36743,40,11
-7.65079,7.00329,-1.27353,59,4
-15.6492,14.3248,3.36021,18,12
-12.49,11.437,-1.48165,9,5
-17.2884,15.8363,4.55728,11,13
-8.7336,8.00287,-0.620809,30,6
-13.048,11.9605,4.08646,31,14
-8.61903,7.90065,-0.204088,24,7
-16.2747,14.9234,5.9166,30,15
-0.426609,0.392287,-0.155291,12,0
-8.31369,7.64482,0.197142,11,8
-0.415927,0.382599,-0.130472,14,1
-9.01811,8.29838,0.642267,9,9
-0.508446,0.468032,-0.13433,12,2
-7.81338,7.19485,0.929255,57,10
-7.87745,7.25384,-1.69606,5,3
-14.2442,13.1212,2.37791,20,11
-7.683,7.07974,-1.2828,17,4
-14.6565,13.5104,3.15716,17,12
-12.2874,11.3306,-1.4623,25,5
-17.2083,15.8683,4.55003,13,13
-13.0283,12.0222,4.09276,60,14
-8.58552,7.92527,-0.203949,32,7
-16.248,15.0037,5.92592,27,15
-8.94868,8.28656,0.212884,22,8
-0.388856,0.360211,-0.122373,15,1
-0.524172,0.485728,-0.138909,24,2
-13.9863,12.9651,1.66851,17,10
-14.1649,13.1398,2.37231,40,11
-7.60876,7.06061,-1.27451,61,4
-9.42719,8.75109,-1.12535,33,5
-14.1216,13.1135,3.74596,34,13
-13.022,12.1008,4.10401,23,14
-7.8665,7.31256,-0.187474,100,7
-16.1248,14.9946,5.90004,27,15
-7.61955,7.10534,0.181854,6,8
-0.410396,0.382834,-0.129572,14,1
-8.63433,8.05727,0.618925,55,9
-0.502378,0.468803,-0.133566,13,2
-14.0371,13.1035,1.68001,28,10
-8.60913,8.03939,-1.86564,43,3
-14.0972,13.1688,2.36865,10,11
-20.2056,18.8882,4.38079,12,12
-9.36165,8.75128,-1.12117,35,5
-14.2665,13.341,3.79672,26,13
-8.05418,7.53433,-0.577998,16,6
-12.964,12.1315,4.09906,48,14
-7.87888,7.37551,-0.188381,100,7
-16.1231,15.0983,5.91867,27,15
-7.66029,7.19349,0.183425,1,8
-0.386332,0.362917,-0.122373,15,1
-8.59009,8.06945,0.617669,56,9
-0.495016,0.465176,-0.13204,13,2
-8.77828,8.25201,1.05406,22,10
-8.79256,8.26832,-1.91163,66,3
-14.0627,13.2288,2.3706,10,11
-7.588,7.13808,-1.27914,48,4
-18.4137,17.3279,4.00472,7,12
-8.935,8.41109,-1.07358,30,5
-14.0798,13.2588,3.75932,24,13
-8.01184,7.54733,-0.576847,54,6
-12.9578,12.2065,4.10986,31,14
-8.23277,7.75817,-0.197457,28,7
-16.1756,15.2484,5.95646,11,15
-0.436099,0.412398,-0.13857,13,1
-7.829,7.40351,0.564705,19,9
-0.507733,0.480307,-0.135856,12,2
-8.75376,8.28381,1.05441,11,10
-8.28165,7.83978,-1.80619,56,3
-15.1516,14.3482,2.56218,5,11
-8.67125,8.21147,-1.46633,67,4
-21.2917,20.1698,4.64517,16,12
-8.34304,7.90619,-1.0056,27,5
-13.8761,13.1542,3.71658,39,13
-7.99691,7.58348,-0.57758,20,6
-12.9922,12.3205,4.1337,37,14
-16.2665,15.4363,6.00874,11,15
-0.383916,0.365471,-0.122373,15,1
-0.503294,0.47928,-0.135093,25,2
-18.4003,17.5285,2.22334,23,10
-8.25274,7.86447,-1.80557,36,3
-15.4057,14.686,2.61337,30,11
-8.86234,8.45129,-1.50362,39,4
-18.4125,17.5647,4.03038,28,12
-8.24909,7.87199,-0.997585,44,5
-13.7629,13.1337,3.69788,34,13
-10.2471,9.78206,-0.742438,26,6
-12.935,12.3523,4.1292,34,14
-8.26074,7.89138,-0.199411,21,7
-14.5225,13.878,5.3824,14,15
-0.382638,0.366809,-0.122373,15,1
-10.0634,9.65046,0.730715,21,9
-0.515701,0.494713,-0.138909,12,2
-18.3833,17.6413,2.2291,47,10
-7.63247,7.32695,-1.67573,60,3
-13.5099,12.9691,2.29943,29,11
-7.80045,7.49083,-1.32789,37,4
-18.3654,17.6425,4.03351,15,12
-7.95149,7.6412,-0.964814,48,5
-14.2213,13.6711,3.8345,14,13
-12.9135,12.4226,4.13685,43,14
-8.17694,7.8661,-0.19805,24,7
-16.2822,15.6687,6.05481,12,15
-0.417038,0.402447,-0.155291,12,0
-7.84669,7.57481,0.190371,18,8
-0.417738,0.403405,-0.134071,14,1
-7.83293,7.56417,0.570671,12,9
-0.494203,0.477413,-0.133566,13,2
-8.75393,8.45948,1.06504,33,10
-7.61395,7.36042,-1.67729,46,3
-13.4251,12.9826,2.29309,39,11
-7.75,7.49455,-1.32374,28,4
-15.1702,14.6753,3.343,9,12
-7.83886,7.58578,-0.954355,32,5
-14.8379,14.3639,4.01424,4,13
-8.45653,8.18923,-0.616936,37,6
-12.9268,12.5182,4.1544,25,14
-7.94836,7.6998,-0.193163,27,7
-14.1645,13.7263,5.28508,13,15
-10.1491,9.86263,0.247021,57,8
-0.419193,0.407505,-0.134971,14,1
-7.86652,7.64719,0.574963,65,9
-0.503877,0.489999,-0.136619,12,2
-7.53906,7.33397,0.92019,10,10
-7.60083,7.39665,-1.67979,52,3
-13.3123,12.9592,2.28115,43,11
-7.72937,7.52436,-1.32448,39,4
-15.1229,14.7269,3.34332,26,12
-8.15903,7.94818,-0.996539,51,5
-14.9941,14.6117,4.06957,16,13
-7.96596,7.76551,-0.583023,64,6
-12.8838,12.5596,4.15395,40,14
-7.761,7.56836,-0.189219,100,7
-16.579,16.1731,6.20596,6,15
-7.79485,7.62529,0.190336,77,8
-0.406697,0.397989,-0.131371,14,1
-7.84263,7.67739,0.575172,128,9
-0.496638,0.486174,-0.135093,12,2
-8.67913,8.49923,1.06278,51,10
-7.56215,7.40799,-1.67666,21,3
-14.9437,14.6442,2.56901,17,11
-8.46713,8.30031,-1.45585,55,4
-15.1814,14.8875,3.36772,26,12
-8.15115,7.99614,-0.998979,53,5
-13.7346,13.4734,3.73986,17,13
-7.78336,7.63801,-0.571509,100,6
-7.59757,7.4609,-0.185868,28,7
-13.9646,13.7182,5.24523,21,15
-9.84521,9.69853,0.241227,24,8
-0.377545,0.37205,-0.122373,15,1
-9.88246,9.74202,0.727261,40,9
-0.494853,0.487991,-0.135093,25,2
-9.83794,9.70492,1.20902,63,10
-15.0903,14.8915,2.60313,12,11
-15.0563,14.8682,3.35145,24,12
-8.14303,8.04415,-1.00142,19,5
-16.478,16.2836,4.50309,13,13
-7.77519,7.68614,-0.572974,100,6
-13.0915,12.9461,4.25068,33,14
-7.55157,7.46768,-0.185379,23,7
-14.0031,13.8524,5.27784,18,15
-9.88482,9.8092,0.243077,13,8
-0.398307,0.395397,-0.129572,14,1
-9.32819,9.26006,0.688846,18,9
-0.493146,0.489715,-0.135093,12,2
-9.80542,9.74061,1.2092,18,10
-7.09419,7.04976,-1.58406,37,3
-14.9596,14.8711,2.58997,36,11
-7.56568,7.52092,-1.30985,1,4
-15.1009,15.0168,3.37304,24,12
-8.15163,8.10906,-1.00595,49,5
-16.2026,16.1236,4.44318,27,13
-7.78937,7.7541,-0.57601,54,6
-13.0154,12.9565,4.23988,33,14
-7.61898,7.58713,-0.187683,32,7
-14.0382,13.9844,5.30941,15,15
-8.81524,8.80601,0.217492,12,8
-0.402507,0.402226,-0.131371,14,1
-8.81426,8.80811,0.653048,28,9
-0.485965,0.485796,-0.133566,26,2
-9.76321,9.76321,1.20798,23,10
-8.43661,8.43956,-1.89004,22,3
-15.1684,15.179,2.63482,37,11
-7.46774,7.47295,-1.29718,33,4
-15.0524,15.0682,3.37335,16,12
-8.18382,8.19526,-1.01327,36,5
-15.9105,15.9383,4.37754,27,13
-7.93855,7.95519,-0.588989,67,6
-13.194,13.2216,4.31231,34,14
-7.52457,7.54298,-0.185973,23,7
-14.2714,14.3113,5.41553,8,15
-8.77189,8.82101,0.217143,3,8
-0.373693,0.375918,-0.122373,15,1
-0.484352,0.487405,-0.133566,26,2
-17.6095,17.7267,2.18604,11,10
-7.02223,7.07142,-1.57842,35,3
-13.6495,13.75,2.37889,30,11
-7.44999,7.50743,-1.29864,49,4
-15.0679,15.1894,3.38868,18,12
-7.93069,7.99462,-0.985209,34,5
-15.9004,16.0342,4.38937,27,13
-7.89525,7.96445,-0.587733,50,6
-13.0216,13.1403,4.27092,25,14
-7.36732,7.43708,-0.182727,31,7
-14.2744,14.4146,5.43572,8,15
-9.68245,9.80489,0.240529,22,8
-0.416188,0.421599,-0.13677,13,1
-8.75817,8.87512,0.653467,61,9
-0.482648,0.489092,-0.133566,26,2
-11.7338,11.8946,1.46178,37,10
-6.99611,7.09449,-1.57811,35,3
-13.5694,13.765,2.37328,10,11
-7.37498,7.4839,-1.29011,46,4
-16.652,16.9038,3.75818,24,12
-7.96985,8.09038,-0.993575,36,5
-14.9255,15.1565,4.13483,8,13
-7.73429,7.85675,-0.577789,97,6
-13.2394,13.4537,4.35775,40,14
-7.38058,7.50267,-0.183704,99,7
-14.0316,14.2687,5.36221,14,15
-0.405855,0.413722,-0.155291,12,0
-11.4557,11.6819,0.285591,21,8
-0.398344,0.406349,-0.131371,14,1
-8.72294,8.90135,0.653153,49,9
-0.497427,0.507601,-0.138146,12,2
-11.6462,11.8885,1.45602,18,10
-6.9948,7.14286,-1.58343,72,3
-13.4018,13.6903,2.35232,45,11
-7.38629,7.5479,-1.29669,64,4
-7.86911,8.04409,-0.984511,10,5
-16.2369,16.6038,4.51416,28,13
-7.93998,8.12221,-0.595269,70,6
-12.8641,13.164,4.24933,24,14
-7.36552,7.53983,-0.183983,32,7
-13.9088,14.243,5.33426,15,15
-11.4274,11.7347,0.285905,1,8
-0.418672,0.430079,-0.13857,13,1
-8.72246,8.96324,0.655456,26,9
-0.495652,0.509334,-0.138146,24,2
-11.6004,11.9248,1.4555,31,10
-6.97809,7.17572,-1.58531,63,3
-16.5212,16.9951,2.91024,15,11
-7.3267,7.53947,-1.29084,23,4
-15.5811,16.0392,3.54168,8,12
-7.91456,8.14726,-0.99375,23,5
-13.7347,14.1435,3.83221,19,13
-7.83785,8.07392,-0.589722,74,6
-12.8072,13.1976,4.24573,24,14
-7.27093,7.49516,-0.182273,24,7
-13.621,14.046,5.24264,1,15
-0.402957,0.416546,-0.155291,12,0
-12.0564,12.4674,0.302729,19,8
-0.395497,0.409121,-0.131371,14,1
-9.78517,10.1222,0.737832,42,9
-0.485685,0.50259,-0.135856,25,2
-13.2683,13.735,1.67078,28,10
-6.96946,7.21709,-1.58906,40,3
-17.8695,18.5109,3.1591,9,11
-7.3899,7.65513,-1.30644,11,4
-14.8927,15.4326,3.39682,20,12
-7.84734,8.13468,-0.988869,42,5
-16.0429,16.6362,4.49241,18,13
-8.14923,8.45352,-0.615366,100,6
-12.8878,13.3691,4.28712,3,14
-11.3755,11.8044,-0.28615,55,7
-14.0233,14.5571,5.41605,4,15
-0.401573,0.41788,-0.155291,12,0
-14.1747,14.7555,0.357146,18,8
-0.367143,0.382318,-0.122373,15,1
-9.73772,10.1402,0.736786,20,9
-0.484016,0.504198,-0.135856,25,2
-13.1413,13.6941,1.66049,38,10
-6.92498,7.21878,-1.58437,37,3
-13.1503,13.713,2.33282,5,11
-7.54996,7.87302,-1.33934,35,4
-7.71418,8.0499,-0.975447,40,5
-17.3553,18.1169,4.8767,12,13
-7.76061,8.104,-0.588047,100,6
-13.3502,13.9409,4.45628,26,14
-7.19479,7.51578,-0.18161,29,7
-13.8494,14.4724,5.36739,22,15
-7.58057,7.94371,0.191662,32,8
-0.387395,0.406094,-0.129572,14,1
-9.74816,10.2187,0.740135,66,9
-0.490471,0.514325,-0.138146,24,2
-13.0766,13.7174,1.65805,35,10
-6.89828,7.23884,-1.58374,66,3
-12.9897,13.6357,2.31235,29,11
-7.2349,7.59474,-1.28792,56,4
-14.602,15.3337,3.35364,1,12
-7.69706,8.08553,-0.976667,8,5
-14.1444,14.8635,3.98829,20,13
-8.00763,8.41766,-0.608877,60,6
-13.3899,14.0755,4.48507,26,14
-7.80096,8.20327,-0.197596,84,7
-13.8333,14.5518,5.37981,10,15
-7.49778,7.9093,0.190231,30,8
-0.39945,0.421522,-0.134071,14,1
-9.70185,10.2379,0.739193,40,9
-0.486062,0.513098,-0.137382,24,2
-13.0625,13.7939,1.66206,28,10
-8.59212,9.07638,-1.97952,70,3
-12.9157,13.6485,2.30723,39,11
-7.19876,7.60716,-1.28597,37,4
-17.2186,18.2018,3.96843,22,12
-7.84406,8.29486,-0.998805,8,5
-14.1476,14.9659,4.00317,16,13
-8.07158,8.54143,-0.61589,20,6
-12.9429,13.6963,4.35055,15,14
-7.749,8.20293,-0.196968,25,7
-13.8142,14.6285,5.3912,6,15
-0.397323,0.421923,-0.155291,12,0
-11.4176,12.1288,0.290757,16,8
-0.400647,0.425752,-0.134971,14,1
-9.64373,10.2516,0.737623,30,9
-0.489649,0.520512,-0.138909,24,2
-12.9911,13.8148,1.6591,24,10
-12.921,13.7499,2.31674,15,11
-7.285,7.75502,-1.30644,81,4
-19.0679,20.3053,4.41177,3,12
-11.3775,12.1158,-1.45411,5,5
-14.0698,14.988,3.99592,20,13
-7.70551,8.21128,-0.59014,64,6
-13.2193,14.0919,4.46078,35,14
-7.68468,8.19481,-0.196095,24,7
-13.7552,14.6734,5.38913,18,15
-0.395847,0.423308,-0.155291,12,0
-12.7695,13.6601,0.326395,20,8
-0.383192,0.410062,-0.129572,14,1
-11.2903,12.0862,0.866788,41,9
-0.490509,0.525087,-0.139672,23,2
-12.6912,13.5906,1.62685,47,10
-8.13494,8.7145,-1.88816,36,3
-12.8405,13.7601,2.31089,9,11
-7.4786,8.01701,-1.34617,52,4
-14.4973,15.5464,3.36678,1,12
-8.21806,8.81279,-1.05424,9,5
-13.9853,15.0026,3.98676,22,13
-7.6768,8.23812,-0.59014,64,6
-12.6135,13.5405,4.27227,37,14
-7.69555,8.26402,-0.197107,33,7
-13.5643,14.5714,5.33426,5,15
-0.394367,0.424687,-0.155291,12,0
-11.2143,12.0807,0.28772,47,8
-0.426827,0.459965,-0.144868,12,1
-10.9567,11.8074,0.844179,39,9
-0.475322,0.512403,-0.135856,25,2
-12.6816,13.6758,1.63173,16,10
-12.7775,13.7888,2.30821,9,11
-8.67817,9.36829,-1.56797,48,4
-13.8751,14.9785,3.23381,6,12
-10.0906,10.8968,-1.29932,5,5
-13.8541,14.9663,3.96425,16,13
-10.9484,11.8315,-0.844807,29,6
-12.4708,13.4814,4.23988,42,14
-8.41631,9.09834,-0.21634,26,7
-13.4635,14.5596,5.31356,18,15
-0.392883,0.426061,-0.155291,12,0
-11.0631,11.9973,0.284858,21,8
-0.396242,0.429855,-0.134971,14,1
-10.9425,11.8749,0.846272,18,9
-0.46821,0.508283,-0.13433,25,2
-12.6122,13.6965,1.62894,20,10
-12.7089,13.8063,2.30406,9,11
-7.06228,7.67479,-1.2806,45,4
-18.6773,20.3043,4.36953,6,12
-7.53194,8.19092,-0.97353,14,5
-13.7008,14.8995,3.93448,35,13
-10.8523,11.8059,-0.840411,52,6
-12.3483,13.438,4.21333,36,14
-11.1875,12.179,-0.288663,55,7
-12.8625,14.0075,5.09563,1,15
-10.8739,11.8751,0.281054,39,8
-0.400002,0.436985,-0.13677,13,1
-10.9382,11.9494,0.848994,22,9
-0.479775,0.524317,-0.138146,24,2
-12.5587,13.7294,1.62789,30,10
-10.0736,11.0166,-2.36435,34,3
-12.6445,13.833,2.30114,4,11
-7.08365,7.75215,-1.28938,13,4
-14.4124,15.7726,3.38399,7,12
-8.10001,8.86753,-1.05075,28,5
-13.6632,14.9631,3.93868,22,13
-7.71813,8.4554,-0.599979,100,6
-12.2461,13.4206,4.19444,33,14
-8.20187,8.9885,-0.212396,48,7
-12.8055,14.0386,5.09149,17,15
-10.8816,11.9629,0.282275,50,8
-0.393307,0.432542,-0.134971,14,1
-12.311,13.5438,0.959213,12,9
-0.483223,0.5318,-0.139672,23,2
-13.1604,14.4885,1.71244,28,10
-6.73917,7.41925,-1.5875,17,3
-25.4227,27.998,4.64347,15,11
-7.07525,7.7947,-1.29255,34,4
-12.7737,14.0775,3.01074,34,12
-7.4238,8.18444,-0.966731,17,5
-13.6874,15.0898,3.96005,9,13
-12.1924,13.451,4.19129,33,14
-12.7279,14.0517,5.0801,17,15
-10.884,12.0498,0.283427,26,8
-0.391795,0.433912,-0.134971,14,1
-10.9334,12.113,0.85517,8,9
-0.473564,0.524655,-0.137382,24,2
-12.234,13.5587,1.59774,43,10
-10.0302,11.1201,-2.37186,61,3
-13.3184,14.7708,2.44202,26,11
-7.07724,7.85179,-1.29791,6,4
-12.7179,14.1147,3.00917,13,12
-7.30318,8.10816,-0.954704,24,5
-13.4297,14.9099,3.90052,19,13
-10.6714,11.8518,-0.835805,39,6
-12.0671,13.4066,4.16429,51,14
-7.98912,8.87904,-0.208486,24,7
-12.6478,14.0616,5.06768,19,15
-10.9807,12.2425,0.287057,32,8
-0.408491,0.45559,-0.141269,13,1
-11.0137,12.2879,0.864799,12,9
-0.466397,0.520539,-0.135856,25,2
-12.2135,13.6361,1.60157,40,10
-10.05,11.2245,-2.38625,28,3
-12.2631,13.6962,2.25726,34,11
-7.89841,8.82458,-1.45415,17,4
-12.7199,14.2164,3.02138,33,12
-7.28015,8.13954,-0.955401,50,5
-13.2401,14.8083,3.86121,22,13
-9.06796,10.1455,-0.71313,13,6
-11.9725,13.3999,4.14855,34,14
-10.1551,11.3659,-0.266044,100,7
-12.5381,14.0379,5.04335,19,15
-0.385462,0.432786,-0.155291,12,0
-10.9397,12.2871,0.287162,19,8
-0.386089,0.433793,-0.134071,14,1
-0.473712,0.532431,-0.138527,24,2
-12.1513,13.6623,1.59966,30,10
-10.0278,11.2787,-2.39032,96,3
-12.2312,13.7619,2.26068,29,11
-8.44482,9.50494,-1.56115,45,4
-12.7423,14.342,3.03858,30,12
-9.08016,10.2236,-1.1963,27,5
-13.0632,14.7135,3.82458,17,13
-9.04442,10.1906,-0.714072,6,6
-11.9955,13.5203,4.17284,33,14
-7.98533,9.00042,-0.210022,100,7
-12.5186,14.1149,5.05525,14,15
-0.38723,0.437991,-0.134971,14,1
-10.9091,12.3436,0.863334,44,9
-0.48615,0.550265,-0.142725,22,2
-12.1404,13.7464,1.60454,40,10
-9.95632,11.2734,-2.38218,52,3
-13.3496,15.1208,2.47663,21,11
-7.86945,8.91672,-1.46024,42,4
-12.5145,14.1849,2.99603,18,12
-8.97984,10.182,-1.18776,20,5
-13.1248,14.8819,3.85701,21,13
-11.8475,13.4431,4.13685,51,14
-10.1337,11.5025,-0.26758,100,7
-12.4654,14.1541,5.0537,17,15
-0.382508,0.435399,-0.155291,12,0
-0.383127,0.436411,-0.134071,14,1
-9.25927,10.547,0.73553,15,9
-0.484322,0.551875,-0.142725,22,2
-13.1236,14.9593,1.74102,47,10
-9.80359,11.1789,-2.35496,58,3
-12.0378,13.7313,2.24215,19,11
-6.96961,7.95012,-1.29815,42,4
-12.1731,13.8906,2.92532,60,12
-7.24846,8.27402,-0.962374,50,5
-13.0637,14.9173,3.85434,19,13
-8.76041,10.0069,-0.69701,68,6
-11.817,13.4984,4.1418,40,14
-10.2245,11.6835,-0.271001,8,7
-12.9679,14.8235,5.27732,18,15
-0.381062,0.436665,-0.155291,12,0
-10.4572,11.9874,0.277668,37,8
-0.36887,0.422992,-0.129572,14,1
-9.22293,10.5762,0.735425,45,9
-0.481199,0.551998,-0.142344,45,2
-13.0949,15.0268,1.74381,29,10
-8.92697,10.2476,-2.15254,15,3
-11.9466,13.7188,2.23362,38,11
-8.27554,9.50315,-1.54725,11,4
-12.114,13.916,2.9222,36,12
-7.29292,8.38068,-0.971961,25,5
-12.9768,14.9175,3.84327,21,13
-8.91721,10.2545,-0.712188,39,6
-11.7811,13.5478,4.14495,34,14
-10.1005,11.6192,-0.268732,41,7
-15.1362,17.4183,6.18319,6,15
-0.400639,0.46251,-0.141269,13,1
-9.17942,10.6008,0.734902,54,9
-0.474225,0.547654,-0.140817,46,2
-13.0997,15.1334,1.75113,21,10
-11.9543,13.8199,2.24361,23,11
-6.91014,7.99137,-1.29718,35,4
-12.0731,13.9671,2.92407,25,12
-8.64358,9.99956,-1.15638,19,5
-12.7873,14.7986,3.80168,30,13
-8.78654,10.1721,-0.704442,16,6
-11.7681,13.6287,4.1571,23,14
-10.0481,11.6408,-0.268418,23,7
-14.9541,17.3306,6.13349,31,15
-10.3937,12.0795,0.278156,48,8
-0.388856,0.452087,-0.13767,13,1
-9.1658,10.66,0.736786,48,9
-0.478711,0.556749,-0.142725,56,2
-10.8793,12.6572,1.46021,40,10
-9.67062,11.255,-2.35027,37,3
-11.7546,13.6853,2.2151,38,11
-6.91842,8.05761,-1.304,61,4
-12.0809,14.0751,2.93784,16,12
-7.21365,8.40442,-0.968998,14,5
-12.8097,14.9295,3.82381,21,13
-8.60015,10.0269,-0.6923,81,6
-14.6328,17.0664,5.19007,43,14
-10.7023,12.4866,-0.287057,39,7
-14.8835,17.371,6.12935,18,15
-10.3852,12.1552,0.279064,76,8
-0.37715,0.441587,-0.134071,14,1
-13.3318,15.6095,1.07582,16,9
-0.478039,0.55991,-0.143107,56,2
-10.6863,12.5209,1.44016,25,10
-9.63255,11.2902,-2.35058,17,3
-11.6682,13.681,2.20779,38,11
-7.0589,8.28246,-0.952089,22,5
-12.3234,14.4646,3.69368,26,13
-8.62595,10.1283,-0.69722,84,6
-18.5348,21.7706,6.60096,9,14
-10.6544,12.5144,-0.286883,63,7
-14.7682,17.3526,6.10554,24,15
-0.375005,0.441878,-0.155291,12,0
-10.1818,11.9975,0.274666,43,8
-0.36812,0.433919,-0.131371,14,1
-13.263,15.6392,1.07467,13,9
-0.48116,0.567565,-0.144633,55,2
-10.1066,11.9258,1.36765,3,10
-7.40862,8.74213,-1.81495,22,3
-11.6497,13.7514,2.2129,28,11
-7.30729,8.62866,-1.38834,38,4
-11.3811,13.4439,2.78985,33,12
-8.66581,10.2401,-1.17364,27,5
-12.3185,14.5563,3.70666,19,13
-18.6626,22.0685,6.6725,9,14
-10.6648,12.6157,-0.288349,63,7
-14.8023,17.5161,6.14488,12,15
-10.0432,11.9183,0.272048,40,8
-0.374136,0.444143,-0.134071,14,1
-9.32056,11.0685,0.758348,30,9
-0.479275,0.569158,-0.144633,55,2
-10.5572,12.5415,1.43423,71,10
-7.24324,8.60772,-1.78179,63,3
-11.5786,13.7646,2.20852,28,11
-7.27712,8.65412,-1.38834,15,4
-11.1231,13.2325,2.73792,38,12
-6.85878,8.1595,-0.932566,52,5
-12.0579,14.3497,3.64331,30,13
-8.53241,10.1577,-0.695231,13,6
-14.519,17.2908,5.21257,21,14
-10.5667,12.5885,-0.286883,86,7
-21.6962,25.8565,9.04417,7,15
-10.0375,11.9962,0.273025,58,8
-0.40259,0.481322,-0.144868,12,1
-9.49069,11.3507,0.77541,19,9
-0.465952,0.557272,-0.141199,46,2
-10.6731,12.7694,1.45602,28,10
-7.39933,8.85579,-1.82778,37,3
-23.7978,28.4921,4.55816,14,11
-7.49878,8.98117,-1.4366,5,4
-11.0984,13.2971,2.74324,41,12
-6.83153,8.18493,-0.932741,24,5
-12.0103,14.3947,3.64407,30,13
-8.4355,10.1138,-0.690207,35,6
-14.5147,17.4087,5.23281,5,14
-9.3615,11.232,-0.255224,25,7
-21.5799,25.9009,9.0333,15,15
-9.9355,11.9589,0.271385,34,8
-0.388457,0.467732,-0.140369,13,1
-9.25649,11.1455,0.75929,15,9
-0.470274,0.566448,-0.143107,45,2
-10.4083,12.5413,1.42587,12,10
-7.38099,8.89676,-1.83091,17,3
-10.9601,13.2156,2.1081,9,11
-11.0996,13.3885,2.7545,48,12
-6.80546,8.21179,-0.933089,36,5
-11.8923,14.3549,3.62346,30,13
-8.62945,10.4201,-0.709048,19,6
-14.4663,17.4743,5.23731,22,14
-11.6157,14.031,-0.317948,82,7
-20.3816,24.6284,8.56588,6,15
-0.368877,0.447006,-0.155291,12,0
-10.1822,12.3388,0.279238,30,8
-0.399304,0.484051,-0.144868,12,1
-10.2455,12.4244,0.84397,42,9
-0.46205,0.560511,-0.141199,23,2
-18.566,22.5304,2.55419,14,10
-7.39793,8.9776,-1.84249,41,3
-10.8658,13.1906,2.09835,27,11
-11.0352,13.4059,2.75012,52,12
-6.82487,8.29395,-0.939713,22,5
-11.1186,13.512,3.40136,15,13
-8.28145,10.0677,-0.683194,13,6
-14.3562,17.4589,5.21841,32,14
-9.83719,11.9675,-0.270408,65,7
-17.8095,21.6739,7.51662,20,15
-9.67264,11.805,0.266394,19,8
-0.370446,0.452275,-0.134971,14,1
-10.1742,12.4261,0.841667,28,9
-0.460189,0.56204,-0.141199,23,2
-10.5637,12.9063,1.45916,6,10
-7.42659,9.07675,-1.8575,38,3
-10.8171,13.2254,2.09786,18,11
-7.43731,9.09633,-1.44269,12,4
-10.7608,13.1659,2.69318,38,12
-8.05441,9.85459,-1.1135,35,5
-8.27152,10.1274,-0.685287,48,6
-14.2817,17.4923,5.21347,43,14
-8.46647,10.3735,-0.233723,9,7
-11.3576,13.9208,4.81403,1,15
-0.365825,0.449507,-0.155291,12,0
-9.96201,12.2451,0.275539,40,8
-0.368865,0.453565,-0.134971,14,1
-10.1547,12.491,0.843656,35,9
-0.45327,0.55755,-0.139672,23,2
-9.90038,12.1824,1.3734,6,10
-7.44842,9.16854,-1.87096,18,3
-10.7346,13.2184,2.09079,27,11
-7.29667,8.98815,-1.42148,31,4
-10.675,13.1543,2.68316,13,12
-8.10658,9.98939,-1.12553,57,5
-10.7173,13.2111,3.30672,22,13
-8.21222,10.1268,-0.683298,55,6
-12.527,15.453,4.5926,18,14
-8.24891,10.1793,-0.228696,64,7
-11.2761,13.9199,4.80006,10,15
-0.364254,0.450781,-0.155291,12,0
-9.27459,11.4818,0.257632,18,8
-0.394214,0.488206,-0.144868,12,1
-10.1299,12.5496,0.845226,58,9
-0.457487,0.566767,-0.14158,23,2
-9.5475,11.8323,1.33017,5,10
-7.39405,9.16681,-1.86532,8,3
-10.8068,13.4026,2.11395,22,11
-7.19673,8.92857,-1.40808,15,4
-11.1607,13.8514,2.81738,24,12
-8.06417,10.0083,-1.12448,26,5
-10.6662,13.2424,3.30519,27,13
-12.4974,15.527,4.6016,29,14
-8.36627,10.3981,-0.232955,91,7
-11.2674,14.0088,4.81714,19,15
-9.32454,11.6264,0.260146,16,8
-0.392507,0.489579,-0.144868,12,1
-10.0248,12.5085,0.840097,27,9
-0.455506,0.56836,-0.14158,34,2
-9.71667,12.1284,1.35963,12,10
-8.78699,10.9719,-2.22638,19,3
-10.7475,13.4247,2.11151,22,11
-10.4397,13.0496,2.64687,46,12
-6.63518,8.29392,-0.929255,34,5
-10.7474,13.439,3.34488,23,13
-8.33587,10.4272,-0.699627,39,6
-12.347,15.4503,4.56606,14,14
-9.23356,11.5584,-0.258226,17,7
-11.2498,14.0873,4.8306,16,15
-9.89893,12.4268,0.277319,7,8
-0.390881,0.490878,-0.144868,12,1
-8.75435,10.9978,0.736681,23,9
-0.453618,0.569868,-0.14158,46,2
-10.0039,12.5721,1.40565,3,10
-6.71294,8.43932,-1.70795,12,3
-10.6795,13.4307,2.10688,40,11
-7.51747,9.45753,-1.48339,33,4
-10.5672,13.2991,2.69036,32,12
-6.63987,8.35643,-0.933787,62,5
-10.6893,13.4576,3.34068,31,13
-8.02554,10.1076,-0.67639,58,6
-12.3236,15.5262,4.5764,10,14
-8.31891,10.4846,-0.233618,100,7
-11.113,14.011,4.79178,18,15
-9.07152,11.4701,0.255259,5,8
-0.389166,0.492239,-0.144868,12,1
-9.37226,11.8588,0.792157,7,9
-0.467452,0.591472,-0.146541,42,2
-9.67465,12.2458,1.36538,24,10
-10.6522,13.4929,2.11078,13,11
-7.51515,9.52267,-1.48949,19,4
-10.243,12.9839,2.61934,46,12
-10.5754,13.4101,3.31969,30,13
-7.99515,10.1418,-0.676809,68,6
-18.8901,23.9706,7.04592,10,14
-9.41824,11.9556,-0.265661,100,7
-12.2927,15.61,5.32391,15,15
-9.77488,12.4485,0.276272,16,8
-0.387445,0.493595,-0.144868,12,1
-9.59802,12.2276,0.814662,10,9
-0.453265,0.577654,-0.142725,45,2
-10.2491,13.0665,1.45289,15,10
-6.52466,8.3212,-1.67479,50,3
-10.6332,13.5659,2.11638,4,11
-7.47374,9.53503,-1.48754,31,4
-9.92943,12.6726,2.54988,51,12
-7.79887,9.957,-1.10653,9,5
-10.5649,13.4933,3.33114,30,13
-8.01017,10.2341,-0.6811,78,6
-10.6226,13.5718,3.97893,8,14
-8.02062,10.2512,-0.227195,100,7
-12.1789,15.5715,5.29699,9,15
-9.68682,12.4209,0.274945,12,8
-0.345069,0.442623,-0.129572,14,1
-9.93441,12.7429,0.846796,31,9
-0.448933,0.576057,-0.141962,57,2
-10.2327,13.135,1.45672,34,10
-6.52373,8.37708,-1.68167,23,3
-10.3211,13.258,2.063,30,11
-7.42744,9.54097,-1.48461,12,4
-9.92497,12.7538,2.55958,56,12
-7.69974,9.89788,-1.09712,26,5
-10.5032,13.5065,3.3258,30,13
-8.01174,10.3064,-0.684136,42,6
-21.4145,27.5478,8.0555,11,14
-9.37433,12.0636,-0.266673,99,7
-12.7719,16.4418,5.57859,15,15
-14.2473,18.3941,0.406117,10,8
-0.372232,0.480745,-0.140369,13,1
-0.449424,0.580648,-0.142725,45,2
-10.2293,13.2209,1.46247,37,10
-6.60105,8.53461,-1.70889,46,3
-10.4131,13.4681,2.0903,49,11
-8.14431,10.5375,-1.63524,1,4
-9.82,12.7102,2.54394,53,12
-7.81427,10.1141,-1.11821,26,5
-10.498,13.5926,3.33839,33,13
-7.947,10.2934,-0.681519,65,6
-10.6121,13.7503,4.00998,2,14
-9.3798,12.158,-0.268034,100,7
-12.7192,16.4924,5.58066,4,15
-9.08763,11.8176,0.260215,7,8
-0.342048,0.444961,-0.129572,14,1
-9.3207,12.1294,0.801682,4,9
-0.456964,0.594667,-0.145778,43,2
-10.1649,13.2328,1.45986,40,10
-6.50866,8.47613,-1.69262,81,3
-10.372,13.5122,2.09152,36,11
-8.96306,11.6809,-1.80781,54,4
-10.5859,13.8008,2.75481,13,12
-7.78135,10.1445,-1.11856,26,5
-10.4815,13.6696,3.34832,33,13
-8.2731,10.7934,-0.712711,45,6
-21.5014,28.0617,8.16167,24,14
-9.27772,12.1128,-0.266324,27,7
-17.4203,22.7519,7.67813,10,15
-13.9827,18.3151,0.402208,26,8
-0.368867,0.483332,-0.140369,13,1
-0.456076,0.597819,-0.14616,42,2
-10.0957,13.2381,1.45655,31,10
-7.06347,9.26541,-1.8453,55,3
-10.3236,13.5468,2.09128,22,11
-8.0525,10.5704,-1.63159,12,4
-10.4682,13.7415,2.73604,35,12
-7.61914,10.0052,-1.10025,21,5
-10.6097,13.9373,3.4048,25,13
-8.28375,10.8858,-0.716898,52,6
-10.4368,13.7201,3.97983,13,14
-9.25809,12.1706,-0.266917,100,7
-17.2021,22.622,7.61497,15,15
-0.350157,0.461817,-0.155291,12,0
-13.7394,18.1207,0.396938,27,8
-0.350783,0.46281,-0.134071,14,1
-8.84713,11.6768,0.767769,5,9
-0.442133,0.583757,-0.142344,22,2
-9.81849,12.9683,1.42308,25,10
-6.01917,7.95012,-1.57936,6,3
-10.3026,13.6126,2.09615,4,11
-9.47021,12.5173,-1.92724,57,4
-10.4321,13.7938,2.73917,28,12
-7.59859,10.0508,-1.10235,40,5
-10.7351,14.1995,3.46013,27,13
-8.22353,10.8813,-0.714805,68,6
-10.4605,13.8464,4.00638,16,14
-9.52887,12.6177,-0.275992,100,7
-17.08,22.6248,7.59582,5,15
-9.32144,12.3834,0.270547,6,8
-0.342135,0.454688,-0.131371,14,1
-8.80271,11.7028,0.767455,25,9
-0.434294,0.577375,-0.140435,23,2
-9.6078,12.7778,1.39868,53,10
-7.79901,10.376,-2.05586,15,3
-10.199,13.5739,2.0847,36,11
-9.39308,12.5059,-1.92042,40,4
-10.4219,13.8806,2.74918,16,12
-8.05501,10.7322,-1.17399,40,5
-10.3367,13.7721,3.34717,38,13
-8.12796,10.8333,-0.70978,35,6
-10.515,14.02,4.04597,23,14
-9.59513,12.7981,-0.279204,100,7
-11.281,15.0523,5.04024,6,15
-14.0591,18.8137,0.409957,18,8
-0.363871,0.487104,-0.140369,13,1
-8.70684,11.6599,0.76264,24,9
-0.443919,0.594696,-0.144252,22,2
-9.5061,12.7395,1.39066,12,10
-10.1859,13.6555,2.09177,27,11
-9.32564,12.5067,-1.91554,27,4
-11.8242,15.8634,3.1337,13,12
-8.01869,10.7618,-1.17416,47,5
-10.2333,13.7391,3.33,32,13
-8.05242,10.815,-0.70664,35,6
-11.2711,15.1433,4.3582,12,14
-8.21795,11.0413,-0.24025,100,7
-11.2653,15.1412,5.05681,9,15
-14.1508,19.0819,0.414669,13,8
-0.352799,0.475911,-0.13677,13,1
-8.64111,11.6565,0.760442,58,9
-0.439503,0.593087,-0.143488,22,2
-8.98244,12.1258,1.32024,2,10
-6.21868,8.39793,-1.65508,18,3
-10.1748,13.7454,2.09981,49,11
-9.25712,12.5057,-1.91042,36,4
-11.7653,15.8998,3.13276,17,12
-8.01544,10.8362,-1.17922,57,5
-10.3009,13.931,3.36778,31,13
-8.03124,10.8655,-0.708106,35,6
-11.2138,15.1712,4.3555,18,14
-8.25304,11.1696,-0.242414,100,7
-11.2285,15.2021,5.06405,11,15
-0.286464,0.388834,-0.12941,15,0
-10.5063,14.266,0.309257,5,8
-0.346597,0.470801,-0.134971,14,1
-0.444515,0.604029,-0.145778,21,2
-9.72259,13.2163,1.43546,37,10
-6.09834,8.29278,-1.63036,6,3
-13.1732,17.92,2.73085,13,11
-8.37493,11.3928,-1.73615,7,4
-11.7312,15.9642,3.13776,8,12
-9.81715,13.3644,-1.45079,23,5
-10.2314,13.9334,3.36015,31,13
-8.13107,11.0772,-0.720143,19,6
-11.0977,15.1188,4.32986,34,14
-8.16508,11.1276,-0.240913,97,7
-11.1414,15.1894,5.04749,14,15
-0.342207,0.467738,-0.155291,12,0
-10.4589,14.3008,0.309257,37,8
-0.340434,0.465655,-0.133171,14,1
-0.440193,0.602329,-0.145015,21,2
-9.05696,12.3975,1.34324,3,10
-5.9811,8.19012,-1.60627,12,3
-14.125,19.3489,2.94144,16,11
-7.08303,9.70614,-1.47535,15,4
-10.4833,14.3709,2.81738,6,12
-8.9849,12.3169,-1.33383,2,5
-10.2106,14.0022,3.36854,30,13
-8.19312,11.2397,-0.728935,32,6
-11.0483,15.1622,4.33121,34,14
-7.98373,10.9605,-0.23669,21,7
-11.0554,15.183,5.03248,3,15
-0.299704,0.412658,-0.136656,14,0
-10.3772,14.2935,0.308314,11,8
-0.352541,0.485766,-0.13857,13,1
-11.1994,15.4373,0.999512,3,9
-0.436935,0.602273,-0.144633,22,2
-9.60199,13.2403,1.43092,40,10
-6.00233,8.27972,-1.61972,53,3
-10.204,14.0808,2.13515,9,11
-7.52192,10.3835,-1.57431,22,4
-11.5685,15.9754,3.124,7,12
-10.0496,13.8779,-1.49908,15,5
-10.2111,14.1061,3.38495,21,13
-7.99226,11.0449,-0.714491,22,6
-11.3277,15.6601,4.46213,29,14
-7.99581,11.058,-0.23819,81,7
-10.9944,15.2105,5.02885,6,15
-0.338933,0.470116,-0.155291,12,0
-11.1703,15.4993,0.333481,26,8
-0.341731,0.474345,-0.134971,14,1
-17.6408,24.4956,1.58201,6,9
-0.43483,0.603795,-0.144633,22,2
-9.58016,13.3077,1.43458,62,10
-6.25147,8.68704,-1.69512,52,3
-13.9814,19.4357,2.93973,16,11
-7.48679,10.4113,-1.57455,22,4
-11.455,15.9354,3.10835,10,12
-9.89183,13.7609,-1.48269,15,5
-10.4391,14.5275,3.4773,24,13
-7.95948,11.0809,-0.715014,35,6
-11.3298,15.7787,4.48462,16,14
-7.88952,10.9916,-0.236166,26,7
-10.3319,14.3996,4.74881,7,15
-0.33729,0.471296,-0.155291,12,0
-11.1987,15.6537,0.335959,34,8
-0.335539,0.469194,-0.133171,14,1
-17.3763,24.3068,1.56589,14,9
-0.43272,0.605309,-0.144633,44,2
-9.52901,13.3345,1.43389,34,10
-7.44742,10.4255,-2.02927,20,3
-9.87823,13.8334,2.08713,27,11
-6.334,8.87338,-1.33861,13,4
-12.2151,17.1186,3.3308,7,12
-8.32887,11.6723,-1.25452,15,5
-10.2777,14.4088,3.44029,20,13
-7.8709,11.0387,-0.710513,61,6
-11.3041,15.8594,4.49632,3,14
-10.1498,14.2453,-0.305312,83,7
-10.2637,14.4104,4.74053,18,15
-0.335643,0.47247,-0.155291,12,0
-11.115,15.652,0.335086,44,8
-0.333899,0.470363,-0.133171,14,1
-20.6876,29.1427,1.873,16,9
-0.427196,0.602012,-0.143488,44,2
-9.45244,13.3255,1.42935,62,10
-5.85589,8.25833,-1.60345,33,3
-9.78282,13.8014,2.07714,13,11
-5.92999,8.36903,-1.2594,27,4
-11.3714,16.0485,3.11524,3,12
-9.72527,13.7304,-1.47206,30,5
-10.1207,14.294,3.40441,27,13
-8.04116,11.3611,-0.729459,29,6
-13.7597,19.4479,5.50005,12,14
-7.87805,11.1348,-0.238086,44,7
-10.1612,14.3671,4.71517,28,15
-0.333992,0.473639,-0.155291,12,0
-10.8718,15.4174,0.329292,46,8
-0.341319,0.48421,-0.13677,13,1
-13.0367,18.5012,1.18614,13,9
-0.4217,0.598685,-0.142344,45,2
-9.34393,13.2704,1.41994,50,10
-5.57713,7.92075,-1.53431,52,3
-9.72329,13.8143,2.07422,54,11
-7.7767,11.0528,-1.65937,19,4
-11.3494,16.1366,3.12462,1,12
-9.78615,13.9191,-1.48862,12,5
-9.85533,14.0175,3.33076,31,13
-8.19983,11.6672,-0.747358,19,6
-9.59949,13.6638,3.85521,21,14
-7.90349,11.2539,-0.24004,97,7
-10.0721,14.3471,4.69705,16,15
-0.332419,0.474744,-0.155291,12,0
-10.0267,14.3249,0.305208,8,8
-0.335158,0.479011,-0.134971,14,1
-10.2227,14.6103,0.934511,8,9
-0.417462,0.596862,-0.14158,46,2
-9.65454,13.8189,2.06983,48,11
-7.77558,11.1336,-1.66742,22,4
-11.6736,16.715,3.22912,11,12
-9.52894,13.6493,-1.45637,17,5
-9.83892,14.0985,3.34183,28,13
-9.55062,13.6956,3.85476,28,14
-10.8241,15.5217,-0.330304,81,7
-10.0112,14.3614,4.69084,13,15
-0.33076,0.475902,-0.155291,12,0
-9.94831,14.3137,0.304265,28,8
-0.340239,0.489723,-0.13767,13,1
-10.2513,14.7607,0.941838,13,9
-0.418735,0.603154,-0.142725,45,2
-9.30109,13.4025,1.42726,43,10
-5.95782,8.58496,-1.65508,18,3
-9.61659,13.8623,2.07154,40,11
-7.74428,11.1675,-1.66864,14,4
-9.89219,14.2702,2.75012,13,12
-9.56749,13.8069,-1.46962,33,5
-9.66016,13.9406,3.2968,38,13
-7.7597,11.2022,-0.714177,39,6
-9.57171,13.8233,3.88176,36,14
-11.0157,15.9146,-0.337844,100,7
-9.94015,14.3661,4.681,18,15
-0.274317,0.397497,-0.12941,15,0
-9.86536,14.3006,0.303253,14,8
-0.347378,0.503741,-0.141269,13,1
-10.2009,14.7981,0.941943,11,9
-0.427875,0.620703,-0.146541,42,2
-5.95359,8.64312,-1.66227,22,3
-9.67284,14.0478,2.0942,49,11
-8.84877,12.8558,-1.91627,23,4
-9.81097,14.259,2.74136,11,12
-9.57021,13.9091,-1.47712,15,5
-9.68153,14.0762,3.32084,25,13
-7.69339,11.1898,-0.711664,52,6
-10.9295,15.9084,-0.336901,36,7
-9.89979,14.415,4.68566,18,15
-0.327513,0.478142,-0.155291,12,0
-9.85265,14.3894,0.304405,26,8
-0.325805,0.476005,-0.133171,14,1
-10.0646,14.71,0.934092,26,9
-0.421271,0.615712,-0.145015,32,2
-20.3134,29.7003,3.14807,10,10
-7.24787,10.6011,-2.03396,23,3
-9.67863,14.1618,2.10615,9,11
-8.70193,12.7374,-1.89409,36,4
-9.82575,14.3878,2.7595,15,12
-9.53845,13.9671,-1.47973,24,5
-9.73861,14.2656,3.35748,28,13
-7.54733,11.0598,-0.701721,58,6
-11.0937,16.2627,4.54491,38,14
-10.7578,15.7763,-0.333306,81,7
-9.81894,14.4048,4.67117,12,15
-0.325842,0.479282,-0.155291,12,0
-9.79675,14.4155,0.30423,36,8
-0.332902,0.490035,-0.13677,13,1
-9.9537,14.6574,0.928545,23,9
-0.410296,0.604185,-0.141962,34,2
-9.03725,13.3129,1.40774,9,10
-5.9164,8.7188,-1.66884,16,3
-9.60351,14.1577,2.10054,27,11
-7.68038,11.3268,-1.68033,26,4
-13.1503,19.4011,3.71219,18,12
-7.53895,11.1224,-1.17556,35,5
-9.66232,14.2605,3.34832,25,13
-7.54788,11.144,-0.705384,35,6
-11.1428,16.4579,4.58855,39,14
-10.7027,15.8138,-0.333306,81,7
-9.7621,14.4294,4.66806,12,15
-0.324167,0.480417,-0.155291,12,0
-7.93486,11.7639,0.247685,8,8
-0.322474,0.478268,-0.133171,14,1
-0.416963,0.618638,-0.145015,32,2
-9.00298,13.3625,1.40966,100,10
-5.86055,8.70171,-1.66165,13,3
-12.9852,19.2876,2.85491,37,11
-8.57955,12.7485,-1.88678,53,4
-10.5796,15.7263,3.00198,10,12
-7.539,11.2065,-1.18166,32,5
-9.51169,14.1442,3.31321,33,13
-7.46325,11.1023,-0.701093,35,6
-11.1168,16.5436,4.6016,18,14
-8.12634,12.0978,-0.254386,22,7
-9.68906,14.4297,4.65719,1,15
-0.322656,0.481433,-0.155291,12,0
-9.85341,14.7077,0.309012,9,8
-0.336151,0.501947,-0.13947,13,1
-0.418293,0.624839,-0.14616,21,2
-8.94322,13.3643,1.40687,15,10
-6.33621,9.47207,-1.80494,41,3
-9.78967,14.6402,2.16245,27,11
-8.49533,12.7094,-1.87703,70,4
-9.52596,14.2566,2.7157,22,12
-9.28036,13.889,-1.46143,11,5
-7.7345,11.5799,2.70682,35,13
-7.57251,11.3416,-0.7147,19,6
-12.5599,18.8185,5.22336,16,14
-7.70875,11.5544,-0.242449,88,7
-10.2675,15.3955,4.95846,17,15
-0.320974,0.482556,-0.155291,12,0
-7.86663,11.8313,0.247999,60,8
-0.330082,0.496625,-0.13767,13,1
-7.56002,11.3787,0.715956,62,9
-0.41611,0.626296,-0.14616,21,2
-7.71928,11.6228,1.2207,26,10
-6.27689,9.45463,-1.79743,52,3
-9.4125,14.1831,2.09006,36,11
-8.48494,12.7902,-1.88459,23,4
-8.01105,12.0805,2.29583,10,12
-7.60215,11.4639,-1.20345,27,5
-7.52405,11.3547,-0.713862,13,6
-12.0152,18.1392,5.02316,4,14
-10.2905,15.5472,4.99573,6,15
-7.8396,11.8803,0.248452,37,8
-0.326201,0.494521,-0.13677,13,1
-7.48507,11.3517,0.712606,53,9
-0.42689,0.647412,-0.150739,19,2
-9.00979,13.6693,1.43232,40,10
-6.18298,9.38411,-1.77991,33,3
-9.35748,14.2075,2.08884,9,11
-6.30289,9.57336,-1.40735,60,4
-7.63876,11.6068,-1.21565,20,5
-7.44925,11.3275,-0.710513,3,6
-11.9347,18.155,5.01596,48,14
-11.0762,16.8618,5.40569,2,15
-0.317597,0.484785,-0.155291,12,0
-7.31823,11.1749,0.233164,20,8
-0.315934,0.482613,-0.133171,14,1
-7.53508,11.5148,0.72119,49,9
-0.420328,0.642327,-0.149213,20,2
-7.65976,11.7098,1.22419,23,10
-5.78047,8.84021,-1.67291,72,3
-9.29479,14.2202,2.08592,36,11
-8.41606,12.8807,-1.88922,34,4
-7.37562,11.2926,2.13627,70,12
-7.5361,11.5383,-1.20571,47,5
-7.89508,12.0926,2.80718,27,13
-10.3155,15.8058,-0.98915,29,6
-12.2737,18.8135,5.18602,5,14
-7.335,11.2476,-0.234386,42,7
-9.98124,15.3112,4.89737,16,15
-0.315903,0.485891,-0.155291,12,0
-7.51782,11.5676,0.240808,68,8
-0.324863,0.500055,-0.13767,13,1
-7.53276,11.595,0.724644,63,9
-0.417013,0.642144,-0.148831,20,2
-5.73559,8.83879,-1.66884,20,3
-9.22565,14.2226,2.08153,36,11
-6.30934,9.73039,-1.42392,35,4
-7.33168,11.3071,2.13439,41,12
-7.46218,11.5127,-1.20031,45,5
-7.6137,11.751,2.7217,18,13
-7.28422,11.2468,-0.702244,71,6
-14.8959,23.008,6.32787,8,14
-7.05857,10.9025,-0.226707,38,7
-7.52575,11.6286,3.71147,4,15
-7.48593,11.6025,0.241018,71,8
-0.321091,0.497854,-0.13677,13,1
-7.6048,11.7958,0.73553,71,9
-5.56961,8.64234,-1.99853,4,2
-7.59941,11.7965,1.22768,70,10
-5.70732,8.85942,-1.66916,58,3
-9.18166,14.2581,2.08226,40,11
-6.1105,9.49254,-1.38614,56,4
-7.31568,11.3691,2.14128,52,12
-7.42087,11.537,-1.20013,27,5
-7.58531,11.7927,2.72552,55,13
-7.03733,10.9449,-0.681938,48,6
-14.8006,23.0277,6.31978,34,14
-7.00533,10.9036,-0.226218,43,7
-7.42058,11.5899,0.240215,68,8
-0.315149,0.492406,-0.134971,14,1
-7.65937,11.972,0.744845,36,9
-5.53351,8.64918,-1.99586,9,2
-7.4733,11.6857,1.21356,57,10
-6.10834,9.55501,-1.79618,26,3
-8.60913,13.4721,1.96307,4,11
-6.00038,9.39336,-1.36859,11,4
-7.2398,11.338,2.13064,12,12
-7.05017,11.041,-1.1461,47,5
-7.52931,11.7959,2.72017,29,13
-7.07321,11.0856,-0.68916,100,6
-16.2584,25.4912,6.98023,10,14
-7.29512,11.4422,-0.236864,25,7
-7.40492,11.6189,3.6918,36,15
-0.310883,0.489118,-0.155291,12,0
-7.32217,11.5246,0.23833,66,8
-0.321787,0.506663,-0.13857,13,1
-7.43769,11.7154,0.727261,54,9
-0.421954,0.664636,-0.153029,9,2
-7.44207,11.7268,1.21513,49,10
-5.87601,9.26269,-1.73736,65,3
-8.45575,13.3344,1.9387,8,11
-7.64145,12.0549,-1.75248,52,4
-8.85006,13.967,-1.44661,25,5
-7.53011,11.8885,2.73544,6,13
-7.04622,11.1288,-0.690311,39,6
-14.6488,23.1453,6.32382,25,14
-7.08728,11.2023,-0.231384,26,7
-7.37362,11.6594,3.69645,37,15
-0.309174,0.4902,-0.155291,12,0
-7.2915,11.5653,0.238644,49,8
-0.334562,0.530865,-0.144868,12,1
-7.37005,11.6944,0.724434,21,9
-5.15173,8.17764,-1.87871,4,2
-7.36818,11.7005,1.20972,31,10
-5.6016,8.89864,-1.6654,67,3
-9.50231,15.1011,2.19072,4,11
-7.5581,12.016,-1.74298,33,4
-7.04361,11.1981,2.09528,33,12
-7.4756,11.8895,-1.22872,20,5
-6.99671,11.1364,-0.689265,78,6
-14.398,22.9257,6.25004,8,14
-7.1607,11.4019,-0.235014,100,7
-7.28047,11.5971,3.66902,13,15
-0.3328,0.531971,-0.144868,12,1
-5.12732,8.20224,-1.88023,9,2
-8.30286,13.2873,1.37079,15,10
-5.57625,8.92387,-1.66665,42,3
-9.45744,15.1409,2.19194,19,11
-7.50875,12.0258,-1.74078,18,4
-7.08188,11.3466,2.11844,51,12
-7.42246,11.8969,-1.2268,27,5
-6.96608,11.1697,-0.689893,29,6
-7.73311,12.4044,3.37472,15,14
-7.37886,11.8454,3.73942,32,15
-7.07336,11.3904,0.234037,55,8
