x, y, z, intensity, ring
4.34323,10.7175,-0.60605,37,6
9.06486,22.3576,5.56979,32,14
5.4595,13.4586,-0.253514,69,7
8.83203,21.7615,6.29293,26,15
0.201117,0.493806,-0.142868,14,0
6.55518,16.0871,0.303218,40,8
0.220705,0.541361,-0.134971,28,1
6.91262,16.9473,0.959213,49,9
2.39795,5.87892,-1.23415,26,2
7.86456,19.2715,1.82103,15,10
2.69931,6.61116,-1.13102,28,3
9.17344,22.4564,2.97849,16,11
3.09416,7.57069,-1.0042,30,4
9.27316,22.6779,3.88051,17,12
3.60306,8.81144,-0.83286,17,5
9.29601,22.7225,4.77213,27,13
4.36018,10.6524,-0.603224,37,6
9.30162,22.7136,5.66652,27,14
5.48295,13.3821,-0.252432,86,7
8.97388,21.8915,6.33951,27,15
0.210188,0.510967,-0.148044,13,0
6.48953,15.7682,0.297633,14,8
0.222594,0.540588,-0.134971,14,1
6.95804,16.8898,0.957329,49,9
2.4207,5.87596,-1.2353,23,2
7.36159,17.8606,1.69012,3,10
2.71635,6.58709,-1.12852,27,3
9.28659,22.5087,2.9897,33,11
3.11754,7.5525,-1.00323,26,4
9.35529,22.6527,3.88177,27,12
3.62087,8.7675,-0.829897,17,5
9.40975,22.7734,4.78969,15,13
4.36987,10.5707,-0.599456,37,6
9.33245,22.5639,5.63727,26,14
5.51509,13.3278,-0.251768,69,7
9.26158,22.3705,6.48756,21,15
0.194183,0.467414,-0.135621,15,0
6.53302,15.7178,0.29711,28,8
0.227472,0.547005,-0.13677,13,1
2.42913,5.83848,-1.22919,26,2
9.49426,22.8085,2.16146,5,10
2.73552,6.56845,-1.12695,27,3
9.39412,22.5457,2.99896,33,11
3.14312,7.53974,-1.00298,27,4
9.30502,22.31,3.82858,33,12
3.63226,8.70453,-0.825191,17,5
9.74323,23.3491,4.91791,16,13
4.39597,10.5295,-0.597991,37,6
9.39161,22.4845,5.62558,53,14
5.53614,13.2476,-0.250617,77,7
9.25467,22.1348,6.42855,21,15
0.201876,0.48095,-0.139762,14,0
6.55147,15.6082,0.295469,57,8
0.236926,0.564175,-0.141269,13,1
2.44594,5.81867,-1.2269,23,2
9.54303,22.6909,2.15362,11,10
2.75575,6.54927,-1.12539,27,3
9.48201,22.5348,3.00189,8,11
3.16634,7.52141,-1.00201,28,4
9.37364,22.2555,3.82482,26,12
3.63632,8.62937,-0.819264,19,5
9.55264,22.6584,4.77977,6,13
4.4291,10.5005,-0.597258,37,6
9.42548,22.335,5.59678,32,14
5.55514,13.1637,-0.249395,94,7
9.30933,22.049,6.41302,21,15
0.188476,0.444668,-0.12941,15,0
6.64922,15.6798,0.297284,45,8
0.232903,0.548951,-0.13767,13,1
7.14761,16.8387,0.95869,20,9
2.46317,5.80287,-1.22538,26,2
8.03574,18.9219,1.79855,15,10
2.77087,6.52143,-1.12226,25,3
10.4607,24.6081,3.28316,9,11
3.18146,7.48052,-0.99811,31,4
9.4389,22.1828,3.81825,28,12
3.67109,8.62763,-0.82031,17,5
9.64553,22.6574,4.78663,30,13
4.45242,10.4537,-0.595479,37,6
9.49191,22.275,5.59003,52,14
5.58296,13.0954,-0.248487,70,7
9.53409,22.3524,6.51137,21,15
0.197628,0.461768,-0.134586,15,0
6.83222,15.9561,0.302974,14,8
0.234818,0.548135,-0.13767,13,1
7.30783,17.0505,0.972193,33,9
2.48496,5.79785,-1.22614,23,2
8.02009,18.7033,1.78042,7,10
2.79518,6.51535,-1.12289,28,3
9.60856,22.3861,2.99116,16,11
3.20128,7.45478,-0.99616,26,4
9.41102,21.9047,3.77602,28,12
3.70119,8.61476,-0.82031,17,5
9.72455,22.6236,4.78663,18,13
4.46837,10.3904,-0.592757,37,6
9.54882,22.1934,5.57789,26,14
5.60492,13.0207,-0.24744,70,7
9.57385,22.2302,6.48549,25,15
0.211499,0.489449,-0.142868,14,0
6.64744,15.376,0.292398,1,8
0.235182,0.543735,-0.13677,13,1
7.48391,17.2943,0.98758,16,9
2.49894,5.77472,-1.22309,26,2
8.06475,18.6276,1.77589,3,10
2.81319,6.49468,-1.12101,25,3
10.4989,24.2266,3.24197,19,11
3.21386,7.4126,-0.992017,23,4
9.50943,21.9225,3.78478,28,12
3.73044,8.59996,-0.820136,17,5
9.97541,22.9858,4.87059,15,13
4.47518,10.307,-0.588884,37,6
9.52529,21.9276,5.5194,37,14
5.62482,12.9424,-0.246323,70,7
9.69145,22.2888,6.5124,29,15
0.200847,0.460377,-0.134586,15,0
6.91785,15.8494,0.301857,19,8
0.235519,0.539339,-0.13587,13,1
7.4067,16.9533,0.969576,10,9
2.51437,5.75517,-1.2208,23,2
8.10897,18.5519,1.77135,30,10
2.83426,6.4812,-1.12038,26,3
9.74233,22.2675,2.98434,16,11
3.22698,7.37224,-0.988117,27,4
9.61205,21.9489,3.7951,28,12
3.75245,8.56863,-0.818392,19,5
10.0272,22.8861,4.85685,15,13
4.49189,10.2474,-0.586372,37,6
9.58456,21.855,5.5095,31,14
5.65069,12.8787,-0.245486,70,7
9.71794,22.1381,6.47824,24,15
0.207125,0.470281,-0.137692,14,0
7.13198,16.1857,0.308733,60,8
0.238973,0.542079,-0.13677,13,1
8.17268,18.5387,1.06179,21,9
2.53048,5.73738,-1.21889,26,2
8.16804,18.5107,1.77013,15,10
2.85128,6.45862,-1.11819,23,3
9.57778,21.685,2.91073,15,11
3.24788,7.35003,-0.986654,27,4
9.62729,21.7868,3.77257,38,12
3.77187,8.53179,-0.816126,17,5
9.90692,22.3985,4.76068,30,13
4.51308,10.1988,-0.584488,37,6
9.73101,21.98,5.54954,25,14
5.66908,12.8051,-0.244438,70,7
9.75843,22.0316,6.4565,24,15
0.196208,0.441311,-0.12941,15,0
7.22542,16.2515,0.310443,52,8
0.247105,0.555528,-0.140369,26,1
8.16831,18.3549,1.05289,41,9
2.5489,5.72492,-1.21812,26,2
8.29341,18.6186,1.78321,11,10
2.86304,6.42747,-1.11444,26,3
9.51551,21.3521,2.87027,22,11
3.26739,7.32834,-0.985192,27,4
9.69122,21.726,3.76788,30,12
3.79432,8.5022,-0.814558,19,5
10.21,22.8782,4.86983,15,13
4.52815,10.1418,-0.582081,37,6
10.3928,23.266,5.88292,36,14
5.68845,12.7286,-0.243356,79,7
9.87786,22.0926,6.48445,10,15
0.19767,0.440658,-0.12941,15,0
7.3607,16.4013,0.313794,41,8
0.242657,0.54044,-0.13677,13,1
8.08502,17.9984,1.03405,65,9
2.57028,5.72181,-1.21927,19,2
8.61809,19.1761,1.83933,24,10
2.88303,6.41204,-1.1135,26,3
9.57858,21.2934,2.86685,30,11
3.28806,7.30603,-0.983729,28,4
9.8043,21.7749,3.78227,28,12
3.8094,8.4605,-0.811769,18,5
10.3212,22.9123,4.88471,12,13
4.543,10.0804,-0.579464,37,6
10.3754,23.0111,5.82758,50,14
5.71065,12.6595,-0.242414,71,7
9.94221,22.0298,6.47617,21,15
0.215143,0.475163,-0.139762,14,0
7.44597,16.4374,0.314981,48,8
0.246151,0.54314,-0.13767,13,1
8.07768,17.8154,1.02516,36,9
2.58456,5.70029,-1.2166,23,2
8.52448,18.7921,1.80534,27,10
2.90376,6.39833,-1.11287,25,3
9.67747,21.3141,2.87417,38,11
3.30698,7.28005,-0.98178,33,4
9.91458,21.8161,3.79541,28,12
3.83726,8.44353,-0.81142,18,5
10.3329,22.726,4.85265,34,13
4.55832,10.0209,-0.576952,37,6
10.5049,23.0829,5.85503,58,14
5.73408,12.594,-0.241541,88,7
9.99903,21.951,6.46323,14,15
0.221619,0.484951,-0.142868,14,0
7.4875,16.3768,0.314318,45,8
0.243181,0.531644,-0.134971,14,1
8.39842,18.3607,1.05813,22,9
2.59791,5.67695,-1.21355,23,2
8.72605,19.0593,1.83393,8,10
2.92032,6.37559,-1.11068,26,3
9.74354,21.2621,2.87173,45,11
3.31582,7.23237,-0.976905,28,4
9.9737,21.7543,3.79041,28,12
3.85176,8.39748,-0.808282,18,5
10.6324,23.1698,4.95531,32,13
4.56911,9.95224,-0.573916,37,6
10.4545,22.761,5.78259,49,14
5.73659,12.4895,-0.239901,97,7
10.6275,23.1272,6.81988,20,15
7.45634,16.1666,0.310758,37,8
0.246576,0.534374,-0.13587,13,1
8.26407,17.9015,1.03332,12,9
2.6136,5.65894,-1.21164,26,2
8.6563,18.734,1.80552,31,10
2.9315,6.34435,-1.10693,33,3
9.93478,21.491,2.90707,23,11
3.34395,7.23035,-0.978123,30,4
10.0662,21.7552,3.79666,26,12
3.86766,8.35506,-0.805493,16,5
10.7537,23.2306,4.97592,29,13
4.59369,9.91891,-0.572869,37,6
10.4799,22.6184,5.75515,56,14
5.76165,12.4294,-0.239133,72,7
10.6253,22.9112,6.76708,16,15
0.211876,0.455407,-0.134586,15,0
7.50345,16.1206,0.310374,45,8
0.24844,0.53351,-0.13587,13,1
8.35517,17.9341,1.03688,13,9
2.63235,5.65024,-1.21164,23,2
8.73858,18.7485,1.8097,34,10
2.94612,6.31797,-1.10411,27,3
9.97364,21.3788,2.89659,15,11
3.36413,7.20784,-0.976661,30,4
10.1145,21.6609,3.78634,19,12
3.88523,8.32052,-0.803402,16,5
10.9644,23.4704,5.03545,20,13
4.6156,9.87567,-0.571299,37,6
10.6727,22.8253,5.81723,35,14
5.7745,12.344,-0.237876,72,7
10.7511,22.972,6.79607,24,15
0.229885,0.489639,-0.144939,14,0
7.54607,16.0653,0.309815,37,8
0.255273,0.543222,-0.13857,27,1
8.38373,17.8325,1.03269,13,9
2.64871,5.63391,-1.21011,23,2
8.921,18.9667,1.83376,44,10
2.97236,6.31658,-1.10568,27,3
10.2985,21.8755,2.96874,8,11
3.37743,7.17091,-0.973249,23,4
10.1925,21.6308,3.78728,26,12
3.90236,8.28168,-0.800961,16,5
11.1383,23.6273,5.07743,20,13
4.63982,9.83782,-0.570043,33,6
10.7207,22.7209,5.80014,42,14
5.77828,12.2406,-0.236271,99,7
11.0638,23.4269,6.94204,17,15
0.223321,0.471375,-0.139762,14,0
7.49846,15.8202,0.305592,21,8
0.252158,0.531763,-0.13587,13,1
2.66921,5.6264,-1.21049,23,2
8.96493,18.8886,1.82922,48,10
2.99354,6.30438,-1.10537,27,3
8.79216,18.5079,2.51587,5,11
3.38881,7.13039,-0.969349,21,4
3.9207,8.24213,-0.798521,18,5
11.1355,23.4092,5.03888,27,13
4.65868,9.78911,-0.568159,33,6
10.743,22.5637,5.76954,56,14
5.80549,12.1879,-0.235642,99,7
10.9694,23.0184,6.83231,24,15
0.218379,0.456611,-0.135621,15,0
7.48117,15.6424,0.30266,24,8
0.252331,0.527363,-0.134971,14,1
8.83486,18.4563,1.07236,15,9
2.67794,5.59179,-1.20515,23,2
9.00484,18.7945,1.8233,20,10
3.01406,6.28802,-1.10443,25,3
8.86357,18.4914,2.51782,5,11
3.39908,7.08809,-0.965205,22,4
10.791,22.4924,3.95122,27,12
3.94945,8.22839,-0.798521,18,5
11.1371,23.193,5.0011,22,13
4.68069,9.74316,-0.566484,37,6
10.7876,22.4451,5.7493,49,14
5.82548,12.1207,-0.234735,99,7
11.0722,23.027,6.84628,4,15
0.209897,0.434967,-0.12941,15,0
7.4489,15.4294,0.299064,22,8
0.257652,0.533454,-0.13677,13,1
8.6343,17.8768,1.04044,34,9
2.69573,5.57887,-1.20439,23,2
9.12761,18.8814,1.8348,40,10
3.0317,6.26857,-1.10286,23,3
10.5031,21.7074,2.96094,16,11
3.42071,7.06665,-0.963987,21,4
11.2654,23.2725,4.09514,33,12
3.96686,8.19125,-0.796255,21,5
11.2822,23.2865,5.02973,27,13
4.71032,9.71778,-0.565961,30,6
10.86,22.3951,5.74615,28,14
5.85467,12.0733,-0.234211,90,7
0.211414,0.434232,-0.12941,15,0
7.48252,15.3687,0.298366,22,8
0.256006,0.525589,-0.134971,14,1
8.62053,17.6904,1.03133,18,9
2.71175,5.56237,-1.20286,23,2
9.13233,18.7241,1.8226,31,10
3.04381,6.24073,-1.09973,23,3
11.1983,22.9499,3.13545,18,11
3.43891,7.04456,-0.962524,21,4
11.3258,23.1904,4.08763,11,12
4.00155,8.18988,-0.797475,16,5
11.312,23.152,5.00874,13,13
4.73024,9.67698,-0.564496,30,6
11.1259,22.7511,5.84693,29,14
5.87569,12.0097,-0.233374,91,7
0.238395,0.485552,-0.144939,14,0
7.56434,15.3999,0.299483,21,8
0.257839,0.524692,-0.134971,28,1
8.70866,17.7139,1.03447,37,9
2.72411,5.54102,-1.20019,26,2
9.26736,18.8421,1.83707,32,10
3.05859,6.21589,-1.09723,25,3
11.3398,23.0353,3.15252,36,11
3.45997,7.02539,-0.961549,23,4
15.7685,32.0035,5.65073,10,12
4.02164,8.16227,-0.796081,18,5
11.4978,23.3254,5.05491,6,13
4.74367,9.61921,-0.562088,37,6
5.89987,11.9532,-0.232675,91,7
0.222939,0.450094,-0.134586,15,0
7.61805,15.3734,0.299483,19,8
0.252745,0.509821,-0.131371,14,1
9.08814,18.324,1.07195,18,9
2.74431,5.53323,-1.20057,23,2
9.47654,19.0987,1.86531,16,10
3.08027,6.20517,-1.09723,27,3
11.3495,22.8533,3.13302,45,11
3.47917,7.00261,-0.960087,25,4
11.5208,23.178,4.09952,13,12
4.04922,8.1464,-0.795906,18,5
15.5801,31.3311,6.80158,18,13
4.76654,9.58114,-0.560832,33,6
5.92551,11.9003,-0.232047,91,7
0.233144,0.466595,-0.139762,14,0
7.66273,15.3288,0.299134,19,8
0.261496,0.522879,-0.134971,14,1
9.18421,18.3565,1.07571,41,9
2.74955,5.49553,-1.19446,26,2
9.66622,19.3114,1.88936,38,10
3.10103,6.19262,-1.09692,26,3
11.4514,22.858,3.13911,18,11
3.50004,6.98332,-0.959112,25,4
4.06067,8.09837,-0.792594,18,5
15.7766,31.4502,6.83936,25,13
4.76592,9.49661,-0.556855,35,6
5.92662,11.7992,-0.230476,100,7
0.234771,0.465778,-0.139762,14,0
7.68556,15.2413,0.297947,21,8
0.272097,0.539362,-0.13947,13,1
2.76518,5.47888,-1.19294,23,2
9.67519,19.1619,1.87803,34,10
3.11461,6.16589,-1.0941,23,3
11.4675,22.692,3.12181,18,11
3.52081,6.96397,-0.958137,27,4
11.6805,23.0935,4.0989,30,12
4.07362,8.05392,-0.789631,18,5
4.7846,9.4514,-0.55518,35,6
5.93885,11.7213,-0.22936,100,7
0.229391,0.451179,-0.135621,15,0
7.69339,15.1252,0.296202,26,8
0.266908,0.524515,-0.13587,13,1
9.93193,19.5093,1.14731,18,9
2.78429,5.4692,-1.19294,23,2
9.83515,19.3109,1.89599,34,10
3.12805,6.13914,-1.09129,25,3
15.6107,30.6246,4.22058,13,11
3.54419,6.94987,-0.957893,26,4
11.7386,23.0086,4.09107,22,12
4.08813,8.01303,-0.787016,18,5
15.5977,30.5594,6.66916,12,13
4.82029,9.43998,-0.555494,38,6
5.9579,11.6578,-0.228522,100,7
0.241544,0.471003,-0.141833,14,0
7.71511,15.0378,0.295015,19,8
0.266957,0.520112,-0.134971,14,1
9.66059,18.8136,1.10837,16,9
2.79709,5.44722,-1.19027,26,2
9.95713,19.3828,1.90644,39,10
3.12056,6.07196,-1.08128,28,3
9.91469,19.2836,2.66236,12,11
3.5648,6.9304,-0.956918,25,4
11.8984,23.122,4.11861,24,12
4.10787,7.98277,-0.785448,18,5
15.7249,30.5449,6.67793,30,13
4.84132,9.40001,-0.554133,35,6
5.9903,11.6209,-0.228208,100,7
0.244961,0.473589,-0.142868,14,0
7.73631,14.9504,0.293829,21,8
0.266979,0.515716,-0.134071,14,1
9.59161,18.5278,1.0934,12,9
2.81699,5.43917,-1.19065,23,2
10.1182,19.5284,1.92422,35,10
3.16174,6.09961,-1.08816,27,3
9.98104,19.2471,2.66211,6,11
3.57617,6.89324,-0.953506,26,4
11.9705,23.0737,4.11704,13,12
4.12928,7.956,-0.784227,18,5
15.8568,30.5386,6.68862,42,13
4.86858,9.37242,-0.553505,38,6
6.00575,11.5566,-0.227335,100,7
0.234103,0.448752,-0.135621,15,0
7.74514,14.8466,0.292293,19,8
0.271393,0.520011,-0.135421,27,1
9.49354,18.1826,1.07498,17,9
2.8305,5.41886,-1.18836,23,2
10.1614,19.4453,1.91952,48,10
3.1792,6.08384,-1.08722,18,3
11.7665,22.5072,3.11839,8,11
3.59717,6.87783,-0.953018,30,4
16.2572,31.0707,5.55405,19,12
4.1441,7.91683,-0.781787,18,5
15.9316,30.4354,6.67755,24,13
4.89222,9.34207,-0.552668,35,6
6.01264,11.4718,-0.226078,100,7
0.246381,0.468491,-0.141833,14,0
7.78389,14.7947,0.291804,21,8
0.272299,0.517336,-0.134971,14,1
9.67378,18.3791,1.08848,13,9
2.84663,5.40597,-1.1876,23,2
10.1813,19.3268,1.91115,17,10
3.20226,6.0762,-1.08785,23,3
16.0426,30.4275,4.2235,27,11
3.61097,6.84592,-0.950337,22,4
16.3491,30.9957,5.5503,19,12
4.16661,7.89599,-0.78109,18,5
16.1972,30.6817,6.74395,18,13
4.91734,9.31081,-0.55183,35,6
6.01702,11.3882,-0.224822,100,7
0.271549,0.512002,-0.155291,12,0
7.8048,14.7158,0.290757,17,8
0.277666,0.523316,-0.13677,13,1
10.0684,18.9679,1.12543,25,9
2.86732,5.39947,-1.18836,19,2
10.2477,19.2894,1.91098,21,10
3.21034,6.04287,-1.08378,20,3
16.1695,30.4233,4.23033,13,11
3.6262,6.81988,-0.948387,25,4
16.3625,30.7605,5.51838,19,12
4.19414,7.8814,-0.78109,18,5
4.93224,9.26448,-0.550051,38,6
6.03698,11.3301,-0.224089,100,7
0.238634,0.446359,-0.135621,15,0
7.83537,14.6497,0.289989,17,8
0.273975,0.512034,-0.134071,14,1
10.2425,19.1422,1.13778,13,9
2.87965,5.37954,-1.18607,21,2
10.2919,19.2184,1.90732,35,10
3.22582,6.02118,-1.0819,21,3
15.5911,29.0894,4.0524,13,11
3.64998,6.80718,-0.948387,28,4
16.653,31.0578,5.58158,24,12
4.2033,7.83585,-0.777952,18,5
41.3242,77.0047,16.9873,50,13
4.95415,9.22785,-0.5489,38,6
6.05087,11.2659,-0.223216,100,7
0.22919,0.425118,-0.12941,15,0
7.84879,14.5585,0.288698,17,8
0.275671,0.511123,-0.134071,14,1
10.1546,18.8198,1.12072,49,9
2.90121,5.37464,-1.18721,21,2
10.3684,19.1999,1.90906,35,10
3.24108,6.00176,-1.08034,22,3
15.5648,28.8105,4.02071,26,11
3.66687,6.78456,-0.946925,28,4
16.5077,30.5303,5.49711,19,12
4.22874,7.81762,-0.777604,18,5
4.97237,9.18854,-0.547539,38,6
6.0654,11.199,-0.222309,100,7
0.249206,0.458217,-0.139762,14,0
7.86641,14.458,0.287302,17,8
0.279495,0.513483,-0.134971,14,1
2.91056,5.34501,-1.18302,21,2
10.9629,20.1241,2.00493,4,10
3.26221,5.9858,-1.07971,22,3
15.5422,28.5065,3.98659,13,11
3.69194,6.76869,-0.946681,20,4
16.6853,30.5777,5.51713,19,12
4.24591,7.78108,-0.775512,18,5
41.6484,76.2935,16.8958,49,13
4.99038,9.13782,-0.545655,38,6
41.0782,75.1866,19.7799,63,14
6.07766,11.1195,-0.221192,100,7
0.260093,0.474283,-0.144939,14,0
7.88028,14.3639,0.285975,19,8
0.290662,0.529588,-0.13947,13,1
2.92637,5.32965,-1.18187,21,2
11.7362,21.3657,2.1327,43,10
3.27547,5.96053,-1.07721,25,3
15.6397,28.4486,3.9861,13,11
3.70885,6.74359,-0.944975,21,4
16.9148,30.7425,5.55749,24,12
4.25384,7.7313,-0.772026,16,5
5.00683,9.09236,-0.54398,38,6
6.08845,11.0474,-0.22018,93,7
0.24679,0.446322,-0.136656,14,0
7.90423,14.289,0.285033,24,8
0.294396,0.531981,-0.140369,13,1
2.94781,5.32456,-1.18302,21,2
11.7962,21.2985,2.13009,43,10
3.28573,5.93005,-1.07377,25,3
12.103,21.8345,3.06526,17,11
3.72755,6.72192,-0.943756,20,4
16.7949,30.2739,5.48334,19,12
4.26087,7.67733,-0.768191,16,5
5.01818,9.03815,-0.541782,38,6
6.11241,10.9999,-0.219656,100,7
0.23525,0.421794,-0.12941,15,0
7.91803,14.1967,0.283741,24,8
0.286756,0.513932,-0.13587,13,1
10.8016,19.351,1.16144,35,9
2.96347,5.30686,-1.18149,23,2
11.8091,21.1386,2.11841,53,10
3.30455,5.9128,-1.07283,28,3
12.1792,21.7921,3.06526,34,11
3.74518,6.69847,-0.942294,21,4
16.8687,30.1582,5.47302,4,12
4.28375,7.65546,-0.767493,15,5
5.0464,9.01099,-0.541259,38,6
6.14392,10.9663,-0.219412,84,7
0.236721,0.420971,-0.12941,15,0
7.9249,14.0874,0.282136,29,8
0.282903,0.502688,-0.133171,14,1
11.0239,19.5882,1.17798,19,9
2.97813,5.28964,-1.17996,23,2
12.0999,21.4826,2.1571,55,10
3.32226,5.89606,-1.07189,27,3
12.3409,21.8926,3.08573,8,11
3.76367,6.67671,-0.941075,22,4
17.6065,31.221,5.67701,10,12
4.30849,7.63699,-0.767145,16,5
5.07389,8.98636,-0.54084,38,6
6.15856,10.903,-0.218574,85,7
0.260975,0.460521,-0.141833,14,0
7.93706,14.0002,0.280914,29,8
0.294183,0.518698,-0.13767,13,1
11.0415,19.4681,1.17295,43,9
2.98887,5.26778,-1.17729,21,2
12.175,21.4493,2.1578,27,10
3.34277,5.88673,-1.0722,26,3
13.0174,22.9147,3.23588,9,11
3.77501,6.64521,-0.938394,21,4
45.2532,79.6277,14.5062,51,12
4.32591,7.6088,-0.76575,16,5
5.1086,8.97817,-0.541363,38,6
6.17094,10.8408,-0.217736,95,7
0.239508,0.419392,-0.12941,15,0
7.94674,13.9096,0.279622,27,8
0.293967,0.514336,-0.13677,27,1
11.0211,19.2752,1.16364,17,9
3.00145,5.24932,-1.17538,23,2
12.3766,21.6371,2.18081,50,10
3.35541,5.86361,-1.07001,37,3
12.3418,21.5587,3.05015,17,11
3.79719,6.63027,-0.93815,25,4
4.35047,7.5902,-0.765402,16,5
5.13636,8.95771,-0.541154,38,6
6.1978,10.8001,-0.217352,76,7
0.264183,0.458688,-0.141833,14,0
7.95333,13.8089,0.278156,24,8
0.299652,0.520061,-0.13857,13,1
10.8579,18.8368,1.13946,21,9
3.02459,5.24509,-1.17691,21,2
12.5564,21.7659,2.19842,46,10
3.36107,5.8239,-1.06501,26,3
12.408,21.5,3.04795,34,11
3.82031,6.61697,-0.93815,22,4
18.828,32.598,5.96234,11,12
4.36796,7.55944,-0.763833,16,5
5.15716,8.91807,-0.539898,38,6
6.22444,10.7594,-0.216968,95,7
0.265783,0.457763,-0.141833,14,0
7.97978,13.7382,0.277319,24,8
0.291766,0.502109,-0.134071,14,1
10.7942,18.5761,1.12596,33,9
3.03203,5.21583,-1.17271,21,2
12.5291,21.5445,2.18046,56,10
3.38138,5.81213,-1.06501,28,3
13.3435,22.9264,3.25708,19,11
3.84254,6.59949,-0.937663,20,4
18.9199,32.4946,5.95546,11,12
4.39433,7.54415,-0.763833,15,5
5.16512,8.86034,-0.53749,38,6
6.26096,10.7358,-0.216933,100,7
0.255669,0.436825,-0.135621,15,0
7.99702,13.6633,0.276341,24,8
0.287521,0.491049,-0.131371,14,1
10.8004,18.4383,1.11988,30,9
3.0522,5.2086,-1.17348,23,2
12.5992,21.4921,2.17959,28,10
3.40264,5.8043,-1.06563,28,3
12.6291,21.5345,3.06526,34,11
3.84431,6.55247,-0.932788,21,4
4.42164,7.53048,-0.764007,16,5
5.18132,8.82077,-0.53613,38,6
6.25279,10.6363,-0.215363,95,7
0.264967,0.449287,-0.139762,14,0
8.0223,13.5975,0.275573,30,8
0.295176,0.500112,-0.134071,14,1
10.6007,17.9534,1.09267,16,9
3.05548,5.17478,-1.16813,21,2
12.8964,21.8327,2.21846,40,10
3.41886,5.78558,-1.06438,21,3
12.7275,21.5295,3.07086,17,11
3.86312,6.53218,-0.931813,25,4
18.8958,31.9384,5.87756,21,12
4.43978,7.50128,-0.762613,16,5
5.19886,8.78029,-0.534769,38,6
6.26541,10.5732,-0.214525,95,7
0.246863,0.415105,-0.12941,15,0
8.04416,13.5264,0.274701,24,8
0.302899,0.509127,-0.13677,13,1
10.6428,17.8819,1.09058,24,9
3.06941,5.15512,-1.16622,21,2
12.9498,21.7408,2.21393,63,10
3.43498,5.76453,-1.06282,22,3
13.1836,22.1245,3.16227,9,11
3.88386,6.51524,-0.931326,20,4
18.2939,30.6761,5.65698,25,12
4.44961,7.45836,-0.759824,16,5
5.22179,8.74574,-0.533827,38,6
6.29408,10.5375,-0.214246,96,7
0.272148,0.454007,-0.141833,14,0
8.05564,13.4334,0.273409,21,8
0.304763,0.508013,-0.13677,13,1
10.7309,17.8805,1.09288,16,9
3.09142,5.1511,-1.16775,21,2
13.1077,21.8321,2.22787,23,10
3.45101,5.74573,-1.06156,22,3
13.2912,22.1202,3.1686,37,11
3.89954,6.48735,-0.929376,21,4
18.4601,30.6986,5.67357,10,12
4.46329,7.4223,-0.757732,16,5
45.5536,75.724,17.1774,51,13
5.23889,8.70521,-0.532466,38,6
6.31924,10.4921,-0.213792,86,7
0.261743,0.433213,-0.135621,15,0
8.06421,13.3419,0.272118,25,8
0.302501,0.500276,-0.134971,14,1
10.8243,17.8942,1.09602,16,9
3.10735,5.13692,-1.16699,23,2
13.1147,21.672,2.2162,34,10
3.46389,5.72182,-1.05937,31,3
14.0367,23.1774,3.32703,10,11
3.9201,6.47031,-0.928888,22,4
19.3802,31.9753,5.92198,22,12
4.48711,7.40326,-0.757383,16,5
5.25475,8.66297,-0.531001,38,6
45.8094,75.4915,20.3864,63,14
6.35583,10.47,-0.213792,77,7
0.271292,0.445496,-0.139762,14,0
8.05559,13.2231,0.270268,25,8
0.304245,0.499217,-0.134971,14,1
10.869,17.8273,1.09424,16,9
3.11913,5.11598,-1.1647,23,2
13.0907,21.4628,2.19946,46,10
3.48487,5.71138,-1.05969,17,3
13.0523,21.383,3.07598,52,11
3.93025,6.43625,-0.925963,22,4
19.4752,31.8804,5.91698,27,12
4.52019,7.39946,-0.758604,15,5
5.27454,8.62753,-0.529954,38,6
6.38503,10.4358,-0.213548,86,7
0.272846,0.444547,-0.139762,14,0
8.09646,13.1864,0.270093,27,8
0.312106,0.508115,-0.13767,13,1
10.859,17.6718,1.08702,16,9
3.13184,5.0967,-1.16279,21,2
13.2072,21.4849,2.20643,23,10
3.50582,5.70086,-1.06,18,3
19.0058,30.8935,4.45359,14,11
3.95061,6.41912,-0.925476,22,4
19.4517,31.5936,5.87631,21,12
4.54077,7.37515,-0.757732,16,5
5.28366,8.57506,-0.527861,38,6
6.39728,10.3743,-0.212745,77,7
0.266266,0.430448,-0.135621,15,0
8.11719,13.1172,0.269256,22,8
0.311826,0.503709,-0.13677,13,1
10.8471,17.5219,1.08,15,9
3.14237,5.07406,-1.16012,21,2
15.2339,24.5889,2.53065,7,10
3.51945,5.67852,-1.05812,22,3
19.6512,31.6942,4.57888,15,11
3.96462,6.39179,-0.923526,25,4
19.5158,31.4634,5.8641,26,12
4.55283,7.33725,-0.755466,15,5
41.539,66.9174,15.3098,39,13
5.31251,8.55487,-0.527756,38,6
6.41371,10.3241,-0.212151,86,7
0.280031,0.449189,-0.141833,14,0
8.12468,13.0325,0.268069,27,8
0.307307,0.492751,-0.134071,14,1
10.8564,17.4009,1.07488,15,9
3.15591,5.05639,-1.15859,23,2
14.1768,22.7053,2.34187,19,10
3.52362,5.64335,-1.05374,22,3
16.1575,25.8674,3.7448,24,11
3.99001,6.38534,-0.924501,26,4
19.7124,31.5342,5.89007,21,12
4.56574,7.30104,-0.753374,15,5
46.7885,74.8192,17.153,51,13
5.32708,8.51519,-0.526395,38,6
6.43591,10.2796,-0.211698,77,7
0.281519,0.448257,-0.141833,14,0
8.11692,12.9195,0.266324,27,8
0.302803,0.481776,-0.131371,14,1
10.9128,17.3562,1.07446,15,9
3.17579,5.05089,-1.15974,23,2
13.1148,20.8502,2.15501,11,10
3.54751,5.63771,-1.05499,21,3
16.2371,25.794,3.74236,24,11
4.00063,6.3529,-0.92182,23,4
20.3288,32.2691,6.04056,5,12
4.59014,7.28337,-0.7532,16,5
5.32588,8.44755,-0.52336,35,6
6.45789,10.2351,-0.211244,96,7
0.270758,0.427636,-0.135621,15,0
8.13416,12.8471,0.265416,30,8
0.31074,0.490593,-0.134071,14,1
10.9691,17.3112,1.07404,15,9
3.18587,5.02595,-1.15668,26,2
15.6463,24.6737,2.5561,7,10
3.56179,5.61466,-1.05312,20,3
16.1037,25.3852,3.69118,48,11
4.01321,6.32381,-0.919626,30,4
28.7398,45.2692,8.49283,13,12
4.60378,7.24881,-0.751283,15,5
5.34181,8.40437,-0.521894,35,6
6.4528,10.1484,-0.209918,96,7
8.14246,12.7565,0.26416,22,8
0.323024,0.505876,-0.13857,13,1
10.9886,17.2089,1.07006,15,9
3.196,5.00321,-1.15401,23,2
13.9922,21.8958,2.27337,24,10
3.57499,5.5922,-1.05124,30,3
16.0384,25.0785,3.65511,23,11
4.02031,6.28398,-0.91597,26,4
23.6472,36.9619,6.94976,17,12
4.62691,7.22933,-0.750934,15,5
5.37542,8.3924,-0.522313,35,6
6.48279,10.1174,-0.209743,100,7
0.31344,0.487484,-0.155291,12,0
8.15011,12.6756,0.263043,24,8
0.318374,0.494968,-0.13587,13,1
10.9859,17.073,1.06399,18,9
3.20707,4.98212,-1.15172,26,2
15.8549,24.6208,2.56203,36,10
3.59137,5.577,-1.05061,17,3
16.2236,25.1837,3.67826,24,11
4.04973,6.28396,-0.91792,22,4
16.3424,25.3487,4.77688,7,12
4.63916,7.19305,-0.748842,15,5
42.7274,66.2491,15.3235,39,13
5.39889,8.36782,-0.521894,35,6
6.52133,10.0997,-0.209848,86,7
0.28775,0.444283,-0.141833,14,0
8.15191,12.5817,0.261681,24,8
0.328579,0.506936,-0.13947,13,1
11.0121,16.9895,1.06106,15,9
3.22357,4.97146,-1.15172,23,2
16.021,24.6985,2.57563,30,10
3.59899,5.5462,-1.04717,18,3
16.2746,25.0703,3.66997,48,11
4.07705,6.27811,-0.919139,25,4
23.8724,36.7603,6.94225,8,12
4.6619,7.17595,-0.748668,15,5
5.42807,8.34892,-0.521894,35,6
6.55042,10.0714,-0.209708,86,7
0.27874,0.427098,-0.136656,14,0
8.16844,12.516,0.260879,27,8
0.315344,0.482999,-0.133171,14,1
11.0145,16.864,1.05562,15,9
3.23768,4.95525,-1.15058,23,2
16.1529,24.7124,2.58295,30,10
3.61628,5.53258,-1.04686,20,3
16.2762,24.8916,3.65169,47,11
4.08698,6.24794,-0.916701,20,4
16.6833,25.4947,4.82569,14,12
4.68037,7.14963,-0.747622,15,5
5.44369,8.3125,-0.520743,38,6
6.58334,10.0451,-0.209638,86,7
0.278033,0.422943,-0.135621,15,0
8.19999,12.4691,0.260495,24,8
0.31917,0.485151,-0.134071,14,1
11.0294,16.7587,1.05143,15,9
3.2487,4.93628,-1.14867,28,2
3.63557,5.51993,-1.04686,21,3
16.3979,24.8877,3.65949,36,11
4.09675,6.2154,-0.91402,18,4
21.8928,33.2021,6.29899,12,12
4.69433,7.11662,-0.745879,15,5
5.46277,8.27844,-0.519801,38,6
6.60514,10.002,-0.209219,97,7
0.298789,0.450908,-0.144939,14,0
8.22359,12.4104,0.259866,21,8
0.323015,0.487283,-0.134971,14,1
11.0392,16.6469,1.04682,16,9
3.2646,4.92107,-1.14791,23,2
16.3537,24.6422,2.58748,7,10
3.65797,5.50985,-1.04749,20,3
16.353,24.6318,3.63024,35,11
4.11842,6.20107,-0.91402,18,4
21.7997,32.8112,6.23923,24,12
4.71252,7.09024,-0.744833,15,5
5.48423,8.24506,-0.518963,38,6
6.60678,9.92896,-0.208172,96,7
0.26818,0.401663,-0.12941,15,0
8.24569,12.3452,0.259133,24,8
0.339956,0.50878,-0.141269,13,1
11.0602,16.5466,1.04306,13,9
3.2763,4.90149,-1.146,23,2
16.4806,24.6463,2.59393,37,10
3.67168,5.48884,-1.04592,18,3
16.2643,24.3045,3.59076,57,11
4.14001,6.18428,-0.913776,18,4
21.9374,32.7574,6.24424,18,12
4.72284,7.05222,-0.742567,15,5
5.51075,8.22255,-0.518754,38,6
6.61974,9.8698,-0.207439,77,7
0.26958,0.400724,-0.12941,15,0
8.27199,12.2915,0.25861,22,8
0.346083,0.514056,-0.143069,12,1
11.09,16.4664,1.04044,15,9
3.2912,4.88676,-1.14524,26,2
16.5576,24.5754,2.59253,15,10
3.68309,5.46453,-1.04373,18,3
16.3679,24.2755,3.5949,34,11
4.15825,6.16485,-0.913045,17,4
22.4185,33.2243,6.34811,19,12
4.73739,7.02083,-0.740998,16,5
43.956,65.1184,15.2716,39,13
5.53383,8.19498,-0.518231,38,6
6.64519,9.83338,-0.20716,77,7
0.283984,0.41897,-0.135621,15,0
8.2924,12.2294,0.257912,27,8
0.323808,0.477365,-0.133171,14,1
11.1026,16.3615,1.03625,18,9
3.30824,4.87524,-1.14524,26,2
15.4112,22.7025,2.40062,6,10
3.69771,5.4451,-1.04248,20,3
17.1006,25.1723,3.73651,12,11
4.17416,6.14209,-0.911826,18,4
22.2733,32.7619,6.27459,6,12
4.75403,6.99272,-0.739778,16,5
5.55678,8.16736,-0.517707,38,6
6.65697,9.77707,-0.206462,100,7
0.287624,0.421167,-0.136656,14,0
8.30346,12.1542,0.256934,24,8
0.338668,0.495539,-0.13857,13,1
11.0942,16.227,1.03018,21,9
3.32523,4.86367,-1.14524,26,2
15.6523,22.8854,2.42572,40,10
3.71446,5.4289,-1.04185,20,3
21.8953,31.9893,4.75973,15,11
4.18548,6.11274,-0.909633,17,4
21.6675,31.6328,6.07279,11,12
4.77503,6.97115,-0.739255,16,5
5.56945,8.12485,-0.516242,35,6
6.67522,9.73069,-0.205973,100,7
0.273762,0.397879,-0.12941,15,0
8.31294,12.0774,0.255922,24,8
0.340395,0.494354,-0.13857,13,1
11.1282,16.1553,1.02809,18,9
3.33774,4.84556,-1.14371,21,2
15.8068,22.9389,2.43722,55,10
3.73451,5.41753,-1.04217,22,3
17.1092,24.8104,3.70044,12,11
4.1944,6.08012,-0.906952,20,4
21.8227,31.622,6.0853,23,12
4.79829,6.95032,-0.738906,16,5
5.58984,8.09385,-0.515509,31,6
6.69209,9.68265,-0.20545,96,7
8.33226,12.0154,0.255224,24,8
0.32879,0.473948,-0.133171,14,1
11.1435,16.0573,1.02432,16,9
3.35547,4.8333,-1.14371,23,2
16.2521,23.4012,2.49265,28,10
3.74758,5.39407,-1.04029,18,3
22.2245,31.9889,4.78264,15,11
4.22352,6.07685,-0.908658,31,4
21.8292,31.3964,6.05652,17,12
4.79977,6.90082,-0.73542,15,5
21.9976,31.6152,7.48658,7,13
5.61718,8.07004,-0.5153,31,6
6.69843,9.61985,-0.204612,96,7
0.276602,0.39591,-0.12941,15,0
8.34875,11.9454,0.254386,26,8
0.334991,0.479128,-0.134971,14,1
11.1542,15.9476,1.01992,19,9
3.37458,4.82477,-1.14447,21,2
15.8288,22.6228,2.41561,27,10
3.75845,5.36963,-1.0381,20,3
21.9648,31.3689,4.70196,30,11
4.23893,6.05158,-0.907195,16,4
22.0371,31.4488,6.08217,23,12
4.81239,6.8677,-0.733677,15,5
22.1304,31.5703,7.49421,7,13
5.63843,8.04057,-0.514672,31,6
6.73593,9.59851,-0.204682,96,7
0.277982,0.394942,-0.12941,15,0
8.38119,11.9031,0.254107,26,8
0.34115,0.484329,-0.13677,13,1
11.173,15.8563,1.01657,14,9
3.38914,4.80975,-1.14371,23,2
15.576,22.0967,2.36523,32,10
3.77604,5.35486,-1.03779,26,3
21.764,30.8525,4.63591,15,11
4.26346,6.04161,-0.907927,17,4
22.1695,31.404,6.08843,11,12
4.84783,6.86714,-0.73542,15,5
5.64342,7.98821,-0.512578,35,6
6.76478,9.5684,-0.204542,96,7
0.306177,0.43179,-0.141833,14,0
8.41691,11.8657,0.253933,26,8
0.329305,0.464064,-0.131371,14,1
11.1924,15.7667,1.01333,13,9
3.39909,4.78829,-1.14142,26,2
15.6265,22.0049,2.36122,26,10
3.78441,5.32715,-1.03497,17,3
21.9383,30.8702,4.65005,30,11
4.27188,6.00889,-0.905246,17,4
22.2011,31.217,6.06715,23,12
4.87177,6.85018,-0.73542,13,5
22.4345,31.5334,7.52245,7,13
5.662,7.95545,-0.511741,35,6
6.7703,9.50564,-0.203704,100,7
0.303191,0.424431,-0.139762,14,0
8.43502,11.8037,0.253234,23,8
0.33999,0.475594,-0.134971,14,1
11.18,15.6333,1.00726,24,9
3.41007,4.76841,-1.13951,21,2
15.7843,22.0636,2.37343,26,10
3.80758,5.32033,-1.03622,20,3
22.3672,31.2421,4.71781,15,11
4.28473,5.98265,-0.903539,17,4
21.8486,30.4954,5.94169,5,12
4.88868,6.82341,-0.734374,13,5
5.69206,7.93888,-0.51195,31,6
6.77896,9.44783,-0.202971,76,7
0.2979,0.413962,-0.136656,14,0
8.4493,11.7368,0.252432,24,8
0.334815,0.464916,-0.132271,14,1
11.21,15.5602,1.00506,18,9
3.42325,4.7517,-1.13837,23,2
15.916,22.0844,2.38162,26,10
3.82266,5.30221,-1.03528,22,3
22.3414,30.9771,4.68953,15,11
4.30443,5.96604,-0.903296,16,4
22.3434,30.9571,6.04682,28,12
4.89732,6.7853,-0.732108,13,5
22.684,31.4174,7.53238,7,13
5.71507,7.91249,-0.511532,31,6
6.80604,9.41601,-0.202797,95,7
0.297076,0.409791,-0.135621,15,0
8.46087,11.6668,0.251559,26,8
0.347879,0.479519,-0.13677,13,1
11.229,15.4725,1.00192,20,9
3.44212,4.7429,-1.13913,23,2
15.9895,22.0238,2.38109,26,10
3.8307,5.27444,-1.03247,23,3
20.2803,27.9134,4.23642,27,11
4.32289,5.94777,-0.902808,16,4
22.8962,31.4908,6.16665,17,12
4.91863,6.76494,-0.73176,13,5
5.72855,7.87311,-0.510276,31,6
6.8318,9.38249,-0.202588,85,7
0.312176,0.427473,-0.141833,14,0
8.4461,11.5613,0.249918,31,8
0.342652,0.468861,-0.134071,14,1
11.2331,15.3707,0.997733,19,9
3.46097,4.73402,-1.13989,21,2
15.9745,21.8424,2.3675,26,10
3.83743,5.2451,-1.02934,22,3
22.6884,30.9998,4.71683,15,11
4.33321,5.92059,-0.900858,17,4
21.8021,29.7778,5.84533,10,12
4.94692,6.75416,-0.732457,12,5
5.74655,7.84018,-0.509438,31,6
6.86288,9.35978,-0.202588,100,7
0.299858,0.40776,-0.135621,15,0
8.50098,11.5558,0.250407,28,8
0.337275,0.458305,-0.131371,14,1
11.2142,15.2384,0.991557,21,9
3.472,4.7162,-1.13837,21,2
15.9488,21.6562,2.35303,25,10
3.8548,5.23234,-1.02934,16,3
22.7934,30.9276,4.71732,15,11
4.34223,5.89181,-0.898665,20,4
21.889,29.6895,5.8422,26,12
4.95746,6.72169,-0.730714,13,5
5.76422,7.80983,-0.508706,35,6
6.8725,9.30802,-0.201959,85,7
0.321902,0.434709,-0.144939,14,0
8.53926,11.5275,0.250407,27,8
0.350395,0.472841,-0.13587,13,1
11.215,15.1286,0.986952,21,9
3.4806,4.69519,-1.13608,23,2
15.96,21.5216,2.34414,25,10
3.8733,5.22112,-1.02965,22,3
23.0922,31.1164,4.75778,31,11
4.35448,5.86545,-0.896958,13,4
21.9147,29.5082,5.82155,26,12
4.9726,6.69561,-0.729668,13,5
26.382,35.5105,8.599,28,13
5.79008,7.79067,-0.508706,35,6
6.88943,9.26311,-0.201505,100,7
0.288766,0.387127,-0.12941,15,0
8.56389,11.4768,0.249953,26,8
0.359038,0.480985,-0.13857,13,1
11.2164,15.0205,0.982451,15,9
3.49697,4.68302,-1.13608,23,2
16.0851,21.5328,2.35146,25,10
3.88796,5.20282,-1.02871,16,3
22.402,29.9672,4.59399,15,11
4.36779,5.84068,-0.895496,16,4
23.5748,31.5131,6.23329,6,12
4.97923,6.65588,-0.727228,13,5
26.4811,35.3851,8.59098,9,13
5.80528,7.75442,-0.507659,35,6
6.91333,9.22781,-0.201261,95,7
0.324929,0.432451,-0.144939,14,0
8.58468,11.4213,0.249395,23,8
0.360715,0.479729,-0.13857,27,1
11.2231,14.9206,0.978473,19,9
3.51566,4.67392,-1.13684,23,2
16.1674,21.486,2.35251,25,10
3.90016,5.18132,-1.02715,22,3
4.38816,5.8254,-0.895496,18,4
24.719,32.8032,6.50548,13,12
5.00603,6.64323,-0.72775,13,5
26.5619,35.236,8.57725,9,13
5.82268,7.72136,-0.506821,38,6
6.94309,9.20043,-0.201191,95,7
0.314778,0.41591,-0.139762,14,0
8.60156,11.3609,0.248732,26,8
0.35768,0.472253,-0.13677,13,1
11.2389,14.8336,0.975333,19,9
3.52721,4.65536,-1.13531,23,2
16.0449,21.1691,2.32392,25,10
3.91822,5.16768,-1.02715,18,3
4.40847,5.81005,-0.895496,18,4
25.7099,33.8716,6.73513,7,12
5.02678,6.62254,-0.727402,13,5
5.82423,7.66758,-0.504623,38,6
6.96669,9.16499,-0.200947,76,7
0.320913,0.420954,-0.141833,14,0
8.61449,11.2959,0.247964,27,8
0.356963,0.467903,-0.13587,13,1
11.2494,14.7403,0.971774,15,9
3.54582,4.64614,-1.13608,23,2
16.1296,21.1272,2.32549,25,10
3.93863,5.15711,-1.02777,25,3
22.0229,28.8255,4.45408,14,11
4.41666,5.77885,-0.893059,13,4
25.8412,33.7989,6.73857,15,12
5.05586,6.6104,-0.728099,13,5
31.986,41.8208,10.2342,28,13
5.84489,7.63928,-0.5041,38,6
6.99257,9.13267,-0.200772,95,7
0.305978,0.398327,-0.134586,15,0
8.6295,11.234,0.247266,27,8
0.356219,0.463563,-0.134971,14,1
11.2789,14.6724,0.96989,14,9
3.54846,4.61444,-1.1315,23,2
16.1207,20.9558,2.31311,25,10
3.95028,5.13325,-1.0259,21,3
22.5228,29.2676,4.53451,29,11
4.42712,5.75081,-0.891109,14,4
25.8252,33.5348,6.70384,7,12
5.06431,6.57378,-0.726007,13,5
32.1342,41.6971,10.2327,28,13
5.86798,7.61147,-0.503681,38,6
6.99753,9.07338,-0.200005,95,7
0.319188,0.412535,-0.139762,14,0
8.63635,11.158,0.246288,31,8
0.372232,0.480745,-0.140369,13,1
11.3094,14.601,0.967901,16,9
3.55734,4.59271,-1.12921,21,2
16.1864,20.8899,2.31207,25,10
3.96454,5.11474,-1.02496,18,3
24.3816,31.4439,4.8855,16,11
4.44817,5.73455,-0.891109,16,4
24.4766,31.5437,6.32371,18,12
5.07494,6.53786,-0.72409,13,5
5.90308,7.60199,-0.504414,38,6
7.01602,9.02872,-0.199586,95,7
0.320698,0.411362,-0.139762,14,0
8.6482,11.0931,0.24552,27,8
0.361924,0.464076,-0.13587,13,1
11.3197,14.5095,0.964447,16,9
3.58019,4.58738,-1.13112,23,2
16.2285,20.7865,2.30719,25,10
3.9784,5.09395,-1.02371,23,3
24.3104,31.1271,4.84943,15,11
4.45594,5.70334,-0.888671,19,4
26.826,34.3234,6.8997,16,12
5.09282,6.51383,-0.723393,13,5
5.91613,7.56143,-0.503158,31,6
7.05119,9.0089,-0.19969,100,7
0.326832,0.416375,-0.141833,14,0
8.67328,11.0456,0.245136,26,8
0.363542,0.46281,-0.13587,13,1
11.3358,14.4259,0.961516,18,9
3.59053,4.56931,-1.12959,26,2
16.2383,20.6574,2.29882,24,10
3.98794,5.07141,-1.02183,22,3
24.4287,31.0545,4.85138,15,11
4.48196,5.69556,-0.88989,16,4
28.9911,36.8279,7.42344,10,12
5.107,6.48751,-0.722347,13,5
5.935,7.53392,-0.502635,28,6
7.07269,8.97167,-0.199411,76,7
0.299529,0.378861,-0.12941,15,0
8.69689,10.9964,0.244718,30,8
0.353064,0.446255,-0.131371,14,1
11.3253,14.3095,0.956387,21,9
3.60767,4.55829,-1.12997,23,2
16.2088,20.4725,2.28453,24,10
4.00194,5.05281,-1.02089,20,3
24.569,31.0095,4.85771,15,11
4.49072,5.66587,-0.887696,16,4
29.0667,36.6599,7.40999,30,12
5.12961,6.46964,-0.722347,13,5
5.9563,7.5069,-0.502216,31,6
7.09401,8.9344,-0.199132,76,7
0.300849,0.377813,-0.12941,15,0
8.71155,10.9363,0.244054,28,8
0.366764,0.46026,-0.13587,13,1
11.3515,14.2453,0.954608,19,9
3.61377,4.53338,-1.12692,23,2
16.2144,20.3332,2.27529,24,10
4.02079,5.04036,-1.0212,22,3
24.9346,31.2463,4.90841,16,11
4.50427,5.64241,-0.886478,18,4
29.4235,36.8582,7.46975,20,12
5.14719,6.44547,-0.72165,13,5
5.97623,7.47826,-0.501693,31,6
7.10238,8.88427,-0.198539,93,7
0.32634,0.406902,-0.139762,14,0
8.71024,10.8605,0.243007,27,8
0.36341,0.452962,-0.134071,14,1
11.3874,14.1885,0.953457,22,9
3.62466,4.51462,-1.12539,23,2
16.2254,20.202,2.26692,24,10
4.03748,5.027,-1.0212,22,3
25.0083,31.1262,4.90256,16,11
4.52296,5.62744,-0.886478,16,4
29.2301,36.355,7.3884,10,12
5.14968,6.40262,-0.718861,13,5
5.98848,7.44284,-0.500646,31,6
7.12582,8.85007,-0.198329,84,7
0.31555,0.390787,-0.134586,15,0
8.72925,10.8067,0.242484,23,8
0.367439,0.454722,-0.134971,14,1
11.4331,14.144,0.953143,19,9
3.64208,4.50563,-1.12615,23,2
16.2309,20.0721,2.25838,24,10
4.0463,5.00212,-1.01901,21,3
24.897,30.7672,4.85966,15,11
4.54632,5.61625,-0.887209,18,4
29.833,36.8407,7.50823,20,12
5.16838,6.38241,-0.718512,12,5
6.01819,7.42655,-0.50096,31,6
7.13903,8.80341,-0.19784,93,7
0.329102,0.404671,-0.139762,14,0
8.76566,10.7746,0.242449,24,8
0.366563,0.450413,-0.134071,14,1
11.4547,14.0699,0.95084,20,9
3.65902,4.49441,-1.12654,21,2
16.2229,19.9195,2.24757,23,10
4.06249,4.98644,-1.0187,22,3
26.0702,31.988,5.06684,17,11
4.56339,5.59726,-0.886721,18,4
29.693,36.4072,7.44096,20,12
5.18307,6.35507,-0.717466,13,5
6.02261,7.37919,-0.49918,31,6
7.14948,8.75365,-0.197282,100,7
0.337857,0.412487,-0.142868,14,0
8.80068,10.7409,0.242379,26,8
0.375546,0.458174,-0.13677,13,1
11.4658,13.9835,0.9477,22,9
3.66722,4.4725,-1.12425,21,2
16.2367,19.795,2.2399,23,10
4.07236,4.96306,-1.01682,22,3
26.2837,32.0211,5.08658,34,11
4.57156,5.5675,-0.884528,16,4
30.0431,36.575,7.49665,10,12
5.19384,6.32308,-0.715897,13,5
6.03818,7.34578,-0.498343,31,6
7.17746,8.72555,-0.197212,100,7
0.336836,0.408324,-0.141833,14,0
8.83175,10.7024,0.242204,27,8
0.369699,0.447844,-0.134071,14,1
11.4293,13.8402,0.940687,20,9
3.67656,4.4521,-1.12234,19,2
16.1889,19.5969,2.22387,23,10
4.09469,4.95491,-1.01808,22,3
26.3233,31.842,5.07269,17,11
4.59223,5.55303,-0.884771,20,4
29.8961,36.1381,7.42845,20,12
5.21842,6.30798,-0.716246,13,5
34.6768,41.9022,10.5723,15,13
6.05233,7.31081,-0.497401,28,6
7.17215,8.65733,-0.196235,100,7
0.308631,0.371484,-0.12941,15,0
8.85883,10.6592,0.241925,26,8
0.383718,0.461535,-0.13857,13,1
11.4801,13.8033,0.940896,19,9
3.6858,4.43169,-1.12043,26,2
16.1629,19.4269,2.21097,23,10
4.10943,4.93755,-1.01745,22,3
26.0862,31.3319,5.00591,16,11
4.60905,5.53392,-0.884284,18,4
29.9474,35.944,7.40999,20,12
5.21745,6.26218,-0.713108,15,5
6.07909,7.29117,-0.497506,31,6
7.20617,8.63685,-0.19634,100,7
0.324802,0.388184,-0.135621,15,0
8.887,10.6174,0.241681,26,8
0.372816,0.445252,-0.134071,14,1
11.5449,13.7831,0.942257,16,9
3.70251,4.42031,-1.12081,23,2
16.1718,19.3002,2.20295,23,10
4.11649,4.91106,-1.01495,23,3
25.9301,30.9243,4.95521,16,11
4.62834,5.5178,-0.884284,16,4
30.5717,36.434,7.53295,21,12
5.23799,6.2424,-0.712934,13,5
37.5611,44.7477,11.3562,19,13
6.09037,7.25308,-0.496354,28,6
7.2427,8.61929,-0.196514,93,7
0.341093,0.404775,-0.141833,14,0
8.90983,10.5695,0.241297,27,8
0.386931,0.458845,-0.13857,13,1
11.5749,13.7213,0.940791,19,9
3.71158,4.39985,-1.1189,23,2
16.162,19.1522,2.19249,22,10
4.13106,4.89365,-1.01432,23,3
25.9098,30.6819,4.93083,16,11
4.63989,5.49251,-0.882822,18,4
30.8211,36.4719,7.56298,10,12
5.26341,6.2262,-0.713283,13,5
42.9339,50.7875,12.9269,27,13
6.09889,7.21195,-0.494994,31,6
7.27533,8.59701,-0.196584,93,7
0.342575,0.403522,-0.141833,14,0
8.93373,10.5231,0.240948,27,8
0.375916,0.442638,-0.134071,14,1
11.5878,13.6397,0.937965,22,9
3.72642,4.38472,-1.11852,23,2
16.1701,19.02,2.18412,22,10
4.13617,4.86342,-1.01119,22,3
26.112,30.7032,4.94887,16,11
4.65131,5.46721,-0.881359,22,4
31.2478,36.7161,7.63619,21,12
5.2877,6.21083,-0.713631,15,5
43.2369,50.7673,12.962,27,13
6.1201,7.18347,-0.494575,31,6
7.29751,8.56243,-0.196374,84,7
0.351514,0.411134,-0.144939,14,0
8.95144,10.466,0.240389,30,8
0.380069,0.444219,-0.134971,14,1
11.5925,13.5491,0.934511,24,9
3.73659,4.36572,-1.117,23,2
16.169,18.8847,2.17506,22,10
4.15698,4.85346,-1.01213,20,3
26.0306,30.3811,4.91231,16,11
4.66874,5.44711,-0.880872,16,4
31.0287,36.2018,7.55172,10,12
5.30156,6.18326,-0.712585,13,5
43.3371,50.5266,12.9391,27,13
6.13864,7.15448,-0.494051,28,6
7.30261,8.50808,-0.195711,84,7
0.330257,0.383553,-0.135621,15,0
8.97696,10.4256,0.240145,26,8
0.396802,0.460674,-0.140369,13,1
11.5889,13.4495,0.930429,22,9
3.74412,4.34373,-1.11471,21,2
16.1542,18.7346,2.16425,22,10
4.17047,4.83665,-1.01151,21,3
26.0145,30.1594,4.89037,16,11
4.68418,5.42859,-0.880384,18,4
32.6651,37.8428,7.91778,11,12
5.31921,6.16019,-0.712062,15,5
43.6918,50.5996,12.9949,27,13
6.15319,7.12351,-0.493319,31,6
7.31265,8.45984,-0.195188,100,7
0.34165,0.394134,-0.139762,14,0
8.99365,10.3716,0.239622,22,8
0.3933,0.453398,-0.13857,13,1
11.6017,13.3698,0.927707,23,9
3.75593,4.32832,-1.11394,23,2
16.1757,18.6343,2.15885,22,10
4.17437,4.80715,-1.00838,18,3
26.0389,29.9755,4.87526,16,11
4.7057,5.4152,-0.880872,19,4
36.6537,42.1653,8.84887,14,12
5.33307,6.135,-0.711191,13,5
43.9609,50.5534,13.0223,27,13
6.17408,7.09747,-0.493005,28,6
7.33426,8.42522,-0.194978,84,7
0.317615,0.363832,-0.12941,15,0
9.0127,10.3205,0.239168,20,8
0.387188,0.443217,-0.13587,13,1
11.6378,13.3172,0.92687,22,9
3.76714,4.31075,-1.1128,23,2
16.1725,18.4997,2.14978,22,10
4.19763,4.79999,-1.00994,23,3
25.8794,29.5826,4.82603,15,11
4.71543,5.38829,-0.879166,19,4
35.6296,40.6994,8.56729,13,12
5.3597,6.12234,-0.711888,15,5
6.18434,7.05935,-0.491853,31,6
7.37021,8.40708,-0.195153,75,7
0.334189,0.380132,-0.135621,15,0
9.04075,10.28,0.238958,16,8
0.386158,0.438936,-0.134971,14,1
11.6393,13.2255,0.923311,22,9
3.77827,4.29315,-1.11165,26,2
16.1962,18.3968,2.14438,22,10
4.20914,4.77937,-1.00869,22,3
26.0349,29.5516,4.83578,15,11
4.72502,5.36137,-0.877459,18,4
37.7284,42.7945,9.03597,29,12
5.37841,6.10061,-0.71154,13,5
6.20366,7.03173,-0.491435,31,6
7.38231,8.36181,-0.194699,93,7
0.384176,0.433927,-0.155291,12,0
9.06332,10.2334,0.238609,20,8
0.387688,0.437586,-0.134971,14,1
11.6669,13.1639,0.921846,19,9
3.79063,4.277,-1.11089,26,2
16.2021,18.2746,2.13671,21,10
4.23104,4.77056,-1.00994,22,3
26.1379,29.4606,4.83578,15,11
4.73843,5.3389,-0.876484,20,4
37.7963,42.5709,9.01657,14,12
5.39305,6.07434,-0.710668,13,5
6.22021,7.00107,-0.490807,31,6
7.39684,8.31956,-0.194315,75,7
0.321407,0.360486,-0.12941,15,0
9.07902,10.1793,0.238086,22,8
0.386618,0.433321,-0.134071,14,1
11.6715,13.0769,0.918601,20,9
3.799,4.25642,-1.10898,26,2
16.2207,18.1674,2.13078,21,10
4.23714,4.74398,-1.00744,22,3
26.0951,29.2063,4.80896,15,11
4.76233,5.32825,-0.877459,20,4
39.1112,43.7435,9.29377,15,12
5.39962,6.03914,-0.70875,13,5
6.24728,6.98229,-0.491016,31,6
7.41249,8.27879,-0.193966,83,7
0.340733,0.379487,-0.136656,14,0
9.0851,10.1149,0.237318,26,8
0.390733,0.434868,-0.134971,14,1
11.7038,13.0212,0.917554,19,9
3.80465,4.23291,-1.10631,26,2
16.244,18.0662,2.12555,26,10
4.23914,4.713,-1.004,25,3
25.9765,28.8701,4.7685,15,11
4.77559,5.30569,-0.876484,18,4
5.41667,6.01582,-0.708228,15,5
6.26626,6.95451,-0.490597,35,6
7.43063,8.24098,-0.193687,83,7
0.342056,0.378295,-0.136656,14,0
9.10023,10.0608,0.236794,33,8
0.379174,0.419052,-0.130472,14,1
11.729,12.958,0.915984,20,9
3.8194,4.21961,-1.10631,26,2
16.3003,18.002,2.12468,26,10
4.25026,4.69232,-1.00275,21,3
25.9918,28.6851,4.7529,15,11
4.79275,5.28752,-0.876241,19,4
5.43198,5.98854,-0.707356,13,5
6.27708,6.9178,-0.489551,35,6
7.4607,8.21647,-0.193722,83,7
0.390272,0.428453,-0.155291,12,0
9.14337,10.0379,0.237004,31,8
0.39901,0.437892,-0.13677,13,1
11.7473,12.8875,0.91389,22,9
3.83352,4.20413,-1.10593,26,2
16.3407,17.9142,2.12137,26,10
4.26876,4.67817,-1.00306,22,3
25.9607,28.4505,4.72902,15,11
4.79244,5.25023,-0.872828,14,4
5.45017,5.9666,-0.707007,13,5
6.30374,6.89622,-0.489655,35,6
7.47854,8.17857,-0.193442,92,7
0.391766,0.427088,-0.155291,12,0
9.16793,9.99104,0.23669,23,8
0.400612,0.436426,-0.13677,13,1
11.762,12.809,0.911378,19,9
3.83622,4.17771,-1.10249,26,2
16.333,17.7807,2.11231,26,10
4.27838,4.65597,-1.00149,26,3
25.9304,28.209,4.70464,15,11
4.81703,5.23848,-0.873803,15,4
5.4693,5.94366,-0.706659,15,5
6.32507,6.87123,-0.489446,35,6
7.48543,8.12611,-0.192849,74,7
0.35924,0.38876,-0.141833,14,0
9.2014,9.95751,0.236655,24,8
0.412716,0.446473,-0.140369,13,1
11.789,12.7488,0.910018,20,9
3.84617,4.15785,-1.10097,28,2
16.2939,17.6081,2.09888,26,10
4.29274,4.63736,-1.00087,27,3
25.8939,27.9727,4.68027,15,11
4.83663,5.22309,-0.874047,16,4
5.48189,5.91576,-0.705613,13,5
6.35157,6.84947,-0.489551,35,6
7.50696,8.0926,-0.192675,83,7
0.328825,0.353734,-0.12941,15,0
9.2054,9.89926,0.235957,22,8
0.403498,0.43376,-0.13677,13,1
11.8181,12.7,0.90918,21,9
3.85849,4.14642,-1.10097,30,2
16.3081,17.5189,2.094,26,10
4.2984,4.61593,-0.998991,26,3
25.7949,27.6907,4.64663,15,11
4.85843,5.21368,-0.875022,19,4
5.49127,5.89072,-0.704567,13,5
6.36777,6.82622,-0.489237,35,6
7.52825,8.06459,-0.19257,100,7
0.361743,0.386432,-0.141833,14,0
9.22213,9.84809,0.235503,26,8
0.39968,0.42666,-0.134971,14,1
11.8515,12.6471,0.908343,21,9
3.87294,4.13293,-1.10097,28,2
16.3691,17.4618,2.094,26,10
4.29557,4.58072,-0.99461,28,3
25.7447,27.4441,4.62031,15,11
4.85894,5.17787,-0.871853,22,4
5.51452,5.87443,-0.704916,13,5
6.37515,6.78648,-0.48798,35,6
7.55909,8.04117,-0.19264,100,7
0.37104,0.393601,-0.144939,14,0
9.25782,9.81729,0.235538,17,8
0.390469,0.413922,-0.131371,14,1
11.8723,12.5809,0.906564,19,9
3.88061,4.11224,-1.09906,28,2
16.3753,17.3466,2.08703,25,10
4.31153,4.5657,-0.99461,31,3
25.715,27.2213,4.59789,15,11
4.86744,5.15077,-0.870147,13,4
5.53602,5.85417,-0.704916,13,5
6.38783,6.75257,-0.487143,36,6
7.57199,7.99876,-0.192256,92,7
0.348536,0.367023,-0.135621,15,0
9.27276,9.76462,0.235049,23,8
0.402649,0.423859,-0.134971,14,1
11.8872,12.509,0.904365,16,9
3.88889,4.09088,-1.09715,31,2
16.3783,17.223,2.07936,25,10
4.32688,4.54843,-0.994298,30,3
25.7004,27.0164,4.57839,15,11
4.88265,5.13088,-0.86966,14,4
5.54955,5.8276,-0.704044,15,5
6.40978,6.72623,-0.486934,36,6
7.57917,7.95057,-0.191732,100,7
0.333793,0.34905,-0.12941,15,0
9.30157,9.72334,0.234874,17,8
0.409589,0.428012,-0.13677,13,1
11.9225,12.4588,0.903737,16,9
3.89636,4.07019,-1.09524,36,2
16.3929,17.1182,2.07361,30,10
4.34136,4.53188,-0.993985,35,3
25.6756,26.793,4.55645,14,11
4.88494,5.09575,-0.866735,19,4
5.5602,5.79813,-0.702824,13,5
6.43045,6.70093,-0.486724,36,6
7.60964,7.92696,-0.191802,100,7
0.335009,0.347883,-0.12941,15,0
9.3185,9.6766,0.234491,20,8
0.408303,0.423845,-0.13587,13,1
11.9327,12.3826,0.901225,16,9
3.91463,4.06081,-1.09639,31,2
16.429,17.0365,2.07065,25,10
4.33991,4.50039,-0.99023,33,3
25.6375,26.5763,4.53403,14,11
4.90319,5.08095,-0.866979,18,4
5.57072,5.76865,-0.701604,13,5
6.44569,6.67239,-0.486201,39,6
7.63727,7.90034,-0.191802,100,7
0.368432,0.38006,-0.141833,14,0
9.34109,9.63253,0.234211,20,8
0.404352,0.416822,-0.134071,14,1
11.9563,12.3208,0.89976,16,9
3.93015,4.04852,-1.09677,29,2
16.4257,16.9205,2.06315,20,10
4.34596,4.47529,-0.98804,36,3
25.6637,26.4183,4.52233,14,11
4.91813,5.06096,-0.866491,20,4
5.58527,5.74346,-0.700907,13,5
6.46315,6.64156,-0.485678,39,6
7.65643,7.86504,-0.191593,100,7
0.353626,0.362121,-0.135621,15,0
9.36655,9.58822,0.233967,19,8
0.408601,0.418125,-0.134971,14,1
11.9512,12.2254,0.895992,20,9
3.94908,4.0383,-1.09792,30,2
16.4305,16.8018,2.056,30,10
4.3651,4.46216,-0.988666,31,3
25.6493,26.2105,4.50283,14,11
4.91443,5.0202,-0.862591,23,4
5.60628,5.72295,-0.700907,13,5
6.48045,6.61069,-0.485154,39,6
7.67821,7.82979,-0.191418,83,7
0.406432,0.413156,-0.155291,12,0
9.3862,9.53815,0.233583,20,8
0.404662,0.411069,-0.133171,14,1
11.9945,12.1801,0.895887,19,9
3.9604,4.0217,-1.09715,29,2
16.4738,16.723,2.05374,25,10
4.38003,4.44473,-0.988353,33,3
25.6086,25.9778,4.47894,14,11
4.92722,4.9965,-0.861616,23,4
5.61783,5.69483,-0.699861,13,5
6.50068,6.58519,-0.484945,39,6
7.69139,7.78594,-0.191034,100,7
0.372523,0.376051,-0.141833,14,0
9.38988,9.47549,0.23285,24,8
0.400607,0.404118,-0.131371,14,1
12.013,12.1141,0.894108,19,9
3.98132,4.01482,-1.09906,30,2
16.4802,16.613,2.04729,25,10
4.39831,4.43221,-0.988979,33,3
25.632,25.8206,4.46724,14,11
4.94323,4.97787,-0.861373,25,4
5.61099,5.64833,-0.696549,13,5
6.52222,6.56104,-0.48484,39,6
7.71853,7.75905,-0.191034,100,7
0.368376,0.369277,-0.139762,14,0
9.389,9.40868,0.232012,20,8
0.402015,0.402718,-0.131371,14,1
12.0489,12.0699,0.893794,12,9
4.00502,4.01062,-1.10173,28,2
16.4972,16.5145,2.04223,30,10
4.40537,4.40845,-0.987102,36,3
25.6687,25.6776,4.45798,14,11
4.9569,4.95864,-0.860885,25,4
5.63068,5.62871,-0.696549,13,5
6.53519,6.52835,-0.484108,39,6
7.73572,7.72493,-0.190825,100,7
0.383287,0.381685,-0.144939,14,0
9.40314,9.36057,0.231593,21,8
0.408874,0.406881,-0.133171,14,1
12.0804,12.0215,0.893165,15,9
4.01969,3.9987,-1.10211,26,2
16.5279,16.4358,2.03927,25,10
4.42417,4.398,-0.98804,33,3
25.6664,25.5056,4.44287,14,11
4.96487,4.93378,-0.859423,28,4
5.64507,5.6058,-0.696026,15,5
6.53979,6.48976,-0.482852,36,6
7.75562,7.6936,-0.190685,100,7
0.370817,0.366826,-0.139762,14,0
9.42702,9.3223,0.231419,20,8
0.410221,0.405522,-0.133171,14,1
12.0995,11.9568,0.891491,12,9
4.03712,3.98949,-1.10326,26,2
16.571,16.3697,2.03788,25,10
4.4303,4.37497,-0.986163,38,3
25.6604,25.3311,4.42727,14,11
4.95239,4.88713,-0.854304,27,4
5.65228,5.57585,-0.694631,15,5
6.54705,6.45402,-0.481805,36,6
7.76391,7.64824,-0.190231,92,7
0.36107,0.354699,-0.135621,15,0
