x, y, z, intensity, ring
-2.4307,-1.17714,0.723658,2,15
-3.3408,-1.61213,0.0647484,1,8
-0.442317,-0.213348,-0.113375,16,1
-3.3175,-1.59946,0.193015,1,9
-3.38177,-1.62899,0.328403,1,10
-3.45373,-1.66291,0.470659,1,11
-3.33416,-1.60391,0.586004,9,12
-2.9869,-1.43557,0.644171,2,13
-3.39617,-1.63082,-0.0657607,2,7
-2.41737,-1.16029,0.718482,2,15
-3.31782,-1.58607,0.06419,1,8
-0.453646,-0.216767,-0.116075,16,1
-3.33568,-1.5939,0.193748,1,9
-3.38024,-1.61374,0.327706,1,10
-3.33795,-1.59141,0.585691,9,12
-0.500011,-0.238279,-0.0484586,11,5
-2.98657,-1.4226,0.643026,2,13
-0.50853,-0.242121,-0.0295175,16,6
-3.40184,-1.61895,-0.0657607,2,7
-2.43885,-1.16014,0.723658,1,15
-3.31583,-1.57164,0.0640503,1,8
-0.443796,-0.210255,-0.113375,16,1
-3.3608,-1.59223,0.194899,1,9
-3.37117,-1.5957,0.326311,1,10
-3.46526,-1.63876,0.470659,1,11
-3.35036,-1.58371,0.586942,9,12
-2.98062,-1.40766,0.640737,2,13
-0.50933,-0.240433,-0.0295175,16,6
-3.40719,-1.60766,-0.0657607,2,7
-3.32103,-1.56063,0.0640503,1,8
-3.33741,-1.56691,0.193224,1,9
-3.37284,-1.58282,0.325962,1,10
-3.47067,-1.62726,0.470659,1,11
-3.36123,-1.57452,0.587881,9,12
-0.454707,-0.212904,-0.0439265,12,5
-2.98527,-1.39777,0.640737,2,13
-3.41278,-1.59576,-0.0657607,2,7
-2.4537,-1.14678,0.725729,1,15
-3.32645,-1.54903,0.0640503,1,8
-0.480551,-0.223677,-0.122373,15,1
-3.31932,-1.5443,0.191864,1,9
-3.39307,-1.57717,0.327357,1,10
-3.47633,-1.61513,0.470659,1,11
-3.37029,-1.56444,0.588507,9,12
-3.01353,-1.39756,0.645698,1,13
-3.41833,-1.58384,-0.0657607,2,7
-2.52079,-1.16744,0.744364,1,15
-3.33937,-1.54018,0.06419,1,8
-0.445973,-0.205597,-0.113375,16,1
-3.3519,-1.54525,0.193434,1,9
-3.42027,-1.57532,0.329449,1,10
-3.35958,-1.54523,0.585691,9,12
-0.503249,-0.231362,-0.0484586,11,5
-3.42384,-1.57189,-0.0657607,2,7
-2.46866,-1.13285,0.727799,1,15
-3.36265,-1.53741,0.064539,1,8
-0.446653,-0.204116,-0.113375,16,1
-3.357,-1.53412,0.193434,1,9
-3.3566,-1.53252,0.322825,1,10
-3.48752,-1.59083,0.470659,1,11
-3.36109,-1.53245,0.585065,8,12
-0.504013,-0.229692,-0.0484586,11,5
-2.43372,-1.10706,0.716411,1,15
-3.34951,-1.518,0.06419,1,8
-3.37143,-1.52651,0.193957,1,9
-3.37619,-1.52796,0.324219,1,10
-3.37542,-1.52477,0.586629,9,12
-2.76758,-1.24845,0.700947,1,14
-2.45871,-1.10808,0.722623,1,15
-3.3402,-1.49974,0.0639107,1,8
-0.458699,-0.205859,-0.116075,16,1
-3.3731,-1.5131,0.193748,1,9
-3.3815,-1.51616,0.324219,1,10
-3.38793,-1.51621,0.587881,9,12
-0.458282,-0.205095,-0.0439265,12,5
-2.73634,-1.22288,0.691949,1,14
-2.94687,-1.31635,-0.0563364,1,7
-2.45374,-1.09555,0.720035,2,15
-0.448731,-0.199506,-0.113375,16,1
-3.3708,-1.49866,0.193329,1,9
-3.40498,-1.51244,0.325962,1,10
-3.40016,-1.50817,0.589132,9,12
-2.73346,-1.21016,0.69015,1,14
-2.86711,-1.26933,-0.0547307,3,7
-2.46266,-1.08976,0.721588,2,15
-0.46009,-0.202732,-0.116075,16,1
-3.39246,-1.49413,0.194271,1,9
-3.41024,-1.50054,0.325962,1,10
-3.38732,-1.48834,0.586004,9,12
-2.74282,-1.20344,0.6915,1,14
-2.85687,-1.25289,-0.0544515,4,7
-2.4806,-1.08736,0.725729,1,15
-2.93031,-1.27961,0.0558128,1,8
-0.485799,-0.212038,-0.122373,15,1
-3.40655,-1.48687,0.194794,1,9
-3.41885,-1.49082,0.326311,1,10
-3.51422,-1.53094,0.470659,1,11
-3.39586,-1.47868,0.586629,9,12
-2.73628,-1.1892,0.6888,1,14
-2.88668,-1.25457,-0.0549402,1,7
-2.4523,-1.06527,0.716411,1,15
-2.86846,-1.2413,0.0545562,1,8
-0.450727,-0.194954,-0.113375,16,1
-3.42455,-1.48052,0.195527,1,9
-3.44964,-1.48993,0.328751,1,10
-3.41914,-1.47464,0.589758,8,12
-0.508637,-0.219264,-0.0484586,11,5
-0.517255,-0.222872,-0.0295175,16,6
-2.77063,-1.19322,0.696449,1,14
-2.89839,-1.24765,-0.0550798,1,7
-2.4631,-1.05976,0.718482,2,15
-2.86564,-1.22762,0.0544166,1,8
-0.462187,-0.197903,-0.116075,16,1
-3.43363,-1.46953,0.195736,1,9
-3.42917,-1.46691,0.326311,1,10
-3.52482,-1.50637,0.470659,1,11
-3.42089,-1.46055,0.589132,9,12
-0.509399,-0.217487,-0.0484586,11,5
-2.75347,-1.17389,0.69105,1,14
-2.87719,-1.22604,-0.0545911,3,7
-2.48474,-1.0583,0.723658,1,15
-2.88095,-1.2223,0.054626,1,8
-3.40379,-1.44272,0.193748,0,9
-3.47463,-1.47203,0.330146,1,10
-3.42415,-1.44783,0.588819,9,12
-0.510155,-0.215708,-0.0484586,11,5
-0.518836,-0.219165,-0.0295175,16,6
-2.74858,-1.16048,0.6888,1,14
-2.85566,-1.2051,-0.0541025,3,7
-2.48486,-1.04811,0.722623,1,15
-2.89627,-1.21688,0.0548355,1,8
-0.452777,-0.190144,-0.113375,16,1
-3.42329,-1.43761,0.194585,0,9
-3.46505,-1.45373,0.328751,1,10
-3.53525,-1.48173,0.470659,1,11
-3.41618,-1.43112,0.586629,8,12
-0.510905,-0.213926,-0.0484586,11,5
-2.75061,-1.15061,0.68835,1,14
-2.83012,-1.18329,-0.053544,3,7
-2.49902,-1.04434,0.725729,1,15
-2.93721,-1.22264,0.0555336,1,8
-0.453405,-0.188642,-0.113375,16,1
-3.42435,-1.42472,0.194376,1,9
-3.46985,-1.44223,0.328751,1,10
-3.41908,-1.41903,0.586316,8,12
-0.511611,-0.21223,-0.0484586,11,5
-0.520316,-0.215629,-0.0295175,16,6
-2.75441,-1.14148,0.68835,1,14
-2.87468,-1.19073,-0.0543119,3,7
-2.47748,-1.0257,0.718482,2,15
-2.95604,-1.21899,0.0558128,1,8
-0.454028,-0.187137,-0.113375,16,1
-3.43644,-1.4164,0.194794,1,9
-3.51883,-1.44892,0.332935,1,10
-3.43473,-1.41219,0.588194,8,12
-2.771,-1.13704,0.6915,1,14
-2.88971,-1.18575,-0.0545213,1,7
-2.48087,-1.01748,0.718482,1,15
-2.96006,-1.20918,0.0558128,1,8
-0.46908,-0.191523,-0.116975,16,1
-3.44507,-1.40591,0.195004,1,9
-3.52387,-1.43663,0.332935,1,10
-3.43964,-1.40019,0.588194,7,12
-0.513044,-0.208743,-0.0484586,11,5
-2.81267,-1.14325,0.700947,1,14
-2.98276,-1.21178,-0.0561968,1,7
-3.4481,-1.39312,0.194899,1,9
-3.52861,-1.42494,0.332935,1,10
-3.43901,-1.38596,0.587255,5,12
-3.06125,-1.22565,0.057558,1,8
-3.43069,-1.37218,0.193643,1,9
-3.51137,-1.40374,0.330843,1,10
-3.44015,-1.37248,0.586629,5,12
-0.523203,-0.208525,-0.0295175,16,6
-0.467436,-0.185165,-0.116075,16,1
-3.4575,-1.36962,0.194899,1,9
-3.51254,-1.39,0.330495,1,10
-3.56292,-1.4085,0.470416,1,11
-3.44101,-1.35961,0.586004,5,12
-1.30221,-0.513478,-0.0244334,1,7
-0.468048,-0.183614,-0.116075,16,1
-3.49387,-1.36994,0.196679,1,9
-3.51737,-1.37773,0.330495,1,10
-3.56757,-1.39668,0.470416,1,11
-3.45678,-1.35191,0.587881,5,12
-3.06461,-1.19792,0.639592,1,13
-0.524611,-0.204959,-0.0295175,16,6
-1.25183,-0.488572,-0.023456,1,7
-3.44651,-1.33889,0.064539,1,8
-3.48932,-1.35412,0.196155,1,9
-3.51077,-1.36174,0.329449,1,10
-3.57243,-1.38422,0.470416,1,11
-3.46147,-1.33984,0.587881,5,12
-3.06877,-1.18722,0.639592,1,13
-0.525323,-0.203127,-0.0295175,16,6
-1.29457,-0.500051,-0.0242239,2,7
-3.46983,-1.33403,0.064888,1,8
-3.47166,-1.33334,0.194899,1,9
-3.55294,-1.36314,0.332935,1,10
-3.47166,-1.32987,0.588819,4,12
-0.517269,-0.198043,-0.0484586,11,5
-3.0731,-1.17596,0.639592,2,13
-2.82325,-1.07922,0.697798,1,14
-1.25148,-0.478393,-0.0233862,1,7
-2.59505,-0.991472,0.744364,1,15
-3.49712,-1.32983,0.0653069,1,8
-0.459046,-0.174467,-0.113375,16,1
-3.49496,-1.32831,0.195946,1,9
-3.55768,-1.35073,0.332935,1,10
-3.44304,-1.30514,0.583188,4,12
-3.07535,-1.16453,0.63921,2,13
-2.81424,-1.06454,0.694649,4,14
-1.2494,-0.472607,-0.0233164,1,7
-2.52621,-0.955081,0.723658,1,15
-3.46034,-1.30272,0.064539,1,8
-3.50144,-1.3168,0.196051,1,9
-3.52507,-1.32429,0.329449,1,10
-3.45497,-1.29589,0.584439,4,12
-3.08103,-1.15502,0.639592,2,13
-0.527421,-0.197615,-0.0295175,16,6
-2.81411,-1.05383,0.693749,5,14
-1.27351,-0.476654,-0.0237353,1,7
-2.51868,-0.942196,0.720552,1,15
-3.50984,-1.30739,0.0653767,1,8
-3.50766,-1.30588,0.196155,1,9
-3.51077,-1.30564,0.327706,1,10
-3.44443,-1.27892,0.581936,4,12
-0.51928,-0.192706,-0.0484586,11,5
-3.08136,-1.14289,0.638829,2,13
-2.82142,-1.04536,0.694649,5,14
-1.25259,-0.464091,-0.0233164,1,7
-2.51454,-0.931155,0.718482,1,15
-3.49539,-1.28883,0.0650277,1,8
-0.460789,-0.169811,-0.113375,16,1
-3.53282,-1.30122,0.197307,1,9
-3.54522,-1.30439,0.330495,1,10
-3.46,-1.27098,0.583813,3,12
-3.07592,-1.12928,0.63692,2,13
-0.528754,-0.19402,-0.0295175,16,6
-2.82488,-1.03599,0.694649,5,14
-1.27673,-0.467975,-0.0237353,1,7
-2.49601,-0.914398,0.71227,1,15
-3.50731,-1.27794,0.195632,1,9
-3.57574,-1.30217,0.332935,1,10
-3.43657,-1.24877,0.57912,2,12
-3.10014,-1.12591,0.641118,2,13
-2.82481,-1.0248,0.693749,5,14
-1.27459,-0.462152,-0.0236655,1,7
-2.53914,-0.920159,0.723658,2,15
-0.472962,-0.170557,-0.116075,16,1
-3.52678,-1.27111,0.196469,1,9
-3.53153,-1.27212,0.328403,1,10
-3.42975,-1.23276,0.577243,2,12
-0.521237,-0.187349,-0.0484586,11,5
-3.09851,-1.11309,0.639973,2,13
-0.530096,-0.190324,-0.0295175,16,6
-2.8247,-1.01362,0.692849,5,14
-1.27244,-0.45635,-0.0235957,1,7
-2.53143,-0.90738,0.720552,1,15
-0.462542,-0.164977,-0.113375,16,1
-3.54227,-1.26343,0.197097,1,9
-3.55847,-1.26781,0.330495,1,10
-3.4301,-1.22005,0.576617,2,12
-3.10793,-1.10424,0.641118,2,13
-0.530757,-0.188472,-0.0295175,16,6
-2.82805,-1.00424,0.692849,5,14
-1.28902,-0.457478,-0.0238749,1,7
-2.51257,-0.89123,0.714341,1,15
-3.54455,-1.25102,0.196993,1,9
-3.58896,-1.26528,0.332935,1,10
-3.43785,-1.20998,0.577243,2,12
-0.5225,-0.183796,-0.0484586,11,5
-3.07823,-1.08221,0.634249,1,13
-0.531379,-0.186711,-0.0295175,16,6
-2.84607,-1.00003,0.696449,5,14
-1.29053,-0.453201,-0.0238749,1,7
-2.5301,-0.888011,0.718482,1,15
-1.69711,-0.59299,0.0313794,1,8
-3.56021,-1.24259,0.197621,0,9
-3.59313,-1.25337,0.332935,1,10
-3.40847,-1.18629,0.571612,2,12
-0.523139,-0.181972,-0.0484586,11,5
-0.531995,-0.184948,-0.0295175,16,6
-2.84218,-0.987528,0.694649,4,14
-2.52588,-0.876641,0.716411,1,15
-1.69917,-0.587062,0.0313794,1,8
-0.471556,-0.16283,-0.115175,16,1
-3.59096,-1.23927,0.199086,0,9
-3.5977,-1.24019,0.332935,1,10
-3.62228,-1.24796,0.470416,1,11
-3.41073,-1.17374,0.571299,3,12
-0.523771,-0.180144,-0.0484586,11,5
-0.532669,-0.182997,-0.0295175,16,6
-2.83288,-0.972674,0.6915,4,14
-2.56182,-0.879105,0.725729,1,15
-1.68996,-0.576954,0.03117,1,8
-3.60201,-1.22763,0.332935,1,10
-3.40378,-1.15742,0.569422,4,12
-0.524428,-0.178223,-0.0484586,11,5
-0.533305,-0.181137,-0.0295175,16,6
-2.83441,-0.962153,0.69105,3,14
-1.67402,-0.567926,-0.0308559,1,7
-2.53941,-0.861025,0.718482,1,15
-1.67301,-0.564657,0.0308209,1,8
-3.60649,-1.21442,0.332935,1,10
-3.40031,-1.14301,0.56817,4,12
-2.84531,-0.954238,0.692849,2,14
-1.68736,-0.565895,-0.0310653,1,7
-2.51309,-0.842332,0.7102,1,15
-1.64073,-0.547708,0.0301927,1,8
-0.465841,-0.155416,-0.113375,16,1
-1.82271,-0.607749,0.100694,1,9
-3.61028,-1.20308,0.332935,1,10
-3.63515,-1.20996,0.470416,1,11
-3.40034,-1.13048,0.567544,4,12
-0.525598,-0.174741,-0.0484586,11,5
-3.12815,-1.03938,0.640737,2,13
-2.86494,-0.950818,0.696898,1,14
-1.67025,-0.554001,-0.0307162,1,7
-2.54521,-0.843719,0.718482,1,15
-1.64833,-0.543858,0.0302974,2,8
-1.74895,-0.576378,0.0965075,1,9
-3.61446,-1.19047,0.332935,1,10
-3.41928,-1.12354,0.570047,4,12
-0.526205,-0.172906,-0.0484586,11,5
-3.12056,-1.02478,0.638447,2,13
-2.85898,-0.937775,0.694649,1,14
-1.64937,-0.540692,-0.0302974,2,7
-1.63881,-0.534381,0.0300879,4,8
-1.73186,-0.564386,0.0954608,1,9
-3.6186,-1.17785,0.332935,1,10
-3.41922,-1.11097,0.569422,3,12
-0.526805,-0.171068,-0.0484586,11,5
-3.11852,-1.01207,0.637302,2,13
-2.84354,-0.922277,0.69015,1,14
-1.64355,-0.532753,-0.0301578,3,7
-1.6558,-0.533852,0.0303672,4,8
-1.71091,-0.551289,0.0942047,1,9
-3.62248,-1.16584,0.332935,1,10
-3.4417,-1.10567,0.57255,2,12
-0.52737,-0.16932,-0.0484586,11,5
-3.13121,-1.00472,0.63921,2,13
-2.85957,-0.917008,0.693299,1,14
-1.62245,-0.519976,-0.0297389,4,7
-1.64042,-0.522893,0.030053,5,8
-1.70902,-0.544102,0.0939954,1,9
-3.62633,-1.15382,0.332935,1,10
-3.46248,-1.09903,0.575366,2,12
-3.13639,-0.994923,0.639592,2,13
-0.536892,-0.170209,-0.0295175,16,6
-2.87019,-0.909375,0.695099,1,14
-1.62807,-0.515517,-0.0298087,4,7
-1.6346,-0.514761,0.0299134,5,8
-0.479584,-0.150936,-0.116075,16,1
-1.72615,-0.542927,0.0948328,1,9
-3.63033,-1.14116,0.332935,1,10
-3.47761,-1.09048,0.577243,2,12
-3.15109,-0.987491,0.641881,2,13
-2.87892,-0.901096,0.696449,1,14
-1.62032,-0.506846,-0.0296342,4,7
-1.64785,-0.512616,0.0301229,5,8
-0.476386,-0.148104,-0.115175,16,1
-1.72422,-0.535713,0.0946234,1,9
-3.63429,-1.12848,0.332935,1,10
-3.47007,-1.07483,0.575366,2,12
-0.529085,-0.16388,-0.0484586,11,5
-3.11701,-0.964874,0.634249,2,13
-2.87088,-0.887589,0.693749,1,14
-1.62781,-0.502958,-0.0297389,3,7
-1.64962,-0.506861,0.0301229,4,8
-1.70316,-0.52266,0.0933674,1,9
-3.63821,-1.11579,0.332935,1,10
-3.66323,-1.12206,0.470416,1,11
-3.47002,-1.06156,0.57474,2,12
-0.529654,-0.162033,-0.0484586,11,5
-3.13537,-0.95858,0.637302,1,13
-0.538645,-0.164578,-0.0295175,16,6
-1.6066,-0.490268,-0.02932,3,7
-1.6399,-0.497615,0.0299134,3,8
-0.481138,-0.145906,-0.116075,16,1
-1.70489,-0.51701,0.0933674,1,9
-3.64208,-1.10308,0.332935,1,10
-3.66713,-1.10927,0.470416,1,11
-3.46596,-1.04776,0.573489,2,12
-0.530216,-0.160183,-0.0484586,11,5
-3.14998,-0.951035,0.639592,2,13
-0.539217,-0.162696,-0.0295175,16,6
-1.63885,-0.494175,-0.0298785,2,7
-1.67602,-0.502512,0.0305417,1,8
-1.69329,-0.507045,0.0926347,2,9
-3.67079,-1.0971,0.470416,1,11
-3.47338,-1.03678,0.574115,2,12
-0.530772,-0.158331,-0.0484586,11,5
-3.1644,-0.943951,0.641881,2,13
-2.19632,-0.654334,0.529085,1,14
-1.62524,-0.483887,-0.0295993,2,7
-1.65476,-0.489847,0.0301229,1,8
-1.70645,-0.504826,0.0932627,2,9
-3.46922,-1.02302,0.572863,2,12
-3.15638,-0.929572,0.639592,2,13
-0.540312,-0.159022,-0.0295175,16,6
-2.22091,-0.65365,0.534484,1,14
-1.63067,-0.479623,-0.0296691,2,7
-1.6295,-0.4765,0.0296342,1,8
-0.471368,-0.137748,-0.113375,16,1
-1.71578,-0.501406,0.0936814,2,9
-3.58421,-1.04606,0.32666,1,10
-3.48777,-1.01593,0.575366,2,12
-0.531811,-0.154807,-0.0484586,11,5
-3.14813,-0.915809,0.637302,2,13
-0.540836,-0.15723,-0.0295175,16,6
-2.24552,-0.652809,0.539883,1,14
-1.61689,-0.46975,-0.0293899,2,7
-1.64452,-0.474978,0.0298785,2,8
-0.471822,-0.136184,-0.113375,16,1
-1.71552,-0.495159,0.0935767,2,9
-3.48732,-1.00327,0.57474,2,12
-0.532321,-0.153043,-0.0484586,11,5
-0.541354,-0.155435,-0.0295175,16,6
-2.24029,-0.642818,0.538083,1,14
-1.62997,-0.467695,-0.0295993,1,7
-1.66339,-0.474458,0.0301927,4,8
-0.472271,-0.134619,-0.113375,16,1
-1.72492,-0.491357,0.0939954,1,9
-3.4566,-0.981378,0.569109,2,12
-0.532852,-0.151184,-0.0484586,11,5
-0.541867,-0.153639,-0.0295175,16,6
-2.20116,-0.623697,0.528185,1,14
-1.6239,-0.459822,-0.0294597,2,7
-1.66889,-0.469732,0.0302625,4,8
-0.487745,-0.137191,-0.116975,16,1
-1.73816,-0.488575,0.0946234,1,9
-3.285,-0.920281,0.540325,2,12
-2.21196,-0.619255,0.446493,1,13
-0.5424,-0.151747,-0.0295175,16,6
-2.36098,-0.660086,0.565977,1,14
-1.6409,-0.458456,-0.0297389,2,7
-1.66281,-0.461764,0.0301229,3,8
-1.7745,-0.492112,0.0965075,1,9
-3.27868,-0.906176,0.53876,3,12
-0.533869,-0.147553,-0.0484586,11,5
-2.216,-0.612053,0.446875,1,13
-0.542926,-0.149853,-0.0295175,16,6
-2.21298,-0.610387,0.529985,1,14
-1.64249,-0.452726,-0.0297389,3,7
-1.6702,-0.457542,0.0302276,2,8
-0.473655,-0.129666,-0.113375,16,1
-1.85318,-0.507319,0.100694,1,9
-3.29691,-0.899459,0.541263,3,12
-2.18782,-0.596057,0.440769,1,13
-2.2151,-0.602659,0.529985,1,14
-1.65556,-0.450426,-0.0299483,3,7
-0.466221,-0.126058,-0.12941,15,0
-1.65626,-0.447825,0.0299483,3,8
-0.481607,-0.130128,-0.115175,16,1
-0.534886,-0.143823,-0.0484586,11,5
-2.18978,-0.588799,0.440769,1,13
-0.543934,-0.146154,-0.0295175,16,6
-2.20956,-0.593289,0.528185,1,14
-1.65712,-0.444644,-0.0299483,3,7
-0.492769,-0.131484,-0.136656,14,0
-1.67907,-0.447708,0.0303323,4,8
-0.53536,-0.142048,-0.0484586,11,5
-2.22219,-0.589202,0.446875,1,13
-0.544441,-0.144254,-0.0295175,16,6
-2.23422,-0.591558,0.533584,1,14
-1.64706,-0.435788,-0.0297389,3,7
-0.467069,-0.122882,-0.12941,15,0
-1.67095,-0.439302,0.0301578,2,8
-0.474965,-0.124782,-0.113375,16,1
-2.19582,-0.574423,0.359486,1,12
-0.535852,-0.140178,-0.0484586,11,5
-0.544941,-0.142353,-0.0295175,16,6
-2.2325,-0.582771,0.532684,1,14
-1.67179,-0.436094,-0.0301578,2,7
-1.6899,-0.437982,0.0304719,1,8
-0.475397,-0.123123,-0.113375,16,1
-2.25127,-0.580959,0.368247,1,12
-0.536338,-0.138307,-0.0484586,11,5
-2.19583,-0.565835,0.440769,1,13
-0.545434,-0.14045,-0.0295175,16,6
-2.24962,-0.57886,0.536283,1,14
-1.69647,-0.436527,-0.0305766,1,7
-3.40983,-0.870422,0.184432,0,9
-2.23796,-0.569203,0.365744,1,12
-0.498198,-0.126619,-0.0449724,12,5
-2.24716,-0.571124,0.450691,1,13
-2.30819,-0.585777,0.54978,1,14
-1.74063,-0.441417,-0.0313445,1,7
-2.20535,-0.553128,0.360112,1,12
-0.537268,-0.134653,-0.0484586,11,5
-2.19963,-0.550876,0.440769,1,13
-2.22704,-0.556915,0.529985,1,14
-1.76148,-0.440493,-0.0316936,1,7
-2.20343,-0.544479,0.359486,1,12
-0.487443,-0.120359,-0.0439265,12,5
-2.24719,-0.554874,0.449928,1,13
-2.22887,-0.549527,0.529985,1,14
-1.75913,-0.433385,-0.0316238,1,7
-3.73926,-0.914299,0.0671918,1,8
-0.488408,-0.119332,-0.116075,16,1
-2.25272,-0.548737,0.284687,1,11
-2.20916,-0.537718,0.360112,1,12
-0.538194,-0.130899,-0.0484586,11,5
-2.24157,-0.544779,0.448401,1,13
-2.33304,-0.566577,0.554279,1,14
-1.81504,-0.440446,-0.0326011,2,7
-3.69172,-0.889712,0.0662842,1,8
-2.22364,-0.533849,0.280787,1,11
-2.18788,-0.52486,0.356358,1,12
-0.499875,-0.119825,-0.0449724,12,5
-2.24337,-0.537343,0.448401,1,13
-0.547757,-0.1311,-0.0295175,16,6
-2.31974,-0.555208,0.55068,1,14
-2.00709,-0.480007,-0.0360218,2,7
-0.563848,-0.134016,-0.155291,12,0
-2.2254,-0.526472,0.280787,1,11
-2.20892,-0.521761,0.359486,1,12
-0.539051,-0.127327,-0.0484586,11,5
-2.30246,-0.54343,0.45985,1,13
-0.548188,-0.129283,-0.0295175,16,6
-2.29132,-0.539956,0.543482,1,14
-2.02043,-0.475748,-0.0362312,4,7
-2.14001,-0.503512,0.589072,1,15
-2.18856,-0.509696,0.275912,1,11
-2.25691,-0.524784,0.366995,1,12
-0.539492,-0.125444,-0.0484586,11,5
-2.25462,-0.523838,0.449928,1,13
-2.27041,-0.52667,0.538083,1,14
-2.03961,-0.472756,-0.0365453,4,7
-2.13046,-0.493424,0.585966,1,15
-0.493786,-0.113546,-0.116975,16,1
-2.21242,-0.506713,0.359486,1,12
-2.3062,-0.527343,0.45985,1,13
-2.26463,-0.517006,0.536283,1,14
-2.02362,-0.461984,-0.0362312,4,7
-2.12832,-0.485497,0.584931,1,15
-0.49416,-0.111908,-0.116975,16,1
-2.21161,-0.499624,0.198366,1,10
-2.19198,-0.494787,0.275912,1,11
-2.2797,-0.513752,0.370124,1,12
-0.540355,-0.121675,-0.0484586,11,5
-2.28112,-0.513655,0.454507,1,13
-0.549491,-0.123632,-0.0295175,16,6
-2.29676,-0.516333,0.543482,1,14
-2.04083,-0.458424,-0.0365104,3,7
-2.11492,-0.47468,0.58079,1,15
-2.16268,-0.48104,0.193834,1,10
-2.19369,-0.487133,0.275912,1,11
-2.33162,-0.516908,0.378259,1,12
-0.540776,-0.119788,-0.0484586,11,5
-2.24456,-0.497197,0.446875,1,13
-0.549919,-0.121713,-0.0295175,16,6
-2.27952,-0.504105,0.538983,1,14
-2.0307,-0.448709,-0.036301,3,7
-2.10902,-0.465628,0.578719,1,15
-0.487314,-0.106786,-0.115175,16,1
-2.19558,-0.479918,0.196623,1,10
-2.25235,-0.491092,0.365118,1,12
-0.541191,-0.1179,-0.0484586,11,5
-2.27515,-0.49523,0.452599,1,13
-0.550361,-0.119696,-0.0295175,16,6
-2.39561,-0.520575,0.565977,1,14
-2.04789,-0.445014,-0.0365802,3,7
-2.11819,-0.459903,0.58079,1,15
-0.499133,-0.107461,-0.117874,16,1
-2.16607,-0.465552,0.193834,1,10
-2.28504,-0.489452,0.370124,1,12
-0.541599,-0.11601,-0.0484586,11,5
-2.26918,-0.485642,0.451072,1,13
-2.0495,-0.437505,-0.0365802,3,7
-2.15009,-0.458584,0.589072,1,15
-0.488066,-0.103297,-0.115175,16,1
-2.2706,-0.480147,0.121629,1,9
-2.18718,-0.462107,0.195577,1,10
-2.2906,-0.482287,0.37075,1,12
-0.542001,-0.114119,-0.0484586,11,5
-2.27855,-0.479335,0.452599,1,13
-2.03928,-0.427885,-0.0363708,3,7
-2.14033,-0.448697,0.585966,1,15
-0.480792,-0.100005,-0.113375,16,1
-2.19397,-0.456346,0.117442,1,9
-2.19268,-0.45528,0.195926,1,10
-2.27033,-0.470577,0.284687,1,11
-2.28445,-0.473087,0.369498,1,12
-2.30328,-0.476148,0.457178,1,13
-0.551585,-0.113927,-0.0295175,16,6
-2.0446,-0.421928,-0.0364406,3,7
-2.11532,-0.436136,0.578719,1,15
-2.21512,-0.452684,0.118489,1,9
-2.17083,-0.442844,0.193834,1,10
-2.25243,-0.459081,0.282249,1,11
-2.30931,-0.469835,0.373253,1,12
-0.542784,-0.110332,-0.0484586,11,5
-2.26252,-0.459903,0.448783,1,13
-0.551959,-0.112097,-0.0295175,16,6
-2.06174,-0.417967,-0.0367199,2,7
-2.13197,-0.431818,0.582861,1,15
-0.496746,-0.0998008,-0.116975,16,1
-2.22835,-0.447696,0.119117,1,9
-2.20341,-0.441085,0.275912,1,11
-2.29149,-0.458301,0.370124,1,12
-0.543147,-0.108531,-0.0484586,11,5
-2.32187,-0.463534,0.460231,1,13
-0.552347,-0.110169,-0.0295175,16,6
-2.0788,-0.414254,-0.0369991,1,7
-2.15613,-0.429273,0.589072,1,15
-0.520016,-0.102683,-0.122373,15,1
-2.17888,-0.430245,0.116395,1,9
-2.20499,-0.434601,0.196623,1,10
-2.20486,-0.433776,0.275912,1,11
-2.30463,-0.452986,0.372001,1,12
-0.543504,-0.10673,-0.0484586,11,5
-2.35036,-0.461123,0.465574,1,13
-2.13858,-0.418411,0.583896,1,15
-0.520354,-0.100958,-0.122373,15,1
-2.19213,-0.424917,0.117023,1,9
-2.19077,-0.424257,0.195229,1,10
-2.30374,-0.445298,0.288099,1,11
-2.29456,-0.442692,0.370124,1,12
-0.543855,-0.104927,-0.0484586,11,5
-2.32489,-0.448124,0.460231,1,13
-2.16659,-0.416044,0.591143,1,15
-0.520703,-0.0991411,-0.122373,15,1
-2.22303,-0.42286,0.118593,1,9
-2.22356,-0.422559,0.198018,1,10
-2.28577,-0.433555,0.285662,1,11
-2.26115,-0.428067,0.364492,1,12
-0.544218,-0.103028,-0.0484586,11,5
-2.34573,-0.443655,0.464048,1,13
-2.21748,-0.418596,0.520987,1,14
-2.16044,-0.407047,0.589072,1,15
-0.521046,-0.0973229,-0.122373,15,1
-2.26376,-0.422426,0.120687,1,9
-2.27595,-0.424287,0.20255,1,10
-2.26385,-0.421216,0.282737,1,11
-2.3209,-0.430991,0.373878,1,12
-0.544574,-0.101128,-0.0484586,11,5
-2.13905,-0.395291,0.582861,1,15
-0.521383,-0.0955036,-0.122373,15,1
-2.22986,-0.40805,0.118803,1,9
-2.27741,-0.41634,0.20255,1,10
-2.30827,-0.421149,0.288099,1,11
-2.3496,-0.427841,0.378259,1,12
-0.544924,-0.099226,-0.0484586,11,5
-0.554151,-0.100706,-0.0295175,16,6
-2.22035,-0.403105,0.520987,1,14
-2.14992,-0.389544,0.585449,2,15
-0.521713,-0.0936831,-0.122373,15,1
-2.21154,-0.397123,0.117756,1,9
-2.29454,-0.4112,0.203944,1,10
-2.25111,-0.402605,0.280787,1,11
-2.351,-0.420047,0.378259,1,12
-0.545267,-0.0973234,-0.0484586,11,5
-2.19481,-0.390955,0.514688,1,14
-2.16451,-0.384779,0.589072,1,15
-0.522021,-0.0919525,-0.122373,15,1
-2.24432,-0.395331,0.119431,1,9
-2.26842,-0.398759,0.201504,1,10
-2.29153,-0.401998,0.285662,1,11
-2.35238,-0.412249,0.378259,1,12
-0.545587,-0.0955146,-0.0484586,11,5
-0.554823,-0.0969319,-0.0295175,16,6
-2.18842,-0.382333,0.512888,1,14
-2.16578,-0.377599,0.589072,1,15
-0.522323,-0.0902208,-0.122373,15,1
-2.26136,-0.390606,0.120268,1,9
-2.26973,-0.391234,0.201504,1,10
-2.26938,-0.390359,0.282737,1,11
-2.35374,-0.404445,0.378259,1,12
-0.494845,-0.0849411,-0.0439265,12,5
-0.555142,-0.0950915,-0.0295175,16,6
-2.1859,-0.374035,0.511989,1,14
-2.12893,-0.363905,0.578719,1,15
-0.522619,-0.0884882,-0.122373,15,1
-2.30998,-0.390703,0.12278,1,9
-2.24358,-0.378667,0.199064,1,10
-2.31372,-0.390092,0.288099,1,11
-2.35513,-0.396227,0.378259,1,12
-0.495138,-0.0832132,-0.0439265,12,5
-0.555454,-0.0932501,-0.0295175,16,6
-2.18712,-0.366784,0.511989,1,14
-1.15177,-0.192947,-0.0203844,1,7
-2.1683,-0.362848,0.589072,1,15
-0.522925,-0.0866634,-0.122373,15,1
-2.29944,-0.381082,0.122152,1,9
-2.26055,-0.373826,0.200458,1,10
-2.35643,-0.388415,0.378259,1,12
-0.495412,-0.0815708,-0.0439265,12,5
-0.555776,-0.0913107,-0.0295175,16,6
-2.1807,-0.357885,0.510189,1,14
-1.11294,-0.18265,-0.0196863,1,7
-2.16949,-0.355656,0.589072,1,15
-0.523209,-0.0849288,-0.122373,15,1
-2.28892,-0.371135,0.121524,1,9
-2.25004,-0.364024,0.199412,1,10
-2.35777,-0.380187,0.378259,1,12
-0.546836,-0.0880785,-0.0484586,11,5
-0.528469,-0.0850255,-0.0280521,17,6
-2.18957,-0.351889,0.511989,1,14
-1.13726,-0.182567,-0.0201052,1,7
-2.17072,-0.348081,0.589072,1,15
-2.36798,-0.375899,0.0418509,1,8
-0.523517,-0.0830107,-0.122373,15,1
-2.29816,-0.363993,0.121943,1,9
-2.25523,-0.35679,0.199761,1,10
-2.37651,-0.375126,0.295411,1,11
-0.495969,-0.0781102,-0.0439265,12,5
-0.595861,-0.093629,-0.0316109,15,6
-2.2024,-0.345674,0.514688,1,14
-1.11817,-0.175301,-0.0197561,1,7
-2.17198,-0.340123,0.589072,1,15
-2.25467,-0.349848,0.0398264,1,8
-0.523804,-0.0811827,-0.122373,15,1
-2.28363,-0.353524,0.121105,2,9
-2.25646,-0.348916,0.199761,1,10
-2.33464,-0.36017,0.290049,1,11
-0.496239,-0.0763784,-0.0439265,12,5
-2.24317,-0.344856,0.44115,1,13
-0.529064,-0.0812419,-0.0280521,17,6
-2.20359,-0.337984,0.514688,1,14
-1.11482,-0.170791,-0.0196863,1,7
-2.17315,-0.332539,0.589072,1,15
-2.28751,-0.346771,0.0403849,1,8
-0.524084,-0.0793537,-0.122373,15,1
-2.30459,-0.348538,0.122152,2,9
-2.31677,-0.349964,0.20499,1,10
-2.33981,-0.35261,0.290537,1,11
-2.36169,-0.355064,0.378259,1,12
-2.24436,-0.337024,0.44115,1,13
-0.517494,-0.077617,-0.027424,17,6
-2.23174,-0.334332,0.520987,1,14
-2.1017,-0.3141,0.569402,1,15
-2.27288,-0.336441,0.0401056,1,8
-0.524358,-0.077524,-0.122373,15,1
-2.29789,-0.339324,0.121733,1,9
-2.38893,-0.352341,0.211266,1,10
-2.36291,-0.346818,0.378259,1,12
-0.49676,-0.0729123,-0.0439265,12,5
-2.22221,-0.32577,0.436571,1,13
-0.533571,-0.0781249,-0.0282614,17,6
-2.2059,-0.322592,0.514688,1,14
-2.16013,-0.315128,0.584931,1,15
-2.30175,-0.332508,0.0405943,1,8
-0.524625,-0.0756931,-0.122373,15,1
-2.28715,-0.32999,0.121105,1,9
-2.32704,-0.334918,0.205688,1,10
-0.500956,-0.0717427,-0.0442751,12,5
-2.18835,-0.313007,0.429702,1,13
-0.498251,-0.0711779,-0.0263773,18,6
-2.15294,-0.307559,0.502091,1,14
-2.15351,-0.306873,0.582861,1,15
-2.37413,-0.334929,0.0418509,1,8
-0.524873,-0.073953,-0.122373,15,1
-2.29614,-0.323519,0.121524,1,9
-2.34392,-0.329417,0.207082,1,10
-2.36516,-0.331139,0.378259,1,12
-0.501191,-0.0700811,-0.0442751,12,5
-2.20493,-0.307921,0.432755,1,13
-0.526178,-0.0733877,-0.0278427,17,6
-2.20413,-0.307417,0.513788,1,14
-2.1239,-0.295471,0.574578,1,15
-2.37522,-0.327055,0.0418509,1,8
-0.525115,-0.072212,-0.122373,15,1
-2.30517,-0.316589,0.121943,1,9
-2.39238,-0.32814,0.211266,1,10
-2.17058,-0.296175,0.346972,1,12
-0.548799,-0.0748834,-0.0484586,11,5
-2.20594,-0.300608,0.432755,1,13
-0.52246,-0.0711038,-0.0276334,17,6
-2.23608,-0.30392,0.520987,1,14
-2.17852,-0.295322,0.589072,1,15
-2.37635,-0.318762,0.0418509,1,8
-2.31814,-0.31013,0.122571,1,9
-2.23818,-0.297444,0.357609,1,12
-2.18362,-0.289806,0.428175,1,13
-0.494986,-0.0656057,-0.026168,18,6
-2.23713,-0.296113,0.520987,1,14
-2.17954,-0.287716,0.589072,1,15
-0.525607,-0.0685444,-0.122373,15,1
-2.3548,-0.30709,0.124455,1,9
-2.25091,-0.291543,0.359486,1,12
-0.549308,-0.0710504,-0.0484586,11,5
-2.19241,-0.283188,0.429702,1,13
-0.507097,-0.0654105,-0.026796,18,6
-0.525831,-0.066801,-0.122373,15,1
-2.33203,-0.296259,0.123199,1,9
-2.22442,-0.280615,0.355106,1,12
-0.549541,-0.0692284,-0.0484586,11,5
-2.21282,-0.278367,0.433518,1,13
-0.527128,-0.0662179,-0.0278427,17,6
-0.52605,-0.0650569,-0.122373,15,1
-2.23033,-0.274245,0.275912,1,11
-2.21755,-0.271888,0.353855,1,12
-2.20593,-0.270073,0.431992,1,13
-0.559065,-0.0683474,-0.0295175,16,6
-0.526274,-0.0632202,-0.122373,15,1
-2.19986,-0.263097,0.193834,1,10
-2.23127,-0.266458,0.275912,1,11
-2.21848,-0.264146,0.353855,1,12
-2.2537,-0.267541,0.44115,1,13
-0.507744,-0.0601854,-0.026796,18,6
-2.08733,-0.246683,0.56319,1,15
-0.526502,-0.0612909,-0.122373,15,1
-2.30326,-0.268127,0.121524,1,9
-2.20077,-0.255416,0.193834,1,10
-2.23223,-0.258278,0.275912,1,11
-2.22724,-0.257306,0.355106,1,12
-0.559539,-0.0643451,-0.0295175,16,6
-2.06898,-0.237195,0.558014,1,15
-0.526702,-0.0595446,-0.122373,15,1
-2.2016,-0.248116,0.193834,1,10
-2.23308,-0.250875,0.275912,1,11
-2.25556,-0.253002,0.359486,1,12
-0.55975,-0.0624893,-0.0295175,16,6
-2.05824,-0.22905,0.554908,1,15
-0.526897,-0.0577978,-0.122373,15,1
-2.2415,-0.245485,0.118175,1,9
-2.20241,-0.240814,0.193834,1,10
-2.2339,-0.243468,0.275912,1,11
-2.25643,-0.245127,0.359486,1,12
-0.559954,-0.0606328,-0.0295175,16,6
-2.08976,-0.225176,0.56319,1,15
-2.18276,-0.231344,0.115034,1,9
-2.20328,-0.23274,0.193834,1,10
-2.23473,-0.235669,0.275912,1,11
-0.560172,-0.05858,-0.0295175,16,6
-2.12896,-0.221884,0.573543,1,15
-0.527297,-0.0540259,-0.122373,15,1
-2.18356,-0.223723,0.115034,1,9
-2.17236,-0.22181,0.191045,1,10
-2.22966,-0.226873,0.275181,2,11
-0.560373,-0.0566243,-0.0295175,16,6
-2.15673,-0.217552,-0.0378368,1,7
-0.527473,-0.052277,-0.122373,15,1
-2.22404,-0.220421,0.117128,1,9
-2.20481,-0.217738,0.193834,1,10
-2.21064,-0.217535,0.272744,2,11
-0.584412,-0.0570961,-0.0307735,15,6
-2.19724,-0.21428,-0.0385349,1,7
-0.527644,-0.0505275,-0.122373,15,1
-2.22082,-0.212276,0.116919,1,9
-2.20552,-0.210425,0.193834,1,10
-2.26076,-0.214899,0.278837,1,11
-0.560737,-0.0529065,-0.0295175,16,6
-2.19797,-0.206609,-0.0385349,1,7
-0.527817,-0.0486854,-0.122373,15,1
-2.20961,-0.203424,0.116291,1,9
-2.20628,-0.20234,0.193834,1,10
-2.23777,-0.204835,0.275912,1,11
-2.15885,-0.195331,-0.0378368,1,7
-0.527992,-0.0467505,-0.122373,15,1
-2.19837,-0.194653,0.115662,1,9
-2.24666,-0.198138,0.197321,1,10
-2.19139,-0.190566,-0.0383953,1,7
-0.528144,-0.0449995,-0.122373,15,1
-2.27065,-0.193466,0.119431,1,9
-0.56126,-0.0470317,-0.0295175,16,6
-0.528431,-0.0414957,-0.122373,15,1
-2.12141,-0.163233,-0.0371387,1,7
-0.528579,-0.0395585,-0.122373,15,1
-0.561714,-0.0412497,-0.0295175,16,6
-2.16188,-0.158379,-0.0378368,1,7
-0.528707,-0.0378054,-0.122373,15,1
-0.561848,-0.0393869,-0.0295175,16,6
-0.52883,-0.0360521,-0.122373,15,1
-0.561976,-0.0375235,-0.0295175,16,6
-0.574646,-0.0381679,-0.0100526,17,7
-0.528953,-0.0342057,-0.122373,15,1
-0.574776,-0.0361619,-0.0100526,8,7
-0.529069,-0.0323592,-0.122373,15,1
-1.89703,-0.113701,0.369406,1,13
-0.529173,-0.0306046,-0.122373,15,1
-1.87975,-0.106411,0.365972,5,13
-0.529277,-0.0287572,-0.122373,15,1
-1.88403,-0.100057,0.366735,6,13
-1.88439,-0.093151,0.366735,3,13
-0.562545,-0.0277099,-0.0295175,16,6
-0.547258,-0.0268611,-0.00956392,8,7
-0.529469,-0.0249691,-0.122373,15,1
-2.11674,-0.0998228,0.111057,1,9
-2.05022,-0.0948934,0.325071,1,12
-1.90431,-0.0874735,0.370551,1,13
-0.562638,-0.0257462,-0.0295175,16,6
-0.587301,-0.0267719,-0.010262,8,7
-0.529549,-0.0232133,-0.122373,15,1
-2.04523,-0.0896544,0.107289,1,9
-2.18867,-0.0940291,0.346972,1,12
-1.87321,-0.0798207,0.364445,1,13
-0.562721,-0.0238803,-0.0295175,16,6
-2.03754,-0.0821922,0.10687,1,9
-2.04653,-0.0821972,0.179192,1,10
-1.87346,-0.0736084,0.364445,1,13
-0.562797,-0.0220141,-0.0295175,16,6
-0.567487,-0.021999,-0.00991297,8,7
-0.529695,-0.0196082,-0.122373,15,1
-2.03383,-0.0749327,0.106661,1,9
-2.05477,-0.075345,0.179889,1,10
-1.87371,-0.0670687,0.364445,1,13
-0.56287,-0.0200494,-0.0295175,16,6
-2.0181,-0.0676524,0.105823,1,9
-2.01519,-0.0668508,0.176403,1,10
-0.562937,-0.0180845,-0.0295175,16,6
-0.583613,-0.0186468,-0.0101922,8,7
-0.529816,-0.0160023,-0.122373,15,1
-2.11814,-0.0636049,0.111057,1,9
-0.563047,-0.0142523,-0.0295175,16,6
-0.583729,-0.0145719,-0.0101922,8,7
-0.529954,-0.0104533,-0.122373,15,1
-0.563132,-0.0103211,-0.0295175,16,6
-0.563164,-0.0084536,-0.0295175,16,6
-0.575849,-0.00854364,-0.0100526,8,7
-2.12091,-0.0273942,0.111162,1,9
-0.563189,-0.00658602,-0.0295175,16,6
-0.603869,-0.00685108,-0.0105413,8,7
-2.05109,-0.0193318,0.107498,2,9
-2.03016,-0.0184258,0.177623,2,10
-0.595891,-0.00468016,-0.0104016,8,7
-2.03317,-0.0120658,0.106556,5,9
-2.01029,-0.0112278,0.17588,5,10
-0.563221,-0.0025559,-0.0295175,16,6
-2.02921,-0.00531294,0.106347,3,9
-2.03422,-0.00461555,0.177972,2,10
-0.579522,0.00627122,-0.155291,12,0
-0.482915,0.00682748,-0.12941,15,0
-1.94914,0.0295984,0.239351,1,11
-0.609598,0.00946997,-0.0533393,10,5
-0.506067,0.00892177,-0.135621,15,0
-1.93315,0.0357681,0.237402,1,11
-0.585657,0.0111429,-0.0512476,10,5
-0.579428,0.0121373,-0.155291,12,0
-1.92706,0.042385,0.23667,2,11
-0.553746,0.0123728,-0.0484586,11,5
-0.579383,0.0141597,-0.155291,12,0
-1.88523,0.0480489,0.231552,2,11
-0.5537,0.0143057,-0.0484586,11,5
-0.57933,0.016182,-0.155291,12,0
-1.93267,0.0560094,0.237402,1,11
-0.577545,0.0169393,-0.0505503,10,5
-0.57927,0.0182043,-0.155291,12,0
-0.573499,0.0188244,-0.0502017,11,5
-0.579202,0.0202261,-0.155291,12,0
-0.585377,0.0212602,-0.0512476,10,5
-0.569376,0.0225698,-0.0498531,11,5
-0.579056,0.024067,-0.155291,12,0
-0.59318,0.0255877,-0.0519448,10,5
-0.578964,0.0261893,-0.155291,12,0
-0.605029,0.0282149,-0.0529907,10,5
-0.578869,0.02821,-0.155291,12,0
-0.55319,0.0277329,-0.0484586,11,5
-0.61676,0.0329707,-0.0540366,10,5
-0.578669,0.0320486,-0.155291,12,0
-0.552988,0.0314978,-0.0484586,11,5
-0.578547,0.0341693,-0.155291,12,0
-0.620492,0.037516,-0.0543852,9,5
-0.578425,0.0361888,-0.155291,12,0
-0.529011,0.0332825,-0.122373,15,1
-0.572638,0.0366293,-0.0502017,11,5
-0.584434,0.0394328,-0.0512476,10,5
-0.578165,0.040125,-0.155291,12,0
-1.73596,0.122913,0.275638,1,12
-0.592249,0.0419336,-0.0519448,10,5
-0.578021,0.0421429,-0.155291,12,0
-1.72173,0.127947,0.273447,2,12
-0.604021,0.0448865,-0.0529907,10,5
-0.577871,0.0441604,-0.155291,12,0
-1.70948,0.132738,0.27157,3,12
-0.615779,0.0479221,-0.0540366,10,5
-0.577721,0.0460764,-0.155291,12,0
-1.69131,0.136971,0.268754,2,12
-0.603701,0.0489969,-0.0529907,10,5
-0.539061,0.0447925,-0.144939,14,0
-1.6751,0.141251,0.266251,2,12
-0.607506,0.0513341,-0.0533393,10,5
-1.47186,0.124888,0.341026,1,14
-1.48986,0.12694,0.400652,1,15
-0.527361,0.0455818,-0.141833,14,0
-1.73366,0.15198,0.275638,1,12
-0.63115,0.0554403,-0.0554311,9,5
-1.50249,0.132508,0.348224,1,14
-1.48943,0.13188,0.400652,1,15
-0.519494,0.0468206,-0.139762,14,0
-0.527901,0.047764,-0.122373,15,1
-0.603165,0.0552106,-0.0529907,10,5
-1.502,0.138014,0.348224,1,14
-0.57704,0.0539367,-0.155291,12,0
-0.57521,0.0545758,-0.0505503,10,5
-1.49906,0.142495,0.292701,1,13
-0.576858,0.05585,-0.155291,12,0
-0.582947,0.0573638,-0.0512476,10,5
-0.57665,0.0579638,-0.155291,12,0
-0.590672,0.0602065,-0.0519448,10,5
-0.576444,0.0599764,-0.155291,12,0
-0.577972,0.0604413,-0.112959,16,2
-0.574607,0.0605962,-0.0505503,10,5
-0.576231,0.0619883,-0.155291,12,0
-0.577757,0.0624585,-0.112959,16,2
-0.602121,0.0656239,-0.0529907,10,5
-0.537621,0.0596389,-0.144939,14,0
-0.577547,0.064374,-0.112959,16,2
-0.582101,0.0653958,-0.0512476,10,5
-0.53742,0.0614213,-0.144939,14,0
-0.633339,0.0732798,-0.0557797,9,5
-0.575586,0.0677176,-0.155291,12,0
-0.601426,0.0717157,-0.0529907,10,5
-0.575334,0.0698268,-0.155291,12,0
-0.576853,0.0703177,-0.112959,16,2
-0.573486,0.0704153,-0.0505503,10,5
-0.575086,0.0718347,-0.155291,12,0
-0.607772,0.0762407,-0.119065,15,2
-0.60091,0.0759126,-0.0529907,10,5
-0.574832,0.0738415,-0.155291,12,0
-0.599714,0.077357,-0.117538,16,2
-0.632254,0.0821155,-0.0557797,9,5
-0.574584,0.0757473,-0.155291,12,0
-0.607239,0.0803757,-0.119065,15,2
-0.628029,0.0836854,-0.0554311,9,5
-1.66578,0.222263,0.326665,1,13
-1.2982,0.173908,0.350959,1,15
-0.574316,0.0777526,-0.155291,12,0
-0.606955,0.0824949,-0.119065,15,2
-0.615889,0.0842568,-0.0543852,9,5
-1.54444,0.211287,0.303005,1,13
-1.30141,0.178965,0.351994,1,15
-0.574055,0.0796567,-0.155291,12,0
-0.606678,0.0845072,-0.119065,15,2
-0.603768,0.0846391,-0.0533393,10,5
-1.54369,0.216677,0.303005,1,13
-1.31611,0.185436,0.356135,1,15
-0.573788,0.0815599,-0.155291,12,0
-0.59862,0.0854094,-0.117538,16,2
-0.611372,0.0877734,-0.0540366,10,5
-1.53519,0.220677,0.301478,2,13
-1.31549,0.189799,0.356135,1,15
-0.573514,0.0834622,-0.155291,12,0
-0.602219,0.0879615,-0.118302,15,2
-0.64656,0.0950145,-0.0571742,9,5
-1.52862,0.22491,0.300333,2,13
-1.29953,0.19213,0.351994,1,15
-0.573219,0.0854637,-0.155291,12,0
-0.609675,0.0912252,-0.119828,15,2
-0.646224,0.0972707,-0.0571742,9,5
-1.52589,0.229952,0.299952,2,13
-1.29885,0.196665,0.351994,1,15
-0.636521,0.0975149,-0.125171,14,2
-0.645881,0.0995259,-0.0571742,9,5
-1.51343,0.233481,0.297662,2,13
-1.32489,0.20534,0.359241,1,15
-0.572609,0.0894633,-0.155291,12,0
-0.597386,0.0936548,-0.117538,16,2
-0.602232,0.0949532,-0.0533393,10,5
-1.52037,0.239986,0.299189,1,13
-1.32416,0.209963,0.359241,1,15
-0.597055,0.0957396,-0.117538,16,2
-0.633368,0.102129,-0.0561283,9,5
-1.46525,0.236532,0.288503,1,13
-1.29676,0.210029,0.351994,1,15
-0.57197,0.0934588,-0.155291,12,0
-0.596717,0.0978232,-0.117538,16,2
-0.617281,0.101747,-0.0547338,9,5
-1.31127,0.217079,0.356135,1,15
-0.571657,0.095355,-0.155291,12,0
-0.635116,0.106282,-0.125171,14,2
-0.61694,0.103794,-0.0547338,9,5
-1.28387,0.21692,0.348888,1,15
-0.571321,0.0973498,-0.155291,12,0
-0.61856,0.10551,-0.144868,12,1
-0.627,0.107175,-0.123644,14,2
-0.632283,0.108646,-0.0561283,9,5
-0.570995,0.0992438,-0.155291,12,0
-0.59899,0.104325,-0.140369,13,1
-0.607301,0.105882,-0.119828,15,2
-0.620144,0.108679,-0.0550824,9,5
-0.570645,0.101236,-0.155291,12,0
-0.575598,0.102322,-0.134971,14,1
-0.618525,0.110065,-0.122118,15,2
-0.643296,0.115052,-0.0571742,9,5
-0.570288,0.103228,-0.155291,12,0
-0.559898,0.101549,-0.131371,14,1
-0.63359,0.115029,-0.125171,14,2
-0.60761,0.11086,-0.0540366,10,5
-0.569924,0.105218,-0.155291,12,0
-0.559558,0.103405,-0.131371,14,1
-0.606159,0.112235,-0.119828,15,2
-0.630725,0.117353,-0.0561283,9,5
-0.946405,0.17626,-0.0504519,3,6
-0.569572,0.107107,-0.155291,12,0
-0.559194,0.105358,-0.131371,14,1
-0.617359,0.116428,-0.122118,15,2
-0.630332,0.119444,-0.0561283,9,5
-0.569195,0.109095,-0.155291,12,0
-0.554995,0.106574,-0.130472,14,1
-0.609237,0.1171,-0.120591,15,2
-0.641649,0.12391,-0.0571742,9,5
-0.568811,0.111081,-0.155291,12,0
-0.585219,0.114497,-0.13767,13,1
-0.608824,0.119226,-0.120591,15,2
-0.641213,0.126149,-0.0571742,9,5
-0.573349,0.114254,-0.134971,14,1
-0.596852,0.119046,-0.118302,15,2
-0.609511,0.122124,-0.0543852,9,5
-0.568021,0.115049,-0.155291,12,0
-0.553848,0.11238,-0.130472,14,1
-0.625293,0.12699,-0.124026,14,2
-0.570038,0.116286,-0.050899,21,5
-0.567637,0.116932,-0.155291,12,0
-0.564924,0.116579,-0.133171,14,1
-0.624868,0.129063,-0.124026,14,2
-0.579403,0.1202,-0.0517705,21,5
-1.20665,0.251203,0.330253,1,15
-0.567246,0.118814,-0.155291,12,0
-0.572163,0.120052,-0.134971,14,1
-0.609066,0.127906,-0.120973,15,2
-0.577031,0.12181,-0.0515962,21,5
-1.01223,0.213865,-0.0542201,2,6
-1.20577,0.255414,0.330253,1,15
-0.566807,0.120892,-0.155291,12,0
-0.556494,0.118794,-0.131371,14,1
-0.65083,0.139169,-0.129368,13,2
-0.557122,0.11964,-0.0498531,33,5
-1.01144,0.217573,-0.0542201,2,6
-1.20487,0.259621,0.330253,1,15
-0.566381,0.12287,-0.155291,12,0
-0.552246,0.120005,-0.130472,14,1
-0.646503,0.140606,-0.128605,14,2
-0.556701,0.121584,-0.0498531,33,5
-0.987265,0.215981,-0.052964,2,6
-1.20395,0.263825,0.330253,1,15
-0.57468,0.126877,-0.13587,13,1
-0.623029,0.137666,-0.124026,14,2
-0.575746,0.127745,-0.0515962,21,5
-1.00214,0.22272,-0.0538014,2,6
-1.23324,0.274533,0.338535,1,15
-0.565554,0.126623,-0.155291,12,0
-0.559044,0.125371,-0.132271,14,1
-0.664713,0.14919,-0.132421,13,2
-0.567544,0.127902,-0.050899,21,5
-0.978018,0.220765,-0.0525453,2,6
-1.26813,0.286715,0.34837,2,15
-0.577626,0.131552,-0.13677,13,1
-0.584573,0.133885,-0.0524678,20,5
-0.988961,0.226684,-0.0531733,2,6
-1.28595,0.295466,0.353547,7,15
-0.584758,0.135325,-0.13857,13,1
-0.580245,0.13492,-0.0521191,21,5
-0.999834,0.232853,-0.0538014,2,6
-1.2469,0.290622,0.295586,1,14
-1.27174,0.296879,0.349923,10,15
-0.569106,0.133797,-0.134971,14,1
-0.595283,0.140609,-0.0535136,20,5
-0.983467,0.232663,-0.052964,2,6
-1.18899,0.281504,0.282089,1,14
-1.28761,0.305328,0.354582,8,15
-0.564844,0.134877,-0.134071,14,1
-0.6161,0.147799,-0.0554311,19,5
-1.00207,0.24076,-0.0540107,2,6
-1.13495,0.272896,0.269491,1,14
-1.30162,0.313212,0.358723,4,15
-0.662036,0.160653,-0.132421,13,2
-0.634938,0.154664,-0.0571742,18,5
-1.12732,0.274603,0.225536,1,13
-0.997384,0.243136,-0.0538014,2,6
-1.16811,0.284972,0.27759,1,14
-18.1566,4.43617,5.00815,9,15
-0.609329,0.149891,-0.144868,12,1
-0.634811,0.156277,-0.127079,14,2
-0.624751,0.154379,-0.0563026,18,5
-1.05774,0.261569,0.211798,1,13
-0.934488,0.231262,-0.0504519,3,6
-1.26737,0.313876,0.301434,4,14
-18.126,4.4958,5.00401,16,15
-0.514268,0.128412,-0.122373,15,1
-0.756161,0.188953,-0.151502,9,2
-0.631577,0.158289,-0.0799463,11,4
-0.635803,0.159467,-0.0573485,18,5
-1.05682,0.26526,0.211798,1,13
-0.98404,0.247173,-0.0531733,2,6
-1.27382,0.320199,0.303234,11,14
-18.0989,4.55621,5.0009,9,15
-0.561847,0.142169,-0.155291,12,0
-0.573305,0.145814,-0.0726341,12,4
-1.16583,0.296734,0.190537,1,12
-0.623658,0.158737,-0.0563026,18,5
-1.15102,0.293177,0.230879,1,13
-1.27647,0.325607,0.304134,11,14
-17.9987,4.59785,4.97761,19,15
-0.576637,0.148806,-0.0731216,12,4
-0.973528,0.251409,0.15925,1,12
-0.638533,0.164898,-0.0576971,18,5
-1.28476,0.332501,0.306383,8,14
-21.2308,5.50253,5.87675,33,15
-0.572299,0.149713,-0.0726341,12,4
-1.04148,0.272645,0.170514,1,12
-0.645692,0.169033,-0.0583943,17,5
-1.24395,0.325881,0.24996,1,13
-19.1851,5.0331,4.5791,14,14
-18.2958,4.80665,5.06871,6,15
-0.575611,0.152728,-0.0731216,12,4
-1.06726,0.283376,0.174894,1,12
-0.648949,0.172308,-0.058743,17,5
-1.17071,0.311063,0.235458,1,13
-19.2276,5.11608,4.5935,10,14
-18.3443,4.88789,5.08683,9,15
-0.752784,0.201989,-0.151502,9,2
-0.578908,0.155768,-0.0736091,12,4
-1.08915,0.293263,0.178648,1,12
-0.648344,0.174572,-0.058743,17,5
-1.19615,0.322299,0.240801,2,13
-19.236,5.19027,4.5998,29,14
-18.6609,5.04209,5.17949,28,15
-0.628079,0.170763,-0.150267,12,1
-0.582191,0.158833,-0.0740966,12,4
-1.08812,0.297063,0.178648,1,12
-0.661185,0.180508,-0.0599631,8,5
-1.21964,0.333198,0.245762,7,13
-19.1181,5.23013,4.57595,38,14
-0.619965,0.170883,-0.148468,12,1
-0.656726,0.181139,-0.132421,13,2
-0.604592,0.167214,-0.0770214,11,4
-1.10617,0.305935,0.181777,1,12
-0.725838,0.200883,-0.0658897,6,5
-1.2355,0.34217,0.249197,12,13
-19.066,5.28746,4.56786,38,14
-18.6895,5.18656,5.19709,7,15
-0.596871,0.166649,-0.143069,12,1
-0.65609,0.18343,-0.132421,13,2
-0.596388,0.167076,-0.0760465,11,4
-1.06325,0.298064,0.174894,1,12
-1.25515,0.352098,0.253394,12,13
-19.0239,5.34381,4.56201,17,14
-0.835489,0.234845,-0.0151487,3,7
-19.8001,5.56928,5.51129,23,15
-0.596286,0.168732,-0.143069,25,1
-1.10026,0.312379,0.181151,1,12
-1.28413,0.365067,0.2595,5,13
-19.0295,5.41712,4.56786,28,14
-0.834706,0.237615,-0.0151487,3,7
-19.8187,5.64549,5.52165,12,15
-0.601343,0.172319,-0.144419,25,1
-0.749181,0.214966,-0.151502,9,2
-1.15232,0.33151,0.189911,2,12
-21.219,6.10849,4.29206,78,13
-19.0995,5.50556,4.589,39,14
-19.8304,5.72374,5.53045,2,15
-0.587638,0.170613,-0.141269,13,1
-1.17397,0.341958,0.193666,5,12
-19.0409,5.56072,4.57955,28,14
-26.0992,7.627,7.28576,23,15
-0.583329,0.171462,-0.140369,13,1
-1.20308,0.354999,0.198672,11,12
-30.228,8.92524,6.1265,20,13
-19.8969,5.8824,4.79011,33,14
-26.0817,7.7208,7.28834,19,15
-0.593934,0.176834,-0.143069,25,1
-1.19994,0.358631,0.198359,11,12
-21.343,6.38292,4.33022,26,13
-19.0026,5.6902,4.57955,17,14
-32.1778,9.64767,9.00121,15,15
-0.604507,0.182281,-0.145768,25,1
-0.600421,0.181621,-0.0770214,11,4
-1.2157,0.367968,0.201175,10,12
-21.6344,6.55241,4.39395,10,13
-18.8837,5.72652,4.55571,38,14
-0.926153,0.281033,-0.0168939,2,7
-26.0346,7.90494,7.29042,4,15
-0.904671,0.276068,0.01651,2,8
-0.602004,0.183821,-0.145318,25,1
-1.15408,0.353277,0.148193,2,11
-0.588395,0.180227,-0.075559,24,4
-21.717,6.65198,3.59737,19,12
-21.2079,6.50414,4.3119,26,13
-0.989057,0.303518,-0.0542201,2,6
-18.7388,5.75407,4.52557,37,14
-0.925216,0.284103,-0.0168939,2,7
-22.7821,6.99999,6.3861,20,15
-0.953428,0.294406,0.0174175,1,8
-0.601391,0.185816,-0.145318,25,1
-0.805764,0.249425,-0.133595,7,3
-1.10549,0.342418,0.1421,4,11
-0.561249,0.17395,-0.0721467,12,4
-21.9332,6.80205,3.6371,23,12
-20.9237,6.49296,4.25848,18,13
-18.7569,5.82775,4.53456,30,14
-0.924218,0.287331,-0.0168939,2,7
-22.787,7.08865,6.39438,21,15
-0.952395,0.297732,0.0174175,1,8
-0.58028,0.181515,-0.140369,26,1
-0.684249,0.214431,-0.113571,11,3
-1.15543,0.362312,0.148681,10,11
-0.621282,0.194817,-0.0799463,11,4
-21.1416,6.63346,3.50945,8,12
-20.972,6.58833,4.27298,42,13
-18.9103,5.94426,4.5764,38,14
-22.8224,7.18273,6.41095,7,15
-0.878951,0.277976,0.0160911,2,8
-0.600112,0.189906,-0.145318,25,1
-0.615746,0.195208,-0.102308,14,3
-1.16747,0.370343,0.150387,20,11
-21.1119,6.70115,3.5082,18,12
-21.0698,6.69589,4.2974,14,13
-18.9444,6.02407,4.58945,18,14
-0.884181,0.281328,-0.0161958,2,7
-0.950399,0.304042,0.0174175,1,8
-0.597623,0.191301,-0.144868,12,1
-1.0663,0.341736,0.0979631,1,10
-0.709146,0.227409,-0.117952,10,3
-1.19081,0.382097,0.153555,22,11
-32.0322,10.2844,5.32847,9,12
-21.2344,6.8258,4.33556,19,13
-18.901,6.08299,4.58405,35,14
-0.883243,0.284259,-0.0161958,2,7
-32.636,10.5097,9.18704,15,15
-0.949386,0.307192,0.0174175,1,8
-0.582153,0.188479,-0.141269,13,1
-1.06321,0.344841,0.0977887,1,10
-0.689598,0.223665,-0.114823,11,3
-1.18953,0.386044,0.153555,6,11
-23.0591,7.49236,3.84015,9,12
-21.2882,6.92107,4.35121,11,13
-19.1735,6.24094,4.65514,18,14
-0.920274,0.299725,-0.0168939,2,7
-26.7894,8.73027,7.54975,30,15
-0.898897,0.294326,0.01651,2,8
-0.61853,0.202645,-0.150267,24,1
-0.740632,0.242791,-0.151502,9,2
-1.05448,0.345881,0.0970915,1,10
-0.613738,0.201431,-0.102308,14,3
-34.4911,11.3268,4.45749,14,11
-30.2857,9.95743,5.04939,4,12
-21.9092,7.20761,4.48325,13,13
-0.914413,0.300997,-0.0504519,3,6
-19.6902,6.48523,4.78606,33,14
-0.881237,0.290418,-0.0161958,2,7
-26.7624,8.82493,7.55079,10,15
-0.947218,0.313813,0.0174175,1,8
-0.573424,0.190086,-0.13947,13,1
-0.739737,0.245504,-0.151502,9,2
-1.11372,0.369836,0.102669,5,10
-0.68798,0.228594,-0.114823,11,3
-33.0762,10.9902,4.27956,56,11
-22.9031,7.61886,3.82295,11,12
-20.847,6.94295,4.27107,4,13
-0.913304,0.304347,-0.0504519,3,6
-19.389,6.4649,4.71857,32,14
-0.918159,0.306143,-0.0168939,2,7
-24.4994,8.17363,6.9203,51,15
-0.946062,0.317282,0.0174175,1,8
-0.624454,0.209545,-0.152067,11,1
-1.06225,0.356455,0.058721,1,9
-0.738875,0.248085,-0.151502,9,2
-1.13131,0.380067,0.104413,12,10
-0.672199,0.225959,-0.11232,11,3
-21.4568,7.21685,2.7796,14,11
-22.8933,7.70443,3.82576,28,12
-20.7389,6.98747,4.2539,18,13
-0.844102,0.284564,-0.0466837,5,6
-20.7253,6.99096,5.0497,29,14
-0.871609,0.294006,-0.0160562,2,7
-24.4744,8.26033,6.92134,12,15
-0.945004,0.320418,0.0174175,1,8
-0.605301,0.205354,-0.147568,12,1
-1.061,0.360161,0.058721,1,9
-0.738005,0.250663,-0.151502,9,2
-1.14695,0.389783,0.105981,15,10
-0.634039,0.215474,-0.106063,13,3
-21.5474,7.32695,2.79446,14,11
-22.7073,7.73019,3.79917,11,12
-20.671,7.04101,4.24474,18,13
-0.960363,0.327308,-0.0531733,2,6
-20.8348,7.10494,5.08209,40,14
-0.870577,0.297047,-0.0160562,2,7
-22.6062,7.7178,6.4006,17,15
-0.608267,0.208731,-0.148468,12,1
-1.01446,0.348119,0.0562088,1,9
-0.73717,0.253108,-0.151502,9,2
-1.13434,0.389701,0.104936,12,10
-0.633283,0.217686,-0.106063,13,3
-20.57,7.07479,2.67089,13,11
-20.8211,7.16522,3.48755,24,12
-20.3642,7.01592,4.18673,24,13
-0.910121,0.313735,-0.0504519,3,6
-20.8781,7.20113,5.09874,56,14
-0.892273,0.307757,-0.0164751,2,7
-22.5915,7.7965,6.4037,7,15
-0.585478,0.203083,-0.143069,12,1
-1.06607,0.369994,0.0591396,2,9
-0.736282,0.25568,-0.151502,9,2
-1.14051,0.396273,0.105633,2,10
-0.669877,0.232751,-0.11232,11,3
-31.1965,10.8455,4.05532,13,11
-20.7083,7.20734,3.47285,16,12
-20.4798,7.13184,4.21535,24,13
-0.909076,0.316752,-0.0504519,3,6
-20.8026,7.25236,5.08614,25,14
-0.891193,0.310869,-0.0164751,2,7
-22.7757,7.94916,6.46375,17,15
-0.592085,0.207809,-0.144868,12,1
-1.11754,0.392233,0.0620705,4,9
-0.687224,0.241336,-0.14158,11,2
-25.8575,9.08559,2.39783,13,10
-0.639202,0.224723,-0.107314,13,3
-21.507,7.56536,2.79934,71,11
-20.8693,7.34516,3.50413,22,12
-0.870236,0.3068,-0.0483584,4,6
-24.3723,8.5972,5.9666,45,14
-0.939133,0.331274,-0.0173826,1,7
-22.6257,7.98554,6.42907,35,15
-0.591392,0.209772,-0.144868,12,1
-1.1124,0.394795,0.0618611,9,9
-0.697477,0.247675,-0.14387,11,2
-25.8482,9.1838,2.39992,86,10
-0.645899,0.229486,-0.108566,12,3
-21.4836,7.6373,2.79958,21,11
-21.3498,7.59812,3.58923,12,12
-20.8438,7.42215,4.30084,16,13
-0.839111,0.298959,-0.0466837,5,6
-32.681,11.65,8.01006,11,14
-0.896535,0.319771,-0.0166147,2,7
-22.9671,8.19628,6.53415,21,15
-0.590657,0.211835,-0.144868,12,1
-1.1374,0.407922,0.0633265,13,9
-0.678173,0.243355,-0.140054,11,2
-20.6121,7.40049,1.91603,26,10
-20.0558,7.20866,2.61678,67,11
-21.252,7.6428,3.57703,4,12
-0.828626,0.29816,-0.0770457,4,5
-20.5075,7.38315,4.23672,24,13
-0.954565,0.343853,-0.0531733,2,6
-19.3047,6.95772,4.73747,8,14
-0.936857,0.337659,-0.0173826,1,7
-27.6756,9.98022,7.88311,28,15
-0.611937,0.22176,-0.150267,12,1
-1.13973,0.413251,0.0635359,19,9
-0.681011,0.24706,-0.140817,11,2
-21.0468,7.63963,1.95891,32,10
-20.2557,7.35645,2.64603,25,11
-21.1379,7.68522,3.56233,6,12
-0.857538,0.311948,-0.0798347,3,5
-20.4183,7.42762,4.22337,11,13
-0.867086,0.315594,-0.0483584,4,6
-19.4261,7.07438,4.77301,20,14
-0.920642,0.33545,-0.0171034,1,7
-29.5391,10.7689,8.42456,13,15
-0.611159,0.223894,-0.150267,12,1
-1.15336,0.422525,0.0643732,11,9
-0.665441,0.243912,-0.137764,12,2
