x, y, z, intensity, ring
-0.580019,0.0597344,-0.113341,16,2
-0.590555,0.0613403,-0.0519448,10,5
-0.576338,0.0609824,-0.155291,12,0
-0.611053,0.0649791,-0.119446,15,2
-0.606197,0.0649977,-0.0533393,10,5
-0.537724,0.0587004,-0.144939,14,0
-0.57961,0.0635799,-0.113341,16,2
-0.590135,0.0652557,-0.0519448,10,5
-0.57591,0.0649038,-0.155291,12,0
-0.579384,0.0656028,-0.113341,16,2
-0.601781,0.0686706,-0.0529907,10,5
-0.57568,0.0669138,-0.155291,12,0
-0.618152,0.0721785,-0.120973,15,2
-0.605495,0.0712364,-0.0533393,10,5
-0.629591,0.075743,-0.123263,15,2
-0.628978,0.0762259,-0.0554311,9,5
-0.575211,0.0708308,-0.155291,12,0
-0.633234,0.0783123,-0.124026,14,2
-0.628722,0.0783113,-0.0554311,9,5
-0.57496,0.0728383,-0.155291,12,0
-0.601795,0.0765581,-0.11792,16,2
-0.604729,0.0774677,-0.0533393,10,5
-0.574702,0.0748448,-0.155291,12,0
-0.601525,0.0786582,-0.11792,16,2
-0.549146,0.0722964,-0.0484586,11,5
-1.56881,0.206816,0.307584,1,13
-1.29078,0.17108,0.348888,1,15
-0.574438,0.0768504,-0.155291,12,0
-0.527283,0.0707293,-0.122823,15,1
-0.616813,0.0828482,-0.120973,15,2
-0.612072,0.0827552,-0.0540366,10,5
-1.56808,0.212291,0.307584,1,13
-1.35526,0.184443,0.366488,1,15
-0.616534,0.0848932,-0.120973,15,2
-0.611779,0.0848913,-0.0540366,10,5
-1.54209,0.213982,0.302623,2,13
-1.31637,0.183599,0.356135,1,15
-0.573887,0.0808587,-0.155291,12,0
-0.616219,0.0871524,-0.120973,15,2
-0.611479,0.0870263,-0.0540366,10,5
-1.55101,0.221017,0.304531,2,13
-1.33485,0.190928,0.361311,1,15
-0.608139,0.088176,-0.119446,15,2
-0.603285,0.0880098,-0.0533393,10,5
-1.55217,0.226714,0.304913,2,13
-1.29977,0.190542,0.351994,1,15
-0.573323,0.0847632,-0.155291,12,0
-0.600076,0.0890396,-0.11792,16,2
-0.669989,0.100011,-0.0592659,8,5
-1.52617,0.228087,0.299952,2,13
-1.30104,0.195138,0.352512,1,15
-0.573039,0.086664,-0.155291,12,0
-0.607541,0.0922073,-0.119446,15,2
-0.626323,0.095617,-0.0554311,9,5
-1.52152,0.232554,0.299189,1,13
-1.30035,0.199678,0.352512,1,15
-0.572733,0.0886639,-0.155291,12,0
-0.576176,0.0895057,-0.113341,16,2
-0.625986,0.0978028,-0.0554311,9,5
-1.53622,0.240291,0.302241,1,13
-1.29964,0.204216,0.352512,1,15
-0.57242,0.0906624,-0.155291,12,0
-0.622394,0.0989116,-0.122499,15,2
-0.62564,0.0999874,-0.0554311,9,5
-1.53537,0.245651,0.302241,1,13
-1.29896,0.208525,0.352512,1,15
-0.5721,0.09266,-0.155291,12,0
-0.606542,0.0985643,-0.119446,15,2
-0.625288,0.102171,-0.0554311,9,5
-1.29822,0.213057,0.352512,1,15
-0.57179,0.0945567,-0.155291,12,0
-0.563298,0.0933542,-0.131821,14,1
-0.621706,0.103146,-0.122499,15,2
-0.628876,0.104899,-0.0557797,9,5
-1.31271,0.220144,0.356653,1,15
-0.571456,0.096552,-0.155291,12,0
-0.52454,0.0888135,-0.122823,15,1
-0.6136,0.104003,-0.120973,15,2
-0.628506,0.107094,-0.0557797,9,5
-0.571116,0.0985461,-0.155291,12,0
-0.574154,0.0992768,-0.134521,14,1
-0.628709,0.108823,-0.124026,14,2
-0.667386,0.116117,-0.0592659,8,5
-0.570768,0.100539,-0.155291,12,0
-0.569983,0.100503,-0.133621,14,1
-0.608992,0.107601,-0.12021,15,2
-0.608126,0.107995,-0.0540366,10,5
-0.570432,0.102431,-0.155291,12,0
-0.584972,0.105253,-0.13722,13,1
-0.620225,0.111708,-0.122499,15,2
-0.66658,0.120658,-0.0592659,8,5
-0.570071,0.104422,-0.155291,12,0
-0.576934,0.105887,-0.135421,13,1
-0.631417,0.116001,-0.124789,14,2
-0.666155,0.122983,-0.0592659,8,5
-0.569703,0.106411,-0.155291,12,0
-0.553575,0.103599,-0.130022,14,1
-0.634868,0.118927,-0.125552,14,2
-0.665722,0.125308,-0.0592659,8,5
-0.569328,0.108399,-0.155291,12,0
-0.572372,0.109082,-0.134521,14,1
-0.592024,0.113042,-0.117157,16,2
-0.606579,0.11637,-0.0540366,10,5
-0.568965,0.110287,-0.155291,12,0
-0.560509,0.10885,-0.131821,14,1
-0.610917,0.11875,-0.120973,15,2
-0.60619,0.118381,-0.0540366,10,5
-0.568577,0.112272,-0.155291,12,0
-0.571616,0.112976,-0.134521,14,1
-0.622054,0.12317,-0.123263,15,2
-0.609681,0.121273,-0.0543852,9,5
-0.568201,0.114157,-0.155291,12,0
-0.548293,0.110356,-0.129122,14,1
-0.610095,0.122906,-0.120973,15,2
-0.589748,0.119342,-0.0526421,10,5
-0.567799,0.116139,-0.155291,12,0
-0.601358,0.123222,-0.141719,13,1
-0.609662,0.125035,-0.120973,15,2
-0.597133,0.123008,-0.0533393,20,5
-0.567391,0.118121,-0.155291,12,0
-0.578032,0.120547,-0.13632,13,1
-0.647659,0.135185,-0.128605,14,2
-0.58305,0.12223,-0.0521191,21,5
-1.20801,0.254127,0.330771,1,15
-0.566975,0.120101,-0.155291,12,0
-0.577629,0.122463,-0.13632,13,1
-0.565083,0.120524,-0.0505503,32,5
-0.941467,0.200974,-0.0504519,3,6
-1.158,0.247831,0.317312,1,15
-0.567674,0.122424,-0.134071,14,1
-0.665914,0.143732,-0.132421,13,2
-0.549103,0.119021,-0.0491558,33,5
-0.991506,0.215277,-0.0531733,2,6
-1.17605,0.255775,0.322489,1,15
-0.601529,0.131814,-0.142169,13,1
-0.572032,0.126083,-0.0512476,21,5
-0.979085,0.215983,-0.0525453,2,6
-1.20533,0.266554,0.330771,1,15
-0.585848,0.130523,-0.13857,13,1
-0.567722,0.127109,-0.050899,21,5
-0.98612,0.221147,-0.052964,2,6
-1.26282,0.283895,0.346818,2,15
-0.565287,0.127808,-0.155291,12,0
-0.581588,0.131707,-0.13767,13,1
-0.569218,0.129532,-0.0510733,21,5
-1.00482,0.229026,-0.0540107,2,6
-1.28819,0.294325,0.354064,7,15
-0.564838,0.12978,-0.155291,12,0
-0.588721,0.135484,-0.13947,13,1
-0.570703,0.131967,-0.0512476,21,5
-1.01958,0.236137,-0.0548481,2,6
-1.2492,0.28932,0.296036,1,14
-1.2778,0.296413,0.351476,11,15
-0.595859,0.139209,-0.141269,13,1
-0.578021,0.13568,-0.0519448,10,5
-1.06264,0.249632,0.21218,1,13
-0.983791,0.23129,-0.052964,2,6
-1.15339,0.271162,0.27354,1,14
-1.28245,0.301977,0.353029,9,15
-0.565055,0.13399,-0.134071,14,1
-0.59695,0.142213,-0.0536879,10,5
-1.06181,0.253154,0.21218,1,13
-0.990789,0.236405,-0.0533827,2,6
-1.17518,0.280617,0.278939,1,14
-1.30023,0.310718,0.358206,4,15
-0.515347,0.124009,-0.122373,15,1
-0.642926,0.15554,-0.0578714,9,5
-1.06096,0.256674,0.21218,1,13
-0.982235,0.237809,-0.052964,2,6
-1.15909,0.280842,0.27534,1,14
-25.5228,6.19348,7.03729,17,15
-0.563043,0.137359,-0.155291,12,0
-0.757108,0.185123,-0.151502,9,2
-0.636602,0.156247,-0.0573485,18,5
-0.93485,0.229794,-0.0504519,3,6
-1.25461,0.308627,0.298285,4,14
-25.486,6.27883,7.03315,17,15
-0.56256,0.139324,-0.155291,12,0
-0.661186,0.164117,-0.132421,13,2
-0.645719,0.160876,-0.05822,17,5
-1.10867,0.276423,0.222102,1,13
-1.00381,0.250463,-0.0542201,2,6
-1.27054,0.317253,0.302334,10,14
-25.344,6.33776,7.00002,42,15
-0.618726,0.155872,-0.124026,14,2
-0.631272,0.159502,-0.0799463,11,4
-1.07059,0.270503,0.174894,1,12
-0.643222,0.162641,-0.0580457,17,5
-1.05822,0.26777,0.21218,1,13
-0.933223,0.236315,-0.0504519,3,6
-1.2751,0.323122,0.303684,11,14
-16.7783,4.25491,4.63804,8,15
-0.660024,0.168729,-0.132421,13,2
-0.599971,0.153712,-0.0760465,11,4
-0.64265,0.164885,-0.0580457,17,5
-1.05732,0.271278,0.21218,1,13
-1.29855,0.333653,0.309533,9,14
-16.6997,4.29708,4.62044,15,15
-0.561095,0.145109,-0.155291,12,0
-0.701777,0.181753,-0.167364,9,1
-0.632854,0.164021,-0.127079,14,2
-0.564849,0.146816,-0.0716592,12,4
-1.09544,0.284933,0.179274,1,12
-0.663311,0.172532,-0.0599631,16,5
-1.24636,0.324421,0.250341,1,13
-1.29361,0.337201,0.308633,2,14
-16.2379,4.23872,4.49672,12,15
-0.685442,0.180206,-0.137764,12,2
-0.57585,0.151823,-0.0731216,12,4
-1.09062,0.287747,0.178648,1,12
-0.654999,0.172814,-0.0592659,17,5
-1.17689,0.310727,0.236603,1,13
-22.7625,6.01836,5.43572,6,14
-16.3369,4.32555,4.5283,37,15
-0.700491,0.186648,-0.167364,9,1
-0.658251,0.175516,-0.132421,13,2
-0.590686,0.157832,-0.0750715,12,4
-1.06676,0.285239,0.174894,1,12
-0.646693,0.173039,-0.0585687,8,5
-1.19666,0.320419,0.240801,2,13
-16.7698,4.49344,4.00818,13,14
-16.1993,4.34665,4.49413,15,15
-0.624614,0.168651,-0.149367,12,1
-0.62355,0.16848,-0.125552,14,2
-0.586327,0.158752,-0.074584,12,4
-1.05055,0.284642,0.172391,1,12
-0.696112,0.188738,-0.0631008,7,5
-1.21833,0.330555,0.24538,7,13
-16.766,4.55209,4.01088,22,14
-0.933994,0.253761,-0.0168939,2,7
-16.1755,4.39781,4.49155,16,15
-0.592097,0.161979,-0.141719,13,1
-0.657073,0.179878,-0.132421,13,2
-0.627883,0.172358,-0.0799463,11,4
-1.09527,0.300865,0.1799,1,12
-0.726222,0.199489,-0.0658897,6,5
-1.2248,0.336675,0.246907,12,13
-16.6392,4.58008,3.98433,24,14
-16.635,4.58515,4.62354,15,15
-0.599039,0.166128,-0.143519,12,1
-0.622389,0.172721,-0.125552,14,2
-0.581379,0.161777,-0.0740966,12,4
-1.09802,0.305746,0.180525,1,12
-1.25198,0.348853,0.252631,12,13
-16.6813,4.65436,3.99828,30,14
-16.3863,4.57821,4.55884,16,15
-0.594703,0.167164,-0.142619,26,1
-0.626665,0.176738,-0.0799463,11,4
-1.08939,0.307241,0.179274,1,12
-1.26776,0.358023,0.256066,5,13
-16.6256,4.70143,3.98883,22,14
-16.4268,4.64831,4.57437,30,15
-0.59602,0.169668,-0.143069,25,1
-1.1453,0.327327,0.18866,2,12
-16.6617,4.76506,3.36854,37,13
-16.8815,4.83433,4.05407,92,14
-16.2767,4.66728,4.5371,27,15
-0.604786,0.174448,-0.145318,12,1
-1.18589,0.34341,0.195543,5,12
-16.6355,4.82046,3.36663,41,13
-16.9581,4.92038,4.07656,23,14
-17.1137,4.97199,4.77521,18,15
-0.587339,0.171639,-0.141269,26,1
-0.748084,0.218755,-0.151502,9,2
-1.19985,0.351996,0.198046,11,12
-16.6941,4.907,4.01718,38,14
-0.928522,0.273103,-0.0168939,2,7
-17.0295,5.01206,4.75658,9,15
-0.956855,0.28307,0.0174175,1,8
-0.609159,0.180326,-0.146668,24,1
-0.679549,0.201292,-0.137764,12,2
-0.624168,0.185361,-0.0799463,11,4
-1.20625,0.358223,0.199298,11,12
-16.2232,4.82401,3.28993,12,13
-16.6544,4.95857,4.01178,22,14
-0.927612,0.276181,-0.0168939,2,7
-16.737,4.98632,4.67945,18,15
-0.955911,0.286242,0.0174175,1,8
-0.619759,0.185701,-0.149367,24,1
-1.20154,0.360936,0.154043,2,11
-0.593133,0.178287,-0.0760465,11,4
-1.21445,0.365276,0.200862,11,12
-16.7181,5.03795,4.03112,38,14
-16.6788,5.03244,4.66806,33,15
-0.954906,0.289577,0.0174175,1,8
-0.602324,0.18277,-0.145318,25,1
-1.1433,0.347796,0.146731,2,11
-0.567819,0.172841,-0.0728779,37,4
-19.5723,5.95772,3.24038,14,12
-16.2651,4.95722,3.30519,32,13
-0.92571,0.282488,-0.0168939,2,7
-0.953941,0.292742,0.0174175,1,8
-0.609166,0.187055,-0.147118,24,1
-0.744997,0.229049,-0.151502,9,2
-1.11937,0.344577,0.143806,4,11
-0.5957,0.183489,-0.076534,11,4
-19.5136,6.01436,3.23413,29,12
-16.1229,4.97237,3.27963,12,13
-0.919874,0.283869,-0.0504519,3,6
-15.542,4.79918,3.75533,32,14
-0.924718,0.285718,-0.0168939,2,7
-0.903213,0.280801,0.01651,2,8
-0.591729,0.184077,-0.143069,25,1
-0.556738,0.173298,-0.113341,16,2
-1.14842,0.358133,0.147706,10,11
-19.5623,6.10422,3.2457,19,12
-16.2057,5.06304,3.30023,9,13
-15.5318,4.85844,3.75713,42,14
-0.923715,0.288944,-0.0168939,2,7
-0.902277,0.283794,0.01651,2,8
-0.574386,0.180773,-0.13902,26,1
-1.07063,0.337156,0.0588256,1,9
-0.743379,0.234244,-0.151502,9,2
-0.617936,0.194834,-0.102621,14,3
-1.17562,0.370898,0.151362,18,11
-22.6112,7.1423,3.75568,15,12
-16.5146,5.2197,3.36663,33,13
-15.798,4.99928,3.82552,34,14
-0.922701,0.292166,-0.0168939,2,7
-14.9098,4.72394,4.1908,2,15
-0.950823,0.302715,0.0174175,1,8
-0.599746,0.191058,-0.145318,12,1
-0.742598,0.236708,-0.151502,9,2
-1.16169,0.370518,0.106679,1,10
-0.711345,0.227019,-0.118264,10,3
-1.19323,0.381038,0.153799,20,11
-16.0475,5.13375,3.27505,33,13
-15.5011,4.96193,3.75758,12,14
-0.921727,0.295225,-0.0168939,2,7
-0.949814,0.305866,0.0174175,1,8
-0.632496,0.203803,-0.153417,11,1
-1.05047,0.338888,0.0965686,1,10
-1.19763,0.386823,0.15453,8,11
-15.9827,5.16534,2.66032,12,12
-16.8074,5.43836,3.4338,26,13
-16.1427,5.2264,3.9173,39,14
-0.882696,0.285954,-0.0161958,2,7
-0.948794,0.309014,0.0174175,1,8
-0.616994,0.201069,-0.149817,12,1
-0.741012,0.241628,-0.151502,9,2
-1.0645,0.347314,0.0979631,1,10
-0.683534,0.223149,-0.113884,11,3
-17.0431,5.56725,2.20145,28,11
-15.9908,5.2297,2.66471,22,12
-16.7333,5.47575,3.42235,41,13
-0.914885,0.299561,-0.0504519,3,6
-16.0595,5.26148,3.90155,15,14
-0.919696,0.301492,-0.0168939,2,7
-0.94771,0.312324,0.0174175,1,8
-0.627393,0.206883,-0.152517,11,1
-0.695419,0.229449,-0.142344,11,2
-1.09544,0.361646,0.100926,5,10
-0.690254,0.228012,-0.115136,11,3
-19.4192,6.41851,2.51124,22,11
-15.9462,5.2768,2.66032,26,12
-16.7663,5.55141,3.43304,48,13
-15.9967,5.30279,3.89075,44,14
-0.918638,0.3047,-0.0168939,2,7
-0.946614,0.315631,0.0174175,1,8
-0.608181,0.202905,-0.148018,12,1
-0.690889,0.230632,-0.14158,11,2
-1.13764,0.379985,0.104936,12,10
-0.708189,0.236682,-0.118264,10,3
-16.2018,5.41791,2.09762,18,11
-16.7941,5.61923,2.80487,8,12
-16.7617,5.61489,3.43609,26,13
-16.0501,5.38276,3.9083,21,14
-0.872121,0.292485,-0.0160562,2,7
-0.633356,0.21364,-0.154316,11,1
-1.06352,0.358947,0.0588256,1,9
-0.69008,0.233042,-0.14158,11,2
-1.1514,0.389057,0.10633,16,10
-0.643771,0.217529,-0.107627,12,3
-16.5223,5.58605,2.14149,50,11
-19.4426,6.58095,3.25102,38,12
-16.8676,5.71264,3.46166,22,13
-0.817172,0.276915,-0.0452183,6,6
-15.8919,5.3884,3.87411,42,14
-0.916543,0.310946,-0.0168939,2,7
-16.2664,5.52169,4.60284,13,15
-0.636295,0.217109,-0.155216,11,1
-1.03202,0.352332,0.0571509,1,9
-0.670724,0.228986,-0.137764,12,2
-1.15199,0.393517,0.106504,13,10
-0.63927,0.218497,-0.107001,13,3
-16.0218,5.47925,2.07909,27,11
-19.4326,6.65325,3.25321,28,12
-0.978684,0.33546,-0.0542201,2,6
-15.8288,5.42867,3.86331,36,14
-0.885189,0.303759,-0.0163355,2,7
-16.2434,5.57719,4.6018,2,15
-0.595007,0.205342,-0.145318,12,1
-1.08553,0.374838,0.0601864,2,9
-0.681055,0.235171,-0.140054,11,2
-1.1299,0.390379,0.104587,2,10
-0.642237,0.222018,-0.107627,12,3
-15.9632,5.52152,2.07397,36,11
-16.0904,5.57178,2.69693,33,12
-24.0769,8.34207,4.95302,32,13
-0.871831,0.302239,-0.0483584,4,6
-15.1874,5.26803,3.71124,42,14
-0.876567,0.304224,-0.0161958,2,7
-0.594287,0.207418,-0.145318,12,1
-1.11822,0.390282,0.0620705,4,9
-0.68023,0.237547,-0.140054,11,2
-19.3975,6.77771,1.79767,23,10
-0.611623,0.213828,-0.102621,14,3
-16.1218,5.63947,2.09713,49,11
-14.1999,4.96993,2.38281,42,12
-24.068,8.4332,4.95722,3,13
-0.836844,0.293387,-0.0464743,5,6
-15.7758,5.53388,3.85971,36,14
-0.913293,0.320367,-0.0168939,2,7
-0.575218,0.202905,-0.140819,13,1
-1.1112,0.392189,0.0617564,10,9
-0.697909,0.246457,-0.14387,11,2
-15.1094,5.33863,1.40199,71,10
-16.6589,5.88942,2.16952,37,11
-14.283,5.05506,2.3997,38,12
-15.7194,5.56652,3.24146,9,13
-0.877284,0.310835,-0.0487771,4,6
-15.6839,5.56012,3.84171,36,14
-0.912169,0.323554,-0.0168939,2,7
-0.647925,0.231098,-0.158815,10,1
-1.12118,0.399897,0.0623845,14,9
-0.671201,0.239532,-0.138527,12,2
-15.0709,5.38134,1.40007,84,10
-14.8157,5.29605,1.93187,8,11
-14.2178,5.0851,2.39157,12,12
-23.7124,8.49028,4.89578,18,13
-0.857391,0.307159,-0.0477304,5,6
-15.613,5.59642,3.82912,21,14
-0.896031,0.321179,-0.0166147,2,7
-0.683822,0.246461,-0.167813,9,1
-1.13105,0.407874,0.0630125,18,9
-0.688828,0.248537,-0.142344,11,2
-14.8597,5.3674,1.93992,49,11
-0.895551,0.324008,-0.0833209,2,5
-15.6719,5.67005,3.23956,12,13
-0.905196,0.327676,-0.0504519,3,6
-15.8747,5.7497,3.89795,31,14
-0.917466,0.33248,-0.0170335,4,7
-1.15589,0.421397,0.0644779,12,9
-0.676933,0.246785,-0.140054,11,2
-24.4227,8.90845,2.27442,24,10
-14.8297,5.41515,1.93845,37,11
-14.1782,5.18288,2.39094,56,12
-0.845819,0.309191,-0.0787888,3,5
-15.7202,5.74967,3.25367,9,13
-0.904046,0.330834,-0.0504519,3,6
-15.5142,5.68045,3.81427,27,14
-0.92381,0.338432,-0.0171732,3,7
-1.0415,0.383404,0.0193722,1,8
-15.6746,5.77644,0.875476,4,9
-0.672383,0.247789,-0.139291,24,2
-16.069,5.92499,1.49838,26,10
-14.8703,5.48888,1.94625,16,11
-0.797003,0.294346,-0.10432,5,4
-14.1508,5.22892,2.38938,50,12
-0.893325,0.330097,-0.0833209,2,5
-0.917872,0.339531,-0.0512892,2,6
-15.4175,5.70616,3.79537,45,14
-0.948877,0.351377,-0.0176618,3,7
-15.4305,5.71709,4.40924,2,15
-1.05515,0.392616,0.0196514,5,8
-15.6992,5.84785,0.877988,11,9
-0.660475,0.246022,-0.137001,24,2
-24.7893,9.23876,2.31451,12,10
-15.6954,5.85578,2.05691,35,11
-0.795971,0.297126,-0.10432,5,4
-14.0677,5.25409,2.37843,65,12
-0.84364,0.315088,-0.0787888,3,5
-0.879265,0.328744,-0.0491958,4,6
-0.943899,0.353285,-0.017592,3,7
-15.4701,5.79327,4.42632,16,15
-1.08934,0.409672,0.0203146,11,8
-15.7367,5.92443,0.881233,36,9
-0.66145,0.249018,-0.137382,24,2
-15.7402,5.92888,1.47154,18,10
-15.2105,5.73544,1.99598,42,11
-0.794929,0.299903,-0.10432,5,4
-14.2396,5.37501,2.41066,50,12
-0.797798,0.301144,-0.0746053,4,5
-15.6977,5.92854,3.26169,22,13
-0.908006,0.343107,-0.0508706,3,6
-21.3215,8.06097,5.26251,27,14
-0.965104,0.365067,-0.0180109,1,7
-15.4353,5.84176,4.42218,42,15
-1.09725,0.417023,0.0204891,12,8
-15.8738,6.03621,0.890025,25,9
-0.666081,0.25342,-0.138527,24,2
-15.6356,5.95189,1.46369,34,10
-15.324,5.8394,2.01353,8,11
-0.793877,0.302676,-0.10432,5,4
-14.4229,5.49891,2.44476,50,12
-0.826527,0.315289,-0.0773943,3,5
-0.917997,0.350549,-0.0514986,2,6
-15.7628,6.0224,3.8957,47,14
-0.982568,0.375403,-0.0183599,1,7
-15.562,5.94879,4.46411,13,15
-1.08839,0.417793,0.0203495,7,8
-16.0241,6.15749,0.899655,36,9
-0.679853,0.261379,-0.14158,11,2
-14.8188,5.70028,1.38909,100,10
-15.0266,5.78323,1.97696,21,11
-0.792869,0.305307,-0.10432,5,4
-14.3409,5.52508,2.43412,14,12
-0.832858,0.321039,-0.0780915,3,5
-21.3431,8.22708,4.44623,25,13
-0.928011,0.357903,-0.0521266,2,6
-1.08945,0.420602,-0.0203844,1,7
-15.5466,6.00517,4.46566,33,15
-15.0119,5.82271,0.281054,13,8
-18.804,7.29736,1.05708,15,9
-0.708265,0.275002,-0.147686,10,2
-14.8555,5.77103,1.39432,93,10
-15.0304,5.845,1.98013,25,11
-0.791852,0.307934,-0.10432,5,4
-0.831788,0.323799,-0.0780915,3,5
-15.7987,6.15329,3.29565,16,13
-0.917451,0.357515,-0.0516033,5,6
-14.9509,5.82609,3.70449,40,14
-1.08805,0.424213,-0.0203844,4,7
-15.7228,6.13321,4.52209,27,15
-15.2792,5.98478,0.286429,13,8
-16.0257,6.2804,0.902063,9,9
-0.703693,0.275916,-0.146923,10,2
-14.8716,5.83409,1.39763,34,10
-15.0811,5.92238,1.9894,21,11
-0.790827,0.310559,-0.10432,5,4
-14.4345,5.67136,2.45633,54,12
-0.860378,0.338218,-0.0808805,3,5
-14.9268,5.87079,3.11782,11,13
-0.925553,0.364212,-0.0521266,4,6
-14.9768,5.89348,3.71574,15,14
-1.07547,0.423423,-0.020175,10,7
-15.3267,6.03734,4.4139,15,15
-15.2704,6.03983,0.286638,8,8
-0.662616,0.262348,-0.138527,12,2
-14.9021,5.90319,1.40234,96,10
-14.864,5.89406,1.96332,34,11
-0.837771,0.332204,-0.110657,3,4
-14.4762,5.74323,2.46666,27,12
-0.851845,0.338129,-0.0801833,3,5
-20.6658,8.20719,4.32221,19,13
-0.954038,0.379079,-0.0538014,4,6
-14.8576,5.90353,3.691,40,14
-1.08521,0.43142,-0.0203844,16,7
-15.3856,6.11955,4.43668,16,15
-15.9802,6.3819,0.300356,19,8
-19.1941,7.66934,1.08325,22,9
-0.70914,0.283492,-0.148449,20,2
-15.0175,6.00658,1.41506,15,10
-15.0268,6.01637,1.98745,8,11
-0.78875,0.315797,-0.10432,5,4
-0.858116,0.343917,-0.0808805,3,5
-15.6036,6.25681,3.2678,12,13
-0.975019,0.391165,-0.0550574,6,6
-14.6534,5.87876,3.64511,49,14
-1.08749,0.436506,-0.0204542,13,7
-15.3114,6.14893,4.42115,11,15
-15.8335,6.38752,0.298017,14,8
-19.0789,7.70448,1.07833,21,9
-0.693582,0.280085,-0.145396,10,2
-14.8099,5.98359,1.39746,12,10
-15.083,6.10004,1.99768,21,11
-0.82439,0.333577,-0.109195,4,4
-14.2673,5.77595,2.43788,55,12
-0.858757,0.347658,-0.0810548,5,5
-0.981052,0.397566,-0.0554761,6,6
-14.621,5.92803,3.64241,40,14
-15.1338,6.13903,-0.285068,86,7
-20.9417,8.49929,6.05585,18,15
-16.3204,6.65026,0.307616,18,8
-15.8007,6.44494,0.894317,53,9
-0.6926,0.282504,-0.145396,10,2
-15.7703,6.43574,1.49019,6,10
-15.0984,6.16767,2.00256,46,11
-0.823221,0.336453,-0.109195,4,4
-14.077,5.75619,2.40878,60,12
-0.890734,0.364227,-0.0841924,4,5
-1.00554,0.411581,-0.0569415,4,6
-14.5912,5.97534,3.64016,47,14
-15.3417,6.28583,-0.289396,39,7
-15.2187,6.23856,4.40717,35,15
-15.8866,6.53824,0.299867,15,8
-15.8144,6.51175,0.896306,11,9
-0.709763,0.292398,-0.149213,10,2
-14.7438,6.07696,1.39519,65,10
-15.2125,6.27636,2.02059,48,11
-0.814701,0.336295,-0.10822,4,4
-13.9885,5.7742,2.39689,58,12
-0.900506,0.371898,-0.0852383,3,5
-15.4756,6.39438,3.25482,32,13
-1.03732,0.428822,-0.0588256,10,6
-14.3901,5.95176,3.59517,26,14
-15.3466,6.34737,-0.289884,63,7
-15.1069,6.25132,4.38077,23,15
-15.2351,6.32927,0.287965,21,8
-15.7952,6.56844,0.896515,15,9
-0.697862,0.290349,-0.146923,10,2
-14.7078,6.12226,1.39379,50,10
-15.0707,6.2764,2.00451,4,11
-0.806252,0.335941,-0.107245,4,4
-14.0521,5.85796,2.41128,55,12
-0.934141,0.389611,-0.0885502,2,5
-17.3931,7.2543,3.66315,33,13
-1.06169,0.443028,-0.060291,20,6
-14.3613,5.99569,3.59292,14,14
-12.003,5.01359,-0.227056,100,7
-14.9781,6.25932,4.34971,10,15
-15.2221,6.38628,0.288139,14,8
-15.7501,6.61426,0.895259,33,9
-0.704136,0.295702,-0.148449,10,2
-14.6195,6.14245,1.38735,33,10
-16.0075,6.73223,2.13223,4,11
-0.848988,0.35723,-0.113095,3,4
-14.3065,6.02271,2.45852,20,12
-0.929171,0.39116,-0.0882016,3,5
-20.1341,8.48015,4.24664,15,13
-1.06198,0.447507,-0.0603957,22,6
-14.3744,6.06017,3.60147,11,14
-17.0063,7.17323,-0.322171,45,7
-15.2181,6.44718,0.288488,16,8
-0.717559,0.30429,-0.151502,9,2
-14.6034,6.19577,1.38787,24,10
-0.778251,0.330348,-0.133908,6,3
-17.6612,7.50039,2.35598,20,11
-0.840428,0.357086,-0.11212,3,4
-14.549,6.18466,2.50389,35,12
-0.946136,0.402196,-0.0899447,5,5
-1.06593,0.453558,-0.0607097,8,6
-14.3424,6.10573,3.59877,26,14
-12.1646,5.18111,-0.230791,91,7
-15.0726,6.4228,4.39009,16,15
-15.9604,6.82743,0.303009,26,8
-15.7322,6.7331,0.896829,7,9
-14.5725,6.24279,1.387,69,10
-0.777093,0.333063,-0.133908,6,3
-15.4402,6.62085,2.06276,56,11
-0.842824,0.361583,-0.112607,3,4
-14.5356,6.23599,2.50514,23,12
-0.970358,0.416498,-0.0923851,5,5
-15.119,6.49249,3.19834,46,13
-11.8692,5.09941,-0.677018,26,6
-14.2011,6.10419,3.56862,33,14
-16.9717,7.29514,-0.322451,82,7
-15.0441,6.4697,4.38802,5,15
-15.9597,6.88983,0.303428,33,8
-15.7215,6.79352,0.897562,21,9
-0.775985,0.335638,-0.133908,6,3
-0.845264,0.365953,-0.113095,3,4
-1.01277,0.438896,-0.0965686,6,5
-15.0703,6.53088,3.19262,10,13
-11.9805,5.19435,-0.684345,65,6
-14.0288,6.08534,3.53038,29,14
-15.2585,6.62193,-0.290338,100,7
-15.0357,6.52833,4.39216,15,15
-15.9777,6.96388,0.30423,33,8
-18.7837,8.19079,1.07393,25,9
-15.3514,6.7005,1.46544,25,10
-0.774808,0.338344,-0.133908,6,3
-16.9191,7.39178,2.26701,24,11
-0.851322,0.371933,-0.11407,6,4
-14.9381,6.52941,2.58211,43,12
-1.03504,0.45263,-0.0988346,13,5
-15.6536,6.84864,3.32122,7,13
-11.9403,5.22653,-0.683089,91,6
-14.0639,6.15605,3.54433,13,14
-15.2291,6.66928,-0.290199,100,7
-16.5586,7.28249,0.315749,22,8
-18.6212,8.19351,1.06619,11,9
-15.2981,6.73771,1.46247,71,10
-0.809835,0.356842,-0.140165,5,3
-15.4723,6.82085,2.07617,67,11
-0.888229,0.39157,-0.119188,3,4
-15.1405,6.67776,2.6209,16,12
-1.02625,0.452842,-0.0981374,13,5
-15.5733,6.87514,3.30901,27,13
-14.0077,6.18691,3.53533,9,14
-20.9535,9.26344,6.13867,6,15
-16.103,7.14594,0.307511,65,8
-17.3056,7.68687,0.992395,2,9
-0.783377,0.348291,-0.135785,6,3
-16.3855,7.28842,2.20194,42,11
-0.917688,0.408389,-0.123332,4,4
-16.032,7.13792,2.77953,33,12
-1.03566,0.461105,-0.0991832,10,5
-15.5379,6.92115,3.30634,15,13
-19.8521,8.84701,-1.13904,4,6
-13.9754,6.231,3.53263,45,14
-27.2823,12.1697,-0.521443,54,7
-24.3435,10.8639,7.14289,9,15
-16.0286,7.18003,0.306569,73,8
-15.5246,6.964,1.48862,3,10
-0.773146,0.346979,-0.134221,13,3
-16.1734,7.26182,2.17683,37,11
-0.934365,0.419724,-0.125769,4,4
-15.6124,7.0165,2.71101,49,12
-1.02859,0.462267,-0.0986603,3,5
-13.4616,6.05271,2.869,19,13
-12.1782,5.47823,-0.699836,13,6
-27.298,12.2911,-0.52256,43,7
-22.9086,10.3196,6.7324,11,15
-16.5228,7.47074,0.316517,20,8
-16.8362,7.61598,0.968425,9,9
-16.4004,7.42577,1.57508,3,10
-0.793522,0.359457,-0.137975,12,3
-16.0539,7.27562,2.16416,64,11
-0.956397,0.43364,-0.128938,6,4
-14.9072,6.75908,2.59243,21,12
-12.1041,5.49067,-1.16283,25,5
-14.0053,6.35605,2.9896,7,13
-12.2791,5.5752,-0.706745,35,6
-17.6149,8.00159,4.46663,32,14
-21.1997,9.63001,-0.406432,25,7
-13.9856,6.35591,4.11626,13,15
-16.6271,7.58441,0.318995,9,8
-16.6296,7.59258,0.958062,13,9
-15.5155,7.09044,1.49245,39,10
-0.786936,0.359623,-0.137037,12,3
-16.4341,7.51371,2.21875,19,11
-0.994669,0.454975,-0.1343,12,4
-14.8853,6.8119,2.59275,36,12
-12.7551,5.83976,-1.22733,27,5
-14.052,6.43351,3.0041,30,13
-12.177,5.57763,-0.70193,74,6
-17.5174,8.02749,4.44863,42,14
-26.0794,11.9566,-0.500779,51,7
-13.9703,6.40791,4.11833,24,15
-15.1873,6.99181,0.291839,81,8
-17.1418,7.89883,0.98915,5,9
-14.4804,6.67557,1.39501,50,10
-0.791057,0.36485,-0.137975,12,3
-17.4081,8.03263,2.35403,10,11
-1.0111,0.466764,-0.136737,29,4
-14.8525,6.85967,2.59118,12,12
-12.6471,5.84109,-1.21879,22,5
-13.919,6.43146,2.98044,23,13
-12.1157,5.60083,-0.699522,74,6
-17.2753,7.98961,4.39419,22,14
-15.8363,7.32746,-0.304579,76,7
-16.5407,7.65691,4.88392,9,15
-15.1411,7.03467,0.29142,81,8
-25.289,11.7602,1.46164,10,9
-0.798733,0.371777,-0.13954,11,3
-14.9272,6.95116,2.02181,17,11
-1.01306,0.471968,-0.137225,27,4
-14.5295,6.77211,2.53893,11,12
-12.6284,5.88604,-1.21896,27,5
-13.964,6.51154,2.99494,7,13
-12.0491,5.62113,-0.696801,29,6
-11.8402,5.52619,3.01659,31,14
-15.7599,7.359,-0.303602,30,7
-16.5174,7.71624,4.88495,18,15
-25.4178,11.9282,1.47148,23,9
-16.6752,7.829,1.61168,27,10
-0.801007,0.376242,-0.140165,16,3
-14.8723,6.98887,2.01767,26,11
-1.02758,0.483102,-0.139419,10,4
-14.2072,6.68238,2.48668,9,12
-13.0189,6.12343,-1.2587,20,5
-12.0203,5.6589,-0.696278,26,6
-13.2841,6.25668,3.39001,31,14
-15.1444,7.13609,-0.292223,46,7
-16.59,7.8208,4.91446,19,15
-17.1775,8.12712,0.3317,10,8
-24.2117,11.4655,1.40396,64,9
-17.2168,8.15672,1.66677,14,10
-0.828249,0.392573,-0.145171,17,3
-14.4676,6.86043,1.966,25,11
-1.01512,0.481581,-0.137956,11,4
-18.6042,8.82996,-1.80168,17,5
-13.6132,6.46403,2.9293,27,13
-13.0469,6.19789,-0.756987,32,6
-12.2026,5.79944,3.11917,19,14
-16.6324,7.91186,4.93516,17,15
-32.452,15.4927,0.627693,5,8
-16.471,7.8739,1.59722,16,10
-0.855386,0.409098,-0.150177,15,3
-14.4579,6.91774,1.96795,21,11
-1.02418,0.490264,-0.139419,12,4
-12.1124,5.79809,2.12688,73,12
-18.6182,8.91636,-1.80604,25,5
-13.7251,6.57597,2.9583,12,13
-15.0819,7.22929,-0.876523,48,6
-11.8361,5.676,3.03054,36,14
-17.1618,8.22992,-0.332224,81,7
-16.7715,8.04635,4.98434,19,15
-24.1215,11.6141,0.467306,43,8
-15.8656,7.64584,0.922997,2,9
-17.94,8.65324,1.74259,7,10
-0.857583,0.413649,-0.150803,15,3
-15.7578,7.60407,2.14831,4,11
-1.0297,0.49711,-0.140393,5,4
-12.0725,5.83088,2.12344,32,12
-16.0593,7.75992,-1.56044,13,5
-11.7874,5.70079,3.02289,42,14
-24.0938,11.6578,-0.467201,39,7
-16.8546,8.15872,5.01747,14,15
-35.2201,17.1096,0.683471,6,8
-15.9066,7.73071,0.92687,12,9
-0.700948,0.340816,-0.151502,9,2
-14.3638,6.98706,1.39746,21,10
-0.87212,0.42442,-0.153619,14,3
-18.5904,9.0511,-2.53878,11,4
-14.5003,7.06287,2.55457,45,12
-15.0538,7.33572,-1.46509,33,5
-12.9393,6.3109,-0.754475,19,6
-11.7264,5.71935,3.01209,46,14
-24.0676,11.7437,-0.467445,9,7
-16.7111,8.15778,4.98278,39,15
-18.3331,8.98131,0.356343,2,8
-15.8415,7.76408,0.924567,4,9
-0.653982,0.320666,-0.14158,11,2
-0.904401,0.443845,-0.159563,16,3
-16.0407,7.87563,-2.19414,19,4
-13.897,6.82613,2.45227,25,12
-15.0562,7.39878,-1.4677,6,5
-16.9877,8.35164,3.67956,28,13
-12.9684,6.37845,-0.757406,13,6
-11.6776,5.74358,3.00445,51,14
-16.028,7.88674,-0.311805,30,7
-16.2576,8.00326,4.85545,13,15
-1.43599,0.709712,0.0839469,1,9
-0.652915,0.322833,-0.14158,11,2
-1.4501,0.717315,0.141541,1,10
-0.945415,0.467869,-0.167072,21,3
-1.39829,0.692293,0.191579,1,11
-15.0325,7.44259,-2.05959,11,4
-12.925,6.4048,-1.26202,7,5
-13.2151,6.55142,2.8671,11,13
-12.9168,6.40633,-0.755627,6,6
-11.7807,5.84288,3.03594,23,14
-20.0551,9.95545,5.99943,17,15
-1.34823,0.671906,-0.347774,1,1
-1.41039,0.702889,0.0825861,2,9
-0.644813,0.321492,-0.140054,11,2
-1.40849,0.702555,0.137706,9,10
-0.947393,0.472766,-0.167698,21,3
-1.42085,0.709339,0.194991,16,11
-14.0547,7.01966,2.48825,33,12
-12.1343,6.06845,3.13222,55,14
-1.52725,0.764123,-0.0298087,1,7
-12.0028,6.00795,3.59655,40,15
-1.40441,0.705732,0.0274352,2,8
-1.41316,0.710746,0.0829002,12,9
-0.626148,0.314919,-0.136238,12,2
-1.40781,0.708363,0.13788,15,10
-0.951031,0.478735,-0.168636,17,3
-1.43078,0.720544,0.196697,12,11
-12.7986,6.45382,2.78619,15,13
-1.46579,0.739459,-0.0860403,1,6
-11.851,5.98118,3.06473,38,14
-1.41734,0.715637,-0.0277144,8,7
-19.7075,9.95498,5.91609,13,15
-1.37862,0.698508,-0.41411,1,0
-1.40016,0.709725,0.0274003,20,8
-1.4267,0.723807,0.0838422,18,9
-0.642553,0.325986,-0.140054,11,2
-1.4,0.710568,0.137357,9,10
-0.928218,0.471319,-0.164882,14,3
-1.42471,0.723736,0.19621,12,11
-1.39273,0.707797,-0.191822,4,4
-11.8435,6.02156,2.10436,79,12
-1.3995,0.711545,-0.137357,5,5
-12.5537,6.38541,2.73773,25,13
-1.40802,0.716492,-0.0827955,13,6
-11.7206,5.96681,3.03639,46,14
-1.40236,0.714227,-0.0274701,21,7
-12.1162,6.1735,3.64365,18,15
-1.35897,0.694524,-0.408934,1,0
-1.40835,0.720071,0.0276097,22,8
-1.40357,0.717936,-0.363971,1,1
-1.42252,0.727625,0.0837375,8,9
-0.648402,0.331804,-0.14158,11,2
-1.41525,0.72453,0.139101,12,10
-0.935358,0.479059,-0.166446,17,3
-1.42041,0.7278,0.195966,66,11
-1.40262,0.718992,-0.193529,12,4
-11.8077,6.05269,2.10154,62,12
-1.37751,0.706425,-0.13544,20,5
-12.5226,6.42471,2.73582,7,13
-1.37352,0.704986,-0.0809114,19,6
-11.542,5.92668,2.99545,61,14
-1.41243,0.725268,-0.0277144,11,7
-11.9101,6.11831,3.58775,29,15
-1.34967,0.695723,-0.406864,2,0
-1.39707,0.720156,0.0274352,10,8
-1.37694,0.710082,-0.357672,2,1
-1.40754,0.726176,0.0830048,15,9
-0.591413,0.305251,-0.129368,13,2
-0.949561,0.490315,-0.169262,17,3
-1.39494,0.720906,-0.192797,22,4
-11.432,5.91061,2.03834,85,12
-1.39627,0.722214,-0.137532,11,5
-1.39778,0.723305,-0.0824815,7,6
-11.9688,6.19607,3.11152,42,14
-1.39213,0.720997,-0.0273654,8,7
-11.8372,6.13318,3.57222,19,15
-1.35421,0.703758,-0.408934,2,0
-1.40697,0.731485,0.0276795,12,8
-0.471981,0.245488,-0.122823,15,1
-0.60433,0.31446,-0.132421,13,2
-1.40675,0.732307,0.138752,100,10
-0.960108,0.500013,-0.171452,19,3
-1.39078,0.72461,0.192554,100,11
-1.37657,0.717513,-0.190604,11,4
-11.3658,5.92673,2.03021,51,12
-1.39564,0.727761,-0.137706,5,5
-12.5604,6.55248,2.75376,23,13
-1.39171,0.726332,-0.0822721,7,6
-11.9505,6.23961,3.11242,40,14
-1.39493,0.72863,-0.0274701,13,7
-11.7797,6.15568,3.56135,19,15
-1.31924,0.691441,-0.399099,2,0
-1.37784,0.722463,0.0271559,39,8
-1.37885,0.723298,-0.359472,5,1
-1.39183,0.730416,0.0823768,100,9
-0.62409,0.327516,-0.137001,12,2
-1.38831,0.728877,0.137183,100,10
-0.958357,0.503362,-0.171452,21,3
-1.40054,0.735924,0.19426,100,11
-1.37406,0.722314,-0.190604,10,4
-11.4831,6.039,2.05492,45,12
-1.38251,0.727064,-0.13666,5,5
-12.5983,6.62828,2.76711,11,13
-1.39093,0.732116,-0.0823768,13,6
-11.9735,6.3049,3.12412,48,14
-11.7736,6.20486,3.56601,40,15
-1.33902,0.707779,-0.405828,2,0
-1.37001,0.724463,0.0270512,100,8
-1.39469,0.737829,0.0826908,100,9
-0.60212,0.318672,-0.132421,13,2
-1.38223,0.731854,0.136835,100,10
-0.960085,0.508553,-0.172078,26,3
-1.39621,0.739879,0.194016,100,11
-1.37503,0.728965,-0.191091,9,4
-11.388,6.03726,2.04147,85,12
-1.37116,0.727218,-0.135789,12,5
-12.9098,6.84981,2.84076,25,13
-12.096,6.42343,3.16191,13,14
-1.37934,0.732481,-0.0272607,100,7
-11.6796,6.2049,3.54375,31,15
-1.34677,0.717901,-0.408934,2,0
-1.37995,0.735587,0.0272956,100,8
-1.35842,0.724414,-0.355423,5,1
-1.39563,0.744573,0.0829002,100,9
-0.635644,0.33926,-0.140054,11,2
-1.38143,0.737613,0.137009,100,10
-0.946196,0.505221,-0.169888,29,3
-1.38499,0.739828,0.192797,100,11
-1.37786,0.736327,-0.191822,12,4
-11.4627,6.1282,2.05868,45,12
-16.6195,8.88888,3.66353,13,13
-1.34718,0.720836,-0.080074,100,6
-1.38382,0.741067,-0.0274003,100,7
-11.6953,6.2657,3.55514,43,15
-1.34949,0.725106,-0.410487,2,0
-1.37737,0.7404,0.0272956,100,8
-1.37896,0.74187,0.0820628,100,9
-0.586106,0.315322,-0.129368,13,2
-1.38424,0.745023,0.137532,100,10
-0.951383,0.512267,-0.171139,32,3
-1.37192,0.73901,0.191335,100,11
-1.3613,0.733599,-0.189872,42,4
-11.5647,6.23474,2.08089,89,12
-1.3539,0.729916,-0.134568,100,5
-12.7886,6.89745,2.82435,18,13
-1.35696,0.732173,-0.0808067,100,6
-12.0554,6.50747,3.16281,45,14
-1.38123,0.745893,-0.0274003,100,7
-11.7719,6.35974,3.58516,28,15
-1.3783,0.747109,0.0273654,100,8
-1.35675,0.735738,-0.356322,5,1
-1.37285,0.744774,0.0818534,100,9
-0.598807,0.324855,-0.132421,13,2
-1.38163,0.74985,0.137532,100,10
-0.951325,0.516527,-0.171452,34,3
-1.37805,0.748532,0.192554,100,11
-1.35525,0.736451,-0.189385,100,4
-11.706,6.36375,2.1103,33,12
-1.3636,0.741298,-0.135789,100,5
-12.7213,6.9186,2.81481,7,13
-1.36667,0.743587,-0.0815394,100,6
-12.1336,6.60448,3.18936,20,14
-1.36808,0.744972,-0.0271908,100,7
-11.7768,6.41559,3.59344,22,15
-1.31218,0.716911,-0.400652,2,0
-1.36164,0.744243,0.0270861,100,8
-1.36273,0.745144,-0.358572,5,1
-1.37738,0.753156,0.0822721,100,9
-0.597669,0.326943,-0.132421,13,2
-1.36677,0.747973,0.136312,100,10
-0.951249,0.520794,-0.171765,40,3
-1.38239,0.757152,0.193529,121,11
-1.3615,0.745709,-0.190604,100,4
-11.4734,6.28673,2.07213,85,12
-1.34353,0.736477,-0.134046,100,5
-1.37107,0.752196,-0.0819581,131,6
-12.3901,6.79746,3.26269,31,14
-1.3621,0.74758,-0.027121,100,7
-13.4184,7.36765,4.10176,18,15
-1.33349,0.734304,-0.407899,2,0
-1.35041,0.74393,0.0269116,100,8
-1.35683,0.747777,-0.357672,5,1
-1.37837,0.759647,0.0824815,100,9
-0.596582,0.328923,-0.132421,13,2
-1.36253,0.751539,0.136137,100,10
-0.93914,0.518219,-0.169888,53,3
-1.37988,0.761732,0.193529,100,11
-1.35207,0.746382,-0.189629,100,4
-11.2848,6.23211,2.04178,42,12
-1.35155,0.746709,-0.135091,100,5
-11.966,6.61375,2.65759,35,13
-1.36158,0.752873,-0.0815394,128,6
-12.2652,6.78193,3.2357,24,14
-1.36661,0.755965,-0.0272607,100,7
-12.9375,7.15955,3.962,18,15
-1.32598,0.73591,-0.406346,2,0
-1.35668,0.753257,0.0270861,100,8
-1.35094,0.75038,-0.356772,5,1
-1.37235,0.762274,0.0822721,100,9
-0.595488,0.3309,-0.132421,13,2
-1.36178,0.757021,0.136312,100,10
-0.933963,0.51941,-0.169262,65,3
-1.36173,0.757618,0.191335,100,11
-1.34599,0.749166,-0.189141,100,4
-11.2278,6.24932,2.03521,61,12
-1.34558,0.749248,-0.134743,100,5
-11.9217,6.64098,2.65263,45,13
-1.3521,0.753494,-0.0811207,125,6
-12.2278,6.81711,3.2321,74,14
-1.36759,0.76244,-0.0273305,100,7
-11.4543,6.38845,3.51425,45,15
-1.33015,0.744307,-0.408416,2,0
-1.35068,0.755799,0.0270163,100,8
-1.33314,0.746289,-0.352723,5,1
-1.36271,0.763156,0.0818534,100,9
-0.580627,0.3253,-0.129368,13,2
-1.36434,0.764692,0.136835,100,10
-0.930513,0.521539,-0.168949,53,3
-1.35921,0.762129,0.191335,100,11
-1.34696,0.755568,-0.189629,100,4
-1.34643,0.755891,-0.135091,100,5
-12.0177,6.74679,2.67896,24,13
-1.34611,0.756018,-0.0809114,134,6
-17.4481,9.80342,4.62049,21,14
-1.35446,0.76133,-0.027121,100,7
-11.3881,6.40378,3.50079,37,15
-1.30243,0.73448,-0.400652,2,0
-1.35152,0.762474,0.0270861,100,8
-1.34071,0.756685,-0.355423,5,1
-1.36004,0.767908,0.0818534,100,9
-0.569288,0.321432,-0.127079,14,2
-1.3618,0.769212,0.136835,100,10
-0.930406,0.525756,-0.169262,19,3
-1.36345,0.770776,0.19231,100,11
-1.34431,0.760265,-0.189629,100,4
-1.34379,0.760587,-0.135091,100,5
-1.34694,0.76268,-0.0811207,131,6
-19.6825,11.1494,5.22246,43,14
-1.34483,0.76211,-0.0269814,100,7
-11.3724,6.4473,3.50286,13,15
-1.31988,0.75071,-0.406864,2,0
-1.34885,0.767187,0.0270861,100,8
-1.33806,0.76136,-0.355423,5,1
-1.35735,0.772651,0.0818534,100,9
-0.561282,0.31963,-0.125552,14,2
-1.35204,0.770253,0.136137,100,10
-1.0795,0.615236,-0.196795,7,3
-1.36075,0.775531,0.19231,100,11
-1.34337,0.765936,-0.189872,100,4
-1.32901,0.75836,-0.133871,100,5
-12.3323,7.03993,2.76024,27,13
-1.35107,0.771574,-0.0815394,128,6
-11.6059,6.6306,3.08588,38,14
-1.34564,0.768783,-0.0270512,100,7
-17.101,9.77406,5.27784,16,15
-1.3072,0.749547,-0.403758,2,0
-1.33562,0.766156,0.0268767,100,8
-1.34202,0.770139,-0.357222,5,1
-1.36144,0.781598,0.0822721,100,9
-0.59081,0.339182,-0.132421,13,2
-1.3528,0.776953,0.136486,100,10
-1.27774,0.734141,-0.2334,6,3
-1.35618,0.779524,0.192066,100,11
-1.33367,0.766897,-0.188898,100,4
-11.2497,6.47145,2.05555,70,12
-1.32808,0.763988,-0.134046,100,5
-11.8771,6.83518,2.66369,57,13
-1.34144,0.772299,-0.0811207,131,6
-11.4644,6.603,3.05439,36,14
-1.34628,0.775707,-0.027121,100,7
-11.5218,6.64139,3.56342,24,15
-1.31795,0.76184,-0.407899,2,0
-1.33294,0.770814,0.0268767,100,8
-1.3292,0.768964,-0.354523,5,1
-1.35006,0.781344,0.0817488,100,9
-0.579427,0.335342,-0.130132,13,2
-1.35181,0.782669,0.13666,100,10
-1.29056,0.747508,-0.236216,12,3
-1.34143,0.777286,0.19036,100,11
-1.32584,0.768561,-0.188166,100,4
-11.2458,6.52158,2.05899,65,12
-1.32885,0.770619,-0.134394,100,5
-11.8651,6.88349,2.66637,30,13
-1.33183,0.772967,-0.0807021,131,6
-11.5357,6.69777,3.07958,53,14
-1.34356,0.780402,-0.027121,100,7
-1.31862,0.768381,-0.408934,2,0
-1.33888,0.780497,0.0270512,100,8
-1.34401,0.783804,0.0815394,100,9
-0.578253,0.337362,-0.130132,13,2
-1.34734,0.786378,0.136486,100,10
-1.29476,0.755992,-0.237468,16,3
-1.34385,0.784968,0.191091,100,11
-1.33014,0.776958,-0.189141,100,4
-11.1508,6.51598,2.04554,60,12
-1.32443,0.774247,-0.13422,100,5
-11.9546,6.99127,2.69193,36,13
-1.32568,0.775594,-0.0804927,131,6
-11.5757,6.7724,3.09623,59,14
-1.33406,0.780812,-0.0269814,100,7
-11.318,6.62693,3.51425,22,15
-1.3144,0.771771,-0.408416,2,0
-1.33801,0.785945,0.0270861,100,8
-1.34485,0.790281,0.0817488,100,9
-0.570361,0.335298,-0.128605,14,2
-1.34988,0.793872,0.137009,100,10
-1.29906,0.764288,-0.238719,16,3
-1.34466,0.791434,0.191579,100,11
-1.31387,0.773309,-0.187191,100,4
-11.0338,6.49679,2.02802,35,12
-1.33044,0.783691,-0.135091,100,5
-12.0446,7.09766,2.7175,45,13
-1.32998,0.784043,-0.0809114,134,6
-17.0963,10.0786,4.5818,38,14
-1.32802,0.7832,-0.0269116,100,7
-11.9398,7.04432,3.71457,12,15
-1.30186,0.770224,-0.405311,2,0
-1.33539,0.790378,0.0270861,100,8
-1.32471,0.784365,-0.355423,5,1
-1.34552,0.797006,0.0819581,100,9
-0.562489,0.333186,-0.127079,14,2
-1.34039,0.794281,0.136312,100,10
-1.29312,0.766577,-0.238093,12,3
-1.35227,0.801964,0.193041,100,11
-1.31628,0.78093,-0.187923,100,4
-11.0161,6.53829,2.02896,48,12
-1.31756,0.781997,-0.134046,100,5
-12.4245,7.37712,2.80871,43,13
-1.33424,0.792529,-0.0813301,138,6
-16.7913,9.9779,4.50937,40,14
-1.33559,0.793962,-0.027121,100,7
-11.2925,6.71566,3.52046,30,15
-1.28921,0.768826,-0.402205,2,0
-1.31889,0.786838,0.0268069,100,8
-1.33869,0.798972,-0.359922,5,1
-1.34444,0.802722,0.0820628,100,9
-0.57818,0.345212,-0.130895,13,2
-1.33418,0.796912,0.135963,100,10
-1.0683,0.63835,-0.197107,7,3
-1.34947,0.80668,0.193041,100,11
-1.33059,0.795708,-0.19036,100,4
-1.30798,0.7825,-0.133348,100,5
-12.8181,7.67149,2.90373,8,13
-1.33147,0.797181,-0.0813301,139,6
-16.835,10.0835,4.53051,20,14
-1.33796,0.801703,-0.0272258,100,7
-11.1298,6.67161,3.47698,7,15
-1.32299,0.795559,0.0269465,100,8
-1.31419,0.790581,-0.354073,4,1
-1.34848,0.811529,0.0824815,100,9
-0.573607,0.345203,-0.130132,13,2
-1.3331,0.802592,0.136137,100,10
-0.901922,0.543216,-0.166759,17,3
-1.34664,0.811385,0.193041,100,11
-1.3159,0.793174,-0.188654,100,4
-1.30524,0.787061,-0.133348,167,5
-1.315,0.793569,-0.0804927,138,6
-12.4505,7.51652,3.35762,4,14
-1.33344,0.805334,-0.0271908,100,7
-1.32181,0.800832,-0.41411,1,0
-1.31849,0.799137,0.0269116,100,8
-1.31809,0.799205,-0.355873,4,1
-1.33539,0.810016,0.0818534,100,9
-0.58247,0.353312,-0.132421,13,2
-1.3337,0.809308,0.136486,100,10
-0.893266,0.542261,-0.165508,24,3
-1.33871,0.812989,0.19231,100,11
-1.30294,0.791579,-0.187191,100,4
-1.31951,0.80196,-0.135091,100,5
-12.6032,7.66287,2.8671,13,13
-1.31563,0.80023,-0.0807021,131,6
-1.33404,0.812064,-0.0272607,100,7
-1.33234,0.813263,-0.418252,1,0
-1.3329,0.813925,0.0272607,100,8
-1.30545,0.797476,-0.353173,2,1
-1.33114,0.813166,0.0817488,99,9
-0.571244,0.349099,-0.130132,13,2
-1.33271,0.814765,0.13666,94,10
-0.889778,0.544189,-0.165195,24,3
-1.34786,0.824677,0.194016,100,11
-1.29692,0.793822,-0.186704,100,4
-11.3625,6.95475,2.10999,13,12
-1.31005,0.80217,-0.134394,100,5
-12.8138,7.84922,2.9209,7,13
-1.31978,0.808763,-0.0811207,122,6
-12.3359,7.56239,3.34052,74,14
-1.31955,0.808935,-0.0270163,100,7
-10.9547,6.71828,3.44333,8,15
-1.30317,0.801712,-0.409969,1,0
-1.32849,0.817293,0.0272258,100,8
-1.33433,0.821207,-0.361721,2,1
-1.33849,0.824091,0.0823768,89,9
-0.563335,0.346973,-0.128605,14,2
-1.33325,0.821502,0.137009,86,10
-0.869469,0.535738,-0.161753,13,3
-1.35188,0.833308,0.194991,75,11
-1.31625,0.811664,-0.189872,100,4
-1.30385,0.804645,-0.134046,100,5
-1.32389,0.817332,-0.0815394,100,6
-12.3555,7.6309,3.35267,45,14
-1.32012,0.815638,-0.0270861,100,7
-10.9574,6.77274,3.45161,24,15
-1.28079,0.793817,-0.403758,1,0
-1.31543,0.815603,0.0270163,100,8
-1.30993,0.812506,-0.355873,2,1
-1.34594,0.834841,0.0830048,80,9
-0.568854,0.35298,-0.130132,13,2
-1.33221,0.82697,0.137183,72,10
-0.832353,0.516886,-0.155183,10,3
-1.36414,0.84745,0.197185,52,11
-1.30343,0.809739,-0.18841,100,4
-11.934,7.41668,2.22544,30,12
-1.29779,0.80686,-0.133697,100,5
-12.5567,7.80976,2.87435,26,13
-1.30916,0.814562,-0.0808067,100,6
-1.32589,0.825295,-0.0272607,100,7
-1.36992,0.855356,-0.432745,1,0
-1.31103,0.818901,0.0269814,96,8
-1.29401,0.808585,-0.352273,1,1
-1.34147,0.838242,0.0829002,61,9
-0.561022,0.350701,-0.128605,14,2
-1.32946,0.831383,0.137183,60,10
-0.783744,0.490308,-0.146423,20,3
-1.35122,0.84565,0.195722,13,11
-1.30242,0.81511,-0.188654,100,4
-1.30186,0.81539,-0.134394,100,5
-12.8967,8.08068,2.9583,12,13
-1.30307,0.816777,-0.0805974,100,6
-17.3572,10.8797,4.72937,24,14
-1.33331,0.836061,-0.0274701,100,7
-17.4436,10.9424,5.5175,23,15
-1.31338,0.826439,0.0270861,79,8
-1.30451,0.821176,-0.355873,1,1
-1.34191,0.845048,0.0831095,54,9
-0.566439,0.356843,-0.130132,13,2
-1.33849,0.843221,0.138403,49,10
-0.736992,0.464468,-0.137975,42,3
-11.7478,7.40658,1.7052,42,11
-1.29789,0.818592,-0.18841,100,4
-1.30575,0.824183,-0.135091,100,5
-1.30021,0.821321,-0.0805974,100,6
-17.2252,10.8809,4.70373,19,14
-1.32701,0.838574,-0.0274003,100,7
-17.5098,11.0692,5.55063,20,15
-1.33229,0.845174,0.0275399,81,8
-1.31136,0.832217,-0.358572,1,1
-1.33881,0.84996,0.0831095,47,9
-0.565127,0.358917,-0.130132,13,2
-1.33876,0.850258,0.138752,21,10
-0.733617,0.466106,-0.137662,48,3
-11.672,7.41871,1.69813,52,11
-1.29656,0.824409,-0.188654,100,4
-13.0574,8.30565,2.45102,10,12
-1.30272,0.828963,-0.135091,100,5
-1.31066,0.834663,-0.0814348,100,6
-11.5571,7.35984,3.16326,24,14
-1.31043,0.834836,-0.027121,82,7
-17.6011,11.2174,5.59256,13,15
-1.32413,0.846819,0.0274352,64,8
-1.35097,0.864316,0.0840516,34,9
-0.563871,0.360888,-0.130132,13,2
-0.721923,0.4624,-0.135785,52,3
-11.7801,7.54819,1.71787,15,11
-1.29367,0.82893,-0.188654,98,4
-1.29981,0.833506,-0.135091,90,5
-11.9457,7.66312,2.75872,12,13
-1.32455,0.850021,-0.0824815,100,6
-11.8003,7.57275,3.23705,9,14
-1.31592,0.844807,-0.0272956,77,7
-17.5423,11.2663,5.58635,27,15
-1.31628,0.847956,0.0273305,50,8
-1.3716,0.883938,0.085517,8,9
-0.572571,0.369138,-0.132421,13,2
-11.7138,7.55483,1.21948,44,10
-0.720386,0.464791,-0.135785,52,3
-11.5132,7.43112,1.68253,30,11
-1.29759,0.837521,-0.189629,83,4
-12.9441,8.3579,2.44038,54,12
-1.2937,0.835649,-0.134743,76,5
-13.1141,8.47413,3.03501,38,13
-1.31837,0.85224,-0.0822721,88,6
-12.1123,7.82977,3.32973,20,14
-1.32151,0.854596,-0.0274701,61,7
-12.6729,8.19843,4.04431,12,15
-1.32017,0.85667,0.0274701,25,8
-0.551585,0.358204,-0.127842,14,2
-11.5216,7.48509,1.20205,47,10
-0.712215,0.462871,-0.134534,33,3
-11.8047,7.67484,1.72884,58,11
-1.30298,0.847457,-0.190847,68,4
-1.30762,0.850801,-0.136486,63,5
-13.076,8.51114,3.03272,35,13
-1.30717,0.851158,-0.0817488,78,6
-1.3269,0.864662,-0.0276446,50,7
-12.5746,8.19725,4.02205,5,15
-11.7457,7.68033,0.244962,28,8
-0.445215,0.291229,-0.122823,15,1
-11.1839,7.31854,0.700464,43,9
-0.547046,0.357977,-0.127079,14,2
-11.5138,7.53726,1.20397,91,10
-0.708943,0.464273,-0.134221,27,3
-11.5088,7.53977,1.68935,63,11
-1.29669,0.849824,-0.19036,70,4
-16.3414,10.7139,3.0949,21,12
-1.3163,0.863007,-0.137706,56,5
-13.3286,8.74193,3.09836,11,13
-1.31087,0.860098,-0.0821675,69,6
-11.9938,7.87244,3.31218,45,14
-1.33891,0.879167,-0.0279588,12,7
-12.6121,8.28458,4.04327,29,15
-12.5738,8.28459,0.262833,67,8
-11.1129,7.32481,0.697534,55,9
-0.568739,0.375015,-0.132421,13,2
-11.2861,7.44466,1.18288,75,10
-0.702372,0.463481,-0.133282,14,3
-11.9993,7.92111,1.7654,31,11
-1.29387,0.854119,-0.19036,54,4
-14.0277,9.26363,2.66251,13,12
-1.30996,0.8654,-0.137357,54,5
-12.8934,8.52104,3.0041,11,13
-1.31619,0.870176,-0.0826908,37,6
-11.992,7.92829,3.31893,49,14
-11.4718,7.58728,-0.240075,100,7
-12.5861,8.32743,4.04379,9,15
-12.4196,8.2422,0.26018,49,8
-11.19,7.42901,0.703919,14,9
-0.55768,0.370382,-0.130132,13,2
-11.2199,7.45448,1.17852,62,10
-0.705766,0.469087,-0.134221,13,3
-16.3221,10.8526,2.40668,10,11
-1.29764,0.862802,-0.191335,49,4
-12.1811,8.10229,2.31711,40,12
-1.31372,0.874154,-0.138055,32,5
-16.1435,10.746,3.76962,13,13
-12.6675,8.4354,-0.7976,58,6
-12.0727,8.0393,3.34862,31,14
-11.4283,7.61309,-0.239691,25,7
-11.9508,7.96416,3.84812,6,15
-12.3872,8.28001,0.260076,10,8
-0.56624,0.378778,-0.132421,13,2
-11.1736,7.47724,1.17625,60,10
-0.717339,0.480216,-0.136724,25,3
-16.3322,10.9376,2.4135,5,11
-1.30616,0.87506,-0.193041,41,4
-16.411,10.9986,3.129,14,12
-12.7828,8.57029,2.9915,18,13
-12.6361,8.47513,-0.797391,100,6
-11.8325,7.93916,3.28968,47,14
-11.4897,7.712,-0.241541,44,7
-16.2195,10.9237,0.341334,8,8
-16.4808,11.1081,1.04159,10,9
-0.564914,0.380752,-0.132421,13,2
-11.1722,7.53291,1.17887,22,10
-0.70747,0.477194,-0.135159,33,3
-16.1508,10.898,2.3923,41,11
-1.30475,0.880725,-0.193285,12,4
-12.6794,8.56205,-1.33854,84,5
-13.3092,8.9907,3.12202,12,13
-12.6214,8.52925,-0.798333,35,6
-11.9162,8.05572,3.32073,56,14
-14.4675,9.78417,-0.304859,83,7
-12.3093,8.35281,0.259657,4,8
-16.31,11.0718,1.03311,9,9
-0.573327,0.38934,-0.134711,12,2
-11.1706,7.58866,1.18148,100,10
-0.715603,0.486323,-0.137037,49,3
-16.3671,11.1273,2.43007,25,11
-12.7407,8.66185,-1.89166,59,4
-10.8181,7.35747,2.07213,82,12
-12.6511,8.60737,-1.33871,73,5
-11.5363,7.85182,2.71254,38,13
-17.29,11.7724,-1.09623,34,6
-11.738,7.99209,3.27844,29,14
-17.1884,11.7076,-0.36301,22,7
-12.2689,8.35984,3.97805,12,15
-11.6591,7.96821,0.246498,16,8
-11.3039,7.72832,0.717631,10,9
-0.552587,0.377939,-0.130132,13,2
-11.2621,7.70554,1.19386,27,10
-0.710726,0.486462,-0.136411,62,3
-16.0517,10.9908,2.38864,10,11
-12.7005,8.6962,-1.88995,57,4
-11.6138,7.96108,2.73696,12,13
-14.7702,10.1285,-0.938593,28,6
-11.6889,8.01555,3.27214,58,14
-27.2479,18.692,-0.576767,34,7
-12.3191,8.45404,4.00341,13,15
-11.6095,7.99095,0.246009,5,8
-16.4283,11.3162,1.04546,10,9
-0.535162,0.368632,-0.126316,14,2
-11.0478,7.61283,1.17381,60,10
-0.713988,0.492179,-0.137349,36,3
-15.9955,11.0305,2.38571,15,11
-12.706,8.76528,-1.89531,29,4
-11.6701,8.05364,2.24577,37,12
-14.3417,9.90106,-1.5247,21,5
-11.589,8.00066,2.73735,24,13
-14.6889,10.1446,-0.935558,17,6
-11.4845,7.93445,3.22265,56,14
-11.1961,7.73808,-0.237562,81,7
-11.7397,8.11686,3.82431,10,15
-16.0989,11.164,0.341962,10,8
-0.437121,0.303242,-0.122823,15,1
-16.479,11.4361,1.05122,33,9
-0.546709,0.379548,-0.129368,13,2
-11.2195,7.79193,1.19508,18,10
-0.699201,0.485776,-0.134847,26,3
-15.9194,11.0602,2.38011,41,11
-10.0835,7.00823,-1.50777,52,4
-11.7538,8.17213,2.26736,39,12
-18.1525,12.6257,-1.93451,19,5
-12.0253,8.36714,2.84763,15,13
-14.5369,10.1185,-0.928231,14,6
-11.4569,7.9776,3.2231,60,14
-11.21,7.80569,-0.238435,25,7
-15.2717,10.6378,4.98693,11,15
-16.0005,11.1828,0.340741,6,8
-0.590427,0.412961,-0.140054,11,2
-15.5982,10.9139,1.66555,17,10
-0.682936,0.478019,-0.132031,14,3
-14.8365,10.3886,2.22387,4,11
-10.1094,7.07869,-1.51532,45,4
-22.8113,15.9786,4.41114,15,12
-14.4566,10.1301,-1.5444,6,5
-11.6713,8.18143,2.77055,33,13
-14.5963,10.2356,-0.934302,14,6
-11.8357,8.29974,3.33737,24,14
-11.1352,7.81146,-0.237423,90,7
-15.1981,10.6655,4.97502,19,15
-14.8235,10.4336,0.316412,5,8
-0.434994,0.306286,-0.122823,15,1
-0.605105,0.426222,-0.14387,11,2
-15.6027,10.9942,1.6699,24,10
-10.2606,7.23267,-1.98828,2,3
-15.8272,11.1608,2.37791,5,11
-10.047,7.08472,-1.50947,39,4
-11.6172,8.19501,2.25172,23,12
-13.3664,9.43248,-1.43127,31,5
-12.7411,8.99454,3.03157,29,13
-14.7907,10.4453,-0.948956,14,6
-11.8304,8.35469,3.34367,58,14
-11.2399,7.94065,-0.240215,22,7
-11.8275,8.35885,3.88073,30,15
-15.6306,11.0794,0.334423,8,8
-0.433975,0.307727,-0.122823,15,1
-10.8836,7.72025,0.699313,32,9
-0.539637,0.382791,-0.128605,14,2
-15.5466,11.0321,1.66781,24,10
-10.2639,7.2861,-1.9936,6,3
-15.7383,11.1764,2.37012,5,11
-10.0885,7.16688,-1.51947,46,4
-11.6239,8.26069,2.2586,23,12
-13.3595,9.49407,-1.43389,25,5
-12.6536,8.99579,3.01784,32,13
-16.3869,11.6541,-1.05384,50,6
-15.1547,10.7819,4.29387,25,14
-11.147,7.93346,-0.238819,100,7
-11.5213,8.20288,3.78963,23,15
-11.4681,8.18919,0.245974,6,8
-0.512184,0.365877,-0.145318,12,1
-15.3123,10.9423,0.986324,13,9
-0.55427,0.396087,-0.132421,13,2
-10.9276,7.81185,1.17521,57,10
-10.2866,7.35635,-2.00299,6,3
