x, y, z, intensity, ring
-10.3209,9.6886,-1.23848,52,5
-14.768,13.8681,3.93792,13,13
-10.2438,9.6229,-0.736576,52,6
-12.9301,12.1506,4.09636,46,14
-19.8735,18.682,-0.476102,79,7
-13.1656,12.3807,4.8425,40,15
-26.1523,24.6619,0.627449,21,8
-0.409669,0.386458,-0.130022,14,1
-0.511175,0.482381,-0.136619,12,2
-13.5493,12.7906,1.63016,27,10
-10.6236,10.0322,-2.31429,22,3
-9.67249,9.14042,-1.63402,49,4
-10.303,9.73962,-1.2404,30,5
-14.8137,14.0086,3.9631,9,13
-10.0215,9.48017,-0.722969,32,6
-12.9159,12.2225,4.10536,46,14
-15.2652,14.4457,-0.36685,22,7
-20.7928,19.7385,0.50043,13,8
-0.422516,0.401233,-0.134521,14,1
-14.8395,14.097,1.07268,65,9
-0.512334,0.486867,-0.137382,24,2
-13.1017,12.4548,1.58153,67,10
-11.9046,11.3168,-2.60151,43,3
-19.0113,18.0789,3.22125,38,11
-9.62343,9.15466,-1.63086,22,4
-19.8106,18.8522,4.33136,18,12
-10.2747,9.78102,-1.2411,22,5
-13.176,12.5429,3.53607,5,13
-10.126,9.64282,-0.732808,35,6
-12.7243,12.1214,4.05722,48,14
-18.8237,17.9381,-0.453867,100,7
-13.3369,12.7139,4.93723,19,15
-14.832,14.1787,0.358158,63,8
-0.421113,0.402706,-0.134521,14,1
-0.49653,0.474992,-0.133566,13,2
-13.0474,12.4858,1.57996,13,10
-11.8236,11.3187,-2.59243,26,3
-19.0685,18.2605,3.24172,9,11
-9.4452,9.04813,-1.60599,6,4
-21.2336,20.3481,4.65799,13,12
-10.3213,9.89086,-1.25068,20,5
-13.125,12.582,3.53416,13,13
-10.0461,9.63387,-0.729459,42,6
-12.2516,11.7529,3.91955,21,14
-18.7826,18.0245,-0.454391,100,7
-13.3663,12.8313,4.96467,8,15
-14.7752,14.2235,0.357984,40,8
-0.405668,0.390656,-0.130022,14,1
-20.4944,19.7428,1.49137,2,9
-0.523148,0.503964,-0.141199,11,2
-13.5847,13.0912,1.65056,6,10
-11.8011,11.3763,-2.59619,45,3
-19.6533,18.9525,3.35238,20,11
-9.575,9.23678,-1.63354,17,4
-17.0588,16.462,3.75474,4,12
-10.3426,9.98078,-1.25748,10,5
-12.9511,12.5023,3.49906,6,13
-10.4248,10.0671,-0.759499,16,6
-12.0801,11.6697,3.87771,5,14
-9.93498,9.60079,-0.241157,71,7
-12.1436,11.7393,4.52571,16,15
-0.416194,0.40332,-0.155291,12,0
-0.42109,0.408349,-0.135421,13,1
-16.0571,15.5713,1.17222,6,9
-0.504475,0.489383,-0.136619,12,2
-19.5656,18.9869,2.38528,26,10
-11.7798,11.4353,-2.60025,56,3
-13.9248,13.5224,2.38328,25,11
-9.58846,9.31136,-1.64109,14,4
-14.2057,13.8,3.13682,6,12
-10.1463,9.85992,-1.23779,40,5
-12.7778,12.4216,3.46395,8,13
-10.4096,10.1229,-0.760965,42,6
-15.3245,14.9024,4.93498,18,14
-12.0243,11.7013,4.49569,8,15
-8.65857,8.44954,0.211174,30,8
-0.416944,0.407021,-0.134521,14,1
-14.6791,14.3297,1.07509,5,9
-0.508468,0.49654,-0.138146,24,2
-19.5068,19.0559,2.3858,33,10
-7.39883,7.23031,-1.63849,20,3
-10.899,10.6544,-1.87143,8,4
-21.6522,21.1738,4.79659,7,12
-10.0466,9.82803,-1.22959,12,5
-13.2698,12.9857,3.60896,18,13
-10.8726,10.6436,-0.797391,74,6
-13.3143,13.0337,4.30151,3,14
-11.8199,11.5789,4.43357,8,15
-0.41351,0.406071,-0.155291,12,0
-20.378,20.0184,0.498615,27,8
-0.415592,0.408401,-0.134521,14,1
-19.456,19.126,1.42982,15,9
-0.509619,0.500976,-0.138909,24,2
-19.3526,19.0311,2.37465,13,10
-7.37763,7.25757,-1.63912,25,3
-33.867,33.3275,5.83413,22,11
-10.849,10.6799,-1.86923,8,4
-16.7885,16.5326,3.7319,9,12
-9.95714,9.80537,-1.22262,30,5
-13.2392,13.042,3.6124,18,13
-9.95955,9.8146,-0.732808,29,6
-12.2723,12.0979,3.97848,41,14
-14.889,14.6826,-0.365,60,7
-11.58,11.4234,4.35851,32,15
-9.74526,9.64037,0.239273,5,8
-0.433556,0.42904,-0.140819,13,1
-19.3834,19.1882,1.4294,27,9
-0.493915,0.48894,-0.135093,25,2
-14.0664,13.9296,1.73196,14,10
-7.33401,7.26521,-1.63505,57,3
-28.6405,28.3817,4.95082,16,11
-12.0424,11.9377,-2.08202,27,4
-12.3615,12.2583,2.75731,6,12
-8.72176,8.64899,-1.07463,49,5
-21.7682,21.5942,5.96011,23,13
-11.0721,10.9874,-0.817488,16,6
-12.1262,12.0377,3.94474,24,14
-8.76754,8.70654,-0.215677,40,7
-11.5661,11.4896,4.36835,25,15
-0.412731,0.411292,-0.134521,14,1
-21.2564,21.1824,1.5727,12,9
-0.506109,0.504521,-0.138909,24,2
-14.2914,14.2515,1.76578,14,10
-11.3769,11.3491,-2.54519,30,3
-24.6125,24.561,4.26933,13,11
-11.9191,11.8984,-2.06788,31,4
-12.3431,12.3216,2.76232,11,12
-8.71407,8.70191,-1.07742,57,5
-12.4312,12.4182,3.41548,21,13
-8.81285,8.8067,-0.652943,42,6
-12.0621,12.0579,3.93754,52,14
-11.9377,11.9377,4.52364,27,15
-9.41819,9.44453,0.232815,57,8
-0.411365,0.412659,-0.134521,14,1
-17.8087,17.871,1.32222,12,9
-0.501574,0.503503,-0.138146,24,2
-20.3318,20.4172,2.52089,21,10
-8.94449,8.98203,-2.00768,45,3
-21.8728,21.9722,3.80671,12,11
-10.8378,10.8909,-1.88654,34,4
-12.3027,12.3716,3.39144,35,13
-8.76248,8.81463,-0.651373,32,6
-11.9877,12.0632,3.9263,55,14
-8.73908,8.79723,-0.216445,76,7
-11.7694,11.8518,4.4755,34,15
-0.401696,0.405783,-0.131821,14,1
-20.0502,20.2613,1.49388,15,9
-0.499901,0.505164,-0.138146,24,2
-20.1547,20.374,2.5073,7,10
-8.8228,8.9219,-1.98734,20,3
-12.775,12.923,2.23118,4,11
-10.7872,10.916,-1.88434,31,4
-12.3179,12.4693,2.77609,13,12
-8.27238,8.37407,-1.02983,76,5
-12.2857,12.441,3.39869,25,13
-8.78497,8.89917,-0.655351,45,6
-12.0783,12.2396,3.96994,66,14
-8.75326,8.87324,-0.217562,47,7
-11.9178,12.0854,4.54797,20,15
-28.3659,28.8452,0.706159,6,8
-0.4276,0.434977,-0.140819,13,1
-14.2272,14.4777,1.06378,11,9
-0.503639,0.512507,-0.139672,23,2
-19.9871,20.3461,2.49527,28,10
-10.0234,10.207,-2.2658,30,3
-26.3524,26.8445,4.61885,15,11
-9.36422,9.54241,-1.64158,52,4
-12.2798,12.5179,2.77734,15,12
-12.2408,12.4824,3.39831,43,13
-8.90765,9.08667,-0.666865,29,6
-8.70264,8.88374,-0.217073,76,7
-11.9202,12.1725,4.56505,27,15
-20.7835,21.2828,0.519244,14,8
-0.398853,0.408577,-0.131821,14,1
-19.8413,20.3321,1.48885,23,9
-0.501847,0.514262,-0.139672,11,2
-19.8283,20.3259,2.48429,56,10
-9.88843,10.1401,-2.24327,22,3
-12.6083,12.9337,2.21778,85,11
-9.31007,9.55371,-1.63792,66,4
-12.9487,13.2922,2.93909,18,12
-12.256,12.5856,3.41472,27,13
-8.69895,8.93596,-0.653571,68,6
-12.2141,12.5512,4.04327,22,14
-8.70783,8.95133,-0.217981,24,7
-11.7577,12.0907,4.51898,6,15
-15.3063,15.7838,0.383778,45,8
-0.419127,0.432354,-0.13902,13,1
-27.9179,28.809,2.10244,5,9
-0.500049,0.51601,-0.139672,11,2
-19.5452,20.1761,2.45762,48,10
-10.2487,10.5833,-2.33338,17,3
-8.21887,8.49604,-1.03419,22,5
-12.1656,12.5803,3.40174,22,13
-8.49557,8.78821,-0.640592,13,6
-12.2271,12.6526,4.06217,37,14
-9.28924,9.61592,-0.233374,91,7
-12.3569,12.796,4.76641,16,15
-0.402084,0.417389,-0.155291,12,0
-0.385179,0.40012,-0.128222,14,1
-27.7562,28.843,2.09783,20,9
-0.4928,0.512094,-0.138146,24,2
-7.80189,8.11303,-1.78273,11,3
-19.8021,20.599,3.50837,11,11
-8.2253,8.5593,-1.45756,44,4
-12.4505,12.9606,2.84648,17,12
-8.26093,8.59939,-1.04325,72,5
-12.055,12.5533,3.38304,21,13
-8.51325,8.86823,-0.644256,29,6
-12.0897,12.5982,4.03112,46,14
-12.1641,12.6802,-0.306709,100,7
-10.4857,10.9344,4.05932,13,15
-0.400624,0.41879,-0.155291,12,0
-15.0299,15.7169,0.37959,26,8
-0.410712,0.429635,-0.13722,13,1
-12.6507,13.2382,0.959632,4,9
-0.469307,0.491101,-0.13204,26,2
-7.81036,8.17879,-1.79117,27,3
-13.1136,13.737,2.33185,55,11
-8.21181,8.60519,-1.46048,45,4
-12.4447,13.0454,2.85556,5,12
-8.12635,8.51861,-1.03001,56,5
-11.8865,12.4646,3.34793,43,13
-8.4533,8.86754,-0.642058,13,6
-11.9973,12.5896,4.01493,24,14
-8.15431,8.55988,-0.206357,29,7
-15.5153,16.2927,6.02841,11,15
-14.9901,15.7797,0.379904,47,8
-0.403917,0.425343,-0.135421,13,1
-0.494709,0.521132,-0.139672,23,2
-13.0249,13.7253,1.65544,94,10
-7.80223,8.2247,-1.79555,37,3
-20.8744,22.0124,3.72481,24,11
-8.22967,8.68136,-1.46877,30,4
-12.3058,12.9812,2.83303,28,12
-11.9809,12.6562,4.02347,38,14
-8.23324,8.69728,-0.209045,100,7
-12.0714,12.7562,4.70585,13,15
-8.30603,8.80182,0.211244,37,8
-0.402504,0.42668,-0.135421,13,1
-13.0805,13.871,0.999198,46,9
-0.4875,0.517142,-0.138146,24,2
-12.8853,13.6736,1.64376,20,10
-7.81826,8.29654,-1.80557,33,3
-19.6565,20.8663,3.51983,33,11
-8.22125,8.73028,-1.47243,22,4
-11.9152,12.6573,2.75325,6,12
-8.70719,9.25277,-1.11158,30,5
-11.821,12.5617,3.3529,13,13
-8.35462,8.88122,-0.639022,39,6
-10.5625,11.2322,3.55963,20,14
-8.06176,8.57589,-0.20545,22,7
-12.0691,12.8433,4.72241,22,15
-8.31627,8.87454,0.212291,18,8
-0.385026,0.411016,-0.130022,14,1
-13.0307,13.9151,0.999093,45,9
-0.49115,0.524487,-0.139672,23,2
-20.7562,22.1729,2.6572,31,10
-7.8122,8.34829,-1.81089,36,3
-17.9196,19.156,3.22076,9,11
-8.07954,8.64003,-1.45244,4,4
-18.0546,19.3138,4.18744,11,12
-8.08324,8.64701,-1.03558,27,5
-11.7811,12.6072,3.35404,27,13
-9.27658,9.93053,-0.712188,19,6
-10.4873,11.2305,3.54748,18,14
-8.25692,8.84517,-0.211209,20,7
-8.32611,8.94743,0.213338,25,8
-0.441989,0.475138,-0.149817,12,1
-12.8678,13.8377,0.990301,9,9
-0.494664,0.53195,-0.141199,23,2
-20.5906,22.1503,2.64587,23,10
-7.75343,8.34368,-1.804,10,3
-17.9499,19.3232,3.23831,38,11
-7.93452,8.54454,-1.43172,55,4
-14.7401,15.8789,3.43155,5,12
-8.1384,8.76716,-1.04657,21,5
-11.6569,12.5619,3.33114,30,13
-8.29785,8.94519,-0.639441,39,6
-11.7863,12.7103,4.00188,22,14
-12.9963,14.02,-0.33369,73,7
-12.7119,13.718,5.01125,6,15
-0.393403,0.425581,-0.155291,12,0
-8.28669,8.96763,0.213129,7,8
-0.39537,0.428008,-0.134521,14,1
-15.2016,16.4565,1.17411,53,9
-0.487477,0.527904,-0.139672,23,2
-20.6131,22.3304,2.65877,15,10
-7.70818,8.35327,-1.80025,32,3
-17.8931,19.3974,3.24026,28,11
-7.96805,8.63792,-1.44293,55,4
-14.6512,15.8885,3.4231,30,12
-7.9295,8.60215,-1.02356,24,5
-11.7075,12.705,3.35824,15,13
-8.24492,8.95059,-0.637766,26,6
-10.5506,11.4536,3.59517,16,14
-8.3076,9.0218,-0.214071,50,7
-10.3427,11.2357,4.09193,5,15
-14.4989,15.7951,0.374249,26,8
-0.393948,0.429317,-0.134521,14,1
-14.5339,15.8387,1.12658,33,9
-0.473779,0.516496,-0.136238,25,2
-17.8189,19.4323,2.30666,43,10
-8.67219,9.46072,-2.03271,60,3
-19.206,20.9597,3.49058,22,11
-8.05872,8.79455,-1.46463,18,4
-16.7787,18.3172,3.93433,20,12
-8.62213,9.416,-1.11699,9,5
-12.617,13.7836,3.63224,18,13
-8.20171,8.96315,-0.636719,48,6
-10.2034,11.1507,3.48944,29,14
-10.3275,11.2942,4.10073,28,15
-14.7631,16.1904,0.382452,62,8
-0.39121,0.429181,-0.134071,14,1
-19.0213,20.8748,1.48006,21,9
-0.485287,0.532576,-0.140054,23,2
-14.5048,15.9239,1.88448,51,10
-10.8538,11.9198,-2.55332,18,3
-14.6079,16.0482,2.66455,44,11
-7.92911,8.71398,-1.44659,42,4
-12.4679,13.7068,2.93471,24,12
-8.68202,9.54476,-1.12884,11,5
-12.739,14.0098,3.68071,16,13
-8.19075,9.01099,-0.638185,35,6
-10.1277,11.1458,3.47684,54,14
-7.74045,8.52157,-0.200947,100,7
-14.5119,16.0269,0.377391,28,8
-0.381863,0.421875,-0.131371,14,1
-18.8867,20.873,1.47525,13,9
-0.487377,0.538634,-0.141199,23,2
-9.95808,11.017,1.82341,8,11
-7.78552,8.61641,-1.42587,59,4
-12.4253,13.7561,2.93596,19,12
-8.5939,9.51439,-1.12169,19,5
-10.4191,11.5391,3.02203,18,13
-10.0953,11.1883,3.47909,18,14
-7.62226,8.45054,-0.198643,100,7
-10.2989,11.422,4.12092,9,15
-0.387573,0.430897,-0.155291,12,0
-10.021,11.145,0.261612,24,8
-0.377782,0.420307,-0.130472,14,1
-9.7993,10.9062,0.768397,19,9
-0.499927,0.556396,-0.145396,32,2
-14.5384,16.1863,1.90348,48,10
-8.6337,9.61566,-2.04679,63,3
-9.95801,11.0945,1.83048,4,11
-7.7554,8.64353,-1.42587,20,4
-7.84738,8.7522,-1.02844,9,5
-10.3853,11.5828,3.02394,9,13
-12.5581,14.016,4.3447,31,14
-9.8181,10.9617,-0.256865,29,7
-10.2254,11.4204,4.10746,45,15
-0.385991,0.432314,-0.155291,12,0
-9.35205,10.4744,0.245102,27,8
-0.384099,0.430346,-0.133171,14,1
-17.5624,19.6839,1.38251,13,9
-0.48743,0.546503,-0.142344,45,2
-19.898,22.3174,2.61589,31,10
-8.62337,9.67526,-2.05273,19,3
-9.92055,11.1307,1.83072,32,11
-7.77668,8.72836,-1.43538,5,4
-14.4915,16.2706,3.45094,26,12
-7.78499,8.74382,-1.02425,2,5
-10.3128,11.587,3.01516,10,13
-7.58323,8.5232,-0.597886,87,6
-12.4821,14.0342,4.33616,50,14
-9.9366,11.1722,-0.260983,43,7
-10.1457,11.4113,4.09141,22,15
-0.395442,0.446337,-0.13767,13,1
-15.5201,17.5176,1.22655,1,9
-0.492028,0.55555,-0.144252,55,2
-11.2525,12.7097,1.48513,39,10
-9.125,10.3103,-2.1807,42,3
-9.82707,11.1075,1.82097,12,11
-7.86718,8.89223,-1.4578,48,4
-7.70955,8.72019,-1.01833,9,5
-10.2294,11.5744,3.00257,15,13
-7.6341,8.64092,-0.604271,74,6
-12.6677,14.3384,4.41714,29,14
-9.76781,11.0599,-0.257563,100,7
-9.52447,10.8186,0.251594,56,8
-0.381085,0.433017,-0.133171,14,1
-14.4182,16.383,1.14375,18,9
-0.49537,0.563075,-0.145778,53,2
-11.1577,12.6871,1.47816,71,10
-10.5698,12.0229,-2.53549,24,3
-9.48354,10.7911,1.76394,50,11
-7.55591,8.59768,-1.4054,8,4
-19.1313,21.7766,4.59104,13,12
-8.43918,9.6095,-1.11891,14,5
-14.1129,16.0757,4.15811,10,13
-7.57774,8.63467,-0.602073,40,6
-14.9544,17.0402,5.23416,16,14
-9.7746,11.1419,-0.258714,93,7
-10.6779,12.1758,4.33936,6,15
-0.381595,0.436199,-0.155291,12,0
-9.25291,10.5807,0.245346,19,8
-0.382212,0.437213,-0.134071,14,1
-10.6389,12.1742,0.847319,22,9
-0.489625,0.560279,-0.144633,66,2
-11.1208,12.73,1.47886,75,10
-10.5533,12.0847,-2.54112,41,3
-7.36139,8.43555,-1.37469,60,4
-19.0824,21.8746,4.59761,3,12
-8.4112,9.64194,-1.11943,40,5
-12.2982,14.1027,3.6372,16,13
-7.49263,8.59501,-0.597572,57,6
-12.3202,14.1378,4.32941,43,14
-10.328,11.8559,-0.274457,100,7
-10.2674,11.7905,4.18925,15,15
-8.68622,10.0029,0.231244,48,8
-0.383238,0.441488,-0.134971,14,1
-10.5741,12.1856,0.84554,15,9
-0.487666,0.561985,-0.144633,55,2
-11.2173,12.9313,1.49768,16,10
-11.4994,13.2659,2.15563,50,11
-7.406,8.54671,-1.38858,26,4
-16.2588,18.7697,3.93308,27,12
-7.64175,8.82188,-1.02112,11,5
-14.264,16.4727,4.23558,11,13
-7.51094,8.67698,-0.601445,16,6
-10.8592,12.5494,3.83137,23,14
-10.3415,11.9554,-0.275923,100,7
-10.2161,11.8146,4.1851,11,15
-8.59249,9.96504,0.229674,25,8
-0.399508,0.463488,-0.141269,13,1
-10.518,12.2025,0.844284,44,9
-0.479294,0.556247,-0.142725,45,2
-9.88219,11.4729,1.32477,31,10
-7.76061,9.01299,-1.88378,17,3
-11.4892,13.3481,2.16245,27,11
-7.39296,8.59207,-1.39175,41,4
-15.7765,18.3354,3.83108,19,12
-7.68237,8.93158,-1.0307,18,5
-10.2334,11.9016,3.05104,7,13
-8.89966,10.3541,-0.715537,61,6
-10.1651,11.8305,3.60102,19,14
-7.41914,8.63469,-0.198713,100,7
-10.2889,11.9789,4.23117,23,15
-8.60363,10.0451,0.23086,70,8
-0.370085,0.432244,-0.131371,14,1
-10.5091,12.2785,0.847005,44,9
-0.47352,0.553442,-0.14158,46,2
-9.87317,11.5437,1.32895,37,10
-10.5156,12.2948,-2.5624,58,3
-9.44412,11.0459,1.78441,31,11
-7.35927,8.6105,-1.39077,38,4
-11.3304,13.2615,2.76263,19,12
-7.65503,8.96289,-1.03123,9,5
-14.121,16.5335,4.22642,15,13
-6.93686,8.12488,-0.55989,40,6
-10.146,11.8878,3.60821,38,14
-10.1587,11.9069,-0.2732,89,7
-10.2495,12.0176,4.23221,7,15
-8.47394,9.96389,0.228312,58,8
-0.396344,0.466196,-0.141269,13,1
-10.4584,12.306,0.846377,46,9
-0.481853,0.566977,-0.144633,33,2
-9.83096,11.5718,1.32843,83,10
-7.64282,8.99936,-1.87002,20,3
-9.55968,11.2604,1.81366,40,11
-6.91299,8.14576,-1.3118,59,4
-11.3172,13.3401,2.77077,15,12
-7.567,8.92269,-1.02356,24,5
-10.5814,12.4771,3.18002,12,13
-7.42636,8.75996,-0.601864,33,6
-10.1133,11.9336,3.61136,26,14
-10.0951,11.9164,-0.272607,32,7
-10.2237,12.0725,4.23894,10,15
-0.3922,0.464599,-0.140369,13,1
-10.3691,12.2875,0.842609,53,9
-0.475974,0.564237,-0.143488,22,2
-9.80133,11.623,1.33017,37,10
-7.5996,9.01523,-1.86751,12,3
-9.45762,11.2194,1.80172,48,11
-6.80265,8.07269,-1.2962,33,4
-7.42415,8.81646,-1.00839,29,5
-10.6569,12.66,3.21666,20,13
-6.85282,8.14375,-0.557797,54,6
-10.0996,12.0064,3.62216,45,14
-10.3804,12.3402,-0.281472,86,7
-10.3904,12.3565,4.3259,18,15
-8.40113,10.0227,0.228277,10,8
-0.390494,0.466033,-0.140369,13,1
-7.02303,8.3816,0.573079,21,9
-0.479044,0.571915,-0.145015,21,2
-7.57442,9.04928,-1.86908,20,3
-9.39605,11.2296,1.79782,44,11
-6.78321,8.10975,-1.29815,67,4
-23.0877,27.6027,5.69953,25,12
-7.08533,8.47396,-0.966383,54,5
-10.1216,12.1096,3.06783,31,13
-6.77441,8.10785,-0.553715,84,6
-6.89662,8.25705,-0.187788,27,7
-10.0922,12.0872,4.21927,22,15
-0.370824,0.445392,-0.155291,12,0
-0.373987,0.449351,-0.134971,14,1
-8.18171,9.83394,0.670424,10,9
-0.45947,0.552452,-0.139672,23,2
-8.07936,9.71782,1.10566,4,10
-9.20757,11.0748,-2.28113,8,3
-10.2609,12.3461,1.97111,34,11
-6.77277,8.15205,-1.30132,63,4
-7.17788,8.6458,-0.983117,51,5
-10.0601,12.1174,3.06134,23,13
-6.77172,8.15947,-0.555703,80,6
-10.2354,12.3373,3.70089,19,14
-7.2954,8.79672,-0.199481,100,7
-10.1227,12.2101,4.24981,15,15
-8.33781,10.0859,0.228417,38,8
-0.369934,0.44765,-0.134071,14,1
-0.466388,0.564568,-0.142344,22,2
-6.68328,8.09307,0.918273,18,10
-9.15125,11.0856,-2.27675,21,3
-9.71107,11.7679,1.87338,8,11
-6.73416,8.16339,-1.29937,72,4
-10.6181,12.8716,2.6428,11,12
-7.22903,8.7664,-0.994098,53,5
-13.8365,16.785,4.22833,18,13
-6.81432,8.26937,-0.561565,33,6
-10.2195,12.406,3.71079,35,14
-6.87968,8.35165,-0.18887,100,7
-10.1411,12.3152,4.27466,12,15
-0.385757,0.469962,-0.140369,13,1
-8.14245,9.92337,0.672726,66,9
-0.461924,0.563157,-0.14158,23,2
-8.36422,10.2009,1.15412,65,10
-9.04555,11.0318,-2.25954,45,3
-6.68206,8.15226,1.29425,12,11
-6.66051,8.12886,-1.29035,70,4
-7.17314,8.76075,-0.990612,53,5
-13.8766,16.9478,4.25771,11,13
-6.79825,8.30583,-0.562507,77,6
-10.2486,12.5258,3.73644,40,14
-6.86567,8.39419,-0.189289,100,7
-9.92559,12.1397,4.20167,50,15
-0.366296,0.449123,-0.155291,12,0
-8.90582,10.9235,0.246009,6,8
-0.375496,0.460731,-0.13722,13,1
-8.10698,9.94722,0.672517,63,9
-0.471214,0.578384,-0.145015,43,2
-6.61924,8.12756,0.917053,50,10
-7.73115,9.49622,-1.93947,10,3
-9.52048,11.6983,1.85193,16,11
-6.60829,8.1228,-1.28572,24,4
-10.7123,13.1673,2.68848,10,12
-7.18177,8.83086,-0.995842,46,5
-13.8161,16.9946,4.25733,2,13
-6.77425,8.33571,-0.562926,100,6
-12.9425,15.9314,4.73882,24,14
-6.54654,8.05838,-0.181226,54,7
-9.91938,12.2145,4.21616,27,15
-8.29821,10.2474,0.230162,13,8
-0.354348,0.43774,-0.130022,14,1
-8.10989,10.022,0.675657,70,9
-0.466723,0.576972,-0.144252,44,2
-6.6021,8.16456,0.918622,36,10
-7.29221,9.01799,-1.83685,51,3
-9.71125,12.0138,1.89677,16,11
-8.15709,10.0948,-1.59356,14,4
-10.5433,13.0525,2.65751,17,12
-7.17217,8.88223,-0.998805,17,5
-13.8336,17.132,4.28023,19,13
-6.77794,8.39699,-0.565542,47,6
-10.1252,12.5483,3.72249,20,14
-6.50832,8.06873,-0.180947,100,7
-9.97612,12.3724,4.25861,18,15
-7.10808,8.84382,0.19805,17,8
-0.357624,0.445112,-0.131821,14,1
-0.459789,0.572475,-0.142725,56,2
-7.82715,9.74894,1.0938,22,10
-7.25169,9.03542,-1.83498,28,3
-9.68331,12.0695,1.89994,8,11
-6.71661,8.3747,-1.31814,30,4
-10.3803,12.9428,2.62779,8,12
-10.5821,13.1991,-1.48008,24,5
-9.7903,12.2159,3.04302,10,13
-6.77958,8.4623,-0.568264,67,6
-13.0113,16.2465,4.8054,17,14
-6.48637,8.0992,-0.181121,40,7
-9.8556,12.3106,4.22548,20,15
-7.08245,8.87203,0.198155,6,8
-0.373163,0.46762,-0.13812,13,1
-7.05827,8.84808,0.593176,34,9
-0.460236,0.577147,-0.143488,55,2
-7.81667,9.8058,1.09712,30,10
-7.23646,9.07795,-1.83873,55,3
-6.62469,8.31348,1.30522,12,11
-6.77414,8.50406,-1.33496,66,4
-10.6624,13.39,2.71101,34,12
-6.79109,8.53146,-0.954007,56,5
-9.76319,12.2652,3.04722,10,13
-6.73283,8.46129,-0.566694,70,6
-12.9804,16.3186,4.81395,4,14
-6.43565,8.09363,-0.180493,39,7
-9.80175,12.3313,4.22082,28,15
-0.373948,0.471975,-0.13902,13,1
-7.02889,8.87144,0.593176,33,9
-0.458319,0.57867,-0.143488,44,2
-6.54489,8.26648,0.922456,66,10
-7.08459,8.95136,-1.80807,28,3
-6.50942,8.22758,1.28816,63,11
-6.773,8.56073,-1.34032,12,4
-8.39017,10.6086,2.14221,36,12
-6.79984,8.60082,-0.959236,32,5
-9.69597,12.2684,3.03959,20,13
-6.71687,8.50198,-0.567845,54,6
-13.0385,16.5037,4.85579,21,14
-6.44596,8.162,-0.18154,100,7
-0.358561,0.455323,-0.155291,12,0
-6.93532,8.81005,0.195711,86,8
-0.348279,0.442583,-0.130022,14,1
-6.93027,8.8068,0.587314,18,9
-0.458825,0.583273,-0.144252,44,2
-6.5938,8.38523,0.933264,93,10
-6.99627,8.90026,-1.79305,57,3
-6.44285,8.19917,1.28036,30,11
-6.84882,8.71582,-1.36104,44,4
-8.25367,10.5074,2.11625,15,12
-6.8168,8.6813,-0.965686,56,5
-9.74614,12.4163,3.06821,15,13
-6.71084,8.55249,-0.569729,50,6
-13.0643,16.6496,4.88594,40,14
-6.43243,8.20064,-0.181924,31,7
-10.0869,12.8643,4.38025,31,15
-6.39245,8.17607,0.181156,56,8
-0.37561,0.480586,-0.140819,13,1
-0.458097,0.586338,-0.144633,44,2
-6.48378,8.30185,0.921585,84,10
-6.90351,8.84245,-1.77678,57,3
-10.0711,12.9043,2.00987,25,11
-6.77196,8.68019,-1.35177,34,4
-6.81126,8.73371,-0.968998,40,5
-9.71216,12.4579,3.0705,12,13
-6.65174,8.53531,-0.567112,64,6
-13.2265,16.978,4.96872,41,14
-6.35462,8.15993,-0.180528,42,7
-9.92563,12.75,4.32952,13,15
-0.355453,0.457753,-0.155291,12,0
-6.38594,8.22677,0.181784,61,8
-0.37393,0.481894,-0.140819,13,1
-6.83312,8.8092,0.584279,83,9
-0.442812,0.570869,-0.140435,23,2
-6.49139,8.37167,0.926814,92,10
-7.03476,9.0757,-1.81871,15,3
-11.181,14.4301,2.24142,9,11
-6.70394,8.65513,-1.34422,35,4
-6.77829,8.75429,-0.968649,55,5
-9.90415,12.796,3.1453,8,13
-6.68791,8.64378,-0.572765,60,6
-12.8071,16.5585,4.83285,25,14
-6.33834,8.19788,-0.180877,30,7
-9.81372,12.6975,4.30002,18,15
-6.36939,8.26485,0.182133,55,8
-0.384139,0.498634,-0.145318,12,1
-6.76455,8.78395,0.581034,125,9
-0.452795,0.587966,-0.144252,22,2
-6.44025,8.36586,0.923677,32,10
-7.11267,9.24266,-1.84718,15,3
-6.54811,8.5121,1.31863,3,11
-6.58655,8.56518,-1.32667,52,4
-10.2849,13.3794,2.67284,18,12
-6.71581,8.73957,-0.964291,62,5
-6.60903,8.60372,-0.568578,54,6
-7.9199,10.314,3.0022,17,14
-6.39978,8.33734,-0.18346,100,7
-0.352169,0.460284,-0.155291,12,0
-6.26395,8.18698,0.179934,37,8
-0.353983,0.462822,-0.134521,14,1
-6.58949,8.61869,0.568578,62,9
-0.450637,0.589622,-0.144252,22,2
-7.08474,9.27652,-1.84874,38,3
-7.90275,10.3476,1.59868,32,11
-6.59878,8.64334,-1.3352,72,4
-8.93067,11.702,2.3315,50,12
-6.42544,8.42239,-0.926814,22,5
-8.66227,11.3585,2.77665,27,13
-6.62589,8.69142,-0.572765,27,6
-6.35004,8.33259,-0.182866,72,7
-9.61479,12.6212,4.25136,21,15
-6.2339,8.20989,0.179934,81,8
-0.345215,0.454803,-0.131821,14,1
-6.51589,8.58437,0.56481,102,9
-0.443829,0.584935,-0.142725,22,2
-7.58547,10.0007,1.09816,78,10
-9.54193,12.5847,-2.50139,18,3
-7.9583,10.4999,1.61769,83,11
-6.40683,8.45906,-0.928383,52,5
-7.92931,10.473,2.55341,64,13
-8.84342,11.6846,-0.767978,39,6
-7.71421,10.1963,2.95181,36,14
-6.3378,8.37703,-0.183355,25,7
-9.61962,12.7194,4.2731,40,15
-0.348947,0.462732,-0.155291,12,0
-6.21026,8.2353,0.180039,66,8
-0.348397,0.46217,-0.133621,14,1
-6.47026,8.58633,0.563449,78,9
-0.44651,0.592753,-0.144252,22,2
-7.89928,10.4903,1.14889,87,10
-7.03213,9.33873,-1.85156,41,3
-7.9318,10.5373,1.6194,94,11
-6.76386,8.98899,-1.38127,44,4
-6.43234,8.55463,-0.936401,82,5
-7.58423,10.0866,2.45304,50,13
-6.56657,8.73632,-0.572765,87,6
-12.4939,16.6282,4.80181,51,14
-6.35896,8.46626,-0.184821,32,7
-9.73176,12.9615,4.34298,25,15
-6.21982,8.30815,0.181156,100,8
-0.356122,0.475865,-0.13722,13,1
-6.35799,8.4958,0.556122,30,9
-0.449246,0.600519,-0.145778,21,2
-7.90502,10.5707,1.15481,40,10
-6.98174,9.33949,-1.84687,68,3
-7.91754,10.5952,1.62403,75,11
-6.98549,9.35129,-1.43318,8,4
-7.98572,10.6903,2.11343,40,12
-6.40394,8.57591,-0.936401,68,5
-7.60534,10.1885,2.47136,58,13
-6.3282,8.48066,-0.554552,100,6
-12.4136,16.642,4.79326,45,14
-6.2902,8.4328,-0.183634,30,7
-9.51434,12.7598,4.26482,10,15
-6.24234,8.39614,0.182622,50,8
-0.338268,0.455146,-0.130922,14,1
-6.23896,8.3977,0.548272,127,9
-0.438953,0.591051,-0.143107,22,2
-6.35146,8.55537,0.932218,51,10
-7.79364,10.5018,1.60575,47,11
-7.15432,9.64384,-1.47438,34,4
-7.5777,10.2183,2.01488,71,12
-6.39176,8.62222,-0.939016,72,5
-7.59256,10.242,2.47823,58,13
-6.2715,8.46308,-0.55204,100,6
-12.3653,16.6925,4.79596,45,14
-6.25478,8.44667,-0.18346,28,7
-9.48584,12.8147,4.27207,26,15
-6.25456,8.47418,0.183844,100,8
-0.348247,0.472006,-0.135421,13,1
-6.26325,8.48906,0.552877,48,9
-0.432329,0.586183,-0.14158,34,2
-8.24078,11.1775,1.21495,21,10
-6.93911,9.41542,-1.8525,5,3
-7.72044,10.4794,1.59819,79,11
-6.97347,9.46895,-1.44391,39,4
-7.60234,10.3229,2.03052,58,12
-6.39975,8.69311,-0.94442,60,5
-7.62425,10.3602,2.50036,58,13
-6.27388,8.52836,-0.554866,80,6
-6.3298,8.60753,-0.186496,100,7
-9.44214,12.8445,4.27155,26,15
-0.342615,0.467439,-0.155291,12,0
-5.9829,8.16263,0.176653,75,8
-0.35359,0.48259,-0.13812,13,1
-6.22886,8.50443,0.552458,131,9
-0.437239,0.597193,-0.14387,44,2
-8.02168,10.9602,1.18828,65,10
-7.70585,10.5287,-2.0665,27,3
-7.60945,10.4008,1.58235,83,11
-6.96077,9.51766,-1.44781,37,4
-7.55344,10.3318,2.02708,50,12
-6.17657,8.45159,-0.915833,52,5
-7.48097,10.2364,2.46449,46,13
-7.70769,10.5505,-0.684764,26,6
-12.2365,16.7558,4.79011,45,14
-6.15233,8.42768,-0.182133,100,7
-9.36081,12.8275,4.25499,26,15
-0.341063,0.468573,-0.155291,12,0
-5.87319,8.0719,0.174245,51,8
-0.347319,0.477517,-0.13632,13,1
-6.25199,8.59881,0.557169,33,9
-0.432947,0.595464,-0.143107,45,2
-6.8853,9.47681,-1.85531,26,3
-7.5731,10.4273,1.58235,61,11
-6.88786,9.48728,-1.43952,56,4
-7.66932,10.5675,2.06806,10,12
-6.12861,8.44461,-0.912869,43,5
-7.48324,10.3149,2.47708,71,13
-6.20384,8.56083,-0.184542,100,7
-9.31938,12.8648,4.25654,15,15
-0.339425,0.469761,-0.155291,12,0
-6.02061,8.33551,0.179481,100,8
-0.334242,0.462927,-0.131821,14,1
-5.9753,8.27887,0.535083,112,9
-0.425121,0.589012,-0.141199,58,2
-8.64284,11.9792,1.29235,22,10
-6.96889,9.66261,-1.88691,46,3
-7.56916,10.4988,1.58918,54,11
-6.67248,9.25843,-1.40125,64,4
-8.61848,11.963,2.33525,8,12
-7.82739,10.8649,-1.17155,27,5
-7.61354,10.572,2.53242,50,13
-6.59064,9.15498,-0.591187,91,6
-6.12137,8.50938,-0.182971,100,7
-0.29725,0.414429,-0.136656,14,0
-5.88894,8.21346,0.176409,56,8
-0.341706,0.476762,-0.135421,13,1
-6.18982,8.6363,0.556855,48,9
-0.421919,0.588896,-0.140817,46,2
-8.55225,11.9412,1.28502,100,10
-6.94662,9.70293,-1.89004,42,3
-7.45968,10.4234,1.57382,29,11
-6.71452,9.38221,-1.41661,13,4
-8.99023,12.5667,2.44726,12,12
-7.49439,10.4835,2.50494,34,13
-6.34149,8.87405,-0.571613,30,6
-7.9425,11.1144,3.15381,90,14
-12.0472,16.8709,5.55477,24,15
-0.295874,0.415413,-0.136656,14,0
-6.16902,8.66463,0.185659,68,8
-0.355943,0.50012,-0.141719,13,1
-6.23758,8.76417,0.563763,38,9
-0.422241,0.593491,-0.14158,46,2
-8.5992,12.0913,1.2981,34,10
-6.92928,9.74685,-1.89411,28,3
-11.0519,15.5516,2.34257,20,11
-6.94901,9.7782,-1.47291,15,4
-7.62488,10.7332,2.08527,10,12
-6.15669,8.66972,-0.9303,18,5
-7.58232,10.6812,2.54616,52,13
-6.35364,8.95367,-0.575382,81,6
-7.93153,11.1773,3.16416,72,14
-5.94563,8.3818,-0.179376,21,7
-12.0046,16.9296,5.56099,13,15
-0.334653,0.473172,-0.155291,12,0
-6.27878,8.88098,0.189847,15,8
-0.338537,0.479018,-0.135421,13,1
-5.92146,8.37868,0.5377,85,9
-0.44066,0.623751,-0.148449,41,2
-6.19489,8.77206,0.939539,21,10
-6.9892,9.90049,-1.91945,37,3
-10.8195,15.3319,2.30406,19,11
-6.54867,9.28332,-1.39492,57,4
-9.53345,13.5195,-1.44731,23,5
-7.54573,10.7047,2.54577,56,13
-6.47807,9.19347,-0.589408,23,6
-5.90284,8.38022,-0.178922,26,7
-11.8772,16.8683,5.52786,18,15
-0.332999,0.474338,-0.155291,12,0
-5.69894,8.11779,0.173128,10,8
-0.341424,0.486519,-0.13722,13,1
-5.85663,8.34861,0.534455,86,9
-0.429463,0.612426,-0.145396,32,2
-7.93116,11.3143,1.20885,5,10
-7.00962,9.99964,-1.93416,17,3
-7.92748,11.3132,1.69618,22,11
-6.51329,9.29848,-1.39394,16,4
-9.55818,13.6556,-1.45829,25,5
-7.8513,11.217,2.6614,62,13
-6.37771,9.11507,-0.583023,64,6
-5.83459,8.34505,-0.177735,27,7
-11.8482,16.9524,5.54183,20,15
-0.331424,0.475439,-0.155291,12,0
-5.67285,8.14092,0.173198,5,8
-0.335268,0.481311,-0.135421,13,1
-7.609,10.9276,0.697848,21,9
-0.424064,0.609013,-0.144252,22,2
-8.50255,12.2154,1.30211,66,10
-7.88794,11.3408,1.69618,7,11
-7.41909,10.6707,-1.59576,45,4
-7.75972,11.1648,2.15348,61,12
-6.18687,8.90174,-0.948429,56,5
-6.38914,9.19962,-0.587,81,6
-5.7963,8.35222,-0.177456,35,7
-7.97452,11.4952,3.74874,12,15
-0.274802,0.397161,-0.12941,15,0
-0.322504,0.466449,-0.130922,14,1
-0.428633,0.62018,-0.146541,21,2
-8.49722,12.2991,1.30786,60,10
-7.60245,11.0122,1.64304,48,11
-6.61508,9.58554,-1.43001,17,4
-7.70948,11.1755,2.15035,48,12
-6.15124,8.91672,-0.947732,48,5
-6.13594,8.90121,-0.566589,54,6
-5.91118,8.58155,-0.181889,99,7
-11.8117,17.154,5.58066,18,15
-0.273414,0.398118,-0.12941,15,0
-0.327489,0.477213,-0.133621,14,1
-7.19246,10.4847,0.666341,52,9
-0.428687,0.62491,-0.147305,21,2
-8.46889,12.35,1.31013,34,10
-7.1804,10.4749,-2.01143,42,3
-7.5808,11.0632,1.6467,30,11
-7.34441,10.7222,-1.59576,52,4
-7.97175,11.6424,2.23482,43,12
-6.08293,8.88389,-0.941979,48,5
-7.74561,11.3164,2.6656,27,13
-5.97288,8.72971,-0.554343,94,6
-7.82744,11.4445,3.20105,58,14
-5.9647,8.72429,-0.184472,21,7
-11.8019,17.2685,5.60447,24,15
-0.326428,0.478884,-0.155291,12,0
-7.14344,10.4837,0.221436,20,8
-0.334598,0.491238,-0.13722,13,1
-7.15244,10.5048,0.666027,129,9
-0.448601,0.658859,-0.154937,18,2
-8.43358,12.391,1.31135,54,10
-6.62487,9.73722,-1.86532,33,3
-7.64819,11.2455,1.66985,52,11
-7.34154,10.7987,-1.60331,47,4
-7.72232,11.363,2.176,39,12
-6.20307,9.12753,-0.965511,22,5
-7.74688,11.4035,2.67972,60,13
-5.94238,8.75051,-0.554343,94,6
-7.67142,11.3009,3.15336,92,14
-5.91625,8.71858,-0.183913,31,7
-13.1882,19.4423,6.295,16,15
-0.285783,0.422418,-0.136656,14,0
-5.76364,8.52246,0.179585,88,8
-0.332881,0.492403,-0.13722,13,1
-6.59348,9.75686,0.617146,83,9
-0.433108,0.640901,-0.150357,19,2
-8.36239,12.3791,1.30699,57,10
-8.1595,12.0833,-2.30929,27,3
-7.62221,11.2919,1.67278,30,11
-7.25827,10.7568,-1.59332,48,4
-7.77871,11.5324,2.20322,52,12
-6.21524,9.21794,-0.972658,19,5
-7.63788,11.3279,2.65568,37,13
-7.78002,11.5474,3.21455,45,14
-5.83663,8.6662,-0.182378,45,7
-13.1461,19.5267,6.30742,20,15
-0.322992,0.481207,-0.155291,12,0
-5.78289,8.61558,0.181121,52,8
-0.335503,0.500035,-0.13902,13,1
-6.961,10.3786,0.654932,86,9
-0.426383,0.635962,-0.148831,20,2
-7.44844,11.1138,1.1705,77,10
-8.73636,13.0404,-2.48606,10,3
-7.53193,11.2426,1.66157,30,11
-7.19086,10.7375,-1.58674,26,4
-7.61314,11.3724,2.16756,67,12
-6.18192,9.23792,-0.972484,38,5
-7.67163,11.4684,2.68201,60,13
-5.91069,8.83929,-0.557273,67,6
-7.76363,11.6147,3.22535,92,14
-5.83412,8.72808,-0.18325,26,7
-17.9667,26.8891,8.66526,7,15
-6.74768,10.133,0.2125,86,8
-0.340147,0.510995,-0.141719,13,1
-6.93691,10.4211,0.656084,49,9
-5.63154,8.46333,-1.97602,4,2
-7.31912,11.0037,1.15621,100,10
-6.42786,9.66738,-1.83873,2,3
-7.48957,11.2684,1.66132,48,11
-6.61976,9.96354,-1.46877,12,4
-7.54606,11.3577,2.15973,56,12
-7.97171,12.0029,-1.26062,42,5
-7.60114,11.4493,2.67133,27,13
-5.84335,8.80495,-0.553819,100,6
-7.43218,11.2033,3.10387,55,14
-5.79589,8.73673,-0.183006,33,7
-7.67758,11.5776,3.72234,3,15
-6.69089,10.1203,0.211768,60,8
-0.32126,0.486107,-0.134521,14,1
-5.86702,8.8843,-2.06951,7,2
-7.28615,11.0375,1.15708,100,10
-7.35453,11.141,-2.11437,41,3
-7.92339,12.0073,1.76637,58,11
-7.47049,11.3296,2.14941,45,12
-6.45937,9.79987,-1.02687,36,5
-10.006,15.1807,3.53416,35,13
-5.79984,8.8026,-0.552458,94,6
-7.58471,11.5159,3.18351,74,14
-5.93469,9.01412,-0.188381,33,7
-12.1869,18.5175,5.9399,19,15
-6.1158,9.32103,0.194594,10,8
-0.311011,0.47419,-0.130922,14,1
-7.16157,10.919,0.684345,19,9
-5.8343,8.89879,-2.06837,4,2
-7.15122,10.9116,1.14139,47,10
-7.20627,10.9997,-2.08277,45,3
-7.42031,11.3308,1.66303,22,11
-6.56985,10.0321,-1.47243,46,4
-7.4318,11.3526,2.1491,61,12
-5.81045,8.87929,-0.928383,34,5
-11.5575,17.6685,4.10392,31,13
-6.28937,9.61848,-0.602282,81,6
-8.77828,13.4248,3.70314,26,14
-6.03825,9.23796,-0.19264,24,7
-12.0663,18.4673,5.91091,19,15
-6.11104,9.38148,0.195432,35,8
-0.343464,0.527476,-0.145318,12,1
-7.11006,10.9193,0.68288,9,9
-5.65375,8.68608,-2.01456,9,2
-6.57061,10.0986,1.05406,27,10
-6.80679,10.4655,-1.97733,12,3
-7.37945,11.3503,1.6623,56,11
-6.53005,10.0439,-1.47096,45,4
-7.41348,11.407,2.15473,49,12
-5.78966,8.91188,-0.929777,56,5
-11.5866,17.8417,4.13521,17,13
-7.71359,11.8824,-0.742438,35,6
-7.35962,11.3371,3.12052,57,14
-5.93138,9.14051,-0.190196,31,7
-11.9545,18.4294,5.88606,11,15
-6.82917,10.5603,0.219516,65,8
-0.341713,0.528612,-0.145318,12,1
-5.72508,8.85978,-2.05043,9,2
-7.83266,12.1353,1.77344,42,11
-6.54877,10.15,-1.48315,34,4
-7.40788,11.486,2.16474,50,12
-5.83782,9.05159,-0.942328,64,5
-6.10426,9.47195,-0.590559,37,6
-7.45192,11.5675,3.17676,67,14
-7.48987,11.6309,-0.241471,28,7
-11.8786,18.4532,5.88037,2,15
-0.313099,0.487702,-0.155291,12,0
-6.90242,10.7558,0.223077,41,8
-0.314612,0.490436,-0.134521,14,1
-7.23203,11.278,0.702139,36,9
-5.59025,8.71776,-2.01304,11,2
-6.56301,10.2387,1.064,31,10
-6.76417,10.5565,-1.98578,60,3
-6.97974,10.8972,1.58893,14,11
-6.52293,10.1879,-1.48534,70,4
-7.41459,11.585,2.17851,82,12
-5.78578,9.04002,-0.939016,32,5
-7.5205,11.755,2.71254,29,13
-5.99368,9.37206,-0.583023,87,6
-8.80856,13.7789,3.77558,35,14
-7.42769,11.6233,-0.240773,60,7
-8.24387,12.9055,4.10332,5,15
-0.338014,0.530985,-0.145318,12,1
-7.23015,11.3622,0.705803,38,9
-5.55874,8.73556,-2.01265,4,2
-6.50905,10.2329,1.06103,78,10
-6.77286,10.6518,-1.99923,15,3
-6.9438,10.9248,1.58942,58,11
-6.51607,10.2558,-1.49192,24,4
-7.35717,11.5841,2.1735,37,12
-5.74245,9.04166,-0.937099,18,5
-7.63516,12.0264,2.76902,18,13
-5.88388,9.2715,-0.575486,100,6
-8.83452,13.9264,3.80752,20,14
-8.20187,12.939,4.10487,28,15
-6.93827,10.9795,0.226707,23,8
-0.313262,0.495915,-0.135421,13,1
-5.49781,8.70677,-2.00159,11,2
-8.37583,13.2697,1.37288,33,10
-5.99145,9.49587,-1.77835,32,3
-7.12482,11.2965,1.63987,45,11
-7.5368,11.959,2.23889,72,12
-7.70091,12.2241,2.80833,41,13
-5.85148,9.29199,-0.575486,81,6
-8.47545,13.464,3.673,83,14
-7.37512,11.7206,-0.241716,100,7
-11.7999,18.7597,5.93834,13,15
-5.80675,9.26034,0.19079,56,8
-0.30946,0.493703,-0.134521,14,1
-6.75828,10.7862,0.667074,13,9
-5.49866,8.77582,-2.01304,14,2
-6.8626,10.9569,1.13111,45,10
-5.88174,9.3945,-1.75551,65,3
-6.83997,10.9293,1.58308,65,11
-6.86018,10.9658,-1.5882,27,4
-7.68983,12.2967,2.29708,20,12
-6.14505,9.8265,-1.01397,58,5
-7.64883,12.2359,2.80489,52,13
-5.86134,9.38011,-0.579673,81,6
-8.46557,13.553,3.6892,28,14
-7.74615,12.4061,-0.255294,35,7
-11.9369,19.1252,6.04084,11,15
-0.306259,0.492026,-0.155291,12,0
-6.92694,11.1329,0.228871,37,8
-0.315968,0.508019,-0.13812,13,1
-5.51775,8.87498,-2.03135,11,2
-6.95787,11.1957,1.15324,100,10
-5.83015,9.38477,-1.74988,51,3
-6.76932,10.9008,1.57553,43,11
-6.40098,10.3117,-1.49022,63,4
-7.69894,12.4074,2.31273,35,12
-6.10126,9.83265,-1.0124,18,5
-7.60711,12.2642,2.80527,30,13
-5.79278,9.3428,-0.576114,100,6
-8.5219,13.7498,3.73464,50,14
-7.15726,11.5525,-0.237213,29,7
-12.4244,20.0619,6.32295,13,15
-0.30454,0.493092,-0.155291,12,0
-6.908,11.1894,0.229534,60,8
-0.342849,0.555553,-0.150717,11,1
-6.12563,9.92599,0.611284,106,9
-5.50117,8.91759,-2.0367,4,2
-5.46566,8.86696,-1.64976,8,3
-7.78923,12.6414,1.82317,24,11
-7.18109,11.6544,-1.68082,40,4
-7.59559,12.332,2.29396,16,12
-6.08257,9.87934,-1.01502,18,5
-7.47781,12.1503,2.77322,35,13
-7.0547,11.4672,-0.705593,52,6
-8.3333,13.5456,3.67165,30,14
-7.37974,12.0003,-0.245904,23,7
-8.09553,13.1694,4.14214,1,15
-6.47486,10.566,0.216305,30,8
-0.306395,0.500187,-0.135421,13,1
-6.11981,9.99053,0.614006,47,9
-5.46849,8.93075,-2.03555,11,2
-6.45818,10.5512,1.0823,9,10
-8.03012,13.1245,-2.43694,24,3
-7.74312,12.6604,1.82219,8,11
-6.05592,9.90174,-1.42514,57,4
-6.0612,9.91816,-1.01693,4,5
-7.42724,12.1582,2.7694,40,13
-6.97187,11.4173,-0.701093,74,6
-10.6598,17.4567,4.72217,32,14
-8.86103,14.5167,-0.296865,62,7
-8.04678,13.1879,4.13955,15,15
-0.301263,0.495101,-0.155291,12,0
-6.74323,11.0863,0.226497,15,8
-0.310809,0.511191,-0.13812,13,1
-6.09631,10.0306,0.615157,135,9
-5.46025,8.98407,-2.04356,7,2
-5.40878,8.90639,-1.65038,13,3
-7.54658,12.4315,1.78563,4,11
-7.10262,11.7048,-1.68107,26,4
-7.408,12.2128,2.26236,30,12
-6.64015,10.9512,-1.12047,45,5
-6.61202,10.9091,-0.66854,94,6
-10.5917,17.4821,4.71902,40,14
-8.29235,13.6923,-0.279413,100,7
-7.92567,13.092,4.10073,30,15
-0.299446,0.496202,-0.155291,12,0
-6.33667,10.5003,0.214071,31,8
-0.317076,0.525622,-0.141719,13,1
-6.11695,10.1442,0.620809,66,9
-5.40905,8.97376,-2.0367,11,2
-6.95812,11.5483,1.17957,42,10
-6.57523,10.9171,1.5648,7,11
-7.06479,11.7346,-1.6818,35,4
-7.36125,12.2318,2.2611,13,12
-6.70561,11.1468,-1.13808,26,5
-6.72531,11.1884,-0.684136,39,6
-10.5356,17.5342,4.72262,16,14
-8.2651,13.7554,-0.280111,86,7
-7.80731,12.9987,4.06294,27,15
-7.05807,11.7932,0.239901,57,8
-0.315147,0.526781,-0.141719,13,1
-6.07433,10.1535,0.620076,45,9
-5.36761,8.97574,-2.03288,14,2
-7.08031,11.8444,1.20728,100,10
-6.34702,10.6219,-1.95981,22,3
-6.56571,10.9923,1.57211,87,11
-5.89693,9.87259,-1.41198,19,4
-6.75039,11.3104,-1.15237,42,5
-10.8321,18.1566,4.10964,29,13
-8.23758,13.8132,3.71304,27,14
-9.94748,16.687,-0.3391,100,7
-7.7431,12.9943,4.05311,22,15
-0.329317,0.554633,-0.148918,12,1
-6.02533,10.1478,0.618506,17,9
-5.25365,8.85167,-2.00082,11,2
-6.78887,11.4429,1.16405,37,10
-5.29003,8.92006,-1.64256,60,3
-6.59401,11.1233,1.58771,43,11
-7.84418,13.2321,-1.88873,6,4
-7.5034,12.6623,2.33119,12,12
-8.46341,14.2881,-1.45289,31,5
-10.8288,18.2887,4.1314,29,13
-6.37534,10.7715,-0.655979,87,6
-8.21753,13.884,3.72474,32,14
-6.81399,11.5172,-0.233583,63,7
-7.66456,12.9601,4.03447,33,15
-0.311647,0.528859,-0.141719,13,1
-6.24532,10.6024,0.644884,19,9
-5.05587,8.58317,-1.93633,26,2
-6.75696,11.4756,1.1651,25,10
-5.16925,8.78264,-1.61409,63,3
-6.58628,11.1947,1.59478,79,11
-5.89198,10.0186,-1.42709,6,4
-7.52423,12.7991,2.35152,9,12
-6.78933,11.549,-1.17207,30,5
-10.7184,18.2399,4.11232,17,13
-6.63901,11.3024,-0.686962,87,6
-8.22427,14.0067,3.74993,40,14
-9.74459,16.6026,-0.336029,100,7
-7.77569,13.2533,4.11729,20,15
-0.303897,0.51985,-0.13902,13,1
-5.06055,8.66009,-1.94969,23,2
-6.73193,11.5249,1.16771,47,10
-5.1525,8.82451,-1.61847,56,3
-6.56818,11.2536,1.5999,43,11
-7.94168,13.6124,-1.93504,23,4
-8.35893,14.3333,-1.45167,28,5
-10.4213,17.8769,4.02225,16,13
-7.57113,12.9981,3.47279,20,14
-8.80113,15.1158,-0.305312,100,7
-7.8149,13.4273,4.16285,16,15
-0.290916,0.501251,-0.155291,12,0
-7.0795,12.203,0.246253,13,8
-0.298171,0.514164,-0.13722,13,1
-6.26919,10.8106,0.654932,79,9
-5.06081,8.73035,-1.96152,19,2
-6.82851,11.7845,1.19159,80,10
-5.1474,8.88689,-1.62661,72,3
-6.65816,11.4998,1.63159,7,11
-7.91301,13.6726,-1.93967,48,4
-7.41615,12.8141,2.34495,32,12
-8.241,14.2451,-1.43981,31,5
-10.5309,18.2106,4.08904,8,13
-7.51888,13.0126,3.46965,45,14
-9.25018,16.0089,-0.32273,100,7
-7.751,13.4197,4.15249,21,15
-7.9579,13.8225,0.278401,22,8
-0.288688,0.501638,-0.133621,14,1
-6.87378,11.949,0.722446,41,9
-5.26518,9.15643,-2.0531,26,2
-6.60464,11.4905,1.15952,90,10
-5.10905,8.88849,-1.62379,77,3
-6.65163,11.5769,1.63939,3,11
-6.20769,10.8086,-1.53044,54,4
-7.14025,12.4374,2.27143,47,12
-8.25668,14.3878,-1.45132,14,5
-9.59193,16.7146,3.74596,34,13
-6.44576,11.2367,-0.678902,100,6
-8.02338,13.9926,3.72384,50,14
-6.56405,11.4522,-0.230407,44,7
-7.72524,13.4836,4.16388,15,15
-6.37648,11.1656,0.224438,60,8
-0.312054,0.546645,-0.145318,12,1
-6.0608,10.6171,0.640697,35,9
-5.00905,8.77824,-1.96457,23,2
-6.56354,11.5071,1.159,57,10
-5.06821,8.88911,-1.62066,56,3
-6.87461,12.0623,1.70471,19,11
-6.22003,10.9182,-1.54287,30,4
-6.36951,11.1805,2.03803,11,12
-6.27649,11.0217,-1.10967,45,5
-9.48497,16.6627,3.72688,9,13
-6.14277,10.7957,-0.650955,65,6
-9.71352,17.0781,4.53591,27,14
-6.56954,11.5504,-0.231942,38,7
-7.68049,13.5091,4.16388,15,15
-6.34731,11.2006,0.224717,77,8
-0.300634,0.530721,-0.140819,13,1
-6.02272,10.6365,0.640592,70,9
-5.31395,9.38854,-2.09699,11,2
-6.83826,12.0866,1.21495,52,10
-5.02995,8.8904,-1.61785,63,3
-6.96454,12.3148,1.73713,58,11
-6.17793,10.9284,-1.5414,36,4
-6.34016,11.2199,2.04116,45,12
-6.24679,11.0592,-1.11124,26,5
-9.34082,16.5368,3.69177,1,13
-6.10006,10.8038,-0.650222,52,6
-7.81972,13.8551,3.673,68,14
-6.11355,10.8365,-0.217178,29,7
-7.63897,13.5459,4.16699,23,15
-6.38065,11.3562,0.22737,63,8
-0.32159,0.572598,-0.151617,11,1
-6.01205,10.709,0.643628,63,9
-4.95053,8.81813,-1.96571,19,2
-6.77166,12.0669,1.21059,26,10
-4.9838,8.88465,-1.61347,61,3
-7.03004,12.5376,1.76491,31,11
-6.08737,10.8609,-1.52873,58,4
-6.31059,11.2637,2.04491,38,12
-6.59768,11.7762,-1.18096,27,5
-7.7405,13.8216,3.07928,11,13
-6.25847,11.1799,-0.67147,29,6
-9.9157,17.7203,4.68798,23,14
-6.06208,10.8379,-0.216759,41,7
-6.26894,11.2492,0.224787,66,8
-0.306313,0.549883,-0.145318,12,1
-6.01544,10.8032,0.648024,26,9
-5.06012,9.0875,-2.02181,33,2
-6.75372,12.134,1.21495,31,10
-4.92202,8.84676,-1.60345,93,3
-6.98526,12.5604,1.76467,42,11
-7.60132,13.6737,-1.9209,31,4
-9.97199,17.9456,3.25165,17,12
-6.15782,11.0816,-1.10914,52,5
-9.50443,17.1112,3.80473,21,13
-7.61067,13.7131,3.62081,33,14
-6.06786,10.9377,-0.21833,25,7
-7.5484,13.6121,4.17061,5,15
-6.20738,11.2308,0.223984,70,8
-0.294967,0.533892,-0.140819,13,1
-8.06678,14.6009,0.87422,31,9
-4.94295,8.95044,-1.98747,26,2
-6.4109,11.6133,1.16057,20,10
-4.81667,8.72898,-1.57905,78,3
-6.9826,12.6594,1.77515,46,11
-6.61043,11.9896,-1.68107,70,4
-8.0232,14.558,-1.45428,20,5
-9.1595,16.6267,3.68986,21,13
-5.94231,10.7912,-0.645616,81,6
-9.63106,17.4971,4.61105,32,14
-6.20995,11.2819,-0.224787,39,7
-7.48087,13.5964,4.15819,8,15
-6.15665,11.2267,0.223496,60,8
-0.349399,0.637397,-0.167813,9,1
-5.93312,10.8281,0.647082,48,9
-4.85603,8.86604,-1.96495,26,2
-9.49712,17.3468,1.73022,7,10
-4.7877,8.74491,-1.57905,73,3
-6.98156,12.7574,1.78563,8,11
-7.57762,13.8523,-1.9387,36,4
-6.3023,11.5257,2.08058,5,12
-7.92073,14.4915,-1.44487,28,5
-9.10996,16.6673,3.69215,24,13
-5.90649,10.8108,-0.645616,74,6
-10.5257,19.2735,5.06995,40,14
-6.15424,11.2736,-0.224194,48,7
-11.703,21.4469,6.54657,7,15
-6.13748,11.285,0.224229,47,8
-0.300634,0.553008,-0.145318,12,1
-5.89911,10.8558,0.647501,11,9
-4.74786,8.7372,-1.9329,42,2
-6.75965,12.4445,1.23901,57,10
-4.82501,8.88656,-1.60158,61,3
-8.15375,15.0236,2.09883,49,11
-6.47093,11.9279,-1.6662,14,4
-9.0889,16.7606,3.01981,13,12
-7.10048,13.0938,-1.30315,7,5
-9.05547,16.7059,3.69368,24,13
-5.99621,11.0667,-0.659642,87,6
-10.7284,19.8087,5.20087,43,14
-6.09486,11.2581,-0.223461,48,7
-10.8998,20.142,6.1366,15,15
-0.298702,0.554054,-0.145318,12,1
-4.74435,8.80384,-1.94396,40,2
-6.53098,12.1243,1.20484,63,10
-6.106,11.3401,-2.03991,63,3
-8.06175,14.9786,2.0886,9,11
-6.4189,11.9312,-1.66352,42,4
-9.07057,16.867,3.03326,9,12
-6.86506,12.7658,-1.26812,20,5
-9.11144,16.9501,3.74062,13,13
-5.95376,11.0805,-0.659224,100,6
-7.29825,13.5884,3.56098,18,14
-6.21065,11.5683,-0.229185,37,7
-11.5639,21.5485,6.55278,7,15
-9.2274,17.2524,0.341509,29,8
-0.282065,0.527597,-0.13812,13,1
-5.78647,10.8235,0.643209,68,9
-4.81444,9.00908,-1.98556,28,2
-6.51114,12.1892,1.20902,21,10
-6.09057,11.4066,-2.04804,15,3
-9.18713,17.2132,2.39571,10,11
-13.6999,25.6793,4.60981,10,12
-7.74672,14.5266,-1.44034,31,5
-11.1781,20.97,4.6191,22,13
-6.16112,11.563,-0.686648,71,6
-7.22878,13.5725,3.55018,40,14
-6.49281,12.1907,-0.241088,39,7
-10.7116,20.1202,6.10761,18,15
-6.48115,12.215,0.241367,8,8
-0.294924,0.556074,-0.145318,12,1
-5.76924,10.8824,0.645512,10,9
-4.68093,8.83327,-1.9432,26,2
-7.74343,14.6186,1.44731,46,10
-5.93713,11.2086,-2.00893,15,3
-9.21825,17.4102,2.41886,5,11
-6.44062,12.1693,-1.69057,49,4
-13.5391,25.5925,4.58572,16,12
-7.70994,14.58,-1.44295,23,5
-11.0975,20.9861,4.61453,11,13
-6.19554,11.7211,-0.694812,42,6
-5.93099,11.2301,-0.22168,25,7
-10.6792,20.2292,6.12935,30,15
-6.38167,12.1296,0.239238,48,8
-0.278468,0.529504,-0.13812,13,1
-6.72876,12.7947,0.757615,31,9
-4.63152,8.81052,-1.9348,49,2
-7.65598,14.5701,1.43999,43,10
-5.02443,9.56608,-1.71139,5,3
-8.93411,17.017,2.35988,15,11
-6.38887,12.1742,-1.68813,42,4
-10.8647,20.7029,3.70312,24,12
-7.75965,14.7925,-1.46143,11,5
-9.04308,17.2465,3.78527,9,13
-5.98584,11.4207,-0.675762,58,6
-10.3792,19.8115,5.16353,26,14
-6.08766,11.6199,-0.228976,38,7
-10.5744,20.1927,6.10761,15,15
-6.33864,12.1453,0.239133,33,8
-0.27671,0.530425,-0.13812,13,1
-7.78207,14.9238,0.88207,11,9
-4.57804,8.78311,-1.92526,35,2
-10.2145,19.6135,2.71525,13,11
-5.68392,10.9187,-1.51142,25,4
-8.71519,16.7489,2.9904,16,12
-6.13401,11.7934,-1.16301,2,5
-10.9064,20.9689,4.5943,16,13
-6.03086,11.6,-0.685182,35,6
-10.2892,19.7991,5.15138,26,14
-6.21944,11.9729,-0.235503,39,7
-10.4985,20.2192,6.10451,15,15
-8.99536,17.3835,0.341648,23,8
-0.28202,0.545235,-0.141719,13,1
-7.85376,15.1903,0.896201,14,9
-4.69226,9.07553,-1.98594,42,2
-8.40823,16.2837,2.2502,4,11
-5.65852,10.9632,-1.51484,33,4
-8.70649,16.8757,3.00761,33,12
-7.52541,14.5865,-1.43598,25,5
-10.7719,20.8882,4.56835,30,13
-10.1951,19.7864,5.13878,25,14
-6.16845,11.9768,-0.235154,100,7
-10.8046,20.9874,6.32502,16,15
-10.0309,19.5516,0.383569,15,8
-0.278336,0.542748,-0.140819,13,1
-7.82255,15.2603,0.898713,18,9
-4.66682,9.10408,-1.98861,52,2
-5.85289,11.4228,1.12291,100,10
-4.66722,9.11271,-1.6216,33,3
-11.1891,21.856,3.0148,16,11
-5.62383,10.9899,-1.51581,60,4
-8.62954,16.8709,3.00135,12,12
-6.49274,12.6934,-1.24737,35,5
-10.7642,21.0532,4.59621,22,13
-5.81157,11.3715,-0.669272,61,6
-9.02662,17.67,4.5809,38,14
-6.34578,12.4275,-0.243566,100,7
-10.6408,20.8478,6.2717,13,15
-9.93451,19.5313,0.382487,20,8
-0.279973,0.550664,-0.142619,13,1
-5.91628,11.6364,0.684136,7,9
-4.6448,9.13957,-1.99281,45,2
-4.6479,9.1536,-1.62598,13,3
-8.82442,17.3864,2.394,25,11
-5.92673,11.6822,-1.60843,29,4
-10.5469,20.7891,3.69217,24,12
-7.4297,14.6511,-1.4372,31,5
-8.99528,17.746,3.86732,33,13
-5.73845,11.3258,-0.665399,97,6
-8.79143,17.3589,4.49227,26,14
-6.28194,12.4038,-0.242693,44,7
-11.0838,21.8947,6.57556,7,15
-8.36284,16.5772,0.324091,6,8
-0.264106,0.523749,-0.135421,13,1
-5.88281,11.6713,0.684973,7,9
-4.51923,8.96988,-1.95236,64,2
-8.61587,17.1159,2.35281,10,11
-5.50875,10.9482,-1.50484,42,4
-10.5328,20.9422,3.71282,22,12
-6.60621,13.1407,-1.28677,13,5
-8.54044,16.9882,3.69597,19,13
-6.52858,12.9919,-0.762012,29,6
-8.76794,17.4559,4.50982,16,14
-6.2081,12.3649,-0.241506,100,7
-10.9822,21.8832,6.56055,14,15
-7.20297,14.4028,0.281088,14,8
-0.273604,0.547328,-0.141269,13,1
-8.85769,17.727,1.03855,11,9
-4.50876,9.02345,-1.96075,59,2
-7.32315,14.6623,1.43389,56,10
-4.57843,9.17089,-1.62348,47,3
-10.6559,21.3537,2.93023,7,11
-5.48733,11.0011,-1.50947,40,4
-8.97363,17.9983,3.18532,17,12
-8.79722,17.6522,3.83373,19,13
-5.64074,11.3235,-0.662992,68,6
-10.8342,21.7585,5.61163,6,14
-6.16312,12.3829,-0.241437,44,7
-10.9272,21.9646,6.57349,7,15
-7.16065,14.444,0.281403,17,8
-0.278614,0.562249,-0.144868,12,1
-5.81094,11.7318,0.686124,3,9
-4.48857,9.06201,-1.96571,68,2
-5.38751,10.8864,-1.92383,45,3
-5.44362,11.0095,-1.50801,12,4
-10.6113,21.4704,3.79322,19,12
-6.26061,12.6674,-1.23622,32,5
-8.5912,17.3906,3.77039,30,13
-5.55784,11.2553,-0.657863,81,6
-10.8065,21.8941,5.63682,6,14
-6.1172,12.399,-0.241332,27,7
-10.8573,22.0165,6.57763,22,15
-7.12959,14.5084,0.282171,13,8
-0.269776,0.549225,-0.141269,13,1
-5.77905,11.7653,0.686962,7,9
-4.62217,9.41422,-2.0386,54,2
-7.9992,16.314,2.23094,38,11
-5.40603,11.0302,-1.50826,49,4
-10.5792,21.5853,3.8073,26,12
-6.28209,12.8233,-1.24929,20,5
-8.26192,16.8721,3.6517,24,13
-5.61335,11.4684,-0.669168,35,6
-8.7825,17.9511,4.61375,7,14
-10.8717,22.2311,6.63094,15,15
-4.86608,9.98578,0.193896,40,8
-0.256006,0.525589,-0.134971,14,1
-4.70367,9.66105,0.563135,8,9
-4.57296,9.39675,-2.03135,54,2
-5.49761,11.3018,1.09956,90,10
-7.1022,14.6069,1.99427,17,11
-5.24534,10.7928,-1.4734,27,4
-8.31049,17.1072,3.0123,16,12
-6.20684,12.7825,-1.24319,12,5
-10.6285,21.8886,4.72977,17,13
-5.65988,11.6612,-0.679321,100,6
-10.6572,21.9671,5.63682,6,14
-4.78321,9.86375,-0.191348,100,7
-10.7856,22.2515,6.62577,33,15
-4.79379,9.92528,0.192395,20,8
-0.279587,0.579127,-0.148468,12,1
-4.67599,9.69001,0.563868,19,9
-4.6561,9.6488,-2.08249,26,2
-7.35141,15.241,1.48043,25,10
-4.5056,9.34524,-1.64319,57,3
-7.8759,16.343,2.22753,47,11
-5.25157,10.9022,-1.48583,64,4
-10.4797,21.7654,3.82607,2,12
-5.28001,10.9711,-1.06522,26,5
-20.1556,41.8803,9.03442,10,13
-5.58105,11.6017,-0.674715,65,6
-10.5602,21.962,5.62603,6,14
-4.66299,9.70196,-0.187893,100,7
-10.7622,22.4022,6.65941,15,15
-4.67882,9.77421,0.189149,25,8
-0.252331,0.527363,-0.134971,14,1
-6.33113,13.2378,0.769025,11,9
-4.57245,9.56484,-2.06074,45,2
-7.28605,15.2481,1.47851,25,10
-4.4628,9.34387,-1.64006,60,3
-6.95641,14.5648,1.98184,8,11
-5.15447,10.7969,-1.46901,39,4
-7.99094,16.7458,2.93878,3,12
-5.26398,11.0362,-1.06975,30,5
-19.9614,41.8689,9.01611,10,13
-5.61582,11.7844,-0.684136,26,6
-12.868,27.0147,6.90825,10,14
-4.64715,9.75609,-0.188626,33,7
-10.5577,22.1745,6.58073,11,15
-4.565,9.62687,0.185973,37,8
-0.262081,0.552938,-0.141269,13,1
-4.86913,10.2729,0.595793,7,9
-4.49196,9.48138,-2.03937,78,2
-4.8426,10.2261,0.989915,21,10
-4.46143,9.42545,-1.65164,43,3
-6.73913,14.2439,1.9348,4,11
-4.9079,10.3734,-1.40905,15,4
-17.5192,37.0455,6.49047,6,12
-5.2365,11.0779,-1.07202,38,5
-7.95006,16.8261,3.61736,7,13
-5.62582,11.9123,-0.690416,35,6
-12.7351,26.9656,6.88485,10,14
-4.58575,9.71439,-0.187509,34,7
-10.4275,22.0994,6.5476,7,15
