x, y, z, intensity, ring
-1.80297,17.4172,4.69187,16,15
-0.0491419,0.480456,-0.12941,15,0
-1.58153,15.4891,0.271769,30,8
-0.0650135,0.637831,-0.148018,24,1
-1.03663,10.1877,-1.99052,35,2
-2.03941,20.0776,1.7656,14,10
-1.16081,11.4479,-1.82246,38,3
-1.9252,19.0193,2.3472,55,11
-1.20262,11.9016,-1.46877,78,4
-2.91748,28.9229,4.60418,6,12
-1.19416,11.8385,-1.04099,2,5
-2.5116,24.9427,4.87288,15,13
-1.19114,11.8499,-0.624159,37,6
-2.06724,20.6019,4.78021,20,14
-1.36663,13.6436,-0.239342,40,7
-1.74369,17.4388,4.69601,24,15
-0.0490698,0.495996,-0.133551,15,0
-1.53015,15.4943,0.271769,39,8
-0.0628981,0.638043,-0.148018,24,1
-1.52131,15.46,0.814138,20,9
-0.998799,10.1501,-1.98251,38,2
-1.95783,19.9316,1.75218,29,10
-1.18858,12.122,-1.92915,37,3
-1.93327,19.7526,2.4369,26,11
-1.18728,12.1524,-1.49924,63,4
-2.2895,23.4766,3.73597,4,12
-1.13719,11.6819,-1.02687,56,5
-2.42278,24.8883,4.86067,15,13
-1.15203,11.8558,-0.624263,77,6
-1.98932,20.5097,4.75726,16,14
-1.33101,13.7476,-0.241088,23,7
-1.69441,17.5329,4.71982,10,15
-0.0472517,0.496173,-0.133551,15,0
-2.29484,24.0973,0.422523,13,8
-0.0582731,0.613039,-0.142169,26,1
-1.44678,15.2485,0.802729,25,9
-0.954559,10.0794,-1.968,30,2
-1.88232,19.9128,1.74991,29,10
-1.13319,12.0103,-1.91069,32,3
-1.85611,19.6722,2.42618,15,11
-1.13703,12.0735,-1.489,73,4
-2.30311,24.5012,3.89772,27,12
-1.10925,11.8227,-1.0389,27,5
-2.06539,22.0549,4.3058,11,13
-1.11229,11.8997,-0.626357,67,6
-1.67826,17.9887,4.17104,33,14
-1.28246,13.7462,-0.240983,44,7
-2.33534,25.079,6.74897,4,15
-0.0479896,0.523268,-0.140798,14,0
-1.91431,20.9134,0.36657,26,8
-0.0576216,0.630714,-0.146218,25,1
-1.39409,15.2594,0.803043,9,9
-0.913127,10.0142,-1.95465,28,2
-1.6566,18.203,1.59913,13,10
-1.05177,11.5794,-1.84155,62,3
-2.46432,27.1835,3.35141,10,11
-1.08025,11.9392,-1.47194,70,4
-2.23217,24.6705,3.92338,20,12
-1.06332,11.7749,-1.03436,60,5
-1.98521,22.0268,4.29893,52,13
-1.07575,11.9592,-0.629288,91,6
-2.0821,23.1922,5.37588,29,14
-1.05566,11.7589,-0.206078,23,7
-1.64075,18.3121,4.92636,6,15
-0.0437866,0.496491,-0.133551,15,0
-1.49096,16.9058,0.296237,15,8
-0.0543336,0.617313,-0.143069,25,1
-2.0876,23.7657,1.25031,16,9
-0.87611,9.9939,-1.95007,33,2
-1.66181,18.9946,1.66816,59,10
-1.00562,11.4943,-1.82747,26,3
-2.72263,31.1823,3.84327,25,11
-1.02411,11.7529,-1.44854,60,4
-1.93331,22.2319,3.53448,50,12
-1.05166,12.118,-1.06417,61,5
-1.52854,17.6129,3.43647,16,13
-1.0397,12.0045,-0.631486,74,6
-1.90314,22.0186,5.10234,20,14
-1.01633,11.7824,-0.206427,24,7
-1.716,19.9345,5.36118,18,15
-1.26507,14.9403,0.261716,36,8
-0.0539834,0.638859,-0.148018,24,1
-2.01315,23.8243,1.25303,9,9
-0.833564,9.88524,-1.92832,52,2
-1.60249,19.0437,1.672,42,10
-1.87677,22.3967,2.75961,42,11
-0.989939,11.8136,-1.45561,45,4
-1.00534,12.0479,-1.05772,64,5
-1.45223,17.4401,3.40174,10,13
-1.00441,12.0877,-0.635673,84,6
-1.46784,17.6649,4.09231,23,14
-0.976922,11.7818,-0.206357,86,7
-1.65005,19.942,5.3617,8,15
-0.0408066,0.500621,-0.134586,15,0
-1.21374,14.9224,0.261332,12,8
-0.0513918,0.633207,-0.146668,24,1
-1.93963,23.8985,1.25659,15,9
-0.799825,9.87621,-1.92603,38,2
-0.974197,12.0817,-1.91976,36,3
-1.53471,19.0746,2.34964,30,11
-0.950437,11.8128,-1.45512,74,4
-1.78835,22.2758,3.53949,10,12
-0.974139,12.1604,-1.06731,38,5
-1.39704,17.4781,3.40823,13,13
-0.970513,12.1686,-0.639755,78,6
-1.40584,17.6269,4.08241,48,14
-0.937373,11.779,-0.206253,100,7
-1.37961,17.3745,4.67013,19,15
-0.0388453,0.496902,-0.133551,15,0
-1.32908,17.0396,0.298331,10,8
-0.0494428,0.635317,-0.147118,24,1
-1.5049,19.381,1.01877,4,9
-0.761296,9.80443,-1.91152,38,2
-1.74516,22.5262,1.97669,69,10
-0.925295,11.9706,-1.90162,53,3
-1.72727,22.3968,2.75815,42,11
-0.943313,12.2594,-1.50972,45,4
-1.4109,18.3782,2.91938,25,12
-0.900253,11.7266,-1.02896,63,5
-1.96866,25.7022,5.01064,16,13
-0.93776,12.2713,-0.644988,100,6
-1.3486,17.688,4.09546,20,14
-0.890333,11.7044,-0.204891,35,7
-1.31061,17.2694,4.64063,24,15
-0.0396997,0.531711,-0.142868,14,0
-2.01053,26.9911,0.472437,15,8
-0.0472246,0.635486,-0.147118,24,1
-1.41539,19.0913,1.00328,9,9
-0.720102,9.71305,-1.89321,30,2
-1.66697,22.5381,1.97722,87,10
-0.884809,11.9915,-1.90443,72,3
-1.69746,23.06,2.83907,29,11
-0.869549,11.841,-1.4578,52,4
-1.30964,17.8767,2.83897,49,12
-0.847229,11.5647,-1.01449,31,5
-1.79507,24.5616,4.78702,3,13
-0.908435,12.4598,-0.654723,87,6
-1.28996,17.7354,4.10536,14,14
-0.849323,11.7054,-0.204856,26,7
-1.26079,17.4184,4.67945,13,15
-0.0353753,0.497161,-0.133551,15,0
-1.05577,14.8743,0.260285,7,8
-0.0448689,0.633703,-0.146668,24,1
-1.60768,22.7059,1.19295,11,9
-0.67969,9.62346,-1.87527,40,2
-1.32602,18.8213,1.65073,27,10
-0.825781,11.7502,-1.86564,42,3
-1.61516,23.04,2.8359,44,11
-0.824331,11.7885,-1.45098,49,4
-1.45939,20.8703,3.3136,14,12
-0.870359,12.4779,-1.09433,71,5
-1.71518,24.6519,4.80343,9,13
-0.845713,12.1859,-0.640173,100,6
-1.23719,17.872,4.13595,23,14
-0.808151,11.6743,-0.204263,96,7
-1.22218,17.7,4.75399,6,15
-0.0339003,0.501136,-0.134586,15,0
-1.00522,14.8598,0.259971,45,8
-0.0426358,0.631904,-0.146218,25,1
-1.5288,22.7174,1.19326,16,9
-0.644382,9.60031,-1.87031,35,2
-1.25805,18.792,1.64777,10,10
-0.789052,11.7864,-1.87096,62,3
-1.53928,23.0532,2.83687,29,11
-0.784176,11.7753,-1.44903,60,4
-1.20731,18.1769,2.88528,24,12
-0.806117,12.1687,-1.06696,40,5
-1.66302,25.1041,4.89043,6,13
-0.804636,12.1787,-0.63965,71,6
-1.1491,17.4385,4.03472,30,14
-1.01617,15.4623,-0.270477,89,7
-1.15306,17.5923,4.72397,24,15
-0.0329823,0.512813,-0.137692,14,0
-0.955655,14.8991,0.260599,22,8
-0.0411761,0.643717,-0.148918,24,1
-1.48636,23.3006,1.22361,21,9
-0.612044,9.59456,-1.86878,35,2
-1.19965,18.8577,1.65317,27,10
-1.45691,23.0287,2.83322,44,11
-0.74745,11.8473,-1.45756,56,4
-1.13628,18.0607,2.86619,44,12
-0.756124,12.0182,-1.05354,68,5
-1.2512,19.9428,3.88411,3,13
-0.764248,12.2153,-0.64143,65,6
-1.09234,17.5085,4.05002,60,14
-0.940454,15.1165,-0.264369,99,7
-1.22539,19.7519,5.30268,7,15
-0.0328339,0.539921,-0.144939,14,0
-0.737458,12.1618,0.212675,18,8
-0.0383406,0.634131,-0.146668,24,1
-0.916932,15.2095,0.798542,13,9
-0.579615,9.61427,-1.87222,33,2
-1.20172,19.9914,1.75218,47,10
-1.37179,22.9544,2.82347,43,11
-0.704789,11.828,-1.45488,48,4
-1.06819,17.9798,2.85274,26,12
-0.711447,11.9751,-1.04953,49,5
-1.3087,22.093,4.30198,26,13
-0.722896,12.2398,-0.642581,39,6
-0.795447,13.5486,-0.236899,21,7
-1.02661,17.5382,4.7074,6,15
-0.0298436,0.520746,-0.139762,14,0
-0.694776,12.1603,0.212605,28,8
-0.0365705,0.642044,-0.148468,24,1
-1.19401,21.0272,1.10377,11,9
-0.54616,9.61819,-1.8726,38,2
-1.13261,20.0074,1.75322,32,10
-0.663471,11.7565,-1.86501,50,3
-1.28975,22.9253,2.81933,21,11
-0.65827,11.7373,-1.44342,52,4
-1.47088,26.3085,4.17336,13,12
-0.669539,11.9755,-1.04936,47,5
-0.677394,12.1924,-0.639964,22,6
-1.02656,18.5353,4.28577,3,14
-0.888361,16.091,-0.281298,63,7
-0.971005,17.6439,4.73484,9,15
-0.0276105,0.51313,-0.137692,14,0
-0.79433,14.8105,0.258889,33,8
-0.034329,0.642167,-0.148468,24,1
-1.22943,23.0736,1.21095,43,9
-0.511749,9.60436,-1.86955,35,2
-1.05843,19.9297,1.74608,18,10
-0.624305,11.7943,-1.87064,56,3
-1.32215,25.0607,3.08134,43,11
-0.640855,12.1875,-1.49851,60,4
-1.37531,26.2424,4.1621,13,12
-0.63555,12.127,-1.06243,61,5
-1.23892,23.7191,4.61681,22,13
-0.627253,12.0491,-0.632323,35,6
-0.906413,17.4703,4.03877,13,14
-0.663454,12.8309,-0.224263,100,7
-0.899671,17.4582,4.68411,4,15
-0.0252369,0.501647,-0.134586,15,0
-0.744425,14.8491,0.259517,7,8
-0.032379,0.648122,-0.149817,24,1
-1.13975,22.8942,1.20132,14,9
-0.478222,9.60609,-1.86955,35,2
-1.20355,24.2614,2.12521,32,10
-0.586646,11.8674,-1.88191,43,3
-1.1079,22.4916,2.76497,35,11
-0.600252,12.2293,-1.50338,45,4
-0.965071,19.7322,3.129,1,12
-0.580524,11.9123,-1.04343,66,5
-0.872769,17.9091,3.48532,9,13
-0.58509,12.0492,-0.632218,100,6
-0.978312,20.2199,4.67358,100,14
-0.636863,13.2106,-0.23086,9,7
-0.920377,19.1612,5.14015,1,15
-0.023758,0.509455,-0.136656,14,0
-0.849739,18.2214,0.318402,9,8
-0.0297545,0.640445,-0.148018,24,1
-1.04255,22.5249,1.18175,17,9
-0.442828,9.60385,-1.86878,38,2
-0.961862,20.9399,1.83393,32,10
-0.504134,11.017,-1.74675,28,3
-1.02647,22.4319,2.75717,35,11
-0.557111,12.2214,-1.50216,51,4
-1.09189,24.0452,3.81231,16,12
-0.532099,11.763,-1.03018,51,5
-0.794577,17.6337,3.43113,27,13
-0.777023,17.379,4.01628,38,14
-0.845125,18.9022,-0.330269,29,7
-1.40143,31.4677,8.44009,13,15
-0.0214801,0.497955,-0.133551,15,0
-0.650851,15.1497,0.264683,7,8
-0.0269906,0.630815,-0.145768,25,1
-0.964862,22.5504,1.1829,6,9
-0.40922,9.60338,-1.8684,38,2
-0.882421,20.7938,1.82086,31,10
-0.498206,11.7884,-1.86877,65,3
-0.94291,22.4038,2.75327,41,11
-0.513024,12.1896,-1.49802,72,4
-0.801638,19.1266,3.03201,21,12
-0.484224,11.6015,-1.01589,47,5
-0.737009,17.7325,3.44983,35,13
-0.556088,13.436,-0.704756,78,6
-0.719302,17.3796,4.01583,33,14
-0.505677,12.2697,-0.21435,100,7
-1.18954,28.9862,7.77337,27,15
-0.0204434,0.513466,-0.137692,14,0
-0.505097,12.7421,0.222588,35,8
-0.0252827,0.640637,-0.148018,24,1
-0.594404,15.0616,0.789959,17,9
-0.377138,9.5988,-1.86726,30,2
-0.724154,18.5131,1.62092,50,10
-0.457494,11.7485,-1.8622,32,3
-0.929517,23.9778,2.94631,8,11
-0.461144,11.8957,-1.4617,34,4
-0.73745,19.1094,3.02888,48,12
-0.441081,11.4816,-1.00525,56,5
-0.680907,17.8055,3.46356,13,13
-0.466346,12.3073,-0.214979,21,7
-0.692807,18.3685,4.92533,17,15
-0.018177,0.498086,-0.133551,15,0
-0.606108,16.6885,0.29149,39,8
-0.0228063,0.63098,-0.145768,25,1
-0.695315,19.331,1.01375,49,9
-0.343538,9.55095,-1.85772,28,2
-0.665176,18.5831,1.62685,54,10
-0.421699,11.8388,-1.87628,62,3
-0.897386,25.3179,3.11059,17,11
-0.413463,11.7226,-1.44025,59,4
-0.669568,19.0783,3.02357,49,12
-0.404404,11.5229,-1.00874,38,5
-0.45088,12.9764,-0.680472,26,6
-0.767638,22.2043,5.12933,25,14
-0.423036,12.2989,-0.214804,100,7
-0.629736,18.4017,4.93361,24,15
-0.0159287,0.4827,-0.12941,15,0
-0.492543,15.0056,0.262065,30,8
-0.020667,0.633003,-0.146218,25,1
-0.628689,19.3592,1.01511,38,9
-0.308865,9.51088,-1.8497,28,2
-0.602423,18.651,1.6326,27,10
-0.353729,11.011,-1.74487,16,3
-0.607305,19.0075,2.33502,30,11
-0.366296,11.5276,-1.41612,59,4
-0.369462,11.6915,-1.02338,72,5
-0.82543,26.2652,5.10796,7,13
-0.377442,12.0775,-0.633265,32,6
-0.602955,19.402,4.48147,16,14
-0.398023,12.8799,-0.224927,100,7
-0.0148132,0.502063,-0.134586,15,0
-0.439043,14.9693,0.261402,49,8
-0.0184575,0.633072,-0.146218,25,1
-0.532754,18.383,0.963819,12,9
-0.275036,9.49031,-1.8455,28,2
-0.534212,18.5454,1.62319,74,10
-0.535019,18.8011,2.30942,39,11
-0.319879,11.3105,-1.38931,45,4
-0.502843,18.0019,3.50058,41,13
-0.334557,12.0528,-0.631904,52,6
-0.532704,19.3125,4.46033,19,14
-0.329828,12.0336,-0.210127,20,7
-0.517294,18.9947,5.09149,6,15
-0.0130607,0.502112,-0.134586,15,0
-0.386643,14.9647,0.261297,16,8
-0.0161973,0.631184,-0.145768,25,1
-0.472444,18.5365,0.971774,57,9
-0.241154,9.46178,-1.83978,26,2
-0.294223,11.7044,-1.85437,41,3
-0.469432,18.8049,2.30967,53,11
-0.296539,11.9625,-1.46926,67,4
-0.498322,20.2454,3.20753,22,12
-0.309893,12.5901,-1.10182,61,5
-0.28973,11.9401,-0.625938,20,6
-0.453221,18.8135,4.3447,34,14
-0.450083,18.9577,5.08114,6,15
-0.0117427,0.521468,-0.139762,14,0
-0.341011,15.2619,0.266463,46,8
-0.0138217,0.623444,-0.143969,25,1
-0.404842,18.4063,0.964866,18,9
-0.207436,9.43116,-1.83367,26,2
-0.415559,19.0447,1.66659,66,10
-0.25021,11.5592,-1.83122,33,3
-0.404431,18.8362,2.31332,30,11
-0.245902,11.5466,-1.41807,56,4
-0.470442,22.2733,3.52854,48,12
-0.255548,12.0991,-1.05877,28,5
-0.380936,18.1856,3.53569,26,13
-0.247714,11.9251,-0.625101,43,6
-0.360855,17.5194,4.04552,30,14
-0.3229,15.8103,-0.276027,32,7
-0.355702,17.5666,4.70792,7,15
-0.00977526,0.51378,-0.137692,14,0
-0.284158,15.073,0.263147,7,8
-0.0117908,0.631282,-0.145768,25,1
-0.385809,20.8518,1.09298,20,9
-0.173822,9.39453,-1.82642,26,2
-0.389427,21.2473,1.85921,33,10
-0.201754,11.1136,-1.76051,28,3
-0.398443,22.162,2.72159,94,11
-0.208813,11.7281,-1.44025,57,4
-0.39469,22.3874,3.54637,14,12
-0.219151,12.4306,-1.0877,21,5
-0.206848,11.9698,-0.627403,74,6
-0.299744,17.5225,4.04597,11,14
-0.197597,11.6706,-0.203739,32,7
-0.296383,17.6875,4.74001,12,15
-0.00758605,0.482903,-0.12941,15,0
-0.246786,15.8857,0.277319,42,8
-0.00987669,0.643008,-0.148468,24,1
-0.300167,19.7666,1.03604,5,9
-0.142252,9.36757,-1.82108,28,2
-0.276026,18.3877,1.60889,40,10
-0.169027,11.3927,-1.80463,70,3
-0.278157,18.9715,2.32965,15,11
-0.165719,11.4389,-1.40467,48,4
-0.318266,22.2365,3.52228,54,12
-0.171681,11.9949,-1.04953,45,5
-0.295331,20.8889,4.0608,20,13
-0.165645,11.8626,-0.621751,100,6
-0.286502,20.7774,4.79731,45,14
-0.210075,15.4302,-0.26936,100,7
-0.236926,17.6285,4.72397,28,15
-0.00590046,0.482927,-0.12941,15,0
-0.192702,16.0004,0.279308,26,8
-0.00747005,0.629399,-0.145318,25,1
-0.21947,18.767,0.983602,5,9
-0.109256,9.34249,-1.81612,26,2
-0.221336,19.2133,1.68106,28,10
-0.129905,11.4505,-1.8137,40,3
-0.211582,18.9406,2.32575,35,11
-0.127166,11.5644,-1.42002,61,4
-0.239035,22.0893,3.49881,24,12
-0.130496,12.0592,-1.05511,40,5
-0.123757,11.8171,-0.619344,47,6
-0.183086,17.7794,4.10491,28,14
-0.151297,14.945,-0.260879,75,7
-0.175855,17.6756,4.73639,7,15
-0.00438315,0.502262,-0.134586,15,0
-0.136271,15.933,0.278122,81,8
-0.00528945,0.63137,-0.145768,25,1
-0.0763833,9.3114,-1.81001,26,2
-0.153783,19.1542,1.67583,80,10
-0.0888509,11.3126,-1.7918,56,3
-0.144531,18.8201,2.31089,53,11
-0.0846197,11.275,-1.38444,45,4
-0.13817,18.8485,2.9854,18,12
-0.0841388,11.4778,-1.00421,51,5
-0.150476,21.0279,4.08751,88,13
-0.0820713,11.7556,-0.616099,91,6
-0.121358,17.8286,4.11615,2,14
-0.0999331,15.0674,-0.263008,100,7
-0.115185,17.8364,4.77935,7,15
-0.00265023,0.506138,-0.135621,15,0
-0.0810339,16.0094,0.279448,43,8
-0.00306661,0.627487,-0.144868,25,1
-0.0903382,19.1695,1.00464,21,9
-0.0437802,9.29002,-1.80582,23,2
-0.0866721,19.0989,1.67095,24,10
-0.0495109,11.3465,-1.79712,52,3
-0.0784155,18.7193,2.29846,29,11
-0.0486035,12.107,-1.48656,57,4
-0.0722125,18.8054,2.97851,18,12
-0.0452996,11.7969,-1.0321,24,5
-0.0422657,12.1073,-0.634521,100,6
-0.0590827,17.8153,4.11301,2,14
-0.0476287,15.1616,-0.264648,23,7
-0.0532145,17.9333,4.80523,7,15
-0.000876587,0.502281,-0.134586,15,0
-0.0249796,15.9036,0.277598,30,8
-0.00089816,0.643084,-0.148468,24,1
-0.0269964,19.3295,1.01301,24,9
-0.0112989,9.24888,-1.7978,26,2
-0.0254129,24.2693,2.12329,10,10
-0.00993229,11.3762,-1.80181,51,3
-0.0149869,21.4688,2.63603,100,11
-0.00848217,12.1507,-1.49192,63,4
-0.00982715,18.77,2.97288,19,12
-0.00410922,11.7571,-1.02861,100,5
-0.00344424,19.7366,3.83641,7,13
2.11656e-07,17.7491,4.09771,25,14
0.00261673,15.0337,-0.262414,92,7
0.0062773,17.9836,4.81869,3,15
0.0275286,15.7736,0.275329,12,8
0.00126449,0.658673,-0.152067,23,1
0.0363449,18.932,0.992185,23,9
0.0192793,9.20568,-1.78941,26,2
0.043133,19.0113,1.66328,14,10
0.027926,11.4295,-1.81026,42,3
0.0315334,12.0455,-1.47901,58,4
0.0349293,11.773,-1.03001,58,5
0.061236,19.4931,3.78909,22,13
0.0402532,12.1393,-0.636196,6,6
0.080205,24.1876,5.58419,6,14
0.0480911,13.7778,-0.240494,17,7
0.0691663,18.8721,5.05681,17,15
0.0024547,0.502276,-0.134586,15,0
0.0798095,15.7674,0.275224,1,8
0.00339758,0.648922,-0.149817,24,1
0.100662,18.6042,0.975019,49,9
0.049692,9.18397,-1.78521,26,2
0.112414,20.1268,1.76089,43,10
0.0654156,11.3582,-1.799,42,3
0.112357,18.9335,2.32478,15,11
0.073292,11.9977,-1.47316,42,4
0.0736919,11.729,-1.02617,56,5
0.12729,19.7107,3.83144,40,13
0.0879164,13.2555,-0.694708,52,6
0.13277,19.5064,4.50352,16,14
0.0966627,13.8456,-0.241681,27,7
0.136056,19.0128,5.09459,1,15
0.00446654,0.533172,-0.142868,14,0
0.12968,15.1631,0.264683,13,8
0.00556086,0.637214,-0.147118,24,1
0.164417,18.4719,0.968111,18,9
0.0813765,9.14251,-1.77719,26,2
0.256005,28.2071,2.4679,63,10
0.103421,11.1802,-1.77084,53,3
0.19326,20.5051,2.51782,33,11
0.118599,12.3546,-1.51703,27,4
0.187428,19.176,3.03733,25,12
0.114305,11.6948,-1.02321,54,5
0.192601,19.3587,3.76313,17,13
0.335611,32.591,7.52461,11,14
0.154189,14.7229,-0.257004,85,7
0.18432,17.3123,4.63907,15,15
0.00619021,0.521563,-0.139762,14,0
0.20602,17.1062,0.298611,40,8
0.00754691,0.617705,-0.142619,26,1
0.227677,18.635,0.976694,24,9
0.112878,9.1088,-1.77071,26,2
0.354572,28.214,2.4686,14,10
0.141186,11.081,-1.75519,62,3
0.279393,21.6317,2.65626,70,11
0.154633,11.8123,-1.45049,20,4
0.155204,11.7003,-1.02373,56,5
0.16145,11.8586,-0.621542,37,6
0.262455,19.0335,4.39464,13,14
0.231903,16.8178,-0.293584,38,7
0.243936,17.47,4.68152,18,15
0.00771421,0.502222,-0.134586,15,0
0.263724,17.1694,0.299728,15,8
0.009807,0.631316,-0.145768,25,1
0.143927,9.06124,-1.76155,26,2
0.311066,19.3715,1.695,28,10
0.175074,10.9027,-1.72704,60,3
0.319458,19.6796,2.41667,51,11
0.192401,11.7263,-1.44001,55,4
0.31673,19.1012,3.02576,31,12
0.19548,11.6658,-1.02077,54,5
0.372711,22.2425,4.32411,26,13
0.201718,11.9139,-0.624473,6,6
0.325858,19.05,4.39869,26,14
0.325188,18.8183,-0.328524,14,7
0.304584,17.4497,4.67634,34,15
0.00901897,0.482879,-0.12941,15,0
0.320409,16.9964,0.296726,43,8
0.0124927,0.656607,-0.151617,23,1
0.173336,9.02734,-1.75506,26,2
0.374922,19.3504,1.69326,14,10
0.216068,11.0521,-1.75081,51,3
0.389018,19.722,2.42203,46,11
0.232856,11.7018,-1.43708,59,4
0.379682,18.9144,2.99635,16,12
0.233002,11.6073,-1.01571,45,5
0.381278,18.8296,3.66086,7,13
0.247788,12.1328,-0.635987,26,6
0.373135,18.1155,4.18319,30,14
0.311059,14.9745,-0.261437,83,7
0.366298,17.4872,4.6867,16,15
0.0118174,0.53306,-0.142868,14,0
0.382376,17.1131,0.298785,21,8
0.0147848,0.656559,-0.151617,23,1
0.204662,9.01883,-1.75353,26,2
0.510158,22.3089,1.95229,18,10
0.252965,10.9782,-1.73924,72,3
0.494566,21.3022,2.61629,49,11
0.272358,11.6434,-1.43001,67,4
0.542231,23.0087,3.64524,8,12
0.272066,11.5447,-1.01031,49,5
0.660351,27.8154,5.40829,46,13
0.290093,12.1299,-0.635882,71,6
0.440644,18.2914,4.22413,30,14
0.372,15.3312,-0.267685,90,7
0.431732,17.6654,4.73484,4,15
0.0123897,0.482804,-0.12941,15,0
0.460493,17.8233,0.311211,20,8
0.0166204,0.638971,-0.147568,24,1
0.465999,17.9153,0.939221,43,9
0.235117,8.97881,-1.7459,26,2
0.579517,21.9844,1.92405,8,10
0.289448,10.9081,-1.72829,60,3
0.494936,18.5302,2.27603,4,11
0.311669,11.5927,-1.42392,56,4
0.658563,24.4957,3.88114,12,12
0.323354,11.95,-1.04587,47,5
0.607797,22.3179,4.33976,19,13
0.319904,11.6716,-0.611912,94,6
0.507817,18.4105,4.25202,24,14
0.41165,14.9241,-0.260599,100,7
0.565779,20.3828,5.46367,23,15
0.0155386,0.532965,-0.142868,14,0
0.530663,18.2015,0.317843,30,8
0.0185105,0.63112,-0.145768,25,1
0.531011,17.9975,0.943617,55,9
0.265699,8.95243,-1.74094,26,2
0.653454,21.8886,1.91586,26,10
0.325499,10.9032,-1.72766,52,3
0.646357,21.5246,2.64408,6,11
0.349802,11.5817,-1.4227,31,4
0.743208,24.4656,3.87676,27,12
0.368354,12.0563,-1.05528,52,5
0.357127,11.6226,-0.6094,91,6
0.566575,18.3347,4.23493,24,14
0.457286,14.7147,-0.256969,27,7
0.638017,20.4155,5.47299,4,15
0.0156757,0.482708,-0.12941,15,0
1.01339,31.0387,0.542072,15,8
0.0205218,0.625209,-0.144419,25,1
0.600282,18.1911,0.953875,24,9
0.293444,8.89263,-1.72949,26,2
0.638647,19.2518,1.68524,52,10
0.363494,10.9,-1.72735,37,3
1.37938,41.1477,5.05514,17,11
0.410688,12.1875,-1.49729,51,4
0.618499,18.2598,2.89373,22,12
0.409072,12.0769,-1.0572,54,5
0.395239,11.5494,-0.605632,100,6
0.630979,18.3443,4.23763,24,14
0.505189,14.613,-0.255224,27,7
0.742344,21.365,5.72818,30,15
0.0173605,0.482651,-0.12941,15,0
0.651807,18.0335,0.314981,15,8
0.0235527,0.648503,-0.149817,24,1
0.664137,18.1989,0.954399,39,9
0.323336,8.86016,-1.72339,26,2
0.400155,10.8612,-1.72141,46,3
1.49304,40.3333,4.9557,33,11
0.454191,12.2118,-1.50046,21,4
0.678173,18.1489,2.87652,42,12
0.449512,12.0296,-1.05319,19,5
0.74352,19.8051,3.85243,21,13
0.434576,11.522,-0.604271,43,6
0.710426,18.749,4.33166,28,14
0.559926,14.7091,-0.256934,23,7
0.813823,21.2812,5.70644,25,15
0.0198068,0.501891,-0.134586,15,0
0.707461,17.8473,0.31177,65,8
0.0254288,0.638681,-0.147568,24,1
0.728143,18.2084,0.955027,31,9
0.352617,8.81778,-1.71537,28,2
0.737694,18.367,1.6082,27,10
0.434724,10.7768,-1.70826,37,3
0.810487,20.0052,2.45835,10,11
0.504156,12.3906,-1.52264,58,4
0.746365,18.2649,2.89529,24,12
0.477756,11.6915,-1.02373,42,5
0.810319,19.7455,3.84137,24,13
0.764269,18.466,4.26687,42,14
0.604953,14.5552,-0.254282,100,7
0.888823,21.2956,5.7111,27,15
0.0215588,0.501819,-0.134586,15,0
0.766046,17.7588,0.310269,11,8
0.0273206,0.6308,-0.145768,25,1
0.797855,18.3475,0.962458,29,9
0.383819,8.8263,-1.71728,26,2
0.801885,18.3663,1.60837,37,10
0.469223,10.7042,-1.697,37,3
0.861718,19.5799,2.40643,41,11
0.542588,12.2797,-1.50923,28,4
0.958769,21.6131,3.42654,18,12
0.518479,11.6878,-1.02356,15,5
0.866657,19.4601,3.78641,37,13
0.543729,12.1611,-0.637975,87,6
0.655664,14.551,-0.254247,100,7
0.980793,21.6822,5.81566,5,15
0.024207,0.521038,-0.139762,14,0
0.727609,15.6027,0.272642,42,8
0.0294314,0.628755,-0.145318,25,1
0.859725,18.3667,0.96361,51,9
0.413063,8.79157,-1.71079,26,2
0.864297,18.3275,1.60523,30,10
0.501544,10.5959,-1.68011,42,3
0.915746,19.2753,2.36938,40,11
0.581186,12.1885,-1.49826,36,4
1.02308,21.4559,3.40214,30,12
0.622513,13.0074,-1.1393,35,5
0.595593,12.3547,-0.648233,55,6
1.44871,29.9424,6.92084,10,14
0.702177,14.5128,-0.253618,100,7
1.05859,21.8004,5.84828,28,15
0.0269894,0.540245,-0.144939,14,0
0.780447,15.6221,0.273025,7,8
0.032004,0.638385,-0.147568,24,1
0.960264,19.0876,1.00161,9,9
0.44246,8.76459,-1.70583,26,2
1.46705,28.9601,2.53693,14,10
0.533179,10.5251,-1.66916,38,3
0.982588,19.3297,2.37645,56,11
0.634549,12.4403,-1.52946,64,4
1.0905,21.3062,3.37898,18,12
0.67272,13.0986,-1.14749,26,5
1.40179,27.2945,5.3125,18,13
0.633993,12.3028,-0.645616,74,6
0.96142,18.5934,4.29837,31,14
0.749935,14.4544,-0.252641,77,7
1.08747,20.8898,5.60499,2,15
0.0277528,0.520861,-0.139762,14,0
0.828573,15.4995,0.270931,40,8
0.0343367,0.640215,-0.148018,24,1
0.955296,17.7539,0.931789,25,9
0.469516,8.72582,-1.69858,26,2
1.01213,18.749,1.64271,57,10
0.566286,10.4561,-1.65852,33,3
1.05952,19.5006,2.3979,25,11
0.674948,12.3825,-1.52264,34,4
0.712778,13.0347,-1.14209,16,5
1.72158,31.3826,6.10932,10,13
0.679242,12.3424,-0.647815,35,6
1.0245,18.5569,4.29072,40,14
0.799712,14.4397,-0.252432,22,7
1.15953,20.8704,5.60084,2,15
0.0273805,0.482186,-0.12941,15,0
0.883116,15.5045,0.271071,81,8
0.0366823,0.642037,-0.148468,24,1
1.01795,17.7624,0.932417,35,9
0.499862,8.72217,-1.6982,26,2
1.04247,18.1347,1.5892,33,10
0.598913,10.3871,-1.64788,32,3
1.23441,21.3438,2.62507,31,11
0.73116,12.604,-1.55018,40,4
1.07353,18.4504,2.9272,27,12
0.756766,13.0062,-1.13982,73,5
1.93818,33.2108,6.46652,11,13
0.717072,12.2502,-0.643104,61,6
1.092,18.5999,4.30151,12,14
0.851996,14.4687,-0.25299,60,7
1.27544,21.5952,5.79651,2,15
0.0290634,0.482088,-0.12941,15,0
1.04839,17.3397,0.303218,19,8
0.0378618,0.624399,-0.144419,25,1
1.08492,17.8405,0.936709,40,9
0.528873,8.69686,-1.69362,23,2
1.15245,18.8966,1.65631,28,10
0.634205,10.3691,-1.64538,33,3
1.55221,25.306,3.11303,17,11
0.771,12.534,-1.54189,54,4
1.16007,18.8054,2.98414,16,12
0.823633,13.3515,-1.17033,30,5
1.9044,30.7839,5.99522,4,13
0.769837,12.4091,-0.651583,26,6
1.1758,18.8994,4.3717,15,14
0.837377,13.4219,-0.234735,29,7
1.47806,23.6248,6.34262,13,15
0.0322219,0.505118,-0.135621,15,0
1.09295,17.0865,0.298855,42,8
0.0402902,0.628152,-0.145318,25,1
1.10463,17.1749,0.901958,38,9
0.556709,8.65577,-1.68599,26,2
1.26726,19.65,1.72272,38,10
0.670389,10.3669,-1.64538,33,3
1.24633,19.221,2.365,10,11
0.817326,12.5709,-1.54677,47,4
1.22839,18.8426,2.99071,64,12
0.879427,13.4897,-1.1827,30,5
1.31634,20.1373,3.92265,20,13
0.799436,12.1971,-0.640592,68,6
1.2424,18.9049,4.37395,31,14
0.900261,13.6623,-0.238993,81,7
1.50983,22.8523,6.1366,6,15
0.0339851,0.505003,-0.135621,15,0
0.975432,14.4569,0.25292,33,8
0.0430089,0.635785,-0.147118,24,1
1.16242,17.1391,0.900283,45,9
0.585594,8.63419,-1.68217,23,2
1.73363,25.4955,2.23572,47,10
0.706977,10.3704,-1.64632,35,3
1.316,19.2541,2.36963,60,11
0.852378,12.4392,-1.53092,57,4
1.4764,21.4908,3.41184,39,12
0.912311,13.2799,-1.16457,47,5
1.38986,20.1796,3.93181,20,13
0.819303,11.8654,-0.623321,70,6
1.29667,18.7313,4.33481,46,14
0.941996,13.5733,-0.237492,22,7
1.4323,20.5863,5.52941,9,15
0.0360202,0.508735,-0.136656,14,0
1.03099,14.5252,0.254177,56,8
0.0468878,0.658957,-0.152517,23,1
1.24581,17.4656,0.917659,23,9
0.613349,8.5988,-1.67568,23,2
1.31162,18.3429,1.60889,3,10
0.742187,10.354,-1.64413,33,3
1.38575,19.2851,2.37402,56,11
0.881392,12.2362,-1.50631,28,4
1.55198,21.4934,3.41309,22,12
0.962826,13.3342,-1.16963,30,5
1.46795,20.2804,3.95242,9,13
0.887748,12.235,-0.642895,100,6
1.35894,18.6839,4.32491,37,14
1.00711,13.8132,-0.241751,100,7
1.49571,20.4655,5.49835,25,15
0.0375096,0.504753,-0.135621,15,0
1.2381,16.6214,0.290932,37,8
0.0474465,0.635469,-0.147118,24,1
1.32009,17.6805,0.929173,12,9
0.640726,8.56137,-1.66882,28,2
1.3673,18.227,1.59913,70,10
0.775804,10.3179,-1.63881,31,3
1.45082,19.2504,2.37036,10,11
0.939565,12.4668,-1.53507,55,4
1.86044,24.628,3.9118,30,12
0.939414,12.407,-1.08858,26,5
2.03895,26.8664,5.23733,10,13
0.933029,12.2657,-0.644674,61,6
1.45726,19.1573,4.43558,29,14
1.05686,13.8617,-0.242658,100,7
1.56783,20.5163,5.51336,10,15
0.0391833,0.504626,-0.135621,15,0
1.29848,16.685,0.292118,22,8
0.0486444,0.623651,-0.144419,25,1
1.31721,16.8875,0.887723,11,9
0.666973,8.5318,-1.66347,28,2
0.808936,10.3015,-1.63662,31,3
1.51107,19.2,2.36475,25,11
0.965797,12.2716,-1.51142,34,4
1.94488,24.6571,3.91743,30,12
0.975217,12.3362,-1.08265,57,5
1.49478,18.8666,3.6788,18,13
0.974802,12.2765,-0.645407,52,6
1.49224,18.793,4.35235,37,14
1.10171,13.8441,-0.242414,100,7
1.62696,20.3993,5.48334,25,15
0.0427277,0.5276,-0.141833,14,0
1.3496,16.6288,0.291211,63,8
0.0510281,0.627371,-0.145318,25,1
0.691113,8.47866,-1.65355,40,2
1.457,17.8362,1.56567,19,10
0.8389,10.2476,-1.62848,30,3
1.57587,19.2087,2.36646,30,11
1.04604,12.7232,-1.56748,48,4
2.01877,24.5025,3.89397,15,12
1.07368,13.0039,-1.14157,26,5
1.55733,18.8616,3.6788,12,13
1.01386,12.2533,-0.64436,29,6
1.58746,19.145,4.43513,19,14
1.13678,13.6808,-0.239622,100,7
1.69783,20.3897,5.48231,4,15
0.0427053,0.50434,-0.135621,15,0
1.42047,16.7754,0.293864,42,8
0.0532179,0.627189,-0.145318,25,1
1.42272,16.7326,0.880081,53,9
0.720853,8.46042,-1.6505,26,2
1.50423,17.6184,1.54701,45,10
0.87443,10.2208,-1.62473,28,3
1.58029,18.4713,2.27628,58,11
0.97633,11.3884,-1.40345,8,4
1.59454,18.5614,2.95067,16,12
1.11685,12.9743,-1.1393,38,5
2.26033,26.2044,5.11254,17,13
1.05945,12.2574,-0.644779,32,6
1.61154,18.6071,4.31186,25,14
1.20368,13.8978,-0.243496,100,7
1.77084,20.4048,5.488,8,15
0.0509146,0.577315,-0.155291,12,0
1.33619,15.1208,0.264962,16,8
0.0574068,0.648343,-0.150267,24,1
1.49957,16.9023,0.889293,52,9
0.749338,8.44612,-1.64821,26,2
1.56378,17.5912,1.5451,45,10
0.904497,10.1547,-1.61472,25,3
1.65364,18.5287,2.28408,39,11
1.07287,11.9977,-1.47901,52,4
1.16249,12.9743,-1.13965,52,5
2.35898,26.2765,5.12818,38,13
1.67211,18.5528,4.30061,50,14
1.25012,13.8436,-0.242623,21,7
2.02978,22.4338,6.03566,31,15
0.046225,0.50403,-0.135621,15,0
1.54505,16.8146,0.294736,61,8
0.0591335,0.642317,-0.148918,24,1
1.58112,17.1416,0.902167,36,9
0.77665,8.41999,-1.64363,28,2
1.61803,17.5082,1.5383,71,10
0.936662,10.1161,-1.60909,28,3
1.72105,18.5524,2.28773,34,11
1.10152,11.8515,-1.46146,49,4
1.89124,20.3099,3.23068,26,12
1.20592,12.9503,-1.13791,47,5
2.43281,26.0766,5.09078,43,13
1.28311,13.7272,-0.72255,55,6
1.73323,18.5081,4.29162,28,14
1.26835,13.5186,-0.237004,100,7
1.87558,19.9531,5.36998,18,15
0.0479842,0.503866,-0.135621,15,0
1.44703,15.1668,0.26594,13,8
0.059892,0.626587,-0.145318,25,1
1.63701,17.1263,0.901644,31,9
0.804542,8.4016,-1.64058,26,2
1.63574,17.0503,1.49856,26,10
0.96932,10.0852,-1.6047,27,3
1.78029,18.489,2.28066,53,11
1.149,11.9328,-1.47194,39,4
1.77724,18.4238,2.93158,13,12
1.23272,12.7556,-1.12117,35,5
1.88057,19.4239,3.79328,30,13
1.31097,13.5159,-0.711664,48,6
2.05667,21.2041,4.91833,4,14
1.3097,13.4785,-0.236375,23,7
1.93893,19.9179,5.36221,18,15
0.049655,0.503704,-0.135621,15,0
1.4476,14.6585,0.257109,69,8
0.0627368,0.634142,-0.147118,24,1
1.75888,17.7787,0.93629,15,9
0.83182,8.39302,-1.63943,26,2
0.999629,10.0505,-1.5997,28,3
1.84081,18.4751,2.27969,53,11
1.18443,11.8874,-1.46682,21,4
1.83323,18.3667,2.92345,16,12
1.26728,12.6741,-1.11437,40,5
1.94322,19.4,3.78985,19,13
1.35218,13.4757,-0.70978,39,6
2.1151,21.0789,4.89089,22,14
1.45118,14.437,-0.253269,86,7
2.06458,20.5034,5.52165,10,15
0.051325,0.503536,-0.135621,15,0
0.0648395,0.633931,-0.147118,24,1
1.81666,17.7307,0.934092,25,9
0.8583,8.36273,-1.63409,28,2
1.82812,17.812,1.56654,32,10
1.02932,10.0118,-1.59407,25,3
1.93297,18.769,2.31674,45,11
1.22122,11.8378,-1.46121,22,4
1.88272,18.2187,2.90092,16,12
1.31069,12.6617,-1.11368,57,5
2.04149,19.688,3.84747,24,13
1.4118,13.5921,-0.716165,71,6
2.12827,20.4899,4.75592,33,14
1.48729,14.2946,-0.250861,94,7
2.13493,20.4845,5.51854,21,15
0.0507348,0.480291,-0.12941,15,0
1.68647,15.9386,0.279762,6,8
0.066957,0.631751,-0.146668,24,1
1.8947,17.8471,0.940582,14,9
0.887913,8.34976,-1.63218,26,2
1.87676,17.6487,1.55277,74,10
1.06036,9.9549,-1.58562,25,3
2.00153,18.7598,2.31649,25,11
1.26588,11.8451,-1.46268,24,4
1.9726,18.4277,2.93534,12,12
1.39129,12.9758,-1.14174,35,5
2.1212,19.7506,3.86121,17,13
1.4772,13.7318,-0.723806,65,6
2.18355,20.2979,4.71317,40,14
1.52339,14.138,-0.248208,96,7
2.02758,18.7863,5.06302,3,15
0.0575342,0.526191,-0.141833,14,0
1.72376,15.7395,0.276376,16,8
0.0707594,0.645061,-0.149817,24,1
1.73702,15.8352,0.834863,25,9
0.916405,8.34076,-1.63104,23,2
1.93969,17.6259,1.55137,39,10
1.09056,9.894,-1.57655,31,3
2.81003,25.453,3.14423,9,11
1.3266,12.0162,-1.48437,22,4
2.41361,21.8272,3.47816,22,12
1.44096,13.0104,-1.14523,23,5
2.186,19.706,3.85396,38,13
1.51807,13.6631,-0.720457,32,6
2.2531,20.2785,4.71047,31,14
1.56212,14.0372,-0.246533,24,7
2.09249,18.7734,5.06147,19,15
0.0566828,0.502961,-0.135621,15,0
1.5743,13.9473,0.244997,35,8
0.0724604,0.64095,-0.148918,24,1
1.78975,15.8313,0.834968,21,9
0.943398,8.33182,-1.62989,26,2
2.01092,17.7322,1.56131,61,10
1.12158,9.87463,-1.57404,25,3
3.417,30.0372,3.7119,24,11
1.34266,11.8027,-1.45853,49,4
2.48619,21.8211,3.47848,24,12
1.46286,12.8195,-1.12884,40,5
2.21055,19.3417,3.78412,69,13
1.52498,13.3226,-0.702767,74,6
2.1796,19.0415,4.42479,52,14
1.64921,14.3856,-0.252746,94,7
2.38987,20.8142,5.61379,11,15
0.0668133,0.575691,-0.155291,12,0
1.62401,13.9718,0.24552,31,8
0.0743601,0.638771,-0.148468,24,1
2.05432,17.6203,0.929696,53,9
0.96852,8.3072,-1.62569,23,2
2.06186,17.6581,1.55538,13,10
1.15087,9.84143,-1.56935,27,3
3.50757,29.9489,3.70239,48,11
1.37853,11.7526,-1.45293,38,4
1.51389,12.8678,-1.13355,59,5
2.31436,19.6716,3.85014,24,13
1.56051,13.2441,-0.698894,78,6
2.13872,18.1242,4.21333,36,14
1.6994,14.3797,-0.252746,94,7
2.05834,17.3908,4.69239,12,15
0.068923,0.575443,-0.155291,12,0
1.67514,13.9859,0.24587,6,8
0.075429,0.628833,-0.146218,25,1
2.11367,17.5952,0.928754,32,9
0.996618,8.2841,-1.62188,19,2
2.26002,18.7582,1.653,47,10
1.18244,9.79988,-1.56341,28,3
2.39103,19.8164,2.45079,73,11
1.40454,11.6235,-1.43757,74,4
2.2227,18.3674,2.93033,33,12
1.56599,12.9217,-1.13878,40,5
2.31856,19.1036,3.74062,13,13
1.60398,13.1966,-0.696696,68,6
2.19996,18.0737,4.20344,60,14
1.67879,13.7921,-0.242519,100,7
2.13399,17.5063,4.72552,27,15
0.0619465,0.50234,-0.135621,15,0
1.73743,14.069,0.24744,38,8
0.0782115,0.63242,-0.147118,24,1
2.17311,17.5718,0.927917,44,9
1.01998,8.23576,-1.6131,23,2
2.32132,18.7166,1.65003,37,10
1.21153,9.75453,-1.55684,43,3
1.46824,11.7877,-1.45853,52,4
2.28119,18.3144,2.92313,34,12
1.64289,13.1712,-1.16126,40,5
2.3884,19.1208,3.74558,29,13
1.67532,13.3931,-0.707373,74,6
2.27151,18.1336,4.21918,33,14
1.65857,13.2405,-0.23292,73,7
2.19269,17.4796,4.72034,19,15
0.0729384,0.574947,-0.155291,12,0
1.78003,14.0314,0.246882,48,8
0.0810452,0.637957,-0.148468,24,1
2.21529,17.4136,0.919962,35,9
1.04723,8.22046,-1.61081,21,2
1.23887,9.71126,-1.55058,36,3
3.59839,28.1678,3.48668,44,11
1.499,11.7178,-1.45049,50,4
2.31924,18.1045,2.89091,57,12
1.70103,13.2603,-1.16963,20,5
2.44104,19.029,3.72917,29,13
1.72507,13.4291,-0.709571,58,6
2.35003,18.269,4.25247,27,14
1.72829,13.4171,-0.236131,100,7
2.23639,17.3377,4.68411,18,15
0.0648654,0.498075,-0.134586,15,0
1.79746,13.7832,0.242623,12,8
0.0852902,0.653129,-0.152067,23,1
2.29625,17.5602,0.928126,65,9
1.0727,8.20332,-1.60814,21,2
2.45513,18.7497,1.65439,38,10
1.26635,9.65792,-1.54276,28,3
2.77594,21.1424,2.61824,36,11
1.56344,11.8916,-1.47267,42,4
2.38088,18.0846,2.88903,22,12
1.72263,13.0847,-1.15464,40,5
2.53157,19.2033,3.76504,16,13
1.76566,13.3754,-0.707059,71,6
2.42426,18.3399,4.27092,3,14
1.77722,13.4268,-0.23641,100,7
2.28471,17.2378,4.65926,36,15
0.0640421,0.478698,-0.12941,15,0
1.8299,13.6599,0.240564,5,8
0.0842013,0.627718,-0.146218,25,1
1.09872,8.18006,-1.60432,21,2
2.54048,18.8891,1.66746,21,10
1.29583,9.62211,-1.53775,27,3
2.69055,19.9522,2.472,10,11
1.60017,11.8507,-1.46828,46,4
2.44531,18.0859,2.8906,46,12
1.79463,13.2386,-0.70015,58,6
2.64657,19.4976,4.54266,10,14
1.82569,13.4324,-0.23662,21,7
2.33757,17.1762,4.64477,15,15
0.068867,0.501438,-0.135621,15,0
1.86912,13.592,0.239482,15,8
0.0858605,0.62356,-0.145318,25,1
1.99072,14.4576,0.764838,39,9
1.12298,8.14506,-1.59822,19,2
2.67751,19.3953,1.71296,42,10
1.32724,9.60188,-1.53525,35,3
2.72426,19.6831,2.43982,21,11
1.62735,11.7427,-1.45561,28,4
2.49578,18.0093,2.87965,30,12
1.69235,12.1961,-1.07724,9,5
1.85074,13.3035,-0.703919,71,6
2.51782,18.0754,4.21333,18,14
1.86332,13.3768,-0.235747,22,7
2.37264,17.0114,4.60232,11,15
0.0754681,0.535628,-0.144939,14,0
1.94459,13.8016,0.243287,45,8
0.0906502,0.642568,-0.149817,24,1
2.49428,17.6582,0.934616,25,9
1.1481,8.11776,-1.59364,19,2
2.69576,19.0366,1.68211,70,10
1.35188,9.54657,-1.52711,28,3
4.60256,32.4611,4.02559,13,11
1.66405,11.7216,-1.45366,26,4
1.71779,12.0698,-1.06661,19,5
2.69239,18.9177,3.71429,17,13
1.83961,12.9097,-0.683403,55,6
2.56536,17.9802,4.19309,36,14
1.91227,13.386,-0.236026,100,7
0.0689679,0.478013,-0.12941,15,0
1.99762,13.8283,0.24388,34,8
0.094008,0.649962,-0.151617,23,1
2.00903,13.8902,0.73553,23,9
1.17305,8.10031,-1.59097,21,2
2.75115,18.9744,1.6774,38,10
1.38036,9.50856,-1.52179,26,3
2.903,19.9726,2.47809,32,11
1.69867,11.6725,-1.4483,31,4
3.30304,22.697,3.63272,23,12
1.75005,12.0108,-1.06191,11,5
2.78476,19.0889,3.74978,29,13
1.87774,12.8558,-0.680891,45,6
2.5672,17.5546,4.09591,17,14
1.99166,13.619,-0.24025,97,7
0.0791125,0.535102,-0.144939,14,0
2.03119,13.7385,0.242414,9,8
0.0935949,0.632297,-0.147568,24,1
2.05838,13.889,0.735844,20,9
1.19786,8.07286,-1.58639,21,2
2.82468,19.0139,1.68176,42,10
1.4058,9.4629,-1.51522,26,3
2.64855,17.8069,2.21047,9,11
1.72713,11.598,-1.43976,28,4
2.91413,19.5456,3.12994,6,12
1.78607,11.9652,-1.05842,21,5
2.85152,19.1028,3.75436,13,13
1.94221,12.9956,-0.688637,29,6
2.63693,17.6231,4.1139,34,14
2.08955,13.9482,-0.246184,100,7
2.7391,18.2623,4.9481,58,15
0.0792443,0.523362,-0.141833,14,0
2.09801,13.8398,0.244334,28,8
0.093865,0.618463,-0.144419,25,1
2.77517,18.2852,0.969262,34,9
1.22278,8.04728,-1.58219,26,2
2.89463,19.0276,1.68385,77,10
1.43601,9.42839,-1.51053,30,3
2.9478,19.3317,2.40107,30,11
1.74626,11.4386,-1.42075,33,4
1.98316,12.9752,-1.14836,26,5
2.88084,18.8264,3.70208,17,13
2.04124,13.3241,-0.706431,87,6
2.66192,17.3552,4.05362,31,14
2.11367,13.7807,-0.243356,100,7
2.76412,18.0006,4.87977,12,15
0.0775202,0.500174,-0.135621,15,0
2.08937,13.481,0.238121,50,8
0.0989036,0.637405,-0.148918,24,1
2.84511,18.3149,0.971355,24,9
1.24423,8.00029,-1.57379,21,2
2.95307,18.9662,1.67932,45,10
1.46454,9.40601,-1.50772,28,3
2.83731,18.2018,2.2619,29,11
1.76673,11.3209,-1.40686,26,4
2.7706,17.7331,2.84273,17,12
1.89974,12.1454,-1.0755,9,5
2.92687,18.712,3.68147,27,13
2.07985,13.2817,-0.704547,32,6
2.72157,17.3597,4.05677,11,14
2.0954,13.3505,-0.235887,100,7
2.82213,17.9603,4.87149,9,15
0.0815962,0.515178,-0.139762,14,0
2.16209,13.6355,0.240983,27,8
0.101739,0.640906,-0.149817,24,1
2.88615,18.1609,0.963714,14,9
1.26706,7.97285,-1.56921,19,2
2.85598,17.9508,1.59024,30,10
1.49487,9.38523,-1.50521,27,3
2.8949,18.1546,2.25726,29,11
1.79967,11.2735,-1.40174,23,4
2.86303,17.9145,2.87339,22,12
2.12752,13.2974,-1.17817,30,5
3.41989,21.375,4.20772,9,13
2.12526,13.2684,-0.704233,58,6
2.96974,18.52,4.33031,34,14
2.11918,13.2009,-0.233374,100,7
2.8842,17.9465,4.87046,16,15
0.0847206,0.522503,-0.141833,14,0
2.23849,13.8056,0.244124,52,8
0.104288,0.64247,-0.150267,24,1
2.95368,18.1763,0.965075,5,9
1.29343,7.95071,-1.56578,21,2
2.92431,17.9559,1.59164,23,10
1.52195,9.33485,-1.49802,26,3
2.97933,18.2737,2.27335,43,11
1.8243,11.1771,-1.39053,24,4
2.90452,17.7758,2.85274,27,12
2.00507,12.2576,-1.08666,19,5
3.06165,18.6964,3.68261,31,13
2.26951,13.844,-0.735216,42,6
3.02909,18.4571,4.31816,34,14
2.16654,13.2014,-0.233513,100,7
2.93305,17.8525,4.84768,6,15
0.0884392,0.53364,-0.144939,14,0
2.24456,13.529,0.239377,24,8
0.104726,0.630549,-0.147568,24,1
1.32021,7.94034,-1.56463,21,2
2.98696,17.9456,1.59164,37,10
1.54901,9.29636,-1.4927,25,3
2.99926,17.9807,2.23825,14,11
1.86689,11.1801,-1.39175,30,4
2.14508,12.8322,-1.13825,14,5
3.11134,18.5926,3.6643,15,13
2.31452,13.8163,-0.734169,74,6
3.06255,18.2619,4.27497,34,14
2.21327,13.1977,-0.233583,22,7
3.09258,18.4213,5.00504,8,15
0.0838512,0.495233,-0.134586,15,0
2.30911,13.6378,0.241437,8,8
0.108119,0.637884,-0.149367,24,1
2.50817,14.7821,0.785772,9,9
1.34233,7.90278,-1.55815,21,2
3.06696,18.0372,1.6007,37,10
1.57552,9.26585,-1.48863,23,3
3.15113,18.5127,2.30577,29,11
1.90495,11.1797,-1.39248,28,4
3.06209,17.9517,2.88434,31,12
2.12748,12.4594,-1.10583,9,5
3.48327,20.3994,4.02264,22,13
2.35528,13.779,-0.732599,45,6
3.11553,18.2075,4.26462,33,14
2.25358,13.1564,-0.23299,26,7
3.04487,17.7573,4.82749,18,15
0.0940422,0.544447,-0.148044,13,0
0.108019,0.624061,-0.146218,25,1
2.44587,14.116,0.750812,11,9
1.36283,7.8654,-1.55166,21,2
3.25308,18.7553,1.66537,63,10
1.6038,9.23694,-1.48488,25,3
3.09403,17.8014,2.21851,14,11
1.94227,11.1632,-1.39126,23,4
3.12576,17.9468,2.88528,68,12
2.13939,12.2835,-1.09084,26,5
3.12823,17.9425,3.54027,6,13
2.4044,13.7766,-0.732913,58,6
3.1623,18.1005,4.24213,48,14
2.36287,13.5108,-0.239412,97,7
3.09852,17.699,4.81455,39,15
0.0925876,0.525091,-0.142868,14,0
2.46543,13.9679,0.24758,31,8
0.111213,0.629437,-0.147568,24,1
2.49548,14.1094,0.750916,47,9
1.38515,7.83159,-1.54593,21,2
3.33659,18.8458,1.67444,28,10
1.63327,9.21572,-1.48237,25,3
3.15893,17.8062,2.22046,23,11
1.98087,11.1544,-1.39102,24,4
3.2271,18.1536,2.92032,30,12
2.17458,12.2328,-1.08701,26,5
3.24759,18.2504,3.60324,19,13
2.44056,13.7012,-0.729354,48,6
3.22478,18.0855,4.24123,27,14
2.42268,13.5734,-0.240669,71,7
3.17082,17.747,4.8306,7,15
0.0855252,0.47533,-0.12941,15,0
2.5521,14.1698,0.251315,31,8
0.116522,0.646306,-0.151617,23,1
2.54081,14.0789,0.749765,51,9
1.41108,7.81898,-1.54441,19,2
3.3007,18.2713,1.62441,43,10
1.65665,9.16137,-1.47455,27,3
3.33951,18.4494,2.30211,29,11
2.01236,11.1064,-1.3859,31,4
3.28094,18.0897,2.91187,35,12
2.19131,12.082,-1.07428,28,5
3.29445,18.1462,3.58492,49,13
2.45444,13.5059,-0.71941,45,6
3.72525,20.4784,4.8054,34,14
2.46252,13.5235,-0.239936,97,7
3.2362,17.7548,4.83577,16,15
0.0906714,0.49403,-0.134586,15,0
2.64455,14.3949,0.255468,16,8
0.114195,0.620979,-0.145768,25,1
3.3496,18.1969,0.969681,28,9
1.43481,7.7947,-1.54059,23,2
3.4771,18.871,1.67879,31,10
1.68216,9.12057,-1.46892,28,3
3.41651,18.5059,2.31064,34,11
2.04427,11.0622,-1.38127,23,4
3.39363,18.3462,2.95505,10,12
2.26427,12.2408,-1.0891,26,5
3.35991,18.1462,3.58721,28,13
2.47646,13.3618,-0.712188,61,6
3.32785,17.938,4.21198,39,14
2.49255,13.4224,-0.238295,100,7
3.66497,19.7168,5.3736,4,15
2.71282,14.4819,0.257179,52,8
0.116362,0.620577,-0.145768,25,1
3.39704,18.117,0.966017,49,9
1.45803,7.76842,-1.53639,21,2
3.43222,18.2694,1.62633,40,10
1.7034,9.05834,-1.45985,25,3
3.4642,18.4042,2.29943,53,11
2.07287,11.0125,-1.37591,23,4
3.45446,18.3348,2.95505,24,12
2.38305,12.6361,-1.12501,11,5
3.83621,20.322,4.01996,16,13
2.55943,13.5454,-0.722446,35,6
3.39166,17.9499,4.21738,15,14
2.52218,13.3355,-0.236899,100,7
6.93317,36.6227,9.98731,9,15
0.0940321,0.493401,-0.134586,15,0
2.80991,14.7301,0.261751,27,8
0.118419,0.620187,-0.145768,25,1
2.91657,15.2747,0.814976,16,9
1.47715,7.72883,-1.52953,21,2
3.47332,18.1561,1.61726,13,10
1.73009,9.03518,-1.45703,26,3
3.51026,18.3146,2.28968,9,11
2.10227,10.9685,-1.37127,23,4
5.58604,29.1174,4.69585,21,12
2.39526,12.4736,-1.11124,19,5
3.43703,17.8819,3.53951,6,13
2.59225,13.4741,-0.719096,45,6
3.43459,17.8524,4.19714,33,14
2.61593,13.5843,-0.241471,100,7
4.01943,20.853,5.6904,28,15
0.0956674,0.493087,-0.134586,15,0
2.70702,13.9394,0.247859,12,8
0.126053,0.648485,-0.152517,23,1
2.9733,15.2821,0.815918,29,9
1.49865,7.70269,-1.52533,23,2
3.56702,18.3166,1.6326,27,10
1.75777,9.01776,-1.45515,28,3
3.56072,18.2502,2.2831,9,11
2.13293,10.9221,-1.3664,19,4
3.61177,18.4776,2.98195,7,12
2.40972,12.3165,-1.09799,26,5
3.95319,20.2056,4.00203,32,13
2.61505,13.3537,-0.71313,48,6
3.48415,17.7753,4.18184,33,14
2.63253,13.4181,-0.238679,81,7
5.75245,29.2934,7.99906,23,15
0.102723,0.519264,-0.141833,14,0
2.74829,13.8926,0.247196,17,8
0.12718,0.642307,-0.151167,23,1
3.45373,17.4267,0.931057,20,9
1.52611,7.6933,-1.52456,19,2
3.593,18.0963,1.61412,40,10
1.78773,8.99576,-1.45265,26,3
3.63948,18.3136,2.29261,53,11
2.16563,10.8873,-1.36299,17,4
6.74846,33.8959,5.47396,28,12
2.46709,12.3804,-1.10444,23,5
4.01109,20.1101,3.986,20,13
2.64755,13.2617,-0.708734,29,6
4.49778,22.5092,5.2994,33,14
2.8447,14.2364,-0.253409,51,7
5.9115,29.5573,8.07671,12,15
0.0953785,0.473451,-0.12941,15,0
2.72607,13.5198,0.240738,1,8
0.124907,0.618913,-0.145768,25,1
3.42525,16.9721,0.907401,44,9
1.54828,7.66483,-1.51998,21,2
3.65339,18.07,1.6129,16,10
1.81403,8.96429,-1.44858,27,3
3.83308,18.9247,2.37085,40,11
2.19526,10.8287,-1.35665,15,4
6.85497,33.8141,5.46457,19,12
2.6561,13.0902,-1.16858,27,5
4.12463,20.3095,4.02836,22,13
2.68945,13.2309,-0.707582,39,6
4.22045,20.7442,4.88729,49,14
2.72096,13.3739,-0.238225,45,7
5.73092,28.1433,7.69573,15,15
0.104793,0.510965,-0.139762,14,0
2.75682,13.4421,0.239517,15,8
0.128526,0.626132,-0.147568,24,1
3.17859,15.4712,0.827746,7,9
1.57107,7.64015,-1.51617,21,2
4.2181,20.4945,1.83062,4,10
1.83459,8.91372,-1.44139,35,3
3.7352,18.1322,2.27311,19,11
2.22153,10.7747,-1.3508,17,4
6.18768,29.9846,4.84916,41,12
2.61069,12.6399,-1.12919,26,5
3.7305,18.0616,3.58492,7,13
2.7701,13.3999,-0.717107,52,6
2.76357,13.3448,-0.237876,29,7
6.07301,29.2997,8.0177,17,15
0.104909,0.50305,-0.137692,14,0
2.81109,13.4677,0.240145,15,8
0.129914,0.621864,-0.146668,24,1
3.22644,15.4307,0.826176,7,9
1.59239,7.61568,-1.51235,21,2
4.39419,20.9972,1.87681,34,10
1.86569,8.90727,-1.44139,25,3
3.78952,18.0764,2.26775,14,11
2.25302,10.7378,-1.34714,22,4
7.12213,33.9143,5.48866,19,12
2.66939,12.7111,-1.13634,28,5
6.60133,31.4071,6.23831,57,13
2.85181,13.5563,-0.726004,52,6
4.37801,20.7932,4.90573,18,14
2.75241,13.0611,-0.23299,100,7
4.41146,20.9158,5.72767,17,15
0.105863,0.498901,-0.136656,14,0
2.87137,13.5204,0.241262,16,8
0.135325,0.636656,-0.150267,24,1
1.61079,7.57167,-1.50472,19,2
4.07577,19.1421,1.71226,7,10
1.89142,8.87558,-1.43732,25,3
3.88862,18.2319,2.28895,29,11
2.27018,10.6347,-1.3352,27,4
6.74727,31.5807,5.11478,57,12
2.67628,12.5264,-1.12065,19,5
7.3452,34.35,6.82791,76,13
2.90078,13.554,-0.726423,39,6
4.58853,21.4218,5.0578,25,14
4.43904,20.6887,5.66969,11,15
3.12334,14.4582,0.258191,1,8
0.133017,0.615228,-0.145318,25,1
3.58675,16.5894,0.889502,17,9
1.63472,7.55449,-1.50243,21,2
4.15184,19.1706,1.7161,17,10
1.91946,8.85542,-1.43513,20,3
3.92194,18.0786,2.2714,53,11
2.30813,10.6306,-1.33569,15,4
7.29665,33.6063,5.44674,23,12
2.70094,12.4293,-1.1128,35,5
2.95318,13.5673,-0.727679,32,6
4.66535,21.4152,5.06005,20,14
2.94425,13.5149,-0.241437,97,7
4.53767,20.8117,5.70748,27,15
0.103544,0.471733,-0.12941,15,0
3.24115,14.7662,0.26388,46,8
0.137565,0.626203,-0.148018,24,1
3.63048,16.5124,0.886048,8,9
1.65728,7.53148,-1.499,21,2
4.04776,18.3797,1.64655,20,10
1.94159,8.8162,-1.42981,15,3
4.04125,18.3349,2.30528,29,11
2.33269,10.5744,-1.32959,17,4
7.52846,34.0995,5.5309,24,12
2.74517,12.4237,-1.11315,40,5
9.63492,43.6044,8.68028,9,13
4.51904,20.4178,4.8279,38,14
3.00828,13.5807,-0.242798,100,7
4.59106,20.7089,5.68367,26,15
0.110994,0.497784,-0.136656,14,0
3.28439,14.7177,0.263217,10,8
0.1406,0.629523,-0.148918,24,1
3.68026,16.4645,0.884164,17,9
1.6754,7.49529,-1.49289,21,2
4.0878,18.2728,1.63818,60,10
1.96847,8.79202,-1.427,13,3
4.08006,18.2083,2.29114,19,11
2.35959,10.5217,-1.32399,20,4
8.76096,39.0342,6.33622,25,12
2.88197,12.8301,-1.15046,19,5
8.70192,38.7395,7.71784,32,13
3.23295,14.3809,-0.772479,32,6
4.589,20.3962,4.82655,12,14
3.11761,13.8452,-0.247719,43,7
7.75307,34.4032,9.44948,24,15
0.111109,0.489838,-0.134586,15,0
3.31629,14.6203,0.261681,39,8
0.142797,0.629028,-0.148918,24,1
4.23816,18.6544,1.00255,29,9
1.69545,7.45655,-1.4864,23,2
4.18836,18.4054,1.65143,23,10
1.9963,8.76549,-1.42387,15,3
4.09598,17.985,2.26482,53,11
2.3866,10.4708,-1.31863,19,4
7.61215,33.3702,5.42108,9,12
2.92452,12.8102,-1.14958,14,5
10.8895,47.6608,9.50305,11,13
3.29099,14.3923,-0.773735,52,6
4.68937,20.4913,4.85309,4,14
3.18331,13.9102,-0.249081,43,7
7.89425,34.4682,9.47485,8,15
3.37255,14.6198,0.261891,33,8
0.145101,0.628501,-0.148918,24,1
4.3101,18.6543,1.00339,29,9
1.71793,7.43528,-1.48335,23,2
4.25212,18.3887,1.65125,6,10
2.02198,8.7373,-1.42043,20,3
4.56768,19.7219,2.48565,27,11
2.41509,10.4194,-1.31326,17,4
4.7892,20.6456,3.35677,20,12
2.94082,12.6674,-1.13773,19,5
8.01682,34.5321,6.89088,19,13
4.74322,20.3989,4.8351,4,14
3.50758,15.0729,-0.270128,100,7
8.72863,37.4795,10.3114,9,15
3.41398,14.567,0.261158,7,8
0.149073,0.63558,-0.150717,23,1
1.74114,7.41174,-1.47991,23,2
4.61541,19.6317,1.76438,3,10
2.04675,8.69906,-1.41542,20,3
4.62375,19.6518,2.47882,32,11
2.43871,10.3568,-1.30644,24,4
4.86847,20.6595,3.36178,9,12
2.97404,12.6106,-1.13355,26,5
8.90142,37.7145,7.53238,7,13
3.02659,12.8133,-0.689997,6,6
4.83678,20.461,4.85399,17,14
3.59467,15.2065,-0.272746,81,7
9.72134,41.0922,11.3145,12,15
0.116232,0.488648,-0.134586,15,0
3.44906,14.4889,0.259971,6,8
0.145872,0.612307,-0.145318,25,1
3.77324,15.8384,0.853285,9,9
1.76161,7.38873,-1.47648,23,2
4.5783,19.188,1.72586,35,10
2.06917,8.66533,-1.41104,18,3
4.75046,19.8788,2.50953,28,11
2.46566,10.3178,-1.30254,20,4
5.91516,24.7335,4.02787,23,12
2.99497,12.5134,-1.1257,23,5
9.00679,37.6027,7.51597,30,13
3.47969,14.5163,-0.782318,35,6
9.03528,37.6926,8.94855,26,14
3.68845,15.3754,-0.275992,64,7
0.122385,0.507039,-0.139762,14,0
3.72058,15.4026,0.276586,49,8
0.14836,0.613714,-0.145768,25,1
3.83184,15.851,0.854646,19,9
1.78333,7.3714,-1.47419,26,2
4.61612,19.0662,1.71627,42,10
2.09277,8.6373,-1.4076,22,3
4.82337,19.8919,2.51319,16,11
2.48443,10.2459,-1.2945,22,4
4.97325,20.4943,3.34019,24,12
3.11027,12.8074,-1.15307,28,5
9.16156,37.6966,7.54077,7,13
3.36827,13.8487,-0.746939,19,6
8.76416,36.034,8.56164,12,14
3.50816,14.4129,-0.258924,17,7
4.89076,20.0779,5.53717,9,15
0.12866,0.525394,-0.144939,14,0
3.58649,14.6346,0.263008,12,8
0.153179,0.624575,-0.148468,24,1
4.55747,18.5687,1.00202,5,9
1.80075,7.33685,-1.46847,26,2
4.69215,19.103,1.72098,38,10
2.11857,8.6188,-1.40572,25,3
5.2165,21.2058,2.68137,19,11
2.51401,10.2121,-1.29133,19,4
5.04664,20.4845,3.34144,26,12
3.11078,12.6268,-1.13773,28,5
9.2917,37.687,7.54497,38,13
3.42183,13.8685,-0.748614,48,6
9.22109,37.3446,8.88062,13,14
3.56086,14.4103,-0.259098,67,7
4.94551,19.9989,5.52009,2,15
0.121172,0.487446,-0.134586,15,0
3.61776,14.5425,0.261577,4,8
0.153946,0.618363,-0.147118,24,1
4.63721,18.6127,1.00527,23,9
1.81922,7.30194,-1.46274,23,2
2.14243,8.58644,-1.40165,17,3
6.30954,25.2686,3.19785,9,11
2.53905,10.1609,-1.28597,17,4
5.13202,20.5224,3.35051,24,12
3.15242,12.6062,-1.13686,26,5
9.41746,37.6315,7.54039,38,13
9.33766,37.2574,8.86757,13,14
3.42335,13.6491,-0.245625,43,7
11.3888,45.3743,12.5351,16,15
0.122873,0.48702,-0.134586,15,0
3.89515,15.4274,0.277738,42,8
0.154194,0.610265,-0.145318,25,1
4.93374,19.5123,1.05478,15,9
1.83941,7.27461,-1.45854,26,2
4.71593,18.6372,1.68193,17,10
2.16027,8.53104,-1.39383,16,3
4.81631,19.006,2.40741,41,11
2.57109,10.1385,-1.28426,17,4
5.26776,20.7571,3.39181,9,12
3.17899,12.5173,-1.12989,28,5
9.56229,37.6516,7.55108,30,13
3.57367,14.0611,-0.760337,39,6
9.51233,37.4002,8.90941,26,14
