x, y, z, intensity, ring
-10.2374,7.72842,-1.12222,35,5
-11.3522,8.57316,2.7652,26,13
-9.77203,7.38249,-0.641848,78,6
-10.6621,8.05783,3.08543,42,14
-10.6667,8.06421,-0.233408,100,7
-11.8504,8.96239,3.98115,27,15
-11.4331,8.67189,0.250477,30,8
-0.423815,0.321576,-0.122823,15,1
-10.0573,7.63111,0.661631,63,9
-0.583294,0.442744,-0.142344,11,2
-10.9742,8.33291,1.20554,68,10
-10.5141,7.98645,-2.09122,2,3
-10.5945,8.05039,1.63378,56,11
-9.41887,7.15968,-1.45268,35,4
-11.0036,8.36428,2.18914,5,12
-10.1723,7.73517,-1.11803,28,5
-11.241,8.55092,2.74536,18,13
-9.79548,7.45405,-0.645093,71,6
-10.4432,7.94981,3.03009,70,14
-10.6383,8.09833,-0.233374,23,7
-11.1228,8.47027,3.74615,12,15
-0.460592,0.351767,-0.155291,12,0
-10.972,8.37962,0.240983,8,8
-0.422746,0.32298,-0.122823,15,1
-10.0163,7.65526,0.660689,50,9
-0.563029,0.430468,-0.137764,12,2
-11.3043,8.64592,1.24511,33,10
-10.4735,8.01047,-2.0884,2,3
-10.4589,8.00225,1.61696,47,11
-9.46916,7.24758,-1.46414,39,4
-10.1547,7.77789,-1.11908,30,5
-9.77704,7.49135,-0.645512,74,6
-10.3982,7.97017,3.02469,68,14
-10.5893,8.1196,-0.23292,26,7
-10.9415,8.39264,3.6949,21,15
-10.949,8.42275,0.241122,27,8
-0.421616,0.324454,-0.122823,15,1
-9.9671,7.67016,0.659119,70,9
-0.580267,0.446704,-0.142344,11,2
-11.3971,8.77697,1.25853,66,10
-10.4501,8.0506,-2.08934,6,3
-10.4938,8.08717,1.62671,48,11
-9.50827,7.33028,-1.47413,37,4
-10.5521,8.13505,2.1103,25,12
-10.0768,7.77137,-1.11333,23,5
-11.4219,8.81192,2.80413,29,13
-11.5755,8.93363,-0.766303,19,6
-10.3888,8.02071,3.03009,63,14
-10.6177,8.19744,-0.234141,23,7
-10.9778,8.47847,3.71664,45,15
-12.3549,9.56966,0.272781,49,8
-0.420538,0.32585,-0.122823,15,1
-10.1202,7.84439,0.671052,68,9
-0.538365,0.417448,-0.132421,13,2
-11.294,8.76053,1.25051,55,10
-10.439,8.09731,-2.09247,6,3
-10.5344,8.17426,1.63719,48,11
-9.48704,7.36421,-1.47462,46,4
-10.0307,7.79183,-1.11124,26,5
-11.481,8.9184,2.82588,45,13
-11.5111,8.945,-0.764,32,6
-11.7007,9.09564,3.42151,24,14
-10.5259,8.18535,-0.232745,24,7
-10.8734,8.45862,3.69128,28,15
-0.457007,0.356411,-0.155291,12,0
-10.9545,8.54628,0.242519,11,8
-0.462413,0.360887,-0.135421,13,1
-10.0503,7.84648,0.668226,52,9
-0.549358,0.428897,-0.135474,12,2
-11.3717,8.88132,1.26236,44,10
-10.4029,8.12762,-2.0909,16,3
-10.523,8.22443,1.63987,63,11
-9.38934,7.34103,-1.46341,40,4
-10.3504,8.09534,2.0812,49,12
-11.3864,8.90882,2.81024,30,13
-9.93373,7.77505,-0.661108,16,6
-11.7026,9.16286,3.4314,54,14
-10.2564,8.03338,-0.227405,100,7
-11.4004,8.93261,3.88073,20,15
-10.901,8.56594,0.241995,15,8
-0.473407,0.372133,-0.13902,13,1
-10.0338,7.89016,0.668958,60,9
-0.569463,0.447802,-0.140817,11,2
-11.1339,8.75836,1.23935,49,10
-10.4055,8.18831,-2.09716,17,3
-10.5348,8.29303,1.64621,60,11
-9.36834,7.37745,-1.46414,60,4
-10.4183,8.20721,2.1006,54,12
-10.0166,7.89075,-1.11559,4,5
-11.716,9.23286,2.89953,27,13
-9.90182,7.80597,-0.660794,26,6
-11.4227,9.00817,3.35852,31,14
-9.96769,7.86354,-0.221611,100,7
-11.4389,9.0274,3.90454,21,15
-10.9087,8.63372,0.242833,9,8
-0.459882,0.364106,-0.135421,13,1
-10.0624,7.96678,0.672622,47,9
-0.564819,0.447349,-0.140054,11,2
-11.0002,8.71551,1.22785,34,10
-10.3598,8.21109,-2.09372,8,3
-10.5213,8.34209,1.64865,45,11
-9.3516,7.41464,-1.46536,18,4
-10.3461,8.20611,2.09153,62,12
-9.91404,7.86623,-1.10723,9,5
-11.0871,8.80013,2.75147,10,13
-9.88234,7.84669,-0.661317,81,6
-11.6766,9.27139,3.4422,45,14
-10.0339,7.96993,-0.22367,84,7
-11.3091,8.98597,3.87038,29,15
-11.0677,8.81939,0.247021,4,8
-0.416005,0.331617,-0.122823,15,1
-10.0125,7.98143,0.671052,58,9
-0.554122,0.441875,-0.137764,12,2
-10.7859,8.60409,1.20711,55,10
-11.4504,9.13746,-2.32024,16,3
-10.5169,8.39551,1.6523,45,11
-9.44487,7.53973,-1.48388,52,4
-10.2895,8.21696,2.08558,58,12
-10.7659,8.60042,-1.20554,12,5
-9.83754,7.86446,-0.660061,65,6
-11.862,9.48285,3.50609,47,14
-9.94343,7.95195,-0.222239,100,7
-11.335,9.06807,3.88953,13,15
-10.9276,8.7672,0.244543,15,8
-0.457457,0.367148,-0.135421,13,1
-9.84735,7.90333,0.661736,52,9
-0.531221,0.426503,-0.132421,13,2
-11.3398,9.10767,1.27247,33,10
-11.9575,9.60718,-2.42943,33,3
-10.54,8.47138,1.66035,41,11
-9.5732,7.69704,-1.50826,37,4
-10.2545,8.24484,2.08402,33,12
-10.6783,8.58863,-1.19891,10,5
-10.617,8.5424,2.64881,40,13
-9.75539,7.85195,-0.656293,74,6
-11.6133,9.35065,3.4422,49,14
-10.241,8.24574,-0.229499,20,7
-11.3801,9.1662,3.91541,33,15
-10.7445,8.67899,0.241088,6,8
-0.444112,0.358865,-0.131821,14,1
-9.85232,7.96402,0.663934,68,9
-0.548049,0.443168,-0.137001,12,2
-10.7642,8.70738,1.21129,28,10
-11.5278,9.32501,-2.34839,14,3
-10.248,8.29275,1.61867,43,11
-9.48436,7.67754,-1.49826,42,4
-11.5889,9.3845,2.36185,36,12
-10.2612,8.31232,-1.15534,26,5
-10.5413,8.53925,2.63698,44,13
-9.83172,7.96725,-0.663201,87,6
-11.5564,9.36825,3.43455,42,14
-9.84714,7.98544,-0.221297,21,7
-11.4321,9.27402,3.9444,22,15
-10.6412,8.65713,0.239447,45,8
-0.412627,0.335811,-0.122823,15,1
-9.79658,7.97567,0.66205,66,9
-0.561801,0.457378,-0.140817,11,2
-11.0999,9.03995,1.25243,22,10
-9.34038,7.60969,-1.90819,17,3
-10.1651,8.28458,1.61014,61,11
-9.51596,7.75827,-1.50752,36,4
-11.6341,9.48857,2.3778,51,12
-10.2259,8.34305,-1.15464,26,5
-10.4019,8.48664,2.6095,42,13
-9.77909,7.98132,-0.661527,71,6
-11.5373,9.41963,3.4386,36,14
-11.8379,9.672,4.09607,18,15
-9.82273,8.05414,0.665713,39,9
-0.554049,0.454453,-0.139291,12,2
-10.3535,8.49542,1.17172,30,10
-9.2254,7.57243,-1.89035,40,3
-9.97505,8.18777,1.58455,61,11
-9.50417,7.80403,-1.50996,51,4
-11.6712,9.5868,2.3922,46,12
-10.2075,8.38755,-1.15586,23,5
-10.2055,8.38882,2.56791,47,13
-9.66801,7.94987,-0.655979,74,6
-11.4801,9.44328,3.43185,47,14
-10.1989,8.38937,-0.230511,100,7
-11.5311,9.48863,4.00134,13,15
-0.447006,0.368877,-0.155291,12,0
-10.6746,8.81198,0.241611,15,8
-0.464308,0.383427,-0.13902,13,1
-10.101,8.34145,0.686543,57,9
-0.552459,0.456385,-0.139291,12,2
-10.2993,8.51121,1.16893,2,10
-9.19282,7.59955,-1.8891,48,3
-10.0352,8.29891,1.59893,39,11
-9.50456,7.86286,-1.51459,43,4
-11.7076,9.6854,2.40659,45,12
-10.2043,8.44472,-1.15882,26,5
-10.1867,8.43316,2.57058,52,13
-10.4647,8.66638,-0.712083,52,6
-11.267,9.33411,3.37787,40,14
-10.1372,8.39813,-0.229778,20,7
-11.3938,9.44254,3.96511,33,15
-0.445716,0.370435,-0.155291,12,0
-11.0898,9.21671,0.251699,16,8
-9.94132,8.26811,0.677646,55,9
-0.538789,0.448265,-0.136238,12,2
-10.3399,8.60573,1.17695,52,10
-9.09165,7.56681,-1.87346,42,3
-10.2884,8.56585,1.64377,45,11
-9.50589,7.9172,-1.51898,43,4
-11.7178,9.76288,2.41566,47,12
-10.1763,8.48156,-1.159,28,5
-10.1617,8.46941,2.57134,50,13
-9.55691,7.96817,-0.652106,9,6
-11.1881,9.33148,3.36347,51,14
-10.0356,8.37325,-0.228138,26,7
-11.779,9.83134,4.11108,28,15
-11.0039,9.21044,0.250477,37,8
-0.407898,0.34154,-0.122823,15,1
-9.88475,8.27667,0.675657,60,9
-0.531279,0.445007,-0.134711,12,2
-10.2655,8.60159,1.17172,20,10
-9.3074,7.80154,-1.92352,35,3
-10.1991,8.55197,1.63427,41,11
-9.682,8.12128,-1.55164,32,4
-11.7519,9.85754,2.42943,50,12
-10.2687,8.61644,-1.17277,25,5
-10.2313,8.58813,2.59653,45,13
-9.50763,7.9835,-0.650641,6,6
-11.1718,9.38426,3.36842,58,14
-10.0308,8.42577,-0.228661,24,7
-11.8484,9.9561,4.1468,28,15
-10.2408,8.62965,0.233758,19,8
-9.95505,8.39481,0.682461,74,9
-0.529723,0.446859,-0.134711,12,2
-10.6359,8.97531,1.21757,49,10
-9.1592,7.72917,-1.89818,52,3
-10.1206,8.54349,1.62622,45,11
-9.48212,8.00733,-1.52385,28,4
-11.7748,9.94694,2.44132,48,12
-9.92657,8.3886,-1.13703,19,5
-10.2028,8.62201,2.59653,48,13
-10.5412,8.91113,-0.723388,52,6
-11.1779,9.45272,3.37966,29,14
-9.57841,8.10299,-0.218993,100,7
-11.8549,10.0323,4.16129,32,15
-10.2243,8.67699,0.234072,48,8
-10.0597,8.54328,0.691672,45,9
-0.534224,0.453696,-0.136238,12,2
-10.6668,9.06213,1.22454,34,10
-9.0855,7.72144,-1.88848,53,3
-10.1119,8.59676,1.62964,45,11
-9.44201,8.0301,-1.5219,30,4
-11.8002,10.0392,2.45383,48,12
-9.87897,8.40469,-1.13477,35,5
-11.0203,9.37904,2.81291,10,13
-8.98771,7.65184,-0.618611,23,6
-11.1478,9.4942,3.38056,58,14
-10.0204,8.5371,-0.229778,24,7
-11.8448,10.095,4.17009,33,15
-8.97027,7.66675,0.205973,41,8
-9.91138,8.47709,0.683508,70,9
-0.544573,0.465767,-0.139291,12,2
-10.8577,9.28971,1.25016,35,10
-8.97745,7.68374,-1.87158,48,3
-10.1648,8.70302,1.64304,48,11
-9.39884,8.05009,-1.51947,46,4
-11.7546,10.0713,2.45164,41,12
-9.69978,8.31078,-1.11751,38,5
-11.0188,9.44428,2.82092,26,13
-11.1308,9.54702,3.38551,51,14
-9.63088,8.26341,-0.221506,24,7
-11.7303,10.0683,4.14214,33,15
-8.92527,7.68236,0.205554,72,8
-0.40315,0.347131,-0.122823,15,1
-9.71824,8.36786,0.672098,21,9
-0.525093,0.45229,-0.134711,12,2
-10.7603,9.27163,1.24267,57,10
-8.92215,7.69053,-1.86564,45,3
-10.0907,8.70085,1.63597,41,11
-9.35716,8.07119,-1.51727,51,4
-11.6912,10.0844,2.44538,41,12
-9.77178,8.4318,-1.12919,19,5
-11.0081,9.50193,2.82664,23,13
-8.85244,7.64392,-0.612959,91,6
-11.4116,9.85714,3.48134,31,14
-9.58678,8.28092,-0.221122,56,7
-11.6705,10.0844,4.13282,24,15
-8.96926,7.77215,0.20716,56,8
-0.544274,0.47213,-0.140054,11,2
-10.6842,9.27127,1.23761,57,10
-9.07115,7.87155,-1.90224,48,3
-10.0603,8.73297,1.63573,48,11
-9.35732,8.1256,-1.52166,25,4
-11.7797,10.2327,2.47135,48,12
-9.73176,8.45671,-1.12797,26,5
-10.9202,9.48944,2.81214,37,13
-8.78032,7.63261,-0.609714,81,6
-11.0891,9.64302,3.39271,51,14
-9.95612,8.66082,-0.230337,100,7
-11.6586,10.1454,4.1411,15,15
-8.94509,7.80605,0.20723,57,8
-0.441884,0.385751,-0.135421,13,1
-9.83258,8.58355,0.684031,25,9
-0.522003,0.455853,-0.134711,12,2
-9.28945,8.11513,1.07916,18,10
-9.58951,8.38021,-2.01707,16,3
-10.0193,8.75888,1.63402,45,11
-10.995,9.61527,-1.79343,16,4
-10.7033,9.36014,2.25203,37,12
-9.53721,8.34332,-1.10862,26,5
-10.8737,9.51587,2.80871,25,13
-8.83928,7.7382,-0.61568,84,6
-11.3178,9.91148,3.47324,47,14
-9.59187,8.4,-0.222553,22,7
-11.606,10.1674,4.13438,30,15
-9.0123,7.91749,0.209394,47,8
-0.428892,0.376923,-0.131821,14,1
-0.552841,0.486196,-0.143107,11,2
-9.23414,8.12382,1.07602,81,10
-9.07669,7.9853,-1.91476,40,3
-9.8993,8.71206,1.61916,47,11
-10.6502,9.37621,-1.74224,7,4
-10.5787,9.3165,2.23263,58,12
-9.39142,8.27383,-1.09502,26,5
-10.7876,9.50386,2.79459,38,13
-8.89898,7.84274,-0.621647,64,6
-11.3243,9.98375,3.48539,40,14
-9.64048,8.50221,-0.224368,29,7
-23.4045,20.6484,8.36296,39,15
-9.15692,8.10421,0.213443,18,8
-0.450853,0.399161,-0.13902,13,1
-0.518807,0.459486,-0.134711,12,2
-9.22512,8.17318,1.07829,54,10
-8.95275,7.93466,-1.89473,36,3
-9.86879,8.74961,1.6194,47,11
-10.3352,9.16312,-1.69593,10,4
-10.5609,9.36648,2.23576,48,12
-9.12403,8.09499,-1.06713,47,5
-10.7483,9.53942,2.79344,24,13
-8.81192,7.82359,-0.617564,81,6
-11.2501,9.98829,3.47324,49,14
-9.4986,8.43622,-0.22175,24,7
-23.481,20.8621,8.41628,26,15
-9.21809,8.21301,0.215502,51,8
-0.42625,0.379908,-0.131821,14,1
-10.5742,9.42454,0.742333,38,9
-0.526073,0.469044,-0.137001,12,2
-9.18012,8.18782,1.0762,18,10
-9.00598,8.03532,-1.91163,48,3
-9.81158,8.75717,1.61477,43,11
-10.3062,9.19866,-1.69618,28,4
-10.4089,9.29357,2.21011,52,12
-9.08227,8.11193,-1.06539,35,5
-10.7459,9.60117,2.80108,33,13
-8.85741,7.91666,-0.622589,70,6
-11.2576,10.0619,3.48584,58,14
-9.71506,8.68626,-0.227475,25,7
-23.4996,21.0184,8.44785,26,15
-9.12232,8.18212,0.213897,55,8
-0.442393,0.396937,-0.13722,13,1
-10.5026,9.42671,0.739612,58,9
-0.527437,0.473408,-0.137764,12,2
-10.8548,9.74632,1.27631,27,10
-9.03072,8.11134,-1.92258,22,3
-10.4558,9.39465,1.72591,31,11
-10.1663,9.13771,-1.67838,26,4
-10.488,9.43022,2.23388,45,12
-9.00199,8.09405,-1.05912,47,5
-10.787,9.7024,2.82016,35,13
-8.81775,7.93396,-0.621647,74,6
-11.3006,10.1715,3.51014,18,14
-9.85706,8.87534,-0.231524,82,7
-23.2983,20.9852,8.40178,32,15
-9.07887,8.20051,0.213548,40,8
-0.423654,0.382801,-0.131821,14,1
-10.4874,9.47939,0.740868,34,9
-0.522868,0.472614,-0.137001,12,2
-10.8,9.76544,1.27387,38,10
-9.4023,8.50457,-2.00799,48,3
-11.3209,10.2435,1.87459,41,11
-10.1888,9.22243,-1.6874,14,4
-8.91903,8.07594,-1.05267,26,5
-10.6715,9.66619,2.79879,43,13
-8.78852,7.96335,-0.621542,70,6
-11.1033,10.0643,3.45975,18,14
-9.75343,8.84387,-0.229813,22,7
-9.04427,8.22676,0.213408,55,8
-0.410785,0.373785,-0.128222,14,1
-10.3628,9.42942,0.734274,35,9
-0.503793,0.458577,-0.132421,13,2
-10.8057,9.8393,1.27857,35,10
-9.37401,8.53867,-2.00831,49,3
-11.285,10.283,1.87459,41,11
-9.80883,8.941,-1.62964,3,4
-8.90256,8.11777,-1.05406,26,5
-10.5812,9.65178,2.7839,41,13
-8.96132,8.17707,-0.635777,87,6
-11.0753,10.1096,3.462,45,14
-9.51433,8.68473,-0.224857,100,7
-0.42743,0.391393,-0.155291,12,0
-10.3103,9.44106,0.24402,49,8
-0.421039,0.385675,-0.131821,14,1
-10.3048,9.4426,0.732494,64,9
-0.513767,0.470946,-0.135474,12,2
-10.7008,9.81232,1.27021,41,10
-9.37622,8.59774,-2.01488,46,3
-11.2348,10.3056,1.87191,45,11
-9.99413,9.17078,-1.66547,33,4
-9.8956,9.08355,2.12751,41,12
-8.86243,8.13801,-1.05267,47,5
-10.5592,9.69611,2.78657,34,13
-8.88267,8.15945,-0.632114,87,6
-11.0432,10.1476,3.46245,63,14
-9.7357,8.9493,-0.230826,100,7
-10.3155,9.51224,0.244927,17,8
-0.41969,0.387143,-0.131821,14,1
-10.4024,9.59906,0.74181,16,9
-0.50066,0.461996,-0.132421,13,2
-10.6799,9.85856,1.2716,41,10
-9.35196,8.63578,-2.01613,39,3
-9.74931,9.00586,1.62964,3,11
-9.71129,8.97388,-1.62354,24,4
-9.72893,8.99333,2.09841,79,12
-10.5599,9.7649,2.79573,45,13
-8.87026,8.20533,-0.633265,78,6
-11.0377,10.2139,3.47189,54,14
-9.86436,9.1313,-0.23463,100,7
-10.8626,10.087,0.258749,34,8
-0.418336,0.388606,-0.131821,14,1
-10.1552,9.43682,0.726528,48,9
-0.519179,0.482451,-0.137764,24,2
-10.6177,9.87001,1.26829,30,10
-9.31163,8.65896,-2.01394,35,3
-9.70183,9.02497,1.62696,37,11
-9.72641,9.051,-1.63134,42,4
-9.72929,9.05685,2.1053,33,12
-9.60746,8.94343,-1.14836,33,5
-8.82403,8.21991,-0.632009,68,6
-11.156,10.3958,3.52048,51,14
-9.85875,9.19022,-0.235258,26,7
-10.8623,10.1577,0.259587,37,8
-0.416977,0.390064,-0.131821,14,1
-10.3631,9.69421,0.743694,36,9
-0.520359,0.486943,-0.138527,12,2
-10.5163,9.84438,1.26027,35,10
-9.20493,8.61985,-1.99736,37,3
-9.70794,9.09406,1.63329,41,11
-10.2423,9.59799,-1.72348,45,4
-9.64154,9.03503,2.09278,51,12
-9.61252,9.01098,-1.15272,19,5
-20.6393,19.3545,5.49988,32,13
-8.79091,8.24656,-0.631695,74,6
-9.69261,9.0956,-0.232012,25,7
-11.0805,10.4308,0.265626,24,8
-0.424193,0.39946,-0.134521,14,1
-10.3234,9.72484,0.743275,67,9
-0.515798,0.486063,-0.137764,24,2
-10.5297,9.92613,1.26602,41,10
-9.13029,8.60696,-1.98734,46,3
-11.1061,10.4731,1.87435,45,11
-9.76421,9.21099,-1.64816,19,4
-9.63293,9.09032,2.09779,11,12
-9.5955,9.05816,-1.15446,23,5
-22.4494,21.1923,6.00094,24,13
-8.74028,8.25372,-0.63002,74,6
-11.1657,10.5478,3.54613,9,14
-9.66226,9.13075,-0.232047,27,7
-11.7682,11.1559,0.283043,17,8
-0.386031,0.366074,-0.122823,15,1
-9.94884,9.43779,0.718677,27,9
-0.525578,0.49858,-0.140817,11,2
-10.4851,9.95002,1.26463,52,10
-9.15464,8.69046,-1.99923,30,3
-11.0464,10.49,1.87045,45,11
-9.64277,9.16025,-1.63305,26,4
-11.2465,10.6875,-1.35736,28,5
-23.2789,22.1295,6.24327,10,13
-8.73458,8.3062,-0.631695,55,6
-10.2125,9.715,3.25414,56,14
-9.68537,9.21681,-0.233374,23,7
-10.9394,10.443,0.263985,43,8
-0.455219,0.434712,-0.145318,12,1
-9.87251,9.43108,0.715537,40,9
-0.506799,0.484139,-0.136238,25,2
-10.4417,9.9783,1.26358,44,10
-7.9191,7.5703,-1.73517,27,3
-19.8674,18.999,3.37529,41,11
-9.58348,9.16778,-1.62842,21,4
-9.32234,8.92108,2.04366,52,12
-11.1919,10.7102,-1.35527,28,5
-9.22628,8.83532,-0.669482,74,6
-10.1475,9.72093,3.24424,67,14
-9.69356,9.2893,-0.234351,21,7
-10.9418,10.5185,0.264928,48,8
-0.442461,0.425492,-0.141719,13,1
-9.81074,9.43779,0.713444,62,9
-0.502276,0.483182,-0.135474,25,2
-10.4283,10.0354,1.2662,52,10
-12.6515,12.1791,-2.78141,11,3
-20.0383,19.2968,3.41575,21,11
-9.46564,9.11854,-1.61379,11,4
-9.27549,8.93849,2.04022,65,12
-11.1444,10.7395,-1.35405,28,5
-9.23995,8.91045,-0.672726,74,6
-10.0743,9.71842,3.23165,29,14
-9.60065,9.26476,-0.232885,20,7
-11.0315,10.679,0.267999,48,8
-0.426974,0.413478,-0.13722,13,1
-9.86094,9.55258,0.719515,28,9
-0.517508,0.501325,-0.140054,23,2
-10.4219,10.0995,1.26968,55,10
-9.0844,8.80647,-2.00393,11,3
-19.6003,19.0073,3.35238,61,11
-9.38104,9.10039,-1.60478,29,4
-9.20454,8.93229,2.03146,50,12
-11.1054,10.7769,-1.35388,31,5
-9.19589,8.93013,-0.671784,71,6
-10.0529,9.76574,3.2357,58,14
-9.4822,9.2146,-0.230791,24,7
-11.0629,10.7845,0.269675,15,8
-0.417157,0.406802,-0.134521,14,1
-9.79632,9.55315,0.717107,17,9
-0.515755,0.503128,-0.140054,23,2
-13.4509,13.1262,1.64428,27,10
-13.7041,13.3779,-3.03326,4,3
-10.9173,10.6612,1.87362,41,11
-9.28958,9.07482,-1.59454,30,4
-9.15509,8.94344,2.02708,63,12
-11.2116,10.9563,-1.37148,21,5
-10.8591,10.6155,2.95182,9,13
-9.20036,8.99709,-0.674401,74,6
-10.0006,9.78306,3.22985,15,14
-9.23717,9.03624,-0.225555,100,7
-0.413652,0.405927,-0.155291,12,0
-9.53697,9.35887,0.233234,17,8
-0.42415,0.416374,-0.13722,13,1
-0.511194,0.502174,-0.139291,24,2
-9.28245,9.12184,1.1386,2,10
-7.60827,7.47662,-1.68949,21,3
-10.4048,10.2284,1.79148,16,11
-9.13063,8.97891,-1.57236,42,4
-9.16747,9.01829,2.03678,45,12
-11.1037,10.9269,-1.36294,26,5
-9.28577,9.14104,-0.68288,78,6
-13.5021,13.3009,-0.330828,88,7
-0.412303,0.407297,-0.155291,12,0
-9.49286,9.38086,0.232955,48,8
-0.414378,0.409632,-0.134521,14,1
-0.503942,0.498344,-0.137764,24,2
-9.29606,9.196,1.14401,54,10
-7.56949,7.49063,-1.68668,41,3
-11.2579,11.1445,1.94503,16,11
-10.0753,9.97731,-1.74103,11,4
-9.04768,8.95968,2.01675,45,12
-11.4171,11.31,-1.406,30,5
-10.5774,10.4818,2.89457,36,13
-9.35734,9.27604,-0.690521,65,6
-10.2375,10.1521,-0.251664,22,7
-9.31568,9.26702,0.22936,70,8
-0.432356,0.430249,-0.140819,13,1
-9.79793,9.75356,0.724539,38,9
-0.499418,0.49733,-0.137001,24,2
-9.2512,9.21574,1.14244,52,10
-10.3406,10.3046,1.79245,24,11
-9.32658,9.29732,-1.61696,29,4
-10.6347,10.6051,2.37874,60,12
-9.56496,9.54161,-1.18201,20,5
-9.93241,9.90817,2.72704,42,13
-9.23747,9.21814,-0.683926,74,6
-8.93714,8.95275,0.220808,60,8
-0.430852,0.431755,-0.140819,13,1
-9.68201,9.70569,0.718468,52,9
-0.508858,0.510103,-0.140054,23,2
-9.19245,9.21815,1.13895,61,10
-9.60047,9.63068,-2.15379,10,3
-10.3606,10.3968,1.8022,56,11
-9.29547,9.33123,-1.61721,14,4
-10.6032,10.6477,2.37999,38,12
-9.49671,9.53657,-1.17747,32,5
-9.86868,9.91356,2.71903,45,13
-8.95305,8.99691,-0.66519,26,6
-10.8368,10.8937,3.54748,2,14
-9.42756,9.48035,-0.233374,91,7
-10.7064,10.7701,4.06915,9,15
-0.408087,0.411521,-0.155291,12,0
-8.92273,9.00094,0.221227,66,8
-0.396421,0.400036,-0.130022,14,1
-9.6059,9.69686,0.715328,53,9
-0.507074,0.511876,-0.140054,23,2
-9.25555,9.34645,1.1508,70,10
-9.69187,9.79048,-2.18195,16,3
-10.3676,10.4767,1.80976,48,11
-9.26842,9.36926,-1.61818,40,4
-10.4674,10.5849,2.35778,63,12
-9.47037,9.57675,-1.17835,12,5
-9.79536,9.90885,2.70834,39,13
-10.6617,10.7928,3.50249,40,14
-9.48574,9.60569,-0.235642,72,7
-8.92914,9.07051,0.222169,63,8
-0.411425,0.418085,-0.135421,13,1
-9.59751,9.75286,0.717107,15,9
-0.508038,0.516442,-0.140817,23,2
-9.22286,9.3787,1.1508,62,10
-7.58874,7.71966,-1.71452,60,3
-10.317,10.4987,1.80732,60,11
-9.23591,9.39853,-1.61794,53,4
-10.3381,10.5238,2.33651,55,12
-9.51226,9.68651,-1.18776,12,5
-9.84186,10.0256,2.73086,32,13
-9.39643,9.57524,-0.703081,52,6
-10.6491,10.8517,3.51014,65,14
-9.45523,9.63852,-0.235677,27,7
-8.9074,9.10865,0.222379,63,8
-0.396414,0.405512,-0.130922,14,1
-9.7508,9.97459,0.731029,18,9
-0.500834,0.512507,-0.139291,24,2
-9.14577,9.3622,1.14505,65,10
-7.52721,7.70804,-1.70639,41,3
-10.3043,10.5555,1.81122,48,11
-9.20192,9.42627,-1.61745,53,4
-10.3541,10.6103,2.34808,54,12
-9.73608,9.98042,-1.21983,12,5
-9.81404,10.0638,2.73238,28,13
-9.31165,9.552,-0.699104,68,6
-10.6212,10.8954,3.51284,45,14
-9.44694,9.69417,-0.236271,21,7
-8.9496,9.21272,0.224194,57,8
-0.397782,0.40962,-0.131821,14,1
-10.4969,10.8093,0.789645,41,9
-0.501867,0.516982,-0.140054,23,2
-9.1008,9.37818,1.14331,61,10
-11.7242,12.0858,-2.66689,15,3
-10.4973,10.8248,1.85144,48,11
-9.17614,9.46243,-1.61843,47,4
-10.3203,10.646,2.34839,69,12
-9.68214,9.99119,-1.21722,25,5
-9.78882,10.1048,2.73467,11,13
-9.24102,9.54265,-0.696173,58,6
-10.2922,10.6282,3.41566,65,14
-9.44117,9.75274,-0.236934,26,7
-8.82735,9.14737,0.22189,63,8
-0.407245,0.422157,-0.135421,13,1
-9.61926,9.97148,0.726109,25,9
-0.497424,0.515817,-0.139291,24,2
-9.16921,9.51159,1.15586,72,10
-10.3229,10.7121,-2.35622,39,3
-10.3512,10.7452,1.83194,44,11
-9.14058,9.48852,-1.61769,48,4
-10.3247,10.7214,2.35747,51,12
-9.62822,10.0017,-1.2146,27,5
-9.10824,9.46817,-0.688532,52,6
-9.54045,9.92093,-0.24025,97,7
-8.84495,9.2331,0.223181,66,8
-0.394913,0.412387,-0.131821,14,1
-12.5816,13.1384,0.953352,7,9
-0.510464,0.533237,-0.143488,22,2
-9.19903,9.61279,1.16405,52,10
-10.2085,10.6714,-2.33901,48,3
-10.4187,10.8949,1.85095,48,11
-9.10682,9.52641,-1.61818,45,4
-9.97134,10.4308,2.28551,60,12
-9.6094,10.0557,-1.21687,30,5
-9.25279,9.68926,-0.702139,35,6
-16.7877,17.5858,-0.424373,78,7
-9.07482,9.53616,0.229778,36,8
-0.409661,0.430637,-0.13722,13,1
-9.50637,9.99664,0.722969,35,9
-0.496425,0.52221,-0.140054,23,2
-9.256,9.74016,1.17556,65,10
-9.82741,10.3415,-2.25954,26,3
-10.3894,10.9366,1.85217,84,11
-9.09295,9.57528,-1.62135,29,4
-10.041,10.5773,2.30991,52,12
-9.59892,10.1152,-1.22001,30,5
-8.99518,9.48226,-0.684973,58,6
-16.59,17.5006,-0.420917,70,7
-8.95907,9.48058,0.227684,65,8
-0.397449,0.420732,-0.133621,14,1
-0.491995,0.520998,-0.139291,24,2
-10.2385,10.8458,1.3049,63,10
-9.59467,10.1674,-2.21417,46,3
-10.313,10.9324,1.84535,44,11
-9.06628,9.61418,-1.62257,27,4
-10.2262,10.848,2.36122,60,12
-11.2122,11.8939,-1.43005,8,5
-10.136,10.756,2.87282,34,13
-9.13733,9.69968,-0.698371,55,6
-17.3478,18.4219,5.84198,29,14
-12.5594,13.3417,-0.319833,100,7
-17.2864,18.3695,6.7588,8,15
-9.07918,9.67511,0.231593,57,8
-0.406644,0.433487,-0.13722,13,1
-0.491516,0.524144,-0.139672,23,2
-10.236,10.9193,1.30943,92,10
-9.51049,10.1489,-2.20291,36,3
-10.3874,11.0886,1.86558,44,11
-10.9174,11.6584,-1.96112,29,4
-10.303,11.0062,2.38782,60,12
-9.67962,10.3403,-1.23918,17,5
-10.2821,10.9877,2.9251,39,13
-9.12797,9.75777,-0.700255,52,6
-17.105,18.2916,5.78169,77,14
-10.1531,10.8612,-0.259517,67,7
-17.1312,18.3324,6.72308,46,15
-9.14351,9.81207,0.234107,70,8
-0.397159,0.426348,-0.134521,14,1
-10.183,10.9314,0.782946,56,9
-0.499049,0.535914,-0.142344,22,2
-10.0702,10.8179,1.29304,77,10
-9.69166,10.4149,-2.25328,32,3
-10.1161,10.8748,1.82365,56,11
-12.3217,13.2504,-2.22168,9,4
-10.4023,11.1864,2.41942,54,12
-9.63805,10.3681,-1.23848,27,5
-10.1315,10.9028,2.89305,37,13
-17.0477,18.3583,5.78394,57,14
-10.117,10.8948,-0.259517,28,7
-17.1084,18.4302,6.7381,42,15
-0.3937,0.425306,-0.155291,12,0
-9.11364,9.84528,0.234176,53,8
-0.406332,0.439105,-0.13812,13,1
-10.1244,10.9449,0.781376,46,9
-0.499841,0.540536,-0.143107,22,2
-9.99044,10.8076,1.28764,85,10
-9.64098,10.4296,-2.24953,45,3
-10.0274,10.8514,1.81415,48,11
-9.86389,10.6782,-1.7849,41,4
-10.3444,11.2023,2.41504,55,12
-9.62747,10.4295,-1.2418,12,5
-10.1445,10.9897,2.90717,32,13
-9.11959,9.8828,-0.704756,42,6
-10.0938,10.9462,-0.259901,24,7
-17.0675,18.5153,6.74741,44,15
-0.392287,0.426609,-0.155291,12,0
-9.12252,9.92414,0.235293,53,8
-0.396885,0.431912,-0.135421,13,1
-9.98213,10.8669,0.773316,49,9
-0.499374,0.543636,-0.143488,44,2
-9.86695,10.7453,1.27631,63,10
-9.57112,10.4268,-2.24171,37,3
-10.0901,10.996,1.83243,40,11
-9.74604,10.6248,-1.77027,45,4
-10.2853,11.2165,2.41034,57,12
-9.54974,10.4144,-1.23622,27,5
-10.061,10.9758,2.89419,15,13
-9.11472,9.94697,-0.707059,32,6
-16.8855,18.4337,5.77134,56,14
-10.3918,11.3486,-0.268593,100,7
-17.0171,18.5905,6.75311,40,15
-0.390796,0.427976,-0.155291,12,0
-8.6362,9.46116,0.2236,32,8
-0.390121,0.427536,-0.133621,14,1
-10.0007,10.9636,0.777712,66,9
-0.496151,0.543926,-0.143107,45,2
-9.85489,10.8076,1.27962,82,10
-9.52535,10.4499,-2.23952,18,3
-9.81371,10.77,1.78904,28,11
-9.67815,10.625,-1.76467,37,4
-10.2966,11.3079,2.42223,65,12
-9.49321,10.4256,-1.2336,20,5
-16.5934,18.2295,4.7916,45,13
-9.07053,9.96838,-0.706326,32,6
-16.8709,18.5473,5.78844,71,14
-10.1288,11.1392,-0.262798,44,7
-9.00467,9.93425,0.234037,61,8
-0.422647,0.466442,-0.145318,12,1
-9.76711,10.7792,0.762326,60,9
-0.498203,0.55002,-0.144252,55,2
-9.93345,10.9705,1.29479,51,10
-9.61608,10.6237,-2.26955,48,3
-10.0784,11.1383,1.84437,20,11
-9.70891,10.7338,-1.7771,24,4
-9.91847,10.9654,2.34182,23,12
-9.30443,10.2902,-1.21373,27,5
-16.9035,18.7009,4.89998,28,13
-16.6532,18.4369,5.7358,75,14
-9.91219,10.9739,-0.258121,29,7
-8.99442,9.98932,0.23463,61,8
-0.379379,0.421491,-0.130922,14,1
-9.73477,10.8191,0.762744,46,9
-0.49628,0.551755,-0.144252,55,2
-9.84048,10.9443,1.28764,82,10
-9.71683,10.8068,-2.30178,45,3
-10.1462,11.2883,1.86363,48,11
-12.616,14.041,-2.31771,7,4
-9.87749,10.9971,2.3412,38,12
-9.32436,10.3849,-1.22105,42,5
-16.8361,18.751,4.89845,46,13
-9.5321,10.62,-0.747881,65,6
-16.8132,18.7386,5.81229,28,14
-9.78837,10.9131,-0.255887,33,7
-0.386368,0.431977,-0.155291,12,0
-8.88752,9.94015,0.232745,60,8
-0.370114,0.414095,-0.128222,14,1
-9.65303,10.8039,0.75929,66,9
-0.504912,0.56511,-0.147305,52,2
-9.89571,11.0794,1.29967,63,10
-9.54223,10.6874,-2.26924,43,3
-10.2152,11.4451,1.88361,45,11
-9.44136,10.5819,-1.74127,24,4
-9.82721,11.0182,2.33838,24,12
-9.25672,10.3786,-1.21669,32,5
-16.6282,18.65,4.85685,37,13
-9.5282,10.6905,-0.750498,71,6
-16.784,18.8379,5.82488,57,14
-9.52677,10.6964,-0.250023,39,7
-8.75718,9.86345,0.230232,41,8
-0.397125,0.447449,-0.13812,13,1
-9.66165,10.8898,0.762954,64,9
-0.506845,0.571275,-0.148449,41,2
-9.90721,11.1705,1.30629,77,10
-9.53369,10.7532,-2.27612,37,3
-9.82754,11.0885,1.81927,44,11
-9.38593,10.5939,-1.73786,39,4
-15.1257,17.0785,3.61332,12,12
-9.13192,10.3109,-1.20502,30,5
-16.6788,18.8387,4.89082,25,13
-9.53186,10.77,-0.753743,26,6
-9.3887,10.6157,-0.24737,40,7
-0.383343,0.434664,-0.155291,12,0
-8.76502,9.94196,0.231349,55,8
-0.39556,0.448833,-0.13812,13,1
-9.67243,10.9789,0.766827,56,9
-0.480189,0.545051,-0.141199,46,2
-9.9656,11.3157,1.31919,60,10
-9.8172,11.1511,-2.35309,13,3
-9.88583,11.233,1.8373,44,11
-9.1037,10.3479,-1.69228,59,4
-15.1156,17.1875,3.62521,2,12
-9.01298,10.2484,-1.19403,35,5
-10.2366,11.6439,3.01364,18,13
-9.46124,10.7657,-0.751126,42,6
-16.7755,19.0952,5.86807,36,14
-9.28165,10.5688,-0.24552,34,7
-8.93442,10.2057,0.236759,57,8
-0.386291,0.441412,-0.135421,13,1
-9.63142,11.0096,0.766617,54,9
-0.480869,0.54968,-0.141962,34,2
-10.1084,11.5589,1.34342,75,10
-9.6001,10.9816,-2.31022,42,3
-9.76165,11.1703,1.82146,44,11
-9.24514,10.583,-1.72543,43,4
-15.1192,17.3131,3.64054,4,12
-9.07545,10.3924,-1.20711,27,5
-16.5727,18.9843,4.89845,25,13
-9.43149,10.8077,-0.751754,32,6
-9.45104,10.8377,-0.251001,21,7
-8.65473,9.95612,0.230267,35,8
-0.384748,0.442758,-0.135421,13,1
-9.6787,11.138,0.773316,50,9
-0.47766,0.549872,-0.14158,23,2
-9.23058,10.6298,1.23168,44,10
-9.78055,11.2671,-2.3631,17,3
-9.65885,11.1308,1.80952,48,11
-9.14624,10.5401,-1.71348,11,4
-15.0888,17.3945,3.64711,36,12
-9.0848,10.4767,-1.21321,32,5
-9.37147,10.8149,-0.749974,52,6
-9.33518,10.7768,-0.248871,38,7
-0.378847,0.438588,-0.155291,12,0
-8.75889,10.1437,0.233932,44,8
-0.360357,0.417478,-0.127322,15,1
-9.41985,10.913,0.755522,59,9
-0.475834,0.551454,-0.14158,23,2
-9.27987,10.7584,1.24302,65,10
-7.00711,8.12641,-1.6995,16,3
-15.0484,17.4584,2.83005,14,11
-9.22659,10.7042,-1.73518,22,4
-15.2348,17.6809,3.69655,13,12
-9.0214,10.4735,-1.20937,37,5
-15.9525,18.5268,4.75229,12,13
-9.34858,10.8611,-0.751021,32,6
-9.28244,10.788,-0.248418,27,7
-0.37739,0.439842,-0.155291,12,0
-0.371655,0.433464,-0.131821,14,1
-9.01907,10.5227,0.726318,64,9
-0.471448,0.550047,-0.140817,23,2
-9.24933,10.7952,1.24371,63,10
-6.99298,8.16461,-1.70263,40,3
-14.8343,17.3258,2.80056,21,11
-9.15302,10.6941,-1.72835,52,4
-10.275,12.0092,2.50326,26,12
-8.91279,10.4171,-1.19944,27,5
-15.8986,18.5886,4.75458,12,13
-9.28915,10.8647,-0.749137,55,6
-9.25382,10.831,-0.248662,52,7
-8.87375,10.4193,0.238889,45,8
-0.37772,0.443662,-0.134521,14,1
-9.02889,10.6089,0.730087,42,9
-0.480977,0.565145,-0.144252,33,2
-9.17802,10.788,1.23918,31,10
-6.94523,8.1664,-1.69794,63,3
-9.47496,11.1449,1.79611,32,11
-9.11692,10.7275,-1.72859,58,4
-10.1128,11.9035,2.47386,32,12
-8.91378,10.4922,-1.20449,27,5
-15.8107,18.617,4.74771,42,13
-9.23178,10.8742,-0.747567,22,6
-9.18491,10.8266,-0.247824,33,7
-8.6643,10.2456,0.234211,15,8
-0.386233,0.456884,-0.13812,13,1
-9.15423,10.8326,0.743275,98,9
-0.473932,0.560823,-0.142725,45,2
-14.363,17.0023,1.94723,27,10
-6.84022,8.10004,-1.67917,40,3
-9.41679,11.1551,1.79245,44,11
-8.94372,10.5985,-1.70276,54,4
-14.8654,17.622,3.65149,17,12
-8.68697,10.2979,-1.17869,37,5
-15.8001,18.7366,4.76412,15,13
-10.0562,11.9295,-0.817697,29,6
-9.3635,11.1156,-0.253688,24,7
-8.62206,10.2681,0.234037,26,8
-0.392154,0.467185,-0.140819,13,1
-8.98413,10.7069,0.732494,49,9
-0.480805,0.573001,-0.145396,43,2
-9.20363,10.9724,1.25295,30,10
-6.97817,8.32215,-1.72015,11,3
-10.8481,12.942,2.07349,27,11
-8.7983,10.5003,-1.68204,45,4
-8.67784,10.3602,-1.18235,22,5
-9.82738,11.7409,-0.802415,35,6
-9.4106,11.251,-0.256027,26,7
-0.371212,0.445069,-0.155291,12,0
-0.360576,0.432624,-0.130022,14,1
-8.93263,10.7213,0.731343,29,9
-0.486342,0.583726,-0.147686,51,2
-9.90483,11.8924,1.35405,66,10
-6.9238,8.3161,-1.7139,32,3
-16.1262,19.3759,3.09524,17,11
-8.82253,10.6042,-1.69374,40,4
-8.62761,10.3736,-1.18044,35,5
-9.78506,11.7736,-0.80231,52,6
-9.27289,11.1653,-0.253339,35,7
-9.28085,11.2106,0.254037,44,8
-0.339185,0.409859,-0.122823,15,1
-9.78124,11.8235,0.804194,80,9
-0.476793,0.576344,-0.145396,54,2
-9.93182,12.0098,1.36346,60,10
-6.8255,8.25648,-1.69669,62,3
-10.3022,12.4666,1.98574,46,11
-8.77155,10.6181,-1.69106,19,4
-14.5681,17.6412,3.62365,23,12
-8.55709,10.3621,-1.17573,40,5
-9.82653,11.9078,-0.809114,16,6
-9.17025,11.1204,-0.251594,35,7
-0.368096,0.447649,-0.155291,12,0
-9.23658,11.2368,0.253898,34,8
-0.369919,0.450187,-0.134521,14,1
-9.7792,11.9054,0.807439,39,9
-0.47104,0.573453,-0.144252,55,2
-9.83547,11.9782,1.35597,69,10
-6.87059,8.37034,-1.71515,32,3
-10.1844,12.4119,1.97136,46,11
-8.9258,10.8819,-1.72811,45,4
-10.3732,12.651,2.59118,28,12
-8.51708,10.3873,-1.17521,50,5
-9.13518,11.157,-0.251699,39,7
-14.195,17.3428,6.00512,23,15
-9.20109,11.2736,0.254002,66,8
-0.385592,0.472614,-0.140819,13,1
-9.85498,12.0834,0.817174,120,9
-0.470276,0.576615,-0.144633,55,2
-9.849,12.0804,1.36364,84,10
-11.2803,13.8409,-2.82802,44,3
-10.0883,12.3827,1.96112,59,11
-14.5045,17.8159,3.63867,23,12
-8.48706,10.4247,-1.17608,35,5
-8.57348,10.5384,-0.711978,87,6
-9.47586,11.6559,-0.262205,26,7
-14.1417,17.4013,6.00823,34,15
-9.13918,11.2698,0.253269,63,8
-0.374288,0.461713,-0.13722,13,1
-9.86978,12.1795,0.82157,45,9
-0.470934,0.581141,-0.145396,43,2
-7.03993,8.69359,-1.77178,8,3
-10.0269,12.3866,1.95673,63,11
-6.82925,8.43945,-1.33301,22,4
-13.8459,17.1166,3.48692,52,12
-8.6144,10.6569,-0.718154,87,6
-9.42161,11.6638,-0.261716,23,7
-14.252,17.65,6.07862,12,15
-9.15371,11.3687,0.25477,11,8
-0.358012,0.4448,-0.131821,14,1
-9.86227,12.2574,0.824501,45,9
-0.467672,0.581252,-0.145015,43,2
-9.79613,12.1796,1.36747,33,10
-6.73723,8.37942,-1.70295,15,3
-10.0495,12.5035,1.96965,12,11
-6.78981,8.45085,-1.33106,19,4
-13.7972,17.1787,3.48974,20,12
-8.59988,10.7076,-1.20153,27,5
-14.6486,18.2452,4.54812,5,13
-8.53465,10.6339,-0.714595,74,6
-14.2742,17.7917,5.2661,44,14
-9.94884,12.4049,-0.277563,24,7
-13.9679,17.4223,5.98338,34,15
-0.361968,0.452619,-0.155291,12,0
-0.356457,0.446047,-0.131821,14,1
-9.74426,12.1933,0.818011,51,9
-0.46319,0.579813,-0.144252,33,2
-9.7635,12.2261,1.36887,57,10
-6.74614,8.45075,-1.71264,25,3
-9.93027,12.4439,1.95478,63,11
-9.26952,11.62,-1.82512,54,4
-10.0692,12.6225,2.55739,50,12
-8.75375,10.9774,-1.22837,47,5
-13.9864,17.5456,4.36151,23,13
-8.51615,10.6871,-0.716165,100,6
-13.8381,17.3719,5.12753,71,14
-14.0364,17.6273,6.03773,31,15
-9.33103,11.7517,0.261926,54,8
-0.369514,0.465543,-0.13722,13,1
-9.61102,12.113,0.81037,56,9
-0.462383,0.582964,-0.144633,22,2
-9.78885,12.346,1.37846,81,10
-6.65917,8.39877,-1.69763,38,3
-9.71632,12.2589,1.92066,45,11
-9.99933,12.6251,2.55082,30,12
-8.89966,11.2407,-1.25435,45,5
-13.8063,17.4379,4.32335,47,13
-8.47694,10.7106,-0.715851,71,6
-13.7042,17.3214,5.09919,56,14
-9.89519,12.5115,-0.278436,100,7
-14.0311,17.7474,6.06206,30,15
-9.34194,11.8502,0.263392,49,8
-0.406485,0.515808,-0.151617,11,1
-9.03475,11.4688,0.765152,35,9
-0.445869,0.565988,-0.140054,23,2
-9.69608,12.3127,1.37113,75,10
-6.6286,8.42041,-1.69731,60,3
-9.74467,12.3833,1.9348,45,11
-9.08834,11.5534,-1.80489,50,4
-13.8381,17.5978,3.54574,38,12
-8.95347,11.386,-1.26724,47,5
-13.7271,17.4628,4.31763,42,13
-8.72703,11.106,-0.74024,71,6
-13.6099,17.3262,5.08659,55,14
-9.29447,11.8367,-0.262694,58,7
-13.7484,17.5151,5.9663,31,15
-9.3794,11.9835,0.265626,70,8
-0.38787,0.495737,-0.145318,12,1
-8.97374,11.4735,0.763372,67,9
-0.460823,0.589191,-0.145396,21,2
-9.69477,12.3998,1.37706,51,10
-9.72216,12.4438,1.93894,45,11
-9.9304,12.7195,2.55583,36,12
-8.8303,11.3104,-1.25539,30,5
-13.6552,17.4967,4.31419,28,13
-8.70418,11.1569,-0.741601,61,6
-13.5374,17.3583,5.08209,55,14
-10.1998,13.0834,-0.28957,30,7
-13.5411,17.3756,5.90263,22,15
-9.17187,11.803,0.260913,73,8
-0.364619,0.469387,-0.13722,13,1
-8.95525,11.5284,0.765047,11,9
-0.470805,0.606302,-0.149213,20,2
-9.69296,12.4871,1.38299,84,10
-9.63852,12.4259,1.9309,45,11
-8.72966,11.2542,-1.74883,15,4
-9.83854,12.6883,2.543,63,12
-8.89329,11.4734,-1.27003,37,5
-13.9295,17.9773,4.42066,30,13
-8.72267,11.2614,-0.74652,78,6
-13.4583,17.3753,5.074,55,14
-13.5165,17.4632,5.91712,30,15
-0.354174,0.458743,-0.155291,12,0
-9.13756,11.8397,0.261053,73,8
-0.344014,0.445906,-0.130022,14,1
-0.463996,0.601642,-0.147686,20,2
-9.68799,12.5665,1.38822,66,10
-6.44989,8.36931,-1.67354,50,3
-9.55364,12.4012,1.92212,45,11
-8.86432,11.5064,-1.78344,48,4
-9.841,12.7788,2.55457,37,12
-8.8394,11.4823,-1.26777,35,5
-14.344,18.6395,4.57178,27,13
-8.73155,11.3504,-0.750498,87,6
-13.3103,17.3025,5.0398,53,14
-9.51916,12.3787,-0.272572,48,7
-13.4715,17.5247,5.92282,27,15
-0.352651,0.459915,-0.155291,12,0
-9.17854,11.9747,0.263357,67,8
-0.354386,0.462513,-0.134521,14,1
-9.57732,12.504,0.825443,49,9
-0.448764,0.586111,-0.143488,33,2
-9.75407,12.7393,1.40373,75,10
-8.83895,11.5483,-2.30334,45,3
-9.32792,12.1916,1.88483,74,11
-8.69265,11.3654,-1.75687,50,4
-9.72915,12.7252,2.53705,56,12
-8.81015,11.5274,-1.26934,57,5
-14.0345,18.3696,4.49355,28,13
-13.4769,17.6462,5.12618,56,14
-9.15554,11.9923,-0.263357,33,7
-13.5966,17.8158,6.00512,28,15
-0.292469,0.384337,-0.12941,15,0
-9.07406,11.9287,0.261612,72,8
-0.380998,0.501038,-0.145318,12,1
-9.23893,12.1542,0.800112,56,9
-0.444238,0.584625,-0.142725,45,2
-9.63981,12.6862,1.39397,78,10
-8.35088,10.9939,-2.18664,25,3
-9.31798,12.2715,1.8919,49,11
-8.78656,11.5759,-1.78441,56,4
-9.74931,12.8489,2.55457,48,12
-8.88222,11.7104,-1.2859,42,5
-13.4131,17.6904,4.31534,40,13
-13.438,17.7296,5.13608,41,14
-9.13084,12.0513,-0.263915,74,7
-13.4146,17.7115,5.95336,30,15
-0.348639,0.461988,-0.133621,14,1
-9.17119,12.1529,0.797914,60,9
-0.442194,0.586172,-0.142725,45,2
-9.50088,12.5989,1.38055,69,10
-8.31172,11.026,-2.18695,52,3
-9.40435,12.48,1.91871,37,11
-8.69032,11.5366,-1.77344,33,4
-13.0763,17.3591,3.44218,33,12
-8.90242,11.8225,-1.29479,31,5
-13.3135,17.6869,4.30312,40,13
-9.09176,12.0827,-0.792471,65,6
-13.3765,17.7834,5.13743,51,14
-9.08872,12.0831,-0.263915,100,7
-13.4293,17.8602,5.98752,20,15
-0.347653,0.463705,-0.155291,12,0
-8.89819,11.8685,0.258924,66,8
-0.34243,0.456904,-0.131821,14,1
-9.14428,12.2056,0.799275,52,9
-0.437791,0.58457,-0.141962,46,2
-9.34341,12.4805,1.36399,93,10
-6.50289,8.68626,-1.71859,10,3
-9.3534,12.4984,1.91676,61,11
-8.59375,11.4875,-1.7615,56,4
-13.0475,17.4474,3.45063,46,12
-8.85036,11.8391,-1.29322,52,5
-13.3382,17.8426,4.33022,26,13
-9.01458,12.0632,-0.789226,94,6
-13.2311,17.7122,5.10414,56,14
-9.0082,12.0634,-0.262798,24,7
-13.323,17.8481,5.96785,31,15
-8.84,11.8771,0.258435,78,8
-0.354792,0.476858,-0.13722,13,1
-9.14428,12.2904,0.802834,54,9
-0.441709,0.593895,-0.14387,44,2
-9.36972,12.6026,1.37392,66,10
-7.81463,10.5147,-2.07495,15,3
-9.37127,12.6138,1.92944,41,11
-8.61835,11.6004,-1.77442,46,4
-13.0355,17.5524,3.46283,48,12
-9.01889,12.1484,-1.32372,21,5
-13.1554,17.7267,4.29091,40,13
-8.96409,12.0834,-0.788494,74,6
-13.1665,17.7481,5.10189,56,14
-8.95266,12.0724,-0.262345,28,7
-13.2729,17.9046,5.97199,34,15
-9.48402,12.831,0.278506,45,8
-0.357841,0.484301,-0.13902,13,1
-9.10348,12.3206,0.802834,56,9
-0.445569,0.603252,-0.145778,43,2
-9.29475,12.5887,1.36904,60,10
-9.49085,12.8637,1.96283,51,11
-8.65644,11.7327,-1.79026,56,4
-13.0148,17.6464,3.47285,36,12
-8.9088,12.0836,-1.31344,42,5
-13.0499,17.707,4.27565,42,13
-8.9678,12.1725,-0.792366,48,6
-13.2024,17.9203,5.13878,56,14
-8.91021,12.0988,-0.262275,26,7
-13.2753,18.0325,5.99994,23,15
-0.343023,0.46714,-0.155291,12,0
-9.34439,12.7302,0.275643,54,8
-0.34701,0.472916,-0.135421,13,1
-9.06987,12.3652,0.803671,57,9
-0.434277,0.592062,-0.142725,45,2
-9.28947,12.6692,1.37445,84,10
-9.25456,12.6309,1.92261,57,11
-8.71631,11.9006,-1.81122,56,4
-9.35191,12.7731,2.50733,32,12
-12.8995,17.625,4.2455,51,13
-8.91441,12.1845,-0.791215,29,6
-13.2088,18.0607,5.16578,42,14
-8.98476,12.2896,-0.26573,22,7
-13.2009,18.0632,5.99477,28,15
-0.34139,0.468335,-0.155291,12,0
-9.3364,12.8128,0.276725,37,8
-0.345357,0.474124,-0.135421,13,1
-9.03135,12.4033,0.80409,53,9
-0.439141,0.603097,-0.145015,43,2
-9.18422,12.6178,1.36538,87,10
-7.66479,10.5342,-2.06337,5,3
-9.41709,12.9472,1.96575,51,11
-8.71441,11.9855,-1.81951,56,4
-9.38857,12.9175,2.52923,65,12
-8.37184,11.5186,-1.2458,45,5
-12.8726,17.7176,4.25695,42,13
-8.90704,12.264,-0.794355,6,6
-13.0827,18.02,5.14103,57,14
-9.16614,12.63,-0.272397,34,7
-12.9767,17.8871,5.92126,30,15
-0.339753,0.469523,-0.155291,12,0
-9.84363,13.6084,0.293166,77,8
-0.3437,0.475327,-0.135421,13,1
-9.24296,12.7827,0.826699,30,9
-0.443934,0.614173,-0.147305,31,2
-9.16462,12.6837,1.36904,33,10
-7.48224,10.3591,-2.02395,30,3
-9.38462,12.9977,1.96843,46,11
-8.73757,12.106,-1.83316,60,4
-9.16649,12.7003,2.48074,58,12
-8.3141,11.5235,-1.24319,30,5
-12.8658,17.8388,4.27527,26,13
-8.8887,12.329,-0.796553,6,6
-13.1165,18.1999,5.17927,36,14
-9.18618,12.7463,-0.274247,30,7
-12.9195,17.9332,5.9223,33,15
-0.338112,0.470706,-0.155291,12,0
-9.66546,13.4559,0.289186,34,8
-0.342122,0.476464,-0.135421,13,1
-9.23671,12.8685,0.830153,67,9
-0.440643,0.614123,-0.146923,21,2
-9.26545,12.918,1.39083,75,10
-7.44439,10.3791,-2.02301,24,3
-9.39583,13.1046,1.97989,59,11
-8.68466,12.1172,-1.83048,40,4
-9.2452,12.904,2.51421,60,12
-8.34343,11.6497,-1.25365,27,5
-13.2032,18.4352,4.40769,30,13
-9.15239,12.7839,-0.823977,81,6
-13.072,18.2655,5.18557,48,14
-9.00085,12.5815,-0.270024,37,7
-12.9153,18.0599,5.94921,24,15
-0.336549,0.471825,-0.155291,12,0
-9.20746,12.9131,0.27683,13,8
-0.340457,0.477655,-0.135421,13,1
-9.14762,12.834,0.825966,47,9
-0.443161,0.621977,-0.148449,20,2
-9.32775,13.0963,1.40669,100,10
-8.27427,11.6215,-2.25954,43,3
-9.30514,13.0743,1.97038,46,11
-8.71234,12.2414,-1.84486,10,4
-9.24702,12.9974,2.52642,36,12
-8.82668,12.4112,-1.33244,28,5
-12.9829,18.262,4.35541,30,13
-9.06605,12.7572,-0.820209,61,6
-13.1513,18.5057,5.24136,60,14
-8.90232,12.5314,-0.268313,26,7
-12.9649,18.2569,5.99994,23,15
-0.334983,0.472939,-0.155291,12,0
-0.356884,0.504232,-0.142619,13,1
-9.11655,12.8805,0.827013,54,9
-0.445631,0.629854,-0.149976,20,2
-9.137,12.919,1.38438,57,10
-8.39762,11.878,-2.30397,48,3
-9.27548,13.1245,1.97331,55,11
-8.65681,12.2491,-1.84169,22,4
-12.6084,17.8471,3.46096,22,12
-8.47746,12.0042,-1.28572,36,5
-12.9778,18.3835,4.37411,30,13
-9.0571,12.8345,-0.823245,45,6
-12.8742,18.2435,5.15498,57,14
-8.84228,12.5347,-0.267755,31,7
-12.911,18.3093,6.00305,28,15
-0.293403,0.417161,-0.136656,14,0
-9.11701,12.9674,0.27669,60,8
-0.332799,0.473525,-0.133621,14,1
-9.12894,12.994,0.832246,28,9
-0.450312,0.640967,-0.152266,19,2
-9.10442,12.9639,1.38595,69,10
-8.38315,11.9413,-2.31085,40,3
-9.18858,13.0934,1.96405,34,11
-8.6026,12.263,-1.83925,34,4
-12.5597,17.9104,3.46471,40,12
-8.42388,12.0127,-1.28363,31,5
-12.857,18.3413,4.35388,40,13
-8.92967,12.7434,-0.815499,32,6
-12.655,18.0665,5.09244,45,14
-8.29494,11.8464,-0.252432,69,7
-12.8503,18.359,6.0046,25,15
-0.331756,0.475208,-0.155291,12,0
-8.96869,12.8515,0.273549,72,8
-0.335604,0.481077,-0.135421,13,1
-9.05153,12.9799,0.829316,67,9
-0.444703,0.637704,-0.151121,19,2
-9.02265,12.9433,1.38037,42,10
-8.21719,11.7922,-2.27643,87,3
-9.02708,12.9593,1.93919,45,11
-8.58696,12.332,-1.8451,46,4
-12.5061,17.9672,3.46721,16,12
-8.40466,12.0747,-1.28712,28,5
-12.7705,18.3538,4.34625,26,13
-9.02769,12.9795,-0.828583,71,6
-12.7376,18.3201,5.15138,47,14
-8.32659,11.9804,-0.254666,30,7
-12.7917,18.4117,6.00719,5,15
-0.301487,0.435078,-0.141833,14,0
-8.86912,12.8039,0.271874,72,8
-0.329485,0.475837,-0.133621,14,1
-9.0812,13.1198,0.836224,47,9
-0.448061,0.647323,-0.153029,18,2
-8.96154,12.9518,1.37793,99,10
-8.31981,12.0288,-2.31648,17,3
-8.97276,12.9777,1.93724,70,11
-8.56418,12.3913,-1.84949,26,4
-12.395,17.9408,3.45376,22,12
-8.6671,12.5449,-1.33401,31,5
-12.7008,18.3902,4.34434,21,13
-8.98914,13.0208,-0.829211,39,6
-12.6315,18.3035,5.13428,46,14
-8.33809,12.0867,-0.256306,93,7
-0.273692,0.397927,-0.12941,15,0
-8.85497,12.8792,0.272816,66,8
-0.343275,0.499469,-0.13992,13,1
-8.94147,13.0148,0.827536,56,9
-0.439128,0.639175,-0.150739,19,2
-8.84861,12.8844,1.36747,78,10
-8.35268,12.1669,-2.33744,82,3
-9.00827,13.1267,1.95478,55,11
-8.50403,12.3966,-1.84583,8,4
-12.3022,17.94,3.44531,32,12
-8.61537,12.5636,-1.33279,39,5
-15.4038,22.4714,5.29571,18,13
-8.49317,12.3947,-0.787447,81,6
-9.15898,13.3764,-0.282973,50,7
-0.326762,0.478656,-0.155291,12,0
-8.78628,12.8754,0.272083,40,8
-0.339333,0.497444,-0.13902,13,1
-8.82398,12.9355,0.820628,59,9
-7.12857,10.454,-2.45953,5,2
-8.83836,12.9663,1.37288,54,10
-8.28569,12.16,-2.33056,43,3
-9.0328,13.2615,1.97014,51,11
-8.2462,12.1112,-1.79904,88,4
-12.2993,18.064,3.46127,52,12
-8.55129,12.564,-1.32965,39,5
-15.1397,22.2523,5.2316,39,13
-8.47344,12.4589,-0.789645,39,6
-8.82451,12.98,-0.273968,30,7
-8.73681,12.8945,0.271874,58,8
-0.346424,0.511474,-0.142619,13,1
-8.76982,12.953,0.81979,52,9
-7.04802,10.4138,-2.44426,5,2
-8.81202,13.0251,1.37584,93,10
-8.42574,12.4541,-2.38156,14,3
-8.98766,13.2897,1.9699,51,11
-8.1871,12.1105,-1.79489,42,4
-12.328,18.2426,3.48724,20,12
-8.57876,12.6994,-1.3408,21,5
-8.92147,13.2067,3.09797,11,13
-8.34937,12.3645,-0.781899,35,6
-8.82277,13.0754,-0.275329,37,7
-0.323496,0.480869,-0.155291,12,0
-8.70067,12.9382,0.272153,39,8
-0.322893,0.480335,-0.133621,14,1
-8.75128,13.0233,0.822303,35,9
-6.8919,10.2562,-2.4019,5,2
-8.76101,13.0427,1.37462,63,10
-8.22365,12.2473,-2.33651,61,3
-8.91024,13.2748,1.96307,63,11
-8.12154,12.1044,-1.78977,52,4
-12.4117,18.5054,3.52916,40,12
-8.55879,12.7609,-1.34429,13,5
-15.0918,22.5098,5.26786,18,13
-8.37287,12.4931,-0.78818,100,6
-8.75482,13.0729,-0.274631,100,7
-0.321816,0.481995,-0.155291,12,0
-8.6821,13.0084,0.272991,46,8
-0.323378,0.484701,-0.134521,14,1
-8.62931,12.9391,0.81508,33,9
-6.9748,10.4583,-2.4435,5,2
-8.732,13.098,1.37724,57,10
-8.17975,12.2743,-2.33619,35,3
-8.90237,13.3637,1.9716,55,11
-8.09574,12.1574,-1.79343,34,4
-8.71843,13.0975,2.492,12,12
-8.43029,12.6646,-1.33104,28,5
-8.38231,12.6021,-0.793204,100,6
-8.68367,13.065,-0.273828,23,7
-0.320131,0.483116,-0.155291,12,0
-8.63774,13.0403,0.273025,78,8
-0.328139,0.495576,-0.13722,13,1
-8.54665,12.9077,0.811312,60,9
-6.70961,10.1371,-2.36298,7,2
-8.69392,13.1401,1.37846,18,10
-8.15647,12.3324,-2.34182,26,3
-8.87647,13.4261,1.97623,38,11
-8.07077,12.2121,-1.79733,22,4
-8.69237,13.1527,2.49701,34,12
-8.36297,12.6591,-1.32738,47,5
-8.4604,12.8163,-0.804822,65,6
-8.59294,13.022,-0.272327,38,7
-0.318443,0.48423,-0.155291,12,0
-8.71641,13.2543,0.2769,39,8
-0.337199,0.512945,-0.141719,13,1
-8.51471,12.9575,0.812568,47,9
-6.68065,10.1703,-2.36527,5,2
-9.07341,13.8182,1.44626,62,10
-7.02912,10.7049,-2.02833,94,3
-8.80248,13.4107,1.96965,46,11
-8.00845,12.2056,-1.79245,62,4
-12.2551,18.6851,3.53917,22,12
-7.95714,12.1367,-1.26968,50,5
-15.2058,23.1927,5.39074,3,13
-8.68171,13.2468,-0.830048,55,6
-8.52333,13.0151,-0.271559,40,7
-8.68758,13.3115,0.277458,49,8
-0.324758,0.497798,-0.13722,13,1
-8.46397,12.9788,0.812045,49,9
-6.72088,10.3059,-2.3916,5,2
-9.06997,13.9133,1.45306,56,10
-6.72749,10.3239,-1.95168,58,3
-8.30597,12.7511,1.8685,53,11
-8.06111,12.3799,-1.8139,38,4
-12.4862,19.183,3.62521,38,12
-7.84403,12.0511,-1.25801,60,5
-8.51018,13.0845,-0.818011,71,6
-8.45278,13.0062,-0.270757,40,7
-11.387,17.5814,0.365628,30,8
-0.31031,0.479299,-0.131821,14,1
-8.36653,12.9277,0.807021,59,9
-6.61873,10.2271,-2.36794,5,2
-12.1067,18.7142,1.95002,36,10
-8.25711,12.7733,1.86753,16,11
-7.98122,12.3513,-1.80562,72,4
-12.4631,19.2945,3.63804,23,12
-7.68625,11.8993,-1.23935,32,5
-8.40922,13.0286,-0.812673,84,6
-8.38241,12.997,-0.269954,42,7
-0.31344,0.487484,-0.155291,12,0
-11.705,18.2115,0.37788,30,8
-0.354982,0.552518,-0.151617,11,1
-8.35708,13.0075,0.810265,21,9
-6.64877,10.3525,-2.3916,5,2
-12.0995,18.8468,1.95944,69,10
-7.39887,11.5293,-2.16975,16,3
-11.9361,18.6066,2.71427,33,11
-7.90484,12.3272,-1.79806,56,4
-12.286,19.1595,3.60488,27,12
-7.63068,11.9043,-1.23709,47,5
-8.23765,12.8611,-0.800426,94,6
-8.26055,12.9018,-0.267406,43,7
-11.6994,18.3362,0.37966,45,8
-0.323807,0.507688,-0.13902,13,1
-11.3706,17.8346,1.10848,17,9
-6.53768,10.2581,-2.36451,10,2
-12.2242,19.1881,1.99046,52,10
-9.26575,14.5443,-2.73135,37,3
-14.3545,22.5407,3.28121,49,11
-7.88098,12.3802,-1.80196,76,4
-12.2689,19.2806,3.61958,14,12
-7.6757,12.067,-1.25121,37,5
-8.1971,12.8917,-0.800636,74,6
-8.21117,12.9238,-0.267266,43,7
-0.310114,0.489606,-0.155291,12,0
-11.4792,18.1302,0.374564,33,8
-0.305358,0.482469,-0.131821,14,1
-11.3585,17.9535,1.1134,35,9
-6.51727,10.3013,-2.36947,5,2
-12.1104,19.1494,1.98227,32,10
-9.1062,14.4046,-2.69912,52,3
-12.4496,19.701,2.86149,37,11
-7.95009,12.5855,-1.8278,50,4
-7.67181,12.1497,-1.25713,42,5
-8.12975,12.8948,-0.266079,43,7
-11.6286,18.5088,0.381545,30,8
-0.334764,0.53304,-0.145318,12,1
-11.6908,18.6223,1.15233,16,9
-6.86123,10.9293,-2.50838,5,2
-8.13243,12.9592,1.33854,37,10
-14.2643,22.748,3.29681,19,11
-7.89978,12.6031,-1.82633,46,4
-7.80707,12.46,-1.28642,39,5
-7.53669,12.0378,-0.744322,45,6
-0.306689,0.491759,-0.155291,12,0
-11.8062,18.9379,0.389538,27,8
-0.301982,0.484589,-0.131821,14,1
-11.6384,18.6833,1.15359,33,9
-6.67979,10.7232,-2.45571,5,2
-8.11453,13.0315,1.34307,78,10
-8.63903,13.8792,-2.5893,16,3
-11.908,19.1385,2.76765,70,11
-7.85679,12.6323,-1.82658,62,4
-7.65729,12.3163,-1.26881,35,5
-7.47987,12.0403,-0.742857,81,6
-7.69466,12.3957,-0.254666,23,7
-8.23903,13.3193,0.273374,13,8
-0.314637,0.508844,-0.13812,13,1
-11.5259,18.6474,1.14888,30,9
-6.73315,10.8934,-2.48929,13,2
-12.4192,20.1006,2.06716,41,10
-7.12071,11.5294,-2.14628,7,3
-11.8547,19.2019,2.77082,42,11
-7.82203,12.6748,-1.82877,76,4
-48.7065,78.9549,14.6933,53,12
-7.60692,12.3311,-1.26759,57,5
-7.49125,12.1531,-0.748195,100,6
-7.69854,12.4991,-0.256236,30,7
-0.303248,0.493888,-0.155291,12,0
-8.15902,13.2935,0.272258,19,8
-0.314897,0.513262,-0.13902,13,1
-11.6499,18.9885,1.16751,17,9
-7.0728,11.5327,-2.62973,14,2
-12.1261,19.7803,2.02986,43,10
-7.89787,12.8882,-2.39407,35,3
-11.5211,18.8081,2.70818,66,11
-7.93031,12.9462,-1.86411,16,4
-7.6044,12.4238,-1.27439,32,5
-7.45295,12.186,-0.748614,100,6
-7.6414,12.499,-0.255713,36,7
-0.301609,0.494891,-0.155291,12,0
-8.10241,13.3,0.271839,45,8
-0.327383,0.537605,-0.145318,12,1
-11.5204,18.9179,1.16081,26,9
-6.75583,11.0983,-2.52555,11,2
-13.8273,22.7241,2.32723,56,10
-7.86023,12.9227,-2.39564,57,3
-14.4443,23.7567,3.4138,21,11
-7.71109,12.6925,-1.29932,15,5
-7.4042,12.1969,-0.747776,81,6
-7.60821,12.5379,-0.255992,42,7
-0.299966,0.495888,-0.155291,12,0
-8.0862,13.373,0.272781,10,8
-0.325599,0.538687,-0.145318,12,1
-11.5906,19.1836,1.17463,14,9
-6.94945,11.5021,-2.61218,17,2
-11.8783,19.6676,2.01016,39,10
-7.9235,13.1246,-2.42818,29,3
-7.97838,13.2259,-1.89653,72,4
-7.66176,12.706,-1.2981,47,5
-47.3426,78.5427,17.8261,55,13
-7.42556,12.3241,-0.754057,94,6
-7.54377,12.5302,-0.255294,26,7
-8.0621,13.4388,0.273549,6,8
-0.299663,0.49971,-0.134521,14,1
-11.466,19.128,1.16877,40,9
-6.59938,11.0093,-2.49502,5,2
-13.6683,22.8109,2.32654,12,10
-7.85835,13.12,-2.42223,28,3
-8.02085,13.4019,-1.91774,95,4
-7.2706,12.1531,-1.23901,17,5
