x, y, z, intensity, ring
5.571,-3.20476,-0.112184,11,7
18.0615,-10.3942,5.58376,9,15
5.44765,-3.14647,0.109811,16,8
0.460638,-0.266164,-0.122823,15,1
12.7197,-7.35258,0.769967,12,9
0.562605,-0.325213,-0.126316,28,2
9.94844,-5.753,1.00543,23,10
4.37896,-2.53329,-0.801257,41,3
11.7948,-6.82618,1.67327,18,11
5.15722,-2.98593,-0.731704,31,4
7.25104,-4.1999,1.32719,41,12
18.9064,-10.9552,4.24741,24,13
5.13196,-2.97489,-0.310876,34,6
7.25393,-4.20665,1.93593,57,14
5.55576,-3.22315,-0.112114,5,7
17.7927,-10.3265,5.51233,4,15
0.459706,-0.26777,-0.122823,15,1
12.6836,-7.3909,0.769339,21,9
0.56141,-0.327273,-0.126316,28,2
9.88082,-5.76232,1.00072,46,10
4.34405,-2.53439,-0.796564,36,3
11.7743,-6.86932,1.67375,45,11
5.40393,-3.15401,-0.768264,31,4
7.23975,-4.22718,1.32782,39,12
5.4571,-3.18759,-0.552916,18,5
18.9237,-11.0581,4.26038,18,13
5.12447,-2.9957,-0.311085,15,6
7.20987,-4.21648,1.92828,38,14
5.52722,-3.23243,-0.111765,28,7
17.6182,-10.3076,5.46936,8,15
5.55088,-3.25929,0.112359,24,8
0.458721,-0.269453,-0.122823,15,1
6.18011,-3.63165,0.375668,15,9
0.565342,-0.332215,-0.12746,14,2
5.32622,-3.13113,0.54054,18,10
4.32667,-2.54453,-0.795,32,3
16.1154,-9.48131,2.29577,4,11
5.18191,-3.04994,-0.738285,40,4
7.23953,-4.26271,1.33063,40,12
4.91027,-2.89122,-0.498531,21,5
18.885,-11.1241,4.26038,9,13
5.10021,-3.00545,-0.310248,31,6
7.16489,-4.22381,1.92018,47,14
5.54117,-3.26791,-0.112289,61,7
17.5603,-10.3603,5.46315,8,15
5.59626,-3.31225,0.11351,52,8
0.457778,-0.271053,-0.122823,15,1
12.3004,-7.28604,0.749242,10,9
0.5608,-0.332185,-0.126697,28,2
5.30669,-3.14462,0.539668,43,10
4.30416,-2.55156,-0.792497,20,3
18.4623,-10.949,2.63555,12,11
5.07733,-3.0123,-0.724879,13,4
7.17704,-4.25972,1.32187,40,12
4.83675,-2.87071,-0.492081,32,5
7.6944,-4.5686,1.73941,9,13
5.0605,-3.0059,-0.308468,34,6
7.1233,-4.23287,1.91298,50,14
5.42831,-3.22694,-0.110229,55,7
17.3597,-10.3238,5.41191,8,15
5.40435,-3.22419,0.109845,63,8
0.450136,-0.268654,-0.121024,15,1
5.89223,-3.51805,0.359653,9,9
0.552895,-0.330115,-0.125171,29,2
5.32647,-3.18152,0.542806,15,10
4.33423,-2.58988,-0.799693,38,3
16.5293,-9.88081,2.36451,25,11
4.99864,-2.98925,-0.715129,31,4
6.66375,-3.98659,1.22989,40,12
5.47813,-3.27729,-0.558494,16,5
7.61608,-4.55813,1.7253,15,13
5.08767,-3.04612,-0.310771,34,6
7.09009,-4.24669,1.90803,19,14
5.45304,-3.26745,-0.110962,61,7
17.2639,-10.3486,5.39327,14,15
5.51645,-3.31724,0.112359,75,8
0.455875,-0.274242,-0.122823,15,1
0.565196,-0.340141,-0.128224,28,2
5.35459,-3.22373,0.546815,15,10
4.62129,-2.78334,-0.854445,26,3
16.5134,-9.94971,2.36719,10,11
5.00177,-3.01488,-0.717079,25,4
6.65825,-4.01493,1.23145,46,12
5.12712,-3.09166,-0.523806,10,5
9.35011,-5.64035,2.12256,19,13
5.06333,-3.0556,-0.309934,34,6
9.02378,-5.44779,2.43352,64,14
5.4707,-3.30404,-0.111556,45,7
17.4095,-10.5187,5.45021,10,15
0.471578,-0.285935,-0.127322,15,1
12.109,-7.34505,0.742229,20,9
0.550577,-0.333967,-0.125171,29,2
9.95759,-6.04242,1.01902,46,10
4.45282,-2.7031,-0.825035,31,3
15.3689,-9.33341,2.20779,38,11
4.97086,-3.01995,-0.714154,36,4
6.65939,-4.04738,1.23427,66,12
7.61594,-4.63056,1.73255,14,13
5.06117,-3.07845,-0.310457,43,6
7.31331,-4.45006,1.97642,38,14
5.43522,-3.30856,-0.111067,84,7
17.2143,-10.4829,5.40052,10,15
5.85834,-3.57875,0.119828,35,8
0.453949,-0.277418,-0.122823,15,1
12.0543,-7.36956,0.740449,28,9
0.552699,-0.338031,-0.125934,29,2
5.35688,-3.27756,0.54943,11,10
4.32158,-2.64515,-0.802509,10,3
15.1043,-9.24502,2.17439,27,11
4.94844,-3.03003,-0.712448,16,4
6.64859,-4.07266,1.23489,58,12
4.89592,-3.00022,-0.502366,36,5
5.05836,-3.1022,-0.31098,31,6
9.1025,-5.58458,2.46546,49,14
5.45432,-3.34634,-0.111695,39,7
17.7605,-10.9007,5.58376,13,15
5.50976,-3.39361,0.112952,60,8
0.479474,-0.295436,-0.130022,14,1
6.92664,-4.26963,0.426433,18,9
0.564885,-0.3482,-0.128987,13,2
5.36915,-3.31088,0.55187,20,10
4.33586,-2.67474,-0.806889,65,3
14.9605,-9.23256,2.15855,46,11
6.67563,-4.12295,1.24272,70,12
4.95608,-3.06213,-0.509687,43,5
7.4206,-4.58485,1.69553,31,13
5.06109,-3.12824,-0.311818,37,6
9.1708,-5.67064,2.48931,39,14
5.46072,-3.37788,-0.112079,22,7
15.5027,-9.59335,4.88495,6,15
7.41263,-4.6014,0.15229,15,8
0.451952,-0.280659,-0.122823,15,1
5.71903,-3.55286,0.352849,53,9
0.536926,-0.333687,-0.122881,30,2
13.0219,-8.09595,1.3415,23,10
4.38976,-2.73026,-0.818778,28,3
18.3416,-11.4078,2.65212,12,11
4.91989,-3.06117,-0.711473,7,4
6.68132,-4.15876,1.24647,72,12
5.02992,-3.13207,-0.518402,23,5
7.45374,-4.64316,1.70698,33,13
5.0818,-3.16684,-0.313806,34,6
9.0805,-5.66091,2.47041,15,14
5.46587,-3.4075,-0.112428,28,7
15.5084,-9.67194,4.89737,18,15
6.05452,-3.78622,0.124645,13,8
0.451019,-0.282156,-0.122823,15,1
5.69028,-3.56121,0.351802,20,9
0.542472,-0.339633,-0.124407,29,2
13.0234,-8.15374,1.34429,21,10
4.4498,-2.78703,-0.831606,10,3
25.463,-15.9543,3.68947,24,11
4.96017,-3.1091,-0.718785,32,4
6.67084,-4.18299,1.2471,69,12
5.31825,-3.33613,-0.549255,40,5
7.25372,-4.55201,1.66462,38,13
5.10341,-3.20385,-0.315795,35,6
9.05772,-5.6863,2.46906,3,14
5.59001,-3.51069,-0.115221,23,7
5.56696,-3.50977,0.114872,8,8
0.466465,-0.294204,-0.127322,15,1
12.6702,-7.99431,0.785144,11,9
0.564467,-0.35629,-0.12975,27,2
13.1586,-8.30564,1.36137,24,10
4.34937,-2.74637,-0.814711,32,3
25.2902,-15.9754,3.6729,48,11
6.03951,-3.81654,-0.877216,38,4
6.68552,-4.22641,1.25273,81,12
5.34471,-3.38009,-0.553265,17,5
7.21044,-4.56177,1.65851,37,13
5.11357,-3.23642,-0.317156,35,6
9.05987,-5.73405,2.47536,16,14
5.30002,-3.35572,-0.109496,60,7
23.1322,-14.6519,7.337,19,15
5.03932,-3.20299,0.104226,15,8
0.478539,-0.304276,-0.130922,14,1
9.94222,-6.3217,0.61746,8,9
0.543341,-0.345613,-0.125171,14,2
14.0424,-8.93569,1.4562,3,10
4.34427,-2.76547,-0.815649,31,3
25.1946,-16.0446,3.66754,48,11
6.64407,-4.23274,1.24772,40,12
5.22199,-3.32806,-0.54176,18,5
7.07197,-4.50881,1.63027,42,13
5.14266,-3.28002,-0.319668,22,6
16.9917,-10.8416,4.65334,15,14
5.38437,-3.43551,-0.111486,84,7
23.1005,-14.745,7.34321,19,15
4.94279,-3.16469,0.102446,44,8
0.421734,-0.270125,-0.115625,16,1
5.48893,-3.51707,0.341649,9,9
0.552049,-0.353865,-0.12746,14,2
13.9843,-8.96744,1.45341,25,10
4.35004,-2.78946,-0.818465,25,3
25.1246,-16.1173,3.6651,48,11
5.33944,-3.42654,-0.778989,30,4
6.76224,-4.34128,1.27275,21,12
4.97564,-3.19553,-0.517356,35,5
7.04872,-4.52694,1.62836,47,13
4.93347,-3.16967,-0.307317,25,6
9.10322,-5.8509,2.49831,60,14
5.41271,-3.48024,-0.112324,23,7
22.8945,-14.7263,7.29404,28,15
0.427338,-0.275823,-0.117424,16,1
12.3257,-7.95863,0.76892,5,9
0.540915,-0.349398,-0.125171,14,2
13.4491,-8.68729,1.40077,34,10
5.59955,-3.61836,-1.05593,47,3
15.5957,-10.0816,2.28018,4,11
5.53581,-3.57991,-0.809456,34,4
6.60109,-4.27044,1.24522,27,12
4.99958,-3.23561,-0.521017,8,5
7.06174,-4.57194,1.63523,47,13
5.00396,-3.24093,-0.312446,25,6
15.2164,-9.85525,4.18544,36,14
6.3739,-4.12978,-0.132568,22,7
23.0002,-14.908,7.34425,19,15
5.07926,-3.30356,0.105762,41,8
0.445925,-0.290141,-0.122823,15,1
10.2041,-6.64183,0.63808,10,9
0.542921,-0.353521,-0.125934,29,2
13.4272,-8.74305,1.40181,12,10
5.63922,-3.67336,-1.06594,33,3
12.8078,-8.34613,1.87703,16,11
6.56388,-4.28058,1.24115,66,12
5.19127,-3.38673,-0.542283,20,5
7.09591,-4.63106,1.64706,46,13
5.07065,-3.31056,-0.317365,16,6
15.2226,-9.93865,4.19714,24,14
16.1773,-10.57,5.17793,3,15
4.90324,-3.2147,0.102341,11,8
0.420416,-0.275741,-0.116075,16,1
12.0617,-7.914,0.756045,12,9
0.535118,-0.351106,-0.124407,29,2
14.7242,-9.66465,1.54091,9,10
5.98569,-3.93037,-1.13415,27,3
12.817,-8.41918,1.88288,28,11
6.52999,-4.29267,1.23771,33,12
4.95632,-3.25817,-0.518925,12,5
6.99768,-4.60186,1.62798,44,13
4.999,-3.28873,-0.313597,34,6
15.2056,-10.0072,4.20254,9,14
6.25326,-4.11701,-0.130684,7,7
25.4378,-16.7541,8.1616,24,15
0.458469,-0.302994,-0.126872,15,1
10.2496,-6.77636,0.643942,16,9
0.54044,-0.357303,-0.125934,29,2
12.9289,-8.55095,1.35614,18,10
7.14984,-4.73058,-1.35785,27,3
12.7825,-8.46058,1.88215,24,11
6.18529,-4.09551,-0.910852,40,4
6.5018,-4.30671,1.23521,48,12
4.96984,-3.29196,-0.52154,18,5
6.87356,-4.55469,1.6028,44,13
4.97584,-3.29843,-0.312864,34,6
15.5685,-10.3241,4.31276,25,14
6.21886,-4.12554,-0.130265,64,7
25.376,-16.8406,8.16056,24,15
5.32346,-3.5436,0.111626,39,8
0.421724,-0.28083,-0.116975,16,1
10.1262,-6.74566,0.637661,30,9
0.532654,-0.354833,-0.124407,29,2
12.4231,-8.27892,1.30612,14,10
5.96796,-3.97863,-1.13603,6,3
13.2814,-8.8576,1.96015,17,11
6.02399,-4.01902,-0.889159,37,4
6.49001,-4.33157,1.23583,40,12
7.05845,-4.71274,1.64973,50,13
5.35459,-3.57647,-0.337462,35,6
15.5518,-10.3914,4.31816,25,14
5.20859,-3.48158,-0.109357,27,7
25.7956,-17.2491,8.31482,12,15
5.33265,-3.57664,0.112079,64,8
0.44016,-0.29533,-0.122373,15,1
10.1225,-6.79432,0.638917,40,9
0.534672,-0.358879,-0.125171,14,2
12.371,-8.30669,1.30368,31,10
13.0972,-8.80094,1.93748,20,11
5.60795,-3.7698,-0.829687,13,4
9.37296,-6.30312,1.78898,47,12
6.37189,-4.28496,-0.671796,26,5
7.20974,-4.85023,1.68904,26,13
5.21283,-3.50816,-0.329298,29,6
8.75674,-5.89538,2.43712,22,14
5.19806,-3.50086,-0.109392,38,7
15.3565,-10.3464,4.96156,3,15
5.25386,-3.55045,0.110683,53,8
0.439127,-0.296864,-0.122373,15,1
5.73262,-3.8769,0.362688,16,9
0.543174,-0.367342,-0.12746,14,2
12.4657,-8.43355,1.31675,43,10
5.84516,-3.95598,-1.11788,26,3
12.57,-8.5105,1.86387,8,11
5.45998,-3.69807,-0.8097,24,4
9.35254,-6.3369,1.7893,50,12
6.84824,-4.64184,1.60814,72,13
5.10633,-3.46245,-0.323332,29,6
8.75546,-5.93904,2.44252,17,14
5.22387,-3.54481,-0.110194,27,7
15.3795,-10.4401,4.98071,19,15
5.41499,-3.68694,0.114348,22,8
0.438088,-0.298395,-0.122373,15,1
5.70255,-3.88564,0.361641,34,9
0.525664,-0.358181,-0.123644,29,2
5.79378,-3.95076,-1.11068,10,3
12.9583,-8.83958,1.92602,20,11
5.47655,-3.73725,-0.814087,25,4
9.3842,-6.40627,1.79962,10,12
5.42856,-3.70589,-0.575054,36,5
6.6569,-4.54614,1.56692,38,13
5.13214,-3.50616,-0.325739,13,6
15.0544,-10.2887,4.20973,33,14
5.17184,-3.53593,-0.109357,22,7
5.33778,-3.6617,0.112987,17,8
0.404908,-0.27787,-0.113375,16,1
10.0261,-6.88299,0.637347,22,9
0.524411,-0.360013,-0.123644,29,2
24.455,-16.7949,2.5955,7,10
6.01603,-4.13316,-1.15605,36,3
12.8751,-8.84878,1.91822,20,11
5.4602,-3.7541,-0.8136,24,4
5.91064,-4.06683,-0.627696,20,5
6.6701,-4.58938,1.57379,37,13
5.6266,-3.87284,-0.357978,30,6
14.9879,-10.3202,4.20119,24,14
4.8581,-3.34638,-0.102969,4,7
14.969,-10.3148,4.87098,16,15
5.2641,-3.63824,0.111695,42,8
0.435994,-0.301446,-0.122373,15,1
10.0003,-6.91681,0.637243,38,9
0.536003,-0.37087,-0.126697,28,2
15.2323,-10.5434,1.62075,6,10
5.76211,-3.98987,-1.11006,33,3
15.1746,-10.5074,2.26628,9,11
5.39321,-3.73583,-0.805556,11,4
9.25157,-6.41087,1.78273,38,12
5.66553,-3.92739,-0.603118,10,5
6.64033,-4.60485,1.57074,26,13
5.21195,-3.61566,-0.332438,16,6
14.8203,-10.285,4.16474,42,14
4.81353,-3.34051,-0.102271,9,7
15.2503,-10.5874,4.9745,6,15
5.19002,-3.61522,0.110404,52,8
0.434886,-0.303042,-0.122373,15,1
4.94649,-3.44816,0.316005,10,9
0.521821,-0.363757,-0.123644,29,2
24.2296,-16.8965,2.58434,7,10
5.98954,-4.17836,-1.15668,27,3
12.4305,-8.67485,1.86119,16,11
9.34461,-6.52617,1.80525,14,12
5.69846,-3.98122,-0.608173,35,5
6.59847,-4.61001,1.56463,61,13
5.30898,-3.71049,-0.339451,29,6
14.7811,-10.3345,4.16384,27,14
5.60584,-3.92088,-0.119409,31,7
15.1781,-10.6199,4.96363,9,15
5.2543,-3.6873,0.112044,72,8
0.449775,-0.315756,-0.126872,15,1
4.92626,-3.45966,0.315481,6,9
0.514059,-0.361152,-0.122118,15,2
24.0827,-16.9256,2.57528,30,10
10.6346,-7.4769,-2.05899,11,3
12.366,-8.69421,1.85607,8,11
5.69271,-4.00387,-0.854548,32,4
9.35409,-6.58148,1.81151,31,12
5.43525,-3.82563,-0.581503,26,5
6.55905,-4.61834,1.55929,16,13
5.54844,-3.90819,-0.355675,23,6
8.80606,-6.20509,2.48706,24,14
5.43846,-3.83215,-0.116128,24,7
15.1709,-10.694,4.97347,17,15
5.13952,-3.63495,0.10988,66,8
0.432707,-0.306147,-0.122373,15,1
4.92658,-3.48693,0.316319,14,9
0.52241,-0.36975,-0.124407,29,2
14.498,-10.2651,1.55416,13,10
6.2029,-4.39352,-1.20392,47,3
12.8718,-9.1205,1.93699,16,11
5.75735,-4.08096,-0.866491,25,4
9.2026,-6.52546,1.78679,52,12
5.21383,-3.69707,-0.559191,17,5
15.5758,-11.0487,3.712,40,13
6.13091,-4.35057,-0.393985,43,6
14.4223,-10.2381,4.08331,31,14
5.47003,-3.88448,-0.117106,30,7
15.0356,-10.6813,4.94189,9,15
5.19195,-3.69928,0.111277,30,8
0.406245,-0.289558,-0.115175,16,1
5.88523,-4.19634,0.378808,9,9
0.521116,-0.371571,-0.124407,14,2
14.3583,-10.2416,1.54301,6,10
5.29027,-3.77491,-1.02934,10,3
22.526,-16.0795,3.39821,10,11
5.41512,-3.86685,-0.817012,37,4
5.19765,-3.71293,-0.558843,17,5
6.15793,-4.40215,-0.396707,32,6
14.4991,-10.3688,4.11525,31,14
5.33121,-3.81396,-0.114418,23,7
14.838,-10.619,4.88909,15,15
5.25698,-3.77335,0.112952,16,8
0.414729,-0.297794,-0.117874,16,1
5.99545,-4.30658,0.386867,17,9
0.529383,-0.38026,-0.126697,14,2
13.871,-9.96732,1.49437,9,10
5.50001,-3.95362,-1.07283,36,3
22.4504,-16.1441,3.39528,10,11
9.11353,-6.55839,1.77835,42,12
5.10316,-3.67375,-0.550127,8,5
14.3033,-10.2969,3.42578,11,13
5.47803,-3.94507,-0.353791,16,6
14.711,-10.5982,4.18589,33,14
6.85579,-4.94092,-0.147508,24,7
15.097,-10.8843,4.98693,21,15
5.28591,-3.82214,0.113859,48,8
6.02083,-4.35675,0.389484,41,9
0.518444,-0.375291,-0.124407,14,2
15.0511,-10.8992,1.6258,6,10
5.93661,-4.30055,-1.16106,72,3
18.6835,-13.5346,2.83273,7,11
5.07134,-3.67509,-0.768996,33,4
9.07139,-6.57625,1.77459,49,12
5.82579,-4.22492,-0.629613,23,5
23.7461,-17.2272,5.70252,25,13
7.48408,-5.43151,-0.484631,29,6
14.0507,-10.201,4.00863,13,14
5.3708,-3.89925,-0.115849,48,7
14.9245,-10.8393,4.94241,17,15
5.51752,-4.02049,0.119165,11,8
0.428335,-0.312233,-0.122373,15,1
5.40196,-3.93773,0.350337,12,9
0.51713,-0.377098,-0.124407,14,2
12.0996,-8.82638,1.3103,20,10
6.14496,-4.48427,-1.20486,37,3
14.1766,-10.3491,2.15514,9,11
5.23899,-3.82594,-0.796538,13,4
5.8094,-4.24406,-0.629439,11,5
14.2388,-10.4059,3.42807,6,13
5.91079,-4.32129,-0.383727,14,6
14.0261,-10.258,4.01178,41,14
5.34424,-3.90853,-0.11557,30,7
0.389383,-0.285717,-0.12941,15,0
14.4827,-10.6269,0.31355,60,8
0.427298,-0.313652,-0.122373,15,1
0.496824,-0.364954,-0.119828,15,2
13.9536,-10.2537,1.51494,42,10
5.31186,-3.90338,-1.04404,37,3
12.7587,-9.37903,1.9443,24,11
10.6285,-7.81595,-1.61989,4,4
23.3826,-17.2014,4.59761,13,12
7.20507,-5.30234,-0.782659,16,5
8.79163,-6.46991,2.1218,10,13
7.57078,-5.57351,-0.492691,28,6
14.0186,-10.3241,4.01943,24,14
5.33057,-3.92716,-0.11557,30,7
16.7924,-12.3759,5.58946,9,15
14.4214,-10.6596,0.313026,16,8
0.435602,-0.322093,-0.125073,15,1
5.75403,-4.25465,0.375039,22,9
0.527179,-0.389949,-0.12746,14,2
13.8602,-10.256,1.50849,32,10
9.94704,-7.36311,-1.96012,8,3
18.2425,-13.5086,2.78715,42,11
5.08841,-3.76935,-0.777526,27,4
4.7895,-3.54922,-0.52154,21,5
4.93151,-3.65712,-0.321761,13,6
14.2955,-10.6052,4.10941,25,14
11.0381,-8.18868,-0.239901,97,7
14.0581,-10.4329,4.69084,9,15
5.51183,-4.10241,0.119933,11,8
0.425153,-0.316553,-0.122373,15,1
5.42039,-4.03729,0.35421,15,9
0.51322,-0.382403,-0.124407,14,2
11.9825,-8.93146,1.30751,23,10
10.6337,-7.92611,-2.1006,35,3
12.6325,-9.41938,1.9348,4,11
5.61052,-4.185,-0.859423,12,4
9.12393,-6.8082,1.80306,39,12
6.2763,-4.68503,-0.685218,11,5
8.75053,-6.53195,2.12256,9,13
4.89695,-3.65673,-0.320296,16,6
15.005,-11.2088,4.32401,25,14
5.39341,-4.03039,-0.117525,49,7
13.9535,-10.431,4.66806,12,15
5.46013,-4.09809,0.119165,22,8
0.423879,-0.318257,-0.122373,15,1
5.75867,-4.3253,0.377447,6,9
0.522736,-0.392624,-0.127079,28,2
13.9726,-10.4986,1.52906,39,10
10.6823,-8.02926,-2.11656,22,3
12.5755,-9.4557,1.93187,4,11
5.74438,-4.32085,-0.882578,12,4
15.3566,-11.5552,3.0439,13,12
4.96395,-3.73517,-0.543503,5,5
7.518,-5.66111,-0.493214,14,6
14.2345,-10.7226,4.11435,23,14
5.374,-4.0496,-0.117455,55,7
14.8958,-11.2288,4.99831,9,15
14.4647,-10.9356,0.316517,22,8
0.407222,-0.30798,-0.117874,16,1
5.74035,-4.34297,0.377238,28,9
0.505706,-0.382601,-0.123263,15,2
22.7356,-17.2073,2.49457,35,10
9.92032,-7.51085,-1.97076,10,3
13.4919,-10.2187,2.07812,9,11
4.96663,-3.76305,-0.765096,6,4
22.9829,-17.4197,4.56757,16,12
5.68764,-4.3109,-0.624384,5,5
8.64025,-6.55118,2.10768,35,13
4.87892,-3.70062,-0.320924,26,6
14.6829,-11.1409,4.25517,12,14
5.27382,-4.00305,-0.11557,48,7
15.2596,-11.5868,5.13393,19,15
10.5223,-8.01296,0.23086,41,8
0.421647,-0.321209,-0.122373,15,1
13.7746,-10.4934,0.907506,7,9
0.504367,-0.384364,-0.123263,15,2
13.8784,-10.5802,1.52679,32,10
9.20119,-7.01958,1.421,20,11
4.9503,-3.77795,-0.764608,32,4
22.4005,-17.0955,4.46308,15,12
5.73115,-4.37546,-0.630833,23,5
4.89454,-3.73945,-0.322808,13,6
14.5991,-11.1578,4.24213,36,14
5.305,-4.05451,-0.116547,48,7
15.2472,-11.6573,5.14273,17,15
10.6211,-8.14393,0.233618,71,8
0.445319,-0.341582,-0.129572,14,1
10.6037,-8.1365,0.700464,30,9
0.496793,-0.381341,-0.121736,30,2
15.6049,-11.9827,1.72133,31,10
5.39746,-4.14461,-1.07783,25,3
9.17786,-7.05006,1.421,57,11
5.64134,-4.33502,-0.87356,18,4
9.06001,-6.96456,1.80995,4,12
5.61634,-4.31892,-0.619852,8,5
5.41718,-4.16727,-0.358187,16,6
14.6438,-11.2691,4.26597,33,14
5.28289,-4.06691,-0.116373,60,7
15.3365,-11.8107,5.18673,21,15
10.5957,-8.1834,0.233688,66,8
0.400945,-0.309774,-0.116975,16,1
10.6195,-8.20766,0.703395,30,9
0.51106,-0.394992,-0.125552,14,2
15.5635,-12.0332,1.72115,14,10
9.70496,-7.50625,-1.94323,13,3
9.08254,-7.02739,1.41003,52,11
5.29495,-4.09831,-0.822131,7,4
8.90601,-6.89577,1.78398,15,12
5.3326,-4.12894,-0.590044,36,5
5.15,-3.99043,-0.34144,16,6
18.2024,-14.109,5.31694,23,14
5.28921,-4.10125,-0.116826,30,7
15.3211,-11.8843,5.19553,14,15
10.3493,-8.0509,0.228871,48,8
0.396786,-0.308778,-0.116075,16,1
10.5592,-8.22014,0.701302,48,9
0.50658,-0.394361,-0.124789,14,2
15.4585,-12.0385,1.71418,31,10
9.7831,-7.62142,-1.96419,8,3
9.00942,-7.02122,1.40247,42,11
5.70801,-4.44997,-0.888671,33,4
8.86164,-6.91102,1.77991,34,12
5.41556,-4.2235,-0.600852,32,5
5.18957,-4.05016,-0.344999,40,6
14.8382,-11.5845,4.34605,34,14
5.32372,-4.15785,-0.117908,55,7
39.6032,-30.9414,13.4664,18,15
10.3243,-8.08944,0.228941,37,8
0.417178,-0.326992,-0.122373,15,1
10.4676,-8.20765,0.697115,44,9
0.483571,-0.379168,-0.119446,15,2
10.3795,-8.14151,1.15412,12,10
5.52782,-4.33748,-1.11287,33,3
9.02858,-7.08694,1.4093,32,11
5.61594,-4.40979,-0.876728,22,4
4.81727,-3.78538,-0.536008,21,5
4.94144,-3.88434,-0.329403,35,6
13.779,-10.8352,4.04687,31,14
5.2966,-4.16651,-0.117629,6,7
15.4488,-12.157,5.26749,9,15
10.3949,-8.20348,0.23114,35,8
0.416034,-0.328446,-0.122373,15,1
10.4279,-8.23548,0.696382,21,9
0.509907,-0.402844,-0.126316,14,2
10.4543,-8.26227,1.1658,10,10
5.51188,-4.35771,-1.11287,13,3
13.3453,-10.5508,2.08884,22,11
5.42768,-4.29268,-0.849673,45,4
17.8758,-14.1428,3.61019,10,12
4.76341,-3.77002,-0.531476,38,5
13.7284,-10.8693,3.40365,25,13
4.96005,-3.92847,-0.331601,35,6
15.2345,-12.0704,4.48732,32,14
5.30083,-4.19988,-0.118048,6,7
15.4729,-12.2636,5.29026,7,15
0.414827,-0.329968,-0.122373,15,1
10.4696,-8.33085,0.701197,24,9
0.49928,-0.397287,-0.124026,14,2
15.1082,-12.0262,1.68943,28,10
9.5376,-7.59471,-1.93103,5,3
24.0107,-19.1264,3.76918,24,11
5.43209,-4.32863,-0.852842,18,4
14.6681,-11.6926,2.971,15,12
4.72529,-3.76675,-0.528687,30,5
13.7164,-10.9379,3.41014,45,13
4.86355,-3.87975,-0.326053,35,6
14.0971,-11.2496,4.16384,36,14
5.21507,-4.16314,-0.116477,66,7
14.6127,-11.6693,5.01074,3,15
0.452429,-0.362205,-0.155291,12,0
10.5435,-8.4439,0.235782,19,8
0.413673,-0.331415,-0.122373,15,1
5.04955,-4.0469,0.339137,46,9
0.49789,-0.399028,-0.124026,14,2
15.0847,-12.0938,1.69152,28,10
10.1629,-8.15074,-2.06337,16,3
14.2248,-11.4125,2.23923,9,11
5.18009,-4.15746,-0.81555,3,4
17.3936,-13.9649,3.53292,28,12
5.3926,-4.32957,-0.605035,6,5
4.89825,-3.93548,-0.329298,39,6
14.0092,-11.2596,4.14945,34,14
15.5423,-12.4963,-0.348106,36,7
15.0927,-12.1392,5.18984,21,15
0.375968,-0.303152,-0.12941,15,0
5.39628,-4.35269,0.121015,39,8
0.412514,-0.332856,-0.122373,15,1
4.86444,-3.92651,0.327623,45,9
0.502605,-0.405696,-0.125552,14,2
25.3787,-20.4926,2.85383,17,10
5.2923,-4.27493,-1.07752,20,3
14.3037,-11.5582,2.258,53,11
4.97874,-4.02452,-0.786057,13,4
4.68794,-3.79081,0.954876,7,12
5.90885,-4.77807,-0.664824,11,5
14.7403,-11.9237,3.68529,35,13
4.90001,-3.96512,-0.330345,16,6
13.8623,-11.2214,4.1175,31,14
5.06622,-4.10254,-0.11379,40,7
14.5849,-11.8148,5.02937,11,15
10.3073,-8.37356,0.231803,15,8
0.411349,-0.334294,-0.122373,15,1
4.79181,-3.89559,0.323646,45,9
0.501186,-0.407448,-0.125552,14,2
28.1002,-22.8527,3.16881,20,10
5.28348,-4.29836,-1.07877,40,3
14.4157,-11.7321,2.28213,39,11
5.00931,-4.07822,-0.793126,1,4
10.1745,-8.28631,-1.14802,11,5
4.77931,-3.89513,-0.323122,35,6
13.8139,-11.2624,4.1148,40,14
5.02707,-4.09998,-0.113231,23,7
14.5435,-11.8656,5.02937,19,15
5.39362,-4.41305,0.121643,15,8
0.41018,-0.335728,-0.122373,15,1
4.83846,-3.96164,0.327728,69,9
0.499689,-0.409282,-0.125552,14,2
14.051,-11.5088,1.58902,47,10
14.3686,-11.7773,2.28115,39,11
4.98737,-4.08938,-0.791907,6,4
4.67817,-3.83722,0.958318,91,12
4.65925,-3.82307,-0.527292,10,5
25.0161,-20.5338,6.29097,21,13
4.76963,-3.91643,-0.323436,39,6
13.8152,-11.3439,4.12695,28,14
5.46085,-4.48559,-0.123354,13,7
17.3559,-14.2613,6.0191,11,15
5.28328,-4.3552,0.119514,45,8
0.408946,-0.337229,-0.122373,15,1
4.8655,-4.01366,0.330554,39,9
0.492128,-0.406112,-0.124026,14,2
14.0963,-11.6325,1.59896,50,10
10.7779,-8.89722,-2.21355,27,3
23.9056,-19.7413,3.80671,12,11
5.18201,-4.28084,-0.825299,1,4
4.71432,-3.89587,0.968642,106,12
24.2372,-20.0436,6.11352,10,13
4.77217,-3.94789,-0.324588,42,6
13.715,-11.346,4.10941,31,14
5.46902,-4.52598,-0.123912,26,7
13.4672,-11.1489,4.68462,18,15
5.6734,-4.71182,0.128729,13,8
0.383725,-0.318801,-0.115175,16,1
4.81389,-4.00083,0.328042,60,9
0.499767,-0.415357,-0.126316,14,2
23.5615,-19.5889,2.68074,32,10
10.7285,-8.92277,-2.21011,10,3
23.7324,-19.745,3.79062,12,11
5.16781,-4.30108,-0.825543,9,4
4.64384,-3.86636,0.957066,21,12
14.0673,-11.7163,3.55859,7,13
4.8044,-4.00287,-0.327728,32,6
14.0146,-11.6807,4.21198,33,14
15.2145,-12.6852,-0.345767,58,7
13.4796,-11.2428,4.70326,18,15
0.444615,-0.371756,-0.155291,12,0
5.67533,-4.747,0.129148,33,8
0.385599,-0.322639,-0.116075,16,1
4.76774,-3.99069,0.325844,50,9
0.51638,-0.43222,-0.130895,13,2
4.57058,-3.82702,0.52154,5,10
5.441,-4.55746,-1.12414,5,3
22.9147,-19.2005,3.6707,12,11
5.93778,-4.97709,-0.951312,41,4
4.5847,-3.84429,-0.523457,38,5
4.55911,-3.82419,1.15668,3,13
4.72767,-3.96698,-0.323436,32,6
13.6693,-11.4739,4.1202,25,14
15.1257,-12.701,-0.344755,36,7
13.4684,-11.3134,4.7131,25,15
5.66331,-4.77064,0.129253,11,8
0.387451,-0.326495,-0.116975,16,1
4.79653,-4.04335,0.328775,37,9
0.493853,-0.416305,-0.125552,14,2
4.55871,-3.84424,0.521714,50,10
9.68901,-8.17336,-2.00768,8,3
13.9877,-11.8038,2.24727,28,11
4.69823,-3.9675,0.973961,103,12
5.81405,-4.91152,-0.66587,26,5
4.55923,-3.85149,1.16012,4,13
5.0433,-4.26192,-0.346045,33,6
13.836,-11.6965,4.18274,39,14
14.7194,-12.4477,-0.336482,66,7
13.4967,-11.4177,4.73691,18,15
12.6473,-10.7295,0.289501,34,8
0.383337,-0.325324,-0.116075,16,1
4.7428,-4.02646,0.326053,15,9
0.480352,-0.407945,-0.122499,15,2
4.50511,-3.82738,0.517182,56,10
6.23913,-5.30241,-1.29684,13,3
13.8571,-11.7767,2.23289,47,11
4.85782,-4.12995,-0.782889,30,4
4.69489,-3.99284,0.976151,61,12
5.70582,-4.85432,-0.655411,28,5
4.56153,-3.88217,1.16432,1,13
5.08999,-4.33346,-0.350337,37,6
13.075,-11.1355,3.96499,11,14
14.6713,-12.4951,-0.336378,81,7
13.3406,-11.3658,4.69601,18,15
12.6551,-10.8161,0.290583,19,8
4.4882,-3.83871,0.309515,40,9
0.472958,-0.404515,-0.120973,15,2
4.47659,-3.83013,0.515439,58,10
5.33514,-4.56632,-1.11225,5,3
12.9046,-11.0489,2.08592,22,11
4.82154,-4.12964,-0.779476,19,4
4.54972,-3.8982,0.948932,52,12
5.64043,-4.83272,-0.649833,23,5
5.30076,-4.5449,-0.365933,23,6
13.0789,-11.2179,3.97803,41,14
6.39985,-5.49115,-0.147194,100,7
13.3267,-11.4385,4.70585,10,15
14.3283,-12.333,0.32999,96,8
0.372139,-0.320429,-0.113375,16,1
4.52622,-3.89867,0.313074,8,9
0.483443,-0.416414,-0.124026,14,2
4.45866,-3.84183,0.514916,39,10
5.31917,-4.58491,-1.11225,18,3
12.881,-11.1068,2.08835,27,11
4.83566,-4.17108,-0.784107,26,4
4.57048,-3.94374,0.956128,104,12
4.50162,-3.88569,1.15592,15,13
13.1798,-11.3845,4.02077,16,14
6.3761,-5.50953,-0.147089,100,7
13.294,-11.4913,4.70844,3,15
0.385741,-0.334493,-0.117874,16,1
0.487918,-0.423245,-0.125552,14,2
4.44222,-3.85476,0.514567,15,10
9.61128,-8.34319,-2.01581,13,3
12.9815,-11.2728,2.11102,18,11
4.82107,-4.18794,-0.784107,12,4
4.58949,-3.98818,0.963011,76,12
4.25154,-3.6945,-0.492779,20,5
4.47618,-3.89108,1.15287,15,13
4.66002,-4.05232,-0.323646,13,6
15.119,-13.152,4.62634,14,14
5.10477,-4.4422,-0.118118,18,7
13.5554,-11.8002,4.81559,3,15
4.65941,-4.06753,0.107961,44,8
0.399249,-0.348656,-0.122373,15,1
4.4989,-3.93017,0.313074,11,9
0.45391,-0.39653,-0.117157,16,2
4.33872,-3.79158,0.504109,11,10
5.15319,-4.50492,-1.08409,18,3
12.9212,-11.2997,2.10761,9,11
4.82734,-4.22304,-0.78752,40,4
4.52648,-3.96124,0.952686,25,12
4.22962,-3.70145,-0.491733,30,5
4.47586,-3.91832,1.1563,37,13
4.6188,-4.04488,-0.321761,19,6
13.937,-12.2095,4.27767,3,14
5.00802,-4.38883,-0.116233,60,7
12.9258,-11.3316,4.60594,16,15
4.66321,-4.09961,0.108379,61,8
0.39803,-0.350047,-0.122373,15,1
0.45842,-0.403299,-0.118683,15,2
4.3808,-3.8554,0.510558,28,10
5.12409,-4.51114,-1.08128,32,3
13.9736,-12.3064,2.28627,9,11
5.11345,-4.50494,-0.836755,31,4
4.20621,-3.70697,-0.490513,28,5
4.69453,-4.14024,-0.328042,19,6
13.1387,-11.5915,4.04507,8,14
5.04215,-4.44995,-0.117385,49,7
12.9123,-11.3997,4.61526,12,15
15.3256,-13.5684,0.357286,18,8
0.396806,-0.351434,-0.122373,15,1
4.48779,-3.97605,0.314225,50,9
0.471704,-0.417916,-0.122499,15,2
4.35986,-3.86406,0.509687,33,10
6.09863,-5.40701,-1.2909,43,3
22.5028,-19.9579,3.69313,24,11
5.38131,-4.77439,-0.883309,12,4
4.51202,-4.00455,0.955502,83,12
4.22305,-3.74808,-0.493999,28,5
20.282,-18.0072,5.27205,18,13
4.58746,-4.07437,-0.321552,35,6
14.7123,-13.0714,4.54356,17,14
5.04602,-4.48479,-0.117839,42,7
12.9114,-11.4794,4.62924,12,15
12.2761,-10.9491,0.287127,8,8
0.380974,-0.339913,-0.117874,16,1
4.49256,-4.00976,0.315586,51,9
0.46431,-0.414413,-0.120973,15,2
4.40957,-3.93708,0.517182,65,10
6.0611,-5.41354,-1.28714,41,3
22.5257,-20.1262,3.70897,24,11
5.26905,-4.70942,-0.86771,16,4
4.52971,-4.05002,0.962385,76,12
4.20779,-3.7622,-0.493824,45,5
13.3397,-11.9313,3.47883,15,13
4.56208,-4.08184,-0.320819,42,6
13.0366,-11.6683,4.03922,27,14
5.10552,-4.57128,-0.119619,50,7
14.5025,-12.9895,5.21676,12,15
12.2899,-11.0387,0.288349,8,8
0.394281,-0.354265,-0.122373,15,1
4.56023,-4.09885,0.321343,40,9
0.486223,-0.437029,-0.127079,14,2
4.34247,-3.90449,0.510907,43,10
6.01573,-5.41088,-1.28151,37,3
13.9053,-12.5116,2.29675,53,11
5.33668,-4.80348,-0.881603,32,4
4.49646,-4.04863,0.958318,52,12
4.205,-3.7862,-0.495045,35,5
13.8129,-12.4416,3.61354,18,13
4.59083,-4.13651,-0.323855,13,6
13.3577,-12.04,4.1517,25,14
5.1133,-4.6105,-0.120177,70,7
14.4284,-13.0142,5.2064,10,15
4.62703,-4.18525,0.108903,42,8
0.393042,-0.355639,-0.122373,15,1
4.43336,-4.01288,0.313388,112,9
0.461406,-0.417644,-0.120973,15,2
4.33029,-3.92096,0.511081,37,10
5.96898,-5.40665,-1.27557,33,3
4.68376,-4.244,0.776064,5,11
4.48961,-4.07093,0.959882,115,12
4.2088,-3.81765,-0.497136,48,5
14.3046,-12.9751,3.75398,17,13
4.59116,-4.16593,-0.324902,19,6
13.3199,-12.0904,4.15305,14,14
5.10606,-4.63639,-0.120387,51,7
12.6368,-11.4785,4.57437,5,15
4.60353,-4.19329,0.108694,66,8
0.391798,-0.357009,-0.122373,15,1
4.29239,-3.91262,0.304386,30,9
0.47728,-0.435206,-0.125552,14,2
6.57098,-5.99382,0.778126,15,10
6.0002,-5.47509,-1.28652,30,3
4.66892,-4.26032,0.776064,5,11
4.09198,-3.73519,-0.680275,33,4
4.45933,-4.07193,0.95644,60,12
4.19692,-3.83366,-0.497311,56,5
14.4033,-13.1612,3.79252,11,13
4.60829,-4.21237,-0.327204,13,6
12.6556,-11.5724,3.95914,2,14
5.17248,-4.72975,-0.122341,52,7
12.6081,-11.533,4.57851,20,15
4.63233,-4.2507,0.109741,72,8
0.381873,-0.350536,-0.119674,16,1
4.37658,-4.01884,0.311399,52,9
0.469974,-0.431558,-0.124026,14,2
4.27277,-3.92489,0.507595,20,10
4.71706,-4.33452,-1.01463,10,3
13.2189,-12.1511,2.20462,38,11
5.23555,-4.81434,-0.873316,13,4
4.42548,-4.07086,0.952373,67,12
4.26123,-3.91978,-0.506549,23,5
13.6855,-12.5933,3.61507,6,13
7.24448,-6.66864,-0.516033,17,6
13.3076,-12.2541,4.17644,15,14
5.23895,-4.8259,-0.124331,72,7
12.5771,-11.5896,4.58265,4,15
4.63068,-4.27906,0.110055,68,8
0.389233,-0.359803,-0.122373,15,1
4.27454,-3.95273,0.305119,20,9
0.459816,-0.425198,-0.121736,15,2
6.57139,-6.07879,0.783181,22,10
4.54677,-4.2074,-0.981157,47,3
4.64414,-4.29902,0.777039,27,11
5.35417,-4.95802,-0.895983,21,4
4.36197,-4.04064,0.941736,70,12
4.18467,-3.87641,-0.499054,31,5
11.7267,-10.8704,-0.838003,13,6
12.5345,-11.6234,3.94654,8,14
4.5946,-4.2621,-0.109392,22,7
12.5083,-11.6071,4.5723,8,15
4.68305,-4.35786,0.11166,68,8
0.389401,-0.362488,-0.122823,15,1
4.16785,-3.87979,0.29842,52,9
0.461202,-0.429477,-0.122499,15,2
4.22923,-3.93968,0.505678,16,10
4.52916,-4.22056,-0.980531,40,3
4.62911,-4.3152,0.777039,15,11
5.29473,-4.93742,-0.888915,7,4
4.39044,-4.09415,0.950809,22,12
4.15509,-3.87604,-0.497136,36,5
4.41231,-4.11743,1.17309,32,13
4.58729,-4.28221,-0.328879,16,6
13.0394,-12.1764,4.11885,11,14
5.09198,-4.755,-0.121608,26,7
12.512,-11.6881,4.58783,28,15
4.67879,-4.38293,0.111905,15,8
0.388197,-0.363777,-0.122823,15,1
4.18925,-3.9271,0.300932,43,9
0.44538,-0.417655,-0.118683,15,2
4.57421,-4.29096,-0.993359,33,3
4.53516,-4.25582,0.763633,20,11
4.30124,-4.03914,0.93454,55,12
3.90919,-3.67226,-0.469247,38,5
4.39577,-4.12935,1.17233,22,13
4.51775,-4.24542,-0.324902,35,6
12.82,-12.0514,4.06217,25,14
4.95444,-4.65904,-0.118711,50,7
12.5049,-11.7635,4.60025,15,15
0.386925,-0.36513,-0.122823,15,1
4.19876,-3.96363,0.302607,40,9
0.451056,-0.425946,-0.120591,15,2
4.51182,-4.26214,-0.983034,48,3
4.33415,-4.09574,0.732191,42,11
3.76651,-3.56057,-0.636402,35,4
4.32013,-4.08534,0.941736,44,12
3.87464,-3.66534,-0.466632,50,5
4.32215,-4.09011,1.15668,12,13
4.44415,-4.20703,-0.320715,58,6
12.7566,-12.076,4.05542,23,14
4.0568,-3.84169,-0.097524,4,7
12.4526,-11.7964,4.59611,12,15
4.498,-4.27442,0.10831,64,8
0.385584,-0.366545,-0.122823,15,1
4.25657,-4.04781,0.30784,24,9
0.466561,-0.443835,-0.125171,14,2
23.387,-22.2478,2.82402,69,10
4.52621,-4.30724,-0.989605,23,3
4.26016,-4.05548,0.722198,37,11
3.752,-3.57298,-0.636158,9,4
4.32372,-4.11886,0.945803,83,12
3.8857,-3.70289,-0.469595,25,5
4.46483,-4.25775,-0.323332,35,6
12.7024,-12.1133,4.05227,37,14
5.05988,-4.82688,-0.122062,71,7
15.0242,-14.3374,5.56461,4,15
4.43031,-4.2411,0.107053,88,8
0.384238,-0.367956,-0.122823,15,1
0.456503,-0.437312,-0.122881,15,2
13.089,-12.5431,1.58606,16,10
4.51467,-4.32791,-0.990543,50,3
4.18509,-4.01336,0.711961,60,11
5.26253,-5.04658,-0.895252,27,4
4.25657,-4.08333,0.934227,52,12
4.16247,-3.99585,1.12158,110,13
4.64874,-4.46422,-0.337776,26,6
12.4759,-11.9807,3.99333,22,14
5.06174,-4.86252,-0.122516,71,7
4.08936,-3.94078,0.0991297,27,8
0.383016,-0.369228,-0.122823,15,1
0.443744,-0.427921,-0.119828,15,2
7.0621,-6.81265,0.858484,8,10
4.49888,-4.34148,-0.99023,27,3
4.15034,-4.00654,0.708305,62,11
3.79329,-3.66186,-0.64737,12,4
5.55882,-5.36809,1.22394,43,12
4.14355,-4.00417,1.12005,26,13
4.44867,-4.30053,-0.324274,16,6
12.4417,-12.0274,3.99513,30,14
5.2454,-5.07251,-0.127368,55,7
13.2448,-12.8127,4.93775,9,15
0.381789,-0.370496,-0.122823,15,1
4.26912,-4.14429,0.311818,25,9
0.450699,-0.437673,-0.122118,15,2
7.03375,-6.83048,0.857787,44,10
4.50713,-4.3784,-0.995236,10,3
4.21533,-4.09637,0.72171,45,11
3.80184,-3.69583,-0.651026,10,4
4.18619,-4.0709,0.924841,107,12
4.68853,-4.56099,-0.572265,12,5
4.06154,-3.95381,-0.297059,6,6
4.37061,-4.25469,1.40819,8,14
4.39244,-4.27743,-0.107018,10,7
12.4278,-12.1066,4.64891,2,15
4.38497,-4.28509,0.107018,44,8
0.380429,-0.371893,-0.122823,15,1
4.27675,-4.18226,0.313492,18,9
0.451898,-0.442068,-0.122881,15,2
6.94031,-6.78934,0.84942,50,10
4.83412,-4.73062,-1.07126,6,3
4.16482,-4.07707,0.715617,92,11
3.82514,-3.74585,-0.657363,40,4
4.05553,-3.97286,0.899185,89,12
5.68079,-5.56887,1.54632,5,13
4.5119,-4.42455,-0.331182,22,6
4.36055,-4.27614,1.40999,20,14
4.37673,-4.2935,-0.107018,42,7
12.3599,-12.1291,4.64011,5,15
4.10275,-4.0388,0.100491,33,8
0.379063,-0.373285,-0.122823,15,1
4.25854,-4.1951,0.313283,22,9
0.458744,-0.45191,-0.125171,14,2
5.33164,-5.25404,0.654888,43,10
4.84067,-4.77188,-1.07658,13,3
4.17953,-4.12158,0.720735,97,11
4.01206,-3.95781,-0.691974,43,4
4.01423,-3.96133,0.893241,100,12
5.30528,-5.23537,-0.652099,10,5
4.44527,-4.38975,-0.327414,42,6
4.36287,-4.30989,1.41584,6,14
4.31403,-4.26313,-0.105866,56,7
23.8435,-23.5704,8.98361,22,15
4.65385,-4.61341,0.114383,79,8
0.377758,-0.374606,-0.122823,15,1
4.25805,-4.224,0.31433,28,9
0.446013,-0.442447,-0.122118,15,2
5.30195,-5.26139,0.653494,22,10
9.88489,-9.81269,-2.20604,64,3
4.14259,-4.11376,0.716836,97,11
3.78134,-3.75634,-0.654438,47,4
3.97516,-3.95026,0.887609,76,12
7.1567,-7.11188,-0.882713,8,5
5.61393,-5.58071,1.53868,16,13
4.44125,-4.41651,-0.328251,13,6
12.6497,-12.5836,4.1193,11,14
4.30479,-4.28381,-0.106006,25,7
12.485,-12.4285,4.72034,6,15
4.64479,-4.63669,0.114558,61,8
0.376448,-0.375922,-0.122823,15,1
6.41367,-6.40696,0.475106,35,9
0.458356,-0.457876,-0.125934,14,2
5.27087,-5.26719,0.651925,60,10
9.84498,-9.84155,-2.20479,31,3
4.21242,-4.21242,0.73146,70,11
3.97391,-3.97669,0.890425,100,12
5.40098,-5.40476,-0.668485,8,5
4.56411,-4.57049,-0.338509,39,6
4.31383,-4.32287,-0.106599,47,7
12.4948,-12.5253,4.74053,1,15
4.40434,-4.42746,0.109008,19,8
0.375133,-0.377234,-0.122823,15,1
5.93787,-5.97321,0.441401,18,9
0.434609,-0.437196,-0.119828,15,2
5.24964,-5.28273,0.651576,33,10
9.85233,-9.9179,-2.21417,9,3
4.49143,-4.5229,0.782645,27,11
3.72565,-3.75306,-0.64932,15,4
4.04628,-4.07747,0.909823,42,12
12.6208,-12.7225,3.48341,15,13
4.65642,-4.69559,-0.346569,27,6
4.15561,-4.19204,1.36275,93,14
11.9193,-12.0279,-0.295574,31,7
13.5019,-13.6298,5.14066,3,15
4.41697,-4.47126,0.109706,8,8
0.373814,-0.378541,-0.122823,15,1
4.16027,-4.21435,0.310352,14,9
0.41653,-0.421944,-0.115249,16,2
4.30753,-4.36505,0.536531,48,10
4.59739,-4.6604,-1.03685,13,3
4.18849,-4.24738,0.732435,67,11
3.6972,-3.75049,-0.646639,7,4
4.1984,-4.26041,0.947367,28,12
6.17004,-6.26116,-0.769062,24,5
4.47183,-4.54105,-0.334008,26,6
4.31731,-4.38566,1.42079,47,14
4.29196,-4.36143,-0.106809,5,7
14.8619,-15.1077,5.67849,2,15
4.45034,-4.53661,0.110927,22,8
0.37249,-0.379844,-0.122823,15,1
4.14413,-4.22742,0.310248,34,9
0.434295,-0.443023,-0.120591,15,2
4.26438,-4.3516,0.533045,46,10
8.99492,-9.1821,-2.03584,8,3
4.18613,-4.27474,0.734628,42,11
3.67714,-3.75629,-0.64542,5,4
5.19777,-5.3115,-0.650182,6,5
3.94292,-4.0306,1.09601,18,13
4.43221,-4.53235,-0.332229,35,6
4.22433,-4.32128,1.39515,19,14
7.61422,-7.79169,-0.190161,18,7
14.7807,-15.1305,5.66762,4,15
4.2168,-4.32867,0.105482,48,8
0.371162,-0.381142,-0.122823,15,1
4.18787,-4.30197,0.314644,14,9
0.438224,-0.450164,-0.122118,15,2
4.26861,-4.38645,0.535485,35,10
4.4715,-4.59815,0.78752,67,11
3.63357,-3.73778,-0.640058,2,4
3.93865,-4.05303,0.895118,81,12
4.0857,-4.20582,-0.512999,12,5
3.93156,-4.04715,1.09677,28,13
4.28001,-4.40738,-0.321971,29,6
4.09151,-4.21621,-0.10255,19,7
14.7143,-15.1681,5.66244,9,15
0.402957,-0.416546,-0.155291,12,0
4.21418,-4.3563,0.105796,33,8
0.36983,-0.382435,-0.122823,15,1
6.72566,-6.95733,0.507135,26,9
0.431114,-0.44612,-0.120591,15,2
12.1221,-12.5485,1.52645,26,10
4.12624,-4.27285,-0.940797,21,3
4.44301,-4.60087,0.785326,55,11
4.0932,-4.2416,0.933601,97,12
4.24667,-4.40216,-0.535136,17,5
3.93033,-4.07566,1.10059,31,13
4.24026,-4.39859,-0.320191,35,6
4.00939,-4.16056,1.33396,39,14
4.92042,-5.10594,-0.123772,72,7
14.8101,-15.3738,5.7199,22,15
4.33808,-4.51739,0.109322,53,8
0.368425,-0.383788,-0.122823,15,1
4.12793,-4.30156,0.312446,17,9
0.434991,-0.453288,-0.122118,15,2
5.88534,-6.13504,0.743787,37,10
4.84278,-5.05,-1.10818,27,3
4.41788,-4.60853,0.783864,30,11
4.30994,-4.49751,-0.764852,20,4
4.02023,-4.19666,0.920461,87,12
4.31732,-4.50836,-0.546118,10,5
4.24875,-4.43676,1.19408,15,13
4.25112,-4.44078,-0.32218,29,6
3.92209,-4.0985,1.30967,93,14
4.18011,-4.36965,-0.105552,5,7
14.6628,-15.3331,5.6847,21,15
5.89415,-6.18082,0.149078,8,8
0.367083,-0.385072,-0.122823,15,1
0.433327,-0.454879,-0.122118,15,2
5.87793,-6.17244,0.745705,75,10
4.77248,-5.01335,-1.09629,52,3
4.06369,-4.26879,0.72366,40,11
4.34622,-4.56717,-0.774114,29,4
3.88847,-4.08758,0.893554,51,12
5.12809,-5.39256,-0.651053,8,5
4.23652,-4.45657,1.19523,33,13
6.52558,-6.86692,-0.496459,31,6
3.88825,-4.09307,1.30337,64,14
4.18962,-4.41031,-0.10618,10,7
14.411,-15.1754,5.60757,4,15
5.89866,-6.22895,0.149742,25,8
0.346981,-0.366538,-0.116525,16,1
0.431816,-0.456314,-0.122118,15,2
5.80814,-6.13979,0.739429,67,10
4.38801,-4.64019,-1.01151,15,3
4.05013,-4.28439,0.723904,52,11
4.09029,-4.32838,-0.731216,14,4
3.84841,-4.07384,0.887609,100,12
5.85858,-6.20178,-0.746402,15,5
4.2042,-4.45204,1.19027,34,13
4.18163,-4.42968,-0.319249,13,6
3.9014,-4.13428,1.31236,31,14
4.26477,-4.52091,-0.108484,5,7
14.3752,-15.2439,5.6143,2,15
5.88236,-6.25532,0.149881,22,8
0.364386,-0.387625,-0.122823,15,1
6.15887,-6.55395,0.471338,52,9
0.440976,-0.469264,-0.125171,14,2
4.14289,-4.41018,0.529384,48,10
4.08376,-4.34876,-0.944864,40,3
3.94005,-4.19719,0.706842,62,11
3.96931,-4.23132,0.918896,76,12
4.1289,-4.40145,-0.527989,25,5
4.15372,-4.42945,1.18034,28,13
4.12106,-4.39617,-0.315795,42,6
4.17377,-4.45551,-0.106564,42,7
14.5688,-15.5577,5.7111,10,15
5.87414,-6.29043,0.15023,11,8
0.363031,-0.388895,-0.122823,15,1
4.24734,-4.55153,0.326262,37,9
0.433978,-0.465059,-0.123644,14,2
4.14785,-4.44647,0.531999,31,10
4.17094,-4.47279,-0.968642,31,3
3.94568,-4.2327,0.710498,77,11
4.06403,-4.36119,-0.731947,41,4
3.97741,-4.26972,0.924215,62,12
4.13253,-4.43625,-0.53043,13,5
4.26533,-4.58042,1.2166,23,13
4.02268,-4.32135,-0.30941,21,6
3.94546,-4.23988,1.33711,51,14
4.16364,-4.47591,-0.106704,57,7
13.612,-14.638,5.356,16,15
4.16884,-4.49564,0.107018,63,8
0.361671,-0.390159,-0.122823,15,1
4.23686,-4.57219,0.326681,49,9
0.427014,-0.46081,-0.122118,15,2
4.17022,-4.50185,0.536879,37,10
4.34723,-4.69458,-1.01338,41,3
3.89851,-4.21148,0.704649,35,11
4.03799,-4.36369,-0.729997,35,4
3.90882,-4.22558,0.9117,80,12
4.07101,-4.40092,-0.524503,53,5
4.17201,-4.51167,1.19446,14,13
4.18924,-4.53189,-0.323436,26,6
3.805,-4.11766,1.29437,36,14
4.14935,-4.49188,-0.106739,42,7
14.3878,-15.581,5.68263,9,15
4.0434,-4.39101,0.104191,20,8
0.360307,-0.39142,-0.122823,15,1
6.58624,-7.15746,0.509752,9,9
0.417427,-0.45363,-0.119828,15,2
4.22057,-4.58823,0.545421,56,10
4.27065,-4.6443,-0.999304,62,3
3.97648,-4.32591,0.721467,25,11
4.4418,-4.83381,-0.806044,43,4
4.05574,-4.41522,0.949557,63,12
3.99422,-4.34977,-0.516659,36,5
4.04071,-4.4004,1.16126,8,13
4.16259,-4.53472,-0.322599,16,6
4.05279,-4.41665,1.3839,91,14
4.08903,-4.45771,-0.105587,30,7
4.03572,-4.40113,1.60002,9,15
4.08473,-4.46708,0.105657,35,8
0.358939,-0.392675,-0.122823,15,1
5.23684,-5.73106,0.40686,7,9
0.410465,-0.449359,-0.118302,15,2
4.29488,-4.70515,-1.009,27,3
4.43025,-4.85515,-0.807019,26,4
4.03631,-4.42498,0.948619,67,12
3.96703,-4.3536,-0.308677,34,6
4.05232,-4.44876,1.3893,42,14
4.04248,-4.43795,-0.104784,5,7
13.252,-14.5995,0.344161,12,8
0.357497,-0.393988,-0.122823,15,1
4.12756,-4.55046,0.321971,6,9
0.422084,-0.46533,-0.122118,15,2
4.07811,-4.49911,-0.961759,17,3
3.94676,-4.35572,0.72171,35,11
4.35246,-4.80515,-0.796051,18,4
4.01079,-4.42949,0.946429,74,12
3.95905,-4.37389,1.14676,18,13
3.94511,-4.36001,-0.308154,18,6
4.0969,-4.52936,1.40999,53,14
3.94571,-4.36374,-0.10269,34,7
5.32675,-5.89316,2.12853,33,15
4.25214,-4.71751,0.110858,11,8
4.0408,-4.48619,0.316423,20,9
0.420376,-0.466874,-0.122118,15,2
3.94142,-4.37892,0.515439,24,10
6.36325,-7.07207,-1.50678,38,3
4.00721,-4.45359,0.735603,72,11
4.19209,-4.66233,0.993046,42,12
4.28153,-4.76515,1.24522,24,13
6.75314,-7.51858,-0.52964,17,6
5.61786,-6.25682,1.94133,16,14
3.9505,-4.39981,-0.103214,53,7
5.34098,-5.95053,2.1425,40,15
3.94414,-4.40819,0.103248,48,8
0.354669,-0.396536,-0.122823,15,1
3.90718,-4.36995,0.307212,27,9
0.418743,-0.468339,-0.122118,15,2
3.89822,-4.36146,0.511779,31,10
7.85735,-8.79414,-1.86783,8,3
4.00409,-4.48305,0.738041,50,11
4.00266,-4.4846,0.95206,23,12
4.27402,-4.79032,1.24789,31,13
4.09727,-4.59383,-0.322599,16,6
3.99695,-4.48293,1.3866,11,14
3.98091,-4.46651,-0.104435,35,7
3.74871,-4.20746,1.50995,51,15
3.87693,-4.36363,0.101887,57,8
0.353282,-0.397771,-0.122823,15,1
3.97942,-4.48213,0.31412,15,9
0.42232,-0.47567,-0.123644,14,2
5.228,-5.89051,0.689053,43,10
5.30426,-5.97853,-1.26587,20,3
3.81455,-4.30096,0.705867,70,11
4.37612,-4.93588,-0.809944,16,4
3.77426,-4.26003,1.10631,25,13
3.87993,-4.38083,-0.306689,6,6
3.99048,-4.50883,-0.105098,56,7
3.73016,-4.21618,1.5084,120,15
4.21623,-4.77901,0.111242,78,8
0.351892,-0.399002,-0.122823,15,1
3.93734,-4.46603,0.312027,6,9
0.399884,-0.453579,-0.117538,16,2
6.31528,-7.1658,0.835649,12,10
6.27709,-7.12497,-1.50396,26,3
3.80476,-4.32021,0.706842,57,11
5.46465,-6.20716,-1.01542,6,4
4.36481,-4.95962,-0.578017,11,5
3.72435,-4.23338,1.09601,50,13
3.9543,-4.49634,-0.313806,12,6
3.72881,-4.24143,1.30382,41,14
4.0064,-4.55878,-0.105936,41,7
3.73072,-4.24659,1.51461,52,15
4.1086,-4.68991,0.108833,30,8
0.350497,-0.400228,-0.122823,15,1
3.81385,-4.35652,0.303444,15,9
0.395712,-0.452018,-0.116775,16,2
6.22856,-7.11733,0.827457,22,10
5.0777,-5.8043,-1.22144,15,3
3.77528,-4.31703,0.704161,50,11
9.01758,-10.3152,-1.68228,19,4
3.93055,-4.49774,-0.522586,2,5
3.73539,-4.27592,1.10364,33,13
4.07915,-4.67108,-0.325006,26,6
3.664,-4.19716,1.28627,59,14
7.04346,-8.07122,-0.186985,36,7
3.71969,-4.26396,1.51616,117,15
7.34838,-8.44739,0.195432,31,8
0.349097,-0.401449,-0.122823,15,1
5.13383,-5.9058,0.410105,34,9
0.430196,-0.494883,-0.12746,14,2
6.18799,-7.12098,0.825365,44,10
5.07296,-5.83988,-1.22519,36,3
3.82657,-4.40662,0.716592,30,11
7.42387,-8.55223,-1.39053,15,4
4.14292,-4.77429,1.00118,63,12
4.67387,-5.38806,-0.624035,21,5
3.81049,-4.39275,1.13035,41,13
4.66472,-5.37941,-0.373155,56,6
6.10901,-7.04746,2.15323,72,14
5.63105,-6.49837,-0.150091,16,7
3.71111,-4.28422,1.51875,54,15
0.347694,-0.402665,-0.122823,15,1
5.14973,-5.96602,0.413035,32,9
0.387337,-0.448892,-0.115249,16,2
4.04018,-4.68555,-0.979906,10,3
3.81764,-4.42747,0.717811,72,11
4.47915,-5.19648,-0.842361,22,4
3.73682,-4.33679,0.906694,65,12
3.87746,-4.5016,-0.519797,25,5
3.90453,-4.53463,1.16317,21,13
4.56289,-5.3011,-0.366561,21,6
6.01578,-6.99152,2.12939,24,14
5.61355,-6.52405,-0.15023,41,7
3.76667,-4.37916,1.54774,23,15
3.96082,-4.61953,0.106215,6,8
0.380457,-0.443887,-0.134971,14,1
3.92659,-4.58123,0.316214,25,9
0.403651,-0.471114,-0.120591,15,2
3.74823,-4.37622,0.504109,97,10
4.01866,-4.69363,-0.978654,2,3
3.75879,-4.39166,0.709767,15,11
3.9821,-4.65257,-0.751934,15,4
3.72422,-4.35281,0.90732,100,12
3.87209,-4.52883,1.15821,24,13
4.28742,-5.01638,-0.345836,43,6
6.50131,-7.60937,-0.174699,35,7
5.21553,-6.1066,2.15182,67,15
3.94547,-4.63264,0.106215,57,8
0.343611,-0.403599,-0.122373,15,1
3.92173,-4.60639,0.317051,19,9
0.412265,-0.48441,-0.123644,14,2
4.96406,-5.83481,0.670228,30,10
4.92834,-5.79488,-1.20486,8,3
3.97694,-4.67785,0.753884,32,11
3.67651,-4.326,0.899185,91,12
3.77191,-4.44139,1.13264,41,13
4.40649,-5.19044,-0.356827,30,6
3.71172,-4.37207,1.32406,54,14
3.98138,-4.69136,-0.107402,31,7
5.30023,-6.2476,2.1953,83,15
3.92622,-4.64112,0.106111,49,8
0.342271,-0.404736,-0.122373,15,1
3.87726,-4.5865,0.314748,10,9
0.401785,-0.47528,-0.120973,15,2
5.04113,-5.96537,0.683301,13,10
4.90655,-5.80817,-1.20423,36,3
3.7219,-4.40739,0.708305,82,11
11.6986,-13.8582,-2.2268,2,4
3.7098,-4.39617,0.911074,89,12
3.82448,-4.53368,-0.518925,15,5
3.69007,-4.37434,1.11242,51,13
4.41114,-5.23098,-0.358606,67,6
3.709,-4.3999,1.32856,57,14
3.71886,-4.41316,-0.100735,9,7
5.31448,-6.30891,2.21031,32,15
3.99617,-4.75738,0.108449,63,8
0.325818,-0.38802,-0.116975,16,1
0.410136,-0.488781,-0.124026,14,2
3.51859,-4.19477,0.479008,41,10
4.40292,-5.25092,-1.08534,6,3
3.74986,-4.47208,0.716592,55,11
8.34744,-9.95867,-1.59551,39,4
5.11282,-6.10187,1.26086,63,12
3.81375,-4.55311,-0.519623,15,5
3.67905,-4.39386,1.11394,52,13
4.50347,-5.38036,-0.367712,35,6
3.67909,-4.39702,1.32361,61,14
6.42005,-7.67285,-0.174629,35,7
3.68611,-4.40697,1.53946,29,15
3.99663,-4.7935,0.108938,39,8
0.339366,-0.407175,-0.122373,15,1
3.85841,-4.631,0.3159,33,9
0.395777,-0.475195,-0.12021,15,2
3.47204,-4.16876,0.47465,73,10
3.9523,-4.74707,-0.978341,11,3
3.39946,-4.08451,0.652489,73,11
6.15635,-7.39958,-1.18189,8,4
3.52414,-4.23732,0.872904,80,12
4.25176,-5.114,-0.581852,33,5
5.59916,-6.73704,1.70278,19,13
4.26036,-5.12799,-0.349395,30,6
3.68364,-4.43382,1.33081,45,14
5.82079,-7.00869,-0.159026,100,7
3.65142,-4.39816,1.53169,122,15
0.337871,-0.408416,-0.122373,15,1
3.7574,-4.54353,0.308992,22,9
0.396534,-0.479669,-0.120973,15,2
3.46309,-4.18913,0.475522,43,10
8.36429,-10.1215,-2.07964,12,3
3.37689,-4.08776,0.651026,66,11
3.65552,-4.42662,-0.704892,20,4
3.62428,-4.39036,0.901688,100,12
4.25201,-5.1526,-0.584466,13,5
4.2606,-5.16668,-0.350965,47,6
3.70828,-4.49691,1.34566,28,14
5.78362,-7.01609,-0.158712,33,7
3.68319,-4.46965,1.55188,55,15
3.94361,-4.80103,0.108449,13,8
0.336372,-0.409652,-0.122373,15,1
3.80915,-4.64064,0.314644,32,9
0.394858,-0.48105,-0.120973,15,2
5.02117,-6.11941,0.69254,39,10
4.76427,-5.80838,-1.18984,57,3
3.37698,-4.11853,0.653951,57,11
3.6292,-4.42771,-0.702942,12,4
3.61192,-4.4082,0.902627,75,12
3.93346,-4.80062,-0.54298,13,5
4.211,-5.14118,1.29178,22,13
4.28556,-5.23406,-0.354524,37,6
3.71152,-4.5346,1.35286,30,14
5.39823,-6.5977,-0.148799,89,7
3.65577,-4.46967,1.54722,49,15
8.16837,-10.0154,0.22559,13,8
0.33494,-0.410823,-0.122373,15,1
3.7841,-4.64307,0.313911,105,9
0.40806,-0.500687,-0.125552,14,2
3.39905,-4.1721,0.470815,15,10
4.3136,-5.29654,-1.0819,22,3
3.54055,-4.34889,0.688562,73,11
3.61874,-4.44651,-0.703917,31,4
3.46437,-4.25835,0.869463,67,12
8.64059,-10.6209,-1.19787,2,5
3.65667,-4.49632,1.12654,40,13
3.73936,-4.59965,-0.310666,28,6
3.69076,-4.54148,1.35106,39,14
4.04115,-4.97441,-0.11187,61,7
3.67425,-4.52439,1.56171,49,15
8.14972,-10.0641,0.226044,38,8
0.333504,-0.41199,-0.122373,15,1
3.77666,-4.66712,0.314644,45,9
0.39149,-0.483795,-0.120973,15,2
3.41579,-4.22267,0.475173,5,10
4.30006,-5.31771,-1.08315,40,3
3.3469,-4.14046,0.653707,30,11
3.59321,-4.44676,-0.701967,19,4
3.5972,-4.45328,0.906694,75,12
3.88107,-4.80472,-0.540366,5,5
3.67055,-4.54572,1.1357,13,13
3.73583,-4.62821,-0.311713,37,6
3.7067,-4.59376,1.36275,57,14
3.99614,-4.95424,-0.111102,45,7
5.0784,-6.29822,2.16787,68,15
8.07945,-10.0488,0.225066,51,8
0.332064,-0.413152,-0.122373,15,1
3.73658,-4.65069,0.312655,34,9
0.394717,-0.49128,-0.122499,15,2
3.40352,-4.23767,0.475522,3,10
4.26539,-5.31267,-1.07909,33,3
3.76731,-4.69397,0.739016,20,11
3.56525,-4.44379,-0.69953,36,4
3.45186,-4.30401,0.873843,100,12
5.65556,-7.05172,-0.790851,27,5
3.68968,-4.60382,-0.309201,18,6
3.77593,-4.71313,1.39425,34,14
5.6651,-7.07373,-0.158189,92,7
8.01438,-10.0394,0.224229,27,8
0.33062,-0.414308,-0.122373,15,1
3.7552,-4.70742,0.315586,18,9
0.393,-0.492655,-0.122499,15,2
5.02717,-6.30419,0.705439,20,10
4.16802,-5.22867,-1.05906,38,3
3.27462,-4.10939,0.645176,24,11
3.55837,-4.46708,-0.701236,43,4
3.4602,-4.34539,0.879788,87,12
5.61974,-7.05739,-0.789282,10,5
3.42231,-4.29935,1.06815,31,13
4.00935,-5.03864,-0.337462,42,6
5.61673,-7.06373,-0.157525,92,7
5.17374,-6.50895,2.22791,9,15
7.98799,-10.0783,0.224473,31,8
0.329171,-0.41546,-0.122373,15,1
6.29572,-7.94892,0.531419,73,9
0.386402,-0.487868,-0.120973,15,2
5.00142,-6.31701,0.704916,84,10
4.17303,-5.27261,-1.06501,66,3
3.26395,-4.12546,0.645908,24,11
3.58339,-4.53085,-0.70928,43,4
3.39355,-4.29236,0.866647,103,12
3.83178,-4.84666,-0.54054,12,5
3.39146,-4.29125,1.06319,33,13
3.46394,-4.3861,1.29032,69,14
5.53628,-7.01266,-0.155955,23,7
0.327719,-0.416606,-0.122373,15,1
6.25204,-7.94777,0.529954,56,9
0.394405,-0.50156,-0.124026,14,2
4.97811,-6.33287,0.704741,65,10
3.66152,-4.65965,-0.938607,60,3
3.5242,-4.48651,0.700505,60,11
3.61904,-4.60891,-0.719517,48,4
6.83128,-8.70287,-0.967952,17,5
3.48553,-4.44207,1.09753,33,13
4.16637,-5.31166,-0.353791,20,6
3.44259,-4.3905,1.28807,49,14
5.49078,-7.00266,-0.155326,100,7
3.48612,-4.46043,0.0988155,1,8
0.302341,-0.386978,-0.113375,16,1
6.21811,-7.96168,0.529431,24,9
0.366072,-0.468889,-0.11563,16,2
5.12513,-6.56696,0.728796,86,10
