x, y, z, intensity, ring
1.81146,19.982,3.17781,8,12
1.10192,12.1315,-1.06574,26,5
2.29019,25.1651,4.91181,12,13
1.19065,13.0578,-0.687171,26,6
2.14069,23.4315,5.43212,24,14
1.34158,14.6846,-0.257388,35,7
2.07423,22.6605,6.09726,15,15
0.0536347,0.577068,-0.155291,12,0
1.26119,13.5694,0.237876,9,8
0.0598064,0.642254,-0.148918,24,1
1.56104,16.7323,0.88071,15,9
0.774881,8.29003,-1.61844,21,2
1.51997,16.2307,1.42622,12,10
0.9281,9.91056,-1.57655,25,3
1.33957,14.2776,1.76077,23,11
1.12211,11.9373,-1.47218,33,4
1.31946,14.0106,2.22888,11,12
1.14744,12.1613,-1.0687,28,5
2.38654,25.2941,4.93852,16,13
1.23489,13.0638,-0.687694,3,6
2.2169,23.4088,5.42852,36,14
1.4644,15.4343,-0.270617,89,7
2.51968,26.5072,7.13461,13,15
0.0507338,0.52689,-0.141833,14,0
1.30201,13.4973,0.23669,34,8
0.0627976,0.649801,-0.150717,23,1
1.45084,14.9853,0.789017,29,9
0.799528,8.2581,-1.61272,26,2
1.81614,18.7243,1.64585,27,10
0.958865,9.86794,-1.57029,27,3
1.38844,14.263,1.75955,42,11
1.16705,11.9669,-1.47633,36,4
1.17999,12.0561,-1.05981,23,5
2.1719,22.1906,4.33404,11,13
1.37949,14.0691,-0.740868,42,6
2.31117,23.5289,5.45821,24,14
1.51083,15.3535,-0.269291,28,7
2.60954,26.4714,7.12736,13,15
0.050358,0.503634,-0.135621,15,0
1.34773,13.4787,0.236445,52,8
0.063706,0.636004,-0.147568,24,1
1.36255,13.5791,0.715223,33,9
0.825665,8.21409,-1.6047,26,2
1.54182,15.3118,1.34638,36,10
0.992249,9.83684,-1.56591,26,3
1.43981,14.2738,1.7615,3,11
1.20401,11.9154,-1.47048,36,4
1.52228,15.0387,2.39407,49,12
1.23393,12.1689,-1.0701,38,5
2.17266,21.3895,4.1791,23,13
1.39102,13.6706,-0.720143,61,6
2.56339,25.1488,5.83613,7,14
1.64229,16.1121,-0.282694,100,7
2.24822,22.0187,5.93058,19,15
0.0545028,0.526514,-0.141833,14,0
1.54355,14.8859,0.261228,79,8
0.0678485,0.653211,-0.151617,23,1
1.41077,13.5822,0.715642,56,9
0.852303,8.19163,-1.60089,26,2
2.7576,26.4591,2.32741,12,10
1.02351,9.80385,-1.56122,28,3
1.49749,14.3198,1.76784,42,11
1.23754,11.8142,-1.45853,37,4
1.59122,15.1905,2.4191,13,12
1.37162,13.072,-1.14993,23,5
3.01072,28.6451,5.59872,12,13
1.46026,13.8702,-0.730924,26,6
2.30249,21.8334,5.0686,35,14
2.14141,20.2721,5.46212,8,15
0.0555177,0.518637,-0.139762,14,0
0.0702219,0.65492,-0.152067,23,1
1.67401,15.5869,0.82157,28,9
0.87774,8.15933,-1.59516,26,2
1.68688,15.6552,1.37758,18,10
1.05072,9.7513,-1.55339,21,3
1.54284,14.295,1.7654,27,11
1.27458,11.7902,-1.4561,39,4
2.24668,20.7486,3.30546,26,12
1.43615,13.2415,-1.16527,30,5
2.2166,20.4374,3.99592,3,13
2.38858,21.9516,5.09784,40,14
1.6217,14.8796,-0.261263,100,7
2.37463,21.7529,5.86329,15,15
0.0635969,0.576056,-0.155291,12,0
1.51782,13.7262,0.241053,17,8
0.0710061,0.641113,-0.148918,24,1
0.901761,8.12905,-1.58982,26,2
2.09169,18.8258,1.65718,38,10
1.08191,9.72205,-1.54933,27,3
1.5947,14.3073,1.76759,15,11
1.32564,11.8745,-1.46706,34,4
1.68143,15.0377,2.39658,45,12
1.38064,12.3476,-1.08701,19,5
2.29054,20.4529,4.0005,22,13
1.57223,14.0167,-0.739193,26,6
2.43604,21.6836,5.03755,39,14
1.63785,14.5559,-0.255678,25,7
2.4564,21.7963,5.87726,11,15
0.0546729,0.479858,-0.12941,15,0
0.0730221,0.638925,-0.148468,24,1
0.92924,8.11806,-1.58829,26,2
1.62979,14.2162,1.25191,2,10
1.11224,9.68682,-1.54432,33,3
1.65802,14.418,1.78197,23,11
1.35005,11.7219,-1.44878,30,4
1.73617,15.0513,2.3997,12,12
1.48149,12.8435,-1.13111,26,5
2.36192,20.4448,4.0005,22,13
1.51326,13.0787,-0.689997,35,6
2.51306,21.6866,5.04025,24,14
1.69141,14.5739,-0.256097,93,7
2.36273,20.3272,5.48334,10,15
0.0563475,0.479665,-0.12941,15,0
1.71874,14.609,0.25676,45,8
0.0761643,0.646408,-0.150267,24,1
1.61524,13.6881,0.722341,28,9
0.952048,8.06797,-1.57914,30,2
1.68314,14.2421,1.25469,2,10
1.14256,9.65345,-1.53963,26,3
2.47896,20.9134,2.58582,12,11
1.39845,11.7802,-1.45658,24,4
1.51032,12.7037,-1.11925,28,5
2.44071,20.4988,4.01271,28,13
1.58538,13.2954,-0.701721,58,6
2.54715,21.3294,4.95927,41,14
1.83727,15.3622,-0.270059,100,7
2.56968,21.4544,5.78978,28,15
1.81857,15.0059,0.263845,34,8
0.0805332,0.663549,-0.154316,22,1
1.69676,13.96,0.736995,54,9
0.979733,8.0607,-1.57837,26,2
1.73188,14.2282,1.254,2,10
1.16358,9.54548,-1.52305,43,3
1.70234,13.945,1.72494,42,11
1.43474,11.7358,-1.45171,30,4
1.51059,12.3384,-1.08753,26,5
1.8103,14.765,2.89152,11,13
2.63181,21.4036,4.97862,38,14
1.79239,14.5558,-0.255992,100,7
2.62138,21.2574,5.73905,17,15
0.0654257,0.525268,-0.141833,14,0
1.85287,14.8546,0.261297,81,8
0.0794675,0.636192,-0.148018,24,1
1.76457,14.1066,0.745055,33,9
1.00519,8.0358,-1.57417,23,2
1.72012,13.7318,1.21077,2,10
1.19198,9.50216,-1.51679,31,3
1.81089,14.4156,1.78392,42,11
1.46529,11.648,-1.44147,27,4
1.61168,12.7936,-1.12814,21,5
1.64362,13.0106,-0.687276,35,6
2.71385,21.4522,4.99211,38,14
1.8364,14.4959,-0.255049,100,7
2.68389,21.1561,5.71421,27,15
0.0643131,0.502043,-0.135621,15,0
1.90802,14.8738,0.261751,58,8
0.0816876,0.63591,-0.148018,24,1
1.81303,14.0944,0.744741,15,9
1.03273,8.02835,-1.57341,23,2
1.21503,9.41957,-1.50427,36,3
1.82,14.0903,1.74444,42,11
1.48888,11.5109,-1.42514,38,4
1.6228,12.5291,-1.10531,42,5
1.97545,15.231,2.9854,17,13
2.78017,21.3769,4.97682,38,14
1.91385,14.6956,-0.25868,25,7
2.7957,21.4378,5.79289,26,15
0.0756473,0.574597,-0.155291,12,0
1.94058,14.7204,0.259168,49,8
0.0841617,0.637553,-0.148468,24,1
1.85819,14.0764,0.744113,16,9
1.05663,7.99355,-1.56731,23,2
1.81621,13.7215,1.21094,21,10
1.23986,9.35457,-1.49458,33,3
2.00237,15.0874,1.86874,28,11
1.54037,11.6063,-1.43757,24,4
2.02122,15.209,2.43005,32,12
1.67519,12.5885,-1.11106,28,5
1.96586,14.753,2.89305,3,13
1.72173,12.9038,-0.682252,48,6
2.87708,21.5627,5.02226,39,14
1.97448,14.7784,-0.26025,100,7
2.82272,21.0991,5.70385,20,15
0.0677289,0.501593,-0.135621,15,0
1.99662,14.7674,0.260111,72,8
0.0875828,0.646926,-0.150717,23,1
1.90888,14.0998,0.745683,45,9
1.07918,7.96082,-1.56158,26,2
1.87429,13.8081,1.21913,28,10
1.27114,9.35236,-1.49489,36,3
2.00474,14.7306,1.82536,48,11
1.55341,11.4143,-1.41442,38,4
2.04842,15.032,2.40283,41,12
1.72905,12.6717,-1.11891,42,5
2.04108,14.939,2.93083,30,13
1.75341,12.8169,-0.67796,48,6
2.66488,19.4794,4.53906,16,14
2.03081,14.8253,-0.261193,100,7
2.94149,21.4456,5.80014,13,15
0.0741594,0.535811,-0.144939,14,0
2.04174,14.7329,0.259622,13,8
0.088924,0.640842,-0.149367,24,1
1.10314,7.9397,-1.55815,26,2
1.9165,13.7762,1.21687,13,10
1.30405,9.36179,-1.49708,33,3
2.09581,15.0266,1.86289,44,11
1.60395,11.4855,-1.42392,24,4
2.19171,15.6742,2.50671,15,12
1.76996,12.6419,-1.11681,26,5
2.08026,14.8583,2.91632,12,13
1.79978,12.8387,-0.679425,81,6
2.73529,19.4873,4.54311,14,14
1.96177,13.9587,-0.246044,35,7
3.09709,22.0091,5.95543,16,15
0.0712291,0.501108,-0.135621,15,0
2.08359,14.6584,0.258435,52,8
0.0919843,0.646315,-0.150717,23,1
2.04445,14.3472,0.759499,3,9
1.13001,7.92005,-1.55509,26,2
1.97403,13.8184,1.22123,21,10
1.335,9.33348,-1.49332,32,3
2.12435,14.8522,1.84218,32,11
1.63278,11.4012,-1.41417,39,4
1.99491,13.9125,2.22606,10,12
1.82596,12.7185,-1.12413,42,5
2.99758,20.8533,4.09514,25,13
1.84655,12.83,-0.679321,87,6
2.82977,19.6373,4.58045,31,14
2.78106,19.2754,5.21831,12,15
0.0796629,0.546736,-0.148044,13,0
2.04233,13.9997,0.246952,64,8
0.0915359,0.626691,-0.146218,25,1
1.15254,7.88109,-1.54822,26,2
1.92613,13.155,1.16318,67,10
1.36614,9.31899,-1.49176,30,3
2.13871,14.5713,1.8083,24,11
1.6379,11.1457,-1.38322,33,4
2.03755,13.8484,2.21699,16,12
1.86803,12.6963,-1.12274,54,5
3.3562,22.7831,4.47638,13,13
1.85926,12.6061,-0.667807,78,6
2.81461,19.0605,4.44818,26,14
2.17186,14.6901,-0.259203,23,7
2.85169,19.2651,5.21831,10,15
0.0770072,0.515884,-0.139762,14,0
2.17838,14.5759,0.257248,73,8
0.0948763,0.634077,-0.148018,24,1
2.13878,14.2769,0.756569,69,9
1.18004,7.87702,-1.54822,23,2
1.96938,13.1304,1.16161,22,10
1.39602,9.29659,-1.48894,31,3
2.19162,14.5775,1.81,52,11
1.66321,11.0496,-1.37201,35,4
2.2572,14.9781,2.39908,13,12
1.91679,12.7192,-1.12535,35,5
3.16007,20.9445,4.11728,6,13
1.90654,12.6213,-0.668958,48,6
2.88404,19.0698,4.45268,13,14
2.2288,14.72,-0.259866,23,7
2.93369,19.3524,5.24471,22,15
0.0758888,0.496515,-0.134586,15,0
2.27462,14.8647,0.262484,16,8
0.0997452,0.651078,-0.152067,23,1
2.19731,14.3427,0.760442,44,9
1.20336,7.84569,-1.54288,23,2
2.03335,13.2416,1.17207,52,10
1.42756,9.2858,-1.488,28,3
2.12804,13.8261,1.71763,31,11
1.69451,10.9967,-1.36616,31,4
1.95662,12.6829,-1.12274,40,5
3.22478,20.879,4.10659,23,13
1.98294,12.8238,-0.680053,68,6
2.96281,19.1386,4.47113,39,14
2.26078,14.6038,-0.257947,26,7
3.03305,19.5698,5.30631,16,15
0.0794127,0.507699,-0.137692,14,0
2.30226,14.7188,0.260041,45,8
0.100095,0.639192,-0.149367,24,1
2.27273,14.4968,0.769025,20,9
1.22587,7.81041,-1.53678,23,2
2.07522,13.2069,1.16963,55,10
1.45865,9.28297,-1.48832,27,3
2.17389,13.819,1.71763,7,11
1.72324,10.942,-1.36006,34,4
2.28126,14.4687,2.31992,48,12
2.01238,12.7489,-1.12919,28,5
3.29523,20.876,4.10812,25,13
2.0111,12.7264,-0.675239,61,6
3.01529,19.0594,4.45493,26,14
2.38964,15.0876,-0.266638,100,7
3.12918,19.7346,5.35393,12,15
0.0823154,0.515064,-0.139762,14,0
2.23137,13.9465,0.246533,61,8
0.102325,0.638839,-0.149367,24,1
2.29897,14.3369,0.760965,29,9
1.24928,7.79079,-1.53372,23,2
2.11491,13.1744,1.16736,47,10
1.48509,9.24076,-1.48237,23,3
2.44788,15.2146,1.89214,45,11
1.76206,10.9398,-1.36055,30,4
2.31949,14.3846,2.30772,58,12
2.05242,12.7283,-1.12797,42,5
3.41,21.124,4.15925,25,13
2.0638,12.7706,-0.67796,68,6
3.06127,18.9218,4.42524,42,14
2.33391,14.41,-0.254805,100,7
3.03417,18.7129,5.07958,3,15
0.087228,0.533839,-0.144939,14,0
2.40594,14.7083,0.260146,16,8
0.10172,0.62117,-0.145318,25,1
2.31022,14.0923,0.748404,36,9
1.27583,7.78251,-1.53296,23,2
2.16314,13.1807,1.16858,27,10
1.51189,9.20238,-1.47705,27,3
2.38918,14.5263,1.80757,40,11
1.80314,10.9512,-1.36274,33,4
2.36775,14.3647,2.30584,48,12
2.08938,12.6759,-1.12396,28,5
3.46677,21.0094,4.13903,25,13
2.11553,12.8066,-0.680263,35,6
3.1203,18.8687,4.41534,35,14
2.2565,13.6304,-0.241157,44,7
3.09822,18.6945,5.07751,3,15
0.0890908,0.533531,-0.144939,14,0
2.33956,13.9956,0.247685,20,8
0.104531,0.624655,-0.146218,25,1
2.33189,13.9348,0.740449,46,9
1.30007,7.76058,-1.52953,21,2
2.20617,13.1553,1.16702,35,10
1.54172,9.18341,-1.47486,22,3
3.15644,18.7816,2.33843,20,11
1.84004,10.937,-1.36177,28,4
2.43078,14.4483,2.32055,45,12
2.14123,12.7137,-1.12797,40,5
3.51985,20.8771,4.11537,19,13
2.16122,12.8051,-0.680577,48,6
3.27738,19.3976,4.54176,20,14
2.29269,13.5696,-0.240215,100,7
3.16083,18.688,5.07855,11,15
0.0896535,0.5256,-0.142868,14,0
2.36948,13.8912,0.245974,2,8
0.109226,0.639672,-0.149817,24,1
2.38456,13.9502,0.741705,66,9
1.32185,7.72503,-1.52342,23,2
2.54843,14.8777,1.32058,11,10
1.56716,9.14904,-1.47017,20,3
2.46116,14.3532,1.78807,40,11
1.87865,10.9445,-1.36347,26,4
2.47652,14.4125,2.31617,42,12
2.19877,12.7827,-1.13477,33,5
3.66328,21.2968,4.20047,9,13
2.22061,12.8963,-0.68581,48,6
3.2831,19.0467,4.46213,22,14
2.30298,13.3467,-0.23641,100,7
3.21125,18.5912,5.05525,14,15
0.0867601,0.498654,-0.135621,15,0
2.38193,13.676,0.242309,23,8
0.114136,0.654645,-0.153417,23,1
2.44389,14.0028,0.74495,21,9
1.34476,7.70514,-1.52037,26,2
2.59295,14.8416,1.31814,11,10
1.59398,9.11433,-1.46548,22,3
2.5092,14.3327,1.7866,44,11
1.92301,10.9731,-1.36786,30,4
2.49199,14.2053,2.28426,27,12
2.23322,12.7302,-1.13076,38,5
3.94236,22.4499,4.43058,20,13
2.34031,13.3133,-0.70842,55,6
3.42351,19.4555,4.56066,49,14
2.33464,13.2539,-0.234909,23,7
3.50961,19.904,5.41553,24,15
0.0878245,0.494544,-0.134586,15,0
2.4237,13.6341,0.241716,53,8
0.115055,0.646568,-0.151617,23,1
2.37051,13.308,0.70842,8,9
1.36752,7.6772,-1.51579,23,2
1.62023,9.0776,-1.46047,22,3
2.59727,14.5369,1.81317,44,11
1.9613,10.9663,-1.36786,30,4
2.27344,12.6988,-1.12867,28,5
3.40253,18.9865,3.7494,29,13
2.36525,13.1851,-0.702035,84,6
3.39222,18.891,4.43109,52,14
2.41131,13.4149,-0.237911,99,7
3.54382,19.6958,5.36221,32,15
0.0964386,0.532252,-0.144939,14,0
2.46842,13.6099,0.241437,33,8
0.113134,0.623154,-0.146218,25,1
1.3922,7.66079,-1.5135,23,2
2.77567,15.2584,1.35684,36,10
1.64554,9.0369,-1.45484,22,3
3.38234,18.5566,2.31601,40,11
1.9928,10.9223,-1.36323,20,4
2.57871,14.1336,2.2755,25,12
2.32635,12.7378,-1.13285,42,5
3.46242,18.9398,3.74253,27,13
2.4163,13.2043,-0.7035,42,6
3.46587,18.9212,4.44098,32,14
2.44533,13.3498,-0.236899,100,7
3.53177,19.2621,5.2473,14,15
0.0912749,0.493919,-0.134586,15,0
2.52626,13.6704,0.242658,28,8
0.116617,0.630441,-0.148018,24,1
2.45013,13.2326,0.705279,62,9
1.41393,7.62886,-1.50815,26,2
2.73477,14.7412,1.31169,54,10
1.67225,9.01392,-1.45202,25,3
3.429,18.4653,2.30601,29,11
2.01776,10.8551,-1.35567,15,4
3.47393,18.6708,3.00792,15,12
2.39086,12.8374,-1.14244,28,5
3.57841,19.2138,3.79901,35,13
2.47654,13.2846,-0.70821,74,6
2.52312,13.5083,-0.239866,100,7
3.57201,19.1053,5.20796,21,15
0.0893389,0.474628,-0.12941,15,0
2.59358,13.7657,0.244508,45,8
0.119901,0.635774,-0.149367,24,1
2.53632,13.4359,0.716584,29,9
1.4323,7.58747,-1.5009,23,2
2.86614,15.1686,1.35057,24,10
1.70077,8.9925,-1.44952,25,3
2.76898,14.6264,1.8278,24,11
2.04825,10.809,-1.3508,17,4
3.58508,18.9012,3.04703,18,12
2.43194,12.8094,-1.14069,21,5
3.64766,19.2128,3.8013,17,13
2.53296,13.3288,-0.711036,48,6
3.56799,18.7574,4.40814,26,14
2.60954,13.7057,-0.243531,100,7
3.65966,19.2028,5.23798,10,15
0.0947209,0.493269,-0.134586,15,0
2.63521,13.7231,0.243915,22,8
0.122855,0.639179,-0.150267,24,1
2.5749,13.3839,0.714281,60,9
1.45601,7.56097,-1.49671,23,2
2.73279,14.1779,1.26324,13,10
1.72923,8.96293,-1.44577,25,3
3.58866,18.6007,2.326,30,11
2.08145,10.7784,-1.34787,17,4
2.84578,14.7226,2.37499,28,12
2.48382,12.838,-1.14401,26,5
3.88229,20.0474,3.96921,48,13
2.58332,13.3273,-0.711455,65,6
3.53723,18.2315,4.28757,25,14
2.58613,13.3294,-0.237004,36,7
3.69315,19.0173,5.19088,21,15
3.48253,17.7835,0.316307,22,8
0.122948,0.627251,-0.147568,24,1
2.61315,13.3317,0.711978,47,9
1.48013,7.54428,-1.49442,23,2
2.78226,14.1683,1.26324,33,10
1.75441,8.92583,-1.44076,26,3
2.86668,14.5712,1.82341,28,11
2.11288,10.7298,-1.34276,19,4
2.89944,14.7242,2.37687,54,12
2.5475,12.925,-1.15255,23,5
2.83394,14.3651,2.84611,6,13
2.63253,13.3319,-0.712188,61,6
3.93336,19.9014,4.68348,31,14
2.72221,13.7734,-0.245067,96,7
3.75951,19.0043,5.19088,15,15
0.0989171,0.496385,-0.135621,15,0
3.93306,19.7369,0.351282,24,8
0.124265,0.623017,-0.146668,24,1
2.7152,13.6006,0.726842,55,9
1.50414,7.52752,-1.49213,21,2
3.65305,18.2651,1.62964,30,10
1.77354,8.86766,-1.43231,22,3
2.92277,14.6005,1.82828,44,11
2.13948,10.678,-1.33715,17,4
2.96908,14.805,2.39157,50,12
2.53379,12.623,-1.1264,26,5
2.86302,14.2632,2.82779,15,13
2.66414,13.2605,-0.708838,65,6
4.01893,19.9857,4.70643,42,14
2.74305,13.6286,-0.242658,97,7
3.8861,19.2903,5.27266,45,15
0.0997951,0.492268,-0.134586,15,0
3.2468,16.0014,0.284998,17,8
0.12799,0.630219,-0.148468,24,1
2.68985,13.2329,0.707687,56,9
1.52362,7.49555,-1.48678,26,2
3.68897,18.1319,1.61883,50,10
1.79975,8.83819,-1.42856,22,3
2.97847,14.6136,1.83121,44,11
2.16405,10.6082,-1.32935,16,4
2.86465,14.03,2.26799,31,12
2.58201,12.6458,-1.12919,26,5
2.92104,14.2935,2.8358,26,13
2.70241,13.2119,-0.706745,42,6
3.74121,18.2743,4.30646,12,14
2.7882,13.6072,-0.242449,17,7
3.97941,19.4034,5.30734,9,15
0.0976086,0.472997,-0.12941,15,0
3.31558,16.0527,0.286115,42,8
0.128611,0.622135,-0.146668,24,1
2.74574,13.2703,0.710199,44,9
1.54501,7.46712,-1.4822,26,2
3.74092,18.0642,1.61395,37,10
1.82739,8.81637,-1.42606,22,3
3.02947,14.6031,1.83121,20,11
2.18976,10.5462,-1.32253,24,4
2.99238,14.399,2.32931,32,12
2.68168,12.904,-1.15307,26,5
2.93853,14.1275,2.80489,26,13
2.73996,13.1614,-0.704547,71,6
3.80776,18.2745,4.30961,40,14
2.89488,13.8812,-0.24751,96,7
3.98357,19.0849,5.224,14,15
0.099259,0.472653,-0.12941,15,0
3.36625,16.0156,0.285661,43,8
0.13359,0.635031,-0.149817,24,1
2.83977,13.4874,0.722341,18,9
1.56702,7.44247,-1.47839,26,2
3.79697,18.0179,1.61099,27,10
1.85244,8.78288,-1.42168,26,3
3.07796,14.5808,1.82975,28,11
2.22041,10.5093,-1.31887,22,4
3.06592,14.4987,2.34714,58,12
2.74525,12.9822,-1.16091,40,5
2.98295,14.0942,2.80031,20,13
2.79499,13.1947,-0.70685,55,6
3.87597,18.2821,4.31456,25,14
2.86818,13.5169,-0.241192,100,7
4.05498,19.0936,5.23022,10,15
0.100908,0.472304,-0.12941,15,0
3.40959,15.945,0.284614,26,8
0.134991,0.63075,-0.148918,24,1
2.87973,13.4442,0.720562,17,9
1.59258,7.43503,-1.47801,26,2
2.91013,13.5745,1.2146,57,10
1.87521,8.73967,-1.41573,26,3
3.91908,18.2498,2.29188,4,11
2.24999,10.4685,-1.31473,17,4
2.95158,13.7212,2.22293,25,12
2.66401,12.3843,-1.10827,19,5
3.01808,14.0184,2.78734,40,13
2.83599,13.1614,-0.705593,68,6
3.92127,18.1827,4.29432,34,14
2.99973,13.8978,-0.248173,100,7
4.11712,19.0585,5.22452,7,15
0.106658,0.490827,-0.134586,15,0
3.40446,15.6536,0.279622,40,8
0.135534,0.622658,-0.147118,24,1
2.92324,13.4184,0.719724,17,9
1.61685,7.42176,-1.47648,26,2
3.86919,17.7457,1.58902,27,10
1.90108,8.71184,-1.41229,26,3
4.10474,18.7945,2.36207,20,11
2.27974,10.4296,-1.31083,16,4
2.61057,11.9331,-1.0687,26,5
3.10143,14.165,2.81863,22,13
2.87849,13.1359,-0.704756,61,6
3.9939,18.2108,4.30421,28,14
3.04694,13.8814,-0.248069,100,7
4.18362,19.0441,5.22452,21,15
0.107538,0.486678,-0.133551,15,0
3.44656,15.585,0.27861,45,8
0.138548,0.625987,-0.148018,24,1
3.26032,14.7185,0.790064,29,9
1.63637,7.38731,-1.47076,21,2
3.98329,17.9675,1.61012,37,10
1.92805,8.68972,-1.40979,25,3
4.163,18.7471,2.35793,30,11
2.30235,10.3595,-1.30303,19,4
4.30741,19.3654,3.14214,8,12
2.65913,11.9551,-1.07149,26,5
3.13038,14.0621,2.80031,30,13
2.93475,13.1725,-0.707268,71,6
4.30089,19.2885,4.56246,3,14
3.11715,13.9682,-0.249814,100,7
0.112623,0.501379,-0.137692,14,0
0.141588,0.629301,-0.148918,24,1
3.24412,14.407,0.773944,51,9
1.65568,7.35283,-1.46503,21,2
4.01794,17.8291,1.59896,27,10
1.95751,8.67908,-1.40916,22,3
4.11215,18.2174,2.29309,19,11
2.32974,10.3127,-1.29815,19,4
4.39371,19.4331,3.1556,6,12
2.72325,12.0448,-1.08038,26,5
3.17078,14.0128,2.79268,9,13
2.92865,12.9323,-0.694917,48,6
4.36087,19.2411,4.55481,14,14
3.17739,14.008,-0.250721,21,7
5.47076,24.0991,6.62163,15,15
0.114372,0.500983,-0.137692,14,0
3.68756,16.1396,0.288977,45,8
0.14335,0.626904,-0.148468,24,1
3.25384,14.2184,0.764419,24,9
1.67871,7.33552,-1.46274,23,2
4.15088,18.1237,1.62667,57,10
1.98073,8.64139,-1.40416,16,3
4.14109,18.052,2.27408,9,11
2.35285,10.2484,-1.29108,19,4
5.6417,24.5542,3.99033,10,12
2.79027,12.144,-1.09014,35,5
3.21879,13.9979,2.79192,36,13
2.9711,12.9104,-0.694289,84,6
4.43107,19.239,4.55796,35,14
3.10679,13.4785,-0.241437,100,7
5.51011,23.886,6.56831,15,15
0.109136,0.470471,-0.12941,15,0
3.71087,15.9844,0.286429,29,8
0.147742,0.63589,-0.150717,23,1
3.1943,13.7484,0.739716,27,9
1.69897,7.30667,-1.45816,23,2
4.164,17.8937,1.60733,27,10
2.00371,8.60364,-1.39915,16,3
4.46318,19.1491,2.41423,20,11
2.36787,10.1512,-1.27987,19,4
3.27213,14.0279,2.28144,16,12
2.81859,12.074,-1.08474,30,5
4.60131,19.6951,3.93143,13,13
3.06071,13.0905,-0.704547,61,6
4.60075,19.6617,4.66189,15,14
3.05533,13.0573,-0.234072,22,7
5.65933,24.1666,6.65061,7,15
0.12407,0.526497,-0.144939,14,0
3.85741,16.3691,0.293549,40,8
0.149403,0.6335,-0.150267,24,1
3.24686,13.7566,0.740763,24,9
1.72041,7.2835,-1.45473,21,2
4.21589,17.8345,1.60332,40,10
2.02042,8.54697,-1.39102,32,3
4.36122,18.4349,2.326,15,11
2.38597,10.0776,-1.27158,31,4
4.48883,18.9448,3.08364,12,12
2.86072,12.0641,-1.08474,40,5
4.64621,19.5938,3.91426,18,13
3.12071,13.1502,-0.708315,71,6
4.6173,19.4416,4.6133,39,14
5.72176,24.0546,6.62525,15,15
0.117728,0.492263,-0.135621,15,0
3.90569,16.3186,0.292886,17,8
0.151613,0.632975,-0.150267,24,1
3.40007,14.1842,0.764419,8,9
1.73951,7.25675,-1.45053,21,2
4.32241,18.018,1.6211,30,10
2.04886,8.5341,-1.39008,20,3
4.33881,18.0586,2.28042,24,11
2.41788,10.0557,-1.26988,26,4
4.57573,19.0154,3.09772,13,12
2.90585,12.0759,-1.08666,30,5
4.73389,19.6576,3.93028,18,13
3.15301,13.083,-0.705279,68,6
4.68468,19.4235,4.61285,10,14
3.33035,13.7976,-0.247754,8,7
5.8406,24.1791,6.66511,7,15
0.113974,0.469322,-0.12941,15,0
3.8611,15.8871,0.285382,19,8
0.146914,0.604039,-0.143519,25,1
1.76065,7.23347,-1.4471,23,2
4.37491,17.9602,1.61726,23,10
2.07021,8.49235,-1.38445,26,3
4.46346,18.296,2.31235,29,11
2.44496,10.0144,-1.26574,24,4
4.65661,19.0588,3.10741,27,12
2.9598,12.114,-1.09102,40,5
4.64486,18.9964,3.8013,16,13
3.19439,13.0544,-0.704337,55,6
4.75291,19.4089,4.6133,36,14
3.37373,13.7665,-0.247405,100,7
5.79474,23.6276,6.51862,3,15
0.124861,0.506435,-0.139762,14,0
3.38768,13.7301,0.246847,42,8
0.153693,0.622441,-0.148018,24,1
3.38643,13.7044,0.739821,66,9
1.77742,7.19297,-1.44023,26,2
4.43661,17.941,1.61691,40,10
2.0951,8.4659,-1.38132,25,3
4.56453,18.4306,2.33136,20,11
2.47751,9.99621,-1.26452,19,4
4.70789,18.9811,3.0974,6,12
3.00159,12.1017,-1.09084,33,5
4.66007,18.7742,3.76008,8,13
3.26786,13.1556,-0.710408,65,6
6.31327,25.3967,6.04174,23,14
3.40825,13.7003,-0.246428,61,7
5.98872,24.0553,6.64233,11,15
0.117248,0.468515,-0.12941,15,0
3.42344,13.6697,0.245974,17,8
0.158707,0.633243,-0.150717,23,1
3.4425,13.7255,0.741601,47,9
1.80347,7.19053,-1.44099,23,2
4.52735,18.0375,1.62702,43,10
2.11597,8.42405,-1.37568,20,3
4.74401,18.8727,2.38937,20,11
2.50852,9.97211,-1.26257,19,4
4.79052,19.0297,3.10804,6,12
3.04916,12.1124,-1.09276,33,5
4.96106,19.6926,3.94746,20,13
3.32305,13.1809,-0.712397,39,6
5.74211,22.7594,5.41907,24,14
3.47856,13.7775,-0.248034,87,7
6.09396,24.1185,6.66563,3,15
0.126491,0.498061,-0.137692,14,0
3.46424,13.6305,0.245486,6,8
0.158515,0.623242,-0.148468,24,1
3.58793,14.0966,0.762326,23,9
1.82565,7.17278,-1.4387,26,2
4.58193,17.9887,1.62406,23,10
2.13853,8.38981,-1.3713,20,3
4.6028,18.0444,2.28651,4,11
2.54233,9.95944,-1.26208,15,4
4.83295,18.9191,3.09271,7,12
3.10326,12.148,-1.09694,30,5
4.96655,19.4279,3.89785,7,13
3.36755,13.1634,-0.712083,45,6
5.80605,22.6788,5.40467,24,14
3.58818,14.0055,-0.252362,94,7
6.32972,24.6884,6.8292,4,15
0.124372,0.482651,-0.133551,15,0
4.61033,17.8783,0.322276,2,8
0.162637,0.630232,-0.150267,24,1
1.84822,7.15686,-1.43679,23,2
4.63372,17.9302,1.62023,23,10
2.15841,8.34596,-1.36536,45,3
4.73737,18.3049,2.32161,5,11
2.56862,9.91784,-1.25794,15,4
6.59044,25.4284,4.16053,11,12
3.13165,12.0831,-1.09206,45,5
4.82289,18.5952,3.73413,3,13
3.57755,13.7837,-0.746311,35,6
5.85579,22.5452,5.37768,29,14
3.74469,14.407,-0.259831,22,7
6.59579,25.3579,7.02073,4,15
0.136806,0.523333,-0.144939,14,0
3.79515,14.5075,0.261751,34,8
0.160394,0.612694,-0.146218,25,1
3.80773,14.5452,0.78797,41,9
1.86275,7.11048,-1.42878,26,2
4.73266,18.0527,1.63278,16,10
2.19104,8.35175,-1.36755,21,3
4.80124,18.2883,2.32161,5,11
2.59364,9.87233,-1.2533,15,4
5.41738,20.6205,3.37679,11,12
3.17989,12.0952,-1.09415,38,5
5.93026,22.5407,4.53057,10,13
3.66531,13.9218,-0.754475,48,6
5.90366,22.4078,5.34979,46,14
3.66304,13.9034,-0.250966,100,7
6.70004,25.4125,7.04195,8,15
0.123778,0.466832,-0.12941,15,0
3.88168,14.6398,0.264369,15,8
0.164424,0.619693,-0.148018,24,1
3.80825,14.3427,0.777712,43,9
1.88151,7.08116,-1.4242,23,2
6.64283,24.9832,2.26169,12,10
2.20908,8.30817,-1.36161,23,3
5.51675,20.7335,2.63433,37,11
2.62126,9.84449,-1.25087,15,4
5.84127,21.9223,3.5933,19,12
3.1954,11.9839,-1.08509,26,5
5.15775,19.3435,3.89136,19,13
3.64349,13.6549,-0.740659,42,6
6.02117,22.55,5.38848,23,14
3.81428,14.2749,-0.257912,93,7
6.23978,23.3361,6.47255,17,15
0.130339,0.485076,-0.134586,15,0
4.10047,15.2499,0.275643,9,8
0.174182,0.647342,-0.154766,22,1
3.85008,14.3087,0.776561,12,9
1.90243,7.06541,-1.42229,21,2
5.57335,20.6845,1.8742,4,10
2.22675,8.25844,-1.35472,27,3
5.59841,20.7486,2.63872,25,11
2.64888,9.81037,-1.2477,16,4
6.29447,23.3122,3.82451,9,12
3.20861,11.8752,-1.0762,26,5
5.08125,18.7928,3.78412,4,13
3.73495,13.804,-0.749451,39,6
6.09374,22.5063,5.38308,17,14
3.70429,13.6812,-0.247405,78,7
6.34291,23.4103,6.49895,7,15
0.140156,0.514441,-0.142868,14,0
4.13998,15.1957,0.27491,46,8
0.168639,0.618559,-0.148018,24,1
3.92681,14.3935,0.781899,27,9
1.92604,7.05494,-1.42153,21,2
6.16009,22.5484,2.04502,5,10
2.24684,8.22434,-1.35034,27,3
5.62268,20.5672,2.618,12,11
2.67563,9.78047,-1.24502,17,4
5.53346,20.213,3.31923,3,12
3.24794,11.8562,-1.0755,26,5
6.4538,23.5588,4.74809,12,13
3.6714,13.3928,-0.727784,55,6
8.02168,29.2421,7.00048,10,14
3.74038,13.6258,-0.246637,52,7
6.40768,23.3266,6.48186,21,15
4.19726,15.1966,0.27519,36,8
0.168201,0.608575,-0.145768,25,1
4.83526,17.4828,0.95063,25,9
1.94367,7.0277,-1.41733,23,2
6.08815,21.9979,1.99691,33,10
2.26973,8.19551,-1.3469,28,3
5.72519,20.6584,2.63213,43,11
2.69756,9.72707,-1.23941,16,4
6.07831,21.9029,3.60018,4,12
3.29144,11.8525,-1.0762,26,5
6.31116,22.7265,4.58476,2,13
3.69567,13.2991,-0.723388,68,6
7.31448,26.3038,6.30313,8,14
3.86243,13.8804,-0.251489,94,7
6.46109,23.2036,6.45391,10,15
0.138536,0.494846,-0.137692,14,0
4.31767,15.4226,0.279553,42,8
0.171376,0.611738,-0.146668,24,1
4.8747,17.3889,0.946444,45,9
1.96411,7.00162,-1.41351,21,2
7.40883,26.3931,2.39835,13,10
2.29281,8.16241,-1.34283,28,3
5.78707,20.6019,2.6275,37,11
2.71914,9.67365,-1.23381,15,4
5.69903,20.2614,3.33362,3,12
3.33118,11.8352,-1.07568,26,5
6.60784,23.461,4.73779,15,13
3.80182,13.4893,-0.734483,39,6
6.24234,22.1337,5.30929,5,14
3.82999,13.5801,-0.246288,100,7
6.42818,22.7774,6.34158,3,15
0.137099,0.483209,-0.134586,15,0
4.26712,15.0296,0.272711,10,8
0.176812,0.622353,-0.149367,24,1
4.96537,17.4774,0.9522,22,9
1.98425,6.97962,-1.41046,19,2
6.34353,22.2987,2.02829,4,10
2.31858,8.14485,-1.34127,35,3
5.98272,21.0025,2.68137,26,11
2.74696,9.63689,-1.23039,17,4
8.28014,29.0484,4.78408,3,12
3.37355,11.8273,-1.07602,26,5
5.89814,20.6645,4.17719,2,13
3.74357,13.1072,-0.714386,78,6
5.83385,20.4123,4.90123,4,14
4.07574,14.2607,-0.258889,93,7
6.66117,23.2916,6.49118,7,15
0.141987,0.493867,-0.137692,14,0
4.31805,15.0192,0.272781,16,8
0.17672,0.614272,-0.147568,24,1
5.0258,17.4581,0.952096,12,9
2.00534,6.96133,-1.40817,19,2
6.35069,22.0314,2.00598,19,10
2.33245,8.09157,-1.33376,26,3
6.06553,21.0283,2.68722,32,11
2.7745,9.61247,-1.22844,17,4
6.21198,21.5078,3.54574,16,12
3.41482,11.8155,-1.07602,26,5
5.93883,20.5487,4.15773,19,13
3.78924,13.1024,-0.714805,97,6
5.90746,20.4134,4.90618,22,14
4.34297,14.9975,-0.272537,89,7
6.77147,23.3684,6.51913,14,15
0.134985,0.463716,-0.12941,15,0
4.4107,15.1423,0.275294,34,8
0.176136,0.604297,-0.145318,25,1
5.10572,17.5056,0.955655,9,9
2.02621,6.9471,-1.40664,23,2
6.44046,22.0676,2.01121,39,10
2.35293,8.05683,-1.32938,26,3
6.14113,21.0146,2.68819,33,11
2.79912,9.57224,-1.22454,16,4
6.32641,21.6206,3.56796,12,12
3.45045,11.7843,-1.07428,26,5
6.01053,20.5278,4.15773,23,13
3.83158,13.0775,-0.714177,26,6
5.96827,20.3571,4.89763,18,14
4.33901,14.7903,-0.269046,100,7
6.87694,23.4262,6.54191,10,15
4.43807,15.0405,0.273724,45,8
0.173278,0.586858,-0.141269,26,1
6.628,22.4332,1.22592,8,9
2.04554,6.91892,-1.40245,23,2
6.55295,22.1508,2.02097,39,10
2.37403,8.01974,-1.32469,28,3
7.80792,26.376,3.37749,10,11
2.81898,9.51673,-1.21869,16,4
6.46359,21.8067,3.60237,23,12
3.4757,11.7187,-1.0694,26,5
6.08963,20.5188,4.1604,25,13
3.87209,13.0385,-0.712816,35,6
6.05006,20.3594,4.90348,4,14
4.46864,15.0377,-0.273828,100,7
6.9416,23.3447,6.52586,14,15
0.1383,0.462738,-0.12941,15,0
4.47999,14.9801,0.272921,39,8
0.177104,0.591819,-0.142619,26,1
6.75027,22.5427,1.23324,5,9
2.06123,6.88353,-1.39672,26,2
6.63081,22.1297,2.02114,24,10
2.39691,7.99437,-1.32187,35,3
7.44876,24.828,3.18274,37,11
2.84643,9.48162,-1.21553,17,4
6.51904,21.7015,3.58892,8,12
3.49797,11.6372,-1.06313,23,5
6.73993,22.4227,4.55118,11,13
4.17185,13.8703,-0.759081,45,6
6.13682,20.3904,4.91608,13,14
4.44242,14.7512,-0.268907,97,7
6.8716,22.803,6.38144,13,15
0.139995,0.462228,-0.12941,15,0
4.56355,15.0677,0.274806,21,8
0.183125,0.604252,-0.145768,25,1
5.28833,17.4388,0.955027,12,9
2.0796,6.85338,-1.39214,23,2
6.74023,22.1987,2.02968,43,10
2.41585,7.95151,-1.31624,30,3
2.87027,9.44123,-1.21163,22,4
6.58555,21.6484,3.58391,4,12
3.52639,11.5849,-1.05947,26,5
6.88671,22.6101,4.5943,13,13
3.94666,12.9494,-0.709466,13,6
6.71402,22.0156,5.31379,23,14
4.45947,14.6228,-0.266847,100,7
6.93819,22.7364,6.36954,13,15
0.150585,0.491314,-0.137692,14,0
4.58621,14.9542,0.273025,46,8
0.18409,0.599883,-0.144868,25,1
2.10347,6.8502,-1.39291,19,2
6.68156,21.7458,1.99029,19,10
2.43757,7.92835,-1.31374,35,3
2.89094,9.39132,-1.20651,16,4
8.28695,26.9037,4.4587,3,12
3.54133,11.497,-1.05249,26,5
6.42503,20.846,4.24016,11,13
4.07963,13.2282,-0.725481,35,6
8.53676,27.6632,6.68375,9,14
4.32346,14.0015,-0.255782,8,7
6.85953,22.2007,6.22615,19,15
0.147719,0.476025,-0.133551,15,0
4.8489,15.616,0.285417,29,8
0.186761,0.601098,-0.145318,25,1
5.41173,17.4072,0.955341,18,9
2.12271,6.82782,-1.38985,21,2
5.46489,17.5673,1.60959,13,10
2.45935,7.90094,-1.31061,26,3
8.34235,26.7842,3.44452,21,11
2.91307,9.34705,-1.20212,20,4
7.18817,23.0502,3.8242,4,12
3.57254,11.456,-1.04988,23,5
7.25274,23.243,4.73283,3,13
4.12876,13.2234,-0.726004,35,6
6.46507,20.6933,5.00516,38,14
4.43496,14.1867,-0.259447,33,7
6.99005,22.3463,6.27377,13,15
0.149379,0.475506,-0.133551,15,0
4.7007,14.9542,0.273619,16,8
0.186519,0.593007,-0.143519,25,1
5.50244,17.4834,0.960574,41,9
2.14299,6.80913,-1.38756,21,2
5.49386,17.4455,1.60018,37,10
2.48395,7.88288,-1.30904,28,3
6.69456,21.2324,2.73353,6,11
2.93851,9.31411,-1.19919,19,4
8.08922,25.6246,4.25596,2,12
3.59811,11.3979,-1.04569,26,5
6.75313,21.3791,4.35808,4,13
4.36992,13.8259,-0.759918,35,6
6.53608,20.6669,5.00426,23,14
4.37164,13.8146,-0.25292,60,7
6.63589,20.957,5.8902,2,15
0.163917,0.515484,-0.144939,14,0
4.86019,15.275,0.279797,22,8
0.188588,0.592352,-0.143519,25,1
5.56464,17.4679,0.960784,24,9
2.15602,6.76794,-1.38069,19,2
6.5386,20.5129,1.88361,12,10
2.50545,7.85534,-1.30592,26,3
6.89536,21.6061,2.78471,14,11
2.96497,9.28489,-1.19676,19,4
10.1759,31.847,5.29531,4,12
3.62879,11.3568,-1.04308,24,5
7.28149,22.7748,4.64773,14,13
4.54595,14.2101,-0.781899,48,6
6.79117,21.2156,5.14283,26,14
4.68211,14.6181,-0.267929,90,7
6.70723,20.9282,5.88865,16,15
0.14796,0.45974,-0.12941,15,0
4.85586,15.079,0.276516,46,8
0.196033,0.608384,-0.147568,24,1
5.43571,16.8696,0.928859,40,9
2.17722,6.7529,-1.37917,19,2
6.52025,20.2112,1.85799,16,10
2.52132,7.81083,-1.29997,31,3
6.99515,21.6574,2.79446,7,11
2.99431,9.26504,-1.19554,19,4
6.92641,21.4318,3.56733,6,12
3.65185,11.2929,-1.03837,24,5
6.70034,20.7076,4.23062,24,13
7.39369,22.8232,5.53874,12,14
4.73118,14.6044,-0.267964,100,7
6.78374,20.9279,5.89486,8,15
0.149564,0.459221,-0.12941,15,0
4.9046,15.059,0.276446,16,8
0.196842,0.604025,-0.146668,24,1
5.52862,16.9549,0.934616,25,9
2.1953,6.72846,-1.37573,21,2
6.51592,19.9591,1.83689,12,10
2.54353,7.79116,-1.29809,26,3
9.89248,30.284,3.91176,12,11
3.01947,9.23807,-1.19334,17,4
7.47274,22.8494,3.80762,4,12
3.67576,11.2327,-1.03402,24,5
7.53466,23.0251,4.70917,20,13
4.33182,13.2298,-0.729563,32,6
6.70365,20.4615,4.97097,42,14
4.78836,14.6068,-0.268313,41,7
7.36734,22.4607,6.33382,13,15
0.151086,0.458722,-0.12941,15,0
5.22752,15.8623,0.291525,43,8
0.191626,0.581125,-0.141269,26,1
5.50663,16.6994,0.921532,31,9
2.21637,6.71741,-1.37497,23,2
5.46966,16.5678,1.52645,35,10
2.56018,7.75035,-1.29277,27,3
9.67855,29.2823,3.78672,24,11
3.03923,9.18979,-1.18847,17,4
7.62601,23.0589,3.84672,26,12
3.70047,11.1826,-1.03053,20,5
6.82202,20.6037,4.21879,11,13
4.3786,13.2165,-0.729668,39,6
6.75971,20.3917,4.95972,50,14
4.95443,14.9458,-0.274841,100,7
6.88468,20.7566,5.85966,18,15
0.164901,0.494847,-0.139762,14,0
5.06831,15.2093,0.279832,22,8
0.192936,0.578638,-0.140819,26,1
5.57057,16.6971,0.922474,25,9
2.23794,6.70405,-1.37382,21,2
6.70782,20.0825,1.85241,20,10
2.58399,7.7362,-1.29184,31,3
7.73124,23.1331,2.99482,33,11
3.05395,9.13259,-1.18238,17,4
3.71544,11.0979,-1.02391,24,5
6.86599,20.5084,4.2039,38,13
4.40274,13.1432,-0.726423,32,6
4.72808,14.098,-0.259552,8,7
7.51635,22.3991,6.33071,13,15
0.160374,0.475991,-0.134586,15,0
5.18269,15.3734,0.283183,17,8
0.201806,0.598273,-0.145768,25,1
5.67992,16.829,0.930847,25,9
2.252,6.67241,-1.36886,23,2
5.89786,17.4646,1.61273,13,10
2.60592,7.71216,-1.28933,35,3
8.48462,25.0956,3.25269,9,11
3.07054,9.07674,-1.17653,22,4
8.486,25.0708,4.19213,2,12
3.7452,11.0647,-1.02199,24,5
6.96021,20.5513,4.21764,18,13
4.44474,13.1164,-0.725795,26,6
6.91462,20.3932,4.97142,19,14
4.87812,14.3787,-0.265032,41,7
7.62244,22.455,6.35401,13,15
0.162034,0.475428,-0.134586,15,0
5.20922,15.2758,0.281717,45,8
0.203893,0.597564,-0.145768,25,1
5.80575,17.0056,0.941733,10,9
2.2721,6.65521,-1.36696,19,2
5.97874,17.5024,1.61813,47,10
2.62516,7.68058,-1.28558,25,3
3.09514,9.04531,-1.17385,17,4
7.69238,22.4676,3.76131,7,12
3.75669,10.9724,-1.01467,24,5
7.15153,20.876,4.28939,35,13
4.53777,13.2387,-0.733436,48,6
7.65462,22.3192,5.44741,12,14
5.07043,14.7759,-0.272676,100,7
7.71521,22.4703,6.36591,20,15
0.157397,0.456595,-0.12941,15,0
5.2423,15.1989,0.280635,24,8
0.205978,0.596849,-0.145768,25,1
5.75425,16.6643,0.923939,30,9
2.28891,6.62869,-1.36314,23,2
6.89279,19.9502,1.84666,16,10
2.64227,7.64337,-1.28089,27,3
7.80176,22.5556,2.93047,7,11
3.1189,9.01194,-1.17092,16,4
8.92843,25.7838,4.32166,6,12
3.77933,10.914,-1.01048,24,5
7.24556,20.9121,4.30198,26,13
4.5748,13.1963,-0.731971,35,6
7.85,22.6311,5.5302,12,14
5.09313,14.6749,-0.271141,100,7
7.85317,22.6148,6.41457,21,15
0.165349,0.474285,-0.134586,15,0
5.13659,14.7255,0.272223,37,8
0.200996,0.575888,-0.140819,26,1
5.87625,16.827,0.934092,46,9
2.31398,6.62622,-1.36428,23,2
6.94003,19.8621,1.84073,24,10
2.65655,7.59867,-1.27494,28,3
8.32025,23.7855,3.09402,17,11
3.13919,8.96914,-1.16678,16,4
7.81183,22.3071,3.74348,2,12
3.80357,10.8613,-1.00682,24,5
7.3354,20.9349,4.3119,11,13
4.80917,13.7175,-0.761802,32,6
7.77607,22.1678,5.42357,30,14
5.16022,14.7024,-0.271978,100,7
7.7618,22.1024,6.27688,19,15
0.168288,0.477349,-0.135621,15,0
5.19129,14.7169,0.272397,43,8
0.201708,0.571507,-0.13992,26,1
6.46367,18.3036,1.01731,28,9
2.33186,6.60329,-1.36123,23,2
7.18191,20.3262,1.88605,17,10
2.67977,7.58004,-1.27338,27,3
7.03622,19.8918,2.5907,12,11
3.15856,8.92445,-1.16239,16,4
8.33606,23.5403,3.95529,10,12
3.82284,10.7954,-1.00194,23,5
8.0713,22.78,4.69772,2,13
7.97002,22.4692,5.5041,6,14
5.14931,14.509,-0.268732,99,7
7.91648,22.2936,6.339,16,15
0.18163,0.509513,-0.144939,14,0
5.30174,14.8644,0.275469,16,8
0.212216,0.594659,-0.145768,25,1
6.49126,18.1794,1.01165,37,9
2.34698,6.57292,-1.35665,23,2
7.22869,20.2334,1.87978,17,10
2.69889,7.55018,-1.26994,26,3
7.11899,19.9045,2.59557,6,11
3.18167,8.89094,-1.15947,15,4
9.82054,27.4277,4.61419,16,12
3.85647,10.7707,-1.0009,23,5
8.15607,22.7665,4.70077,25,13
4.9904,13.9223,-0.775096,35,6
7.85564,21.9038,5.37228,23,14
5.23504,14.5888,-0.270547,100,7
7.97206,22.204,6.3214,20,15
0.174237,0.483432,-0.137692,14,0
5.32171,14.7574,0.273828,43,8
0.210984,0.58475,-0.143519,25,1
6.58405,18.2479,1.01668,19,9
2.36657,6.55546,-1.35474,23,2
7.26677,20.1181,1.87141,16,10
2.72255,7.53328,-1.26868,26,3
7.17155,19.8328,2.58948,36,11
3.20322,8.85365,-1.15605,15,4
8.54179,23.6093,3.97656,10,12
3.88794,10.7403,-0.999328,23,5
7.52881,20.7868,4.2974,7,13
4.94301,13.6401,-0.760337,45,6
8.22832,22.6934,5.57294,32,14
5.31475,14.6578,-0.272153,100,7
8.02192,22.1121,6.30276,9,15
0.175923,0.482821,-0.137692,14,0
5.38842,14.7885,0.274736,52,8
0.212255,0.582216,-0.143069,25,1
6.33767,17.3748,0.969262,12,9
2.38406,6.5324,-1.35169,23,2
7.35336,20.1375,1.87559,16,10
2.736,7.49266,-1.26336,30,3
7.57041,20.7207,2.70867,13,11
3.22575,8.82433,-1.15362,15,4
9.39429,25.685,4.33167,6,12
3.91719,10.7042,-0.997236,17,5
7.63009,20.8502,4.31572,9,13
4.94084,13.4942,-0.753114,35,6
8.53815,23.3064,5.7304,34,14
5.03142,13.7267,-0.255189,100,7
8.13364,22.1783,6.32968,20,15
0.173519,0.471357,-0.134586,15,0
5.38887,14.6308,0.272153,52,8
0.21159,0.574157,-0.141269,26,1
6.40932,17.3826,0.970937,28,9
2.40163,6.51341,-1.3494,23,2
7.40286,20.0663,1.87123,20,10
2.75666,7.46824,-1.26086,30,3
8.34966,22.6084,2.95923,8,11
3.24553,8.78323,-1.14972,16,4
7.76317,20.9978,3.54574,22,12
3.94209,10.6569,-0.994098,17,5
8.44592,22.8323,4.73206,11,13
4.95464,13.3869,-0.74809,52,6
8.46922,22.8707,5.63052,26,14
5.53644,14.9429,-0.278156,88,7
8.21505,22.1606,6.33278,20,15
0.181986,0.488823,-0.139762,14,0
5.42246,14.565,0.27128,61,8
0.212913,0.571589,-0.140819,26,1
6.35976,17.0644,0.954399,12,9
2.42068,6.49169,-1.34673,21,2
6.97909,18.7062,1.74678,14,10
2.7778,7.44143,-1.25805,27,3
3.26297,8.73651,-1.14508,15,4
7.85854,21.0298,3.55576,27,12
3.97019,10.6188,-0.991832,19,5
7.93316,21.207,4.4012,12,13
4.94696,13.2172,-0.739612,55,6
7.79302,20.8102,5.13023,20,14
5.48267,14.6407,-0.272886,100,7
8.35472,22.2982,6.38041,10,15
0.187773,0.499033,-0.142868,14,0
5.43213,14.429,0.269116,37,8
0.215693,0.572629,-0.141269,26,1
2.43502,6.46115,-1.34215,21,2
7.05278,18.7041,1.74887,36,10
2.80097,7.4243,-1.25679,26,3
9.60203,25.4379,3.33849,10,11
3.28165,8.68921,-1.14045,15,4
7.93486,20.999,3.55544,17,12
3.99174,10.5638,-0.987997,21,5
10.1393,26.8187,5.57315,8,13
4.95915,13.1102,-0.734588,35,6
8.58299,22.6783,5.59813,26,14
5.51505,14.5644,-0.271839,100,7
8.78134,23.1779,6.6413,22,15
0.179901,0.473095,-0.135621,15,0
5.6524,14.8566,0.277458,13,8
0.217691,0.571872,-0.141269,26,1
6.44119,16.9121,0.948432,41,9
2.45267,6.43977,-1.33948,19,2
7.1315,18.7148,1.75218,14,10
2.81279,7.37756,-1.25054,31,3
9.66672,25.3412,3.3302,10,11
3.307,8.66472,-1.13875,15,4
11.0249,28.8714,4.89483,3,12
4.01509,10.5145,-0.984686,23,5
8.97441,23.4893,4.88776,12,13
4.9785,13.0238,-0.730715,35,6
8.45605,22.1095,5.46496,49,14
5.6116,14.6646,-0.274073,100,7
8.8311,23.066,6.618,22,15
0.173236,0.450824,-0.12941,15,0
5.65831,14.7174,0.275224,34,8
0.225283,0.585659,-0.144868,25,1
6.6867,17.3741,0.975647,21,9
2.47231,6.42384,-1.33795,19,2
7.08295,18.3941,1.72446,38,10
2.82859,7.34189,-1.24616,27,3
3.32365,8.61793,-1.13412,16,4
10.8625,28.1508,4.77907,3,12
4.03527,10.4576,-0.980676,23,5
8.81876,22.8425,4.75954,33,13
5.02248,13.0026,-0.730505,35,6
8.61396,22.2888,5.5167,6,14
5.64833,14.6076,-0.273374,100,7
8.91853,23.053,6.62318,7,15
0.185996,0.479031,-0.137692,14,0
5.67054,14.5969,0.27334,9,8
0.224502,0.577604,-0.143069,25,1
6.6894,17.2018,0.967273,37,9
2.49188,6.40785,-1.33643,21,2
7.13844,18.347,1.72237,28,10
2.85205,7.32645,-1.24522,22,3
7.62732,19.5832,2.58046,6,11
3.35083,8.59888,-1.13314,15,4
10.9349,28.0465,4.76781,7,12
4.06162,10.4175,-0.978236,19,5
8.80997,22.5848,4.71222,34,13
5.07656,13.0073,-0.731761,35,6
8.79024,22.511,5.57924,32,14
5.69055,14.5655,-0.272956,100,7
9.82465,25.1341,7.23089,13,15
0.187667,0.478379,-0.137692,14,0
5.72219,14.5788,0.273374,30,8
0.214407,0.545981,-0.135421,27,1
6.75525,17.1932,0.968111,14,9
2.50992,6.38815,-1.33414,21,2
7.19224,18.296,1.71993,17,10
2.8776,7.31645,-1.24522,18,3
8.93861,22.7153,2.99725,8,11
3.36919,8.55758,-1.12924,16,4
10.961,27.8262,4.73684,14,12
4.08043,10.3588,-0.974053,23,5
8.88947,22.5557,4.7126,34,13
5.1212,12.9876,-0.731657,35,6
9.51812,24.1261,5.98775,38,14
5.92712,15.0161,-0.281787,23,7
8.98984,22.7638,6.55796,7,15
0.192183,0.484904,-0.139762,14,0
5.77379,14.5606,0.273409,18,8
0.225654,0.568777,-0.141269,26,1
7.00533,17.6484,0.995116,33,9
2.52351,6.35745,-1.32956,23,2
6.66849,16.7913,1.58066,27,10
2.9002,7.29902,-1.24397,20,3
11.454,28.8119,3.80695,12,11
3.38951,8.52178,-1.12607,17,4
8.69454,21.8484,3.72439,29,12
4.1033,10.3112,-0.970915,23,5
8.88028,22.3038,4.66643,28,13
5.1739,12.9882,-0.732703,35,6
9.7372,24.4313,6.07188,55,14
6.00393,15.0566,-0.282938,47,7
9.0757,22.7484,6.56262,14,15
0.179435,0.448393,-0.12941,15,0
6.1134,15.2691,0.287092,17,8
0.229713,0.573453,-0.142619,26,1
6.78444,16.928,0.955759,28,9
2.53801,6.33265,-1.32612,23,2
6.6878,16.6785,1.57212,47,10
2.91483,7.26553,-1.2399,18,3
11.6205,28.9506,3.83035,25,11
3.40517,8.47918,-1.12193,22,4
8.75812,21.7975,3.72064,38,12
4.11965,10.2531,-0.966731,19,5
8.77332,21.8243,4.57217,19,13
5.20352,12.9376,-0.730819,35,6
8.80041,21.8697,5.44247,24,14
6.04711,15.0199,-0.282624,86,7
10.9563,27.1998,7.85723,11,15
0.198375,0.490749,-0.141833,14,0
6.0572,14.977,0.281996,8,8
0.233175,0.57626,-0.143519,25,1
2.5542,6.30919,-1.32307,23,2
6.7931,16.7714,1.5831,30,10
2.92905,7.22785,-1.23521,20,3
9.69715,23.9171,3.16885,46,11
3.43325,8.46357,-1.12144,22,4
8.8557,21.8199,3.72971,11,12
4.14043,10.2018,-0.963245,18,5
8.83912,21.7681,4.56682,19,13
5.22685,12.8657,-0.727784,35,6
8.95522,22.032,5.49061,62,14
6.11306,15.0321,-0.283253,100,7
11.0337,27.1185,7.84481,11,15
0.182561,0.447129,-0.12941,15,0
6.32874,15.4927,0.292118,6,8
0.222652,0.544777,-0.13587,27,1
6.89717,16.8673,0.955027,4,9
2.57621,6.30024,-1.32307,21,2
6.87046,16.7936,1.58745,13,10
2.94977,7.20661,-1.23333,20,3
7.38677,18.0377,2.39327,5,11
3.44697,8.41296,-1.11632,15,4
7.87087,19.2007,3.28669,19,12
4.16694,10.1651,-0.961154,18,5
9.19813,22.4274,4.71184,11,13
5.24822,12.7901,-0.724539,32,6
9.01801,21.9663,5.48206,55,14
5.70432,13.8878,-0.262065,8,7
11.1533,27.1406,7.86241,16,15
0.206215,0.500068,-0.144939,14,0
6.77632,16.4243,0.310129,54,8
0.229013,0.554804,-0.13857,27,1
2.5892,6.26943,-1.31849,21,2
7.44413,18.0162,1.70546,35,10
2.96811,7.17984,-1.23051,26,3
10.0763,24.3624,3.23709,19,11
3.46493,8.37336,-1.11267,15,4
9.00403,21.7484,3.72815,18,12
4.19859,10.1413,-0.960282,16,5
10.5558,25.484,5.36173,15,13
5.27678,12.733,-0.722341,29,6
8.95057,21.5873,5.39523,64,14
6.35118,15.3104,-0.289326,31,7
10.6496,25.6598,7.44415,25,15
0.207959,0.499345,-0.144939,14,0
6.89207,16.5408,0.312782,56,8
0.228699,0.548605,-0.13722,27,1
7.42376,17.7994,1.01071,14,9
2.59821,6.22955,-1.312,23,2
7.45174,17.8577,1.69291,42,10
2.98859,7.1585,-1.22864,25,3
9.66397,23.1365,3.07866,17,11
3.48113,8.33007,-1.10852,16,4
9.08675,21.7332,3.73096,31,12
4.22782,10.1119,-0.958888,16,5
9.31431,22.2666,4.69161,2,13
5.31194,12.6924,-0.721085,29,6
9.13727,21.8219,5.46181,42,14
6.47798,15.4634,-0.292642,46,7
10.7272,25.5939,7.43587,19,15
0.202212,0.480808,-0.139762,14,0
6.9203,16.4466,0.311456,46,8
0.241198,0.572948,-0.143519,12,1
7.38119,17.5249,0.996581,47,9
2.6169,6.21321,-1.31048,23,2
7.46606,17.7177,1.68211,31,10
3.00896,7.1371,-1.22676,25,3
9.68296,22.9563,3.05916,25,11
3.50633,8.30873,-1.1073,16,4
9.16563,21.7087,3.73221,33,12
4.24294,10.0493,-0.954355,14,5
9.27587,21.9591,4.63361,35,13
5.32356,12.5965,-0.716689,32,6
9.29762,21.9892,5.51175,50,14
6.49141,15.3449,-0.290827,7,7
9.83608,23.24,6.76191,8,15
0.234048,0.550582,-0.13812,27,1
7.46656,17.556,0.999826,24,9
2.63626,6.19861,-1.30933,21,2
7.50757,17.6439,1.67757,31,10
3.02534,7.10656,-1.22332,26,3
9.74203,22.8731,3.05258,25,11
3.52986,8.28366,-1.1056,15,4
9.24058,21.6747,3.7319,40,12
4.25768,9.98681,-0.949823,16,5
9.43104,22.1108,4.67253,25,13
5.34868,12.5338,-0.714177,32,6
9.36208,21.9279,5.50455,6,14
6.37683,14.9286,-0.283357,31,7
10.9154,25.5415,7.4426,20,15
0.190337,0.443875,-0.12941,15,0
7.01759,16.3575,0.310688,1,8
0.237506,0.553343,-0.13902,26,1
7.45844,17.3684,0.990615,22,9
2.65634,6.18577,-1.30857,23,2
7.52586,17.5169,1.66799,28,10
3.03843,7.06873,-1.21862,27,3
9.85554,22.9173,3.06306,43,11
3.55091,8.25305,-1.10316,17,4
9.28026,21.5589,3.71751,20,12
4.2807,9.94444,-0.947209,18,5
9.16957,21.2915,4.50615,39,13
5.37106,12.4655,-0.71135,29,6
9.45786,21.9398,5.5158,50,14
6.69974,15.5342,-0.295295,15,7
9.76693,22.6351,6.60558,30,15
0.198025,0.457391,-0.133551,15,0
7.08975,16.3678,0.311351,3,8
0.237886,0.548934,-0.13812,13,1
7.51108,17.3239,0.989568,7,9
2.67167,6.16205,-1.30552,21,2
7.64642,17.6276,1.68106,28,10
3.05915,7.04903,-1.21706,22,3
11.5578,26.6192,3.56322,11,11
3.56308,8.20237,-1.09804,17,4
9.72629,22.3796,3.86487,27,12
4.29394,9.8801,-0.942502,20,5
9.22897,21.2252,4.49889,28,13
5.3994,12.4119,-0.709362,29,6
10.1721,23.3719,5.88472,51,14
6.29888,14.4657,-0.275399,24,7
9.86132,22.6362,6.61593,41,15
0.221285,0.506261,-0.148044,13,0
7.3183,16.735,0.318821,50,8
0.235114,0.537389,-0.135421,13,1
7.94952,18.1612,1.03897,13,9
2.68371,6.1311,-1.30094,21,2
7.80142,17.8144,1.70145,17,10
3.0774,7.02383,-1.21456,26,3
11.4115,26.0333,3.49009,11,11
3.58213,8.16806,-1.09512,22,4
9.86388,22.4812,3.88834,20,12
4.31719,9.83951,-0.940062,22,5
9.32115,21.2342,4.50767,21,13
5.41378,12.3271,-0.705593,29,6
10.2489,23.3255,5.88202,29,14
6.30588,14.3448,-0.273514,8,7
10.928,24.8475,7.27333,19,15
0.215252,0.487811,-0.142868,14,0
7.623,17.2673,0.329467,34,8
0.243287,0.550826,-0.13902,26,1
7.76761,17.5866,1.00757,38,9
2.70192,6.11451,-1.29941,21,2
7.91593,17.9055,1.71278,3,10
3.1011,7.01124,-1.21424,20,3
10.6203,24.0001,3.22247,9,11
3.60419,8.14099,-1.09317,19,4
10.7453,24.2709,4.20402,5,12
4.33941,9.79705,-0.937447,22,5
9.38408,21.1764,4.50233,10,13
5.41469,12.2132,-0.70015,29,6
9.65705,21.7719,5.4987,43,14
6.66962,15.0367,-0.287127,23,7
9.98304,22.4962,6.59471,41,15
0.204376,0.458821,-0.134586,15,0
7.53049,16.9058,0.323044,44,8
0.245113,0.550016,-0.13902,13,1
7.67687,17.2183,0.987998,18,9
2.72005,6.09787,-1.29788,23,2
7.97107,17.8613,1.71122,7,10
3.11065,6.97025,-1.20893,23,3
11.612,26.0076,3.49716,22,11
3.62712,8.11993,-1.09195,17,4
11.5327,25.8059,4.47684,31,12
4.3565,9.74365,-0.933787,22,5
10.4014,23.2636,4.9534,3,13
5.44211,12.166,-0.698476,29,6
10.0333,22.4192,5.67057,54,14
6.7237,15.017,-0.287197,47,7
10.1065,22.5617,6.62422,7,15
0.205897,0.458141,-0.134586,15,0
7.88714,17.5415,0.335714,34,8
0.243833,0.542048,-0.13722,27,1
7.70085,17.1112,0.983393,37,9
2.73784,6.08345,-1.29674,23,2
7.80121,17.3261,1.66241,35,10
3.1309,6.95034,-1.20736,20,3
11.7018,25.9651,3.49692,11,11
3.64075,8.07465,-1.08756,16,4
11.5171,25.5314,4.43617,15,12
4.37978,9.70917,-0.931869,22,5
10.4462,23.1466,4.93623,35,13
5.4155,11.994,-0.689683,35,6
10.0802,22.3148,5.65302,72,14
6.58008,14.5597,-0.278889,78,7
10.1454,22.4383,6.59833,30,15
0.215475,0.475013,-0.139762,14,0
7.94998,17.5175,0.335784,42,8
0.25378,0.558938,-0.141719,13,1
2.75662,6.06849,-1.29559,23,2
7.8666,17.3097,1.66345,17,10
3.15023,6.92858,-1.20548,18,3
3.65987,8.04201,-1.08488,17,4
11.4752,25.2034,4.38611,24,12
4.39465,9.65212,-0.92786,20,5
10.5213,23.0975,4.93356,35,13
5.45817,11.9769,-0.689788,32,6
10.1831,22.3344,5.66697,54,14
6.67485,14.6331,-0.280739,63,7
10.2108,22.3746,6.59005,41,15
0.217132,0.474258,-0.139762,14,0
0.25573,0.558048,-0.141719,13,1
7.87424,17.175,0.990196,19,9
2.76552,6.03206,-1.28987,23,2
8.09808,17.6552,1.69936,7,10
3.17193,6.91216,-1.20455,20,3
11.8597,25.8322,3.49009,11,11
3.67218,7.99492,-1.08025,19,4
11.1251,24.2101,4.21998,14,12
4.41168,9.60051,-0.924374,20,5
10.8241,23.5441,5.03698,37,13
5.46739,11.887,-0.685706,35,6
10.2162,22.2014,5.64222,19,14
6.74345,14.6478,-0.281472,94,7
10.3034,22.3704,6.59937,41,15
0.215545,0.466482,-0.137692,14,0
7.47381,16.1674,0.310897,9,8
0.249496,0.539465,-0.13722,27,1
7.94168,17.1638,0.991138,13,9
2.77913,6.00634,-1.28643,26,2
9.41931,20.3479,1.9617,18,10
3.18774,6.88312,-1.20142,21,3
11.4724,24.7604,3.35068,10,11
3.69506,7.97124,-1.07879,27,4
11.6875,25.2015,4.39988,15,12
4.42254,9.53625,-0.919667,20,5
10.8905,23.4723,5.02973,27,13
5.49119,11.8298,-0.683508,35,6
10.8099,23.2773,5.92521,52,14
6.8889,14.8273,-0.285382,100,7
10.379,22.3291,6.59782,33,15
0.220438,0.47273,-0.139762,14,0
8.13382,17.4351,0.335819,23,8
0.262916,0.563313,-0.143519,12,1
8.12746,17.4056,1.00673,18,9
2.79344,5.98237,-1.28338,23,2
9.50547,20.3474,1.96484,9,10
3.20087,6.84869,-1.19735,22,3
11.568,24.74,3.35336,51,11
3.71193,7.93492,-1.07562,23,4
13.1536,28.1055,4.91486,7,12
4.44313,9.49369,-0.917053,22,5
10.8633,23.2012,4.97973,13,13
5.5189,11.7816,-0.681833,32,6
10.5694,22.553,5.7502,35,14
6.90921,14.7362,-0.28409,100,7
10.5004,22.3854,6.62525,22,15
0.222086,0.471958,-0.139762,14,0
8.26788,17.5622,0.338821,46,8
0.249935,0.530658,-0.135421,13,1
8.16347,17.3247,1.0037,13,9
2.81346,5.9708,-1.283,26,2
9.58661,20.3357,1.96693,4,10
3.21633,6.8196,-1.19422,16,3
10.9995,23.3117,3.16495,45,11
3.72773,7.89678,-1.07221,20,4
12.1702,25.7695,4.51376,6,12
4.45752,9.43849,-0.913218,22,5
11.2646,23.8412,5.12551,14,13
5.55145,11.7442,-0.680786,22,6
10.9213,23.0938,5.89777,36,14
6.95804,14.7066,-0.283986,100,7
10.8562,22.9353,6.79918,16,15
0.228704,0.48165,-0.142868,14,0
8.35488,17.5874,0.339868,10,8
0.249276,0.524502,-0.134071,28,1
9.27537,19.5075,1.13203,45,9
2.82839,5.94854,-1.28033,23,2
9.53345,20.0413,1.94166,31,10
3.23927,6.80655,-1.19391,23,3
9.61644,20.1976,2.74669,6,11
3.74162,7.85505,-1.06831,20,4
11.0839,23.2588,4.08075,13,12
4.47073,9.3815,-0.909209,22,5
11.1872,23.4651,5.053,16,13
5.57178,11.6815,-0.678274,26,6
10.9691,22.987,5.88022,44,14
7.02484,14.7147,-0.284614,100,7
10.9478,22.9217,6.80642,32,15
0.217029,0.452974,-0.134586,15,0
