x, y, z, intensity, ring
-0.489922,-0.121334,-0.116525,16,1
-1.74102,-0.430858,0.0939954,1,9
-2.23171,-0.551053,0.282249,1,11
-2.2229,-0.548054,0.362615,1,12
-0.537781,-0.132589,-0.0484586,11,5
-2.23413,-0.550409,0.447256,1,13
-2.26322,-0.556739,0.538083,1,14
-1.64284,-0.403824,-0.0295295,3,7
-2.13499,-0.524404,0.589072,1,15
-1.68038,-0.410254,0.0301927,5,8
-0.478984,-0.116852,-0.113825,16,1
-1.73087,-0.42194,0.0933674,1,9
-2.23362,-0.543259,0.282249,1,11
-2.19408,-0.532832,0.357609,1,12
-0.53824,-0.130711,-0.0484586,11,5
-2.24367,-0.54446,0.448783,1,13
-2.32197,-0.562602,0.55158,1,14
-1.64813,-0.399028,-0.0295993,2,7
-2.1368,-0.516948,0.589072,1,15
-0.563471,-0.13559,-0.155291,12,0
-1.67791,-0.403451,0.0301229,5,8
-0.494547,-0.118822,-0.117424,16,1
-1.72837,-0.415265,0.093158,1,9
-2.18531,-0.523437,0.275912,1,11
-2.19584,-0.525553,0.357609,1,12
-2.24556,-0.536625,0.448783,1,13
-2.30496,-0.54997,0.547081,1,14
-1.65722,-0.395417,-0.0297389,2,7
-2.16106,-0.515235,0.595284,1,15
-0.563941,-0.133622,-0.155291,12,0
-1.68119,-0.398346,0.0301578,4,8
-0.479768,-0.113589,-0.113825,16,1
-1.72593,-0.40831,0.0929487,1,9
-2.18703,-0.516187,0.275912,1,11
-2.32456,-0.54779,0.378259,1,12
-0.53914,-0.126951,-0.0484586,11,5
-2.25879,-0.531875,0.451072,1,13
-2.27263,-0.534297,0.538983,1,14
-1.6508,-0.3878,-0.0295993,3,7
-2.15156,-0.50504,0.592178,1,15
-1.69231,-0.394746,0.0303323,1,8
-0.495345,-0.115453,-0.117424,16,1
-1.72338,-0.401678,0.0927393,1,9
-2.2391,-0.52023,0.282249,1,11
-2.23015,-0.517742,0.362615,1,12
-0.539558,-0.125162,-0.0484586,11,5
-2.27976,-0.52842,0.454889,1,13
-0.548703,-0.127082,-0.0295175,16,6
-2.27448,-0.52636,0.538983,1,14
-1.64429,-0.380521,-0.0294597,3,7
-2.12311,-0.490938,0.583896,1,15
-1.6975,-0.390028,0.0304021,1,8
-1.75592,-0.402804,0.0944141,1,9
-2.15962,-0.494619,0.193834,1,10
-2.1905,-0.501288,0.275912,1,11
-2.32823,-0.531954,0.378259,1,12
-0.539991,-0.123278,-0.0484586,11,5
-2.404,-0.548822,0.479312,1,13
-0.549121,-0.125261,-0.0295175,16,6
-2.26861,-0.517082,0.537183,1,14
-1.6729,-0.380995,-0.0299483,1,7
-2.11351,-0.480953,0.58079,1,15
-1.70276,-0.384982,0.0304719,1,8
-0.480912,-0.108643,-0.113825,16,1
-1.80407,-0.407227,0.0969262,1,9
-2.18068,-0.491839,0.195577,1,10
-2.23097,-0.502361,0.280787,1,11
-2.29153,-0.515158,0.372001,1,12
-0.540397,-0.121486,-0.0484586,11,5
-2.28713,-0.513751,0.455652,1,13
-2.27801,-0.510866,0.538983,1,14
-1.66642,-0.373404,-0.0298087,1,7
-2.13402,-0.477793,0.585966,1,15
-1.72751,-0.384246,0.0308908,1,8
-2.18239,-0.484223,0.195577,1,10
-2.19394,-0.485984,0.275912,1,11
-2.25088,-0.497772,0.365118,1,12
-0.540818,-0.119599,-0.0484586,11,5
-2.29275,-0.506611,0.456415,1,13
-0.549982,-0.121425,-0.0295175,16,6
-2.39396,-0.528098,0.565977,1,14
-1.71458,-0.377916,-0.0306464,1,7
-2.12813,-0.468679,0.583896,1,15
-1.71712,-0.375649,0.0306813,1,8
-0.504505,-0.110277,-0.119224,16,1
-2.1646,-0.472355,0.193834,1,10
-2.27191,-0.49411,0.368247,1,12
-0.490613,-0.106702,-0.0439265,12,5
-2.28299,-0.496104,0.454125,1,13
-0.550403,-0.119504,-0.0295175,16,6
-1.69634,-0.367693,-0.0302974,3,7
-2.1222,-0.459612,0.581825,1,15
-1.75752,-0.378064,0.0313794,1,8
-0.482024,-0.103601,-0.113825,16,1
-2.16623,-0.464796,0.193834,1,10
-2.33543,-0.499395,0.378259,1,12
-0.54164,-0.115821,-0.0484586,11,5
-2.27319,-0.48567,0.451836,1,13
-1.70153,-0.362602,-0.0303672,2,7
-2.14269,-0.456225,0.587002,1,15
-1.75883,-0.371927,0.0313794,1,8
-0.491915,-0.103932,-0.116075,16,1
-2.2395,-0.472754,0.119954,1,9
-2.16784,-0.457231,0.193834,1,10
-2.31396,-0.486364,0.374504,1,12
-0.54204,-0.11393,-0.0484586,11,5
-2.30561,-0.484188,0.457942,1,13
-1.7615,-0.368959,-0.0314143,1,7
-2.12914,-0.445577,0.582861,1,15
-0.518988,-0.107761,-0.122373,15,1
-2.21572,-0.45966,0.118593,1,9
-2.16943,-0.449662,0.193834,1,10
-2.23162,-0.46174,0.279812,1,11
-2.27696,-0.470292,0.368247,1,12
-2.26883,-0.468201,0.450309,1,13
-2.02524,-0.416826,-0.0360916,1,7
-2.13447,-0.43892,0.583896,1,15
-2.20541,-0.4503,0.117965,1,9
-2.17091,-0.442465,0.193834,1,10
-2.29391,-0.466284,0.37075,1,12
-0.542803,-0.110237,-0.0484586,11,5
-2.3204,-0.470826,0.460231,1,13
-0.551998,-0.111904,-0.0295175,16,6
-2.07749,-0.420783,-0.0369991,1,7
-2.16234,-0.437576,0.591143,1,15
-0.496764,-0.0997141,-0.116975,16,1
-2.20697,-0.442598,0.117965,1,9
-2.30327,-0.459822,0.372001,1,12
-0.543185,-0.108342,-0.0484586,11,5
-2.27574,-0.453912,0.451072,1,13
-0.552366,-0.110073,-0.0295175,16,6
-2.12602,-0.422891,-0.0378368,1,7
-2.16386,-0.430026,0.591143,1,15
-0.520052,-0.102502,-0.122373,15,1
-2.2045,-0.434505,0.117756,1,9
-2.20124,-0.433063,0.196275,1,10
-2.30241,-0.452131,0.288099,1,11
-2.29315,-0.449899,0.370124,1,12
-0.543541,-0.10654,-0.0484586,11,5
-2.32355,-0.45502,0.460231,1,13
-0.552747,-0.108144,-0.0295175,16,6
-2.14631,-0.419145,0.585966,1,15
-0.493604,-0.0955895,-0.116075,16,1
-2.24523,-0.434394,0.119849,1,9
-2.21447,-0.427643,0.197321,1,10
-2.2844,-0.440733,0.285662,1,11
-2.28307,-0.439651,0.368247,1,12
-0.54391,-0.104642,-0.0484586,11,5
-2.37132,-0.456214,0.46939,1,13
-0.553103,-0.106311,-0.0295175,16,6
-2.13638,-0.409469,0.582861,1,15
-0.520738,-0.0989595,-0.122373,15,1
-2.24665,-0.426947,0.119849,1,9
-2.21588,-0.420297,0.197321,1,10
-2.28983,-0.433495,0.286149,1,11
-2.29616,-0.43428,0.370124,1,12
-0.544254,-0.102838,-0.0484586,11,5
-2.32659,-0.439194,0.460231,1,13
-0.553471,-0.104379,-0.0295175,16,6
-2.14912,-0.404526,0.585966,1,15
-0.521063,-0.0972321,-0.122373,15,1
-2.20493,-0.411049,0.117547,1,9
-2.30352,-0.428596,0.20499,1,10
-2.28735,-0.425174,0.285662,1,11
-2.32486,-0.431307,0.374504,1,12
-0.544609,-0.100937,-0.0484586,11,5
-0.553814,-0.102543,-0.0295175,16,6
-2.219,-0.410466,0.520987,1,14
-2.12962,-0.393164,0.580272,2,15
-0.521399,-0.0954126,-0.122373,15,1
-2.23779,-0.409097,0.119221,1,9
-2.29709,-0.419523,0.204293,1,10
-2.28882,-0.417187,0.285662,1,11
-2.34967,-0.427431,0.378259,1,12
-0.544941,-0.0991309,-0.0484586,11,5
-0.554168,-0.10061,-0.0295175,16,6
-2.22042,-0.402718,0.520987,1,14
-2.12718,-0.38504,0.579237,3,15
-0.521729,-0.0935919,-0.122373,15,1
-2.23134,-0.399874,0.118803,1,9
-2.27892,-0.407991,0.20255,1,10
-2.27854,-0.4071,0.284199,1,11
-2.35115,-0.419227,0.378259,1,12
-0.545284,-0.0972281,-0.0484586,11,5
-0.554516,-0.0986745,-0.0295175,16,6
-2.18727,-0.388825,0.512888,1,14
-2.18557,-0.387736,0.594766,2,15
-0.522053,-0.0917701,-0.122373,15,1
-2.28387,-0.401065,0.121524,1,9
-2.24894,-0.394525,0.199761,1,10
-2.29559,-0.401883,0.286149,1,11
-2.3526,-0.411017,0.378259,1,12
-0.54562,-0.095324,-0.0484586,11,5
-0.554857,-0.0967383,-0.0295175,16,6
-2.18478,-0.380519,0.511989,1,14
-2.15455,-0.37448,0.585966,1,15
-0.52237,-0.0899474,-0.122373,15,1
-2.30494,-0.396476,0.122571,1,9
-2.26208,-0.388696,0.200807,1,10
-2.31263,-0.396551,0.288099,1,11
-2.35402,-0.402803,0.378259,1,12
-0.555191,-0.0948009,-0.0295175,16,6
-2.16688,-0.369614,0.50749,1,14
-2.16727,-0.368902,0.589072,1,15
-0.522681,-0.0881234,-0.122373,15,1
-2.31412,-0.390158,0.12299,1,9
-2.27128,-0.38212,0.201504,1,10
-2.314,-0.388476,0.288099,1,11
-2.34365,-0.393034,0.376381,1,12
-0.504301,-0.0843006,-0.026796,18,6
-2.17585,-0.363332,0.509289,1,14
-1.15187,-0.192344,-0.0203844,1,7
-2.19135,-0.365527,0.595284,1,15
-0.52297,-0.0863896,-0.122373,15,1
-2.26029,-0.372973,0.120059,1,9
-2.2726,-0.37419,0.201504,1,10
-2.3567,-0.38677,0.378259,1,12
-0.546588,-0.0896052,-0.0484586,11,5
-0.555824,-0.0910197,-0.0295175,16,6
-2.18858,-0.358002,0.511989,1,14
-1.09333,-0.178648,-0.0193373,1,7
-2.20977,-0.360677,0.599943,1,15
-0.523268,-0.0845636,-0.122373,15,1
-2.2813,-0.368264,0.121105,1,9
-2.24236,-0.361577,0.198715,1,10
-2.35804,-0.378541,0.378259,1,12
-0.546882,-0.0877922,-0.0484586,11,5
-0.556138,-0.089079,-0.0295175,16,6
-2.19366,-0.350975,0.512888,1,14
-1.13344,-0.181142,-0.0200354,1,7
-2.19576,-0.350525,0.595801,1,15
-2.29708,-0.36341,0.0405943,1,8
-0.52356,-0.0827366,-0.122373,15,1
-2.29046,-0.361544,0.121524,1,9
-2.2751,-0.358712,0.201504,1,10
-2.35317,-0.37018,0.292486,1,11
-0.547186,-0.0858827,-0.0484586,11,5
-2.24214,-0.35151,0.44115,1,13
-0.556446,-0.0871371,-0.0295175,16,6
-2.16407,-0.338498,0.50569,1,14
-1.10641,-0.172863,-0.0195467,1,7
-2.15116,-0.335709,0.583378,1,15
-2.28647,-0.353557,0.0403849,1,8
-0.523846,-0.0809084,-0.122373,15,1
-2.29165,-0.353946,0.121524,1,9
-2.26452,-0.348948,0.200458,1,10
-2.29951,-0.353518,0.285662,1,11
-2.36056,-0.362482,0.378259,1,12
-0.547482,-0.0839721,-0.0484586,11,5
-2.24335,-0.343681,0.44115,1,13
-0.556746,-0.0851942,-0.0295175,16,6
-2.21532,-0.338597,0.517387,1,14
-1.1307,-0.172819,-0.0199656,1,7
-2.17518,-0.332072,0.58959,1,15
-2.28763,-0.345972,0.0403849,1,8
-0.524111,-0.0791708,-0.122373,15,1
-2.30472,-0.347733,0.122152,2,9
-2.38788,-0.359427,0.211266,1,10
-2.41845,-0.363598,0.300286,1,11
-2.36181,-0.35424,0.378259,1,12
-0.500482,-0.0749762,-0.0442751,12,5
-2.24448,-0.33624,0.44115,1,13
-0.557026,-0.0833476,-0.0295175,16,6
-2.21644,-0.331249,0.517387,1,14
-2.15339,-0.321059,0.583378,1,15
-2.32444,-0.343243,0.0410132,1,8
-0.524385,-0.0773408,-0.122373,15,1
-2.29406,-0.33794,0.121524,1,9
-2.32598,-0.342227,0.205688,1,10
-2.36303,-0.345993,0.378259,1,12
-0.508614,-0.0744707,-0.0449724,12,5
-2.19901,-0.321586,0.431992,1,13
-0.498025,-0.0727427,-0.0263773,18,6
-2.18287,-0.318446,0.509289,1,14
-2.1545,-0.31354,0.583378,1,15
-2.32166,-0.334556,0.0409433,1,8
-0.524651,-0.07551,-0.122373,15,1
-2.30313,-0.331066,0.121943,1,9
-2.30744,-0.331273,0.203944,1,10
-0.520704,-0.0743855,-0.0460182,12,5
-2.23899,-0.319454,0.439624,1,13
-0.529912,-0.075512,-0.0280521,17,6
-2.17239,-0.309177,0.50659,1,14
-2.17854,-0.309276,0.58959,1,15
-2.3743,-0.333686,0.0418509,1,8
-2.29631,-0.322316,0.121524,1,9
-2.32831,-0.32598,0.205688,1,10
-2.26751,-0.316257,0.362615,1,12
-0.520961,-0.0725674,-0.0460182,12,5
-2.20121,-0.306226,0.431992,1,13
-0.534129,-0.0742117,-0.0282614,17,6
-2.21201,-0.307335,0.515588,1,14
-2.11449,-0.293033,0.57199,1,15
-2.32388,-0.318746,0.0409433,1,8
-0.525153,-0.0719371,-0.122373,15,1
-2.31715,-0.31741,0.122571,1,9
-2.39255,-0.326888,0.211266,1,10
-2.21766,-0.30181,0.354481,1,12
-2.18665,-0.296812,0.428939,1,13
-0.514581,-0.069757,-0.0272147,18,6
-2.23619,-0.30314,0.520987,1,14
-2.18054,-0.29482,0.58959,1,15
-2.37646,-0.317933,0.0418509,1,8
-0.525389,-0.0701952,-0.122373,15,1
-2.34591,-0.313428,0.124036,1,9
-2.21865,-0.294455,0.354481,1,12
-0.521431,-0.0691107,-0.0460182,12,5
-2.1954,-0.29059,0.430465,1,13
-0.514809,-0.0680502,-0.0272147,18,6
-2.1815,-0.287588,0.58959,1,15
-0.525619,-0.0684525,-0.122373,15,1
-2.33114,-0.303176,0.123199,1,9
-2.2275,-0.28772,0.355732,1,12
-0.549333,-0.0708585,-0.0484586,11,5
-2.22751,-0.287326,0.436571,1,13
-0.518994,-0.066853,-0.027424,17,6
-0.525855,-0.0666173,-0.122373,15,1
-2.22452,-0.279839,0.355106,1,12
-2.2285,-0.27955,0.436571,1,13
-0.511297,-0.0640479,-0.0270054,18,6
-0.526073,-0.0648732,-0.122373,15,1
-2.23042,-0.273467,0.275912,1,11
-2.20588,-0.269675,0.351978,1,12
-2.22941,-0.272158,0.436571,1,13
-0.559089,-0.0681522,-0.0295175,16,6
-2.11531,-0.25673,0.570955,1,15
-0.526318,-0.0628527,-0.122373,15,1
-2.2,-0.261945,0.193834,1,10
-2.23146,-0.264901,0.275912,1,11
-2.21077,-0.262054,0.352603,1,12
-0.559346,-0.0660051,-0.0295175,16,6
-2.06635,-0.243106,0.557496,1,15
-0.526523,-0.0611071,-0.122373,15,1
-2.20085,-0.254648,0.193834,1,10
-2.23232,-0.257499,0.275912,1,11
-2.22733,-0.256529,0.355106,1,12
-0.559562,-0.0641499,-0.0295175,16,6
-2.04412,-0.23362,0.551285,1,15
-2.30428,-0.259281,0.121524,1,9
-2.20169,-0.247348,0.193834,1,10
-2.2016,-0.24656,0.272012,1,11
-2.25177,-0.251383,0.358861,1,12
-0.559772,-0.0622939,-0.0295175,16,6
-2.0718,-0.229461,0.558532,1,15
-0.526927,-0.0575219,-0.122373,15,1
-2.21781,-0.241714,0.116919,1,9
-2.20254,-0.239661,0.193834,1,10
-2.23402,-0.242298,0.275912,1,11
-2.29191,-0.247767,0.365118,1,12
-0.559986,-0.0603396,-0.0295175,16,6
-2.06875,-0.221816,0.557496,1,15
-0.527125,-0.0556821,-0.122373,15,1
-2.19083,-0.231039,0.115453,1,9
-2.20336,-0.231972,0.193834,1,10
-2.23486,-0.234499,0.275912,1,11
-0.560193,-0.0583843,-0.0295175,16,6
-2.09257,-0.216984,0.563708,1,15
-0.527316,-0.0538417,-0.122373,15,1
-2.21944,-0.226226,0.116919,1,9
-2.16451,-0.220245,0.190348,1,10
-2.22776,-0.225895,0.274937,1,11
-0.536547,-0.0540274,-0.0282614,17,6
-0.5275,-0.0520008,-0.122373,15,1
-2.18837,-0.215729,0.115244,1,9
-2.20493,-0.216583,0.193834,1,10
-2.23644,-0.218891,0.275912,1,11
-0.560587,-0.0544722,-0.0295175,16,6
-0.52767,-0.0502513,-0.122373,15,1
-2.19906,-0.209034,0.115767,1,9
-2.20567,-0.208886,0.193834,1,10
-2.23715,-0.211474,0.275912,1,11
-0.560764,-0.0526129,-0.0295175,16,6
-2.15826,-0.201736,-0.0378368,1,7
-0.527842,-0.048409,-0.122373,15,1
-2.19576,-0.201376,0.115558,1,9
-2.24603,-0.205196,0.197321,1,10
-0.560945,-0.0506551,-0.0295175,16,6
-2.19079,-0.19745,-0.0383953,1,7
-0.528,-0.0466584,-0.122373,15,1
-2.21233,-0.1955,0.116395,1,9
-2.20701,-0.194252,0.193834,1,10
-2.15955,-0.187418,-0.0378368,1,7
-0.528152,-0.0449072,-0.122373,15,1
-2.31251,-0.196219,0.121629,1,9
-0.561268,-0.0469336,-0.0295175,16,6
-0.528305,-0.0430633,-0.122373,15,1
-2.16081,-0.172336,-0.0378368,1,7
-0.561582,-0.0430142,-0.0295175,16,6
-2.11351,-0.161513,-0.0369991,1,7
-0.528586,-0.0394664,-0.122373,15,1
-0.561722,-0.0411517,-0.0295175,16,6
-0.586354,-0.0427505,-0.010262,8,7
-0.528721,-0.037621,-0.122373,15,1
-0.561862,-0.0391907,-0.0295175,16,6
-0.528849,-0.0357752,-0.122373,15,1
-0.562002,-0.0371311,-0.0295175,16,6
-0.566685,-0.0373411,-0.00991297,8,7
-0.528976,-0.0338366,-0.122373,15,1
-0.562128,-0.0351691,-0.0295175,16,6
-0.529086,-0.0320822,-0.122373,15,1
-1.88141,-0.111776,0.366353,3,13
-0.562241,-0.0333048,-0.0295175,16,6
-0.566931,-0.0333842,-0.00991297,8,7
-0.529194,-0.0302352,-0.122373,15,1
-1.8759,-0.104879,0.365208,11,13
-0.579019,-0.0321695,-0.0101224,8,7
-0.529292,-0.0284801,-0.122373,15,1
-1.88016,-0.0988644,0.365972,5,13
-0.562455,-0.0294771,-0.0295175,16,6
-1.86873,-0.0917233,0.363682,2,13
-0.562555,-0.0275135,-0.0295175,16,6
-2.04235,-0.0941712,0.323819,1,12
-1.87491,-0.0857954,0.364827,1,13
-0.53471,-0.0243746,-0.0280521,17,6
-0.595296,-0.0270322,-0.0104016,8,7
-2.03527,-0.0888614,0.106765,1,9
-2.08607,-0.0903505,0.182678,1,10
-1.87518,-0.0795775,0.364827,1,13
-0.534788,-0.0226013,-0.0280521,17,6
-0.599378,-0.0252262,-0.0104714,8,7
-2.05151,-0.0827557,0.107603,1,9
-2.04654,-0.0818401,0.179192,1,10
-1.87544,-0.0733586,0.364827,1,13
-0.562801,-0.0219158,-0.0295175,16,6
-0.591466,-0.0229286,-0.0103318,8,7
-0.531649,-0.0194947,-0.122823,15,1
-2.05979,-0.0755292,0.108021,1,9
-2.06674,-0.0750617,0.180935,1,10
-0.562877,-0.0198529,-0.0295175,16,6
-0.531711,-0.0177316,-0.122823,15,1
-2.11992,-0.0703252,0.111162,1,9
-2.01521,-0.0661475,0.176403,1,10
-0.591676,-0.0166304,-0.0103318,8,7
-0.531821,-0.0140192,-0.122823,15,1
-0.563052,-0.0140557,-0.0295175,16,6
-0.575738,-0.0141713,-0.0100526,8,7
-0.587777,-0.0125175,-0.010262,8,7
-0.563134,-0.010223,-0.0295175,16,6
-0.599814,-0.0106792,-0.0104714,8,7
-0.563167,-0.00825717,-0.0295175,16,6
-2.09696,-0.0259868,0.109906,1,9
-0.563192,-0.00629115,-0.0295175,16,6
-0.603873,-0.00653492,-0.0105413,8,7
-2.03712,-0.018489,0.106765,2,9
-2.01224,-0.0175607,0.176055,3,10
-2.03717,-0.0113779,0.106765,5,9
-2.01428,-0.010547,0.176229,5,10
-2.03121,-0.00425469,0.106451,2,9
-2.04817,-0.00393229,0.179192,1,10
-0.532006,0.000649848,-0.122823,15,1
-0.579538,0.00445068,-0.155291,12,0
-0.540886,0.00594754,-0.144939,14,0
-0.553841,0.00696016,-0.0484586,11,5
-0.533134,0.00781667,-0.142868,14,0
-1.97691,0.0307109,0.242764,1,11
-0.553813,0.00889339,-0.0484586,11,5
-0.509925,0.00925685,-0.136656,14,0
-1.91328,0.0367366,0.234964,2,11
-0.553779,0.0108264,-0.0484586,11,5
-0.579422,0.0124407,-0.155291,12,0
-1.89925,0.0427683,0.233258,2,11
-0.55374,0.0126627,-0.0484586,11,5
-0.579378,0.0143621,-0.155291,12,0
-1.88521,0.0487073,0.231552,2,11
-0.553695,0.014499,-0.0484586,11,5
-0.579324,0.0163843,-0.155291,12,0
-1.89694,0.0553058,0.233014,1,11
-0.577539,0.0171409,-0.0505503,10,5
-0.579266,0.0183053,-0.155291,12,0
-0.553583,0.0182675,-0.0484586,11,5
-0.762529,0.0254287,-0.0399847,10,6
-0.579199,0.0203272,-0.155291,12,0
-0.529623,0.0193279,-0.0463669,12,5
-0.593258,0.0237239,-0.0519448,10,5
-0.579043,0.0243702,-0.155291,12,0
-0.553361,0.0240634,-0.0484586,11,5
-0.578954,0.0263914,-0.155291,12,0
-0.593078,0.0278652,-0.0519448,10,5
-0.55318,0.027926,-0.0484586,11,5
-0.576953,0.0311456,-0.0505503,10,5
-0.584797,0.0336168,-0.0512476,10,5
-0.552863,0.0336208,-0.0484586,11,5
-0.592508,0.038108,-0.0519448,10,5
-1.79154,0.120879,0.284398,1,12
-0.584427,0.0395347,-0.0512476,10,5
-1.71232,0.121239,0.271883,1,12
-0.616091,0.0437296,-0.0540366,10,5
-0.578021,0.0421429,-0.155291,12,0
-1.70991,0.127068,0.27157,2,12
-0.552354,0.0411439,-0.0484586,11,5
-0.577863,0.0442611,-0.155291,12,0
-1.71734,0.133649,0.272822,3,12
-0.583989,0.0455507,-0.0512476,10,5
-0.577705,0.0462781,-0.155291,12,0
-0.52835,0.0425099,-0.122373,15,1
-1.69323,0.137721,0.269067,2,12
-0.583826,0.0475888,-0.0512476,10,5
-0.539037,0.0450748,-0.144939,14,0
-0.528206,0.0442618,-0.122373,15,1
-1.6829,0.142796,0.267503,2,12
-0.575716,0.0489514,-0.0505503,10,5
-1.47179,0.125659,0.341026,1,14
-1.47824,0.12673,0.397546,1,15
-0.577376,0.0502093,-0.155291,12,0
-0.528048,0.0461053,-0.122373,15,1
-1.72175,0.152147,0.27376,1,12
-0.551734,0.0487557,-0.0484586,11,5
-1.47134,0.130796,0.341026,1,14
-1.54321,0.137728,0.415146,1,15
-0.577198,0.0522243,-0.155291,12,0
-0.591241,0.0543275,-0.0519448,10,5
-1.48252,0.137007,0.343725,1,14
-0.577012,0.0542388,-0.155291,12,0
-0.614849,0.0586616,-0.0540366,10,5
-1.47749,0.141225,0.288503,1,13
-1.47039,0.141065,0.341026,1,14
-0.576819,0.0562527,-0.155291,12,0
-0.574986,0.0568844,-0.0505503,10,5
-1.51608,0.149989,0.296136,1,13
-0.576629,0.0581652,-0.155291,12,0
-0.580112,0.0588233,-0.113341,16,2
-0.55101,0.0563581,-0.0484586,11,5
-0.576423,0.0601775,-0.155291,12,0
-0.579903,0.0608478,-0.113341,16,2
-0.614212,0.0649898,-0.0540366,10,5
-0.537805,0.0579494,-0.144939,14,0
-0.602109,0.065729,-0.0529907,10,5
-0.52993,0.0588793,-0.142868,14,0
-0.579487,0.0646925,-0.113341,16,2
-0.582089,0.0654975,-0.0512476,10,5
-0.575796,0.065909,-0.155291,12,0
-0.579269,0.0666138,-0.113341,16,2
-0.601648,0.0698259,-0.0529907,10,5
-0.57555,0.0680189,-0.155291,12,0
-0.610214,0.0724395,-0.119446,15,2
-0.61327,0.0733451,-0.0540366,10,5
-0.575309,0.0700276,-0.155291,12,0
-0.609957,0.0745691,-0.119446,15,2
-0.612997,0.0755925,-0.0540366,10,5
-1.31901,0.16359,0.356135,1,15
-0.575049,0.0721357,-0.155291,12,0
-0.640846,0.0807303,-0.125552,14,2
-0.632495,0.0802391,-0.0557797,9,5
-1.31843,0.168193,0.356135,1,15
-0.574806,0.0740423,-0.155291,12,0
-0.578269,0.0747962,-0.113341,16,2
-0.612469,0.0797632,-0.0540366,10,5
-1.34085,0.175574,0.362347,1,15
-0.574558,0.075948,-0.155291,12,0
-0.632511,0.0839457,-0.124026,14,2
-0.600352,0.0802106,-0.0529907,10,5
-1.28282,0.172304,0.346818,1,15
-0.574303,0.0778529,-0.155291,12,0
-0.525228,0.071387,-0.122373,15,1
-0.616667,0.0839247,-0.120973,15,2
-0.611926,0.0838235,-0.0540366,10,5
-1.56771,0.215028,0.307584,1,13
-1.28224,0.176557,0.346818,1,15
-0.574027,0.079857,-0.155291,12,0
-0.596926,0.0833614,-0.117157,16,2
-0.599792,0.0842953,-0.0529907,10,5
-1.53782,0.216127,0.30186,2,13
-1.31605,0.185896,0.356135,1,15
-0.573759,0.0817602,-0.155291,12,0
-0.616081,0.0881203,-0.120973,15,2
-0.587677,0.0845808,-0.0519448,10,5
-1.54677,0.222894,0.303768,2,13
-1.3001,0.188273,0.351994,1,15
-0.57692,0.0845749,-0.113341,16,2
-0.611031,0.0901202,-0.0540366,10,5
-1.53045,0.225997,0.300715,2,13
-0.65596,0.0969806,-0.0347511,13,6
-1.32619,0.19678,0.359241,1,15
-0.573175,0.0857638,-0.155291,12,0
-0.611568,0.091836,-0.12021,15,2
-0.610712,0.0922524,-0.0540366,10,5
-1.52383,0.230457,0.29957,2,13
-1.31407,0.199437,0.356135,1,15
-0.572872,0.0877639,-0.155291,12,0
-0.599601,0.0921803,-0.11792,16,2
-0.610387,0.0943837,-0.0540366,10,5
-1.52111,0.235209,0.299189,1,13
-1.33627,0.207582,0.362347,1,15
-0.572578,0.0896631,-0.155291,12,0
-0.614808,0.0966062,-0.120973,15,2
-0.586455,0.0926754,-0.0519448,10,5
-1.50865,0.238676,0.296899,1,13
-1.31264,0.208606,0.356135,1,15
-0.572261,0.0916613,-0.155291,12,0
-0.637728,0.10249,-0.125552,14,2
-0.617598,0.0998077,-0.0547338,9,5
-1.46517,0.237043,0.288503,1,13
-1.31191,0.213187,0.356135,1,15
-0.571938,0.0936584,-0.155291,12,0
-0.52306,0.0858418,-0.122373,15,1
-0.625742,0.102806,-0.123263,15,2
-0.644766,0.106509,-0.0571742,9,5
-1.2807,0.212477,0.347853,1,15
-0.571624,0.0955544,-0.155291,12,0
-0.591963,0.0991668,-0.13857,13,1
-0.62927,0.105529,-0.124026,14,2
-0.620833,0.104672,-0.0550824,9,5
-1.33903,0.226721,0.3639,1,15
-0.571304,0.0974495,-0.155291,12,0
-0.572422,0.0978459,-0.134071,14,1
-0.609566,0.104304,-0.12021,15,2
-0.628337,0.108081,-0.0557797,9,5
-0.57096,0.099443,-0.155291,12,0
-0.575934,0.100413,-0.134971,14,1
-0.628537,0.10981,-0.124026,14,2
-0.600483,0.105449,-0.0533393,10,5
-0.570627,0.101336,-0.155291,12,0
-0.57558,0.102423,-0.134971,14,1
-0.612707,0.10914,-0.120973,15,2
-0.627587,0.112355,-0.0557797,9,5
-0.57027,0.103327,-0.155291,12,0
-0.56755,0.103039,-0.133171,14,1
-0.627775,0.114086,-0.124026,14,2
-0.64287,0.117409,-0.0571742,9,5
-0.569906,0.105317,-0.155291,12,0
-0.555689,0.102891,-0.130472,14,1
-0.604209,0.111983,-0.119446,15,2
-0.626787,0.116734,-0.0557797,9,5
-0.569535,0.107306,-0.155291,12,0
-0.566835,0.1069,-0.133171,14,1
-0.611531,0.11555,-0.120973,15,2
-0.642035,0.121894,-0.0571742,9,5
-0.569176,0.109194,-0.155291,12,0
-0.597078,0.114763,-0.140369,13,1
-0.611144,0.117577,-0.120973,15,2
-0.641627,0.124023,-0.0571742,9,5
-0.568791,0.11118,-0.155291,12,0
-0.543126,0.10636,-0.127772,14,1
-0.61073,0.11971,-0.120973,15,2
-0.625552,0.123182,-0.0557797,9,5
-0.5684,0.113165,-0.155291,12,0
-0.565685,0.11283,-0.133171,14,1
-0.652664,0.130297,-0.129368,13,2
-0.632932,0.126932,-0.0564769,9,5
-0.568001,0.115148,-0.155291,12,0
-0.572926,0.116355,-0.134971,14,1
-0.632966,0.128663,-0.125552,14,2
-0.593443,0.121169,-0.0529907,20,5
-1.20928,0.24801,0.330771,1,15
-0.567596,0.11713,-0.155291,12,0
-0.583967,0.120721,-0.13767,13,1
-0.624823,0.129281,-0.124026,14,2
-0.579361,0.120402,-0.0517705,21,5
-1.14033,0.23802,0.312136,1,15
-0.567184,0.119111,-0.155291,12,0
-0.568286,0.119549,-0.134071,14,1
-0.608999,0.128225,-0.120973,15,2
-0.557495,0.117889,-0.0498531,22,5
-1.20752,0.256446,0.330771,1,15
-0.566785,0.120991,-0.155291,12,0
-0.571698,0.122248,-0.134971,14,1
-0.666164,0.14257,-0.132421,13,2
-0.572684,0.123086,-0.0512476,42,5
-0.941115,0.202617,-0.0504519,3,6
-1.17645,0.253928,0.322489,1,15
-0.56636,0.122969,-0.155291,12,0
-0.563651,0.122586,-0.133171,14,1
-0.665662,0.144894,-0.132421,13,2
-0.572251,0.125085,-0.0512476,31,5
-1.00284,0.21957,-0.0538014,2,6
-1.20575,0.26466,0.330771,1,15
-0.582247,0.128761,-0.13767,13,1
-0.569309,0.126004,-0.113341,16,2
-0.575701,0.127946,-0.0515962,21,5
-1.00206,0.22307,-0.0538014,2,6
-1.23503,0.275384,0.339053,1,15
-0.58562,0.131545,-0.13857,13,1
-0.553895,0.125029,-0.0496788,22,5
-1.00911,0.228153,-0.0542201,2,6
-1.28875,0.291852,0.354064,4,15
-0.565086,0.128696,-0.155291,12,0
-0.604179,0.137821,-0.143069,12,1
-0.574817,0.131862,-0.0515962,21,5
-1.00835,0.231498,-0.0542201,2,6
-1.2802,0.294615,0.351994,9,15
-0.565726,0.131128,-0.134071,14,1
-0.574353,0.133867,-0.0515962,21,5
-0.995823,0.232468,-0.053592,2,6
-1.18033,0.275758,0.279839,1,14
-1.28668,0.300841,0.354064,11,15
-0.569036,0.134095,-0.134971,14,1
-0.610719,0.144593,-0.0549081,19,5
-1.01833,0.241473,-0.0548481,2,6
-1.15286,0.273376,0.27354,1,14
-1.29502,0.307563,0.356653,6,15
-0.563707,0.134606,-0.155291,12,0
-0.610284,0.145953,-0.144868,12,1
-0.616048,0.148014,-0.0554311,19,5
-1.06132,0.255192,0.21218,1,13
-0.982566,0.236437,-0.052964,2,6
-1.13301,0.272638,0.269041,1,14
-18.3056,4.4117,5.04542,3,15
-0.609797,0.147976,-0.144868,12,1
-0.61749,0.150528,-0.0556054,19,5
-1.06047,0.25871,0.21218,1,13
-1.01282,0.247274,-0.0546387,2,6
-1.21345,0.29648,0.288387,1,14
-18.0732,4.41915,4.98537,9,15
-0.562778,0.13844,-0.155291,12,0
-0.632098,0.156194,-0.0799463,11,4
-0.624697,0.154597,-0.0563026,18,5
-1.0596,0.262226,0.21218,1,13
-1.00424,0.24871,-0.0542201,2,6
-1.2711,0.315035,0.302334,6,14
-18.0352,4.47662,4.97916,8,15
-0.687563,0.171938,-0.137764,12,2
-0.631549,0.1584,-0.0799463,11,4
-0.6551,0.164428,-0.0590916,17,5
-1.05868,0.265923,0.21218,1,13
-0.933634,0.234686,-0.0504519,3,6
-1.27566,0.320896,0.303684,11,14
-18.0026,4.53531,4.9745,17,15
-0.660317,0.167576,-0.132421,13,2
-0.565584,0.143955,-0.0716592,12,4
-1.16578,0.296937,0.190537,1,12
-0.662245,0.168681,-0.0597888,17,5
-1.27453,0.325347,0.303684,11,14
-0.705358,0.18163,-0.14158,11,2
-0.591987,0.152878,-0.0750715,12,4
-0.657794,0.169994,-0.0594402,17,5
-1.17845,0.304767,0.236603,1,13
-1.2998,0.336634,0.309983,5,14
-0.754107,0.196992,-0.151502,9,2
-0.579955,0.151824,-0.0736091,12,4
-1.04144,0.272827,0.170514,1,12
-0.655269,0.171784,-0.0592659,17,5
-1.19642,0.313652,0.240419,1,13
-17.6499,4.63365,4.21288,21,14
-0.567909,0.150791,-0.0721467,12,4
-1.06721,0.283563,0.174894,1,12
-0.670101,0.178049,-0.0606604,16,5
-1.16876,0.310763,0.235077,1,13
-18.2438,4.85769,4.35865,3,14
-0.606056,0.162619,-0.144868,12,1
-0.676905,0.181756,-0.136238,12,2
-0.555879,0.149675,-0.0706842,13,4
-1.0891,0.293453,0.178648,1,12
-0.659856,0.177796,-0.0597888,17,5
-1.21505,0.327619,0.244617,4,13
-18.2662,4.93201,4.3681,25,14
-0.605485,0.164734,-0.144868,12,1
-0.63838,0.173803,-0.128605,14,2
-0.589851,0.160922,-0.0750715,12,4
-1.09574,0.299144,0.1799,1,12
-0.672685,0.183773,-0.061009,8,5
-1.23663,0.338071,0.249197,12,13
-16.105,4.40584,3.85476,2,14
-15.3118,4.19458,4.25395,1,15
-0.582391,0.160527,-0.13947,13,1
-0.656726,0.181139,-0.132421,13,2
-0.570181,0.157589,-0.0726341,12,4
-1.08713,0.30067,0.178648,1,12
-1.24685,0.345314,0.251486,12,13
-16.0791,4.45609,3.85206,28,14
-15.2848,4.24172,4.25033,15,15
-0.596871,0.166649,-0.143069,12,1
-0.622087,0.173807,-0.125552,14,2
-0.626972,0.175644,-0.0799463,11,4
-1.09748,0.307662,0.180525,1,12
-1.25893,0.353158,0.254158,9,13
-16.0034,4.49533,3.83767,2,14
-0.931744,0.261901,-0.0168939,2,7
-15.3461,4.31649,4.27155,21,15
-0.601911,0.170324,-0.144419,25,1
-0.74989,0.21248,-0.151502,9,2
-0.626355,0.177831,-0.0799463,11,4
-1.14961,0.326607,0.189286,1,12
-14.746,4.19493,2.98006,10,13
-15.895,4.52779,3.81562,27,14
-0.586298,0.168229,-0.140819,26,1
-1.16169,0.334646,0.191476,4,12
-14.6539,4.22409,2.96441,8,13
-16.0419,4.63027,3.85476,55,14
-15.274,4.41439,4.26016,1,15
-0.958227,0.278391,0.0174175,1,8
-0.593192,0.17245,-0.142619,26,1
-1.17569,0.343126,0.193979,8,12
-16.1323,4.71741,3.88041,26,14
-0.928903,0.271806,-0.0168939,2,7
-15.1825,4.44543,4.23894,15,15
-0.95725,0.281734,0.0174175,1,8
-0.585109,0.172318,-0.140819,26,1
-0.747624,0.220321,-0.151502,9,2
-1.19532,0.353389,0.19742,11,12
-14.8274,4.38644,3.00562,16,13
-15.3982,4.56116,3.70764,40,14
-15.1354,4.48906,4.23014,15,15
-0.887272,0.264507,0.0161609,2,8
-0.595708,0.177702,-0.143519,25,1
-0.623779,0.186668,-0.0799463,11,4
-1.213,0.363225,0.200549,12,12
-14.6559,4.3914,2.97395,11,13
-15.0574,4.51745,3.62936,52,14
-16.2279,4.87478,4.5402,11,15
-0.859587,0.259361,0.0156723,3,8
-0.606309,0.183056,-0.146218,25,1
-0.744228,0.224837,-0.151121,9,2
-1.20078,0.363451,0.154043,2,11
-0.600358,0.18183,-0.0770214,11,4
-1.21746,0.368965,0.201488,8,12
-14.6732,4.44966,2.98044,35,13
-15.0386,4.56622,3.62846,57,14
-16.2061,4.92688,4.53865,17,15
-0.954298,0.291576,0.0174175,1,8
-0.601939,0.184031,-0.145318,25,1
-1.08563,0.332738,0.139419,2,11
-0.569354,0.174612,-0.0731216,25,4
-14.7923,4.5394,2.4507,12,12
-14.6125,4.48702,2.97128,40,13
-1.01568,0.312076,-0.0556855,2,6
-15.1083,4.64503,3.64916,16,14
-16.0983,4.95557,4.51329,35,15
-0.953274,0.294905,0.0174175,1,8
-0.605017,0.187284,-0.146218,25,1
-0.74264,0.230027,-0.151121,9,2
-1.11858,0.347115,0.143806,4,11
-0.591491,0.183663,-0.0760465,11,4
-15.0413,4.67044,2.4945,18,12
-14.6399,4.5514,2.98006,14,13
-1.01458,0.315619,-0.0556855,2,6
-14.1077,4.39135,3.41116,9,14
-0.874475,0.272201,-0.0159864,2,7
-16.08,5.00835,4.51277,22,15
-0.902673,0.282534,0.01651,2,8
-0.591375,0.185212,-0.143069,25,1
-0.741832,0.232618,-0.151121,9,2
-0.686059,0.215261,-0.113884,11,3
-1.15909,0.363904,0.149168,12,11
-16.5682,5.20805,2.75074,35,12
-14.6097,4.59521,2.977,27,13
-13.9072,4.37958,3.36617,45,14
-0.923108,0.290878,-0.0168939,2,7
-14.8261,4.67466,4.16543,30,15
-0.951245,0.301387,0.0174175,1,8
-0.600013,0.19022,-0.145318,25,1
-1.06725,0.338757,0.0979631,1,10
-1.18809,0.377568,0.153068,22,11
-14.9602,4.75714,2.48637,36,12
-14.7302,4.68966,3.00486,16,13
-13.8499,4.41207,3.35582,56,14
-0.922139,0.293937,-0.0168939,2,7
-15.3369,4.89168,4.31348,35,15
-0.881686,0.282569,0.0161609,2,8
-0.5901,0.189233,-0.143069,12,1
-0.740273,0.237533,-0.151121,9,2
-1.08889,0.349603,0.100055,1,10
-0.710908,0.228384,-0.118264,10,3
-1.19439,0.383936,0.154043,14,11
-15.0383,4.83697,2.50201,62,12
-14.6753,4.72584,2.99685,38,13
-0.916286,0.295246,-0.0504519,3,6
-0.921159,0.296994,-0.0168939,2,7
-14.6128,4.71416,4.11419,9,15
-0.949225,0.307689,0.0174175,1,8
-0.596884,0.193594,-0.144868,12,1
-1.07635,0.349519,0.0990089,1,10
-0.69136,0.224636,-0.115136,11,3
-16.4317,5.34214,2.1215,9,11
-14.3739,4.68146,2.93846,25,13
-14.1734,4.62163,3.44175,31,14
-0.870738,0.283928,-0.0159864,2,7
-14.7642,4.81712,4.16129,13,15
-0.948199,0.310835,0.0174175,1,8
-0.596239,0.195572,-0.144868,12,1
-0.738639,0.242566,-0.151121,9,2
-1.09027,0.35825,0.100403,2,10
-14.7657,4.85471,1.90847,28,11
-14.2763,4.70208,2.92167,40,13
-14.245,4.69729,3.4629,20,14
-0.824166,0.271929,-0.0151487,3,7
-14.9197,4.92556,4.20995,13,15
-0.947109,0.314143,0.0174175,1,8
-0.610349,0.202563,-0.148468,12,1
-1.06336,0.353116,0.058721,1,9
-0.689387,0.228928,-0.141199,11,2
-1.10987,0.368774,0.102321,6,10
-0.682317,0.226844,-0.113884,11,3
-14.7223,4.89744,1.90506,45,11
-15.3288,5.10517,2.55896,32,12
-0.714538,0.237972,-0.0658897,6,5
-19.9797,6.65797,4.09362,17,13
-15.5188,5.17746,3.77693,22,14
-0.918052,0.306463,-0.0168939,2,7
-15.5529,5.19488,4.39371,15,15
-0.946006,0.317448,0.0174175,1,8
-0.624417,0.209654,-0.152067,11,1
-1.06213,0.356826,0.058721,1,9
-0.669974,0.225081,-0.137382,12,2
-1.13313,0.380899,0.104587,15,10
-0.681521,0.229225,-0.113884,11,3
-14.8198,4.98743,1.91993,8,11
-15.1087,5.09052,2.52517,11,12
-14.5482,4.90449,2.98425,12,13
-0.912182,0.307692,-0.0504519,3,6
-0.916976,0.309666,-0.0168939,2,7
-14.6397,4.94673,4.14059,11,15
-0.594158,0.201805,-0.144868,12,1
-1.06087,0.360531,0.058721,1,9
-0.736102,0.25016,-0.151121,9,2
-1.14877,0.390625,0.106156,16,10
-0.662015,0.225239,-0.110756,12,3
-14.8456,5.05385,1.92554,57,11
-14.4589,4.92784,2.41942,1,12
-14.2801,4.8697,2.93273,11,13
-0.979152,0.334093,-0.0542201,2,6
-0.885612,0.302522,-0.0163355,2,7
-14.6644,5.01217,4.15249,31,15
-0.57502,0.197546,-0.140369,13,1
-1.04828,0.360336,0.0580929,1,9
-0.735225,0.252728,-0.151121,9,2
-1.15117,0.395928,0.106504,8,10
-0.612661,0.210836,-0.102621,14,3
-14.8185,5.1024,1.92432,20,11
-14.2315,4.90863,2.92625,8,13
-0.860924,0.297112,-0.0477304,5,6
-15.2445,5.264,3.72339,12,14
-0.888331,0.306918,-0.0164053,2,7
-14.8495,5.13339,4.20995,10,15
-0.607461,0.211065,-0.148468,12,1
-1.09047,0.378887,0.0605004,2,9
-0.734338,0.255292,-0.151121,9,2
-13.9065,4.8373,1.28816,22,10
-0.626846,0.218168,-0.105124,13,3
-14.5062,5.0516,1.88605,70,11
-17.8611,6.22338,2.99572,15,12
-14.2365,4.96604,2.93083,10,13
-0.871196,0.304064,-0.0483584,4,6
-15.1736,5.29589,3.71034,9,14
-0.913739,0.319092,-0.0168939,2,7
-22.4811,7.85515,6.38093,6,15
-0.647208,0.227283,-0.158366,10,1
-1.10617,0.388457,0.0614424,5,9
-0.689034,0.242106,-0.141962,11,2
-17.1383,6.02527,1.58937,43,10
-0.64848,0.228111,-0.108878,12,3
-14.4445,5.08386,1.8802,49,11
-0.907853,0.32024,-0.0504519,3,6
-15.2828,5.39091,3.74139,27,14
-0.893819,0.315465,-0.0165449,2,7
-14.888,5.25749,4.23066,5,15
-0.591356,0.209875,-0.144868,12,1
-1.12369,0.398804,0.0624891,12,9
-0.732629,0.260157,-0.151121,9,2
-20.4769,7.2754,1.90122,21,10
-0.610495,0.217027,-0.102621,14,3
-14.5248,5.16633,1.89287,49,11
-15.776,5.61447,2.65219,31,12
-0.803333,0.286054,-0.0746053,4,5
-14.0535,5.00698,2.89992,7,13
-0.86916,0.309836,-0.0483584,4,6
-22.7453,8.11266,5.57519,32,14
-0.922904,0.329176,-0.0171034,1,7
-22.363,7.98071,6.36229,16,15
-0.627343,0.224992,-0.153867,11,1
-1.15425,0.414191,0.0642686,20,9
-0.665196,0.23883,-0.137382,12,2
-17.8301,6.40515,1.65753,35,10
-14.289,5.1359,1.86436,40,11
-19.5834,7.04659,3.29639,19,12
-13.8336,4.9804,2.85794,15,13
-0.935774,0.337084,-0.0521266,2,6
-14.3511,5.17237,3.52183,40,14
-0.910462,0.328325,-0.0168939,2,7
-14.1595,5.1089,4.03344,4,15
-0.589914,0.213895,-0.144868,12,1
-1.15092,0.417537,0.0641639,15,9
-0.690239,0.250408,-0.142725,11,2
-14.8365,5.3854,1.3809,33,10
-14.2075,5.1627,1.85607,72,11
-16.2506,5.91153,2.73886,15,12
-0.82758,0.301051,-0.0770457,4,5
-13.7645,5.00986,2.84725,26,13
-0.882044,0.321212,-0.0491958,4,6
-14.2432,5.18974,3.49979,24,14
-0.920583,0.335611,-0.0171034,1,7
-1.05712,0.387271,0.0196514,1,8
-14.9411,5.47949,0.834026,14,9
-0.663555,0.243352,-0.137382,24,2
-14.5277,5.33077,1.35388,100,10
-14.1503,5.19789,1.85095,16,11
-16.2039,5.95867,2.73447,31,12
-0.826524,0.303938,-0.0770457,4,5
-13.8869,5.10939,2.87625,22,13
-0.892164,0.328429,-0.0498238,3,6
-15.0827,5.55532,3.71079,52,14
-0.934417,0.344354,-0.0173826,3,7
-13.935,5.13812,3.9796,9,15
-1.04639,0.387486,0.0194769,2,8
-15.0502,5.57619,0.841144,13,9
-0.65902,0.244302,-0.136619,25,2
-14.3447,5.32048,1.33854,60,10
-14.856,5.51604,1.94577,45,11
-19.2413,7.14812,3.25102,36,12
-0.844133,0.313763,-0.0787888,3,5
-14.4928,5.38982,3.00562,18,13
-0.891012,0.331541,-0.0498238,3,6
-0.944514,0.351637,-0.017592,4,7
-14.0048,5.21667,4.00445,11,15
-1.07319,0.401464,0.0200005,6,8
-14.4732,5.41996,0.809951,39,9
-0.660002,0.24729,-0.137001,24,2
-14.0629,5.27191,1.31396,74,10
-16.4435,6.1676,2.15636,41,11
-0.793592,0.297818,-0.104076,5,4
-15.9281,5.98065,2.69474,7,12
-0.835573,0.313905,-0.0780915,3,5
-0.912342,0.342927,-0.0510799,3,6
-14.1617,5.32584,3.49304,31,14
-0.961996,0.361974,-0.0179411,1,7
-14.1564,5.32951,4.05311,28,15
-1.07927,0.408036,0.0201401,12,8
-14.8801,5.63164,0.833817,15,9
-0.637144,0.241138,-0.132421,26,2
-14.0901,5.33544,1.31814,60,10
-14.9053,5.6501,1.95722,46,11
-0.792548,0.300586,-0.104076,5,4
-19.6009,7.43786,3.32048,29,12
-0.827076,0.313846,-0.0773943,3,5
-15.5424,5.90088,3.23154,28,13
-0.911139,0.34611,-0.0510799,3,6
-14.0701,5.34755,3.47504,49,14
-0.956989,0.363908,-0.0178713,1,7
-14.2695,5.42904,4.09089,27,15
-1.09652,0.418938,0.0204891,12,8
-15.0936,5.77272,0.846901,31,9
-0.645467,0.246867,-0.13433,25,2
-13.7234,5.25144,1.28555,27,10
-14.9059,5.70991,1.9599,46,11
-0.791494,0.303351,-0.104076,5,4
-19.4402,7.4546,3.29764,22,12
-0.833417,0.319585,-0.0780915,3,5
-15.1477,5.81164,3.15369,56,13
-0.906197,0.347856,-0.0508706,3,6
-14.2551,5.47488,3.52543,67,14
-1.04158,0.400241,-0.0194769,1,7
-14.5318,5.58696,4.17165,15,15
-1.08572,0.419162,0.0203146,5,8
-15.0193,5.80449,0.843865,44,9
-0.692214,0.26752,-0.144252,11,2
-14.9211,5.77552,1.96453,46,11
-0.79043,0.306112,-0.104076,5,4
-15.3728,5.95656,2.6112,66,12
-0.850874,0.329691,-0.0798347,3,5
-0.92546,0.358962,-0.0520219,4,6
-14.4031,5.58947,3.56682,22,14
-1.05882,0.411113,-0.0198259,1,7
-13.8866,5.41695,0.26018,46,8
-15.4752,6.04287,0.870661,32,9
-0.662016,0.258509,-0.138146,12,2
-13.6697,5.3406,1.28398,90,10
-0.789357,0.308869,-0.104076,5,4
-15.8376,6.20029,2.6938,22,12
-0.846008,0.331206,-0.079486,3,5
-23.0477,9.02767,4.81144,15,13
-0.935359,0.366563,-0.05265,4,6
-14.6121,5.72934,3.62351,66,14
-1.0611,0.416267,-0.0198957,6,7
-13.8037,5.41795,3.97339,12,15
-13.7765,5.42392,0.258435,61,8
-14.7585,5.81353,0.831304,38,9
-0.679466,0.267786,-0.141962,11,2
-13.9847,5.51434,1.31518,74,10
-0.788383,0.311347,-0.104076,5,4
-15.7566,6.22259,2.68316,28,12
-0.852375,0.336791,-0.0801833,3,5
-14.9804,5.92209,3.13118,11,13
-0.939774,0.371704,-0.052964,4,6
-14.2642,5.64472,3.54163,45,14
-1.06729,0.422356,-0.0200354,13,7
-20.446,8.09515,5.89227,5,15
-13.7157,5.45258,0.257632,75,8
-14.9274,5.94033,0.841981,15,9
-0.667583,0.265798,-0.139672,11,2
-13.9227,5.54617,1.31117,63,10
-14.861,5.92294,1.96429,59,11
-0.835287,0.333077,-0.110414,3,4
-14.5202,5.79297,2.47605,12,12
-0.851194,0.339764,-0.0801833,3,5
-15.6043,6.22865,3.26589,16,13
-0.957085,0.382225,-0.0540107,4,6
-13.9432,5.57124,3.4665,42,14
-1.09367,0.437214,-0.0205589,16,7
-15.3451,6.13759,4.42839,8,15
-13.91,5.58612,0.261646,90,8
-14.8232,5.95888,0.837271,46,9
-0.6922,0.278263,-0.145015,21,2
-13.8729,5.57966,1.30821,40,10
-16.168,6.50931,2.14003,37,11
-0.823071,0.33154,-0.108951,4,4
-14.7014,5.92484,2.51046,13,12
-0.86115,0.347053,-0.0812292,2,5
-15.7245,6.34035,3.29565,24,13
-0.95204,0.384069,-0.0538014,4,6
-13.6653,5.51557,3.40216,42,14
-1.1014,0.444772,-0.0207335,10,7
-14.9259,6.03046,4.31348,33,15
-0.709414,0.288063,-0.148831,20,2
-15.402,6.25723,1.45446,12,10
-14.6115,5.94204,1.93675,4,11
-0.851329,0.346381,-0.112851,3,4
-0.898686,0.365832,-0.0848897,3,5
-15.015,6.11528,3.1514,5,13
-0.96919,0.394927,-0.0548481,4,6
-13.839,5.64196,3.4503,100,14
-14.6794,5.98757,-0.276725,16,7
-14.1303,5.76646,4.08934,5,15
-17.6269,7.22215,0.332503,6,8
-15.0003,6.14903,0.849622,35,9
-0.66481,0.272659,-0.139672,11,2
-15.4188,6.32684,1.45812,40,10
-14.5852,5.99075,1.93602,16,11
-0.828081,0.340296,-0.109926,4,4
-0.891875,0.366694,-0.0843668,4,5
-15.0045,6.17214,3.15369,11,13
-1.02691,0.422632,-0.0581976,6,6
-14.859,6.11835,3.70989,26,14
-21.5898,8.88986,-0.407549,33,7
-14.1057,5.81108,4.08779,12,15
-13.6336,5.63888,0.257528,49,8
-14.3606,5.94541,0.814557,16,9
-0.707386,0.293009,-0.148831,10,2
-14.7542,6.11441,1.39728,25,10
-14.7394,6.1113,1.95917,4,11
-0.841617,0.349126,-0.111876,3,4
-19.3486,8.0303,3.31798,17,12
-0.908991,0.377446,-0.0861099,3,5
-15.051,6.24972,3.16781,16,13
-1.06608,0.442892,-0.0605004,12,6
-14.5579,6.05091,3.63971,14,14
-21.494,8.9383,-0.406327,100,7
-15.2893,6.3612,4.43719,11,15
-13.5899,5.67642,0.257074,87,8
-0.717278,0.299897,-0.151121,9,2
-15.4011,6.44241,1.46056,71,10
-17.9041,7.49678,2.38328,20,11
-0.844055,0.353595,-0.112364,3,4
-19.3474,8.1051,3.32236,8,12
-0.922434,0.386619,-0.0875044,2,5
-19.7853,8.29667,4.17032,25,13
-1.06268,0.445838,-0.0603957,22,6
-21.5196,9.03274,-0.407374,41,7
-21.3615,8.97078,6.20803,12,15
-13.6336,5.74786,0.258261,57,8
-0.723462,0.305454,-0.152647,9,2
-14.6572,6.19144,1.39205,18,10
-0.778827,0.328989,-0.133908,6,3
-16.0104,6.76634,2.13418,64,11
-0.850191,0.359485,-0.113339,3,4
-20.7526,8.77904,3.5689,23,12
-0.935758,0.39605,-0.0888989,5,5
-15.8488,6.70785,3.34526,11,13
-1.0612,0.44936,-0.0603957,16,6
-15.5263,6.58094,-0.294352,44,7
-13.5693,5.77662,0.257423,52,8
-13.8907,5.91916,0.79132,18,9
-0.717027,0.305542,-0.151502,9,2
-15.3055,6.52521,1.45568,25,10
-14.6958,6.27133,1.96185,34,11
-0.841629,0.359332,-0.112364,3,4
-19.839,8.47431,3.41684,9,12
-0.963755,0.411673,-0.0916878,5,5
-1.05779,0.452276,-0.060291,4,6
-14.8907,6.36988,3.73914,22,14
-15.4187,6.5989,-0.292747,100,7
-14.9957,6.42096,4.37094,13,15
-13.6409,5.86343,0.259168,75,8
-17.5501,7.55463,1.67165,28,10
-0.776511,0.334419,-0.133908,6,3
-14.3949,6.20241,1.92456,20,11
-0.844015,0.36384,-0.112851,3,4
-0.980607,0.422925,-0.093431,5,5
-15.3546,6.62543,3.25062,27,13
-14.035,6.05896,-0.801159,35,6
-14.6609,6.33219,3.68695,19,14
-15.2542,6.5916,-0.290059,39,7
-14.8987,6.44107,4.3492,11,15
-13.9692,6.06528,0.798123,62,9
-15.2907,6.6454,1.45864,25,10
-0.775339,0.337127,-0.133908,6,3
-14.1038,6.13542,1.88849,61,11
-0.861007,0.374555,-0.115288,2,4
-19.9366,8.67695,3.44375,16,12
-1.02479,0.446231,-0.0977887,8,5
-15.4303,6.72211,3.27161,39,13
-14.087,6.13984,-0.805346,42,6
-14.6523,6.38622,3.6901,2,14
-20.9897,9.15274,-0.399695,66,7
-14.81,6.46109,4.32952,7,15
-17.6544,7.73136,0.336413,4,8
-13.9673,6.11958,0.79917,38,9
-17.4326,7.64511,1.66537,31,10
-0.792306,0.347633,-0.137037,6,3
-13.9597,6.1279,1.87191,41,11
-0.874302,0.383792,-0.117238,4,4
-19.8354,8.71124,3.43123,1,12
-1.02696,0.451229,-0.0981374,13,5
-15.3738,6.75823,3.26436,19,13
-14.03,6.17043,-0.803252,74,6
-14.4455,6.35318,3.64331,9,14
-19.4584,8.56189,-0.371073,61,7
-14.7955,6.51328,4.3316,50,15
-13.7016,6.05456,0.261472,10,8
-13.8947,6.14568,0.796239,58,9
-18.1323,8.02376,1.73475,28,10
-0.773086,0.342261,-0.133908,6,3
-13.9629,6.18461,1.87508,45,11
-0.898365,0.398101,-0.120651,4,4
-19.7525,8.7572,3.42216,20,12
-1.03638,0.459477,-0.0991832,15,5
-15.2203,6.75107,3.2365,28,13
-14.0588,6.2388,-0.806078,74,6
-14.5676,6.46762,3.67975,78,14
-19.4028,8.6184,-0.370584,83,7
-14.7586,6.55861,4.32745,20,15
-13.7133,6.11701,0.2621,66,8
-13.9133,6.21206,0.798542,38,9
-18.3115,8.17964,1.75462,10,10
-0.782707,0.349794,-0.135785,6,3
-14.0699,6.29084,1.89239,70,11
-0.90603,0.405287,-0.121869,5,4
-16.3068,7.2978,2.82959,52,12
-1.04023,0.465534,-0.0997062,6,5
-14.686,6.5755,3.12774,22,13
-13.9841,6.26416,-0.803043,78,6
-14.4809,6.48974,3.66355,14,14
-19.3854,8.6918,-0.370829,7,7
-20.8132,9.33635,6.11227,24,15
-14.4086,6.49364,0.828269,5,9
-14.0291,6.32554,1.34638,39,10
-0.77788,0.3509,-0.135159,13,3
-14.0931,6.36033,1.89848,61,11
-0.940794,0.424785,-0.126744,4,4
-1.0603,0.47919,-0.101798,1,5
-14.6808,6.63481,3.13156,6,13
-14.7191,6.65831,3.72969,20,14
-18.9669,8.5838,-0.363394,30,7
-14.6245,6.62164,4.30157,13,15
-19.7835,8.99086,0.379311,2,8
-14.0896,6.4091,0.811207,16,9
-14.1291,6.43305,1.35824,69,10
-0.78378,0.357024,-0.136411,12,3
-13.9877,6.37163,1.88727,33,11
-0.977239,0.445354,-0.131863,9,4
-15.2759,6.96484,2.65907,31,12
-21.6147,9.85951,-2.07849,22,5
-15.4316,7.04232,3.29718,13,13
-23.3156,10.6452,-1.34325,12,6
-17.8345,8.14646,-0.342242,79,7
-13.7614,6.28883,4.05414,13,15
-19.6759,9.02911,0.37788,26,8
-14.0834,6.46574,0.812149,8,9
-14.0776,6.46902,1.35545,33,10
-0.787913,0.362233,-0.137349,12,3
-13.7803,6.33824,1.86241,52,11
-1.00453,0.462034,-0.135762,14,4
-15.334,7.0561,2.67347,32,12
-21.7105,9.9949,-2.09104,23,5
-15.3605,7.07479,3.28726,20,13
-17.4973,8.06266,-1.00967,7,6
-14.3608,6.61737,3.65051,45,14
-18.7358,8.63731,-0.360113,29,7
-20.7792,9.58373,6.13142,12,15
-19.6767,9.10859,0.378473,35,8
-14.4099,6.67356,0.832246,7,9
-14.1501,6.55924,1.36451,24,10
-0.784915,0.364012,-0.137037,12,3
-13.8619,6.43153,1.8763,45,11
-1.0138,0.470376,-0.137225,30,4
-14.9773,6.95222,2.61527,8,12
-22.1832,10.3018,-2.13985,6,5
-15.385,7.14803,3.29756,27,13
-13.8155,6.42175,-0.798437,32,6
-14.7558,6.85881,3.75668,50,14
-18.0887,8.41186,-0.34821,7,7
-20.8962,9.72185,6.17542,21,15
-19.9001,9.29224,0.38336,12,8
-19.3062,9.02316,1.11685,42,9
-0.801597,0.374984,-0.140165,11,3
-13.9699,6.53805,1.89385,12,11
-1.00137,0.468861,-0.135762,19,4
-14.969,7.01199,2.61809,16,12
-17.8693,8.37057,-1.72638,15,5
-20.4189,9.56924,4.38326,22,13
-13.7399,6.4421,-0.795297,39,6
-19.4495,9.12322,4.95972,46,14
-19.4314,9.1189,-0.374668,7,7
-14.0089,6.57716,4.1468,31,15
-19.3936,9.13833,0.374215,2,8
-14.0161,6.61042,0.812149,7,9
-0.818146,0.386212,-0.143294,19,3
-19.1058,9.02311,2.59435,30,11
-1.02485,0.484226,-0.139175,9,4
-14.8998,7.0431,2.61027,15,12
-22.1378,10.4645,-2.14229,30,5
-20.3303,9.61443,4.37143,30,13
-13.683,6.47379,-0.793308,78,6
-18.3536,8.68749,4.68798,11,14
-21.7779,10.313,-0.420603,8,7
-13.9422,6.60535,4.13386,10,15
-19.2478,9.15187,0.372016,30,8
-19.3111,9.18611,1.12072,9,9
-13.8767,6.60696,1.34464,51,10
-0.83641,0.39841,-0.146736,15,3
-18.0492,8.60127,2.45494,10,11
-1.01778,0.485237,-0.138444,11,4
-15.1581,7.22679,2.6597,10,12
-22.1371,10.5589,-2.14577,12,5
-14.3556,6.85034,3.09187,15,13
-18.3162,8.74814,4.68618,7,14
-17.698,8.45289,-0.342346,50,7
-14.0492,6.71318,4.17216,55,15
-19.1957,9.20527,0.371597,4,8
-19.1745,9.20334,1.11465,6,9
-13.9092,6.68211,1.35004,90,10
-0.849329,0.408024,-0.149238,13,3
-17.6451,8.48443,-2.404,27,4
-21.899,10.5393,-2.12625,35,5
-14.3363,6.89961,3.09263,8,13
-13.9284,6.70627,-0.810161,48,6
-14.0857,6.78507,3.60956,28,14
-21.3991,10.3125,-0.414634,100,7
-14.1458,6.82007,4.20788,33,15
-24.605,11.9051,0.477114,3,8
-19.1367,9.26339,1.11423,5,9
-0.856788,0.415295,-0.150803,15,3
-19.2655,9.34236,2.62897,6,11
-19.705,9.55974,-2.68917,12,4
-15.0463,7.29962,2.64875,55,12
-21.5091,10.4396,-2.09174,23,5
-19.9318,9.67834,4.30694,26,13
-13.7684,6.68852,-0.802206,78,6
-14.0409,6.82397,3.60417,26,14
-18.8846,9.17803,-0.366501,67,7
-18.9654,9.25416,0.368351,11,8
-19.1419,9.34854,1.11643,5,9
-0.700292,0.342161,-0.151502,9,2
-14.2554,6.96825,1.38822,6,10
-0.878477,0.429411,-0.15487,14,3
-19.9514,9.76113,-2.72719,16,4
-14.2188,6.95957,2.50733,18,12
-17.4339,8.53699,-1.69832,30,5
-19.3618,9.48105,4.19055,20,13
-17.9554,8.80017,4.61645,39,14
-17.8147,8.73504,-0.346326,14,7
-13.6568,6.69924,4.07588,5,15
-14.986,7.37729,0.29156,1,8
-15.1032,7.44149,0.882384,1,9
-0.699154,0.344481,-0.151502,9,2
-0.931894,0.459559,-0.164569,17,3
-20.2198,9.98007,-2.76863,13,4
-18.5817,9.17558,3.28231,10,12
-21.2195,10.4781,-2.07047,11,5
-17.9503,8.86771,3.89174,14,13
-17.3841,8.59176,-1.01626,7,6
-13.6783,6.76915,4.08934,45,15
-1.42365,0.707635,0.0833189,1,9
-0.697947,0.346919,-0.151502,9,2
-1.4486,0.720352,0.141541,1,10
-0.949739,0.472488,-0.168011,21,3
-1.42705,0.710256,0.195722,6,11
-18.5283,9.22981,3.27855,19,12
-21.1329,10.5273,-2.06559,5,5
-17.9404,8.94082,3.89632,26,13
-18.2336,9.09492,4.70418,54,14
-13.6079,6.79356,4.07536,6,15
-1.42852,0.715659,0.0278889,1,8
-1.43206,0.717749,-0.36982,1,1
-1.44272,0.723091,0.0845749,5,9
-0.608982,0.305354,-0.132421,13,2
-1.40333,0.703963,0.137357,11,10
-0.942787,0.473142,-0.167072,22,3
-1.42811,0.717014,0.19621,18,11
-17.6009,8.84079,3.11962,18,12
-14.315,7.19655,3.11438,12,13
-14.6518,7.3691,3.78638,17,14
-1.48979,0.74961,-0.0291106,1,7
-21.3227,10.7335,6.39645,14,15
-1.39758,0.705966,0.0273305,7,8
-1.41536,0.715259,0.0831095,14,9
-0.625487,0.31623,-0.136238,12,2
-1.41521,0.715807,0.138752,14,10
-0.927112,0.469131,-0.164569,16,3
-1.41332,0.71547,0.194503,9,11
-1.46469,0.741471,-0.201572,1,4
-14.4787,7.33277,2.57053,3,12
-1.41827,0.718596,-0.139101,1,5
-14.2297,7.21291,3.10103,12,13
-1.41792,0.719041,-0.0833189,3,6
-14.6586,7.43351,3.79447,22,14
-1.40526,0.712928,-0.027505,13,7
-13.5712,6.88803,4.07795,5,15
-1.37728,0.701153,-0.41411,1,0
-1.40592,0.716042,0.0275399,25,8
-1.41285,0.720195,0.0831095,12,9
-0.606944,0.309386,-0.132421,13,2
-1.40396,0.71597,0.13788,6,10
-0.944907,0.482078,-0.168011,17,3
-1.4021,0.715641,0.193285,16,11
-1.39137,0.710469,-0.191822,4,4
-14.1698,7.23858,2.52016,31,12
-1.39624,0.713568,-0.137183,12,5
-17.5972,8.99332,3.84137,21,13
-1.38174,0.706464,-0.0813301,16,6
-18.217,9.31808,4.72397,20,14
-1.40988,0.721473,-0.0276446,20,7
-19.1375,9.79736,5.76079,2,15
-1.35752,0.697369,-0.408934,2,0
-1.40163,0.720032,0.027505,13,8
-1.39006,0.714393,-0.360821,1,1
-1.405,0.722383,0.0827955,10,9
-0.605805,0.311609,-0.132421,13,2
-1.41904,0.730228,0.139624,21,10
-0.951916,0.490058,-0.169575,19,3
-1.39947,0.720775,-0.193285,16,4
-14.1041,7.26719,2.51296,43,12
-1.38311,0.71296,-0.136137,21,5
-17.5397,9.04516,3.83602,17,13
-1.39689,0.720681,-0.0823768,18,6
-18.1636,9.37495,4.71902,32,14
-1.40025,0.722721,-0.027505,8,7
-18.6861,9.64872,5.63501,4,15
-1.34478,0.696771,-0.405828,2,0
-1.39721,0.724244,0.0274701,11,8
-1.37705,0.714101,-0.358122,2,1
-1.41311,0.7328,0.0834235,31,9
-0.625626,0.324571,-0.137001,12,2
-0.955458,0.496109,-0.170514,19,3
-1.4128,0.733892,0.195478,126,11
-1.38638,0.720165,-0.191822,15,4
-1.38945,0.722379,-0.137009,7,5
-1.41031,0.73385,-0.0833189,4,6
-14.1944,7.38601,3.69415,14,14
-1.39594,0.726682,-0.0274701,10,7
-30.7798,16.0298,9.29885,16,15
-1.35103,0.705699,-0.408416,2,0
-1.39834,0.730726,0.0275399,21,8
-1.37468,0.718663,-0.358122,5,1
-0.60367,0.315726,-0.132421,13,2
-1.38403,0.724167,0.13666,100,10
-0.945058,0.494694,-0.168949,21,3
-1.39805,0.732126,0.193772,100,11
-1.38398,0.724759,-0.191822,10,4
-18.7052,9.79964,3.34457,5,12
-1.37293,0.719583,-0.135614,5,5
-1.39372,0.7311,-0.0824815,7,6
-14.213,7.45567,3.70539,23,14
-1.39175,0.730378,-0.0274352,25,7
-19.0168,9.98403,5.7551,30,15
-1.33842,0.704774,-0.405311,2,0
-1.36937,0.721379,0.0270163,69,8
-1.36884,0.721401,-0.357222,5,1
-1.39749,0.736812,0.0827955,94,9
-0.578307,0.304906,-0.127079,14,2
-1.3869,0.731541,0.137183,100,10
-0.953894,0.503357,-0.170826,29,3
-1.38157,0.729344,0.191822,100,11
-1.37618,0.726804,-0.191091,9,4
-14.5542,7.68981,2.60714,21,12
