x, y, z, intensity, ring
-28.8829,10.2677,7.07696,20,14
-0.90435,0.321669,-0.0167543,2,7
-0.607356,0.217226,-0.148918,12,1
-1.134,0.405584,0.0631172,13,9
-0.687628,0.246071,-0.141962,11,2
-22.8732,8.18979,2.12555,59,10
-23.4257,8.39683,3.05551,8,11
-0.828886,0.297437,-0.0770457,4,5
-28.9712,10.4017,5.98339,19,13
-0.905994,0.325463,-0.0504519,3,6
-28.8176,10.3579,7.06976,51,14
-0.918333,0.330077,-0.0170335,2,7
-36.1084,12.9856,10.2818,9,15
-0.63229,0.228511,-0.155216,11,1
-1.1476,0.414973,0.0639545,16,9
-0.664611,0.240455,-0.137382,12,2
-22.8108,8.25738,2.12242,43,10
-26.3877,9.55743,3.44598,53,11
-23.2245,8.42092,3.91274,30,12
-0.846572,0.307123,-0.0787888,3,5
-29.0122,10.5252,5.99904,19,13
-0.942457,0.342095,-0.0525453,2,6
-28.7849,10.4541,7.07021,41,14
-0.909657,0.330549,-0.0168939,2,7
-0.609524,0.222692,-0.149817,12,1
-1.15553,0.422405,0.0644779,11,9
-0.660122,0.241309,-0.136619,12,2
-23.4531,8.57798,2.18482,67,10
-26.179,9.58533,3.42307,21,11
-23.3786,8.56924,3.94371,22,12
-0.800652,0.293472,-0.0746053,4,5
-28.9255,10.6081,5.98873,23,13
-0.903757,0.331623,-0.0504519,3,6
-28.6403,10.5149,7.04367,41,14
-0.927268,0.340617,-0.017243,3,7
-1.06743,0.394008,0.0198608,1,8
-0.612399,0.226169,-0.150717,11,1
-23.4893,8.67964,1.31238,17,9
-0.662959,0.244973,-0.137382,24,2
-22.769,8.41798,2.12381,26,10
-26.1975,9.69595,3.42989,53,11
-23.2226,8.60413,3.92244,17,12
-0.799623,0.296266,-0.0746053,4,5
-20.8696,7.73646,4.3264,33,13
-0.902594,0.334775,-0.0504519,3,6
-28.6856,10.6453,7.06391,41,14
-0.956068,0.354989,-0.0178015,4,7
-1.03232,0.385149,0.0192326,5,8
-0.611605,0.228305,-0.150717,11,1
-28.0559,10.4729,1.56945,8,9
-0.6621,0.247286,-0.137382,24,2
-22.76,8.50508,2.12573,21,10
-27.8889,10.4328,3.65608,24,11
-0.795711,0.297821,-0.10432,5,4
-32.5736,12.1917,5.50868,9,12
-0.843364,0.315824,-0.0787888,3,5
-20.8811,7.82373,4.33442,35,13
-0.886459,0.332316,-0.0496145,3,6
-28.4895,10.6858,7.02477,20,14
-0.943652,0.353944,-0.017592,3,7
-29.5738,11.0984,8.4639,6,15
-1.07782,0.4062,0.0201052,10,8
-0.680135,0.256459,-0.167813,9,1
-23.2166,8.75895,1.30044,2,9
-0.648375,0.244742,-0.134711,25,2
-23.2986,8.79918,2.17889,22,10
-27.765,10.4915,3.64438,11,11
-0.794719,0.300458,-0.10432,5,4
-23.2097,8.77947,3.93026,10,12
-0.853437,0.322998,-0.0798347,3,5
-20.9174,7.91656,4.34739,40,13
-0.900295,0.340911,-0.0504519,3,6
-33.4125,12.6589,8.24895,12,14
-0.94615,0.358653,-0.0176618,1,7
-29.459,11.1728,8.44216,26,15
-1.09322,0.416366,0.0204193,13,8
-22.9281,8.73704,1.28589,18,9
-0.660401,0.251786,-0.137382,24,2
-23.1893,8.84585,2.1714,45,10
-22.5913,8.62677,2.96922,8,11
-0.793719,0.303091,-0.10432,5,4
-23.0162,8.79363,3.90241,20,12
-0.79653,0.304484,-0.0746053,4,5
-20.9942,8.0295,4.36914,42,13
-0.90656,0.346907,-0.0508706,3,6
-33.4122,12.7856,8.2593,48,14
-0.971101,0.371799,-0.0181505,1,7
-29.4597,11.2849,8.45303,13,15
-1.09743,0.422143,0.020524,10,8
-23.6371,9.09711,1.32734,23,9
-0.67422,0.259619,-0.140435,23,2
-23.2323,8.95064,2.1782,33,10
-21.0549,8.1202,2.77082,42,11
-0.792709,0.305722,-0.10432,5,4
-22.8948,8.83436,3.88677,35,12
-0.832689,0.321475,-0.0780915,3,5
-20.8429,8.05097,4.34319,40,13
-0.909131,0.351351,-0.0510799,3,6
-28.669,11.0797,7.09586,10,14
-1.08923,0.421173,-0.0203844,1,7
-29.2509,11.3163,8.40385,6,15
-1.08484,0.421435,0.0203146,2,8
-23.8134,9.25575,1.33896,10,9
-0.684334,0.266123,-0.142725,11,2
-23.3585,9.08832,2.19284,11,10
-27.0285,10.5271,3.56151,22,11
-0.791691,0.308349,-0.10432,5,4
-23.0568,8.98482,3.91931,12,12
-0.831619,0.324235,-0.0780915,3,5
-20.9039,8.15429,4.36151,28,13
-0.920985,0.359447,-0.0518126,5,6
-28.2001,11.0061,6.98878,41,14
-1.06547,0.416054,-0.0199656,1,7
-28.3585,11.0793,8.15798,24,15
-25.4496,9.98382,0.477184,9,8
-0.495226,0.194376,-0.122823,15,1
-22.8158,8.95521,1.28453,2,9
-0.687102,0.269826,-0.143488,11,2
-24.1868,9.50307,2.27354,12,10
-20.9304,8.23206,2.76156,14,11
-0.790664,0.310973,-0.10432,5,4
-22.889,9.00698,3.89584,27,12
-0.834247,0.32845,-0.0784402,3,5
-20.9206,8.24084,4.37067,40,13
-0.943944,0.37202,-0.0531733,4,6
-28.3266,11.1638,7.02927,20,14
-1.07897,0.425453,-0.0202448,12,7
-28.1024,11.0868,8.09482,24,15
-26.03,10.3218,0.488772,13,8
-27.3015,10.837,1.53941,14,9
-0.664211,0.263651,-0.138909,12,2
-21.765,8.64373,2.04886,45,10
-22.3574,8.88805,2.95411,32,11
-0.789464,0.314006,-0.10432,5,4
-28.1512,11.2027,4.79878,10,12
-0.862656,0.343293,-0.0812292,2,5
-21.0106,8.36539,4.39586,30,13
-0.949996,0.378434,-0.053592,4,6
-28.4591,11.3425,7.07291,31,14
-1.07919,0.430334,-0.0202797,16,7
-26.6852,10.6463,7.69831,21,15
-25.1956,10.0928,0.473763,15,8
-22.618,9.06943,1.2771,8,9
-0.681509,0.273274,-0.142725,11,2
-21.8012,8.74637,2.05513,40,10
-22.3391,8.97121,2.95582,16,11
-0.847306,0.340443,-0.11212,3,4
-22.7949,9.16347,3.89115,25,12
-0.842967,0.33887,-0.079486,3,5
-0.970904,0.390694,-0.0548481,6,6
-28.5242,11.484,7.09901,31,14
-1.08324,0.43634,-0.0203844,15,7
-26.6353,10.7343,7.69469,21,15
-23.7921,9.62715,0.448003,57,8
-27.3771,11.0833,1.54789,14,9
-0.691469,0.280074,-0.145015,10,2
-21.9128,8.88003,2.06855,56,10
-20.9354,8.49248,2.77399,14,11
-0.824098,0.334297,-0.109195,4,4
-22.4111,9.09564,3.83077,30,12
-0.869469,0.353055,-0.0821007,5,5
-20.7371,8.42467,4.35083,26,13
-0.976935,0.397089,-0.0552668,6,6
-28.3848,11.5374,7.07381,41,14
-1.0929,0.444449,-0.0205938,4,7
-23.1263,9.40943,6.68996,27,15
-27.4363,11.2133,1.55333,20,9
-0.708709,0.289796,-0.148831,10,2
-21.732,8.89079,2.05426,55,10
-20.8153,8.52424,2.7618,56,11
-0.834008,0.341541,-0.110657,3,4
-22.1541,9.07704,3.79197,19,12
-0.90332,0.370294,-0.0854126,3,5
-21.0106,8.61706,4.41418,27,13
-0.99409,0.407909,-0.0563135,4,6
-28.1067,11.5331,7.01397,10,14
-19.2553,7.90504,-0.363324,30,7
-23.0414,9.46405,6.67443,19,15
-46.3926,19.1311,0.875936,11,8
-27.4302,11.3227,1.55522,20,9
-0.718632,0.296639,-0.151121,9,2
-21.6655,8.94759,2.05077,55,10
-20.897,8.63872,2.77643,77,11
-0.821804,0.339898,-0.109195,4,4
-22.8177,9.44209,3.91118,5,12
-0.918656,0.380144,-0.0869814,2,5
-22.0956,9.14778,4.64849,14,13
-1.04809,0.434133,-0.0594537,10,6
-27.9852,11.5976,6.99373,10,14
-20.8679,8.65231,-0.39432,40,7
-27.0838,11.2351,7.85671,28,15
-41.3044,17.2018,0.780995,17,8
-23.4897,9.79226,1.33373,8,9
-0.695847,0.290081,-0.146541,10,2
-21.5772,8.99939,2.04537,10,10
-0.758378,0.316459,-0.130153,7,3
-20.7861,8.67796,2.7657,63,11
-0.846256,0.353476,-0.112607,3,4
-22.1941,9.2749,3.80981,19,12
-0.926515,0.38719,-0.087853,3,5
-21.4477,8.96737,4.51874,18,13
-1.07236,0.448579,-0.0609191,20,6
-28.2124,11.8073,7.06076,10,14
-20.6864,8.66178,-0.391457,89,7
-27.1602,11.3781,7.89036,5,15
-39.0874,16.4389,0.740157,7,8
-22.7208,9.56026,1.29186,16,9
-0.734638,0.309266,-0.154937,9,2
-28.2091,11.8812,2.67795,40,10
-0.779113,0.328309,-0.133908,6,3
-20.6459,8.7042,2.75108,55,11
-0.819471,0.345484,-0.109195,4,4
-22.1814,9.35612,3.81293,26,12
-0.9325,0.39352,-0.0885502,5,5
-21.4217,9.04448,4.51988,10,13
-1.05423,0.445325,-0.059977,22,6
-29.1748,12.3239,7.31181,43,14
-17.8264,7.53384,-0.337809,14,7
-27.2682,11.5298,7.9328,5,15
-27.6754,11.7475,0.524794,25,8
-27.5716,11.7091,1.56987,14,9
-28.1329,11.9591,2.67446,64,10
-0.748936,0.318521,-0.128902,8,3
-20.4489,8.70111,2.72865,54,11
-0.829281,0.352863,-0.110657,3,4
-15.3164,6.52035,2.63655,18,12
-0.949521,0.404417,-0.0902933,5,5
-27.8159,11.853,5.8773,18,13
-1.05459,0.449602,-0.0600817,12,6
-29.5927,12.6162,7.42698,43,14
-17.6597,7.53251,-0.335121,59,7
-28.9232,12.3428,8.42611,13,15
-21.291,9.12095,0.404302,7,8
-23.0047,9.86933,2.19005,11,10
-0.776919,0.333469,-0.133908,6,3
-20.4236,8.77044,2.72914,60,11
-0.849931,0.365159,-0.113582,3,4
-22.2514,9.55995,3.83577,19,12
-0.977462,0.420153,-0.0930823,5,5
-27.4897,11.8219,5.81662,4,13
-18.1814,7.82262,-1.0373,3,6
-27.6457,11.9004,6.94874,51,14
-17.552,7.55545,-0.33355,7,7
-21.7671,9.37441,6.35038,20,15
-14.9888,6.48,0.285033,53,8
-28.0558,12.1408,1.60211,24,9
-18.7249,8.11076,1.7853,15,10
-0.812061,0.351747,-0.140165,5,3
-20.3179,8.80497,2.71891,54,11
-0.863285,0.374293,-0.115532,2,4
-22.1653,9.61477,3.8267,26,12
-1.00158,0.434667,-0.0955227,6,5
-22.1969,9.63308,4.70344,28,13
-17.701,7.6856,-1.01134,18,6
-27.6276,12.0013,6.95414,51,14
-17.454,7.58559,-0.332189,29,7
-22.0355,9.58129,6.43838,10,15
-14.9605,6.52988,0.284928,42,8
-22.3012,9.74313,1.27543,20,9
-27.9282,12.2073,2.66662,7,10
-0.810829,0.354579,-0.140165,5,3
-20.1706,8.82491,2.70331,59,11
-0.869247,0.380488,-0.116507,2,4
-21.5146,9.42187,3.72001,24,12
-1.03298,0.452372,-0.0986603,13,5
-20.9296,9.17002,4.44165,12,13
-15.3272,6.71859,-0.877046,45,6
-21.2232,9.3075,5.35024,23,14
-20.4946,8.99225,-0.390655,65,7
-21.6269,9.49353,6.32864,27,15
-14.956,6.59013,0.285277,73,8
-21.9436,9.67826,1.2569,46,9
-18.3357,8.09083,1.7534,39,10
-0.802358,0.354216,-0.138914,5,3
-20.0889,8.87281,2.69648,59,11
-0.876993,0.387531,-0.117726,4,4
-21.6081,9.55282,3.74191,13,12
-1.02411,0.452753,-0.0979631,15,5
-21.7162,9.60516,4.61567,30,13
-16.0104,7.08483,-0.917554,37,6
-21.0872,9.33576,5.32414,57,14
-20.8709,9.24433,-0.398438,33,7
-21.5071,9.53061,6.30328,32,15
-15.0809,6.70812,0.288104,53,8
-18.4056,8.19856,1.76281,36,10
-0.783073,0.348974,-0.135785,6,3
-20.4022,9.09647,2.74279,55,11
-0.884699,0.394634,-0.118944,5,4
-21.9083,9.77712,3.79979,11,12
-1.04253,0.465257,-0.0998805,13,5
-21.912,9.78335,4.66452,14,13
-15.8069,7.06084,-0.907296,74,6
-21.6434,9.6725,5.47306,30,14
-15.6302,6.98846,-0.298855,93,7
-21.5001,9.61746,6.31104,30,15
-14.9534,6.71403,0.286115,21,8
-21.8263,9.80911,1.25407,22,9
-18.3224,8.23825,1.75758,72,10
-0.789056,0.354947,-0.137037,6,3
-20.4627,9.20917,2.75522,41,11
-0.888746,0.400164,-0.119676,7,4
-21.9623,9.89329,3.81512,9,12
-1.04635,0.471348,-0.100403,3,5
-21.62,9.74362,4.60956,13,13
-15.9369,7.18575,-0.916193,57,6
-21.8369,9.85056,5.53065,25,14
-15.6349,7.05613,-0.299413,100,7
-21.4823,9.69961,6.3157,27,15
-15.0683,6.82893,0.288768,19,8
-21.7428,9.86296,1.25125,11,9
-18.2826,8.29722,1.75654,43,10
-0.79141,0.359332,-0.137662,12,3
-15.3987,6.99489,2.07665,49,11
-0.96144,0.436938,-0.129669,5,4
-21.5518,9.79901,3.74973,18,12
-15.3459,6.97734,-1.47485,18,5
-21.4732,9.76781,4.58552,30,13
-15.5973,7.09822,-0.898085,57,6
-21.8875,9.96548,5.55224,51,14
-20.0395,9.12831,-0.384372,32,7
-21.3217,9.71686,6.27843,9,15
-18.297,8.3809,1.76072,54,10
-0.806313,0.369499,-0.140478,10,3
-15.3688,7.04612,2.07592,18,11
-0.995996,0.456844,-0.134544,11,4
-20.7131,9.50508,3.60957,14,12
-14.646,6.72092,-1.40983,13,5
-21.3783,9.81486,4.57255,24,13
-15.2693,7.0134,-0.880605,74,6
-19.4904,8.95635,4.95207,37,14
-20.1184,9.24917,-0.386501,40,7
-26.732,12.2953,7.88415,11,15
-15.2526,7.04124,0.293235,80,8
-15.6353,7.22123,0.902586,8,9
-18.4666,8.53668,1.77989,11,10
-0.78171,0.361532,-0.136411,12,3
-15.5207,7.18142,2.09981,45,11
-1.00881,0.466989,-0.136494,22,4
-20.5255,9.50152,3.58235,34,12
-14.749,6.83061,-1.42203,33,5
-21.4437,9.93565,4.59392,22,13
-15.1976,7.04482,-0.877883,55,6
-19.4679,9.02843,4.95432,32,14
-17.4354,8.08583,-0.33547,81,7
-26.8803,12.4717,7.94005,11,15
-15.0533,7.0099,0.28985,27,8
-18.536,8.64741,1.78948,56,10
-0.805569,0.375814,-0.140791,10,3
-15.5219,7.2446,2.10322,49,11
-1.01445,0.473691,-0.137469,24,4
-20.4314,9.54469,3.57171,25,12
-14.7431,6.89049,-1.42378,19,5
-15.2621,7.13303,3.27466,12,13
-15.2556,7.13325,-0.882594,77,6
-19.4643,9.10533,4.96107,50,14
-17.4541,8.16868,-0.336378,100,7
-26.2365,12.2845,7.7625,21,15
-14.9419,7.02158,0.288174,42,8
-15.4232,7.25101,0.893165,30,9
-18.8245,8.85814,1.82016,31,10
-0.811401,0.381989,-0.142043,15,3
-15.3493,7.22938,2.08323,27,11
-1.00022,0.471306,-0.135762,10,4
-20.3478,9.58797,3.56264,44,12
-14.3165,6.74903,-1.38473,36,5
-21.1838,9.99093,4.5527,22,13
-15.46,7.29469,-0.895887,40,6
-19.4694,9.19068,4.97052,52,14
-17.7796,8.39297,-0.343184,26,7
-26.2288,12.3871,7.77234,27,15
-14.9149,7.06937,0.288104,13,8
-15.4555,7.33219,0.896515,76,9
-14.9941,7.11972,1.45219,21,10
-0.824406,0.391456,-0.144545,17,3
-15.2535,7.24616,2.07349,31,11
-1.01837,0.483994,-0.138444,9,4
-20.1554,9.58344,3.53479,24,12
-21.3083,10.1362,4.58667,24,13
-15.6196,7.43347,-0.906564,27,6
-19.4476,9.25938,4.97277,47,14
-17.891,8.52206,-0.345907,100,7
-26.3738,12.5683,7.82824,22,15
-18.5631,8.87801,0.359171,24,8
-15.4977,7.4153,0.900388,43,9
-15.0081,7.18747,1.45585,71,10
-0.847975,0.406281,-0.148926,13,3
-15.1243,7.2496,2.05935,48,11
-1.03287,0.495091,-0.140637,9,4
-19.9152,9.55029,3.49819,38,12
-14.1894,6.80754,-1.37689,5,5
-15.2214,7.30596,3.28191,12,13
-25.8499,12.4129,6.62031,38,14
-17.9942,8.64456,-0.348455,100,7
-26.513,12.7428,7.88208,11,15
-14.9565,7.21417,0.28985,13,8
-18.486,8.92058,1.07571,15,9
-0.700129,0.338003,-0.151121,9,2
-15.0632,7.27533,1.46352,34,10
-0.860852,0.415966,-0.151429,14,3
-15.0037,7.25306,2.04619,48,11
-14.5801,7.0483,-1.98842,29,4
-19.9456,9.64638,3.50914,46,12
-15.3163,7.4108,-1.48862,51,5
-15.1848,7.35041,3.27924,13,13
-15.157,7.34026,-0.882594,33,6
-19.3805,9.38561,4.97142,38,14
-17.6523,8.55247,-0.342381,100,7
-24.9878,12.1119,7.44053,5,15
-14.7797,7.18937,0.286883,11,8
-18.3935,8.95124,1.07205,10,9
-0.699004,0.340323,-0.151121,9,2
-14.9691,7.29122,1.45672,21,10
-0.863019,0.42055,-0.152054,13,3
-14.355,6.99831,1.96088,4,11
-14.7333,7.18273,-2.01255,99,4
-19.965,9.73759,3.51821,12,12
-13.9308,6.79753,-1.35614,21,5
-21.5205,10.5055,4.65498,17,13
-16.6114,8.1127,-0.968843,32,6
-20.8097,10.1631,5.34664,23,14
-17.5071,8.5539,-0.340113,14,7
-24.9319,12.187,7.43587,39,15
-14.7665,7.24363,0.287092,8,8
-15.8858,7.79613,0.927393,5,9
-0.697872,0.342639,-0.151121,9,2
-14.9395,7.33818,1.4562,3,10
-0.91126,0.447803,-0.160815,16,3
-19.9752,9.82466,3.52572,10,12
-15.3044,7.5307,-1.49228,18,5
-15.3329,7.54807,3.32199,5,13
-15.5166,7.64182,-0.906459,6,6
-14.9053,7.3408,3.83587,44,14
-17.475,8.61014,-0.340043,43,7
-19.6133,9.66794,5.85915,21,15
-18.2364,9.03281,0.355226,2,8
-0.650818,0.322644,-0.141199,11,2
-0.946694,0.469737,-0.167385,21,3
-1.48113,0.735241,0.203034,1,11
-14.586,7.24374,-1.99963,9,4
-15.9389,7.91558,2.81864,17,12
-14.5349,7.2215,-1.41994,11,5
-15.2915,7.60077,3.31931,26,13
-15.4674,7.69156,-0.905307,6,6
-15.3207,7.62192,3.95059,35,14
-24.7402,12.3135,7.40481,34,15
-1.41489,0.707291,0.0829002,2,9
-0.649688,0.324914,-0.141199,11,2
-1.3916,0.696253,0.136137,2,10
-0.959264,0.479945,-0.169888,29,3
-1.42543,0.713492,0.195722,10,11
-15.0969,7.56328,2.6744,20,12
-15.2522,7.6444,3.31626,27,13
-15.3336,7.69191,3.96049,22,14
-19.6351,9.85825,5.8871,5,15
-1.46261,0.736894,0.028587,1,8
-1.43025,0.721218,0.0839469,11,9
-0.627571,0.316459,-0.136619,12,2
-1.39818,0.70535,0.137009,12,10
-0.954056,0.48151,-0.169262,26,3
-1.43357,0.723832,0.197185,16,11
-15.0299,7.59544,2.66721,32,12
-15.236,7.7029,3.31855,11,13
-15.2319,7.70755,3.94114,22,14
-1.45227,0.735184,-0.0284125,3,7
-19.5627,9.90754,5.87571,16,15
-1.39228,0.707568,0.0272607,12,8
-1.34279,0.682709,-0.347774,1,1
-1.42594,0.725301,0.0838422,24,9
-0.647461,0.329329,-0.141199,11,2
-1.42412,0.724684,0.139798,13,10
-0.938286,0.477668,-0.166759,26,3
-1.41688,0.721624,0.195235,9,11
-1.40437,0.715563,-0.193529,1,4
-15.0367,7.6649,2.67315,58,12
-1.40941,0.718439,-0.138403,2,5
-18.978,9.67811,4.14094,23,13
-1.41616,0.722504,-0.0833189,7,6
-15.1685,7.74207,3.93169,34,14
-1.41051,0.720242,-0.0276446,20,7
-19.4402,9.93094,5.84931,31,15
-1.36168,0.697709,-0.409969,1,0
-1.41472,0.725194,0.0277493,25,8
-1.4182,0.727291,0.0835282,9,9
-0.625346,0.320832,-0.136619,12,2
-1.41449,0.726012,0.139101,9,10
-0.954186,0.489964,-0.169888,32,3
-1.41435,0.726566,0.195235,28,11
-1.38433,0.711146,-0.191091,8,4
-15.4434,7.93685,2.75012,33,12
-1.38209,0.7106,-0.135963,15,5
-14.4049,7.40947,3.14873,11,13
-1.37456,0.707338,-0.0810161,18,6
-15.2294,7.83691,3.95419,35,14
-1.41345,0.727662,-0.0277493,13,7
-19.414,9.99889,5.85138,21,15
-1.36623,0.705767,-0.41204,1,0
-1.40342,0.725291,0.0275748,11,8
-1.37965,0.713313,-0.358572,1,1
-1.39626,0.7219,0.0823768,12,9
-0.690543,0.357179,-0.151121,9,2
-1.42092,0.735277,0.139972,47,10
-0.970098,0.502207,-0.173017,37,3
-1.39431,0.722123,-0.192797,19,4
-1.40449,0.728016,-0.138403,16,5
-14.4273,7.4816,3.15903,6,13
-1.40589,0.729367,-0.0830048,13,6
-15.103,7.83532,3.9281,36,14
-1.39328,0.723133,-0.0274003,6,7
-15.1391,7.86078,4.57074,6,15
-1.35874,0.707617,-0.410487,2,0
-1.39569,0.727169,0.0274701,12,8
-1.37901,0.718785,-0.359022,2,1
-1.41157,0.735758,0.0834235,50,9
-0.717207,0.373991,-0.157227,8,2
-0.968427,0.505421,-0.173017,40,3
-1.40246,0.732255,0.19426,100,11
-1.3865,0.724228,-0.192066,11,4
-14.6393,7.64675,2.6159,33,12
-1.3897,0.72621,-0.137183,5,5
-1.40523,0.734951,-0.0831095,6,6
-15.0289,7.8636,3.91595,28,14
-1.42099,0.74351,-0.0279937,12,7
-19.2309,10.0665,5.81618,21,15
-1.34942,0.708762,-0.408416,2,0
-1.38796,0.729003,0.0273654,33,8
-1.38179,0.726073,-0.360372,2,1
-1.409,0.740681,0.0834235,100,9
-0.743699,0.391113,-0.163333,7,2
-1.38767,0.730088,0.137183,100,10
-0.961501,0.50587,-0.172078,39,3
-1.39651,0.735052,0.193772,100,11
-1.37531,0.724197,-0.190847,8,4
-14.6982,7.74291,2.63123,20,12
-1.37482,0.724555,-0.135963,5,5
-14.4295,7.60458,3.17048,26,13
-1.38512,0.730292,-0.0820628,9,6
-15.0079,7.91612,3.9173,63,14
-1.3954,0.736333,-0.0275399,57,7
-14.9998,7.91855,4.54486,5,15
-1.37657,0.729164,0.0271908,94,8
-1.35859,0.719943,-0.354973,4,1
-1.38523,0.734368,0.0821675,100,9
-0.686892,0.364151,-0.151121,19,2
-1.38172,0.732819,0.136835,100,10
-0.95624,0.507372,-0.171452,37,3
-1.38167,0.733407,0.192066,100,11
-1.37628,0.730856,-0.191335,8,4
-14.8036,7.86461,2.65501,36,12
-1.38473,0.735653,-0.137183,11,5
-14.6872,7.80601,3.23307,48,13
-15.0129,7.98585,3.92585,49,14
-1.37693,0.732745,-0.0272258,100,7
-19.2147,10.2296,5.83275,15,15
-1.32923,0.709741,-0.403758,2,0
-1.3846,0.739618,0.0274003,100,8
-1.37325,0.733865,-0.359472,4,1
-1.37913,0.737316,0.0819581,100,9
-0.687348,0.367472,-0.151502,28,2
-1.3897,0.743276,0.13788,100,10
-0.954463,0.510706,-0.171452,37,3
-1.3826,0.7401,0.192554,100,11
-1.36847,0.732844,-0.190604,9,4
-15.2549,8.17277,2.74104,66,12
-14.7931,7.92865,3.26245,22,13
-1.35183,0.724843,-0.080388,100,6
-14.9729,8.03175,3.9227,18,14
-1.36908,0.73471,-0.027121,100,7
-19.1108,10.26,5.81204,26,15
-1.38377,0.745394,0.0274352,100,8
-1.3802,0.74378,0.0821675,100,9
-0.653227,0.352168,-0.144252,44,2
-1.38359,0.74623,0.137532,100,10
-0.959628,0.517787,-0.172704,39,3
-1.3835,0.746807,0.193041,100,11
-1.36778,0.738321,-0.190847,32,4
-15.3477,8.28808,2.76263,48,12
-1.35326,0.731097,-0.134568,100,5
-14.7532,7.9737,3.25978,15,13
-1.35983,0.735257,-0.0810161,100,6
-17.7935,9.62089,4.66998,30,14
-1.36664,0.739246,-0.027121,100,7
-19.1345,10.3546,5.82964,7,15
-1.32267,0.717851,-0.40324,2,0
-1.36547,0.741392,0.027121,100,8
-1.3648,0.741335,-0.358572,4,1
-1.38123,0.75026,0.0823768,100,9
-0.631355,0.343083,-0.139672,11,2
-1.3706,0.745105,0.136486,100,10
-0.954435,0.519079,-0.172078,43,3
-1.38799,0.755186,0.194016,100,11
-1.36009,0.740006,-0.190116,100,4
-15.2264,8.28793,2.74574,50,12
-1.34908,0.734628,-0.134394,100,5
-14.7629,8.0423,3.2678,46,13
-1.3644,0.743586,-0.0814348,100,6
-17.8196,9.71155,4.68528,34,14
-1.36067,0.741859,-0.0270512,100,7
-19.1034,10.4199,5.83068,13,15
-1.33214,0.728723,-0.406864,2,0
-1.36476,0.746876,0.0271559,100,8
-1.36917,0.7496,-0.360372,4,1
-1.37874,0.754836,0.0823768,100,9
-0.623327,0.341403,-0.138146,12,2
-1.36812,0.749646,0.136486,100,10
-0.942315,0.516544,-0.170201,55,3
-1.37852,0.755966,0.193041,100,11
-1.3662,0.749524,-0.191335,100,4
-15.3028,8.39539,2.76451,28,12
-1.34664,0.739097,-0.134394,100,5
-14.7585,8.1035,3.27276,40,13
-1.36718,0.750991,-0.0817488,122,6
-17.8249,9.79527,4.69563,38,14
-1.36521,0.75022,-0.0271908,100,7
-19.1737,10.5408,5.86277,13,15
-1.32959,0.733369,-0.406864,2,0
-1.35352,0.746568,0.0269814,100,8
-1.3726,0.757713,0.0821675,100,9
-0.615257,0.33978,-0.136619,12,2
-1.36899,0.756344,0.136835,100,10
-0.940597,0.519666,-0.170201,53,3
-1.36905,0.756693,0.192066,100,11
-1.36197,0.75309,-0.191091,100,4
-15.142,8.37608,2.74073,48,12
-1.34405,0.743793,-0.134394,100,5
-19.7543,10.932,4.38861,22,13
-1.3542,0.749716,-0.0811207,125,6
-18.4231,10.2037,4.86209,8,14
-1.36958,0.758857,-0.0273305,100,7
-19.054,10.5618,5.8374,23,15
-1.31365,0.730265,-0.402722,2,0
-1.36489,0.759064,0.0272607,100,8
-1.3436,0.747533,-0.354973,4,1
-1.36296,0.758614,0.0817488,100,9
-0.62785,0.349457,-0.139672,11,2
-1.36995,0.762818,0.137183,100,10
-0.935326,0.521024,-0.169575,45,3
-1.3612,0.758568,0.191335,100,11
-1.33333,0.743339,-0.187435,100,4
-14.9263,8.32497,2.70694,63,12
-1.35202,0.754069,-0.13544,100,5
-18.5982,10.3772,4.13979,17,13
-1.34808,0.752492,-0.0809114,131,6
-18.127,10.1226,4.79326,16,14
-1.35994,0.759732,-0.0271908,100,7
-19.0659,10.6556,5.85242,15,15
-1.31446,0.736735,-0.403758,2,0
-1.35525,0.759912,0.027121,100,8
-1.36205,0.764345,0.0818534,100,9
-0.578688,0.324744,-0.128987,13,2
-1.36728,0.767595,0.137183,100,10
-0.928335,0.521383,-0.168636,35,3
-1.36547,0.767204,0.19231,100,11
-1.33765,0.75188,-0.18841,100,4
-14.9609,8.41284,2.71852,59,12
-1.34938,0.758784,-0.13544,100,5
-18.4609,10.3852,4.11728,21,13
-1.34893,0.759152,-0.0811207,128,6
-18.9559,10.6724,5.02226,24,14
-1.35728,0.764475,-0.0271908,100,7
-19.3888,10.925,5.96319,8,15
-1.31861,0.745121,-0.405828,2,0
-1.34737,0.761685,0.0270163,100,8
-1.33496,0.754976,-0.354073,4,1
-1.36285,0.771062,0.0820628,100,9
-0.563881,0.319028,-0.125934,14,2
-1.35419,0.766475,0.136137,100,10
-0.94198,0.53338,-0.171452,14,3
-1.36278,0.771966,0.19231,100,11
-1.34019,0.759481,-0.189141,100,4
-18.0212,10.2167,3.28106,14,12
-1.33112,0.754646,-0.133871,100,5
-18.4109,10.4418,4.11422,29,13
-1.35322,0.767798,-0.0815394,125,6
-18.8982,10.727,5.01686,19,14
-1.34765,0.765258,-0.0270512,100,7
-19.3237,10.9774,5.95491,16,15
-1.30089,0.741112,-0.40117,2,0
-1.34123,0.764403,0.0269465,100,8
-1.32893,0.757702,-0.353173,4,1
-1.36188,0.776804,0.0821675,100,9
-0.576406,0.328777,-0.128987,13,2
-1.3515,0.771197,0.136137,100,10
-1.14083,0.651245,-0.208058,6,3
-1.3687,0.781641,0.193529,121,11
-1.34615,0.769078,-0.19036,100,4
-15.3529,8.77488,2.8008,37,12
-1.33021,0.760277,-0.134046,100,5
-18.3181,10.4739,4.10163,38,13
-1.34706,0.770534,-0.0813301,125,6
-19.1685,10.969,5.09874,35,14
-1.35191,0.773932,-0.0271908,100,7
-19.1847,10.9872,5.92385,16,15
-1.31002,0.752383,-0.404793,2,0
-1.33855,0.769081,0.0269465,100,8
-1.3593,0.781316,0.0821675,100,9
-0.588871,0.338616,-0.13204,13,2
-1.35917,0.781871,0.137183,100,10
-1.2875,0.740945,-0.235277,6,3
-1.34876,0.776509,0.191091,100,11
-1.34346,0.773772,-0.19036,100,4
-18.6496,10.7413,3.40871,13,12
-1.33445,0.768894,-0.134743,100,5
-18.2695,10.5309,4.09896,34,13
-1.33398,0.769245,-0.0807021,128,6
-18.6237,10.7437,4.96377,18,14
-1.34933,0.77841,-0.0271908,100,7
-19.2251,11.0951,5.94766,19,15
-1.30572,0.755984,-0.404275,2,0
-1.336,0.773515,0.0269465,100,8
-1.34619,0.780048,0.0815394,100,9
-0.567303,0.328854,-0.12746,14,2
-1.34954,0.782613,0.136486,100,10
-1.29358,0.750165,-0.236842,8,3
-1.34961,0.782969,0.191579,100,11
-1.31857,0.765269,-0.187191,100,4
-1.33521,0.775549,-0.135091,100,5
-15.0938,8.76719,3.39297,47,13
-1.33143,0.773664,-0.0807021,131,6
-18.2021,10.5812,4.86074,21,14
-1.34661,0.783116,-0.0271908,100,7
-19.1128,11.1194,5.92489,19,15
-1.31321,0.766151,-0.407381,2,0
-1.3402,0.782206,0.0270861,100,8
-0.459425,0.268251,-0.122823,15,1
-1.34188,0.783501,0.0814348,100,9
-0.566209,0.330733,-0.12746,14,2
-1.34521,0.786079,0.136312,100,10
-1.28925,0.753679,-0.236529,12,3
-1.34687,0.787676,0.191579,100,11
-1.32274,0.773877,-0.188166,100,4
-15.1763,8.87897,2.78485,42,12
-1.32919,0.77796,-0.134743,100,5
-15.2851,8.94977,3.44296,31,13
-1.33216,0.780326,-0.0809114,128,6
-18.9133,11.0831,5.06095,40,14
-1.34055,0.785555,-0.027121,100,7
-20.799,12.193,6.46012,21,15
-1.28056,0.753102,-0.398064,2,0
-1.33759,0.786646,0.0270861,100,8
-1.34258,0.790206,0.0816441,100,9
-0.585353,0.344662,-0.13204,13,2
-1.33731,0.787736,0.135789,100,10
-1.29696,0.763965,-0.238406,13,3
-1.35109,0.796169,0.192554,100,11
-1.32701,0.782291,-0.189141,100,4
-15.0176,8.85663,2.76138,52,12
-1.3196,0.778545,-0.134046,100,5
-15.2519,8.99842,3.44219,45,13
-1.33301,0.78677,-0.0811207,134,6
-18.6986,11.0407,5.01326,53,14
-1.33436,0.788195,-0.0270512,100,7
-20.7031,12.234,6.44356,21,15
-1.29633,0.768177,-0.403758,1,0
-1.32452,0.785192,0.0268767,100,8
-1.3451,0.79771,0.0819581,100,9
-0.584207,0.346601,-0.13204,13,2
-1.33812,0.7942,0.136137,100,10
-1.26371,0.750335,-0.232775,11,3
-1.35171,0.802908,0.193041,100,11
-1.31744,0.782862,-0.188166,100,4
-15.0221,8.92656,2.76764,42,12
-1.31016,0.778844,-0.133348,100,5
-15.2069,9.04358,3.43914,12,13
-1.33369,0.79346,-0.0813301,138,6
-18.7336,11.1497,5.03305,39,14
-1.33174,0.792616,-0.0270512,100,7
-20.4417,12.1712,6.37471,13,15
-1.31847,0.787529,0.0268069,100,8
-1.34745,0.805475,0.0822721,100,9
-0.576253,0.344607,-0.130513,13,2
-1.33363,0.797843,0.135963,100,10
-0.891664,0.533439,-0.164569,8,3
-1.34223,0.803308,0.192066,100,11
-1.32336,0.792325,-0.189385,100,4
-14.9942,8.98098,2.76826,48,12
-1.31427,0.787509,-0.134046,100,5
-19.0671,11.425,4.32068,35,13
-1.32077,0.791718,-0.0807021,134,6
-18.8469,11.302,5.07355,45,14
-1.33925,0.803432,-0.0272607,100,7
-20.6575,12.3975,6.45546,3,15
-1.30749,0.787173,-0.408934,1,0
-1.32757,0.799578,0.0270512,100,8
-1.30696,0.787475,-0.352273,2,1
-1.33779,0.80605,0.0818534,100,9
-0.591861,0.356752,-0.13433,12,2
-1.33425,0.804551,0.136312,100,10
-0.889703,0.536703,-0.164569,26,3
-1.33758,0.807197,0.191822,100,11
-1.30189,0.785658,-0.186704,100,4
-15.0017,9.05674,2.77546,44,12
-1.30128,0.785912,-0.133,163,5
-1.31444,0.794487,-0.0804927,138,6
-18.814,11.3718,5.07535,50,14
-1.33302,0.806032,-0.0271908,100,7
-18.9231,11.4467,5.92592,5,15
-1.29166,0.783489,-0.404793,1,0
-1.32662,0.805014,0.0270861,100,8
-0.45477,0.27607,-0.122823,15,1
-1.33511,0.810482,0.0818534,100,9
-0.573895,0.348522,-0.130513,13,2
-1.33668,0.812075,0.136835,100,10
-0.879478,0.534521,-0.163005,29,3
-1.34507,0.817815,0.193285,100,11
-1.30097,0.791002,-0.186948,100,4
-15.0188,9.13519,2.78422,49,12
-1.31399,0.799544,-0.134568,100,5
-18.2137,11.0872,4.14475,29,13
-1.32545,0.807152,-0.0813301,131,6
-18.8378,11.4716,5.09199,25,14
-1.31668,0.802126,-0.0269116,100,7
-19.4789,11.8713,6.11227,15,15
-1.30554,0.797842,-0.409969,1,0
-1.32224,0.808365,0.0270512,100,8
-1.31501,0.80426,-0.355873,2,1
-1.33738,0.818265,0.0821675,96,9
-0.579434,0.354521,-0.13204,13,2
-1.32208,0.809222,0.135614,94,10
-0.874331,0.535371,-0.162379,22,3
-1.35759,0.831604,0.195478,100,11
-1.30328,0.79865,-0.187679,100,4
-14.97,9.17723,2.78109,42,12
-1.30439,0.799959,-0.133871,100,5
-18.1903,11.1557,4.14781,25,13
-1.31936,0.809454,-0.0811207,131,6
-18.6565,11.4506,5.05375,48,14
-1.32239,0.811948,-0.0270861,100,7
-19.4044,11.919,6.10192,15,15
-1.3026,0.802622,-0.409969,1,0
-1.31771,0.811927,0.0270163,100,8
-1.34812,0.831315,0.0830048,87,9
-0.578131,0.356643,-0.13204,13,2
-1.33098,0.821387,0.136835,91,10
-0.84715,0.523007,-0.157686,17,3
-1.3513,0.834252,0.194991,73,11
-1.30217,0.804237,-0.187923,100,4
-15.1513,9.36129,2.82083,41,12
-1.2999,0.80346,-0.133697,100,5
-18.1309,11.211,4.14361,17,13
-1.32318,0.818487,-0.0815394,100,6
-18.7834,11.6235,5.09964,10,14
-1.32805,0.821821,-0.0272607,100,7
-18.7845,11.6287,5.91971,19,15
-1.31292,0.815317,-0.41411,1,0
-1.31812,0.818861,0.0270861,100,8
-1.29267,0.803363,-0.351374,1,1
-1.34676,0.837305,0.0831095,75,9
-0.566879,0.352439,-0.12975,13,2
-1.33318,0.829184,0.137357,78,10
-0.838611,0.521786,-0.156434,17,3
-1.3398,0.833954,0.193772,54,11
-1.29922,0.809005,-0.187923,100,4
-15.1722,9.45123,2.83115,61,12
-1.30385,0.812206,-0.134394,100,5
-18.105,11.2825,4.14666,23,13
-1.30167,0.811478,-0.080388,100,6
-18.5708,11.5818,5.05285,39,14
-1.32842,0.8288,-0.0273305,100,7
-19.3186,12.0576,6.10192,15,15
-1.31007,0.819895,-0.41411,1,0
-1.32203,0.827702,0.0272258,100,8
-1.29976,0.814077,-0.354073,1,1
-1.33198,0.834578,0.0823768,67,9
-0.565645,0.354416,-0.12975,13,2
-1.33703,0.838066,0.138055,68,10
-0.815028,0.511068,-0.152367,18,3
-1.34866,0.84601,0.195478,15,11
-1.29975,0.815645,-0.18841,100,4
-16.163,10.1469,3.02263,12,12
-1.30101,0.816753,-0.134394,100,5
-18.0821,11.3561,4.15048,10,13
-1.30221,0.818141,-0.0805974,100,6
-18.5566,11.6631,5.06005,55,14
-1.32552,0.833432,-0.0273305,100,7
-18.9265,11.9048,5.99114,17,15
-1.3072,0.824463,-0.41411,1,0
-1.32252,0.834446,0.0272956,84,8
-1.33317,0.841492,-0.363971,1,1
-1.33765,0.844321,0.0829002,58,9
-0.584325,0.368966,-0.13433,12,2
-1.33409,0.842728,0.138055,54,10
-0.78819,0.498081,-0.147674,15,3
-14.8916,9.41405,2.16318,27,11
-1.30207,0.823133,-0.189141,100,4
-16.146,10.211,3.02576,24,12
-1.30825,0.82768,-0.13544,100,5
-17.9179,11.3404,4.12186,46,13
-1.30947,0.829093,-0.0812254,100,6
-22.5994,14.3089,6.17536,41,14
-1.31092,0.830333,-0.0270861,100,7
-19.1741,12.1495,6.08225,15,15
-1.32481,0.842045,0.0274003,77,8
-1.31064,0.833361,-0.358572,1,1
-1.34327,0.85411,0.0834235,51,9
-0.56322,0.358258,-0.12975,13,2
-1.33633,0.850356,0.138578,30,10
-0.759872,0.483719,-0.142668,19,3
-14.7715,9.40687,2.15026,50,11
-1.30101,0.828512,-0.189385,100,4
-1.29878,0.827731,-0.134743,100,5
-17.7892,11.3417,4.10087,29,13
-1.31008,0.835578,-0.0814348,100,6
-20.1005,12.8202,5.5041,31,14
-1.3149,0.838978,-0.0272258,88,7
-19.6092,12.5165,6.2334,13,15
-1.31864,0.844277,0.0273305,67,8
-1.32756,0.850316,-0.363971,1,1
-1.34716,0.862869,0.0838422,40,9
-0.601701,0.385544,-0.138909,12,2
-14.4874,9.28648,1.50553,26,10
-0.746624,0.478772,-0.140478,21,3
-14.7001,9.43008,2.14441,9,11
-1.30479,0.837338,-0.19036,100,4
-21.9099,14.0605,4.1233,13,12
-1.29938,0.834186,-0.135091,90,5
-17.8043,11.4346,4.11308,17,13
-1.32075,0.848555,-0.0822721,100,6
-22.1786,14.2548,6.08673,32,14
-1.31884,0.847658,-0.0273654,75,7
-22.499,14.4663,7.16722,22,15
-1.31415,0.847561,0.0272956,57,8
-1.36427,0.880563,0.0850983,11,9
-0.570664,0.368473,-0.13204,13,2
-14.4599,9.34025,1.50605,58,10
-0.713505,0.460881,-0.134534,33,3
-14.8389,9.58867,2.16927,32,11
-1.292,0.835194,-0.188898,81,4
-17.8283,11.5292,3.36272,24,12
-1.2998,0.840881,-0.13544,77,5
-17.641,11.4125,4.08408,42,13
-1.30116,0.842078,-0.0812254,100,6
-22.2375,14.3971,6.11597,24,14
-1.32763,0.859866,-0.0276097,63,7
-21.9198,14.2023,6.99847,8,15
-1.3246,0.860861,0.0275748,38,8
-15.1406,9.84368,0.946444,12,9
-0.569439,0.370363,-0.13204,13,2
-14.5224,9.44899,1.51581,39,10
-0.725137,0.471989,-0.137037,30,3
-17.1908,11.1937,2.5188,5,11
-1.28575,0.837532,-0.18841,66,4
-17.8015,11.5958,3.36491,11,12
-1.30702,0.851713,-0.136486,67,5
-1.30825,0.853161,-0.0818534,85,6
-19.7389,12.8775,5.44112,6,14
-1.33314,0.869727,-0.0277842,56,7
-18.8829,12.3237,6.04187,5,15
-1.34516,0.880582,0.0280635,9,8
-14.8889,9.75419,0.932836,46,9
-0.568143,0.372349,-0.13204,13,2
-14.8193,9.71593,1.55033,32,10
-0.710352,0.465727,-0.134534,33,3
-15.5202,10.1794,2.27896,24,11
-1.29293,0.848325,-0.189872,70,4
-17.7543,11.6536,3.36365,20,12
-1.31071,0.860645,-0.137183,63,5
-17.6828,11.611,4.11193,25,13
-1.3171,0.865171,-0.0825861,73,6
-19.6912,12.9396,5.43977,48,14
-1.32508,0.87108,-0.0276795,26,7
-18.7688,12.3428,6.0191,14,15
-14.2771,9.41758,0.298541,43,8
-14.4798,9.55853,0.909285,20,9
-0.55052,0.363415,-0.128224,14,2
-14.6639,9.68377,1.53743,68,10
-0.715314,0.472559,-0.135785,32,3
-15.6601,10.3495,2.30479,9,11
-1.29658,0.857212,-0.190847,55,4
-26.6997,17.6587,5.07004,4,12
-1.30286,0.861689,-0.13666,52,5
-17.5979,11.6434,4.10163,40,13
-1.32739,0.878582,-0.0834235,51,6
-19.7077,13.0492,5.45686,49,14
-18.7642,12.4339,6.03152,14,15
-14.3183,9.52384,0.901225,31,9
-0.565595,0.376207,-0.13204,13,2
-14.3928,9.57706,1.5125,52,10
-0.712016,0.473958,-0.135472,26,3
-15.5132,10.3304,2.28846,53,11
-1.29688,0.863934,-0.191335,51,4
-18.5372,12.3534,3.52822,14,12
-1.30647,0.870651,-0.137357,41,5
-17.5931,11.7287,4.11003,14,13
-1.33096,0.887643,-0.0838422,11,6
-19.863,13.252,5.51265,31,14
-14.0762,9.39478,-0.295399,85,7
-18.9328,12.6409,6.09985,12,15
-13.3935,8.96957,0.281368,4,8
-14.7594,9.89178,0.931161,6,9
-0.590372,0.395667,-0.138146,12,2
-14.351,9.6217,1.51163,26,10
-1.18119,0.792234,-0.225266,6,3
-15.5298,10.4199,2.29626,39,11
-1.30045,0.872881,-0.19231,41,4
-20.9654,14.0775,3.99972,10,12
-1.3117,0.88076,-0.138229,9,5
-17.4852,11.7452,4.09438,23,13
-15.6591,10.5225,-0.988731,7,6
-19.7568,13.281,5.496,25,14
-13.7098,9.21956,-0.288384,100,7
-19.0568,12.8201,6.1542,12,15
-15.2999,10.3238,0.322171,22,8
-12.4539,8.40973,0.787552,2,9
-0.582479,0.393331,-0.136619,12,2
-14.3042,9.66281,1.51023,13,10
-1.24225,0.839488,-0.237468,8,3
-14.2928,9.66241,2.11833,9,11
-1.30398,0.881863,-0.193285,16,4
-18.7712,12.6995,3.58955,23,12
-10.8105,7.31377,-1.14191,26,5
-17.4978,11.8424,4.10697,25,13
-10.8327,7.3343,-0.685601,13,6
-18.1646,12.303,5.065,50,14
-13.7074,9.28755,-0.289012,100,7
-18.8249,12.7598,6.09364,6,15
-14.2534,9.6902,0.300845,38,8
-12.4622,8.47569,0.789854,10,9
-0.561624,0.382109,-0.13204,13,2
-25.6995,17.4916,2.71978,16,10
-1.21319,0.826032,-0.232462,5,3
-14.2738,9.7223,2.12053,4,11
-10.7106,7.29806,-1.59137,39,4
-18.1723,12.3824,3.48286,8,12
-10.8211,7.37615,-1.14575,28,5
-17.4547,11.9023,4.10659,23,13
-10.8104,7.37432,-0.68581,45,6
-18.0877,12.3432,5.05555,40,14
-20.1993,13.7893,6.5533,14,15
-12.7032,8.69804,0.268732,6,8
-15.3274,10.5027,0.973763,16,9
-0.560287,0.384068,-0.13204,13,2
-14.215,9.74779,1.50797,6,10
-10.7441,7.36767,-2.06337,5,3
-19.0148,13.0441,2.83127,7,11
-10.6994,7.34253,-1.59332,37,4
-18.0915,12.42,3.47566,4,12
-10.6623,7.32251,-1.13163,28,5
-17.4184,11.9624,4.10735,23,13
-10.7727,7.40108,-0.684973,48,6
-18.0483,12.4043,5.056,30,14
-12.9303,8.89008,-0.273898,32,7
-18.6453,12.8241,6.06361,6,15
-12.6711,8.74119,0.268697,12,8
-0.495601,0.34202,-0.13902,13,1
-15.2232,10.5096,0.969471,15,9
-0.571935,0.394847,-0.135093,12,2
-14.135,9.76204,1.50291,42,10
-10.694,7.38829,-2.05868,2,3
-17.9044,12.3745,2.67235,13,11
-10.708,7.40354,-1.59844,24,4
-18.0026,12.4516,3.4669,10,12
-10.6691,7.37936,-1.13494,28,5
-17.9448,12.4163,4.24168,31,13
-13.5747,9.39606,-0.865218,13,6
-18.1988,12.6014,5.11044,41,14
-13.3118,9.22097,-0.282659,86,7
-18.5432,12.8495,6.04498,17,15
-13.0198,9.04899,0.27676,6,8
-0.436803,0.303699,-0.122823,15,1
-12.6105,8.77109,0.805032,46,9
-0.580224,0.403567,-0.137382,12,2
-14.9333,10.3905,1.59164,50,10
-10.5497,7.34319,-2.03584,5,3
-17.7699,12.3734,2.6587,31,11
-10.4541,7.28203,-1.56431,53,4
-18.1794,12.668,3.50945,2,12
-10.7561,7.49516,-1.14697,26,5
-17.8965,12.4755,4.24054,22,13
-13.4796,9.39998,-0.861241,22,6
-17.8734,12.4686,5.03126,19,14
-13.8699,9.67936,-0.295225,100,7
-18.343,12.8058,5.99425,23,15
-13.2142,9.25267,0.281577,1,8
-12.5945,8.82202,0.805869,23,9
-0.604537,0.423616,-0.143488,11,2
-14.0029,9.81588,1.49612,9,10
-10.4691,7.34141,-2.0252,5,3
-17.7591,12.4581,2.66358,31,11
-10.4575,7.33603,-1.56846,42,4
-18.894,13.2592,3.65587,15,12
-17.8657,12.5469,4.24359,24,13
-13.597,9.5526,-0.87087,13,6
-17.9451,12.6074,5.0632,5,14
-13.6496,9.59307,-0.291211,93,7
-18.4775,12.991,6.05222,6,15
-12.5036,8.81704,0.267057,22,8
-12.3497,8.71177,0.792052,38,9
-0.580672,0.409771,-0.138146,12,2
-13.8694,9.79102,1.48531,52,10
-10.1494,7.16756,-1.96795,12,3
-17.9528,12.683,2.69892,13,11
-10.665,7.53446,-1.60331,17,4
-18.0918,12.786,3.50883,20,12
-18.2665,12.9142,-1.95717,10,5
-19.4221,13.7363,4.62407,11,13
-15.5984,11.0361,-1.0014,7,6
-18.4075,13.0236,5.20582,26,14
-25.9655,18.3778,-0.555266,11,7
-18.4075,13.0332,6.04342,11,15
-0.433707,0.308105,-0.122823,15,1
-12.3778,8.79316,0.795716,44,9
-0.566507,0.402596,-0.135093,12,2
-11.9418,8.48973,1.28189,49,10
-10.1368,7.20919,-1.97014,5,3
-17.6259,12.54,2.65602,38,11
-10.6949,7.60892,-1.6116,21,4
-18.0911,12.8757,3.51696,2,12
-10.6991,7.61752,-1.14906,4,5
-17.8637,12.7232,4.26305,15,13
-12.0418,8.5798,-0.774886,32,6
-18.4611,13.1536,5.23326,44,14
-33.0042,23.5243,-0.707451,26,7
-18.3563,13.0886,6.04084,17,15
-12.4513,8.90443,0.267196,28,8
-0.432683,0.309542,-0.122823,15,1
-12.3469,8.833,0.795611,28,9
-0.584328,0.418183,-0.139672,11,2
-11.9346,8.54436,1.28415,24,10
-10.1369,7.26002,-1.97483,10,3
-17.6536,12.6481,2.6665,39,11
-10.2017,7.30906,-1.54092,1,4
-17.2214,12.343,3.35583,16,12
-10.6803,7.6576,-1.14976,14,5
-17.7241,12.7126,4.23978,18,13
-12.0149,8.62085,-0.774991,32,6
-17.9661,12.8909,5.10504,20,14
-13.9905,10.0421,-0.3006,69,7
-18.4007,13.2125,6.06982,6,15
-15.4296,11.12,0.33198,22,8
-0.431545,0.311126,-0.122823,15,1
-12.2966,8.86534,0.79446,45,9
-0.592345,0.427212,-0.141962,11,2
-11.9582,8.62768,1.29008,71,10
-10.1615,7.33411,-1.98484,25,3
-14.9194,10.7721,2.25946,9,11
-19.1306,13.8228,-2.06489,22,5
-17.8572,12.9074,4.2829,21,13
-11.9961,8.67419,-0.775828,26,6
-18.1335,13.112,5.16623,26,14
-14.1917,10.2656,-0.305731,83,7
-18.457,13.3557,6.10451,12,15
-12.0765,8.76445,0.26046,46,8
-0.46205,0.335453,-0.131821,14,1
-14.066,10.2121,0.91096,22,9
-0.590925,0.429174,-0.141962,11,2
-11.9005,8.64621,1.28694,33,10
-10.1883,7.40493,-1.99485,7,3
-12.1156,8.80896,1.83925,24,11
-11.5504,8.39805,-1.75346,24,4
-16.5853,12.0632,3.24821,21,12
-18.3274,13.3352,-1.98297,10,5
-18.9698,13.8077,4.56072,13,13
-18.0001,13.1067,5.14058,41,14
-15.3796,11.2026,-0.332119,59,7
-18.5765,13.5363,6.15886,18,15
-12.0022,8.77141,0.259482,42,8
-0.460935,0.336983,-0.131821,14,1
-11.9152,8.71421,0.77363,20,9
-0.589498,0.431132,-0.141962,11,2
-12.0872,8.84327,1.3103,31,10
-10.6865,7.82135,-2.09747,12,3
-12.0975,8.8573,1.84096,8,11
-11.5755,8.4782,-1.76174,31,4
-16.5527,12.128,3.25008,40,12
-18.971,13.8999,-2.05757,5,5
-17.692,12.9675,4.26382,13,13
-11.8433,8.68388,-0.769653,74,6
-17.8144,13.0668,5.10054,46,14
-13.7588,10.0957,-0.297878,77,7
-18.7098,13.7337,6.2189,25,15
-12.3226,9.0717,0.267092,72,8
-0.45348,0.333968,-0.130022,14,1
-14.9994,11.0504,0.97638,12,9
-0.58799,0.433187,-0.141962,11,2
-12.0146,8.85467,1.30577,74,10
-10.5065,7.74607,-2.06744,13,3
-12.0522,8.88887,1.83876,20,11
-11.5283,8.50559,-1.75906,63,4
-16.3847,12.0931,3.22537,39,12
-20.0605,14.8061,-2.18133,24,5
-17.6624,13.0409,4.26763,11,13
-11.8226,8.73229,-0.770281,29,6
-17.6543,13.0444,5.0677,50,14
-13.7701,10.1782,-0.29889,38,7
-18.685,13.8161,6.22667,13,15
-12.5173,9.28261,0.272013,82,8
-0.42727,0.316971,-0.122823,15,1
-13.5124,10.0279,0.881861,11,9
-0.577015,0.428217,-0.139672,11,2
-11.894,8.83005,1.29601,60,10
-10.3795,7.7085,-2.04773,37,3
-11.9621,8.88708,1.82975,16,11
-11.3726,8.45223,-1.73981,39,4
-16.0063,11.9003,3.15904,37,12
-13.8273,10.2803,-1.50745,28,5
-18.4832,13.7469,4.47752,28,13
-12.316,9.16336,-0.804508,3,6
-17.4804,13.0105,5.03081,43,14
-14.4611,10.7672,-0.314702,75,7
-18.6135,13.8639,6.2189,18,15
-0.464371,0.346762,-0.155291,12,0
-12.4928,9.33223,0.272188,49,8
-0.454259,0.339458,-0.130922,14,1
-14.8019,11.0652,0.968529,29,9
-0.591241,0.441983,-0.143488,11,2
-11.8807,8.88464,1.29792,83,10
-10.5091,7.86182,-2.0787,16,3
-11.8293,8.85266,1.81415,16,11
-11.2509,8.42288,-1.72567,11,4
-15.9662,11.9573,3.15935,48,12
-13.6398,10.215,-1.49089,33,5
-17.5662,13.1603,4.26649,18,13
-13.3675,10.0184,-0.875476,16,6
-17.3881,13.0364,5.01731,39,14
-14.6266,10.97,-0.319135,82,7
-18.5464,13.9149,6.21269,18,15
-0.463158,0.348381,-0.155291,12,0
-11.7971,8.87681,0.257702,16,8
-0.490438,0.369169,-0.141719,13,1
-12.1769,9.16594,0.798751,10,9
-0.595968,0.448768,-0.145015,10,2
-11.8814,8.95003,1.30141,23,10
-10.7798,8.12315,-2.13783,12,3
-11.8427,8.92736,1.82097,16,11
-13.7909,10.3959,-2.12053,57,4
-15.8098,11.9222,3.1362,48,12
-13.6184,10.2734,-1.49245,27,5
-18.0561,13.626,4.397,27,13
-14.5153,10.9579,-0.953143,14,6
-17.2251,13.0036,4.98267,42,14
-14.5837,11.0136,-0.318995,82,7
-17.1915,12.9877,5.77322,22,15
-0.462,0.349915,-0.155291,12,0
-11.8026,8.94245,0.25847,43,8
-0.455044,0.344897,-0.131821,14,1
-12.1385,9.20023,0.798228,11,9
-0.581961,0.441253,-0.141962,11,2
-11.9533,9.06644,1.31257,17,10
-10.9432,8.30333,-2.17569,45,3
-11.7688,8.93298,1.81415,60,11
-14.7667,11.2085,-2.27628,25,4
-15.863,12.045,3.15466,30,12
-13.6049,10.3342,-1.49472,33,5
-17.6966,13.4471,4.3203,23,13
-12.4102,9.43352,-0.816964,6,6
-17.261,13.1208,5.00561,38,14
-14.676,11.1599,-0.321822,15,7
-17.1253,13.0271,5.76545,10,15
-12.0559,9.19744,0.264683,7,8
-0.453898,0.346404,-0.131821,14,1
-14.7685,11.275,0.973763,14,9
-0.552406,0.421736,-0.135093,12,2
-12.3871,9.46036,1.36364,39,10
-10.3945,7.94142,-2.07182,27,3
-11.788,9.00932,1.8217,44,11
-14.6739,11.219,-2.26799,19,4
-15.5996,11.9311,3.11054,39,12
-13.7096,10.4893,-1.51023,12,5
-17.4383,13.3423,4.26802,47,13
-12.0886,9.25248,-0.797809,6,6
-17.1222,13.1099,4.97862,38,14
-14.6672,11.2342,-0.322486,60,7
-19.3017,14.7893,6.51551,14,15
-12.0301,9.24434,0.264823,13,8
-0.452686,0.347986,-0.131821,14,1
-14.6831,11.2912,0.970727,12,9
-0.560194,0.43094,-0.137382,12,2
-18.534,14.2628,2.04607,25,10
-10.9961,8.46508,-2.1979,31,3
-11.5425,8.88573,1.78855,24,11
-14.707,11.3259,-2.2792,17,4
-15.4342,11.8902,3.08583,46,12
-12.0411,9.27959,-1.33,10,5
-17.3162,13.3497,4.25008,24,13
-14.4301,11.1287,-0.955027,17,6
-16.8812,13.0237,4.92238,49,14
-14.9255,11.515,-0.329048,36,7
-17.9118,13.8238,6.06258,18,15
-13.4745,10.433,0.297459,14,8
-0.460652,0.356803,-0.134521,14,1
-14.6594,11.3546,0.971774,29,9
-0.558686,0.432893,-0.137382,12,2
-18.4621,14.3103,2.04363,40,10
-10.9883,8.52036,-2.20228,37,3
-11.6887,9.06668,1.81634,44,11
-13.4266,10.4148,-2.0864,24,4
-17.3216,13.4408,3.47253,14,12
-18.3529,14.2462,-2.03265,10,5
-17.4075,13.5173,4.28404,19,13
-12.0978,9.39756,-0.802834,16,6
-11.8078,9.17555,-0.261018,8,7
-22.2164,17.2701,7.53992,10,15
-13.4666,10.4986,0.298052,17,8
-0.419512,0.32717,-0.122823,15,1
-14.5902,11.3786,0.969681,12,9
-0.557247,0.434743,-0.137382,12,2
-11.8397,9.2402,1.31396,34,10
-11.1126,8.67588,-2.23295,31,3
-11.6992,9.13716,1.82268,44,11
-13.9192,10.871,-2.16854,61,4
-17.2364,13.4666,3.4644,30,12
-18.2475,14.2616,-2.0262,21,5
-17.4121,13.6136,4.29626,26,13
-14.9361,11.682,-0.993755,7,6
-17.3747,13.5892,5.09244,20,14
-12.8955,10.0895,-0.285801,78,7
-22.0053,17.2234,7.48764,5,15
-11.4482,8.9862,0.254037,33,8
-0.467471,0.367071,-0.13722,13,1
-11.2678,8.85093,0.750916,17,9
-0.552715,0.434163,-0.136619,12,2
-10.8772,8.55032,-2.19133,18,3
-11.7999,9.27898,1.84315,68,11
-11.0666,8.70542,-1.72884,13,4
-13.8881,10.9288,-1.54614,3,5
-11.9214,9.38459,2.94914,7,13
-14.4109,11.3484,-0.961307,14,6
-17.2827,13.6148,5.07939,45,14
-11.7262,9.24086,-0.260599,33,7
-21.8237,17.2044,7.44622,5,15
-0.417276,0.330018,-0.122823,15,1
-11.2462,8.89764,0.751544,18,9
-0.551196,0.43609,-0.136619,12,2
-11.8827,9.40465,1.32581,2,10
-10.2356,8.10389,-2.06775,45,3
-11.6975,9.26464,1.83218,32,11
-13.4074,10.6227,-2.1003,29,4
-18.1111,14.3547,3.66025,33,12
-12.5757,9.96738,-1.4039,13,5
-12.6342,10.021,-0.845121,35,6
-17.1343,13.5951,5.0497,53,14
-12.311,9.77156,-0.274352,26,7
-21.8694,17.3646,7.48246,20,15
-0.453439,0.36094,-0.155291,12,0
-10.9487,8.71837,0.244299,48,8
-0.477091,0.380039,-0.140819,13,1
-11.2401,8.95356,0.753114,51,9
-0.558883,0.445352,-0.138909,12,2
-11.7906,9.39888,1.31919,11,10
-10.2767,8.19499,-2.08183,17,3
-11.5394,9.20515,1.81244,52,11
-13.7053,10.9369,-2.15294,38,4
-18.0866,14.4331,3.66495,20,12
-12.0581,9.62588,-1.34987,2,5
-11.8218,9.44064,2.94075,26,13
-11.7971,9.42425,-0.79132,9,6
-17.0335,13.6123,5.03395,48,14
-17.4796,13.9737,5.99632,5,15
-13.455,10.7872,0.301019,43,8
-0.41502,0.33285,-0.122823,15,1
-11.2196,9.00149,0.753847,59,9
-0.575698,0.462047,-0.143488,11,2
-16.9935,13.6436,1.90662,4,10
-10.6823,8.57654,-2.16975,16,3
-11.4809,9.22099,1.80805,36,11
-13.4647,10.8182,-2.12077,49,4
-17.9991,14.4665,3.65744,24,12
-11.7574,9.45318,-1.31989,5,5
-12.021,9.66861,-0.808486,16,6
-22.6379,18.2143,6.70804,39,14
-14.3783,11.5729,-0.322171,37,7
-22.9575,18.4847,7.8976,5,15
-0.450972,0.364018,-0.155291,12,0
-14.4706,11.6846,0.32465,14,8
-0.462366,0.373482,-0.13722,13,1
-11.2829,9.11394,0.760128,50,9
-0.540568,0.436807,-0.135093,12,2
-12.8079,10.3532,1.44086,46,10
-10.2207,8.26475,-2.08183,38,3
-11.4255,9.24228,1.8044,56,11
-13.6645,11.0574,-2.15831,26,4
-17.819,14.4192,3.63053,25,12
-12.4507,10.0788,-1.40146,8,5
-16.7053,13.5277,4.17834,23,13
-11.9562,9.68536,-0.806392,13,6
-17.7565,14.3892,5.27645,11,14
-14.7562,11.9579,-0.331526,44,7
-25.5748,20.7323,8.82159,14,15
-10.9871,8.93219,0.247161,39,8
-11.4339,9.302,0.772479,11,9
-0.551222,0.448605,-0.138146,12,2
-11.461,9.33402,1.81488,44,11
-13.5231,11.0174,-2.14173,28,4
-17.8834,14.5749,3.654,8,12
-12.1746,9.92579,-1.37427,5,5
-11.7942,9.61565,2.95792,11,13
-12.2862,10.0203,-0.830886,13,6
-17.6362,14.3889,5.25486,22,14
-15.5123,12.6605,-0.349502,79,7
-25.5143,20.8312,8.82573,14,15
-0.448483,0.367079,-0.155291,12,0
-10.9822,8.99202,0.247754,37,8
-0.486949,0.398847,-0.145318,12,1
-10.8375,8.87983,0.734274,10,9
-0.552768,0.452919,-0.138909,12,2
-11.7155,9.60272,1.32529,25,10
-11.4667,9.40545,1.82097,32,11
-12.4426,10.2096,-1.97623,2,4
-17.837,14.641,3.65494,13,12
-11.7073,9.60963,-1.32512,13,5
-11.6953,9.60318,2.94151,38,13
-14.5831,11.9787,-0.989045,29,6
-17.4865,14.3687,5.22516,53,14
-12.0617,9.91465,-0.272537,8,7
-25.9234,21.3164,8.99293,7,15
-12.6771,10.4539,0.286813,16,8
-10.8187,8.92778,0.735111,46,9
-0.548155,0.452347,-0.138146,12,2
-12.842,10.6012,1.4569,53,10
-12.4252,10.2681,-1.97916,2,4
-25.8565,21.3752,5.31345,4,12
-13.455,11.123,-1.52732,34,5
-11.7116,9.68524,2.9541,37,13
-14.3488,11.8704,-0.975961,29,6
-17.6044,14.5688,5.27555,22,14
-11.7359,9.71568,-0.26594,100,7
-25.7893,21.3575,8.97222,15,15
-11.4191,9.48369,0.259098,1,8
-0.409207,0.339971,-0.122823,15,1
-11.1991,9.30761,0.763163,47,9
-0.546573,0.454257,-0.138146,12,2
-9.88708,8.223,-2.03678,41,3
-12.0585,10.0325,1.92602,45,11
-12.3924,10.3139,-1.97965,47,4
-25.8698,21.5386,5.3316,9,12
-11.9676,9.96394,-1.36242,10,5
-11.7154,9.75747,2.96365,23,13
-13.4143,11.1763,-0.915042,23,6
-17.4112,14.5116,5.23281,44,14
-25.5573,21.3162,8.91735,14,15
-10.8169,9.04751,0.246149,24,8
-11.1467,9.32998,0.761802,56,9
-0.547995,0.458683,-0.138909,12,2
-12.7188,10.6497,1.45132,56,10
-9.84166,8.24351,-2.03334,31,3
-11.9595,10.021,1.91579,45,11
-22.1223,18.5496,4.57258,26,12
-13.3556,11.1988,-1.52488,6,5
-11.6211,9.74784,2.94838,33,13
-11.888,9.97523,-0.813301,13,6
-20.4054,17.1282,6.15061,40,14
-10.8623,9.12099,-0.24758,96,7
-16.7198,14.0445,5.85086,15,15
-11.3251,9.54,0.25847,30,8
-11.311,9.53489,0.775305,60,9
-0.543389,0.458062,-0.138146,12,2
-12.6861,10.6978,1.45184,18,10
-10.3096,8.69686,-2.13627,60,3
-10.7502,9.07174,1.72713,11,11
-11.8241,9.98149,-1.89994,23,4
-25.9678,21.929,5.38322,18,12
-13.3028,11.2337,-1.52331,34,5
-11.764,9.93785,2.99341,11,13
-11.6533,9.84779,-0.799589,45,6
-20.3365,17.1918,6.14791,40,14
-10.783,9.11882,-0.246498,22,7
-16.6633,14.0965,5.84828,31,15
-10.8038,9.1655,0.247301,77,8
-11.2792,9.57561,0.77541,38,9
-0.5358,0.454874,-0.136619,12,2
-14.383,12.2149,1.6509,16,10
-10.3936,8.82999,-2.16005,82,3
-10.7956,9.17477,1.73956,42,11
-12.5423,10.663,-2.02133,22,4
-21.7379,18.4873,4.51971,26,12
-13.3014,11.3124,-1.52767,34,5
-16.6025,14.1248,4.2371,24,13
-10.9085,9.28389,-0.750707,16,6
-25.1329,21.3974,7.62044,11,14
-10.7861,9.18623,-0.247301,22,7
-16.6096,14.1508,5.84672,28,15
-11.1734,9.53959,0.256446,31,8
-11.2491,9.611,0.77541,20,9
-0.540339,0.461656,-0.138146,12,2
-18.1385,15.5027,2.08755,41,10
-10.4499,8.93449,-2.17757,37,3
-10.8074,9.24348,1.74614,11,11
-10.9914,9.4041,-1.77612,13,4
-19.0564,16.3103,3.97281,28,12
-11.6868,10.0062,-1.34603,10,5
-11.5592,9.8969,2.95792,27,13
-10.2543,8.78283,-0.707582,68,6
-25.0079,21.4268,7.6029,55,14
-10.6889,9.1615,-0.24573,24,7
-12.6478,10.8443,4.46411,20,15
-0.477202,0.410459,-0.145318,12,1
-12.2056,10.5022,0.843865,35,9
-0.553523,0.476441,-0.141962,11,2
-18.0544,15.5457,2.08442,41,10
-10.3781,8.93921,-2.16943,48,3
-10.7119,9.22673,1.73591,42,11
-10.9945,9.47351,-1.78197,18,4
-18.3874,15.8492,3.84485,28,12
-11.5703,9.97667,-1.33662,13,5
-11.5466,9.95972,2.96403,22,13
-10.2554,8.84906,-0.709885,74,6
-24.82,21.4241,7.5696,33,14
-12.7489,11.0045,-0.293968,46,7
-12.3057,10.6258,4.35644,26,15
-12.0994,10.4808,0.279413,34,8
-12.2081,10.5787,0.846587,32,9
-0.55779,0.483514,-0.143488,11,2
-18.3478,15.9101,2.12468,26,10
-10.22,8.86536,-2.14284,46,3
-10.6885,9.27504,1.73761,15,11
-10.9869,9.53395,-1.78612,8,4
-11.8363,10.2783,-1.37148,15,5
-11.4421,9.93945,2.94609,15,13
-10.1792,8.8455,-0.706745,78,6
-19.7285,17.1436,6.03409,15,14
-12.8673,11.1854,-0.297598,7,7
-12.2073,10.6154,4.3347,27,15
-0.436865,0.380833,-0.155291,12,0
-11.2537,9.81378,0.260634,28,8
