x, y, z, intensity, ring
32.8175,7.2214,9.0038,7,15
12.5947,2.75299,0.225031,77,8
0.555928,0.121415,-0.131371,14,1
13.6652,2.982,0.733017,31,9
0.707785,0.154451,-0.140817,46,2
13.4202,2.92609,1.2017,15,10
6.02,1.31147,-0.975838,36,3
16.5144,3.59467,2.07519,22,11
6.72898,1.46347,-0.84553,38,4
16.7379,3.63721,2.71289,13,12
7.64986,1.66095,-0.68487,23,5
32.3027,7.01359,6.4253,28,13
8.84972,1.91985,-0.474583,72,6
33.1842,7.19289,7.83909,11,14
12.3889,2.68309,-0.221262,23,7
32.6121,7.05696,8.94065,7,15
12.5045,2.68758,0.223251,53,8
0.552538,0.118656,-0.130472,14,1
12.8378,2.75453,0.688113,24,9
0.708346,0.151856,-0.140817,34,2
15.307,3.27874,1.36957,12,10
6.02477,1.2894,-0.975838,36,3
16.4336,3.51708,2.06349,48,11
6.75734,1.44495,-0.848454,33,4
7.66146,1.63549,-0.685393,26,5
32.2533,6.87919,6.41042,22,13
8.86061,1.88823,-0.474792,65,6
33.157,7.05986,7.8265,11,14
12.3297,2.62526,-0.22004,27,7
32.6536,6.94669,8.9453,14,15
12.659,2.6723,0.225834,60,8
0.558689,0.117836,-0.131821,14,1
12.7794,2.69304,0.68445,66,9
0.697346,0.146954,-0.138527,36,2
16.4569,3.46502,1.47136,6,10
6.03696,1.26999,-0.97709,35,3
16.6426,3.49805,2.08811,40,11
6.749,1.41732,-0.846748,40,4
16.7944,3.52383,2.71789,12,12
7.6752,1.60902,-0.68609,27,5
22.0375,4.61993,4.37678,25,13
8.88083,1.86016,-0.475525,54,6
21.5195,4.5035,5.0758,5,14
12.4254,2.59805,-0.221576,23,7
32.5654,6.80327,8.91425,14,15
12.451,2.583,0.22196,68,8
0.543832,0.112721,-0.128222,14,1
12.7046,2.63101,0.679949,35,9
0.694034,0.143601,-0.137764,36,2
12.8131,2.6488,1.1447,64,10
6.03964,1.24746,-0.976777,33,3
16.3709,3.38132,2.05252,43,11
6.73835,1.39054,-0.844798,42,4
16.8956,3.48353,2.73228,34,12
7.68858,1.58384,-0.686787,25,5
22.0908,4.54665,4.38403,10,13
9.00301,1.85133,-0.4817,65,6
21.5282,4.42304,5.074,20,14
12.4892,2.56594,-0.222553,29,7
42.2799,8.67881,11.5651,13,15
12.5646,2.55631,0.22381,40,8
0.521344,0.105974,-0.122823,15,1
12.7279,2.58721,0.680682,112,9
0.694556,0.141057,-0.137764,36,2
12.8208,2.60143,1.14453,47,10
6.07128,1.2308,-0.981157,45,3
16.627,3.36769,2.08299,31,11
6.77258,1.37175,-0.848454,28,4
16.8192,3.40357,2.71789,46,12
7.67675,1.55209,-0.685218,30,5
22.219,4.4882,4.40616,20,13
9.15069,1.84677,-0.489237,52,6
33.471,6.75502,7.88318,11,14
12.4672,2.51382,-0.221995,41,7
42.2129,8.50396,11.5382,13,15
12.8417,2.56835,0.228592,70,8
0.548446,0.109591,-0.129122,14,1
13.0556,2.60878,0.697743,26,9
0.687319,0.137215,-0.136238,25,2
12.9036,2.5737,1.15115,20,10
6.05014,1.20565,-0.97709,37,3
16.2078,3.22688,2.02912,35,11
6.77515,1.34889,-0.848211,28,4
17.1694,3.41521,2.77264,27,12
7.70922,1.53206,-0.687659,25,5
22.2626,4.42024,4.41189,12,13
9.38402,1.86149,-0.501379,63,6
33.4301,6.63147,7.86834,11,14
12.3773,2.45303,-0.220249,23,7
21.7269,4.30204,5.93472,5,15
12.8129,2.51843,0.227928,51,8
0.541158,0.106269,-0.127322,15,1
0.703182,0.137959,-0.139291,36,2
12.9101,2.53052,1.15098,55,10
6.05605,1.18595,-0.977403,42,3
16.4132,3.21122,2.0535,35,11
6.78956,1.32714,-0.849429,27,4
16.6888,3.25909,2.69318,12,12
7.72821,1.50781,-0.688879,27,5
32.1603,6.27464,6.3692,5,13
9.64695,1.88042,-0.515091,73,6
21.827,4.25066,5.13383,25,14
12.4428,2.42088,-0.221262,26,7
21.7285,4.22359,5.9311,5,15
12.3012,2.3733,0.218679,31,8
0.541526,0.10438,-0.127322,15,1
13.001,2.50359,0.69387,34,9
0.707539,0.136123,-0.140054,35,2
12.9467,2.48845,1.15342,20,10
6.06617,1.16487,-0.978341,38,3
16.553,3.17861,2.06959,56,11
6.7883,1.30231,-0.848698,28,4
7.75299,1.48457,-0.690622,25,5
32.0481,6.13091,6.34249,5,13
9.84211,1.88105,-0.525139,63,6
21.6721,4.13809,5.09379,5,14
12.5651,2.39918,-0.223286,26,7
21.7753,4.15388,5.9399,11,15
0.549564,0.103841,-0.129122,14,1
13.1043,2.47371,0.698894,42,9
0.692577,0.130739,-0.137001,24,2
13.8441,2.61087,1.23256,68,10
6.07991,1.14551,-0.979906,53,3
16.5723,3.1194,2.07056,48,11
6.80473,1.27962,-0.850161,30,4
17.1369,3.21946,2.76169,12,12
7.75813,1.4575,-0.690622,27,5
20.5344,3.85404,4.06118,22,13
10.0037,1.87576,-0.533408,63,6
21.7918,4.08216,5.11854,5,14
11.8622,2.21996,-0.210651,25,7
20.5181,3.83616,5.59308,11,15
0.557588,0.103343,-0.130922,14,1
13.1482,2.4345,0.700778,20,9
0.693029,0.12832,-0.137001,24,2
13.9002,2.57123,1.23674,31,10
6.07027,1.12177,-0.977716,45,3
16.4387,3.03486,2.05252,65,11
6.83258,1.26018,-0.853086,34,4
7.74945,1.42789,-0.689402,30,5
20.596,3.79122,4.07072,22,13
10.1438,1.86539,-0.540526,77,6
21.9918,4.04022,5.16218,21,14
11.8955,2.18323,-0.211104,38,7
20.615,3.77985,5.61586,14,15
11.9323,2.17062,0.211698,70,8
0.534937,0.0972147,-0.125523,15,1
11.5884,2.10388,0.61725,41,9
0.697336,0.126602,-0.137764,24,2
13.8973,2.52056,1.23569,81,10
6.07609,1.10093,-0.978028,57,3
16.5195,2.99019,2.0613,35,11
6.84866,1.23844,-0.854548,34,4
16.7215,3.02074,2.6913,13,12
7.75047,1.40012,-0.689053,26,5
20.6961,3.735,4.08789,16,13
10.2249,1.84343,-0.544503,73,6
22.0058,3.96344,5.16218,21,14
11.9581,2.15161,-0.212082,23,7
20.8829,3.75366,5.68522,16,15
11.0539,1.971,0.195991,77,8
0.546784,0.0973972,-0.128222,14,1
11.6035,2.06482,0.617669,18,9
0.697773,0.124167,-0.137764,36,2
14.5043,2.57839,1.28886,22,10
6.05656,1.07557,-0.974274,51,3
16.3168,2.8947,2.03473,56,11
6.84708,1.21349,-0.853817,27,4
17.3389,3.06979,2.78891,55,12
7.76904,1.37549,-0.690273,27,5
21.0318,3.71983,4.15162,8,13
10.306,1.82094,-0.548481,80,6
21.5167,3.79785,5.0443,4,14
11.9931,2.11471,-0.21257,27,7
20.6504,3.63751,5.61844,21,15
11.0864,1.93687,0.196444,36,8
0.547121,0.0954878,-0.128222,14,1
11.105,1.93614,0.590768,4,9
0.698224,0.121608,-0.137764,36,2
6.07585,1.05713,-0.976777,57,3
16.0608,2.79151,2.00158,34,11
6.85127,1.18958,-0.853817,38,4
17.2502,2.99203,2.77296,34,12
7.77403,1.347,-0.690273,27,5
20.788,3.59819,4.10087,23,13
10.3717,1.79336,-0.551621,84,6
21.5183,3.72072,5.0416,4,14
12.0517,2.08169,-0.213478,24,7
20.5792,3.55095,5.59567,24,15
11.0264,1.88477,0.195258,38,8
0.585886,0.100042,-0.13722,13,1
0.694794,0.118389,-0.137001,24,2
6.09526,1.0375,-0.97928,60,3
15.9926,2.7193,1.99183,51,11
6.84972,1.16346,-0.853086,28,4
16.593,2.81544,2.66564,22,12
7.76713,1.3165,-0.689228,28,5
34.6026,5.85882,6.8218,12,13
10.4727,1.77132,-0.556645,73,6
22.0659,3.73218,5.16668,5,14
10.472,1.76932,-0.185379,23,7
20.8416,3.51762,5.66348,14,15
11.118,1.85853,0.196758,37,8
0.559339,0.0934007,-0.130922,14,1
12.1295,2.02326,0.644465,18,9
0.670029,0.111764,-0.13204,26,2
13.3876,2.23071,1.18741,2,10
6.09318,1.01418,-0.978341,47,3
16.0514,2.66881,1.99793,38,11
6.85589,1.13867,-0.853329,27,4
16.802,2.78759,2.69756,10,12
7.76404,1.28672,-0.68853,28,5
21.0185,3.48337,4.14132,2,13
10.5044,1.73899,-0.558006,81,6
20.576,3.40265,4.81485,29,14
11.4806,1.89649,-0.203111,33,7
20.9039,3.44938,5.67694,19,15
11.2744,1.84424,0.199411,62,8
0.559661,0.0914475,-0.130922,14,1
12.103,1.97545,0.642686,27,9
0.691748,0.112782,-0.136238,37,2
13.5078,2.19988,1.19735,52,10
6.1183,0.995336,-0.981783,42,3
15.4827,2.51875,1.92602,33,11
6.89313,1.12015,-0.857473,32,4
16.3398,2.65232,2.62184,13,12
7.79208,1.26344,-0.690622,28,5
22.5525,3.65271,4.44089,12,13
10.5048,1.69953,-0.557692,100,6
11.4201,1.84555,-0.201924,25,7
20.9921,3.38871,5.69764,11,15
11.1212,1.77734,0.196584,21,8
0.5369,0.0857094,-0.125523,15,1
13.5382,2.15877,0.718468,40,9
0.692138,0.110367,-0.136238,25,2
13.6157,2.1687,1.20624,31,10
6.11393,0.97273,-0.980531,41,3
14.0626,2.23484,1.74834,15,11
6.89131,1.09395,-0.856742,38,4
16.2499,2.57664,2.60589,17,12
7.80825,1.23811,-0.691668,26,5
22.536,3.56935,4.43516,5,13
10.4712,1.65661,-0.555599,100,6
20.6749,3.26719,4.8324,34,14
11.4011,1.79963,-0.201471,29,7
21.3632,3.36832,5.79496,13,15
11.0937,1.73326,0.195991,60,8
0.525644,0.0820317,-0.122823,15,1
13.4094,2.09028,0.711246,77,9
0.692519,0.107951,-0.136238,37,2
13.5051,2.10277,1.19578,84,10
6.14071,0.955023,-0.984286,37,3
15.0177,2.33292,1.86606,33,11
6.87743,1.06714,-0.854548,32,4
16.4579,2.55076,2.6378,18,12
7.84009,1.21511,-0.694108,27,5
22.5115,3.48496,4.42791,12,13
9.85124,1.52329,-0.522418,49,6
20.6784,3.1938,4.8306,21,14
11.1227,1.71592,-0.196444,34,7
20.9414,3.22693,5.67745,21,15
11.8944,1.81584,0.210022,52,8
0.564456,0.0860716,-0.131821,14,1
13.389,2.03924,0.70978,43,9
0.681246,0.103759,-0.133948,26,2
13.3449,2.03014,1.18096,57,10
6.14596,0.933881,-0.984599,38,3
14.0955,2.1393,1.75053,7,11
6.88308,1.04342,-0.854792,29,4
16.8398,2.54979,2.69756,11,12
7.86004,1.19013,-0.695503,22,5
40.2057,6.08056,7.90407,8,13
10.6208,1.60434,-0.562926,81,6
21.7127,3.27599,5.0695,5,14
11.1069,1.67381,-0.19606,25,7
21.2372,3.19665,5.75458,15,15
11.8274,1.7634,0.208731,26,8
0.560898,0.0835266,-0.130922,14,1
13.6568,2.03128,0.723597,16,9
0.68743,0.102247,-0.135093,25,2
13.2928,1.97476,1.17573,57,10
6.15896,0.91387,-0.986163,42,3
16.7322,2.47975,2.0769,49,11
6.91024,1.02288,-0.857717,31,4
18.0425,2.66751,2.88872,22,12
7.93708,1.17346,-0.701952,31,5
35.2489,5.2051,6.92598,13,13
10.9089,1.60893,-0.577894,77,6
38.4276,5.66079,8.96745,13,14
11.0751,1.6295,-0.195397,26,7
21.1851,3.11324,5.7375,22,15
11.8157,1.71952,0.208417,48,8
0.580471,0.0843713,-0.135421,13,1
0.689725,0.100128,-0.135474,25,2
13.4435,1.94922,1.18846,20,10
6.16015,0.892083,-0.98585,38,3
16.8213,2.43298,2.08689,22,11
6.93538,1.00188,-0.860398,30,4
16.7516,2.41693,2.68066,31,12
8.04387,1.15914,-0.711016,28,5
21.7073,3.12807,4.26305,20,13
10.9381,1.57426,-0.57915,64,6
21.6887,3.11766,5.0587,10,14
10.9975,1.5789,-0.193931,34,7
21.6873,3.10974,5.87053,21,15
11.5504,1.63976,0.203635,43,8
0.565327,0.0801559,-0.131821,14,1
11.7366,1.66201,0.621228,34,9
0.697863,0.0986997,-0.137001,24,2
13.3362,1.88377,1.17835,52,10
6.16338,0.869498,-0.98585,38,3
16.8769,2.3809,2.09274,45,11
6.9467,0.978771,-0.861373,32,4
17.2841,2.4322,2.76451,26,12
8.15243,1.14575,-0.720255,26,5
29.3418,4.11851,5.75938,17,13
9.35556,1.31151,-0.495098,14,6
22.1477,3.10084,5.16308,5,14
10.8802,1.5233,-0.191767,34,7
21.6559,3.02814,5.85915,15,15
11.5009,1.58974,0.202657,10,8
0.554034,0.0764844,-0.129122,14,1
11.6378,1.60453,0.61568,38,9
0.700148,0.096531,-0.137382,24,2
13.4453,1.85134,1.18741,12,10
6.16247,0.847441,-0.985224,38,3
14.6199,2.00788,1.81195,44,11
6.92861,0.950335,-0.858692,33,4
17.3458,2.37608,2.77296,6,12
8.20968,1.12459,-0.724961,17,5
21.7447,2.97479,4.26611,9,13
10.1833,1.39131,-0.538642,73,6
21.6487,2.95396,5.0443,4,14
11.0997,1.51258,-0.195537,100,7
21.5291,2.92997,5.82188,13,15
11.4885,1.54719,0.202343,31,8
0.527259,0.0709133,-0.122823,15,1
12.061,1.61999,0.637766,16,9
0.694644,0.0933022,-0.136238,25,2
13.9611,1.87274,1.23238,57,10
6.18301,0.828284,-0.98804,35,3
14.1133,1.88813,1.74834,42,11
6.94172,0.927459,-0.85991,30,4
16.8977,2.25464,2.70006,13,12
8.40907,1.12201,-0.742218,20,5
21.1361,2.8164,4.14475,6,13
10.2534,1.36446,-0.542096,42,6
21.7902,2.89582,5.0749,5,14
11.1981,1.48619,-0.197177,29,7
22.4776,2.9792,6.07552,18,15
11.8507,1.55387,0.208626,23,8
0.566148,0.074133,-0.131821,14,1
11.5418,1.50926,0.610028,17,9
0.669658,0.0875678,-0.131277,27,2
12.3772,1.61631,1.09206,18,10
6.17411,0.805162,-0.986163,46,3
14.1218,1.83912,1.74858,15,11
6.9587,0.905013,-0.861616,33,4
8.37163,1.0858,-0.738558,22,5
21.1263,2.74008,4.14094,10,13
10.1947,1.32045,-0.538746,45,6
21.5799,2.79124,5.02361,29,14
11.0049,1.42148,-0.193687,100,7
22.4955,2.9017,6.07759,12,15
11.4733,1.46366,0.201889,56,8
0.566403,0.0721562,-0.131821,14,1
11.5509,1.46946,0.610237,24,9
0.699189,0.0888243,-0.137001,24,2
12.4206,1.5757,1.09537,100,10
6.18094,0.783025,-0.986789,42,3
16.4658,2.08595,2.0379,8,11
6.96969,0.881715,-0.862591,31,4
12.333,1.55803,1.96888,36,12
8.59874,1.08475,-0.758255,31,5
26.5182,3.34062,5.19535,10,13
11.1289,1.39999,-0.587838,74,6
21.9051,2.75172,5.09694,40,14
11.1665,1.40274,-0.196444,35,7
21.6295,2.71327,5.84103,2,15
12.0025,1.48648,0.211104,42,8
0.55506,0.0686448,-0.129122,14,1
0.703392,0.0868642,-0.137764,24,2
12.4715,1.53794,1.09938,45,10
6.19344,0.762656,-0.988353,38,3
12.4165,1.52676,1.53604,38,11
6.9847,0.857614,-0.864054,31,4
12.319,1.51041,1.96576,25,12
8.51762,1.04282,-0.75076,19,5
26.7284,3.27237,5.23427,3,13
11.2051,1.36986,-0.591606,84,6
21.8082,2.66227,5.0722,35,14
11.1676,1.36132,-0.196374,23,7
39.2859,4.78196,10.6043,10,15
12.4344,1.49593,0.218609,26,8
0.555296,0.0667067,-0.129122,14,1
12.4833,1.49738,0.65891,35,9
0.69006,0.0826513,-0.135093,25,2
12.4672,1.49104,1.09851,64,10
6.19031,0.739244,-0.987414,37,3
12.0709,1.44151,1.49266,45,11
6.97188,0.831348,-0.862104,33,4
8.73884,1.03895,-0.769934,38,5
21.262,2.52405,4.16193,17,13
11.1604,1.3229,-0.588989,77,6
21.5856,2.55482,5.01821,39,14
10.9956,1.30141,-0.193268,30,7
42.7902,5.057,11.5454,13,15
0.547783,0.0638651,-0.127322,15,1
12.169,1.41662,0.642058,41,9
0.68643,0.0799087,-0.13433,25,2
12.3969,1.44094,1.09189,49,10
6.19468,0.718941,-0.987727,33,3
11.8688,1.37538,1.46706,31,11
6.96882,0.806321,-0.861373,32,4
20.7673,2.39918,3.31109,8,12
8.48511,0.978764,-0.747273,16,5
21.5121,2.48143,4.20925,18,13
39.7612,4.5724,9.24009,13,14
11.0279,1.26622,-0.193757,100,7
42.9688,4.92608,11.5889,13,15
11.4809,1.29996,0.20168,31,8
0.563494,0.0637041,-0.130922,14,1
12.809,1.44581,0.675553,45,9
0.678915,0.0765123,-0.132803,26,2
12.3981,1.39506,1.09154,60,10
6.19924,0.696453,-0.98804,36,3
11.8499,1.33128,1.46414,21,11
6.97554,0.782431,-0.86186,34,4
12.346,1.38264,1.96763,6,12
8.43303,0.942938,-0.742393,30,5
26.4983,2.95821,5.18275,14,13
9.77398,1.08942,-0.515405,42,6
11.4357,1.27261,-0.200842,35,7
41.8914,4.65445,11.2938,12,15
11.3524,1.24329,0.199341,13,8
0.5521,0.0603676,-0.128222,14,1
13.0998,1.43236,0.690625,38,9
0.690888,0.0754207,-0.135093,25,2
12.3573,1.3468,1.08753,58,10
6.16236,0.670537,-0.981783,42,3
14.9945,1.62892,1.85193,24,11
6.97836,0.75686,-0.86186,32,4
12.3389,1.33826,1.96576,14,12
9.33754,1.01108,-0.821704,29,5
26.4402,2.85832,5.1694,14,13
40.1339,4.3245,9.31927,14,14
11.1657,1.20312,-0.196025,27,7
41.9074,4.5082,11.2938,12,15
11.4758,1.2183,0.201436,18,8
0.567801,0.0601794,-0.131821,14,1
12.7929,1.35362,0.674192,20,9
0.689194,0.0728022,-0.134711,25,2
12.3263,1.2999,1.08439,58,10
6.19795,0.653619,-0.987102,38,3
12.6051,1.32708,1.55627,39,11
6.96504,0.732057,-0.85991,32,4
12.3887,1.29992,1.97295,31,12
9.41235,0.985958,-0.82798,37,5
46.6938,4.89125,9.12601,10,13
9.952,1.04073,-0.524406,21,6
40.1713,4.19383,9.32467,14,14
11.3528,1.18321,-0.199237,24,7
40.8199,4.24714,10.9967,11,15
11.6232,1.19294,0.203949,40,8
0.529235,0.0542246,-0.122823,15,1
13.1016,1.34005,0.690207,46,9
0.679667,0.0695174,-0.132803,26,2
12.3206,1.25801,1.08352,42,10
6.20215,0.632179,-0.987414,31,3
11.5531,1.17556,1.42587,37,11
6.9557,0.706537,-0.858448,34,4
12.291,1.2463,1.95668,10,12
9.24923,0.93624,-0.813337,29,5
41.4445,4.19517,8.09717,8,13
9.97147,1.00759,-0.525244,21,6
40.3757,4.07273,9.36876,14,14
11.3548,1.14337,-0.199202,31,7
42.7067,4.29283,11.5009,13,15
11.5178,1.14151,0.202029,77,8
0.56045,0.0554465,-0.130022,14,1
13.1618,1.29981,0.693137,55,9
0.676009,0.0666407,-0.13204,26,2
12.3688,1.21713,1.08736,72,10
6.21622,0.610602,-0.989292,28,3
11.5789,1.13736,1.42855,23,11
6.9601,0.682445,-0.858692,45,4
9.51419,0.929523,-0.836347,32,5
41.2799,4.02571,8.06206,17,13
9.99696,0.973166,-0.526395,7,6
40.3709,3.92285,9.36426,14,14
11.2374,1.09193,-0.197073,28,7
42.508,4.12301,11.4434,26,15
12.0833,1.15285,0.211872,25,8
0.52961,0.0504359,-0.122823,15,1
12.6814,1.20544,0.667598,29,9
0.687964,0.0653951,-0.13433,25,2
12.3333,1.17019,1.08387,56,10
6.23798,0.590761,-0.99242,60,3
11.583,1.09491,1.42855,20,11
7.01987,0.66234,-0.86576,32,4
12.0144,1.13146,1.91132,39,12
9.56895,0.901161,-0.840879,32,5
41.108,3.86413,8.02581,17,13
9.99632,0.937894,-0.526186,28,6
41.7891,3.91344,9.68999,15,14
11.3826,1.06395,-0.199551,100,7
11.8722,1.0909,0.208102,42,8
0.576357,0.0528586,-0.133621,14,1
12.9063,1.18138,0.679216,50,9
0.680368,0.0622776,-0.132803,26,2
12.2401,1.11824,1.07533,78,10
6.21837,0.567014,-0.988979,47,3
11.8872,1.08182,1.4656,7,11
7.09331,0.644294,-0.874534,32,4
11.8235,1.07187,1.88034,27,12
8.85572,0.802818,-0.777952,16,5
42.9279,3.88409,8.37842,18,13
41.919,3.77805,9.71699,15,14
41.0183,3.68244,11.035,11,15
13.081,1.15595,0.22922,47,8
0.557126,0.0491343,-0.129122,14,1
0.684493,0.0602464,-0.133566,26,2
12.238,1.07499,1.0748,56,10
6.23408,0.54651,-0.991169,37,3
12.0867,1.05745,1.48973,28,11
7.14693,0.624021,-0.880872,37,4
11.841,1.03179,1.88253,28,12
8.84669,0.769317,-0.776906,16,5
39.2387,3.41224,7.65602,7,13
11.0234,0.95667,-0.579882,84,6
42.6658,3.69527,9.88705,15,14
11.1587,0.964484,-0.195502,100,7
41.8277,3.60798,11.2493,12,15
0.553411,0.0468603,-0.128222,14,1
0.680796,0.0574074,-0.132803,26,2
12.0909,1.01743,1.06156,36,10
6.26557,0.526138,-0.995862,38,3
12.116,1.01742,1.4929,38,11
7.19457,0.60288,-0.886478,33,4
11.8209,0.988472,1.87878,43,12
8.81359,0.735455,-0.773769,27,5
43.1952,3.59684,8.42536,9,13
10.9273,0.907989,-0.574649,54,6
40.9312,3.39395,9.48214,14,14
11.3752,0.943216,-0.199237,100,7
42.0133,3.47627,11.2959,12,15
0.545809,0.0442025,-0.126422,15,1
0.661424,0.0534491,-0.128987,27,2
11.864,0.956644,1.04134,85,10
6.28903,0.506005,-0.999304,41,3
11.4746,0.921209,1.41344,16,11
7.35107,0.588872,-0.905489,35,4
11.5822,0.925783,1.8403,14,12
8.89554,0.711033,-0.780741,13,5
35.1093,2.80015,6.84623,6,13
10.142,0.8071,-0.533199,45,6
40.2123,3.19304,9.31297,14,14
11.4404,0.906405,-0.200319,100,7
42.5958,3.36734,11.4491,13,15
11.6432,0.90407,0.203844,60,8
0.569275,0.0441034,-0.131821,14,1
0.665521,0.051443,-0.12975,27,2
11.5216,0.888565,1.01101,34,10
6.28879,0.483896,-0.998991,45,3
11.6025,0.89073,1.4288,40,11
7.50549,0.57488,-0.924257,26,4
8.78672,0.671473,-0.77098,44,5
35.0288,2.67074,6.82867,12,13
10.1766,0.774114,-0.534873,14,6
21.5593,1.63619,4.99166,9,14
10.8832,0.824047,-0.19051,30,7
44.3025,3.34668,11.9046,14,15
11.6602,0.864459,0.204088,62,8
0.530557,0.039241,-0.122823,15,1
11.6224,0.857577,0.610761,38,9
0.685276,0.0505641,-0.133566,26,2
12.548,0.923671,1.10078,68,10
6.28256,0.461363,-0.997739,45,3
11.5877,0.848916,1.4266,54,11
7.70543,0.563149,-0.948631,25,4
11.7519,0.856824,1.86626,35,12
9.05727,0.660358,-0.794512,19,5
35.0927,2.55243,6.83936,6,13
38.7759,2.80671,8.97555,13,14
11.0176,0.795555,-0.192814,83,7
43.9825,3.16813,11.8156,14,15
11.8128,0.834321,0.206706,55,8
0.530691,0.0373887,-0.122823,15,1
0.697199,0.0489977,-0.135856,25,2
11.4938,0.805744,1.00804,19,10
6.29004,0.439842,-0.998678,41,3
11.5569,0.806116,1.42246,70,11
7.78854,0.541899,-0.958624,36,4
11.6031,0.805263,1.84217,21,12
9.08536,0.630529,-0.796778,18,5
39.0499,2.70326,7.6087,7,13
10.9369,0.755198,-0.574544,47,6
35.9393,2.4753,8.31689,24,14
10.9226,0.750378,-0.191104,21,7
43.8449,3.00444,11.7757,28,15
11.7119,0.786115,0.204891,22,8
0.550262,0.0368378,-0.127322,15,1
0.68953,0.0460404,-0.13433,25,2
11.4786,0.764423,1.00647,70,10
6.28957,0.417753,-0.998365,45,3
11.4983,0.761699,1.4149,40,11
7.69729,0.508556,-0.947169,61,4
11.5881,0.763589,1.83936,20,12
9.65808,0.636411,-0.846805,37,5
35.6504,2.34291,6.94468,6,13
10.4054,0.682005,-0.546492,49,6
35.9516,2.3501,8.31779,48,14
11.1047,0.723952,-0.194245,32,7
43.751,2.8446,11.7478,28,15
0.530939,0.0336831,-0.122823,15,1
11.1623,0.706185,0.586163,34,9
0.681849,0.0431372,-0.132803,26,2
11.4773,0.724102,1.00613,61,10
6.28902,0.395673,-0.998052,42,3
11.6752,0.732494,1.43635,30,11
7.65345,0.478835,-0.941563,60,4
11.6144,0.724613,1.84311,48,12
9.13726,0.570068,-0.800961,16,5
29.0824,1.80932,5.66397,4,13
10.3858,0.644321,-0.545341,42,6
35.9537,2.22422,8.31644,12,14
10.7878,0.665482,-0.188661,100,7
35.1377,2.16144,9.43292,16,15
11.3578,0.682733,0.198608,51,8
0.531053,0.0318297,-0.122823,15,1
11.2345,0.671389,0.589826,85,9
0.689835,0.0412254,-0.13433,25,2
11.4897,0.684624,1.007,55,10
6.29825,0.374185,-0.999304,37,3
11.4339,0.677299,1.40637,35,11
7.75614,0.458083,-0.953993,55,4
11.9698,0.704849,1.89911,37,12
9.08559,0.533419,-0.796255,34,5
28.9886,1.70193,5.64451,8,13
9.1039,0.5329,-0.477932,18,6
22.0203,1.28511,5.09244,5,14
11.2113,0.652332,-0.196025,35,7
34.9869,2.02959,9.39047,16,15
11.386,0.644555,0.199062,63,8
0.562291,0.0317324,-0.130022,14,1
11.5459,0.64956,0.60605,57,9
0.682141,0.0382572,-0.132803,26,2
11.4662,0.641065,1.00473,42,10
6.27788,0.349888,-0.995862,45,3
11.6443,0.648979,1.43196,77,11
7.76363,0.431338,-0.954725,80,4
12.0905,0.669619,1.91789,49,12
9.0675,0.500601,-0.794512,19,5
22.2199,1.22283,4.32564,14,13
9.02203,0.494936,-0.473536,39,6
21.9899,1.20247,5.08434,25,14
11.6328,0.63612,-0.203355,100,7
34.9668,1.90597,9.38323,32,15
11.4342,0.605247,0.199865,40,8
0.531267,0.0280287,-0.122823,15,1
11.3846,0.598635,0.597467,26,9
0.690112,0.036288,-0.13433,25,2
11.6693,0.611565,1.02234,48,10
6.28695,0.328388,-0.997113,38,3
11.8925,0.619095,1.46219,31,11
7.74336,0.401747,-0.952043,46,4
11.7556,0.60786,1.86439,33,12
8.94591,0.461008,-0.783704,46,5
22.0299,1.13526,4.28786,26,13
9.06559,0.465589,-0.475734,50,6
21.9881,1.12542,5.08299,5,14
11.9686,0.610494,-0.209185,29,7
21.8307,1.10972,5.85708,7,15
11.9656,0.591496,0.209115,65,8
0.562504,0.027708,-0.130022,14,1
11.5043,0.564666,0.603643,19,9
0.686319,0.0335667,-0.133566,26,2
11.58,0.564332,1.01432,25,10
6.29009,0.305434,-0.997426,42,3
11.9679,0.581138,1.47121,49,11
7.79031,0.376923,-0.957649,58,4
11.6432,0.561302,1.84624,43,12
9.10269,0.437232,-0.797301,34,5
22.1457,1.05987,4.30961,26,13
9.09717,0.433788,-0.477304,29,6
28.8965,1.37283,6.6788,28,14
12.2643,0.582658,-0.214316,27,7
31.3613,1.48446,8.41265,13,15
11.9477,0.546719,0.208766,48,8
0.531454,0.0242264,-0.122823,15,1
11.7756,0.536791,0.617774,108,9
0.670742,0.0304582,-0.130513,27,2
11.4346,0.517241,1.00142,65,10
6.3148,0.284547,-1.00118,41,3
11.843,0.531576,1.45561,57,11
7.67266,0.343046,-0.943025,71,4
11.9213,0.533005,1.89004,22,12
9.00663,0.401118,-0.788759,31,5
22.1139,0.980984,4.30274,26,13
31.687,1.39458,7.32261,10,14
11.4971,0.506002,-0.200877,100,7
31.4069,1.37675,8.42352,26,15
11.8495,0.502865,0.20702,43,8
0.554896,0.0234511,-0.128222,14,1
12.0129,0.50559,0.630125,30,9
0.67869,0.0284453,-0.13204,26,2
11.4821,0.479237,1.00543,42,10
6.3315,0.264262,-1.00368,46,3
7.65194,0.316695,-0.940344,46,4
11.8521,0.488463,1.87878,52,12
22.0661,0.905558,4.29282,28,13
9.80834,0.4008,-0.514463,45,6
31.5785,1.28489,7.29651,43,14
10.23,0.41446,-0.178713,100,7
31.452,1.26873,8.4344,19,15
0.560816,0.0217404,-0.129572,14,1
10.7831,0.418013,0.565542,13,9
0.686628,0.0264979,-0.133566,26,2
11.613,0.446132,1.01676,48,10
6.34422,0.242611,-1.00556,46,3
11.5012,0.437817,1.4132,47,11
7.44074,0.281946,-0.914264,51,4
11.8971,0.450805,1.88566,30,12
8.03955,0.303227,-0.70387,1,5
21.9946,0.825723,4.27832,26,13
7.99744,0.298847,-0.41942,39,6
32.2488,1.19942,7.45038,11,14
10.2514,0.381275,-0.179062,100,7
31.6028,1.16987,8.47374,13,15
0.529725,0.0187761,-0.122373,15,1
0.706337,0.0247893,-0.137382,24,2
11.4373,0.399401,1.00125,57,10
6.37066,0.222469,-1.00963,52,3
11.6395,0.404434,1.43001,40,11
7.45354,0.257679,-0.915726,57,4
11.6735,0.40153,1.84999,52,12
8.03658,0.275027,-0.703521,5,5
21.9324,0.75057,4.26573,20,13
7.96046,0.271031,-0.417432,21,6
31.9235,1.08133,7.37435,10,14
10.5844,0.35667,-0.184856,100,7
31.6877,1.06227,8.49548,19,15
0.529796,0.0166497,-0.122373,15,1
0.698578,0.0218319,-0.135856,25,2
6.38137,0.1972,-1.01119,35,3
11.5557,0.355082,1.41953,74,11
7.5438,0.230483,-0.926695,55,4
12.1943,0.370444,1.93228,44,12
9.02335,0.274115,-0.789805,12,5
21.9294,0.662349,4.26458,4,13
9.93388,0.298301,-0.520847,28,6
31.8049,0.949515,7.346,10,14
10.4638,0.310563,-0.182727,32,7
31.8945,0.941034,8.54983,6,15
10.2264,0.287441,0.178573,38,8
0.529851,0.0148001,-0.122373,15,1
10.3518,0.287344,0.542724,22,9
0.6908,0.0191752,-0.13433,25,2
9.99003,0.275558,0.874346,16,10
6.54592,0.179414,-1.03716,38,3
7.39375,0.20007,-0.90817,31,4
12.3555,0.332173,1.95762,43,12
32.1937,0.859895,6.26006,10,13
10.3202,0.27385,-0.541049,28,6
31.7729,0.837557,7.3379,10,14
10.7647,0.281884,-0.187962,73,7
31.9729,0.831662,8.57002,20,15
10.2993,0.253511,0.17983,13,8
0.56107,0.0137121,-0.129572,14,1
11.0116,0.269115,0.577266,6,9
0.706564,0.0171448,-0.137382,24,2
9.98894,0.240638,0.874172,22,10
6.67881,0.159726,-1.05812,41,3
10.5855,0.251313,1.3001,15,11
7.52737,0.177395,-0.924501,65,4
12.2874,0.289572,1.94667,39,12
9.9413,0.232542,-0.869989,14,5
12.4103,0.288135,2.41297,28,13
9.74004,0.224438,-0.51059,42,6
31.762,0.726323,7.33475,10,14
10.2877,0.235257,-0.17962,30,7
31.8249,0.722219,8.52964,13,15
10.2461,0.218203,0.178887,12,8
0.561112,0.0118519,-0.129572,14,1
0.696805,0.0144743,-0.135474,25,2
11.3562,0.233918,0.99375,57,10
6.69708,0.137948,-1.06094,45,3
9.87179,0.201614,1.21236,30,11
7.54181,0.152711,-0.926207,21,4
11.8558,0.237994,1.87815,36,12
9.68083,0.190953,-0.507449,21,6
35.5382,0.694782,8.20621,12,14
10.1505,0.196674,-0.177212,71,7
32.48,0.623652,8.7046,28,15
10.2988,0.183364,0.179795,22,8
0.529975,0.00934338,-0.122373,15,1
12.2114,0.213153,0.640069,21,9
0.704701,0.0123007,-0.137001,24,2
11.327,0.195739,0.991135,68,10
6.7785,0.115954,-1.07377,46,3
9.83869,0.166584,1.20821,30,11
7.52046,0.12602,-0.923526,75,4
11.7321,0.194547,1.85844,11,12
9.56415,0.158597,-0.836869,16,5
33.7222,0.553308,6.55582,11,13
31.6513,0.508278,7.30821,21,14
10.717,0.17023,-0.18709,91,7
32.7602,0.514632,8.77914,14,15
11.1891,0.160146,0.195327,25,8
0.530004,0.00749322,-0.122373,15,1
10.0992,0.141024,0.529326,26,9
0.718481,0.0100328,-0.139672,23,2
10.722,0.147845,0.938144,23,10
6.8638,0.0934463,-1.08722,45,3
9.87693,0.132749,1.21284,16,11
7.49108,0.0993711,-0.91987,60,4
7.87723,0.103119,-0.689228,33,5
33.5139,0.432886,6.51498,23,13
7.96842,0.10153,-0.417641,32,6
33.2,0.417226,7.66543,22,14
10.3176,0.127866,-0.180109,100,7
37.1738,0.454188,9.96143,18,15
10.3498,0.112001,0.180667,47,8
0.561205,0.00597518,-0.129572,14,1
10.0077,0.104806,0.524511,58,9
0.71066,0.00731836,-0.138146,24,2
9.99529,0.102931,0.874521,6,10
6.89174,0.069768,-1.0916,45,3
9.94085,0.0989004,1.22064,48,11
7.60254,0.0743098,-0.933519,66,4
11.8043,0.113319,1.8697,15,12
33.3464,0.308463,6.48216,23,13
8.04663,0.0730327,-0.421723,58,6
33.2208,0.301518,7.66993,33,14
10.218,0.0909575,-0.178364,88,7
33.1995,0.289721,8.89613,14,15
10.3682,0.0741929,0.180981,16,8
0.530044,0.00370041,-0.122373,15,1
10.3436,0.0704113,0.542096,61,9
0.712646,0.00472644,-0.138527,24,2
10.0036,0.0663462,0.875218,10,10
7.07763,0.0457053,-1.12101,52,3
11.7515,0.0738426,1.44293,37,11
7.50748,0.0458607,-0.92182,55,4
11.8442,0.0702848,1.87596,26,12
7.94353,0.0457554,-0.69498,23,5
42.5234,0.237497,8.26585,8,13
8.05683,0.0435919,-0.422247,14,6
39.6836,0.21471,9.16181,13,14
10.4203,0.0545657,-0.181889,100,7
33.0652,0.167359,8.85989,29,15
10.2764,0.0358724,0.179376,8,8
0.530054,0.00175779,-0.122373,15,1
10.3338,0.0324707,0.541573,49,9
0.706769,0.00209712,-0.137382,24,2
9.94796,0.0295175,0.870337,24,10
7.15084,0.0199699,-1.13259,53,3
11.7596,0.0307828,1.44391,6,11
7.47385,0.0182633,-0.917676,61,4
11.9233,0.0270552,1.88848,76,12
7.94962,0.0166473,-0.695503,17,5
37.6198,0.0722319,7.31256,14,13
8.07291,0.0140915,-0.423084,36,6
37.5288,0.0655075,8.66422,12,14
11.1603,0.0175275,-0.194804,21,7
36.5139,0.050991,9.78388,8,15
0.565135,-0.000197269,-0.130472,14,1
10.3198,-0.00540345,0.54084,63,9
0.716588,-0.000500273,-0.139291,24,2
10.6015,-0.00740125,0.927511,52,10
6.92764,-0.00604551,-1.09723,48,3
10.658,-0.011161,1.30863,12,11
7.456,-0.00910923,-0.915483,66,4
8.16879,-0.0128315,-0.714677,10,5
37.5982,-0.0656213,7.30837,21,13
7.98103,-0.0153225,-0.418269,36,6
37.33,-0.0716685,8.61832,12,14
10.6604,-0.022327,-0.186078,73,7
37.8082,-0.0857842,10.1307,9,15
0.553438,-0.00202847,-0.127772,14,1
0.706766,-0.0027138,-0.137382,24,2
9.96187,-0.0399897,0.871557,42,10
7.05993,-0.0295728,-1.11819,68,3
10.5586,-0.0460709,1.29645,42,11
7.43806,-0.0337531,-0.913289,58,4
7.96349,-0.0389172,-0.696723,25,5
37.5645,-0.183576,7.30188,7,13
10.7012,-0.054164,-0.560832,37,6
39.4634,-0.206632,9.11097,13,14
12.6239,-0.0683025,-0.220354,100,7
37.5913,-0.209952,10.0727,18,15
9.78027,-0.0682803,0.170719,1,8
0.530044,-0.00379298,-0.122373,15,1
0.698899,-0.00524528,-0.135856,25,2
9.92978,-0.0762567,0.868768,44,10
7.27311,-0.0571241,-1.15198,62,3
10.1534,-0.0797465,1.24672,51,11
7.41805,-0.0595572,-0.910852,63,4
28.2548,-0.231781,4.47528,25,12
7.94736,-0.0665812,-0.695328,45,5
47.6955,-0.407907,9.27141,21,13
10.4932,-0.0915728,-0.549946,63,6
11.2038,-0.0997301,-0.195572,75,7
54.1147,-0.491143,14.5006,20,15
0.557307,-0.00603088,-0.128672,14,1
10.1135,-0.111208,0.530059,26,9
0.696913,-0.00766327,-0.135474,25,2
9.83183,-0.109827,0.860227,24,10
7.27879,-0.0825789,-1.15292,56,3
10.1471,-0.116892,1.24599,23,11
7.55276,-0.0883238,-0.927426,32,4
12.6593,-0.150251,2.00518,10,12
7.9929,-0.0948661,-0.699338,46,5
28.0823,-0.338205,5.45905,38,13
8.10427,-0.0990173,-0.424759,47,6
37.3311,-0.462625,8.61922,12,14
10.2116,-0.12833,-0.178259,100,7
37.8052,-0.481698,10.1307,9,15
9.0997,-0.128653,0.158852,31,8
0.530003,-0.00758576,-0.122373,15,1
9.02067,-0.130685,0.472803,19,9
0.702771,-0.0101812,-0.136619,25,2
9.74971,-0.142948,0.85308,48,10
7.26069,-0.107722,-1.15011,51,3
10.1387,-0.152192,1.24502,37,11
7.92357,-0.120324,-0.973005,41,4
12.6903,-0.194924,2.01018,10,12
8.0244,-0.123256,-0.702127,36,5
37.1953,-0.577816,7.2309,28,13
8.14182,-0.127902,-0.426747,79,6
36.6863,-0.582718,8.47076,49,14
10.2991,-0.165387,-0.179795,100,7
37.6198,-0.610682,10.0815,18,15
9.14319,-0.161191,0.15962,41,8
0.531922,-0.00947046,-0.122823,15,1
9.36563,-0.168383,0.490911,39,9
0.712546,-0.0128107,-0.138527,24,2
9.84078,-0.178644,0.861099,48,10
7.18521,-0.131691,-1.13822,62,3
10.017,-0.185341,1.23015,23,11
7.9628,-0.148723,-0.97788,64,4
12.5059,-0.235758,1.98109,17,12
8.12153,-0.153105,-0.710668,15,5
47.8398,-0.910218,9.30079,10,13
8.18526,-0.157165,-0.42905,21,6
36.8165,-0.713341,8.50135,12,14
10.9522,-0.214118,-0.191209,92,7
37.6097,-0.741843,10.0794,18,15
0.551369,-0.0117421,-0.127322,15,1
9.02753,-0.193829,0.473222,30,9
0.726237,-0.0155929,-0.141199,23,2
9.7664,-0.211398,0.854649,24,10
7.22618,-0.157676,-1.14479,40,3
9.80795,-0.215723,1.20456,30,11
6.74369,-0.149503,-0.828224,15,4
12.505,-0.27941,1.98109,19,12
7.8381,-0.175134,-0.685916,10,5
36.8881,-0.830666,7.17213,7,13
8.19264,-0.185917,-0.429469,54,6
36.4767,-0.834142,8.42352,24,14
11.3772,-0.262159,-0.198643,100,7
37.8328,-0.878367,10.14,9,15
0.570806,-0.0141496,-0.131821,14,1
9.07671,-0.226586,0.475839,56,9
0.712439,-0.0177849,-0.138527,24,2
7.18215,-0.181799,-1.1379,63,3
9.74165,-0.248289,1.19651,30,11
6.77289,-0.173806,-0.83188,4,4
7.8713,-0.203368,-0.688879,5,5
36.8103,-0.957484,7.15763,20,13
7.89246,-0.206671,-0.413768,76,6
36.7054,-0.967576,8.47706,12,14
10.3548,-0.274766,-0.180807,9,7
47.777,-1.27612,12.8064,34,15
9.94256,-0.279457,0.173617,77,8
0.531793,-0.0150401,-0.122823,15,1
9.38532,-0.267074,0.492063,39,9
0.706486,-0.0201041,-0.137382,24,2
9.42612,-0.269881,0.825016,38,10
7.37102,-0.212329,-1.16794,47,3
9.82605,-0.284765,1.20699,35,11
6.89923,-0.201149,-0.84748,36,4
10.2991,-0.302073,1.63192,3,12
7.88448,-0.231251,-0.690099,31,5
36.1003,-1.06513,7.02025,6,13
7.81184,-0.23185,-0.409581,97,6
36.7603,-1.09744,8.49055,12,14
11.4131,-0.342721,-0.199306,100,7
8.94417,-0.282645,0.156199,57,8
0.555111,-0.017639,-0.128222,14,1
8.89525,-0.284207,0.466418,51,9
0.698562,-0.0223193,-0.135856,25,2
10.1858,-0.32722,0.891603,60,10
7.10568,-0.229512,-1.12602,72,3
9.17621,-0.297993,1.12729,34,11
7.55322,-0.246607,-0.927913,47,4
10.4579,-0.343271,1.65727,1,12
7.91743,-0.261265,-0.693062,21,5
36.2121,-1.19495,7.04276,27,13
7.84891,-0.260375,-0.41157,79,6
48.2707,-1.60974,11.1504,19,14
13.3265,-0.446742,-0.232745,18,7
9.119,-0.320036,0.159271,13,8
0.555046,-0.0195766,-0.128222,14,1
8.87225,-0.314477,0.465267,39,9
0.729868,-0.0259977,-0.141962,23,2
9.18899,-0.328916,0.804447,18,10
6.89948,-0.248169,-1.09348,36,3
9.11759,-0.327953,1.12022,28,11
7.0643,-0.255332,-0.867954,25,4
10.4409,-0.3792,1.65476,14,12
8.03793,-0.293333,-0.703695,28,5
35.9956,-1.3199,7.00155,19,13
8.78198,-0.323555,-0.460556,87,6
48.3619,-1.79025,11.1729,19,14
13.3248,-0.493257,-0.232745,26,7
9.48543,-0.367709,0.165693,7,8
0.531603,-0.0207009,-0.122823,15,1
8.80318,-0.344339,0.461708,13,9
0.712117,-0.0278547,-0.138527,24,2
9.16788,-0.360207,0.802704,20,10
9.28294,-0.367973,1.1407,36,11
10.4828,-0.419202,1.66165,20,12
7.75615,-0.310163,-0.679118,8,5
38.3272,-1.53938,7.45605,7,13
39.1493,-1.58608,9.04573,13,14
11.6726,-0.47494,-0.203914,100,7
9.58199,-0.404955,0.167403,37,8
0.554892,-0.0235479,-0.128222,14,1
0.712015,-0.0303402,-0.138527,24,2
7.26071,-0.311931,-1.15104,42,3
9.2935,-0.400888,1.14216,26,11
7.42919,-0.321767,-0.913045,62,4
37.1369,-1.62143,7.22555,14,13
7.81376,-0.342523,-0.409895,10,6
39.3343,-1.73113,9.08982,27,14
10.0427,-0.443741,-0.175467,44,7
9.80425,-0.448638,0.171313,77,8
0.504192,-0.0231598,-0.116525,16,1
9.18762,-0.423635,0.482014,80,9
0.690332,-0.0318308,-0.13433,25,2
9.2547,-0.428347,0.810548,37,10
7.28918,-0.338649,-1.15574,85,3
9.44077,-0.440261,1.16044,39,11
7.57674,-0.354659,-0.931326,58,4
9.48123,-0.445465,1.50334,12,12
7.64832,-0.359348,-0.669879,30,5
35.6484,-1.68114,6.93705,32,13
7.71476,-0.365169,-0.404766,50,6
36.3147,-1.72526,8.39337,12,14
10.1489,-0.483937,-0.177351,44,7
9.93444,-0.489351,0.173617,25,8
0.546928,-0.0270363,-0.126422,15,1
9.62494,-0.477474,0.505042,17,9
0.719629,-0.0356994,-0.140054,35,2
9.39046,-0.467485,0.822576,48,10
7.25047,-0.362218,-1.14979,51,3
9.3103,-0.466752,1.1446,86,11
7.62502,-0.383599,-0.937419,41,4
9.48356,-0.478757,1.50396,34,12
7.73656,-0.390563,-0.677723,36,5
35.5717,-1.80199,6.92331,6,13
7.64961,-0.388851,-0.401417,79,6
36.4467,-1.85906,8.42532,37,14
10.1611,-0.520076,-0.177596,88,7
9.9845,-0.528508,0.174524,47,8
0.531257,-0.0282139,-0.122823,15,1
9.63917,-0.511916,0.505879,9,9
0.723415,-0.0385456,-0.140817,23,2
9.24344,-0.494135,0.809851,15,10
9.52657,-0.512606,1.17141,22,11
7.64537,-0.41272,-0.9401,28,4
9.46802,-0.511112,1.50177,63,12
7.70722,-0.417408,-0.675283,41,5
35.6923,-1.93928,6.94812,13,13
8.28631,-0.451672,-0.434912,54,6
35.9785,-1.96742,8.31869,12,14
10.1832,-0.556852,-0.178015,88,7
54.2286,-2.97489,14.5524,20,15
9.98069,-0.561502,0.174489,52,8
0.554509,-0.0312931,-0.128222,14,1
9.60343,-0.54364,0.5041,36,9
0.721316,-0.0409593,-0.140435,23,2
6.19067,-0.352616,-0.982096,12,3
9.61004,-0.549063,1.18189,22,11
7.63009,-0.437276,-0.938394,41,4
9.67523,-0.556176,1.53494,19,12
7.74152,-0.446373,-0.67842,33,5
36.503,-2.10475,7.10725,13,13
36.3842,-2.11064,8.41407,49,14
10.1932,-0.593092,-0.178224,100,7
53.485,-3.12139,14.3557,20,15
10.2142,-0.610415,0.178608,57,8
0.531053,-0.0318294,-0.122823,15,1
9.60944,-0.577639,0.504519,65,9
0.70745,-0.0426499,-0.137764,36,2
9.68336,-0.583778,0.848723,18,10
9.85377,-0.597504,1.21211,35,11
7.52152,-0.4574,-0.925232,25,4
9.73632,-0.593793,1.54495,23,12
7.68225,-0.469866,-0.673365,31,5
36.9693,-2.26761,7.19961,14,13
8.22116,-0.505708,-0.431667,54,6
36.3046,-2.23321,8.39742,36,14
10.3288,-0.637164,-0.180632,100,7
10.4215,-0.661141,0.182273,27,8
0.554271,-0.0352602,-0.128222,14,1
9.62719,-0.614127,0.505565,10,9
0.713167,-0.0456185,-0.138909,24,2
9.4187,-0.602477,0.825713,32,10
7.58763,-0.486681,-1.20423,43,3
9.279,-0.596793,1.14167,28,11
7.62478,-0.491736,-0.93815,56,4
9.79322,-0.633299,1.55433,14,12
7.73813,-0.501759,-0.67842,38,5
35.8636,-2.33177,6.9859,13,13
8.12956,-0.52999,-0.426957,72,6
36.3331,-2.36866,8.40597,49,14
10.2825,-0.672147,-0.179865,100,7
9.71466,-0.652059,0.169952,7,8
0.530805,-0.0357214,-0.122823,15,1
0.689498,-0.0465217,-0.13433,25,2
9.31505,-0.630136,0.816824,40,10
7.50696,-0.509141,-1.19172,72,3
9.5362,-0.648441,1.1736,41,11
7.61104,-0.518869,-0.936688,61,4
7.82777,-0.535016,-0.686439,28,5
36.2744,-2.48566,7.06757,20,13
8.12169,-0.557953,-0.426643,79,6
22.6317,-1.55875,5.23731,27,14
9.93682,-0.686137,-0.173861,100,7
54.0552,-3.74199,14.5187,20,15
0.530678,-0.037574,-0.122823,15,1
10.0011,-0.709869,0.525453,26,9
0.718706,-0.0510132,-0.140054,23,2
9.42408,-0.670567,0.826585,54,10
7.47756,-0.533374,-1.18734,51,3
9.29231,-0.664451,1.14387,7,11
7.60919,-0.545433,-0.936688,46,4
9.74115,-0.699963,1.54682,87,12
7.74239,-0.55634,-0.679118,40,5
36.1559,-2.60437,7.0462,13,13
8.27706,-0.597663,-0.434912,32,6
22.6203,-1.63731,5.23596,44,14
10.078,-0.731238,-0.176374,97,7
9.66001,-0.716168,0.169079,33,8
0.549977,-0.0408704,-0.127322,15,1
0.726355,-0.054105,-0.14158,23,2
9.40182,-0.701976,0.824842,36,10
7.70809,-0.576869,-1.22426,76,3
9.33349,-0.70015,1.14923,31,11
7.52608,-0.565889,-0.926695,15,4
9.63622,-0.726242,1.53056,76,12
8.44371,-0.636368,-0.740824,42,5
36.3854,-2.7486,7.09275,27,13
8.10763,-0.613885,-0.426119,58,6
22.6494,-1.71892,5.24406,44,14
9.84805,-0.749121,-0.172395,35,7
10.9952,-0.853758,0.1925,26,8
0.549831,-0.0427899,-0.127322,15,1
0.710503,-0.0554188,-0.138527,24,2
9.47678,-0.740846,0.83164,56,10
7.14083,-0.559488,-1.13446,58,3
9.35671,-0.734746,1.1524,39,11
7.45083,-0.586393,-0.917676,41,4
9.42291,-0.743254,1.49708,56,12
7.76413,-0.612414,-0.681384,28,5
36.859,-2.91381,7.18701,14,13
7.93222,-0.628459,-0.417013,65,6
22.6277,-1.79673,5.24046,38,14
9.8972,-0.787617,-0.173302,96,7
53.8744,-4.29678,14.4814,20,15
10.4182,-0.845545,0.182447,17,8
0.503062,-0.0409173,-0.116525,16,1
0.700522,-0.057101,-0.136619,25,2
9.80774,-0.801174,0.860924,16,10
7.25499,-0.59392,-1.15292,50,3
9.45895,-0.776005,1.16531,31,11
6.91655,-0.568644,-0.852111,32,4
9.44585,-0.77825,1.50115,65,12
7.7004,-0.634441,-0.67598,35,5
36.9503,-3.05085,7.20686,21,13
8.03747,-0.665037,-0.422665,29,6
22.5572,-1.8704,5.22561,21,14
8.3898,-0.697139,-0.146949,89,7
10.9033,-0.923243,0.190999,28,8
0.549519,-0.0466274,-0.127322,15,1
0.714011,-0.0607103,-0.139291,24,2
9.56071,-0.814599,0.839484,34,10
9.39487,-0.803773,1.15776,21,11
7.01341,-0.601261,-0.864297,18,4
9.47851,-0.814261,1.50678,14,12
7.75372,-0.666091,-0.680861,40,5
25.6219,-2.20558,4.99881,22,13
8.04704,-0.694119,-0.423293,18,6
30.0719,-2.59922,6.96853,10,14
8.3933,-0.726938,-0.147054,89,7
37.3761,-3.24369,10.0525,9,15
10.7785,-0.950581,0.18887,23,8
0.514412,-0.0454576,-0.119224,16,1
0.725529,-0.0642412,-0.14158,34,2
9.50621,-0.84339,0.834952,58,10
9.69255,-0.863332,1.19481,33,11
6.87286,-0.613387,-0.847236,3,4
7.71749,-0.691483,-0.677897,26,5
25.6688,-2.29991,5.0095,16,13
8.02069,-0.720061,-0.422037,50,6
27.6152,-2.48402,6.40121,35,14
8.48232,-0.764489,-0.14866,100,7
9.23583,-0.847028,0.161889,13,8
0.54918,-0.0504626,-0.127322,15,1
10.9844,-1.01126,0.578103,40,9
0.725289,-0.0669,-0.14158,34,2
9.60423,-0.887576,0.843842,30,10
6.81946,-0.631422,-1.08472,20,3
9.30996,-0.86202,1.14801,34,11
6.92998,-0.642875,-0.854548,39,4
9.91514,-0.921545,1.57717,68,12
7.79636,-0.725992,-0.685044,25,5
29.5697,-2.75872,5.77274,17,13
8.05578,-0.752985,-0.424026,39,6
27.635,-2.58795,6.40796,44,14
8.50947,-0.79689,-0.149183,73,7
29.6724,-2.78396,7.9856,11,15
9.28641,-0.886001,0.162831,35,8
0.514073,-0.0491374,-0.119224,16,1
10.8494,-1.03895,0.571195,23,9
0.709416,-0.0679341,-0.138527,24,2
9.14095,-0.876953,0.803402,9,10
9.30476,-0.895947,1.14777,28,11
7.50257,-0.723737,-0.925476,50,4
9.82912,-0.949899,1.56403,23,12
7.69264,-0.743427,-0.676154,30,5
29.4896,-2.85511,5.759,13,13
8.72304,-0.84608,-0.4593,100,6
27.5986,-2.68176,6.40166,35,14
9.631,-0.93754,-0.168904,69,7
30.1657,-2.94183,8.12122,18,15
0.529412,-0.0524691,-0.122823,15,1
9.67111,-0.960192,0.509334,104,9
0.713082,-0.070798,-0.139291,36,2
7.13529,-0.710939,-1.13571,15,3
9.2917,-0.927435,1.14655,70,11
7.34198,-0.734121,-0.905977,63,4
9.46605,-0.948174,1.50678,26,12
25.7952,-2.58835,5.03927,16,13
8.75381,-0.879919,-0.46108,79,6
27.5697,-2.77612,6.39716,35,14
8.52543,-0.859969,-0.149567,90,7
25.3597,-2.56253,6.82972,16,15
9.26806,-0.949587,0.162622,40,8
0.505963,-0.0519292,-0.117424,16,1
9.57648,-0.982877,0.504519,33,9
0.716736,-0.0736882,-0.140054,35,2
9.4973,-0.9781,0.835301,22,10
6.21513,-0.641175,-0.989605,6,3
9.3516,-0.966393,1.15435,60,11
7.27816,-0.753408,-0.898421,60,4
7.92904,-0.822184,-0.69742,13,5
20.4472,-2.12384,3.99592,7,13
8.55204,-0.889802,-0.450613,83,6
25.6119,-2.66933,5.94501,7,14
8.58817,-0.895076,-0.150719,90,7
27.5338,-2.87449,7.41775,19,15
9.23901,-0.977581,0.162168,22,8
0.509664,-0.0540176,-0.118324,16,1
9.77756,-1.03802,0.5153,36,9
0.708666,-0.0753592,-0.138527,48,2
10.2863,-1.09566,0.905025,26,10
6.21494,-0.661991,-0.989917,11,3
9.36018,-0.998663,1.15581,26,11
7.32891,-0.783235,-0.905002,55,4
9.61258,-1.02898,1.53118,42,12
13.0203,-1.39606,2.54539,17,13
9.11302,-0.978727,-0.480339,39,6
14.9948,-1.61307,3.48179,33,14
8.73212,-0.940902,-0.153302,26,7
27.4468,-2.96229,7.39705,19,15
9.26536,-1.01309,0.162691,81,8
0.528844,-0.0579178,-0.122823,15,1
9.93469,-1.08978,0.523778,48,9
0.704509,-0.0772807,-0.137764,36,2
10.9877,-1.20723,0.96708,25,10
9.46122,-1.04286,1.16873,30,11
7.42479,-0.819705,-0.917189,28,4
10.3668,-1.14634,1.65195,13,12
8.3015,-0.917961,-0.730714,16,5
13.0251,-1.44258,2.5473,21,13
9.12542,-1.01229,-0.481177,100,6
14.9426,-1.66024,3.47099,11,14
8.60755,-0.957886,-0.151173,100,7
27.6935,-3.08675,7.46641,20,15
9.13459,-1.03107,0.160457,36,8
0.509275,-0.0575744,-0.118324,16,1
9.85938,-1.11636,0.52001,30,9
0.69253,-0.0784141,-0.135474,37,2
9.85495,-1.1176,0.867723,22,10
6.4084,-0.727879,-1.02152,27,3
9.82635,-1.11783,1.21431,77,11
7.35088,-0.837527,-0.908414,56,4
7.40547,-0.845056,-0.652099,11,5
9.45123,-1.08184,-0.498552,59,6
27.7127,-3.17707,6.4399,9,14
8.88824,-1.02054,-0.156164,22,7
29.1815,-3.35577,7.87069,11,15
8.98395,-1.04584,0.157874,81,8
0.551654,-0.0643165,-0.128222,14,1
9.95461,-1.16235,0.525244,37,9
0.700052,-0.0817418,-0.137001,37,2
8.93475,-1.04485,0.787016,9,10
6.45683,-0.756219,-1.02965,37,3
9.42807,-1.10588,1.16556,26,11
7.25328,-0.852064,-0.896715,61,4
20.4102,-2.40487,3.99478,22,13
9.51285,-1.12255,-0.502007,24,6
28.0189,-3.31129,6.51368,9,14
8.93427,-1.05744,-0.157037,100,7
27.5293,-3.26318,7.42811,9,15
9.2602,-1.11077,0.162796,61,8
0.528208,-0.0634526,-0.122823,15,1
9.47855,-1.14032,0.500332,65,9
0.691951,-0.0833677,-0.135474,25,2
8.98229,-1.0838,0.791548,50,10
6.40107,-0.773481,-1.0212,46,3
9.90502,-1.19689,1.22503,23,11
7.26603,-0.879286,-0.898665,61,4
9.51883,-1.15359,1.51867,68,12
8.33279,-1.01133,-0.734374,13,5
14.6207,-1.77707,2.8629,19,13
7.87301,-0.958316,-0.415652,39,6
26.9465,-3.28474,6.26714,8,14
8.91464,-1.08668,-0.156758,26,7
19.7457,-2.41047,5.33012,16,15
9.29973,-1.1501,0.163564,86,8
0.527972,-0.0653882,-0.122823,15,1
9.23051,-1.14481,0.487457,38,9
0.711139,-0.088199,-0.139291,24,2
9.57161,-1.18881,0.843842,20,10
6.18662,-0.769488,-0.987414,66,3
9.74101,-1.21331,1.20529,35,11
7.23912,-0.902963,-0.89574,55,4
10.4907,-1.3104,1.67447,40,12
7.90925,-0.990757,-0.417746,29,6
27.4975,-3.44937,6.39806,35,14
9.00385,-1.13107,-0.158398,100,7
29.2131,-3.67494,7.88932,11,15
9.25598,-1.17751,0.162866,27,8
0.527741,-0.0672307,-0.122823,15,1
9.25222,-1.18031,0.488818,48,9
0.699127,-0.0893122,-0.137001,37,2
9.0079,-1.15234,0.794512,11,10
6.20531,-0.794918,-0.990856,50,3
9.82729,-1.2589,1.2165,30,11
7.2497,-0.929995,-0.897446,22,4
9.65336,-1.24005,1.54151,74,12
7.361,-0.946884,-0.64931,30,5
7.87981,-1.01642,-0.416385,36,6
14.7077,-1.89976,3.42375,45,14
9.06728,-1.1712,-0.159585,100,7
13.7887,-1.78349,3.72544,9,15
9.30117,-1.21792,0.163738,28,8
0.504305,-0.0661243,-0.117424,16,1
9.58051,-1.2579,0.506403,46,9
0.679345,-0.0891963,-0.133185,26,2
9.21914,-1.21209,0.813512,84,10
6.39834,-0.842358,-1.02214,52,3
9.69075,-1.27753,1.20017,63,11
6.54957,-0.864593,-0.811162,31,4
9.80738,-1.29639,1.56685,70,12
7.50957,-0.993987,-0.662732,48,5
13.0965,-1.73349,2.56791,41,13
7.91978,-1.04969,-0.418688,45,6
15.126,-2.00749,3.52273,24,14
9.70716,-1.29004,-0.170929,96,7
28.9773,-3.85611,7.8329,22,15
9.36028,-1.25891,0.164855,30,8
0.56201,-0.0756871,-0.130922,14,1
9.20791,-1.24168,0.486934,28,9
0.684851,-0.0924737,-0.13433,25,2
9.19884,-1.24373,0.812117,65,10
6.34823,-0.859443,-1.01463,50,3
9.59377,-1.29883,1.18871,71,11
6.55438,-0.888516,-0.812137,47,4
9.28016,-1.25967,1.48331,49,12
7.49223,-1.01832,-0.661512,10,5
13.1834,-1.79419,2.58623,38,13
7.99701,-1.08977,-0.422979,47,6
15.2247,-2.07741,3.54748,24,14
9.46484,-1.29147,-0.16674,94,7
27.6966,-3.78411,7.49022,20,15
9.30037,-1.28392,0.163878,56,8
0.503831,-0.0696434,-0.117424,16,1
9.45477,-1.30859,0.500227,8,9
0.694264,-0.09609,-0.136238,37,2
9.08612,-1.25919,0.80253,43,10
6.33752,-0.879404,-1.01338,50,3
9.60688,-1.33477,1.19091,60,11
6.55124,-0.91139,-0.812137,32,4
9.35592,-1.30323,1.49614,49,12
13.2377,-1.8463,2.59806,23,13
8.57293,-1.19722,-0.453648,21,6
15.2776,-2.13625,3.56142,24,14
9.20283,-1.28846,-0.162203,100,7
13.8282,-1.93851,3.74149,14,15
9.34929,-1.32394,0.164821,52,8
0.526738,-0.0746845,-0.122823,15,1
11.0618,-1.57038,0.585535,4,9
0.697794,-0.0991866,-0.137001,24,2
9.39113,-1.33656,0.829897,38,10
9.59233,-1.3669,1.18969,16,11
7.22797,-1.03127,-0.896471,56,4
9.28678,-1.32667,1.48581,28,12
7.51847,-1.07539,-0.664475,17,5
13.3377,-1.91012,2.61904,26,13
10.1145,-1.45032,-0.535502,17,6
14.7739,-2.12106,3.4458,20,14
12.8879,-1.85028,-0.227265,100,7
0.573543,-0.083262,-0.155291,12,0
9.31667,-1.35417,0.164332,68,8
0.526461,-0.0766146,-0.122823,15,1
13.0267,-1.89575,0.689893,10,9
0.685787,-0.0999233,-0.134711,25,2
9.55399,-1.39378,0.844713,80,10
6.33107,-0.924731,-1.01338,57,3
9.56565,-1.39889,1.18701,22,11
7.23986,-1.06005,-0.898421,40,4
9.39546,-1.37567,1.50396,52,12
7.40033,-1.08487,-0.654365,33,5
13.1911,-1.93614,2.59157,31,13
7.98714,-1.17374,-0.423084,3,6
15.0171,-2.20949,3.50429,24,14
11.5538,-1.69994,-0.203844,9,7
13.843,-2.03922,3.74925,9,15
9.35762,-1.39183,0.165135,53,8
0.526204,-0.07836,-0.122823,15,1
0.677667,-0.101157,-0.133185,39,2
9.54513,-1.42653,0.844365,62,10
6.22051,-0.929662,-0.996175,8,3
9.89275,-1.48025,1.2282,28,11
7.22845,-1.08288,-0.897446,33,4
14.3916,-2.15855,2.30491,25,12
7.57186,-1.13703,-0.669879,50,5
13.2739,-1.99328,2.60912,31,13
14.9172,-2.24536,3.48269,42,14
11.5162,-1.73549,-0.203286,57,7
13.8396,-2.08811,3.75029,16,15
9.41794,-1.43442,0.166287,91,8
0.549045,-0.0837214,-0.128222,14,1
13.7318,-2.09636,0.727993,14,9
0.683151,-0.104293,-0.13433,25,2
9.48717,-1.45005,0.839658,12,10
9.37343,-1.43601,1.16434,21,11
7.27564,-1.11593,-0.903783,38,4
9.48911,-1.45712,1.52054,36,12
7.6092,-1.16981,-0.67354,58,5
13.8995,-2.13685,2.73353,24,13
8.59486,-1.32288,-0.455742,36,6
14.7725,-2.27634,3.45075,42,14
13.3125,-2.05374,-0.235119,100,7
13.8113,-2.13316,3.74459,21,15
9.53933,-1.487,0.16852,47,8
0.525644,-0.0820316,-0.122823,15,1
9.35945,-1.4623,0.496459,17,9
0.690522,-0.108009,-0.135856,25,2
9.1885,-1.43888,0.813686,30,10
6.63719,-1.04054,-1.06407,43,3
15.1341,-2.37264,1.88093,8,11
9.48006,-1.48962,1.51992,10,12
7.74678,-1.21865,-0.68609,27,5
14.0157,-2.20733,2.75795,21,13
8.57417,-1.35188,-0.454904,94,6
14.7178,-2.32318,3.43995,24,14
13.2065,-2.08461,-0.233374,100,7
19.8774,-3.14116,5.39224,16,15
0.572325,-0.0912618,-0.155291,12,0
8.50895,-1.35834,0.150405,77,8
0.525339,-0.0839577,-0.122823,15,1
0.701773,-0.11228,-0.138146,24,2
15.7326,-2.51995,1.39397,15,10
6.70373,-1.07496,-1.07533,25,3
10.4193,-1.67264,1.29571,45,11
14.6077,-2.35024,2.34339,27,12
6.61533,-1.06434,-0.58621,5,5
13.3877,-2.15634,2.63584,30,13
11.3043,-1.82279,-0.600084,33,6
14.3172,-2.31118,3.34817,33,14
13.0566,-2.11003,-0.23086,100,7
14.7968,-2.39391,4.01635,13,15
8.49429,-1.38643,0.15023,27,8
0.509657,-0.0832769,-0.119224,16,1
9.28568,-1.51892,0.493109,66,9
0.687814,-0.112511,-0.135474,25,2
9.92145,-1.6247,0.879576,8,10
6.6629,-1.09229,-1.06939,22,3
14.2646,-2.34103,1.77491,31,11
7.31624,-1.20201,-0.910364,35,4
9.53738,-1.56864,1.53087,42,12
6.59388,-1.08452,-0.584641,6,5
13.444,-2.21358,2.64843,5,13
8.46008,-1.39449,-0.449357,87,6
14.3321,-2.36495,3.35357,24,14
11.2222,-1.8538,-0.198539,93,7
14.7522,-2.43956,4.00652,14,15
8.59394,-1.43351,0.15208,51,8
0.540118,-0.0901909,-0.126422,15,1
9.26653,-1.54902,0.492377,102,9
0.673862,-0.112645,-0.132803,26,2
10.9749,-1.83657,0.97353,23,10
6.80711,-1.14034,-1.09316,57,3
7.45121,-1.24958,0.92767,4,11
7.12993,-1.19698,-0.887696,40,4
14.5325,-2.44234,2.334,14,12
8.03398,-1.35163,-0.71276,20,5
14.0557,-2.36473,2.77055,10,13
9.49113,-1.59849,-0.504414,56,6
14.047,-2.36831,3.28878,47,14
12.8522,-2.16918,-0.22751,74,7
14.6445,-2.47431,3.9796,21,15
0.524432,-0.0894543,-0.122823,15,1
9.71782,-1.65935,0.516661,60,9
0.683121,-0.116768,-0.134711,25,2
10.9622,-1.87577,0.973007,21,10
6.98396,-1.1963,-1.12226,45,3
7.48202,-1.28161,0.932057,58,11
7.48571,-1.28359,-0.932544,37,4
14.5434,-2.49639,2.33713,12,12
8.16841,-1.40653,-0.434388,21,6
