x, y, z, intensity, ring
-6.61843,10.7623,2.00111,35,12
-7.02724,11.4316,-1.17399,27,5
-5.90084,9.60294,2.19087,19,13
-6.97665,11.3581,-0.69858,68,6
-7.58642,12.3508,3.34637,40,14
-5.87617,9.57027,-0.196025,31,7
-6.40581,10.437,3.28131,52,15
-0.302558,0.494311,-0.155291,12,0
-7.14064,11.6707,0.238819,42,8
-0.319264,0.522013,-0.141269,13,1
-6.18297,10.1134,0.621228,68,9
-6.60406,10.8022,-2.46105,10,2
-5.73705,9.38774,0.962548,25,10
-6.75226,11.0533,-2.05148,52,3
-5.61346,9.19271,1.32253,46,11
-7.19633,11.7895,-1.69593,66,4
-7.66013,12.5542,2.32931,45,12
-6.9541,11.4016,-1.16841,27,5
-6.96079,11.417,-0.700778,55,6
-7.76637,12.7484,-0.260564,100,7
-6.45575,10.6012,3.32582,41,15
-0.300744,0.495416,-0.155291,12,0
-7.12787,11.7417,0.239761,6,8
-0.315418,0.519792,-0.140369,13,1
-7.23421,11.9263,0.731029,36,9
-5.8295,9.61429,-2.18553,2,2
-5.74185,9.47345,0.969172,42,10
-6.87548,11.3483,-2.10154,49,3
-5.58648,9.22074,1.32374,50,11
-7.00397,11.5649,-1.6601,70,4
-5.45875,9.01701,1.66947,30,12
-6.94108,11.4701,-1.17294,32,5
-5.89259,9.74133,2.213,42,13
-6.91579,11.4373,-0.700464,35,6
-6.34262,10.4936,2.83078,63,14
-7.72182,12.7754,-0.260564,46,7
-6.13299,10.1507,3.17778,25,15
-6.26688,10.4092,0.212082,13,8
-0.305472,0.507587,-0.13677,13,1
-6.14236,10.2105,0.624473,22,9
-6.24828,10.3866,-2.35611,12,2
-5.72004,9.51222,0.971089,63,10
-6.07052,10.099,-1.86626,26,3
-5.569,9.26838,1.32764,50,11
-6.92474,11.5293,-1.65133,49,4
-6.89899,11.4955,-1.17294,42,5
-5.86663,9.77531,2.21606,84,13
-6.94569,11.5779,-0.707582,52,6
-10.4772,17.4715,4.70328,31,14
-7.67391,12.8019,-0.26053,35,7
-6.06695,10.1251,3.16277,54,15
-0.305696,0.511997,-0.13767,13,1
-7.35852,12.3293,0.752486,17,9
-6.24638,10.4701,-2.36985,20,2
-5.79637,9.71964,0.990089,42,10
-6.09011,10.2162,-1.88378,7,3
-5.56203,9.33039,1.33374,37,11
-6.90884,11.5943,-1.65718,43,4
-6.86392,11.528,-1.17381,30,5
-5.79261,9.73264,2.20155,44,13
-7.00124,11.768,-0.717631,74,6
-6.05022,10.1735,2.73271,10,14
-7.59545,12.7719,-0.259378,92,7
-6.52416,10.9748,3.42107,28,15
-5.95086,10.0343,0.203635,25,8
-0.302099,0.509602,-0.13677,13,1
-6.06306,10.2276,0.623112,69,9
-6.23531,10.5224,-2.37748,22,2
-5.66698,9.56709,0.972832,25,10
-5.55696,9.38881,1.33959,46,11
-5.72527,9.67705,1.78085,26,12
-5.73574,9.70246,2.19087,47,13
-6.96833,11.7922,-0.71784,81,6
-6.02893,10.2066,2.73675,70,14
-6.94019,11.7493,-0.23819,30,7
-6.25289,10.5899,3.29528,27,15
-6.01391,10.2177,0.206951,88,8
-0.296454,0.503883,-0.134971,14,1
-7.25141,12.3301,0.74966,46,9
-6.24332,10.6202,-2.39465,28,2
-6.04281,10.2833,-1.8891,18,3
-5.59215,9.52016,1.35567,65,11
-6.82678,11.6267,-1.65547,56,4
-5.69046,9.69527,1.78054,35,12
-11.4312,19.4839,-1.97634,5,5
-5.65783,9.64354,2.17331,36,13
-6.92817,11.8135,-0.717735,61,6
-6.73636,11.4956,-0.232571,100,7
-5.70228,9.73487,3.02301,48,15
-6.90181,11.8205,0.238923,20,8
-0.300588,0.515013,-0.13767,13,1
-5.80934,9.95744,0.604166,60,9
-6.04878,10.3679,-2.33321,27,2
-5.89148,10.1063,-1.85281,6,3
-5.64284,9.68369,1.37615,13,11
-6.70923,11.5183,-1.63671,78,4
-5.65459,9.71166,1.77991,60,12
-10.8419,18.6283,-1.8857,18,5
-5.60241,9.6259,2.16492,79,13
-6.88991,11.8428,-0.718049,78,6
-6.46776,11.1217,2.97025,10,14
-6.68816,11.5052,-0.232292,100,7
-5.67507,9.76641,3.02663,48,15
-6.87754,11.8739,0.239517,8,8
-0.314411,0.543042,-0.144868,12,1
-5.79555,10.014,0.606364,60,9
-6.00779,10.3849,-2.33207,17,2
-5.7909,10.014,1.01205,48,10
-5.43514,9.40257,1.33349,90,11
-6.51206,11.2701,-1.59819,29,4
-5.63449,9.75529,1.78429,71,12
-10.8386,18.773,-1.89651,9,5
-5.71919,9.90993,2.22407,49,13
-6.83948,11.8559,-0.717317,97,6
-6.606,11.4558,-0.230826,40,7
-5.90914,10.2515,3.17053,20,15
-8.2173,14.3077,0.288,8,8
-0.296895,0.517151,-0.13767,13,1
-5.74167,10.0012,0.604376,106,9
-5.79561,10.0993,-2.26338,26,2
-5.88776,10.264,1.03524,51,10
-5.52206,9.63427,1.36347,39,11
-6.48848,11.3203,-1.60209,50,4
-5.5788,9.73719,1.77741,49,12
-8.55701,14.9414,-1.5064,15,5
-5.69822,9.95368,2.22941,50,13
-6.79507,11.8745,-0.717003,81,6
-5.59243,9.77284,2.59953,56,14
-6.4925,11.3503,-0.228243,49,7
-5.95962,10.423,3.21712,13,15
-6.03899,10.5961,0.212884,1,8
-0.302895,0.531678,-0.141269,13,1
-6.60122,11.5873,0.698894,20,9
-5.81747,10.2157,-2.28513,25,2
-5.91185,10.3856,1.04552,100,10
-5.7228,10.0576,-1.83279,47,3
-5.52346,9.71119,1.37176,84,11
-5.54648,9.75564,1.77741,52,12
-9.60997,16.9097,-1.70163,18,5
-5.70301,10.0391,2.2443,29,13
-6.74579,11.8796,-0.715956,81,6
-5.5648,9.7998,2.60178,96,14
-7.21688,12.7143,-0.255189,93,7
-6.03276,10.6325,3.27561,6,15
-6.14065,10.858,0.217736,25,8
-0.331819,0.586966,-0.155666,11,1
-5.74813,10.1722,0.612331,6,9
-5.76231,10.1973,-2.27673,26,2
-5.66866,10.0357,1.00839,89,10
-5.46097,9.67586,1.36421,35,11
-6.38688,11.321,-1.596,37,4
-6.15862,10.9209,1.98578,22,12
-9.53232,16.9033,-1.69779,18,5
-5.57135,9.88351,2.20537,47,13
-6.70342,11.8967,-0.715642,91,6
-5.521,9.80219,2.59728,84,14
-7.1911,12.7726,-0.255852,42,7
-5.88748,10.4957,0.210057,56,8
-0.291644,0.520129,-0.13767,13,1
-10.2241,18.2415,1.09591,16,9
-5.68828,10.1488,-2.26147,11,2
-5.71709,10.2128,1.43708,64,11
-6.35702,11.3606,-1.59844,14,4
-8.42673,15.0655,-1.51023,9,5
-5.5052,9.84635,2.19278,48,13
-6.66283,11.9217,-0.715747,81,6
-5.48104,9.81119,2.59459,92,14
-6.29825,11.2786,-0.225485,27,7
-5.86328,10.504,3.22333,13,15
-5.90137,10.607,0.211872,27,8
-0.318241,0.572237,-0.151167,11,1
-6.11069,10.9923,-2.44464,34,2
-5.66911,10.2021,1.02112,8,10
-6.5503,11.7928,-2.13658,34,3
-5.15913,9.29202,1.30498,15,11
-6.4493,11.6205,-1.63183,54,4
-7.05379,12.7149,-1.27213,22,5
-5.67359,10.2312,2.27406,36,13
-6.77416,12.2209,-0.732285,39,6
-5.63377,10.1678,2.68367,96,14
-6.21912,11.2288,-0.224054,45,7
-5.83687,10.543,3.22903,23,15
-5.82469,10.5558,0.210441,60,8
-0.274829,0.498263,-0.131371,14,1
-5.64709,10.2423,0.612959,102,9
-6.04006,10.9551,-2.43167,21,2
-6.50243,11.8035,-2.13439,60,3
-5.12092,9.29954,1.30351,3,11
-6.60397,11.9977,-1.68155,19,4
-5.04311,9.16581,1.65695,79,12
-10.515,19.1109,-1.90836,19,5
-5.60662,10.1942,2.26147,49,13
-6.81421,12.395,-0.741287,39,6
-5.6142,10.2164,2.69131,52,14
-5.84745,10.6497,3.25543,48,15
-5.82045,10.6357,0.211628,31,8
-0.286182,0.523155,-0.13767,13,1
-5.62843,10.2891,0.614634,43,9
-5.53083,10.1148,-2.24086,19,2
-5.71623,10.4582,1.04273,42,10
-6.51517,11.9249,-2.15223,67,3
-5.67643,10.394,1.45415,64,11
-6.45663,11.8227,-1.65401,56,4
-5.0496,9.2501,1.66916,50,12
-6.87324,12.5959,-1.25539,12,5
-5.5804,10.2309,2.26528,19,13
-5.5467,10.1734,2.67512,42,14
-8.00187,14.6825,-0.291874,85,7
-5.46184,10.0261,3.05924,15,15
-5.72503,10.5442,0.209429,67,8
-0.284445,0.524101,-0.13767,13,1
-6.83946,12.602,0.75144,18,9
-5.4879,10.1159,-2.23704,11,2
-5.5761,10.2827,1.02338,65,10
-6.50195,11.9951,-2.16099,28,3
-5.45658,10.0707,1.40637,42,11
-6.46752,11.9365,-1.66693,47,4
-5.28702,9.76183,1.75832,67,12
-6.79064,12.5433,-1.2479,32,5
-6.76959,12.5149,-0.745683,55,6
-5.5732,10.3031,2.70436,68,14
-6.87268,12.7107,-0.252222,22,7
-5.70332,10.5878,0.209918,73,8
-0.310422,0.576516,-0.151167,11,1
-5.33866,9.9191,0.59035,4,9
-4.9007,9.1054,-2.00998,9,2
-5.5363,10.2906,1.02234,29,10
-6.46869,12.0287,-2.16318,63,3
-5.97675,11.1186,1.54993,29,11
-6.44178,11.9887,-1.67107,40,4
-5.38283,10.0221,1.80181,30,12
-6.82915,12.715,-1.26271,20,5
-5.36942,10.0013,2.20652,49,13
-6.83194,12.7308,-0.757197,74,6
-5.40548,10.0769,2.64003,34,14
-6.80275,12.6871,-0.25128,100,7
-5.40351,10.0817,3.06494,30,15
-5.65972,10.5953,0.209673,43,8
-0.304736,0.57072,-0.149367,12,1
-6.35442,11.9058,-2.62324,31,2
-6.50845,12.2046,-2.19071,58,3
-5.10497,9.57685,1.33252,34,11
-6.39149,11.9954,-1.66888,50,4
-6.75006,12.6737,-1.25626,5,5
-5.25605,9.87272,2.17408,42,13
-6.8081,12.7934,-0.759499,100,6
-5.4087,10.168,2.65892,44,14
-6.17073,11.6055,-0.229429,21,7
-5.24135,9.8617,2.99247,72,15
-5.60773,10.5867,0.209115,65,8
-0.286328,0.54078,-0.141269,13,1
-5.30852,10.0303,0.594746,57,9
-6.38629,12.0667,-2.65377,23,2
-6.22644,11.7696,1.16492,45,10
-6.48705,12.2674,-2.1979,46,3
-5.07151,9.59461,1.33252,12,11
-6.32547,11.972,-1.66254,54,4
-5.17897,9.80618,1.75645,40,12
-6.70113,12.6883,-1.25539,12,5
-5.30313,10.0455,2.20804,14,13
-5.12861,9.72316,2.5379,99,14
-6.14138,11.6482,-0.229848,33,7
-5.08981,9.65776,2.92517,29,15
-0.269945,0.51417,-0.134071,14,1
-5.24284,9.99038,0.591292,72,9
-6.30399,12.0124,-2.63698,31,2
-6.17792,11.7772,1.16353,70,10
-6.50381,12.4037,-2.21824,19,3
-4.98178,9.505,1.31765,75,11
-6.27351,11.9747,-1.65986,70,4
-5.07781,9.69646,1.73361,128,12
-6.63739,12.6746,-1.25173,50,5
-5.38275,10.2831,2.25613,35,13
-6.66399,12.7362,-0.753324,78,6
-5.23282,10.0052,2.60673,42,14
-5.1178,9.79361,2.96089,19,15
-0.267788,0.513979,-0.155291,12,0
-6.34005,12.1739,0.239587,17,8
-0.282546,0.542766,-0.141269,13,1
-5.21061,10.0095,0.591396,27,9
-6.24118,11.9943,-2.6282,37,2
-5.65318,10.8689,1.07184,18,10
-6.50969,12.521,-2.23514,28,3
-4.94674,9.51881,1.31716,28,11
-6.20605,11.9472,-1.65304,45,4
-4.99281,9.61157,1.71546,30,12
-6.65646,12.8197,-1.26376,20,5
-6.60477,12.731,-0.751649,68,6
-6.45043,12.4388,-0.244578,42,7
-5.11641,9.87056,2.97901,26,15
-0.265993,0.51491,-0.155291,12,0
-5.27632,10.2139,0.200668,13,8
-0.287898,0.557552,-0.144868,12,1
-5.30846,10.285,0.606574,58,9
-6.09936,11.8223,-2.58584,54,2
-4.94698,9.59692,1.32569,40,11
-6.23823,12.1071,-1.67229,26,4
-4.99088,9.6904,1.72641,66,12
-6.55604,12.7348,-1.25313,27,5
-6.54242,12.7138,-0.749346,26,6
-5.22432,10.1567,2.63688,48,14
-8.92605,17.3608,-0.340741,65,7
-5.41484,10.5361,3.17416,17,15
-9.62621,18.7951,0.368595,26,8
-0.285949,0.558554,-0.144868,12,1
-5.04689,9.86249,0.580615,56,9
-5.78198,11.299,-2.46716,28,2
-5.33228,10.4247,1.02443,100,10
-6.42161,12.5597,-2.2342,31,3
-5.77256,11.2951,1.55749,39,11
-6.32055,12.3727,-1.70593,41,4
-4.69831,9.20109,1.6363,90,12
-6.4277,12.5879,-1.23657,27,5
-6.44263,12.628,-0.742961,61,6
-5.22248,10.2408,2.65397,96,14
-5.39953,10.6339,0.208172,13,8
-0.264594,0.521318,-0.134971,14,1
-5.0296,9.91388,0.582604,26,9
-5.44761,10.7378,-2.34046,32,2
-5.36614,10.5818,1.03802,38,10
-6.43132,12.6878,-2.25297,21,3
-5.71515,11.2798,1.55262,18,11
-6.30243,12.4443,-1.71275,61,4
-4.65724,9.19981,1.63318,84,12
-6.29643,12.4378,-1.21966,20,5
-6.36966,12.5934,-0.739612,58,6
-5.19963,10.289,-0.201226,26,7
-5.74705,11.3772,3.41538,12,15
-9.50465,18.8815,0.368979,26,8
-0.275036,0.54661,-0.141269,13,1
-4.95899,9.85558,0.578208,65,9
-4.55972,9.06599,-1.97258,26,2
-5.25579,10.4545,1.02373,65,10
-6.37457,12.6854,-2.24859,18,3
-5.71316,11.3742,1.56285,14,11
-6.24738,12.4432,-1.70958,56,4
-6.16986,12.2941,-1.20345,35,5
-5.10365,10.1829,-0.198818,26,7
-5.01185,10.0041,2.99816,41,15
-8.55415,17.1345,0.334283,32,8
-0.288884,0.578905,-0.149367,12,1
-4.94952,9.92287,0.581138,114,9
-4.52016,9.06604,-1.96915,42,2
-5.28859,10.6119,1.03733,89,10
-6.31309,12.6676,-2.24171,18,3
-4.80268,9.64111,1.32253,9,11
-6.19812,12.4478,-1.70739,35,4
-6.17306,12.4083,-1.21251,30,5
-5.36569,10.7949,2.78309,23,14
-5.06273,10.1899,-0.198608,100,7
-4.92019,9.90731,2.964,61,15
-0.257147,0.519384,-0.155291,12,0
-9.43799,19.0712,0.371422,33,8
-0.271309,0.548469,-0.141269,13,1
-4.94404,9.99472,0.584383,135,9
-4.49181,9.08449,-1.96991,19,2
-5.24277,10.6079,1.03524,55,10
-6.14284,12.4346,-2.19665,52,3
-5.71823,11.5801,1.58576,39,11
-6.1722,12.505,-1.71226,15,4
-4.63294,9.38642,1.65789,124,12
-6.13716,12.4395,-1.21356,22,5
-4.70024,9.53115,2.0657,73,13
-6.04449,12.2624,-0.716479,71,6
-5.01036,10.1689,-0.197875,100,7
-4.98205,10.1159,3.02145,15,15
-8.83377,18.0001,0.349991,24,8
-0.264339,0.538869,-0.13857,13,1
-4.89506,9.98323,0.582709,73,9
-5.48221,11.1856,-2.42137,28,2
-5.21974,10.6548,1.03802,63,10
-6.09462,12.4407,-2.19415,64,3
-5.6571,11.5527,1.57943,21,11
-6.87773,14.0516,-1.9209,44,4
-4.67481,9.55513,1.6848,31,12
-6.03331,12.3373,-1.20153,15,5
-4.66861,9.54669,2.0657,41,13
-5.95293,12.1783,-0.710408,100,6
-4.97132,10.1792,-0.197736,100,7
-4.91112,10.0604,2.99971,61,15
-9.23623,18.9875,0.36856,26,8
-0.267569,0.550303,-0.141269,13,1
-4.93264,10.1494,0.591396,106,9
-4.4436,9.14311,-1.97602,35,2
-5.19308,10.69,1.03977,19,10
-5.92173,12.1953,-2.14722,82,3
-4.70835,9.70077,1.32399,34,11
-6.79658,14.0094,-1.91189,14,4
-4.51559,9.31189,1.63912,79,12
-5.94108,12.2515,-1.19124,42,5
-4.72603,9.75019,2.10615,104,13
-5.89209,12.1613,-0.70821,81,6
-5.19564,10.7286,2.75205,12,14
-4.93924,10.2037,-0.197875,100,7
-4.86587,10.0566,2.9935,9,15
-9.42262,19.5438,0.378717,35,8
-0.267339,0.554745,-0.142169,13,1
-4.82697,10.0208,0.582918,73,9
-4.45,9.23816,-1.99319,14,2
-5.07795,10.5465,1.02408,23,10
-5.77033,11.9899,-2.10749,44,3
-4.73384,9.84058,1.34081,34,11
-6.4586,13.432,-1.82999,22,4
-4.47963,9.32047,1.63787,109,12
-5.90432,12.2847,-1.19246,40,5
-4.64606,9.67107,2.08554,29,13
-5.84874,12.18,-0.708106,71,6
-4.7281,9.85065,2.5226,18,14
-6.63876,13.8375,-0.267894,49,7
-4.60475,9.63673,0.186427,28,8
-0.262041,0.548641,-0.140369,13,1
-4.78164,10.0159,0.581662,65,9
-4.39997,9.21643,-1.98518,19,2
-5.02995,10.5408,1.02181,25,10
-5.7463,12.0474,-2.11406,53,3
-4.69775,9.85346,1.34032,9,11
-6.41936,13.4706,-1.83218,22,4
-4.82764,10.135,1.77803,32,12
-6.30522,13.237,-1.28276,13,5
-4.59961,9.66064,2.07982,72,13
-5.79589,12.1787,-0.70685,55,6
-6.57409,13.8263,-0.267231,26,7
-4.71179,9.91407,2.94122,42,15
-4.58306,9.67805,0.186915,13,8
-0.273464,0.577735,-0.147568,12,1
-4.7065,9.94769,0.576742,47,9
-4.41898,9.33999,-2.00846,38,2
-7.52035,15.9022,1.539,39,10
-5.70252,12.0638,-2.11343,45,3
-5.24847,11.1082,1.5085,38,11
-6.39095,13.5324,-1.83755,30,4
-4.73321,10.0268,1.75613,25,12
-6.49287,13.7544,-1.33069,28,5
-5.73375,12.1573,-0.704442,87,6
-4.6426,9.84817,2.5136,88,14
-6.54966,13.8998,-0.268209,74,7
-4.44585,9.43935,2.79576,48,15
-6.54141,13.9391,0.268767,25,8
-0.26648,0.5681,-0.144868,12,1
-4.66501,9.94516,0.575696,43,9
-4.48803,9.57222,-2.05501,30,2
-5.01034,10.6911,1.03297,100,10
-5.86903,12.529,-2.19133,28,3
-5.26269,11.2397,1.52385,21,11
-5.57667,11.9103,-1.61477,34,4
-4.71249,10.0692,1.76083,28,12
-6.07505,12.9865,-1.25435,12,5
-5.65998,12.1103,-0.700569,74,6
-4.54225,9.71874,2.47671,99,14
-6.4062,13.7131,-0.264195,100,7
-4.56573,9.77787,2.89153,45,15
-4.45635,9.57848,0.184402,7,8
-0.24816,0.53364,-0.13587,13,1
-4.63705,9.97145,0.576324,78,9
-4.39006,9.44462,-2.02448,28,2
-5.45803,11.753,-2.05242,71,3
-5.23626,11.2805,1.52702,63,11
-5.53798,11.9306,-1.61501,45,4
-5.9146,12.7536,-1.22994,27,5
-4.74759,10.2418,2.1943,18,13
-5.69788,12.2975,-0.710304,35,6
-4.43135,9.56401,2.43352,66,14
-6.35817,13.7289,-0.26409,30,7
-4.38802,9.47915,2.79887,39,15
-0.24282,0.526235,-0.155291,12,0
-4.42875,9.60229,0.184577,57,8
-0.249653,0.541539,-0.13767,13,1
-4.57129,9.92045,0.572451,112,9
-4.42609,9.60534,-2.05578,30,2
-4.87682,10.5884,1.0199,10,10
-5.45207,11.8428,-2.06494,48,3
-5.90915,12.8415,1.73566,31,11
-5.82561,12.6658,-1.71178,41,4
-4.66942,10.1567,1.77053,67,12
-5.89225,12.8166,-1.23413,22,5
-4.16683,9.06766,1.93976,9,13
-5.88549,12.8136,-0.738984,39,6
-4.39388,9.57056,2.43127,43,14
-6.261,13.6437,-0.26203,31,7
-4.46443,9.73322,2.86927,30,15
-0.240982,0.527079,-0.155291,12,0
-4.4085,9.64679,0.185135,67,8
-0.255858,0.560133,-0.142169,13,1
-4.3428,9.51179,-2.0325,52,2
-4.79102,10.4984,1.00961,48,10
-5.35413,11.7377,-2.04335,63,3
-4.30783,9.4483,1.275,69,11
-4.62084,10.1442,1.76552,79,12
-6.10516,13.4027,-1.28851,28,5
-5.60577,12.3178,-0.709257,35,6
-4.36367,9.59294,2.43307,96,14
-6.17361,13.5781,-0.260355,26,7
-4.39447,9.6696,2.84597,30,15
-7.83241,17.2985,0.331456,30,8
-0.250687,0.553921,-0.140369,13,1
-5.38601,11.9065,0.684868,28,9
-4.33303,9.57877,-2.04356,52,2
-4.77733,10.5659,1.01449,51,10
-4.26911,9.45062,1.27329,100,11
-5.77953,12.8002,-1.72445,28,4
-4.61303,10.2215,1.77616,29,12
-6.06664,13.4486,-1.29078,28,5
-5.83037,12.9309,-0.74338,35,6
-4.51191,10.0114,2.5352,100,14
-6.16395,13.6835,-0.261961,100,7
-4.39321,9.7571,2.8672,65,15
-5.72913,12.7717,0.244334,28,8
-0.256725,0.572574,-0.144868,12,1
-4.73425,10.5638,0.606678,5,9
-4.36451,9.7433,-2.07524,35,2
-4.65553,10.3978,0.996713,23,10
-4.83588,10.8057,-1.87502,37,3
-5.75102,12.8566,-1.72933,20,4
-4.60151,10.2916,1.78554,27,12
-6.03592,13.5061,-1.29426,28,5
-4.43358,9.92532,2.11302,37,13
-7.38217,16.534,-0.948956,35,6
-4.8016,10.7593,2.72011,34,14
-6.17482,13.8364,-0.264474,44,7
-4.30954,9.66123,2.83459,46,15
-5.55565,12.5076,0.238889,11,8
-0.245135,0.552138,-0.13947,13,1
-4.31773,9.72976,-2.06913,38,2
-4.70968,10.618,1.01624,23,10
-4.76611,10.7503,-1.86251,46,3
-4.25767,9.60797,1.29035,33,11
-5.69261,12.8521,-1.72591,16,4
-4.53436,10.2372,1.77334,14,12
-5.69757,12.8694,-1.23134,12,5
-4.25273,9.6104,2.0428,104,13
-6.22081,14.0646,-0.805974,22,6
-4.44568,10.0559,2.53835,15,14
-6.17905,13.9767,-0.266743,23,7
-4.44757,10.065,2.94847,34,15
-0.233507,0.530433,-0.155291,12,0
-15.8568,36.0202,0.686962,6,8
-0.252721,0.574353,-0.144868,12,1
-4.68532,10.6532,0.609923,105,9
-4.29323,9.76634,-2.07371,71,2
-4.14915,9.44755,1.26695,100,11
-5.70741,13.0018,-1.74346,33,4
-4.4724,10.1932,1.76302,6,12
-5.62781,12.8327,-1.22593,20,5
-4.18299,9.53815,2.02448,28,13
-6.05867,13.8217,-0.790901,35,6
-4.96627,11.3403,-0.216096,36,7
-4.39769,10.0468,2.93863,40,15
-4.46407,10.2373,0.194943,40,8
-0.242929,0.557367,-0.140369,13,1
-4.66034,10.6925,0.611284,39,9
-4.25219,9.76072,-2.06951,28,2
-4.73116,10.8654,1.0368,55,10
-4.14307,9.52387,1.27524,96,11
-5.494,12.6293,-1.69106,54,4
-5.56934,12.8147,-1.22245,50,5
-3.98696,9.17814,1.94511,26,13
-6.20289,14.2861,-0.816232,71,6
-4.28264,9.86353,2.48256,56,14
-4.36589,10.0649,2.93967,37,15
-5.08292,11.7628,0.22367,18,8
-0.241079,0.55817,-0.140369,13,1
-4.6407,10.7446,0.613377,65,9
-4.36453,10.11,-2.1405,57,2
-4.85534,11.2523,1.07219,27,10
-4.98483,11.558,-1.9936,11,3
-4.13662,9.59589,1.28304,33,11
-5.45445,12.6529,-1.69179,52,4
-4.1147,9.54964,1.64694,20,12
-5.51972,12.8166,-1.22088,50,5
-4.00619,9.30672,1.96953,56,13
-6.16732,14.3341,-0.817802,58,6
-4.26069,9.90274,2.48886,100,14
-4.90201,11.3988,-0.216584,32,7
-4.34241,10.1024,2.9464,30,15
-0.243827,0.569715,-0.143069,12,1
-4.52854,10.5863,0.603434,65,9
-4.33252,10.1281,-2.14126,26,2
-7.47883,17.4916,1.66433,17,10
-4.07046,9.52923,1.27232,33,11
-5.47261,12.818,-1.71129,63,4
-4.57445,10.7195,1.84593,35,12
-5.48735,12.8587,-1.22314,27,5
-3.95604,9.27481,1.95999,40,13
-6.10957,14.3306,-0.816441,58,6
-4.12068,9.67015,2.42677,59,14
-4.86062,11.4121,-0.216515,22,7
-4.32376,10.1566,2.95778,36,15
-4.2353,9.98744,0.189359,28,8
-0.23119,0.545444,-0.13677,13,1
-4.51026,10.6462,0.605946,75,9
-4.42887,10.454,-2.2069,35,2
-8.3026,19.6073,1.86287,49,10
-5.67828,13.4162,-2.30741,26,3
-3.97143,9.38798,1.2516,46,11
-5.34898,12.6505,-1.68643,19,4
-5.40753,12.7952,-1.2153,27,5
-3.90226,9.23793,1.9493,38,13
-6.05097,14.3316,-0.81529,65,6
-4.14903,9.8317,2.46366,73,14
-4.82697,11.4438,-0.216794,32,7
-4.25151,10.0844,2.93242,37,15
-4.17409,9.93947,0.188172,58,8
-0.229285,0.546248,-0.13677,13,1
-4.38653,10.4556,0.594222,70,9
-4.36045,10.3934,-2.19087,54,2
-8.24335,19.6582,1.86496,45,10
-4.92281,11.7453,-2.01707,48,3
-4.85676,11.5934,1.54335,18,11
-4.85933,11.6052,-1.54482,29,4
-5.4036,12.9114,-1.22454,30,5
-3.87832,9.27141,1.9535,112,13
-6.02632,14.4135,-0.818744,55,6
-3.74048,8.95069,2.23961,40,14
-4.79547,11.4808,-0.217178,46,7
-4.26168,10.2079,2.964,55,15
-4.31443,10.375,0.19613,63,8
-0.225881,0.543446,-0.13587,13,1
-4.44885,10.7087,0.607725,54,9
-4.48834,10.8038,-2.27406,21,2
-7.10194,17.1034,1.62023,33,10
-4.93479,11.8901,-2.03897,68,3
-3.90123,9.40447,1.25014,43,11
-4.79979,11.5763,-1.53872,31,4
-5.61327,13.5449,-1.28276,31,5
-6.00425,14.5027,-0.822617,42,6
-3.71593,8.9799,2.24366,24,14
-5.99122,14.4855,-0.273619,89,7
-4.28064,10.3548,3.0023,46,15
-4.09546,9.94618,0.187753,80,8
-0.231399,0.562252,-0.140369,13,1
-4.22936,10.2765,0.582395,46,9
-4.47375,10.8757,-2.28589,12,2
-7.03008,17.0986,1.61744,20,10
-4.99612,12.1576,-2.08183,28,3
-3.87743,9.44007,1.25306,43,11
-5.78842,14.0996,-1.87143,46,4
-5.34662,13.0299,-1.23221,30,5
-6.01571,14.6751,-0.8312,29,6
-3.6912,9.00904,2.24771,66,14
-4.74072,11.5706,-0.21826,100,7
-4.29533,10.4887,3.03698,31,15
-0.229533,0.563016,-0.140369,13,1
-4.20326,10.3152,0.583755,38,9
-6.36413,15.6338,1.47677,12,10
-4.97887,12.2308,-2.09153,63,3
-3.87079,9.51355,1.2611,14,11
-5.50383,13.534,-1.79392,62,4
-4.02185,9.89472,1.69168,25,12
-5.31535,13.0836,-1.23552,25,5
-3.91343,9.6328,2.02105,26,13
-5.67921,13.9862,-0.79111,42,6
-3.98523,9.81935,2.44657,43,14
-4.7003,11.587,-0.21826,100,7
-4.25652,10.4983,3.03543,6,15
-4.0359,9.99422,0.188137,33,8
-0.227567,0.563814,-0.140369,13,1
-4.17321,10.3446,0.584593,19,9
-4.53184,11.2336,-2.35458,35,2
-5.04042,12.5006,1.17922,40,10
-4.67845,11.6087,-1.98234,28,3
-3.97849,9.87686,1.30741,45,11
-5.45211,13.542,-1.79245,42,4
-4.01605,9.98017,1.70388,35,12
-5.28154,13.1316,-1.23831,2,5
-3.89664,9.6883,2.02983,56,13
-5.6326,14.0115,-0.791424,52,6
-3.90806,9.72652,2.42002,92,14
-5.90955,14.7153,-0.276795,100,7
-5.00495,12.4691,3.60017,6,15
-3.97501,9.94326,0.186915,58,8
-0.219813,0.550128,-0.13677,13,1
-4.103,10.2738,0.579778,41,9
-4.51465,11.3103,-2.36718,35,2
-4.45587,11.1744,-1.90537,47,3
-3.94766,9.89991,1.30863,48,11
-5.39525,13.537,-1.78929,42,4
-3.96218,9.94641,1.69575,21,12
-5.61965,14.1144,-1.32913,28,5
-3.73189,9.37782,1.9619,36,13
-5.58858,14.0506,-0.792471,65,6
-3.87959,9.75888,2.42452,47,14
-6.13222,15.4253,-0.289745,29,7
-3.96943,10.0359,0.188381,97,8
-0.220661,0.558179,-0.13857,13,1
-4.06678,10.2925,0.579987,72,9
-4.41887,11.1836,-2.33741,60,2
-4.35732,11.0335,1.03785,40,10
-3.91645,9.92723,1.31034,99,11
-5.33759,13.5364,-1.7866,34,4
-4.8347,12.2673,2.0884,21,12
-5.57079,14.1423,-1.32982,47,5
-3.70057,9.39444,1.96266,61,13
-5.57097,14.15,-0.796972,55,6
-4.59619,11.6801,2.89782,23,14
-6.07564,15.4476,-0.289745,100,7
-4.03355,10.2607,2.95416,42,15
-3.91979,10.0124,0.187683,46,8
-0.220131,0.562575,-0.13947,13,1
-4.06193,10.3915,-2.16874,21,2
-4.32701,11.0753,1.04029,25,10
-4.04456,10.3577,-1.76114,30,3
-3.89621,9.97783,1.31521,75,11
-4.1917,10.7456,1.82684,48,12
-5.49751,14.1004,-1.32407,21,5
-3.71957,9.54514,1.99128,126,13
-5.54153,14.228,-0.800217,35,6
-4.22109,10.8433,2.68637,82,14
-4.54401,11.6728,-0.218644,27,7
-3.90173,10.0281,2.88324,52,15
-4.63179,11.9477,0.22367,51,8
-0.21404,0.552399,-0.13677,13,1
-6.18923,15.9733,0.897771,12,9
-4.02075,10.3822,-2.16416,35,2
-4.285,11.0703,1.03855,85,10
-3.99204,10.3188,-1.75238,22,3
-3.86812,10.0037,1.31692,62,11
-4.93118,12.7595,-1.6796,77,4
-4.18569,10.8306,1.83904,65,12
-5.42591,14.047,-1.31745,28,5
-3.75462,9.72527,2.02639,42,13
-4.20944,10.9147,2.70076,23,14
-8.13029,21.0811,-0.394389,65,7
-3.93066,10.1971,2.92828,41,15
-6.12501,15.9562,0.298331,22,8
-0.212207,0.553106,-0.13677,13,1
-5.5871,14.5701,0.817802,3,9
-4.01259,10.4695,-2.17942,52,2
-4.23136,11.0461,1.03489,82,10
-3.95781,10.332,-1.75238,70,3
-3.91797,10.2333,1.34544,28,11
-4.86471,12.7128,-1.67132,70,4
-4.24101,11.0887,1.88034,14,12
-5.40814,14.1477,-1.32512,23,5
-3.66767,9.59463,1.99663,13,13
-5.3305,13.9519,-0.782737,61,6
-6.57923,17.2383,-0.322067,82,7
-3.80966,9.98698,2.86409,27,15
-6.08277,16.013,0.298995,24,8
-0.213042,0.561131,-0.13857,27,1
-4.2223,11.1211,0.623426,6,9
-3.98621,10.5048,-2.184,47,2
-4.19753,11.0675,1.03558,100,10
-4.53297,11.9583,-2.02551,31,3
-3.84002,10.1356,1.33081,100,11
-4.84996,12.8013,-1.68082,57,4
-5.35838,14.1581,-1.32442,28,5
-5.39054,14.2581,-0.798856,71,6
-3.56221,9.42214,2.32554,24,14
-5.56497,14.7273,-0.274806,88,7
-5.97473,15.8871,0.296272,22,8
-0.218036,0.580076,-0.143069,12,1
-3.87057,10.3029,-2.13935,42,2
-4.22454,11.2511,1.05145,29,10
-4.46414,11.8956,-2.01237,57,3
-3.81894,10.1817,1.3352,53,11
-4.46798,11.9121,-1.56212,45,4
-4.12646,11.0074,1.86188,51,12
-5.32888,14.2224,-1.32878,34,5
-4.00574,10.6968,2.22025,53,13
-5.43003,14.5079,-0.811835,68,6
-4.37457,11.6879,2.88117,21,14
-5.46636,14.6127,-0.272327,100,7
-3.61074,9.65736,2.76263,54,15
-5.93806,15.9499,0.297075,31,8
-0.213393,0.57349,-0.141269,13,1
-4.1827,11.2469,0.628869,55,9
-3.77986,10.1692,-2.10882,47,2
-4.21775,11.3472,1.05912,74,10
-4.38408,11.801,-1.99391,40,3
-3.97793,10.7135,1.4032,39,11
-4.82004,12.9884,-1.70105,47,4
-3.91696,10.5606,1.78398,39,12
-4.37544,11.803,-1.1013,11,5
-5.40225,14.5885,-0.81529,35,6
-5.44863,14.7217,-0.274003,100,7
-5.54728,15.0689,0.280286,16,8
-0.213308,0.579755,-0.142619,26,1
-4.13801,11.2528,0.628346,110,9
-3.94168,10.7247,-2.22102,30,2
-4.20156,11.4318,1.06557,13,10
-3.93727,10.7243,1.40272,19,11
-4.41271,12.0258,-1.57285,35,4
-4.34381,11.8508,-1.10426,26,5
-5.53072,15.1052,-0.843028,19,6
-3.69584,10.0939,2.48166,93,14
-5.73206,15.6636,-0.291141,62,7
-3.78973,10.3615,2.95623,22,15
-0.198315,0.544569,-0.155291,12,0
-5.83124,16.0212,0.297598,80,8
-0.206518,0.567713,-0.13947,13,1
-3.73853,10.2827,-2.12676,26,2
-4.14126,11.3966,1.06086,9,10
-3.94536,10.8693,1.41978,13,11
-4.32939,11.9273,-1.55798,39,4
-4.30852,11.8827,-1.10583,11,5
-4.34849,11.9995,2.4809,42,13
-3.64665,10.0683,2.47221,54,14
-5.86317,16.1968,-0.30067,33,7
-3.75616,10.3819,2.9583,34,15
-0.204635,0.568395,-0.13947,13,1
-6.46035,17.9443,0.999512,13,9
-3.71239,10.3172,-2.13134,23,2
-4.12233,11.4627,1.06574,38,10
-4.03704,11.2317,-1.89035,60,3
-4.21666,11.7379,1.53141,31,11
-4.30995,11.9976,-1.56529,55,4
-3.87758,10.8,1.81746,52,12
-4.26237,11.8782,-1.10409,4,5
-4.26693,11.8974,2.45686,17,13
-3.39165,9.4621,2.3206,66,14
-5.62868,15.7117,-0.291316,100,7
-4.85679,13.5645,3.86054,9,15
-0.194699,0.545873,-0.155291,12,0
-5.47978,15.372,0.284858,47,8
-0.202749,0.56907,-0.13947,13,1
-6.38338,17.9167,0.996791,29,9
-3.65774,10.2721,-2.11951,49,2
-4.07895,11.4613,1.06435,27,10
-4.01764,11.2953,-1.8988,48,3
-4.17904,11.7556,1.5319,42,11
-4.79906,13.5071,-1.76004,61,4
-3.84704,10.8277,1.81996,79,12
-5.08968,14.333,-1.33069,49,5
-6.37597,17.9653,3.70551,9,13
-5.79016,16.3237,-0.907715,20,6
-4.18555,11.8065,2.89197,65,14
-5.50171,15.5191,-0.287406,39,7
-3.63432,10.2573,2.91586,2,15
-0.192792,0.546549,-0.155291,12,0
-5.30105,15.028,0.278156,15,8
-0.206044,0.584443,-0.143069,25,1
-6.31284,17.9163,0.995535,11,9
-3.63099,10.3107,-2.12485,23,2
-4.08456,11.6052,1.07637,24,10
-3.97032,11.2806,-1.89411,37,3
-4.13806,11.7638,1.53117,14,11
-4.76872,13.5642,-1.7654,26,4
-3.81184,10.8485,1.82121,19,12
-5.03038,14.3244,-1.32825,39,5
-4.19638,11.9495,2.46182,10,13
-5.54154,15.7888,-0.876941,35,6
-4.13542,11.7891,2.88432,40,14
-5.53682,15.793,-0.292118,85,7
-4.73496,13.5133,3.83673,1,15
-0.190979,0.547185,-0.155291,12,0
-5.25251,15.0578,0.278366,16,8
-0.201437,0.577798,-0.141269,13,1
-6.3265,18.157,1.00768,13,9
-4.01329,11.5246,1.06766,56,10
-3.49848,10.0519,-1.68574,8,3
-4.17002,11.9881,1.55847,3,11
-5.18155,14.9045,-1.93748,25,4
-4.98742,14.3542,-1.32947,10,5
-6.12087,17.6262,3.6269,12,13
-5.48377,15.8005,-0.876523,35,6
-3.71297,10.7043,2.61573,16,14
-5.3487,15.4287,-0.285033,7,7
-5.04446,14.5593,4.12868,10,15
-0.189067,0.547849,-0.155291,12,0
-5.19014,15.0476,0.277842,16,8
-0.201959,0.585867,-0.143069,12,1
-6.40815,18.6001,1.03102,12,9
-3.48654,10.1199,-2.08058,26,2
-3.99703,11.6082,1.07411,29,10
-3.41838,9.93332,-1.66384,20,3
-6.17349,17.9495,2.33063,5,11
-3.82469,11.1266,-1.44464,23,4
-4.47859,13.0363,2.1832,45,12
-7.28002,21.1908,-1.96031,15,5
-3.62258,10.5506,2.16835,23,13
-7.19705,20.9731,-1.16207,23,6
-5.30713,15.4832,-0.285696,39,7
-5.09629,14.8766,4.21357,13,15
-0.187154,0.548505,-0.155291,12,0
-5.13048,15.0449,0.277458,16,8
-0.198655,0.582879,-0.142169,26,1
-6.09526,17.8944,0.99072,24,9
-3.49424,10.2584,-2.10653,68,2
-3.96933,11.6598,1.07759,31,10
-3.36078,9.87787,-1.65257,13,3
-6.10121,17.9427,2.32697,40,11
-5.04224,14.8369,-1.92407,21,4
-6.28972,18.5183,-1.71104,15,5
-7.10199,20.9338,-1.15851,23,6
-3.5931,10.5971,2.58334,100,14
-5.237,15.4543,-0.284823,70,7
-4.74378,14.0068,3.96252,3,15
-0.163009,0.483257,-0.136656,14,0
-5.08368,15.0797,0.277772,19,8
-0.192886,0.572488,-0.13947,13,1
-5.92057,17.5825,0.972297,37,9
-3.37383,10.0193,-2.05501,64,2
-3.35587,9.97754,-1.66728,33,3
-6.03981,17.9677,2.32746,20,11
-3.31957,9.88101,-1.27987,6,4
-3.94294,11.7433,1.962,20,12
-6.99746,20.8407,-1.92335,4,5
-6.38745,19.0459,-1.05279,23,6
-6.56644,19.6023,-0.360846,7,7
-4.70405,14.0508,3.97028,18,15
-0.161322,0.483823,-0.136656,14,0
-5.02596,15.0822,0.277493,30,8
-0.19335,0.580554,-0.141269,13,1
-5.83195,17.5111,0.967273,28,9
-3.34255,10.0422,-2.0573,57,2
-3.331,10.0192,-1.67228,35,3
-4.75586,14.3133,1.85193,4,11
-4.81905,14.5119,-1.87752,10,4
-7.46753,22.5006,-2.07413,11,5
-4.00141,12.0638,2.4706,17,13
-5.43545,16.3969,-0.905307,27,6
-3.9413,11.8965,2.89332,8,14
-5.47443,16.5241,-0.303846,83,7
-4.63679,14.0039,3.95268,30,15
-0.158422,0.480713,-0.135621,15,0
-4.95651,15.0399,0.276411,28,8
-0.190204,0.57749,-0.140369,26,1
-5.7483,17.463,0.963505,28,9
-3.33509,10.1378,-2.07448,45,2
-3.86444,11.7538,1.08247,94,10
-3.26136,9.91946,-1.65383,53,3
-5.37452,16.3563,2.11395,72,11
-3.68454,11.2198,-1.45,66,4
-4.75364,14.4838,2.41441,27,12
-7.41626,22.6099,-2.0818,11,5
-3.45229,10.525,2.15309,4,13
-5.45446,16.6387,-0.917659,37,6
-3.51898,10.7409,2.60943,32,14
-5.39307,16.4709,-0.30252,24,7
-4.54041,13.875,3.91179,13,15
-0.156828,0.481236,-0.135621,15,0
-4.90212,15.0514,0.276307,13,8
-0.187584,0.576297,-0.13992,26,1
-5.69102,17.4944,0.964133,10,9
-3.28141,10.0872,-2.06188,57,2
-3.78786,11.6509,1.07184,22,10
-3.23831,9.96648,-1.65977,15,3
-5.31801,16.3769,2.11419,54,11
-3.7287,11.4894,-1.48315,9,4
-4.6994,14.4891,2.41253,36,12
-5.89171,18.176,-1.67165,3,5
-3.41795,10.5444,2.15462,10,13
-5.63333,17.3892,-0.957957,21,6
-3.48927,10.7773,2.61528,46,14
-0.155063,0.481808,-0.135621,15,0
-5.66006,17.5868,0.322486,22,8
-0.189748,0.589935,-0.143069,25,1
-4.77361,14.8502,0.817488,4,9
-3.41916,10.643,-2.17293,28,2
-5.52222,17.21,2.21924,38,11
-4.68208,14.6005,-1.88264,27,4
-3.84456,11.996,1.99517,52,12
-4.69662,14.6634,-1.34708,5,5
-6.03733,18.8606,3.84938,8,13
-5.4734,17.1092,-0.941419,17,6
-3.84499,12.0262,2.91492,57,14
-5.61898,17.5748,-0.322067,100,7
-10.1851,31.8759,8.96653,7,15
-0.163917,0.515484,-0.144939,14,0
-4.81791,15.1604,0.277668,7,8
-0.187585,0.590626,-0.143069,12,1
-4.7967,15.1028,0.830467,4,9
-3.35585,10.5726,-2.15614,64,2
-3.72126,11.7309,1.07672,60,10
-3.1484,9.93102,-1.65007,15,3
-5.48428,17.3096,2.22948,28,11
-3.64938,11.5252,-1.48437,15,4
-5.42805,17.1529,-1.57403,13,5
-4.29079,13.5673,2.76597,12,13
-5.16505,16.3417,-0.89819,54,6
-3.82646,12.1139,2.93291,10,14
-5.32751,16.8659,-0.308733,32,7
-4.34253,13.756,3.8652,11,15
-0.152853,0.486564,-0.136656,14,0
-4.68431,14.9111,0.272816,12,8
-0.18796,0.598682,-0.144868,12,1
-5.23306,16.6783,0.916089,5,9
-3.29073,10.4943,-2.13782,47,2
-3.66898,11.7077,1.07341,29,10
-5.45117,17.4054,2.23947,52,11
-4.7781,15.2656,-1.96405,18,4
-4.56157,14.5827,2.42004,13,12
-5.35506,17.1299,-1.5702,64,5
-4.68628,14.9906,3.05294,11,13
-5.02924,16.0975,-0.88385,77,6
-3.79034,12.1395,2.93606,10,14
-0.171862,0.553487,-0.155291,12,0
-4.68734,15.105,0.276062,4,8
-0.181251,0.584444,-0.141269,13,1
-5.67526,18.2999,1.00412,40,9
-2.84035,9.16436,-1.86497,33,2
-3.64074,11.7541,1.07655,100,10
-3.42011,11.0486,-1.83185,42,3
-5.39391,17.4357,2.24093,4,11
-3.42561,11.0732,-1.42319,19,4
-4.51552,14.6053,2.42129,5,12
-5.88509,19.0587,3.87724,14,13
-4.95417,16.0539,-0.8805,67,6
-3.7627,12.193,2.94596,29,14
-5.41767,17.5668,-0.32088,100,7
-10.5096,34.0984,9.56078,8,15
-0.170026,0.554054,-0.155291,12,0
-5.5044,17.948,0.327686,22,8
-0.174744,0.570137,-0.13767,13,1
-5.61221,18.311,1.0037,24,9
-2.80132,9.14557,-1.85924,47,2
-3.59649,11.7489,1.07498,18,10
-3.38808,11.075,-1.83435,27,3
-5.56706,18.209,2.33794,20,11
-4.01162,13.1214,-1.68472,19,4
-4.44975,14.5636,2.41191,25,12
-5.85452,19.1852,3.89899,19,13
-4.92771,16.1581,-0.885315,37,6
-5.97902,19.6054,4.73207,24,14
-5.36172,17.5923,-0.32102,100,7
-0.168188,0.554615,-0.155291,12,0
-5.39903,17.815,0.324929,46,8
-0.173982,0.574443,-0.13857,13,1
-5.5335,18.2702,1.00045,23,9
-2.76586,9.13789,-1.85581,71,2
-5.31463,17.5697,1.60593,47,10
-3.34847,11.0767,-1.83279,6,3
-4.18624,13.8567,1.77734,58,11
-3.90379,12.9218,-1.65742,43,4
-4.39914,14.5707,2.41066,38,12
-4.99446,16.5529,-1.51268,6,5
-5.78123,19.1725,3.8925,19,13
-4.84586,16.0807,-0.880186,84,6
-5.8881,19.5393,4.71137,19,14
-5.29874,17.5946,-0.32074,25,7
-0.166348,0.555169,-0.155291,12,0
-5.35828,17.8941,0.326046,24,8
-0.177663,0.593686,-0.143069,12,1
-5.46258,18.254,0.99857,27,9
-2.72879,9.12444,-1.85123,26,2
-5.39213,18.0415,1.64742,16,10
-3.38013,11.3168,-1.87064,27,3
-3.46517,11.6089,1.48754,42,11
-3.85524,12.9157,-1.65499,42,4
-3.7483,12.5654,2.07682,34,12
-4.69763,15.7579,-1.43859,46,5
-5.69968,19.1314,3.88029,14,13
-4.79821,16.1158,-0.881233,67,6
-5.63199,18.9162,4.55661,17,14
-5.24093,17.614,-0.320775,75,7
-0.164409,0.555747,-0.155291,12,0
-5.29805,17.9204,0.326185,10,8
-0.177798,0.601778,-0.144868,12,1
-5.3357,18.0709,0.987475,30,9
-2.69581,9.13015,-1.85047,61,2
-4.20025,14.2345,1.29845,31,10
-3.311,11.2281,-1.85406,50,3
-4.13278,14.0239,1.79514,44,11
-3.98453,13.5295,-1.73176,61,4
-3.66597,12.4559,2.05649,27,12
-4.60041,15.6308,-1.42552,41,5
-5.65502,19.2265,3.89556,22,13
-4.74868,16.1554,-0.882489,67,6
-5.74881,19.5706,4.70913,23,14
-5.16789,17.6043,-0.320252,100,7
-8.66149,29.5243,8.24442,12,15
-5.2209,17.8889,0.325278,22,8
-0.17024,0.583687,-0.140369,13,1
-5.2614,18.051,0.985381,24,9
-5.30171,18.2012,1.65857,28,10
-3.27178,11.2396,-1.85406,12,3
-4.17641,14.3566,1.83584,12,11
-3.7267,12.819,-1.63914,43,4
-3.68639,12.6886,2.09278,46,12
-4.54582,15.6468,-1.42552,33,5
-5.59882,19.2838,3.90319,21,13
-5.41019,18.6585,4.48507,3,14
-5.16874,17.8374,-0.324161,82,7
-5.12095,17.684,4.93309,1,15
-5.16895,17.9435,0.325941,32,8
-0.166045,0.576787,-0.13857,13,1
-5.23426,18.1941,0.992185,22,9
-2.62006,9.10724,-1.84207,2,2
-5.25026,18.2617,1.66241,28,10
-3.74772,13.0526,1.66742,37,11
-3.68248,12.8339,-1.63939,22,4
-3.56694,12.4394,2.0496,25,12
-4.07187,14.2096,-1.29322,28,5
-5.51363,19.241,3.8906,8,13
-5.15209,17.9912,-0.980776,21,6
-5.34717,18.6847,4.48687,22,14
-5.23786,18.3148,-0.332503,51,7
-5.06185,17.7111,4.93568,6,15
-4.16464,14.6492,0.265835,9,8
-0.168291,0.59236,-0.142169,13,1
-5.18271,18.2545,0.994488,28,9
-2.56255,9.03179,-1.8249,30,2
-5.44199,19.1932,1.74538,7,10
-3.69672,13.0465,1.66498,11,11
-3.63333,12.8314,-1.63744,92,4
-3.51866,12.4347,2.04679,30,12
-4.0179,14.2084,-1.29182,28,5
-5.48578,19.4122,3.92113,9,13
-5.02206,17.7831,-0.968425,47,6
-5.31094,18.8186,4.51432,27,14
-5.18802,18.383,-0.333411,66,7
-9.34555,33.1368,9.22535,7,15
-5.32164,18.9832,0.344127,21,8
-0.172427,0.61549,-0.147568,12,1
-5.12327,18.2879,0.995325,22,9
-2.52413,9.0161,-1.81994,49,2
-5.43025,19.4097,1.76333,32,10
-2.9461,10.5375,-1.73298,21,3
-3.64835,13.0581,1.66474,71,11
-3.11811,11.1678,-1.42368,8,4
-4.0617,14.5473,2.3922,16,12
-3.56562,12.7792,-1.16074,26,5
-5.23026,18.758,3.78527,3,13
-4.95192,17.7717,-0.966855,32,6
-5.32729,19.1318,4.58495,25,14
-4.99401,17.9348,-0.324964,100,7
-4.4264,15.9072,4.42425,8,15
-5.39573,19.496,0.353097,9,8
-0.167268,0.60479,-0.144868,12,1
-5.04664,18.2594,0.992813,24,9
-2.88412,10.4423,-2.10577,38,2
-5.39745,19.5553,1.77484,63,10
-3.60238,13.0606,1.66352,45,11
-3.07789,11.1666,-1.42222,4,4
-4.23798,15.3964,-1.39711,33,5
-4.93201,17.9178,3.6124,16,13
-4.56029,16.5786,-0.901121,33,6
-5.2726,19.1813,4.5926,18,14
-4.93826,17.9772,-0.325418,82,7
-3.58842,13.0722,3.63227,20,15
-5.80849,21.276,0.384965,7,8
-0.168234,0.61665,-0.147568,12,1
-4.14915,15.2189,0.826699,32,9
-2.83657,10.4044,-2.09623,47,2
-4.23694,15.5516,1.41018,34,10
-2.86808,10.5345,-1.72923,30,3
-3.46766,12.7455,1.62184,21,11
-3.53991,13.02,-1.65669,61,4
-4.17175,15.3546,-1.39205,41,5
-5.09938,18.7818,3.78298,8,13
-4.23829,15.621,-0.848261,26,6
-4.24995,15.6749,3.74948,10,14
-4.85979,17.9365,-0.32437,100,7
-3.56398,13.163,3.65401,23,15
-4.89088,18.1642,0.32835,30,8
-0.163042,0.605943,-0.144868,12,1
-4.10274,15.2584,0.82806,18,9
-2.60906,9.70329,-1.95312,35,2
-5.23113,19.4684,1.76368,39,10
-2.82257,10.512,-1.72391,50,3
-3.41903,12.7422,1.61989,14,11
-3.51809,13.1205,-1.6679,57,4
-4.04335,15.09,-1.36678,28,5
-5.01855,18.7426,3.77153,22,13
-4.15482,15.5277,-0.8424,42,6
-4.92814,18.4307,4.40454,13,14
-4.79766,17.9552,-0.324405,100,7
-3.50106,13.1119,3.63641,13,15
-4.82898,18.187,0.328454,40,8
-0.160926,0.606508,-0.144868,12,1
-5.28194,19.9069,1.07938,6,9
-2.5631,9.66679,-1.94396,38,2
-5.16722,19.502,1.76508,32,10
-2.54419,9.60899,-1.57436,53,3
-3.37707,12.7636,1.62111,32,11
-2.51984,9.53047,-1.21041,16,4
-3.94758,14.9304,2.44601,21,12
-4.06293,15.3776,-1.39153,44,5
-4.908,18.5891,3.73719,35,13
-4.45828,16.8978,-0.915879,57,6
-4.03162,15.2915,3.65096,23,14
-4.76563,18.0755,-0.32629,100,7
-4.13874,15.7089,4.35282,6,15
-4.76865,18.2029,0.328454,54,8
-0.161875,0.61835,-0.147568,12,1
-5.1639,19.7397,1.06933,15,9
-2.52041,9.64149,-1.93709,59,2
-4.69676,17.9797,1.6258,33,10
-2.52179,9.65368,-1.5803,51,3
-3.42046,13.1032,1.66279,41,11
-3.97034,15.2206,-1.93139,29,4
-3.92783,15.0684,2.46635,6,12
-4.04689,15.5363,-1.4046,22,5
-4.40172,16.9105,-0.915775,47,6
-3.53497,13.5904,3.24199,4,14
-4.69646,18.0688,-0.325871,95,7
-4.0528,15.6036,4.31969,10,15
-4.72758,18.3065,0.330025,12,8
-0.159716,0.618911,-0.147568,12,1
-3.98351,15.4364,0.835491,23,9
-2.44528,9.4825,-1.90351,40,2
-4.63413,17.9836,1.62476,47,10
-2.49153,9.67582,-1.58249,53,3
-3.26191,12.6768,1.60721,54,11
-3.44014,13.3791,-1.69618,19,4
-3.8985,15.1617,2.47949,5,12
-4.0251,15.6654,-1.41506,5,5
-5.76467,22.4519,4.50576,10,13
-4.35408,16.9703,-0.918182,50,6
-3.9318,15.3356,3.655,19,14
-4.62857,18.0533,-0.325313,75,7
-3.56521,13.9158,3.84916,12,15
-3.89587,15.2952,0.275504,43,8
-0.164392,0.645876,-0.153867,11,1
-5.04665,19.8422,1.07299,33,9
-2.38364,9.37872,-1.881,49,2
-4.57132,17.9996,1.62476,16,10
-2.45262,9.65722,-1.57811,42,3
-3.27602,12.9088,1.63524,75,11
-2.56963,10.1327,-1.28353,45,4
-5.08698,20.0888,-1.81301,34,5
-8.38179,33.1002,6.6371,18,13
-4.30366,17.0079,-0.919438,67,6
-3.42041,13.5272,3.2213,18,14
-4.56553,18.0693,-0.325313,15,7
-3.39743,13.4562,3.71871,28,15
-3.82006,15.2195,0.273898,57,8
-0.152655,0.608643,-0.144868,12,1
-4.89919,19.5333,1.05541,16,9
-2.35872,9.41133,-1.88596,49,2
-4.50097,17.9722,1.62092,64,10
-2.68193,10.7247,-1.35738,17,4
-3.22485,12.9054,2.10686,60,12
-4.40974,17.6602,-1.59251,16,5
-4.62216,18.5247,3.71124,8,13
-3.91087,15.6856,-0.847215,13,6
-3.37742,13.5461,3.2231,18,14
-3.83894,15.4086,-0.277179,64,7
-3.34393,13.4317,3.70888,9,15
-3.76572,15.2166,0.273619,16,8
-0.147829,0.597795,-0.142169,13,1
-4.82672,19.5185,1.05373,22,9
-2.34917,9.50677,-1.90351,47,2
-4.44946,18.0199,1.62389,57,10
-4.52527,18.3544,2.32112,10,11
-2.66298,10.801,-1.36591,15,4
-3.21653,13.056,2.1297,24,12
-4.3402,17.6303,-1.5885,27,5
-4.02609,16.3666,3.27619,13,13
-3.87599,15.7683,-0.850983,19,6
-4.5168,18.3753,4.36855,6,14
-3.77112,15.3532,-0.275957,100,7
-3.31318,13.499,3.72441,2,15
-0.137457,0.563019,-0.155291,12,0
-3.74747,15.3611,0.275992,48,8
-0.145846,0.598282,-0.142169,13,1
-4.80535,19.7273,1.06409,26,9
-2.31066,9.48589,-1.89779,57,2
-3.84309,15.7889,1.42168,68,10
-2.71701,11.171,-1.8209,35,3
-3.11142,12.8024,1.61769,29,11
-3.21646,13.2447,-1.67351,77,4
-3.12063,12.8598,2.09591,49,12
-3.21188,13.2358,-1.19159,12,5
-3.97688,16.4009,3.28039,10,13
-3.8011,15.6879,-0.845959,32,6
-3.87577,16.0083,3.80257,10,14
-3.66531,15.1506,-0.272083,29,7
-3.59015,14.8512,4.094,2,15
-0.135492,0.563495,-0.155291,12,0
-3.6957,15.3818,0.276132,19,8
-0.155584,0.648055,-0.153867,11,1
-4.72622,19.7012,1.06179,13,9
-2.28486,9.52445,-1.90389,49,2
-3.77913,15.7655,1.41837,87,10
-2.61542,10.9192,-1.77835,67,3
-3.06486,12.8055,1.61672,39,11
-2.6794,11.2035,-1.41442,13,4
-3.04955,12.7611,2.07808,38,12
-3.38423,14.1616,-1.27387,12,5
-7.42608,31.0992,6.21503,5,13
-3.75189,15.7244,-0.847215,42,6
-3.40995,14.3024,3.39451,31,14
-3.60961,15.1516,-0.271874,100,7
-3.72708,15.6568,4.31244,6,15
-3.63185,15.3518,0.275364,10,8
-0.148838,0.629629,-0.149367,12,1
-4.70727,19.9131,1.07236,13,9
-2.25476,9.54574,-1.90656,49,2
-3.72773,15.7941,1.41977,46,10
-2.55054,10.8148,-1.75989,53,3
-4.31417,18.3073,2.30942,29,11
-3.09662,13.1509,-1.65889,17,4
-3.08825,13.1154,2.13408,45,12
-3.34938,14.2354,-1.27945,28,5
-3.84297,16.346,3.26398,10,13
-3.69606,15.7335,-0.847005,58,6
-3.5589,15.1615,-0.271839,34,7
-3.20268,13.6547,3.75805,4,15
-0.131554,0.564427,-0.155291,12,0
-3.6136,15.504,0.277877,13,8
-0.147634,0.633915,-0.150267,12,1
-4.19817,18.0405,0.970727,4,9
-2.21698,9.53443,-1.90275,47,2
-4.3273,18.6249,1.67287,52,10
-2.62195,11.285,-1.83498,26,3
-4.25119,18.3118,2.30821,19,11
-3.05479,13.1688,-1.65986,22,4
-2.86092,12.3428,2.00674,15,12
-3.32843,14.3712,-1.2906,28,5
-3.77102,16.2822,3.24871,4,13
-3.64386,15.7457,-0.847005,39,6
-3.83233,16.5732,3.9272,5,14
-3.51181,15.1992,-0.272292,33,7
-3.12631,13.5415,3.72389,29,15
-0.129681,0.56486,-0.155291,12,0
-3.78124,16.4833,0.29519,31,8
-0.135841,0.592638,-0.140369,13,1
-4.14007,18.0765,0.971879,37,9
-2.19463,9.58995,-1.91229,52,2
-4.30818,18.8256,1.6896,73,10
-2.47378,10.8184,-1.7577,50,3
-3.31707,14.518,1.82853,12,11
-2.87625,12.6089,2.04835,5,12
-3.8472,16.879,-1.51459,18,5
-3.59411,15.794,-0.848889,32,6
-3.68754,16.2046,3.83677,23,14
-3.44676,15.1587,-0.27135,35,7
-3.09187,13.6089,3.73942,14,15
-0.12761,0.565332,-0.155291,12,0
-3.78415,16.7779,0.300216,21,8
-0.135382,0.600736,-0.142169,26,1
-4.09222,18.1734,0.976275,13,9
-2.15817,9.59219,-1.91114,54,2
-4.02835,17.9043,1.60558,100,10
-2.39988,10.6752,-1.73298,76,3
-3.17422,14.1311,1.77832,7,11
-3.12263,13.9128,-1.75078,30,4
-2.78073,12.3996,2.01269,0,12
-3.83149,17.0991,-1.53307,35,5
-3.63195,16.2351,3.84081,21,14
-3.3192,14.8492,-0.265591,43,7
-3.06428,13.7201,3.76685,12,15
-0.125538,0.565796,-0.155291,12,0
-0.134022,0.605033,-0.143069,12,1
-2.12214,9.58816,-1.90885,54,2
-3.61165,16.3315,1.46334,28,10
-2.35648,10.6646,-1.72985,56,3
-2.86135,12.9602,1.62964,63,11
-3.1575,14.3016,-1.7983,56,4
-3.77349,17.1201,-1.53377,26,5
-3.01655,13.6973,2.72628,24,13
-3.41275,15.5092,-0.832246,52,6
-3.24525,14.748,3.48629,24,14
-3.29396,14.9818,-0.267755,37,7
-3.09057,14.0684,3.85951,12,15
-0.123661,0.566209,-0.155291,12,0
-3.63367,16.6516,0.297494,100,8
-0.133676,0.613091,-0.144868,12,1
-3.18342,14.6005,0.783155,36,9
-2.05606,9.43785,-1.87756,45,2
-3.55704,16.3415,1.46317,100,10
-2.31313,10.6357,-1.72391,57,3
-2.82257,12.989,1.63207,33,11
-2.41495,11.1132,-1.39638,23,4
-3.1376,14.463,-1.29479,10,5
-2.97818,13.7398,2.73277,23,13
-3.35665,15.4989,-0.831095,52,6
-3.29333,15.2194,-0.271804,38,7
-3.05002,14.1069,3.86727,2,15
-0.111228,0.517509,-0.141833,14,0
-3.65233,17.0076,0.303637,38,8
-0.131642,0.613531,-0.144868,25,1
-3.9047,18.1983,0.975438,15,9
-2.00706,9.36207,-1.86115,49,2
-2.91026,13.5867,1.21565,28,10
-2.27082,10.6105,-1.71859,43,3
-2.81975,13.1866,1.65572,33,11
-2.38846,11.1697,-1.40247,35,4
-2.93197,13.7349,-1.22872,20,5
-3.36138,15.7599,3.13232,45,13
-3.31958,15.5773,3.67705,26,14
-3.25825,15.3026,-0.273095,23,7
-3.26331,15.3395,4.20219,31,15
-0.119903,0.567017,-0.155291,12,0
-0.129204,0.612057,-0.144419,25,1
-3.09848,14.6779,0.786191,12,9
-1.96587,9.32065,-1.85161,47,2
-2.87464,13.6411,1.21966,34,10
-2.34632,11.1437,-1.80369,60,3
-3.00934,14.3051,1.79489,44,11
-2.34283,11.1368,-1.39735,19,4
-2.81173,13.3773,2.16505,18,12
-2.89747,13.7972,-1.23343,22,5
-2.89747,13.8092,2.74269,8,13
-3.27673,15.6303,-0.836957,62,6
-3.39745,16.2062,3.82282,18,14
-3.52849,16.8458,-0.300426,40,7
-3.04147,14.5334,3.97857,11,15
-0.117923,0.567432,-0.155291,12,0
-0.125879,0.60678,-0.143069,25,1
-3.03007,14.6188,0.782423,39,9
-1.96121,9.46202,-1.87832,40,2
-3.869,18.6827,1.66921,28,10
-2.23376,10.7959,-1.74612,53,3
-2.75122,13.3085,1.66864,3,11
-2.26826,10.982,-1.37688,68,4
-3.39746,16.4636,2.66251,33,12
-2.28402,11.0778,-0.989566,23,5
-2.85282,13.8365,2.74612,25,13
-3.19556,15.5125,-0.830048,91,6
-3.20721,15.5829,3.673,33,14
-3.24357,15.7735,-0.281088,100,7
-2.99752,14.5898,3.99099,10,15
-0.105802,0.518646,-0.141833,14,0
-3.26316,15.9961,0.284963,3,8
-0.125317,0.614854,-0.144868,12,1
-2.98141,14.641,0.783051,9,9
-1.9093,9.3845,-1.86153,52,2
-2.79799,13.7648,1.2289,10,10
-2.16627,10.6666,-1.72391,77,3
-2.92956,14.425,1.80732,40,11
-2.14386,10.5657,-1.32374,53,4
-2.54442,12.5511,2.02833,21,12
-2.9106,14.3702,-1.28276,47,5
-2.8052,13.8623,2.74918,9,13
-3.13274,15.4948,-0.828478,48,6
-2.72295,13.48,3.17496,11,14
-3.24433,16.0611,-0.28601,78,7
-3.19995,15.8557,4.33418,10,15
-0.0994373,0.496281,-0.135621,15,0
-2.98666,14.9197,0.265591,1,8
-0.123827,0.61913,-0.145768,25,1
-2.92872,14.6435,0.782632,26,9
-1.88346,9.42576,-1.8684,66,2
-2.75538,13.8019,1.23134,2,10
-2.12361,10.647,-1.71953,72,3
-2.65515,13.324,1.66815,56,11
-2.12722,10.6845,-1.33764,20,4
-2.50753,12.5947,2.03396,37,12
-2.85381,14.347,-1.27979,21,5
-2.7591,13.8836,2.75147,12,13
-2.95572,14.8866,-0.795402,68,6
-3.35399,16.9079,-0.30088,69,7
-2.90272,14.6464,4.00082,5,15
-0.104417,0.530745,-0.144939,14,0
-2.92559,14.8706,0.264544,15,8
-0.117263,0.596592,-0.140369,26,1
-3.6119,18.393,0.982346,11,9
-1.87057,9.53438,-1.88863,61,2
-3.05248,15.573,1.38839,57,10
-2.09285,10.6772,-1.72328,70,3
-2.61629,13.36,1.67156,56,11
-2.20498,11.2701,-1.41003,39,4
-2.48439,12.71,2.05117,22,12
-2.78615,14.267,-1.27178,27,5
-3.09836,15.8657,3.14224,19,13
-2.91705,14.9512,-0.798333,55,6
-3.05109,15.6672,-0.27861,16,7
-3.60682,18.5382,5.06043,6,15
-0.102656,0.531088,-0.144939,14,0
-2.88238,14.9259,0.265346,6,8
-0.119241,0.618046,-0.145318,25,1
-3.25471,16.8856,0.901225,11,9
-1.82928,9.49041,-1.87871,52,2
-3.0336,15.7533,1.40356,56,10
-2.11006,10.9676,-1.76896,50,3
-2.64045,13.7375,1.71763,23,11
-2.19295,11.42,-1.42782,13,4
-2.82216,14.7105,-1.31047,36,5
-2.62425,13.6919,2.70987,11,13
-2.99932,15.6635,-0.835805,35,6
-3.02046,15.7888,3.71124,2,14
-3.01364,15.7682,-0.280216,70,7
-2.61671,13.7043,3.73838,1,15
-0.0993616,0.523851,-0.142868,14,0
-3.14896,16.6177,0.295225,8,8
-0.11527,0.608884,-0.143069,25,1
-1.79724,9.50253,-1.87985,47,2
-2.98933,15.8206,1.40861,65,10
-2.07286,10.9808,-1.7699,62,3
-2.51559,13.3389,1.66669,15,11
-2.37624,12.6242,2.03459,35,12
-2.17152,11.5366,-1.02704,24,5
-2.93467,15.6209,-0.832979,61,6
-2.98474,15.9027,3.73554,10,14
-2.95747,15.7727,-0.280111,100,7
-2.57028,13.7209,3.74045,1,15
-0.0918785,0.493807,-0.134586,15,0
-2.70064,14.5289,0.257947,52,8
-0.114567,0.616947,-0.144868,25,1
-1.77445,9.56472,-1.89092,54,2
-2.97366,16.0444,1.42761,25,10
-2.0471,11.0559,-1.78085,26,3
-2.46758,13.3398,1.66571,41,11
-2.05617,11.1266,-1.38931,39,4
-2.34585,12.6942,2.0446,25,12
-2.13557,11.5676,-1.02913,58,5
-2.51258,13.623,2.6927,18,13
-2.95431,16.0337,-0.854437,58,6
-2.91615,15.8421,3.71889,10,14
-2.78262,15.1315,4.12247,4,15
-0.0991695,0.543537,-0.148044,13,0
-2.86134,15.6827,0.278261,27,8
-0.114617,0.628826,-0.147568,24,1
-2.89496,15.8984,0.846901,12,9
-1.7298,9.50905,-1.87871,30,2
-2.89448,15.9273,1.41628,34,10
-1.98394,10.9169,-1.75738,70,3
-2.41694,13.3128,1.66132,7,11
-2.03131,11.1998,-1.3976,37,4
-2.2973,12.6789,2.04084,42,12
-2.48945,13.7531,-1.2228,25,5
-2.84225,15.7022,3.10179,11,13
-2.90077,16.0415,-0.854332,13,6
-2.59962,14.3904,3.37607,18,14
-2.80637,15.5504,-0.275818,8,7
-2.81582,15.6184,4.2524,10,15
-0.0926002,0.51724,-0.140798,14,0
-2.61999,14.6493,0.259762,84,8
-0.107281,0.600447,-0.140819,26,1
-2.77838,15.5663,0.828688,26,9
-1.71964,9.63456,-1.90237,54,2
-2.86858,16.0878,1.4297,37,10
-1.93785,10.879,-1.75019,61,3
-2.35237,13.2195,1.64865,41,11
-2.18191,12.274,-1.53068,33,4
-2.24992,12.6694,2.03803,44,12
-2.83401,15.9584,-1.41802,30,5
-2.7833,15.6888,3.09721,26,13
-2.68234,15.1351,-0.805555,3,6
-2.75151,15.5412,3.64376,30,14
-2.7552,15.5778,-0.276132,100,7
-2.53474,14.3459,3.90351,2,15
-0.0921294,0.525171,-0.142868,14,0
-2.55607,14.5855,0.25847,85,8
-0.108544,0.620014,-0.145318,25,1
-2.66313,15.2277,0.810161,40,9
-1.68837,9.65404,-1.90504,45,2
-2.82338,16.1606,1.43528,15,10
-1.91005,10.9441,-1.75958,61,3
-2.62057,15.0307,1.87338,4,11
-2.21516,12.7316,2.04679,22,12
-2.14134,12.3074,-1.09293,7,5
-2.72012,15.6501,3.08767,20,13
-2.6107,15.0361,-0.799798,52,6
-2.69392,15.5315,3.63926,26,14
-2.60853,15.0704,4.09814,23,15
-0.0870242,0.50645,-0.137692,14,0
-2.50886,14.616,0.258854,82,8
-0.107038,0.62423,-0.146218,25,1
-2.60283,15.1793,0.807125,37,9
-1.6192,9.45282,-1.8642,57,2
-2.53407,14.8094,1.31448,17,10
