x, y, z, intensity, ring
6.70118,-1.39995,-0.598934,33,5
28.8457,-6.02618,5.72809,17,13
30.946,-6.47622,7.29921,10,14
9.70391,-2.03256,-0.173058,52,7
28.7205,-6.02095,7.86292,22,15
7.6776,-1.62072,0.136966,30,8
0.543395,-0.114808,-0.128222,14,1
9.59633,-2.02926,0.514044,25,9
0.670327,-0.141871,-0.133185,26,2
9.48256,-2.00866,0.848025,72,10
5.91902,-1.25489,-0.958318,45,3
9.40865,-1.99472,1.18091,63,11
6.94214,-1.47306,-0.871366,45,4
7.08407,-1.50577,-0.633622,11,5
29.0174,-6.17313,5.76663,8,13
6.50896,-1.3859,-0.348767,27,6
29.626,-6.31341,6.99328,10,14
9.95687,-2.12185,-0.1777,100,7
28.5274,-6.0845,7.81582,11,15
7.70289,-1.65558,0.137525,53,8
0.520109,-0.111881,-0.122823,15,1
7.35737,-1.58266,0.394404,46,9
0.687101,-0.147929,-0.136619,25,2
9.55146,-2.05812,0.854824,34,10
5.83736,-1.25888,-0.945803,25,3
9.345,-2.01705,1.17385,55,11
7.06476,-1.52616,-0.887453,38,4
9.73142,-2.10223,1.57686,14,12
28.8594,-6.2449,5.73953,17,13
6.6212,-1.43397,-0.355047,33,6
30.7046,-6.65539,7.25332,10,14
7.00035,-1.51737,-0.125029,6,7
28.6664,-6.21885,7.85982,5,15
7.8009,-1.70372,0.139375,31,8
0.519735,-0.113606,-0.122823,15,1
7.37131,-1.6126,0.395451,42,9
0.678909,-0.148647,-0.135093,25,2
9.83615,-2.15542,0.88097,64,10
5.87561,-1.28754,-0.952686,35,3
9.51083,-2.08587,1.19554,38,11
6.6234,-1.45382,-0.832611,24,4
9.70859,-2.1328,1.57436,32,12
6.42151,-1.41186,-0.575228,48,5
29.2565,-6.43247,5.82273,9,13
6.67883,-1.46966,-0.358397,6,6
28.8591,-6.35565,6.82232,10,14
7.95775,-1.75399,-0.142237,64,7
28.3974,-6.26437,7.79201,16,15
7.44743,-1.65378,0.133162,22,8
0.542163,-0.120493,-0.128222,14,1
9.46927,-2.10622,0.508392,75,9
0.661139,-0.147177,-0.131658,26,2
9.81338,-2.18456,0.879576,64,10
5.71683,-1.27367,-0.927656,25,3
9.59068,-2.1385,1.20651,60,11
6.85271,-1.52925,-0.862104,13,4
9.74157,-2.17571,1.58093,37,12
6.90848,-1.54423,-0.619329,12,5
16.1376,-3.61014,3.21437,20,13
7.52317,-1.68438,-0.404034,39,6
28.8995,-6.4704,6.83716,40,14
6.97007,-1.56183,-0.12468,6,7
30.5564,-6.85256,8.39091,13,15
7.45302,-1.68371,0.133371,37,8
0.499901,-0.113024,-0.118324,16,1
9.45565,-2.13959,0.508078,51,9
0.668254,-0.151333,-0.133185,26,2
9.60128,-2.17431,0.861273,12,10
5.72175,-1.2968,-0.929221,18,3
9.57116,-2.171,1.20504,30,11
6.63025,-1.50514,-0.834805,24,4
16.1243,-3.66926,3.21437,13,13
6.58024,-1.49862,-0.353686,20,6
29.2138,-6.65331,6.91724,30,14
8.34078,-1.9011,-0.149323,81,7
30.7759,-7.02036,8.45821,6,15
7.43705,-1.70878,0.133197,57,8
0.518475,-0.119223,-0.122823,15,1
9.48083,-2.18185,0.509857,9,9
0.667722,-0.153665,-0.133185,26,2
7.48665,-1.7243,0.672145,22,10
6.20396,-1.43002,-1.00838,12,3
9.42968,-2.17528,1.18823,30,11
6.51444,-1.50398,-0.820912,45,4
11.5615,-2.67131,1.8794,9,12
6.42164,-1.48373,-0.576622,17,5
16.1955,-3.74499,3.23116,29,13
6.76761,-1.56616,-0.364049,27,6
28.8152,-6.67372,6.82861,40,14
7.9461,-1.84181,-0.142377,64,7
28.9001,-6.70399,7.94937,11,15
7.46804,-1.74336,0.13386,66,8
0.518056,-0.121032,-0.122823,15,1
7.40388,-1.73111,0.398486,18,9
0.674829,-0.157783,-0.134711,25,2
12.4101,-2.90391,1.11507,26,10
6.16239,-1.44311,-1.00243,32,3
11.3837,-2.66794,1.43562,33,11
6.86862,-1.61102,-0.866247,15,4
6.8897,-1.61723,-0.619154,20,5
16.1766,-3.80015,3.23002,7,13
6.6124,-1.55458,-0.355989,27,6
29.1029,-6.84746,6.9024,30,14
7.453,-1.75495,-0.133651,30,7
28.9442,-6.82078,7.968,11,15
7.50666,-1.78003,0.134663,64,8
0.51763,-0.12284,-0.122823,15,1
7.46581,-1.7731,0.40215,48,9
0.666633,-0.158323,-0.133185,26,2
9.22867,-2.19347,0.829897,24,10
6.0766,-1.44541,-0.989292,25,3
11.3415,-2.69984,1.43148,64,11
9.48339,-2.25926,-1.197,15,4
11.5387,-2.75104,1.87878,57,12
6.92665,-1.65144,-0.622989,27,5
16.0487,-3.82925,3.20712,37,13
7.30434,-1.74418,-0.393566,47,6
15.923,-3.80515,3.77963,40,14
7.32042,-1.75072,-0.131382,43,7
28.8469,-6.90424,7.94782,23,15
7.61316,-1.83338,0.136687,33,8
0.517198,-0.124646,-0.122823,15,1
7.45957,-1.79915,0.40215,39,9
0.669894,-0.161569,-0.133948,26,2
9.26163,-2.23549,0.833557,46,10
6.15216,-1.48609,-1.00243,46,3
11.3764,-2.75014,1.43708,23,11
7.11382,-1.72101,-0.898665,7,4
11.4907,-2.782,1.87252,21,12
6.8705,-1.66342,-0.618457,41,5
16.1211,-3.90606,3.22429,31,13
7.78152,-1.88686,-0.41963,32,6
7.42114,-1.80222,-0.133301,81,7
28.8846,-7.01995,7.9649,11,15
6.98513,-1.70796,0.125518,23,8
0.494045,-0.120892,-0.117424,16,1
9.28649,-2.27411,0.501064,15,9
0.661698,-0.162039,-0.132421,26,2
11.5759,-2.83689,1.04273,17,10
6.19682,-1.51979,-1.01057,62,3
11.6077,-2.84898,1.46755,59,11
7.11162,-1.74678,-0.899152,13,4
11.4674,-2.8188,1.87033,28,12
6.62445,-1.62957,-0.596843,21,5
15.9701,-3.92854,3.19681,9,13
6.90605,-1.70012,-0.372737,42,6
16.0058,-3.94325,3.80572,25,14
7.33714,-1.80896,-0.131905,79,7
28.5767,-7.05085,7.88673,22,15
10.6569,-2.64522,0.191662,13,8
0.516315,-0.128253,-0.122823,15,1
7.70462,-1.91526,0.416071,16,9
0.647763,-0.161145,-0.12975,27,2
7.43769,-1.85167,0.670576,48,10
6.27171,-1.56255,-1.02371,20,3
11.5303,-2.87269,1.45902,63,11
6.74144,-1.68083,-0.853086,34,4
11.5553,-2.8832,1.88629,86,12
6.61872,-1.65269,-0.596843,36,5
15.9251,-3.97943,3.19071,32,13
7.04509,-1.76176,-0.380587,42,6
15.9591,-3.99385,3.79807,15,14
7.61206,-1.90496,-0.136966,54,7
28.7805,-7.20781,7.94989,11,15
7.7813,-1.96175,0.140073,26,8
0.515842,-0.130145,-0.122823,15,1
7.74243,-1.95338,0.418478,8,9
0.67575,-0.170614,-0.135474,25,2
7.43698,-1.87908,0.671099,16,10
6.13791,-1.55199,-1.00275,13,3
11.0309,-2.79124,1.39711,74,11
7.02228,-1.77691,-0.889403,5,4
11.5451,-2.92351,1.88629,58,12
7.32365,-1.85589,-0.660989,17,5
15.9378,-4.04175,3.19605,27,13
7.15505,-1.81582,-0.386867,63,6
29.1225,-7.39076,6.93659,10,14
7.70809,-1.95761,-0.138816,86,7
28.9144,-7.34868,7.99389,11,15
0.515407,-0.131855,-0.122823,15,1
0.659965,-0.168959,-0.132421,26,2
6.24945,-1.60226,-1.02183,60,3
11.5907,-2.97383,1.46926,38,11
7.02788,-1.80315,-0.890865,32,4
11.5316,-2.9608,1.88566,63,12
8.17232,-2.09981,-0.738209,38,5
16.025,-4.12049,3.21628,21,13
7.17994,-1.8475,-0.388542,52,6
29.4526,-7.57859,7.02117,20,14
7.64152,-1.9677,-0.137734,77,7
36.3298,-9.3617,10.0525,9,15
7.95395,-2.06147,0.143424,26,8
0.514967,-0.133563,-0.122823,15,1
7.81981,-2.02962,0.423398,38,9
0.659371,-0.171262,-0.132421,26,2
9.09821,-2.36312,0.822402,60,10
11.6922,-3.04124,1.48339,28,11
11.4734,-2.98859,1.87784,49,12
7.89502,-2.05797,-0.713806,27,5
16.0315,-4.18186,3.22047,12,13
7.2005,-1.87962,-0.390008,45,6
29.1036,-7.59718,6.94424,41,14
7.5843,-1.98122,-0.136827,77,7
28.9347,-7.56389,8.01356,17,15
7.96568,-2.0957,0.143773,51,8
0.552165,-0.145373,-0.131821,14,1
9.2589,-2.43939,0.501797,65,9
0.662536,-0.174678,-0.133185,26,2
9.26673,-2.44319,0.838438,22,10
5.46838,-1.44277,-0.895744,5,3
11.8058,-3.11701,1.49924,42,11
7.2048,-1.90359,-0.914995,12,4
7.25759,-1.92025,-0.656806,25,5
7.33064,-1.94231,-0.397439,54,6
29.4127,-7.79314,7.02477,20,14
7.62338,-2.0213,-0.137665,54,7
32.8018,-8.70338,9.09335,15,15
7.70678,-2.05782,0.139235,28,8
0.544097,-0.145383,-0.130022,14,1
9.16307,-2.4501,0.497087,52,9
0.654335,-0.174961,-0.131658,26,2
9.33855,-2.49876,0.845759,22,10
11.8268,-3.16899,1.50338,45,11
6.41549,-1.72023,-0.81555,3,4
7.21813,-1.93679,-0.653842,32,5
7.45691,-2.00365,-0.404662,21,6
29.463,-7.92215,7.04367,10,14
7.7202,-2.07729,-0.139549,55,7
32.8611,-8.84816,9.11871,7,15
0.4662,-0.12614,-0.12941,15,0
0.513492,-0.139128,-0.122823,15,1
7.72607,-2.09478,0.419525,28,9
0.668879,-0.181354,-0.134711,25,2
5.58183,-1.5155,-0.91608,13,3
11.672,-3.17122,1.4851,52,11
6.4401,-1.75094,-0.81945,59,4
32.7447,-8.90882,5.37478,23,12
7.09405,-1.93007,-0.643209,37,5
35.3086,-9.62624,8.44916,12,14
8.03314,-2.19159,-0.145344,100,7
32.8524,-8.96891,9.12492,7,15
8.11839,-2.22856,0.146949,47,8
0.513003,-0.140919,-0.122823,15,1
0.651205,-0.179005,-0.131277,27,2
5.57841,-1.5355,-0.916393,33,3
11.502,-3.16819,1.46487,35,11
6.37845,-1.75812,-0.812381,47,4
11.4789,-3.16614,1.88597,9,12
6.72042,-1.85364,-0.609916,27,5
35.7359,-9.86345,7.20609,14,13
7.37728,-2.03758,-0.401103,29,6
7.38364,-2.04211,-0.13372,82,7
32.1059,-8.88566,8.92615,7,15
7.70022,-2.1427,0.139515,46,8
0.512508,-0.142709,-0.122823,15,1
7.69202,-2.14331,0.418478,3,9
0.667597,-0.18602,-0.134711,25,2
9.27541,-2.58625,0.842447,16,10
5.58823,-1.55921,-0.918896,35,3
11.0837,-3.09462,1.41295,91,11
6.36654,-1.77877,-0.81165,55,4
6.71391,-1.87708,-0.609916,28,5
34.0261,-9.51948,6.86798,31,13
7.99712,-2.23886,-0.435226,39,6
10.97,-3.0732,2.63013,16,14
7.61715,-2.13535,-0.138083,46,7
32.0338,-8.9862,8.91476,7,15
7.69077,-2.16902,0.13948,17,8
0.512007,-0.144497,-0.122823,15,1
0.651829,-0.18408,-0.131658,26,2
8.99982,-2.5433,0.818218,22,10
11.2638,-3.18734,1.43733,60,11
6.43669,-1.82261,-0.821399,55,4
11.4394,-3.24135,1.88316,40,12
6.64214,-1.88204,-0.603989,20,5
35.1543,-9.96755,7.10267,13,13
8.12184,-2.30437,-0.442448,72,6
10.9648,-3.11307,2.63148,32,14
7.45961,-2.1193,-0.135361,38,7
33.5594,-9.54066,9.34854,8,15
10.0904,-2.88384,0.18318,22,8
0.541477,-0.154857,-0.130022,14,1
9.51063,-2.72174,0.51844,20,9
0.643632,-0.184194,-0.130132,27,2
8.96598,-2.56757,0.815952,20,10
11.7736,-3.37601,1.50387,56,11
6.76039,-1.93979,-0.863566,36,4
11.4186,-3.27853,1.88159,14,12
6.64128,-1.90686,-0.604512,37,5
35.3042,-10.1433,7.14007,27,13
7.96786,-2.29077,-0.434493,29,6
10.9932,-3.16264,2.64093,18,14
7.38107,-2.12485,-0.134069,30,7
35.7833,-10.308,9.97799,9,15
0.510986,-0.148068,-0.122823,15,1
0.669384,-0.194094,-0.135474,25,2
10.3538,-3.00414,0.943199,48,10
5.56401,-1.61544,-0.917645,50,3
6.7288,-1.95617,-0.860398,42,4
32.1594,-9.35534,5.30469,27,12
6.83511,-1.98966,-0.622815,13,5
35.41,-10.3077,7.16869,35,13
7.34428,-2.13927,-0.400893,25,6
10.9372,-3.18791,2.63013,12,14
12.2381,-3.56941,-0.222518,46,7
35.595,-10.3885,9.93555,18,15
9.58263,-2.81124,0.174315,23,8
0.510466,-0.149851,-0.122823,15,1
0.653599,-0.192117,-0.132421,26,2
10.3274,-3.03757,0.941805,53,10
6.76328,-1.99054,-1.11663,27,3
11.1479,-3.28101,1.42685,23,11
6.66671,-1.96338,-0.853329,42,4
32.0943,-9.45805,5.29938,36,12
7.2065,-2.12509,-0.657329,30,5
11.3488,-3.34874,2.30001,4,13
7.06822,-2.08699,-0.386239,28,6
10.9404,-3.23239,2.63373,8,14
7.28551,-2.15253,-0.132603,36,7
0.462954,-0.137573,-0.12941,15,0
8.05227,-2.39437,0.146635,47,8
0.509913,-0.151721,-0.122823,15,1
9.33755,-2.7801,0.51059,11,9
0.656688,-0.195518,-0.133185,26,2
10.1335,-3.01899,0.925071,46,10
6.38714,-1.90409,-1.05562,70,3
25.6463,-7.65036,3.28609,9,11
6.61191,-1.97361,-0.847236,24,4
32.1673,-9.60784,5.31721,31,12
7.26395,-2.16962,-0.663255,30,5
7.46273,-2.23183,-0.40822,25,6
10.9272,-3.27,2.63328,26,14
7.29098,-2.18324,-0.132848,73,7
7.51157,-2.26215,0.136932,17,8
0.50938,-0.1535,-0.122823,15,1
0.642844,-0.193841,-0.130513,27,2
10.1,-3.04744,0.922979,50,10
6.27645,-1.89497,-1.03841,22,3
25.7277,-7.77256,3.29998,39,11
6.57838,-1.98864,-0.843823,50,4
32.2262,-9.74809,5.33254,36,12
6.78338,-2.0519,-0.620026,12,5
11.3289,-3.42902,2.30078,20,13
7.74162,-2.34471,-0.423921,39,6
7.20294,-2.1843,-0.131382,58,7
31.994,-9.70833,8.95876,15,15
0.506977,-0.154708,-0.122373,15,1
9.25488,-2.82597,0.507135,38,9
0.63653,-0.194364,-0.129368,27,2
10.2512,-3.13216,0.937796,59,10
6.1489,-1.87991,-1.01839,41,3
25.672,-7.85361,3.29632,39,11
6.3683,-1.94941,-0.817743,14,4
32.1448,-9.84606,5.32472,22,12
6.79713,-2.08198,-0.621943,33,5
11.3337,-3.47373,2.30421,13,13
7.68756,-2.35766,-0.421409,21,6
33.7332,-10.3519,8.14638,12,14
7.86242,-2.41429,-0.143564,40,7
32.043,-9.84549,8.98206,15,15
7.72105,-2.38416,0.14105,22,8
0.506434,-0.156477,-0.122373,15,1
0.650853,-0.201224,-0.132421,26,2
10.2155,-3.16027,0.93553,48,10
6.13286,-1.89844,-1.01682,53,3
24.9864,-7.73936,3.21175,19,11
6.57192,-2.03686,-0.844798,31,4
12.892,-3.99814,2.13783,10,12
7.01628,-2.17593,-0.642686,12,5
11.3703,-3.52839,2.31413,20,13
7.17572,-2.22812,-0.393776,39,6
10.9668,-3.40738,2.65127,58,14
7.8444,-2.43875,-0.143389,48,7
32.2372,-10.0284,9.04624,15,15
7.61343,-2.38007,0.139235,66,8
0.505885,-0.158244,-0.122373,15,1
0.642652,-0.201149,-0.130895,27,2
5.83968,-1.83004,-0.969268,42,3
25.0388,-7.85148,3.22198,57,11
6.45492,-2.02532,-0.830662,22,4
12.8535,-4.03543,2.13377,49,12
6.53532,-2.0518,-0.599283,12,5
11.3242,-3.55747,2.30726,33,13
7.2403,-2.27591,-0.397753,18,6
10.9753,-3.45207,2.65622,38,14
8.02849,-2.52675,-0.146914,89,7
32.3697,-10.1937,9.09335,7,15
7.79382,-2.46636,0.142691,40,8
0.50533,-0.160009,-0.122373,15,1
0.640074,-0.202798,-0.130513,27,2
10.4648,-3.31761,0.960456,2,10
5.44726,-1.72797,-0.90513,10,3
25.1039,-7.96826,3.23393,48,11
6.57457,-2.0881,-0.846992,56,4
12.8318,-4.07788,2.13251,30,12
6.37621,-2.02633,-0.585338,23,5
11.3978,-3.62435,2.32482,25,13
7.12193,-2.26605,-0.391682,14,6
8.00628,-2.55051,-0.14667,48,7
32.4149,-10.3324,9.11612,7,15
7.73375,-2.47708,0.141748,65,8
0.523326,-0.167719,-0.126872,15,1
15.485,-4.96571,0.852239,25,9
0.644971,-0.206829,-0.131658,26,2
10.4569,-3.35534,0.960805,14,10
25.7942,-8.28656,3.32655,20,11
6.47464,-2.08127,-0.835049,18,4
12.8024,-4.11781,2.13001,30,12
6.36305,-2.04785,-0.584815,31,5
11.4037,-3.67012,2.32863,33,13
7.01322,-2.25845,-0.386135,56,6
25.4742,-8.20831,6.17896,41,14
11.0387,-3.55901,-0.202448,9,7
7.6737,-2.48741,0.140806,56,8
0.533859,-0.173152,-0.129572,14,1
0.634872,-0.20616,-0.12975,27,2
11.4905,-3.7335,1.05702,51,10
6.46798,-2.10282,-1.07721,53,3
25.4913,-8.28756,3.2912,19,11
6.42203,-2.08912,-0.829199,50,4
12.7692,-4.15636,2.12688,8,12
6.3445,-2.06635,-0.583769,13,5
11.3491,-3.69851,2.32024,24,13
7.03907,-2.29528,-0.388019,31,6
22.854,-7.45659,5.54999,31,14
7.57575,-2.47175,-0.139096,39,7
7.61513,-2.49931,0.139898,61,8
0.503597,-0.16538,-0.122373,15,1
10.7092,-3.51894,0.590768,6,9
0.632284,-0.207762,-0.129368,27,2
11.4036,-3.74931,1.05023,67,10
6.52065,-2.14514,-1.08722,41,3
25.259,-8.31452,3.26512,9,11
6.61796,-2.17971,-0.855523,67,4
6.41294,-2.11343,-0.590742,15,5
12.4884,-4.11807,2.55608,5,13
6.90963,-2.27979,-0.38132,31,6
22.8352,-7.53876,5.55179,31,14
7.96728,-2.63184,-0.146461,56,7
44.0533,-14.5607,12.4321,16,15
7.79234,-2.58764,0.143319,60,8
0.46603,-0.154847,-0.113375,16,1
0.642733,-0.213684,-0.131658,26,2
6.33131,-2.10738,-1.05687,41,3
25.987,-8.6548,3.36311,20,11
6.69505,-2.23104,-0.866491,43,4
12.696,-4.23325,2.11969,42,12
6.34882,-2.11689,-0.585512,15,5
26.2441,-8.75571,5.37776,15,13
6.94141,-2.31718,-0.383518,35,6
22.8679,-7.63818,5.56619,31,14
8.10978,-2.71035,-0.149253,97,7
37.2307,-12.45,10.5189,10,15
7.75672,-2.6059,0.14283,28,8
0.502431,-0.168891,-0.122373,15,1
10.6901,-3.59552,0.591082,47,9
0.63454,-0.213423,-0.130132,27,2
24.4481,-8.22771,2.25681,24,10
6.3857,-2.15027,-1.0672,33,3
23.5336,-7.92909,3.04917,42,11
6.61198,-2.22903,-0.856742,47,4
12.7748,-4.30911,2.13533,45,12
6.64683,-2.24337,-0.613751,30,5
11.1535,-3.76442,2.28818,15,13
11.2969,-3.81499,-0.624891,6,6
22.8282,-7.71359,5.56304,25,14
7.95819,-2.6906,-0.146635,89,7
35.8291,-12.1205,10.1348,9,15
7.63776,-2.59565,0.140806,51,8
0.523978,-0.178173,-0.127772,14,1
10.6945,-3.63861,0.592024,45,9
0.635612,-0.21638,-0.130513,27,2
24.035,-8.18685,2.22143,23,10
6.35347,-2.16537,-1.06313,46,3
25.2645,-8.61059,3.27731,9,11
6.74883,-2.30143,-0.875509,31,4
12.8625,-4.38876,2.15254,14,12
6.65782,-2.27299,-0.615494,8,5
11.1601,-3.81225,2.29238,52,13
7.79023,-2.66264,-0.431458,7,6
22.927,-7.84072,5.59408,32,14
7.55141,-2.58248,-0.139305,63,7
24.9075,-8.52289,7.05385,4,15
7.61307,-2.61842,0.140527,61,8
0.501209,-0.172482,-0.122373,15,1
10.5476,-3.62977,0.584593,61,9
0.636709,-0.219236,-0.130895,27,2
24.0025,-8.2694,2.22108,46,10
5.63434,-1.94226,-0.943926,8,3
25.0527,-8.64099,3.25391,9,11
6.6728,-2.30284,-0.866735,11,4
6.46152,-2.23119,-0.598063,31,5
8.79645,-3.04089,-0.487771,18,6
22.7669,-7.87484,5.56169,31,14
7.1965,-2.4892,-0.132918,66,7
29.0528,-10.0547,8.23769,12,15
7.54579,-2.62329,0.139445,63,8
0.530084,-0.184387,-0.129572,14,1
10.565,-3.67707,0.586267,58,9
0.647064,-0.225331,-0.133185,26,2
23.9735,-8.35313,2.22108,46,10
5.60175,-1.95183,-0.939546,33,3
11.0086,-3.83792,1.43148,33,11
7.63228,-2.66232,-0.992504,48,4
7.06501,-2.46721,-0.654714,23,5
25.0165,-8.73616,5.1507,14,13
6.45398,-2.2551,-0.358292,27,6
23.046,-8.05705,5.63637,6,14
7.26894,-2.5427,-0.134418,30,7
24.944,-8.73039,7.08129,21,15
7.54602,-2.65293,0.139619,35,8
0.477964,-0.16813,-0.116975,16,1
10.4353,-3.67282,0.579778,41,9
0.638905,-0.224869,-0.131658,26,2
24.0565,-8.47163,2.23136,23,10
5.57069,-1.96284,-0.935478,12,3
11.0008,-3.8783,1.43221,57,11
6.59894,-2.32774,-0.859179,29,4
12.2141,-4.31086,2.05148,8,12
6.78061,-2.39315,-0.62909,32,5
11.2369,-3.96816,2.31642,25,13
6.94511,-2.45394,-0.38603,21,6
22.8175,-8.06665,5.58733,32,14
7.35428,-2.6014,-0.136164,68,7
24.8515,-8.7955,7.06369,21,15
7.38975,-2.62701,0.136897,22,8
0.481046,-0.171104,-0.117874,16,1
7.84836,-2.79313,0.436587,30,9
0.61962,-0.220515,-0.127842,28,2
24.1657,-8.60501,2.24426,11,10
10.9797,-3.91401,1.43123,40,11
6.61882,-2.36076,-0.862835,30,4
12.0948,-4.31629,2.03396,23,12
7.01991,-2.5052,-0.652099,8,5
22.7672,-8.13838,5.58194,32,14
7.06084,-2.52537,-0.130893,50,7
24.857,-8.89521,7.07404,30,15
0.498783,-0.179376,-0.122373,15,1
10.3775,-3.73408,0.577998,25,9
0.607725,-0.218794,-0.125552,29,2
15.293,-5.50582,1.42203,46,10
6.29095,-2.26612,-1.05906,43,3
11.0537,-3.98395,1.44269,40,11
6.41474,-2.31577,-0.596668,25,5
7.49651,-2.70926,-0.417746,58,6
22.636,-8.18071,5.55674,31,14
6.98992,-2.52756,-0.129741,78,7
24.3135,-8.79658,6.92807,21,15
7.69589,-2.79803,0.142935,27,8
0.498123,-0.181203,-0.122373,15,1
7.77938,-2.83146,0.433865,14,9
0.632745,-0.230426,-0.130895,27,2
6.28074,-2.28849,-1.05875,66,3
11.0167,-4.01628,1.43976,47,11
6.9076,-2.51962,-0.902808,10,4
10.1876,-3.71804,1.71765,47,12
6.40621,-2.33927,-0.596668,5,5
12.2776,-4.48567,2.54081,32,13
7.50529,-2.74358,-0.418792,32,6
11.518,-4.21042,2.83123,31,14
6.99188,-2.55728,-0.129951,42,7
24.7927,-9.07285,7.07404,21,15
0.543979,-0.19993,-0.155291,12,0
7.66681,-2.81932,0.142586,13,8
0.499284,-0.183701,-0.122823,15,1
0.628212,-0.231386,-0.130132,27,2
11.7486,-4.3273,1.09537,42,10
6.27602,-2.31286,-1.05937,57,3
6.66738,-2.45973,-0.872585,39,4
10.1924,-3.76219,1.72078,54,12
6.40133,-2.36411,-0.597017,23,5
7.04184,-2.60346,-0.393462,39,6
10.117,-3.74038,2.49021,22,14
6.96183,-2.57526,-0.129567,28,7
23.9948,-8.88069,6.8556,16,15
0.543242,-0.201922,-0.155291,12,0
7.55709,-2.81046,0.140736,43,8
0.498607,-0.185529,-0.122823,15,1
10.5043,-3.91068,0.587419,60,9
0.62368,-0.232316,-0.129368,27,2
11.7289,-4.36894,1.09502,27,10
6.2638,-2.33446,-1.05875,28,3
11.0334,-4.11426,1.44586,23,11
6.61554,-2.46819,-0.866979,29,4
10.1896,-3.80367,1.72266,56,12
7.13921,-2.6664,-0.666741,5,5
24.5844,-9.18683,5.10147,3,13
7.31661,-2.73557,-0.409372,72,6
9.99916,-3.73853,2.46456,71,14
6.73508,-2.51948,-0.125518,27,7
23.9982,-8.98212,6.86595,12,15
7.4897,-2.8137,0.139654,16,8
0.4761,-0.178954,-0.117424,16,1
10.4445,-3.92791,0.584802,39,9
0.630298,-0.237039,-0.130895,27,2
10.9442,-4.11802,1.02303,19,10
11.0253,-4.15293,1.44659,37,11
6.56274,-2.47331,-0.861129,55,4
10.2417,-3.86183,1.73361,22,12
7.15642,-2.69991,-0.669182,32,5
24.0704,-9.08106,5.00072,6,13
7.11738,-2.6866,-0.398695,50,6
10.0195,-3.78406,2.47266,50,14
6.79029,-2.56584,-0.126704,48,7
24.0261,-9.08351,6.88252,20,15
7.38262,-2.80292,0.137839,15,8
0.51555,-0.195839,-0.127322,15,1
10.4625,-3.97641,0.586581,35,9
0.625755,-0.237952,-0.130132,27,2
10.9309,-4.15882,1.02321,27,10
6.47812,-2.46598,-1.09786,62,3
11.0423,-4.20339,1.45073,13,11
6.61528,-2.51952,-0.869172,51,4
10.313,-3.92991,1.748,37,12
7.02781,-2.67944,-0.658026,32,5
24.5396,-9.36095,5.10529,3,13
7.38925,-2.8202,-0.414501,58,6
10.1767,-3.88611,2.51495,20,14
6.78316,-2.59024,-0.126739,34,7
24.0881,-9.20318,6.90943,24,15
15.6575,-6.01035,0.292747,8,8
0.496637,-0.190741,-0.122823,15,1
10.5149,-4.04052,0.59035,36,9
0.62492,-0.240135,-0.130132,27,2
11.385,-4.37712,1.06713,29,10
6.48053,-2.49283,-1.09973,38,3
24.1952,-9.31192,3.18323,9,11
6.55969,-2.52591,-0.863079,9,4
10.905,-4.20133,1.85093,44,12
6.92174,-2.66671,-0.648962,30,5
24.1587,-9.31239,5.03278,6,13
7.34023,-2.83089,-0.412303,76,6
10.1613,-3.92091,2.5145,9,14
7.36312,-2.84267,-0.137769,38,7
23.8073,-9.19604,6.83852,16,15
10.4591,-4.05681,0.195816,10,8
0.470534,-0.182603,-0.116525,16,1
10.3686,-4.02587,0.582918,14,9
0.616757,-0.239472,-0.128605,28,2
15.1843,-5.89874,1.42517,21,10
6.51966,-2.53405,-1.10787,15,3
10.7529,-4.18158,1.41661,40,11
6.53419,-2.54232,-0.860885,14,4
10.8498,-4.22361,1.84405,49,12
6.96994,-2.71326,-0.654365,38,5
28.6739,-11.168,5.98148,4,13
7.33775,-2.85939,-0.412721,32,6
10.0803,-3.93016,2.49786,31,14
6.8725,-2.68086,-0.128764,56,7
23.8363,-9.30297,6.85612,4,15
7.3505,-2.88063,0.137804,15,8
0.469894,-0.184244,-0.116525,16,1
10.2559,-4.02338,0.57737,43,9
0.623228,-0.244492,-0.130132,27,2
11.5767,-4.54385,1.08805,22,10
6.88954,-2.70553,-1.17232,16,3
10.7918,-4.24014,1.42368,30,11
6.5419,-2.57165,-0.863079,32,4
10.9269,-4.2976,1.85969,42,12
6.97341,-2.74268,-0.655585,31,5
23.9525,-9.42546,5.00339,16,13
7.35188,-2.8945,-0.414082,43,6
23.0233,-9.06911,5.71286,34,14
6.83334,-2.6931,-0.128205,56,7
23.7785,-9.37619,6.84887,4,15
11.0627,-4.38002,0.207684,33,8
0.494613,-0.195931,-0.122823,15,1
10.1861,-4.03708,0.57423,38,9
0.626021,-0.248112,-0.130895,27,2
11.4719,-4.54898,1.07969,20,10
7.03429,-2.79076,-1.1986,6,3
10.4485,-4.14742,1.38029,39,11
6.62144,-2.62964,-0.874778,6,4
10.8769,-4.32186,1.85375,40,12
6.88047,-2.7339,-0.647741,33,5
23.9522,-9.52207,5.01026,10,13
7.4271,-2.9541,-0.418897,39,6
23.3663,-9.29857,5.80599,35,14
6.82947,-2.71916,-0.12831,70,7
23.5177,-9.36834,6.78313,12,15
0.538147,-0.215134,-0.155291,12,0
15.1172,-6.04643,0.284195,30,8
0.472215,-0.188968,-0.117424,16,1
9.98354,-3.99515,0.563554,32,9
0.614216,-0.245918,-0.128605,28,2
11.5391,-4.62234,1.08753,24,10
10.5114,-4.2149,1.39053,42,11
6.3635,-2.55295,-0.841874,9,4
10.373,-4.16152,1.77021,38,12
6.95224,-2.79056,-0.655411,38,5
10.4573,-4.19958,2.19049,10,13
7.21289,-2.8981,-0.407383,39,6
23.2577,-9.34955,5.78709,35,14
6.93916,-2.78952,-0.130544,72,7
23.7518,-9.55297,6.85974,16,15
11.2792,-4.5548,0.212326,27,8
0.529404,-0.213893,-0.131821,14,1
9.94361,-4.0195,0.562088,50,9
0.631554,-0.255421,-0.132421,26,2
11.4712,-4.64166,1.08265,49,10
6.75877,-2.73484,-1.1548,42,3
10.6574,-4.31454,1.41173,13,11
6.31268,-2.5569,-0.836268,32,4
10.2797,-4.16581,1.75676,39,12
6.8926,-2.79459,-0.650705,31,5
7.18473,-2.91449,-0.406336,43,6
23.2067,-9.41856,5.78214,21,14
6.89232,-2.79868,-0.129846,78,7
23.5393,-9.56311,6.80798,16,15
11.3354,-4.6236,0.213687,26,8
0.492569,-0.201014,-0.122823,15,1
9.85925,-4.02549,0.558111,37,9
0.619754,-0.253169,-0.130132,27,2
11.3322,-4.6292,1.07097,18,10
6.98507,-2.85482,-1.19516,66,3
11.4949,-4.70033,1.52483,38,11
6.26881,-2.56464,-0.831636,52,4
10.3072,-4.21887,1.76396,16,12
6.98422,-2.86016,-0.660292,28,5
28.4274,-11.6474,5.97156,9,13
7.1278,-2.92187,-0.40372,50,6
23.4172,-9.5993,5.84288,29,14
7.02682,-2.88191,-0.132568,29,7
23.2824,-9.55354,6.74327,16,15
11.3757,-4.68874,0.214769,7,8
0.47021,-0.193903,-0.117424,16,1
9.82043,-4.0517,0.55675,21,9
0.62971,-0.259934,-0.132421,26,2
13.7259,-5.66581,1.29914,14,10
6.69886,-2.76654,-1.14792,48,3
11.2757,-4.65904,1.49802,38,11
6.58958,-2.72411,-0.875509,24,4
10.9652,-4.53521,1.8794,44,12
7.24799,-2.99925,-0.686264,12,5
23.7445,-9.83044,4.99538,3,13
7.1724,-2.9709,-0.40686,50,6
23.479,-9.72533,5.86717,21,14
7.08457,-2.93597,-0.13386,37,7
23.3703,-9.68987,6.77899,12,15
11.2496,-4.68504,0.21271,10,8
0.469496,-0.195625,-0.117424,16,1
12.0712,-5.03216,0.685392,14,9
0.60343,-0.251554,-0.127079,28,2
11.5149,-4.80264,1.09154,18,10
5.92848,-2.47386,-1.01745,42,3
10.5405,-4.40055,1.40247,35,11
6.28098,-2.62353,-0.83578,50,4
10.9011,-4.55557,1.87127,39,12
6.89555,-2.88164,-0.653842,31,5
28.3524,-11.8543,5.97347,23,13
7.26332,-3.03831,-0.412617,29,6
11.3612,-4.75482,2.84338,12,14
7.142,-2.99049,-0.135151,53,7
23.5699,-9.87399,6.84732,8,15
11.4248,-4.80491,0.21634,37,8
0.490365,-0.206332,-0.122823,15,1
14.7006,-6.18861,0.83591,8,9
0.613405,-0.25823,-0.129368,27,2
11.4999,-4.84358,1.09171,18,10
5.96713,-2.51448,-1.02558,16,3
10.505,-4.42883,1.39979,6,11
6.73088,-2.83908,-0.896958,40,4
10.8142,-4.56364,1.85907,39,12
6.97723,-2.94443,-0.662558,7,5
11.0183,-4.65206,2.32482,10,13
7.20484,-3.04344,-0.409895,18,6
11.0448,-4.66776,2.76825,34,14
7.56987,-3.20075,-0.143459,48,7
24.0744,-10.1843,7.00416,21,15
7.72129,-3.27908,0.146426,30,8
0.489642,-0.208042,-0.122823,15,1
11.1057,-4.72094,0.632428,21,9
0.626954,-0.266514,-0.132421,26,2
10.8944,-4.63339,1.03576,48,10
6.56542,-2.79362,-1.13008,13,3
11.273,-4.79904,1.50436,38,11
6.97241,-2.97111,-0.663081,2,5
7.25296,-3.09365,-0.413245,47,6
10.5229,-4.49059,2.64138,44,14
7.7205,-3.29626,-0.14653,56,7
9.95408,-4.25193,2.90033,11,15
7.67855,-3.29262,0.145832,11,8
0.488912,-0.20975,-0.122823,15,1
8.24067,-3.53707,0.469977,8,9
0.622411,-0.267152,-0.131658,26,2
11.0301,-4.73664,1.05023,18,10
11.2671,-4.84307,1.50582,38,11
7.93818,-3.41379,-1.06099,5,4
6.1677,-2.65368,-0.58743,11,5
11.0108,-4.73973,2.33016,32,13
7.52094,-3.23903,-0.429155,39,6
10.466,-4.50956,2.63103,72,14
7.23149,-3.11737,-0.137455,31,7
9.96578,-4.29813,2.90809,25,15
0.459566,-0.199063,-0.115625,16,1
8.1733,-3.54198,0.466837,10,9
0.607018,-0.263184,-0.128605,28,2
10.8051,-4.68476,1.03036,34,10
5.93685,-2.57526,-1.02496,33,3
11.4377,-4.96376,1.53092,35,11
6.07986,-2.63981,-0.813844,4,4
10.8075,-4.69474,1.86626,43,12
6.29863,-2.73742,-0.600852,36,5
11.0654,-4.81137,2.34542,40,13
7.1647,-3.11679,-0.409477,39,6
10.4556,-4.54839,2.63238,50,14
11.1371,-4.84715,-0.212012,67,7
9.93478,-4.32595,2.90343,33,15
11.015,-4.81691,0.209848,16,8
0.501682,-0.219492,-0.126422,15,1
8.19869,-3.58874,0.469035,24,9
0.613243,-0.268557,-0.130132,27,2
10.9102,-4.77788,1.04203,23,10
5.99975,-2.62871,-1.03747,60,3
10.2959,-4.51314,1.38029,6,11
5.92289,-2.5975,-0.794101,6,4
6.34146,-2.78371,-0.605907,15,5
6.92283,-3.04179,-0.396288,68,6
10.421,-4.57885,2.62788,40,14
9.19706,-4.04297,-0.175362,79,7
11.7562,-5.1704,3.44126,20,15
0.515134,-0.227631,-0.130022,14,1
11.4809,-5.07563,0.657863,39,9
0.601528,-0.265933,-0.127842,28,2
11.0876,-4.90407,1.06069,11,10
5.9973,-2.65388,-1.03873,32,3
10.301,-4.56049,1.38322,13,11
6.21331,-2.75336,-0.594576,50,5
6.83915,-3.03355,-0.392101,45,6
10.3561,-4.59567,2.61573,22,14
11.1414,-4.94651,-0.21278,28,7
11.1122,-4.93585,3.25801,12,15
7.43705,-3.31585,0.142132,63,8
0.507217,-0.226252,-0.128222,14,1
10.8885,-4.85928,0.624891,38,9
0.607768,-0.271231,-0.129368,27,2
11.1177,-4.96386,1.06522,51,10
5.82206,-2.60068,-1.00994,52,3
11.1387,-4.9779,1.49802,38,11
6.47137,-2.89343,-0.870391,24,4
11.6414,-5.20745,2.01988,32,12
6.1982,-2.77259,-0.594054,43,5
10.734,-4.8038,2.28589,28,13
6.58243,-2.94722,-0.37797,31,6
10.3524,-4.63737,2.61888,34,14
6.8011,-3.04798,-0.13009,57,7
9.93322,-4.45375,2.91689,27,15
7.50202,-3.37626,0.143598,10,8
0.506424,-0.228021,-0.128222,14,1
0.624717,-0.281415,-0.133185,26,2
11.2129,-5.0534,1.07602,27,10
5.94621,-2.68107,-1.03309,53,3
11.0108,-4.96696,1.48315,35,11
6.1066,-2.75595,-0.822618,75,4
11.2298,-5.06807,1.95136,17,12
6.08861,-2.74911,-0.584466,32,5
11.508,-5.19847,2.45457,13,13
6.96704,-3.14867,-0.400684,39,6
10.3291,-4.67026,2.61708,16,14
7.31208,-3.30614,-0.140073,64,7
9.90431,-4.4803,2.91275,21,15
0.527708,-0.239601,-0.155291,12,0
7.48531,-3.39864,0.143494,15,8
0.484374,-0.220028,-0.122823,15,1
0.627306,-0.285219,-0.133948,26,2
11.3366,-5.15685,1.08962,9,10
6.27353,-2.85372,-1.0916,26,3
10.9654,-4.99029,1.47925,31,11
6.34132,-2.88723,-0.855523,20,4
11.3199,-5.15637,1.97014,34,12
6.20952,-2.82984,-0.597017,27,5
6.56039,-2.99113,-0.377866,14,6
7.2914,-3.32749,-0.139898,100,7
9.87982,-4.51083,2.91016,25,15
7.99514,-3.66384,0.153511,30,8
0.483603,-0.221717,-0.122823,15,1
10.9396,-5.01778,0.630753,38,9
0.608463,-0.279218,-0.130132,27,2
12.1615,-5.58082,1.17068,37,10
6.43228,-2.95308,-1.12101,72,3
11.0652,-5.08239,1.49509,21,11
6.46468,-2.97069,-0.87356,41,4
11.0559,-5.08281,1.92727,33,12
6.36613,-2.92809,-0.613054,30,5
10.7134,-4.92989,2.29238,12,13
6.50403,-2.99427,-0.375249,28,6
10.1306,-4.66386,2.57479,46,14
7.27247,-3.34958,-0.139759,80,7
11.0633,-5.11897,0.21278,25,8
0.461566,-0.213665,-0.117424,16,1
10.8505,-5.02511,0.626671,19,9
0.60031,-0.278145,-0.128605,28,2
11.8065,-5.4704,1.13843,11,10
6.54328,-3.03313,-1.14228,42,3
11.1221,-5.15799,1.50533,28,11
6.42494,-2.98099,-0.86966,21,4
11.263,-5.22809,1.96669,28,12
6.30476,-2.92791,-0.608173,32,5
10.4941,-4.87565,2.24926,33,13
6.45498,-3.00041,-0.373051,38,6
10.1311,-4.70917,2.57929,46,14
7.44691,-3.46306,-0.143354,88,7
24.923,-11.5953,7.36547,9,15
7.834,-3.65972,0.150928,10,8
0.481965,-0.225256,-0.122823,15,1
10.6311,-4.97094,0.615052,39,9
0.59573,-0.27868,-0.127842,28,2
11.5897,-5.42162,1.11943,28,10
6.38362,-2.98759,-1.11632,66,3
10.6411,-4.98238,1.44269,33,11
6.38521,-2.99105,-0.86576,14,4
10.9987,-5.1545,1.92383,24,12
6.3932,-2.99752,-0.61776,35,5
10.4122,-4.88406,2.23552,40,13
6.47287,-3.03763,-0.374725,14,6
10.1985,-4.78601,2.60088,22,14
7.55544,-3.54727,-0.145693,89,7
10.654,-5.00431,3.15397,7,15
7.03016,-3.31564,0.135675,20,8
0.456462,-0.215379,-0.116525,16,1
7.64536,-3.60905,0.443076,12,9
0.612457,-0.289245,-0.131658,26,2
10.0835,-4.76212,0.975621,10,10
6.31369,-2.98312,-1.10599,42,3
10.6443,-5.03153,1.44561,33,11
6.29524,-2.97709,-0.855035,40,4
10.8244,-5.12128,1.89661,45,12
6.34075,-3.00132,-0.613751,27,5
10.4829,-4.9642,2.2546,39,13
6.38949,-3.02712,-0.370539,7,6
11.0227,-5.22218,2.81594,31,14
7.50445,-3.55695,-0.14496,65,7
10.6565,-5.05326,3.16018,41,15
7.5717,-3.60179,0.146356,40,8
0.480381,-0.228615,-0.122823,15,1
0.604455,-0.287792,-0.130132,27,2
10.1503,-4.83494,0.98364,27,10
6.27167,-2.98874,-1.10036,56,3
10.6652,-5.08474,1.45073,20,11
6.25846,-2.98513,-0.851379,33,4
10.5461,-5.03024,1.85062,40,12
6.30792,-3.01007,-0.611485,26,5
10.4938,-5.0098,2.26032,13,13
6.35292,-3.03427,-0.368969,14,6
10.3635,-4.95203,2.65172,22,14
7.47519,-3.57189,-0.144611,89,7
10.6546,-5.09338,3.16432,23,15
7.59397,-3.64331,0.147019,67,8
0.47962,-0.230207,-0.122823,15,1
10.8693,-5.21934,0.631904,21,9
0.578671,-0.277998,-0.124789,29,2
10.1765,-4.89106,0.987823,29,10
6.20475,-2.98214,-1.09035,47,3
10.7842,-5.18546,1.46926,21,11
6.13762,-2.95252,-0.836268,45,4
10.5712,-5.08759,1.85813,23,12
6.27224,-3.01997,-0.609044,43,5
6.3914,-3.07872,-0.371795,14,6
10.34,-4.98299,2.64992,8,14
7.30597,-3.52241,-0.141574,88,7
11.0404,-5.32526,3.28441,22,15
7.44802,-3.60532,0.144436,38,8
0.478813,-0.23188,-0.122823,15,1
13.078,-6.33622,0.761593,12,9
0.591831,-0.286867,-0.127842,28,2
10.2015,-4.94477,0.991832,17,10
6.13742,-2.9762,-1.08034,33,3
10.6142,-5.14942,1.44854,27,11
6.22728,-3.02246,-0.849917,13,4
6.24015,-3.0314,-0.606953,26,5
10.4304,-5.06921,2.25422,19,13
6.42678,-3.12484,-0.374516,14,6
11.1656,-5.42893,2.86633,23,14
7.25766,-3.53039,-0.140876,100,7
10.5927,-5.15496,3.15656,35,15
7.81026,-3.81607,0.151731,70,8
0.442945,-0.216517,-0.113825,16,1
10.9985,-5.37859,0.641639,7,9
0.569613,-0.278681,-0.123263,30,2
10.2173,-4.99876,0.995144,27,10
6.05018,-2.96133,-1.06688,57,3
10.6203,-5.20051,1.45195,33,11
6.13416,-3.00509,-0.838705,45,4
10.6818,-5.23526,1.8841,16,12
6.19143,-3.03583,-0.603292,40,5
10.3923,-5.09789,2.25002,23,13
6.08896,-2.98822,-0.355466,3,6
11.1001,-5.44749,2.85463,46,14
7.11723,-3.4944,-0.138398,86,7
10.4888,-5.15202,3.13119,36,15
0.498072,-0.24573,-0.128222,14,1
10.8686,-5.36216,0.635149,33,9
0.5792,-0.285881,-0.125552,29,2
10.3132,-5.09263,1.0063,25,10
6.03043,-2.97911,-1.06532,37,3
10.4712,-5.1752,1.43416,37,11
6.14802,-3.03987,-0.842117,48,4
6.20401,-3.06891,-0.605558,35,5
11.3035,-5.59391,2.45151,17,13
6.05701,-2.99883,-0.35421,33,6
11.1516,-5.5236,2.87307,34,14
7.14799,-3.54052,-0.139235,63,7
10.4932,-5.19975,3.13792,31,15
7.91235,-3.93461,0.154244,30,8
0.476317,-0.236964,-0.122823,15,1
10.8266,-5.38849,0.633788,40,9
0.609832,-0.303653,-0.132421,26,2
10.1705,-5.06642,0.994098,19,10
5.85785,-2.91806,-1.03653,27,3
10.6388,-5.30198,1.45951,17,11
6.54117,-3.26131,-0.897446,40,4
10.2985,-5.13689,1.82277,41,12
6.40185,-3.19463,-0.625953,17,5
10.2924,-5.13608,2.2359,24,13
6.06669,-3.02871,-0.355361,27,6
11.3442,-5.66591,2.92751,34,14
7.1499,-3.5726,-0.139515,47,7
10.8396,-5.4186,3.24714,11,15
7.91644,-3.97117,0.154593,58,8
0.503355,-0.252611,-0.130022,14,1
10.6256,-5.33484,0.623112,23,9
0.587768,-0.295102,-0.127842,28,2
10.232,-5.13946,1.00177,4,10
9.65182,-4.85225,1.32643,6,11
6.55635,-3.2975,-0.901102,26,4
10.2858,-5.17547,1.82371,34,12
6.33371,-3.18829,-0.620375,27,5
10.2972,-5.18345,2.24086,16,13
6.15241,-3.09838,-0.361013,27,6
6.83025,-3.44273,-0.133511,81,7
10.517,-5.30332,3.15604,5,15
10.8198,-5.47497,0.211663,13,8
0.474652,-0.240284,-0.122823,15,1
10.7709,-5.45492,0.632742,35,9
0.576175,-0.291931,-0.125552,29,2
4.68284,-2.37471,-0.831606,45,3
9.63483,-4.88591,1.32643,46,11
6.22969,-3.1605,-0.857717,31,4
10.2959,-5.22564,1.82872,43,12
6.29056,-3.19415,-0.617237,13,5
11.1428,-5.6604,2.42938,23,13
6.26031,-3.18153,-0.368026,38,6
11.0671,-5.62683,2.86633,23,14
7.01783,-3.56805,-0.13742,62,7
10.4382,-5.30934,3.13792,12,15
7.94481,-4.05682,0.15571,10,8
0.473768,-0.242022,-0.122823,15,1
10.5481,-5.39075,0.620809,28,9
0.578648,-0.295727,-0.126316,28,2
10.2535,-5.24248,1.00752,2,10
4.66397,-2.38565,-0.829729,17,3
9.62392,-4.92481,1.3274,40,11
6.19509,-3.17155,-0.854548,21,4
10.4648,-5.3597,1.8622,37,12
6.14228,-3.14722,-0.603815,28,5
11.4357,-5.85951,2.49769,23,13
6.01455,-3.0831,-0.35421,33,6
11.044,-5.66365,2.86543,23,14
7.13459,-3.66039,-0.139968,48,7
10.4238,-5.35021,3.13948,28,15
7.98749,-4.11383,0.156827,13,8
0.493708,-0.254385,-0.128222,14,1
10.6392,-5.48427,0.627299,28,9
0.58105,-0.299646,-0.127079,28,2
10.2165,-5.27089,1.00578,17,10
9.65959,-4.98569,1.33471,25,11
6.15752,-3.1795,-0.850892,50,4
10.3512,-5.34724,1.8453,17,12
5.95957,-3.07991,-0.586907,28,5
10.1463,-5.24588,2.22025,7,13
5.92693,-3.06567,-0.349709,40,6
5.82884,-3.01622,-0.114558,11,7
10.3879,-5.37769,3.1343,35,15
7.96526,-4.13939,0.156688,6,8
0.451275,-0.234619,-0.117424,16,1
10.977,-5.70939,0.648443,14,9
0.600902,-0.312543,-0.131658,26,2
10.1345,-5.27341,0.999502,23,10
4.68183,-2.4372,-0.835986,10,3
9.59548,-4.99722,1.32838,43,11
6.14407,-3.20113,-0.850648,15,4
10.3526,-5.39609,1.84906,23,12
6.04065,-3.14859,-0.595971,31,5
5.92682,-3.09188,-0.350337,37,6
11.1414,-5.81466,2.90142,10,14
7.70027,-4.02047,-0.151627,49,7
10.3647,-5.41393,3.13326,23,15
7.64967,-4.00936,0.150754,13,8
0.436647,-0.228953,-0.113825,16,1
10.911,-5.72355,0.645721,10,9
0.575467,-0.301871,-0.126316,14,2
10.0701,-5.28469,0.99497,2,10
4.70302,-2.46914,-0.841305,10,3
9.57446,-5.02884,1.32789,12,11
6.1434,-3.22809,-0.852111,32,4
10.4088,-5.47172,1.86251,43,12
6.22185,-3.2707,-0.614971,37,5
10.0973,-5.31019,2.21758,35,13
5.93366,-3.12185,-0.351384,37,6
11.0848,-5.83446,2.89197,25,14
5.95927,-3.13798,-0.117559,6,7
10.3269,-5.44018,3.12757,7,15
7.58259,-4.008,0.149707,13,8
0.453072,-0.239586,-0.118324,16,1
10.7956,-5.71117,0.640069,43,9
0.591764,-0.313058,-0.130132,27,2
10.0516,-5.31981,0.99497,2,10
4.71882,-2.49848,-0.845685,7,3
9.23934,-4.89404,1.28377,24,11
6.1128,-3.23929,-0.849429,25,4
10.4002,-5.51357,1.86439,28,12
6.11006,-3.23921,-0.605035,11,5
11.4575,-6.0767,2.52097,34,13
5.9492,-3.15659,-0.352954,37,6
11.0454,-5.86306,2.88702,40,14
5.89177,-3.12875,-0.116442,6,7
10.296,-5.46985,3.12395,5,15
7.1168,-3.79364,0.140771,25,8
0.469428,-0.250335,-0.122823,15,1
10.7721,-5.74694,0.639859,9,9
0.580274,-0.309577,-0.127842,28,2
9.98024,-5.32672,0.989741,25,10
9.24847,-4.94029,1.28743,45,11
6.01042,-3.21196,-0.836755,6,4
12.0445,-6.43927,2.16318,22,12
6.48878,-3.46905,-0.643732,15,5
9.99072,-5.34351,2.20232,9,13
6.13009,-3.28004,-0.364363,37,6
11.0472,-5.91354,2.89287,48,14
5.88434,-3.15119,-0.116512,60,7
10.9648,-5.87432,3.33307,24,15
7.09999,-3.81656,0.140701,12,8
0.468551,-0.251972,-0.122823,15,1
10.9349,-5.88292,0.650745,7,9
0.586106,-0.315322,-0.129368,27,2
10.0704,-5.42006,1.00055,23,10
9.28359,-5.00079,1.29474,42,11
6.54439,-3.52674,-0.912801,5,4
11.9976,-6.46815,2.1588,28,12
6.26618,-3.37822,-0.622815,16,5
6.37875,-3.44178,-0.379854,45,6
11.126,-6.00575,2.91896,48,14
7.2211,-3.89955,-0.143249,16,7
10.9595,-5.92083,3.33773,13,15
10.5078,-5.69575,0.208626,17,8
0.443686,-0.240601,-0.116525,16,1
0.58155,-0.315493,-0.128605,28,2
10.3788,-5.63291,1.03314,27,10
4.82607,-2.62034,-0.869776,1,3
9.34807,-5.0777,1.3062,36,11
5.48028,-2.97803,-0.765827,1,4
10.1891,-5.53915,1.83685,43,12
6.99654,-3.80356,-0.696723,15,5
9.78932,-5.32402,2.16606,40,13
6.04038,-3.28648,-0.360385,37,6
11.2864,-6.14331,2.96665,38,14
5.89381,-3.2094,-0.117141,18,7
12.0889,-6.58563,3.68869,11,15
10.5492,-5.76596,0.209848,40,8
0.446263,-0.244018,-0.117424,16,1
11.9835,-6.55531,0.715851,21,9
0.573556,-0.313753,-0.127079,28,2
10.1406,-5.54954,1.01136,23,10
4.84115,-2.65045,-0.874156,30,3
9.13355,-5.00254,1.27865,27,11
5.4716,-2.99809,-0.766071,19,4
10.1022,-5.53766,1.82465,42,12
6.33968,-3.47663,-0.632576,53,5
9.81027,-5.37987,2.17484,38,13
5.71543,-3.13559,-0.341649,50,6
5.88607,-3.23188,-0.11721,24,7
10.9433,-6.01114,3.3455,11,15
10.6254,-5.85584,0.211768,11,8
0.486366,-0.268156,-0.128222,14,1
11.7909,-6.50353,0.705698,42,9
0.565526,-0.312059,-0.125552,29,2
10.0086,-5.52504,1.0002,27,10
6.00207,-3.31469,-1.08597,28,3
9.27764,-5.12364,1.30132,30,11
5.51496,-3.04693,-0.773627,17,4
10.0914,-5.57766,1.82622,36,12
6.63437,-3.66842,-0.663255,27,5
9.9932,-5.52793,2.21987,14,13
6.27883,-3.47468,-0.376086,35,6
9.65315,-5.34422,2.54735,61,14
6.0777,-3.36476,-0.121259,6,7
10.9797,-6.08113,3.36309,24,15
10.5986,-5.89183,0.211663,20,8
0.444505,-0.247205,-0.117424,16,1
11.7774,-6.55253,0.706326,38,9
0.571296,-0.317849,-0.127079,28,2
10.2556,-5.7082,1.02687,34,10
5.96113,-3.31928,-1.08065,12,3
9.47557,-5.27837,1.33179,34,11
5.54711,-3.09129,-0.77972,39,4
11.8929,-6.63038,2.15661,46,12
6.74856,-3.76238,-0.67598,26,5
9.8504,-5.49393,2.1924,33,13
5.72598,-3.1949,-0.343638,37,6
9.52894,-5.319,2.51945,20,14
7.78854,-4.3493,-0.15571,41,7
10.8899,-6.08364,3.34239,37,15
7.63343,-4.27843,0.152743,40,8
0.464037,-0.260192,-0.122823,15,1
11.7179,-6.57308,0.704128,35,9
0.577032,-0.323683,-0.128605,28,2
10.0358,-5.63183,1.00682,10,10
6.08041,-3.41356,-1.10443,15,3
11.7262,-6.5858,1.65133,22,11
5.53628,-3.11063,-0.77972,26,4
12.0488,-6.77252,2.18914,43,12
6.00245,-3.37393,-0.60242,28,5
9.74731,-5.48112,2.1737,33,13
6.55383,-3.68686,-0.39409,47,6
9.49333,-5.34267,2.51495,20,14
9.95842,-5.6067,-0.199481,47,7
10.8265,-6.09792,3.32945,32,15
0.504619,-0.285035,-0.155291,12,0
9.82947,-5.55445,0.197073,37,8
0.442769,-0.250303,-0.117424,16,1
11.6375,-6.5815,0.700674,27,9
0.565645,-0.319896,-0.126316,28,2
9.92939,-5.61778,0.998108,36,10
7.87009,-4.4545,-1.43231,2,3
10.9845,-6.2198,1.54993,39,11
5.54094,-3.13874,-0.781914,19,4
12.0955,-6.85446,2.20197,20,12
6.06977,-3.44111,-0.610439,15,5
9.82546,-5.5703,2.19545,36,13
6.08574,-3.45157,-0.366666,31,6
9.94226,-5.6434,-0.199551,47,7
11.0202,-6.25778,3.39571,16,15
9.84651,-5.60952,0.197806,35,8
0.438506,-0.249917,-0.116525,16,1
11.6266,-6.62901,0.701407,14,9
0.561058,-0.320022,-0.125552,29,2
9.96583,-5.68672,1.00386,23,10
4.6937,-2.67941,-0.856009,2,3
10.9834,-6.26991,1.55286,39,11
5.57649,-3.18464,-0.788495,26,4
5.70312,-3.2596,-0.574705,10,5
9.73511,-5.56633,2.1798,45,13
6.14933,-3.51748,-0.371271,52,6
9.31447,-5.33013,2.47761,60,14
6.43045,-3.67977,-0.129322,78,7
11.0016,-6.29813,3.39674,25,15
9.91258,-5.69538,0.199551,77,8
0.461241,-0.265118,-0.122823,15,1
10.0838,-5.79843,0.609609,6,9
0.55313,-0.318064,-0.124026,29,2
9.86648,-5.67577,0.995842,48,10
11.0808,-6.37946,1.56992,39,11
5.91742,-3.40816,-0.838461,19,4
11.9161,-6.86589,2.17819,44,12
9.67819,-5.5787,2.17141,44,13
6.16643,-3.55589,-0.373051,38,6
9.35151,-5.39475,2.49246,60,14
6.37708,-3.68033,-0.12852,70,7
10.9968,-6.34903,3.40244,24,15
9.98089,-5.78106,0.201331,28,8
0.460312,-0.266726,-0.122823,15,1
12.4774,-7.23289,0.755836,19,9
0.548564,-0.318119,-0.123263,30,2
9.70085,-5.62791,0.981199,51,10
5.51669,-3.20177,-1.01025,47,3
11.0567,-6.4171,1.56968,39,11
5.94668,-3.45272,-0.844311,51,4
11.9911,-6.96499,2.19634,31,12
5.73994,-3.33536,-0.580806,15,5
9.61186,-5.5875,2.1611,42,13
6.87505,-3.99816,-0.416804,21,6
9.40074,-5.46916,2.5109,45,14
6.35901,-3.69955,-0.128415,28,7
11.0347,-6.42236,3.42107,12,15
5.96637,-3.48367,0.120596,15,8
0.459379,-0.268332,-0.122823,15,1
10.0931,-5.89791,0.612645,37,9
0.561067,-0.327861,-0.126316,28,2
9.78533,-5.72038,0.991658,34,10
5.54014,-3.23999,-1.01651,52,3
11.0343,-6.45566,1.56968,21,11
5.50629,-3.22278,-0.783376,28,4
11.7536,-6.88204,2.15723,42,12
5.7959,-3.39364,-0.587604,50,5
9.74912,-5.71063,2.19621,43,13
6.16903,-3.61501,-0.374725,17,6
9.42458,-5.52495,2.52215,73,14
6.37021,-3.73588,-0.128903,35,7
21.8245,-12.8044,6.78002,16,15
5.95762,-3.50651,0.120666,37,8
0.458439,-0.269933,-0.122823,15,1
10.0483,-5.91891,0.611179,30,9
0.570068,-0.335796,-0.128605,28,2
9.93524,-5.85464,1.00891,23,10
5.5339,-3.26232,-1.01745,10,3
10.9843,-6.478,1.56578,39,11
5.54459,-3.27123,-0.790445,30,4
11.6411,-6.87081,2.14096,45,12
5.80118,-3.42398,-0.589347,45,5
9.83395,-5.80652,2.21987,38,13
6.20108,-3.66293,-0.377447,14,6
9.35994,-5.53104,2.51,50,14
7.58621,-4.48468,-0.153826,90,7
22.1372,-13.0919,6.89132,20,15
5.94019,-3.52422,0.120561,17,8
0.474252,-0.281478,-0.127322,15,1
9.70988,-5.76531,0.591815,65,9
0.545259,-0.323751,-0.123263,30,2
9.87021,-5.86283,1.00438,48,10
5.15058,-3.06062,-0.948932,2,3
11.076,-6.58427,1.58211,36,11
5.53143,-3.28955,-0.790201,31,4
11.6442,-6.92757,2.14597,39,12
5.79775,-3.4493,-0.590219,30,5
9.82543,-5.84784,2.22254,27,13
9.3456,-5.56667,2.51135,50,14
9.68173,-5.76918,-0.196724,56,7
11.0681,-6.5979,3.45265,12,15
6.15611,-3.68144,0.125204,41,8
9.91935,-5.93661,0.605841,24,9
0.537387,-0.32162,-0.121736,30,2
10.1881,-6.0999,1.0389,17,10
5.06022,-3.03088,-0.934227,26,3
11.058,-6.62595,1.58284,21,11
5.4484,-3.26597,-0.779964,22,4
11.6132,-6.96411,2.14472,36,12
14.2966,-8.57671,3.2407,10,13
7.10355,-4.26318,-0.434179,54,6
9.37289,-5.62735,2.52395,43,14
5.92275,-3.55734,-0.120596,51,7
14.5274,-8.72894,4.54124,6,15
5.7339,-3.45618,0.116861,34,8
0.455587,-0.274719,-0.122823,15,1
6.14812,-3.70879,0.376296,57,9
0.563159,-0.339719,-0.127842,28,2
10.1344,-6.11586,1.03558,23,10
4.95829,-2.99339,-0.917332,13,3
11.3713,-6.86771,1.6311,41,11
5.36051,-3.23877,-0.768996,14,4
11.6699,-7.05365,2.15973,50,12
14.1994,-8.58593,3.22544,12,13
6.95704,-4.20835,-0.426119,39,6
14.3065,-8.65753,3.86061,18,14
5.88292,-3.56142,-0.120038,70,7
14.4473,-8.74957,4.52571,16,15
5.74573,-3.49071,0.11735,57,8
0.454626,-0.276308,-0.122823,15,1
6.14709,-3.73749,0.377028,23,9
0.56191,-0.341781,-0.127842,28,2
10.0983,-6.14468,1.03419,34,10
4.87304,-2.96635,-0.903566,47,3
10.9725,-6.67925,1.57723,7,11
5.50855,-3.35452,-0.791907,50,4
11.5288,-7.02343,2.13815,12,12
5.73859,-3.49735,-0.587953,10,5
13.7169,-8.363,3.12278,22,13
6.08559,-3.71175,-0.373574,14,6
22.3661,-13.647,6.04893,23,14
5.81924,-3.55069,-0.118991,31,7
14.2765,-8.71439,4.48171,15,15
6.15408,-3.76975,0.125971,27,8
0.473549,-0.290191,-0.128222,14,1
6.03969,-3.70258,0.371271,48,9
0.547323,-0.335531,-0.124789,14,2
9.85428,-6.04344,1.01136,59,10
4.92159,-3.0195,-0.914516,21,3
13.951,-8.56256,2.00987,25,11
5.43193,-3.33522,-0.782645,41,4
11.4744,-7.04806,2.13283,19,12
5.76199,-3.53926,-0.591613,5,5
13.5455,-8.32346,3.09034,19,13
6.08621,-3.74133,-0.374411,28,6
14.1264,-8.6872,3.82867,23,14
5.81471,-3.57723,-0.119165,18,7
14.3086,-8.80615,4.5019,11,15
5.88225,-3.63153,0.120666,39,8
0.432741,-0.267266,-0.117424,16,1
6.03353,-3.72784,0.37169,60,9
0.549489,-0.339504,-0.125552,29,2
9.6145,-5.94267,0.988869,21,10
4.90598,-3.03354,-0.913577,28,3
13.7353,-8.49633,1.98306,21,11
5.41688,-3.35207,-0.782157,28,4
11.4497,-7.08807,2.13283,11,12
5.78687,-3.58242,-0.595448,6,5
13.5514,-8.3924,3.09836,25,13
6.0833,-3.76887,-0.375039,28,6
22.315,-13.8305,6.06108,7,14
6.0877,-3.77454,-0.125029,6,7
14.3008,-8.8703,4.50915,15,15
5.84576,-3.63725,0.120177,34,8
0.451658,-0.281132,-0.122823,15,1
6.04761,-3.76577,0.373365,60,9
0.541634,-0.337269,-0.124026,29,2
9.54465,-5.94565,0.983814,36,10
5.01271,-3.12378,-0.935478,10,3
13.6988,-8.54002,1.98208,21,11
5.22155,-3.25645,-0.75559,12,4
5.34609,-3.33671,-0.551347,7,5
13.5303,-8.44485,3.10026,30,13
6.08874,-3.80171,-0.376191,14,6
13.8141,-8.62869,3.76028,15,14
9.75446,-6.09526,-0.200772,9,7
13.9437,-8.71638,4.40614,17,15
0.450674,-0.282707,-0.122823,15,1
6.09702,-3.82614,0.377238,28,9
0.540394,-0.339252,-0.124026,14,2
9.54304,-5.9933,0.985906,23,10
4.91091,-3.08538,-0.918583,47,3
14.0421,-8.82223,2.03619,21,11
5.16813,-3.24825,-0.749497,30,4
14.0656,-8.84387,2.63154,32,12
5.32429,-3.34899,-0.550301,15,5
13.4661,-8.47348,3.09263,27,13
7.14808,-4.49964,-0.442658,21,6
14.1221,-8.89318,3.85296,21,14
7.16447,-4.51171,-0.147787,56,7
10.9988,-6.92901,3.48319,18,15
0.449635,-0.284357,-0.122823,15,1
6.05089,-3.82817,0.375249,64,9
0.549161,-0.347434,-0.126316,14,2
9.53385,-6.03404,0.987126,57,10
4.7499,-3.0074,-0.890425,52,3
15.0007,-9.5014,2.18024,37,11
5.42951,-3.44036,-0.789226,38,4
13.8729,-8.79383,2.60151,16,12
5.34563,-3.38982,-0.553788,27,5
13.4165,-8.50781,3.08805,30,13
5.66674,-3.59483,-0.351698,33,6
14.1058,-8.95182,3.85701,28,14
5.16255,-3.27752,-0.106739,10,7
10.8967,-6.9206,3.45886,30,15
5.96524,-3.80028,0.123458,67,8
0.448639,-0.285925,-0.122823,15,1
6.0038,-3.82779,0.373155,51,9
0.557816,-0.355779,-0.128605,28,2
4.76548,-3.0418,-0.895431,37,3
14.4103,-9.19805,2.09908,31,11
5.14643,-3.28622,-0.74974,22,4
14.0619,-8.98257,2.6428,23,12
5.34887,-3.41812,-0.555356,17,5
13.3919,-8.56116,3.08958,7,13
5.49536,-3.51443,-0.341859,40,6
14.5161,-9.28701,3.97848,44,14
5.14097,-3.28905,-0.106529,47,7
13.8404,-8.85809,4.40303,11,15
5.95632,-3.82536,0.123563,13,8
0.447589,-0.287567,-0.122823,15,1
6.02166,-3.87029,0.375144,33,9
0.543358,-0.349232,-0.125552,29,2
21.9806,-14.133,2.28627,12,10
4.79305,-3.08299,-0.902627,22,3
10.769,-6.92951,1.57236,14,11
5.13602,-3.30614,-0.749984,67,4
14.1468,-9.10999,2.66502,17,12
5.56472,-3.58347,-0.579063,25,5
9.47678,-6.10503,2.19125,13,13
5.18087,-3.33884,-0.323018,35,6
13.9562,-8.99762,3.83362,23,14
5.11376,-3.29812,-0.106215,25,7
10.9118,-7.04029,3.47956,18,15
6.27701,-4.06234,0.130509,6,8
0.420409,-0.272183,-0.115625,16,1
5.96285,-3.86197,0.372318,36,9
0.552023,-0.35753,-0.127842,14,2
10.0108,-6.48621,1.0436,11,10
4.87177,-3.15772,-0.919522,31,3
24.3376,-15.7809,3.56151,22,11
5.11113,-3.3154,-0.748034,22,4
13.9326,-9.04103,2.6306,30,12
4.94883,-3.21135,-0.516136,32,5
13.6265,-8.84579,3.15789,22,13
5.57789,-3.62232,-0.348558,23,6
13.892,-9.02505,3.82462,28,14
5.11395,-3.32358,-0.10646,36,7
10.8759,-7.07096,3.47594,20,15
6.27284,-4.09078,0.130719,44,8
0.470052,-0.306657,-0.129572,14,1
7.28739,-4.75603,0.456056,30,9
0.517889,-0.337994,-0.12021,31,2
9.46928,-6.18237,0.989392,21,10
4.69864,-3.06885,-0.888861,21,3
9.74653,-6.36824,1.42953,27,11
5.08789,-3.32562,-0.746328,28,4
13.6844,-8.94799,2.58962,28,12
4.92035,-3.21856,-0.514393,13,5
13.7024,-8.96316,3.18269,20,13
5.40143,-3.5346,-0.3383,32,6
13.7056,-8.97208,3.78188,30,14
5.16254,-3.38085,-0.107716,10,7
13.8697,-9.08646,4.44289,8,15
9.41202,-6.18489,0.196584,10,8
0.42664,-0.280463,-0.117874,16,1
7.2941,-4.7968,0.457521,9,9
0.526488,-0.346364,-0.122499,30,2
9.44822,-6.21813,0.989566,34,10
4.74346,-3.12298,-0.899498,20,3
9.58829,-6.31271,1.40954,19,11
5.08122,-3.34663,-0.747059,14,4
13.5376,-8.91962,2.56772,28,12
4.90909,-3.23572,-0.514393,35,5
13.7333,-9.05547,3.19758,19,13
5.29174,-3.49059,-0.332229,42,6
13.588,-8.96645,3.75848,27,14
5.31094,-3.50458,-0.111067,22,7
13.8379,-9.13481,4.44289,17,15
5.93833,-3.93347,0.124331,28,8
0.441854,-0.29279,-0.122373,15,1
22.2539,-14.7519,1.39925,11,9
0.55473,-0.367725,-0.129368,13,2
9.44805,-6.26539,0.991832,8,10
4.75722,-3.1559,-0.904191,43,3
9.39638,-6.23585,1.38468,42,11
5.11854,-3.39817,-0.754371,11,4
13.7023,-9.10033,2.60526,32,12
5.54338,-3.68162,-0.5822,40,5
9.40097,-6.24599,2.19392,27,13
5.35438,-3.55879,-0.336939,35,6
13.5274,-8.9944,3.75038,27,14
7.46757,-4.96708,-0.156548,50,7
13.8461,-9.2133,4.45635,20,15
5.93454,-3.96084,0.12454,13,8
0.440829,-0.29433,-0.122373,15,1
0.527322,-0.352212,-0.123263,30,2
9.24886,-6.17989,0.973181,55,10
4.83978,-3.23506,-0.922025,33,3
9.34485,-6.24875,1.38029,13,11
5.06375,-3.38732,-0.748034,21,4
