x, y, z, intensity, ring
4.05015,-3.33513,-0.83098,18,3
8.16962,-6.72973,1.29961,27,11
5.76632,-4.7517,-0.917432,13,4
8.037,-6.62283,1.64945,45,12
4.36922,-3.60171,-0.495393,6,5
11.4207,-9.41782,2.8774,11,13
4.5512,-3.75439,-0.309201,37,6
7.41002,-6.11487,2.21802,36,14
4.5561,-3.75976,-0.103109,4,7
7.79765,-6.43703,2.70932,11,15
0.40974,-0.339328,-0.122823,15,1
6.93034,-5.74143,0.471652,39,9
0.491277,-0.407142,-0.124026,14,2
5.69818,-4.72401,0.647567,11,10
4.01778,-3.33089,-0.8266,36,3
7.98376,-6.62119,1.27353,33,11
4.5054,-3.7378,-0.718785,6,4
8.02599,-6.66094,1.65195,49,12
4.36429,-3.6233,-0.496265,15,5
7.67952,-6.37566,1.94015,18,13
4.46037,-3.70438,-0.303863,34,6
7.40019,-6.14812,2.22117,31,14
4.49835,-3.73858,-0.102097,19,7
7.76473,-6.45556,2.70569,30,15
5.67356,-4.73039,0.128938,37,8
0.408553,-0.340756,-0.122823,15,1
7.29825,-6.08931,0.498134,38,9
0.504925,-0.421435,-0.127842,14,2
7.75969,-6.47661,0.884282,46,10
3.97277,-3.31704,-0.819717,22,3
11.6903,-9.76419,1.87021,12,11
4.51974,-3.77641,-0.723173,26,4
7.89205,-6.59644,1.62911,32,12
5.86482,-4.90375,-0.668833,10,5
7.77507,-6.50327,1.97029,43,13
4.45135,-3.72455,-0.304177,34,6
7.26211,-6.07638,2.18607,36,14
4.48833,-3.75682,-0.102166,53,7
7.76881,-6.50495,2.71501,27,15
5.72203,-4.80646,0.130439,20,8
0.407301,-0.342251,-0.122823,15,1
5.71185,-4.80131,0.391054,60,9
0.506382,-0.42581,-0.128605,14,2
7.64593,-6.42936,0.873998,16,10
3.91826,-3.29598,-0.810956,17,3
8.11389,-6.82769,1.30205,21,11
4.23859,-3.56796,-0.680275,39,4
6.32357,-5.32494,1.30936,60,12
4.03349,-3.39772,-0.461402,10,5
7.67461,-6.46721,1.95083,30,13
4.42851,-3.73312,-0.303549,33,6
7.18913,-6.06025,2.17078,61,14
4.47148,-3.77067,-0.102097,53,7
7.74935,-6.53712,2.71656,30,15
0.406044,-0.343742,-0.122823,15,1
5.46102,-4.62473,0.375039,54,9
0.480922,-0.407274,-0.122499,15,2
5.5518,-4.70327,0.636586,43,10
4.10658,-3.48017,-0.852568,18,3
8.11304,-6.87792,1.30595,33,11
6.32962,-5.3698,1.31468,82,12
7.64002,-6.48379,1.94778,34,13
4.40175,-3.73692,-0.302607,33,6
7.15648,-6.07773,2.16763,31,14
4.44544,-3.77668,-0.101817,39,7
7.71209,-6.55422,2.71191,32,15
0.404842,-0.345157,-0.122823,15,1
5.13332,-4.37808,0.353582,72,9
0.482485,-0.411499,-0.123263,15,2
5.60507,-4.78211,0.644604,35,10
4.11995,-3.51629,-0.857887,18,3
8.1071,-6.92167,1.30888,33,11
4.02577,-3.43833,-0.650051,16,4
6.27479,-5.36107,1.30717,92,12
4.02331,-3.43744,-0.462971,20,5
7.64868,-6.53721,1.95579,30,13
4.36439,-3.73149,-0.300932,24,6
7.31737,-6.25847,2.22297,45,14
4.40943,-3.77267,-0.101294,4,7
7.68182,-6.57482,2.70932,24,15
4.40047,-3.77699,0.101224,33,8
0.403635,-0.346568,-0.122823,15,1
5.11649,-4.39467,0.353477,65,9
0.481045,-0.41318,-0.123263,15,2
6.52678,-5.60798,0.752851,18,10
3.76161,-3.23321,-0.785614,13,3
8.06482,-6.93439,1.30595,33,11
6.53758,-5.6232,-1.0588,42,4
6.26652,-5.39196,1.30936,109,12
4.01883,-3.45796,-0.463843,27,5
7.59754,-6.53953,1.94854,16,13
4.34982,-3.7454,-0.300827,27,6
8.74838,-7.53542,2.66567,42,14
4.37503,-3.76977,-0.100805,14,7
7.52274,-6.48429,2.66118,43,15
5.44171,-4.70379,0.125553,57,8
0.402422,-0.347975,-0.122823,15,1
5.10414,-4.41511,0.353686,70,9
0.47663,-0.412288,-0.122499,15,2
5.52333,-4.7794,0.639026,43,10
3.73237,-3.2308,-0.78186,6,3
7.79146,-6.74679,1.26549,39,11
6.54341,-5.66808,-1.06294,6,4
7.93012,-6.87171,1.66196,41,12
4.01577,-3.4798,-0.464889,23,5
6.37601,-5.52697,1.64019,5,13
4.31862,-3.74486,-0.299571,15,6
7.55761,-6.55585,2.3098,17,14
4.37242,-3.79419,-0.101049,38,7
7.58321,-6.5827,2.69068,17,15
5.47654,-4.7674,0.126739,15,8
0.401205,-0.349378,-0.122823,15,1
5.0887,-4.4329,0.353686,60,9
0.487031,-0.424266,-0.125552,14,2
5.54116,-4.82876,0.643035,65,10
3.7181,-3.24122,-0.781234,8,3
7.81573,-6.8157,1.27329,15,11
4.35754,-3.80132,-0.710011,7,4
7.7647,-6.77596,1.63224,52,12
4.33386,-3.782,-0.503237,32,5
4.35667,-3.80458,-0.30313,3,6
7.65796,-6.68989,2.34759,61,14
4.34559,-3.79759,-0.100735,19,7
7.37984,-6.45147,2.6265,50,15
0.399983,-0.350776,-0.122823,15,1
5.09722,-4.47171,0.355361,66,9
0.461934,-0.405248,-0.119446,15,2
5.48085,-4.80996,0.63798,20,10
5.78801,-5.08131,-1.21988,13,3
5.53517,-4.86105,0.904514,47,11
11.4549,-10.0634,-1.87216,14,4
7.75435,-6.81476,1.63505,42,12
4.05723,-3.56562,-0.472558,13,5
6.31958,-5.5558,1.63561,129,13
4.54433,-3.99651,-0.317156,13,6
7.53214,-6.62647,2.3161,45,14
4.30679,-3.79027,-0.100142,37,7
7.30072,-6.4274,2.60631,39,15
5.24675,-4.63214,0.122167,59,8
0.398756,-0.35217,-0.122823,15,1
5.05763,-4.46832,0.353686,72,9
0.510541,-0.451053,-0.132421,13,2
5.07736,-4.48733,0.592833,54,10
3.68058,-3.25401,-0.778105,2,3
4.28183,-3.78824,-0.701967,9,4
6.3918,-5.65698,1.35191,40,12
4.40514,-3.90008,-0.514742,31,5
6.09289,-5.39432,1.58181,59,13
4.50643,-3.99116,-0.315481,32,6
7.38061,-6.539,2.2765,53,14
5.62694,-4.98706,-0.131242,65,7
7.44448,-6.60023,2.66584,36,15
5.28584,-4.69959,0.123458,49,8
0.377139,-0.335429,-0.116525,16,1
5.07035,-4.51117,0.355675,52,9
0.479554,-0.426816,-0.124789,14,2
5.0341,-4.48206,0.589696,73,10
5.70429,-5.08055,-1.20986,57,3
5.46107,-4.86393,0.897933,33,11
4.15594,-3.7028,-0.683443,21,4
6.3499,-5.65954,1.34721,71,12
4.46883,-3.98438,-0.523806,25,5
6.07454,-5.41793,1.58219,48,13
4.25034,-3.79224,-0.298524,15,6
7.30425,-6.51929,2.26031,61,14
4.2668,-3.80826,-0.0998278,13,7
7.6217,-6.80502,2.73779,11,15
5.31475,-4.76029,0.12454,74,8
0.375907,-0.336809,-0.116525,16,1
5.0285,-4.50706,0.353896,75,9
0.469289,-0.420626,-0.122499,15,2
5.06292,-4.53951,0.594925,54,10
4.15865,-3.73003,-0.884793,40,3
5.45651,-4.89584,0.900127,60,11
4.09359,-3.67425,-0.6754,39,4
6.4467,-5.78835,1.37224,77,12
4.42455,-3.97411,-0.52032,40,5
4.26085,-3.82841,-0.300199,15,6
7.67567,-6.89909,2.38268,22,14
4.24092,-3.81318,-0.0995485,9,7
5.30701,-4.78685,0.12475,75,8
0.394985,-0.356395,-0.122823,15,1
5.00977,-4.52191,0.353686,60,9
0.476487,-0.430237,-0.124789,14,2
5.08469,-4.59276,0.599457,52,10
5.61503,-5.07357,-1.1986,6,3
3.95114,-3.57138,-0.653951,8,4
5.38908,-4.87282,1.15073,30,12
4.22606,-3.82524,-0.298734,15,6
7.58966,-6.87224,2.36379,36,14
5.57501,-5.04802,-0.131277,36,7
7.60002,-6.88402,2.74762,26,15
5.30423,-4.81972,0.125099,66,8
0.393676,-0.357841,-0.122823,15,1
4.99612,-4.54293,0.353896,60,9
0.463362,-0.421331,-0.121736,15,2
4.85787,-4.41877,0.574531,52,10
3.36772,-3.06439,-0.721163,28,3
5.33472,-4.85593,0.885746,2,11
3.94683,-3.59386,-0.655413,9,4
6.18168,-5.63081,1.32437,91,12
4.31863,-3.93379,-0.511081,21,5
7.38931,-6.73319,1.9432,16,13
4.20677,-3.83459,-0.298315,42,6
5.63625,-5.14119,-0.133162,66,7
7.56617,-6.90402,2.74452,32,15
5.1428,-4.70591,0.121678,61,8
0.392424,-0.359213,-0.122823,15,1
5.00969,-4.58732,0.355989,38,9
0.473472,-0.433553,-0.124789,14,2
4.84094,-4.43435,0.574356,28,10
6.08452,-5.57739,1.01347,83,11
4.23127,-3.87996,-0.704892,12,4
6.15471,-5.64568,1.32281,84,12
4.32984,-3.97174,-0.514045,30,5
7.62903,-7.00053,2.01265,20,13
4.43172,-4.06805,-0.315272,26,6
8.51756,-7.82133,2.66972,40,14
4.33557,-3.98257,-0.10276,9,7
7.49651,-6.88856,2.72795,26,15
5.53075,-5.09648,0.131277,39,8
0.391168,-0.36058,-0.122823,15,1
4.97456,-4.58718,0.354628,55,9
0.477729,-0.440527,-0.126316,14,2
4.9836,-4.59712,0.593182,54,10
3.44061,-3.1749,-0.741499,37,3
6.07815,-5.61072,1.01566,20,11
4.16666,-3.84758,-0.696361,28,4
6.1959,-5.72343,1.33595,103,12
4.13154,-3.81648,-0.492081,32,5
8.88207,-8.20763,2.35077,7,13
4.32363,-3.99672,-0.308573,15,6
7.61744,-7.04395,2.39528,21,14
4.36714,-4.03977,-0.103842,40,7
7.54756,-6.98423,2.75539,17,15
0.354078,-0.328454,-0.12941,15,0
5.47041,-5.07631,0.130265,11,8
0.389907,-0.361944,-0.122823,15,1
5.18537,-4.81517,0.370853,39,9
0.464679,-0.431504,-0.123263,15,2
4.9865,-4.63212,0.595448,39,10
4.08936,-3.80007,-0.884168,15,3
6.07597,-5.64812,1.01858,60,11
4.17646,-3.88372,-0.700261,43,4
4.07735,-3.79288,-0.487201,10,5
8.86199,-8.2466,2.35306,10,13
4.38275,-4.07983,-0.313806,15,6
7.58282,-7.0612,2.39213,38,14
4.33546,-4.03864,-0.103423,20,7
7.49487,-6.98419,2.74503,27,15
5.45997,-5.1022,0.130439,1,8
0.388641,-0.363302,-0.122823,15,1
5.49967,-5.1429,0.394613,47,9
0.454566,-0.425078,-0.120973,15,2
4.90628,-4.58961,0.587778,60,10
4.09338,-3.83051,-0.887922,13,3
6.21273,-5.81581,1.04491,49,11
4.09043,-3.83044,-0.688074,37,4
6.51044,-6.09876,1.41292,14,12
4.02126,-3.7683,-0.482146,42,5
4.33205,-4.06096,-0.31119,34,6
8.52048,-7.99008,2.69671,23,14
4.31112,-4.04417,-0.103179,34,7
7.37465,-6.92042,2.70984,41,15
6.4455,-6.06544,0.154489,30,8
0.387371,-0.364657,-0.122823,15,1
5.49041,-5.17029,0.395241,72,9
0.473012,-0.445588,-0.126316,14,2
4.93147,-4.64718,0.592833,86,10
4.08937,-3.85498,-0.890112,25,3
6.21551,-5.85924,1.04881,40,11
3.95861,-3.73301,-0.668088,37,4
4.2892,-4.04759,-0.515962,18,5
7.35656,-6.94461,1.96648,35,13
4.25179,-4.0151,-0.306479,37,6
8.64555,-8.16712,2.74575,6,14
6.84813,-6.46917,-0.164437,94,7
7.54703,-7.13188,2.78231,32,15
4.63093,-4.38999,0.111381,26,8
0.386031,-0.366074,-0.122823,15,1
5.54098,-5.25635,0.400265,37,9
0.471453,-0.447236,-0.126316,14,2
4.95424,-4.7014,0.59754,39,10
3.27361,-3.10762,-0.714906,7,3
5.03234,-4.77886,0.852111,28,11
4.65666,-4.42519,1.01745,63,12
4.18694,-3.97882,-0.505329,38,5
7.63963,-7.26242,2.04891,35,13
4.18276,-3.97762,-0.302502,21,6
8.52521,-8.10994,2.71651,36,14
4.75432,-4.52431,-0.114558,5,7
8.79833,-8.37561,3.25491,11,15
5.239,-5.00125,0.126425,37,8
0.384751,-0.367419,-0.122823,15,1
8.62617,-8.24047,0.625205,19,9
0.444336,-0.424469,-0.119446,15,2
4.87442,-4.6581,0.58987,15,10
3.23704,-3.09446,-0.709274,12,3
5.00703,-4.78816,0.850648,23,11
3.26478,-3.12317,-0.554749,1,4
4.67116,-4.4701,1.02402,79,12
7.66245,-7.3352,2.06188,13,13
4.45735,-4.26847,-0.323436,26,6
8.45463,-8.09921,2.70301,61,14
5.22505,-5.00715,-0.126321,75,7
7.71056,-7.39158,2.86202,33,15
4.91156,-4.72155,0.118921,33,8
0.383466,-0.36876,-0.122823,15,1
4.73121,-4.55135,0.344057,17,9
0.445682,-0.428739,-0.12021,15,2
3.31445,-3.19068,-0.728672,16,3
4.98599,-4.80148,0.849917,33,11
4.1275,-3.97753,-0.501494,13,5
9.03045,-8.70538,2.43816,11,13
4.51143,-4.35055,-0.328461,16,6
8.35338,-8.05832,2.67962,30,14
5.16294,-4.98231,-0.125238,74,7
9.24834,-8.9279,3.44436,28,15
0.365378,-0.353828,-0.117424,16,1
0.438542,-0.424828,-0.118683,15,2
4.68154,-4.53672,0.570347,75,10
3.26783,-3.16786,-0.72085,32,3
4.99058,-4.83958,0.853573,28,11
4.31579,-4.18668,-0.738285,15,4
12.458,-12.0895,2.74949,16,12
3.97061,-3.85316,-0.484063,23,5
7.43779,-7.22031,2.01494,11,13
4.53347,-4.40245,-0.331182,13,6
8.78787,-8.53688,2.82853,46,14
4.61777,-4.48745,-0.112394,5,7
7.60198,-7.39002,2.8408,26,15
5.34294,-5.21031,0.130265,15,8
0.380818,-0.371495,-0.122823,15,1
4.74078,-4.62472,0.347092,38,9
0.445413,-0.43466,-0.120973,15,2
4.68056,-4.56916,0.572265,45,10
3.25055,-3.17429,-0.719599,18,3
5.83616,-5.70124,1.00177,47,11
3.98949,-3.89862,-0.684906,48,4
12.3224,-12.0418,2.72884,19,12
4.04907,-3.95822,-0.495393,35,5
9.17566,-8.97293,2.49464,51,13
6.38476,-6.24587,-0.468093,21,6
8.65206,-8.46681,2.79479,48,14
4.61923,-4.52032,-0.112812,5,7
7.56509,-7.4057,2.83666,10,15
6.40731,-6.28985,0.156723,21,8
0.379584,-0.372755,-0.122823,15,1
5.7989,-5.69657,0.426015,65,9
0.452294,-0.444468,-0.123263,15,2
4.92033,-4.83688,0.603641,80,10
3.27099,-3.21552,-0.726482,15,3
8.19648,-8.06028,1.41149,23,11
3.95531,-3.89095,-0.68125,25,4
4.14739,-4.08275,-0.509164,47,5
8.70234,-8.56671,2.37366,21,13
4.10701,-4.04441,-0.302083,15,6
8.61005,-8.48178,2.79029,40,14
4.10491,-4.04516,-0.100596,14,7
7.45527,-7.34933,2.80508,25,15
4.46403,-4.4129,0.109566,60,8
0.358881,-0.354895,-0.116525,16,1
4.74387,-4.69281,0.349709,21,9
0.464775,-0.459773,-0.127079,14,2
4.89435,-4.84336,0.60242,75,10
3.26256,-3.2297,-0.727107,32,3
6.08496,-6.02578,1.05149,2,11
3.71183,-3.67701,-0.64152,12,4
4.40862,-4.36879,0.983034,76,12
3.73834,-3.70586,-0.460531,25,5
9.26496,-9.18445,2.53585,11,13
4.30275,-4.26686,-0.317575,22,6
5.08719,-5.04827,-0.125099,74,7
7.38296,-7.32904,2.78748,25,15
4.37065,-4.35087,0.107646,24,8
0.376972,-0.375396,-0.122823,15,1
5.13498,-5.1153,0.379854,64,9
0.443618,-0.442072,-0.121736,15,2
4.87939,-4.86408,0.602769,46,10
3.2535,-3.24442,-0.727733,33,3
6.01329,-5.99652,1.04271,2,11
3.69898,-3.68995,-0.64152,14,4
4.39195,-4.38276,0.982721,32,12
3.52656,-3.52041,-0.435953,11,5
8.21156,-8.2001,2.25574,19,13
4.29557,-4.29107,-0.318203,19,6
5.01579,-5.01229,-0.123772,100,7
8.56784,-8.56485,3.24611,12,15
0.409307,-0.410308,-0.155291,12,0
4.37868,-4.39093,0.10824,57,8
0.375594,-0.376776,-0.122823,15,1
5.32578,-5.34254,0.395346,38,9
0.447615,-0.44918,-0.123263,15,2
3.26027,-3.27396,-0.731801,8,3
5.76439,-5.79061,1.00323,27,11
3.66442,-3.68238,-0.637864,3,4
4.50342,-4.52548,1.01119,68,12
8.20642,-8.25238,2.26223,19,13
6.90381,-6.9449,-0.513206,56,6
8.17448,-8.226,2.67737,24,14
5.04055,-5.07232,-0.12482,74,7
8.6046,-8.66186,3.27147,8,15
4.34439,-4.38553,0.107751,15,8
0.374342,-0.378019,-0.122823,15,1
5.09633,-5.14818,0.379645,129,9
0.462616,-0.467486,-0.127842,14,2
8.81768,-8.91362,1.09694,38,10
3.23967,-3.27492,-0.72961,12,3
4.51126,-4.56194,0.787763,15,11
3.68289,-3.72556,-0.643226,28,4
7.63252,-7.72365,1.71984,22,12
3.98217,-4.03112,-0.495742,25,5
4.65657,-4.71381,1.28796,21,13
8.22519,-8.33212,2.70301,23,14
4.99331,-5.05999,-0.124087,72,7
5.19992,-5.28594,0.129427,33,8
0.356624,-0.36265,-0.117424,16,1
4.91451,-4.9993,0.367398,54,9
0.455477,-0.463497,-0.126316,14,2
4.70615,-4.78902,0.58743,20,10
3.20607,-3.26366,-0.724605,10,3
4.49253,-4.57482,0.787276,27,11
3.66987,-3.7384,-0.643226,43,4
7.61382,-7.75871,1.72172,25,12
3.0793,-3.139,-0.384705,13,5
4.62964,-4.72103,1.28529,19,13
6.72094,-6.85601,-0.503158,21,6
7.90821,-8.06715,2.60808,48,14
5.14777,-5.25306,-0.12838,100,7
8.43307,-8.60856,3.22903,21,15
4.10892,-4.20763,0.102655,8,8
0.371628,-0.380688,-0.122823,15,1
4.80828,-4.92722,0.360804,19,9
0.434582,-0.445488,-0.120973,15,2
4.747,-4.86613,0.594751,50,10
3.18581,-3.2669,-0.722727,13,3
4.46049,-4.57562,0.784595,70,11
3.58548,-3.67932,-0.630796,20,4
3.12477,-3.20878,-0.391852,33,5
4.1686,-4.28218,1.16165,19,13
4.39327,-4.51454,-0.330135,16,6
7.82151,-8.03742,2.58919,50,14
5.18008,-5.32493,-0.129671,64,7
8.1725,-8.40397,3.14103,17,15
4.10322,-4.23271,0.102899,19,8
4.7702,-4.92246,0.359234,21,9
0.446685,-0.461104,-0.124789,14,2
4.69033,-4.84342,0.58987,46,10
3.20679,-3.31262,-0.730236,15,3
4.43678,-4.58481,0.783376,87,11
3.62442,-3.74665,-0.640058,42,4
4.51866,-4.67104,1.02934,46,12
3.48058,-3.59922,-0.438045,8,5
4.17546,-4.31929,1.16775,11,13
4.39414,-4.54708,-0.331391,26,6
7.76899,-8.04221,2.58154,38,14
4.282,-4.43259,-0.107577,5,7
8.09078,-8.37825,3.12084,40,15
4.09193,-4.24918,0.102969,22,8
0.368961,-0.383273,-0.122823,15,1
4.84301,-5.03263,0.366038,38,9
0.436906,-0.454171,-0.122499,15,2
4.61262,-4.79658,0.5822,82,10
3.19716,-3.32466,-0.730549,51,3
4.48622,-4.66676,0.794832,40,11
3.60097,-3.7472,-0.638108,40,4
4.24505,-4.41897,0.97052,38,12
3.32723,-3.46476,-0.420265,8,5
6.11521,-6.36798,1.71614,16,13
4.35137,-4.53281,-0.329298,26,6
7.87855,-8.20994,2.62698,32,14
5.35181,-5.57887,-0.134942,75,7
7.88632,-8.22378,3.05303,31,15
4.10057,-4.288,0.103563,1,8
0.367621,-0.384559,-0.122823,15,1
5.63401,-5.89566,0.427375,72,9
0.421757,-0.441497,-0.118683,15,2
4.54715,-4.75998,0.575925,58,10
3.16098,-3.31009,-0.724917,31,3
4.52336,-4.73839,0.804338,27,11
3.63995,-3.81432,-0.64737,27,4
4.25278,-4.45806,0.975838,91,12
3.04699,-3.19519,-0.386274,26,5
4.32095,-4.53427,-0.328251,48,6
7.72885,-8.11042,2.58649,36,14
4.13785,-4.34365,-0.104714,20,7
7.84558,-8.23867,3.04837,24,15
4.42351,-4.65977,0.112149,6,8
0.347429,-0.366114,-0.116525,16,1
5.57938,-5.88149,0.424863,56,9
0.428241,-0.451587,-0.120973,15,2
4.56257,-4.81131,0.580109,75,10
3.14611,-3.31878,-0.724292,20,3
4.4923,-4.74052,0.8019,27,11
3.6082,-3.8089,-0.644201,43,4
4.22826,-4.46501,0.973961,90,12
3.11334,-3.28881,-0.39621,33,5
6.04543,-6.38839,1.70965,28,13
4.32626,-4.57329,-0.329926,13,6
7.67229,-8.11038,2.57749,28,14
4.28952,-4.53604,-0.108973,10,7
7.48355,-7.9164,2.91896,15,15
0.364792,-0.387243,-0.122823,15,1
5.07033,-5.38427,0.3876,16,9
0.426662,-0.45308,-0.120973,15,2
4.51487,-4.79609,0.576274,43,10
5.28367,-5.61474,-1.22113,20,3
4.44226,-4.72226,0.796051,32,11
3.62141,-3.85102,-0.649076,24,4
4.21592,-4.4848,0.9749,79,12
3.92745,-4.17792,-0.501668,38,5
4.58051,-4.87433,1.30017,36,13
3.14519,-3.34811,-0.240745,2,6
5.99635,-6.38546,2.02231,46,14
6.25328,-6.66139,-0.15948,42,7
5.02266,-5.36734,0.12831,37,8
0.363438,-0.388514,-0.122823,15,1
8.13725,-8.70174,0.624368,20,9
0.430442,-0.460302,-0.122499,15,2
4.61239,-4.93408,0.590916,48,10
3.05619,-3.27049,-0.708961,22,3
4.45285,-4.76675,0.800925,42,11
3.59846,-3.85348,-0.64737,17,4
4.22451,-4.52548,0.980531,63,12
3.06039,-3.27842,-0.392375,12,5
4.52864,-4.85297,1.29025,30,13
3.1362,-3.36199,-0.240955,9,6
7.53033,-8.07529,2.54915,26,14
4.45057,-4.77433,-0.113929,17,7
7.23047,-7.75916,2.84183,26,15
4.71668,-5.07575,0.120945,41,8
0.36208,-0.38978,-0.122823,15,1
8.02256,-8.63935,0.617878,12,9
0.418145,-0.450293,-0.119446,15,2
4.34843,-4.68439,0.559191,39,10
3.05282,-3.28983,-0.710838,22,3
4.44968,-4.79681,0.803363,15,11
3.66598,-3.95335,-0.661994,33,4
4.13348,-4.45907,0.963011,107,12
3.03674,-3.27594,-0.390806,33,5
4.44628,-4.79819,1.27155,23,13
3.10816,-3.35534,-0.239699,11,6
7.6014,-8.20876,2.58289,24,14
5.2272,-5.64684,-0.134314,52,7
7.21516,-7.79712,2.84649,36,15
0.327588,-0.354879,-0.12941,15,0
5.02169,-5.44195,0.129253,68,8
0.360717,-0.391042,-0.122823,15,1
4.49105,-4.87031,0.347197,8,9
0.432541,-0.469069,-0.124026,14,2
4.31855,-4.68489,0.557448,78,10
3.08013,-3.34259,-0.719912,10,3
4.41677,-4.7948,0.800438,12,11
3.24875,-3.52804,-0.588873,29,4
4.25435,-4.62171,0.994923,77,12
3.07656,-3.34222,-0.39743,36,5
4.41621,-4.79923,1.26774,23,13
3.0748,-3.34264,-0.238024,24,6
7.5938,-8.2582,2.59009,70,14
5.19122,-5.64738,-0.133895,45,7
7.30946,-7.95455,2.89463,12,15
4.96753,-5.42111,0.128345,78,8
0.35935,-0.392299,-0.122823,15,1
7.97301,-8.70407,0.618611,9,9
0.446811,-0.487951,-0.128605,14,2
4.3089,-4.70728,0.55832,78,10
3.06712,-3.35186,-0.719599,13,3
4.42814,-4.84094,0.805556,20,11
3.56461,-3.89828,-0.648589,24,4
4.13503,-4.52209,0.97052,54,12
3.0716,-3.36029,-0.398302,11,5
4.20476,-4.60157,1.21164,25,13
3.0685,-3.35926,-0.238443,33,6
4.30742,-4.71723,1.47478,27,14
5.18594,-5.67933,-0.134244,22,7
7.32732,-8.02725,2.91223,7,15
0.390123,-0.428589,-0.155291,12,0
5.01683,-5.5115,0.13009,94,8
0.358047,-0.393488,-0.122823,15,1
8.03397,-8.83231,0.625729,4,9
0.426615,-0.469172,-0.123263,15,2
4.3313,-4.76505,0.563375,28,10
3.64242,-4.01,-0.665163,43,4
4.10063,-4.51602,0.966139,84,12
3.00093,-3.30608,-0.390632,27,5
4.25281,-4.68527,1.22995,27,13
3.05063,-3.36202,-0.237919,20,6
4.29438,-4.73438,1.47568,48,14
5.03042,-5.54778,-0.130719,29,7
7.33818,-8.09572,2.92776,33,15
4.41427,-4.88365,0.114907,27,8
0.356671,-0.394736,-0.122823,15,1
7.90268,-8.74914,0.617878,14,9
0.41716,-0.461843,-0.120973,15,2
4.30613,-4.76904,0.562155,58,10
3.47704,-3.85217,-0.821907,12,3
5.96828,-6.6145,1.0939,25,11
3.99537,-4.42952,-0.732435,44,4
4.05573,-4.49803,0.959256,60,12
2.98995,-3.31601,-0.390632,38,5
4.31004,-4.78175,1.25133,106,13
3.04556,-3.38006,-0.238443,13,6
4.3701,-4.85348,-0.113999,11,7
7.29307,-8.10262,2.92103,27,15
0.322664,-0.359362,-0.12941,15,0
3.87092,-4.3127,0.101154,13,8
0.355291,-0.395978,-0.122823,15,1
5.05158,-5.63206,0.396497,39,9
0.433898,-0.483757,-0.126316,14,2
4.26286,-4.75437,0.558668,15,10
3.05353,-3.4068,-0.724605,18,3
4.24294,-4.73548,0.780695,20,11
3.98783,-4.45232,-0.733897,26,4
4.00048,-4.46801,0.94987,42,12
3.01291,-3.36502,-0.395164,12,5
4.27499,-4.77628,1.24598,33,13
3.11498,-3.48147,-0.244828,21,6
4.2872,-4.79329,1.48468,11,14
4.41444,-4.93728,-0.115605,6,7
3.86516,-4.33663,0.101398,35,8
0.353907,-0.397216,-0.122823,15,1
5.00267,-5.61684,0.394194,55,9
0.411234,-0.461883,-0.12021,15,2
4.48471,-5.03707,0.590044,15,10
3.0298,-3.40416,-0.721789,26,3
4.15381,-4.6687,0.767289,10,11
3.17411,-3.56881,-0.586435,9,4
4.06623,-4.57348,0.969268,42,12
3.72985,-4.1966,-0.49121,65,5
4.39698,-4.94896,1.28682,26,13
3.13138,-3.52572,-0.24713,21,6
4.2795,-4.81843,1.48783,4,14
4.82203,-5.43118,-0.126774,6,7
15.0613,-16.9699,6.07966,18,15
3.85056,-4.35227,0.101433,15,8
0.352448,-0.398511,-0.122823,15,1
4.99263,-5.64711,0.395032,43,9
0.417339,-0.472214,-0.122499,15,2
4.519,-5.11319,0.597017,16,10
3.00815,-3.40488,-0.719599,30,3
4.13667,-4.68389,0.767289,60,11
3.53151,-4.00007,-0.65517,48,4
3.91743,-4.43876,0.937668,88,12
4.21649,-4.78099,1.23911,25,13
3.15806,-3.58212,-0.250271,28,6
5.40103,-6.12842,-0.142586,32,7
7.32005,-8.30882,2.9671,17,15
3.83458,-4.36635,0.101433,17,8
0.350985,-0.3998,-0.122823,15,1
4.92974,-5.61734,0.391682,31,9
0.415606,-0.47374,-0.122499,15,2
4.55673,-5.19412,0.604512,31,10
3.04124,-3.46786,-0.730549,13,3
4.22678,-4.82142,0.787276,30,11
3.92241,-4.4758,-0.730729,36,4
3.84646,-4.39068,0.924528,73,12
3.07549,-3.51186,-0.408412,31,5
3.9597,-4.52313,1.16851,18,13
2.98313,-3.4088,-0.237396,13,6
4.12343,-4.71182,1.44554,34,14
4.79262,-5.47842,-0.127054,6,7
7.19163,-8.22361,2.92724,24,15
3.82512,-4.38791,0.101608,15,8
0.349518,-0.401083,-0.122823,15,1
0.390659,-0.44861,-0.11563,16,2
4.49841,-5.16571,0.599283,11,10
3.10114,-3.56242,-0.74807,16,3
4.09571,-4.7066,0.766071,70,11
4.57565,-5.25997,-0.85601,11,4
3.94959,-4.54189,0.953312,93,12
3.10181,-3.56822,-0.413641,13,5
3.84652,-4.42647,1.13989,38,13
3.44738,-3.96855,-0.275497,19,6
4.11764,-4.74014,1.44958,64,14
4.12481,-4.75007,-0.109811,5,7
7.08292,-8.15947,2.89515,35,15
3.80924,-4.39906,0.101573,23,8
0.348186,-0.40224,-0.122823,15,1
4.23957,-4.89948,0.339556,26,9
0.391817,-0.452805,-0.116393,16,2
7.7503,-8.95982,1.03646,29,10
4.10605,-4.75019,0.770946,67,11
6.66984,-7.71891,-1.25257,30,4
4.03652,-4.67306,0.978028,77,12
3.08345,-3.57095,-0.41277,10,5
4.12257,-4.77436,1.22614,37,13
3.61499,-4.18801,-0.289941,14,6
4.08025,-4.72869,1.44194,48,14
3.43247,-3.97936,-0.0917298,12,7
7.05709,-8.18437,2.89567,15,15
8.52251,-9.91183,0.228173,7,8
4.23546,-4.92939,0.340602,6,9
0.400388,-0.466152,-0.119446,15,2
7.69404,-8.96096,1.03332,10,10
4.12823,-4.80968,0.778258,27,11
4.80085,-5.59532,-0.905246,10,4
3.84271,-4.4802,0.934852,119,12
3.79458,-4.42721,1.13341,17,13
3.61521,-4.21943,-0.291197,23,6
4.11106,-4.79985,1.45903,59,14
3.44587,-4.02321,-0.0924629,44,7
7.03727,-8.21923,2.89929,27,15
7.46316,-8.74442,0.200668,12,8
0.345298,-0.404721,-0.122823,15,1
7.58711,-8.89593,0.612749,2,9
0.408951,-0.479497,-0.122499,15,2
7.72347,-9.05902,1.04151,8,10
4.17494,-4.90034,0.790445,27,11
4.26032,-5.00232,-0.806775,9,4
3.87621,-4.55292,0.947054,91,12
3.61211,-4.24571,-0.292139,25,6
4.04378,-4.75479,1.44104,48,14
3.42463,-4.02819,-0.0922883,40,7
14.3695,-16.908,5.94559,13,15
3.91346,-4.61786,0.105657,12,8
0.343884,-0.405924,-0.122823,15,1
7.53536,-8.89797,0.611075,4,9
0.407274,-0.480922,-0.122499,15,2
4.21343,-4.97711,0.570521,31,10
3.26165,-3.85418,-0.799693,10,3
8.36946,-9.89341,1.59113,14,11
3.04946,-3.60599,-0.579854,4,4
3.85519,-4.56038,0.945803,57,12
6.76192,-7.99881,-0.916355,16,5
3.79779,-4.49408,1.14371,26,13
3.46193,-4.09809,-0.281149,22,6
3.9467,-4.67359,1.41224,100,14
3.36024,-3.98053,-0.090927,42,7
3.85998,-4.58712,0.104645,37,8
0.342465,-0.407122,-0.122823,15,1
0.398012,-0.473325,-0.12021,15,2
7.55619,-8.98918,1.02739,19,10
2.98512,-3.55249,-0.734929,36,3
4.02188,-4.788,0.767777,40,11
2.97813,-3.54668,-0.568642,8,4
4.03229,-4.80379,0.993359,26,12
4.25147,-5.06491,-0.57854,25,5
4.05593,-4.83366,1.22652,134,13
5.0469,-6.0168,-0.41157,18,6
4.04054,-4.81875,1.45183,45,14
4.88653,-5.82974,-0.132778,7,7
4.16888,-4.97532,1.73926,40,15
3.85804,-4.61744,0.105029,19,8
0.341041,-0.408315,-0.122823,15,1
4.18839,-5.01637,0.342487,9,9
0.396357,-0.474711,-0.12021,15,2
7.5069,-8.99409,1.02495,10,10
2.9765,-3.56743,-0.735868,30,3
3.92504,-4.70597,0.752421,15,11
2.95937,-3.54943,-0.567424,31,4
4.58839,-5.5052,-0.626998,5,5
4.15967,-4.99259,1.26316,24,13
5.01565,-6.0221,-0.410733,54,6
3.91023,-4.69654,1.41089,39,14
4.23422,-5.08748,-0.115535,18,7
4.18237,-5.02697,1.75221,77,15
0.308436,-0.371645,-0.12941,15,0
3.44354,-4.15071,0.0941383,15,8
0.314734,-0.379503,-0.113825,16,1
4.16958,-5.02943,0.342382,16,9
0.397204,-0.479115,-0.120973,15,2
11.2068,-13.5227,1.53656,26,10
2.98923,-3.60823,-0.742125,43,3
4.372,-5.27921,0.84163,14,11
2.97482,-3.59338,-0.572786,12,4
3.80344,-4.59594,0.944864,115,12
6.90897,-8.34854,-0.94808,4,5
3.93198,-4.75295,1.19904,20,13
6.1045,-7.3817,-0.502007,10,6
3.94472,-4.77174,1.42934,25,14
4.38586,-5.30724,-0.120177,25,7
4.15127,-5.02516,1.74651,19,15
3.55236,-4.31242,0.097524,22,8
0.338183,-0.410686,-0.122823,15,1
0.410502,-0.498687,-0.125552,14,2
11.2849,-13.714,1.55381,16,10
2.94775,-3.58355,-0.734929,15,3
4.13543,-5.02918,0.799463,25,11
2.95721,-3.59761,-0.571811,11,4
3.77985,-4.60003,0.942987,92,12
6.87346,-8.36491,-0.947209,6,5
4.01755,-4.89104,1.23034,24,13
6.65666,-8.10683,-0.549737,10,6
3.94535,-4.80657,1.43564,100,14
6.6556,-8.11132,-0.183146,45,7
14.1727,-17.2787,5.98804,20,15
3.61198,-4.41612,0.0995834,15,8
0.336747,-0.411864,-0.122823,15,1
8.24472,-10.0874,0.682775,37,9
0.393849,-0.481876,-0.120973,15,2
3.99609,-4.89097,0.552567,22,10
2.97021,-3.63666,-0.74369,17,3
8.30851,-10.1764,1.61306,32,11
2.86556,-3.51102,-0.556455,32,4
3.78001,-4.63309,0.947054,109,12
3.407,-4.1759,-0.471513,2,5
3.86148,-4.73464,1.1876,20,13
4.13954,-5.07739,-0.343324,37,6
4.07752,-5.00309,1.49008,27,14
5.78984,-7.10664,-0.160004,93,7
14.1196,-17.337,5.99114,25,15
3.61923,-4.45664,0.100212,39,8
0.320568,-0.394882,-0.117424,16,1
8.19939,-10.1038,0.681938,41,9
0.37732,-0.464954,-0.116393,16,2
4.00284,-4.93428,0.555879,7,10
2.86045,-3.52733,-0.719286,13,3
8.13293,-10.0326,1.58576,32,11
2.90078,-3.57961,-0.565718,49,4
3.73148,-4.60635,0.93892,86,12
3.2093,-3.96174,-0.446063,13,5
3.84493,-4.74809,1.1876,20,13
4.14065,-5.1151,-0.344894,20,6
3.83324,-4.73704,1.40684,55,14
4.12001,-5.09324,-0.114348,35,7
14.1234,-17.4658,6.01858,11,15
3.5911,-4.45368,0.0998627,9,8
0.333863,-0.414205,-0.122823,15,1
8.20167,-10.179,0.685078,18,9
0.390391,-0.484682,-0.120973,15,2
8.1449,-10.1121,1.13599,21,10
2.94351,-3.65577,-0.743377,27,3
4.14975,-5.15572,0.812625,7,11
3.77357,-4.6917,0.953625,63,12
3.19725,-3.97658,-0.446412,30,5
3.91851,-4.87539,1.21583,28,13
6.53995,-8.13987,-0.547225,35,6
3.78495,-4.71089,1.39515,48,14
4.0396,-5.02964,-0.112603,23,7
3.56601,-4.45589,0.0996183,72,8
0.332343,-0.415426,-0.122823,15,1
4.05034,-5.06471,0.33987,38,9
0.38616,-0.483042,-0.12021,15,2
4.03834,-5.05151,0.565815,26,10
2.73772,-3.4258,-0.694569,33,3
4.08746,-5.11661,0.804094,60,11
3.01011,-3.76935,-0.592285,35,4
4.09772,-5.13313,1.04029,111,12
3.17768,-3.98204,-0.445714,13,5
3.90429,-4.89432,1.21698,37,13
6.49762,-8.14817,-0.546178,38,6
3.75186,-4.70493,1.3893,45,14
11.0139,-13.8166,-0.308419,45,7
3.93443,-4.9374,1.69164,62,15
3.5596,-4.48145,0.0998976,82,8
0.330818,-0.416641,-0.122823,15,1
4.15435,-5.2321,0.350128,18,9
0.401559,-0.505916,-0.125552,14,2
4.04085,-5.09281,0.568778,31,10
2.72882,-3.44045,-0.695508,23,3
4.06621,-5.12845,0.803607,10,11
3.43894,-4.33886,-0.679787,11,4
3.68591,-4.65046,0.939858,74,12
6.73831,-8.50468,-0.9493,10,5
3.87133,-4.88791,1.21202,35,13
4.48302,-5.66225,-0.378494,38,6
3.8386,-4.85006,1.42799,65,14
4.08045,-5.15563,-0.114767,23,7
3.95552,-4.99959,1.70821,31,15
3.50633,-4.44456,0.0988155,78,8
0.329435,-0.417736,-0.122823,15,1
4.08413,-5.18069,0.345731,38,9
0.385209,-0.488811,-0.120973,15,2
4.01935,-5.10219,0.568255,22,10
2.74796,-3.48827,-0.703329,10,3
4.14989,-5.26979,0.823593,26,11
3.38892,-4.305,-0.672719,30,4
4.08988,-5.19731,1.04749,65,12
3.35552,-4.26564,-0.474824,5,5
3.89031,-4.94547,1.22309,28,13
4.45805,-5.66924,-0.37797,17,6
3.71411,-4.72488,1.3875,41,14
3.77578,-4.80506,-0.106669,5,7
3.90702,-4.97386,1.69475,26,15
3.49449,-4.4615,0.0989202,48,8
0.327974,-0.418883,-0.122823,15,1
0.398106,-0.508637,-0.125552,14,2
4.05766,-5.1861,0.576099,16,10
3.19457,-4.08445,-0.821281,36,3
4.04099,-5.16852,0.805556,17,11
4.04865,-5.18017,-0.807263,9,4
4.17874,-5.34854,1.07502,14,12
3.2376,-4.14543,-0.460182,1,5
3.86093,-4.94355,1.21927,106,13
3.34557,-4.28522,-0.284917,2,6
3.75634,-4.81309,1.40954,93,14
3.71471,-4.76145,-0.105413,15,7
3.8635,-4.95396,1.68336,79,15
3.52554,-4.53366,0.100247,16,8
0.32651,-0.420026,-0.122823,15,1
0.372152,-0.479084,-0.11792,16,2
3.93598,-5.06875,0.561457,5,10
3.18079,-4.09769,-0.821594,40,3
7.97769,-10.2774,1.59746,32,11
6.38169,-8.22426,-1.27817,2,4
6.27774,-8.09613,-0.89631,20,5
4.04726,-5.22145,1.28414,13,13
3.30171,-4.26114,-0.28251,22,6
3.84011,-4.95778,1.44779,17,14
3.50826,-4.52935,-0.100002,37,7
3.84737,-4.96894,1.68388,27,15
3.46614,-4.49114,0.099025,45,8
0.324969,-0.421219,-0.122823,15,1
3.45425,-4.47897,0.296431,31,9
0.36688,-0.475717,-0.116775,16,2
3.92556,-5.09192,0.562503,7,10
3.0917,-4.01176,-0.802196,35,3
3.95423,-5.13283,0.795563,37,11
3.99694,-5.19014,-0.804338,30,4
3.7897,-4.92281,0.983973,56,12
3.1957,-4.1527,-0.458439,11,5
3.28316,-4.26789,-0.282196,16,6
3.8406,-4.99433,1.45453,25,14
3.49286,-4.54376,-0.100037,50,7
3.80441,-4.95084,1.67301,79,15
3.4395,-4.48893,0.0987108,41,8
0.323496,-0.422351,-0.122823,15,1
6.39638,-8.35402,0.551412,17,9
0.377067,-0.492648,-0.120591,15,2
4.05699,-5.30249,0.584118,3,10
3.11178,-4.06857,-0.811269,28,3
4.12322,-5.391,0.833343,49,11
3.33737,-4.3651,-0.674669,6,4
3.97042,-5.19497,1.0356,84,12
3.18844,-4.17333,-0.459485,1,5
3.99072,-5.22532,1.27804,30,13
3.24568,-4.25132,-0.280311,30,6
3.75724,-4.92317,1.42979,49,14
3.4794,-4.55911,-0.100107,50,7
3.83397,-5.02553,1.69371,45,15
3.40244,-4.47444,0.0981174,74,8
0.321946,-0.423534,-0.122823,15,1
3.45595,-4.5481,0.299362,5,9
0.380096,-0.500214,-0.122118,15,2
3.91674,-5.15638,0.566512,16,10
3.11906,-4.10772,-0.816901,37,3
3.97021,-5.23056,0.806288,55,11
8.58655,-11.3165,-1.74419,15,4
3.88331,-5.11978,1.01776,49,12
3.27018,-4.31143,-0.47343,1,5
3.98669,-5.25799,1.28262,27,13
3.26339,-4.3056,-0.283138,25,6
3.86243,-5.09779,1.47658,47,14
3.47595,-4.58936,-0.100491,66,7
3.71174,-4.90247,1.64764,15,15
3.40849,-4.51502,0.0987457,22,8
0.320466,-0.424655,-0.122823,15,1
0.378348,-0.501538,-0.122118,15,2
11.2235,-14.8833,1.63086,6,10
3.12016,-4.13909,-0.820968,35,3
3.70105,-4.91146,0.755103,27,11
8.31767,-11.0419,-1.6974,14,4
3.69549,-4.90764,0.973022,44,12
3.24792,-4.31327,-0.472384,15,5
4.0179,-5.33775,1.29865,21,13
3.27116,-4.34729,-0.285126,2,6
3.67358,-4.88387,1.41089,86,14
3.46592,-4.60946,-0.100665,33,7
3.37352,-4.50129,0.0981872,77,8
0.318981,-0.425771,-0.122823,15,1
3.41094,-4.55453,0.29821,40,9
0.371887,-0.49657,-0.120591,15,2
3.88781,-5.19316,0.567558,26,10
3.11872,-4.16736,-0.82441,16,3
4.08937,-5.46638,0.838217,57,11
3.17064,-4.23982,-0.650051,32,4
3.92832,-5.25492,-0.574008,15,5
3.63023,-4.85793,1.17882,16,13
3.88349,-5.19873,-0.340079,35,6
3.6157,-4.84201,1.39515,43,14
3.6077,-4.83306,-0.105273,35,7
3.8773,-5.19612,1.73719,74,15
3.33153,-4.47774,0.0974193,82,8
0.303538,-0.408118,-0.117424,16,1
3.41648,-4.59526,0.300094,23,9
0.379523,-0.510469,-0.123644,14,2
3.82688,-5.14914,0.561283,52,10
3.11475,-4.19249,-0.827226,21,3
4.0821,-5.49656,0.840655,54,11
3.13807,-4.22695,-0.646395,21,4
3.23316,-4.35664,-0.47465,10,5
3.54541,-4.77912,1.15668,30,13
3.65475,-4.9283,-0.321552,13,6
3.63707,-4.90626,1.40999,46,14
3.84202,-5.18462,-0.112638,46,7
3.75795,-5.07302,1.69164,21,15
0.287006,-0.388434,-0.12941,15,0
3.63666,-4.92364,0.106844,17,8
0.316001,-0.427988,-0.122823,15,1
3.42769,-4.64412,0.302502,20,9
0.345094,-0.467562,-0.112959,16,2
3.55101,-4.81295,0.523283,43,10
3.07196,-4.16518,-0.819717,23,3
3.79549,-5.14807,0.785326,77,11
3.10092,-4.20752,-0.641764,21,4
3.71302,-5.03991,0.991482,83,12
3.57877,-4.85944,1.17309,18,13
3.82105,-5.19033,-0.337776,29,6
3.66613,-4.98171,1.42799,47,14
3.35228,-4.55691,-0.0987457,27,7
3.77455,-5.13279,1.70717,17,15
4.20002,-5.72811,0.123982,15,8
0.291465,-0.397653,-0.113825,16,1
3.75497,-5.12488,0.332961,33,9
0.366667,-0.500437,-0.120591,15,2
3.54714,-4.843,0.5252,18,10
3.01656,-4.12009,-0.808766,13,3
4.0026,-5.46886,0.832124,26,11
3.04636,-4.16385,-0.633477,11,4
3.68725,-5.04168,0.989292,41,12
4.29297,-5.86989,-0.636237,25,5
3.49689,-4.78315,1.15172,32,13
8.12789,-11.1216,-0.721922,26,6
3.62113,-4.95671,1.41719,56,14
3.31395,-4.5379,-0.0980825,49,7
3.78395,-5.18338,1.71959,9,15
3.76369,-5.17268,0.11166,33,8
0.312931,-0.430238,-0.122823,15,1
3.38145,-4.65076,0.30135,29,9
0.353285,-0.485898,-0.116775,16,2
3.54342,-4.87531,0.527292,50,10
3.01073,-4.14391,-0.811269,13,3
3.83554,-5.28111,0.801413,17,11
3.04157,-4.18944,-0.635671,13,4
4.3077,-5.93558,-0.641641,32,5
3.48626,-4.80547,1.15401,22,13
11.172,-15.4053,-0.997314,18,6
3.5995,-4.96522,1.41584,67,14
3.29377,-4.54516,-0.0979778,18,7
3.77739,-5.21443,1.72529,26,15
3.75498,-5.19875,0.11194,13,8
0.311427,-0.431328,-0.122823,15,1
3.37806,-4.68035,0.302502,30,9
0.36997,-0.512599,-0.122881,15,2
3.52055,-4.87957,0.526421,22,10
3.25508,-4.51328,-0.881352,17,3
3.79619,-5.26548,0.797026,22,11
4.72146,-6.55128,-0.991529,11,4
3.67994,-5.108,0.997113,80,12
4.29162,-5.95704,-0.642338,30,5
3.55322,-4.93391,1.18187,15,13
11.1882,-15.5414,-1.00359,21,6
3.6163,-5.02521,1.42934,52,14
3.94001,-5.47704,-0.117769,36,7
3.6554,-5.08329,1.67767,30,15
4.19357,-5.84888,0.125622,28,8
0.309919,-0.432412,-0.122823,15,1
3.35123,-4.6775,0.30156,33,9
0.359032,-0.50112,-0.119828,15,2
3.51742,-4.91127,0.528512,24,10
2.95872,-4.1327,-0.805012,6,3
3.81129,-5.32552,0.804094,42,11
2.97876,-4.16375,-0.628602,42,4
3.65979,-5.1176,0.996488,117,12
4.56285,-6.38038,-0.686264,21,5
3.8157,-5.33758,1.27537,24,13
3.33506,-4.66696,-0.300618,15,6
3.56928,-4.99657,1.41764,34,14
3.9534,-5.53633,-0.118746,25,7
3.31392,-4.65625,0.099758,8,8
0.308408,-0.433492,-0.122823,15,1
3.34298,-4.70056,0.302293,19,9
0.35728,-0.50237,-0.119828,15,2
3.67111,-5.16385,0.554311,22,10
4.76257,-6.70159,-1.30216,2,3
3.77773,-5.31775,0.800925,50,11
2.96305,-4.17251,-0.628358,47,4
3.67164,-5.17223,1.00462,33,12
4.55555,-6.41739,-0.68853,13,5
3.61412,-5.09309,1.21393,15,13
3.49786,-4.93107,-0.316842,35,6
3.54506,-4.99946,1.41494,12,14
3.9248,-5.53704,-0.118467,62,7
3.30572,-4.67922,0.100002,48,8
0.28441,-0.402729,-0.113825,16,1
3.62489,-5.1348,0.329403,19,9
0.357789,-0.506822,-0.120591,15,2
3.45548,-4.89663,0.524329,26,10
3.86351,-5.47688,-1.06156,16,3
3.65047,-5.17678,0.77777,20,11
2.94618,-4.17958,-0.627871,20,4
3.28221,-4.658,-0.498531,23,5
3.58502,-5.08962,1.21011,15,13
3.48753,-4.95305,-0.31747,26,6
3.54873,-5.04372,-0.107646,47,7
3.4586,-4.91745,1.61089,55,15
3.96561,-5.65507,0.120561,79,8
0.305374,-0.435634,-0.122823,15,1
0.353764,-0.504853,-0.119828,15,2
3.39378,-4.84502,0.517531,22,10
3.56338,-5.08903,-0.983973,12,3
10.781,-15.4026,2.30845,24,11
3.79079,-5.41784,-0.811894,7,4
3.9351,-5.62617,-0.600677,10,5
3.53685,-5.05866,1.19981,37,13
3.44733,-4.93246,-0.315377,35,6
3.49221,-4.99853,1.40774,17,14
3.40287,-4.87246,-0.103737,55,7
3.94471,-5.66724,0.120526,61,8
0.303852,-0.436697,-0.122823,15,1
3.29472,-4.73695,0.302397,46,9
0.354242,-0.509308,-0.120591,15,2
3.06308,-4.40719,-0.850065,5,3
12.8656,-18.5181,2.76863,14,11
3.81715,-5.49625,-0.821643,37,4
3.55869,-5.12601,0.988353,83,12
3.89173,-5.60782,-0.597191,1,5
3.62103,-5.21775,1.23453,18,13
3.39936,-4.90015,-0.31255,18,6
3.44508,-4.96977,-0.105552,20,7
3.62775,-5.23523,1.70665,6,15
0.302326,-0.437755,-0.122823,15,1
3.33717,-4.83389,0.30784,40,9
0.350143,-0.507371,-0.119828,15,2
6.88549,-9.98109,1.06086,38,10
3.60088,-5.22173,-1.00462,27,3
10.6642,-15.4644,2.3065,34,11
3.75062,-5.4409,-0.811406,43,4
3.87553,-5.6263,-0.597714,35,5
3.59298,-5.21805,1.23148,141,13
3.81395,-5.54105,-0.352535,37,6
3.40002,-4.94151,1.3848,46,14
3.41864,-4.96858,-0.105273,30,7
3.22002,-4.69745,0.0994089,60,8
0.300719,-0.43886,-0.122823,15,1
3.27202,-4.77688,0.303444,36,9
0.349479,-0.51021,-0.12021,15,2
3.67632,-5.36913,0.569301,24,10
3.59602,-5.25383,-1.00838,18,3
3.77196,-5.51294,0.820181,9,11
3.23645,-4.73203,-0.703917,8,4
3.56652,-5.21657,1.00087,10,12
9.41195,-13.7664,-1.45899,23,5
3.54926,-5.19328,1.2227,9,13
3.23802,-4.73965,-0.300827,12,6
3.45418,-5.05795,1.41404,21,14
3.4083,-4.99264,-0.105517,20,7
3.45952,-5.06957,1.64454,106,15
3.22498,-4.74007,0.100072,53,8
0.299185,-0.439907,-0.122823,15,1
3.25533,-4.78827,0.303444,23,9
0.347696,-0.511427,-0.12021,15,2
3.6598,-5.38523,0.56965,15,10
3.61429,-5.32027,-1.0187,27,3
3.73374,-5.49816,0.816037,54,11
3.24444,-4.77943,-0.70928,1,4
3.15484,-4.64919,-0.491558,6,5
3.57566,-5.27329,-0.333903,39,6
3.39198,-5.00616,-0.105552,51,7
3.44722,-5.08961,1.64712,105,15
3.18939,-4.72313,0.0994787,57,8
0.297648,-0.440949,-0.122823,15,1
3.20173,-4.74497,0.29999,30,9
0.354693,-0.525657,-0.123263,15,2
6.72266,-9.96675,1.0518,40,10
3.64098,-5.40001,-1.03153,10,3
3.5592,-5.2807,0.781914,27,11
3.84777,-5.711,-0.84553,13,4
3.14446,-4.67064,-0.492604,1,5
3.56445,-5.29448,1.24064,34,13
3.60183,-5.35202,-0.33809,22,6
3.36005,-4.99463,1.38975,55,14
3.36221,-4.99972,-0.105168,20,7
6.34154,-9.43366,3.04578,20,15
3.32652,-4.96347,0.104296,85,8
0.296107,-0.441985,-0.122823,15,1
3.20737,-4.78931,0.302083,30,9
0.33529,-0.50085,-0.117157,16,2
10.4646,-15.6377,1.6462,16,10
3.56295,-5.32629,-1.01495,20,3
3.66767,-5.48284,0.809944,65,11
5.73344,-8.57423,-1.26647,19,4
3.10157,-4.64182,-0.488421,1,5
3.76962,-5.6459,-0.35578,27,6
3.45531,-5.17711,1.43699,59,14
3.93087,-5.88963,-0.123598,33,7
3.46774,-5.21541,0.109322,53,8
0.294485,-0.443068,-0.122823,15,1
3.17875,-4.7844,0.301036,29,9
0.33354,-0.502018,-0.117157,16,2
10.0671,-15.158,1.59199,13,10
3.6241,-5.45884,-1.03779,22,3
3.74524,-5.64345,0.831636,52,11
5.75027,-8.66797,-1.27719,11,4
3.51368,-5.29854,-0.556228,13,5
10.2692,-15.4915,3.61278,22,13
3.53145,-5.32937,-0.335055,26,6
3.38987,-5.11765,1.41719,61,14
3.15964,-4.77188,-0.0998976,4,7
10.2788,-15.5295,4.99003,14,15
3.46713,-5.25419,0.10988,16,8
0.292937,-0.444093,-0.122823,15,1
3.16752,-4.8038,0.30156,34,9
0.33827,-0.513013,-0.119446,15,2
3.62716,-5.50297,0.576622,84,10
3.45938,-5.25042,-0.995862,10,3
3.62179,-5.499,0.808481,30,11
3.81295,-5.79144,-0.851379,7,4
3.60032,-5.47055,-0.572962,13,5
10.2517,-15.5831,3.62575,16,13
3.48319,-5.29661,-0.332229,48,6
3.41802,-5.19947,1.43654,50,14
3.1232,-4.7528,-0.0992693,18,7
10.2171,-15.554,4.98641,19,15
3.43124,-5.2395,0.109322,44,8
0.291385,-0.445113,-0.122823,15,1
3.08621,-4.71623,0.295384,16,9
0.332177,-0.507619,-0.11792,16,2
3.63738,-5.56062,0.581329,52,10
3.43779,-5.2575,-0.994923,13,3
3.62007,-5.54048,-0.812625,22,4
3.18875,-4.88222,0.923589,104,12
4.14554,-6.34956,-0.663429,26,5
3.49354,-5.35091,1.24217,4,13
3.49416,-5.3539,-0.335055,29,6
3.41156,-5.22933,1.44149,29,14
3.11751,-4.78043,-0.0996183,4,7
10.0604,-15.4326,4.9362,19,15
3.43037,-5.27827,0.10988,31,8
0.289829,-0.446127,-0.122823,15,1
3.44719,-5.30821,0.331705,24,9
0.33459,-0.51542,-0.119446,15,2
3.66578,-5.64912,0.589173,67,10
7.0047,-10.7987,-2.03865,6,3
3.65039,-5.6297,-0.823837,32,4
3.21145,-4.95465,0.935165,99,12
3.62392,-5.59315,-0.583072,11,5
3.25525,-5.028,-0.313911,28,6
3.38602,-5.23198,1.43879,44,14
3.83744,-5.9295,-0.123284,46,7
10.019,-15.4871,4.94241,16,15
3.78807,-5.87569,0.122027,71,8
0.288192,-0.447187,-0.122823,15,1
3.16487,-4.91281,0.30627,34,9
0.354053,-0.549594,-0.127079,14,2
3.58779,-5.57142,0.57976,35,10
3.42681,-5.32349,-1.00275,12,3
3.23542,-5.02809,0.734141,5,11
3.67161,-5.70816,-0.833343,48,4
3.1954,-4.96971,0.935791,73,12
3.51817,-5.4717,-0.569127,23,5
3.45835,-5.38073,1.24331,31,13
3.82282,-5.95008,-0.370643,49,6
3.41512,-5.31755,1.45903,93,14
3.13292,-4.88002,-0.101224,4,7
9.93089,-15.4749,4.92688,21,15
3.37634,-5.27741,0.109357,27,8
0.286629,-0.44819,-0.122823,15,1
3.04013,-4.75555,0.295803,30,9
0.330984,-0.517744,-0.119446,15,2
3.50931,-5.49158,0.570173,18,10
3.42097,-5.3554,-1.0065,13,3
3.19968,-5.01091,0.729997,55,11
3.66341,-5.73934,-0.836024,30,4
3.29066,-5.15735,0.968955,74,12
3.55477,-5.57129,-0.578191,13,5
3.42688,-5.37291,1.23873,27,13
3.11485,-4.88556,-0.303653,28,6
3.3515,-5.25878,1.43969,48,14
3.13305,-4.91791,-0.101782,9,7
9.91417,-15.5681,4.94551,19,15
3.35362,-5.28241,0.109217,61,8
0.285063,-0.449188,-0.122823,15,1
3.11766,-4.91454,0.305014,30,9
0.312347,-0.492371,-0.113341,16,2
3.76007,-5.92949,0.614274,24,10
3.42235,-5.39901,-1.01244,6,3
3.19917,-5.04888,0.733897,42,11
3.6646,-5.78564,-0.840899,12,4
3.17859,-5.02027,0.94111,92,12
3.36917,-5.32333,-0.551173,18,5
3.3976,-5.36825,1.23492,31,13
3.07321,-4.85759,-0.301246,36,6
3.39458,-5.36762,1.46623,30,14
3.12976,-4.95079,-0.102236,19,7
13.1168,-20.7567,6.57918,15,15
3.27973,-5.20611,0.107402,50,8
0.283493,-0.45018,-0.122823,15,1
3.05793,-4.85779,0.300827,10,9
0.337726,-0.536715,-0.123263,15,2
3.58025,-5.69194,0.588301,41,10
3.38782,-5.3881,-1.00806,11,3
3.20478,-5.09699,0.73926,42,11
3.17366,-5.05141,0.944864,119,12
3.40143,-5.41605,-0.55954,18,5
3.47811,-5.54029,1.27155,36,13
3.0384,-4.84175,-0.299571,57,6
3.31171,-5.27932,1.43879,28,14
3.12734,-4.9854,-0.102725,39,7
15.3555,-24.4882,7.7449,10,15
3.3613,-5.3792,0.110718,71,8
0.308816,-0.494593,-0.113341,16,2
3.66796,-5.87681,0.606081,35,10
3.34389,-5.35967,-1.00055,2,3
3.24595,-5.20471,0.753153,30,11
3.38682,-5.43269,-0.786057,41,4
3.26378,-5.23736,0.977403,79,12
3.27608,-5.2571,-0.541934,32,5
2.96975,-4.76925,-0.294442,36,6
9.90348,-15.9106,4.32671,25,14
3.25694,-5.23453,-0.107612,31,7
15.2472,-24.5148,7.73558,10,15
3.38992,-5.46738,0.112289,49,8
9.5931,-15.4841,0.954608,14,9
0.333971,-0.53906,-0.123263,15,2
3.70932,-5.98951,0.616365,60,10
3.39795,-5.48888,-1.02246,5,3
3.25388,-5.25821,0.759246,2,11
3.50359,-5.66394,-0.817743,16,4
3.10938,-5.02863,0.936417,117,12
3.25142,-5.25834,-0.540889,31,5
2.91109,-4.71162,-0.290255,37,6
9.86734,-15.9766,4.33526,37,14
3.06637,-4.96681,-0.101887,24,7
12.7256,-20.6206,6.49273,3,15
0.253138,-0.411308,-0.12941,15,0
0.278685,-0.453173,-0.122823,15,1
0.338256,-0.550258,-0.125552,14,2
8.79121,-14.3067,1.4691,28,10
3.40255,-5.53942,-1.02965,7,3
3.25939,-5.30844,0.764852,35,11
3.56479,-5.8081,-0.836755,10,4
3.03706,-4.95021,0.919835,100,12
3.26118,-5.31551,-0.545595,28,5
2.9176,-4.75922,-0.292558,28,6
9.79624,-15.986,4.32851,40,14
3.04275,-4.96726,-0.101678,52,7
12.5819,-20.548,6.45598,17,15
3.59963,-5.89714,0.120596,59,8
0.277101,-0.454143,-0.122823,15,1
3.43303,-5.62862,0.345522,54,9
0.332244,-0.544731,-0.124026,14,2
8.60016,-14.1059,1.44539,25,10
0.376253,-0.61737,-0.11451,22,3
3.22948,-5.30114,0.762171,62,11
3.31219,-5.43903,-0.781914,4,4
3.0362,-4.98778,0.924841,89,12
3.22914,-5.30474,-0.543329,31,5
9.62874,-15.824,3.60057,31,13
2.92172,-4.8035,-0.294651,15,6
9.67558,-15.9135,4.29971,28,14
3.03577,-4.99494,-0.102027,53,7
12.4831,-20.5472,6.44201,14,15
3.40396,-5.6206,0.114697,34,8
0.275514,-0.455107,-0.122823,15,1
3.20655,-5.29882,0.324588,48,9
0.328308,-0.542528,-0.123263,15,2
8.58181,-14.187,1.45062,34,10
3.32495,-5.49881,-1.01776,8,3
3.18837,-5.275,0.756809,62,11
7.45893,-12.3453,-1.77101,15,4
3.09842,-5.13024,0.949244,38,12
3.2518,-5.3842,-0.550301,22,5
8.50398,-14.0861,3.19834,22,13
2.66243,-4.41182,-0.270054,2,6
12.4404,-20.6227,5.56034,31,14
3.21555,-5.33258,-0.108694,21,7
12.3484,-20.4864,6.4094,14,15
0.273924,-0.456066,-0.122823,15,1
0.300137,-0.499908,-0.113341,16,2
2.85843,-4.76287,0.48598,9,10
0.377015,-0.628451,-0.116074,22,3
3.17606,-5.29631,0.758271,30,11
3.34456,-5.57951,-0.798732,12,4
3.12111,-5.2088,0.961759,17,12
3.27907,-5.47242,-0.558145,36,5
8.44063,-14.0921,3.193,31,13
2.65317,-4.43137,-0.270682,13,6
19.3847,-32.3895,8.7146,12,14
3.02034,-5.04861,-0.10269,4,7
12.3244,-20.6089,6.43424,21,15
2.62228,-4.39892,0.0893912,44,8
0.27233,-0.457019,-0.122823,15,1
0.314465,-0.527939,-0.119446,15,2
0.371788,-0.624671,-0.115136,22,3
3.42753,-5.76117,0.823106,19,11
3.30883,-5.56385,-0.794832,10,4
2.83457,-4.77016,-0.485457,31,5
8.34726,-14.0472,3.17621,34,13
2.64686,-4.45606,-0.271624,21,6
12.6344,-21.2788,5.71331,20,14
2.5975,-4.37643,-0.0888328,18,7
12.2761,-20.6917,6.44666,7,15
2.60488,-4.40461,0.0893214,12,8
0.270733,-0.457967,-0.122823,15,1
2.97815,-5.03979,0.306793,24,9
0.32451,-0.549373,-0.124026,14,2
2.70575,-4.58248,0.465586,46,10
3.71303,-6.29091,-1.15699,2,3
3.36805,-5.70642,0.8136,57,11
3.26215,-5.5292,-0.788251,24,4
3.07965,-5.22196,0.960195,24,12
2.83308,-4.80577,-0.488072,43,5
8.33559,-14.1454,3.19147,28,13
2.61227,-4.43475,-0.26974,28,6
12.5544,-21.3216,5.71241,27,14
2.57815,-4.37858,-0.0886931,41,7
18.6143,-31.6261,9.83305,17,15
2.58568,-4.40895,0.0892167,48,8
0.269053,-0.458956,-0.122823,15,1
2.68399,-4.58025,0.278218,44,9
0.31465,-0.536952,-0.120973,15,2
2.68873,-4.59017,0.465412,20,10
3.68905,-6.30043,-1.15636,2,3
3.13955,-5.36409,0.763146,57,11
7.04809,-12.0469,-1.71373,15,4
2.82333,-4.82767,-0.489292,7,5
14.4698,-24.7522,5.57315,24,13
2.60181,-4.45246,-0.270263,10,6
2.59133,-4.43808,-0.0897054,46,7
18.4963,-31.6908,9.83202,17,15
2.56927,-4.41622,0.0891818,45,8
0.267449,-0.459893,-0.122823,15,1
2.68003,-4.61031,0.279474,31,9
0.320667,-0.551625,-0.124026,14,2
2.71073,-4.66499,0.472035,31,10
0.357179,-0.614929,-0.112633,23,3
3.17563,-5.46944,0.776551,20,11
8.0712,-13.9068,-1.97428,4,4
2.97579,-5.12938,0.939233,74,12
2.82845,-4.87541,-0.493127,13,5
8.25731,-14.2389,3.19949,10,13
12.4101,-21.4172,5.71466,6,14
2.58985,-4.47133,-0.090194,65,7
2.74875,-4.76289,0.0959882,82,8
0.265842,-0.460824,-0.122823,15,1
2.73676,-4.74594,0.287115,14,9
0.330508,-0.57315,-0.128605,14,2
2.7004,-4.68478,0.473081,11,10
0.36292,-0.629864,-0.115136,22,3
3.16642,-5.49769,0.778989,27,11
2.81584,-4.89096,-0.692949,4,4
2.97068,-5.16199,0.9433,46,12
3.18409,-5.53282,-0.558494,10,5
18.6638,-32.4442,7.27555,14,13
3.11924,-5.42453,-0.327937,35,6
12.345,-21.4773,5.71916,6,14
2.57522,-4.48207,-0.0902289,81,7
18.0784,-31.4774,9.72642,17,15
2.55924,-4.47049,0.0899148,66,8
0.264232,-0.461749,-0.122823,15,1
2.67356,-4.67398,0.282196,23,9
0.305111,-0.533401,-0.119446,15,2
3.01336,-5.27014,0.531127,26,10
0.360719,-0.631127,-0.115136,22,3
8.52583,-14.9232,2.11029,27,11
2.97125,-5.20493,0.949244,36,12
2.62742,-4.60262,-0.463669,13,5
8.14798,-14.2791,3.19567,36,13
18.4908,-32.431,8.61878,25,14
2.55659,-4.48582,-0.0901242,77,7
17.9378,-31.4866,9.70986,17,15
2.53375,-4.46201,0.0895658,56,8
0.262619,-0.462668,-0.122823,15,1
2.68286,-4.72845,0.284917,25,9
0.287745,-0.507142,-0.113341,16,2
2.94678,-5.19571,0.522586,43,10
0.349746,-0.616917,-0.11232,23,3
3.28652,-5.79945,0.818475,2,11
3.66904,-6.47709,-0.91402,36,4
2.5984,-4.59266,-0.276543,11,6
18.3861,-32.5106,8.62282,12,14
2.55863,-4.52605,-0.0907525,81,7
17.9057,-31.6869,9.7523,17,15
2.5368,-4.50393,0.0902289,63,8
0.261002,-0.463582,-0.122823,15,1
2.68201,-4.76563,0.286592,37,9
0.305231,-0.542361,-0.120973,15,2
2.71176,-4.82047,0.483889,30,10
0.34759,-0.618134,-0.11232,23,3
12.7129,-22.6171,3.18566,37,11
2.78586,-4.95825,-0.698311,6,4
7.72595,-13.7562,2.49888,16,12
17.6906,-31.5114,7.02444,13,13
2.59408,-4.6226,-0.277799,16,6
18.4384,-32.8703,8.70111,12,14
2.54771,-4.54368,-0.090927,73,7
17.7468,-31.6633,9.7259,8,15
2.5513,-4.56688,0.091311,60,8
0.259382,-0.46449,-0.122823,15,1
2.66828,-4.7802,0.286906,40,9
0.332043,-0.594851,-0.132421,13,2
2.52988,-4.53412,0.454256,70,10
0.350241,-0.627969,-0.113884,23,3
3.11449,-5.58645,0.785326,12,11
8.17708,-14.6732,-2.06252,2,4
6.62221,-11.888,-1.19055,15,5
17.6741,-31.7411,7.06184,27,13
2.55559,-4.59149,-0.275392,27,6
17.3174,-31.126,8.22331,12,14
2.57363,-4.62769,-0.0924279,48,7
17.5461,-31.5629,9.67621,8,15
2.48494,-4.4848,0.0894959,61,8
0.257759,-0.465393,-0.122823,15,1
2.57999,-4.66018,0.27916,45,9
0.309044,-0.55822,-0.124026,14,2
2.50729,-4.53073,0.453036,47,10
0.356653,-0.644745,-0.1167,32,3
2.99507,-5.41661,0.759977,42,11
3.00468,-5.43625,-0.762658,22,4
7.36799,-13.3361,2.41316,33,12
6.5826,-11.9145,-1.1909,12,5
19.7585,-35.7777,7.94452,8,13
2.47391,-4.48148,-0.268274,34,6
17.1578,-31.0941,8.19902,12,14
2.71585,-4.92381,-0.0981523,49,7
17.5216,-31.7796,9.72383,8,15
2.5415,-4.62489,0.0921138,33,8
0.256133,-0.46629,-0.122823,15,1
2.56563,-4.67266,0.279369,25,9
0.280636,-0.51111,-0.113341,16,2
2.49817,-4.55168,0.454256,19,10
0.35155,-0.64079,-0.115762,22,3
3.06109,-5.58194,0.78167,20,11
7.33278,-13.3825,2.41691,36,12
2.57268,-4.69714,-0.468549,13,5
16.9532,-30.9528,6.85997,6,13
2.57814,-4.70908,-0.281358,22,6
7.83134,-14.3102,3.76613,35,14
2.7188,-4.9701,-0.0988853,50,7
