x, y, z, intensity, ring
3.33168,7.51483,-1.00932,26,4
11.6579,26.2951,4.55569,26,12
3.86549,8.71477,-0.83408,17,5
30.9584,69.7628,14.8358,37,13
4.70141,10.5894,-0.607202,30,6
5.87467,13.2258,-0.252606,94,7
7.7536,17.3822,0.332224,44,8
0.248578,0.557006,-0.140819,26,1
7.47417,16.7401,0.960784,29,9
2.59593,5.81143,-1.23721,23,2
10.3915,23.2523,2.22822,11,10
2.91925,6.53218,-1.13321,26,3
11.7123,26.1954,3.52324,22,11
3.35091,7.49106,-1.00762,27,4
3.8853,8.67758,-0.831814,17,5
4.71771,10.5318,-0.604794,33,6
5.92571,13.2161,-0.252816,77,7
29.7596,66.342,19.4829,53,15
0.206137,0.458033,-0.134586,15,0
7.52113,16.7041,0.319763,22,8
0.246519,0.547251,-0.13857,13,1
7.52025,16.6866,0.959213,45,9
2.61357,5.79921,-1.23644,23,2
11.1237,24.6708,2.36767,32,10
2.93797,6.51295,-1.13165,25,3
12.3009,27.2562,3.67168,24,11
3.36969,7.46303,-1.00542,28,4
29.2959,64.853,11.2711,24,12
3.91324,8.66283,-0.83164,17,5
4.72071,10.4406,-0.600503,37,6
5.95202,13.1516,-0.251978,69,7
0.215724,0.4749,-0.139762,14,0
7.24514,15.9422,0.305661,7,8
0.24762,0.544613,-0.13812,27,1
7.65619,16.8311,0.969053,13,9
2.63055,5.7829,-1.23492,21,2
12.6375,27.769,2.66923,15,10
2.95741,6.49546,-1.1304,25,3
12.5449,27.5401,3.7158,24,11
3.37925,7.4151,-1.00055,27,4
29.563,64.8403,11.2867,24,12
3.9451,8.65275,-0.831989,17,5
29.8386,65.4143,13.9756,32,13
4.73059,10.366,-0.597153,37,6
30.5301,66.8685,16.9708,55,14
5.96299,13.0544,-0.250512,77,7
0.21416,0.467119,-0.137692,14,0
7.26239,15.8332,0.304056,8,8
0.247082,0.538432,-0.13677,27,1
8.70405,18.9588,1.0933,16,9
2.63679,5.74336,-1.22843,23,2
12.7003,27.6505,2.66208,15,10
2.97594,6.47612,-1.12883,26,3
12.3574,26.8793,3.63244,23,11
3.39433,7.37981,-0.997379,27,4
30.3656,65.9892,11.5051,25,12
3.96696,8.62082,-0.830246,17,5
30.1062,65.3953,13.9939,32,13
4.75171,10.3167,-0.595269,37,6
5.97337,12.9572,-0.249046,77,7
0.202809,0.438317,-0.12941,15,0
7.31846,15.8096,0.304091,19,8
0.260425,0.562322,-0.143069,12,1
7.82052,16.8787,0.974914,50,9
2.6527,5.72521,-1.22652,23,2
14.6921,31.6949,3.05638,9,10
2.99438,6.45673,-1.12727,26,3
12.4771,26.8918,3.63999,11,11
3.40837,7.34271,-0.993966,26,4
30.5958,65.8828,11.5051,25,12
3.97857,8.56717,-0.826411,17,5
4.76159,10.2439,-0.592024,33,6
30.0118,64.5369,16.4318,50,14
6.00505,12.9073,-0.248487,70,7
0.210877,0.45161,-0.133551,15,0
7.37361,15.784,0.304091,26,8
0.259086,0.554348,-0.141269,26,1
8.72537,18.6606,1.07959,8,9
2.67267,5.71592,-1.22652,23,2
12.942,27.6659,2.67219,8,10
3.00601,6.42298,-1.1232,25,3
12.5608,26.8265,3.63707,11,11
3.43314,7.32897,-0.993723,24,4
3.99999,8.53519,-0.824668,17,5
30.5619,65.1835,13.9939,32,13
4.78121,10.1929,-0.590036,33,6
30.2783,64.5199,16.4543,50,14
6.02798,12.8392,-0.24758,70,7
0.217393,0.461356,-0.136656,14,0
7.46446,15.8341,0.305557,8,8
0.256032,0.542865,-0.13857,13,1
8.76999,18.5867,1.07707,6,9
2.68757,5.6959,-1.22423,23,2
12.6141,26.7215,2.58521,15,10
3.02251,6.39995,-1.12101,27,3
12.734,26.9512,3.65998,24,11
3.45361,7.30617,-0.99226,22,4
4.01528,8.49055,-0.821704,17,5
30.843,65.19,14.0184,32,13
4.78685,10.113,-0.586372,33,6
6.03681,12.7422,-0.246114,70,7
0.228957,0.481531,-0.142868,14,0
7.94747,16.7072,0.322939,28,8
0.253738,0.53317,-0.13632,27,1
8.84684,18.5812,1.07854,10,9
2.70153,5.67407,-1.22156,23,2
12.6601,26.5783,2.57563,60,10
3.04398,6.38758,-1.1207,22,3
12.8981,27.0536,3.67997,24,11
3.46286,7.26003,-0.987629,23,4
4.03803,8.4621,-0.82031,17,5
4.80405,10.0583,-0.584174,37,6
6.04933,12.6543,-0.244822,78,7
0.215595,0.449376,-0.133551,15,0
8.00314,16.674,0.322835,56,8
0.253067,0.527011,-0.134971,14,1
9.61134,20.0066,1.16322,50,9
2.71197,5.64514,-1.21736,26,2
12.7735,26.5771,2.57981,45,10
3.06283,6.36979,-1.11945,22,3
13.1818,27.4019,3.73359,12,11
3.48301,7.23717,-0.986167,23,4
31.4509,65.3211,11.4826,25,12
4.03815,8.38692,-0.814383,19,5
31.9671,66.3633,14.3183,34,13
4.82872,10.0199,-0.582918,37,6
6.07088,12.5862,-0.243915,79,7
0.217162,0.448621,-0.133551,15,0
7.9907,16.5002,0.320007,30,8
0.261702,0.540154,-0.13857,27,1
9.69156,19.9945,1.16448,35,9
2.72909,5.63034,-1.21622,26,2
12.9471,26.6991,2.59602,15,10
3.08333,6.35551,-1.11882,22,3
3.50218,7.21246,-0.984461,24,4
31.5338,64.9124,11.43,25,12
4.05957,8.35664,-0.812814,19,5
32.0269,65.8982,14.242,34,13
4.85144,9.97785,-0.581453,37,6
6.0789,12.4913,-0.242484,97,7
0.211944,0.433973,-0.12941,15,0
7.93326,16.2368,0.315435,22,8
0.271288,0.554994,-0.142619,26,1
9.81218,20.0646,1.17055,35,9
2.74528,5.61373,-1.21469,26,2
13.4045,27.3982,2.66853,15,10
3.09507,6.32341,-1.11506,22,3
13.5194,27.6088,3.77454,12,11
3.51861,7.18237,-0.982023,27,4
31.814,64.9119,11.4494,25,12
4.09222,8.34958,-0.813512,19,5
32.293,65.8601,14.258,34,13
4.87657,9.94113,-0.580301,33,6
6.09602,12.4161,-0.241437,97,7
0.221996,0.45056,-0.134586,15,0
7.75117,15.7247,0.30601,21,8
0.256848,0.520836,-0.134071,28,1
9.84952,19.9729,1.16709,39,9
2.76399,5.60235,-1.21431,26,2
13.052,26.4436,2.57998,45,10
3.11188,6.30194,-1.11319,23,3
10.2764,20.8019,2.84882,7,11
3.5331,7.14869,-0.979098,27,4
33.2352,67.2463,11.8806,27,12
4.11869,8.32989,-0.812989,17,5
4.89175,9.88467,-0.577998,33,6
6.13717,12.3958,-0.241437,71,7
0.237325,0.477461,-0.142868,14,0
7.79169,15.6757,0.305557,29,8
0.264647,0.532196,-0.13722,13,1
9.87825,19.8561,1.16228,48,9
2.77478,5.57509,-1.21049,26,2
13.2002,26.5103,2.59097,30,10
3.12483,6.27568,-1.11037,25,3
10.3613,20.7997,2.85321,7,11
3.54085,7.10495,-0.974711,22,4
13.5869,27.2511,4.82288,7,12
4.13885,8.29763,-0.811246,16,5
4.91112,9.84159,-0.576428,30,6
6.14824,12.3099,-0.24018,71,7
0.24237,0.48358,-0.144939,14,0
7.87147,15.6984,0.306534,21,8
0.263008,0.524301,-0.135421,13,1
10.0604,20.0464,1.17547,35,9
2.78189,5.54081,-1.20515,23,2
10.6642,21.2404,2.07936,25,10
3.14938,6.27003,-1.11131,22,3
13.1577,26.1839,3.59807,11,11
3.55225,7.06594,-0.971055,21,4
13.6251,27.0906,4.80285,18,12
4.166,8.27957,-0.810897,16,5
4.93817,9.80568,-0.575382,30,6
6.15968,12.2259,-0.238958,90,7
0.228446,0.451658,-0.135621,15,0
7.95603,15.723,0.307581,20,8
0.27549,0.544198,-0.140819,13,1
10.1482,20.0379,1.17714,29,9
2.80395,5.53408,-1.20591,26,2
10.7384,21.1941,2.07866,41,10
3.16609,6.24611,-1.10912,21,3
13.1889,26.008,3.58052,11,11
3.57094,7.03871,-0.969105,21,4
4.17737,8.22694,-0.807236,18,5
4.9587,9.75725,-0.573602,33,6
6.17725,12.1497,-0.237911,90,7
0.228343,0.447377,-0.134586,15,0
8.01451,15.6955,0.307616,20,8
0.271277,0.531036,-0.13767,27,1
10.2499,20.0646,1.1808,35,9
2.82504,5.52775,-1.20668,26,2
10.7942,21.112,2.07448,56,10
3.17997,6.21687,-1.10599,21,3
13.4306,26.2458,3.62001,23,11
3.60454,7.04388,-0.971543,21,4
13.7331,26.8254,4.77313,14,12
4.19608,8.1928,-0.805319,16,5
4.97815,9.71144,-0.571927,37,6
6.20229,12.0943,-0.237248,72,7
0.229825,0.446617,-0.134586,15,0
8.02808,15.5942,0.30615,19,8
0.265006,0.514542,-0.133621,14,1
10.3082,20.0145,1.17986,39,9
2.84605,5.52359,-1.20782,23,2
10.6789,20.7166,2.0391,20,10
3.1906,6.18698,-1.10255,25,3
10.7052,20.7499,2.86685,22,11
3.61877,7.01424,-0.969105,23,4
13.9135,26.957,4.80473,39,12
4.2086,8.15052,-0.80253,16,5
36.9036,71.4382,15.6295,41,13
4.9874,9.65052,-0.569311,30,6
6.22583,12.0417,-0.23662,72,7
0.236643,0.456141,-0.137692,14,0
8.03092,15.4734,0.3043,19,8
0.275691,0.530955,-0.13812,13,1
10.3439,19.9129,1.17599,22,9
2.85802,5.50193,-1.20515,19,2
10.7172,20.6227,2.03334,39,10
3.21019,6.17461,-1.10224,21,3
10.8628,20.8851,2.8905,30,11
3.62582,6.96811,-0.964474,25,4
39.465,75.8116,13.5369,41,12
4.22548,8.11708,-0.800613,18,5
4.988,9.57371,-0.565752,33,6
6.23547,11.9578,-0.235398,81,7
0.234652,0.448466,-0.135621,15,0
8.04779,15.3744,0.302904,19,8
0.272119,0.519631,-0.135421,27,1
2.87539,5.48844,-1.20439,23,2
10.9168,20.8287,2.0574,55,10
3.22805,6.15637,-1.10099,21,3
10.8684,20.7187,2.8727,45,11
3.64367,6.94311,-0.962768,21,4
4.24267,8.08111,-0.798521,18,5
5.02139,9.55624,-0.565752,30,6
6.24552,11.8758,-0.234211,90,7
8.04726,15.2436,0.30088,19,8
0.284852,0.539357,-0.140819,26,1
10.6208,20.1015,1.19148,27,9
2.88444,5.45927,-1.20019,21,2
10.8376,20.5033,2.02899,39,10
3.24399,6.13459,-1.09911,21,3
10.9842,20.7631,2.88416,30,11
3.66788,6.93035,-0.962768,21,4
14.3466,27.0961,4.85604,7,12
4.25641,8.03557,-0.795558,16,5
5.03975,9.51042,-0.564077,33,6
6.25602,11.7956,-0.233059,82,7
0.237855,0.446775,-0.135621,15,0
8.07599,15.1696,0.299972,22,8
0.279404,0.524599,-0.13722,27,1
10.7171,20.1137,1.19441,45,9
2.90628,5.45213,-1.20095,21,2
10.9577,20.5479,2.03735,55,10
3.25715,6.10523,-1.09598,21,3
11.0015,20.6213,2.86978,7,11
3.68925,6.91225,-0.962037,25,4
14.5091,27.1731,4.87888,15,12
4.26847,7.99079,-0.792594,18,5
5.0661,9.47603,-0.563135,33,6
6.27641,11.7349,-0.232292,73,7
36.5476,68.3041,20.7573,63,15
0.246723,0.459559,-0.139762,14,0
8.141,15.1575,0.300321,19,8
0.286859,0.533871,-0.13992,13,1
10.7492,19.9969,1.18981,32,9
2.9225,5.43676,-1.19981,21,2
10.8397,20.1568,2.00232,38,10
3.27283,6.08339,-1.0941,21,3
11.0601,20.5494,2.86539,7,11
3.70797,6.88645,-0.960331,21,4
14.5964,27.0971,4.87481,30,12
4.28878,7.96181,-0.7912,18,5
37.9753,70.4687,15.5601,41,13
5.09536,9.45125,-0.562716,33,6
6.29089,11.6591,-0.231244,73,7
0.239128,0.441706,-0.134586,15,0
8.18624,15.1149,0.300042,21,8
0.286864,0.52944,-0.13902,13,1
10.9703,20.2384,1.20645,17,9
2.93959,5.42308,-1.19904,19,2
11.0553,20.3868,2.02899,39,10
3.28933,6.06324,-1.09254,22,3
3.71588,6.8438,-0.956187,22,4
14.7041,27.0703,4.87919,3,12
4.31084,7.93629,-0.790154,18,5
5.11687,9.41235,-0.56146,37,6
6.29905,11.5773,-0.230058,73,7
0.231412,0.423912,-0.12941,15,0
8.17282,14.9651,0.297633,26,8
0.284973,0.521595,-0.13722,13,1
10.9416,20.0266,1.19598,27,9
2.94909,5.39556,-1.19523,19,2
10.7632,19.6838,1.96275,37,10
3.30858,6.04826,-1.09191,22,3
14.9199,27.2631,3.81597,25,11
3.74261,6.83602,-0.956918,25,4
41.1996,75.2527,13.5882,42,12
4.33182,7.90896,-0.788934,16,5
5.13529,9.36816,-0.55989,33,6
38.2709,69.7875,18.3754,63,14
6.29991,11.488,-0.228696,92,7
0.251522,0.45695,-0.139762,14,0
8.18575,14.8714,0.296307,28,8
0.292341,0.530889,-0.13992,13,1
11.0403,20.0408,1.19912,47,9
2.96411,5.37835,-1.1937,23,2
10.8261,19.6356,1.9617,37,10
3.31718,6.01649,-1.08816,22,3
14.9546,27.1126,3.80184,12,11
3.76717,6.82704,-0.957406,27,4
40.9504,74.1814,13.4205,40,12
4.34207,7.86239,-0.785796,16,5
38.3857,69.5068,15.4342,40,13
5.14991,9.32136,-0.558111,33,6
6.30417,11.4012,-0.227405,83,7
0.249287,0.449356,-0.137692,14,0
8.21336,14.799,0.295434,19,8
0.294193,0.529865,-0.13992,13,1
11.0937,19.9725,1.19734,30,9
2.97621,5.35819,-1.19141,21,2
11.1359,20.0403,2.0058,19,10
3.3228,5.97725,-1.08315,22,3
14.9855,26.9458,3.78575,12,11
3.78519,6.80344,-0.955943,28,4
41.2302,74.076,13.4274,40,12
4.36076,7.83152,-0.784227,18,5
5.16298,9.26843,-0.556017,35,6
6.32056,11.3372,-0.226567,74,7
0.258479,0.461926,-0.141833,14,0
8.222,14.6935,0.293899,24,8
0.292233,0.522033,-0.13812,13,1
11.2756,20.134,1.20938,24,9
2.99391,5.34382,-1.19065,19,2
11.4441,20.4182,2.04781,15,10
3.34179,5.95987,-1.08221,26,3
15.0834,26.9002,3.78672,24,11
3.80503,6.78326,-0.954968,27,4
42.0202,74.8791,13.5995,42,12
4.37832,7.79888,-0.782484,16,5
5.15876,9.18154,-0.551935,38,6
6.33462,11.2697,-0.22566,74,7
0.265786,0.471117,-0.144939,14,0
8.22862,14.5796,0.292223,24,8
0.292228,0.517565,-0.13722,13,1
11.7501,20.8021,1.25209,58,9
3.00868,5.3265,-1.18912,19,2
11.6182,20.5602,2.06611,10,10
3.36159,5.94645,-1.0819,25,3
15.174,26.8309,3.78477,12,11
3.80641,6.72781,-0.949119,21,4
42.2943,74.7246,13.5995,42,12
4.3892,7.75157,-0.779347,18,5
39.195,69.2206,15.4624,40,13
5.17109,9.12872,-0.549842,38,6
6.34334,11.189,-0.224508,100,7
39.0731,68.8931,21.2221,63,15
0.261778,0.460065,-0.141833,14,0
8.28144,14.5543,0.292293,19,8
0.299817,0.526703,-0.13992,13,1
11.3789,19.9816,1.20509,31,9
3.01749,5.29668,-1.18492,21,2
14.9678,26.2627,2.64465,39,10
3.38533,5.93752,-1.08253,22,3
18.2468,32.003,4.5233,14,11
3.8338,6.72138,-0.950094,18,4
42.5784,74.6177,13.607,42,12
4.40537,7.71717,-0.777429,16,5
5.21541,9.12878,-0.550993,38,6
6.36748,11.1408,-0.223984,75,7
0.263302,0.459194,-0.141833,14,0
8.29041,14.4525,0.290827,22,8
0.303594,0.529034,-0.140819,13,1
11.6707,20.337,1.22885,33,9
3.03211,5.28153,-1.18378,21,2
15.035,26.1784,2.64117,31,10
3.40008,5.91769,-1.08096,21,3
16.374,28.4867,4.03436,13,11
3.85329,6.70107,-0.949119,17,4
42.9005,74.6062,13.6308,42,12
4.41802,7.68007,-0.775163,16,5
5.23669,9.09586,-0.550051,38,6
6.37244,11.0641,-0.222867,75,7
0.261036,0.451582,-0.139762,14,0
8.30426,14.366,0.28964,24,8
0.301445,0.521276,-0.13902,13,1
11.2216,19.3972,1.17442,17,9
3.04856,5.26752,-1.18302,23,2
11.776,20.3391,2.05618,10,10
3.40583,5.88245,-1.07658,18,3
16.3151,28.1677,3.99683,13,11
3.86951,6.67795,-0.947656,13,4
18.482,31.8831,5.83688,21,12
4.4418,7.65943,-0.77464,16,5
5.26281,9.07153,-0.549632,38,6
6.405,11.0315,-0.222658,84,7
0.243086,0.417328,-0.12941,15,0
8.30703,14.2557,0.288,26,8
0.293448,0.503385,-0.134521,14,1
11.6766,20.0221,1.21472,19,9
3.06502,5.25568,-1.18263,21,2
11.8474,20.3069,2.05688,40,10
3.42136,5.862,-1.07502,23,3
15.9619,27.3375,3.8869,25,11
3.8908,6.66097,-0.947169,16,4
18.629,31.8798,5.84815,21,12
4.4665,7.64044,-0.774292,16,5
41.2634,70.5855,15.8929,43,13
5.2763,9.02207,-0.547748,38,6
6.42125,10.9711,-0.22189,75,7
0.256355,0.436423,-0.135621,15,0
8.32332,14.1698,0.286848,21,8
0.291254,0.495637,-0.132721,14,1
11.6472,19.8125,1.20446,21,9
3.08128,5.23934,-1.18149,23,2
11.8864,20.2032,2.05077,15,10
3.44282,5.84942,-1.07502,18,3
16.0945,27.3449,3.89592,25,11
3.89892,6.62169,-0.943513,17,4
18.7151,31.772,5.84033,10,12
4.48404,7.60935,-0.772723,15,5
41.6275,70.6131,15.9333,43,13
5.28701,8.96483,-0.545445,38,6
6.43613,10.909,-0.221087,75,7
8.33545,14.0721,0.285486,24,8
0.310951,0.524743,-0.140819,13,1
11.1687,18.8402,1.14783,6,9
3.08954,5.21166,-1.17767,23,2
13.712,23.1212,2.35181,12,10
3.46019,5.83227,-1.07408,28,3
16.1014,27.1286,3.8735,12,11
3.91809,6.59882,-0.942294,16,4
18.7851,31.6251,5.82593,26,12
4.50345,7.58166,-0.771503,16,5
39.8538,67.0682,15.1647,38,13
5.3101,8.93258,-0.544608,38,6
6.45256,10.8458,-0.220284,84,7
0.267316,0.447894,-0.139762,14,0
8.34045,13.969,0.283986,21,8
0.310782,0.520309,-0.13992,13,1
11.1914,18.7291,1.14344,19,9
3.10268,5.19242,-1.17577,21,2
13.5483,22.6644,2.31015,31,10
3.47952,5.81846,-1.07377,17,3
16.1899,27.0621,3.87203,25,11
3.93091,6.56807,-0.939856,16,4
16.807,28.0714,5.18205,4,12
4.51147,7.53513,-0.768365,15,5
40.2693,67.2318,15.2334,39,13
5.33099,8.89686,-0.543561,38,6
6.46569,10.782,-0.219447,75,7
0.272861,0.453579,-0.141833,14,0
8.351,13.8765,0.282694,24,8
0.310586,0.515882,-0.13902,13,1
11.1648,18.5448,1.13443,24,9
3.11673,5.17483,-1.17424,21,2
12.9661,21.5197,2.19807,11,10
3.48961,5.78936,-1.07064,21,3
16.2822,27.002,3.87155,12,11
3.94869,6.54581,-0.938638,17,4
37.1356,61.5603,11.3869,25,12
4.53156,7.5091,-0.767319,16,5
42.2388,69.9649,15.886,43,13
5.3393,8.84058,-0.541259,38,6
42.242,69.915,18.8585,63,14
6.47763,10.7212,-0.218644,95,7
0.262423,0.432801,-0.135621,15,0
8.35861,13.7854,0.281403,21,8
0.30522,0.503186,-0.13587,27,1
11.1176,18.3213,1.12313,28,9
3.13987,5.17231,-1.17615,21,2
13.9389,22.9524,2.34937,19,10
3.49854,5.76087,-1.06751,16,3
16.4624,27.0971,3.89299,12,11
3.96109,6.51742,-0.936444,18,4
16.9454,27.8702,5.16609,17,12
4.55361,7.48643,-0.766622,16,5
42.5604,69.972,15.9196,43,13
5.34782,8.7887,-0.539165,38,6
42.5243,69.8578,18.881,63,14
6.48797,10.6541,-0.217736,85,7
0.275942,0.451712,-0.141833,14,0
8.36914,13.6947,0.280146,21,8
0.305958,0.500455,-0.135421,13,1
11.1721,18.2741,1.1225,22,9
3.14778,5.1468,-1.17271,21,2
13.2059,21.5839,2.21376,5,10
3.52378,5.75705,-1.06907,18,3
16.8295,27.4847,3.9571,25,11
3.97967,6.49678,-0.935469,21,4
16.788,27.4063,5.09038,16,12
4.57217,7.46109,-0.765576,15,5
5.3628,8.74445,-0.537595,38,6
6.51177,10.6138,-0.217352,85,7
0.283595,0.460616,-0.144939,14,0
8.39355,13.6328,0.279448,21,8
0.308638,0.501096,-0.13587,27,1
11.2766,18.3013,1.12658,18,9
3.15955,5.12575,-1.17042,23,2
13.6995,22.216,2.28348,36,10
3.54285,5.74533,-1.06907,18,3
16.7694,27.1838,3.92176,12,11
3.99077,6.46665,-0.933032,25,4
16.7497,27.1307,5.05002,20,12
4.59085,7.43322,-0.764356,16,5
5.38967,8.72322,-0.537386,38,6
6.52984,10.5603,-0.216724,76,7
0.254572,0.410422,-0.12941,15,0
8.40839,13.5508,0.278366,21,8
0.31758,0.511606,-0.13902,13,1
11.3742,18.3161,1.12993,18,9
3.17135,5.1069,-1.16851,23,2
13.8309,22.2635,2.29307,12,10
3.55454,5.71951,-1.06657,22,3
16.4271,26.4221,3.82012,25,11
4.00493,6.43919,-0.931082,21,4
37.6844,60.5661,11.298,24,12
4.59887,7.38839,-0.761393,15,5
37.915,60.913,13.9466,32,13
5.40003,8.67213,-0.535397,38,6
6.56349,10.5324,-0.216619,95,7
0.307289,0.491384,-0.155291,12,0
8.40263,13.4366,0.276621,18,8
0.325565,0.520407,-0.141719,13,1
11.3999,18.2153,1.12617,18,9
3.18588,5.08859,-1.16699,21,2
15.099,24.1072,2.48865,28,10
3.56499,5.6897,-1.06344,22,3
16.4181,26.2031,3.79672,37,11
4.02316,6.41845,-0.930107,21,4
17.8181,28.4155,5.3122,9,12
4.61934,7.36386,-0.760521,16,5
5.4116,8.62014,-0.533408,38,6
6.58108,10.4789,-0.215991,95,7
0.282222,0.447815,-0.141833,14,0
8.40809,13.3363,0.27519,22,8
0.319154,0.506024,-0.13812,13,1
11.3803,18.0437,1.118,15,9
3.19943,5.0708,-1.16546,21,2
13.557,21.4783,2.22212,23,10
3.58061,5.67054,-1.06219,22,3
16.4196,25.9934,3.77503,24,11
4.04348,6.39863,-0.929376,26,4
17.0719,27.0156,5.06159,12,12
4.63756,7.3359,-0.759301,15,5
16.8422,26.6315,6.12497,5,13
5.42991,8.58263,-0.532257,38,6
6.59836,10.4255,-0.215363,85,7
0.279641,0.440304,-0.139762,14,0
8.4051,13.2341,0.273654,24,8
0.31456,0.495094,-0.135421,13,1
11.3318,17.8285,1.10711,13,9
3.20869,5.04635,-1.16241,23,2
13.7666,21.6426,2.24409,11,10
3.59728,5.65531,-1.06156,22,3
16.4951,25.9221,3.77259,24,11
4.04762,6.35839,-0.925476,20,4
17.1523,26.9341,5.05753,20,12
4.65672,7.30958,-0.758255,15,5
16.9041,26.5341,6.11543,25,13
5.44546,8.54437,-0.531001,38,6
6.61751,10.3754,-0.214804,66,7
0.27277,0.426356,-0.135621,15,0
8.4146,13.1474,0.272467,24,8
0.314184,0.49071,-0.134521,14,1
11.3401,17.7048,1.10188,16,9
3.21164,5.01419,-1.15745,21,2
14.3543,22.4021,2.32776,43,10
3.60847,5.62941,-1.05906,20,3
16.1826,25.236,3.68094,12,11
4.07193,6.34756,-0.925963,18,4
17.2569,26.8907,5.06066,20,12
4.67232,7.28069,-0.75686,13,5
17.144,26.7045,6.16847,5,13
5.45367,8.4917,-0.528907,38,6
6.61909,10.2984,-0.213687,86,7
0.286819,0.444885,-0.141833,14,0
8.40842,13.0373,0.270792,24,8
0.332799,0.51581,-0.141719,13,1
11.4408,17.7255,1.10565,16,9
3.22167,4.9914,-1.15478,23,2
14.5362,22.5125,2.34449,51,10
3.62274,5.60848,-1.0575,21,3
16.3158,25.2494,3.69118,12,11
4.09299,6.33164,-0.92572,17,4
17.1769,26.5616,5.00997,8,12
4.68364,7.24259,-0.754594,15,5
39.4777,61.0233,14.1275,33,13
5.48002,8.46758,-0.528593,35,6
6.61912,10.2199,-0.212535,100,7
0.27574,0.424441,-0.135621,15,0
8.40919,12.9391,0.26936,24,8
0.3261,0.501575,-0.13812,13,1
11.5037,17.6871,1.10575,16,9
3.24014,4.98177,-1.15516,23,2
14.695,22.5852,2.35739,26,10
3.63152,5.57925,-1.05437,21,3
16.3757,25.149,3.68484,12,11
4.10531,6.30235,-0.923526,15,4
17.1994,26.3939,4.98963,15,12
4.6971,7.20534,-0.752503,15,5
5.50409,8.44004,-0.52807,35,6
6.64273,10.1783,-0.212151,100,7
0.264594,0.404034,-0.12941,15,0
8.41158,12.8445,0.267999,22,8
0.325713,0.497174,-0.13722,13,1
11.411,17.4113,1.091,20,9
3.26053,4.97314,-1.15592,26,2
16.6473,25.3818,2.65564,15,10
3.64327,5.55269,-1.05187,21,3
16.6812,25.4237,3.73359,24,11
4.12293,6.28134,-0.922551,17,4
17.3348,26.3998,5.00215,16,12
4.71894,7.18391,-0.75198,15,5
39.5899,60.247,14.013,32,13
5.50976,8.38142,-0.525662,35,6
39.4263,59.9524,16.5658,51,14
6.68481,10.1651,-0.212361,100,7
0.278771,0.422457,-0.135621,15,0
8.41123,12.7418,0.266498,21,8
0.314647,0.476463,-0.131821,14,1
11.4321,17.3114,1.08723,16,9
3.27138,4.9519,-1.15363,21,2
16.7413,25.3318,2.65651,31,10
3.66481,5.54323,-1.05249,18,3
16.5224,24.9816,3.67753,36,11
4.13607,6.25129,-0.920357,16,4
22.7188,34.3374,6.52113,14,12
4.74069,7.1624,-0.751457,15,5
5.53346,8.35381,-0.525139,35,6
6.70038,10.1117,-0.211733,100,7
0.293079,0.440786,-0.141833,14,0
8.43794,12.6905,0.26601,21,8
0.322701,0.485152,-0.134521,14,1
11.4371,17.1882,1.08199,15,9
3.28103,4.92901,-1.15096,21,2
15.6094,23.4408,2.46389,28,10
3.68536,5.53434,-1.05312,21,3
16.7394,25.1282,3.70727,24,11
4.14687,6.22267,-0.918164,15,4
20.8081,31.2122,5.94138,16,12
4.7535,7.12758,-0.749539,15,5
5.55337,8.32379,-0.524406,35,6
6.7112,10.0516,-0.210965,96,7
0.290239,0.433391,-0.139762,14,0
8.45548,12.6211,0.265172,22,8
0.330902,0.493736,-0.13722,27,1
11.4559,17.0868,1.07812,15,9
3.29299,4.91158,-1.14943,19,2
17.1398,25.5548,2.69207,32,10
3.69915,5.51324,-1.05155,18,3
16.7164,24.9048,3.68289,12,11
4.16524,6.20321,-0.917432,16,4
16.4593,24.5032,4.6752,6,12
4.76502,7.0911,-0.747448,15,5
40.1535,59.7547,13.9939,32,13
5.57014,8.28612,-0.523255,31,6
6.73062,10.0049,-0.210476,96,7
0.270209,0.4003,-0.12941,15,0
8.45473,12.5252,0.263776,19,8
0.336985,0.499038,-0.13902,13,1
11.4898,17.0087,1.07571,15,9
3.31096,4.89948,-1.14943,19,2
16.5504,24.4817,2.58539,15,10
3.70938,5.48491,-1.04874,18,3
17.4282,25.7704,3.81987,12,11
4.18798,6.19028,-0.917676,16,4
22.3154,32.9721,6.30587,12,12
4.77187,7.04803,-0.744659,15,5
5.58591,8.24415,-0.521894,35,6
6.74755,9.95486,-0.209918,96,7
0.284642,0.418523,-0.135621,15,0
8.46908,12.4479,0.262798,16,8
0.334426,0.491355,-0.13722,13,1
11.5206,16.9202,1.07278,15,9
3.32805,4.88789,-1.14943,19,2
16.3722,24.0368,2.54442,36,10
3.72183,5.46214,-1.04686,21,3
18.5042,27.1465,4.03388,13,11
4.20505,6.16669,-0.916458,15,4
20.2153,29.6345,5.6817,15,12
4.79992,7.03378,-0.745007,15,5
41.6314,61.0064,14.3565,34,13
5.60001,8.20316,-0.520533,38,6
6.75692,9.89044,-0.20908,97,7
0.32768,0.478028,-0.155291,12,0
8.49326,12.3902,0.262205,21,8
0.336139,0.490185,-0.13722,13,1
11.514,16.7844,1.06671,15,9
3.34483,4.87404,-1.14905,21,2
16.3734,23.8501,2.531,58,10
3.73847,5.44358,-1.04592,22,3
17.5649,25.5763,3.80964,12,11
4.20744,6.12416,-0.912314,15,4
22.6391,32.9401,6.33059,19,12
4.80976,6.99564,-0.742741,16,5
20.9785,30.5011,7.19579,14,13
5.61759,8.16448,-0.519382,38,6
6.76532,9.82891,-0.208277,100,7
0.296337,0.429245,-0.139762,14,0
8.50351,12.3127,0.261193,21,8
0.328987,0.476182,-0.133621,14,1
11.514,16.6656,1.06158,21,9
3.35539,4.85485,-1.14714,26,2
15.5742,22.5256,2.39591,26,10
3.75425,5.4279,-1.0453,18,3
18.9259,27.3529,4.08409,13,11
4.22089,6.09801,-0.910608,15,4
18.9741,27.4123,5.28029,21,12
4.8216,6.96327,-0.740998,16,5
21.1153,30.483,7.208,14,13
5.64236,8.14252,-0.519173,38,6
6.77282,9.77026,-0.207509,100,7
0.275772,0.396488,-0.12941,15,0
8.51118,12.2369,0.26018,24,8
0.341694,0.491085,-0.13812,13,1
11.5253,16.5581,1.05729,16,9
3.36671,4.83505,-1.14524,21,2
16.6253,23.8673,2.54477,51,10
3.76094,5.39921,-1.04217,17,3
17.3573,24.9089,3.72774,12,11
4.24108,6.08398,-0.910608,16,4
19.1047,27.3961,5.28999,21,12
4.83789,6.93496,-0.739778,13,5
21.2095,30.4032,7.20571,14,13
5.6579,8.10739,-0.518126,38,6
6.79085,9.72361,-0.20702,100,7
0.303685,0.433547,-0.141833,14,0
8.51023,12.1448,0.258854,22,8
0.334458,0.477123,-0.134521,14,1
11.5303,16.4425,1.05248,16,9
3.3816,4.82225,-1.14485,25,2
16.1094,22.9639,2.45413,34,10
3.77863,5.38443,-1.04185,21,3
19.1026,27.2105,4.08214,13,11
4.26344,6.07076,-0.910852,20,4
19.2093,27.3422,5.29249,17,12
4.84941,6.90258,-0.738035,15,5
5.68731,8.08922,-0.518231,38,6
6.81785,9.69003,-0.206811,100,7
0.300741,0.42617,-0.139762,14,0
8.53297,12.0873,0.258261,22,8
0.336121,0.475953,-0.134521,14,1
11.5231,16.3108,1.04661,18,9
3.38708,4.79439,-1.14104,19,2
17.1231,24.2287,2.59567,30,10
3.7917,5.36315,-1.04029,26,3
19.1034,27.0107,4.06215,13,11
4.28002,6.04936,-0.909877,20,4
21.2469,30.0193,5.82499,21,12
4.88038,6.89537,-0.739081,15,5
5.6982,8.04487,-0.516661,31,6
6.8366,9.64497,-0.206357,100,7
0.306705,0.431416,-0.141833,14,0
8.54845,12.02,0.257458,24,8
0.33778,0.474776,-0.134521,14,1
11.5452,16.2217,1.04347,13,9
3.4129,4.79533,-1.14409,19,2
16.0844,22.5912,2.42624,33,10
3.79779,5.33218,-1.03685,18,3
19.2149,26.9681,4.06581,26,11
4.29189,6.02145,-0.907927,20,4
23.3299,32.7194,6.36469,12,12
4.89979,6.8718,-0.738383,15,5
5.71348,8.00705,-0.515509,31,6
6.8586,9.60477,-0.206008,86,7
0.310458,0.433484,-0.142868,14,0
8.57754,11.9722,0.257074,27,8
0.343977,0.47993,-0.13632,13,1
11.511,16.0547,1.03531,13,9
3.42161,4.77222,-1.14142,21,2
17.091,23.8285,2.56552,29,10
3.81523,5.31728,-1.03653,22,3
19.1029,26.6139,4.02242,26,11
4.29899,5.98708,-0.905002,18,4
23.5719,32.8158,6.39942,26,12
4.91213,6.83847,-0.73664,15,5
5.70992,7.94327,-0.512683,35,6
6.85822,9.53369,-0.204996,86,7
0.282581,0.391664,-0.12941,15,0
8.58534,11.8951,0.256062,19,8
0.358198,0.496106,-0.141269,13,1
11.526,15.9577,1.03165,13,9
3.4302,4.7491,-1.13875,21,2
16.887,23.3714,2.52264,21,10
3.82798,5.29593,-1.03497,21,3
19.3108,26.7063,4.04655,26,11
4.3187,5.97043,-0.904758,15,4
23.6237,32.6469,6.38253,19,12
4.92078,6.8003,-0.734374,13,5
5.73761,7.92329,-0.512683,38,6
6.86916,9.47893,-0.204333,96,7
0.340736,0.468811,-0.155291,12,0
8.60682,11.8376,0.255468,20,8
0.35305,0.485397,-0.13857,13,1
11.5417,15.8625,1.02809,13,9
3.44676,4.7371,-1.13875,23,2
16.6941,22.9354,2.48185,28,10
3.83714,5.26976,-1.03247,21,3
20.0315,27.5003,4.17744,27,11
4.33717,5.95211,-0.904271,16,4
23.6608,32.4589,6.36188,12,12
4.9398,6.77664,-0.733677,13,5
26.8758,36.8559,8.86651,10,13
5.76994,7.90967,-0.513102,28,6
6.88689,9.4339,-0.203879,76,7
0.312698,0.427092,-0.141833,14,0
8.61501,11.7623,0.254491,24,8
0.340921,0.465298,-0.133171,14,1
11.5163,15.7178,1.02118,18,9
3.46211,4.72346,-1.13837,23,2
16.5219,22.5331,2.44454,27,10
3.845,5.242,-1.02965,18,3
20.0464,27.3198,4.16062,13,11
4.35322,5.93053,-0.903296,16,4
26.6987,36.3725,7.14624,9,12
4.96106,6.75615,-0.733328,13,5
26.8334,36.5292,8.81042,19,13
5.77741,7.86212,-0.511322,31,6
6.91339,9.40456,-0.203739,76,7
0.314187,0.425998,-0.141833,14,0
8.62429,11.6934,0.253618,26,8
0.34709,0.470438,-0.134971,14,1
11.4917,15.5698,1.01417,13,9
3.47741,4.70976,-1.13798,23,2
16.5662,22.4288,2.43949,27,10
3.86471,5.2324,-1.03028,18,3
20.0873,27.1861,4.15038,13,11
4.35517,5.89212,-0.89964,17,4
28.8737,39.0491,7.69188,11,12
4.97988,6.73238,-0.732631,13,5
27.0186,36.5269,8.8314,9,13
5.79395,7.83007,-0.510485,35,6
6.93071,9.35948,-0.203286,95,7
0.310991,0.41875,-0.139762,14,0
8.62093,11.6039,0.252327,26,8
0.34408,0.462967,-0.133171,14,1
11.4899,15.4543,1.00925,18,9
3.48364,4.6856,-1.13493,23,2
16.6749,22.4201,2.44454,27,10
3.88413,5.22046,-1.03059,18,3
21.7395,29.2083,4.47066,14,11
4.36622,5.86415,-0.89769,16,4
24.7124,33.1783,6.55241,7,12
4.99385,6.70464,-0.731411,13,5
41.7852,56.0795,13.594,30,13
5.80931,7.79379,-0.509438,31,6
6.94182,9.30638,-0.202657,85,7
0.312451,0.417661,-0.139762,14,0
8.66138,11.5737,0.252327,27,8
0.359709,0.480483,-0.13857,13,1
11.4648,15.3086,1.00234,18,9
3.49409,4.66556,-1.13302,26,2
16.6074,22.1672,2.42328,27,10
3.89522,5.19738,-1.02871,20,3
4.37595,5.83458,-0.895496,22,4
24.2116,32.2702,6.38972,6,12
5.00287,6.66804,-0.729319,13,5
41.8439,55.7512,13.5497,30,13
5.82689,7.76069,-0.508601,35,6
6.95744,9.25971,-0.202169,95,7
0.304606,0.404225,-0.135621,15,0
8.67765,11.5115,0.251629,22,8
0.351997,0.466777,-0.134971,14,1
11.4388,15.1632,0.99543,16,9
3.50799,4.6502,-1.13226,23,2
16.5262,21.8992,2.40027,26,10
3.88953,5.15223,-1.02246,18,3
23.3761,30.9536,4.76265,15,11
4.3927,5.81451,-0.894765,16,4
24.1871,32.0043,6.35374,25,12
5.0177,6.63942,-0.728099,13,5
43.2412,57.1959,13.9375,32,13
5.82623,7.70366,-0.506193,35,6
6.98731,9.23218,-0.202099,85,7
0.327039,0.430858,-0.144939,14,0
8.68997,11.4445,0.250826,28,8
0.351267,0.462442,-0.134071,14,1
11.4421,15.058,0.991138,14,9
3.51945,4.63167,-1.13073,23,2
16.5784,21.8097,2.39678,26,10
3.90152,5.13075,-1.02089,22,3
23.383,30.7391,4.74218,15,11
4.40335,5.78651,-0.892815,16,4
24.4123,32.069,6.38347,6,12
5.0312,6.60918,-0.726705,13,5
42.5604,55.8888,13.6551,31,13
5.84219,7.66898,-0.505251,31,6
6.99404,9.17433,-0.201366,76,7
0.335581,0.438922,-0.148044,13,0
8.70193,11.3775,0.250023,27,8
0.345774,0.451927,-0.131371,14,1
11.4266,14.9292,0.985277,20,9
3.53679,4.62092,-1.13112,23,2
16.6097,21.6931,2.39033,26,10
3.93261,5.13436,-1.02433,15,3
23.2451,30.3374,4.6927,30,11
4.41145,5.75535,-0.890377,16,4
24.8054,32.3504,6.45668,13,12
5.05417,6.58911,-0.72653,13,5
42.7122,55.6838,13.6413,31,13
5.85434,7.62952,-0.503995,31,6
6.99556,9.11022,-0.200493,95,7
0.308892,0.40096,-0.135621,15,0
8.70497,11.2996,0.248976,23,8
0.354487,0.459978,-0.134071,14,1
11.4494,14.8512,0.982765,13,9
3.54171,4.59238,-1.1273,23,2
16.5101,21.4002,2.36471,26,10
3.94658,5.11365,-1.02308,18,3
24.2398,31.408,4.87136,15,11
4.42665,5.73363,-0.889403,16,4
24.9749,32.3371,6.47138,27,12
5.05887,6.54778,-0.723916,13,5
42.8872,55.4896,13.6322,30,13
5.87738,7.60169,-0.503577,28,6
7.01509,9.06992,-0.200144,95,7
0.296078,0.381564,-0.12941,15,0
8.71323,11.2249,0.248034,28,8
0.368122,0.474068,-0.13857,13,1
11.4621,14.7555,0.979206,14,9
3.55531,4.57688,-1.12654,23,2
16.5138,21.2512,2.3546,25,10
3.95955,5.09361,-1.02183,18,3
24.1915,31.1089,4.8387,15,11
4.44521,5.71423,-0.888915,15,4
24.8045,31.8743,6.39692,19,12
5.07068,6.51593,-0.722347,15,5
43.3218,55.6494,13.7085,31,13
5.89897,7.57483,-0.503158,28,6
7.03845,9.03153,-0.199865,85,7
0.35689,0.456634,-0.155291,12,0
8.7154,11.1472,0.246986,28,8
0.369775,0.47278,-0.13857,13,1
11.4655,14.6541,0.975124,19,9
3.57127,4.56445,-1.12654,23,2
16.5339,21.1244,2.34693,25,10
3.96635,5.06575,-1.01901,17,3
24.863,31.7432,4.95082,16,11
4.46757,5.7018,-0.889403,13,4
25.1825,32.128,6.46544,13,12
5.09094,6.49505,-0.721998,13,5
43.4262,55.3835,13.6802,31,13
5.91921,7.54633,-0.502635,28,6
7.05882,8.99275,-0.199551,76,7
0.313074,0.397703,-0.135621,15,0
8.72952,11.0853,0.246288,26,8
0.364187,0.462302,-0.13587,13,1
11.4647,14.5481,0.970727,15,9
3.58718,4.55195,-1.12654,23,2
16.5273,20.9648,2.3356,25,10
3.97912,5.04568,-1.01776,17,3
23.5007,29.7891,4.65882,15,11
4.48745,5.68618,-0.889403,14,4
24.5638,31.1143,6.27865,24,12
5.10741,6.46942,-0.721127,13,5
47.8415,60.5779,15.0045,38,13
5.93065,7.50682,-0.501379,28,6
7.08025,8.95551,-0.199272,76,7
0.300057,0.378442,-0.12941,15,0
8.74703,11.0281,0.245695,23,8
0.353687,0.445762,-0.131371,14,1
11.4459,14.4204,0.964866,20,9
3.59206,4.52556,-1.1231,21,2
16.5248,20.8118,2.32497,25,10
3.99793,5.0333,-1.01808,18,3
25.331,31.8797,4.99957,16,11
4.50109,5.66271,-0.888184,14,4
25.4775,32.0411,6.48358,13,12
5.12624,6.44688,-0.720604,13,5
47.95,60.2814,14.9724,37,13
5.94687,7.47357,-0.500541,28,6
7.09652,8.91197,-0.198853,75,7
0.330309,0.413623,-0.141833,14,0
8.768,10.9756,0.245206,23,8
0.379572,0.474971,-0.140369,13,1
11.4599,14.3402,0.96204,14,9
3.59926,4.50226,-1.12043,21,2
16.4779,20.6047,2.30823,25,10
4.01424,5.01777,-1.01776,18,3
25.4099,31.7508,4.99323,16,11
4.50967,5.63301,-0.88599,14,4
27.6749,34.5687,7.01358,8,12
5.14248,6.42117,-0.719732,13,5
5.97043,7.44965,-0.500332,28,6
7.10602,8.86342,-0.198294,75,7
8.77428,10.9091,0.244369,26,8
0.381145,0.47371,-0.140369,13,1
11.4586,14.2363,0.957748,18,9
3.61003,4.48355,-1.1189,23,2
16.4848,20.4663,2.29917,24,10
4.01847,4.98905,-1.01463,26,3
25.4851,31.6292,4.98738,16,11
4.53331,5.62421,-0.886965,16,4
25.2127,31.2687,6.36188,19,12
5.1411,6.37371,-0.71642,13,5
5.98256,7.41426,-0.499285,24,6
7.10927,8.80434,-0.197526,75,7
0.318527,0.393349,-0.135621,15,0
8.77453,10.8318,0.243321,30,8
0.365619,0.45118,-0.134071,14,1
11.4818,14.1688,0.955759,21,9
3.61869,4.46393,-1.117,26,2
16.417,20.2444,2.28034,30,10
4.03088,4.96886,-1.01338,20,3
25.748,31.7281,5.01712,16,11
4.5479,5.60219,-0.88599,15,4
25.3125,31.1804,6.36094,6,12
5.15467,6.34735,-0.715374,13,5
29.6628,36.5131,9.14433,10,13
5.99959,7.38248,-0.498552,28,6
7.12582,8.76519,-0.197177,84,7
0.305247,0.37427,-0.12941,15,0
8.81167,10.8042,0.243356,22,8
0.374505,0.459025,-0.13677,13,1
11.4946,14.0837,0.952724,15,9
3.63177,4.44823,-1.11623,23,2
16.4246,20.1098,2.27163,24,10
4.04359,4.95087,-1.01244,25,3
25.4813,31.1875,4.94497,16,11
4.56394,5.584,-0.885503,16,4
25.4587,31.1377,6.37032,13,12
5.16545,6.31544,-0.713806,13,5
6.00632,7.34091,-0.497087,31,6
7.15131,8.73408,-0.197038,75,7
0.323718,0.394101,-0.136656,14,0
8.82709,10.7425,0.242693,22,8
0.366285,0.445606,-0.133171,14,1
11.5081,13.9952,0.949584,18,9
3.63979,4.42643,-1.11394,26,2
16.4187,19.9601,2.26117,24,10
4.05543,4.92839,-1.01088,27,3
4.56671,5.54578,-0.88209,15,4
26.1403,31.7333,6.51174,14,12
5.18239,6.29122,-0.713108,13,5
6.02176,7.30498,-0.496145,35,6
7.154,8.67233,-0.196235,84,7
0.325092,0.392968,-0.136656,14,0
8.85561,10.7008,0.242449,24,8
0.375295,0.453331,-0.13587,13,1
11.5008,13.8873,0.944978,21,9
3.64521,4.4016,-1.11089,26,2
16.3625,19.7507,2.24391,23,10
4.07765,4.92029,-1.01213,20,3
25.0247,30.1853,4.81433,15,11
4.57337,5.51453,-0.879653,15,4
27.1036,32.6696,6.72324,7,12
5.19414,6.26082,-0.711714,13,5
6.03956,7.27469,-0.495517,35,6
7.16634,8.62577,-0.195746,93,7
0.323988,0.388863,-0.135621,15,0
8.86475,10.636,0.241681,20,8
0.384363,0.460999,-0.13857,13,1
11.4968,13.7842,0.940687,20,9
3.65174,4.3783,-1.10822,26,2
16.3075,19.5451,2.227,23,10
4.08088,4.88934,-1.00869,17,3
26.733,32.0177,5.12144,17,11
4.58878,5.49396,-0.878922,15,4
27.187,32.5384,6.71573,15,12
5.2083,6.23348,-0.710668,13,5
6.06108,7.24897,-0.495203,31,6
7.1887,8.59151,-0.195537,56,7
0.340245,0.405488,-0.141833,14,0
8.87353,10.5713,0.240913,24,8
0.385969,0.459654,-0.13857,13,1
11.5101,13.7027,0.93786,21,9
3.66574,4.36402,-1.10784,26,2
16.2423,19.3294,2.20888,23,10
4.09919,4.87658,-1.009,22,3
26.8037,31.8756,5.11364,17,11
4.61048,5.48094,-0.879409,15,4
27.3055,32.4494,6.71698,15,12
5.2249,6.20916,-0.709971,13,5
38.0989,45.26,11.4997,20,13
6.07863,7.2186,-0.494575,31,6
7.21865,8.56636,-0.195537,65,7
0.311732,0.368885,-0.12941,15,0
8.87681,10.5006,0.240005,24,8
0.380021,0.449376,-0.13587,13,1
11.5437,13.6456,0.936709,22,9
3.68476,4.35569,-1.10898,26,2
16.2041,19.1479,2.19458,22,10
4.10343,4.84716,-1.00587,26,3
26.8686,31.7273,5.10486,17,11
4.62445,5.45876,-0.878434,15,4
29.6894,35.0333,7.27326,9,12
5.2401,6.18329,-0.709099,13,5
38.2795,45.1537,11.5065,20,13
6.08441,7.17449,-0.493005,28,6
7.24204,8.53348,-0.195362,75,7
0.343068,0.403103,-0.141833,14,0
8.88749,10.4391,0.239307,27,8
0.381588,0.448047,-0.13587,13,1
11.5485,13.5551,0.933255,20,9
3.69612,4.33832,-1.10784,26,2
16.1985,19.0063,2.18482,22,10
4.10879,4.81928,-1.00306,22,3
26.5052,31.0775,5.01517,16,11
4.62415,5.41993,-0.874778,18,4
31.9864,37.4778,7.80389,11,12
5.26682,6.17102,-0.709796,13,5
38.4267,45.0078,11.5035,20,13
6.10163,7.1441,-0.492377,28,6
7.2484,8.48079,-0.194734,84,7
0.37716,0.44004,-0.155291,12,0
8.92647,10.411,0.239377,20,8
0.367925,0.428962,-0.130472,14,1
11.5464,13.4571,0.929277,19,9
3.69334,4.30453,-1.10249,28,2
16.1713,18.8408,2.17227,22,10
4.12172,4.80042,-1.00212,26,3
26.4816,30.8312,4.99031,16,11
4.63916,5.39924,-0.874047,16,4
31.5273,36.6798,7.6606,11,12
5.27015,6.13144,-0.707356,13,5
38.5913,44.8823,11.5058,20,13
6.12002,7.11518,-0.491853,28,6
7.25839,8.4327,-0.19421,75,7
0.330726,0.383149,-0.135621,15,0
8.93663,10.3495,0.238679,16,8
0.397445,0.46012,-0.140369,13,1
11.5476,13.3638,0.925614,22,9
3.70321,4.28567,-1.10097,26,2
16.1367,18.6682,2.15885,22,10
4.1307,4.77703,-1.00024,27,3
26.0748,30.144,4.89379,16,11
4.65538,5.38001,-0.87356,14,4
31.7922,36.7278,7.69376,11,12
5.27848,6.09795,-0.705613,13,5
38.8865,44.9076,11.547,20,13
6.13044,7.07717,-0.490702,28,6
7.27992,8.39825,-0.194001,64,7
0.34727,0.399489,-0.141833,14,0
8.94383,10.2851,0.237911,17,8
0.378584,0.435205,-0.133171,14,1
11.5338,13.2541,0.920799,20,9
3.71557,4.26976,-1.1002,28,2
16.0866,18.4795,2.14351,22,10
4.13438,4.74769,-0.997113,26,3
26.0312,29.8822,4.866,15,11
4.67022,5.35924,-0.872828,18,4
31.8293,36.5124,7.67186,11,12
5.28926,6.06747,-0.704218,13,5
39.0817,44.816,11.5584,20,13
6.14329,7.04218,-0.48976,31,6
7.28815,8.34868,-0.193442,55,7
0.333392,0.380831,-0.135621,15,0
8.96387,10.2357,0.237492,20,8
0.385238,0.439744,-0.134971,14,1
11.5471,13.1762,0.918182,21,9
3.72528,4.25086,-1.09868,28,2
16.0696,18.3303,2.1327,21,10
4.1379,4.71838,-0.993985,27,3
25.8735,29.4927,4.81725,15,11
4.68628,5.33992,-0.872341,18,4
32.7724,37.3303,7.86772,23,12
5.31435,6.05346,-0.704741,13,5
6.1441,6.99369,-0.487876,39,6
7.30141,8.30517,-0.193024,74,7
0.35005,0.397054,-0.141833,14,0
8.97309,10.1744,0.236794,22,8
0.381614,0.432551,-0.133171,14,1
11.559,13.1019,0.91567,24,9
3.7323,4.229,-1.09639,24,2
16.0781,18.2114,2.12538,21,10
4.14912,4.69798,-0.992733,26,3
25.6477,29.0303,4.75632,15,11
4.68912,5.30568,-0.869416,15,4
33.3696,37.7573,7.98097,12,12
5.32621,6.02443,-0.703521,13,5
6.16583,6.9692,-0.487667,39,6
7.32228,8.27343,-0.192849,74,7
0.351434,0.39583,-0.141833,14,0
8.98952,10.1251,0.23634,22,8
0.377869,0.425455,-0.131371,14,1
11.5702,13.0227,0.912948,19,9
3.7366,4.2042,-1.09334,27,2
16.0741,18.0792,2.11649,21,10
4.16599,4.68567,-0.993046,27,3
25.6884,28.8828,4.74608,15,11
4.69481,5.27675,-0.867222,15,4
34.1473,38.3666,8.13491,24,12
5.34589,6.00431,-0.703347,13,5
6.1743,6.93231,-0.486515,36,6
7.32983,8.22393,-0.192291,74,7
0.337296,0.377378,-0.135621,15,0
9.00215,10.0684,0.235747,19,8
0.392344,0.438659,-0.13587,13,1
11.565,12.9256,0.908971,21,9
3.74791,4.18886,-1.09257,24,2
16.0449,17.9263,2.10481,21,10
4.17573,4.66374,-0.991482,28,3
25.7626,28.7633,4.74121,15,11
4.7026,5.24851,-0.865272,16,4
38.7374,43.2191,9.1924,14,12
5.34449,5.96281,-0.700558,13,5
6.20646,6.91964,-0.487143,36,6
7.34914,8.18787,-0.192046,74,7
0.361875,0.402044,-0.144939,14,0
8.99442,9.98932,0.23463,20,8
0.406915,0.451766,-0.140369,13,1
11.5913,12.8644,0.907506,19,9
3.76513,4.17867,-1.09334,29,2
16.0393,17.7947,2.09592,21,10
4.17346,4.6286,-0.987102,28,3
25.6129,28.3961,4.69538,15,11
4.71292,5.22322,-0.86381,19,4
38.888,43.0836,9.1924,14,12
5.36527,5.94412,-0.700558,13,5
6.21987,6.88608,-0.486306,32,6
7.36024,8.14289,-0.191593,74,7
0.324354,0.357838,-0.12941,15,0
9.01446,9.94157,0.234246,22,8
0.398015,0.438796,-0.13677,13,1
11.5945,12.778,0.904261,20,9
3.76123,4.14515,-1.08799,22,2
16.0665,17.7003,2.09139,21,10
4.18827,4.61254,-0.986789,28,3
25.5383,28.1155,4.6637,15,11
4.73245,5.2082,-0.864054,22,4
41.9586,46.1605,9.88009,17,12
5.37898,5.91557,-0.699512,13,5
6.22774,6.84659,-0.48505,36,6
7.37382,8.10088,-0.191209,64,7
0.390796,0.427976,-0.155291,12,0
9.03427,9.8938,0.233862,19,8
0.383773,0.420138,-0.131371,14,1
11.6081,12.7036,0.901853,19,9
3.76712,4.12119,-1.08532,24,2
16.0587,17.5619,2.08198,20,10
4.19981,4.59133,-0.985537,28,3
25.6095,27.9969,4.65882,15,11
4.73721,5.17701,-0.861616,27,4
5.3969,5.89382,-0.699163,13,5
6.2393,6.809,-0.484003,32,6
7.39664,8.0692,-0.191069,64,7
0.392287,0.426609,-0.155291,12,0
9.07047,9.86062,0.233862,17,8
0.390589,0.424464,-0.133171,14,1
11.6145,12.6218,0.898922,17,9
3.77617,4.10224,-1.0838,22,2
16.0632,17.4442,2.07466,20,10
4.21314,4.57374,-0.984912,33,3
25.486,27.6576,4.61787,15,11
4.74135,5.14355,-0.858935,25,4
5.41069,5.86762,-0.698292,13,5
6.26032,6.78424,-0.483794,29,6
7.4112,8.02863,-0.19072,83,7
0.359647,0.388383,-0.141833,14,0
9.07867,9.80408,0.233234,17,8
0.405237,0.437463,-0.13767,13,1
11.63,12.5504,0.896724,22,9
3.77712,4.07463,-1.07998,24,2
16.017,17.2726,2.06088,30,10
4.21753,4.54815,-0.982409,31,3
25.4183,27.4012,4.58911,15,11
4.75568,5.12489,-0.858448,25,4
5.41487,5.83118,-0.6962,12,5
6.27054,6.75028,-0.482852,36,6
7.41331,7.97488,-0.190057,74,7
0.345126,0.370231,-0.135621,15,0
9.07738,9.7343,0.232326,15,8
0.398786,0.427496,-0.134971,14,1
11.6451,12.4791,0.894526,24,9
3.79597,4.06783,-1.08151,22,2
16.0307,17.1728,2.05531,25,10
4.23204,4.53196,-0.982096,31,3
25.3051,27.0889,4.55158,14,11
4.76812,5.10246,-0.857473,28,4
5.41921,5.79718,-0.694283,13,5
6.28315,6.71668,-0.482014,32,6
7.42061,7.92706,-0.189533,92,7
0.356993,0.380292,-0.139762,14,0
9.09214,9.68215,0.231838,13,8
0.389602,0.414739,-0.131371,14,1
11.6722,12.4209,0.89327,21,9
3.80342,4.0474,-1.0796,24,2
16.0441,17.0673,2.04938,25,10
4.22889,4.49701,-0.977716,33,3
25.2254,26.8154,4.52038,14,11
4.76141,5.05976,-0.853086,24,4
5.41893,5.75647,-0.691668,13,5
6.28465,6.67144,-0.480339,36,6
7.45097,7.90402,-0.189603,83,7
0.331776,0.350967,-0.12941,15,0
9.1039,9.6271,0.231279,13,8
0.407118,0.430364,-0.13677,13,1
11.6625,12.3285,0.889397,20,9
3.81887,4.03552,-1.07998,22,2
16.0598,16.9649,2.0438,25,10
4.21739,4.45354,-0.971458,28,3
25.1386,26.5369,4.4882,14,11
4.77085,5.03447,-0.851623,24,4
5.45133,5.75053,-0.693237,15,5
6.3024,6.64367,-0.479921,32,6
7.46751,7.86911,-0.189359,74,7
0.34632,0.363799,-0.134586,15,0
9.12474,9.58527,0.231,16,8
0.405855,0.426189,-0.13587,13,1
11.6931,12.2747,0.888455,16,9
3.82887,4.01791,-1.07883,20,2
16.0502,16.8367,2.03509,24,10
4.23895,4.44667,-0.973022,28,3
25.021,26.2379,4.45164,14,11
4.7793,5.01,-0.850161,24,4
5.45761,5.71705,-0.691494,15,5
6.32716,6.62562,-0.48013,32,6
7.47559,7.82276,-0.18887,82,7
0.334158,0.3487,-0.12941,15,0
9.14154,9.53604,0.230581,16,8
0.415433,0.433209,-0.13857,13,1
11.7033,12.2041,0.886153,16,9
3.83674,3.99952,-1.07731,22,2
16.0149,16.6885,2.02358,24,10
4.25582,4.43328,-0.973335,31,3
24.9309,25.9614,4.41947,14,11
4.78988,4.98613,-0.848942,25,4
5.45997,5.68169,-0.689402,15,5
6.34471,6.59773,-0.479711,36,6
7.50426,7.80081,-0.18894,100,7
0.367569,0.380895,-0.141833,14,0
9.14534,9.4769,0.229883,16,8
0.411453,0.426221,-0.13677,13,1
11.7153,12.1316,0.88385,20,9
3.86159,3.9974,-1.08036,20,2
16.0232,16.5809,2.01731,24,10
4.25814,4.40635,-0.97052,33,3
24.901,25.7587,4.399,14,11
4.80087,4.96451,-0.847967,27,4
5.4673,5.64971,-0.687833,20,5
6.35961,6.56948,-0.479188,32,6
7.51614,7.75877,-0.188556,63,7
0.363576,0.374004,-0.139762,14,0
9.17051,9.43024,0.229604,17,8
0.39678,0.407876,-0.131371,14,1
11.7172,12.0407,0.8805,20,9
3.88991,3.99729,-1.08418,22,2
16.0324,16.4692,2.01086,19,10
4.26538,4.38007,-0.968329,33,3
24.8279,25.4866,4.36877,14,11
4.81851,4.94462,-0.847723,24,4
5.47824,5.61964,-0.686613,17,5
6.35828,6.51786,-0.477199,39,6
7.52912,7.71268,-0.188137,91,7
0.370285,0.378255,-0.141833,14,0
9.18658,9.38103,0.229185,17,8
0.403657,0.412057,-0.133171,14,1
11.7228,11.9626,0.877779,18,9
3.91208,3.9921,-1.08647,20,2
16.0201,16.342,2.00214,19,10
4.28479,4.36938,-0.969268,31,3
24.8055,25.2864,4.34927,14,11
4.80098,4.89235,-0.84163,25,4
5.48665,5.58911,-0.685218,22,5
6.3726,6.48707,-0.476571,39,6
7.54337,7.67352,-0.187823,100,7
0.339054,0.343941,-0.12941,15,0
9.20383,9.33324,0.228801,22,8
0.410567,0.416195,-0.134971,14,1
11.7449,11.9017,0.876313,16,9
3.92186,3.97423,-1.08532,24,2
16.0378,16.2463,1.99726,19,10
4.30418,4.35861,-0.970207,32,3
24.7848,25.0895,4.33026,14,11
4.81106,4.8685,-0.840411,30,4
5.49913,5.56284,-0.684347,18,5
6.37133,6.44065,-0.474792,39,6
7.55464,7.63151,-0.187439,91,7
0.340252,0.342756,-0.12941,15,0
9.21662,9.28119,0.228312,17,8
0.414764,0.417524,-0.13587,13,1
11.7709,11.8451,0.875162,13,9
3.94539,3.97026,-1.08799,20,2
16.0186,16.1139,1.98785,19,10
4.32494,4.34917,-0.971458,30,3
24.7323,24.8621,4.30589,14,11
4.82522,4.84886,-0.839924,24,4
5.50867,5.53373,-0.683127,17,5
6.38531,6.40988,-0.474164,39,6
7.5657,7.58951,-0.187055,82,7
0.374226,0.374356,-0.141833,14,0
9.21078,9.21079,0.22737,20,8
0.424488,0.42434,-0.13857,13,1
11.7754,11.7672,0.87244,13,9
3.96339,3.96063,-1.08914,18,2
16.0028,15.9861,1.97896,23,10
4.34429,4.33823,-0.972397,40,3
24.6559,24.6129,4.27761,14,11
4.84493,4.83479,-0.840411,24,4
5.51244,5.49898,-0.681209,16,5
6.40058,6.3805,-0.47364,39,6
7.58223,7.55318,-0.186811,91,7
0.361825,0.359433,-0.136656,14,0
9.24288,9.17858,0.22737,16,8
0.39554,0.392652,-0.128672,14,1
11.7767,11.6866,0.86951,12,9
3.98277,3.9523,-1.09066,18,2
16.0472,15.9189,1.97756,23,10
4.3566,4.32026,-0.971771,42,3
24.6543,24.4401,4.2625,13,11
4.85754,4.81366,-0.83968,25,4
5.53584,5.48392,-0.681732,20,5
6.39442,6.33002,-0.471547,39,6
7.58865,7.50697,-0.186322,82,7
0.412588,0.407009,-0.155291,12,0
9.26205,9.13362,0.227056,17,8
0.406623,0.400845,-0.131821,14,1
11.7961,11.6244,0.86794,12,9
3.98955,3.93148,-1.08876,18,2
16.0544,15.8153,1.97164,23,10
4.38292,4.31611,-0.974274,30,3
24.5499,24.1673,4.22984,13,11
4.86866,4.7911,-0.838705,25,4
5.51518,5.42544,-0.676851,20,5
6.40651,6.29786,-0.470814,39,6
7.60339,7.46923,-0.186043,100,7
0.386405,0.378528,-0.144939,14,0
9.28816,9.09564,0.226916,17,8
0.41359,0.404876,-0.133621,14,1
11.8095,11.5566,0.865951,12,9
3.99623,3.91067,-1.08685,18,2
16.064,15.7145,1.96606,23,10
4.41914,4.3215,-0.978967,31,3
24.566,24.0148,4.21814,13,11
4.87825,4.76714,-0.837486,24,4
5.53409,5.40615,-0.676851,20,5
6.42417,6.27127,-0.4705,39,6
7.60366,7.41751,-0.185414,100,7
0.362799,0.35293,-0.135621,15,0
9.29835,9.04225,0.226393,20,8
0.42059,0.408863,-0.135421,13,1
11.8311,11.4973,0.86459,14,9
4.00141,3.88848,-1.08456,18,2
16.0416,15.5834,1.95665,23,10
4.43703,4.3088,-0.979593,28,3
24.5813,23.8625,4.20644,13,11
4.90484,4.75976,-0.839192,27,4
5.54578,5.37987,-0.67598,18,5
6.43311,6.2363,-0.469558,39,6
7.61083,7.37283,-0.184961,100,7
0.380702,0.367768,-0.141833,14,0
9.29965,8.98056,0.22566,22,8
0.419211,0.404686,-0.134521,14,1
11.854,11.4392,0.863334,16,9
4.02626,3.8854,-1.08761,18,2
16.0643,15.4969,1.95281,22,10
4.44351,4.28506,-0.977716,28,3
24.5358,23.6526,4.18451,13,11
4.92857,4.7495,-0.840411,28,4
5.56452,5.36047,-0.67598,18,5
6.44333,6.20272,-0.468721,43,6
7.62067,7.33097,-0.184577,100,7
0.368042,0.353063,-0.136656,14,0
9.30784,8.92591,0.225101,20,8
0.40374,0.387037,-0.129122,14,1
11.8774,11.386,0.862287,13,9
4.03413,3.86589,-1.08608,18,2
16.078,15.4021,1.94793,22,10
4.45417,4.26543,-0.976777,26,3
24.5006,23.4542,4.16452,13,11
4.95659,4.74325,-0.842361,24,4
5.57168,5.33,-0.674585,18,5
6.43751,6.15397,-0.466732,50,6
7.64204,7.3029,-0.184507,100,7
0.419628,0.399746,-0.155291,12,0
9.32726,8.88534,0.224857,18,8
0.413488,0.39376,-0.131821,14,1
11.8693,11.2991,0.858833,13,9
4.04191,3.84637,-1.08456,18,2
16.048,15.2663,1.93782,22,10
4.46829,4.25063,-0.976777,23,3
24.5495,23.3455,4.15964,13,11
4.97517,4.72952,-0.842848,24,4
5.58592,5.3064,-0.674062,20,5
6.43616,6.11196,-0.465162,54,6
7.63268,7.24314,-0.183669,100,7
0.350793,0.33196,-0.12941,15,0
9.34369,8.83898,0.224508,20,8
0.429019,0.405703,-0.13632,13,1
11.871,11.2219,0.856112,12,9
4.05179,3.83025,-1.0838,18,2
16.0971,15.2116,1.93765,18,10
4.47592,4.22823,-0.975213,21,3
24.4634,23.1016,4.13137,13,11
5.00608,4.72575,-0.845286,18,4
5.58557,5.2691,-0.671796,22,5
6.44874,6.08123,-0.464534,47,6
7.63899,7.19863,-0.183215,100,7
0.352007,0.330673,-0.12941,15,0
9.34971,8.78304,0.223914,23,8
0.430433,0.404203,-0.13632,13,1
11.8678,11.1408,0.853076,19,9
4.06151,3.81134,-1.08265,15,2
16.1338,15.1348,1.93538,18,10
4.49138,4.21179,-0.975213,27,3
24.4368,22.9156,4.11333,13,11
5.02834,4.71368,-0.846261,15,4
5.58939,5.23595,-0.670053,22,5
6.46806,6.05483,-0.464325,43,6
7.65093,7.15962,-0.182901,100,7
0.423791,0.39533,-0.155291,12,0
9.36575,8.7337,0.22353,28,8
0.417657,0.389335,-0.131821,14,1
11.8984,11.0877,0.852343,20,9
4.08484,3.80651,-1.08532,18,2
16.1064,15.0037,1.92579,17,10
4.5075,4.19744,-0.975525,40,3
24.4334,22.7447,4.09871,13,11
5.04704,4.69657,-0.846505,14,4
5.62222,5.22997,-0.671796,25,5
6.48624,6.02949,-0.464115,47,6
7.66687,7.12201,-0.182657,100,7
0.374148,0.346586,-0.136656,14,0
9.37564,8.68194,0.223042,25,8
0.424734,0.39317,-0.133621,14,1
11.9282,11.0379,0.851715,20,9
4.08946,3.78423,-1.08303,18,2
16.1074,14.9,1.91969,21,10
4.51488,4.17497,-0.973961,26,3
24.396,22.5515,4.07921,13,11
5.05611,4.67219,-0.845286,16,4
5.65654,5.22519,-0.673714,20,5
6.48816,5.9892,-0.462755,43,6
7.67404,7.07893,-0.182238,99,7
0.389574,0.358357,-0.141833,14,0
9.37203,8.61803,0.222239,27,8
0.426104,0.391685,-0.133621,14,1
11.928,10.9645,0.849099,19,9
4.09686,3.76462,-1.08151,18,2
16.1036,14.7925,1.91307,21,10
4.52797,4.15785,-0.973648,30,3
24.3869,22.3856,4.06459,13,11
5.05776,4.64109,-0.842848,14,4
5.70411,5.23235,-0.6772,20,5
6.46928,5.93008,-0.459928,39,6
7.67389,7.03182,-0.18168,100,7
0.390822,0.356995,-0.141833,14,0
9.37841,8.56667,0.221715,28,8
0.421644,0.385014,-0.131821,14,1
11.9426,10.9013,0.847424,16,9
4.09402,3.73574,-1.07731,20,2
16.1301,14.7133,1.91011,17,10
4.54173,4.14281,-0.973648,26,3
24.3935,22.2431,4.05337,13,11
5.07166,4.62295,-0.842605,18,4
5.72086,5.21106,-0.677026,26,5
6.48152,5.90187,-0.459405,43,6
32.7639,29.8233,10.2285,16,14
7.6836,6.99154,-0.181331,100,7
9.37123,8.5003,0.220843,31,8
0.443196,0.401866,-0.13812,13,1
11.951,10.8327,0.84533,20,9
4.11657,3.73137,-1.07998,15,2
16.1139,14.6009,1.90244,17,10
4.55323,4.12428,-0.973022,28,3
24.3945,22.0885,4.0407,13,11
5.08335,4.60122,-0.841874,19,4
5.73902,5.19106,-0.677026,15,5
