x, y, z, intensity, ring
9.98754,9.87315,0.245136,30,8
0.411678,0.406821,-0.133621,14,1
12.9698,12.8123,0.955445,18,9
4.07134,4.0219,-1.11242,26,2
18.4409,18.2106,2.26744,24,10
4.53368,4.4755,-1.009,33,3
29.4431,29.0551,5.07903,17,11
5.0988,5.02986,-0.879409,24,4
5.82916,5.74834,-0.716246,15,5
6.78149,6.68279,-0.498971,42,6
8.05163,7.92891,-0.197247,100,7
0.361132,0.354636,-0.135621,15,0
9.99483,9.81161,0.244473,31,8
0.407532,0.399921,-0.131821,14,1
12.9973,12.7501,0.954189,19,9
4.06853,3.99116,-1.10784,26,2
18.3934,18.0373,2.25385,30,10
4.52953,4.44029,-1.00462,38,3
29.3657,28.7771,5.04832,17,11
5.11917,5.01481,-0.879897,30,4
5.84635,5.72516,-0.715897,15,5
6.79335,6.6479,-0.498134,38,6
8.06067,7.88258,-0.196793,100,7
0.378965,0.369558,-0.141833,14,0
10.0032,9.75154,0.243845,37,8
0.422882,0.412097,-0.13632,13,1
13.0589,12.7214,0.955445,20,9
4.0951,3.98927,-1.11127,26,2
18.4005,17.9188,2.24705,29,10
4.54925,4.42859,-1.00556,31,3
29.2099,28.4252,5.00444,16,11
5.12952,4.98999,-0.878678,45,4
5.86158,5.69814,-0.7152,15,5
6.79933,6.60744,-0.496878,45,6
8.09388,7.85997,-0.196933,100,7
0.416405,0.403102,-0.155291,12,0
10.0085,9.68874,0.243147,31,8
0.418716,0.405198,-0.134521,14,1
13.0889,12.6619,0.954399,18,9
4.10263,3.96741,-1.10936,26,2
18.3673,17.7557,2.23502,23,10
4.55835,4.40502,-1.004,28,3
29.1233,28.1437,4.97276,16,11
5.13549,4.96102,-0.876728,29,4
5.87856,5.67488,-0.714851,15,5
6.81631,6.57554,-0.496354,45,6
8.12126,7.83167,-0.196933,100,7
0.348175,0.334705,-0.12941,15,0
10.0036,9.6132,0.24217,22,8
0.417388,0.40096,-0.133621,14,1
13.0343,12.517,0.947072,23,9
4.11504,3.9517,-1.10898,26,2
18.3587,17.6238,2.22648,29,10
4.59222,4.40686,-1.00806,33,3
29.0744,27.8911,4.94692,16,11
5.14504,4.93392,-0.875266,23,4
5.88396,5.64054,-0.713108,15,5
6.82913,6.54204,-0.495622,38,6
8.14558,7.7977,-0.196828,100,7
0.366109,0.349495,-0.135621,15,0
10.0096,9.55199,0.241506,30,8
0.435705,0.415642,-0.13902,13,1
13.0028,12.3997,0.941629,20,9
4.12597,3.9346,-1.10822,26,2
18.3177,17.462,2.2141,23,10
4.59471,4.37854,-1.00525,32,3
28.9934,27.6197,4.9167,16,11
5.16798,4.92141,-0.876241,31,4
5.88774,5.60485,-0.711191,16,5
6.84035,6.50715,-0.494784,45,6
8.1713,7.76784,-0.196793,100,7
0.370131,0.350873,-0.136656,14,0
9.98188,9.45922,0.24004,34,8
0.423006,0.400717,-0.134521,14,1
13.0438,12.3565,0.941629,14,9
4.12542,3.90668,-1.1044,26,2
18.257,17.2829,2.19946,23,10
4.59705,4.35026,-1.00243,35,3
28.8733,27.3137,4.88014,16,11
5.17215,4.89106,-0.874047,24,4
5.90147,5.5788,-0.710494,17,5
6.86592,6.48597,-0.494994,38,6
8.18102,7.7256,-0.196409,100,7
0.36854,0.346931,-0.135621,15,0
10.0088,9.42196,0.239936,35,8
0.415818,0.391299,-0.131821,14,1
13.0563,12.2822,0.93943,15,9
4.14618,3.89898,-1.10631,23,2
18.22,17.1277,2.18778,28,10
4.59706,4.32146,-0.999304,41,3
28.7786,27.0438,4.84894,15,11
5.19268,4.87796,-0.874778,25,4
5.91219,5.54998,-0.709448,22,5
6.85827,6.43583,-0.4929,42,6
8.20356,7.69289,-0.196305,100,7
0.423308,0.395847,-0.155291,12,0
10.03,9.37604,0.239656,37,8
0.417181,0.389845,-0.131821,14,1
13.0802,12.2188,0.93807,17,9
4.16483,3.89057,-1.10784,26,2
18.2126,17.0073,2.18011,28,10
4.61934,4.31212,-1.00087,33,3
28.6754,26.759,4.81579,15,11
5.18936,4.84085,-0.871366,25,4
5.92278,5.52116,-0.708402,25,5
6.87192,6.40369,-0.492272,42,6
8.21427,7.64922,-0.195921,100,7
0.368122,0.341721,-0.134586,15,0
10.0421,9.32192,0.239168,31,8
0.42711,0.39634,-0.134521,14,1
13.0934,12.1459,0.935976,15,9
4.17762,3.87394,-1.10746,26,2
18.2266,16.8958,2.17436,33,10
4.62786,4.28845,-0.999304,37,3
28.6318,26.5319,4.79288,15,11
5.20331,4.82001,-0.870878,22,4
5.93033,5.48962,-0.707007,21,5
6.89095,6.37439,-0.491958,38,6
8.20275,7.5852,-0.195013,100,7
0.383516,0.353527,-0.139762,14,0
10.0659,9.27557,0.238923,33,8
0.434293,0.400053,-0.13632,13,1
13.0879,12.0518,0.932417,17,9
4.17523,3.84471,-1.10326,26,2
18.306,16.8509,2.1768,22,10
4.64135,4.27093,-0.998991,33,3
28.571,26.2816,4.76655,15,11
5.21948,4.79956,-0.870635,28,4
5.93478,5.4554,-0.705264,21,5
6.90727,6.34489,-0.491539,38,6
8.21134,7.5375,-0.194559,100,7
10.0953,9.23768,0.238854,28,8
0.418432,0.382751,-0.130922,14,1
13.1004,11.9791,0.930324,16,9
4.21036,3.84998,-1.10898,21,2
18.3059,16.7331,2.16983,22,10
4.64165,4.24138,-0.995862,45,3
28.4867,26.0211,4.73731,15,11
5.23034,4.77596,-0.86966,24,4
5.94643,5.42794,-0.704393,21,5
6.9161,6.30863,-0.490597,45,6
8.23169,7.50341,-0.19442,100,7
0.357384,0.324853,-0.12941,15,0
10.1334,9.20776,0.238993,30,8
0.419765,0.381288,-0.130922,14,1
13.1022,11.8971,0.927498,20,9
4.22232,3.83394,-1.1086,23,2
18.2225,16.5406,2.1531,22,10
4.65496,4.22383,-0.995549,35,3
28.3686,25.7321,4.70269,15,11
5.23227,4.74434,-0.867222,28,4
5.96481,5.40477,-0.704218,21,5
6.91883,6.26702,-0.489237,56,6
8.25932,7.47597,-0.194455,100,7
0.378653,0.341659,-0.136656,14,0
10.1551,9.16295,0.238749,28,8
0.415305,0.3746,-0.129122,14,1
13.0621,11.7777,0.921741,16,9
4.24072,3.82238,-1.10975,19,2
18.2283,16.4243,2.14665,27,10
4.68216,4.21731,-0.998052,41,3
28.3904,25.5718,4.69148,15,11
5.24438,4.72206,-0.866491,27,4
5.98808,5.38791,-0.704741,21,5
6.9269,6.22827,-0.48819,59,6
8.26752,7.43105,-0.194036,100,7
0.43164,0.386745,-0.155291,12,0
10.1707,9.10966,0.23833,24,8
0.442809,0.396473,-0.13722,13,1
13.0665,11.6951,0.91902,19,9
4.24233,3.79708,-1.10669,21,2
18.284,16.3593,2.14647,22,10
4.70274,4.20621,-0.999304,46,3
28.33,25.33,4.66613,15,11
5.26017,4.70148,-0.866247,24,4
5.98996,5.35,-0.70265,20,5
6.94413,6.20006,-0.487876,50,6
8.26933,7.37807,-0.193442,100,7
0.360879,0.320967,-0.12941,15,0
10.18,9.05417,0.237806,30,8
0.420888,0.374208,-0.130022,14,1
13.0804,11.6255,0.917135,21,9
4.24742,3.77368,-1.1044,21,2
18.2843,16.2392,2.1395,21,10
4.71812,4.18894,-0.999304,35,3
28.2906,25.1176,4.64517,15,11
5.26912,4.6765,-0.865029,29,4
6.00115,5.32245,-0.701778,22,5
6.94439,6.15469,-0.486306,83,6
8.28456,7.33987,-0.193198,100,7
0.38221,0.337676,-0.136656,14,0
10.1786,8.98946,0.237039,38,8
0.436801,0.385634,-0.134521,14,1
13.1054,11.5702,0.916193,23,9
4.25696,3.75698,-1.10364,23,2
18.2215,16.0757,2.1259,26,10
4.72458,4.16674,-0.997739,33,3
28.2769,24.9294,4.6286,15,11
5.28907,4.66294,-0.86576,28,4
5.99185,5.27881,-0.69864,18,5
43.7699,38.5477,11.3371,19,13
6.97526,6.14087,-0.487038,61,6
8.29384,7.29915,-0.192849,100,7
0.397847,0.349149,-0.141833,14,0
10.1978,8.94642,0.236794,38,8
0.446868,0.391893,-0.13722,13,1
13.1632,11.5438,0.917554,21,9
4.27678,3.74932,-1.10555,19,2
18.1833,15.9351,2.11527,26,10
4.73094,4.14454,-0.996175,30,3
28.1861,24.6838,4.60032,15,11
5.30599,4.64669,-0.866004,27,4
6.00333,5.25366,-0.697943,28,5
6.97904,6.10324,-0.485887,65,6
8.30144,7.25713,-0.192465,100,7
0.384441,0.335133,-0.136656,14,0
10.2199,8.90599,0.23662,34,8
0.433471,0.377608,-0.132721,14,1
13.1944,11.4899,0.916926,21,9
4.28623,3.73254,-1.10478,21,2
18.1459,15.7962,2.10481,26,10
4.75807,4.1405,-0.998991,31,3
28.0821,24.4287,4.5701,14,11
5.31619,4.62292,-0.865029,29,4
6.04026,5.25072,-0.700209,20,5
6.99321,6.07482,-0.485468,58,6
8.30255,7.20714,-0.191907,100,7
0.438191,0.379306,-0.155291,12,0
10.2283,8.85063,0.236096,33,8
0.414152,0.358245,-0.126422,15,1
13.2193,11.4307,0.915879,21,9
4.29329,3.71241,-1.10326,19,2
18.13,15.6715,2.09662,31,10
4.76353,4.11612,-0.997113,26,3
28.0561,24.2344,4.55206,14,11
5.33681,4.60823,-0.86576,24,4
6.03895,5.21268,-0.697943,23,5
7.00379,6.04124,-0.484736,54,6
8.30646,7.15983,-0.191418,100,7
0.439513,0.377774,-0.155291,12,0
10.2212,8.7823,0.235224,35,8
0.43314,0.372033,-0.131821,14,1
13.2227,11.3533,0.913367,20,9
4.29431,3.68717,-1.1002,21,2
18.1151,15.5485,2.0886,30,10
4.77787,4.09947,-0.997113,28,3
28.1103,24.1105,4.54719,14,11
5.35436,4.59087,-0.866004,21,4
6.04501,5.1812,-0.696549,26,5
35.2351,30.1895,9.01916,10,13
7.0218,6.01416,-0.484526,54,6
8.30861,7.11129,-0.190894,100,7
10.232,8.72969,0.23477,34,8
0.455194,0.388223,-0.13812,13,1
13.2121,11.2643,0.909913,19,9
4.31611,3.6798,-1.10249,19,2
18.2238,15.5317,2.09488,31,10
4.78463,4.07636,-0.995549,30,3
28.019,23.8629,4.51892,14,11
5.37338,4.57472,-0.866491,22,4
6.07519,5.17039,-0.697943,21,5
44.677,38.0097,11.402,19,13
6.99558,5.9495,-0.481281,65,6
8.32729,7.07706,-0.190755,21,7
10.2471,8.681,0.234421,33,8
0.435727,0.369001,-0.131821,14,1
13.1767,11.1549,0.904784,24,9
4.32893,3.66471,-1.10249,19,2
18.2293,15.4268,2.0893,31,10
4.78978,4.05198,-0.993672,28,3
27.987,23.6676,4.50039,14,11
5.37567,4.54441,-0.864297,27,4
33.0892,27.9625,6.86153,16,12
6.10171,5.15452,-0.698815,20,5
44.7914,37.8383,11.3974,77,13
7.00258,5.91345,-0.480339,72,6
8.34583,7.04279,-0.190615,20,7
0.44351,0.373073,-0.155291,12,0
10.2483,8.62071,0.233758,35,8
0.445961,0.375003,-0.134521,14,1
13.1926,11.0895,0.903214,23,9
4.34835,3.65387,-1.10402,19,2
18.2445,15.3252,2.08459,25,10
4.81065,4.03948,-0.994923,30,3
27.8931,23.4217,4.47212,14,11
5.38694,4.52178,-0.863566,25,4
33.2108,27.8672,6.86654,16,12
6.11814,5.13191,-0.69864,17,5
44.9599,37.6991,11.405,77,13
7.04869,5.90827,-0.482014,65,6
8.3581,7.00334,-0.190336,100,7
0.444809,0.371523,-0.155291,12,0
10.2507,8.55875,0.233094,37,8
0.429379,0.358381,-0.129122,14,1
13.1883,11.0076,0.900283,23,9
4.33997,3.62106,-1.09868,21,2
18.2275,15.2028,2.07657,25,10
4.82472,4.02266,-0.994923,30,3
27.9269,23.276,4.46383,14,11
5.40043,4.49947,-0.863079,24,4
33.3169,27.7587,6.86841,16,12
6.13448,5.10925,-0.698466,20,5
45.1109,37.5583,11.41,58,13
7.05546,5.87213,-0.481072,65,6
8.36251,6.9575,-0.189882,100,7
0.407441,0.337904,-0.141833,14,0
10.2575,8.50683,0.232606,38,8
0.448568,0.37188,-0.134521,14,1
13.1944,10.9347,0.898085,21,9
4.35259,3.60589,-1.09868,21,2
18.2467,15.1111,2.07274,30,10
4.83347,4.00286,-0.993985,28,3
27.8357,23.0441,4.43702,14,11
5.41226,4.479,-0.862591,25,4
33.4593,27.68,6.8778,16,12
6.14768,5.084,-0.697943,17,5
45.2472,37.4185,11.413,58,13
7.08721,5.85888,-0.48191,58,6
8.36208,6.90789,-0.189324,100,7
0.447328,0.368487,-0.155291,12,0
10.2639,8.45191,0.232082,36,8
0.452873,0.372789,-0.135421,13,1
13.2,10.862,0.895887,22,9
4.36363,3.58943,-1.0983,21,2
18.1844,14.9581,2.06001,30,10
4.83521,3.97592,-0.991482,27,3
27.7565,22.8157,4.41167,14,11
5.42173,4.45504,-0.861616,22,4
33.5588,27.5655,6.87842,16,12
6.14999,5.04986,-0.6962,18,5
45.416,37.2785,11.4211,78,13
7.12099,5.843,-0.482747,58,6
8.36913,6.86471,-0.18894,100,7
0.448675,0.366845,-0.155291,12,0
10.2855,8.40664,0.231873,32,8
0.442163,0.361263,-0.131821,14,1
13.1934,10.7756,0.892747,23,9
4.3798,3.5759,-1.09906,21,2
18.128,14.8006,2.04746,40,10
4.84822,3.95693,-0.991169,28,3
27.7876,22.6711,4.40338,14,11
5.44571,4.44141,-0.862835,22,4
33.5279,27.335,6.85152,8,12
6.16846,5.02729,-0.6962,17,5
45.5629,37.1205,11.4237,39,13
7.12997,5.80677,-0.48191,54,6
8.40509,6.84282,-0.189184,100,7
0.396015,0.321374,-0.136656,14,0
10.2992,8.35503,0.231489,33,8
0.443484,0.35964,-0.131821,14,1
13.1862,10.6894,0.889607,22,9
4.3831,3.55317,-1.09677,20,2
18.1388,14.699,2.04258,40,10
4.86115,3.93789,-0.990856,27,3
27.7255,22.4517,4.38047,14,11
5.44498,4.40769,-0.860154,24,4
33.8014,27.3523,6.88687,16,12
6.19371,5.01199,-0.697072,16,5
45.4526,36.7674,11.3638,19,13
7.14242,5.77557,-0.481386,50,6
8.44567,6.82454,-0.189533,100,7
0.451289,0.363625,-0.155291,12,0
10.333,8.32279,0.231593,32,8
0.45688,0.367867,-0.135421,13,1
13.1923,10.6183,0.887513,23,9
4.38783,3.53169,-1.09486,22,2
18.1279,14.5856,2.03561,39,10
4.86871,3.91594,-0.989605,28,3
27.7171,22.2851,4.36682,14,11
5.46033,4.38865,-0.860154,22,4
33.8998,27.2366,6.8875,24,12
6.19564,4.97786,-0.695328,15,5
45.8103,36.793,11.4211,19,13
7.15943,5.7481,-0.481177,50,6
8.4788,6.80253,-0.189743,100,7
10.3214,8.25419,0.230686,37,8
0.456639,0.365053,-0.134971,14,1
13.2212,10.5695,0.887095,22,9
4.40167,3.51758,-1.09524,20,2
18.1226,14.4775,2.02933,29,10
4.88544,3.90139,-0.99023,28,3
27.7171,22.1263,4.35464,14,11
5.47486,4.37052,-0.860154,24,4
34.0084,27.1388,6.89125,33,12
6.20363,4.94875,-0.694283,15,5
45.9384,36.6328,11.4211,19,13
7.18257,5.72557,-0.481386,50,6
8.49349,6.76814,-0.189568,100,7
0.453754,0.360544,-0.155291,12,0
10.3487,8.21993,0.230686,36,8
0.4609,0.36596,-0.13587,13,1
13.2578,10.5268,0.887199,22,9
4.40869,3.4993,-1.0941,20,2
18.1362,14.39,2.0255,39,10
4.87978,3.87044,-0.986476,27,3
27.7126,21.9726,4.34245,14,11
5.4831,4.34741,-0.859179,28,4
34.123,27.0456,6.89626,33,12
6.21376,4.9232,-0.693585,15,5
7.20309,5.70296,-0.481491,43,6
8.50177,6.72877,-0.189254,100,7
0.415518,0.327921,-0.141833,14,0
10.3931,8.19919,0.23107,33,8
0.45599,0.359603,-0.134071,14,1
13.2819,10.4706,0.886362,23,9
4.41719,3.48223,-1.09334,20,2
18.1932,14.3372,2.02655,39,10
4.89569,3.85668,-0.987102,28,3
27.6668,21.7873,4.32393,14,11
5.48576,4.31842,-0.857229,23,4
34.2296,26.9361,6.89876,24,12
6.23005,4.90257,-0.693585,15,5
7.19684,5.65928,-0.479816,47,6
8.52521,6.69905,-0.189254,100,7
0.456197,0.357447,-0.155291,12,0
10.406,8.15053,0.230721,33,8
0.444968,0.348398,-0.130472,14,1
13.3058,10.4143,0.885524,26,9
4.42468,3.46316,-1.09219,20,2
18.2274,14.2614,2.0248,39,10
4.90601,3.83713,-0.986476,28,3
27.5112,21.5096,4.28785,14,11
5.48985,4.29069,-0.855523,25,4
34.3001,26.7982,6.89407,16,12
6.24085,4.87588,-0.692888,15,5
7.21182,5.63045,-0.479502,47,6
8.52805,6.65326,-0.1888,100,7
0.457442,0.355853,-0.155291,12,0
10.4186,8.10188,0.230372,38,8
0.449258,0.349235,-0.131371,14,1
13.361,10.3825,0.886781,17,9
4.43209,3.44408,-1.09105,22,2
18.2394,14.1683,2.02062,34,10
4.91781,3.81877,-0.986163,30,3
27.4669,21.3209,4.26933,13,11
5.5048,4.2715,-0.855523,25,4
34.153,26.4918,6.84589,16,12
6.23894,4.83942,-0.690796,23,5
38.061,29.5125,9.36185,10,13
7.22196,5.59789,-0.478874,50,6
8.53067,6.60753,-0.188346,100,7
10.4373,8.05813,0.230162,33,8
0.462816,0.357189,-0.134971,14,1
13.3718,10.3163,0.885106,20,9
4.4301,3.4178,-1.08761,22,2
18.2209,14.0522,2.01312,34,10
4.92172,3.79435,-0.984286,30,3
27.5035,21.1958,4.26348,13,11
5.51181,4.2462,-0.854304,24,4
34.4988,26.5677,6.89657,16,12
6.25579,4.81761,-0.690796,20,5
36.9224,28.4238,9.05732,10,13
7.23671,5.569,-0.47856,58,6
8.56161,6.58381,-0.188521,100,7
0.383263,0.293875,-0.12941,15,0
10.4352,7.99853,0.229499,31,8
0.476435,0.365054,-0.13857,13,1
13.3713,10.2416,0.882698,21,9
4.45039,3.4075,-1.08952,20,2
18.216,13.9474,2.0072,33,10
4.92396,3.76874,-0.982096,31,3
27.489,21.0321,4.24983,13,11
5.5266,4.22693,-0.854304,24,4
34.6228,26.4711,6.90283,16,12
6.26391,4.78739,-0.689751,20,5
7.24279,5.53152,-0.477618,54,6
8.58295,6.55267,-0.188486,100,7
0.461205,0.350963,-0.155291,12,0
10.4517,7.95055,0.22922,36,8
0.452951,0.344432,-0.131371,14,1
13.3897,10.1781,0.881442,19,9
4.46285,3.39117,-1.08952,20,2
18.2147,13.8407,2.00144,38,10
4.93302,3.74708,-0.981157,37,3
27.4805,20.8664,4.23667,13,11
5.5294,4.19705,-0.852354,24,4
34.7463,26.3643,6.90815,16,12
6.27665,4.76078,-0.689228,25,5
7.22163,5.47358,-0.474897,76,6
8.58459,6.50426,-0.187997,100,7
0.462488,0.34927,-0.155291,12,0
10.4776,7.90978,0.22915,25,8
0.451099,0.340422,-0.130472,14,1
13.3886,10.1,0.87893,18,9
4.47368,3.37361,-1.08914,20,2
18.2382,13.7535,1.99848,23,10
4.94988,3.73135,-0.981783,37,3
27.4744,20.7034,4.22399,13,11
5.53841,4.17198,-0.851379,24,4
34.8758,26.2617,6.91472,8,12
6.29247,4.73655,-0.689053,20,5
7.2576,5.45907,-0.475943,47,6
8.59559,6.46314,-0.187718,100,7
10.5001,7.86653,0.22901,31,8
0.461703,0.345775,-0.133171,14,1
13.4096,10.0389,0.877883,17,9
4.48287,3.35484,-1.08837,20,2
18.2343,13.646,1.99255,28,10
4.96352,3.71319,-0.981783,37,3
27.4356,20.517,4.20644,13,11
5.54889,4.14808,-0.850648,25,4
6.29542,4.70273,-0.687485,23,5
7.27596,5.43124,-0.475839,50,6
8.59999,6.41724,-0.187299,100,7
10.5039,7.81798,0.228557,28,8
0.481548,0.358282,-0.13857,13,1
13.4186,9.98007,0.876418,17,9
4.48178,3.33332,-1.0857,18,2
18.2035,13.5339,1.98454,23,10
4.96565,3.6905,-0.979906,62,3
27.4967,20.4283,4.20596,13,11
5.55712,4.12708,-0.849917,24,4
6.30696,4.68055,-0.687136,17,5
7.29044,5.40844,-0.475734,50,6
8.60243,6.3771,-0.186915,100,7
10.5086,7.76463,0.228068,32,8
0.476526,0.351968,-0.13677,13,1
13.4373,9.92131,0.875371,18,9
4.49081,3.31454,-1.08494,18,2
18.1857,13.4174,1.97722,32,10
4.9696,3.66525,-0.978028,32,3
27.504,20.2851,4.19621,13,11
5.58108,4.11472,-0.851379,24,4
6.32005,4.65614,-0.686787,22,5
7.31343,5.38405,-0.475943,50,6
8.6182,6.34229,-0.186776,100,7
10.5128,7.70832,0.227544,28,8
0.458952,0.336394,-0.131371,14,1
13.4267,9.84128,0.87244,18,9
4.51185,3.30581,-1.08723,22,2
18.1729,13.3103,1.97077,37,10
4.98874,3.65255,-0.97928,33,3
27.466,20.1021,4.17914,13,11
5.59292,4.0919,-0.850892,23,4
6.3234,4.62464,-0.685393,25,5
7.30961,5.34199,-0.474478,50,6
8.63706,6.3098,-0.186706,100,7
10.5222,7.66165,0.227195,32,8
0.466367,0.339458,-0.133171,14,1
13.4158,9.76145,0.86951,20,9
4.51384,3.28311,-1.08494,18,2
18.2321,13.2562,1.97216,37,10
4.99284,3.63018,-0.977716,33,3
27.4169,19.9269,4.16159,13,11
5.58558,4.05816,-0.847723,25,4
6.34112,4.60371,-0.685567,17,5
7.32243,5.3142,-0.474164,47,6
8.64932,6.27257,-0.186496,100,7
10.5456,7.62253,0.227126,32,8
0.461231,0.333262,-0.131371,14,1
13.4142,9.68883,0.867207,20,9
4.52152,3.26582,-1.08418,18,2
18.2599,13.184,1.97042,37,10
5.01188,3.61735,-0.978967,32,3
27.438,19.7962,4.15428,13,11
5.59649,4.03632,-0.847236,23,4
6.35312,4.58033,-0.685218,17,5
7.33932,5.28745,-0.474059,39,6
8.65655,6.23182,-0.186182,100,7
10.5478,7.56818,0.226602,33,8
0.459224,0.329379,-0.130472,14,1
13.4414,9.6373,0.866788,21,9
4.53289,3.25002,-1.08418,18,2
18.2766,13.0993,1.96728,27,10
5.01806,3.59523,-0.977716,33,3
27.4198,19.6379,4.14112,13,11
5.6283,4.02947,-0.849917,37,4
6.34801,4.54305,-0.682952,20,5
7.35123,5.25715,-0.47364,47,6
8.65873,6.18762,-0.185763,100,7
10.5383,7.5058,0.225834,30,8
0.476246,0.339076,-0.134971,14,1
13.4505,9.57295,0.865218,23,9
4.549,3.23759,-1.08532,18,2
18.2865,13.01,1.96344,27,10
5.0177,3.56853,-0.975213,30,3
27.4235,19.496,4.13137,13,11
5.62777,3.99944,-0.847723,22,4
6.35083,4.51163,-0.681558,15,5
7.37117,5.23261,-0.473745,39,6
8.6868,6.16199,-0.185903,100,7
10.5726,7.47474,0.226009,32,8
0.464695,0.328414,-0.131371,14,1
13.5067,9.54208,0.866684,21,9
4.56188,3.22283,-1.0857,18,2
18.2846,12.9127,1.95839,32,10
5.04949,3.56466,-0.978967,35,3
27.3713,19.3155,4.11333,13,11
5.65467,3.98893,-0.849673,31,4
46.9151,33.0827,9.09229,14,12
6.37957,4.49862,-0.682952,18,5
7.35837,5.18499,-0.471756,50,6
8.70499,6.12932,-0.185833,100,7
10.6084,7.44468,0.226218,28,8
0.47222,0.331267,-0.133171,14,1
13.5367,9.49257,0.866474,18,9
4.57149,3.20575,-1.08532,15,2
18.2953,12.8248,1.95473,36,10
5.04734,3.53682,-0.976151,31,3
27.4061,19.1971,4.10846,13,11
5.65067,3.95664,-0.846992,22,4
6.39849,4.47861,-0.683301,18,5
50.7126,35.483,12.0309,22,13
7.38624,5.16614,-0.472384,39,6
8.73124,6.10234,-0.185938,100,7
10.6229,7.39961,0.225974,30,8
0.473374,0.329616,-0.133171,14,1
13.5501,9.43157,0.865218,17,9
4.58105,3.18865,-1.08494,11,2
18.3449,12.7643,1.95525,31,10
5.05804,3.51805,-0.975838,28,3
27.4371,19.0763,4.1031,13,11
5.66119,3.93463,-0.846505,21,4
43.4364,30.1779,8.37707,12,12
6.42064,4.4608,-0.683998,15,5
49.7074,34.5218,11.7638,21,13
7.39766,5.13577,-0.471966,43,6
57.5121,39.9124,16.1618,48,14
8.73278,6.05814,-0.185519,100,7
10.6585,7.3693,0.226183,28,8
0.477728,0.330178,-0.134071,14,1
13.5451,9.3581,0.862811,22,9
4.5873,3.1693,-1.0838,13,2
18.35,12.673,1.95107,22,10
5.07841,3.50598,-0.977403,33,3
27.3613,18.8824,4.08189,26,11
5.67652,3.91597,-0.846748,23,4
43.587,30.0575,8.38583,13,12
6.41976,4.42705,-0.682255,18,5
7.41884,5.11218,-0.472175,50,6
8.75552,6.02876,-0.185554,100,7
10.6578,7.31395,0.225625,23,8
0.469235,0.321894,-0.131371,14,1
13.5579,9.29721,0.861555,22,9
4.58862,3.1466,-1.08151,6,2
18.33,12.5649,1.94427,31,10
5.07921,3.48042,-0.975213,28,3
27.3305,18.7206,4.06751,26,11
5.69016,3.89613,-0.846748,27,4
43.0592,29.4722,8.26443,12,12
6.43518,4.40461,-0.682255,17,5
50.4657,34.5287,11.8859,21,13
7.44488,5.09189,-0.472698,47,6
8.78476,6.0038,-0.185729,100,7
10.6816,7.27557,0.22559,25,8
0.476799,0.324641,-0.133171,14,1
13.6084,9.26219,0.862706,20,9
4.60824,3.13529,-1.08341,4,2
18.3639,12.4941,1.94322,36,10
5.08807,3.46044,-0.974587,28,3
27.4022,18.6295,4.06849,13,11
5.69223,3.86844,-0.845042,24,4
43.0573,29.2507,8.24441,12,12
6.44963,4.37988,-0.682081,17,5
50.5594,34.3215,11.8782,21,13
7.43209,5.04326,-0.47071,50,6
8.8007,5.96973,-0.185624,100,7
10.6916,7.22518,0.225241,31,8
0.471527,0.318528,-0.131371,14,1
13.6224,9.19883,0.86145,16,9
0.676927,0.456937,-0.158753,16,2
18.4029,12.4223,1.94253,27,10
5.10071,3.44177,-0.974587,35,3
27.388,18.4734,4.0563,26,11
5.70637,3.84755,-0.845042,24,4
44.301,29.8589,8.46154,13,12
6.4706,4.35955,-0.682604,18,5
7.47041,5.02938,-0.471966,39,6
8.81423,5.93185,-0.185449,100,7
10.718,7.18594,0.225241,27,8
0.45974,0.308118,-0.127772,14,1
13.6346,9.13789,0.860194,16,9
0.683411,0.457849,-0.159898,16,2
18.4301,12.3426,1.94061,31,10
5.11494,3.42415,-0.9749,37,3
27.439,18.3619,4.05386,26,11
5.72471,3.83092,-0.845773,22,4
6.47915,4.33251,-0.681907,16,5
7.46799,4.98995,-0.47071,50,6
8.81326,5.88661,-0.184996,100,7
10.7418,7.15036,0.225241,27,8
0.441291,0.293638,-0.122373,15,1
13.6548,9.08599,0.859566,16,9
0.694734,0.462105,-0.162188,15,2
18.4179,12.2461,1.93503,31,10
5.12791,3.40827,-0.975213,33,3
27.4717,18.2521,4.04972,26,11
5.74069,3.81411,-0.846261,23,4
43.5784,28.9425,8.28571,12,12
6.47854,4.30108,-0.680338,16,5
48.2612,32.0282,11.2589,18,13
7.49448,4.97178,-0.471338,39,6
8.83773,5.86067,-0.1851,100,7
10.7488,7.10368,0.224892,21,8
0.47153,0.311508,-0.130472,14,1
13.6631,9.02285,0.8581,19,9
0.699539,0.461962,-0.162951,15,2
18.4035,12.1487,1.92928,35,10
5.12599,3.38254,-0.97271,26,3
27.4011,18.0746,4.03046,26,11
5.75563,3.79514,-0.846505,25,4
6.49019,4.27624,-0.679989,15,5
48.3737,31.8723,11.2604,18,13
7.5126,4.948,-0.471442,39,6
8.85814,5.82978,-0.1851,100,7
10.7585,7.05624,0.224578,25,8
0.469355,0.307723,-0.129572,14,1
13.6711,8.95978,0.856635,19,9
0.729145,0.477685,-0.169438,12,2
18.4379,12.0746,1.92823,35,10
5.14993,3.3713,-0.9749,28,3
27.4225,17.9516,4.02437,26,11
5.76718,3.77394,-0.846261,31,4
42.3015,27.6708,8.006,12,12
6.50341,4.25247,-0.679815,25,5
49.509,32.3608,11.497,19,13
7.51563,4.9106,-0.4705,39,6
8.87509,5.79664,-0.18503,100,7
10.7708,7.00804,0.224298,26,8
0.463945,0.30175,-0.127772,14,1
13.6704,8.88784,0.854542,21,9
0.762081,0.495469,-0.176689,20,2
18.505,12.0265,1.93085,36,10
5.16497,3.35546,-0.975525,30,3
27.4532,17.8283,4.01925,26,11
5.76599,3.74305,-0.844067,24,4
40.0794,26.008,7.56736,10,12
6.53901,4.24162,-0.681907,15,5
51.2655,33.254,11.8779,21,13
7.53105,4.88325,-0.470396,39,6
8.89292,5.7619,-0.184961,100,7
10.7969,6.97148,0.224333,27,8
0.471545,0.304356,-0.129572,14,1
13.6963,8.83682,0.854228,22,9
0.775441,0.500121,-0.17936,22,2
18.4971,11.9251,1.92544,35,10
5.16894,3.33115,-0.973961,28,3
27.4619,17.698,4.01145,26,11
5.77568,3.72075,-0.84358,21,4
40.0371,25.7824,7.54233,10,12
6.5521,4.21769,-0.681732,15,5
43.9642,28.2896,10.1621,13,13
7.54722,4.85454,-0.470291,39,6
8.89447,5.71892,-0.184577,100,7
10.8056,6.92108,0.223984,31,8
0.492351,0.315235,-0.134971,14,1
13.7538,8.80271,0.855798,16,9
0.820175,0.524927,-0.189283,21,2
18.4597,11.81,1.91725,43,10
5.18552,3.31628,-0.9749,28,3
27.4847,17.5705,4.00536,26,11
5.79262,3.70169,-0.844067,21,4
40.1646,25.6568,7.54859,10,12
6.55839,4.18943,-0.680861,13,5
43.9501,28.0641,10.1362,13,13
7.56412,4.82816,-0.470291,39,6
8.91706,5.68736,-0.184612,100,7
10.828,6.88224,0.223949,26,8
0.447393,0.284253,-0.122373,15,1
13.7642,8.7418,0.854542,17,9
0.830289,0.527324,-0.191191,24,2
18.4655,11.7231,1.91359,43,10
5.16872,3.28017,-0.969581,35,3
27.4906,17.4393,3.99731,26,11
5.81222,3.6857,-0.845042,22,4
42.6865,27.0584,8.00475,12,12
6.56288,4.16011,-0.679815,15,5
7.57755,4.79959,-0.470082,39,6
8.9301,5.65192,-0.184472,100,7
10.8367,6.83481,0.223635,31,8
0.448383,0.28269,-0.122373,15,1
13.7795,8.68412,0.8536,22,9
0.855377,0.539077,-0.196533,31,2
18.5282,11.6724,1.91586,35,10
5.18348,3.26421,-0.970207,27,3
27.4824,17.2999,3.98732,26,11
5.82001,3.66222,-0.844311,23,4
6.58242,4.14036,-0.680338,15,5
44.0087,27.6709,10.1049,13,13
7.58073,4.76461,-0.469244,39,6
8.94639,5.61859,-0.184402,100,7
10.8554,6.79375,0.22353,28,8
0.4758,0.29766,-0.129572,14,1
13.786,8.62114,0.852134,25,9
0.867241,0.542334,-0.198823,27,2
18.5536,11.5981,1.91429,39,10
5.19987,3.24924,-0.971145,26,3
27.4753,17.1618,3.97757,26,11
5.81592,3.63137,-0.841874,20,4
38.9296,24.2976,7.26826,9,12
6.58331,4.10892,-0.678943,15,5
44.4148,27.7104,10.1758,14,13
7.58545,4.73072,-0.468512,39,6
8.96595,5.58733,-0.184402,100,7
10.8875,6.7611,0.223705,27,8
0.450346,0.279553,-0.122373,15,1
13.7956,8.56033,0.850878,24,9
0.85912,0.533092,-0.196533,27,2
18.5974,11.5354,1.91464,35,10
5.22796,3.24148,-0.974274,27,3
27.5148,17.0532,3.97465,26,11
5.82687,3.61,-0.84163,21,4
40.4518,25.0519,7.53608,10,12
6.58647,4.07742,-0.677723,16,5
7.61381,4.71157,-0.469244,39,6
8.95138,5.53496,-0.183704,100,7
10.906,6.7199,0.2236,30,8
0.477867,0.294331,-0.129572,14,1
13.8339,8.51735,0.851401,20,9
0.839332,0.516563,-0.191572,18,2
18.6226,11.4567,1.91289,35,10
5.23813,3.22126,-0.973961,28,3
27.4997,16.9113,3.96392,26,11
5.8462,3.5938,-0.842605,21,4
39.2464,24.1162,7.29579,9,12
6.61254,4.0617,-0.678943,15,5
44.4681,27.3035,10.143,13,13
7.63103,4.68363,-0.469244,39,6
8.98087,5.50995,-0.183913,100,7
10.9254,6.67675,0.223496,27,8
0.485594,0.296641,-0.131371,14,1
13.8565,8.46139,0.850878,25,9
0.821024,0.501352,-0.186993,33,2
18.5825,11.3428,1.9047,39,10
5.23922,3.19678,-0.972084,37,3
27.5734,16.8177,3.96563,26,11
5.85255,3.56821,-0.84163,21,4
39.4088,24.0175,7.30956,9,12
6.62328,4.03652,-0.678595,15,5
42.4707,25.8734,9.66677,11,13
7.64562,4.65592,-0.46914,39,6
8.9993,5.47596,-0.183879,100,7
10.9521,6.64065,0.223565,31,8
0.453296,0.274742,-0.122373,15,1
13.8535,8.39331,0.848889,22,9
0.826127,0.500518,-0.187756,28,2
18.6595,11.3006,1.90854,39,10
5.23345,3.16824,-0.968955,25,3
27.5606,16.6781,3.95539,25,11
5.84969,3.53851,-0.839436,22,4
36.4936,22.0665,6.75453,7,12
6.64415,4.0175,-0.679292,15,5
7.6379,4.61475,-0.467674,39,6
9.02863,5.45072,-0.184088,100,7
10.97,6.59929,0.223461,31,8
0.480973,0.289227,-0.129572,14,1
13.871,8.34115,0.848261,30,9
0.822821,0.494596,-0.186611,43,2
18.6852,11.2272,1.90714,39,10
5.25972,3.15911,-0.971771,28,3
27.4076,16.4551,3.92517,12,11
5.86541,3.52011,-0.839924,22,4
41.011,24.6127,7.5755,10,12
6.66325,3.99736,-0.679815,15,5
37.8281,22.6845,8.57381,9,13
7.65738,4.59012,-0.467883,39,6
9.04151,5.41766,-0.183983,99,7
10.9747,6.55262,0.223112,33,8
0.455156,0.271651,-0.122373,15,1
13.9035,8.29472,0.848471,23,9
0.772271,0.460549,-0.174781,43,2
18.6814,11.1364,1.90278,46,10
5.26338,3.13761,-0.97052,40,3
27.6428,16.4719,3.951,12,11
5.88387,3.50471,-0.840899,22,4
40.1258,23.8913,7.39653,20,12
6.66861,3.96898,-0.678943,15,5
37.8154,22.5068,8.55397,18,13
7.67428,4.56572,-0.467988,39,6
49.4591,29.4134,13.2852,25,14
9.04661,5.3779,-0.183704,100,7
10.9923,6.51122,0.223007,32,8
0.456101,0.27006,-0.122373,15,1
13.8997,8.2268,0.846482,28,9
0.694387,0.410987,-0.156845,86,2
18.696,11.0612,1.90052,46,10
5.276,3.12022,-0.970832,27,3
27.7856,16.4258,3.96319,25,11
5.90119,3.48718,-0.84163,23,4
36.2597,21.4183,6.67005,15,12
6.67144,3.94077,-0.677897,15,5
37.8768,22.3646,8.55015,18,13
7.67985,4.53281,-0.46736,39,6
9.07394,5.35136,-0.183879,100,7
11.0012,6.4647,0.222728,32,8
0.477205,0.28031,-0.127772,14,1
13.9145,8.17015,0.845644,27,9
0.687353,0.40359,-0.154937,90,2
18.7242,10.9898,1.89947,46,10
5.28175,3.09878,-0.969894,23,3
27.8324,16.3227,3.96173,25,11
5.91162,3.46555,-0.841386,21,4
41.0109,24.0321,7.52857,10,12
6.68516,3.91745,-0.677897,15,5
37.8717,22.1837,8.53145,18,13
7.69046,4.50295,-0.467046,39,6
9.11328,5.33178,-0.184297,100,7
11.0099,6.41821,0.222448,31,8
0.47818,0.278643,-0.127772,14,1
13.943,8.12152,0.845644,27,9
0.690454,0.402176,-0.155319,99,2
18.7814,10.9354,1.90139,46,10
5.29082,3.07933,-0.969581,15,3
27.8687,16.2134,3.9588,25,11
5.92368,3.4449,-0.841386,24,4
43.137,25.0761,7.90276,11,12
6.70291,3.89493,-0.678246,15,5
37.9794,22.0691,8.53832,18,13
7.71822,4.4831,-0.467779,39,6
48.9555,28.4242,13.0692,25,14
9.13529,5.30194,-0.184367,100,7
11.027,6.37673,0.222344,38,8
0.489273,0.282824,-0.130472,14,1
13.9712,8.07281,0.845644,23,9
0.693623,0.400625,-0.1557,97,2
18.8023,10.8555,1.89947,46,10
5.29523,3.05597,-0.968329,11,3
27.8804,16.0903,3.95247,25,11
5.92707,3.41924,-0.840167,22,4
39.4527,22.7505,7.21319,9,12
6.71302,3.86952,-0.677897,15,5
38.0635,21.9317,8.53908,28,13
7.73633,4.45578,-0.467883,43,6
48.5865,27.9723,12.9432,24,14
9.13988,5.26203,-0.184088,100,7
11.0365,6.32832,0.222064,35,8
0.480162,0.275214,-0.127772,14,1
13.9903,8.01559,0.845016,25,9
0.688204,0.394297,-0.154174,100,2
18.809,10.772,1.89633,46,10
5.3093,3.03943,-0.968955,5,3
27.9202,15.9771,3.94979,25,11
5.93956,3.39749,-0.840167,22,4
6.72023,3.84093,-0.6772,15,5
38.2438,21.8581,8.56236,38,13
7.76224,4.43469,-0.468512,39,6
9.12785,5.21066,-0.18346,100,7
11.0515,6.2858,0.221925,40,8
0.484508,0.275463,-0.128672,14,1
14.0182,7.9667,0.845016,26,9
0.689644,0.391772,-0.154174,100,2
18.8293,10.6922,1.89442,46,10
5.30494,3.01118,-0.966139,1,3
27.836,15.8002,3.93004,25,11
5.95311,3.37772,-0.840411,21,4
6.7284,3.8145,-0.676677,16,5
38.532,21.8359,8.60892,19,13
7.77496,4.40424,-0.468302,39,6
60.4081,34.2051,16.0269,47,14
9.15468,5.18369,-0.183634,100,7
11.0518,6.23248,0.221471,47,8
0.478724,0.269857,-0.126872,15,1
14.063,7.92409,0.845959,21,9
0.697849,0.393218,-0.1557,97,2
18.8266,10.6039,1.89041,46,10
27.9664,15.7389,3.94028,25,11
5.96545,3.35588,-0.840411,22,4
38.7186,21.7723,7.03548,8,12
6.73994,3.79001,-0.676503,25,5
38.3102,21.5339,8.54252,9,13
7.79551,4.38001,-0.468616,43,6
9.17362,5.1501,-0.183634,100,7
11.0857,6.2007,0.221715,31,8
0.486467,0.271989,-0.128672,14,1
14.0749,7.86619,0.845016,23,9
0.694076,0.387906,-0.154555,100,2
18.8443,10.5274,1.88849,51,10
0.738166,0.412209,-0.133908,6,3
5.97713,3.33503,-0.840411,21,4
34.3296,19.1468,6.22578,12,12
6.77923,3.78102,-0.679118,15,5
38.296,21.3503,8.52267,9,13
7.79854,4.34596,-0.467883,47,6
9.17407,5.10832,-0.183285,21,7
11.0968,6.15614,0.221506,35,8
0.497639,0.275959,-0.131371,14,1
14.0834,7.80979,0.84397,25,9
0.69886,0.387384,-0.155319,99,2
18.9019,10.4732,1.89058,46,10
0.732688,0.405802,-0.132656,14,3
28.6105,15.8395,4.01535,13,11
5.98526,3.31223,-0.839924,22,4
34.2373,18.9468,6.19762,12,12
6.78367,3.75252,-0.678246,15,5
38.36,21.2108,8.52039,9,13
7.79619,4.30905,-0.466837,47,6
9.1857,5.07497,-0.18318,100,7
11.1172,6.11931,0.221506,40,8
0.50538,0.278065,-0.133171,14,1
14.1106,7.76058,0.84397,24,9
0.689885,0.379268,-0.153029,100,2
18.9244,10.3995,1.88919,46,10
0.73403,0.403369,-0.132656,71,3
28.5828,15.7005,4.00414,26,11
6.00317,3.29618,-0.840899,22,4
34.2322,18.7882,6.18479,23,12
6.781,3.72019,-0.676677,16,5
39.2752,21.5471,8.70776,19,13
7.81568,4.28606,-0.467151,50,6
9.19986,5.04095,-0.183111,100,7
11.149,6.08622,0.221715,40,8
0.506348,0.276299,-0.133171,14,1
14.1358,7.71032,0.843865,29,9
0.685969,0.374158,-0.151884,100,2
18.929,10.3204,1.88622,46,10
0.735433,0.400805,-0.132656,100,3
6.01639,3.27616,-0.841142,22,4
34.4121,18.7309,6.20544,24,12
6.7828,3.69196,-0.675631,18,5
39.0794,21.2626,8.64785,9,13
7.82885,4.2578,-0.467046,58,6
50.6422,27.5308,13.3077,26,14
9.21388,5.0069,-0.183041,100,7
11.1438,6.03298,0.221192,31,8
0.500454,0.27082,-0.131371,14,1
14.1627,7.66093,0.843865,21,9
0.690724,0.373629,-0.152647,100,2
18.9456,10.2439,1.88431,51,10
0.738565,0.399175,-0.132969,41,3
30.1728,16.3007,4.21083,13,11
6.02604,3.25419,-0.840899,22,4
34.2235,18.4737,6.15976,23,12
6.80617,3.67395,-0.676677,18,5
36.6308,19.7649,8.09068,8,13
7.82257,4.21907,-0.46579,47,6
9.24715,4.98324,-0.183355,100,7
50.0203,26.9444,15.2237,21,15
11.163,5.9931,0.221157,35,8
0.501396,0.269072,-0.131371,14,1
14.1805,7.60673,0.843342,29,9
0.704135,0.377712,-0.155319,99,2
18.9725,10.173,1.88344,51,10
0.731249,0.391928,-0.131405,46,3
30.2417,16.2019,4.21254,27,11
6.04786,3.23876,-0.842361,21,4
34.3992,18.4138,6.17979,23,12
6.83189,3.65555,-0.677897,20,5
35.3477,18.9135,7.79264,16,13
7.84781,4.19739,-0.466418,65,6
9.25214,4.94433,-0.183111,100,7
49.9436,26.6786,15.172,21,15
11.2104,5.96819,0.22168,32,8
0.502332,0.26732,-0.131371,14,1
14.1788,7.54218,0.841667,26,9
0.700314,0.372364,-0.154174,100,2
19.0044,10.1006,1.88291,38,10
0.739658,0.392953,-0.132656,53,3
29.9037,15.8867,4.15769,13,11
6.05036,3.21297,-0.841142,23,4
34.6134,18.3733,6.20669,18,12
6.84108,3.62982,-0.677549,20,5
35.7376,18.9541,7.86324,16,13
7.86138,4.16766,-0.466313,54,6
48.0155,25.4444,12.5455,23,14
9.26934,4.91201,-0.183111,100,7
11.2375,5.92986,0.221785,28,8
0.482625,0.254567,-0.125973,15,1
14.2169,7.49574,0.842295,35,9
0.6964,0.36717,-0.153029,100,2
19.0571,10.0434,1.88466,46,10
0.734035,0.386685,-0.131405,48,3
29.9336,15.7622,4.1538,13,11
6.06385,3.1917,-0.841386,22,4
34.677,18.2444,6.20607,24,12
6.84842,3.60313,-0.677026,23,5
37.4195,19.679,8.21814,8,13
7.87765,4.14112,-0.466418,65,6
48.2144,25.3346,12.5743,23,14
9.29082,4.87986,-0.18318,100,7
11.2546,5.88874,0.221715,31,8
0.497325,0.260106,-0.129572,14,1
14.2412,7.44515,0.84219,31,9
0.688978,0.360189,-0.151121,100,2
19.0621,9.96117,1.88169,46,10
0.742384,0.387779,-0.132656,53,3
25.459,13.2927,3.52641,11,11
6.07672,3.17143,-0.84163,23,4
31.919,16.6514,5.70204,10,12
6.86096,3.57921,-0.677026,17,5
39.0512,20.3635,8.56084,9,13
7.8956,4.11544,-0.466627,61,6
47.9258,24.9699,12.4762,23,14
9.24218,4.81322,-0.181889,21,7
11.2644,5.8439,0.221506,30,8
0.51899,0.269134,-0.134971,14,1
14.276,7.39998,0.842714,33,9
0.707661,0.366817,-0.154937,99,2
18.9888,9.83866,1.87106,45,10
0.715668,0.37065,-0.127651,36,3
28.8371,14.9286,3.98708,13,11
6.08246,3.14746,-0.840899,25,4
31.9716,16.5371,5.7011,20,12
6.87518,3.55615,-0.6772,21,5
36.4224,18.8312,7.97009,8,13
7.91346,4.08969,-0.466837,58,6
48.7052,25.1602,12.6562,24,14
9.28025,4.79194,-0.182308,100,7
11.2687,5.79631,0.221192,31,8
0.502595,0.25841,-0.130472,14,1
14.2982,7.34828,0.842504,36,9
0.700206,0.359857,-0.153029,93,2
18.9929,9.75684,1.8681,45,10
0.73453,0.377173,-0.130779,100,3
29.0091,14.8895,4.00365,13,11
6.09165,3.12531,-0.840655,27,4
31.8886,16.3533,5.67607,20,12
6.88046,3.52849,-0.676503,20,5
38.6089,19.7912,8.43338,9,13
7.90281,4.04929,-0.465371,54,6
43.6691,22.3658,11.3272,20,14
9.30047,4.76135,-0.182378,100,7
52.2497,26.7375,15.7269,23,15
11.2881,5.75406,0.221157,35,8
0.503539,0.256566,-0.130472,14,1
14.3322,7.29946,0.842923,35,9
0.708518,0.360853,-0.154555,91,2
19.0108,9.67812,1.86635,45,10
0.723583,0.368207,-0.128589,65,3
25.139,12.7869,3.46304,10,11
6.09244,3.09756,-0.839192,29,4
31.9888,16.2569,5.68326,5,12
6.89157,3.50235,-0.676329,27,5
38.5307,19.5731,8.40056,9,13
7.91759,4.0203,-0.465371,61,6
43.6743,22.1668,11.3074,20,14
9.34818,4.7426,-0.182971,100,7
11.3099,5.71552,0.221192,31,8
0.50791,0.256564,-0.131371,14,1
14.3575,7.24938,0.842923,38,9
0.701011,0.353953,-0.152647,85,2
18.9413,9.55963,1.85624,37,10
5.46558,2.75727,-0.969581,11,3
28.8313,14.5385,3.96465,13,11
6.10322,3.07627,-0.839192,33,4
31.9589,16.1016,5.66793,20,12
6.89664,3.47468,-0.675631,25,5
38.3463,19.3113,8.3456,18,13
7.93158,3.99264,-0.465371,65,6
43.0621,21.6674,11.1292,19,14
9.34503,4.70006,-0.182587,100,7
11.3369,5.6796,0.221331,32,8
0.519257,0.260025,-0.134071,14,1
14.3578,7.1867,0.841458,41,9
0.69522,0.347988,-0.151121,97,2
18.9639,9.48812,1.8552,37,10
5.49284,2.74701,-0.97271,22,3
27.9195,13.9567,3.83255,12,11
6.12102,3.05851,-0.840167,27,4
32.0379,16.0014,5.672,10,12
6.91585,3.45415,-0.676329,25,5
35.9069,17.926,7.80104,16,13
7.96512,3.97474,-0.466523,50,6
43.1235,21.51,11.1256,19,14
9.33095,4.65224,-0.181994,100,7
43.2949,21.5766,12.9617,17,15
11.3424,5.63287,0.221052,32,8
0.509689,0.253012,-0.131371,14,1
14.3846,7.13743,0.841562,42,9
0.706982,0.350795,-0.15341,93,2
19.029,9.4378,1.85833,45,10
5.48647,2.71992,-0.969894,36,3
24.7469,12.2629,3.39114,20,11
6.13344,3.038,-0.840411,28,4
32.1874,15.9359,5.68858,15,12
6.91894,3.42557,-0.675457,30,5
31.7181,15.6967,6.87905,12,13
7.97,3.94248,-0.465999,68,6
43.1442,21.3325,11.1117,19,14
9.38478,4.63825,-0.182727,100,7
43.3388,21.41,12.9523,17,15
11.3566,5.5906,0.220947,35,8
0.517563,0.254673,-0.133171,14,1
14.404,7.08452,0.841248,36,9
0.709964,0.349192,-0.153792,92,2
19.1941,9.43636,1.87123,37,10
5.4977,2.70163,-0.970207,41,3
24.6986,12.1318,3.37871,20,11
6.1351,3.0122,-0.839192,27,4
31.6381,15.5267,5.5819,9,12
6.9243,3.39667,-0.67476,26,5
31.7762,15.5876,6.87981,12,13
7.96937,3.9076,-0.465162,58,6
43.2411,21.193,11.1175,19,14
9.40631,4.6081,-0.182831,100,7
43.4237,21.2637,12.9554,17,15
11.3868,5.55618,0.221157,33,8
0.500934,0.244322,-0.128672,14,1
14.4251,7.03245,0.841039,36,9
0.716534,0.349167,-0.154937,90,2
19.259,9.38078,1.8742,45,10
5.50579,2.6806,-0.969894,35,3
24.7783,12.0638,3.38382,31,11
6.14736,2.99163,-0.839436,30,4
31.4079,15.278,5.53184,4,12
6.93432,3.37161,-0.674585,25,5
44.3753,21.5667,9.59044,11,13
7.97645,3.87488,-0.464743,68,6
44.4089,21.5638,11.3974,20,14
9.41334,4.57087,-0.182657,100,7
43.6332,21.1777,12.9958,17,15
11.4089,5.51528,0.221192,36,8
0.508844,0.245876,-0.130472,14,1
14.4507,6.97953,0.841039,38,9
0.712445,0.344102,-0.153792,92,2
19.2917,9.3135,1.8742,41,10
5.51511,2.66136,-0.969894,35,3
24.8331,11.9781,3.38529,20,11
6.15471,2.96736,-0.838949,30,4
25.9205,12.4914,4.55725,13,12
6.9604,3.35431,-0.67598,21,5
32.5042,15.6572,7.01299,6,13
7.99352,3.84875,-0.464953,65,6
44.5471,21.4391,11.4136,20,14
9.4048,4.5242,-0.182168,100,7
11.4155,5.46937,0.220947,38,8
0.527275,0.252515,-0.134971,14,1
14.475,6.92905,0.841039,36,9
0.715412,0.342461,-0.154174,82,2
19.3187,9.24352,1.87367,37,10
5.52793,2.6438,-0.97052,30,3
24.9124,11.9093,3.39041,10,11
6.16682,2.94671,-0.839192,31,4
26.0352,12.4349,4.56976,13,12
6.98106,3.33428,-0.676851,21,5
32.564,15.5462,7.01414,13,13
8.02494,3.82942,-0.465999,68,6
44.6463,21.2952,11.4199,20,14
9.43858,4.49995,-0.182517,100,7
43.7104,20.8301,12.9741,17,15
11.4255,5.4252,0.220773,43,8
0.514069,0.243988,-0.131371,14,1
14.5027,6.8802,0.841248,38,9
0.718377,0.340804,-0.154555,73,2
19.358,9.17944,1.87437,45,10
5.52642,2.61941,-0.968642,40,3
29.0512,13.7635,3.9471,25,11
6.18425,2.92856,-0.840167,29,4
26.0642,12.3372,4.56726,13,12
6.98365,3.30563,-0.67598,21,5
32.6252,15.4358,7.01567,13,13
8.0202,3.79284,-0.464953,58,6
44.368,20.9727,11.3299,20,14
9.45966,4.46954,-0.182622,100,7
43.5802,20.5817,12.914,17,15
11.4642,5.39465,0.221157,38,8
0.514918,0.242192,-0.131371,14,1
14.5158,6.82443,0.84062,44,9
0.724892,0.3408,-0.1557,35,2
19.4008,9.1169,1.87542,45,10
5.52301,2.59422,-0.966452,33,3
29.8789,14.0281,4.05289,13,11
6.19083,2.90527,-0.83968,27,4
26.1106,12.2478,4.56789,13,12
6.98793,3.27785,-0.675283,25,5
26.3418,12.3506,5.6552,8,13
8.03882,3.76737,-0.465267,50,6
9.47882,4.43819,-0.182692,100,7
43.6133,20.4114,12.9026,17,15
11.483,5.35461,0.221157,40,8
0.505162,0.235454,-0.128672,14,1
14.5214,6.76529,0.839573,38,9
0.71718,0.334122,-0.153792,37,2
19.4361,9.05081,1.87577,45,10
5.52487,2.5716,-0.965201,23,3
25.4569,11.8437,3.44744,32,11
6.18834,2.87779,-0.837974,30,4
26.155,12.1574,4.5682,16,12
7.00295,3.25512,-0.675631,23,5
26.4596,12.2934,5.67123,17,13
8.05011,3.73844,-0.465162,65,6
31.3447,14.5497,7.97811,11,14
9.51058,4.41265,-0.183006,100,7
34.4518,15.9774,10.1757,9,15
11.4962,5.31198,0.221052,41,8
0.513058,0.236957,-0.130472,14,1
14.5431,6.71371,0.839469,39,9
0.702299,0.32421,-0.150357,19,2
19.4169,8.95954,1.87089,45,10
5.55893,2.56388,-0.969581,41,3
25.5774,11.7913,3.45816,53,11
6.19113,2.85285,-0.836999,37,4
27.9054,12.8528,4.86605,7,12
7.0016,3.22482,-0.674411,30,5
26.3275,12.1205,5.63383,8,13
8.05585,3.70698,-0.464743,61,6
31.3015,14.3971,7.95427,11,14
9.49141,4.36355,-0.182343,100,7
34.5811,15.8909,10.1975,9,15
11.5201,5.27431,0.221157,40,8
0.513882,0.235165,-0.130472,14,1
14.5719,6.6654,0.839783,39,9
0.708783,0.324207,-0.151502,19,2
19.4843,8.90827,1.87437,49,10
5.55167,2.53707,-0.966765,36,3
24.9286,11.3869,3.36506,30,11
6.2137,2.83699,-0.838705,29,4
26.2159,11.9639,4.56413,6,12
6.99106,3.19043,-0.672319,28,5
26.8037,12.2265,5.72656,17,13
8.08328,3.68547,-0.465581,47,6
31.3711,14.2966,7.95922,11,14
9.50658,4.3304,-0.182343,100,7
34.777,15.8341,10.2389,9,15
11.5512,5.23984,0.221401,43,8
0.518249,0.234979,-0.131371,14,1
14.5842,6.60955,0.839155,41,9
0.713486,0.323352,-0.152266,28,2
19.8583,8.99558,1.90732,43,10
5.56049,2.51768,-0.966765,46,3
25.4294,11.5085,3.42721,31,11
6.22356,2.81528,-0.838705,38,4
25.3809,11.4759,4.41177,15,12
7.0076,3.16847,-0.672842,26,5
26.7318,12.0811,5.70214,17,13
8.11248,3.66463,-0.466523,47,6
31.5753,14.2568,7.99836,11,14
9.53258,4.30212,-0.182552,100,7
47.3913,21.3781,13.9307,19,15
11.5949,5.21097,0.22189,52,8
0.519066,0.233169,-0.131371,14,1
14.6097,6.56279,0.839364,39,9
0.707447,0.317642,-0.150739,29,2
20.0313,8.98984,1.92091,52,10
5.56745,2.49744,-0.966452,50,3
24.9677,11.1947,3.35969,41,11
6.23697,2.79516,-0.839192,29,4
25.1971,11.2923,4.37328,12,12
7.0368,3.15214,-0.674585,27,5
26.1126,11.6917,5.56132,4,13
8.0997,3.62487,-0.465057,50,6
31.3029,14.0025,7.91693,23,14
9.55957,4.2762,-0.182797,100,7
11.6286,5.17982,0.222204,51,8
0.519837,0.231446,-0.131371,14,1
14.5997,6.49714,0.83748,45,9
0.715726,0.318363,-0.152266,19,2
20.1245,8.94738,1.92684,26,10
5.57931,2.48057,-0.967078,45,3
24.3607,10.8257,3.27317,19,11
6.23895,2.77124,-0.838217,29,4
24.164,10.7282,4.18744,23,12
7.06233,3.13402,-0.67598,25,5
27.1059,12.0286,5.76434,8,13
8.11532,3.59961,-0.465267,47,6
31.8195,14.1071,8.0357,11,14
9.57444,4.24281,-0.182797,100,7
31.183,13.8119,9.13838,7,15
11.6045,5.12062,0.221401,58,8
0.509943,0.224912,-0.128672,14,1
14.6296,6.44935,0.837899,39,9
0.706,0.311236,-0.149976,20,2
20.258,8.92639,1.93677,58,10
5.59335,2.46347,-0.968017,37,3
24.3674,10.727,3.26902,39,11
6.2504,2.75024,-0.838461,28,4
24.2356,10.6589,4.19338,34,12
7.07323,3.10935,-0.67598,26,5
27.1854,11.9506,5.77235,8,13
8.13881,3.57608,-0.465895,50,6
24.1017,10.5849,6.07728,31,14
9.56539,4.19891,-0.182343,100,7
11.6242,5.08089,0.221436,50,8
0.535726,0.234053,-0.134971,14,1
14.6044,6.37746,0.835177,33,9
0.69634,0.303934,-0.147686,31,2
20.0732,8.75728,1.91603,39,10
5.60416,2.44374,-0.968329,33,3
23.9644,10.4499,3.21004,18,11
6.25815,2.72762,-0.838217,33,4
24.0934,10.4961,4.16241,13,12
7.07673,3.08146,-0.675283,25,5
24.0662,10.4743,5.10185,38,13
8.17201,3.55499,-0.467046,47,6
24.1475,10.4996,6.07908,39,14
9.58549,4.16789,-0.182447,22,7
24.0286,10.443,7.02021,4,15
11.6243,5.0303,0.221087,46,8
0.53658,0.232088,-0.134971,14,1
14.5727,6.30012,0.832037,37,9
0.708209,0.306176,-0.149976,30,2
20.3945,8.81281,1.94375,40,10
5.60721,2.42181,-0.967391,41,3
26.175,11.2998,3.50058,11,11
6.26992,2.70545,-0.838461,32,4
23.68,10.2129,4.0845,30,12
7.08379,3.05516,-0.674934,26,5
24.2126,10.4376,5.12513,28,13
8.16236,3.51696,-0.46579,58,6
24.209,10.4261,6.08538,40,14
9.62274,4.14222,-0.182866,100,7
24.214,10.4182,7.06317,26,15
11.6676,5.00073,0.221576,51,8
0.515891,0.221005,-0.129572,14,1
14.5542,6.23191,0.829734,31,9
0.716492,0.306793,-0.151502,28,2
20.3317,8.70159,1.93486,18,10
5.60292,2.39679,-0.965201,38,3
23.7246,10.1439,3.16812,9,11
6.28115,2.68433,-0.838705,33,4
23.81,10.1706,4.10077,30,12
7.1054,3.03511,-0.67598,25,5
24.0304,10.2597,5.07895,33,13
8.16356,3.48374,-0.465162,65,6
24.2471,10.3423,6.08583,16,14
9.64818,4.1133,-0.183076,22,7
24.1454,10.2889,7.03263,17,15
11.6794,4.95762,0.221471,48,8
0.520248,0.220725,-0.130472,14,1
14.5722,6.17951,0.829525,33,9
0.721174,0.305823,-0.152266,38,2
20.4335,8.66089,1.94166,22,10
5.62035,2.38107,-0.966765,42,3
23.7818,10.0703,3.17104,27,11
6.285,2.66006,-0.837974,37,4
7.12015,3.0106,-0.676329,25,5
24.2234,10.2423,5.11215,38,13
8.18671,3.45989,-0.46579,58,6
24.1843,10.2158,6.06108,39,14
9.66248,4.0796,-0.183076,22,7
24.2238,10.2226,7.04505,4,15
11.6801,4.90985,0.221157,50,8
0.524608,0.220417,-0.131371,14,1
14.6342,6.14563,0.831828,37,9
0.707808,0.297099,-0.149213,40,2
21.2349,8.90891,2.01469,39,10
5.64179,2.3658,-0.968955,33,3
22.6086,9.48057,3.01017,33,11
6.29425,2.63811,-0.837974,34,4
22.585,9.46142,3.87832,10,12
7.13796,2.9888,-0.677026,18,5
24.0633,10.0709,5.07056,33,13
8.20671,3.43294,-0.466209,58,6
24.0831,10.0693,6.02644,31,14
9.66743,4.04199,-0.182901,100,7
24.2879,10.1499,7.05334,4,15
11.7054,4.87008,0.221297,56,8
0.511018,0.212507,-0.127772,14,1
14.7119,6.11494,0.834968,24,9
0.714279,0.296887,-0.150357,39,2
20.0939,8.34781,1.90366,17,10
5.64271,2.34306,-0.967704,33,3
22.6725,9.40981,3.01407,16,11
6.30754,2.61654,-0.838461,37,4
22.7144,9.41793,3.89459,10,12
7.14151,2.95957,-0.676329,21,5
23.5887,9.77559,4.96332,3,13
8.21864,3.40427,-0.466209,58,6
24.0083,9.93966,5.99899,31,14
9.66001,3.99736,-0.182482,24,7
11.7094,4.82386,0.221052,55,8
0.490133,0.201818,-0.122373,15,1
14.8311,6.10384,0.840516,33,9
0.717178,0.295014,-0.150739,29,2
20.4155,8.39382,1.9312,22,10
5.63665,2.31636,-0.965201,32,3
22.7456,9.34721,3.01944,16,11
6.32766,2.59903,-0.839924,28,4
22.5827,9.27106,3.86643,27,12
7.15364,2.93538,-0.676503,20,5
23.7134,9.72557,4.98202,9,13
8.21997,3.36958,-0.465581,65,6
24.2736,9.94542,6.05613,70,14
9.68871,3.96968,-0.182762,21,7
11.7317,4.78522,0.221157,51,8
0.512489,0.208934,-0.127772,14,1
14.8449,6.04902,0.840097,38,9
0.729061,0.297079,-0.153029,37,2
19.242,7.83683,1.81772,15,10
5.64247,2.29691,-0.964888,36,3
22.7781,9.26777,3.01944,50,11
6.33485,2.57618,-0.83968,31,4
22.6936,9.22415,3.87989,27,12
7.15092,2.90514,-0.675283,25,5
26.141,10.6201,5.48461,32,13
8.22925,3.34155,-0.465476,50,6
24.2757,9.85241,6.04848,63,14
9.72103,3.94336,-0.183111,23,7
11.7465,4.7435,0.221122,48,8
0.49153,0.198391,-0.122373,15,1
14.8548,5.99268,0.839469,38,9
0.722862,0.291469,-0.151502,38,2
20.9707,8.45142,1.97809,18,10
5.65634,2.27842,-0.965827,33,3
22.6869,9.1385,3.0031,33,11
6.32539,2.54664,-0.837242,29,4
22.5571,9.07704,3.8511,11,12
7.18135,2.88834,-0.6772,20,5
24.4966,9.84756,5.132,14,13
8.25627,3.31733,-0.466313,50,6
24.0259,9.64863,5.9774,38,14
9.7199,3.90343,-0.182831,23,7
35.15,14.1088,10.1488,9,15
11.7786,4.70634,0.221401,48,8
0.539307,0.21538,-0.134071,14,1
14.8756,5.94079,0.839469,35,9
0.712935,0.284577,-0.149213,40,2
20.0248,7.98908,1.88622,8,10
5.67344,2.26233,-0.967391,37,3
22.8992,9.12658,3.02675,41,11
6.33653,2.52417,-0.837486,24,4
22.8639,9.1079,3.89803,12,12
7.18213,2.85957,-0.676329,23,5
25.1018,9.98921,5.25145,18,13
8.26594,3.28775,-0.466209,61,6
24.1591,9.60429,6.00214,54,14
9.7539,3.8776,-0.183215,22,7
35.1236,13.9561,10.1271,9,15
11.796,4.66799,0.221436,50,8
0.521897,0.206423,-0.129572,14,1
14.9167,5.8969,0.84062,39,9
0.721227,0.284972,-0.150739,39,2
18.5942,7.3432,1.74904,3,10
5.67907,2.24278,-0.967078,33,3
22.632,8.93325,2.98751,49,11
6.35409,2.50679,-0.838705,23,4
24.656,9.72223,4.19776,23,12
7.19578,2.83594,-0.676677,25,5
23.5384,9.27676,4.91791,16,13
8.29167,3.26618,-0.467046,58,6
24.0312,9.46132,5.96255,15,14
9.7711,3.845,-0.183285,22,7
35.1614,13.8292,10.124,9,15
11.8234,4.63117,0.221646,50,8
0.515356,0.201758,-0.127772,14,1
14.9465,5.84843,0.841144,36,9
0.714855,0.279717,-0.149213,40,2
19.6724,7.69368,1.84805,4,10
5.68319,2.2215,-0.966452,38,3
22.7481,8.88741,2.99872,49,11
6.3739,2.48893,-0.840167,24,4
25.0726,9.78549,4.26284,23,12
7.19215,2.807,-0.675457,30,5
23.6017,9.20666,4.9244,16,13
8.29743,3.23504,-0.466732,76,6
24.9647,9.72832,6.1857,8,14
9.76769,3.80434,-0.182971,24,7
36.2752,14.1212,10.4304,10,15
11.8171,4.58119,0.221227,51,8
0.52696,0.204183,-0.130472,14,1
14.9705,5.79768,0.841353,35,9
0.712166,0.275802,-0.148449,41,2
16.6389,6.44044,1.56096,16,10
5.67801,2.19666,-0.964262,37,3
22.6624,8.76287,2.98336,24,11
6.37329,2.46308,-0.838949,42,4
22.5195,8.69857,3.82357,11,12
7.22421,2.79049,-0.677549,25,5
23.6062,9.11363,4.91867,16,13
8.30309,3.2039,-0.466418,72,6
24.8658,9.58993,6.15286,24,14
9.78837,3.7731,-0.183111,23,7
36.3315,13.9973,10.4325,10,15
11.8219,4.53562,0.221017,51,8
0.531308,0.203738,-0.131371,14,1
14.9776,5.74038,0.84062,39,9
0.72779,0.278935,-0.151502,38,2
16.572,6.34811,1.55259,61,10
5.7004,2.18247,-0.966765,30,3
16.6729,6.38011,2.19194,28,11
6.36887,2.43586,-0.837242,31,4
25.3525,9.69132,4.29882,24,12
7.23949,2.76739,-0.678072,26,5
24.0835,9.20144,5.01141,6,13
8.31049,3.17347,-0.466209,72,6
24.0379,9.1744,5.94006,7,14
9.79775,3.73748,-0.183041,23,7
36.2682,13.8277,10.4004,10,15
11.8544,4.50072,0.221331,52,8
0.528372,0.200499,-0.130472,14,1
14.9677,5.67673,0.838945,39,9
0.714074,0.270824,-0.148449,41,2
16.4506,6.23585,1.53917,39,10
5.7283,2.17026,-0.970207,37,3
16.5447,6.26493,2.1722,50,11
