x, y, z, intensity, ring
-6.6185,48.3789,4.27203,17,10
-1.68066,12.285,-1.96388,28,3
-2.45477,17.9669,2.22655,19,11
-2.18621,16.0221,-1.9855,31,4
-2.5112,18.4279,2.94566,3,12
-2.35091,17.2742,-1.52523,34,5
-3.19814,23.4995,4.60995,19,13
-1.63464,12.0268,-0.636091,48,6
-3.81535,28.1081,6.54878,9,14
-1.61953,11.9469,-0.210441,19,7
-3.80314,28.0917,7.59582,10,15
-0.0642092,0.478676,-0.12941,15,0
-1.55987,11.6442,0.205066,75,8
-0.0829489,0.620022,-0.144419,25,1
-1.62612,12.171,0.643523,27,9
-1.32128,9.88938,-1.93938,9,2
-2.42953,18.2085,1.60715,43,10
-1.63202,12.2477,-1.957,6,3
-3.07889,23.1368,2.86588,15,11
-1.88576,14.1897,-1.7576,18,4
-3.1522,23.7511,3.79479,4,12
-2.2961,17.3237,-1.52889,37,5
-3.12048,23.5436,4.61643,13,13
-1.59658,12.0621,-0.637661,22,6
-2.27895,17.2406,4.01493,2,14
-1.57913,11.9624,-0.210616,86,7
-2.09543,15.8949,4.29588,1,15
-0.0674505,0.51722,-0.139762,14,0
-1.54145,11.8201,0.208068,21,8
-0.0812876,0.624172,-0.145318,25,1
-1.57925,12.1429,0.641744,8,9
-1.31132,10.0966,-1.97907,23,2
-2.27591,17.5474,1.54806,13,10
-1.81167,13.9874,-2.23388,45,3
-2.99606,23.1316,2.86393,45,11
-1.84003,14.2258,-1.76126,33,4
-2.40932,18.6526,2.97883,3,12
-2.26212,17.5372,-1.54701,35,5
-2.10036,16.3056,3.19567,1,13
-1.57121,12.2145,-0.645407,68,6
-2.1574,16.7946,3.9092,10,14
-1.52233,11.8508,-0.208556,40,7
-2.04214,15.9194,4.30054,10,15
-0.0646722,0.509787,-0.137692,14,0
-1.49863,11.8296,0.208137,6,8
-0.0787546,0.622533,-0.144868,25,1
-2.11464,16.7157,0.883012,12,9
-1.37007,10.8452,-2.12485,19,2
-5.58983,44.3102,3.90737,14,10
-1.8016,14.3013,-2.283,13,3
-2.13674,16.9856,2.102,4,11
-1.77972,14.1674,-1.75321,37,4
-2.08739,16.6166,2.6525,5,12
-2.10591,16.7878,-1.48025,15,5
-2.04685,16.3401,3.20101,9,13
-1.62227,12.969,-0.684973,91,6
-2.08765,16.7131,3.8885,2,14
-1.47624,11.8183,-0.207893,27,7
-1.98991,15.9532,4.30778,15,15
-0.0643109,0.521513,-0.140798,14,0
-1.45523,11.8008,0.207544,1,8
-0.0781189,0.634395,-0.147568,24,1
-1.49566,12.1636,0.642267,3,9
-1.3791,11.2318,-2.19965,64,2
-2.10655,17.1812,1.51442,26,10
-1.46185,11.923,-1.90256,13,3
-5.06014,41.3307,5.11266,17,11
-1.73152,14.1634,-1.75199,43,4
-2.0332,16.6552,2.65751,7,12
-1.51619,12.4381,-1.09624,26,5
-2.00881,16.4793,3.22696,37,13
-3.54385,29.1568,6.78092,10,14
-1.43426,11.8175,-0.207788,30,7
-1.93723,15.985,4.31451,8,15
-0.0612007,0.510215,-0.137692,14,0
-1.53127,12.7847,0.224752,41,8
-0.0747467,0.624989,-0.145318,25,1
-1.44845,12.1291,0.640173,14,9
-1.35348,11.3338,-2.21873,45,2
-2.04957,17.1881,1.51442,48,10
-1.52765,12.8303,-2.04648,5,3
-2.15185,18.0997,2.23801,19,11
-1.67038,14.0708,-1.73981,58,4
-1.97575,16.6681,2.65845,16,12
-1.47775,12.4668,-1.09834,28,5
-1.76625,14.9677,3.47954,33,14
-1.38645,11.7668,-0.206811,77,7
-2.03537,17.3002,4.66754,16,15
-0.0576324,0.495075,-0.133551,15,0
-1.48155,12.7462,0.223984,38,8
-0.0707672,0.60976,-0.141719,26,1
-1.40151,12.0944,0.63808,46,9
-1.32815,11.4613,-2.24277,45,2
-1.55562,13.4655,-2.14691,16,3
-1.96104,17.0008,2.10127,58,11
-1.61761,14.045,-1.73591,35,4
-1.9268,16.7553,2.67128,33,12
-1.96252,17.0659,-1.50291,25,5
-2.01846,17.5793,3.43952,5,13
-1.39651,12.1814,-0.642581,65,6
-1.34537,11.7716,-0.206811,100,7
-1.64862,14.4473,3.89626,28,15
-0.0541704,0.479915,-0.12941,15,0
-2.6291,23.3287,0.409782,18,8
-0.070164,0.623559,-0.144868,25,1
-1.36452,12.1267,0.639545,7,9
-1.24364,11.0699,-2.1653,47,2
-1.85711,16.5565,1.45759,43,10
-1.33736,11.9416,-1.90318,13,3
-1.8986,16.9799,2.09786,54,11
-1.58421,14.1906,-1.75321,45,4
-2.06914,18.5344,2.9538,12,12
-1.41982,12.7382,-1.12135,30,5
-1.94166,17.4477,3.41243,10,13
-1.3767,12.3906,-0.653362,52,6
-1.66172,14.9797,3.47954,38,14
-2.26297,20.3997,-0.358263,44,7
-1.60623,14.5026,3.90972,30,15
-0.054175,0.495465,-0.133551,15,0
-2.49828,22.8483,0.401196,57,8
-0.069576,0.637349,-0.148018,24,1
-1.90883,17.5141,0.923311,36,9
-1.23302,11.3318,-2.21567,47,2
-1.45135,13.3599,-2.12845,43,3
-1.52453,14.0793,-1.73883,41,4
-1.80316,16.6797,2.6572,31,12
-1.37534,12.743,-1.12135,42,5
-2.72815,25.2773,4.94195,35,13
-1.33838,12.421,-0.654723,100,6
-1.63225,15.173,3.52318,22,14
-1.41127,13.1404,-0.230686,73,7
-1.54982,14.4543,3.89523,37,15
-0.0509026,0.480273,-0.12941,15,0
-2.45869,23.2367,0.407863,26,8
-0.067146,0.63565,-0.147568,24,1
-1.85157,17.5283,0.92373,42,9
-1.15941,10.9941,-2.14889,68,2
-1.86579,17.722,1.55904,45,10
-1.33099,12.6635,-2.01675,11,3
-1.75419,16.718,2.06398,8,11
-1.482,14.1478,-1.74663,30,4
-1.76431,16.8427,2.68223,7,12
-1.32893,12.7079,-1.11786,54,5
-2.45581,23.5235,4.59735,13,13
-1.28343,12.3143,-0.648861,52,6
-1.57766,15.1631,3.51958,54,14
-2.03693,19.5773,-0.343568,79,7
-0.0531638,0.518884,-0.139762,14,0
-2.00027,19.5228,0.342556,46,8
-0.0642447,0.628115,-0.145768,25,1
-1.79708,17.6002,0.927184,47,9
-1.11227,10.9122,-2.1321,71,2
-1.79544,17.6451,1.55172,91,10
-1.70234,16.7593,2.06837,4,11
-1.39943,13.8011,-1.70325,26,4
-1.86942,18.4682,2.94003,16,12
-1.27815,12.649,-1.11228,40,5
-2.37701,23.5237,4.59583,13,13
-1.29911,12.8789,-0.678379,45,6
-1.52737,15.1683,3.51958,20,14
-1.51199,15.0419,-0.26388,83,7
-1.49095,14.8586,4.00134,12,15
-0.0476323,0.480608,-0.12941,15,0
-2.22682,22.5087,0.394808,12,8
-0.0620519,0.628335,-0.145768,25,1
-0.982856,9.97016,-1.9474,28,2
-1.69223,17.1969,1.5118,29,10
-1.25249,12.7509,-2.02927,20,3
-1.71028,17.4427,2.15197,46,11
-1.34505,13.7426,-1.69545,63,4
-1.63903,16.7462,2.66502,18,12
-1.22322,12.5203,-1.1006,47,5
-1.44271,14.7936,2.88923,1,13
-1.31355,13.4936,-0.710513,94,6
-1.28785,13.2535,-0.232431,100,7
-1.44353,14.8827,4.00652,12,15
-0.0477925,0.500003,-0.134586,15,0
-1.27102,13.2974,0.233164,19,8
-0.0610786,0.640177,-0.148468,24,1
-1.63785,17.1985,0.905412,17,9
-1.00006,10.5208,-2.05425,26,2
-1.63897,17.2741,1.51808,71,10
-1.20572,12.7078,-2.02176,59,3
-1.64662,17.387,2.14441,50,11
-1.23671,13.083,-1.61355,26,4
-1.74868,18.5336,2.94848,15,12
-1.18044,12.5344,-1.10147,54,5
-1.2399,13.24,-0.232117,23,7
-1.39013,14.8722,4.00238,13,15
-0.0471989,0.5117,-0.137692,14,0
-1.19967,13.0309,0.228417,13,8
-0.0592,0.644268,-0.149367,24,1
-1.57416,17.1643,0.903319,8,9
-0.952084,10.3813,-2.02639,35,2
-1.57805,17.2398,1.51459,52,10
-1.07868,11.807,-1.87784,10,3
-1.54428,16.936,2.08811,81,11
-1.32525,14.562,-1.79538,44,4
-1.52459,16.7848,2.6694,5,12
-1.14103,12.5621,-1.10357,38,5
-1.34375,14.8226,2.89305,38,13
-1.1594,12.814,-0.674297,22,6
-1.44594,16.012,3.71169,37,14
-1.19295,13.2363,-0.231977,54,7
-0.0454123,0.511862,-0.137692,14,0
-1.17198,13.2362,0.231942,41,8
-0.0574655,0.650294,-0.150717,23,1
-1.51915,17.2254,0.906249,38,9
-0.911698,10.3376,-2.01723,59,2
-1.54563,17.5608,1.54231,65,10
-1.49018,16.9987,2.09518,54,11
-1.28686,14.7089,-1.81293,34,4
-1.45242,16.6346,2.64468,2,12
-1.10446,12.6494,-1.11089,57,5
-1.29575,14.8703,2.90144,39,13
-1.11138,12.7802,-0.672308,45,6
-1.39795,16.1082,3.73284,22,14
-1.1502,13.2803,-0.232675,27,7
-1.29076,14.9336,4.01635,1,15
-0.0410013,0.481219,-0.12941,15,0
-1.47037,17.293,0.302939,42,8
-0.0543712,0.640782,-0.148468,24,1
-1.47367,17.4038,0.915356,46,9
-0.86418,10.2058,-1.9909,52,2
-1.48131,17.5303,1.53917,94,10
-1.01864,12.08,-1.92008,40,3
-1.44216,17.1383,2.11175,67,11
-1.20462,14.3454,-1.76759,20,4
-3.04436,36.3302,5.77431,21,12
-1.27165,15.2073,2.96632,10,13
-1.07722,12.9094,-0.678902,42,6
-1.33104,15.9848,3.70314,64,14
-1.10433,13.2902,-0.23278,100,7
-1.28812,15.5348,4.17682,1,15
-0.0404927,0.49677,-0.133551,15,0
-1.05242,12.9112,0.226113,65,8
-0.0510281,0.627371,-0.145318,25,1
-1.38707,17.0903,0.898608,48,9
-1.42956,17.6905,1.55277,91,10
-0.962766,11.9399,-1.89724,41,3
-1.38951,17.2322,2.12272,13,11
-1.08878,13.5323,-1.66693,12,4
-1.35332,16.857,2.67847,12,12
-1.01169,12.6291,-1.10845,16,5
-1.20996,15.1375,2.95182,33,13
-1.00576,12.6106,-0.662992,58,6
-1.29487,16.2712,3.76838,27,14
-1.06127,13.3358,-0.233513,23,7
-1.22746,15.4583,4.15508,23,15
-0.0414626,0.531577,-0.142868,14,0
-1.00276,12.8851,0.22559,56,8
-0.0488793,0.629497,-0.145768,25,1
-1.32133,17.0554,0.896515,37,9
-0.793857,10.2469,-1.99777,40,2
-1.27614,16.5095,1.4487,21,10
-0.946749,12.2761,-1.95011,45,3
-2.80816,36.4952,4.4943,29,11
-1.04252,13.5798,-1.67229,5,4
-1.31069,17.112,2.71821,20,12
-1.1234,14.6669,-1.28694,28,5
-1.15666,15.1358,2.95067,17,13
-0.969788,12.7196,-0.66854,100,6
-1.23835,16.2795,3.76928,15,14
-1.01101,13.3217,-0.233199,36,7
-1.15256,15.2219,4.09038,9,15
-0.0358758,0.481629,-0.12941,15,0
-0.96089,12.9304,0.226323,63,8
-0.0469699,0.633551,-0.146668,24,1
-1.25855,17.0161,0.894212,41,9
-0.756637,10.2301,-1.99395,47,2
-1.21981,16.5317,1.45027,46,10
-0.885471,12.0291,-1.91038,62,3
-1.57772,21.4844,2.64505,6,11
-1.00744,13.7516,-1.69301,1,4
-1.27609,17.4606,-1.53167,28,5
-1.12296,15.4021,3.00181,7,13
-1.33685,18.3802,-0.965808,39,6
-1.13173,15.5976,3.61046,26,14
-1.46185,20.1961,-0.353446,50,7
-1.09691,15.1912,4.08106,3,15
-0.0363827,0.512583,-0.137692,14,0
-0.916605,12.9456,0.226532,37,8
-0.0443461,0.627879,-0.145318,25,1
-1.19788,17.0025,0.89327,9,9
-0.7223,10.2522,-1.99777,54,2
-1.16058,16.514,1.44835,81,10
-0.855773,12.2075,-1.93822,45,3
-1.50756,21.5591,2.65358,12,11
-1.01179,14.5056,-1.78539,58,4
-1.05285,15.1323,2.40252,42,12
-1.04408,15.0063,-1.31605,13,5
-1.05083,15.1415,2.95029,6,13
-1.17089,16.9143,-0.88856,43,6
-1.04332,15.1096,3.49664,22,14
-1.03135,14.9742,-0.261996,67,7
-1.05049,15.2913,4.10694,6,15
-0.0358939,0.531982,-0.142868,14,0
-0.873824,12.9846,0.227161,58,8
-0.042937,0.639696,-0.148018,24,1
-1.18735,17.7359,0.93158,12,9
-0.70251,10.4937,-2.04433,33,2
-0.802783,12.0547,-1.91351,36,3
-1.08222,16.2935,2.00499,93,11
-0.953143,14.3882,-1.77052,33,4
-1.0008,15.1477,2.4044,56,12
-1.13945,17.2464,-1.51215,31,5
-1.11133,16.9103,-0.888141,30,6
-0.99248,15.1424,3.50339,24,14
-0.98103,15.0077,-0.262519,67,7
-0.972614,14.9189,4.006,13,15
-0.0321511,0.501251,-0.134586,15,0
-0.823992,12.8817,0.225311,41,8
-0.0404434,0.634001,-0.146668,24,1
-1.12574,17.6959,0.929277,31,9
-0.663846,10.4352,-2.0325,47,2
-1.03968,16.3883,1.43668,71,10
-0.759564,12.006,-1.90537,41,3
-0.900934,14.3199,-1.76174,54,4
-0.952296,15.1786,2.40878,42,12
-1.0976,17.4946,-1.53359,9,5
-0.945175,15.1072,2.94227,22,13
-0.81907,13.1284,-0.689369,45,6
-0.941659,15.1358,3.50114,31,14
-1.10746,17.851,-0.312189,91,7
-0.932078,15.0667,4.04482,12,15
-0.0304011,0.501361,-0.134586,15,0
-0.780828,12.9144,0.225834,70,8
-0.0383475,0.636083,-0.147118,24,1
-0.792278,13.1801,0.691986,13,9
-0.626353,10.4198,-2.02906,30,2
-0.983776,16.4137,1.43859,59,10
-0.707283,11.8351,-1.87784,62,3
-2.74052,45.9924,5.65718,21,11
-0.85918,14.4617,-1.77881,31,4
-1.04325,17.6117,-1.54353,35,5
-0.903543,15.2985,2.97891,40,13
-0.778166,13.2149,-0.693766,13,6
-0.902414,15.3705,3.55468,27,14
-1.04268,17.8128,-0.311456,83,7
-0.871372,14.931,4.00755,22,15
-0.0330588,0.578612,-0.155291,12,0
-0.739732,12.987,0.227056,40,8
-0.0360163,0.634268,-0.146668,24,1
-0.746412,13.1448,0.689997,10,9
-0.567455,10.024,-1.95159,45,2
-0.668071,11.875,-1.88378,55,3
-0.975622,17.3958,2.13929,13,11
-0.816557,14.5596,-1.7905,50,4
-1.63044,29.1624,4.62608,13,12
-0.978879,17.5636,-1.539,35,5
-0.840113,15.1212,2.9438,7,13
-1.04637,18.8931,-0.991662,18,6
-0.851441,15.3734,3.55468,20,14
-0.718162,13.0082,-0.227405,100,7
-0.0286485,0.532421,-0.142868,14,0
-0.703084,13.1092,0.22915,38,8
-0.034433,0.644113,-0.148918,24,1
-0.713803,13.3526,0.700778,7,9
-0.540267,10.1396,-1.97373,52,2
-3.4425,64.8207,5.67907,39,10
-0.646964,12.2223,-1.93854,32,3
-1.54157,29.2196,3.59271,69,11
-1.53465,29.1854,4.6289,37,12
-0.917089,17.4991,-1.53307,22,5
-2.12802,40.7409,7.93002,8,13
-0.93522,17.965,-0.94278,31,6
-0.80491,15.4618,3.57447,11,14
-0.675024,13.0105,-0.227405,40,7
-0.880563,17.0297,4.56919,16,15
-0.662123,13.1613,0.230023,52,8
-0.0323943,0.64617,-0.149367,24,1
-0.503605,10.0805,-1.9619,28,2
-0.646498,12.9863,1.13756,2,10
-0.594779,11.9896,-1.9013,72,3
-0.928646,18.7858,2.30942,29,11
-0.637356,12.939,-1.59064,1,4
-1.43605,29.2576,4.63953,3,12
-0.744952,15.2315,-1.33418,13,5
-0.751213,15.4704,3.57582,18,14
-0.807231,16.6839,-0.29156,85,7
-0.0240276,0.51331,-0.137692,14,0
-0.617109,13.1836,0.230372,71,8
-0.0299571,0.642386,-0.148468,24,1
-0.621679,13.3812,0.702035,16,9
-0.467015,10.0901,-1.96342,33,2
-0.597517,12.9587,1.13494,47,10
-0.534246,11.6306,-1.84405,36,3
-0.864154,18.8127,2.31235,43,11
-0.590913,12.9134,-1.58723,22,4
-0.728444,15.98,2.53361,5,12
-0.680388,14.9833,-1.31222,13,5
-0.673007,14.878,2.89495,24,13
-0.691626,15.4088,3.56098,40,14
-0.749432,16.6966,-0.291734,27,7
-0.741555,16.5858,4.44858,28,15
-0.023406,0.540412,-0.144939,14,0
-0.569994,13.2137,0.23086,58,8
-0.0269331,0.626916,-0.144868,25,1
-0.561075,13.06,0.685078,70,9
-0.430534,10.0623,-1.9577,30,2
-0.550331,12.9149,1.13093,11,10
-0.495819,11.6837,-1.85218,52,3
-0.796457,18.8455,2.31601,5,11
-0.647916,15.3947,-1.8919,44,4
-0.672572,15.9805,2.5333,6,12
-0.575433,13.7295,-1.20223,27,5
-0.618371,14.8156,2.88236,41,13
-0.69603,16.7465,-0.878407,32,6
-0.73421,17.7398,4.09906,34,14
-0.543122,13.1228,-0.229255,26,7
-0.652793,15.8393,4.24774,10,15
-0.0213656,0.53663,-0.143903,14,0
-0.527283,13.2435,0.231349,52,8
-0.0253948,0.640632,-0.148018,24,1
-0.516038,13.0759,0.68581,64,9
-0.394249,10.0343,-1.95198,30,2
-0.958867,24.5135,2.1463,11,10
-0.733954,18.8481,2.31601,10,11
-0.605401,15.6169,-1.91895,23,4
-0.645904,16.8133,-1.47206,33,5
-0.573981,14.9411,2.9064,25,13
-0.570814,14.9266,-0.782841,26,6
-0.6739,17.7032,4.09006,20,14
-0.689714,18.2022,-0.317948,30,7
-0.653124,17.3164,4.64321,6,15
-0.480836,13.2393,0.231244,41,8
-0.0232286,0.642665,-0.148468,24,1
-0.473109,13.0895,0.686438,16,9
-0.360475,10.0218,-1.9493,28,2
-0.872362,24.3712,2.13357,32,10
-0.669699,18.8942,2.32137,40,11
-0.488053,13.8374,-1.70008,56,4
-0.54457,15.4398,2.44695,31,12
-0.591197,16.8452,-1.47468,15,5
-0.522162,14.9528,2.90831,41,13
-0.44228,12.7288,-0.667493,87,6
-0.728182,21.063,4.86569,17,14
-0.451926,13.0722,-0.228312,46,7
-0.524236,15.241,4.08624,20,15
-0.0165658,0.502008,-0.134586,15,0
-0.597197,18.0974,0.316063,30,8
-0.0211611,0.644686,-0.148918,24,1
-0.426174,13.0531,0.68445,25,9
-0.322438,9.92883,-1.93099,47,2
-0.712153,22.0482,1.92998,40,10
-0.384156,11.8935,-1.88472,28,3
-0.608319,18.936,2.32624,10,11
-0.452246,14.1544,-1.73883,20,4
-0.489664,15.41,2.44194,27,12
-0.433084,13.7048,-1.19961,2,5
-0.401074,12.7622,-0.669168,97,6
-0.465302,14.8889,3.43905,24,14
-0.632075,20.3391,-0.355191,73,7
-0.456244,14.7639,3.95786,27,15
-0.0158178,0.532956,-0.142868,14,0
-0.384339,13.0263,0.227475,7,8
-0.0185676,0.633068,-0.146218,25,1
-0.375662,12.8848,0.675553,60,9
-0.29031,9.95732,-1.93633,30,2
-0.376774,13.0009,1.13791,28,10
-0.35384,12.2837,-1.94636,55,3
-0.514325,17.9637,2.20657,38,11
-0.358787,12.6082,-1.54872,1,4
-0.438267,15.4966,2.4554,58,12
-0.38673,13.6743,-1.19682,22,5
-0.499641,17.7761,3.4567,15,13
-0.357133,12.7855,-0.670319,87,6
-0.412998,14.8787,3.43635,40,14
-0.500097,18.1303,-0.316587,7,7
-0.405601,14.7982,3.96666,23,15
-0.0139572,0.533008,-0.142868,14,0
-0.340897,13.1056,0.228836,18,8
-0.0162071,0.627285,-0.144868,25,1
-0.328221,12.7902,0.670528,53,9
-0.25585,9.97005,-1.93862,28,2
-0.619219,24.2953,2.12625,43,10
-0.297771,11.7636,-1.86376,12,3
-0.450415,17.9177,2.20072,9,11
-0.350935,14.058,-1.72664,58,4
-0.384819,15.5237,2.45946,29,12
-0.440322,17.7627,-1.55451,13,5
-0.457051,18.5687,3.61049,16,13
-0.31323,12.8166,-0.671889,45,6
-0.307014,12.7444,-0.222518,46,7
-0.356664,14.9135,3.9972,20,15
-0.012097,0.533054,-0.142868,14,0
-0.294784,13.0907,0.228557,50,8
-0.0141043,0.631234,-0.145768,25,1
-0.326274,14.6023,0.765466,45,9
-0.219443,9.89826,-1.9245,30,2
-0.384534,17.483,1.52993,13,10
-0.416491,19.241,2.36305,10,11
-0.341097,15.7579,-1.93529,21,4
-0.385575,17.958,2.84492,8,12
-0.301402,14.1527,-1.23848,27,5
-0.390651,18.4956,3.59599,33,13
-0.306179,14.6167,-0.766198,22,6
-0.313066,14.9455,3.4512,22,14
-0.261389,12.5834,-0.219691,100,7
-0.309749,15.0382,4.03033,22,15
-0.00973029,0.502187,-0.134586,15,0
-0.282086,14.6911,0.256481,16,8
-0.0122332,0.642968,-0.148468,24,1
-0.277161,14.5674,0.763582,18,9
-0.185505,9.84004,-1.91305,33,2
-0.327788,17.5499,1.53568,58,10
-0.232925,12.5889,-1.99423,35,3
-0.339764,18.5376,2.27652,19,11
-0.232342,12.6767,-1.55676,13,4
-0.488232,26.8943,4.26034,5,12
-0.24551,13.6556,-1.19491,62,5
-0.329992,18.5341,3.60324,39,13
-0.25778,14.6217,-0.766408,16,6
-0.26227,14.8763,3.435,40,14
-0.219377,12.5682,-0.219412,23,7
-0.261191,15.1145,4.05052,11,15
-0.00775483,0.482901,-0.12941,15,0
-0.23276,14.6539,0.255817,16,8
-0.00985625,0.627417,-0.144868,25,1
-0.196537,12.6511,0.663097,68,9
-0.152601,9.82294,-1.90962,28,2
-0.268298,17.4672,1.52836,55,10
-0.188211,12.3941,-1.96325,41,3
-0.288274,19.2036,2.35817,30,11
-0.246601,16.6213,-2.04107,4,4
-0.258638,17.6402,2.79423,1,12
-0.257653,17.573,-1.5376,16,5
-0.268751,18.5508,3.60629,15,13
-0.209573,14.6424,-0.767455,32,6
-0.21097,14.922,3.44535,27,14
-0.268454,19.2252,-0.33561,100,7
-0.211383,15.3297,4.10798,7,15
-0.00655454,0.521559,-0.139762,14,0
-0.281362,22.7048,0.396344,27,8
-0.0078805,0.644985,-0.148918,24,1
-0.152348,12.6497,0.662992,39,9
-0.118143,9.80967,-1.90695,28,2
-0.206824,17.4262,1.5247,78,10
-0.138181,11.8159,-1.87158,42,3
-0.221166,19.1985,2.35744,35,11
-0.147524,13.0035,-1.59673,21,4
-0.2998,26.8378,4.25095,23,12
-0.194044,17.3706,-1.51982,34,5
-0.331515,30.1479,5.86051,18,13
-0.158154,14.6151,-0.765989,35,6
-0.160233,15.0493,3.47459,18,14
-0.201871,19.276,-0.336482,66,7
-0.157031,15.2492,4.08624,41,15
-0.00501457,0.552487,-0.148044,13,0
-0.18393,20.662,0.360671,24,8
-0.00552683,0.633316,-0.146218,25,1
-0.0835836,9.77272,-1.89969,26,2
-0.145847,17.4089,1.52313,58,10
-0.154144,19.1992,2.35744,35,11
-0.101215,12.8868,-1.58235,13,4
-0.233264,30.3745,4.81099,3,12
-0.134689,17.5385,-1.53446,42,5
-0.12957,17.2644,3.35595,5,13
-0.106862,14.5776,-0.764,35,6
-0.10725,14.9874,3.4602,67,14
-0.0883559,12.6558,-0.220913,75,7
-0.104343,15.3289,4.10746,13,15
-0.00302111,0.54091,-0.144939,14,0
-0.122911,22.7162,0.396519,27,8
-0.00341828,0.652819,-0.150717,23,1
-0.092015,18.1788,0.952724,13,9
-0.0492189,9.72387,-1.89015,26,2
-0.0832217,17.0287,1.48984,32,10
-0.0871474,19.2036,2.35793,20,11
-0.0549689,12.5973,-1.54677,48,4
-0.0701375,16.7431,2.65188,33,12
-0.0732454,17.4851,-1.52976,34,5
-0.0558023,14.5319,-0.761593,39,6
-0.0546509,14.9117,3.44265,27,14
-0.0439159,12.58,-0.219586,100,7
-0.0505301,15.2364,4.08261,16,15
-0.00101145,0.482962,-0.12941,15,0
-0.043632,22.7225,0.396623,30,8
-0.00111892,0.641135,-0.148018,24,1
-0.0152148,9.68668,-1.8829,26,2
-0.0135936,11.1273,-1.76239,12,3
-0.0143573,16.4445,-2.01913,27,4
-0.0122227,17.5091,-1.53185,25,5
-0.00868655,16.5915,3.22505,46,13
-0.00511121,14.6239,-0.766408,19,6
-0.00260872,14.9488,3.4512,18,14
1.50231e-07,12.5981,-0.2199,93,7
0.0029254,16.8071,4.50345,11,15
0.000695886,0.498417,-0.133551,15,0
0.0212611,13.5359,0.236271,48,8
0.00112233,0.643083,-0.148468,24,1
0.0326257,16.9946,0.890653,78,9
0.0185057,9.63956,-1.87374,26,2
0.0353588,16.8835,1.47712,100,10
0.0411202,16.8296,2.06642,56,11
0.0433973,16.5774,-2.03546,18,4
0.0490643,17.5708,-1.53725,35,5
0.0452621,14.4082,-0.755103,39,6
0.0492913,14.8649,3.43185,65,14
0.0458087,13.1239,-0.22908,100,7
0.0617322,16.8437,4.51329,9,15
0.00254911,0.521594,-0.139762,14,0
0.0862571,17.0412,0.297459,78,8
0.00328535,0.627486,-0.144868,25,1
0.0892084,17.0384,0.892956,13,9
0.052114,9.63159,-1.87222,26,2
0.0996499,17.8416,1.56096,22,10
0.070774,12.2886,-1.94636,38,3
0.0835873,13.683,-1.68009,7,4
0.108404,17.2538,-1.50954,34,5
0.107702,16.6775,3.24185,18,13
0.100964,14.8335,3.42465,27,14
0.0873936,12.8397,-0.224124,100,7
0.114908,16.459,4.41028,16,15
0.00446654,0.533172,-0.142868,14,0
0.11458,13.6774,0.238749,38,8
0.00546631,0.639163,-0.147568,24,1
0.113394,12.9937,0.680996,21,9
0.0855877,9.61564,-1.86917,26,2
0.153064,16.8649,1.47555,15,10
0.110524,12.1777,-1.92884,72,3
0.206263,22.2976,2.73792,27,11
0.116686,12.3805,-1.5202,6,4
0.160568,16.7267,2.64937,11,12
0.16844,17.2333,-1.50779,37,5
0.16329,16.7065,3.24757,10,13
0.171298,17.2175,-0.902377,97,6
0.166352,16.4329,3.79402,27,14
0.131968,12.8154,-0.223705,32,7
0.171717,16.3967,4.39371,12,15
0.00587329,0.502247,-0.134586,15,0
0.162895,13.7249,0.239587,28,8
0.00772102,0.641089,-0.148018,24,1
0.173418,14.3992,0.754685,5,9
0.116781,9.55837,-1.8581,26,2
0.285124,23.0083,2.01312,24,10
0.154573,12.2997,-1.94824,43,3
0.229032,17.9755,2.2073,9,11
0.172409,13.3486,-1.63914,24,4
0.310042,24.0048,3.8023,11,12
0.226374,17.2925,-1.51302,31,5
0.213348,16.0835,3.1266,5,13
0.199017,14.8083,-0.776142,39,6
0.204351,15.0098,3.4656,24,14
0.17338,12.7349,-0.222309,33,7
0.218069,15.8146,4.2379,26,15
0.208048,13.7003,0.239168,6,8
0.00972706,0.633266,-0.146218,25,1
0.224011,14.4205,0.755836,8,9
0.1495,9.51668,-1.85008,35,2
0.374145,23.555,2.06106,20,10
0.193569,12.1865,-1.9304,62,3
0.288126,17.9429,2.2034,28,11
0.215808,13.2944,-1.63256,54,4
0.446986,27.2427,4.3154,18,12
0.292008,17.6103,-1.54091,35,5
0.265604,16.018,3.114,13,13
0.247792,14.7876,-0.775096,78,6
0.253428,14.9681,3.45615,24,14
0.217549,12.7182,-0.22203,100,7
0.273034,15.8002,4.23428,16,15
0.00937973,0.502194,-0.134586,15,0
0.37344,19.8095,0.345837,23,8
0.0121962,0.64102,-0.148018,24,1
0.272602,14.3277,0.751021,11,9
0.182043,9.48077,-1.84322,26,2
0.44837,23.1412,2.02498,19,10
0.237806,12.164,-1.92696,47,3
0.355233,18.0092,2.21168,4,11
0.251339,12.6306,-1.55115,30,4
0.524269,26.3463,4.17367,16,12
0.326691,16.2745,-1.42412,2,5
0.483026,23.8545,4.6378,33,13
0.30321,14.8465,-0.778236,45,6
0.308485,14.9768,3.4584,24,14
0.262976,12.7673,-0.222902,100,7
0.324899,15.6408,4.19183,13,15
0.0111323,0.502158,-0.134586,15,0
0.300004,13.5326,0.236271,48,8
0.0143655,0.642924,-0.148468,24,1
0.320504,14.2329,0.746101,15,9
0.214105,9.43493,-1.83444,23,2
0.472397,20.6577,1.80778,19,10
0.275978,12.0684,-1.91194,56,3
0.479152,20.7943,2.55389,11,11
0.293404,12.6377,-1.55213,17,4
0.401011,17.0163,-1.48914,33,5
0.512215,21.735,4.22604,18,13
0.442739,18.6491,-0.977636,32,6
0.306051,12.7044,-0.22182,75,7
0.380186,15.6685,4.1996,11,15
0.0140774,0.55233,-0.148044,13,0
0.347397,13.5375,0.236375,13,8
0.0162572,0.629233,-0.145318,25,1
0.516686,19.864,1.04138,13,9
0.244934,9.41651,-1.831,26,2
0.517685,19.7697,1.73022,7,10
0.319662,12.1266,-1.92133,37,3
0.636296,23.9794,2.94534,8,11
0.339321,12.704,-1.56042,19,4
0.643008,23.9171,3.78947,42,12
0.459315,17.0845,-1.49524,18,5
0.507996,18.7736,3.65056,16,13
0.502511,18.4518,-0.967378,14,6
0.455973,16.636,3.84216,2,14
0.565315,20.4951,-0.357879,81,7
0.432951,15.5976,4.18096,22,15
0.0154458,0.532967,-0.142868,14,0
0.531712,18.2375,0.318472,5,8
0.0186248,0.635016,-0.146668,24,1
0.583965,19.7922,1.03772,34,9
0.275084,9.32337,-1.81307,26,2
0.586095,19.7478,1.72847,3,10
0.558174,18.588,2.28334,9,11
0.380905,12.6115,-1.5492,1,4
0.538438,17.7248,2.80862,8,12
0.492137,16.2006,-1.41802,16,5
0.490552,16.0559,3.1224,11,13
0.563566,18.2374,4.21243,15,14
0.636424,20.479,-0.357635,81,7
0.491441,15.7253,4.21564,15,15
0.0156757,0.482708,-0.12941,15,0
0.597854,18.3115,0.319798,16,8
0.0214168,0.652477,-0.150717,23,1
0.666496,20.3052,1.06472,26,9
0.307948,9.33216,-1.81498,26,2
0.645253,19.451,1.70267,28,10
0.893341,26.6488,3.2739,9,11
0.455615,13.5207,-1.66108,33,4
0.98301,29.1716,4.62295,13,12
0.548689,16.1988,-1.41802,30,5
0.546391,16.0482,3.12125,7,13
0.501324,14.6493,-0.768187,35,6
0.573568,16.6753,3.85206,21,14
0.651396,18.9379,-0.330758,7,7
0.546653,15.8124,4.23946,15,15
0.0180549,0.501957,-0.134586,15,0
0.660942,18.3753,0.32095,8,8
0.0233694,0.64656,-0.149367,24,1
0.750994,20.678,1.0844,20,9
0.338229,9.26824,-1.80276,26,2
0.718554,19.5959,1.71557,49,10
0.408906,11.1514,-1.7674,48,3
1.23531,33.5293,4.11967,13,11
0.75952,20.4212,3.23663,8,12
0.627025,16.7801,-1.4691,12,5
0.599089,16.0325,3.11858,26,13
0.550571,14.6655,-0.769129,48,6
0.631805,16.7512,3.87006,23,14
0.724005,19.1074,-0.33376,51,7
0.598763,15.7293,4.21772,38,15
0.0204779,0.521198,-0.139762,14,0
0.74755,18.9424,0.330898,38,8
0.0251629,0.634791,-0.146668,24,1
0.819201,20.5754,1.07917,30,9
0.367792,9.23765,-1.79704,26,2
0.446479,11.1164,-1.76208,53,3
0.530842,13.1028,-1.61014,32,4
0.770884,18.946,3.00323,13,12
0.648017,15.8581,-1.38857,28,5
0.651607,15.946,3.10217,31,13
0.75589,18.4192,-0.966122,21,6
0.691393,16.7761,3.87636,36,14
0.789793,19.0828,-0.333376,81,7
0.651095,15.6654,4.20115,25,15
0.0227196,0.52884,-0.141833,14,0
0.806205,18.7658,0.327861,16,8
0.0277144,0.642487,-0.148468,24,1
0.882458,20.3749,1.0688,36,9
0.39994,9.19701,-1.78941,26,2
0.930506,21.3122,1.86635,33,10
0.484362,11.0495,-1.75175,63,3
0.892118,20.3515,2.50125,5,11
0.568456,12.9164,-1.58747,48,4
0.839111,18.9905,3.01074,16,12
0.580463,13.0851,-1.14592,11,5
0.703755,15.8023,3.0747,31,13
0.826254,18.4802,-0.969471,54,6
0.749647,16.7014,3.85971,26,14
0.826367,18.4107,-0.321683,7,7
0.714118,15.8483,4.25084,27,15
0.024207,0.521038,-0.139762,14,0
0.856811,18.3732,0.321054,2,8
0.0296136,0.632648,-0.146218,25,1
0.847492,18.1053,0.949898,12,9
0.42974,9.14653,-1.77987,26,2
0.525547,11.103,-1.76051,47,3
0.97547,20.5325,2.52391,11,11
0.616169,12.9222,-1.58845,55,4
0.634514,13.2581,-1.16126,12,5
0.762023,15.8644,3.08729,19,13
0.899785,18.6647,-0.979311,39,6
0.802947,16.5955,3.83587,36,14
0.889077,18.3757,-0.321124,7,7
0.770282,15.8631,4.2555,27,15
0.0250616,0.501656,-0.134586,15,0
0.907562,18.1666,0.317494,1,8
0.032004,0.638385,-0.147568,24,1
0.905472,17.9985,0.944455,4,9
0.461069,9.13321,-1.77758,26,2
1.44669,28.5582,2.50172,28,10
0.569757,11.2472,-1.78367,52,3
1.19503,23.5089,2.89025,7,11
0.576302,11.2984,-1.38907,9,4
0.971559,18.9822,3.01043,33,12
0.670676,13.0588,-1.14401,26,5
0.812819,15.8265,3.08042,18,13
0.968463,18.7932,-0.986219,25,6
0.839355,16.2328,3.75263,55,14
1.00627,19.395,-0.338996,21,7
0.812892,15.6153,4.18976,15,15
0.028164,0.528578,-0.141833,14,0
1.08615,20.3179,0.355156,38,8
0.0350673,0.653837,-0.151167,23,1
1.06347,19.7642,1.0373,24,9
0.491457,9.13359,-1.77796,26,2
1.11233,20.6052,1.80534,50,10
0.598547,11.0518,-1.753,52,3
1.15849,21.3222,2.6219,12,11
0.709197,13.0108,-1.5999,50,4
1.02833,18.8051,2.98289,37,12
0.728335,13.3191,-1.16702,30,5
0.86536,15.7746,3.07088,20,13
0.979188,17.7926,-0.933883,21,6
0.915998,16.5916,3.83632,18,14
1.01744,18.371,-0.321159,37,7
0.908443,16.3511,4.38802,11,15
0.0286947,0.505331,-0.135621,15,0
1.11714,19.6132,0.342905,14,8
0.035793,0.626473,-0.144868,25,1
1.13508,19.8063,1.03971,21,9
0.522103,9.11026,-1.77376,21,2
1.13577,19.7578,1.73144,17,10
0.631889,10.959,-1.73861,33,3
1.35968,23.5099,2.89147,15,11
0.77979,13.4423,-1.65328,40,4
1.12907,19.4049,3.07863,16,12
0.761974,13.0957,-1.14767,33,5
0.925798,15.8636,3.08882,26,13
1.04024,17.7711,-0.932941,84,6
0.973791,16.5864,3.83587,18,14
1.14387,19.4254,-0.339659,58,7
0.957203,16.207,4.35023,33,15
0.0318534,0.528368,-0.141833,14,0
0.952321,15.7508,0.275434,7,8
0.0388054,0.63996,-0.148018,24,1
1.26677,20.8309,1.09372,35,9
0.551872,9.07507,-1.76727,19,2
1.69605,27.8099,2.43757,13,10
0.668212,10.9251,-1.73361,33,3
1.71579,27.973,3.4411,10,11
0.770268,12.5221,-1.54043,9,4
1.19048,19.2983,3.06236,34,12
0.806704,13.0771,-1.14627,33,5
0.983111,15.8916,3.09492,20,13
1.00196,16.1507,-0.848052,16,6
1.2622,20.2881,4.69293,42,14
1.21591,19.4891,-0.340845,79,7
1.00809,16.113,4.3259,8,15
0.0368953,0.57838,-0.155291,12,0
1.45115,22.6862,0.396798,2,8
0.0416623,0.649544,-0.150267,24,1
1.33422,20.7446,1.08943,30,9
0.581533,9.04174,-1.76117,21,2
1.47422,22.859,2.00406,9,10
0.703405,10.8774,-1.72641,41,3
0.999327,15.4117,1.89629,24,11
0.850426,13.0799,-1.60941,45,4
1.25667,19.2763,3.05955,30,12
0.857781,13.1577,-1.15359,28,5
1.04216,15.9429,3.10561,8,13
0.945999,14.4332,-0.758034,35,6
1.32968,20.233,4.68123,38,14
1.21569,18.4492,-0.32273,82,7
1.04446,15.8087,4.24515,31,15
0.0339851,0.505003,-0.135621,15,0
1.06845,15.8356,0.277039,16,8
0.0439296,0.649395,-0.150267,24,1
1.04849,15.4592,0.812045,10,9
0.611367,9.01419,-1.75621,21,2
1.89191,27.8232,2.43984,55,10
0.739357,10.8453,-1.72172,38,3
0.899197,13.1225,-1.61501,21,4
1.06428,15.4919,2.45946,12,12
0.905757,13.1844,-1.15621,28,5
1.11197,16.1449,3.14568,5,13
0.997885,14.4517,-0.759185,35,6
1.40609,20.3118,4.70058,3,14
1.27967,18.4388,-0.322625,82,7
1.09883,15.7933,4.24204,15,15
0.0373846,0.528006,-0.141833,14,0
1.49396,21.0478,0.368316,26,8
0.0453664,0.637575,-0.147568,24,1
1.45897,20.4539,1.07467,13,9
0.641565,8.99438,-1.75277,23,2
1.11068,15.5329,1.36242,3,10
0.774953,10.8112,-1.71671,50,3
1.12112,15.6023,1.92066,33,11
0.967107,13.4261,-1.65279,73,4
1.26588,17.5313,2.78391,24,12
0.955221,13.2289,-1.16039,28,5
0.950477,13.0995,-0.688323,22,6
2.57779,35.4417,8.20397,12,14
1.34329,18.4243,-0.322451,82,7
1.14945,15.7278,4.22548,16,15
0.0375096,0.504753,-0.135621,15,0
1.68744,22.6538,0.396519,27,8
0.0477366,0.639356,-0.148018,24,1
0.670908,8.96467,-1.74743,23,2
1.17519,15.666,1.37445,15,10
0.811647,10.7946,-1.71452,31,3
2.10723,27.9601,3.44281,43,11
0.981785,13.0269,-1.60404,39,4
1.3319,17.6314,2.80049,46,12
0.999284,13.1977,-1.15795,30,5
1.22658,16.1622,3.15064,25,13
0.998018,13.12,-0.689579,3,6
1.22271,16.037,-0.280739,100,7
1.2172,15.928,4.28035,18,15
0.0403798,0.520035,-0.139762,14,0
1.23875,15.9174,0.27868,48,8
0.049099,0.62948,-0.145768,25,1
1.23723,15.862,0.833817,31,9
0.698646,8.93695,-1.74247,23,2
2.19294,27.989,2.45622,55,10
0.848215,10.8017,-1.71609,32,3
2.18328,27.7412,3.41673,31,11
1.02701,13.0493,-1.60721,32,4
1.04697,13.2439,-1.16231,35,5
1.28142,16.1737,3.15369,26,13
1.14744,14.4506,-0.759709,13,6
1.86831,23.5291,5.44921,24,14
1.45864,18.3293,-0.32095,100,7
1.26249,15.8296,4.25499,10,15
0.0467821,0.577664,-0.155291,12,0
1.83377,22.5943,0.395681,30,8
0.0532398,0.654564,-0.151617,23,1
1.94407,23.8501,1.25407,20,9
0.724129,8.88371,-1.73255,23,2
1.3866,16.9744,1.49001,39,10
0.883706,10.7949,-1.71546,27,3
1.27089,15.4912,1.90847,24,11
0.962105,11.7023,-1.44171,8,4
1.53006,18.5708,2.95129,10,12
1.11689,13.5561,-1.19002,22,5
1.33504,16.1693,3.15369,7,13
1.16933,14.1322,-0.743171,13,6
2.72773,32.8968,7.62089,11,14
1.52178,18.3141,-0.320775,100,7
1.31357,15.775,4.24153,26,15
0.0439183,0.519748,-0.139762,14,0
1.55241,18.3336,0.321159,22,8
0.0543712,0.640782,-0.148468,24,1
1.9229,22.6152,1.18949,14,9
0.751973,8.84396,-1.7253,23,2
1.4472,16.9853,1.49141,26,10
0.919368,10.7681,-1.71171,26,3
1.91703,22.4073,2.76132,28,11
1.12351,13.1052,-1.61501,81,4
1.58592,18.461,2.93471,16,12
1.12652,13.1134,-1.1515,11,5
1.52179,17.6785,3.44906,20,13
1.6203,18.7844,-0.988103,14,6
1.60763,18.5996,4.31006,43,14
1.58104,18.2549,-0.319833,82,7
1.36162,15.6895,4.21979,25,15
0.0457325,0.519591,-0.139762,14,0
1.60796,18.2324,0.319484,15,8
0.056779,0.642529,-0.148918,24,1
0.781456,8.82564,-1.72224,23,2
1.50789,16.9961,1.4928,26,10
0.951175,10.6999,-1.70138,33,3
2.39556,26.8947,3.31533,10,11
1.18213,13.2455,-1.63281,19,4
1.64999,18.4515,2.93409,27,12
1.17227,13.0834,-1.14924,30,5
1.58437,17.6829,3.45097,20,13
1.74943,19.4868,-1.02537,45,6
1.6481,18.3221,4.24708,33,14
1.82138,20.209,-0.354179,79,7
0.0483422,0.527115,-0.141833,14,0
2.0867,22.753,0.398822,28,8
0.0584868,0.636505,-0.147568,24,1
1.6576,18.005,0.947595,24,9
0.811453,8.7973,-1.71728,26,2
1.57018,16.9904,1.4928,55,10
0.984379,10.6314,-1.69106,28,3
1.925,20.7903,2.56364,23,11
1.23954,13.3619,-1.64767,47,4
1.72317,18.54,2.9491,13,12
1.21978,13.0991,-1.15098,26,5
1.63841,17.5616,3.42846,11,13
1.80337,19.2933,-1.01553,41,6
1.7018,18.1724,4.21378,42,14
1.91951,20.4972,-0.359345,100,7
1.65752,17.6665,4.75451,6,15
0.050182,0.526943,-0.141833,14,0
2.14728,22.5064,0.394634,27,8
0.0604483,0.632407,-0.146668,24,1
1.72434,18.0068,0.948014,47,9
0.842907,8.80223,-1.71881,23,2
1.60263,16.7052,1.46823,25,10
1.01921,10.6043,-1.6873,26,3
1.87313,19.4533,2.39961,30,11
1.31671,13.6497,-1.68375,26,4
1.82037,18.8364,2.99728,9,12
1.27373,13.156,-1.15638,28,5
2.01963,20.8602,4.07377,12,13
1.85259,19.1,-1.00569,22,6
1.76616,18.176,4.21603,12,14
1.76542,18.1355,-0.318053,26,7
1.72171,17.6545,4.75295,12,15
0.0521129,0.526756,-0.141833,14,0
2.11539,21.3823,0.375052,40,8
0.0626556,0.632192,-0.146668,24,1
1.79074,18.0364,0.949898,19,9
0.869915,8.74634,-1.7085,21,2
1.69705,17.0323,1.49751,74,10
1.05375,10.5573,-1.68042,26,3
1.66678,16.699,2.06057,8,11
1.85264,18.4957,2.9441,24,12
1.41015,14.0535,-1.23569,30,5
2.09646,20.8566,4.07454,44,13
1.43893,14.29,-0.752696,35,6
1.83746,18.216,4.22683,24,14
1.77749,17.5907,4.73742,16,15
0.0536757,0.526599,-0.141833,14,0
1.64265,16.0879,0.282275,26,8
0.0662275,0.647501,-0.150267,24,1
1.62835,15.8929,0.837271,42,9
0.893778,8.70841,-1.70163,26,2
1.61473,15.7329,1.38368,12,10
1.08023,10.507,-1.67291,27,3
1.7532,17.0234,2.10127,58,11
1.37665,13.3444,-1.64719,84,4
1.91175,18.4997,2.94566,9,12
1.44404,13.9499,-1.22698,47,5
1.47577,14.208,-0.748614,19,6
1.89573,18.2511,4.23628,45,14
1.88669,18.1333,-0.318227,82,7
2.14234,20.5556,5.53769,11,15
0.0535759,0.507187,-0.136656,14,0
1.70478,16.1116,0.282799,30,8
0.0677786,0.639503,-0.148468,24,1
1.70261,16.0377,0.845226,28,9
0.920091,8.65236,-1.69133,19,2
1.85338,17.4288,1.53342,61,10
1.11475,10.4656,-1.66697,22,3
1.82274,17.084,2.10956,36,11
2.15642,20.0786,3.92532,7,13
1.53317,14.2521,-0.75123,35,6
1.94802,18.1084,4.20479,33,14
2.25306,20.9098,-0.367094,83,7
1.85843,17.2191,4.64063,22,15
0.0566943,0.51851,-0.139762,14,0
1.77905,16.2444,0.285242,53,8
0.0716093,0.65281,-0.151617,23,1
1.76359,16.0774,0.847633,8,9
0.946423,8.61397,-1.68446,26,2
1.94187,17.6457,1.55312,19,10
1.14856,10.4202,-1.6604,20,3
2.95772,26.7908,3.30948,20,11
1.29445,11.7062,-1.4461,4,4
2.1166,19.1413,3.05016,15,12
1.43219,12.9312,-1.13825,9,5
1.91759,17.2864,3.38075,15,13
1.57696,14.1931,-0.748404,58,6
2.22298,19.9756,-0.350828,36,7
1.94376,17.439,4.70171,7,15
0.0650045,0.575898,-0.155291,12,0
1.83246,16.2344,0.285172,61,8
0.0698335,0.617713,-0.143519,25,1
0.974939,8.59696,-1.68179,26,2
2.01356,17.7279,1.56096,39,10
1.17954,10.3849,-1.65539,20,3
1.91728,16.8539,2.08275,27,11
1.35101,11.8577,-1.46536,3,4
2.16526,18.9748,3.02482,12,12
1.63387,14.296,-1.25888,12,5
1.97447,17.2761,3.37999,21,13
1.62651,14.2096,-0.749556,68,6
1.9996,17.442,4.05317,40,14
1.8545,16.1514,-0.283776,23,7
2.66762,23.1974,6.25669,13,15
0.0637913,0.548815,-0.148044,13,0
0.0744715,0.638758,-0.148468,24,1
1.86769,15.9952,0.84397,49,9
1.00026,8.56638,-1.67645,28,2
2.03346,17.3886,1.53167,39,10
1.21119,10.3415,-1.64913,21,3
2.01565,17.1843,2.12443,27,11
1.39192,11.8489,-1.46487,16,4
2.23909,19.0319,3.03514,34,12
1.67824,14.2648,-1.25661,47,5
2.09197,17.7546,3.47501,12,13
1.69061,14.3268,-0.756045,35,6
2.02958,17.1736,3.99243,33,14
1.91298,16.1627,-0.28409,63,7
2.07683,17.5209,4.72759,28,15
0.0601927,0.502553,-0.135621,15,0
1.991,16.5985,0.291804,45,8
0.0783279,0.652038,-0.151617,23,1
1.02945,8.55699,-1.6753,28,2
2.11774,17.5773,1.54893,32,10
1.24397,10.3098,-1.64475,21,3
2.06823,17.116,2.11687,49,11
1.47573,12.1948,-1.50826,31,4
2.30076,18.9847,3.02888,7,12
1.6506,13.6199,-1.20031,20,5
2.13193,17.5659,3.43952,15,13
1.68639,13.8747,-0.732494,19,6
2.09306,17.1954,3.99918,38,14
1.95221,16.015,-0.281612,100,7
2.41749,19.8032,5.34565,9,15
0.063838,0.517679,-0.139762,14,0
1.9933,16.1409,0.283881,43,8
0.0777332,0.628552,-0.146218,25,1
1.05762,8.5397,-1.67263,28,2
2.08566,16.8164,1.48252,26,10
1.27435,10.2603,-1.63756,28,3
2.14217,17.223,2.13101,49,11
1.50578,12.0891,-1.49582,25,4
2.23138,17.9145,2.85931,1,12
1.73512,13.9107,-1.22646,47,5
2.18813,17.5175,3.43151,26,13
1.77721,14.2076,-0.750393,19,6
2.19375,17.5129,4.07476,25,14
2.02046,16.1295,-0.283741,100,7
2.46176,19.6245,5.29958,18,15
0.060782,0.479123,-0.12941,15,0
2.08405,16.4278,0.289047,50,8
0.0795717,0.626358,-0.145768,25,1
2.0885,16.417,0.867312,47,9
1.0837,8.50675,-1.66691,28,2
2.63372,20.6452,1.82086,15,10
1.30737,10.2482,-1.6363,28,3
2.21035,17.3024,2.14173,46,11
1.51462,11.8399,-1.4656,25,4
2.46357,19.2312,3.07081,9,12
1.80167,14.0448,-1.23883,12,5
2.53747,19.7806,3.87648,14,13
2.03425,15.836,-0.836747,31,6
2.24635,17.463,4.06487,23,14
2.06858,16.0589,-0.282624,25,7
2.52233,19.5545,5.28301,9,15
0.0653644,0.501907,-0.135621,15,0
2.14785,16.47,0.289919,19,8
0.0832715,0.63767,-0.148468,24,1
2.06043,15.7782,0.833921,21,9
1.10936,8.48364,-1.66309,26,2
2.24042,17.11,1.50971,45,10
1.33209,10.1593,-1.62285,31,3
2.26634,17.2611,2.13759,9,11
1.60329,12.1947,-1.51021,28,4
2.96327,22.5387,3.6005,21,12
1.83394,13.9301,-1.22924,27,5
2.08847,15.8208,-0.836329,37,6
2.29734,17.3797,4.04732,34,14
2.13152,16.1253,-0.283916,100,7
2.59452,19.6015,5.29803,7,15
0.0717271,0.536142,-0.144939,14,0
2.19768,16.4271,0.289291,6,8
0.0856446,0.639322,-0.148918,24,1
2.19648,16.3747,0.865846,9,9
1.13322,8.43691,-1.6547,26,2
2.3105,17.1791,1.51651,65,10
1.35866,10.102,-1.6144,52,3
2.3217,17.2397,2.13588,9,11
1.64744,12.2168,-1.51362,54,4
3.37472,24.9928,3.9944,13,12
1.88975,13.977,-1.23395,17,5
2.35744,17.436,3.42006,28,13
2.13396,15.7624,-0.833607,35,6
2.6293,19.3957,4.51882,20,14
2.18321,16.084,-0.283322,70,7
2.73473,20.1207,5.44089,8,15
0.0687793,0.50145,-0.135621,15,0
2.35922,17.1781,0.30266,36,8
0.0865481,0.629366,-0.146668,24,1
2.25907,16.4065,0.86794,8,9
1.15476,8.38643,-1.64554,26,2
2.37916,17.2562,1.52401,39,10
1.3904,10.0717,-1.61034,27,3
3.48026,25.1777,3.12083,45,11
1.69471,12.2444,-1.51776,34,4
2.8247,20.3827,3.25916,8,12
1.71316,12.3461,-1.09049,2,5
2.81279,20.2707,3.97799,15,13
2.286,16.4532,-0.870556,35,6
2.70504,19.4444,4.53231,13,14
2.23742,16.0624,-0.283078,47,7
2.47592,17.7519,4.80265,10,15
0.0808587,0.573887,-0.155291,12,0
2.44511,17.3539,0.305906,22,8
0.0917391,0.650286,-0.151617,23,1
2.41019,17.063,0.903109,7,9
1.18329,8.36658,-1.64248,26,2
2.41277,17.0383,1.50553,52,10
1.4176,9.99813,-1.59939,28,3
3.64086,25.6784,3.18445,27,11
1.73882,12.2483,-1.51898,49,4
1.95894,13.7642,-1.21635,12,5
2.96655,20.8181,4.08751,8,13
2.38549,16.7195,-0.885106,40,6
2.50539,17.5379,4.09006,11,14
2.2997,16.0981,-0.283846,70,7
2.53238,17.7049,4.79229,16,15
0.0745754,0.516241,-0.139762,14,0
2.34095,16.1851,0.285452,17,8
0.092446,0.638374,-0.148918,24,1
3.00004,20.6909,1.09571,16,9
1.2108,8.35075,-1.64019,26,2
2.50514,17.2565,1.52557,19,10
1.4434,9.93056,-1.58937,26,3
4.81413,33.0805,4.10456,13,11
1.78228,12.232,-1.51776,64,4
1.78953,12.2668,-1.08457,2,5
2.66268,18.2297,3.5811,28,13
2.3583,16.1261,-0.854123,35,6
2.56885,17.5445,4.09366,23,14
2.59449,17.6981,-0.312224,83,7
2.91485,19.8592,5.37826,4,15
0.0792057,0.535088,-0.144939,14,0
2.20747,14.895,0.262833,7,8
0.0943879,0.63612,-0.148468,24,1
2.45533,16.5277,0.875685,11,9
1.23763,8.33093,-1.63714,26,2
4.92496,33.1119,2.92878,36,10
1.47311,9.89225,-1.58406,25,3
2.64598,17.7471,2.20315,19,11
1.81265,12.1433,-1.50752,34,4
3.10257,20.7598,3.32455,5,12
1.83823,12.2999,-1.08805,11,5
3.80008,25.3966,4.99156,16,13
2.47552,16.5247,-0.875685,29,6
2.69454,17.9652,4.19399,24,14
2.60489,17.3468,-0.306185,53,7
2.71645,18.0684,4.89582,4,15
0.0799149,0.527168,-0.142868,14,0
3.29016,21.6784,0.382731,20,8
0.0963147,0.63386,-0.148018,24,1
3.05199,20.0856,1.06472,11,9
1.26198,8.29551,-1.63104,23,2
4.07184,26.7344,2.36593,58,10
1.49869,9.82846,-1.57467,47,3
2.70103,17.6926,2.19755,9,11
1.84813,12.0917,-1.50192,55,4
2.68402,17.5606,2.81363,2,12
1.87995,12.2855,-1.08736,9,5
2.6671,17.4092,3.4235,13,13
2.5229,16.4488,-0.872127,19,6
2.65489,17.2892,4.03832,55,14
2.56618,16.7115,-0.29512,85,7
2.75875,17.9447,4.86476,18,15
0.0740532,0.477252,-0.12941,15,0
2.94657,18.9898,0.335435,34,8
0.0972197,0.625834,-0.146218,25,1
2.42966,15.6225,0.828583,11,9
1.2858,8.25807,-1.62455,26,2
2.77716,17.816,1.57752,74,10
1.53219,9.8293,-1.57561,46,3
2.76305,17.7051,2.20023,100,11
1.90079,12.1659,-1.51191,37,4
1.92898,12.3183,-1.09084,2,5
2.59228,16.5351,-0.877151,13,6
2.70918,17.2611,4.03382,30,14
2.57328,16.3765,-0.289361,31,7
0.0816859,0.515164,-0.139762,14,0
2.38424,15.0196,0.265451,7,8
0.100933,0.635114,-0.148468,24,1
2.85103,17.9197,0.950944,24,9
1.30701,8.21499,-1.61692,28,2
2.83748,17.8145,1.57822,60,10
1.56245,9.79853,-1.57154,22,3
2.9522,18.4932,2.29943,39,11
1.95138,12.2102,-1.51825,34,4
2.82683,17.6683,2.83397,33,12
2.20842,13.8031,-1.22297,42,5
2.88645,18.0207,3.54752,15,13
2.64808,16.5141,-0.876523,19,6
2.76572,17.2284,4.02842,30,14
2.84207,17.6844,-0.312642,28,7
0.0847206,0.522503,-0.141833,14,0
2.42865,14.9619,0.264578,43,8
0.100649,0.61937,-0.144868,25,1
2.5454,15.6466,0.830781,34,9
1.33441,8.20262,-1.61539,26,2
1.59124,9.75987,-1.56622,25,3
4.43908,27.1972,3.38358,10,11
1.96998,12.0564,-1.49997,19,4
2.89391,17.6914,2.83929,9,12
2.32156,14.1924,-1.25818,20,5
2.86113,17.4719,3.44143,20,13
2.47921,15.1231,-0.803148,26,6
3.00384,18.3033,4.28217,25,14
2.90281,17.6684,-0.312538,61,7
2.89415,17.5965,4.77832,10,15
0.0871758,0.526016,-0.142868,14,0
0.102491,0.617092,-0.144419,25,1
1.35982,8.17855,-1.61157,26,2
3.33666,20.0466,1.77798,52,10
1.62433,9.74841,-1.56528,21,3
3.41568,20.4772,2.54902,5,11
2.01957,12.0945,-1.50557,42,4
3.50509,20.9681,3.3671,26,12
2.3885,14.2884,-1.26742,20,5
2.91465,17.4173,3.43265,33,13
2.52703,15.0848,-0.801578,39,6
2.84403,16.9589,3.96994,2,14
3.55379,21.1685,-0.374668,62,7
2.89953,17.2529,4.68773,16,15
0.0870763,0.51428,-0.139762,14,0
2.85285,16.8313,0.297982,52,8
0.10823,0.637865,-0.149367,24,1
2.45624,14.4608,0.768711,3,9
1.38342,8.14472,-1.60585,26,2
3.40695,20.0368,1.77815,18,10
1.65271,9.70958,-1.55996,17,3
7.24503,42.5192,5.29595,18,11
2.04743,12.0032,-1.49509,33,4
3.45889,20.2567,3.25478,10,12
2.4075,14.0993,-1.25138,30,5
3.16166,18.4965,3.64751,15,13
2.56384,14.9834,-0.796658,13,6
3.56513,20.7913,-0.368211,83,7
3.02215,17.6063,4.7866,1,15
0.0888711,0.513973,-0.139762,14,0
2.87476,16.6085,0.294213,42,8
0.110123,0.635563,-0.148918,24,1
2.51884,14.5371,0.773212,25,9
1.40715,8.11276,-1.60051,26,2
6.42512,37.0049,3.28595,21,10
1.68084,9.67066,-1.55465,22,3
3.08626,17.7383,2.21071,33,11
2.08046,11.9451,-1.48876,33,4
4.06531,23.3413,3.75255,9,12
2.45602,14.0869,-1.25103,27,5
3.23837,18.555,3.66124,18,13
2.58898,14.8189,-0.788389,16,6
3.01841,17.2592,4.04507,63,14
3.61579,20.675,-0.366361,82,7
3.0682,17.5258,4.76745,3,15
2.93606,16.6343,0.294841,14,8
0.112909,0.639032,-0.149817,24,1
2.56992,14.5302,0.773316,19,9
1.43443,8.102,-1.59936,28,2
6.17839,34.8615,3.09751,19,10
1.7036,9.61252,-1.5462,21,3
4.85387,27.3601,3.41185,21,11
2.10861,11.8737,-1.48071,30,4
3.09469,17.4087,2.80049,2,12
2.52437,14.1861,-1.26062,27,5
3.3267,18.6949,3.69101,9,13
2.65316,14.8948,-0.79289,19,6
3.08418,17.297,4.05632,17,14
3.68197,20.6288,-0.365768,100,7
3.11917,17.4579,4.75192,4,15
2.76761,15.3664,0.272537,7,8
0.113756,0.630963,-0.148018,24,1
2.62163,14.5413,0.774363,17,9
1.45955,8.08754,-1.59745,26,2
4.29349,23.7671,2.113,21,10
1.72835,9.55792,-1.53838,28,3
3.20869,17.7267,2.21193,28,11
2.12703,11.7393,-1.46487,37,4
3.14606,17.3633,2.79486,31,12
2.60021,14.3365,-1.27474,25,5
3.19871,17.6188,3.48074,5,13
2.69585,14.8343,-0.790168,45,6
3.16582,17.4031,4.08376,31,14
3.87062,21.2775,-0.377496,85,7
3.17843,17.4551,4.75399,6,15
0.0871841,0.475029,-0.12941,15,0
2.82831,15.4102,0.273479,18,8
0.114439,0.622916,-0.146218,25,1
2.88007,15.6615,0.834549,20,9
1.48208,8.0515,-1.59135,26,2
5.41982,29.4146,2.61676,38,10
1.7604,9.55408,-1.53869,30,3
3.26169,17.6847,2.20803,28,11
2.15586,11.6775,-1.45805,30,4
3.22603,17.4571,2.81175,8,12
2.61362,14.1294,-1.25713,10,5
3.33246,18.0155,3.56126,1,13
3.43447,18.5488,-0.988626,39,6
3.22671,17.4098,4.08781,17,14
3.00159,16.1794,-0.287232,29,7
3.24004,17.4477,4.75502,12,15
0.093817,0.501306,-0.136656,14,0
2.65722,14.1851,0.251908,11,8
0.119953,0.63973,-0.150267,24,1
2.97522,15.8673,0.846063,12,9
1.50439,8.0154,-1.58524,26,2
3.86778,20.5878,1.83271,4,10
1.78226,9.47767,-1.52743,23,3
3.26151,17.3273,2.16489,13,11
2.19497,11.65,-1.45561,26,4
3.28073,17.4128,2.80643,37,12
3.41396,18.1025,-1.61168,3,5
4.40396,23.3296,4.61491,22,13
3.49687,18.5067,-0.987056,18,6
4.04284,21.3757,-0.379729,94,7
3.4134,18.0304,4.91704,6,15
0.090498,0.474408,-0.12941,15,0
2.69937,14.1506,0.251454,26,8
0.123536,0.646986,-0.152067,23,1
4.09615,21.4321,1.14354,16,9
1.52793,7.98696,-1.58066,26,2
5.68162,29.6715,2.64309,15,10
1.81368,9.47171,-1.52743,30,3
3.24122,16.9109,2.11419,4,11
2.22424,11.5939,-1.44951,24,4
3.31616,17.2693,2.78516,50,12
2.74869,14.3006,-1.27404,25,5
3.51003,18.2617,3.61469,4,13
2.79827,14.5449,-0.776247,16,6
3.35444,17.4193,4.09546,31,14
3.11524,16.162,-0.287302,63,7
3.82214,19.8109,5.40621,16,15
0.0920709,0.474106,-0.12941,15,0
2.75105,14.1529,0.251664,8,8
0.125794,0.646551,-0.152067,23,1
3.8609,19.8442,1.05949,3,9
1.5514,7.96644,-1.57761,26,2
7.05658,36.2018,3.22685,10,10
1.83803,9.42073,-1.52023,25,3
4.35566,22.304,2.79032,14,11
2.26279,11.5763,-1.4483,23,4
3.38326,17.3086,2.79329,46,12
2.75172,14.0646,-1.25382,40,5
3.53363,18.0277,-0.962772,10,6
3.41785,17.4209,4.09861,43,14
4.12628,21.0318,-0.37411,46,7
3.17793,16.1831,4.41908,16,15
0.101223,0.511684,-0.139762,14,0
3.0083,15.2069,0.270582,9,8
0.123395,0.62319,-0.146668,24,1
1.57347,7.93209,-1.57188,26,2
4.05551,20.4257,1.8219,11,10
1.86195,9.37777,-1.51429,22,3
2.29265,11.5259,-1.44293,23,4
3.456,17.3587,2.80331,20,12
2.89074,14.5063,-1.29409,15,5
3.63348,18.2335,3.61392,19,13
2.88433,14.4609,-0.772793,29,6
3.57594,17.9121,4.21693,27,14
4.25608,21.2996,-0.379136,55,7
3.23706,16.1852,4.4227,12,15
0.105207,0.522709,-0.142868,14,0
2.81572,13.977,0.248871,44,8
0.124799,0.618935,-0.145768,25,1
1.59588,7.90758,-1.56807,26,2
3.5236,17.4437,1.55695,13,10
1.89115,9.35378,-1.51147,25,3
6.0563,29.9281,3.74919,12,11
2.31632,11.4362,-1.4327,15,4
3.47654,17.149,2.77139,52,12
2.91481,14.3653,-1.28241,28,5
3.63308,17.9052,3.55134,52,13
2.92922,14.4234,-0.771327,48,6
4.69274,23.0862,5.43887,18,14
3.0686,15.0827,-0.268662,25,7
3.30664,16.2382,4.4403,8,15
0.0970305,0.473115,-0.12941,15,0
2.87414,14.0141,0.249709,71,8
0.130486,0.635676,-0.149817,24,1
1.61734,7.86514,-1.56082,26,2
4.5836,22.2704,1.98924,4,10
1.91864,9.3139,-1.50615,27,3
5.66609,27.5056,3.44817,21,11
2.3442,11.3697,-1.42538,15,4
3.53479,17.1291,2.77014,64,12
3.75591,18.1686,3.60629,13,13
2.95415,14.2776,-0.764105,42,6
4.8362,23.3532,5.5059,6,14
3.68795,17.7928,4.8689,7,15
0.102629,0.491685,-0.134586,15,0
2.92385,13.9957,0.249569,15,8
0.132416,0.633286,-0.149367,24,1
2.87899,13.7689,0.737204,61,9
1.64036,7.83831,-1.55662,26,2
4.99869,23.865,2.13322,5,10
1.94507,9.27814,-1.50146,31,3
3.5595,16.9644,2.12833,4,11
2.3781,11.3241,-1.42075,16,4
3.61811,17.2288,2.78829,26,12
2.78348,13.2429,-1.18392,2,5
3.77446,17.9421,3.56393,40,13
3.08133,14.6346,-0.783783,39,6
4.93015,23.3953,5.51985,18,14
4.29004,20.3577,-0.36315,7,7
3.68226,17.4585,4.78091,10,15
0.104344,0.491324,-0.134586,15,0
4.63233,21.8121,0.389224,20,8
0.133299,0.627125,-0.148018,24,1
2.95113,13.8721,0.743275,45,9
1.66403,7.81526,-1.55319,28,2
4.97939,23.3661,2.09017,31,10
1.96717,9.23107,-1.49489,26,3
4.29069,20.117,2.52562,5,11
2.40735,11.2773,-1.41588,16,4
3.74261,17.5174,2.8371,33,12
2.79637,13.0773,-1.16998,27,5
3.82737,17.8988,3.55782,33,13
3.11103,14.5364,-0.779073,48,6
4.07058,19.0037,4.48687,13,14
4.64696,21.6761,-0.386955,80,7
3.73912,17.4266,4.77573,18,15
0.101897,0.472091,-0.12941,15,0
4.70676,21.788,0.389084,37,8
0.137547,0.63618,-0.150267,24,1
2.99363,13.8344,0.74181,45,9
1.68205,7.77324,-1.54593,28,2
3.14815,14.5362,1.30124,23,10
1.98934,9.17782,-1.48738,22,3
4.02757,18.5655,2.33258,30,11
2.43323,11.2068,-1.40808,15,4
3.76094,17.3073,2.80518,33,12
2.84606,13.0971,-1.17259,20,5
3.95699,18.1942,3.61927,9,13
3.08826,14.1879,-0.760965,22,6
4.13274,18.9704,4.48237,35,14
4.38989,20.1338,-0.359694,29,7
0.110171,0.501924,-0.137692,14,0
4.77377,21.7304,0.388351,17,8
0.137674,0.626179,-0.148018,24,1
3.0947,14.0638,0.754685,8,9
1.70876,7.7654,-1.54555,26,2
3.91792,17.7901,1.59373,6,10
2.01669,9.1496,-1.48394,28,3
4.25186,19.2744,2.42349,51,11
2.4612,11.1478,-1.40174,15,4
3.81196,17.2516,2.7983,15,12
2.89219,13.0891,-1.17277,12,5
4.17013,18.8569,3.75398,19,13
4.84543,21.8744,5.17252,47,14
4.50516,20.3214,-0.363324,100,7
4.71016,21.2287,5.82653,15,15
0.108557,0.486452,-0.133551,15,0
3.08734,13.8233,0.247231,15,8
0.139859,0.625695,-0.148018,24,1
1.73113,7.73831,-1.54136,26,2
4.35523,19.4523,1.74399,32,10
2.04603,9.13093,-1.48206,28,3
3.92902,17.52,2.20462,9,11
2.48924,11.0907,-1.39565,15,4
3.87735,17.2614,2.80205,11,12
2.90081,12.9034,-1.15708,23,5
4.03094,17.9305,3.57233,39,13
3.19645,14.2069,-0.763163,48,6
6.20775,27.5684,6.52403,46,14
