x, y, z, intensity, ring
5.06748,17.1736,1.56654,45,10
2.3041,7.80352,-1.28871,25,3
5.05602,17.1127,2.19097,37,11
2.71832,9.19458,-1.17726,16,4
18.3955,62.1818,10.2705,19,12
3.24709,10.9761,-1.00142,23,5
16.7782,56.6784,11.4898,19,13
4.10123,13.8455,-0.756778,13,6
4.37093,14.7371,-0.268313,90,7
0.137977,0.462834,-0.12941,15,0
4.36377,14.6287,0.266463,58,8
0.182264,0.610616,-0.147118,24,1
5.2021,17.4168,0.952619,11,9
2.01765,6.75516,-1.37039,23,2
5.09487,17.047,1.5566,39,10
2.31944,7.75569,-1.28214,35,3
5.10207,17.0493,2.18512,9,11
2.74357,9.16222,-1.17433,17,4
15.7639,52.6105,8.6987,13,12
3.27051,10.915,-0.996887,21,5
17.0278,56.7925,11.5249,20,13
4.43248,14.7743,-0.808381,52,6
19.2469,64.1125,15.4541,42,14
4.45572,14.8329,-0.270338,24,7
0.148525,0.49194,-0.137692,14,0
4.51486,14.9445,0.272502,30,8
0.179884,0.595053,-0.143519,25,1
5.32994,17.6203,0.964761,30,9
2.04008,6.74432,-1.36963,23,2
5.10414,16.8632,1.54144,19,10
2.33505,7.70974,-1.27588,23,3
15.8687,52.3614,6.71793,36,11
2.76747,9.12599,-1.17092,20,4
18.9507,62.4526,10.3369,20,12
3.29297,10.8521,-0.992181,23,5
4.49448,14.7931,-0.810265,39,6
4.48651,14.7483,-0.269081,100,7
0.152501,0.498809,-0.139762,14,0
4.61029,15.0702,0.275085,57,8
0.179108,0.585105,-0.141269,26,1
5.19721,16.9675,0.93001,20,9
2.05672,6.71463,-1.36505,26,2
5.13962,16.769,1.53446,61,10
2.36079,7.69776,-1.27525,28,3
16.1014,52.4688,6.73889,36,11
2.78824,9.08022,-1.16629,17,4
17.1252,55.7356,9.23495,15,12
3.32849,10.8329,-0.991484,21,5
4.5727,14.8453,-0.271141,100,7
0.154241,0.498273,-0.139762,14,0
4.67352,15.0884,0.275713,30,8
0.186341,0.601228,-0.145318,25,1
4.66657,15.0474,0.825652,19,9
2.072,6.68116,-1.3597,23,2
5.18572,16.711,1.5308,26,10
2.38882,7.69325,-1.27588,25,3
2.8099,9.03821,-1.16215,15,4
19.3663,62.2546,10.3262,20,12
3.35741,10.7927,-0.988869,21,5
4.18961,13.4513,-0.738356,32,6
4.57269,14.6632,-0.268104,100,7
0.15598,0.497732,-0.139762,14,0
4.70283,14.9976,0.274352,52,8
0.189606,0.604293,-0.146218,25,1
4.76428,15.1843,0.834026,8,9
2.09531,6.67389,-1.3597,26,2
5.2697,16.7746,1.5383,16,10
2.40736,7.65848,-1.2715,25,3
5.48554,17.4404,2.24483,19,11
2.83786,9.01698,-1.16068,16,4
19.167,60.9012,10.1122,19,12
3.38129,10.7372,-0.98486,21,5
20.9332,66.4323,13.539,30,13
4.10201,13.0099,-0.714909,42,6
4.66702,14.7929,-0.270757,100,7
0.151875,0.47877,-0.134586,15,0
4.75676,14.9952,0.274596,34,8
0.195735,0.616663,-0.149367,24,1
5.33719,16.8046,0.924044,26,9
2.118,6.66466,-1.35932,23,2
5.37591,16.9061,1.55207,13,10
2.42436,7.6241,-1.26712,25,3
17.457,54.8653,7.0694,43,11
2.86112,8.98672,-1.158,16,4
15.8395,49.7215,8.26506,25,12
3.39939,10.6646,-0.979282,23,5
21.1034,66.2054,13.507,30,13
4.25073,13.3273,-0.733122,58,6
4.72106,14.7841,-0.270896,89,7
15.7299,49.2289,13.8479,19,15
0.157003,0.489301,-0.137692,14,0
4.78401,14.9005,0.273165,19,8
0.191926,0.597422,-0.144868,25,1
5.46314,17.0055,0.936081,19,9
2.13768,6.65012,-1.3578,21,2
5.56738,17.3092,1.59077,13,10
2.44189,7.58738,-1.26243,26,3
17.5876,54.6151,7.04502,42,11
2.88212,8.94455,-1.15386,17,4
16.014,49.6988,8.27007,25,12
3.42312,10.6172,-0.97597,23,5
21.3241,66.0995,13.5005,60,13
4.31134,13.3561,-0.73553,61,6
4.88069,15.1109,-0.277179,100,7
15.9168,49.25,13.8686,19,15
0.15513,0.477725,-0.134586,15,0
4.83587,14.8921,0.273305,7,8
0.1921,0.591222,-0.143519,25,1
5.52308,16.9882,0.936186,30,9
2.14873,6.60528,-1.35016,26,2
5.71657,17.5625,1.61587,23,10
2.46275,7.56609,-1.26024,25,3
17.401,53.4278,6.89927,39,11
2.90499,8.91419,-1.15118,22,4
16.1874,49.6426,8.27007,25,12
3.43297,10.5218,-0.9683,23,5
21.517,65.9482,13.4841,30,13
4.38101,13.4196,-0.739821,39,6
16.1635,49.4817,12.0178,22,14
4.94211,15.1204,-0.277668,100,7
16.1991,49.532,13.9638,19,15
0.16033,0.488221,-0.137692,14,0
4.87097,14.8239,0.272362,16,8
0.19051,0.579441,-0.140819,26,1
5.50683,16.7393,0.92352,45,9
2.17431,6.60931,-1.35245,21,2
5.59288,16.9908,1.56497,42,10
2.491,7.56308,-1.26117,25,3
2.92055,8.85686,-1.14508,19,4
16.4979,50.0023,8.33952,25,12
3.45781,10.4739,-0.964988,22,5
21.7778,65.9659,13.5032,30,13
4.18101,12.657,-0.69858,19,6
16.3313,49.4101,12.0142,22,14
5.04258,15.2474,-0.280321,100,7
16.2578,49.1304,13.8665,19,15
0.152367,0.458299,-0.12941,15,0
5.0274,15.1218,0.278156,21,8
0.202989,0.610207,-0.148468,24,1
5.56145,16.7086,0.922892,38,9
2.19417,6.58826,-1.34978,23,2
5.77983,17.3445,1.59948,33,10
2.51558,7.54453,-1.25961,25,3
17.5224,52.5517,6.80177,37,11
2.94203,8.81837,-1.14143,20,4
16.6549,49.8919,8.33076,25,12
3.47479,10.4031,-0.959585,22,5
22.0431,65.9564,13.5177,30,13
4.209,12.5867,-0.695545,26,6
5.13892,15.3586,-0.282694,63,7
16.5224,49.3518,13.9452,19,15
0.161356,0.479737,-0.135621,15,0
5.07961,15.0938,0.277982,16,8
0.201493,0.598378,-0.145768,25,1
5.68259,16.866,0.932732,11,9
2.21528,6.57498,-1.34864,23,2
5.80724,17.226,1.59042,27,10
2.53369,7.51137,-1.25554,35,3
16.6598,49.3611,6.39668,29,11
2.96671,8.78495,-1.1385,22,4
16.5746,49.052,8.20061,25,12
3.51809,10.4117,-0.961502,22,5
4.49548,13.289,-0.735216,39,6
5.19389,15.3359,-0.282624,39,7
16.3151,48.1455,13.6211,18,15
0.155563,0.457224,-0.12941,15,0
5.60528,16.4654,0.303602,8,8
0.197297,0.579224,-0.141269,26,1
2.22872,6.53933,-1.34291,26,2
5.86412,17.1962,1.58955,16,10
2.54267,7.452,-1.2471,31,3
16.841,49.329,6.40009,29,11
2.99094,8.75576,-1.13607,16,4
17.1865,50.2836,8.41649,26,12
3.5557,10.4031,-0.961851,22,5
17.68,51.6978,10.6204,16,13
4.43773,12.9689,-0.718363,39,6
16.7472,48.9145,11.9364,22,14
5.26036,15.3555,-0.283322,86,7
16.6284,48.5122,13.7412,19,15
0.16973,0.493212,-0.139762,14,0
5.41533,15.7273,0.290338,8,8
0.202491,0.587745,-0.143519,25,1
5.74552,16.6673,0.923939,25,9
2.24769,6.52038,-1.34062,23,2
7.10906,20.6112,1.90749,30,10
2.56609,7.43561,-1.24584,22,3
3.00917,8.70962,-1.13144,17,4
17.318,50.0964,8.39521,26,12
3.59004,10.385,-0.961328,20,5
18.2377,52.7267,10.8448,17,13
4.42615,12.7892,-0.709257,58,6
5.28774,15.2615,-0.281926,100,7
16.7305,48.2604,13.6864,19,15
0.168911,0.485319,-0.137692,14,0
5.52675,15.8707,0.29334,52,8
0.201336,0.577833,-0.141269,26,1
5.8201,16.6943,0.926556,16,9
2.26527,6.49766,-1.33757,23,2
5.95384,17.0683,1.58153,33,10
2.58813,7.41542,-1.24397,22,3
16.9559,48.5543,6.31478,28,11
3.02973,8.67095,-1.12778,19,4
17.5111,50.0878,8.40397,13,12
3.62035,10.3555,-0.959759,18,5
18.4657,52.7888,10.8708,17,13
4.50837,12.8811,-0.715223,35,6
5.09764,14.5484,-0.269081,89,7
17.0958,48.7632,13.8458,19,15
0.173169,0.492015,-0.139762,14,0
5.53695,15.723,0.290967,26,8
0.209828,0.595506,-0.145768,25,1
5.56755,15.7923,0.877569,24,9
2.28075,6.46935,-1.33337,26,2
5.86559,16.6284,1.54266,55,10
2.61268,7.40262,-1.24334,22,3
6.59814,18.6844,2.433,15,11
3.05469,8.64535,-1.12583,19,4
17.458,49.382,8.29572,25,12
3.63788,10.2902,-0.954878,22,5
17.2494,48.765,10.0545,27,13
4.53332,12.8088,-0.712083,35,6
16.8474,47.5755,11.652,21,14
5.11699,14.4419,-0.267441,99,7
17.1587,48.401,13.7599,19,15
0.161931,0.455007,-0.12941,15,0
5.59381,15.7092,0.291071,63,8
0.207981,0.583756,-0.143069,25,1
5.6146,15.7502,0.876313,10,9
2.302,6.45765,-1.33261,26,2
6.03805,16.9288,1.57246,40,10
2.62788,7.36368,-1.23834,23,3
3.07884,8.61781,-1.12364,20,4
17.8696,49.9904,8.40835,13,12
3.66506,10.253,-0.952612,22,5
17.5405,49.0428,10.1243,13,13
4.55512,12.729,-0.708524,35,6
17.0252,47.5494,11.6601,21,14
5.12084,14.2941,-0.265032,100,7
17.424,48.6099,13.8365,19,15
0.173984,0.483523,-0.137692,14,0
5.61609,15.5993,0.289396,68,8
0.204074,0.566526,-0.13902,26,1
5.68169,15.7729,0.878616,5,9
2.32853,6.46065,-1.3349,23,2
6.06871,16.8289,1.56514,16,10
2.64687,7.33588,-1.23521,25,3
3.09392,8.57021,-1.11876,19,4
18.5185,51.2685,8.63362,13,12
3.69406,10.2214,-0.950869,22,5
17.7023,48.9554,10.119,27,13
4.55127,12.5796,-0.701093,35,6
17.2026,47.5477,11.6736,21,14
5.2921,14.6193,-0.271385,24,7
17.5351,48.4139,13.7971,19,15
0.172946,0.475681,-0.135621,15,0
5.69446,15.6539,0.290757,42,8
0.207284,0.569508,-0.13992,26,1
2.34187,6.43076,-1.33032,23,2
6.75747,18.5459,1.7269,28,10
2.66712,7.31593,-1.23333,26,3
17.3857,47.6632,6.22947,26,11
3.10532,8.51328,-1.11267,16,4
18.1087,49.6184,8.3658,12,12
3.72315,10.196,-0.949649,22,5
4.57308,12.5101,-0.698057,35,6
17.4512,47.7393,11.7348,21,14
5.14066,14.0551,-0.261228,100,7
17.6438,48.2139,13.7568,19,15
0.17319,0.471478,-0.134586,15,0
5.74495,15.6312,0.290687,45,8
0.206481,0.561502,-0.13812,27,1
5.76133,15.6589,0.874429,40,9
2.3537,6.39716,-1.32498,23,2
6.87606,18.6785,1.74137,54,10
2.6859,7.29222,-1.23083,22,3
17.5271,47.5606,6.22362,26,11
3.12471,8.47445,-1.10901,16,4
17.9139,48.5578,8.19748,25,12
3.74177,10.1425,-0.945814,22,5
18.2631,49.4778,10.2518,28,13
4.56541,12.3618,-0.690625,35,6
17.6326,47.7183,11.7447,21,14
5.21188,14.0971,-0.262345,100,7
18.0707,48.8514,13.9566,19,15
0.174835,0.470871,-0.134586,15,0
5.73054,15.4254,0.287232,34,8
0.213192,0.573564,-0.141269,26,1
5.84172,15.7079,0.878302,45,9
2.37054,6.37419,-1.32192,26,2
6.88008,18.4901,1.72603,14,10
2.70445,7.26429,-1.2277,22,3
17.6293,47.3279,6.2012,26,11
3.14734,8.44489,-1.10657,17,4
17.9052,48.0175,8.11676,24,12
3.75417,10.0678,-0.940062,22,5
18.4454,49.4395,10.2571,14,13
4.54777,12.183,-0.681519,35,6
17.8631,47.8281,11.787,21,14
5.24776,14.0432,-0.261681,92,7
18.6132,49.7833,14.2413,19,15
0.183265,0.488345,-0.139762,14,0
5.76467,15.3529,0.286254,53,8
0.217935,0.580114,-0.143069,25,1
5.89652,15.6874,0.878302,39,9
2.39554,6.37322,-1.32345,26,2
7.1171,18.9247,1.76891,14,10
2.72422,7.24001,-1.22519,22,3
7.34802,19.518,2.56072,5,11
3.1691,8.41342,-1.10389,19,4
18.072,47.9528,8.11645,24,12
3.77876,10.0267,-0.937447,22,5
18.5499,49.1948,10.2197,14,13
4.57687,12.1316,-0.67953,32,6
5.30099,14.0361,-0.261891,75,7
18.7131,49.5228,14.1854,19,15
0.182228,0.480477,-0.137692,14,0
5.79836,15.2804,0.285277,13,8
0.222725,0.586637,-0.144868,25,1
6.11861,16.1074,0.903005,25,9
2.41637,6.36115,-1.32269,26,2
7.17463,18.8774,1.76682,14,10
2.74176,7.21015,-1.22175,21,3
18.02,47.3633,6.22216,26,11
3.18927,8.37819,-1.10072,17,4
18.316,48.0907,8.15055,24,12
3.80594,9.99292,-0.93553,20,5
4.61777,12.1118,-0.679321,32,6
19.0315,49.8908,12.3278,23,14
5.43052,14.2286,-0.265835,57,7
0.18667,0.487053,-0.139762,14,0
5.87171,15.3123,0.286254,16,8
0.221979,0.578578,-0.143069,25,1
5.82623,15.1779,0.852029,31,9
2.43716,6.34901,-1.32192,26,2
6.05969,15.7778,1.47868,31,10
2.76195,7.18762,-1.21956,22,3
7.49335,19.4903,2.56389,11,11
3.20923,8.34292,-1.09756,22,4
18.532,48.1518,8.17182,12,12
3.83364,9.96098,-0.933787,22,5
20.3801,52.9262,11.0242,35,13
4.66649,12.1124,-0.680263,29,6
22.0624,57.2355,14.1616,32,14
5.47871,14.2058,-0.265765,57,7
0.188369,0.486399,-0.139762,14,0
5.83047,15.0475,0.281682,48,8
0.221885,0.572349,-0.141719,26,1
6.12835,15.7999,0.888141,25,9
2.4522,6.32216,-1.31811,23,2
6.25384,16.115,1.51233,16,10
2.78345,7.16873,-1.218,27,3
7.63034,19.6417,2.58729,12,11
3.22323,8.29281,-1.09244,20,4
18.6441,47.9432,8.14742,12,12
3.859,9.9234,-0.931521,22,5
20.6295,53.0213,11.0589,35,13
4.71019,12.0997,-0.680472,32,6
5.39685,13.8494,-0.259447,100,7
0.184434,0.471346,-0.135621,15,0
5.88516,15.0326,0.281787,32,8
0.226013,0.577014,-0.143069,25,1
6.07051,15.4901,0.871917,69,9
2.46566,6.29163,-1.31353,26,2
6.33769,16.1636,1.51895,48,10
2.8034,7.1461,-1.21581,26,3
7.59515,19.3507,2.55243,5,11
3.2478,8.27042,-1.09097,19,4
18.8792,48.0507,8.17683,12,12
3.87493,9.85727,-0.92664,20,5
4.748,12.0721,-0.679844,32,6
6.06711,15.4102,-0.289082,70,7
5.94936,15.0417,0.282345,9,8
0.225158,0.568974,-0.141269,26,1
5.89295,14.8839,0.838945,22,9
2.47858,6.257,-1.30819,26,2
6.46076,16.3014,1.53412,52,10
2.82375,7.12109,-1.21331,25,3
7.69924,19.4163,2.56462,5,11
3.26933,8.24058,-1.08854,20,4
19.0206,47.9184,8.16557,12,12
3.89535,9.8085,-0.923328,20,5
4.76123,11.9766,-0.675448,35,6
6.129,15.4093,-0.289466,100,7
0.193536,0.484366,-0.139762,14,0
6.2071,15.5267,0.291874,48,8
0.220728,0.55186,-0.13722,13,1
5.94413,14.8614,0.838841,6,9
2.49895,6.24466,-1.30742,23,2
6.51466,16.2713,1.53342,32,10
2.84565,7.10385,-1.21205,23,3
19.3542,48.2913,6.3879,29,11
3.29287,8.21196,-1.08634,19,4
19.2186,47.9287,8.17871,12,12
3.9214,9.7745,-0.921411,20,5
19.257,47.9759,10.0488,13,13
4.7844,11.9136,-0.672831,32,6
5.90466,14.6957,-0.276446,80,7
0.202456,0.501602,-0.144939,14,0
6.2084,15.3818,0.289535,61,8
0.218179,0.540284,-0.134521,28,1
2.51779,6.22862,-1.3059,23,2
6.61698,16.3612,1.54405,48,10
2.86623,7.08705,-1.2108,22,3
19.5515,48.3188,6.40009,29,11
3.3104,8.17708,-1.08317,17,4
19.2642,47.5611,8.1274,24,12
3.94951,9.74598,-0.920016,20,5
4.81788,11.8828,-0.671994,26,6
6.24395,15.3847,-0.289815,86,7
0.190997,0.468725,-0.135621,15,0
6.14807,15.0804,0.284265,27,8
0.22448,0.550345,-0.13722,13,1
5.99792,14.6975,0.831932,49,9
2.5273,6.19297,-1.30017,26,2
6.68853,16.3816,1.54806,35,10
2.88796,7.06969,-1.20955,22,3
7.21721,17.6588,2.34233,10,11
3.3314,8.1471,-1.08074,17,4
21.4601,52.4555,8.97652,14,12
3.97275,9.7107,-0.917924,18,5
4.84343,11.8271,-0.669796,26,6
6.19218,15.1056,-0.284963,94,7
0.191161,0.464483,-0.134586,15,0
6.04155,14.6724,0.27697,52,8
0.229368,0.556765,-0.13902,26,1
6.04995,14.6783,0.832037,36,9
2.53993,6.16233,-1.29559,26,2
6.62946,16.0763,1.52139,45,10
2.89906,7.02669,-1.20392,23,3
7.26972,17.6115,2.3394,30,11
3.35376,8.12074,-1.07879,19,4
23.9257,57.9048,9.92326,18,12
3.98304,9.63969,-0.912521,18,5
4.87171,11.7788,-0.668016,26,6
6.35884,15.3592,-0.290164,100,7
0.185367,0.445973,-0.12941,15,0
6.06738,14.5903,0.275818,48,8
0.234305,0.563158,-0.140819,26,1
6.59698,15.8482,0.899655,25,9
2.56369,6.15886,-1.29674,23,2
6.66791,16.0108,1.51738,68,10
2.92509,7.02018,-1.20455,22,3
7.36935,17.6776,2.35159,5,11
3.3775,8.09799,-1.07733,19,4
19.9133,47.7213,8.18997,12,12
4.00069,9.58274,-0.908511,20,5
24.1992,57.9637,12.2095,23,13
4.88739,11.7009,-0.664562,29,6
6.32988,15.1395,-0.286429,100,7
24.0398,57.4691,16.6918,31,15
0.19448,0.463103,-0.134586,15,0
6.12989,14.5967,0.276341,57,8
0.230985,0.549761,-0.13767,27,1
7.04079,16.7494,0.9522,12,9
2.5832,6.14219,-1.29521,23,2
7.30224,17.3544,1.64724,23,10
2.94161,6.98756,-1.20079,27,3
7.40482,17.5896,2.3433,55,11
3.40112,8.07518,-1.07586,23,4
24.3494,57.7836,9.9314,18,12
4.02792,9.55403,-0.907117,20,5
24.2925,57.5924,12.15,23,13
4.91006,11.6351,-0.661841,29,6
24.1851,57.2821,14.355,33,14
5.92378,14.0304,-0.265835,8,7
0.196095,0.462421,-0.134586,15,0
6.21381,14.6459,0.277703,13,8
0.23376,0.550704,-0.13812,27,1
2.60539,6.13494,-1.29559,26,2
8.91634,20.9852,1.99482,38,10
2.95825,6.95907,-1.19766,40,3
7.5345,17.7158,2.36378,30,11
3.40754,8.0121,-1.06904,15,4
23.6259,55.5244,9.55721,16,12
4.05032,9.51425,-0.904677,20,5
24.2656,56.9726,12.037,22,13
4.91149,11.526,-0.656607,35,6
6.4315,15.0857,-0.286254,94,7
0.209789,0.490185,-0.142868,14,0
6.74721,15.7576,0.299204,35,8
0.240957,0.562465,-0.141269,26,1
7.20419,16.8167,0.958795,22,9
2.61876,6.11003,-1.29216,26,2
6.8729,16.028,1.52575,29,10
2.96963,6.92199,-1.19297,27,3
3.43096,7.99346,-1.06806,19,4
23.7771,55.3695,9.54407,16,12
4.06769,9.46781,-0.901539,20,5
24.6545,57.3572,12.1355,23,13
4.9418,11.4913,-0.65556,35,6
6.43644,14.9596,-0.284265,86,7
0.191498,0.443375,-0.12941,15,0
6.67489,15.447,0.293724,43,8
0.236634,0.547353,-0.13767,13,1
6.66342,15.4056,0.879663,8,9
2.63277,6.08689,-1.28911,26,2
6.61583,15.2883,1.45742,25,10
2.99179,6.9103,-1.19266,26,3
7.14686,16.4996,2.20779,4,11
3.44305,7.94501,-1.06319,17,4
23.9939,55.3405,9.55345,32,12
4.08242,9.41588,-0.897878,20,5
24.4851,56.4466,11.9599,22,13
4.9584,11.4254,-0.652734,35,6
6.50933,14.9848,-0.285172,94,7
0.193045,0.442704,-0.12941,15,0
6.75196,15.4767,0.294736,28,8
0.246339,0.564384,-0.142169,26,1
2.65007,6.06867,-1.2872,26,2
6.69867,15.3327,1.46387,34,10
3.00402,6.87266,-1.18796,26,3
7.18135,16.4218,2.20072,28,11
3.46758,7.92567,-1.06221,23,4
24.1805,55.2419,9.55095,16,12
4.09929,9.36507,-0.894392,20,5
24.7104,56.4256,11.9736,22,13
4.98543,11.3787,-0.651059,32,6
6.62746,15.1121,-0.288035,23,7
0.210156,0.47739,-0.139762,14,0
6.8406,15.5317,0.296237,49,8
0.246736,0.559954,-0.141269,13,1
6.84655,15.5305,0.889502,46,9
2.67124,6.05938,-1.2872,23,2
6.74572,15.2946,1.46247,12,10
3.02639,6.85852,-1.18734,28,3
7.10154,16.0861,2.15904,32,11
3.4856,7.89173,-1.05929,23,4
25.9605,58.7492,10.1729,19,12
4.12714,9.33541,-0.892998,20,5
25.0263,56.6083,12.0309,22,13
5.01785,11.3448,-0.650117,32,6
23.6015,53.3352,13.4651,26,14
6.69636,15.1255,-0.288733,100,7
23.5789,53.2339,15.6006,22,15
0.204056,0.458964,-0.134586,15,0
6.91428,15.5516,0.297075,50,8
0.243937,0.548406,-0.13857,27,1
7.02171,15.7784,0.905098,34,9
2.69104,6.04417,-1.28605,23,2
7.2395,16.2526,1.5566,32,10
3.04267,6.82753,-1.1839,27,3
7.24168,16.2498,2.18439,4,11
3.50747,7.86682,-1.05758,22,4
26.4165,59.2211,10.2705,19,12
4.14427,9.28637,-0.889686,20,5
5.06021,11.3282,-0.650222,26,6
6.27182,14.034,-0.268313,49,7
23.506,52.5729,15.4308,22,15
0.221476,0.493499,-0.144939,14,0
6.95402,15.4879,0.296342,40,8
0.249139,0.554619,-0.140369,26,1
7.39716,16.4594,0.945711,15,9
2.70327,6.01504,-1.28185,21,2
6.70547,14.9134,1.43057,34,10
3.06405,6.81147,-1.18296,22,3
9.33871,20.7505,2.79398,14,11
3.52568,7.83038,-1.05441,17,4
26.7145,59.3039,10.3018,19,12
4.16354,9.23843,-0.886548,19,5
5.08659,11.2813,-0.648547,26,6
24.0154,53.2377,13.4836,79,14
6.27551,13.9052,-0.266289,74,7
0.199361,0.439896,-0.12941,15,0
7.17066,15.8223,0.303218,19,8
0.24705,0.544872,-0.13812,27,1
7.0412,15.5222,0.89327,31,9
2.71637,5.98543,-1.27766,19,2
6.78644,14.9468,1.43615,12,10
3.08981,6.80199,-1.18327,25,3
7.67879,16.9043,2.27969,39,11
3.54971,7.8108,-1.05344,15,4
4.17845,9.18575,-0.882888,19,5
24.4476,53.7199,11.4726,19,13
5.11052,11.2244,-0.646349,29,6
6.75588,14.8313,-0.284474,100,7
0.208851,0.456802,-0.134586,15,0
7.14516,15.6208,0.299832,61,8
0.253005,0.552866,-0.140369,26,1
7.04693,15.3989,0.887513,45,9
2.7362,5.97639,-1.27766,23,2
7.41262,16.1831,1.5573,35,10
3.10001,6.76477,-1.17858,25,3
9.60083,20.941,2.82859,22,11
3.54881,7.73701,-1.04515,28,4
27.4585,59.8641,10.4314,20,12
4.19309,9.13744,-0.879576,19,5
24.5282,53.4262,11.4272,78,13
5.13271,11.1747,-0.644465,29,6
24.2717,52.8191,13.4201,26,14
6.89938,15.0141,-0.288418,100,7
0.218538,0.473611,-0.139762,14,0
7.63929,16.5557,0.318262,50,8
0.253204,0.548485,-0.13947,13,1
7.12158,15.4196,0.89013,45,9
2.74552,5.94185,-1.27231,26,2
7.57358,16.3832,1.57909,77,10
3.11414,6.73652,-1.17545,25,3
7.75284,16.7633,2.26775,53,11
3.58112,7.73961,-1.0471,15,4
24.8309,53.6407,9.36198,76,12
4.21324,9.09743,-0.877135,19,5
5.14875,11.1123,-0.641848,29,6
6.91305,14.9065,-0.286813,86,7
0.22826,0.490398,-0.144939,14,0
8.10308,17.4009,0.335051,53,8
0.243595,0.522868,-0.133171,28,1
7.27239,15.6028,0.902167,26,9
2.77018,5.94339,-1.2746,23,2
3.1393,6.72919,-1.17607,23,3
7.79451,16.7002,2.26287,53,11
3.6014,7.71268,-1.04515,17,4
9.60908,20.5692,3.5958,2,12
4.23159,9.05814,-0.874695,19,5
24.3185,52.0326,11.1642,18,13
5.17566,11.069,-0.640383,29,6
28.2606,60.4123,15.3979,42,14
6.93961,14.828,-0.285766,86,7
0.221757,0.472113,-0.139762,14,0
7.79041,16.578,0.319728,35,8
0.260343,0.553759,-0.141269,13,1
7.55038,16.0526,0.929696,49,9
2.77755,5.90526,-1.2685,21,2
7.70951,16.3836,1.58414,43,10
3.15436,6.70032,-1.17295,25,3
7.88575,16.7429,2.27238,39,11
3.62153,7.68569,-1.0432,20,4
9.60331,20.3712,3.56702,25,12
4.25298,9.02169,-0.872603,19,5
24.5469,52.0468,11.1856,18,13
5.20063,11.0219,-0.638708,26,6
6.66853,14.1201,-0.272572,65,7
0.206855,0.436422,-0.12941,15,0
7.49523,15.8063,0.305347,36,8
0.262274,0.552846,-0.141269,26,1
7.43423,15.6635,0.908657,40,9
2.79056,5.87956,-1.26506,26,2
7.43251,15.6528,1.51599,52,10
3.16925,6.67142,-1.16982,26,3
7.53257,15.8493,2.15465,27,11
3.64578,7.66763,-1.04247,22,4
9.68709,20.3643,3.57171,29,12
4.26219,8.96001,-0.868071,19,5
9.71638,20.4167,4.39509,2,13
5.21761,10.9586,-0.636091,35,6
24.5787,51.5998,13.1952,25,14
6.66272,13.9812,-0.270338,65,7
0.215045,0.44964,-0.133551,15,0
7.48391,15.6411,0.30266,7,8
0.264202,0.551928,-0.141269,13,1
7.2706,15.1817,0.882175,48,9
2.80768,5.8627,-1.26354,26,2
7.36744,15.377,1.49176,26,10
3.18398,6.64251,-1.16669,27,3
7.66596,15.9858,2.17683,41,11
3.67252,7.65485,-1.04247,22,4
9.73418,20.2805,3.56295,25,12
4.28396,8.92532,-0.866154,19,5
9.7553,20.3154,4.38059,27,13
5.24027,10.9079,-0.634207,35,6
24.8346,51.6717,13.2357,25,14
6.63349,13.7957,-0.267196,66,7
23.6265,49.1141,14.6036,20,15
0.209897,0.434967,-0.12941,15,0
7.67929,15.9066,0.308314,3,8
0.260195,0.538718,-0.13812,13,1
7.34007,15.1904,0.884164,48,9
2.83154,5.85994,-1.26506,23,2
7.77833,16.0903,1.56357,26,10
3.20113,6.6189,-1.1645,26,3
7.72605,15.9679,2.17805,4,11
3.69576,7.63484,-1.0415,17,4
10.0796,20.8135,3.66276,22,12
4.30969,8.89521,-0.864759,19,5
5.26263,10.8572,-0.632323,26,6
6.52886,13.4576,-0.261088,92,7
23.7977,49.0313,14.6036,20,15
0.219949,0.451563,-0.134586,15,0
8.87752,18.2258,0.353865,9,8
0.256952,0.527296,-0.135421,27,1
7.38079,15.1396,0.882698,23,9
2.85042,5.84423,-1.26392,21,2
7.41962,15.2057,1.48025,25,10
3.2167,6.58937,-1.16137,25,3
7.72078,15.8159,2.16099,13,11
3.70496,7.58622,-1.03662,16,4
9.60411,19.6565,3.46502,26,12
4.32497,8.8479,-0.861622,19,5
25.4484,52.0385,11.26,37,13
5.29186,10.8163,-0.631067,26,6
25.8617,52.837,13.5812,27,14
6.53887,13.3593,-0.259622,83,7
25.8192,52.7268,15.731,23,15
0.221524,0.450792,-0.134586,15,0
7.28386,14.8158,0.288174,8,8
0.264043,0.536843,-0.13812,13,1
7.41154,15.0622,0.879768,71,9
2.85867,5.80958,-1.25858,23,2
7.54569,15.3281,1.49472,35,10
3.23968,6.5781,-1.16137,26,3
7.74974,15.7288,2.15294,46,11
3.72748,7.5619,-1.03516,19,4
4.3382,8.79701,-0.858135,19,5
25.2659,51.2117,11.1001,18,13
5.31455,10.7674,-0.629288,26,6
6.59045,13.3406,-0.259727,92,7
23.6344,47.8206,14.293,20,15
7.51235,15.1468,0.29512,10,8
0.26938,0.542901,-0.13992,13,1
7.47029,15.0488,0.8805,45,9
2.87718,5.79605,-1.25781,23,2
7.39975,14.9002,1.4555,3,10
3.26086,6.56322,-1.16074,28,3
7.80813,15.7087,2.15392,18,11
3.74766,7.53641,-1.03345,17,4
10.0868,20.2752,3.58673,8,12
4.35823,8.7604,-0.856044,19,5
25.2494,50.7312,11.015,35,13
5.3343,10.713,-0.627194,26,6
25.7677,51.7272,13.3418,52,14
6.64055,13.3247,-0.259866,67,7
7.92039,15.8305,0.308977,22,8
0.271274,0.541957,-0.13992,13,1
7.47277,14.9293,0.874953,22,9
2.893,5.77719,-1.2559,23,2
8.49495,16.9567,1.65927,45,10
3.2696,6.52354,-1.15574,27,3
9.79996,19.5445,2.68454,13,11
3.76682,7.50908,-1.0315,20,4
25.919,51.6689,9.15548,14,12
4.37181,8.7113,-0.852732,19,5
5.34924,10.6497,-0.624577,33,6
25.5438,50.8324,13.134,25,14
6.67572,13.2847,-0.259517,92,7
0.217531,0.4312,-0.12941,15,0
7.76569,15.3935,0.300949,42,8
0.269557,0.534095,-0.13812,13,1
7.54284,14.9388,0.877046,42,9
2.91581,5.77232,-1.25705,21,2
7.79835,15.4314,1.51268,35,10
3.2823,6.49503,-1.15261,25,3
8.31702,16.4506,2.26336,34,11
3.77468,7.46289,-1.02687,26,4
26.472,52.3149,9.28626,15,12
4.40219,8.69599,-0.852732,19,5
25.5489,50.4688,10.9956,17,13
5.36197,10.5873,-0.621961,33,6
6.70125,13.2203,-0.258714,85,7
0.236477,0.464914,-0.139762,14,0
7.92549,15.5748,0.305033,57,8
0.266115,0.522731,-0.135421,13,1
7.65023,15.0209,0.883431,13,9
2.9278,5.74862,-1.254,21,2
7.91551,15.5351,1.5254,29,10
3.30046,6.47474,-1.15104,25,3
8.39333,16.4586,2.26848,9,11
3.78177,7.41254,-1.02175,23,4
10.2699,20.121,3.57797,23,12
4.41651,8.65295,-0.849943,17,5
26.1321,51.1767,11.1696,18,13
5.37709,10.5259,-0.619448,37,6
25.4547,49.8071,12.9135,24,14
6.71732,13.1381,-0.257563,93,7
24.8018,48.4878,14.5933,20,15
0.220461,0.429709,-0.12941,15,0
7.9314,15.4527,0.303183,77,8
0.273279,0.532201,-0.13812,13,1
2.94068,5.72439,-1.25094,23,2
7.946,15.4613,1.52087,42,10
3.32305,6.46317,-1.15104,22,3
8.46617,16.4593,2.27262,4,11
3.80217,7.3887,-1.02029,23,4
4.43666,8.618,-0.848025,17,5
25.5123,49.5353,10.8307,16,13
5.39459,10.4698,-0.61725,37,6
24.9391,48.3807,12.5662,23,14
6.73748,13.0648,-0.256585,68,7
7.93749,15.3326,0.301368,35,8
0.276032,0.532974,-0.13857,27,1
7.82762,15.1139,0.892014,31,9
2.95522,5.70364,-1.24865,21,2
7.98434,15.4034,1.5179,13,10
3.34195,6.44452,-1.14979,22,3
3.82245,7.36481,-1.01883,23,4
30.0996,57.9937,10.3488,20,12
4.43091,8.53349,-0.841227,17,5
25.7285,49.5295,10.849,17,13
5.42097,10.4314,-0.616099,33,6
6.76048,13.0034,-0.255817,68,7
0.223456,0.42816,-0.12941,15,0
8.42962,16.1518,0.318018,35,8
0.278699,0.533783,-0.13902,26,1
8.21969,15.7362,0.930429,51,9
2.97239,5.68807,-1.24751,23,2
8.01499,15.3312,1.51355,35,10
3.35049,6.4089,-1.14541,22,3
8.52924,16.308,2.2597,19,11
3.84685,7.3521,-1.01883,23,4
23.4916,44.878,8.0229,12,12
4.44865,8.49503,-0.838961,19,5
5.43329,10.3709,-0.613587,33,6
6.77424,12.9195,-0.254631,68,7
25.1651,47.9732,14.5156,20,15
0.251859,0.478706,-0.144939,14,0
8.45148,16.0568,0.316726,16,8
0.282377,0.536256,-0.13992,13,1
8.29785,15.7516,0.933046,43,9
2.98482,5.66602,-1.24484,26,2
8.15032,15.465,1.52941,13,10
3.37192,6.39541,-1.1451,20,3
11.0413,20.9328,2.90585,7,11
3.8623,7.31931,-1.01615,20,4
23.388,44.3031,7.93467,11,12
4.48386,8.49002,-0.840007,17,5
22.9423,43.4404,9.54923,22,13
5.448,10.3112,-0.611179,37,6
6.79406,12.848,-0.253688,77,7
26.0714,49.2819,14.939,21,15
0.244555,0.460716,-0.139762,14,0
8.28621,15.6104,0.308489,20,8
0.275107,0.518055,-0.135421,13,1
8.26938,15.5656,0.92373,48,9
3.00741,5.65851,-1.2456,26,2
8.35941,15.7218,1.55782,42,10
3.38606,6.36557,-1.14197,18,3
11.1133,20.8924,2.90561,23,11
3.8785,7.28826,-1.01371,22,4
23.1786,43.5377,7.81203,11,12
4.51253,8.47256,-0.839833,17,5
23.1983,43.5379,9.5893,22,13
5.46603,10.2542,-0.608981,33,6
23.5095,44.085,11.5346,20,14
6.805,12.7607,-0.252432,77,7
26.3342,49.3611,14.9908,21,15
0.238868,0.446234,-0.135621,15,0
8.5369,15.9413,0.315644,33,8
0.280685,0.523915,-0.13722,27,1
8.51231,15.8887,0.944664,37,9
3.01416,5.62375,-1.24026,23,2
8.46319,15.7838,1.56689,71,10
3.40919,6.35545,-1.14228,20,3
3.8958,7.25651,-1.01127,27,4
23.3828,43.554,7.82955,23,12
4.52888,8.43218,-0.837392,17,5
23.2693,43.3062,9.5561,22,13
5.4772,10.1893,-0.60626,33,6
6.8173,12.677,-0.251245,86,7
0.251436,0.465798,-0.141833,14,0
8.67616,16.073,0.318821,22,8
0.293532,0.543557,-0.142619,26,1
8.42627,15.5971,0.929068,31,9
3.03564,5.61665,-1.24102,21,2
8.3884,15.514,1.54301,35,10
3.42649,6.33716,-1.14103,20,3
9.03662,16.7059,2.33209,5,11
3.91984,7.24355,-1.01127,24,4
23.4688,43.3505,7.80765,11,12
4.54121,8.38479,-0.834255,17,5
23.525,43.436,9.60189,11,13
5.49763,10.1465,-0.604794,33,6
6.83386,12.6021,-0.250233,94,7
27.4612,50.6194,15.4308,22,15
0.258519,0.475143,-0.144939,14,0
8.63279,15.86,0.31519,58,8
0.286109,0.525415,-0.13812,13,1
8.51601,15.6324,0.932941,24,9
3.04768,5.59448,-1.23835,21,2
8.82881,16.1999,1.61412,13,10
3.43441,6.29915,-1.13634,22,3
8.95039,16.4094,2.29504,24,11
3.9394,7.21937,-1.00981,22,4
23.5926,43.218,7.79857,22,12
4.56039,8.35394,-0.832686,17,5
24.5704,44.9905,9.96443,13,13
5.51961,10.1027,-0.603329,33,6
30.2617,55.3658,14.5669,35,14
6.86726,12.5589,-0.249849,77,7
26.6179,48.6589,14.8614,21,15
0.241592,0.440364,-0.134586,15,0
8.76795,15.9753,0.318088,24,8
0.290755,0.529538,-0.13947,26,1
8.55898,15.5816,0.931685,45,9
3.07191,5.59242,-1.24026,21,2
8.86228,16.1271,1.60994,20,10
3.45161,6.27847,-1.13478,22,3
12.2984,22.3615,3.1335,45,11
3.95309,7.1847,-1.00688,24,4
28.9204,52.5409,9.49901,16,12
4.57992,8.32052,-0.830943,17,5
24.6979,44.8511,9.9526,26,13
5.52208,10.0239,-0.59977,33,6
29.6552,53.8092,14.1845,32,14
6.91009,12.5331,-0.249814,69,7
0.248738,0.44966,-0.137692,14,0
8.95535,16.1825,0.322835,56,8
0.284107,0.513175,-0.135421,27,1
8.7846,15.8609,0.950212,47,9
3.08,5.56105,-1.23568,21,2
8.86348,15.9967,1.60001,54,10
3.46968,6.25947,-1.13352,23,3
9.07243,16.3604,2.29699,19,11
3.96274,7.14308,-1.00298,24,4
4.60603,8.29926,-0.83042,17,5
24.821,44.7046,9.93924,26,13
5.5357,9.96615,-0.597467,37,6
29.8429,53.7053,14.1845,32,14
6.93728,12.4792,-0.24922,60,7
0.246542,0.442041,-0.135621,15,0
8.99911,16.1284,0.322381,44,8
0.285896,0.51218,-0.135421,27,1
8.68606,15.5546,0.933674,53,9
3.09174,5.53655,-1.23263,21,2
3.49054,6.2456,-1.13321,25,3
11.8788,21.2459,2.98872,8,11
3.97699,7.11015,-1.0003,23,4
23.8692,42.6566,7.74194,11,12
4.62914,8.2727,-0.829374,17,5
24.8349,44.3641,9.88276,25,13
5.54899,9.90843,-0.595165,33,6
6.93777,12.3782,-0.247685,78,7
0.255738,0.454604,-0.139762,14,0
9.0925,16.1564,0.323603,40,8
0.29542,0.524714,-0.13902,13,1
8.72953,15.5051,0.932522,10,9
3.11008,5.52176,-1.23186,19,2
9.3621,16.6151,1.66851,45,10
3.50662,6.22071,-1.13102,22,3
9.29945,16.4904,2.32454,40,11
3.99424,7.07997,-0.99811,22,4
24.0005,42.542,7.73631,11,12
4.64376,8.22791,-0.826585,17,5
24.841,43.9959,9.82094,12,13
5.57348,9.86715,-0.593908,33,6
30.0692,53.2121,14.1107,31,14
6.96422,12.3243,-0.247091,70,7
0.249699,0.440265,-0.135621,15,0
9.12136,16.0826,0.32273,38,8
0.297158,0.523731,-0.13902,26,1
3.12837,5.50916,-1.23148,21,2
9.55979,16.8283,1.69326,59,10
3.51455,6.18672,-1.12695,21,3
12.682,22.3153,3.15154,27,11
4.02162,7.07358,-0.999085,27,4
24.2095,42.5644,7.75571,22,12
4.65767,8.18568,-0.82397,19,5
29.2996,51.4929,11.5161,20,13
5.58443,9.81043,-0.591606,33,6
29.1172,51.1308,13.5843,27,14
6.98839,12.2669,-0.246428,78,7
28.7066,50.3688,15.5343,22,15
0.287585,0.503169,-0.155291,12,0
9.19431,16.0802,0.323323,10,8
0.295114,0.515925,-0.13722,13,1
9.39208,16.4128,0.991034,36,9
3.14565,5.49705,-1.2311,19,2
9.79867,17.1164,1.72551,17,10
3.53023,6.16413,-1.12508,20,3
9.39373,16.3957,2.32015,30,11
4.02852,7.0285,-0.994698,23,4
24.3117,42.3991,7.741,22,12
4.68126,8.16073,-0.823099,17,5
24.6085,42.8993,9.61334,11,13
5.58882,9.73891,-0.588466,33,6
24.4967,42.67,11.3591,20,14
7.01025,12.206,-0.245695,96,7
0.260485,0.451901,-0.139762,14,0
9.37022,16.2559,0.327512,20,8
0.29886,0.518268,-0.13812,13,1
9.35948,16.2242,0.981613,54,9
3.16381,5.48209,-1.23034,19,2
9.73382,16.8595,1.7032,7,10
3.54983,6.14602,-1.12414,23,3
9.44494,16.3525,2.31869,40,11
4.04707,7.00409,-0.993235,23,4
24.5535,42.4765,7.77073,22,12
4.71172,8.14778,-0.823447,16,5
25.204,43.5668,9.78354,12,13
5.61547,9.7028,-0.587524,33,6
24.7701,42.7823,11.4131,20,14
7.03078,12.1434,-0.244927,70,7
0.27759,0.477714,-0.148044,13,0
9.45486,16.2647,0.328384,28,8
0.304676,0.523907,-0.13992,13,1
9.4271,16.2104,0.982765,29,9
3.16911,5.44725,-1.22499,19,2
9.59717,16.4896,1.66921,42,10
3.56829,6.12847,-1.1232,18,3
9.48384,16.2818,2.31357,25,11
4.06872,6.98235,-0.99226,20,4
24.7772,42.5202,7.7945,22,12
4.71905,8.09514,-0.819787,17,5
5.6332,9.65554,-0.585849,30,6
25.102,43.0086,11.4968,20,14
7.03985,12.0618,-0.243775,79,7
0.257774,0.44007,-0.136656,14,0
9.21159,15.7259,0.318122,31,8
0.306412,0.522894,-0.13992,13,1
9.43919,16.1016,0.978159,57,9
3.18611,5.43277,-1.22423,19,2
9.70811,16.5471,1.67845,31,10
3.58159,6.10468,-1.12101,20,3
9.57395,16.3119,2.32234,5,11
4.08481,6.95683,-0.990554,17,4
24.8334,42.2768,7.76572,22,12
4.73719,8.06144,-0.818044,17,5
25.5398,43.4619,9.79881,12,13
5.65608,9.62131,-0.584907,33,6
25.1259,42.7236,11.4428,20,14
7.06468,12.0078,-0.243182,71,7
25.066,42.5877,13.2412,18,15
0.294582,0.499105,-0.155291,12,0
9.24915,15.6644,0.317529,22,8
0.306253,0.518465,-0.13902,13,1
9.50549,16.0857,0.979206,21,9
3.20012,5.41542,-1.2227,21,2
9.78828,16.5577,1.6828,3,10
3.59283,6.07513,-1.11788,21,3
24.4126,41.2631,5.88678,22,11
4.10199,6.93057,-0.988848,22,4
25.0392,42.2884,7.78387,22,12
4.75108,8.02086,-0.815603,19,5
25.4752,43.0076,9.71638,12,13
5.67639,9.57917,-0.583546,30,6
25.1,42.3406,11.3636,20,14
7.0739,11.928,-0.242065,71,7
25.1081,42.3205,13.1853,36,15
0.256888,0.431619,-0.134586,15,0
9.55536,16.0548,0.326116,52,8
0.308061,0.517393,-0.13902,13,1
9.98371,16.7611,1.02244,45,9
3.21391,5.39353,-1.22041,21,2
10.2417,17.1806,1.74991,29,10
3.60596,6.04666,-1.11506,25,3
12.6626,21.2333,3.03552,8,11
4.11497,6.89746,-0.986167,23,4
12.5047,20.952,3.86456,9,12
4.77292,7.99396,-0.814558,19,5
25.3407,42.4252,9.60571,11,13
5.67971,9.50515,-0.580301,37,6
25.275,42.2817,11.3726,20,14
7.10729,11.8895,-0.241786,71,7
30.5463,51.0797,15.9474,25,15
0.268332,0.447286,-0.139762,14,0
9.62547,16.0385,0.3265,46,8
0.309955,0.516261,-0.13902,13,1
9.92393,16.5293,1.0104,21,9
3.22969,5.37723,-1.21927,21,2
9.8552,16.4018,1.67409,3,10
3.61992,6.02218,-1.11287,23,3
12.147,20.2,2.89415,38,11
4.12795,6.86192,-0.983242,19,4
12.5951,20.937,3.86988,20,12
4.80182,7.97896,-0.814732,17,5
25.4785,42.3197,9.60189,23,13
5.69121,9.44934,-0.578103,37,6
25.3018,41.9929,11.3186,20,14
7.1116,11.803,-0.240529,71,7
0.279887,0.462878,-0.144939,14,0
9.58445,15.8508,0.323323,34,8
0.309648,0.511895,-0.13812,13,1
9.95882,16.4569,1.0081,41,9
3.24132,5.35417,-1.2166,23,2
10.4336,17.228,1.76211,29,10
3.64499,6.01859,-1.11444,20,3
12.0997,19.9712,2.8671,22,11
4.13833,6.82782,-0.980317,19,4
12.2543,20.2105,3.74348,15,12
4.81518,7.9383,-0.812292,18,5
25.526,42.0822,9.56716,22,13
5.72148,9.42871,-0.577998,33,6
25.5177,42.0354,11.3528,20,14
7.12162,11.7268,-0.239482,71,7
25.7706,42.4185,13.2992,36,15
0.27539,0.452048,-0.141833,14,0
9.45239,15.5098,0.31704,20,8
0.313462,0.514139,-0.13902,13,1
10.0412,16.463,1.01061,25,9
3.25395,5.33501,-1.21469,21,2
10.5363,17.2681,1.76978,15,10
3.66186,5.99909,-1.11319,18,3
12.127,19.8594,2.85711,7,11
4.16421,6.81672,-0.980805,23,4
12.7554,20.8721,3.87426,27,12
4.82278,7.89169,-0.809154,18,5
25.6206,41.9074,9.5477,22,13
5.73351,9.3746,-0.575905,33,6
25.6379,41.9029,11.3411,20,14
7.14476,11.6729,-0.238889,63,7
0.283031,0.460962,-0.144939,14,0
9.43322,15.3575,0.314597,20,8
0.311174,0.5064,-0.13722,13,1
10.0253,16.3087,1.00328,24,9
3.27049,5.32027,-1.21393,26,2
10.8157,17.5876,1.80639,42,10
3.66932,5.9644,-1.10912,20,3
12.1796,19.7899,2.85321,37,11
4.18278,6.79369,-0.979586,23,4
12.4863,20.2724,3.77101,9,12
4.83567,7.85105,-0.806714,16,5
25.883,42.0066,9.59082,22,13
5.76516,9.35283,-0.5758,33,6
25.8106,41.8562,11.3528,20,14
7.16971,11.6224,-0.238365,72,7
32.0175,51.8812,16.3356,28,15
0.280573,0.4534,-0.142868,14,0
9.44781,15.2616,0.313306,20,8
0.31294,0.505311,-0.13722,13,1
10.1317,16.3534,1.0082,9,9
3.29215,5.31383,-1.21507,23,2
11.0093,17.7631,1.82835,32,10
3.68804,5.9482,-1.10849,16,3
11.4617,18.4787,2.66991,6,11
4.19914,6.76724,-0.97788,19,4
12.9175,20.8094,3.87926,25,12
4.87177,7.84513,-0.807934,16,5
25.8203,41.5791,9.51374,22,13
5.77459,9.29532,-0.573497,37,6
25.9,41.6749,11.3281,20,14
7.18595,11.5582,-0.237562,72,7
0.306774,0.491705,-0.155291,12,0
9.42799,15.1114,0.310897,20,8
0.310575,0.497603,-0.135421,27,1
3.30432,5.29007,-1.2124,26,2
10.9054,17.4523,1.80046,7,10
3.70353,5.92459,-1.10662,16,3
12.4974,19.9922,2.89488,15,11
4.21221,6.73571,-0.975442,17,4
12.5479,20.0575,3.74723,33,12
4.88327,7.80274,-0.805319,16,5
26.1007,41.6888,9.56068,11,13
5.80119,9.26225,-0.572765,33,6
26.5233,42.331,11.5328,20,14
7.1753,11.4517,-0.235887,90,7
0.308489,0.490631,-0.155291,12,0
9.38323,14.9177,0.307616,20,8
0.316548,0.503059,-0.13722,13,1
11.3028,17.9556,1.11193,22,9
3.30603,5.25192,-1.20629,19,2
12.3104,19.5486,2.02114,43,10
3.72208,5.90828,-1.10599,16,3
12.7865,20.2889,2.94461,16,11
4.23051,6.71016,-0.97398,17,4
12.6245,20.0164,3.74817,24,12
4.89878,7.76711,-0.803402,16,5
26.223,41.5609,9.55228,11,13
5.82069,9.22168,-0.571509,33,6
26.6709,42.2382,11.5328,20,14
7.19159,11.3848,-0.235049,90,7
0.283316,0.447124,-0.141833,14,0
9.40956,14.8443,0.306778,19,8
0.328738,0.518408,-0.141719,13,1
11.2617,17.7524,1.10178,55,9
3.33065,5.2503,-1.20858,21,2
11.707,18.4473,1.9115,21,10
3.74057,5.89192,-1.10537,16,3
11.5748,18.2249,2.6509,12,11
4.24859,6.68697,-0.972761,16,4
12.8352,20.1939,3.78978,21,12
4.91625,7.73483,-0.801833,16,5
26.587,41.8138,9.63166,11,13
5.83462,9.17265,-0.569729,37,6
26.835,42.1711,11.54,20,14
7.21088,11.3275,-0.234386,99,7
0.280716,0.439619,-0.139762,14,0
9.38919,14.6984,0.30444,17,8
0.324249,0.507405,-0.13902,13,1
11.2687,17.6272,1.09644,42,9
3.35108,5.24195,-1.20935,23,2
11.7123,18.314,1.90191,29,10
3.75472,5.86884,-1.10349,18,3
11.6886,18.263,2.66236,38,11
4.26977,6.66875,-0.972274,17,4
12.8619,20.0808,3.77695,9,12
4.92387,7.68742,-0.798695,16,5
27.506,42.9274,9.91024,12,13
5.85044,9.12701,-0.568159,37,6
7.22986,11.2703,-0.233723,100,7
33.0835,51.5526,16.4133,29,15
0.28643,0.445135,-0.141833,14,0
9.34736,14.521,0.301438,19,8
0.315468,0.489886,-0.134521,14,1
11.2653,17.487,1.09016,33,9
3.3651,5.22362,-1.20782,19,2
11.6812,18.1257,1.88657,21,10
3.75806,5.82913,-1.09848,16,3
11.72,18.172,2.65505,25,11
4.27903,6.63212,-0.969105,17,4
12.9845,20.1171,3.79228,2,12
4.93771,7.6501,-0.796603,16,5
33.7856,52.3246,12.1068,23,13
5.86167,9.07466,-0.56617,33,6
26.8791,41.5965,11.4338,20,14
7.23659,11.1946,-0.232675,82,7
0.300595,0.463584,-0.148044,13,0
9.39255,14.4798,0.301263,19,8
0.319297,0.492051,-0.135421,13,1
11.533,17.7729,1.11036,41,9
3.37476,5.19867,-1.20477,19,2
11.7824,18.1433,1.89267,38,10
3.77838,5.81598,-1.09848,16,3
14.4693,22.2638,3.26025,19,11
4.287,6.59385,-0.965693,17,4
28.6228,44.0248,8.317,12,12
4.9709,7.64284,-0.797649,16,5
34.2935,52.7066,12.2228,47,13
5.88024,9.03405,-0.564914,37,6
26.9837,41.4404,11.4167,20,14
7.23876,11.117,-0.231559,91,7
0.285304,0.436656,-0.139762,14,0
9.41317,14.4068,0.300391,19,8
0.325192,0.497514,-0.13722,13,1
11.9863,18.3309,1.14783,34,9
3.38644,5.177,-1.20248,21,2
11.9765,18.3021,1.91359,26,10
3.79332,5.79681,-1.09723,16,3
12.149,18.5585,2.72354,13,11
4.30667,6.57627,-0.965205,16,4
27.8042,42.4408,8.03604,12,12
4.98445,7.60544,-0.795558,18,5
26.9673,41.1476,9.56297,11,13
5.89593,8.99279,-0.563554,37,6
7.24461,11.0415,-0.230511,82,7
0.286751,0.435707,-0.139762,14,0
9.39302,14.2669,0.298157,19,8
0.326927,0.496376,-0.13722,27,1
11.5019,17.4568,1.0956,16,9
3.39603,5.15426,-1.19981,21,2
12.1008,18.3588,1.9237,48,10
3.81027,5.77858,-1.09629,18,3
13.0684,19.8118,2.91414,46,11
4.32195,6.5496,-0.963499,15,4
28.0001,42.4161,8.04981,12,12
4.99537,7.56726,-0.793292,18,5
27.1584,41.1253,9.57976,22,13
5.93389,8.98215,-0.564182,37,6
36.4517,55.1561,15.2634,41,14
7.25443,10.9727,-0.229604,91,7
37.8898,57.2887,18.4041,45,15
0.277593,0.418603,-0.134586,15,0
9.38749,14.1507,0.296412,19,8
0.339433,0.511469,-0.141719,13,1
11.397,17.1669,1.0799,15,9
3.41726,5.14728,-1.20095,23,2
12.3092,18.5338,1.94654,49,10
3.8184,5.74715,-1.09285,20,3
13.154,19.7909,2.9178,15,11
4.33819,6.52456,-0.962037,16,4
27.59,41.4792,7.89024,23,12
5.00851,7.52987,-0.7912,16,5
27.1082,40.7394,9.51183,22,13
5.94529,8.93146,-0.562298,33,6
7.26386,10.9041,-0.228696,83,7
0.289785,0.433695,-0.139762,14,0
9.43239,14.1112,0.296272,21,8
0.321718,0.481122,-0.133621,14,1
11.4413,17.1038,1.07843,11,9
3.43411,5.13369,-1.20057,21,2
12.1167,18.1066,1.9061,30,10
3.83184,5.72394,-1.09097,20,3
14.9506,22.3245,3.299,19,11
4.34878,6.49123,-0.959356,22,4
27.7083,41.3433,7.88273,23,12
5.03144,7.50737,-0.790677,16,5
27.1912,40.5564,9.49122,11,13
5.93972,8.85591,-0.558843,37,6
38.3537,57.1626,15.8923,46,14
7.27402,10.8371,-0.227824,74,7
38.3427,57.103,18.43,45,15
0.302086,0.448706,-0.144939,14,0
9.45813,14.0434,0.295539,19,8
0.332107,0.492926,-0.13722,13,1
12.0044,17.8107,1.12564,25,9
3.44542,5.11191,-1.19828,21,2
12.3759,18.3549,1.93677,36,10
3.84628,5.70234,-1.08941,18,3
14.9851,22.208,3.2895,9,11
4.36808,6.47108,-0.958624,16,4
26.9968,39.9792,7.64057,10,12
5.04535,7.4716,-0.788759,16,5
27.2941,40.4043,9.47786,22,13
5.95829,8.81692,-0.557692,37,6
38.8805,57.5127,16.0273,47,14
7.29388,10.7852,-0.227265,100,7
0.292806,0.431661,-0.139762,14,0
9.45994,13.9408,0.294073,19,8
0.336015,0.494988,-0.13812,13,1
3.45112,5.08198,-1.19408,21,2
12.8004,18.8423,1.9929,38,10
3.86838,5.69215,-1.09004,18,3
15.0447,22.1293,3.2856,29,11
4.38283,6.4443,-0.956918,18,4
27.1295,39.8749,7.6387,21,12
5.05571,7.43088,-0.786319,16,5
27.3146,40.1319,9.43627,22,13
5.97667,8.77791,-0.556541,38,6
39.1359,57.4572,16.0498,47,14
7.28644,10.6936,-0.225869,100,7
0.287771,0.421066,-0.136656,14,0
9.47242,13.8549,0.292956,17,8
0.342141,0.500246,-0.13992,13,1
12.124,17.7199,1.12522,6,9
3.46218,5.06018,-1.19179,23,2
12.6376,18.4637,1.95752,37,10
3.87818,5.66394,-1.08722,18,3
14.8907,21.7392,3.23539,19,11
4.39632,6.41586,-0.954968,15,4
15.1716,22.1328,4.25001,11,12
5.07373,7.40168,-0.785099,16,5
5.99032,8.73229,-0.554971,38,6
38.5478,56.1714,15.7281,44,14
7.30902,10.6466,-0.225415,92,7
0.300195,0.435971,-0.141833,14,0
9.47308,13.7525,0.29149,24,8
0.341674,0.495839,-0.13902,13,1
3.47648,5.04322,-1.19065,26,2
12.7552,18.4966,1.96571,18,10
3.89008,5.63898,-1.08503,17,3
15.1233,21.9142,3.26927,29,11
4.42433,6.40865,-0.956187,17,4
15.6092,22.6014,4.35044,6,12
5.08595,7.36425,-0.783007,16,5
27.6722,40.0533,9.46298,22,13
6.02077,8.71133,-0.554971,38,6
7.32566,10.5914,-0.224787,92,7
0.29731,0.428571,-0.139762,14,0
9.48796,13.6718,0.290478,19,8
0.338957,0.488241,-0.13722,13,1
3.49295,5.02944,-1.19027,23,2
13.0311,18.7563,1.99813,9,10
3.89733,5.60753,-1.08159,15,3
14.1752,20.3879,3.04893,51,11
4.44327,6.38827,-0.955456,16,4
15.6936,22.5549,4.35201,12,12
5.10138,7.33174,-0.781438,16,5
29.0198,41.6919,9.87398,12,13
6.0306,8.66075,-0.553086,38,6
7.34772,10.5445,-0.224333,74,7
0.332005,0.475034,-0.155291,12,0
9.51157,13.6041,0.289745,22,8
0.340659,0.487054,-0.13722,13,1
12.6398,18.0649,1.15547,6,9
3.50598,5.01078,-1.18874,21,2
13.1274,18.7548,2.00284,4,10
3.91802,5.59551,-1.0819,16,3
14.0823,20.1042,3.01383,16,11
4.44618,6.34509,-0.951312,15,4
15.7189,22.424,4.3373,3,12
5.12237,7.30736,-0.780741,16,5
28.2995,40.3558,9.5809,11,13
6.06079,8.63965,-0.553086,38,6
7.35117,10.4713,-0.223321,100,7
0.300295,0.426485,-0.139762,14,0
9.54058,13.5447,0.289186,22,8
0.337867,0.47949,-0.135421,27,1
12.6429,17.9358,1.15003,13,9
3.50987,4.97926,-1.18416,21,2
13.1721,18.6795,1.9997,23,10
3.93525,5.57857,-1.08128,15,3
14.1238,20.0144,3.00774,41,11
4.46143,6.3198,-0.94985,13,4
15.78,22.3448,4.33261,6,12
5.13865,7.27642,-0.779347,16,5
28.6962,40.6192,9.66715,11,13
6.08169,8.60539,-0.552249,38,6
7.36342,10.4113,-0.222588,100,7
0.279428,0.39392,-0.12941,15,0
9.54497,13.451,0.287895,17,8
0.338411,0.476719,-0.134971,14,1
12.776,17.9908,1.15642,15,9
3.52496,4.96377,-1.1834,23,2
13.2672,18.6757,2.00423,38,10
3.94897,5.55675,-1.07971,20,3
14.3753,20.2206,3.04625,17,11
4.48231,6.30257,-0.949606,16,4
28.703,40.3443,7.84206,11,12
5.15016,7.23895,-0.777255,16,5
28.3346,39.8118,9.49847,11,13
6.09431,8.55971,-0.550679,38,6
41.0643,57.6551,16.3418,49,14
7.37071,10.3448,-0.221715,93,7
0.303265,0.424378,-0.139762,14,0
9.55349,13.3639,0.286743,19,8
0.344607,0.481875,-0.13677,13,1
12.7957,17.886,1.15254,6,9
3.53541,4.94186,-1.18111,26,2
13.3126,18.6017,2.00127,19,10
3.9626,5.5349,-1.07815,18,3
15.211,21.2386,3.2076,9,11
4.49388,6.27236,-0.947412,13,4
16.1646,22.5536,4.39487,21,12
5.16612,7.20797,-0.77586,16,5
29.8622,41.6496,9.96176,13,13
6.09971,8.5043,-0.548481,38,6
41.6061,57.9864,16.4768,51,14
7.40444,10.3158,-0.221646,93,7
41.1315,57.2828,18.8959,49,15
0.282171,0.39196,-0.12941,15,0
9.5697,13.2883,0.285836,22,8
0.341731,0.474345,-0.134971,14,1
13.6113,18.8864,1.22006,61,9
3.56297,4.94382,-1.18454,23,2
13.3856,18.5664,2.00249,14,10
3.9842,5.52424,-1.07877,17,3
15.1247,20.9633,3.17397,46,11
4.50413,6.24054,-0.944975,15,4
27.0251,37.4299,7.31206,19,12
5.18191,7.17698,-0.774466,16,5
29.6062,40.9897,9.82857,25,13
6.0931,8.43277,-0.545236,38,6
7.41815,10.2591,-0.220982,75,7
41.4444,57.2953,18.9476,49,15
0.310757,0.428506,-0.141833,14,0
9.59137,13.2208,0.285103,22,8
0.350252,0.482612,-0.13767,13,1
13.5832,18.7094,1.21168,21,9
3.57213,4.92023,-1.18187,23,2
14.7476,20.3058,2.19563,45,10
3.99766,5.50231,-1.07721,20,3
15.3052,21.0581,3.19639,18,11
4.51188,6.20551,-0.94205,15,4
27.3298,37.5749,7.35899,9,12
5.20693,7.15885,-0.774466,16,5
39.7255,54.5973,13.1246,28,13
6.12014,8.40822,-0.545027,38,6
7.45156,10.2299,-0.220913,75,7
0.312251,0.427419,-0.141833,14,0
9.59971,13.1356,0.283986,27,8
0.349634,0.47824,-0.13677,13,1
13.6036,18.6006,1.2077,19,9
3.57886,4.89347,-1.17844,21,2
14.5525,19.8908,2.15623,22,10
4.0215,5.49469,-1.07846,18,3
14.8908,20.3382,3.09499,43,11
4.52296,6.17531,-0.939856,15,4
27.6686,37.7629,7.41468,10,12
5.21658,7.11973,-0.7722,15,5
29.6003,40.3845,9.73279,12,13
6.14355,8.37875,-0.544503,38,6
7.45765,10.1635,-0.22004,93,7
0.3,0.407655,-0.135621,15,0
9.60163,13.0424,0.282694,27,8
0.351302,0.477017,-0.13677,13,1
3.59708,4.88253,-1.17882,23,2
14.6337,19.8559,2.15798,5,10
4.03363,5.47108,-1.07658,18,3
14.5893,19.7813,3.01797,8,11
4.53859,6.1515,-0.938638,15,4
27.446,37.1861,7.3202,9,12
5.21892,7.07102,-0.768888,15,5
29.7411,40.281,9.73279,12,13
6.16327,8.3444,-0.543666,38,6
41.0683,55.5818,15.9549,46,14
7.48595,10.1278,-0.219831,84,7
43.1884,58.4084,19.4642,53,15
0.299121,0.403502,-0.134586,15,0
9.60422,12.951,0.281438,27,8
0.364575,0.491438,-0.141269,13,1
13.2087,17.805,1.16186,4,9
3.60474,4.85733,-1.17577,23,2
14.6827,19.7775,2.15501,22,10
4.04681,5.44904,-1.07502,18,3
14.6417,19.7079,3.01456,16,11
4.56122,6.13721,-0.938882,15,4
27.779,37.3771,7.37589,20,12
5.23882,7.04636,-0.768191,15,5
27.7679,37.335,9.04435,10,13
6.18163,8.30842,-0.542724,38,6
7.49083,10.0644,-0.218993,100,7
0.305151,0.408647,-0.136656,14,0
9.61481,12.8758,0.280495,19,8
0.348709,0.466809,-0.134521,28,1
13.1907,17.6516,1.15485,18,9
3.62167,4.84472,-1.17577,26,2
15.3661,20.5478,2.24478,23,10
4.05658,5.42452,-1.07283,21,3
15.2504,20.3857,3.12595,18,11
4.5756,6.11411,-0.937663,16,4
32.6612,43.6274,8.63174,13,12
5.25144,7.01209,-0.766448,15,5
27.941,37.3087,9.06037,10,13
6.19478,8.26869,-0.541468,38,6
40.2747,53.7384,15.5041,43,14
7.51392,10.0222,-0.218644,95,7
40.7034,54.2711,18.1774,43,15
0.304182,0.404544,-0.135621,15,0
9.61522,12.783,0.279204,26,8
0.356195,0.473374,-0.13677,13,1
13.1057,17.4108,1.14208,16,9
3.64481,4.84209,-1.17805,21,2
15.1729,20.1498,2.20678,23,10
4.07073,5.40401,-1.07158,23,3
16.5699,21.989,3.38066,10,11
4.58855,6.087,-0.935957,15,4
5.26627,6.9835,-0.765227,15,5
28.1042,37.2549,9.07106,20,13
6.20796,8.22629,-0.540107,35,6
7.51512,9.9512,-0.217666,95,7
0.291596,0.385,-0.12941,15,0
9.62114,12.6984,0.278087,27,8
0.350783,0.46281,-0.134071,14,1
13.129,17.3156,1.13883,15,9
3.65219,4.81683,-1.175,21,2
15.6766,20.6682,2.26954,24,10
4.07525,5.37088,-1.06782,22,3
15.756,20.7578,3.1998,9,11
4.60257,6.06146,-0.934494,15,4
30.4892,40.139,7.98348,12,12
5.29302,6.96825,-0.765576,15,5
27.9537,36.7876,8.981,10,13
6.23422,8.20139,-0.539898,35,6
7.5377,9.909,-0.217317,95,7
0.292938,0.38398,-0.12941,15,0
9.61082,12.5932,0.276516,19,8
0.359491,0.470876,-0.13677,13,1
13.0979,17.1561,1.13119,16,9
3.66541,4.79937,-1.17386,23,2
15.4439,20.2144,2.22561,23,10
4.09277,5.35506,-1.06751,20,3
21.3915,27.9789,4.32441,14,11
4.61526,6.03432,-0.932788,15,4
28.3421,37.0565,7.38903,10,12
5.31005,6.94024,-0.76453,15,5
27.9996,36.5823,8.95467,40,13
6.24582,8.15738,-0.538432,35,6
41.1077,53.6696,15.6076,43,14
7.54377,9.84902,-0.216549,100,7
0.308402,0.401337,-0.135621,15,0
9.61109,12.5073,0.275329,21,8
0.3563,0.463501,-0.134971,14,1
13.0834,17.0137,1.1248,16,9
3.67496,4.77721,-1.17157,26,2
15.9846,20.7714,2.29307,42,10
4.09364,5.31954,-1.06313,21,3
16.5811,21.5388,3.33751,20,11
4.64372,6.02999,-0.934494,15,4
28.4784,36.9667,7.3909,20,12
5.31478,6.89641,-0.761741,15,5
28.0668,36.4192,8.93749,40,13
6.2521,8.10973,-0.536653,38,6
41.3235,53.5823,15.622,44,14
7.55978,9.79887,-0.216026,100,7
0.319188,0.412535,-0.139762,14,0
9.60573,12.4105,0.273933,19,8
0.362688,0.468418,-0.13677,13,1
13.0987,16.9111,1.12104,15,9
3.69319,4.7681,-1.17233,23,2
15.8691,20.4805,2.26675,48,10
4.09766,5.28648,-1.05937,20,3
15.6648,20.2023,3.13887,18,11
4.65501,6.0012,-0.932544,17,4
21.6066,27.845,5.58221,9,12
5.33518,6.8756,-0.761393,15,5
28.4201,36.6126,9.00924,20,13
6.2571,8.05789,-0.534664,38,6
7.57308,9.74558,-0.215433,100,7
43.4586,55.9055,18.9735,49,15
0.356252,0.457132,-0.155291,12,0
9.61211,12.3295,0.272886,21,8
0.35713,0.457929,-0.134071,14,1
13.0937,16.7834,1.11559,13,9
3.70135,4.74434,-1.16966,23,2
15.7076,20.1265,2.23363,23,10
4.1173,5.27371,-1.05969,22,3
16.8252,21.543,3.35628,10,11
4.66371,5.96927,-0.930107,16,4
21.6258,27.6698,5.56218,19,12
5.35424,6.85065,-0.760695,15,5
6.27411,8.02184,-0.533722,38,6
41.9704,53.6425,15.7245,44,14
7.59226,9.70019,-0.215014,95,7
43.2366,55.2211,18.7923,48,15
0.341146,0.434611,-0.148044,13,0
9.62669,12.2597,0.272083,28,8
0.375579,0.478134,-0.140369,13,1
13.0609,16.6213,1.10785,13,9
3.70819,4.71904,-1.16661,23,2
15.7174,19.9948,2.22509,52,10
4.12958,5.25154,-1.05812,18,3
16.9199,21.5091,3.36018,41,11
4.6882,5.95763,-0.930838,17,4
21.4779,27.2837,5.49961,19,12
5.36949,6.82096,-0.759475,15,5
28.9835,36.8051,9.10617,10,13
6.30578,8.00459,-0.534036,35,6
42.1719,53.514,15.7299,44,14
7.61246,9.65636,-0.21463,100,7
43.3095,54.9181,18.7406,47,15
