x, y, z, intensity, ring
7.69053,-1.14524,0.407488,39,9
0.695179,-0.103523,-0.136619,37,2
13.272,-1.97878,1.17399,87,10
7.31867,-1.09248,-1.17201,60,3
8.69344,-1.29924,1.07927,32,11
8.14939,-1.21939,-1.01176,30,4
19.3296,-2.89573,-1.71,15,5
10.6765,-1.60133,2.09852,22,13
19.0144,-2.8553,-1.00768,22,6
11.1154,-1.67113,2.59504,18,14
9.73088,-1.46471,-0.171767,25,7
11.4636,-1.72757,3.10635,8,15
11.1381,-1.69443,0.196654,75,8
0.525941,-0.0801045,-0.122823,15,1
7.72005,-1.1772,0.409267,33,9
0.68705,-0.104765,-0.135093,38,2
12.6151,-1.92587,1.11646,42,10
8.70455,-1.33198,1.08122,20,11
14.9971,-2.29756,-1.86289,30,4
8.9036,-1.36562,1.42668,12,12
10.2052,-1.56526,-0.903282,16,5
10.6728,-1.63889,2.0989,7,13
9.90192,-1.52228,-0.525034,38,6
11.0825,-1.70577,2.58874,8,14
9.69607,-1.4941,-0.171243,70,7
12.0456,-1.85829,3.26578,3,15
11.0017,-1.71299,0.19435,71,8
0.514105,-0.080139,-0.120124,15,1
8.23489,-1.28513,0.436796,120,9
0.698319,-0.108979,-0.137382,24,2
12.628,-1.97297,1.11821,61,10
17.7841,-2.78491,2.21022,33,11
21.1842,-3.32115,-2.63287,15,4
12.7334,-1.99856,2.04147,14,12
14.898,-2.33829,-1.31936,28,5
9.89852,-1.55715,-0.525139,45,6
11.0881,-1.74626,2.59144,16,14
9.08043,-1.4317,-0.160457,100,7
11.1822,-1.76509,3.03336,11,15
11.0648,-1.76239,0.195572,47,8
0.525369,-0.0837743,-0.122823,15,1
7.61303,-1.21532,0.404034,18,9
0.701812,-0.112035,-0.138146,24,2
12.6092,-2.01515,1.11716,66,10
9.94951,-1.59365,1.23722,31,11
15.0846,-2.41886,-1.87581,23,4
8.86069,-1.42243,1.42136,18,12
10.9325,-1.75697,2.15233,21,13
14.8109,-2.38293,-0.786191,68,6
12.4306,-2.00219,2.90682,23,14
9.02997,-1.45607,-0.159655,100,7
11.2141,-1.81027,3.04371,15,15
14.7751,-2.40627,0.261297,24,8
0.525073,-0.0856077,-0.122823,15,1
7.5991,-1.23895,0.40351,54,9
0.693666,-0.113219,-0.136619,25,2
17.6319,-2.88102,1.56305,29,10
6.5736,-1.07529,-1.05499,10,3
12.2457,-2.00531,1.52361,38,11
15.1407,-2.48209,-1.88386,8,4
12.4447,-2.04013,1.99736,9,12
9.92678,-1.62913,-0.880099,19,5
11.9201,-1.9584,2.3481,29,13
18.3574,-3.0226,4.29522,25,14
8.96984,-1.47691,-0.158677,100,7
10.6667,-1.75821,2.8967,5,15
14.7926,-2.45952,0.261751,28,8
0.524786,-0.0873484,-0.122823,15,1
7.65186,-1.27499,0.406546,42,9
0.685521,-0.114348,-0.135093,25,2
12.8287,-2.14218,1.13791,26,10
6.50765,-1.08667,-1.04498,11,3
17.5469,-2.9332,2.18439,9,11
10.0771,-1.68634,-1.25452,9,4
12.4472,-2.08519,1.99892,21,12
16.4624,-2.76076,-1.46038,31,5
11.9716,-2.00766,2.35954,18,13
10.0651,-1.68975,-0.534873,17,6
18.355,-3.08475,4.29702,25,14
8.97055,-1.5092,-0.158782,25,7
10.6167,-1.78806,2.8848,9,15
14.7505,-2.50545,0.261158,36,8
0.524478,-0.0891797,-0.122823,15,1
7.64759,-1.30036,0.406546,28,9
0.69675,-0.118597,-0.137382,37,2
14.4753,-2.4665,1.28468,35,10
5.99169,-1.02203,-0.962698,7,3
17.5209,-2.99176,2.18244,9,11
6.89154,-1.17799,-0.858448,10,4
17.5748,-3.00412,2.82396,15,12
12.1135,-2.07496,2.38893,25,13
8.1064,-1.39002,-0.431039,21,6
11.9023,-2.04305,2.78804,23,14
8.88666,-1.52541,-0.157386,100,7
11.715,-2.013,3.18503,12,15
14.6869,-2.54479,0.26018,13,8
0.554901,-0.096247,-0.130022,14,1
7.58397,-1.3168,0.403406,51,9
0.692463,-0.120356,-0.136619,50,2
14.4921,-2.52146,1.28694,24,10
5.97659,-1.03986,-0.960821,2,3
10.3434,-1.8015,1.28913,18,11
15.2341,-2.65603,-1.89872,27,4
16.0406,-2.79953,2.57898,5,12
14.8102,-2.58747,-1.31535,5,5
12.1685,-2.12593,2.40114,40,13
8.09781,-1.41621,-0.43083,47,6
18.802,-3.29161,4.40679,22,14
8.83992,-1.54917,-0.156653,100,7
10.2313,-1.81142,0.181365,13,8
0.523843,-0.0928391,-0.122823,15,1
7.57516,-1.34389,0.403196,43,9
0.707504,-0.125516,-0.139672,35,2
14.5264,-2.57969,1.29078,49,10
9.91071,-1.76358,1.236,31,11
15.3767,-2.739,-1.91774,10,4
16.1566,-2.88084,2.59932,13,12
21.7329,-3.87513,-1.93137,4,5
12.1838,-2.17465,2.40572,23,13
8.21054,-1.46695,-0.43711,18,6
18.7936,-3.36119,4.40769,3,14
8.99165,-1.60975,-0.159445,85,7
11.2135,-2.00954,3.05251,12,15
10.2013,-1.84286,0.180947,33,8
0.523516,-0.094667,-0.122823,15,1
7.52325,-1.36178,0.400684,39,9
0.691606,-0.125187,-0.136619,25,2
12.7038,-2.30181,1.12954,23,10
9.88692,-1.79498,1.23381,31,11
15.3416,-2.78805,-1.91457,25,4
24.0088,-4.36746,-2.13497,24,5
12.1974,-2.22104,2.40992,11,13
16.731,-3.04959,-0.891281,20,6
18.245,-3.32883,4.28172,21,14
10.0069,-1.82759,-0.177561,100,7
11.1703,-2.04207,3.04268,10,15
10.1909,-1.87773,0.180877,67,8
0.542346,-0.100028,-0.127322,15,1
7.09029,-1.30899,0.377866,127,9
0.679581,-0.125462,-0.13433,38,2
10.4328,-1.92796,0.928209,29,10
6.78877,-1.25577,-1.09348,33,3
9.81228,-1.81683,1.22527,37,11
9.27715,-1.71942,-1.15849,4,4
12.5527,-2.32877,2.02207,22,12
11.393,-2.11567,-1.0138,9,5
18.4127,-3.41924,3.64025,18,13
8.3022,-1.54322,-0.442553,47,6
11.7442,-2.18514,2.7579,65,14
10.0064,-1.86361,-0.177666,97,7
17.36,-3.23629,4.73173,9,15
10.1174,-1.90074,0.17969,56,8
0.545824,-0.102641,-0.128222,14,1
7.03072,-1.32338,0.374935,77,9
0.675258,-0.127225,-0.133566,39,2
10.41,-1.96323,0.926814,54,10
6.52984,-1.23265,-1.05249,16,3
9.8956,-1.86801,1.23649,48,11
11.2704,-2.12957,-1.40832,15,4
12.5775,-2.37881,2.02739,10,12
11.3816,-2.15469,-1.01345,11,5
12.5303,-2.37442,2.47899,8,13
8.48094,-1.60862,-0.452392,21,6
10.0371,-1.90561,-0.178329,79,7
13.1504,-2.49907,3.58671,6,15
14.6196,-2.80207,0.259831,16,8
0.541617,-0.103907,-0.127322,15,1
7.1435,-1.37174,0.381215,27,9
0.705659,-0.135505,-0.139672,35,2
10.2035,-1.9612,0.909034,46,10
9.75809,-1.87911,1.22016,31,11
8.13212,-1.56747,-1.01688,17,4
16.0968,-3.10558,2.5965,5,12
17.0317,-3.28595,-1.51756,12,5
13.2953,-2.5699,-0.709676,35,6
12.706,-2.45828,2.9878,25,14
10.0301,-1.94239,-0.178329,97,7
13.1905,-2.55681,3.60017,12,15
15.2653,-2.9811,0.27149,31,8
0.522125,-0.102058,-0.122823,15,1
7.06419,-1.3821,0.377238,108,9
0.685914,-0.134198,-0.135856,25,2
10.0109,-1.96043,0.892475,62,10
6.08492,-1.19271,-0.982096,45,3
17.5764,-3.44835,2.19925,28,11
7.03383,-1.38126,-0.88014,4,4
17.307,-3.40177,2.79361,31,12
17.0318,-3.34768,-1.5186,12,5
17.3196,-3.40739,3.43113,13,13
10.0842,-1.98576,-0.538642,45,6
10.0939,-1.99132,-0.179585,100,7
18.348,-3.62301,5.01125,8,15
9.03362,-1.7969,0.160772,46,8
0.521766,-0.10388,-0.122823,15,1
7.36684,-1.46803,0.393671,35,9
0.67774,-0.135057,-0.13433,25,2
9.98835,-1.99224,0.89108,58,10
6.72385,-1.34234,-1.08597,33,3
9.95302,-1.98881,1.24624,11,11
17.2815,-3.45945,2.79142,35,12
17.0429,-3.41478,-1.52069,15,5
17.0689,-3.42,3.38381,20,13
7.94078,-1.59249,-0.424445,39,6
12.5089,-2.51088,2.94551,70,14
10.0163,-2.01236,-0.178329,97,7
18.3693,-3.69389,5.02057,9,15
9.03513,-1.83001,0.160911,18,8
0.502301,-0.101829,-0.118324,16,1
7.54567,-1.53107,0.40351,137,9
0.692632,-0.140666,-0.137382,24,2
6.71308,-1.36579,-1.08503,20,3
17.727,-3.6066,2.22119,42,11
7.70677,-1.56936,-0.965693,23,4
12.711,-2.5907,2.05461,17,12
17.1544,-3.50257,3.40327,6,13
8.1697,-1.66957,-0.437005,47,6
10.0954,-2.06495,-0.179865,45,7
18.8067,-3.85021,5.14377,11,15
0.521009,-0.107611,-0.122823,15,1
7.61824,-1.57489,0.407697,27,9
0.669066,-0.138313,-0.132803,26,2
10.007,-2.07053,0.894044,30,10
10.6286,-2.20301,1.33276,34,11
7.54936,-1.56615,-0.946681,52,4
12.6762,-2.63205,2.05054,7,12
17.39,-3.61396,3.4525,16,13
8.68983,-1.80749,-0.465162,32,6
11.6836,-2.43232,2.7552,38,14
8.5471,-1.78091,-0.152394,8,7
18.0228,-3.75859,4.93309,17,15
7.69495,-1.61597,0.137246,41,8
0.52063,-0.109429,-0.122823,15,1
7.50716,-1.57927,0.402045,38,9
0.705082,-0.148327,-0.140054,23,2
7.15909,-1.50735,0.640072,15,10
6.66472,-1.40448,-1.07877,53,3
10.5703,-2.22944,1.32643,37,11
7.48752,-1.5806,-0.939613,42,4
12.6187,-2.66607,2.04272,10,12
16.0451,-3.39002,-1.43476,28,5
17.4215,-3.68398,3.46128,9,13
8.67565,-1.83616,-0.464743,72,6
11.8695,-2.51428,2.80109,38,14
8.50367,-1.80286,-0.151731,100,7
18.0644,-3.83311,4.9481,13,15
7.9826,-1.70549,0.142481,67,8
0.520245,-0.111246,-0.122823,15,1
7.54847,-1.6155,0.404557,66,9
0.675763,-0.144624,-0.13433,25,2
7.12456,-1.52607,0.637457,20,10
7.59076,-1.62732,-1.22958,57,3
10.5295,-2.25925,1.32228,25,11
7.3461,-1.57755,-0.922551,42,4
24.7493,-5.31934,4.00942,28,12
16.0235,-3.44391,-1.43389,14,5
17.3336,-3.72867,3.44639,9,13
8.70824,-1.87484,-0.466837,97,6
11.8949,-2.56308,2.80919,12,14
8.41327,-1.8144,-0.15023,100,7
17.9999,-3.88514,4.93413,14,15
7.69716,-1.67262,0.13749,49,8
0.519853,-0.113061,-0.122823,15,1
7.45692,-1.62314,0.399951,55,9
0.677172,-0.1474,-0.134711,25,2
6.66054,-1.45223,-1.07971,37,3
10.5196,-2.29556,1.32204,6,11
7.30758,-1.59598,-0.918407,51,4
6.68794,-1.46188,-0.598934,17,5
17.3474,-3.79503,3.45173,15,13
8.7192,-1.90907,-0.467779,100,6
11.9145,-2.61085,2.81594,25,14
8.58268,-1.88231,-0.153372,66,7
17.9089,-3.93096,4.9129,16,15
7.68151,-1.69733,0.137316,85,8
0.519456,-0.114875,-0.122823,15,1
7.43561,-1.64571,0.399114,36,9
0.670903,-0.14849,-0.133566,26,2
7.09817,-1.57233,0.636063,18,10
6.66315,-1.47718,-1.08096,31,3
11.7886,-2.61563,1.48266,7,11
7.48994,-1.66322,-0.94205,52,4
16.0438,-3.56563,-1.4379,25,5
16.2026,-3.60687,-0.869928,22,6
11.9205,-2.65581,2.81954,17,14
8.59167,-1.91574,-0.153651,100,7
17.8837,-3.99093,4.9098,12,15
0.497629,-0.111689,-0.136656,14,0
7.66189,-1.72106,0.137071,94,8
0.519051,-0.116688,-0.122823,15,1
9.28873,-2.0899,0.498971,55,9
0.683788,-0.153848,-0.136238,37,2
7.11208,-1.60147,0.637806,48,10
6.65603,-1.5,-1.08065,27,3
10.5149,-2.37157,1.3235,53,11
7.3679,-1.66313,-0.927426,18,4
16.2142,-3.66295,2.63279,13,12
16.0643,-3.62908,-1.44086,11,5
12.4795,-2.82154,2.487,10,13
16.1704,-3.659,-0.868882,45,6
12.9014,-2.92165,3.05394,57,14
6.76146,-1.53244,-0.121015,70,7
17.962,-4.07427,4.93516,16,15
7.65778,-1.74824,0.137106,59,8
0.549038,-0.125444,-0.130022,14,1
9.15288,-2.09293,0.492063,39,9
0.681333,-0.155796,-0.135856,25,2
7.12586,-1.63073,0.639549,43,10
6.63149,-1.51881,-1.07752,22,3
10.5298,-2.41358,1.32643,59,11
7.49943,-1.72035,-0.944731,62,4
11.8598,-2.72279,1.92727,6,12
11.6974,-2.68765,-1.05005,11,5
12.3242,-2.83167,2.458,25,13
15.9863,-3.67603,-0.859671,39,6
12.9595,-2.9824,3.07013,59,14
6.73853,-1.552,-0.120701,82,7
18.0173,-4.153,4.95431,17,15
0.564565,-0.130963,-0.155291,12,0
7.63215,-1.77044,0.136757,67,8
0.518224,-0.120309,-0.122823,15,1
7.23509,-1.681,0.389275,28,9
0.673109,-0.156513,-0.13433,25,2
7.16447,-1.66722,0.643558,45,10
6.59702,-1.53639,-1.07283,26,3
10.5155,-2.44897,1.32569,28,11
7.47404,-1.74201,-0.942294,47,4
6.59094,-1.53861,-0.592136,38,5
12.3998,-2.89692,2.47517,26,13
15.9863,-3.73778,-0.860403,19,6
12.9921,-3.04009,3.08048,27,14
6.75644,-1.58098,-0.12112,12,7
12.4087,-2.90587,3.41486,6,15
0.564104,-0.132933,-0.155291,12,0
7.7891,-1.83696,0.139689,61,8
0.49502,-0.116835,-0.117424,16,1
7.08504,-1.67353,0.381529,68,9
0.657273,-0.155252,-0.131277,27,2
7.22841,-1.70872,0.649833,30,10
6.51857,-1.54213,-1.06094,6,3
12.7955,-3.02945,1.61453,7,11
7.44443,-1.7639,-0.939369,47,4
11.9053,-2.82308,1.93791,50,12
6.56227,-1.55609,-0.590044,32,5
12.061,-2.86222,2.40954,43,13
16.0159,-3.80372,-0.862706,39,6
18.2729,-4.34311,4.33616,31,14
6.74476,-1.60434,-0.121015,82,7
18.2014,-4.33282,5.01333,9,15
7.81765,-1.87252,0.140317,55,8
0.51735,-0.124014,-0.122823,15,1
7.18403,-1.72341,0.387181,36,9
0.67009,-0.160751,-0.133948,26,2
7.1914,-1.7265,0.647044,45,10
6.19623,-1.48873,-1.00932,1,3
18.9804,-4.56381,2.39693,5,11
6.23004,-1.49915,-0.786789,13,4
6.55292,-1.57806,-0.589696,31,5
12.1101,-2.91856,2.42137,13,13
15.9734,-3.85258,-0.861136,29,6
12.0309,-2.90393,2.85733,2,14
6.73523,-1.62694,-0.120945,100,7
15.3808,-3.71816,4.23997,2,15
0.469302,-0.114056,-0.12941,15,0
8.98078,-2.1843,0.16133,61,8
0.547209,-0.133193,-0.130022,14,1
9.17089,-2.23393,0.49468,37,9
0.679063,-0.165412,-0.135856,25,2
10.1895,-2.48394,0.917576,12,10
6.17948,-1.50754,-1.00744,10,3
10.7492,-2.62434,1.3586,34,11
6.23249,-1.52277,-0.787763,11,4
11.9352,-2.91833,1.94604,10,12
6.62285,-1.61938,-0.596494,41,5
12.117,-2.96502,2.4248,30,13
15.9463,-3.90498,-0.860403,35,6
11.9942,-2.93941,2.85103,36,14
6.70232,-1.64377,-0.120457,70,7
16.8105,-4.12594,4.63804,5,15
6.76574,-1.67059,0.121643,100,8
0.516472,-0.127623,-0.122823,15,1
9.0913,-2.24818,0.490807,85,9
0.668952,-0.165425,-0.133948,26,2
10.175,-2.51806,0.917053,16,10
6.25088,-1.54809,-1.01995,13,3
10.738,-2.66137,1.35836,28,11
6.22713,-1.54452,-0.787763,4,4
10.8724,-2.69871,1.77428,3,12
6.62296,-1.64392,-0.597017,10,5
12.1352,-3.01439,2.43053,7,13
11.8273,-2.94011,-0.638708,29,6
12.0217,-2.99067,2.86003,23,14
6.68296,-1.66377,-0.120212,100,7
18.11,-4.51198,5.0009,9,15
6.73659,-1.68837,0.121224,99,8
0.516023,-0.129425,-0.122823,15,1
9.17057,-2.30179,0.495517,44,9
0.662658,-0.166325,-0.132803,26,2
16.6628,-4.1854,1.50309,52,10
6.50982,-1.63636,-1.06313,47,3
10.5997,-2.66639,1.34203,9,11
6.22748,-1.5677,-0.788495,46,4
6.6423,-1.67336,-0.599283,15,5
18.1935,-4.58678,3.64712,3,13
6.95037,-1.75355,-0.375668,31,6
12.0074,-3.03166,2.85913,48,14
6.65191,-1.68072,-0.119758,81,7
18.0286,-4.55859,4.98278,3,15
0.468082,-0.118965,-0.12941,15,0
6.73841,-1.71384,0.121364,82,8
0.515568,-0.131225,-0.122823,15,1
9.13925,-2.32787,0.494261,60,9
0.663976,-0.169122,-0.133185,26,2
10.1881,-2.59691,0.919842,44,10
6.42941,-1.64003,-1.05093,21,3
20.0516,-5.11854,2.54098,23,11
6.22005,-1.58894,-0.788251,36,4
10.7596,-2.75058,1.75895,21,12
19.6515,-5.02736,3.94288,7,13
7.19767,-1.84269,-0.38938,73,6
12.0723,-3.0929,2.87712,36,14
6.69055,-1.71535,-0.120561,57,7
19.3168,-4.95613,5.34358,11,15
6.82726,-1.76184,0.123074,55,8
0.51322,-0.132537,-0.122373,15,1
9.133,-2.36025,0.494365,65,9
0.665282,-0.17193,-0.133566,26,2
11.7742,-3.04501,1.064,15,10
6.37775,-1.65059,-1.04342,10,3
10.6615,-2.76123,1.35226,34,11
6.26442,-1.62359,-0.794588,28,4
10.7996,-2.80101,1.76708,46,12
7.38453,-1.91527,-0.667439,41,5
12.6388,-3.28039,2.53814,10,13
6.8819,-1.78747,-0.372632,42,6
12.2066,-3.17277,2.91177,42,14
6.80451,-1.76991,-0.122725,65,7
19.262,-5.01379,5.33323,7,15
6.73982,-1.76439,0.121608,74,8
0.512754,-0.134327,-0.122373,15,1
7.35502,-1.92818,0.398486,9,9
0.664678,-0.174251,-0.133566,26,2
11.8059,-3.09721,1.06783,51,10
6.31272,-1.65729,-1.03372,6,3
7.08074,-1.86024,0.898908,13,11
6.25872,-1.64545,-0.794588,22,4
10.7496,-2.82814,1.76051,52,12
7.43175,-1.95523,-0.672319,11,5
12.6387,-3.32749,2.54043,20,13
6.65158,-1.75246,-0.36049,77,6
12.3538,-3.25709,2.94956,25,14
6.67261,-1.76049,-0.120457,76,7
12.2419,-3.23215,3.3926,12,15
0.46681,-0.12386,-0.12941,15,0
6.83606,-1.8151,0.123458,64,8
0.512282,-0.136116,-0.122373,15,1
8.07014,-2.14579,0.437633,14,9
0.681142,-0.18111,-0.137001,24,2
11.7873,-3.13635,1.06713,13,10
6.27636,-1.67118,-1.02871,6,3
7.07612,-1.88546,0.899152,63,11
6.22225,-1.6591,-0.790688,9,4
7.63059,-2.03605,1.25085,16,12
7.38638,-1.97089,-0.668833,31,5
15.8345,-4.22803,3.18575,12,13
6.69945,-1.7901,-0.363421,70,6
12.3706,-3.30775,2.95631,23,14
6.64711,-1.7786,-0.120107,100,7
12.2566,-3.28186,3.39985,7,15
6.92622,-1.86495,0.125204,34,8
0.511804,-0.137904,-0.122373,15,1
0.669132,-0.18042,-0.134711,25,2
19.0436,-5.13836,1.72568,7,10
6.29528,-1.69978,-1.03278,17,3
7.03883,-1.90186,0.895252,45,11
7.33329,-1.98417,-0.66465,30,5
15.9314,-4.31355,3.20826,13,13
6.66617,-1.80616,-0.361956,67,6
12.3872,-3.35856,2.96306,21,14
6.62349,-1.79708,-0.119793,50,7
15.476,-4.20184,4.29691,7,15
6.96983,-1.90281,0.126111,12,8
0.51132,-0.139689,-0.122373,15,1
7.38644,-2.01932,0.401312,34,9
0.66471,-0.18172,-0.133948,26,2
17.0404,-4.66172,1.54562,35,10
9.32441,-2.55262,-1.53118,20,3
6.98812,-1.91435,0.889646,52,11
7.5819,-2.07986,1.24522,51,12
7.4182,-2.03635,-0.673017,22,5
13.1408,-3.60725,2.64881,25,13
6.69449,-1.83894,-0.36384,67,6
15.4251,-4.24008,3.69325,19,14
7.70462,-2.11931,-0.13948,78,7
15.4277,-4.24661,4.2876,10,15
7.3139,-2.0242,0.132464,35,8
0.510829,-0.141473,-0.122373,15,1
0.66404,-0.184155,-0.133948,26,2
7.32417,-2.03255,0.664998,18,10
6.47519,-1.79816,-1.06438,53,3
7.36011,-2.04391,0.937907,13,11
6.28869,-1.74755,-0.801413,18,4
7.58601,-2.10949,1.2471,32,12
7.0713,-1.96769,-0.642164,36,5
19.4634,-5.41963,3.92723,15,13
6.77621,-1.88813,-0.368654,63,6
12.1244,-3.38064,2.90592,17,14
8.20184,-2.28691,-0.148625,32,7
11.615,-3.24077,3.2311,11,15
6.58253,-1.84779,0.11934,57,8
0.510307,-0.143345,-0.122373,15,1
0.644493,-0.181159,-0.130132,27,2
10.286,-2.89321,0.934833,34,10
6.4974,-1.82878,-1.06907,72,3
7.39078,-2.08163,0.942781,24,11
6.30135,-1.77598,-0.80385,37,4
7.54021,-2.12656,1.24084,73,12
7.06822,-1.99344,-0.642512,40,5
13.5908,-3.83557,2.74498,9,13
6.67539,-1.88517,-0.363526,50,6
12.0957,-3.41817,2.90187,8,14
8.04139,-2.27397,-0.145867,89,7
11.6421,-3.29437,3.24197,6,15
6.57412,-1.87021,0.119305,50,8
0.509803,-0.145125,-0.122373,15,1
9.17588,-2.61382,0.500018,44,9
0.662738,-0.188786,-0.133948,26,2
10.2644,-2.92582,0.933787,25,10
6.44349,-1.83791,-1.06125,60,3
7.05133,-2.01262,0.900371,58,11
6.29702,-1.79851,-0.804094,26,4
7.37319,-2.10727,1.21456,103,12
6.3754,-1.8221,-0.580109,17,5
12.6657,-3.62225,2.56066,15,13
6.76286,-1.93539,-0.368654,17,6
12.0181,-3.44159,2.88612,23,14
8.02187,-2.29872,-0.145658,40,7
12.2786,-3.52083,3.42262,16,15
6.6348,-1.91253,0.120526,79,8
0.509294,-0.146904,-0.122373,15,1
0.665848,-0.192187,-0.134711,25,2
10.2598,-2.96329,0.93431,38,10
6.44652,-1.86313,-1.06282,56,3
6.96608,-2.01461,0.890377,52,11
6.25256,-1.80944,-0.799219,11,4
7.39425,-2.14123,1.21925,57,12
12.6869,-3.67627,2.56753,33,13
6.82896,-1.98012,-0.372632,35,6
7.69501,-2.23415,-0.139864,88,7
11.6021,-3.37071,3.23731,13,15
0.556346,-0.162371,-0.155291,12,0
6.56282,-1.91662,0.11934,63,8
0.508778,-0.148681,-0.122373,15,1
7.48389,-2.18844,0.408639,18,9
0.661404,-0.193408,-0.133948,26,2
10.2609,-3.00244,0.935355,25,10
6.40017,-1.87396,-1.05625,57,3
7.06378,-2.06961,0.903783,18,11
7.04627,-2.06581,-0.901589,41,4
7.32987,-2.15035,1.20986,22,12
5.7106,-1.67531,-0.520668,38,5
17.9278,-5.26284,3.63186,22,13
9.33618,-2.74248,-0.509962,35,6
7.78117,-2.28865,-0.141574,80,7
11.5606,-3.40247,3.22903,22,15
6.56951,-1.94348,0.119584,60,8
0.545627,-0.161519,-0.131371,14,1
7.49727,-2.22079,0.409791,54,9
0.65696,-0.1946,-0.133185,26,2
10.2599,-3.04107,0.936227,61,10
6.30079,-1.86877,-1.04092,50,3
17.0228,-5.05207,2.18024,27,11
6.33683,-1.88187,-0.81165,33,4
7.36398,-2.1883,1.21675,41,12
7.08172,-2.10442,-0.646347,41,5
17.8585,-5.31028,3.62156,15,13
7.98079,-2.37463,-0.436377,58,6
15.8457,-4.71779,3.81697,22,14
12.319,-3.6701,-0.224368,92,7
11.4875,-3.42459,3.21194,23,15
6.6508,-1.99281,0.12119,50,8
0.507727,-0.152229,-0.122373,15,1
7.4933,-2.2481,0.41,18,9
0.644994,-0.193507,-0.130895,27,2
10.1996,-3.06198,0.931695,29,10
6.23179,-1.872,-1.03059,68,3
20.1931,-6.06976,2.58899,36,11
6.33212,-1.90455,-0.811894,49,4
7.37143,-2.21855,1.21925,63,12
6.95032,-2.09181,-0.635017,53,5
19.0749,-5.74453,3.87228,8,13
7.52879,-2.26878,-0.412093,32,6
15.8907,-4.79164,3.83182,28,14
8.15938,-2.46191,-0.148764,32,7
12.4908,-3.77121,3.49613,19,15
0.462179,-0.140156,-0.12941,15,0
6.77967,-2.05724,0.123668,71,8
0.507193,-0.154,-0.122373,15,1
7.43572,-2.25914,0.407278,57,9
0.659342,-0.200324,-0.133948,26,2
10.187,-3.09698,0.931521,38,10
6.17041,-1.87707,-1.02152,46,3
10.5911,-3.22387,1.35933,12,11
6.36911,-1.93994,-0.8175,22,4
19.0397,-5.8065,3.86923,8,13
7.59151,-2.31661,-0.415966,39,6
12.8639,-3.92797,3.10522,10,14
8.15839,-2.49271,-0.148904,89,7
12.3483,-3.77525,3.45989,25,15
0.554024,-0.170123,-0.155291,12,0
6.75524,-2.0756,0.123354,61,8
0.506652,-0.15577,-0.122373,15,1
0.641751,-0.197428,-0.130513,27,2
10.0809,-3.10321,0.922805,38,10
6.1204,-1.88522,-1.01432,48,3
10.4906,-3.23334,1.34787,68,11
6.45146,-1.98966,-0.828955,50,4
7.33122,-2.26238,1.21518,6,12
5.6217,-1.73698,-0.308363,9,6
12.865,-3.97745,3.10882,17,14
8.14199,-2.51881,-0.148764,32,7
12.3627,-3.8269,3.46766,12,15
6.57611,-2.04571,0.120212,94,8
0.480056,-0.149429,-0.116075,16,1
0.654143,-0.203868,-0.133185,26,2
9.95206,-3.10163,0.911998,52,10
6.24957,-1.94892,-1.03685,57,3
10.4792,-3.26994,1.34787,21,11
6.40847,-2.00093,-0.824324,37,4
5.75244,-1.7983,-0.527292,53,5
5.60195,-1.7534,-0.307631,46,6
17.307,-5.41706,4.18679,9,14
15.9075,-4.98207,-0.290967,31,7
12.3567,-3.87234,3.46973,12,15
6.85465,-2.15995,0.125448,20,8
0.535261,-0.168767,-0.129572,14,1
8.05885,-2.54249,0.442867,60,9
0.664625,-0.209811,-0.135474,25,2
10.218,-3.22565,0.937447,46,10
5.97867,-1.88851,-0.993046,31,3
10.4615,-3.30653,1.34714,18,11
13.5366,-4.28105,-1.74322,11,4
7.29413,-2.30823,1.21174,28,12
6.02123,-1.90658,-0.552567,48,5
20.022,-6.34366,4.08255,16,13
9.21475,-2.92132,-0.506612,17,6
15.7118,-4.98105,3.80527,12,14
15.8587,-5.03067,-0.290408,15,7
11.5801,-3.67564,3.25543,6,15
7.08482,-2.26105,0.129811,97,8
0.504937,-0.161243,-0.122373,15,1
7.95816,-2.54283,0.437843,42,9
0.637707,-0.203764,-0.130132,27,2
10.1796,-3.25459,0.935007,46,10
5.74029,-1.83638,-0.954563,65,3
15.9169,-5.09504,2.05204,26,11
6.07225,-1.94491,-0.782889,3,4
7.30443,-2.34098,1.21487,11,12
5.79445,-1.85705,-0.532347,40,5
8.00069,-2.5672,-0.440355,36,6
14.7527,-4.73658,3.57717,4,14
8.28561,-2.66181,-0.151906,24,7
12.4052,-3.98764,3.49147,1,15
6.72294,-2.17145,0.123319,68,8
0.504371,-0.163005,-0.122373,15,1
7.87322,-2.54602,0.433656,72,9
0.6482,-0.209613,-0.132421,26,2
9.92171,-3.21036,0.912346,16,10
5.72821,-1.85458,-0.953625,62,3
7.14219,-2.31375,0.92182,6,11
5.92757,-1.92141,-0.765096,42,4
15.5507,-5.04374,2.5893,15,12
5.7614,-1.86866,-0.529907,43,5
11.5348,-3.74343,2.35725,35,13
5.60766,-1.82096,-0.308992,37,6
13.3257,-4.32977,3.2348,18,14
5.44651,-1.77073,-0.0999674,4,7
12.4316,-4.04407,3.50286,26,15
6.71152,-2.19366,0.123249,78,8
0.503799,-0.164764,-0.122373,15,1
7.57196,-2.47782,0.417536,35,9
0.647464,-0.211874,-0.132421,26,2
6.20789,-2.03385,-1.03466,12,3
7.11332,-2.33186,0.919139,18,11
5.95101,-1.95199,-0.768996,23,4
15.4223,-5.06164,2.57084,22,12
5.79649,-1.90243,-0.533742,40,5
11.3799,-3.73712,2.32825,20,13
5.60886,-1.84301,-0.30941,59,6
13.2235,-4.34766,3.21365,29,14
7.78244,-2.56024,-0.143005,32,7
12.3789,-4.07475,3.49199,12,15
6.94494,-2.29682,0.127682,92,8
0.503221,-0.166522,-0.122373,15,1
7.55378,-2.5011,0.417013,45,9
0.628083,-0.207962,-0.128605,28,2
10.2868,-3.408,0.94808,31,10
5.71512,-1.89452,-0.953625,40,3
7.03354,-2.33293,0.909877,18,11
6.1043,-2.0259,-0.789713,29,4
12.3544,-4.10257,2.06181,34,12
11.3537,-3.77248,2.32558,9,13
5.60429,-1.86321,-0.309515,28,6
12.1043,-4.02656,2.94506,21,14
5.79831,-1.92997,-0.106669,31,7
14.0142,-4.66732,3.95786,10,15
6.99187,-2.33945,0.128694,85,8
0.484157,-0.162091,-0.117874,16,1
8.48056,-2.84085,0.468721,43,9
0.642246,-0.215142,-0.131658,26,2
5.71596,-1.91697,-0.954876,46,3
7.06299,-2.3701,0.914751,24,11
6.10848,-2.05099,-0.791176,29,4
12.4111,-4.16957,2.0737,30,12
5.9357,-1.99528,-0.547861,38,5
22.4893,-7.55976,4.61185,11,13
14.2376,-4.78873,-0.787238,35,6
12.0865,-4.06755,2.94416,17,14
5.78396,-1.94764,-0.106529,99,7
12.0938,-4.07472,3.41952,4,15
7.43447,-2.51643,0.137001,37,8
0.502046,-0.170031,-0.122373,15,1
7.5891,-2.57172,0.419944,51,9
0.641453,-0.217494,-0.131658,26,2
5.92214,-2.0103,-0.990543,68,3
6.99077,-2.37305,0.906464,65,11
5.88513,-1.99888,-0.763146,34,4
11.7943,-4.0082,1.97295,41,12
5.8457,-1.98776,-0.540191,50,5
14.2742,-4.85656,2.93083,7,13
5.66833,-1.92966,-0.313806,18,6
17.1812,-5.8523,4.19039,15,14
5.76387,-1.96331,-0.106285,47,7
12.0686,-4.11317,3.41641,18,15
0.548309,-0.187728,-0.155291,12,0
6.9863,-2.39331,0.128903,16,8
0.50142,-0.17187,-0.122373,15,1
7.5834,-2.60082,0.420153,36,9
0.635119,-0.217821,-0.130513,27,2
7.19886,-2.47034,0.66587,15,10
5.90948,-2.02903,-0.989605,42,3
6.91444,-2.37543,0.89769,45,11
5.92094,-2.03528,-0.768752,19,4
12.3716,-4.25506,2.07213,45,12
5.81989,-2.00167,-0.538448,12,5
14.2813,-4.91467,2.93579,16,13
5.66345,-1.95008,-0.313911,40,6
13.3357,-4.59446,3.25639,6,14
5.85306,-2.01765,-0.108065,32,7
12.015,-4.14415,3.40554,10,15
7.79228,-2.69984,0.143947,33,8
0.500817,-0.173619,-0.122373,15,1
7.5573,-2.62138,0.419211,47,9
0.639919,-0.221967,-0.131658,26,2
7.76993,-2.69666,0.719558,15,10
5.56088,-1.93106,-0.93235,53,3
6.96236,-2.4191,0.905002,45,11
5.46567,-1.90014,-0.710498,39,4
12.4817,-4.34171,2.09309,52,12
5.83733,-2.03049,-0.540714,13,5
16.0775,-5.59561,3.30901,15,13
5.75657,-2.00465,-0.319459,26,6
13.5846,-4.73331,3.32118,11,14
5.81199,-2.02622,-0.107437,36,7
14.6016,-5.0934,4.14369,12,15
8.6094,-3.01666,0.159236,48,8
0.500207,-0.175366,-0.122373,15,1
7.54056,-2.6451,0.418792,56,9
0.63173,-0.2216,-0.130132,27,2
16.335,-5.73323,1.51459,32,10
5.56342,-1.95373,-0.933914,21,3
19.6424,-6.90177,2.55633,23,11
5.44028,-1.91262,-0.708061,35,4
7.07631,-2.48919,-0.656283,35,5
15.5263,-5.46464,3.19949,31,13
5.64404,-1.98758,-0.313597,25,6
13.3658,-4.70947,3.27169,33,14
5.79545,-2.04317,-0.107262,21,7
11.882,-4.1913,3.37604,11,15
0.499592,-0.177111,-0.122373,15,1
7.4334,-2.63669,0.413349,60,9
0.627252,-0.222491,-0.129368,27,2
7.79973,-2.76816,0.72409,33,10
10.3108,-3.66138,-1.73298,27,3
7.33437,-2.60588,0.9557,18,11
5.47659,-1.94689,-0.713667,19,4
11.7029,-4.16262,1.96732,10,12
7.2553,-2.58064,-0.673714,13,5
14.0367,-4.99549,2.8961,20,13
5.29651,-1.886,-0.294651,48,6
13.8816,-4.94576,3.40216,20,14
5.74308,-2.04728,-0.106425,42,7
16.8256,-6.00126,4.7866,18,15
5.67208,-2.03202,0.105168,15,8
0.476958,-0.170963,-0.116975,16,1
7.43919,-2.66801,0.414187,37,9
0.622776,-0.223354,-0.128605,28,2
7.94192,-2.84988,0.738209,56,10
11.9973,-4.30746,-2.01894,15,3
7.30655,-2.62476,0.953262,47,11
19.7984,-7.12005,3.33237,14,12
5.73887,-2.06386,-0.533567,30,5
14.0432,-5.0531,2.90106,20,13
5.30681,-1.91057,-0.295594,39,6
13.9615,-5.02919,3.426,13,14
5.71708,-2.06053,-0.106076,20,7
15.4743,-5.58025,4.40769,9,15
5.72324,-2.07291,0.10625,28,8
0.498344,-0.180595,-0.122373,15,1
7.78283,-2.82195,0.433865,40,9
0.651523,-0.236234,-0.134711,25,2
7.70155,-2.79401,0.716769,20,10
6.17584,-2.24172,-1.0406,6,3
7.34399,-2.66719,0.959356,27,11
7.09351,-2.57762,-0.926695,55,4
5.3708,-1.95269,0.90513,24,12
5.72976,-2.0832,-0.533393,28,5
14.0255,-5.10209,2.90106,12,13
5.39583,-1.96392,-0.300932,30,6
13.931,-5.07323,3.42286,33,14
7.32004,-2.66717,-0.135989,30,7
14.9883,-5.46417,4.27466,3,15
7.77214,-2.84574,0.144471,27,8
0.49771,-0.182333,-0.122373,15,1
7.96046,-2.91784,0.444332,128,9
0.639635,-0.234453,-0.132421,26,2
16.7228,-6.13293,1.55834,26,10
6.18281,-2.26871,-1.04311,45,3
7.35699,-2.70102,0.96228,24,11
6.68944,-2.45726,-0.875022,19,4
7.26668,-2.67218,-0.677374,25,5
14.0297,-5.15914,2.90564,8,13
7.38519,-2.71722,-0.412407,54,6
13.9717,-5.14337,3.43725,20,14
5.71007,-2.10316,-0.106215,46,7
15.7957,-5.82107,4.5107,8,15
7.80717,-2.88951,0.145309,25,8
0.497071,-0.184069,-0.122373,15,1
5.72341,-2.12056,0.319877,24,9
0.620363,-0.229972,-0.128605,28,2
16.7189,-6.20111,1.56009,26,10
6.15593,-2.28448,-1.03998,43,3
7.36799,-2.73428,0.964962,60,11
5.46004,-2.02732,-0.715129,11,4
5.34223,-1.98463,0.902627,73,12
8.61689,-3.20288,-0.804273,12,5
16.252,-6.04405,3.37045,10,13
5.15888,-1.9196,-0.288476,31,6
13.9784,-5.20406,3.44355,24,14
5.68582,-2.1168,-0.105901,30,7
28.8405,-10.7429,8.24649,6,15
7.80027,-2.91951,0.145379,13,8
0.496393,-0.18589,-0.122373,15,1
7.9375,-2.97403,0.444228,50,9
0.615879,-0.230758,-0.127842,28,2
16.8054,-6.29999,1.5702,20,10
7.84766,-2.94349,-1.3275,45,3
7.63484,-2.86519,1.00128,33,11
5.46372,-2.0515,-0.716592,4,4
5.32012,-1.99864,0.900124,67,12
5.64944,-2.12236,-0.527989,35,5
16.2087,-6.09246,3.36587,2,13
5.15028,-1.93689,-0.288371,46,6
13.9729,-5.25763,3.4467,29,14
5.73043,-2.15735,-0.106879,36,7
15.6849,-5.90808,4.49103,2,15
14.067,-5.32107,0.262519,13,8
0.495741,-0.187622,-0.122373,15,1
8.6686,-3.28251,0.485782,39,9
0.622414,-0.235687,-0.129368,27,2
16.8895,-6.39886,1.58013,37,10
7.8004,-2.95686,-1.32125,33,3
7.42248,-2.81509,0.974711,33,11
5.42126,-2.05718,-0.711961,8,4
5.33343,-2.02491,0.903566,75,12
8.58686,-3.26013,-0.803576,12,5
5.17149,-1.9655,-0.289941,31,6
16.3242,-6.2075,4.03202,24,14
5.73034,-2.18019,-0.107018,26,7
11.8944,-4.52777,3.4102,12,15
13.8073,-5.27803,0.258016,16,8
0.480522,-0.183782,-0.118774,16,1
8.25418,-3.15857,0.463173,120,9
0.614253,-0.235052,-0.127842,28,2
16.5656,-6.34236,1.5519,48,10
11.6398,-4.4588,-1.9742,42,3
7.59797,-2.91202,0.999085,18,11
8.41856,-3.22821,-1.10706,4,4
5.34108,-2.04918,0.906069,100,12
10.6228,-4.0777,-0.995493,17,5
4.95787,-1.90315,1.03228,50,13
5.12545,-1.9685,-0.287743,40,6
16.7226,-6.42592,4.13595,43,14
5.87948,-2.26045,-0.10995,22,7
28.4017,-10.9252,8.15384,12,15
13.5575,-5.23685,0.253688,37,8
0.468971,-0.181243,-0.116075,16,1
8.56537,-3.31197,0.481281,56,9
0.63536,-0.245802,-0.132421,26,2
19.688,-7.62064,1.847,20,10
11.8261,-4.5799,-2.00862,11,3
7.48595,-2.8991,0.985679,31,11
8.35171,-3.23606,-1.09975,6,4
5.30995,-2.05853,0.902001,76,12
10.6122,-4.1162,-0.995842,14,5
4.95453,-1.92273,1.03304,31,13
5.10889,-1.98366,-0.28722,46,6
15.1168,-5.87253,3.74409,17,14
5.72243,-2.22303,-0.107158,52,7
28.3112,-11.0039,8.13882,24,15
13.5345,-5.28505,0.253618,13,8
0.515497,-0.201399,-0.127772,14,1
8.5333,-3.33386,0.48013,65,9
0.623527,-0.24373,-0.130132,27,2
16.6664,-6.51807,1.56567,9,10
7.89909,-3.09085,-1.34346,37,3
8.77231,-3.43606,-1.15678,17,4
5.31745,-2.08282,0.904504,88,12
7.88942,-3.09183,-0.741347,9,5
15.9784,-6.26509,3.3361,11,13
5.15028,-2.02045,-0.289941,43,6
15.1125,-5.93167,3.74813,27,14
5.67369,-2.22692,-0.10639,68,7
28.4722,-11.1811,8.19628,12,15
7.53792,-2.97231,0.141434,37,8
0.474945,-0.187373,-0.117874,16,1
9.19969,-3.63128,0.518335,31,9
0.61902,-0.244463,-0.129368,27,2
16.5842,-6.55278,1.56009,9,10
7.75652,-3.06476,-1.32093,57,3
7.67044,-3.0323,1.01273,18,11
8.7701,-3.46879,-1.158,12,4
5.33035,-2.10936,0.907946,96,12
5.61486,-2.22308,-0.528338,25,5
5.01982,-1.98749,1.04945,6,13
5.2401,-2.07576,-0.295384,21,6
15.2395,-6.03991,3.78458,10,14
5.64915,-2.24008,-0.106076,56,7
35.1004,-13.9256,10.1183,9,15
8.71273,-3.47074,0.163704,10,8
0.492391,-0.196245,-0.122373,15,1
8.5933,-3.42664,0.48484,25,9
0.607264,-0.242151,-0.127079,28,2
5.56831,-2.22153,0.524503,9,10
7.69624,-3.07204,-1.31249,56,3
5.33329,-2.12993,0.705136,32,11
8.82614,-3.52663,-1.16702,8,4
5.31195,-2.12355,0.906069,53,12
10.4742,-4.18937,-0.986952,17,5
5.00556,-2.00208,1.04792,11,13
5.33667,-2.1356,-0.301246,33,6
15.3287,-6.13726,3.81202,27,14
5.65615,-2.26573,-0.106355,57,7
27.9165,-11.1884,8.05859,11,15
0.448048,-0.180296,-0.12941,15,0
6.00691,-2.4172,0.113022,15,8
0.491703,-0.197962,-0.122373,15,1
5.77829,-2.32754,0.326472,54,9
0.628224,-0.253181,-0.131658,26,2
5.586,-2.25235,0.526944,20,10
7.92307,-3.19631,-1.35316,40,3
5.33687,-2.15299,0.706599,32,11
7.20123,-2.90656,-0.953506,37,4
5.23857,-2.11545,0.894805,48,12
10.0605,-4.06469,-0.9493,38,5
5.00547,-2.02336,1.04945,22,13
4.97886,-2.01361,-0.281463,41,6
17.3872,-7.03546,4.33031,12,14
5.62596,-2.27646,-0.105936,41,7
27.9238,-11.3046,8.07205,12,15
0.490974,-0.199763,-0.122373,15,1
8.99588,-3.66199,0.50902,20,9
0.627336,-0.255373,-0.131658,26,2
5.57625,-2.27109,0.526769,15,10
6.53255,-2.6619,-1.11726,25,3
5.31791,-2.16804,0.705136,20,11
8.96978,-3.65867,-1.18944,13,4
5.20883,-2.12568,0.891051,36,12
10.6693,-4.35621,2.2401,8,13
4.95516,-2.02418,-0.280521,41,6
18.8345,-7.69771,4.69743,23,14
4.95865,-2.02762,-0.09351,20,7
15.325,-6.26963,4.43668,16,15
6.0283,-2.47608,0.113755,46,8
0.490274,-0.201476,-0.122373,15,1
5.73562,-2.3582,0.325006,24,9
0.604608,-0.248708,-0.127079,28,2
5.55131,-2.28469,0.5252,22,10
7.75205,-3.192,-1.32782,40,3
5.39842,-2.22286,0.716836,70,11
7.17658,-2.95651,-0.953018,43,4
5.24338,-2.16117,0.898247,14,12
9.99612,-4.12214,-0.945988,22,5
10.1596,-4.19162,2.1363,35,13
4.88678,-2.01718,-0.277067,35,6
18.7971,-7.76297,4.69518,19,14
4.84064,-1.99912,-0.0914157,44,7
5.29703,-2.19844,0.100107,49,8
0.478733,-0.198788,-0.119674,16,1
5.76978,-2.39582,0.327414,51,9
0.618241,-0.256843,-0.130132,27,2
5.50467,-2.28799,0.52154,41,10
11.449,-4.76105,-1.96388,56,3
5.36091,-2.23044,0.712936,45,11
5.2504,-2.18553,0.90075,43,12
9.98535,-4.15854,-0.946337,38,5
10.2119,-4.255,2.15042,22,13
4.97926,-2.07573,-0.282719,25,6
30.207,-12.5987,7.55611,44,14
4.78011,-1.99368,-0.0904035,58,7
29.9163,-12.4836,8.68597,35,15
5.28602,-2.21444,0.100037,74,8
0.488855,-0.204894,-0.122373,15,1
5.76691,-2.41827,0.327728,35,9
0.602857,-0.252923,-0.127079,28,2
5.46174,-2.29254,0.518228,24,10
11.6189,-4.87697,-1.99579,11,3
6.16567,-2.59054,-0.821156,9,4
5.24274,-2.20384,0.90075,29,12
10.5768,-4.44827,-1.00386,21,5
5.32962,-2.24146,1.12387,27,13
4.86742,-2.04807,-0.276753,33,6
29.7897,-12.5408,7.46208,22,14
4.78234,-2.01424,-0.090578,46,7
39.9969,-16.8542,11.6298,13,15
5.26169,-2.22587,0.099723,50,8
0.488137,-0.206599,-0.122373,15,1
5.76763,-2.44227,0.328251,37,9
0.61824,-0.261918,-0.130513,27,2
5.41558,-2.29432,0.514567,50,10
8.67725,-3.67791,-1.4927,7,3
9.72992,-4.1261,1.29766,15,11
9.00919,-3.82232,-1.20163,15,4
5.23683,-2.2229,0.901063,33,12
10.5301,-4.47192,-1.0009,6,5
5.36112,-2.27787,1.13226,35,13
4.84334,-2.05887,-0.275811,30,6
15.8933,-6.75615,3.98703,30,14
4.79,-2.03718,-0.0908572,42,7
15.0582,-6.40735,4.38491,2,15
5.36198,-2.29151,0.101782,24,8
0.465875,-0.199193,-0.116975,16,1
5.74762,-2.45868,0.327623,47,9
0.615471,-0.26341,-0.130132,27,2
5.39248,-2.30788,0.513173,37,10
6.00522,-2.57136,-1.03466,13,3
8.32066,-3.56452,1.11145,27,11
9.88734,-4.23772,-1.32082,35,4
5.12516,-2.19771,0.883229,36,12
8.62219,-3.69904,-0.820833,16,5
5.47361,-2.34939,1.15783,17,13
5.0468,-2.16724,-0.287848,2,6
15.958,-6.8528,4.00953,38,14
4.82292,-2.07209,-0.0916251,32,7
15.1109,-6.4953,4.40717,20,15
5.33703,-2.30401,0.101468,16,8
0.472297,-0.20399,-0.118774,16,1
5.78991,-2.50192,0.330554,34,9
0.607339,-0.262442,-0.128605,28,2
6.00663,-2.59806,-1.03653,27,3
16.0886,-6.96214,2.15246,9,11
9.8262,-4.25421,-1.31473,30,4
5.04819,-2.18664,0.87134,55,12
10.9274,-4.73325,-1.04186,24,5
5.60048,-2.42703,1.18645,24,13
5.06853,-2.19755,-0.289523,2,6
15.2391,-6.61035,3.83497,18,14
5.37478,-2.33256,-0.102271,53,7
15.1756,-6.58911,4.43305,15,15
0.485873,-0.211869,-0.122373,15,1
5.8031,-2.5317,0.33181,39,9
0.592024,-0.25828,-0.125552,29,2
5.45253,-2.37988,0.520494,1,10
6.01744,-2.6277,-1.03998,16,3
9.71744,-4.24545,1.30205,33,11
9.76036,-4.26622,-1.3079,26,4
5.04053,-2.20425,0.87134,70,12
10.92,-4.77536,-1.04273,20,5
5.67831,-2.48433,1.20477,15,13
5.02606,-2.20001,-0.287534,17,6
15.1945,-6.65412,3.82957,13,14
5.38309,-2.35853,-0.102585,53,7
15.5347,-6.80957,4.54486,15,15
6.00719,-2.64323,0.114558,22,8
0.48513,-0.213564,-0.122373,15,1
5.29381,-2.33044,0.30313,31,9
0.619866,-0.273006,-0.131658,26,2
5.4533,-2.40292,0.521366,15,10
6.00461,-2.6471,-1.03935,15,3
9.71891,-4.28655,1.30425,6,11
5.0856,-2.24408,0.880413,62,12
10.402,-4.59217,-0.994796,23,5
5.62471,-2.48431,1.19523,31,13
4.90691,-2.1683,-0.281149,24,6
15.9109,-7.03412,4.01628,41,14
5.14845,-2.27611,-0.098257,22,7
15.2276,-6.73523,4.46152,6,15
5.8467,-2.59578,0.11166,45,8
0.484419,-0.215171,-0.122373,15,1
5.40245,-2.40081,0.309829,29,9
0.615321,-0.273573,-0.130895,27,2
5.19548,-2.311,0.497485,7,10
10.2734,-4.5697,-1.78085,40,3
5.13615,-2.28569,0.690268,40,11
8.62487,-3.84004,-1.15922,27,4
5.12285,-2.28191,0.888235,47,12
9.94551,-4.43219,-0.952612,12,5
5.72045,-2.5493,1.21736,25,13
4.59506,-2.04874,-0.263669,42,6
15.8554,-7.07256,4.00818,16,14
5.22813,-2.33318,-0.0999325,18,7
15.7614,-7.03723,4.6251,11,15
6.03285,-2.70368,0.115395,49,8
0.483665,-0.216861,-0.122373,15,1
5.4382,-2.43832,0.312341,21,9
0.607246,-0.272398,-0.129368,27,2
6.98552,-3.13502,0.669879,15,10
8.85354,-3.97522,-1.53713,26,3
5.14987,-2.31336,0.693193,32,11
9.70686,-4.36243,-1.30668,8,4
5.0558,-2.27217,0.87791,64,12
9.87624,-4.44063,-0.947383,18,5
7.74008,-3.48178,1.64973,39,13
4.58606,-2.06394,-0.263564,42,6
15.6778,-7.05905,3.96949,30,14
5.15472,-2.32095,-0.0986759,23,7
15.7556,-7.09739,4.63027,6,15
5.95644,-2.69319,0.114104,35,8
0.482944,-0.218463,-0.122373,15,1
0.599137,-0.271277,-0.127842,28,2
5.13789,-2.32741,0.493476,20,10
4.62078,-2.09316,-0.803447,22,3
5.12771,-2.32387,0.691243,52,11
9.7303,-4.41181,-1.3118,6,4
5.01366,-2.2743,0.871966,88,12
10.1111,-4.58871,-0.971438,21,5
7.71062,-3.49931,1.64592,22,13
4.58647,-2.08244,-0.263983,31,6
15.7253,-7.14324,3.98748,30,14
4.98274,-2.26447,-0.0955345,46,7
16.7437,-7.61291,4.92843,6,15
5.78735,-2.64477,0.111067,49,8
0.482063,-0.2204,-0.122373,15,1
5.52691,-2.52808,0.318517,29,9
0.599877,-0.274392,-0.128224,28,2
4.64827,-2.12814,-0.809705,57,3
5.10029,-2.33617,0.688806,61,11
6.17364,-2.82912,-0.83383,31,4
4.9991,-2.29193,0.871027,96,12
12.6144,-5.78333,-1.21408,20,5
5.42664,-2.48909,1.1605,21,13
4.5817,-2.1025,-0.264192,47,6
4.7501,-2.18179,-0.0912412,40,7
16.6568,-7.65425,4.91187,9,15
5.72905,-2.64234,0.110125,48,8
0.498985,-0.230246,-0.126872,15,1
5.80638,-2.68046,0.33516,30,9
0.584655,-0.269901,-0.125171,29,2
5.13154,-2.37002,0.494522,52,10
4.59598,-2.12364,-0.801883,41,3
5.0867,-2.35146,0.688074,47,11
4.45929,-2.06237,-0.603253,13,4
4.98031,-2.30439,0.86915,91,12
8.62696,-3.9917,-0.83164,13,5
7.6681,-3.54966,1.64248,25,13
4.54896,-2.10673,-0.262727,47,6
5.42296,-2.51266,1.37985,13,14
4.65174,-2.15631,-0.0894959,41,7
16.2024,-7.51403,4.78556,12,15
5.76693,-2.68426,0.111032,52,8
0.480512,-0.22376,-0.122373,15,1
5.71008,-2.66023,0.330135,46,9
0.612183,-0.285206,-0.131277,27,2
5.12324,-2.38792,0.494522,58,10
4.19646,-1.95684,-0.733365,46,3
5.67032,-2.64532,0.768264,20,11
4.45925,-2.08128,-0.604228,33,4
4.97761,-2.32427,0.870089,61,12
7.74283,-3.61548,-0.747622,15,5
5.40379,-2.52442,1.15936,18,13
4.51987,-2.11245,-0.26147,42,6
5.42652,-2.53735,1.383,26,14
4.65687,-2.17846,-0.0897403,42,7
15.8664,-7.4256,4.69394,13,15
5.7358,-2.69417,0.110613,33,8
0.479728,-0.225436,-0.122373,15,1
5.73691,-2.69714,0.332229,34,9
0.611184,-0.287341,-0.131277,27,2
5.10225,-2.39985,0.493302,52,10
4.33975,-2.04213,-0.759646,36,3
5.75624,-2.70991,0.781183,57,11
9.58097,-4.51255,-1.30035,9,4
7.72313,-3.63917,1.35222,9,12
7.6779,-3.61786,-0.742567,19,5
7.63071,-3.59725,1.63981,33,13
4.51247,-2.12822,-0.26147,15,6
5.39295,-2.54463,1.3767,20,14
4.62573,-2.18361,-0.0892865,26,7
13.2166,-6.24182,3.91645,12,15
8.21279,-3.89269,0.158642,15,8
0.478938,-0.227109,-0.122373,15,1
5.86641,-2.78307,0.340288,20,9
0.581797,-0.276009,-0.125171,29,2
5.08664,-2.41423,0.492604,71,10
4.49676,-2.13522,-0.78843,31,3
5.7306,-2.72232,0.778989,40,11
6.03313,-2.86732,-0.820181,4,4
7.64903,-3.63694,-0.740998,33,5
7.62342,-3.62639,1.64096,25,13
4.45451,-2.11992,-0.25854,7,6
5.33299,-2.54028,-0.103109,19,7
5.40102,-2.57384,1.60313,9,15
8.00793,-3.82988,0.154942,12,8
0.457048,-0.218687,-0.116975,16,1
5.85846,-2.80439,0.340393,50,9
0.60208,-0.28821,-0.12975,27,2
5.0674,-2.42681,0.491558,37,10
4.35389,-2.08603,-0.764652,40,3
5.69601,-2.73029,0.775577,20,11
8.5773,-4.11324,-1.168,19,4
4.89778,-2.34978,0.86039,77,12
7.63988,-3.66534,-0.741347,9,5
13.6462,-6.54988,2.94227,8,13
4.43268,-2.12854,-0.257702,30,6
8.7494,-4.20328,2.24096,10,14
5.34031,-2.56668,-0.103423,25,7
8.00878,-3.85092,2.38114,16,15
12.7113,-6.13391,0.246358,5,8
0.477341,-0.230448,-0.122373,15,1
5.72094,-2.76315,0.332961,37,9
0.590463,-0.285187,-0.12746,28,2
5.04635,-2.43841,0.490338,22,10
4.33413,-2.0952,-0.762462,38,3
5.45234,-2.63694,0.743647,45,11
14.1077,-6.826,-1.92432,23,4
4.89133,-2.36772,0.860703,91,12
14.0011,-6.78048,-1.36102,5,5
13.5614,-6.56752,2.92892,18,13
4.43601,-2.14923,-0.25833,37,6
5.35831,-2.59839,-0.103947,30,7
7.34698,-3.56433,2.18806,48,15
5.74078,-2.795,0.111451,13,8
0.476534,-0.232112,-0.122373,15,1
5.62329,-2.74023,0.327832,39,9
0.592943,-0.28907,-0.128224,28,2
5.0517,-2.46388,0.491733,48,10
4.38323,-2.13879,-0.772473,26,3
5.41634,-2.64289,0.739991,27,11
14.0963,-6.8813,-1.92602,36,4
5.00196,-2.44286,0.881665,41,12
7.64389,-3.73478,-0.74431,20,5
13.5549,-6.6258,2.93273,10,13
4.44963,-2.176,-0.259586,40,6
5.26367,-2.57523,1.35286,35,14
5.39052,-2.63729,-0.104749,25,7
7.2755,-3.56108,2.17046,26,15
5.72691,-2.81426,0.111381,39,8
0.47568,-0.233857,-0.122373,15,1
5.54689,-2.72821,0.32396,35,9
0.584884,-0.287672,-0.126697,28,2
4.38814,-2.16019,-0.774664,28,3
5.6221,-2.76885,0.769483,27,11
9.58007,-4.72021,-1.31131,26,4
7.7889,-3.83937,1.37537,63,12
12.8748,-6.34913,-1.25591,10,5
13.5405,-6.67742,2.93464,30,13
4.39544,-2.16855,-0.256865,45,6
5.24591,-2.58927,1.35061,23,14
4.617,-2.27986,-0.0898799,31,7
7.27798,-3.59542,2.17512,22,15
5.73496,-2.84312,0.11173,28,8
0.474861,-0.235516,-0.122373,15,1
5.53376,-2.74578,0.32375,41,9
0.569757,-0.28283,-0.123644,29,2
5.12316,-2.54427,0.500448,43,10
5.62208,-2.79327,-0.994298,10,3
5.63906,-2.80171,0.773139,5,11
9.57242,-4.75804,-1.31253,41,4
5.32218,-2.64659,0.941423,26,12
12.9435,-6.43929,-1.2648,5,5
13.5089,-6.72351,2.93312,9,13
4.39461,-2.1882,-0.257284,45,6
7.30163,-3.63728,1.88329,37,14
4.59648,-2.28972,-0.0896356,46,7
5.22859,-2.60574,1.56534,38,15
5.7245,-2.86412,0.11173,16,8
0.473994,-0.237255,-0.122373,15,1
5.58259,-2.79555,0.327204,29,9
0.565256,-0.283059,-0.122881,30,2
4.96283,-2.48629,0.485632,30,10
5.6017,-2.80757,-0.99242,47,3
6.89398,-3.45677,0.946925,24,11
9.51588,-4.77351,-1.30717,38,4
5.30539,-2.66253,0.940171,48,12
17.0415,-8.55237,-1.66816,7,5
7.6866,-3.85923,1.67187,15,13
4.39587,-2.20801,-0.257807,22,6
7.30282,-3.66974,1.88689,34,14
4.45942,-2.24188,-0.0871224,14,7
5.23281,-2.63183,1.56948,60,15
7.69963,-3.88599,0.150544,6,8
0.452289,-0.228368,-0.116975,16,1
8.04366,-4.06314,0.47228,31,9
0.588797,-0.297423,-0.128224,28,2
4.95946,-2.50629,0.486155,58,10
5.45236,-2.75777,0.750228,20,11
15.3443,-7.76439,-2.11151,28,4
5.32954,-2.69799,0.946116,67,12
12.7738,-6.4665,-1.2526,10,5
7.70811,-3.90378,1.6795,19,13
4.40239,-2.23056,-0.258644,30,6
7.32994,-3.71548,1.89724,54,14
4.41055,-2.23663,-0.0863196,38,7
5.21153,-2.64396,1.56586,77,15
5.26777,-2.68174,0.103179,20,8
0.437597,-0.22287,-0.113375,16,1
5.2088,-2.65402,0.306375,12,9
0.60175,-0.306607,-0.131277,27,2
4.97376,-2.53535,0.488421,52,10
4.74431,-2.41944,-0.843495,37,3
5.48337,-2.79753,0.755834,40,11
14.357,-7.32788,-1.97916,2,4
5.33593,-2.72466,0.948932,49,12
8.1067,-4.14127,-0.796429,30,5
5.47754,-2.79818,1.19561,25,13
4.42481,-2.26137,-0.260424,27,6
7.21977,-3.69136,1.87204,43,14
4.39203,-2.24655,-0.0861102,38,7
5.14036,-2.63046,1.54722,35,15
5.23347,-2.68733,0.10269,20,8
0.471484,-0.242206,-0.122373,15,1
5.15155,-2.64753,0.303549,32,9
0.565702,-0.290856,-0.123644,29,2
5.31347,-2.7331,0.52276,16,10
4.75649,-2.44765,-0.847249,50,3
5.65891,-2.91203,0.781426,10,11
14.4654,-7.447,-1.99768,18,4
7.52683,-3.87657,1.34096,49,12
8.11699,-4.18232,-0.798869,21,5
5.61209,-2.8929,1.22728,20,13
4.44667,-2.29313,-0.262203,28,6
7.17155,-3.69993,1.86304,43,14
4.36462,-2.25178,-0.0857262,35,7
6.84954,-3.53531,2.06538,32,15
5.19873,-2.69361,0.102201,38,8
0.444641,-0.23048,-0.115625,16,1
5.09748,-2.64341,0.300932,9,9
0.568169,-0.294637,-0.124407,29,2
5.29682,-2.74796,0.522063,18,10
4.75669,-2.46879,-0.848813,50,3
5.75038,-2.98581,0.795563,92,11
8.14739,-4.23223,-1.12729,34,4
7.89293,-4.1018,1.40885,41,12
8.12356,-4.22165,-0.800961,18,5
4.45813,-2.31878,-0.263355,36,6
7.1534,-3.72224,1.86169,12,14
4.29071,-2.2336,-0.0844347,37,7
6.95476,-3.62196,2.10109,61,15
5.19461,-2.71452,0.102306,37,8
0.492189,-0.25731,-0.128222,14,1
5.07406,-2.65378,0.300094,11,9
0.570616,-0.298438,-0.125171,29,2
5.0118,-2.62233,0.49487,35,10
4.74454,-2.48355,-0.848188,22,3
5.6221,-2.94416,0.779233,47,11
13.1123,-6.86954,-1.81756,10,4
7.38342,-3.86981,1.32031,50,12
14.0664,-7.37249,-1.38944,23,5
4.46947,-2.34453,-0.264506,34,6
4.27049,-2.24206,-0.0841904,43,7
6.913,-3.63095,2.09229,35,15
5.19925,-2.7401,0.102585,26,8
0.453364,-0.239032,-0.118324,16,1
4.97467,-2.62396,0.294756,20,9
0.573044,-0.30226,-0.125934,29,2
5.00262,-2.63981,0.49487,52,10
8.09687,-4.27442,-1.45015,47,3
5.68375,-3.00178,0.789226,65,11
5.7078,-3.01575,-0.792638,5,4
7.39432,-3.90848,1.32469,56,12
9.7558,-5.15889,-0.965511,20,5
5.29513,-2.80008,1.16432,15,13
4.47538,-2.36759,-0.265343,28,6
7.64568,-4.04647,1.99712,32,14
4.23613,-2.24291,-0.0836668,37,7
13.3089,-7.04968,4.03551,7,15
12.6607,-6.72899,0.250268,16,8
0.449086,-0.238783,-0.117424,16,1
4.96901,-2.64318,0.294965,22,9
0.589264,-0.313581,-0.12975,27,2
4.99467,-2.65907,0.495045,67,10
15.3498,-8.1754,-2.7545,15,3
5.79413,-3.08599,0.806044,85,11
13.1219,-6.99172,-1.8256,2,4
7.34577,-3.91569,1.31843,67,12
12.6227,-6.73138,-1.25156,2,5
5.1705,-2.75847,1.13913,17,13
4.44024,-2.36987,-0.263773,28,6
7.45374,-3.97993,1.95078,48,14
4.2124,-2.24921,-0.0833527,35,7
13.2655,-7.08608,4.02981,23,15
6.20696,-3.32814,0.122935,19,8
0.451642,-0.24227,-0.118324,16,1
4.94345,-2.65288,0.294023,27,9
0.584706,-0.313779,-0.128987,13,2
4.96429,-2.66518,0.492953,71,10
15.3838,-8.26258,-2.76576,9,3
5.73557,-3.08183,0.799463,57,11
15.1838,-8.16199,-2.11663,4,4
7.42358,-3.99217,1.33501,63,12
6.07494,-3.26692,-0.603466,15,5
5.09342,-2.74023,1.12425,30,13
4.44953,-2.39482,-0.26482,21,6
7.45181,-4.01239,1.95392,58,14
4.22349,-2.27507,-0.0837367,27,7
13.554,-7.3042,4.12558,6,15
5.36152,-2.89896,0.10639,1,8
0.447366,-0.241991,-0.117424,16,1
4.91484,-2.65966,0.292872,25,9
0.552527,-0.299,-0.122118,15,2
4.84107,-2.62083,0.481623,80,10
7.8581,-4.25595,-1.41542,16,3
5.61952,-3.04608,-0.784839,11,4
7.16996,-3.88811,1.29184,74,12
6.02321,-3.26626,-0.599457,26,5
5.09072,-2.76174,1.12577,32,13
5.54879,-3.0115,-0.330868,26,6
7.49941,-4.07185,1.97012,45,14
4.18565,-2.27357,-0.0831433,42,7
7.63161,-4.14708,2.3273,19,15
5.34259,-2.91287,0.106215,28,8
0.467048,-0.254748,-0.122823,15,1
4.90903,-2.67871,0.293081,30,9
0.575608,-0.314092,-0.12746,28,2
4.79692,-2.61862,0.478136,54,10
7.86574,-4.29566,-1.41949,18,3
5.67907,-3.10276,0.794588,2,11
5.60712,-3.06472,-0.784595,13,4
7.11995,-3.89321,1.28527,84,12
5.26362,-2.87936,1.16622,14,13
8.54828,-4.67811,-0.510694,49,6
7.6954,-4.21311,2.02546,12,14
4.16541,-2.28144,-0.0828989,61,7
8.14398,-4.4624,2.48829,7,15
5.53566,-3.04326,0.110264,37,8
0.466156,-0.256377,-0.122823,15,1
4.91715,-2.70546,0.294128,20,9
0.577948,-0.317992,-0.128224,28,2
4.82091,-2.65361,0.481448,60,10
5.6543,-3.11491,0.792638,37,11
5.58248,-3.07661,-0.782645,32,4
7.4298,-4.0964,1.34377,23,12
4.4544,-2.45592,-0.445017,38,5
5.10398,-2.81522,1.13302,27,13
7.57658,-4.1825,1.99802,25,14
4.22569,-2.33367,-0.0842602,40,7
5.5285,-3.0645,0.110334,60,8
0.465258,-0.258003,-0.122823,15,1
7.98327,-4.42884,0.478455,73,9
0.5631,-0.312388,-0.125171,29,2
4.85865,-2.69652,0.486155,45,10
5.62841,-3.12501,-1.01964,57,3
6.63775,-3.68694,0.932301,40,11
7.23575,-4.02075,-1.01639,30,4
7.21518,-4.01097,1.30748,21,12
4.34654,-2.41627,-0.435081,43,5
8.12589,-4.5191,1.80734,30,13
4.88515,-2.71792,-0.292977,17,6
7.52618,-4.18902,1.98857,6,14
4.37127,-2.43401,-0.0873318,39,7
7.54895,-4.20514,2.3154,17,15
5.53348,-3.09256,0.110648,53,8
0.464355,-0.259625,-0.122823,15,1
7.8562,-4.39428,0.471756,39,9
0.575714,-0.322019,-0.128224,28,2
4.83356,-2.70471,0.484586,60,10
4.27817,-2.39491,-0.776541,10,3
6.55037,-3.66838,0.92182,27,11
7.19916,-4.03337,-1.01322,31,4
4.32939,-2.42656,-0.43421,56,5
8.11349,-4.54935,1.80811,29,13
4.5917,-2.57569,-0.275915,11,6
7.65256,-4.29442,2.02591,1,14
4.37146,-2.45415,-0.0875064,18,7
7.50896,-4.21728,2.30763,21,15
5.51046,-3.10498,0.110404,52,8
0.463445,-0.261245,-0.122823,15,1
7.8182,-4.40893,0.470396,60,9
0.560906,-0.316312,-0.125171,29,2
4.82062,-2.71961,0.484237,52,10
4.25602,-2.40206,-0.774038,37,3
6.80545,-3.8425,0.959599,20,11
7.16775,-4.04872,-1.01078,31,4
6.95483,-3.93005,1.26524,50,12
4.30875,-2.4348,-0.43299,38,5
8.08218,-4.56895,1.80467,45,13
7.34689,-4.15498,-0.442344,7,6
7.61039,-4.30575,2.01871,16,14
4.76139,-2.69496,-0.0954996,4,7
7.45217,-4.21967,2.29469,37,15
5.44569,-3.09358,0.109322,33,8
7.60656,-4.32464,0.458568,14,9
0.566625,-0.322149,-0.126697,28,2
4.8492,-2.75809,0.488072,46,10
6.88476,-3.91745,-1.2546,52,3
6.89206,-3.92319,0.973736,24,11
7.18635,-4.09238,-1.01542,8,4
7.06465,-4.0247,1.28777,65,12
8.06447,-4.59616,1.80429,12,13
4.55278,-2.59581,-0.274659,8,6
7.59193,-4.33036,2.01781,5,14
4.76064,-2.71652,-0.0956741,61,7
13.0142,-7.42918,4.01532,11,15
5.68126,-3.25369,0.114278,38,8
0.478519,-0.274161,-0.127322,15,1
5.33878,-3.06002,0.322494,27,9
0.55187,-0.316315,-0.123644,29,2
4.84127,-2.77599,0.488246,58,10
10.9183,-6.26309,-1.9936,13,3
6.83872,-3.9245,0.96813,24,11
7.22195,-4.1461,-1.02248,38,4
7.01116,-4.02671,1.28057,63,12
8.08243,-4.64385,1.81192,19,13
4.53157,-2.60472,-0.273926,44,6
7.69164,-4.42289,2.0484,1,14
4.73206,-2.72215,-0.0952901,46,7
12.9396,-7.44661,4.00031,25,15
6.00237,-3.46547,0.12098,45,8
0.440435,-0.254387,-0.117424,16,1
4.95798,-2.8648,0.300094,29,9
