x, y, z, intensity, ring
-1.54083,-1.6987,0.363241,2,12
-1.57784,-1.7389,0.456415,1,13
-1.0931,-1.20341,-0.0283776,5,7
-1.47065,-1.61849,0.585966,1,15
-0.343506,-0.376979,-0.136656,14,0
-1.12462,-1.23421,0.0291455,192,8
-0.332134,-0.364372,-0.113825,16,1
-1.37802,-1.51125,0.107184,4,9
-1.49337,-1.6366,0.193834,1,10
-1.54306,-1.69045,0.281031,1,11
-1.5654,-1.71373,0.367621,1,12
-1.57096,-1.71861,0.452599,1,13
-1.10269,-1.20549,-0.0285172,6,7
-1.46325,-1.5991,0.58079,1,15
-1.13725,-1.23892,0.0293549,191,8
-0.333468,-0.363152,-0.113825,16,1
-1.38085,-1.50324,0.106975,4,9
-1.49907,-1.63137,0.193834,1,10
-1.56268,-1.6994,0.283468,1,11
-1.569,-1.70508,0.366995,2,12
-1.56897,-1.70445,0.450309,1,13
-1.10575,-1.19997,-0.0284823,7,7
-1.47696,-1.60225,0.583896,1,15
-0.343507,-0.371734,-0.135621,15,0
-1.14293,-1.23641,0.0293899,189,8
-0.361194,-0.390601,-0.122823,15,1
-1.37524,-1.48669,0.106137,4,9
-1.49935,-1.62028,0.193137,1,10
-1.56321,-1.68811,0.282493,1,11
-1.56957,-1.69379,0.365744,2,12
-1.57758,-1.70184,0.451072,1,13
-1.51146,-1.62823,0.595284,1,15
-1.14996,-1.23534,0.0294597,189,8
-0.343963,-0.369372,-0.116525,16,1
-1.38697,-1.48943,0.106661,4,9
-1.49684,-1.60629,0.192091,1,10
-1.53389,-1.64489,0.276156,1,11
-1.57248,-1.68569,0.365118,1,12
-1.57815,-1.69059,0.449546,1,13
-1.48519,-1.58933,0.582861,1,15
-0.39629,-0.422893,-0.155291,12,0
-1.15542,-1.23298,0.0294946,191,8
-1.39489,-1.48749,0.10687,4,9
-1.51608,-1.61559,0.193834,1,10
-1.53934,-1.6398,0.276156,1,11
-1.57295,-1.67443,0.363867,1,12
-1.59451,-1.69679,0.452599,1,13
-1.48544,-1.57851,0.58079,1,15
-0.397691,-0.421576,-0.155291,12,0
-1.15697,-1.22603,0.0294248,100,8
-0.338443,-0.35852,-0.113825,16,1
-1.3891,-1.47099,0.106033,4,9
-1.48859,-1.57579,0.189651,1,10
-1.53414,-1.62288,0.274206,1,11
-1.5815,-1.6718,0.364492,1,12
-1.58962,-1.6798,0.449546,1,13
-1.48828,-1.57051,0.579755,1,15
-0.35126,-0.369763,-0.136656,14,0
-1.40799,-1.48061,0.107079,4,9
-0.40046,-0.421113,-0.112959,16,2
-1.52704,-1.60523,0.193834,1,10
-1.49873,-1.57438,0.266894,1,11
-1.56552,-1.64339,0.359486,1,12
-1.59277,-1.6714,0.448783,1,13
-1.6125,-1.69093,0.539433,1,14
-1.50709,-1.57928,0.584931,1,15
-0.333853,-0.348992,-0.12941,15,0
-0.367889,-0.384302,-0.122823,15,1
-1.39796,-1.45982,0.105928,3,9
-1.52712,-1.59413,0.193137,1,10
-1.55642,-1.62359,0.276156,1,11
-1.5521,-1.61795,0.355106,1,12
-1.62034,-1.6885,0.454889,1,13
-1.6022,-1.66842,0.534034,1,14
-1.50992,-1.57123,0.583896,1,15
-1.16558,-1.20953,0.02932,6,8
-0.350294,-0.363374,-0.116525,16,1
-1.40305,-1.45493,0.105928,3,9
-1.53821,-1.59453,0.193834,1,10
-1.54554,-1.60101,0.273231,1,11
-1.54951,-1.604,0.353229,1,12
-1.57711,-1.63201,0.44115,1,13
-1.61885,-1.67403,0.537633,1,14
-1.51002,-1.56039,0.581825,1,15
-1.16701,-1.20258,0.0292502,7,8
-1.41621,-1.45887,0.106556,4,9
-1.52155,-1.56629,0.191045,1,10
-1.53174,-1.57568,0.269819,1,11
-1.56583,-1.61018,0.355732,1,12
-1.56637,-1.60961,0.436571,1,13
-1.61352,-1.65748,0.534034,1,14
-1.5691,-1.61073,0.602531,1,15
-1.16401,-1.19155,0.0290757,6,8
-0.343225,-0.351225,-0.113375,16,1
-1.41964,-1.45273,0.106451,4,9
-1.53788,-1.57263,0.19244,1,10
-1.57306,-1.60748,0.276156,1,11
-1.5684,-1.60216,0.355106,1,12
-1.58818,-1.62123,0.44115,1,13
-1.61628,-1.64934,0.533134,1,14
-1.53927,-1.56966,0.589072,1,15
-1.17636,-1.19624,0.0292851,5,8
-0.344388,-0.350085,-0.113375,16,1
-1.42751,-1.45062,0.106661,4,9
-1.5375,-1.56184,0.191743,1,10
-1.59231,-1.61639,0.278593,1,11
-1.56566,-1.58823,0.353229,1,12
-1.59355,-1.61596,0.44115,1,13
-1.62476,-1.64646,0.534034,1,14
-1.18475,-1.19639,0.0293899,4,8
-0.373037,-0.376569,-0.122373,15,1
-1.4185,-1.43144,0.105614,4,9
-1.56005,-1.57317,0.193834,1,10
-1.5616,-1.57418,0.272256,1,11
-1.58233,-1.59397,0.355732,1,12
-1.59946,-1.61011,0.44115,1,13
-1.59781,-1.60732,0.523236,1,14
-1.20043,-1.20337,0.0296691,1,8
-1.42773,-1.43072,0.105928,4,9
-1.21356,-1.21526,0.150256,1,10
-1.56455,-1.56564,0.271769,1,11
-1.58509,-1.58565,0.355106,1,12
-1.58841,-1.58786,0.436571,1,13
-1.60865,-1.60753,0.525036,1,14
-1.19875,-1.19373,0.0295295,1,8
-0.375657,-0.373956,-0.122373,15,1
-1.4268,-1.42034,0.105509,2,9
-1.18934,-1.18313,0.14677,3,10
-1.57677,-1.56744,0.272987,1,11
-1.57913,-1.56924,0.352603,1,12
-1.60203,-1.59088,0.438861,1,13
-1.60844,-1.59669,0.523236,1,14
-1.17426,-1.16163,0.0288314,3,8
-0.376895,-0.372708,-0.122373,15,1
-1.42039,-1.40412,0.104672,2,9
-1.19042,-1.17638,0.146422,4,10
-1.58196,-1.5622,0.272987,1,11
-1.59866,-1.5776,0.355732,1,12
-1.61568,-1.59383,0.44115,1,13
-1.62511,-1.60201,0.526835,1,14
-1.63497,-1.61061,0.614954,1,15
-1.18117,-1.16032,0.0289012,3,8
-0.378193,-0.37139,-0.122373,15,1
-1.29985,-1.27603,0.0954608,1,9
-1.18599,-1.16384,0.145376,4,10
-1.60441,-1.57335,0.275912,1,11
-1.60416,-1.57201,0.355732,1,12
-1.6016,-1.56895,0.435808,1,13
-1.6474,-1.61269,0.532234,1,14
-1.18807,-1.15899,0.028971,3,8
-1.14984,-1.12091,0.0841562,1,9
-1.20431,-1.1736,0.147119,2,10
-1.58699,-1.54435,0.350726,1,12
-1.60425,-1.56061,0.435045,1,13
-1.64463,-1.59878,0.529535,1,14
-1.21222,-1.17431,0.0294597,1,8
-0.380777,-0.368741,-0.122373,15,1
-1.15375,-1.11689,0.0841562,1,9
-1.19695,-1.1583,0.145724,1,10
-1.18726,-1.14812,0.202791,1,11
-1.581,-1.52782,0.348223,1,12
-1.60969,-1.555,0.435045,1,13
-1.63058,-1.57408,0.523236,1,14
-1.22454,-1.17882,0.0296691,1,8
-0.381933,-0.367543,-0.122373,15,1
-1.16301,-1.1188,0.0845749,2,9
-1.16611,-1.12139,0.141541,1,10
-1.22521,-1.1774,0.20864,1,11
-1.61714,-1.55295,0.355106,1,12
-1.6174,-1.55266,0.435808,1,13
-1.66083,-1.59323,0.531334,1,14
-1.2142,-1.16072,0.02932,1,8
-1.18424,-1.13129,0.085831,2,9
-1.14841,-1.09668,0.138926,2,10
-1.19485,-1.14023,0.202791,1,11
-1.62541,-1.55002,0.355732,1,12
-1.60576,-1.53075,0.431228,1,13
-1.65227,-1.57398,0.526835,1,14
-1.17473,-1.11517,0.0282729,1,8
-0.38449,-0.364867,-0.122373,15,1
-1.18238,-1.12165,0.0854123,4,9
-1.14789,-1.08855,0.138403,2,10
-1.17577,-1.1142,0.198891,1,11
-1.66237,-1.57422,0.362615,1,12
-1.61965,-1.53323,0.433518,1,13
-1.65492,-1.56553,0.525936,1,14
-1.16407,-1.09735,0.0279239,1,8
-0.385761,-0.363523,-0.122373,15,1
-1.17902,-1.11067,0.0848889,4,9
-1.13573,-1.06951,0.136486,3,10
-1.15941,-1.09104,0.195478,1,11
-1.63071,-1.53295,0.435045,1,13
-1.66037,-1.55974,0.525936,1,14
-1.67329,-1.57077,0.614954,1,15
-1.16789,-1.09328,0.0279239,1,8
-0.387028,-0.362174,-0.122373,15,1
-1.17833,-1.10266,0.0845749,4,9
-1.15837,-1.08323,0.138752,3,10
-1.16321,-1.08699,0.195478,1,11
-1.65901,-1.54868,0.44115,1,13
-1.64871,-1.53798,0.520537,1,14
-1.69261,-1.57839,0.62013,1,15
-1.17297,-1.09076,0.0279588,2,8
-0.388227,-0.360889,-0.122373,15,1
-1.17193,-1.08902,0.0838422,5,9
-1.15193,-1.06969,0.137532,4,10
-1.16972,-1.08583,0.195966,3,11
-1.68141,-1.55919,0.44573,1,13
-1.66809,-1.54575,0.525036,1,14
-1.66976,-1.54622,0.609778,1,15
-1.15768,-1.06902,0.027505,3,8
-0.389484,-0.359532,-0.122373,15,1
-1.1948,-1.10253,0.0852029,5,9
-1.14961,-1.06046,0.136835,2,10
-1.14869,-1.05887,0.191822,3,11
-1.66952,-1.53735,0.44115,1,13
-1.66488,-1.532,0.522336,1,14
-1.64671,-1.51423,0.599425,1,15
-1.1673,-1.07038,0.0276446,3,8
-0.390737,-0.35817,-0.122373,15,1
-1.19275,-1.09296,0.0847843,5,9
-1.15184,-1.05509,0.13666,2,10
-1.16556,-1.06691,0.194016,4,11
-1.67487,-1.53151,0.44115,1,13
-1.69035,-1.54459,0.528635,1,14
-1.68622,-1.53974,0.611848,1,15
-1.16215,-1.05822,0.0274352,3,8
-0.391985,-0.356804,-0.122373,15,1
-1.18751,-1.08093,0.0841562,5,9
-1.16141,-1.05643,0.137357,2,10
-1.17662,-1.06951,0.195235,4,11
-1.69285,-1.53606,0.527735,1,14
-1.67415,-1.51856,0.605637,1,15
-1.17307,-1.06107,0.0276097,2,8
-0.393166,-0.355502,-0.122373,15,1
-1.18535,-1.07142,0.0837375,5,9
-1.16805,-1.05504,0.137706,3,10
-1.18163,-1.06694,0.195478,6,11
-1.70372,-1.53566,0.529535,1,14
-1.71676,-1.54632,0.619095,1,15
-1.19016,-1.06899,0.0279239,1,8
-1.19503,-1.07261,0.0841562,4,9
-1.16857,-1.0485,0.137357,4,10
-1.18387,-1.06148,0.195235,6,11
-1.82524,-1.63367,0.565527,1,14
-1.70199,-1.52229,0.611848,1,15
-1.16403,-1.03821,0.0272258,1,8
-0.395638,-0.352748,-0.122373,15,1
-1.19429,-1.06445,0.0838422,2,9
-1.17817,-1.04972,0.138055,4,10
-1.18757,-1.05734,0.195235,7,11
-1.71596,-1.52404,0.614954,1,15
-1.17364,-1.03944,0.0273654,1,8
-0.396867,-0.351365,-0.122373,15,1
-1.19949,-1.0616,0.0839469,2,9
-1.17586,-1.04032,0.137357,4,10
-1.18976,-1.05187,0.194991,7,11
-1.69809,-1.49759,0.606672,1,15
-1.20129,-1.05647,0.0279239,1,8
-0.398091,-0.349978,-0.122373,15,1
-1.19119,-1.04685,0.0831095,2,9
-1.19146,-1.04672,0.138752,2,10
-1.19045,-1.0451,0.194503,7,11
-1.71202,-1.49929,0.609778,1,15
-1.22304,-1.06806,0.0283427,1,8
-0.39931,-0.348586,-0.122373,15,1
-1.19484,-1.04269,0.0831095,2,9
-1.16358,-1.01505,0.135091,2,10
-1.20007,-1.04615,0.195478,7,11
-1.72016,-1.49584,0.610813,1,15
-1.22676,-1.06378,0.0283427,1,8
-1.21205,-1.05028,0.0840516,2,9
-1.18519,-1.02664,0.137183,4,10
-1.20071,-1.03936,0.194991,7,11
-1.73707,-1.49993,0.614954,1,15
-1.19107,-1.02557,0.0274352,1,8
-1.23218,-1.06059,0.0852029,3,9
-1.18423,-1.0186,0.13666,4,10
-1.21638,-1.04551,0.196941,7,11
-1.2279,-1.05021,0.0282031,1,8
-1.23588,-1.05628,0.0852029,4,9
-1.19232,-1.01834,0.137183,4,10
-1.20323,-1.02729,0.19426,7,11
-1.21936,-1.03556,0.0279239,1,8
-1.22737,-1.04163,0.0843656,5,9
-1.1957,-1.01438,0.137183,2,10
-1.20227,-1.01924,0.193529,6,11
-2.24176,-1.89711,0.678002,1,14
-1.231,-1.03733,0.0843656,4,9
-1.2038,-1.01405,0.137706,2,10
-1.21797,-1.02526,0.195478,6,11
-2.56647,-2.15811,0.651804,1,13
-2.33788,-1.9645,0.704997,1,14
-2.12153,-1.78144,0.742293,1,15
-1.24209,-1.03966,0.0848889,4,9
-1.19816,-1.00218,0.13666,2,10
-1.22763,-1.0261,0.196453,4,11
-2.93323,-2.45082,0.605401,1,12
-2.5755,-2.1504,0.652185,2,13
-2.35485,-1.96548,0.708146,1,14
-2.10517,-1.75583,0.734528,2,15
-1.25782,-1.04575,0.0857263,4,9
-1.19688,-0.994377,0.136137,2,10
-1.22034,-1.01314,0.194747,4,11
-2.89574,-2.40324,0.596015,2,12
-2.57959,-2.13934,0.651422,2,13
-2.34936,-1.94771,0.704547,1,14
-2.11396,-1.75131,0.735564,2,15
-1.4646,-1.2099,0.0331596,1,8
-1.2659,-1.04538,0.0860403,3,9
-1.20478,-0.994206,0.13666,2,10
-1.21756,-1.00404,0.193772,3,11
-2.89912,-2.38985,0.595077,4,12
-2.66092,-2.19193,0.670121,1,13
-2.37686,-1.95725,0.710845,1,14
-2.12871,-1.75165,0.73867,2,15
-1.5459,-1.26846,0.0349048,1,8
-1.2709,-1.04245,0.086145,2,9
-1.2127,-0.993995,0.137183,2,10
-1.22703,-1.00503,0.194747,3,11
-2.9055,-2.37897,0.594764,5,12
-2.66818,-2.1831,0.670121,1,13
-2.37278,-1.94072,0.707696,1,14
-2.1375,-1.74703,0.739705,2,15
-1.31053,-1.06656,0.0885524,2,9
-1.22715,-0.998345,0.138403,2,10
-1.24457,-1.01179,0.196941,3,11
-2.90848,-2.36282,0.593512,8,12
-2.36509,-1.91931,0.703197,1,14
-2.12618,-1.72421,0.733493,2,15
-1.32822,-1.07327,0.0894945,2,9
-1.2215,-0.98633,0.137357,1,10
-1.27281,-1.02739,0.200841,1,11
-2.9244,-2.35885,0.595077,10,12
-2.68411,-2.16348,0.670121,1,13
-2.363,-1.9033,0.700498,1,14
-2.1352,-1.7192,0.734528,2,15
-1.35708,-1.08839,0.0911692,2,9
-1.29333,-1.0369,0.145027,1,10
-1.28896,-1.03265,0.202791,1,11
-2.9284,-2.34441,0.594138,11,12
-2.6058,-2.0854,0.648751,2,13
-2.38637,-1.90843,0.705446,1,14
-2.13545,-1.70654,0.732458,2,15
-2.94985,-2.34894,0.197621,0,9
-2.94584,-2.34155,0.596015,11,12
-2.6146,-2.07752,0.649132,2,13
-2.39759,-1.90372,0.706796,1,14
-2.13836,-1.69667,0.731423,2,15
-2.92943,-2.31684,0.195736,0,9
-2.95204,-2.33055,0.595703,10,12
-2.62646,-2.07203,0.650277,2,13
-2.3993,-1.89214,0.705446,1,14
-2.17433,-1.71349,0.741775,2,15
-2.92139,-2.29478,0.19469,1,9
-2.99342,-2.34968,0.332935,1,10
-2.9411,-2.30612,0.591948,10,12
-2.64105,-2.06936,0.652185,2,13
-2.40096,-1.88057,0.704097,1,14
-2.15566,-1.68721,0.733493,2,15
-2.94513,-2.29685,0.195736,0,9
-2.94463,-2.29564,0.32666,1,10
-3.02234,-2.35452,0.470416,1,11
-2.95381,-2.29948,0.592887,10,12
-2.64945,-2.06179,0.652567,2,13
-2.41213,-1.87576,0.705446,1,14
-2.15543,-1.67494,0.731423,2,15
-2.95944,-2.29145,0.196155,0,9
-3.00935,-2.32925,0.332935,1,10
-3.03054,-2.34396,0.470416,1,11
-2.95869,-2.28674,0.592261,10,12
-2.64886,-2.04653,0.650659,2,13
-2.4094,-1.86019,0.702747,1,14
-2.16738,-1.67212,0.733493,2,15
-2.96426,-2.27867,0.195946,0,9
-3.01746,-2.31873,0.332935,1,10
-3.0387,-2.33336,0.470416,1,11
-2.97292,-2.28121,0.593512,11,12
-2.64352,-2.02771,0.647606,2,13
-2.42362,-1.85769,0.704997,1,14
-2.18548,-1.67395,0.737634,2,15
-0.42131,-0.32165,-0.122373,15,1
-2.94679,-2.24892,0.194271,0,9
-3.02594,-2.30765,0.332935,1,10
-3.04683,-2.32274,0.470416,1,11
-2.98087,-2.27081,0.593512,11,12
-2.67281,-2.03466,0.652948,2,13
-2.42421,-1.84408,0.703197,1,14
-2.19438,-1.66865,0.73867,2,15
-0.422486,-0.320104,-0.122373,15,1
-2.97054,-2.25068,0.195318,0,9
-3.03397,-2.29708,0.332935,1,10
-3.05532,-2.31156,0.470416,1,11
-2.9809,-2.25444,0.591948,11,12
-2.6611,-2.01111,0.648369,2,13
-2.42752,-1.83325,0.702297,1,14
-2.18477,-1.64934,0.733493,2,15
-0.423545,-0.318701,-0.122373,15,1
-2.99115,-2.2499,0.196155,0,9
-3.04197,-2.28647,0.332935,1,10
-3.06297,-2.30142,0.470416,1,11
-2.98559,-2.24165,0.591322,11,12
-2.6599,-1.99638,0.646461,2,13
-2.4445,-1.83338,0.705446,1,14
-2.18433,-1.63707,0.731423,2,15
-0.424655,-0.317221,-0.122373,15,1
-2.98579,-2.23041,0.195318,0,9
-3.04954,-2.27637,0.332935,1,10
-3.07099,-2.29071,0.470416,1,11
-2.99618,-2.2341,0.591948,11,12
-2.67158,-1.99061,0.647606,2,13
-2.43838,-1.81552,0.701847,1,14
-2.19285,-1.63212,0.732458,2,15
-0.425705,-0.315811,-0.122373,15,1
-3.0096,-2.23187,0.196365,0,9
-3.05747,-2.26571,0.332935,1,10
-3.07857,-2.28051,0.470416,1,11
-3.00554,-2.2248,0.592261,11,12
-2.67974,-1.98291,0.647987,2,13
-2.45849,-1.81786,0.705896,1,14
-2.2063,-1.6302,0.735046,2,15
-0.428374,-0.315478,-0.122823,15,1
-2.99164,-2.20241,0.19469,0,9
-3.06496,-2.25556,0.332935,1,10
-3.08651,-2.26975,0.470416,1,11
-3.01488,-2.21546,0.592574,11,12
-2.67874,-1.96773,0.646079,2,13
-2.45068,-1.79888,0.701847,1,14
-2.19796,-1.6122,0.730387,2,15
-0.429472,-0.313981,-0.122823,15,1
-2.99931,-2.19195,0.19469,0,9
-3.09441,-2.25897,0.470416,1,11
-3.00983,-2.19561,0.590071,11,12
-2.70304,-1.97109,0.650277,2,13
-2.46167,-1.79376,0.703197,1,14
-2.21451,-1.61248,0.734011,2,15
-0.430566,-0.31248,-0.122823,15,1
-3.02957,-2.19789,0.196155,0,9
-3.08064,-2.23411,0.332935,1,10
-3.10228,-2.24815,0.470416,1,11
-3.01588,-2.18393,0.589758,10,12
-2.69241,-1.94898,0.646079,2,13
-2.46791,-1.78516,0.703197,1,14
-2.20603,-1.59455,0.729352,2,15
-3.04695,-2.1943,0.196783,0,9
-3.0868,-2.22218,0.332761,1,10
-3.11011,-2.23731,0.470416,1,11
-3.02509,-2.17455,0.590071,11,12
-2.68803,-1.93155,0.643408,2,13
-2.46938,-1.77312,0.701847,1,14
-2.2053,-1.58234,0.727282,2,15
-0.432737,-0.309466,-0.122823,15,1
-3.05421,-2.18418,0.196783,0,9
-3.09454,-2.21139,0.332761,1,10
-3.1179,-2.22644,0.470416,1,11
-3.03228,-2.1645,0.590071,11,12
-2.71394,-1.93583,0.647987,2,13
-2.47079,-1.7611,0.700498,1,14
-2.22785,-1.58735,0.732976,2,15
-0.411516,-0.292233,-0.116525,16,1
-3.01622,-2.14114,0.193852,1,9
-3.10224,-2.20057,0.332761,1,10
-3.12688,-2.21723,0.470659,1,11
-3.04143,-2.15505,0.590384,11,12
-2.71554,-1.92342,0.646843,2,13
-2.47344,-1.75065,0.699598,1,14
-2.2318,-1.57845,0.732458,2,15
-3.01878,-2.12714,0.193538,1,9
-3.10952,-2.19027,0.332761,1,10
-3.1346,-2.20631,0.470659,1,11
-3.04247,-2.13987,0.589132,10,12
-2.72705,-1.91732,0.647987,2,13
-2.47954,-1.742,0.699598,1,14
-2.23255,-1.56732,0.730905,2,15
-3.02291,-2.11431,0.193329,1,9
-3.11714,-2.17941,0.332761,1,10
-3.14229,-2.19535,0.470659,1,11
-3.04668,-2.12698,0.588507,11,12
-2.73212,-1.90666,0.647606,2,13
-2.4872,-1.73445,0.700048,1,14
-2.2285,-1.55289,0.727799,2,15
-0.417755,-0.290131,-0.117424,16,1
-3.0434,-2.11285,0.194166,1,9
-3.06253,-2.12535,0.326137,1,10
-3.14993,-2.18437,0.470659,1,11
-3.05571,-2.11745,0.588819,10,12
-2.73876,-1.89711,0.647606,2,13
-2.49484,-1.72687,0.700498,1,14
-2.23231,-1.544,0.727282,2,15
-3.06062,-2.10902,0.194794,1,9
-3.13228,-2.15759,0.332761,1,10
-3.15753,-2.17336,0.470659,1,11
-3.0696,-2.11125,0.590071,10,12
-2.75669,-1.89533,0.650277,2,13
-2.50246,-1.71925,0.700947,1,14
-2.26636,-1.55588,0.736599,2,15
-3.02968,-2.07291,0.192387,0,9
-3.13942,-2.14719,0.332761,1,10
-3.16472,-2.16288,0.470659,1,11
-3.07332,-2.09883,0.589445,10,12
-2.75647,-1.88175,0.648751,2,13
-2.47595,-1.68898,0.691949,1,14
-2.25235,-1.5353,0.730387,2,15
-3.04351,-2.06682,0.192806,1,9
-3.10404,-2.10713,0.328229,1,10
-3.17226,-2.15182,0.470659,1,11
-3.06754,-2.07923,0.586942,10,12
-2.75977,-1.86991,0.647987,2,13
-2.50281,-1.69453,0.697798,1,14
-2.2513,-1.5231,0.728317,2,15
-3.0636,-2.06564,0.193643,1,9
-3.04858,-2.05397,0.321605,1,10
-3.17975,-2.14073,0.470659,1,11
-3.07442,-2.06904,0.586942,10,12
-2.75977,-1.85589,0.646461,2,13
-2.51518,-1.69013,0.699598,1,14
-2.25473,-1.51454,0.727799,2,15
-3.07743,-2.05938,0.194062,1,9
-3.16173,-2.1142,0.332761,1,10
-3.18683,-2.13018,0.470659,1,11
-3.08984,-2.06378,0.588507,10,12
-2.77897,-1.85545,0.649514,2,13
-2.52401,-1.68394,0.700498,1,14
-2.24714,-1.49809,0.723658,2,15
-3.07295,-2.04089,0.193329,1,9
-3.12557,-2.07505,0.328229,1,10
-3.19425,-2.11904,0.470659,1,11
-3.09867,-2.05408,0.588819,10,12
-2.76906,-1.83489,0.645698,2,13
-2.52825,-1.67405,0.700048,1,14
-2.26364,-1.4977,0.727282,2,15
-3.06838,-2.02246,0.192596,1,9
-3.17642,-2.09208,0.332761,1,10
-3.11872,-2.0533,0.458472,1,11
-3.09922,-2.03891,0.587568,10,12
-2.77577,-1.82473,0.645698,2,13
-2.53437,-1.66477,0.700048,1,14
-2.27854,-1.49615,0.730387,2,15
-3.09583,-2.02431,0.193852,1,9
-3.12366,-2.04173,0.326485,1,10
-3.20933,-2.09613,0.470659,1,11
-3.10005,-2.02321,0.586316,10,12
-2.79034,-1.82039,0.647606,2,13
-2.52384,-1.64527,0.695549,1,14
-2.26135,-1.47303,0.72314,2,15
-0.413538,-0.268452,-0.113825,16,1
-3.08445,-2.00154,0.192701,1,9
-3.13077,-2.03082,0.326485,1,10
-3.15666,-2.04604,0.461885,1,11
-3.10378,-2.01023,0.585691,11,12
-2.79833,-1.81171,0.647987,2,13
-2.52957,-1.63645,0.695549,1,14
-2.2681,-1.46618,0.723658,2,15
-3.10618,-2.00103,0.193643,1,9
-3.13784,-2.01987,0.326485,1,10
-3.22388,-2.07367,0.470659,1,11
-3.1204,-2.00634,0.587568,11,12
-2.78647,-1.79025,0.64379,2,13
-2.54646,-1.63542,0.698698,1,14
-2.27782,-1.46178,0.725211,2,15
-3.10775,-1.98749,0.193329,1,9
-3.1462,-2.01053,0.32666,1,10
-3.23074,-2.06297,0.470659,1,11
-3.1337,-2.00023,0.588819,11,12
-2.79073,-1.77995,0.643408,2,13
-0.474915,-0.302787,-0.0295175,16,6
-2.55022,-1.62592,0.698248,1,14
-2.28918,-1.45837,0.727282,2,15
-0.422815,-0.26843,-0.115625,16,1
-3.11939,-1.98039,0.193643,0,9
-3.21342,-2.03851,0.332935,1,10
-3.23756,-2.05224,0.470659,1,11
-3.14031,-1.98983,0.588819,11,12
-2.79662,-1.77068,0.643408,2,13
-2.54765,-1.6118,0.695999,1,14
-2.27767,-1.44044,0.722105,2,15
-3.09924,-1.95245,0.191968,1,9
-3.17667,-1.99968,0.328403,1,10
-3.24435,-2.0415,0.470659,1,11
-3.13721,-1.97255,0.586942,11,12
-2.80414,-1.76245,0.64379,2,13
-0.476913,-0.299631,-0.0295175,16,6
-2.54143,-1.59609,0.692849,1,14
-2.29087,-1.43762,0.724693,1,15
-3.11281,-1.94586,0.192387,0,9
-3.16639,-1.97858,0.32666,1,10
-3.25146,-2.03016,0.470659,1,11
-3.13737,-1.9574,0.585691,11,12
-2.80361,-1.74849,0.642263,2,13
-2.56022,-1.59545,0.696449,1,14
-2.28111,-1.42042,0.720035,2,15
-3.12468,-1.93814,0.192701,1,9
-3.14957,-1.95282,0.324219,1,10
-3.25852,-2.0188,0.470659,1,11
-3.15426,-1.95268,0.587568,11,12
-2.80469,-1.73559,0.641118,2,13
-0.478993,-0.296294,-0.0295175,16,6
-2.55914,-1.58241,0.694649,1,14
-2.30414,-1.42362,0.725729,1,15
-3.14333,-1.93455,0.193434,1,9
-3.17673,-1.95434,0.326311,1,10
-3.26555,-2.00741,0.470659,1,11
-3.16106,-1.94165,0.587568,11,12
-0.427866,-0.262711,-0.0439265,12,5
-2.82579,-1.73504,0.644553,2,13
-2.59122,-1.58977,0.701847,1,14
-2.30744,-1.41456,0.725211,2,15
-3.24196,-1.98123,0.0663191,1,8
-3.14325,-1.9194,0.193015,1,9
-3.20428,-1.95513,0.328403,1,10
-3.17456,-1.93472,0.588819,11,12
-0.428781,-0.261216,-0.0439265,12,5
-2.83381,-1.72569,0.644934,2,13
-2.57373,-1.56608,0.695549,1,14
-2.30081,-1.39947,0.721588,2,15
-3.1637,-1.91751,0.0645739,1,8
-0.431677,-0.261536,-0.116525,16,1
-3.14651,-1.90635,0.192806,1,9
-3.19063,-1.93156,0.326311,1,10
-3.21869,-1.947,0.461885,1,11
-3.17115,-1.91749,0.586942,11,12
-0.42969,-0.259717,-0.0439265,12,5
-2.83141,-1.71071,0.643026,2,13
-0.48212,-0.291178,-0.0295175,16,6
-2.56917,-1.55105,0.692849,1,14
-2.30569,-1.39143,0.721588,2,15
-3.17004,-1.90701,0.0645739,1,8
-0.435882,-0.262112,-0.117424,16,1
-3.1617,-1.9005,0.193329,1,9
-3.21785,-1.93272,0.328403,1,10
-3.28639,-1.9731,0.470659,1,11
-3.17105,-1.90235,0.585691,11,12
-2.84717,-1.70737,0.645316,2,13
-2.58934,-1.55153,0.696898,1,14
-2.31219,-1.38436,0.722105,2,15
-3.15264,-1.88159,0.0640852,1,8
-0.456877,-0.27257,-0.122823,15,1
-3.15598,-1.88284,0.192596,1,9
-3.18317,-1.89755,0.324219,1,10
-3.29326,-1.96162,0.470659,1,11
-3.17565,-1.89081,0.585378,11,12
-0.431448,-0.256787,-0.0439265,12,5
-2.84468,-1.6924,0.643408,2,13
-2.59809,-1.54447,0.697798,1,14
-2.32009,-1.37866,0.72314,2,15
-3.1623,-1.87316,0.064155,1,8
-3.14019,-1.85859,0.191236,1,9
-3.17263,-1.87629,0.322476,1,10
-3.29975,-1.95069,0.470659,1,11
-3.19413,-1.88675,0.587568,11,12
-0.476948,-0.281617,-0.0484586,11,5
-2.85873,-1.68795,0.645316,2,13
-0.485043,-0.286283,-0.0295175,16,6
-2.5797,-1.52199,0.6915,1,14
-2.31157,-1.36271,0.718999,2,15
-3.18951,-1.87427,0.0645739,1,8
-3.17077,-1.86177,0.192701,1,9
-3.19601,-1.87584,0.324219,1,10
-3.30654,-1.93916,0.470659,1,11
-3.19729,-1.87359,0.586942,10,12
-2.87476,-1.68392,0.647606,2,13
-2.6035,-1.5238,0.696449,1,14
-2.32132,-1.35756,0.720552,1,15
-3.19603,-1.86312,0.0645739,1,8
-0.425985,-0.248228,-0.113825,16,1
-3.18416,-1.85471,0.19312,1,9
-3.22665,-1.87871,0.32666,1,10
-3.31329,-1.9276,0.470659,1,11
-3.19698,-1.85845,0.585691,11,12
-2.86025,-1.66204,0.643026,2,13
-2.59869,-1.50883,0.693749,1,14
-2.34108,-1.35817,0.725211,2,15
-3.1852,-1.84194,0.0642249,1,8
-0.425161,-0.245764,-0.113375,16,1
-3.1664,-1.8296,0.191654,1,9
-3.15727,-1.82359,0.31899,1,10
-3.31999,-1.91603,0.470659,1,11
-3.1966,-1.84333,0.584439,10,12
-0.434947,-0.250813,-0.0439265,12,5
-2.86774,-1.65302,0.643408,2,13
-2.6107,-1.50364,0.695549,1,14
-2.32906,-1.34035,0.720035,2,15
-3.20896,-1.84076,0.0645739,1,8
-0.426017,-0.244278,-0.113375,16,1
-3.18836,-1.82747,0.192596,1,9
-3.23623,-1.85416,0.326311,1,10
-3.32666,-1.90443,0.470659,1,11
-3.21331,-1.83804,0.586316,11,12
-0.43582,-0.249294,-0.0439265,12,5
-2.85645,-1.63326,0.639592,2,13
-0.488993,-0.279483,-0.0295175,16,6
-2.61254,-1.49259,0.694649,1,14
-2.34044,-1.33605,0.722105,2,15
-3.19387,-1.8188,0.064155,1,8
-3.20766,-1.82591,0.193434,1,9
-3.24204,-1.84398,0.326311,1,10
-3.33263,-1.89397,0.470659,1,11
-3.2239,-1.83143,0.587255,11,12
-2.88376,-1.63687,0.644553,2,13
-0.444703,-0.252319,-0.026796,18,6
-2.6257,-1.48918,0.696898,1,14
-2.34271,-1.32814,0.721588,2,15
-3.19989,-1.8082,0.064155,1,8
-3.2001,-1.80684,0.192596,1,9
-3.24845,-1.83265,0.326311,1,10
-3.22683,-1.81823,0.586629,11,12
-0.482599,-0.27182,-0.0484586,11,5
-2.89088,-1.62826,0.644934,2,13
-0.490788,-0.276319,-0.0295175,16,6
-2.60684,-1.46708,0.6906,1,14
-2.36249,-1.32848,0.726246,2,15
-3.25851,-1.82635,0.0652022,1,8
-3.20987,-1.79761,0.192806,1,9
-3.23365,-1.81019,0.324219,1,10
-3.34544,-1.87124,0.470659,1,11
-3.22971,-1.80502,0.586004,10,12
-2.87941,-1.60859,0.641118,2,13
-2.61705,-1.46082,0.691949,1,14
-2.35193,-1.31176,0.721588,2,15
-3.21593,-1.78776,0.0642249,1,8
-3.19692,-1.77573,0.191654,1,9
-3.21239,-1.78286,0.32143,1,10
-3.35022,-1.85859,0.470416,1,11
-3.23081,-1.79086,0.585065,10,12
-2.90074,-1.60659,0.644553,2,13
-2.61387,-1.44651,0.6897,1,14
-2.34635,-1.29793,0.718482,2,15
-3.20495,-1.76631,0.0638758,1,8
-3.2139,-1.76978,0.192282,1,9
-3.2151,-1.76971,0.321082,1,10
-3.35701,-1.84629,0.470416,1,11
-3.246,-1.78377,0.586629,10,12
-0.485419,-0.266751,-0.0484586,11,5
-2.89085,-1.58794,0.641118,2,13
-0.493702,-0.271078,-0.0295175,16,6
-2.63427,-1.44581,0.693749,1,14
-2.35786,-1.29303,0.720552,2,15
-3.22864,-1.7647,0.0642249,1,8
-3.24811,-1.77387,0.193957,1,9
-3.3052,-1.8043,0.329449,1,10
-3.25741,-1.77526,0.587568,10,12
-2.88431,-1.57127,0.638447,2,13
-2.64102,-1.43754,0.694199,1,14
-2.36746,-1.28756,0.722105,2,15
-3.25236,-1.76295,0.0645739,1,8
-3.2171,-1.74311,0.191759,1,9
-3.2449,-1.75671,0.322825,1,10
-3.36982,-1.82281,0.470416,1,11
-3.25112,-1.75787,0.585378,11,12
-0.48727,-0.263356,-0.0484586,11,5
-2.9105,-1.57239,0.643026,2,13
-0.495582,-0.267625,-0.0295175,16,6
-2.63034,-1.42044,0.69015,1,14
-3.31526,-1.78957,-0.0657607,2,7
-2.36151,-1.2742,0.718999,2,15
-3.2441,-1.74458,0.0642947,1,8
-3.24925,-1.74661,0.193329,1,9
-3.25071,-1.74594,0.322825,1,10
-3.37584,-1.81163,0.470416,1,11
-3.25519,-1.74615,0.585065,9,12
-2.93992,-1.57571,0.648369,2,13
-2.63332,-1.41079,0.6897,1,14
-3.32118,-1.77856,-0.0657607,2,7
-2.38616,-1.2773,0.725211,2,15
-3.23928,-1.72816,0.0640852,1,8
-3.25356,-1.73432,0.193224,1,9
-3.27055,-1.74264,0.324219,1,10
-3.29422,-1.75378,0.458229,1,11
-3.26127,-1.73478,0.585065,10,12
-2.9122,-1.54844,0.641118,2,13
-0.497346,-0.264332,-0.0295175,16,6
-2.65027,-1.40799,0.692849,1,14
-3.32737,-1.76696,-0.0657607,2,7
-2.37866,-1.26263,0.721588,2,15
-3.22055,-1.70375,0.0635966,1,8
-3.25783,-1.72202,0.19312,1,9
-3.29775,-1.74239,0.326311,1,10
-3.3881,-1.78861,0.470416,1,11
-3.27254,-1.72615,0.586004,10,12
-0.48991,-0.25841,-0.0484586,11,5
-2.91758,-1.53827,0.641118,2,13
-0.498266,-0.262595,-0.0295175,16,6
-2.65344,-1.39782,0.692399,1,14
-3.33351,-1.75533,-0.0657607,2,7
-2.36767,-1.24622,0.716929,2,15
-3.2371,-1.69807,0.063806,1,8
-0.431469,-0.226238,-0.112476,17,1
-3.26175,-1.71028,0.193015,1,9
-3.28263,-1.71977,0.324219,1,10
-3.39432,-1.77677,0.470416,1,11
-3.28525,-1.71895,0.587255,9,12
-2.90728,-1.51989,0.637684,2,13
-0.499179,-0.260854,-0.0295175,16,6
-2.66004,-1.38945,0.692849,1,14
-3.33932,-1.74427,-0.0657607,2,7
-2.3872,-1.24641,0.721588,2,15
-3.24981,-1.69102,0.0639456,1,8
-3.26947,-1.69981,0.19312,1,9
-3.3063,-1.71748,0.325962,1,10
-3.40019,-1.76551,0.470416,1,11
-3.28246,-1.70292,0.585691,9,12
-0.456328,-0.236639,-0.0449724,12,5
-2.91753,-1.51295,0.638829,2,13
-2.64733,-1.37166,0.68835,1,14
-3.34538,-1.7326,-0.0657607,2,7
-2.38124,-1.23274,0.718482,2,15
-3.24858,-1.676,0.063806,1,8
-3.27184,-1.68655,0.19291,1,9
-3.34031,-1.72111,0.328751,1,10
-3.40633,-1.75363,0.470416,1,11
-3.28312,-1.68874,0.584752,10,12
-2.94375,-1.51353,0.643408,2,13
-0.500943,-0.25745,-0.0295175,16,6
-2.6573,-1.36508,0.6897,1,14
-3.35141,-1.72091,-0.0657607,2,7
-2.39584,-1.22971,0.721588,2,15
-3.27934,-1.6774,0.0642947,1,8
-3.28482,-1.67876,0.193329,1,9
-3.30017,-1.68588,0.324219,1,10
-3.41243,-1.74172,0.470416,1,11
-3.29427,-1.67996,0.585691,9,12
-2.94901,-1.50324,0.643408,2,13
-2.66552,-1.35756,0.6906,1,14
-3.3574,-1.7092,-0.0657607,2,7
-2.40356,-1.22309,0.722623,1,15
-3.2495,-1.64785,0.0635966,1,8
-3.27284,-1.65825,0.192282,1,9
-3.33803,-1.69055,0.327357,1,10
-3.41849,-1.7298,0.470416,1,11
-3.29306,-1.66489,0.584439,9,12
-2.93497,-1.4832,0.63921,2,13
-2.67198,-1.34913,0.69105,1,14
-3.36334,-1.69747,-0.0657607,2,7
-2.40092,-1.21122,0.720552,1,15
-3.2731,-1.64548,0.0639456,1,8
-3.29467,-1.65489,0.193224,1,9
-3.33322,-1.67352,0.326311,1,10
-3.42451,-1.71786,0.470416,1,11
-3.31475,-1.66135,0.587255,8,12
-2.93837,-1.47207,0.638829,2,13
-2.67842,-1.34067,0.6915,1,14
-3.36925,-1.68572,-0.0657607,2,7
-2.40513,-1.20283,0.720552,1,15
-3.28598,-1.63762,0.0640852,1,8
-3.28942,-1.63861,0.192596,1,9
-3.33905,-1.66188,0.326311,1,10
-3.43049,-1.70589,0.470416,1,11
-3.3167,-1.64859,0.586629,8,12
-2.94525,-1.46268,0.63921,2,13
-2.66539,-1.32311,0.687001,1,14
-3.37482,-1.67454,-0.0657607,2,7
-2.41257,-1.19656,0.721588,2,15
-3.30215,-1.63203,0.0642947,1,8
-3.31095,-1.63565,0.193538,1,9
-3.35883,-1.65785,0.327706,1,10
-3.43612,-1.69451,0.470416,1,11
-3.30798,-1.6306,0.584126,8,12
-0.450381,-0.221908,-0.0439265,12,5
-2.96241,-1.45897,0.641881,2,13
-2.67501,-1.31685,0.68835,1,14
-3.38035,-1.66334,-0.0657607,2,7
-2.40612,-1.18344,0.718482,1,15
-3.30396,-1.61931,0.0642249,1,8
-3.31484,-1.62321,0.193434,1,9
-3.36073,-1.64495,0.327357,1,10
-3.3101,-1.61731,0.583501,8,12
-2.96371,-1.44742,0.641118,2,13
-0.506139,-0.247079,-0.0295175,16,6
-2.69535,-1.31519,0.692399,1,14
-3.38614,-1.65153,-0.0657607,2,7
-2.41024,-1.17503,0.718482,2,15
-3.2952,-1.60077,0.0639456,1,8
-0.441757,-0.214506,-0.113375,16,1
-3.33307,-1.61773,0.194166,1,9
-3.3557,-1.62799,0.326311,1,10
-3.44758,-1.67108,0.470416,1,11
-3.32284,-1.60918,0.584752,8,12
-2.94753,-1.4268,0.636539,2,13
-3.39188,-1.6397,-0.0657607,2,7
-2.41433,-1.16661,0.718482,2,15
-3.31878,-1.59794,0.0642947,1,8
-3.33482,-1.60494,0.193957,1,9
-3.31467,-1.59382,0.321779,1,10
-3.34062,-1.60414,0.586942,8,12
-2.95958,-1.4199,0.638065,2,13
-3.3973,-1.62844,-0.0657607,2,7
-2.44257,-1.17029,0.725729,1,15
-3.30602,-1.57831,0.0639456,1,8
-0.457277,-0.218208,-0.116975,16,1
-3.33319,-1.58985,0.193538,1,9
-3.36338,-1.60281,0.325962,1,10
-3.34977,-1.59417,0.587568,8,12
-0.464193,-0.220812,-0.0449724,12,5
-2.97136,-1.41345,0.639592,2,13
-3.40297,-1.61658,-0.0657607,2,7
-3.3585,-1.58899,0.0648531,1,8
-0.450989,-0.213278,-0.115175,16,1
-3.34747,-1.58306,0.194062,1,9
-3.36868,-1.59165,0.325962,1,10
-3.34253,-1.57715,0.585378,7,12
-0.475735,-0.224371,-0.0460182,12,5
-2.99759,-1.41311,0.644171,1,13
-2.51341,-1.18325,0.744364,1,15
-3.34927,-1.57105,0.0645739,1,8
-3.34393,-1.56712,0.193538,1,9
-3.37061,-1.57819,0.325614,1,10
-3.34443,-1.5638,0.584752,7,12
-3.41389,-1.59337,-0.0657607,2,7
-2.51752,-1.17447,0.744364,1,15
-3.3405,-1.55203,0.0642947,1,8
-0.445397,-0.206841,-0.113375,16,1
-3.36568,-1.56301,0.19448,1,9
-3.39417,-1.5748,0.327357,1,10
-3.35525,-1.55461,0.585691,7,12
-3.41943,-1.58145,-0.0657607,2,7
-2.45146,-1.13325,0.723658,1,15
-3.33473,-1.53592,0.0640852,1,8
-3.34935,-1.54124,0.193224,1,9
-3.38516,-1.55629,0.325962,1,10
-3.35886,-1.54206,0.585378,5,12
-0.456329,-0.209406,-0.0439265,12,5
-2.75813,-1.26452,0.700498,1,14
-2.43784,-1.11664,0.718482,2,15
-3.34735,-1.52759,0.0642249,1,8
-0.446795,-0.203805,-0.113375,16,1
-3.36379,-1.53368,0.193748,1,9
-3.37217,-1.53679,0.324219,1,10
-3.48682,-1.58757,0.470416,1,11
-3.36782,-1.53197,0.586004,5,12
-0.504173,-0.22934,-0.0484586,11,5
-2.7093,-1.23071,0.687001,1,14
-2.92057,-1.32606,-0.0559873,1,7
-2.44172,-1.10813,0.718482,1,15
-3.3891,-1.53238,0.064923,1,8
-3.37823,-1.52604,0.194271,1,9
-3.35936,-1.51681,0.322476,1,10
-3.35874,-1.51371,0.583501,5,12
-2.71358,-1.22124,0.687001,4,14
-2.84858,-1.2814,-0.0545213,1,7
-2.44558,-1.0996,0.718482,1,15
-3.37806,-1.51179,0.193957,1,9
-3.4192,-1.52948,0.327706,1,10
-3.36761,-1.50358,0.584126,5,12
-2.72851,-1.21652,0.6897,4,14
-2.85669,-1.27308,-0.0545911,1,7
-2.43705,-1.08555,0.714858,2,15
-0.484532,-0.214917,-0.122373,15,1
-3.39975,-1.50727,0.194899,1,9
-3.42451,-1.51754,0.327706,1,10
-3.50326,-1.55097,0.470416,1,11
-3.38006,-1.49502,0.585378,5,12
-2.73987,-1.21014,0.6915,4,14
-2.8977,-1.27925,-0.0552892,1,7
-2.43905,-1.07626,0.714341,1,15
-0.485279,-0.213225,-0.122373,15,1
-3.39742,-1.49278,0.19448,1,9
-3.44803,-1.51358,0.329449,1,10
-3.50865,-1.53873,0.470416,1,11
-3.39224,-1.48697,0.586629,5,12
-2.73158,-1.1951,0.68835,4,14
-2.83964,-1.24238,-0.0541025,1,7
-2.44969,-1.07126,0.716411,1,15
-3.40261,-1.48091,0.19448,1,9
-3.41675,-1.48565,0.325962,1,10
-3.39016,-1.47197,0.585378,5,12
-0.460579,-0.199883,-0.0439265,12,5
-2.7391,-1.18759,0.68925,4,14
-2.83295,-1.22769,-0.053893,3,7
-2.46582,-1.06808,0.720035,2,15
-0.450931,-0.194482,-0.113375,16,1
-3.40776,-1.46902,0.19448,1,9
-3.45094,-1.48692,0.328751,1,10
-3.37532,-1.45155,0.581936,4,12
-0.461239,-0.198355,-0.0439265,12,5
-3.0338,-1.30405,0.641881,1,13
-2.74323,-1.17802,0.68925,4,14
-2.84825,-1.22253,-0.0541025,3,7
-2.45888,-1.0549,0.716929,2,15
-2.94026,-1.25656,0.0558128,1,8
-3.41837,-1.45947,0.194794,1,9
-3.44145,-1.46861,0.327357,1,10
-3.52431,-1.50252,0.470416,1,11
-3.38763,-1.44285,0.583188,4,12
-3.0564,-1.30114,0.645698,1,13
-2.7545,-1.17149,0.69105,5,14
-2.84882,-1.21101,-0.0540326,3,7
-2.45366,-1.04253,0.714341,1,15
-3.43239,-1.45202,0.195318,0,9
-3.46123,-1.46279,0.328751,1,10
-3.52953,-1.49021,0.470416,1,11
-3.37784,-1.42547,0.580685,4,12
-2.75837,-1.16234,0.69105,5,14
-2.86756,-1.20777,-0.0543119,4,7
-2.44998,-1.03139,0.71227,2,15
-0.488855,-0.204894,-0.122373,15,1
-3.45929,-1.44989,0.196574,0,9
-3.43666,-1.439,0.325962,1,10
-3.38255,-1.41426,0.580685,4,12
-2.75501,-1.15019,0.68925,5,14
-2.87893,-1.20133,-0.0544515,1,7
-2.45339,-1.02326,0.71227,1,15
-3.45142,-1.43245,0.195841,1,9
-3.47822,-1.44286,0.329449,1,10
-3.53934,-1.46677,0.470416,1,11
-3.39841,-1.40697,0.582562,4,12
-0.511759,-0.211873,-0.0484586,11,5
-2.76982,-1.14503,0.691949,4,14
-2.90159,-1.19891,-0.0548006,1,7
-2.46766,-1.01911,0.715376,1,15
-0.454192,-0.186741,-0.113375,16,1
-3.43977,-1.41356,0.194899,1,9
-3.5201,-1.44585,0.332935,1,10
-3.54444,-1.4544,0.470416,1,11
-3.38503,-1.38761,0.579433,3,12
-2.80806,-1.14938,0.700498,1,14
-2.89465,-1.18423,-0.0545911,1,7
-3.45394,-1.40531,0.195422,1,9
-3.52512,-1.43355,0.332935,1,10
-3.38436,-1.37356,0.578495,2,12
-0.513262,-0.208206,-0.0484586,11,5
-2.95437,-1.19664,-0.0556383,1,7
-0.455484,-0.183565,-0.113375,16,1
-3.46808,-1.39697,0.195946,1,9
-3.49338,-1.40575,0.329449,1,10
-3.36347,-1.35143,0.574115,2,12
-2.9511,-1.18335,-0.0554987,1,7
-3.43422,-1.37011,0.064539,1,8
-0.492357,-0.196331,-0.122373,15,1
-3.4785,-1.38708,0.19626,1,9
-3.50938,-1.39797,0.330495,1,10
-3.55972,-1.41658,0.470416,1,11
-3.37918,-1.34406,0.575992,2,12
-0.514703,-0.204617,-0.0484586,11,5
-2.99239,-1.18779,-0.0561968,1,7
-3.43874,-1.35872,0.064539,1,8
-0.46763,-0.184676,-0.116075,16,1
-3.47194,-1.37113,0.195632,1,9
-3.51399,-1.38632,0.330495,1,10
-3.37627,-1.32995,0.57474,2,12
-0.515379,-0.202909,-0.0484586,11,5
-3.45812,-1.35314,0.0648182,1,8
-0.471869,-0.184544,-0.116975,16,1
-3.46368,-1.35392,0.194899,1,9
-3.50744,-1.37031,0.329449,1,10
-3.36985,-1.31385,0.572863,2,12
-0.516084,-0.201109,-0.0484586,11,5
-3.07501,-1.19828,0.6415,1,13
-3.48147,-1.34828,0.0651673,1,8
-3.47584,-1.3447,0.195318,1,9
-3.505,-1.35458,0.328751,1,10
-3.36336,-1.29781,0.570986,2,12
-3.06838,-1.18276,0.63921,2,13
-2.79878,-1.07772,0.692399,1,14
-2.53493,-0.975606,0.727799,1,15
-3.48266,-1.33408,0.0650975,1,8
-0.458618,-0.175588,-0.113375,16,1
-3.4917,-1.33684,0.195946,1,9
-3.49854,-1.33806,0.327706,1,10
-3.37894,-1.29029,0.572863,2,12
-3.05048,-1.16365,0.634631,2,13
-2.80416,-1.06912,0.692849,4,14
-2.49499,-0.950249,0.715376,1,15
-3.49267,-1.32465,0.0652022,1,8
-0.495642,-0.187881,-0.122373,15,1
-3.50172,-1.32738,0.19626,1,9
-3.53277,-1.33774,0.330495,1,10
-3.58343,-1.35549,0.470416,1,11
-3.39428,-1.28327,0.57474,2,12
-3.05984,-1.15561,0.635776,2,13
-2.80952,-1.06051,0.693299,4,14
-2.49089,-0.939244,0.713305,1,15
-0.476193,-0.178705,-0.117424,16,1
-3.50984,-1.31717,0.196469,1,9
-3.56331,-1.33581,0.332935,1,10
-3.5879,-1.3436,0.470416,1,11
-3.39112,-1.26924,0.573489,2,12
-0.518774,-0.194065,-0.0484586,11,5
-3.07284,-1.14889,0.637684,2,13
-2.80389,-1.04777,0.69105,3,14
-3.5293,-1.31815,-0.0657607,2,7
-2.50485,-0.935032,0.716411,1,15
-0.47313,-0.175768,-0.116525,16,1
-3.49547,-1.29856,0.195422,1,9
-3.53036,-1.31012,0.329449,1,10
-3.39531,-1.25799,0.573489,2,12
-3.07848,-1.13937,0.638065,2,13
-2.79273,-1.03306,0.68745,1,14
-2.49707,-0.922703,0.713305,1,15
-3.51333,-1.29056,0.196155,1,9
-3.52369,-1.29367,0.328403,1,10
-3.59696,-1.31915,0.470416,1,11
-3.38877,-1.24146,0.571612,2,12
-3.08244,-1.12862,0.638065,2,13
-2.80565,-1.02617,0.6897,1,14
-2.50043,-0.913545,0.713305,1,15
-1.6913,-0.615247,0.0314143,1,8
-3.52344,-1.28034,0.196469,1,9
-3.575,-1.29837,0.332761,1,10
-3.60155,-1.30659,0.470416,1,11
-3.40794,-1.235,0.574115,2,12
-0.520745,-0.188713,-0.0484586,11,5
-3.06236,-1.10916,0.633104,2,13
-2.81104,-1.01703,0.69015,1,14
-1.70376,-0.616079,-0.0316238,1,7
-2.52178,-0.911377,0.718482,1,15
-1.69343,-0.60934,0.0314143,1,8
-0.471277,-0.169484,-0.115625,16,1
-3.54293,-1.27344,0.197307,1,9
-3.57951,-1.28588,0.332761,1,10
-3.60609,-1.29401,0.470416,1,11
-3.40851,-1.22177,0.573489,2,12
-3.07176,-1.10045,0.634249,2,13
-2.81274,-1.00655,0.6897,1,14
-1.70402,-0.609455,-0.0315889,4,7
-2.52494,-0.902569,0.718482,1,15
-1.69555,-0.603425,0.0314143,1,8
-0.464521,-0.165226,-0.113825,16,1
-3.56429,-1.26708,0.198249,0,9
-3.58398,-1.27338,0.332761,1,10
-3.61245,-1.28208,0.470659,1,11
-3.38669,-1.20062,0.569109,2,12
-3.07743,-1.09038,0.634631,2,13
-2.79971,-0.990878,0.685651,1,14
-1.68728,-0.596835,-0.0312398,4,7
-2.52808,-0.893749,0.718482,1,15
-1.66747,-0.58688,0.0308559,1,8
-3.56093,-1.25261,0.19783,0,9
-3.5884,-1.26086,0.332761,1,10
-3.61691,-1.26946,0.470659,1,11
-3.36269,-1.17958,0.564416,4,12
-3.07381,-1.07703,0.633104,1,13
-2.81401,-0.985453,0.68835,1,14
-1.67226,-0.585291,-0.0309257,3,7
-2.54197,-0.889188,0.721588,1,15
-1.65807,-0.577402,0.0306464,1,8
-3.69711,-1.28675,0.205157,0,9
-3.59256,-1.24895,0.332761,1,10
-3.62109,-1.25746,0.470659,1,11
-3.34419,-1.16065,0.560661,4,12
-0.523297,-0.181515,-0.0484586,11,5
-2.82279,-0.97803,0.6897,1,14
-1.68931,-0.584977,-0.0312049,1,7
-2.51204,-0.869381,0.71227,1,15
-1.64107,-0.565387,0.0302974,1,8
-0.46617,-0.160515,-0.113825,16,1
-3.559,-1.22407,0.329274,1,10
-3.62524,-1.24544,0.470659,1,11
-3.37438,-1.15794,0.565041,4,12
-0.523928,-0.179687,-0.0484586,11,5
-0.532797,-0.182625,-0.0295175,16,6
-2.8354,-0.971328,0.691949,1,14
-1.67242,-0.572599,-0.0308559,1,7
-1.60896,-0.548049,0.0296691,2,8
-0.466728,-0.158887,-0.113825,16,1
-1.72442,-0.586706,0.0954608,1,9
-3.60119,-1.22384,0.332761,1,10
-3.62957,-1.23278,0.470659,1,11
-3.36344,-1.14108,0.562538,4,12
-0.533463,-0.180671,-0.0295175,16,6
-2.83525,-0.95968,0.69105,1,14
-1.65168,-0.559064,-0.030437,1,7
-1.62802,-0.547889,0.0299832,2,8
-0.467307,-0.157175,-0.113825,16,1
-1.69627,-0.5702,0.093786,1,9
-3.60544,-1.21127,0.332761,1,10
-3.63406,-1.21947,0.470659,1,11
-3.37883,-1.13251,0.564416,4,12
-0.525169,-0.176025,-0.0484586,11,5
-2.81641,-0.942357,0.685651,1,14
-1.64614,-0.55047,-0.0302974,1,7
-1.62613,-0.54094,0.0299134,2,8
-1.71721,-0.570573,0.0948328,1,9
-3.60965,-1.19867,0.332761,1,10
-3.6383,-1.20678,0.470659,1,11
-3.37527,-1.11822,0.563164,4,12
-0.525781,-0.174191,-0.0484586,11,5
-3.11432,-1.03117,0.637684,2,13
-2.81413,-0.930684,0.684301,1,14
-1.61387,-0.533425,-0.0296691,2,7
-1.6356,-0.537759,0.030053,2,8
-1.70391,-0.559888,0.0939954,1,9
-3.61381,-1.18606,0.332761,1,10
-3.64249,-1.19407,0.470659,1,11
-3.3752,-1.10579,0.562538,4,12
-0.526386,-0.172355,-0.0484586,11,5
-3.10484,-1.01602,0.635012,2,13
-0.535326,-0.175075,-0.0295175,16,6
-2.84313,-0.929828,0.6906,1,14
-1.61563,-0.52807,-0.0296691,3,7
-1.62597,-0.528623,0.0298436,2,8
-0.480021,-0.155968,-0.116525,16,1
-1.69056,-0.549296,0.093158,1,9
-3.61773,-1.17408,0.332761,1,10
-3.39013,-1.09825,0.564416,4,12
-0.526954,-0.170608,-0.0484586,11,5
-3.09886,-1.0027,0.633104,2,13
-2.83137,-0.915597,0.687001,1,14
-1.59835,-0.51656,-0.02932,3,7
-1.6201,-0.52078,0.029704,3,8
-0.480535,-0.154376,-0.116525,16,1
-1.68106,-0.539729,0.09253,1,9
-3.6216,-1.16207,0.332761,1,10
-3.65033,-1.16988,0.470659,1,11
-3.38265,-1.0828,0.562538,4,12
-0.527517,-0.16886,-0.0484586,11,5
-3.11712,-0.997199,0.636157,2,13
-2.8364,-0.906302,0.68745,1,14
-1.623,-0.518277,-0.0297389,4,7
-1.62953,-0.517543,0.0298436,2,8
-1.70197,-0.539897,0.0935767,1,9
-3.62563,-1.14942,0.332761,1,10
-3.65439,-1.15714,0.470659,1,11
-3.40148,-1.07575,0.565041,3,12
-0.528103,-0.167017,-0.0484586,11,5
-3.12246,-0.986904,0.636539,2,13
-2.83211,-0.894049,0.685651,1,14
-1.62289,-0.512007,-0.029704,4,7
-1.60461,-0.50347,0.0293549,4,8
-0.481601,-0.151017,-0.116525,16,1
-1.6885,-0.529469,0.0927393,1,9
-3.62962,-1.13676,0.332761,1,10
-3.65841,-1.14437,0.470659,1,11
-3.44085,-1.07566,0.570986,2,12
-0.528683,-0.165173,-0.0484586,11,5
-3.10902,-0.970732,0.633104,1,13
-2.84824,-0.888219,0.6888,1,14
-1.60167,-0.499478,-0.0292851,5,7
-1.61582,-0.501108,0.0295295,4,8
-0.508159,-0.157496,-0.122823,15,1
-1.67508,-0.518844,0.0919019,1,9
-3.63357,-1.12408,0.332761,1,10
-3.66218,-1.13223,0.470659,1,11
-3.44836,-1.06481,0.571612,2,12
-0.529256,-0.163326,-0.0484586,11,5
-3.10471,-0.958102,0.631578,1,13
-1.61487,-0.497417,-0.0294946,5,7
-1.6233,-0.497221,0.0296342,4,8
-0.471438,-0.144313,-0.113825,16,1
-1.70353,-0.521471,0.0933674,1,9
-3.63728,-1.11203,0.332761,1,10
-3.66611,-1.11944,0.470659,1,11
-3.44809,-1.05221,0.570986,2,12
-0.529795,-0.16157,-0.0484586,11,5
-3.10804,-0.947258,0.631578,1,13
-2.34341,-0.713322,0.565527,1,14
-1.61077,-0.490312,-0.0293899,5,7
-1.6192,-0.490098,0.0295295,3,8
-1.69387,-0.512054,0.0927393,1,9
-3.64304,-1.0999,0.332935,1,10
-3.6698,-1.10728,0.470659,1,11
-3.45552,-1.04131,0.571612,2,12
-3.11116,-0.936947,0.631578,1,13
-2.2002,-0.661766,0.530435,1,14
-1.60098,-0.481232,-0.0291804,3,7
-1.6209,-0.484443,0.0295295,3,8
-0.487347,-0.145562,-0.117424,16,1
-1.68799,-0.503853,0.0923206,1,9
-3.67365,-1.09446,0.470659,1,11
-3.46671,-1.0315,0.572863,2,12
-0.530883,-0.15796,-0.0484586,11,5
-3.11442,-0.92608,0.631578,1,13
-2.19876,-0.652972,0.529535,1,14
-1.61799,-0.480192,-0.0294597,2,7
-1.636,-0.482744,0.0297738,3,8
-0.487852,-0.14386,-0.117424,16,1
-1.70123,-0.501345,0.0929487,1,9
-3.65045,-1.07508,0.332935,1,10
-3.45513,-1.01493,0.57036,2,12
-0.531431,-0.156106,-0.0484586,11,5
-3.15907,-0.92737,0.639973,1,13
-2.2272,-0.652968,0.535833,1,14
-1.61582,-0.473417,-0.0293899,2,7
-1.6204,-0.471997,0.0294597,3,8
-1.68371,-0.490119,0.0919019,1,9
-3.65418,-1.06233,0.332935,1,10
-3.46227,-1.00457,0.570986,2,12
-0.531972,-0.15425,-0.0484586,11,5
-2.27803,-0.659672,0.547531,1,14
-1.59817,-0.462497,-0.0290408,2,7
-0.464114,-0.133609,-0.12941,15,0
-1.6258,-0.467726,0.0295295,2,8
-1.71604,-0.493363,0.0935767,1,9
-3.47698,-0.99635,0.572863,2,12
-2.20526,-0.630681,0.529535,1,14
-1.61508,-0.461591,-0.02932,2,7
-0.464555,-0.132069,-0.12941,15,0
-1.62734,-0.462332,0.0295295,1,8
-0.485534,-0.13785,-0.116525,16,1
-1.72151,-0.48876,0.093786,1,9
-3.41183,-0.965452,0.5616,2,12
-0.532984,-0.150719,-0.0484586,11,5
-2.20855,-0.624124,0.446111,1,13
-0.542027,-0.153072,-0.0295175,16,6
-2.21859,-0.626542,0.532234,1,14
-1.60505,-0.452974,-0.0291106,2,7
-1.64427,-0.461254,0.0298087,1,8
-0.47473,-0.133083,-0.113825,16,1
-3.28945,-0.91905,0.54095,2,12
-0.533481,-0.148951,-0.0484586,11,5
-2.20872,-0.616269,0.44573,1,13
-2.2657,-0.631743,0.543032,1,14
-1.60655,-0.447649,-0.0291106,1,7
-1.64587,-0.455512,0.0298087,1,8
-0.482705,-0.133503,-0.115625,16,1
-3.26423,-0.899119,0.536257,2,12
-0.533997,-0.147087,-0.0484586,11,5
-2.18814,-0.602303,0.44115,1,13
-2.20412,-0.605874,0.527735,1,14
-1.6506,-0.453411,-0.0298785,1,7
-1.63973,-0.447657,0.0296691,2,8
-0.475648,-0.129766,-0.113825,16,1
-0.534508,-0.145222,-0.0484586,11,5
-2.19023,-0.594662,0.44115,1,13
-2.22126,-0.602255,0.531334,1,14
-1.63673,-0.443463,-0.0295993,2,7
-0.466331,-0.125651,-0.12941,15,0
-1.64129,-0.441931,0.0296691,1,8
-0.483625,-0.13013,-0.115625,16,1
-0.484974,-0.129948,-0.0439265,12,5
-2.19229,-0.587013,0.44115,1,13
-2.25724,-0.603559,0.539433,1,14
-1.64205,-0.439066,-0.0296691,3,7
-1.66207,-0.441621,0.0300181,1,8
-0.484054,-0.128526,-0.115625,16,1
-3.40147,-0.90252,0.184432,0,9
-2.24778,-0.594309,0.368247,1,12
-0.485425,-0.128255,-0.0439265,12,5
-2.25923,-0.596071,0.539433,1,14
-1.64358,-0.433331,-0.0296691,3,7
-1.74098,-0.456087,0.0314143,1,8
-0.495811,-0.129796,-0.118324,16,1
-3.4046,-0.890641,0.184432,0,9
-2.24219,-0.584466,0.366995,1,12
-2.24621,-0.584256,0.535833,1,14
-1.65669,-0.43061,-0.0298785,1,7
-2.12784,-0.552675,0.589072,1,15
-0.496261,-0.128065,-0.118324,16,1
-2.20213,-0.56582,0.360112,1,12
-0.536459,-0.137839,-0.0484586,11,5
-2.19822,-0.564408,0.44115,1,13
-2.30486,-0.590931,0.54933,1,14
-1.66593,-0.42681,-0.0300181,1,7
-0.496705,-0.126332,-0.118324,16,1
-3.41074,-0.866851,0.184432,0,9
-2.1926,-0.555221,0.358235,1,12
-0.536937,-0.135966,-0.0484586,11,5
-2.20018,-0.55673,0.44115,1,13
-0.546042,-0.138068,-0.0295175,16,6
-2.29558,-0.580018,0.546631,1,14
-1.74497,-0.440572,-0.0314143,1,7
-0.485801,-0.121755,-0.115625,16,1
-2.25202,-0.561911,0.367621,1,12
-0.537408,-0.134091,-0.0484586,11,5
-2.22116,-0.553797,0.444967,1,13
-2.25599,-0.561644,0.536733,1,14
-1.92891,-0.479858,-0.0346954,1,7
-3.68848,-0.91144,0.0663191,1,8
-0.486223,-0.120058,-0.115625,16,1
-2.23402,-0.549969,0.282493,1,11
-2.25388,-0.554439,0.367621,1,12
-0.537873,-0.132214,-0.0484586,11,5
-2.22308,-0.54604,0.444967,1,13
-0.546993,-0.134253,-0.0295175,16,6
-2.31093,-0.566763,0.54933,1,14
-2.00429,-0.491558,-0.0360218,3,7
-2.13526,-0.523285,0.589072,1,15
-2.18568,-0.530387,0.276156,1,11
-2.24044,-0.542847,0.365118,1,12
-0.538331,-0.130335,-0.0484586,11,5
-2.24396,-0.543284,0.448783,1,13
-0.547435,-0.132438,-0.0295175,16,6
-2.28627,-0.552685,0.543032,1,14
-2.01377,-0.486437,-0.0361614,3,7
-2.13708,-0.515829,0.589072,1,15
-0.487029,-0.116746,-0.115625,16,1
-2.22613,-0.531982,0.281031,1,11
-2.17699,-0.519435,0.354481,1,12
-0.53876,-0.12855,-0.0484586,11,5
-2.27639,-0.542734,0.454889,1,13
-0.547894,-0.130527,-0.0295175,16,6
-2.27682,-0.541994,0.540332,1,14
-2.02712,-0.482182,-0.0363708,3,7
-2.10127,-0.499432,0.578719,1,15
-2.18739,-0.51466,0.275912,1,11
-2.25571,-0.529903,0.366995,1,12
-2.20947,-0.518633,0.44115,1,13
-2.29008,-0.536711,0.543032,1,14
-2.03658,-0.476927,-0.0365104,3,7
-2.12181,-0.496495,0.583896,1,15
-0.518203,-0.120399,-0.122823,15,1
-2.18918,-0.507022,0.275912,1,11
-2.23051,-0.516185,0.362615,1,12
-2.21126,-0.510918,0.44115,1,13
-2.28045,-0.526484,0.540332,1,14
-2.01867,-0.465675,-0.0361614,4,7
-2.09333,-0.482514,0.575614,1,15
-0.492005,-0.112594,-0.116525,16,1
-2.20649,-0.504139,0.198018,1,10
-2.19085,-0.49976,0.275912,1,11
-2.24762,-0.512297,0.365118,1,12
-0.489547,-0.111492,-0.0439265,12,5
-2.33546,-0.531462,0.465574,1,13
-2.29359,-0.521511,0.543032,1,14
-2.0397,-0.463409,-0.0365104,3,7
-2.12129,-0.481557,0.582861,1,15
-0.49998,-0.112675,-0.118324,16,1
-2.1615,-0.486323,0.193834,1,10
-2.19249,-0.492492,0.275912,1,11
-2.33026,-0.523011,0.378259,1,12
-0.540461,-0.121203,-0.0484586,11,5
-2.29123,-0.513411,0.456415,1,13
-2.32582,-0.520309,0.55023,1,14
-2.03342,-0.454896,-0.0363708,3,7
-2.12288,-0.474519,0.582861,1,15
-0.481326,-0.106796,-0.113825,16,1
-2.20987,-0.489109,0.198018,1,10
-2.22019,-0.490172,0.360112,1,12
-0.54088,-0.119316,-0.0484586,11,5
-2.29293,-0.50581,0.456415,1,13
-2.05453,-0.452093,-0.0367199,3,7
-2.14716,-0.472085,0.589072,1,15
-2.29525,-0.498346,0.372001,1,12
-2.28316,-0.495307,0.454125,1,13
-0.550445,-0.119312,-0.0295175,16,6
-2.03655,-0.44069,-0.0363708,3,7
-2.12614,-0.459687,0.582861,1,15
-0.48206,-0.103433,-0.113825,16,1
-2.26925,-0.486486,0.121629,1,9
-2.16648,-0.463662,0.193834,1,10
-2.31243,-0.493631,0.374504,1,12
-0.502729,-0.107225,-0.0449724,12,5
-2.26576,-0.482843,0.450309,1,13
-0.550878,-0.117294,-0.0295175,16,6
-2.03416,-0.432746,-0.036301,2,7
-2.13907,-0.454673,0.585966,1,15
-0.49769,-0.10488,-0.117424,16,1
-2.20449,-0.46456,0.11807,1,9
-2.16808,-0.456096,0.193834,1,10
-2.19915,-0.461831,0.275912,1,11
-2.31027,-0.484745,0.373878,1,12
-0.5421,-0.113646,-0.0484586,11,5
-2.26744,-0.474931,0.450309,1,13
-2.05132,-0.428916,-0.0365802,2,7
-2.14064,-0.447204,0.585966,1,15
-0.494219,-0.102438,-0.116525,16,1
-2.2061,-0.456861,0.11807,1,9
-2.16966,-0.448526,0.193834,1,10
-2.20067,-0.454536,0.275912,1,11
-2.28873,-0.471891,0.370124,1,12
-0.542493,-0.111753,-0.0484586,11,5
-2.26131,-0.465825,0.448783,1,13
-0.551664,-0.113541,-0.0295175,16,6
-2.08414,-0.428193,-0.0371387,2,7
-2.15354,-0.442059,0.589072,1,15
-0.483116,-0.098379,-0.113825,16,1
-2.22717,-0.453529,0.119117,1,9
-2.29028,-0.464298,0.370124,1,12
-0.542861,-0.109953,-0.0484586,11,5
-2.3014,-0.465717,0.456415,1,13
-2.08555,-0.421279,-0.0371387,1,7
-2.14364,-0.432622,0.585966,1,15
-0.494905,-0.0990715,-0.116525,16,1
-2.21699,-0.443401,0.118489,1,9
-2.17266,-0.433747,0.193834,1,10
-2.29576,-0.457073,0.37075,1,12
-2.27598,-0.45272,0.451072,1,13
-0.552424,-0.109784,-0.0295175,16,6
-2.13376,-0.422884,0.582861,1,15
-0.520106,-0.102229,-0.122373,15,1
-2.23805,-0.439899,0.119535,1,9
-2.20537,-0.432677,0.196623,1,10
-2.27537,-0.445585,0.284687,1,11
-2.28176,-0.446423,0.368247,1,12
-0.543597,-0.106255,-0.0484586,11,5
-2.32379,-0.453804,0.460231,1,13
-2.11998,-0.412851,0.578719,1,15
-0.497481,-0.09607,-0.116975,16,1
-2.24741,-0.433597,0.119954,1,9
-2.22252,-0.42799,0.198018,1,10
-2.30412,-0.443287,0.288099,1,11
-2.29494,-0.44069,0.370124,1,12
-0.543965,-0.104357,-0.0484586,11,5
-2.34456,-0.449794,0.464048,1,13
-2.17834,-0.416329,0.594249,1,15
