x, y, z, intensity, ring
6.75265,-4.10245,-0.414082,50,6
6.4347,-3.91082,1.73842,24,14
9.38395,-5.70553,-0.191697,55,7
12.2072,-7.42501,3.82845,6,15
6.51059,-3.97252,0.133127,22,8
0.452431,-0.276165,-0.122373,15,1
6.51832,-3.98036,0.400265,47,9
0.554551,-0.338765,-0.126316,28,2
8.3507,-5.10329,0.856218,40,10
16.1188,-9.85443,-2.99228,8,3
5.98538,-3.65923,0.861373,61,11
6.21844,-3.8032,-0.895009,10,4
6.51592,-3.9867,1.20986,43,12
7.50427,-4.59322,-0.76976,35,5
6.57835,-4.02806,1.49938,18,13
6.71031,-4.11048,-0.412407,39,6
6.42697,-3.93845,1.74022,25,14
7.86526,-4.81984,-0.161016,42,7
6.47725,-3.98483,0.132743,8,8
0.451416,-0.277821,-0.122373,15,1
6.50708,-4.00632,0.400475,28,9
0.546678,-0.336582,-0.124789,29,2
8.40409,-5.1763,0.863539,24,10
16.3938,-10.1013,-3.04985,32,3
5.96854,-3.67906,0.860885,61,11
6.21966,-3.83535,-0.897202,35,4
6.45923,-3.98463,1.20204,8,12
7.48908,-4.62174,-0.769934,33,5
6.36544,-3.92831,1.45396,134,13
6.76051,-4.17374,-0.416385,39,6
9.57003,-5.91057,2.59683,12,14
6.37602,-3.93945,-0.130823,43,7
6.4599,-4.00531,0.132673,39,8
0.450443,-0.279395,-0.122373,15,1
6.48797,-4.02585,0.400161,18,9
0.562121,-0.348937,-0.128605,28,2
8.34444,-5.18184,0.859356,22,10
5.94892,-3.69568,0.85991,76,11
6.19106,-3.8476,-0.895009,58,4
7.50335,-4.66679,-0.773071,12,5
6.29265,-3.91531,1.44061,18,13
6.78416,-4.22277,-0.418792,50,6
9.47717,-5.90131,2.57749,61,14
6.35035,-3.95428,-0.130579,29,7
7.15226,-4.47097,0.147229,55,8
0.431241,-0.269679,-0.117424,16,1
8.90802,-5.57283,0.550679,19,9
0.55757,-0.348815,-0.127842,14,2
8.30603,-5.19825,0.857264,22,10
16.4584,-10.3043,-3.0755,10,3
5.95384,-3.72905,0.862591,66,11
6.16851,-3.865,-0.89379,41,4
6.4339,-4.03285,1.20267,13,12
7.71154,-4.83369,-0.796255,12,5
6.20909,-3.89345,1.42458,22,13
6.76938,-4.24642,-0.418792,47,6
9.45486,-5.93333,2.57704,33,14
7.32827,-4.60058,-0.151033,100,7
6.76439,-4.26141,0.139549,45,8
0.469865,-0.296119,-0.128222,14,1
8.88006,-5.59857,0.550156,16,9
0.549706,-0.346571,-0.126316,28,2
6.65824,-4.19941,0.688705,9,10
16.3037,-10.2869,-3.05329,44,3
6.01129,-3.79431,0.872828,49,11
6.13652,-3.87485,-0.891109,37,4
6.31336,-3.98806,-0.653319,21,5
6.13903,-3.87944,1.41161,21,13
6.79503,-4.29564,-0.421304,36,6
12.4284,-7.85992,3.39496,20,14
7.25471,-4.58978,-0.149846,90,7
6.74947,-4.285,0.139549,15,8
0.475408,-0.301936,-0.130022,14,1
0.548493,-0.348487,-0.126316,28,2
8.29644,-5.27321,0.860053,28,10
13.6623,-8.68706,-2.56427,15,3
5.91091,-3.75987,0.860154,57,11
6.12965,-3.90051,-0.892084,40,4
6.29061,-4.00447,1.18108,28,12
6.30109,-4.01114,-0.653494,6,5
6.19004,-3.94197,1.42649,19,13
6.9636,-4.43631,-0.432714,58,6
12.4502,-7.93468,3.40846,11,14
7.17289,-4.57315,-0.148485,65,7
6.67046,-4.26758,0.138223,16,8
0.44809,-0.286786,-0.122823,15,1
8.95514,-5.73366,0.557273,42,9
0.537353,-0.344048,-0.124026,29,2
6.66903,-4.27159,0.692888,20,10
13.6019,-8.71552,-2.55864,56,3
5.84594,-3.74727,0.852598,76,11
6.1043,-3.91438,-0.890377,47,4
6.23835,-4.00188,1.17388,15,12
6.33736,-4.06539,-0.658723,31,5
6.04902,-3.88191,1.3971,19,13
6.63042,-4.25665,-0.412931,32,6
12.3961,-7.96124,3.40126,6,14
7.17539,-4.61005,-0.148869,65,7
7.99671,-5.15551,0.166077,43,8
0.466738,-0.301023,-0.128222,14,1
8.83437,-5.69991,0.550993,57,9
0.559245,-0.360823,-0.129368,13,2
6.6591,-4.29808,0.693411,75,10
13.6063,-8.78545,-2.56521,20,3
5.83116,-3.76658,0.852354,76,11
6.06392,-3.91843,-0.886478,49,4
6.19614,-4.0054,1.16857,33,12
6.33914,-4.09941,-0.660466,32,5
6.08983,-3.93818,1.4097,26,13
6.61049,-4.27652,-0.412617,39,6
27.9906,-18.1149,7.69738,45,14
7.21129,-4.66876,-0.149951,100,7
0.47222,-0.306898,-0.130022,14,1
8.71061,-5.66322,0.544503,9,9
0.557918,-0.36287,-0.129368,13,2
6.47463,-4.21271,0.675806,54,10
6.98151,-4.54425,-1.31937,15,3
5.82131,-3.78907,0.852842,35,11
6.04522,-3.93632,-0.885746,29,4
6.22516,-4.05503,1.1767,45,12
6.33815,-4.13021,-0.661861,28,5
6.11647,-3.98728,1.41924,37,13
6.62154,-4.31817,-0.414291,68,6
28.1656,-18.3749,7.76396,45,14
7.19997,-4.69718,-0.150056,33,7
0.484896,-0.317428,-0.155291,12,0
6.36368,-4.16745,0.132778,42,8
0.445011,-0.29154,-0.122823,15,1
0.543512,-0.356206,-0.126316,14,2
6.49821,-4.26041,0.679815,43,10
6.42382,-4.21324,-1.21675,7,3
5.77086,-3.78643,0.84748,19,11
9.50775,-6.24305,1.8015,44,12
6.27301,-4.1206,-0.656631,13,5
6.69155,-4.3972,-0.41963,50,6
28.0899,-18.4656,7.76081,45,14
7.85436,-5.16524,-0.164088,93,7
6.42921,-4.2425,0.134453,26,8
8.62653,-5.69679,0.541782,6,9
0.535651,-0.353868,-0.124789,29,2
6.41274,-4.23806,0.672494,37,10
5.78576,-3.82516,0.851623,26,11
13.5157,-8.93904,-1.98964,9,4
9.53367,-6.30781,1.81057,25,12
6.23367,-4.12597,-0.654017,7,5
7.08001,-4.68971,-0.445065,39,6
27.9456,-18.5179,7.73967,22,14
7.79961,-5.16832,-0.16332,42,7
34.3906,-22.7972,11.0557,11,15
6.34868,-4.22285,0.133092,48,8
0.423445,-0.281762,-0.117424,16,1
8.60891,-5.73058,0.541991,4,9
0.534412,-0.355735,-0.124789,14,2
6.45097,-4.29576,0.678072,41,10
5.99237,-3.99188,-1.14041,51,3
6.43411,-4.28778,0.949362,33,11
6.05512,-4.03674,-0.893546,39,4
9.4086,-6.27475,1.79117,21,12
6.22016,-4.1499,-0.654191,20,5
10.0618,-6.71294,2.35115,20,13
9.60197,-6.40856,-0.605004,20,6
5.95768,-3.97779,1.65384,11,14
6.22915,-4.16061,-0.130753,100,7
34.2506,-22.8855,11.0376,23,15
6.41862,-4.30176,0.134872,38,8
0.461305,-0.309284,-0.128222,14,1
0.536365,-0.359879,-0.125552,29,2
6.54271,-4.39155,0.689402,15,10
6.12037,-4.10962,-1.16763,68,3
6.3812,-4.28476,0.943756,47,11
6.01793,-4.04235,-0.890134,24,4
6.20564,-4.17159,-0.654191,38,5
9.783,-6.57886,2.29162,51,13
7.50033,-5.04572,-0.473745,36,6
27.6718,-18.6227,7.70052,45,14
6.21956,-4.18568,-0.130858,79,7
27.5329,-18.5362,8.89354,29,15
6.35957,-4.29281,0.13393,64,8
0.440897,-0.297725,-0.122823,15,1
8.17085,-5.51961,0.516765,17,9
0.535232,-0.361562,-0.125552,14,2
9.10247,-6.15126,0.961154,95,10
6.04034,-4.08347,-1.1548,41,3
6.41464,-4.33814,0.950825,24,11
5.99134,-4.05339,-0.888184,34,4
6.17765,-4.18101,-0.652622,46,5
9.6875,-6.55893,2.27406,43,13
7.20167,-4.87773,-0.455846,58,6
27.6083,-18.7063,7.69917,45,14
7.78975,-5.28001,-0.164262,17,7
27.2858,-18.5017,8.83349,36,15
6.32139,-4.29924,0.133441,64,8
0.426966,-0.290493,-0.119224,16,1
0.530721,-0.361219,-0.124789,14,2
8.37937,-5.70531,0.886897,36,10
5.94768,-4.05115,-1.13978,76,3
6.39946,-4.36051,0.950825,24,11
5.98371,-4.07875,-0.889159,50,4
9.81025,-6.68959,1.88066,18,12
6.15479,-4.19694,-0.651751,32,5
9.69861,-6.61594,2.28208,27,13
7.1714,-4.89383,-0.455009,50,6
27.6297,-18.8619,7.72347,34,14
7.82247,-5.34213,-0.165344,100,7
27.5784,-18.8409,8.94945,14,15
6.3014,-4.31789,0.133336,56,8
0.438808,-0.300796,-0.122823,15,1
6.17197,-4.23237,0.392206,18,9
0.519679,-0.356499,-0.122499,30,2
8.3364,-5.71875,0.884456,22,10
5.83904,-4.00706,-1.12164,70,3
6.40057,-4.39405,0.953262,18,11
5.96616,-4.09737,-0.888671,23,4
9.83568,-6.75735,1.89004,5,12
6.1328,-4.21495,-0.651053,25,5
9.63062,-6.62141,2.27177,28,13
7.16164,-4.92574,-0.455532,87,6
27.5958,-18.9803,7.73247,45,14
7.76424,-5.3422,-0.164506,94,7
27.557,-18.9677,8.96394,15,15
0.437703,-0.302402,-0.122823,15,1
9.29296,-6.42276,0.592024,11,9
0.531288,-0.367333,-0.125552,29,2
8.62348,-5.96228,0.917227,28,10
5.80319,-4.01382,-1.11757,58,3
8.96528,-6.20323,1.33861,34,11
5.94458,-4.11469,-0.887696,25,4
6.17954,-4.28052,-0.657677,32,5
9.64017,-6.68015,2.27979,42,13
7.14683,-4.95423,-0.455742,79,6
33.9371,-23.5255,9.53343,29,14
10.2505,-7.10841,-0.217736,100,7
33.7174,-23.3906,10.9957,11,15
6.28271,-4.37311,0.133616,17,8
0.436591,-0.304004,-0.122823,15,1
9.70975,-6.76102,0.620076,13,9
0.539668,-0.375918,-0.127842,14,2
8.3008,-5.78426,0.885154,20,10
5.80464,-4.04636,-1.1207,66,3
8.94737,-6.23945,1.33934,40,11
5.92132,-4.13077,-0.886478,50,4
9.50194,-6.62864,1.83498,33,12
6.14006,-4.28496,-0.655063,35,5
9.6844,-6.76096,2.29581,24,13
33.2638,-23.2397,-0.708288,13,7
6.21086,-4.35374,0.132394,45,8
0.435581,-0.30545,-0.122823,15,1
6.16908,-4.32766,0.394927,63,9
0.525497,-0.368777,-0.124789,14,2
8.82031,-6.19212,0.942851,42,10
5.96095,-4.18477,-1.15355,56,3
8.94938,-6.28506,1.34276,53,11
5.90271,-4.14696,-0.885746,42,4
9.47066,-6.65609,1.83341,50,12
6.09735,-4.28688,-0.652099,31,5
28.97,-20.3832,8.17787,12,14
9.22606,-6.49381,-0.196933,9,7
6.18746,-4.36963,0.132219,77,8
0.434512,-0.306969,-0.122823,15,1
9.10775,-6.43672,0.584488,43,9
0.517794,-0.366076,-0.123263,30,2
8.23195,-5.81992,0.882016,16,10
5.98501,-4.23292,-1.16106,63,3
8.9209,-6.31168,1.34178,53,11
12.465,-8.82247,-1.87508,36,4
6.15552,-4.35996,-0.659943,41,5
9.67061,-6.85224,2.30383,38,13
7.18091,-5.09002,-0.461289,50,6
28.8939,-20.4808,8.17652,48,14
6.98978,-4.95637,-0.149567,33,7
29.2998,-20.7838,9.62548,17,15
6.18281,-4.40039,0.132464,45,8
0.433384,-0.308559,-0.122823,15,1
9.102,-6.48281,0.585639,13,9
0.522844,-0.372528,-0.124789,14,2
8.23328,-5.86624,0.884456,42,10
5.86973,-4.18374,-1.14166,50,3
9.05126,-6.45381,1.36494,32,11
5.85511,-4.17641,-0.883065,33,4
9.36169,-6.68009,1.82152,10,12
6.42328,-4.58507,-0.690448,12,5
9.53678,-6.81006,2.27788,52,13
7.28572,-5.20454,-0.469244,50,6
28.6316,-20.4529,8.12343,47,14
6.98458,-4.99125,-0.149846,90,7
29.2486,-20.9091,9.63376,17,15
7.31384,-5.24586,0.157107,31,8
0.43225,-0.310146,-0.122823,15,1
0.518351,-0.372062,-0.124026,14,2
8.32825,-5.98005,0.897007,40,10
5.88163,-4.22482,-1.14698,62,3
8.955,-6.43482,1.35397,25,11
5.84299,-4.20016,-0.883553,25,4
6.39423,-4.5981,1.24741,13,12
6.43312,-4.62607,-0.693237,61,5
9.39342,-6.75732,2.24926,33,13
7.29183,-5.24743,-0.470814,65,6
28.4742,-20.4985,8.10004,23,14
6.98246,-5.02851,-0.150195,90,7
29.2517,-21.0737,9.66016,8,15
0.431165,-0.311653,-0.122823,15,1
6.21657,-4.49508,0.402045,27,9
0.517049,-0.373869,-0.124026,14,2
8.24114,-5.9612,0.88986,16,10
5.78203,-4.18395,-1.1304,43,3
8.88907,-6.43461,1.34739,46,11
5.86366,-4.24614,-0.888915,25,4
9.28165,-6.72373,1.81527,26,12
6.20395,-4.49421,-0.670228,47,5
9.45562,-6.85228,2.26986,40,13
7.13926,-5.17556,-0.462127,39,6
28.3993,-20.5955,8.09914,47,14
6.94221,-5.03641,-0.149707,100,7
28.5182,-20.6968,9.44172,16,15
6.11621,-4.45185,0.132045,33,8
0.430074,-0.313156,-0.122823,15,1
6.19277,-4.51088,0.401522,60,9
0.53161,-0.38723,-0.127842,14,2
8.21062,-5.98289,0.888814,24,10
5.89349,-4.29603,-1.15511,62,3
5.83116,-4.25372,-0.886234,11,4
9.29004,-6.77938,1.82152,16,12
6.37652,-4.65325,-0.690622,40,5
9.37773,-6.84589,2.25689,50,13
7.23566,-5.28408,-0.469558,83,6
28.1494,-20.5646,8.0483,47,14
6.96172,-5.08775,-0.15051,82,7
28.3911,-20.7564,9.4236,16,15
6.05709,-4.44124,0.131102,60,8
0.413265,-0.303129,-0.118324,16,1
6.19147,-4.5431,0.402464,55,9
0.520758,-0.382115,-0.125552,14,2
8.12062,-5.96082,0.881319,22,10
5.81637,-4.27098,-1.14291,55,3
9.07271,-6.66456,1.38224,13,11
5.82428,-4.27992,-0.887453,49,4
9.23767,-6.79071,1.81589,10,12
6.14834,-4.51971,-0.667613,37,5
9.36643,-6.88788,2.25994,21,13
7.09973,-5.22291,-0.461917,29,6
28.09,-20.6719,8.0519,23,14
7.73783,-5.69649,-0.167718,69,7
28.4336,-20.9401,9.46191,16,15
6.04477,-4.46473,0.131172,34,8
0.427878,-0.316151,-0.122823,15,1
6.13864,-4.53738,0.400056,42,9
0.49416,-0.365259,-0.119446,15,2
8.09015,-5.98203,0.880273,22,10
5.8173,-4.30301,-1.14604,43,3
9.04619,-6.69383,1.38175,32,11
5.79335,-4.28842,-0.885015,48,4
9.50601,-7.03921,1.87346,14,12
6.13654,-4.54577,-0.668136,15,5
28.0302,-20.7791,8.0555,23,14
7.68096,-5.69606,-0.166915,100,7
27.7149,-20.5604,9.24657,15,15
6.01791,-4.47745,0.130928,24,8
0.426771,-0.317642,-0.122823,15,1
6.13558,-4.56832,0.400893,47,9
0.51801,-0.385832,-0.125552,14,2
8.09852,-6.03426,0.883585,10,10
5.77615,-4.30541,-1.14103,50,3
8.98298,-6.69571,1.37566,19,11
5.7672,-4.30031,-0.883309,42,4
6.34259,-4.73279,-0.692365,55,5
28.7499,-21.4608,6.97369,26,13
7.36943,-5.50302,-0.482014,76,6
27.7119,-20.701,7.98576,11,14
7.44955,-5.56487,-0.162307,59,7
27.6182,-20.6385,9.23829,15,15
12.1085,-9.07813,0.26416,12,8
0.425604,-0.319204,-0.122823,15,1
6.12518,-4.59558,0.401312,29,9
0.510379,-0.382925,-0.124026,14,2
5.56447,-4.17641,0.608696,41,10
5.92221,-4.44652,-1.17295,60,3
8.72347,-6.55215,1.33959,34,11
27.5214,-20.6862,5.45299,9,12
6.06802,-4.56097,-0.664127,36,5
29.938,-22.5108,7.28089,28,13
6.85538,-5.15653,-0.449566,94,6
27.574,-20.7484,7.96687,11,14
7.93557,-5.97337,-0.173372,43,7
28.0162,-21.0964,9.3972,8,15
6.09423,-4.60235,0.133301,37,8
0.436927,-0.330086,-0.126422,15,1
8.10564,-6.1258,0.532466,69,9
0.499641,-0.377602,-0.121736,30,2
5.52443,-4.17658,0.605907,48,10
5.75383,-4.35159,-1.1426,35,3
8.66414,-6.55501,1.33398,65,11
5.67772,-4.29714,-0.874291,49,4
27.4049,-20.7487,5.44423,4,12
6.07907,-4.60257,-0.66709,22,5
29.9266,-22.6661,7.2973,28,13
6.73546,-5.10323,-0.442867,47,6
29.084,-22.044,8.42532,12,14
7.65812,-5.80651,-0.167753,77,7
29.0229,-22.0136,9.76058,8,15
8.13919,-6.19142,0.178503,52,8
0.410959,-0.312727,-0.119224,16,1
7.52163,-5.7258,0.495412,52,9
0.507693,-0.386478,-0.124026,14,2
5.5225,-4.2055,0.607301,88,10
5.95703,-4.53804,-1.18609,65,3
8.64752,-6.59003,1.33496,56,11
5.59164,-4.26278,-0.863322,40,4
29.8455,-22.7609,5.94482,5,12
6.14535,-4.68659,-0.676154,12,5
31.071,-23.7041,7.59649,7,13
6.72554,-5.13277,-0.44339,21,6
29.0255,-22.1596,8.43072,12,14
5.3684,-4.1,-0.117908,12,7
27.4568,-20.9771,9.25848,8,15
6.8191,-5.22492,0.149951,20,8
0.412958,-0.316531,-0.120124,15,1
0.490761,-0.376302,-0.12021,15,2
5.51885,-4.23324,0.608521,52,10
8.42982,-6.46843,-1.68292,20,3
8.76461,-6.72775,1.35665,37,11
5.63971,-4.33063,-0.873072,30,4
29.6155,-22.7494,5.91479,5,12
6.6709,-5.12431,-0.735943,46,5
28.8585,-22.1759,7.07443,6,13
7.31563,-5.62363,-0.483584,18,6
27.3027,-20.9956,7.95157,11,14
6.54595,-5.0356,-0.144157,48,7
27.192,-20.9256,9.19377,15,15
0.458867,-0.354014,-0.155291,12,0
6.72009,-5.18638,0.148171,56,8
0.421106,-0.325116,-0.122823,15,1
0.52052,-0.402014,-0.127842,14,2
5.53873,-4.27927,0.612356,56,10
8.47283,-6.54855,-1.69606,17,3
8.69238,-6.72066,1.34909,68,11
6.65297,-5.14757,-0.735943,23,5
28.1925,-21.8211,6.9298,32,13
7.8092,-6.04653,-0.517603,42,6
27.2401,-21.0991,7.95472,11,14
6.52834,-5.05842,-0.144157,56,7
26.9952,-20.9245,9.15184,31,15
6.69247,-5.20245,0.147962,32,8
0.398432,-0.309836,-0.116525,16,1
5.69565,-4.43075,0.37818,60,9
0.525312,-0.40865,-0.129368,13,2
5.50332,-4.28267,0.61009,20,10
8.43122,-6.56352,-1.69231,13,3
8.86778,-6.90586,1.38005,45,11
5.72052,-4.45651,-0.890377,37,4
9.25669,-7.21392,1.85875,7,12
6.33323,-4.93562,-0.702475,25,5
28.2183,-21.999,6.95499,26,13
7.0872,-5.52718,-0.471024,50,6
30.021,-23.4212,8.79064,12,14
5.31571,-4.14861,-0.117699,6,7
27.1519,-21.1981,9.23001,15,15
6.67742,-5.22824,0.148031,60,8
0.418826,-0.328048,-0.122823,15,1
5.55124,-4.3496,0.369597,39,9
0.508429,-0.398373,-0.125552,29,2
11.9222,-9.34486,1.32529,40,10
5.80137,-4.54885,-1.16763,43,3
8.74053,-6.85592,1.36396,48,11
5.71586,-4.48503,-0.892084,52,4
6.29473,-4.9428,-0.700209,28,5
27.9375,-21.9373,6.90461,32,13
7.12441,-5.5963,-0.474792,21,6
29.3262,-23.0443,8.61068,12,14
6.51487,-5.12118,-0.144646,24,7
26.7603,-21.0432,9.12182,7,15
6.67012,-5.26019,0.148276,12,8
0.399319,-0.315024,-0.117424,16,1
5.84332,-4.61146,0.390112,120,9
0.485392,-0.383202,-0.12021,15,2
9.31581,-7.35718,1.03855,21,10
8.47083,-6.69226,-1.70983,28,3
8.86297,-7.00206,1.38687,32,11
5.73132,-4.52957,-0.896958,47,4
9.17976,-7.25754,1.85344,29,12
6.26806,-4.95733,-0.699163,46,5
27.9478,-22.1115,6.92713,52,13
17.4621,-13.8204,-1.16709,9,6
26.9131,-21.3081,7.92503,46,14
5.23801,-4.14714,-0.116617,30,7
26.6549,-21.1113,9.11095,15,15
6.75882,-5.37043,0.150684,6,8
0.427147,-0.339524,-0.125973,15,1
5.00252,-3.97776,0.33495,35,9
0.493272,-0.392226,-0.122499,15,2
8.46288,-6.73409,-1.71296,37,3
8.87607,-7.0654,1.39297,35,11
6.47871,-5.15894,-1.01688,56,4
6.25141,-4.98151,-0.699338,46,5
29.1417,-23.2219,7.24311,7,13
6.45635,-5.14666,-0.432714,18,6
27.0366,-21.5598,7.98351,11,14
5.20715,-4.15384,-0.116268,66,7
26.5653,-21.1992,9.10681,15,15
0.377077,-0.301772,-0.12941,15,0
6.63231,-5.30778,0.148276,35,8
0.395533,-0.316655,-0.116975,16,1
4.9964,-4.00144,0.335474,37,9
0.49796,-0.398941,-0.124026,14,2
9.26137,-7.42241,1.03837,34,10
5.51908,-4.42478,-1.12038,10,3
8.87304,-7.11373,1.39638,13,11
6.45756,-5.17904,-1.01639,52,4
32.0929,-25.7481,6.51675,7,12
6.2806,-5.04071,-0.704567,16,5
26.7172,-21.4505,6.66,6,13
6.44834,-5.17905,-0.433446,29,6
27.0303,-21.7174,8.00511,11,14
5.21288,-4.18827,-0.116722,36,7
27.3494,-21.9816,9.40186,16,15
7.00042,-5.6446,0.156967,30,8
0.39437,-0.318103,-0.116975,16,1
6.75462,-5.44834,0.4548,38,9
0.514899,-0.415471,-0.128605,14,2
18.5855,-15.002,2.08965,21,10
15.3966,-12.4323,-3.13432,8,3
5.63953,-4.55541,0.890134,28,11
6.44935,-5.2114,-1.0181,20,4
28.9207,-23.3694,5.88913,5,12
25.1278,-20.3191,6.28143,5,13
27.2058,-22.0151,8.07979,35,14
6.5724,-5.31843,-0.147578,32,7
26.7139,-21.6248,9.2093,15,15
5.81262,-4.71874,0.130684,45,8
0.411466,-0.334151,-0.122373,15,1
5.62562,-4.57019,0.379854,29,9
0.495162,-0.402408,-0.124026,14,2
5.37069,-4.3662,0.605558,84,10
12.0353,-9.7843,-2.45665,8,3
18.1299,-14.7443,2.86929,37,11
6.44127,-5.24028,-1.01956,9,4
28.9416,-23.5538,5.91009,11,12
5.31047,-4.3234,-0.599109,20,5
25.0039,-20.3564,6.26731,36,13
6.61736,-5.3893,-0.447263,61,6
28.9834,-23.613,8.63092,12,14
5.13236,-4.18287,-0.11557,30,7
26.7596,-21.8168,9.25123,7,15
5.79921,-4.74153,0.130753,48,8
0.392196,-0.32078,-0.116975,16,1
0.48167,-0.394102,-0.120973,15,2
5.41785,-4.43446,0.612531,22,10
5.49157,-4.4964,-1.12414,28,3
5.62682,-4.60878,0.893059,9,11
6.43676,-5.27405,-1.02175,1,4
17.1979,-14.0964,3.52197,10,12
6.61572,-5.42455,-0.748493,16,5
24.79,-20.3266,6.23144,26,13
6.63403,-5.4415,-0.449671,21,6
30.7342,-25.2184,9.17845,13,14
5.41759,-4.44689,-0.122341,78,7
29.741,-24.4208,10.3114,9,15
5.74095,-4.72742,0.129811,66,8
0.391073,-0.322147,-0.116975,16,1
5.3408,-4.40105,0.362688,59,9
0.468103,-0.385874,-0.11792,16,2
5.42308,-4.47204,0.614971,15,10
5.47505,-4.5165,-1.12414,28,3
5.58467,-4.60692,0.888915,42,11
6.41678,-5.29523,-1.02151,45,4
18.2393,-15.0567,3.74598,24,12
6.56755,-5.42351,-0.745182,28,5
24.6548,-20.3673,6.21618,10,13
7.25143,-5.99251,-0.493005,28,6
30.8729,-25.5221,9.24774,13,14
5.40666,-4.4696,-0.122446,6,7
29.5364,-24.426,10.2699,9,15
5.69742,-4.72673,0.129218,75,8
0.383892,-0.3186,-0.115175,16,1
5.3546,-4.4439,0.364677,47,9
0.478837,-0.397538,-0.120973,15,2
5.40284,-4.48712,0.614448,3,10
5.41215,-4.49645,-1.11444,46,3
5.51279,-4.58168,0.88014,16,11
6.40038,-5.32125,-1.022,74,4
18.2854,-15.2024,3.76632,38,12
6.55165,-5.44895,-0.74553,35,5
24.3828,-20.2862,6.16542,25,13
7.0923,-5.9028,-0.483584,10,6
30.7686,-25.6172,9.24324,13,14
29.3323,-24.43,10.2285,9,15
0.391806,-0.327368,-0.117874,16,1
5.37737,-4.49459,0.367294,54,9
0.501545,-0.419356,-0.127079,14,2
5.29392,-4.42798,0.603815,3,10
5.41236,-4.52704,-1.11757,18,3
5.4595,-4.56809,0.874047,16,11
6.24113,-5.22395,-0.999329,49,4
18.364,-15.3765,3.79354,26,12
6.5723,-5.50505,-0.750062,13,5
18.1433,-15.197,4.60041,30,13
5.53721,-4.63969,-0.378598,38,6
27.3441,-22.92,8.23726,12,14
8.21928,-6.89191,-0.187229,63,7
26.9704,-22.6228,9.4324,8,15
6.84955,-5.76173,0.156234,50,8
0.423464,-0.356337,-0.127772,14,1
5.41054,-4.55449,0.370643,58,9
0.491067,-0.413517,-0.124789,14,2
5.28073,-4.44679,0.603989,48,10
9.30946,-7.84207,-1.9279,18,3
18.5074,-15.5957,2.97166,8,11
6.20009,-5.22651,-0.995673,72,4
18.2679,-15.4048,3.78478,9,12
5.91647,-4.99096,-0.6772,10,5
9.85908,-8.32272,-0.676181,32,6
18.173,-15.341,5.49061,31,14
6.31138,-5.32976,-0.144192,88,7
28.0955,-23.7341,9.85479,18,15
6.77652,-5.74284,0.155047,58,8
0.404318,-0.342765,-0.122373,15,1
4.85459,-4.11699,0.333589,37,9
0.465595,-0.394993,-0.118683,15,2
5.2644,-4.46612,0.603989,43,10
8.02305,-6.80886,-1.66665,13,3
4.85616,-4.1227,0.782157,15,11
6.18089,-5.2492,-0.995673,59,4
4.74064,-4.02747,0.985224,14,12
6.5464,-5.56355,-0.751631,6,5
24.4497,-20.7862,6.23793,21,13
5.54565,-4.71638,-0.381529,38,6
16.8771,-14.3534,5.11494,41,14
6.34968,-5.40209,-0.145518,100,7
29.0852,-24.7535,10.2337,9,15
6.73565,-5.75076,0.154593,55,8
0.382313,-0.326526,-0.116075,16,1
4.69672,-4.0128,0.32375,12,9
0.482125,-0.411919,-0.123263,15,2
5.27526,-4.50868,0.607127,45,10
8.02958,-6.86518,-1.67322,16,3
4.8561,-4.15337,0.784595,25,11
6.24608,-5.34409,-1.00932,55,4
4.74535,-4.06152,0.989292,42,12
7.55057,-6.46476,-0.86964,19,5
24.453,-20.9366,6.25739,15,13
16.8036,-14.3974,5.10864,51,14
6.31769,-5.41492,-0.145239,89,7
28.9019,-24.7807,10.2011,19,15
6.68218,-5.74555,0.153826,56,8
0.401855,-0.34565,-0.122373,15,1
0.495492,-0.426491,-0.127079,14,2
5.34325,-4.60079,0.616888,58,10
5.43602,-4.68232,-1.13634,13,3
4.91678,-4.23507,0.796782,67,11
6.24393,-5.38011,-1.012,50,4
4.71918,-4.06774,0.986789,16,12
6.8082,-5.87047,-0.786493,1,5
23.9361,-20.6465,6.14443,30,13
5.47245,-4.72202,-0.378808,49,6
18.1079,-15.6303,5.52255,62,14
7.40683,-6.3934,-0.170789,43,7
28.7509,-24.8259,10.1783,19,15
6.65201,-5.76215,0.153616,66,8
0.37113,-0.321597,-0.113375,16,1
0.467297,-0.405071,-0.12021,15,2
5.31361,-4.60766,0.61532,46,10
4.89223,-4.24526,0.795319,27,11
4.40729,-3.8258,-0.716592,34,4
17.9742,-15.6082,3.77038,16,12
5.63383,-4.89223,-0.652797,13,5
23.8239,-20.6952,6.13413,20,13
5.54789,-4.82101,-0.385193,24,6
18.068,-15.7062,5.52705,57,14
8.01409,-6.969,-0.185379,100,7
27.3843,-23.8216,9.72538,8,15
0.363999,-0.317424,-0.12941,15,0
6.64843,-5.7998,0.154,46,8
0.399371,-0.348516,-0.122373,15,1
4.6748,-4.08096,0.325216,21,9
0.483628,-0.422193,-0.124789,14,2
5.26898,-4.60128,0.612008,9,10
4.97178,-4.34327,-1.04561,10,3
5.35271,-4.6777,0.872828,64,11
4.39391,-3.84116,-0.716592,40,4
24.4787,-21.4069,5.15045,8,12
5.60922,-4.90531,-0.651925,26,5
18.0013,-15.7589,5.52345,6,14
8.05741,-7.05621,-0.18695,100,7
27.288,-23.9056,9.72073,17,15
6.70326,-5.88896,0.155745,56,8
0.380587,-0.334471,-0.116975,16,1
4.61253,-4.05506,0.321866,53,9
0.485101,-0.426472,-0.125552,14,2
4.21799,-3.71082,-0.889799,16,3
5.34678,-4.70554,0.874534,38,11
4.37898,-3.85516,-0.716348,40,4
17.6514,-15.5454,3.72533,11,12
5.57113,-4.90643,-0.649485,25,5
24.2695,-21.3814,6.28716,26,13
5.81078,-5.12109,-0.405918,32,6
24.0841,-21.233,7.41259,32,14
27.3941,-24.1682,9.78854,8,15
6.61976,-5.85667,0.154279,60,8
0.396928,-0.351296,-0.122373,15,1
4.69405,-4.15587,0.328565,105,9
0.46597,-0.412545,-0.120973,15,2
4.91008,-4.34866,0.573833,22,10
4.77869,-4.23378,-1.01119,45,3
5.26942,-4.67019,0.864541,28,11
4.36995,-3.87437,-0.717079,24,4
17.6162,-15.6239,3.7294,9,12
5.53757,-4.9113,-0.647567,6,5
24.18,-21.453,6.28334,26,13
7.54955,-6.70045,-0.529012,42,6
17.9622,-15.9476,5.54549,51,14
7.09592,-6.30227,-0.165658,51,7
24.4732,-21.7436,8.7719,7,15
6.659,-5.93295,0.155675,75,8
0.3957,-0.352679,-0.122373,15,1
4.57814,-4.08184,0.321447,74,9
0.479181,-0.427235,-0.124789,14,2
5.08074,-4.53155,0.595622,46,10
4.78157,-4.26622,-1.01495,66,3
4.80878,-4.292,0.79142,75,11
6.18959,-5.52636,-1.01883,31,4
17.6028,-15.7222,3.73816,9,12
7.33031,-6.54715,-0.859879,33,5
18.694,-16.7026,4.87288,15,13
6.05336,-5.41043,-0.425491,47,6
17.828,-15.9401,5.5212,50,14
6.80261,-6.08437,-0.159306,100,7
24.5066,-21.9268,8.81124,29,15
6.89425,-6.18586,0.161679,55,8
0.374163,-0.335835,-0.116075,16,1
4.49402,-4.03508,0.316528,38,9
0.48353,-0.434151,-0.126316,14,2
4.91814,-4.41745,0.578366,78,10
4.23621,-3.80627,-0.902001,12,3
4.66976,-4.1973,0.770946,27,11
4.36789,-3.92735,-0.721223,15,4
16.2906,-14.6527,3.47034,24,12
9.01059,-8.10748,2.35611,14,13
5.59206,-5.03335,-0.394299,32,6
17.4797,-15.7388,5.43032,30,14
6.84373,-6.16429,-0.160772,8,7
24.2878,-21.8842,8.75999,14,15
6.8563,-6.19514,0.161295,97,8
0.393228,-0.355433,-0.122373,15,1
4.50065,-4.0695,0.317993,39,9
0.484924,-0.43847,-0.127079,14,2
4.87019,-4.40519,0.574531,65,10
4.7684,-4.31615,0.789713,10,11
4.29383,-3.88794,-0.71123,39,4
16.0622,-14.549,3.43249,28,12
8.88912,-8.05451,2.33169,37,13
17.4016,-15.7788,5.42312,54,14
7.67383,-6.96065,-0.180842,21,7
24.3744,-22.1168,8.819,14,15
6.7873,-6.17597,0.160178,22,8
0.391985,-0.356804,-0.122373,15,1
4.42587,-4.03005,0.313702,34,9
0.471702,-0.429668,-0.124026,14,2
4.7899,-4.36612,-1.02652,46,3
4.72543,-4.30736,0.785082,22,11
8.45044,-7.7055,-1.40418,9,4
8.96233,-8.17513,1.92133,20,12
4.53596,-4.139,-0.537228,60,5
8.77254,-8.00762,2.30879,29,13
5.86562,-5.35605,-0.41628,39,6
17.3264,-15.8267,5.41772,30,14
7.27595,-6.64618,-0.172011,96,7
17.2662,-15.7772,6.26704,35,15
6.61131,-6.06028,0.156548,35,8
0.390674,-0.358238,-0.122373,15,1
4.42873,-4.06245,0.314958,37,9
0.458626,-0.420695,-0.120973,15,2
4.82533,-4.4278,0.572962,7,10
4.66575,-4.28437,0.77777,40,11
8.4163,-7.73105,-1.4032,17,4
4.51415,-4.14807,-0.536356,58,5
8.83126,-8.11791,2.33169,57,13
5.89541,-5.42111,-0.419734,21,6
17.8218,-16.3937,5.59048,52,14
7.68416,-7.0709,-0.182273,100,7
17.3475,-15.9686,6.31777,27,15
5.22654,-4.82461,0.124156,79,8
0.389421,-0.359599,-0.122373,15,1
4.68007,-4.32318,0.333903,37,9
0.465807,-0.430286,-0.123263,15,2
4.81716,-4.45138,0.573833,15,10
4.55311,-4.21033,0.76144,27,11
5.74731,-5.31648,-0.961305,10,4
8.97899,-8.30882,1.9376,28,12
4.50403,-4.16786,-0.536879,50,5
5.50423,-5.09697,-0.393148,32,6
17.0353,-15.7804,5.36103,29,14
7.1974,-6.66953,-0.171278,100,7
17.4702,-16.1946,6.383,20,15
5.1877,-4.8224,0.123633,41,8
0.388164,-0.360957,-0.122373,15,1
4.96181,-4.61564,0.355152,66,9
0.475802,-0.442607,-0.126316,14,2
4.24653,-3.95303,-0.918896,45,3
4.53258,-4.22079,0.760465,55,11
4.23989,-3.94961,-0.711473,22,4
4.12068,-3.83991,-0.492779,10,5
8.69682,-8.10708,2.31108,8,13
5.48494,-5.11479,-0.393043,39,6
16.9531,-15.8145,5.35249,5,14
5.55271,-5.18161,-0.132568,44,7
17.3486,-16.1948,6.35918,20,15
5.1723,-4.84184,0.123668,39,8
0.386901,-0.362309,-0.122373,15,1
9.05904,-8.4862,0.650536,42,9
0.471389,-0.441581,-0.125552,14,2
8.88282,-8.32404,1.06504,67,10
4.22694,-3.96243,-0.917645,28,3
4.51637,-4.23522,0.760221,22,11
4.22173,-3.96031,-0.710742,31,4
8.8473,-8.30236,1.92164,41,12
4.14067,-3.88563,-0.496788,6,5
8.63555,-8.10648,2.3023,6,13
5.91548,-5.55501,-0.425282,14,6
16.9603,-15.9323,5.37228,47,14
7.10695,-6.67854,-0.170231,96,7
17.1934,-16.1627,6.32295,20,15
5.11026,-4.81735,0.122586,56,8
0.385634,-0.363658,-0.122373,15,1
5.50479,-5.19289,0.396602,18,9
0.464132,-0.437835,-0.124026,14,2
9.00441,-8.49721,1.08317,54,10
4.07662,-3.84834,-0.887922,52,3
4.5131,-4.26187,0.762171,27,11
6.32481,-5.9748,-1.06831,8,4
8.96615,-8.47294,1.95387,8,12
4.1097,-3.88363,-0.494696,42,5
8.77127,-8.29168,2.34619,7,13
16.9527,-16.0369,5.38758,41,14
7.75753,-7.34106,-0.186427,100,7
17.4652,-16.5333,6.44408,14,15
7.97368,-7.56939,0.191907,22,8
0.384363,-0.365002,-0.122373,15,1
5.49531,-5.22033,0.39723,18,9
0.456907,-0.434044,-0.122499,15,2
8.97614,-8.52996,1.08335,31,10
4.0374,-3.83805,-0.88229,68,3
4.46799,-4.24887,0.757052,27,11
4.09186,-3.89254,-0.693437,44,4
4.04705,-3.85126,-0.488769,35,5
5.42818,-5.16919,-0.392834,61,6
16.9051,-16.1041,5.39028,5,14
7.62039,-7.26187,-0.183739,90,7
17.3067,-16.4982,6.40681,21,15
7.97045,-7.62206,0.1925,10,8
0.366124,-0.350243,-0.116975,16,1
5.49202,-5.25562,0.398381,17,9
0.466661,-0.446574,-0.125552,14,2
4.60122,-4.40471,0.557274,46,10
3.99905,-3.82959,-0.876972,63,3
5.57337,-5.33907,0.947656,11,11
4.0618,-3.89241,-0.690755,54,4
8.83114,-8.4658,1.9376,79,12
4.11776,-3.94741,-0.499054,31,5
8.99086,-8.62192,2.42137,15,13
17.3999,-16.6976,5.56754,25,14
7.50572,-7.20528,-0.18161,100,7
17.2768,-16.591,6.41819,28,15
7.61251,-7.3308,0.184472,35,8
0.364899,-0.351519,-0.116975,16,1
9.11793,-8.78665,0.66362,4,9
0.44248,-0.426404,-0.119446,15,2
4.58008,-4.41521,0.556577,54,10
4.08235,-3.93677,-0.898247,42,3
8.87352,-8.56008,1.51386,21,11
4.04962,-3.90794,-0.690999,55,4
8.8129,-8.50755,1.9401,66,12
4.13549,-3.9922,-0.502889,31,5
8.70509,-8.40641,2.35229,9,13
4.47172,-4.3198,-0.325844,26,6
17.3934,-16.8083,5.58419,26,14
7.46327,-7.21475,-0.181191,100,7
17.2826,-16.713,6.44201,24,15
7.57969,-7.35037,0.184297,31,8
0.380455,-0.369073,-0.122373,15,1
23.4017,-22.7095,1.70898,14,9
0.463532,-0.449821,-0.125552,14,2
4.04732,-3.93036,-0.893554,62,3
4.23313,-4.11223,0.724635,5,11
4.04165,-3.92759,-0.691974,23,4
8.79165,-8.54652,1.94198,77,12
4.13868,-4.02328,-0.50498,13,5
4.38646,-4.26714,-0.320715,42,6
17.639,-17.1652,5.68226,27,14
4.09228,-3.98374,-0.0996881,23,7
17.2339,-16.7826,6.44563,14,15
5.35503,-5.22941,0.130649,52,8
0.351285,-0.343163,-0.113375,16,1
0.453534,-0.443204,-0.123263,15,2
5.21022,-5.09332,0.637457,24,10
4.03923,-3.94998,-0.894805,52,3
4.24145,-4.14919,0.728535,15,11
4.20526,-4.11522,-0.722442,62,4
8.78011,-8.59512,1.94604,47,12
4.08332,-3.99728,-0.499925,25,5
8.73316,-8.55214,2.37595,58,13
17.6403,-17.2867,5.70206,34,14
4.03694,-3.95741,-0.0986759,64,7
16.7904,-16.4653,6.30121,6,15
4.79922,-4.71948,0.11749,56,8
0.377869,-0.37172,-0.122373,15,1
8.90157,-8.75978,0.654514,13,9
0.454783,-0.447538,-0.124026,14,2
16.8622,-16.5994,2.07012,30,10
4.32521,-4.25928,-0.961446,27,3
15.2461,-15.019,2.62775,56,11
4.04099,-3.98218,-0.696605,45,4
4.1261,-4.06746,-0.506898,48,5
8.69487,-8.5743,2.37366,50,13
5.02484,-4.95689,-0.369911,24,6
4.00176,-3.9504,-0.0981523,49,7
17.1424,-16.9283,6.45546,10,15
5.27293,-5.22164,0.129532,75,8
0.376569,-0.373037,-0.122373,15,1
4.28864,-4.24989,0.316423,9,9
0.442062,-0.438068,-0.120973,15,2
4.49676,-4.45769,0.553962,3,10
4.49967,-4.46213,-1.00368,17,3
15.2542,-15.1322,2.63823,37,11
4.09048,-4.05918,-0.707573,37,4
16.4739,-16.3536,3.67652,22,12
4.17692,-4.14641,-0.514916,37,5
8.66488,-8.6046,2.37366,49,13
3.7365,-3.7118,-0.27602,22,6
8.51767,-8.46432,2.7723,55,14
3.98794,-3.96435,-0.0981523,13,7
16.7079,-16.6148,6.31363,6,15
7.35739,-7.33687,0.181365,36,8
0.375265,-0.374349,-0.122373,15,1
0.44053,-0.439608,-0.120973,15,2
4.73287,-4.72627,-1.05937,15,3
4.23007,-4.22565,0.734141,10,11
3.97799,-3.97522,-0.690512,24,4
16.6933,-16.6875,3.73847,24,12
4.27232,-4.27083,-0.528512,43,5
3.73058,-3.73188,-0.276543,33,6
8.09135,-8.09701,2.64272,40,14
3.99387,-3.99805,-0.098641,13,7
16.7931,-16.8166,6.36798,3,15
4.94285,-4.9636,0.122272,34,8
0.373956,-0.375657,-0.122373,15,1
4.23491,-4.25566,0.314644,29,9
0.438992,-0.441143,-0.120973,15,2
4.42759,-4.45084,0.549255,90,10
4.06169,-4.08443,-0.912326,13,3
4.17331,-4.19815,0.726829,27,11
3.74161,-3.76519,-0.651757,62,4
16.628,-16.7386,3.73691,27,12
4.27564,-4.3041,-0.530778,21,5
3.78507,-3.81292,-0.281567,27,6
7.83518,-7.89558,2.56804,9,14
4.89388,-4.93333,-0.121294,70,7
4.95643,-5.0121,0.123039,52,8
0.372642,-0.37696,-0.122373,15,1
4.23548,-4.28604,0.315795,14,9
0.42917,-0.434294,-0.118683,15,2
4.41343,-4.46768,0.54943,93,10
4.164,-4.21665,-0.938607,37,3
4.24789,-4.30311,0.742428,27,11
3.68801,-3.73726,-0.644689,37,4
15.6747,-15.8895,3.53511,8,12
4.55922,-4.62333,-0.568081,32,5
3.86989,-3.92567,-0.288895,31,6
7.71866,-7.83266,2.5388,28,14
5.16151,-5.23957,-0.12838,28,7
8.50167,-8.63325,3.24663,47,15
8.01153,-8.15829,0.199586,50,8
0.371324,-0.378258,-0.122373,15,1
5.39976,-5.50252,0.404034,7,9
0.422076,-0.430258,-0.117157,16,2
4.36773,-4.45395,0.545769,97,10
4.17893,-4.26292,-0.94549,60,3
4.24535,-4.33067,0.744622,25,11
3.79721,-3.87487,-0.666138,64,4
15.7186,-16.0457,3.55763,25,12
3.8823,-3.96447,-0.485457,32,5
15.7828,-16.1225,4.38555,20,13
3.92113,-4.00692,-0.293814,24,6
7.82481,-7.99881,2.58334,66,14
7.77911,-7.95209,-0.194175,46,7
8.47958,-8.67117,3.24973,38,15
7.9746,-8.18044,0.199411,36,8
0.350894,-0.360077,-0.116075,16,1
5.02647,-5.15801,0.377447,19,9
0.439751,-0.451417,-0.122499,15,2
4.32575,-4.44205,0.542457,65,10
4.1723,-4.28597,-0.947367,52,3
15.669,-16.1016,2.75863,7,11
3.69993,-3.80339,-0.651514,39,4
15.6557,-16.0934,3.55607,40,12
3.87538,-3.98514,-0.486329,40,5
15.7127,-16.1634,4.38174,27,13
3.92521,-4.03921,-0.295175,18,6
8.42418,-8.67185,2.79119,23,14
7.79589,-8.02509,-0.195292,46,7
7.95995,-8.21976,0.199725,20,8
0.368674,-0.380841,-0.122373,15,1
5.03899,-5.2071,0.37975,8,9
0.432712,-0.447305,-0.120973,15,2
5.28112,-5.46113,0.66465,65,10
4.09764,-4.23731,-0.933601,36,3
25.3894,-26.264,4.48528,14,11
3.6804,-3.8085,-0.650295,10,4
15.6255,-16.175,3.56201,14,12
3.8656,-4.00294,-0.486852,31,5
15.6468,-16.2027,4.3783,30,13
7.26595,-7.52674,-0.548272,21,6
15.8584,-16.4333,5.2724,22,14
7.78449,-8.06952,-0.195711,100,7
15.9218,-16.5105,6.14592,6,15
0.367343,-0.382126,-0.122373,15,1
0.463875,-0.482711,-0.130132,13,2
4.21828,-4.39264,-0.964575,72,3
15.9893,-16.6561,2.83492,22,11
4.15502,-4.32979,-0.736822,26,4
3.73438,-3.89418,-0.472035,43,5
7.2189,-7.53043,-0.546701,56,6
15.6,-16.2789,5.20537,48,14
7.22508,-7.54214,-0.182308,99,7
15.9803,-16.6874,6.19095,3,15
22.0402,-23.0798,0.557046,16,8
0.366007,-0.383406,-0.122373,15,1
5.01492,-5.25516,0.380692,30,9
0.429579,-0.450315,-0.120973,15,2
4.33399,-4.54478,0.54943,3,10
4.17217,-4.37661,-0.957692,43,3
16.6009,-17.4144,2.95411,8,11
3.9372,-4.13158,-0.700749,57,4
17.2153,-18.0715,3.9531,25,12
3.70977,-3.89565,-0.470641,53,5
8.72698,-9.16744,2.46029,27,13
5.40549,-5.68029,-0.410942,21,6
15.5214,-16.3162,5.19907,59,14
7.7128,-8.10774,-0.195327,100,7
15.6224,-16.4281,6.07448,12,15
21.9417,-23.146,0.556697,37,8
0.364599,-0.384745,-0.122373,15,1
4.97365,-5.2503,0.379017,112,9
0.436106,-0.460363,-0.123263,15,2
5.23323,-5.52626,0.66587,28,10
4.4013,-4.64937,-1.01401,45,3
8.43767,-8.91635,1.50728,7,11
3.87428,-4.09551,-0.692218,45,4
8.82217,-9.32918,2.03365,12,12
3.7119,-3.92659,-0.472733,33,5
16.4782,-17.4313,4.66261,23,13
5.36642,-5.6788,-0.409477,50,6
8.40131,-8.89345,2.82449,6,14
7.65558,-8.10687,-0.194629,100,7
15.5236,-16.4445,6.05947,39,15
22.0472,-23.4204,0.561444,4,8
0.363254,-0.386015,-0.122373,15,1
5.09762,-5.41893,0.389903,78,9
0.437105,-0.464819,-0.124026,14,2
5.17473,-5.50475,0.660989,61,10
4.37747,-4.65827,-1.01244,42,3
8.36027,-8.89656,1.49899,14,11
3.95646,-4.21173,-0.709523,47,4
8.18104,-8.71193,1.89286,21,12
3.78817,-4.0354,-0.484237,15,5
8.02034,-8.54677,2.27826,10,13
3.87937,-4.13544,-0.297164,15,6
16.2081,-17.284,5.47036,6,14
7.52054,-8.01977,-0.191907,100,7
15.478,-16.5113,6.06413,27,15
7.39594,-7.91454,0.189079,32,8
0.335231,-0.358863,-0.113375,16,1
5.05182,-5.40984,0.387914,105,9
0.43012,-0.460602,-0.122499,15,2
5.08071,-5.44268,0.651402,28,10
4.2938,-4.60131,-0.996801,10,3
8.20981,-8.80086,1.47779,45,11
3.77989,-4.05344,-0.680518,48,4
7.65672,-8.21658,-0.982594,17,5
8.02258,-8.60919,2.28742,13,13
5.36649,-5.7609,-0.412617,18,6
8.37995,-8.99898,2.83888,23,14
7.30307,-7.84529,-0.18709,63,7
16.3518,-17.572,6.43165,7,15
0.360482,-0.388604,-0.122373,15,1
4.9555,-5.34396,0.381948,68,9
0.42309,-0.456417,-0.120973,15,2
5.04312,-5.44227,0.649136,60,10
8.21411,-8.86733,1.48413,56,11
3.80349,-4.10739,-0.687343,38,4
15.5768,-16.8273,3.63178,23,12
3.5278,-3.81234,-0.45443,2,5
4.96973,-5.37434,-0.383623,21,6
4.1387,-4.47722,-0.106425,57,7
16.3035,-17.6432,6.43683,21,15
6.83512,-7.42013,0.176095,46,8
0.359055,-0.389923,-0.122373,15,1
4.92371,-5.34887,0.381006,55,9
0.43745,-0.475224,-0.125552,14,2
8.11356,-8.81725,1.04831,18,10
4.2621,-4.63337,-0.997113,40,3
8.19633,-8.91345,1.48681,66,11
3.84617,-4.18415,-0.697824,62,4
15.4749,-16.8406,3.6224,8,12
3.44167,-3.74541,-0.445017,31,5
4.94824,-5.38871,-0.383413,45,6
8.231,-8.96684,2.81009,17,14
4.10063,-4.46878,-0.105866,25,7
16.351,-17.8252,6.48135,18,15
6.82402,-7.46017,0.176479,66,8
0.331391,-0.362411,-0.113375,16,1
4.15713,-4.54785,0.322913,20,9
0.425192,-0.465155,-0.122499,15,2
15.0594,-16.4806,1.95316,36,10
4.13266,-4.52425,-0.97052,37,3
8.13037,-8.90389,1.48047,49,11
3.74322,-4.10078,-0.681737,48,4
15.3561,-16.8289,3.60832,21,12
9.18077,-10.0648,2.64805,20,13
8.21671,-9.01424,2.81594,36,14
5.05878,-5.55173,-0.131102,100,7
15.5394,-17.0596,6.18319,6,15
6.84231,-7.53279,0.177631,60,8
0.356325,-0.39242,-0.122373,15,1
4.16002,-4.58304,0.324378,4,9
0.423566,-0.466637,-0.122499,15,2
7.4413,-8.20085,0.968823,46,10
3.91378,-4.31479,-0.922651,45,3
8.11257,-8.94692,1.48291,45,11
3.75421,-4.14177,-0.686368,57,4
15.28,-16.8633,3.60425,23,12
3.90909,-4.31415,-0.509338,11,5
7.73664,-8.54131,2.2401,14,13
3.93993,-4.35123,-0.307631,43,6
8.19043,-9.04864,2.81774,48,14
4.04652,-4.47209,-0.105273,15,7
15.4771,-17.1108,6.18215,25,15
6.83606,-7.5789,0.178154,50,8
0.354953,-0.393662,-0.122373,15,1
4.14667,-4.6005,0.324588,8,9
0.416677,-0.462279,-0.120973,15,2
3.79426,-4.21247,-0.897934,57,3
8.10254,-8.99879,1.48681,49,11
3.68262,-4.0914,-0.675887,42,4
15.2422,-16.9401,3.60926,23,12
3.98214,-4.42882,-0.312132,15,6
8.19397,-9.11631,2.82988,44,14
4.03623,-4.49214,-0.105413,20,7
15.3708,-17.113,6.16352,34,15
0.386745,-0.43164,-0.155291,12,0
8.3145,-9.28295,0.217527,13,8
0.354876,-0.39635,-0.122823,15,1
4.09862,-4.57923,0.322076,1,9
0.420298,-0.469582,-0.122499,15,2
3.84406,-4.29784,-0.913265,26,3
8.09093,-9.04921,1.49046,59,11
4.13397,-4.62522,-0.761683,24,4
15.3027,-17.1272,3.63773,8,12
3.66117,-4.09768,-0.480751,40,5
9.12587,-10.2175,2.66293,30,13
5.11062,-5.72396,-0.40215,47,6
7.75723,-8.69125,2.68951,48,14
4.95643,-5.55516,-0.129951,35,7
15.3238,-17.181,6.16869,21,15
8.19965,-9.21927,0.215363,43,8
0.35349,-0.397586,-0.122823,15,1
0.418656,-0.471047,-0.122499,15,2
7.31002,-8.22768,0.962897,44,10
3.80149,-4.28021,-0.906694,43,3
8.03689,-9.05217,1.48632,52,11
9.58202,-10.8001,2.28676,5,12
3.44454,-3.88241,-0.454081,28,5
9.09536,-10.2552,2.66446,42,13
3.80537,-4.29212,-0.300618,27,6
7.73848,-8.7314,2.69356,36,14
4.87336,-5.50059,-0.128275,100,7
16.0989,-18.1773,6.50619,7,15
8.19154,-9.27189,0.215956,11,8
0.35217,-0.398756,-0.122823,15,1
4.06471,-4.60402,0.321866,35,9
0.422289,-0.478319,-0.124026,14,2
4.98477,-5.64815,0.659072,18,10
3.86176,-4.37723,-0.924528,22,3
7.96612,-9.03261,1.47876,42,11
15.2511,-17.3051,3.65337,4,12
3.35919,-3.8116,-0.444494,41,5
9.04573,-10.2676,2.65988,34,13
3.836,-4.35568,-0.304177,15,6
8.08163,-9.17972,2.82359,36,14
6.67955,-7.5898,-0.176479,97,7
7.93568,-9.02029,3.21919,2,15
0.350776,-0.399983,-0.122823,15,1
4.69244,-5.35259,0.373051,72,9
0.407675,-0.465028,-0.12021,15,2
4.98603,-5.68949,0.661861,67,10
3.66813,-4.18712,-0.881665,52,3
8.05617,-9.19925,1.50143,38,11
3.4428,-3.93268,-0.641764,37,4
9.47316,-10.8249,2.27831,8,12
3.36292,-3.84279,-0.44676,28,5
9.02018,-10.3109,2.66293,36,13
3.79842,-4.34348,-0.302397,27,6
7.74813,-8.8631,2.71786,55,14
4.87528,-5.5788,-0.129322,57,7
7.84568,-8.98101,3.19538,5,15
8.23301,-9.45098,0.218783,25,8
0.349378,-0.401205,-0.122823,15,1
4.77995,-5.49096,0.381529,117,9
0.405968,-0.466519,-0.12021,15,2
7.26415,-8.34761,0.968126,51,10
3.71702,-4.27293,-0.896995,56,3
8.0201,-9.22282,1.5007,28,11
3.50329,-4.03007,-0.655657,52,4
14.9123,-17.1606,3.60081,23,12
3.66893,-4.2236,-0.489467,95,5
8.03366,-9.25471,-0.642267,42,6
7.70437,-8.87537,2.71336,57,14
4.92524,-5.67583,-0.131172,79,7
7.85986,-9.06088,3.21402,12,15
8.01127,-9.26479,0.213792,43,8
0.347905,-0.402483,-0.122823,15,1
4.7624,-5.51146,0.381738,129,9
0.391422,-0.453146,-0.116393,16,2
4.92305,-5.69939,0.658897,20,10
3.59031,-4.15794,-0.870089,45,3
7.78001,-9.01323,1.46194,38,11
3.49238,-4.04739,-0.656388,49,4
15.0402,-17.4366,3.64711,25,12
3.80175,-4.40904,-0.509338,48,5
7.69469,-8.93012,2.72146,48,14
4.93964,-5.73476,-0.132115,81,7
7.28331,-8.45866,2.99091,7,15
7.97726,-9.29409,0.213792,43,8
0.346427,-0.403756,-0.122823,15,1
4.74217,-5.52888,0.381738,78,9
0.415401,-0.484314,-0.124026,14,2
4.92029,-5.73857,0.661338,61,10
3.7473,-4.37205,-0.912013,32,3
7.796,-9.09896,1.47121,59,11
3.50852,-4.09635,-0.662238,35,4
14.3621,-16.7743,3.49756,8,12
3.56216,-4.16045,-0.479182,23,5
3.71484,-4.34184,-0.299466,24,6
7.7417,-9.05157,2.7498,51,14
4.877,-5.70419,-0.130998,79,7
7.91883,-9.29144,0.213094,56,8
0.345016,-0.404962,-0.122823,15,1
4.70989,-5.53019,0.380692,112,9
0.403524,-0.473804,-0.120973,15,2
6.93316,-8.14355,0.935704,19,10
3.60143,-4.23167,-0.8801,72,3
7.80921,-9.17904,1.47974,42,11
3.45562,-4.06321,-0.654926,36,4
14.3278,-16.8529,3.50351,22,12
3.72958,-4.3869,-0.50376,48,5
8.26524,-9.72537,2.4809,3,13
3.69837,-4.35326,-0.299362,21,6
7.73024,-9.1023,2.757,55,14
6.54079,-7.70445,-0.176409,100,7
7.23884,-8.52971,2.99764,19,15
7.94448,-9.38772,0.214665,51,8
0.3436,-0.406164,-0.122823,15,1
4.70862,-5.56795,0.382157,65,9
0.396797,-0.469213,-0.119446,15,2
3.57261,-4.22762,-0.876659,68,3
7.78481,-9.21534,1.4812,52,11
3.40427,-4.03126,-0.647857,46,4
14.2994,-16.9391,3.51102,10,12
3.89803,-4.6176,-0.528687,12,5
7.72352,-9.1525,2.32787,10,13
3.54149,-4.19821,-0.287848,11,6
7.65445,-9.07709,2.74125,48,14
6.49195,-7.70125,-0.175816,100,7
7.24015,-8.59186,3.01058,17,15
7.83447,-9.32353,0.21257,60,8
0.34218,-0.407361,-0.122823,15,1
0.417881,-0.497658,-0.126316,14,2
6.86205,-8.17497,0.933787,59,10
3.54133,-4.22039,-0.872591,46,3
7.72836,-9.21356,1.47657,17,11
3.47308,-4.14199,-0.6637,16,4
3.88189,-4.63118,-0.528687,26,5
8.90704,-10.6301,2.69575,30,13
3.60505,-4.30395,-0.294233,33,6
7.70904,-9.20684,2.7723,44,14
6.51251,-7.7806,-0.177107,100,7
7.16424,-8.56226,2.99143,24,15
0.340756,-0.408553,-0.122823,15,1
11.7732,-14.1206,0.963505,32,9
0.408598,-0.490067,-0.124026,14,2
6.86153,-8.23255,0.937621,59,10
3.5291,-4.23576,-0.873217,8,3
8.07981,-9.70113,1.55018,39,11
3.68342,-4.42412,-0.706842,42,4
9.30309,-11.1778,2.30334,11,12
3.74079,-4.49462,-0.511604,17,5
8.83848,-10.6234,2.68621,35,13
3.66152,-4.4025,-0.300094,48,6
7.37661,-8.87256,2.66387,46,14
6.55689,-7.88941,-0.179062,88,7
7.18986,-8.65409,3.01472,36,15
3.70217,-4.46879,0.101294,42,8
0.339328,-0.40974,-0.122823,15,1
4.61694,-5.57695,0.379436,43,9
0.391861,-0.473343,-0.119446,15,2
6.83021,-8.25338,0.937273,55,10
3.43119,-4.1476,-0.852568,65,3
8.00162,-9.67574,1.54165,31,11
3.48961,-4.22122,-0.672475,36,4
9.23885,-11.1798,2.29708,48,12
3.6997,-4.47694,-0.508118,40,5
3.63977,-4.40755,-0.299571,33,6
7.35552,-8.91028,2.66747,58,14
6.57386,-7.96623,-0.180283,100,7
7.11413,-8.62399,2.99557,38,15
3.63573,-4.41992,0.0998976,22,8
0.337896,-0.410922,-0.122823,15,1
4.60505,-5.60229,0.380064,58,9
0.395193,-0.480774,-0.120973,15,2
6.83552,-8.31873,0.941979,53,10
3.46058,-4.21297,-0.863518,57,3
7.91363,-9.63764,1.53117,49,11
3.47738,-4.23644,-0.672963,42,4
9.16092,-11.1646,2.28738,19,12
3.59608,-4.38417,-0.496091,35,5
8.95834,-10.9216,2.74574,6,13
3.33563,-4.06809,-0.275706,30,6
7.3429,-8.95851,2.67422,70,14
6.54348,-7.98603,-0.180214,99,7
7.14029,-8.71752,3.01938,30,15
7.87304,-9.63955,0.217248,28,8
0.336459,-0.412099,-0.122823,15,1
6.87126,-8.41899,0.56952,56,9
0.408322,-0.500474,-0.125552,14,2
6.76217,-8.29123,0.936053,42,10
3.46384,-4.24859,-0.868211,47,3
7.91381,-9.70675,1.53775,21,11
3.80619,-4.67018,-0.739747,47,4
9.10567,-11.1766,2.28332,31,12
3.37567,-4.14489,-0.467678,40,5
7.56966,-9.29788,2.33054,16,13
3.60814,-4.43348,-0.299571,33,6
7.342,-9.02466,2.68592,56,14
6.5509,-8.05226,-0.181191,45,7
7.07447,-8.69893,3.00437,41,15
0.36504,-0.450144,-0.155291,12,0
7.57824,-9.34834,0.210057,47,8
0.334947,-0.413329,-0.122823,15,1
6.89441,-8.51085,0.574021,35,9
0.379385,-0.468334,-0.117157,16,2
6.55388,-8.09337,0.911126,60,10
3.4117,-4.2146,-0.858825,45,3
8.13791,-10.0567,1.58845,18,11
6.69045,-8.27087,-1.3062,20,4
9.29195,-11.491,2.34057,48,12
3.37048,-4.16963,-0.469072,55,5
8.61214,-10.6541,2.66293,15,13
3.41815,-4.23012,-0.285022,11,6
7.34596,-9.0942,2.69896,40,14
6.4736,-8.01709,-0.179865,99,7
7.14082,-8.84656,3.0463,24,15
7.5393,-9.36695,0.209883,32,8
0.333502,-0.414496,-0.122823,15,1
6.90472,-8.58467,0.57737,34,9
0.399809,-0.497263,-0.124026,14,2
6.54914,-8.1484,0.914612,52,10
3.34426,-4.1624,-0.845685,50,3
11.4523,-14.2539,2.24508,19,11
9.05391,-11.2769,2.29051,25,12
3.36214,-4.18914,-0.469944,43,5
7.42308,-9.25227,2.30574,7,13
6.30042,-7.85578,-0.527756,14,6
7.25041,-9.04352,2.67602,60,14
6.43307,-8.02404,-0.179515,100,7
7.17756,-8.95585,3.07529,34,15
7.6472,-9.57263,0.213862,11,8
0.33198,-0.415716,-0.122823,15,1
6.88343,-8.61964,0.578103,30,9
0.385823,-0.483312,-0.12021,15,2
6.48461,-8.12605,0.909557,56,10
3.38392,-4.24199,-0.859451,52,3
7.17463,-8.99717,1.41295,20,11
3.75048,-4.70488,-0.738772,23,4
7.35713,-9.22933,1.86939,42,12
3.78952,-4.75556,-0.531999,41,5
6.13362,-7.70273,-0.516033,14,6
7.29162,-9.16026,2.70301,40,14
6.41249,-8.05583,-0.179725,23,7
7.07528,-8.89166,3.04475,36,15
8.22072,-10.3608,0.23086,35,8
0.313646,-0.395439,-0.116525,16,1
7.49855,-9.45743,0.632532,66,9
0.386572,-0.487733,-0.120973,15,2
6.50818,-8.21422,0.916878,46,10
3.32567,-4.19745,-0.848188,22,3
6.98823,-8.82328,1.382,39,11
3.45022,-4.35778,-0.682468,40,4
7.24028,-9.14808,1.8478,49,12
5.46032,-6.90157,-0.769934,11,5
8.45746,-10.6898,2.64957,46,13
6.1737,-7.80605,-0.52158,31,6
7.33493,-9.27764,2.73046,51,14
6.37193,-8.06248,-0.179376,22,7
7.04061,-8.91176,3.04319,7,15
8.1449,-10.3392,0.229743,36,8
0.329143,-0.417966,-0.122823,15,1
7.45561,-9.47099,0.631695,56,9
0.384953,-0.489012,-0.120973,15,2
6.49815,-8.25768,0.919319,58,10
3.32077,-4.22146,-0.850691,41,3
6.21871,-7.90824,1.23527,2,11
3.39573,-4.31985,-0.674669,38,4
6.99228,-8.89837,1.79243,25,12
3.70208,-4.71296,-0.524329,13,5
8.41525,-10.7131,2.64805,45,13
6.08104,-7.7443,-0.516033,66,6
6.95957,-8.86631,2.60223,50,14
6.37585,-8.12558,-0.180283,22,7
13.2976,-16.9529,5.77322,5,15
7.98926,-10.2148,0.226358,27,8
0.327682,-0.419112,-0.122823,15,1
7.31674,-9.36163,0.622693,38,9
0.383158,-0.49042,-0.120973,15,2
6.34398,-8.12284,0.901713,48,10
3.28704,-4.21024,-0.845998,42,3
6.70291,-8.58551,1.33739,28,11
3.36964,-4.3176,-0.672475,36,4
7.10455,-9.10651,1.82934,6,12
8.38317,-10.7532,2.65034,38,13
6.00228,-7.70195,-0.511741,70,6
6.82403,-8.75955,2.56354,65,14
6.37325,-8.18091,-0.181016,26,7
13.2075,-16.9596,5.75976,25,15
7.8267,-10.0829,0.222797,58,8
0.326144,-0.42031,-0.122823,15,1
7.18812,-9.26686,0.614634,40,9
0.371817,-0.479344,-0.11792,16,2
6.45599,-8.32601,0.921759,40,10
3.27111,-4.22013,-0.845685,33,3
6.67383,-8.61316,1.33788,37,11
3.37081,-4.35189,-0.675887,49,4
3.7024,-4.78344,-0.52921,40,5
6.8459,-8.84479,2.17408,35,13
5.93503,-7.67073,-0.508287,28,6
6.89118,-8.90971,2.60043,46,14
6.37136,-8.2406,-0.181819,100,7
13.1074,-16.959,5.74319,20,15
7.91841,-10.2748,0.226428,10,8
0.324674,-0.421446,-0.122823,15,1
7.46891,-9.69858,0.641534,105,9
0.377244,-0.490038,-0.12021,15,2
6.29784,-8.18382,0.903456,62,10
3.25321,-4.22896,-0.845059,33,3
6.66309,-8.66158,1.34178,18,11
3.3677,-4.37937,-0.678325,51,4
6.8213,-8.87365,1.77272,68,12
3.30328,-4.2987,-0.474302,27,5
8.29524,-10.7989,2.6469,26,13
5.90809,-7.69401,-0.508392,49,6
6.87272,-8.95346,2.60583,60,14
6.39978,-8.33734,-0.18346,22,7
12.947,-16.8728,5.69868,27,15
7.63165,-9.97817,0.219272,36,8
0.299455,-0.391671,-0.113825,16,1
7.47576,-9.78143,0.645198,49,9
0.370762,-0.485112,-0.118683,15,2
6.25956,-8.19309,0.902062,52,10
3.25042,-4.25599,-0.848188,32,3
6.62648,-8.67963,1.34081,25,11
3.35524,-4.39641,-0.679056,53,4
6.97444,-9.14202,1.82121,34,12
3.281,-4.30069,-0.473256,45,5
8.24797,-10.8153,2.64385,43,13
7.1627,-9.39899,2.72821,42,14
6.32677,-8.30507,-0.182238,22,7
12.7657,-16.7634,5.64588,21,15
7.54236,-9.93308,0.217701,20,8
0.305156,-0.402028,-0.116525,16,1
7.41863,-9.77723,0.643209,42,9
0.38568,-0.508299,-0.124026,14,2
6.33327,-8.34982,0.916878,32,10
3.24151,-4.27518,-0.849752,31,3
11.7906,-15.556,2.39668,15,11
3.34586,-4.41601,-0.680275,25,4
7.37781,-9.74107,1.93541,10,12
3.29003,-4.34389,-0.476742,33,5
8.19121,-10.8189,2.63774,24,13
3.30981,-4.37317,-0.287429,11,6
6.87471,-9.0867,2.63058,48,14
6.35685,-8.40525,-0.183948,23,7
12.6372,-16.7154,5.61482,23,15
7.55217,-10.0184,0.218993,55,8
0.320169,-0.424879,-0.122823,15,1
7.50463,-9.9626,0.653676,18,9
0.374454,-0.497097,-0.120973,15,2
6.40955,-8.51194,0.932218,51,10
3.31092,-4.39852,-0.871966,15,3
7.42747,-9.87092,1.51679,14,11
3.29463,-4.38007,-0.672963,21,4
6.3881,-8.49579,1.68355,3,12
3.31436,-4.4079,-0.482494,35,5
6.65412,-8.8528,2.15271,38,13
3.30172,-4.39428,-0.288057,31,6
6.61707,-8.80991,2.54375,65,14
6.40191,-8.52654,-0.186112,100,7
12.5753,-16.7548,5.61327,26,15
7.71485,-10.3089,0.224752,22,8
0.318684,-0.425994,-0.122823,15,1
7.3813,-9.87037,0.64593,63,9
0.349201,-0.466957,-0.113341,16,2
6.53488,-8.74171,0.954878,38,10
3.24942,-4.34834,-0.859764,43,3
7.26229,-9.72184,1.48997,7,11
3.27457,-4.38518,-0.671988,43,4
5.05688,-6.77445,-0.739604,26,5
6.60557,-8.85237,2.14698,33,13
6.77215,-9.07891,-0.593594,57,6
6.71791,-9.00949,2.59459,26,14
6.2753,-8.41897,-0.183285,100,7
11.6002,-15.5686,5.20226,3,15
0.31727,-0.427048,-0.122823,15,1
7.55215,-10.169,0.663829,52,9
0.370974,-0.4997,-0.120973,15,2
6.47616,-8.72334,0.95052,63,10
3.44806,-4.64621,-0.916393,33,3
8.3879,-11.3067,1.72859,42,11
3.2541,-4.38804,-0.670769,15,4
