x, y, z, intensity, ring
-6.73409,13.008,-0.255678,25,7
-10.1471,19.6093,5.91609,16,15
-7.05038,13.6774,0.268593,7,8
-0.298122,0.578591,-0.150267,12,1
-8.27342,16.0638,0.946967,37,9
-5.01509,9.7374,-2.12905,19,2
-8.66539,16.8321,1.65631,59,10
-5.68709,11.0516,-1.96857,62,3
-8.7422,16.9959,2.34672,25,11
-9.08991,17.687,3.14965,37,12
-5.21391,10.1495,-0.998282,12,5
-11.699,22.7736,4.97668,22,13
-8.87633,17.2937,4.48777,3,14
-7.37007,14.3653,-0.281821,86,7
-10.0787,19.6532,5.91816,27,15
-6.19086,12.1136,0.237457,38,8
-0.27837,0.54492,-0.141269,13,1
-7.26722,14.232,0.83748,13,9
-4.39834,8.61735,-1.88061,4,2
-8.88705,17.4193,1.71087,17,10
-5.58014,10.9422,-1.94542,31,3
-8.55927,16.784,2.31332,30,11
-4.76184,9.3416,-1.28743,39,4
-9.23348,18.1217,3.2213,16,12
-5.18206,10.1748,-0.998979,21,5
-8.76437,17.2159,3.75512,17,13
-6.65223,13.0727,-0.768711,22,6
-8.82261,17.3453,4.49272,16,14
-5.25011,10.3217,-0.202134,32,7
-9.08198,17.8629,5.36946,12,15
-7.33123,14.4569,0.282938,35,8
-0.262559,0.51798,-0.134071,14,1
-7.1963,14.2031,0.834445,29,9
-4.37896,8.64262,-1.88328,11,2
-9.46275,18.6844,1.83236,100,10
-4.74825,9.37957,-1.66509,12,3
-8.51637,16.8303,2.31601,25,11
-4.78533,9.46103,-1.30181,38,4
-9.06865,17.9373,3.18344,8,12
-5.17342,10.2328,-1.00316,65,5
-8.72388,17.2629,3.7597,17,13
-9.94192,19.6902,5.09244,5,14
-5.30415,10.5096,-0.205485,100,7
-9.75324,19.3333,5.80221,7,15
-6.16158,12.2563,0.239447,56,8
-0.281749,0.560684,-0.144868,12,1
-7.13502,14.2049,0.833084,17,9
-4.28708,8.53504,-1.85657,33,2
-9.38675,18.696,1.83027,36,10
-4.70307,9.37137,-1.66071,32,3
-8.50919,16.9629,2.33014,25,11
-4.7852,9.54333,-1.31083,19,4
-11.0674,22.0818,3.91211,67,12
-5.41889,10.8118,-1.05807,19,5
-8.64159,17.2493,3.75016,19,13
-5.35054,10.6848,-0.626252,74,6
-9.05408,18.0885,4.66998,30,14
-5.2737,10.5405,-0.205729,27,7
-9.6736,19.343,5.79496,10,15
-0.258597,0.518664,-0.155291,12,0
-6.08754,12.2151,0.238225,9,8
-0.272839,0.54771,-0.141269,13,1
-7.07987,14.2124,0.832142,19,9
-4.28701,8.60971,-1.86955,9,2
-6.67592,13.4133,1.31082,40,10
-4.68793,9.4231,-1.66697,15,3
-8.39335,16.8787,2.31454,20,11
-4.35931,8.7664,-1.20212,15,4
-10.0709,20.2611,3.5836,17,12
-5.30664,10.6808,-1.04343,40,5
-5.17024,10.4154,-0.6094,100,6
-8.96199,18.0538,4.65334,30,14
-5.09651,10.2713,-0.200144,100,7
-16.1905,32.6441,9.76369,8,15
-0.257211,0.520657,-0.134071,14,1
-7.03446,14.2394,0.832351,32,9
-4.2454,8.59747,-1.86382,33,2
-14.4065,29.1879,2.84773,35,10
-4.19343,8.4997,-1.50115,38,3
-8.35314,16.9385,2.31893,40,11
-4.32231,8.76479,-1.19993,11,4
-10.0098,20.3068,3.58579,19,12
-5.33548,10.8288,-1.05615,59,5
-10.1391,20.5872,4.46073,15,13
-5.13302,10.4271,-0.609086,60,6
-9.70423,19.7129,5.07265,5,14
-6.45825,13.1249,-0.255329,29,7
-9.7753,19.8748,5.93472,5,15
-0.255151,0.520368,-0.155291,12,0
-6.49571,13.2535,0.257632,27,8
-0.262342,0.535507,-0.13767,13,1
-4.20392,8.58506,-1.8581,30,2
-6.62097,13.527,1.31762,5,10
-4.15394,8.49049,-1.49708,23,3
-8.24286,16.8555,2.30382,53,11
-4.14437,8.47842,-1.15873,24,4
-8.61725,17.6367,3.10898,19,12
-5.32737,10.9082,-1.06208,49,5
-9.01275,18.4544,3.99211,20,13
-4.92669,10.0923,-0.58857,100,6
-8.48937,17.3981,4.46933,16,14
-4.91865,10.0847,-0.195851,25,7
-12.4792,25.5975,7.6305,10,15
-6.47998,13.3391,0.258854,31,8
-0.253662,0.522395,-0.134071,14,1
-10.3788,21.3837,1.2457,7,9
-4.23155,8.72229,-1.88443,28,2
-8.12487,16.7548,1.62912,74,10
-5.39538,11.1311,-1.95919,25,3
-8.16665,16.8485,2.29894,24,11
-5.41391,11.1743,-1.52459,51,4
-10.8467,22.3976,3.94152,20,12
-5.01061,10.3511,-1.00613,78,5
-8.40037,17.3615,3.74902,8,13
-4.88445,10.0995,-0.587942,81,6
-8.19061,16.9431,4.3447,3,14
-9.57916,19.8243,5.89952,8,15
-6.39897,13.2961,0.257563,24,8
-0.27202,0.565468,-0.144868,12,1
-16.7345,34.7872,2.0231,23,9
-4.16535,8.66269,-1.8684,26,2
-8.0715,16.7938,1.63016,40,10
-4.20428,8.75147,-1.53775,13,3
-8.05071,16.7656,2.28359,39,11
-5.36691,11.1816,-1.52288,27,4
-8.43578,17.5753,3.0877,25,12
-4.95118,10.32,-1.00142,55,5
-9.7608,20.3541,4.38784,27,13
-5.04082,10.5163,-0.611179,84,6
-8.14405,16.9979,4.35145,25,14
-6.42328,13.4064,-0.259482,35,7
-8.14145,17.0001,5.0506,9,15
-5.37565,11.2652,0.217876,46,8
-0.280211,0.587474,-0.150267,12,1
-10.2524,21.5044,1.24853,22,9
-4.07766,8.55666,-1.84245,100,2
-8.16791,17.1475,1.66171,17,10
-4.18543,8.78677,-1.54151,33,3
-9.16757,19.2548,2.61848,36,11
-5.23853,11.0075,-1.4968,9,4
-8.62216,18.1256,3.17906,8,12
-4.92368,10.3552,-1.00316,53,5
-9.71853,20.4396,4.39929,27,13
-5.05736,10.6412,-0.61746,30,6
-8.03746,16.9192,4.32446,34,14
-4.96631,10.459,-0.202099,34,7
-8.42416,17.7492,5.26438,1,15
-4.8926,10.3457,0.19976,17,8
-0.261502,0.553212,-0.141269,13,1
-10.2004,21.5888,1.25135,20,9
-3.96958,8.4015,-1.8062,26,2
-8.27947,17.5312,1.69623,35,10
-4.17581,8.84598,-1.54933,57,3
-8.01688,16.9905,2.30674,53,11
-4.19071,8.88557,-1.20626,26,4
-8.55547,18.1484,3.17781,17,12
-4.91383,10.4282,-1.00857,54,5
-8.21864,17.4418,3.74787,6,13
-7.95346,16.8943,4.31096,34,14
-4.88465,10.3804,-0.200249,38,7
-9.64238,20.5004,6.07034,15,15
-0.245939,0.524785,-0.155291,12,0
-4.87003,10.3917,0.200319,1,8
-0.25461,0.543533,-0.13857,13,1
-9.41607,20.1103,1.16374,22,9
-3.93543,8.40888,-1.80467,68,2
-7.98385,17.0669,1.64846,37,10
-5.30555,11.3467,-1.9839,46,3
-7.92641,16.9519,2.29772,43,11
-5.89783,12.6192,-1.71031,37,4
-8.5205,18.239,3.18845,13,12
-4.84368,10.3731,-1.00159,51,5
-8.99577,19.2739,4.13445,8,13
-5.01064,10.7404,-0.621123,50,6
-7.79841,16.7238,4.26012,33,14
-4.83824,10.3756,-0.19983,43,7
-9.62625,20.653,6.10554,6,15
-4.87654,10.5056,0.202169,66,8
-0.259177,0.558605,-0.142169,13,1
-9.35758,20.1684,1.16521,8,9
-4.09933,8.83933,-1.89397,26,2
-8.01555,17.2917,1.66746,38,10
-4.50023,9.71266,-1.69544,28,3
-7.89676,17.0511,2.30723,24,11
-5.06874,10.9447,-1.48096,16,4
-8.48997,18.3403,3.20096,1,12
-4.77565,10.3213,-0.99497,51,5
-8.1068,17.5287,3.75398,11,13
-5.1248,11.086,-0.640069,100,6
-7.77317,16.815,4.27677,12,14
-4.83639,10.4669,-0.201261,26,7
-8.41766,18.2258,5.37929,2,15
-4.8166,10.4672,0.201122,11,8
-0.252438,0.548838,-0.13947,13,1
-9.85817,21.4332,1.23638,15,9
-3.88138,8.44261,-1.8062,61,2
-7.95152,17.3037,1.66607,35,10
-3.87352,8.43328,-1.46986,25,3
-8.05055,17.5354,2.36914,25,11
-4.46839,9.73286,-1.31497,45,4
-8.85423,19.2948,3.3624,3,12
-5.21155,11.362,-1.09363,30,5
-8.86929,19.3454,4.13674,23,13
-4.9915,10.8923,-0.627927,65,6
-9.25744,20.2013,5.13023,5,14
-4.8183,10.5192,-0.201959,28,7
-8.83406,19.2953,5.68625,4,15
-0.240614,0.527247,-0.155291,12,0
-5.18436,11.3655,0.21805,18,8
-0.265168,0.581589,-0.147568,12,1
-7.92052,17.388,1.67165,38,10
-3.73258,8.19798,-1.42668,30,3
-8.74554,19.217,2.5924,36,11
-8.79755,19.3402,3.36522,3,12
-8.79371,19.3497,4.1314,17,13
-4.92644,10.8452,-0.624263,94,6
-9.87408,21.7471,5.514,6,14
-4.8454,10.6717,-0.204577,49,7
-15.2072,33.5086,9.85997,9,15
-0.237556,0.525639,-0.133171,14,1
-5.53682,12.257,0.704861,84,9
-3.7083,8.21296,-1.75163,26,2
-9.77513,21.6596,2.07901,10,10
-3.75575,8.32194,-1.44608,60,3
-7.84918,17.4002,2.34379,10,11
-3.93042,8.71707,-1.17409,9,4
-10.4288,23.1402,4.02005,13,12
-8.77385,19.4772,4.15239,6,13
-4.89947,10.8815,-0.625415,40,6
-8.30555,18.4548,4.67223,23,14
-4.77449,10.6138,-0.203146,95,7
-7.70591,17.1384,5.03507,17,15
-5.00142,11.1651,0.213548,40,8
-0.248462,0.554923,-0.140369,13,1
-5.51032,12.3127,0.706954,37,9
-3.82219,8.5406,-1.81879,52,2
-5.30843,11.8672,1.13738,99,10
-3.69846,8.27188,-1.43513,21,3
-7.56161,16.92,2.27554,19,11
-3.8862,8.69993,-1.16995,5,4
-10.025,22.4531,3.89459,7,12
-4.94519,11.0758,-1.06121,64,5
-8.6778,19.445,4.13903,25,13
-8.14982,18.279,4.62049,36,14
-4.99625,11.2112,-0.214246,26,7
-9.06252,20.3452,5.96785,17,15
-5.40285,12.175,0.232501,31,8
-0.254424,0.5736,-0.144868,12,1
-5.47459,12.3483,0.707896,75,9
-3.81861,8.61312,-1.83138,40,2
-5.28716,11.9312,1.14174,19,10
-3.63997,8.21792,-1.42355,17,3
-7.86091,17.7559,2.38425,10,11
-5.23506,11.8303,-1.58845,26,4
-14.6793,33.1882,5.74772,26,12
-4.52529,10.2312,-0.978759,42,5
-8.59718,19.4464,4.13292,21,13
-7.35926,16.662,4.20524,24,14
-4.63082,10.4895,-0.200144,24,7
-8.20999,18.6057,5.44918,4,15
-5.26215,11.9705,0.228243,52,8
-0.239878,0.545939,-0.13767,13,1
-5.49169,12.5045,0.715747,52,9
-3.78142,8.61022,-1.82795,30,2
-3.61602,8.24143,-1.42543,8,3
-7.66256,17.4723,2.34257,15,11
-5.27821,12.0412,-1.61428,45,4
-9.92425,22.651,3.91681,15,12
-4.48555,10.2378,-0.977887,25,5
-8.51428,19.4421,4.12567,14,13
-4.46409,10.1985,-0.583441,37,6
-8.14386,18.614,4.69068,19,14
-7.3233,16.7544,4.89944,9,15
-5.3273,12.2344,0.23292,70,8
-0.245748,0.564642,-0.142169,13,1
-5.4974,12.6371,0.722236,36,9
-3.75839,8.63957,-1.83138,26,2
-5.0226,11.5512,1.102,76,10
-5.19475,11.9585,1.60088,50,11
-5.3073,12.2235,-1.63622,36,4
-10.0331,23.1186,3.99158,7,12
-4.79244,11.0429,-1.05319,54,5
-9.37764,21.6187,4.58056,13,13
-8.29658,19.1448,4.8171,29,14
-4.72121,10.8996,-0.207335,28,7
-7.24865,16.7426,4.88857,18,15
-5.31545,12.3246,0.234281,44,8
-0.236061,0.547601,-0.13767,13,1
-5.21195,12.0904,0.689997,27,9
-3.65207,8.47594,-1.79399,71,2
-5.14617,11.9493,1.13825,100,10
-3.63259,8.43884,-1.45515,12,3
-7.57883,17.6148,2.35452,25,11
-4.38077,10.1867,-1.36152,27,4
-8.14037,18.929,3.26354,8,12
-4.65001,10.818,-1.03018,33,5
-8.07609,18.7976,3.97684,20,13
-4.5047,10.49,-0.598305,64,6
-7.23741,16.8617,4.23628,24,14
-4.64876,10.8307,-0.205729,31,7
-7.17328,16.7204,4.87512,13,15
-5.27691,12.3476,0.234386,89,8
-0.235774,0.551965,-0.13857,13,1
-5.10148,11.9487,0.680891,44,9
-3.56467,8.35321,-1.76537,85,2
-5.14742,12.068,1.14784,37,10
-7.48145,17.5485,2.34233,25,11
-4.33373,10.1701,-1.35738,13,4
-8.82508,20.7202,3.56702,10,12
-4.47564,10.5133,-0.999676,85,5
-7.94835,18.6708,3.9444,39,13
-4.49647,10.5674,-0.601864,94,6
-7.89303,18.5588,4.65604,41,14
-4.47714,10.5322,-0.19976,22,7
-7.12923,16.7791,4.88495,12,15
-5.11141,12.0769,0.228906,56,8
-0.224736,0.531247,-0.133171,14,1
-5.04808,11.9388,0.679321,84,9
-3.47655,8.22213,-1.73522,71,2
-5.13917,12.1602,1.15499,67,10
-7.60469,18.0116,2.40058,15,11
-4.29589,10.1797,-1.35665,27,4
-7.90285,18.736,3.22067,24,12
-4.44308,10.5336,-1.0002,48,5
-9.13241,21.6616,4.56949,22,13
-4.42001,10.4891,-0.596525,37,6
-7.18903,17.0687,4.27587,9,14
-4.52026,10.7375,-0.203355,85,7
-7.05789,16.7736,4.87615,18,15
-5.09395,12.1536,0.230023,21,8
-0.239445,0.571571,-0.143069,12,1
-4.96471,11.8569,0.673669,48,9
-3.42508,8.17989,-1.72377,54,2
-4.99823,11.9428,1.13268,52,10
-7.50425,17.9483,2.38864,20,11
-4.25573,10.1836,-1.35519,50,4
-7.89373,18.8984,3.24383,40,12
-4.40321,10.5417,-0.999502,42,5
-11.8591,28.4057,5.98339,38,13
-7.1144,17.0577,4.26687,27,14
-4.47353,10.7311,-0.202937,53,7
-7.06096,16.9462,4.91912,19,15
-0.222254,0.535246,-0.155291,12,0
-0.229982,0.554403,-0.13857,13,1
-4.89729,11.8114,0.67011,40,9
-3.42132,8.25164,-1.73636,30,2
-4.93058,11.8976,1.12675,11,10
-7.33373,17.7139,2.35403,30,11
-4.60271,11.1229,-1.47803,25,4
-7.62237,18.4293,3.15873,43,12
-4.30623,10.4116,-0.985731,25,5
-7.7764,18.811,3.95662,3,13
-4.70362,11.3836,-0.645512,91,6
-7.15821,17.3328,4.32941,12,14
-4.40247,10.6653,-0.201401,100,7
-7.04007,17.0636,4.94603,9,15
-0.23841,0.580439,-0.144868,12,1
-4.86437,11.8488,0.671261,105,9
-3.37386,8.21813,-1.72682,49,2
-7.26959,17.7339,2.3533,55,11
-4.55783,11.1242,-1.47608,12,4
-7.56098,18.4631,3.15998,29,12
-4.2608,10.4044,-0.98364,27,5
-7.88398,19.2614,4.04553,32,13
-4.52243,11.0543,-0.625938,100,6
-7.15888,17.5074,4.36675,34,14
-4.2487,10.3956,-0.196025,100,7
-7.04622,17.249,4.99262,19,15
-4.59881,11.2916,0.212815,33,8
-0.229238,0.563136,-0.140369,13,1
-4.92422,12.1027,0.684764,61,9
-3.94585,9.69804,-2.03517,42,2
-3.51085,8.63752,-1.47674,13,3
-7.28258,17.9258,2.37572,41,11
-4.77081,11.7491,-1.557,14,4
-7.62848,18.7961,3.21285,42,12
-4.22927,10.4259,-0.984337,53,5
-12.0277,29.6504,6.21961,31,13
-4.4269,10.9185,-0.61746,100,6
-7.00943,17.2968,4.30871,18,14
-4.45776,11.0057,-0.207265,27,7
-6.87528,16.9828,4.90928,13,15
-4.78595,11.8695,0.223391,67,8
-0.230185,0.571163,-0.142169,13,1
-5.03866,12.5088,0.706745,31,9
-3.46448,8.60515,-1.80315,28,2
-5.84166,14.517,1.36904,54,10
-7.18885,17.8738,2.36548,55,11
-4.66536,11.6054,-1.5358,79,4
-7.59007,18.8904,3.22443,17,12
-4.18765,10.4276,-0.983117,27,5
-11.8905,29.6233,6.20473,35,13
-4.33776,10.8123,-0.610551,60,6
-11.8249,29.4898,7.3352,21,14
-4.44313,11.0806,-0.208382,24,7
-6.80375,16.9762,4.90048,16,15
-4.74241,11.887,0.223391,83,8
-0.229534,0.575623,-0.143069,12,1
-5.00535,12.5587,0.708524,75,9
-3.43588,8.62084,-1.80391,9,2
-4.62819,11.6183,1.09415,22,10
-4.59616,11.5438,-1.96795,20,3
-7.14091,17.9443,2.37133,75,11
-4.52375,11.3734,-1.50289,16,4
-7.54925,18.9897,3.23663,36,12
-4.14681,10.4311,-0.982071,21,5
-11.9646,30.1116,6.29822,10,13
-4.29336,10.8107,-0.609609,100,6
-6.62953,16.7017,4.14855,31,14
-4.35455,10.976,-0.206113,33,7
-6.71014,16.922,4.8777,22,15
-4.71705,11.9444,0.224159,71,8
-0.230385,0.583671,-0.144868,12,1
-4.99666,12.6653,0.713548,21,9
-3.90218,9.89108,-2.06684,30,2
-7.08131,17.9586,1.6889,38,10
-4.56091,11.5726,-1.97014,42,3
-4.74073,12.0412,-1.58893,30,4
-7.43012,18.8818,3.21379,17,12
-3.97103,10.0914,-0.948777,22,5
-7.35824,18.7087,3.90777,14,13
-4.42439,11.255,-0.633788,68,6
-6.56977,16.7211,4.14765,14,14
-4.40246,11.2107,-0.210232,100,7
-6.62986,16.8914,4.86217,13,15
-0.219837,0.56269,-0.13947,13,1
-5.69235,14.57,0.81979,29,9
-3.79336,9.71444,-2.02715,38,2
-6.93672,17.7734,1.66921,3,10
-4.9706,12.7423,-2.1663,64,3
-7.06954,18.1324,2.38961,41,11
-3.99771,10.2536,-1.35129,55,4
-7.61849,19.5505,3.32329,14,12
-3.94301,10.1237,-0.95052,22,5
-7.31996,18.8038,3.92227,20,13
-4.05846,10.4309,-0.586581,37,6
-9.3577,24.0508,5.95805,30,14
-6.6214,17.0357,4.89737,18,15
-5.00233,12.9235,0.24189,27,8
-0.220782,0.570686,-0.141269,13,1
-5.61661,14.5181,0.815813,26,9
-3.73352,9.65555,-2.01227,42,2
-6.95531,17.997,1.68803,52,10
-4.92689,12.7551,-2.16568,55,3
-6.91071,17.9002,2.35598,30,11
-5.19698,13.4613,-1.77174,46,4
-8.13888,21.0924,3.58079,10,12
-3.92447,10.1758,-0.954181,52,5
-7.26392,18.8445,3.9257,22,13
-9.44884,24.5254,6.06783,23,14
-4.18071,10.8571,-0.203076,100,7
-6.60095,17.1513,4.92429,6,15
-4.95658,12.9326,0.241751,6,8
-0.214009,0.558676,-0.13812,13,1
-7.29409,19.0514,1.06912,8,9
-3.61584,9.4442,-1.96571,23,2
-6.902,18.0368,1.6896,45,10
-4.90151,12.8156,-2.17319,36,3
-6.84493,17.9063,2.35378,25,11
-8.05674,21.0985,3.57703,19,12
-3.88822,10.1876,-0.954007,42,5
-7.4037,19.3985,4.03599,24,13
-9.07228,23.7953,5.87932,29,14
-4.14136,10.8679,-0.203006,100,7
-6.55892,17.2212,4.93775,4,15
-4.87241,12.847,0.239831,44,8
-0.220346,0.581287,-0.143519,12,1
-3.36359,8.88271,-1.84627,19,2
-6.83585,18.0619,1.6896,14,10
-4.39113,11.6085,-1.96576,18,3
-6.82944,18.0545,2.37012,25,11
-4.32505,11.4399,-1.50167,12,4
-6.89379,18.2439,3.08896,31,12
-3.85827,10.216,-0.955401,32,5
-10.1655,26.9305,5.59528,20,13
-10.0686,26.7021,6.58837,9,14
-5.60831,14.8733,-0.277458,32,7
-7.62357,20.2285,5.79237,10,15
-4.3927,11.7114,0.21833,85,8
-0.211373,0.563843,-0.13902,13,1
-5.4846,14.6303,0.818848,23,9
-3.52543,9.40916,-1.95312,38,2
-6.02512,16.0892,1.50309,42,10
-6.84808,18.3063,2.39985,41,11
-4.27327,11.4233,-1.49753,18,4
-6.92414,18.5195,3.13151,37,12
-3.81072,10.1977,-0.952438,44,5
-10.103,27.0504,5.61284,8,13
-3.92753,10.5214,-0.58857,50,6
-8.91139,23.8727,5.88292,14,14
-3.83611,10.282,-0.191558,92,7
-6.48039,17.3788,4.96984,19,15
-0.216282,0.582811,-0.143519,12,1
-6.30188,16.9815,0.94927,14,9
-6.72175,18.1323,1.69187,66,10
-3.50973,9.47279,-1.60001,52,3
-6.8997,18.6323,2.43958,15,11
-4.12713,11.1451,-1.45926,49,4
-6.77356,18.3015,3.09083,21,12
-3.87297,10.47,-0.976667,53,5
-9.13364,24.7047,5.11979,14,13
-3.88985,10.5269,-0.588152,100,6
-3.86435,10.4635,-0.194699,100,7
-6.38392,17.2951,4.93982,4,15
-4.44255,12.0875,0.224787,30,8
-0.202253,0.550599,-0.135421,13,1
-7.02246,19.1277,1.06786,15,9
-3.1375,8.54587,-1.76956,33,2
-6.66914,18.1751,1.69378,63,10
-3.4783,9.48438,-1.60001,85,3
-6.90141,18.8284,2.46225,32,11
-4.192,11.4428,-1.49631,64,4
-6.78773,18.5383,3.12681,19,12
-3.84233,10.494,-0.977713,23,5
-8.87287,24.2462,5.01866,6,13
-3.84394,10.5097,-0.586477,74,6
-7.85817,21.52,6.13867,21,15
-4.39418,12.086,0.224473,17,8
-0.206986,0.569617,-0.13992,13,1
-6.95837,19.1596,1.06828,11,9
-3.32478,9.15465,-1.89321,26,2
-7.93195,21.8521,2.03387,39,10
-3.43709,9.47418,-1.59626,52,3
-6.73955,18.5874,2.42764,56,11
-5.31059,14.6544,-1.91384,14,4
-7.96143,21.9812,3.7028,27,12
-3.89185,10.7453,-0.999851,12,5
-7.89874,21.82,4.51073,68,13
-3.84664,10.632,-0.592548,40,6
-7.83278,21.6614,5.31784,46,14
-7.77906,21.5364,6.13556,34,15
-0.196222,0.545327,-0.155291,12,0
-5.24455,14.5833,0.270512,45,8
-0.207633,0.577671,-0.141719,26,1
-6.91441,19.2477,1.07184,16,9
-3.10232,8.63593,-1.78368,9,2
-6.14486,17.1149,1.59094,40,10
-3.54077,9.86727,-1.6604,88,3
-6.65252,18.5491,2.41959,20,11
-4.20043,11.7184,-1.52849,63,4
-7.87866,21.9921,3.69999,45,12
-3.84424,10.7306,-0.997236,61,5
-7.82451,21.853,4.51187,31,13
-7.75778,21.6905,5.31829,34,14
-5.2199,14.6027,-0.270687,89,7
-8.08406,22.6277,6.43838,3,15
-4.28356,12.0429,0.223112,18,8
-0.20431,0.57472,-0.140819,13,1
-6.8619,19.3131,1.07414,23,9
-3.61442,10.1729,-2.09852,64,2
-5.80839,16.357,1.5186,29,10
-3.41777,9.63012,-1.61847,63,3
-6.68329,18.8417,2.45469,47,11
-4.19266,11.8266,-1.54067,51,4
-8.93194,25.209,4.23593,17,12
-3.67102,10.3609,-0.961676,50,5
-8.26,23.3255,4.80991,9,13
-3.88227,10.9693,-0.609819,57,6
-8.57557,24.2436,5.93691,52,14
-3.60457,10.1959,-0.188765,33,7
-7.19409,20.3607,5.78616,2,15
-0.19241,0.546683,-0.155291,12,0
-4.21495,11.9823,0.221715,23,8
-0.20618,0.586461,-0.143519,12,1
-6.87134,19.5449,1.08576,26,9
-3.44546,9.80576,-2.02029,47,2
-7.74955,22.0675,2.04624,15,10
-3.34554,9.53202,-1.60001,30,3
-8.50265,24.2391,3.15398,36,11
-8.83653,25.205,4.2303,25,12
-3.61045,10.3041,-0.955227,54,5
-8.51012,24.3011,5.00492,35,13
-3.66384,10.4681,-0.581243,84,6
-10.3858,29.6905,7.26187,53,14
-3.50405,10.0172,-0.18524,50,7
-7.90116,22.6001,6.41509,7,15
-0.190501,0.547352,-0.155291,12,0
-5.14734,14.7895,0.27334,12,8
-0.197832,0.568735,-0.13902,26,1
-6.86997,19.7612,1.09644,30,9
-3.12125,8.98321,-1.84856,26,2
-5.72282,16.48,1.52627,32,10
-3.32298,9.56918,-1.60439,60,3
-6.55814,18.8961,2.45591,36,11
-3.88437,11.1984,-1.45536,44,4
-8.49487,24.504,4.10766,38,12
-3.52554,10.1754,-0.942154,52,5
-8.29386,23.9377,4.9244,26,13
-3.65132,10.5444,-0.584802,60,6
-7.83612,22.6421,5.53155,6,14
-3.42134,9.89141,-0.182692,30,7
-7.83547,22.6659,6.42596,3,15
-0.188685,0.54798,-0.155291,12,0
-5.07552,14.7487,0.272258,12,8
-0.202184,0.58785,-0.143519,12,1
-6.69382,19.4734,1.07917,10,9
-3.10549,9.03435,-1.85695,33,2
-5.74776,16.7306,1.54771,100,10
-3.29148,9.58633,-1.60533,26,3
-8.41156,24.5123,3.18201,100,11
-3.87617,11.3021,-1.46706,51,4
-3.39617,9.90811,-0.916355,18,5
-10.224,29.8449,6.13222,15,13
-3.6339,10.6138,-0.587942,100,6
-7.73369,22.6011,5.5149,12,14
-3.39003,9.91276,-0.182866,45,7
-7.49577,21.9308,6.2101,9,15
-0.170584,0.501087,-0.141833,14,0
-6.975,20.5006,0.377984,7,8
-0.20013,0.588553,-0.143519,25,1
-7.54224,22.1933,1.22843,3,9
-2.95896,8.70683,-1.7875,90,2
-5.63615,16.594,1.53324,29,10
-3.33991,9.83906,-1.64569,60,3
-9.05746,26.6977,3.46158,10,11
-3.84116,11.3287,-1.46877,72,4
-9.25046,27.298,4.56507,3,12
-3.38586,9.99161,-0.922979,75,5
-8.55039,25.2465,5.18123,24,13
-3.38936,10.0134,-0.554029,100,6
-8.26422,24.4296,5.954,22,14
-3.35029,9.90937,-0.182587,46,7
-7.43895,22.0154,6.22667,19,15
-0.154045,0.457737,-0.12941,15,0
-5.03681,14.9752,0.275783,6,8
-0.198075,0.589248,-0.143519,12,1
-7.94016,23.621,1.30599,20,9
-2.85102,8.48633,-1.74018,73,2
-6.35187,18.9179,1.7459,18,10
-3.26533,9.7308,-1.62567,51,3
-8.99072,26.8082,3.47181,10,11
-3.77636,11.2667,-1.45902,64,4
-10.0444,29.9675,5.0059,16,12
-3.33134,9.9448,-0.917576,58,5
-8.1998,24.4924,5.02057,37,13
-3.36326,10.0517,-0.555494,49,6
-8.19435,24.5045,5.96525,30,14
-3.34024,9.9887,-0.183844,72,7
-7.36897,22.0491,6.22926,13,15
-0.17074,0.513265,-0.144939,14,0
-5.0654,15.2271,0.280111,11,8
-0.19612,0.589901,-0.143519,12,1
-8.12783,24.4617,1.3509,13,9
-2.83871,8.5484,-1.75086,26,2
-6.29773,18.9759,1.74922,65,10
-3.23678,9.75283,-1.62754,97,3
-9.25299,27.8968,3.6088,11,11
-9.06694,27.3678,4.56632,3,12
-8.10558,24.4803,5.01255,27,13
-3.31924,10.0306,-0.553715,100,6
-7.68656,23.242,5.65167,6,14
-7.25015,21.9481,6.19354,6,15
-0.181111,0.55053,-0.155291,12,0
-0.189193,0.575771,-0.13992,13,1
-8.05103,24.5018,1.35163,9,9
-2.7987,8.52233,-1.74361,54,2
-6.25837,19.0686,1.75584,61,10
-3.19963,9.75468,-1.62598,61,3
-9.10856,27.7855,3.59027,23,11
-3.72863,11.3808,-1.47048,24,4
-8.12249,24.7922,4.13206,2,12
-3.40679,10.4046,-0.957842,12,5
-7.91689,24.1931,4.94806,3,13
-3.33698,10.2035,-0.562612,37,6
-7.362,22.5241,5.47081,12,14
-7.18693,22.0014,6.20182,9,15
-0.163659,0.503392,-0.141833,14,0
-0.184874,0.568982,-0.13812,13,1
-7.94387,24.4632,1.34797,10,9
-3.01559,9.29207,-1.89893,45,2
-6.20468,19.1301,1.7595,32,10
-3.18311,9.81409,-1.63411,27,3
-8.94965,27.6098,3.5637,22,11
-3.33175,10.2846,-1.3274,49,4
-7.44083,22.9824,3.82607,11,12
-3.37597,10.4335,-0.95941,22,5
-7.25459,22.4205,4.58056,5,13
-3.23061,9.99022,-0.55026,56,6
-7.24292,22.4111,5.43752,6,14
-3.3294,10.308,-0.189079,100,7
-7.14687,22.1404,6.23392,16,15
-0.154895,0.481862,-0.135621,15,0
-7.18972,22.3799,0.410306,13,8
-0.187652,0.584468,-0.141719,13,1
-3.26401,10.1662,0.559576,8,9
-2.98416,9.30015,-1.89855,52,2
-7.7048,24.0265,2.20748,11,10
-3.15607,9.84772,-1.63787,55,3
-8.93558,27.8979,3.59685,23,11
-3.23894,10.1185,-1.30449,71,4
-8.84664,27.6369,4.59605,6,12
-3.29704,10.3061,-0.946686,44,5
-7.90629,24.7289,5.04652,3,13
-3.15073,9.86066,-0.542515,100,6
-7.34604,23.0043,5.57519,26,14
-4.23685,13.2678,-0.243112,24,7
-7.02057,21.9983,6.18733,18,15
-0.15789,0.497129,-0.139762,14,0
-4.85945,15.3004,0.280216,13,8
-0.188071,0.592516,-0.143519,12,1
-2.91074,9.18138,-1.87222,59,2
-7.6576,24.1691,2.21811,51,10
-4.89183,15.4397,-2.56521,24,3
-8.88316,28.0542,3.61318,34,11
-3.14009,9.92285,-1.27792,50,4
-8.89963,28.1403,4.67458,3,12
-3.25204,10.2891,-0.944071,64,5
-7.83784,24.7981,5.05529,16,13
-3.14509,9.95675,-0.547225,100,6
-6.96467,22.0622,5.34124,5,14
-4.22661,13.3969,-0.245206,96,7
-6.97103,22.1093,6.21166,12,15
-0.1736,0.552944,-0.155291,12,0
-0.186002,0.593169,-0.143519,12,1
-7.01126,22.3729,1.22874,17,9
-2.92079,9.32025,-1.89855,49,2
-7.60122,24.2704,2.22509,23,10
-3.60881,11.5298,-1.91351,38,3
-7.62362,24.3717,3.13545,18,11
-3.20553,10.254,-1.31911,55,4
-7.09009,22.6939,3.76569,16,12
-3.50588,11.2285,-1.02913,54,5
-7.07073,22.6458,4.61147,22,13
-6.89168,22.0994,5.34439,5,14
-3.59614,11.5388,-0.210965,33,7
-6.97366,22.3899,6.28361,16,15
-0.154415,0.498219,-0.139762,14,0
-3.03159,9.78141,0.178748,77,8
-0.178164,0.5752,-0.13902,13,1
-6.92249,22.3629,1.22686,15,9
-2.88603,9.32901,-1.89817,45,2
-6.99551,22.6268,2.07204,10,10
-4.19632,13.5813,-2.25141,14,3
-6.97299,22.5679,2.90025,46,11
-3.10178,10.0451,-1.29084,59,4
-6.892,22.3334,3.70187,20,12
-3.09616,10.0393,-0.919144,11,5
-6.84253,22.2006,4.51569,28,13
-7.48716,24.3223,5.87527,29,14
-6.8682,22.3254,6.25876,13,15
-0.169639,0.554172,-0.155291,12,0
-3.00333,9.81732,0.179201,61,8
-0.178904,0.585167,-0.141269,26,1
-7.24673,23.703,1.29898,12,9
-2.62283,8.58425,-1.74476,26,2
-6.91708,22.653,2.07221,56,10
-3.14223,10.297,-1.70514,21,3
-7.52952,24.6895,3.16933,18,11
-3.02096,9.91204,-1.27232,19,4
-8.59064,28.1866,4.66707,16,12
-3.05994,10.0462,-0.918796,60,5
-7.58254,24.9102,5.0614,13,13
-3.05808,10.0527,-0.550679,100,6
-7.37273,24.2513,5.85188,14,14
-3.24677,10.6797,-0.194839,56,7
-6.8902,22.6783,6.3509,6,15
-0.167704,0.554761,-0.155291,12,0
-0.175272,0.580161,-0.13992,13,1
-5.94589,19.6938,1.07812,43,9
-2.6195,8.68169,-1.76269,19,2
-14.4306,47.8567,4.37313,18,10
-3.09095,10.2507,-1.69575,40,3
-8.16412,27.0921,3.47425,10,11
-2.98464,9.9106,-1.27085,49,4
-8.42558,27.9952,4.63046,13,12
-3.07879,10.2362,-0.935181,76,5
-7.43429,24.7171,5.01713,37,13
-3.05118,10.1508,-0.555494,70,6
-7.11343,23.6803,5.70836,6,14
-3.03641,10.1145,-0.184332,100,7
-6.80211,22.6726,6.34262,13,15
-0.165863,0.555314,-0.155291,12,0
-6.81603,22.8348,0.415961,13,8
-0.17993,0.603178,-0.145318,12,1
-7.19598,24.123,1.31928,14,9
-2.59968,8.72043,-1.7688,42,2
-8.46819,28.4241,2.5948,45,10
-3.05459,10.2595,-1.69544,56,3
-7.35053,24.7041,3.1647,18,11
-2.97606,10.0085,-1.28207,12,4
-7.6188,25.6221,4.23374,11,12
-2.92849,9.85481,-0.899447,61,5
-7.42343,24.997,5.06865,23,13
-3.13563,10.5654,-0.57758,37,6
-6.97809,23.5275,5.66562,6,14
-3.63401,12.2525,-0.223077,42,7
-6.74171,22.745,6.3566,13,15
-0.163924,0.55589,-0.155291,12,0
-4.3738,14.8322,0.269919,16,8
-0.177929,0.603772,-0.145318,12,1
-7.09197,24.0809,1.31562,25,9
-2.60137,8.83869,-1.79093,52,2
-6.98927,23.7628,2.16704,22,10
-3.02055,10.2696,-1.69544,63,3
-7.25904,24.6959,3.16056,27,11
-2.94733,10.0335,-1.28402,17,4
-7.54099,25.6883,4.24031,31,12
-2.89295,9.86115,-0.899099,60,5
-6.91482,23.601,5.67776,6,14
-2.96974,10.1426,-0.184472,100,7
-6.69102,22.8667,6.38403,16,15
-4.32647,14.8627,0.270198,22,8
-0.168199,0.578192,-0.13902,13,1
-7.00063,24.0806,1.31426,25,9
-2.62466,9.02825,-1.82757,64,2
-6.90266,23.7591,2.1646,60,10
-3.02544,10.4204,-1.71859,27,3
-8.37924,28.8791,3.69215,12,11
-2.90012,10.0018,-1.27865,48,4
-9.01873,31.1237,5.1323,16,12
-2.87465,9.92045,-0.903631,58,5
-7.35795,25.409,5.14192,3,13
-2.85044,9.84977,-0.537386,100,6
-6.85731,23.7111,5.69846,6,14
-2.91877,10.0991,-0.183495,45,7
-6.38978,22.1234,6.17025,12,15
-0.160136,0.556993,-0.155291,12,0
-4.28173,14.9027,0.270652,16,8
-0.165105,0.57503,-0.13812,13,1
-6.84327,23.8496,1.30034,22,9
-2.7155,9.46384,-1.91381,68,2
-6.77519,23.6279,2.15048,49,10
-3.28943,11.4791,-1.89129,72,3
-8.21062,28.6716,3.66193,36,11
-2.84006,9.92409,-1.26744,56,4
-6.82157,23.8525,3.92932,2,12
-2.87561,10.0549,-0.914961,11,5
-7.38791,25.8498,5.22588,7,13
-2.82975,9.90767,-0.540002,100,6
-12.3338,43.2122,10.3747,17,14
-2.86759,10.0534,-0.182482,27,7
-6.30774,22.1288,6.16559,12,15
-5.02883,17.736,0.321787,20,8
-0.174784,0.616851,-0.148018,12,1
-6.80731,24.0405,1.30945,24,9
-2.6327,9.29759,-1.87832,23,2
-6.73662,23.8067,2.1646,60,10
-3.3692,11.9144,-1.96106,17,3
-6.62593,23.4468,2.99165,33,11
-2.73797,9.69515,-1.23697,60,4
-6.68891,23.7012,3.90054,5,12
-2.83725,10.0534,-0.913915,35,5
-12.9603,45.9537,9.28095,10,13
-2.84663,10.1001,-0.549946,73,6
-12.1364,43.09,10.3352,17,14
-2.80756,9.97484,-0.180877,22,7
-6.88484,24.4772,6.81315,4,15
-4.23578,15.1402,0.274422,46,8
-0.169481,0.606197,-0.145318,12,1
-6.74163,24.1295,1.313,19,9
-2.56378,9.17625,-1.85199,19,2
-6.66474,23.8704,2.16826,60,10
-3.65409,13.0963,-2.15348,16,3
-6.67627,23.944,3.0521,34,11
-2.5432,9.12715,-1.16336,50,4
-7.89059,28.3373,4.65893,16,12
-2.8,10.0556,-0.913218,60,5
-9.67353,34.7638,7.01414,26,13
-2.81617,10.1273,-0.550888,35,6
-12.3579,44.4708,10.6559,18,14
-2.80375,10.0963,-0.182901,27,7
-6.49148,23.3916,6.50464,3,15
-4.17279,15.1183,0.273758,84,8
-0.167364,0.606785,-0.145318,12,1
-4.62285,16.7603,0.911169,33,9
-6.55121,23.784,2.15832,44,10
-3.2461,11.7929,-1.93728,45,3
-6.59844,23.9882,3.05478,51,11
-2.52605,9.18957,-1.17019,57,4
-7.7971,28.3652,4.65925,13,12
-2.77333,10.096,-0.916007,48,5
-9.58071,34.9015,7.03513,20,13
-3.08884,11.26,-0.611912,74,6
-11.9193,43.48,10.4085,17,14
-2.87652,10.4932,-0.189917,100,7
-6.40315,23.3739,6.49377,14,15
-0.152344,0.559174,-0.155291,12,0
-4.13683,15.1842,0.274701,24,8
-0.173542,0.637421,-0.152517,11,1
-4.47885,16.4622,0.894108,11,9
-2.47391,9.0992,-1.83291,47,2
-6.46815,23.8067,2.15832,66,10
-3.27224,12.0438,-1.97671,68,3
-6.52146,24.0195,3.056,17,11
-2.49245,9.1864,-1.16873,35,4
-7.61791,28.0967,4.61075,3,12
-2.74432,10.1287,-0.918099,46,5
-12.3704,45.6565,9.19471,10,13
-2.93665,10.8461,-0.588884,100,6
-6.70871,24.7948,5.93016,7,14
-6.32051,23.3924,6.49273,7,15
-0.150488,0.559677,-0.155291,12,0
-3.10722,11.564,0.20901,50,8
-0.166262,0.619202,-0.148018,12,1
-4.43355,16.5117,0.895992,12,9
-2.44321,9.10546,-1.83253,42,2
-6.37524,23.7761,2.15362,22,10
-3.13661,11.706,-1.91945,12,3
-9.17629,34.2703,4.3561,28,11
-2.55798,9.55319,-1.21431,42,4
-7.67022,28.6657,4.69992,14,12
-2.85894,10.6921,-0.9683,19,5
-12.1197,45.358,9.12601,10,13
-2.68752,10.0651,-0.545969,38,6
-6.57267,24.6154,5.88202,36,14
-2.88236,10.8024,-0.195153,100,7
-6.25883,23.4729,6.5093,7,15
-0.148632,0.560172,-0.155291,12,0
-3.07296,11.5897,0.209289,77,8
-0.166205,0.627285,-0.149817,12,1
-2.3723,8.95978,-1.80162,47,2
-6.36261,24.0475,2.17628,61,10
-2.63122,9.95172,-1.63036,42,3
-6.33195,23.9655,3.04357,51,11
-2.53035,9.57698,-1.21626,64,4
-7.33862,27.7952,4.55318,6,12
-3.17723,12.0423,-1.08962,59,5
-11.6519,44.1943,8.88407,10,13
-2.63886,10.016,-0.542829,80,6
-6.50789,24.7012,5.89732,36,14
-2.84144,10.7925,-0.194804,22,7
-6.02613,22.9051,6.34624,3,15
-3.03603,11.6056,0.209394,63,8
-0.162645,0.622177,-0.148468,12,1
-4.35679,16.6663,0.902795,25,9
-2.32272,8.89162,-1.78635,11,2
-6.33717,24.2767,2.1951,50,10
-2.48502,9.5265,-1.55934,85,3
-7.33849,28.1528,3.57223,56,11
-2.40583,9.23613,-1.1719,56,4
-9.0753,34.8406,5.70235,20,12
-2.51595,9.66577,-0.873823,19,5
-11.5102,44.2517,8.88788,10,13
-2.61216,10.0498,-0.544189,100,6
-6.41575,24.7011,5.89192,44,14
-2.83027,10.8967,-0.196514,43,7
-6.03021,23.2334,6.43165,21,15
-2.99852,11.6195,0.209464,100,8
-0.160581,0.622713,-0.148468,12,1
-4.29908,16.6834,0.9029,43,9
-6.2658,24.3507,2.19981,63,10
-2.45883,9.55573,-1.56278,52,3
-5.30035,20.6136,2.61337,18,11
-2.49968,9.72856,-1.23332,45,4
-8.99147,35.0194,5.72644,10,12
-6.03837,23.5349,4.7229,5,13
-2.58577,10.0855,-0.545655,80,6
-5.99041,23.3819,5.57249,58,14
-2.78477,10.8775,-0.195991,29,7
-5.95722,23.2862,6.44045,7,15
-3.02892,11.909,0.21449,48,8
-0.154566,0.60816,-0.144868,12,1
-4.28555,16.8744,0.912425,32,9
-2.41631,9.51423,-1.90809,28,2
-8.75901,34.5139,3.11529,19,10
-2.3871,9.41299,-1.53806,97,3
-5.20934,20.557,2.60386,18,11
-2.31757,9.15222,-1.15922,61,4
-7.17946,28.3729,4.63547,10,12
-2.70425,10.6871,-0.964465,56,5
-5.94174,23.4988,4.71146,60,13
-3.28347,12.9952,-0.702453,68,6
-5.89587,23.3517,5.56034,6,14
-3.29418,13.0568,-0.235049,22,7
-6.08701,24.1442,6.67184,7,15
-0.140992,0.562144,-0.155291,12,0
-2.95914,11.807,0.212466,77,8
-0.15623,0.623819,-0.148468,12,1
-4.21741,16.8525,0.910436,22,9
-2.395,9.57022,-1.91763,21,2
-8.66747,34.6602,3.12575,10,10
-2.32549,9.30628,-1.51929,83,3
-5.9099,23.6681,2.99531,41,11
-2.26062,9.06011,-1.14655,24,4
-5.88566,23.6061,3.85329,30,12
-2.4709,9.92501,-0.536025,66,6
-5.39609,21.6909,5.16038,26,14
-3.24328,13.0469,-0.234665,30,7
-5.16997,20.813,5.7463,10,15
-0.139029,0.562633,-0.155291,12,0
-3.89245,15.7641,0.283427,50,8
-0.147516,0.597872,-0.142169,13,1
-4.19117,16.9866,0.916926,35,9
-5.86077,23.7891,2.14351,60,10
-2.28733,9.29132,-1.51554,100,3
-4.95949,20.161,2.54926,63,11
-2.25504,9.17397,-1.15995,82,4
-5.26366,21.4137,3.49256,10,12
-2.46181,10.0227,-0.902933,20,5
-10.5293,42.9,8.58641,9,13
-3.08086,12.562,-0.677855,42,6
-5.35746,21.861,5.19637,10,14
-3.71644,15.1649,-0.272537,23,7
-5.83797,23.8398,6.57659,18,15
-0.137064,0.563115,-0.155291,12,0
-3.86049,15.8604,0.284928,81,8
-0.159349,0.655164,-0.155666,11,1
-4.08798,16.8206,0.907192,35,9
-2.3184,9.54665,-1.90962,21,2
-5.79839,23.8946,2.15118,38,10
-2.28259,9.40635,-1.53306,71,3
-4.92816,20.324,2.56779,17,11
-2.24517,9.26628,-1.17068,64,4
-5.17867,21.3897,3.48567,14,12
-2.84236,11.7489,-1.05755,26,5
-6.32544,26.1462,5.22893,10,13
-3.08284,12.7527,-0.68759,35,6
-5.32795,22.0568,5.23866,22,14
-3.66347,15.1778,-0.272537,100,7
-5.77872,23.9595,6.60403,3,15
-0.135197,0.563566,-0.155291,12,0
-3.84147,16.0255,0.287651,40,8
-0.146166,0.610233,-0.144868,12,1
-4.0125,16.7649,0.903423,10,9
-2.17111,9.07122,-1.81307,11,2
-5.75109,24.0474,2.16321,44,10
-6.76224,28.3192,3.57492,22,11
-2.24645,9.41502,-1.18847,63,4
-8.68101,36.4109,5.92855,11,12
-2.45457,10.3032,-0.92664,24,5
-8.56089,35.9349,7.18052,14,13
-2.94256,12.3612,-0.665923,35,6
-4.9817,20.9434,4.97007,4,14
-2.60982,10.9804,-0.197003,35,7
-4.9911,21.0155,5.78771,5,15
-0.13313,0.564058,-0.155291,12,0
-2.45155,10.387,0.186287,27,8
-0.144035,0.61074,-0.144868,12,1
-3.91869,16.6291,0.895364,19,9
-5.66018,24.0567,2.16216,27,10
-6.2345,26.5184,3.34483,20,11
-2.229,9.48851,-1.19676,44,4
-5.03192,21.4369,3.48755,22,12
-2.28438,9.73948,-0.875218,17,5
-5.13695,21.9187,4.37601,17,13
-2.42818,10.3689,-0.558111,100,6
-4.88937,20.8951,4.95432,37,14
-2.67855,11.447,-0.205205,96,7
-5.74502,24.5712,6.76139,16,15
-0.13116,0.564519,-0.155291,12,0
-2.43291,10.4797,0.187788,56,8
-0.141796,0.611264,-0.144868,12,1
-3.86133,16.6589,0.896201,13,9
-2.31628,9.99307,-1.99395,19,2
-5.70428,24.6295,2.21184,11,10
-2.75729,11.9147,-1.93697,23,3
-4.69317,20.296,2.55779,11,11
-2.21656,9.59332,-1.20894,71,4
-4.99331,21.6284,3.51571,34,12
-2.22537,9.64683,-0.866154,28,5
-5.05865,21.9289,4.37449,5,13
-2.39421,10.387,-0.558634,94,6
-4.75648,20.6519,4.89269,58,14
-2.48005,10.7766,-0.193024,74,7
-4.81937,20.9584,5.76235,10,15
-0.12909,0.564996,-0.155291,12,0
-2.38829,10.453,0.18716,25,8
-0.142264,0.623154,-0.147568,12,1
-3.80138,16.6645,0.895782,12,9
-5.61442,24.6522,2.21201,46,10
-2.76138,12.1346,-1.97107,27,3
-4.80377,21.1097,2.65821,38,11
-2.18922,9.6281,-1.21236,72,4
-6.05347,26.6444,4.3276,24,12
-2.98209,13.1363,-1.17852,12,5
-7.08236,31.2236,6.22343,10,13
-4.67731,20.654,4.88909,49,14
-2.44199,10.7833,-0.192989,74,7
-4.73126,20.9092,5.74423,17,15
-0.127314,0.565399,-0.155291,12,0
-2.37337,10.5487,0.18873,35,8
-0.135922,0.604609,-0.143069,12,1
-3.79949,16.9147,0.908552,31,9
-2.43494,10.8399,-2.15958,47,2
-4.79039,21.3435,1.91377,21,10
-2.71157,12.0912,-1.96263,41,3
-4.74849,21.1914,2.6665,26,11
-2.16986,9.69148,-1.21942,48,4
-4.40265,19.6802,3.19408,16,12
-2.93863,13.1359,-1.17765,10,5
-4.73796,21.1964,4.22184,4,13
-2.32258,10.3992,-0.558425,50,6
-4.60815,20.6495,4.88459,31,14
-3.4372,15.415,-0.275678,48,7
-5.93229,26.6268,7.30957,9,15
-0.12534,0.56584,-0.155291,12,0
-2.3374,10.5608,0.1888,52,8
-0.135494,0.612691,-0.144868,12,1
-3.66716,16.5964,0.890758,31,9
-2.18995,9.91096,-1.97297,14,2
-4.7193,21.3756,1.91516,21,10
-4.67235,21.1982,2.66528,26,11
-2.2214,10.0867,-1.26817,8,4
-4.32332,19.6472,3.18626,16,12
-2.06895,9.40228,-0.842273,34,5
-6.31526,28.7235,5.71664,8,13
-2.30341,10.4852,-0.562612,30,6
-4.60164,20.9643,4.95522,23,14
-4.97547,22.7053,6.22822,13,15
-0.10856,0.498321,-0.136656,14,0
-3.49055,16.036,0.286464,17,8
-0.131698,0.605544,-0.143069,12,1
-3.51662,16.1693,0.867207,14,9
-2.1074,9.69792,-1.92908,30,2
-4.78077,22.0189,1.97129,23,10
-2.35153,10.8396,-1.75676,33,3
-4.63029,21.3618,2.68381,39,11
-2.24752,10.3777,-1.30376,11,4
-4.22301,19.4993,3.15998,24,12
-2.03359,9.39776,-0.841227,32,5
-5.9623,27.5767,5.48423,8,13
-2.40175,11.1179,-0.596107,27,6
-4.2324,19.6088,4.63129,18,14
-2.33059,10.7977,-0.192814,100,7
-4.43383,20.5594,5.63553,7,15
-0.113294,0.528921,-0.144939,14,0
-2.25876,10.5452,0.188242,35,8
-0.130913,0.611694,-0.144419,25,1
-2.38774,11.1759,-2.2214,52,2
-4.66105,21.8348,1.95333,13,10
-2.3366,10.9459,-1.77272,11,3
-4.53542,21.2644,2.66967,39,11
-2.19903,10.3191,-1.29547,38,4
-4.2154,19.7979,3.20597,19,12
-2.00077,9.40481,-0.841227,9,5
-4.58481,21.5513,4.2829,9,13
-4.18031,19.6837,4.64569,41,14
-2.38877,11.2576,-0.200877,100,7
-4.44297,20.9565,5.74009,10,15
-0.109149,0.517952,-0.141833,14,0
-2.23966,10.6371,0.189743,48,8
-0.129579,0.615961,-0.145318,25,1
-3.56057,16.9401,0.907192,22,9
-2.32684,11.0704,-2.19888,52,2
-4.28806,20.4189,1.82539,4,10
-4.18134,19.9454,2.50222,5,11
-2.16097,10.317,-1.29425,22,4
-4.21383,20.1354,3.25822,29,12
-3.45838,16.5255,-1.47712,12,5
-4.61804,22.0861,4.38594,10,13
-2.1749,10.4106,-0.557378,100,6
-4.10401,19.6619,4.63714,30,14
-2.28169,10.9409,-0.195083,32,7
-4.72053,22.6551,6.20079,15,15
-0.105774,0.510763,-0.139762,14,0
-2.19319,10.5998,0.18894,35,8
-0.127428,0.61641,-0.145318,25,1
-3.52445,17.0639,0.913158,35,9
-2.22068,10.7516,-2.13401,28,2
-4.54896,22.0436,1.9692,50,10
-2.71686,13.1771,-2.13095,51,3
-4.36763,21.2022,2.65797,51,11
-2.56073,12.4418,-1.55968,29,4
-4.4845,21.8082,3.52635,12,12
-3.05073,14.8357,-1.32512,10,5
-4.5425,22.1097,4.38746,12,13
-2.14055,10.428,-0.557901,100,6
-4.28004,20.8693,4.91833,4,14
-2.26115,11.035,-0.196619,45,7
-4.28262,20.9189,5.72145,7,15
-0.100909,0.495984,-0.135621,15,0
-2.13985,10.5271,0.187509,31,8
-0.126051,0.62067,-0.146218,25,1
-2.15926,10.6321,0.568578,26,9
-5.80917,28.6554,2.55802,29,10
-2.23323,11.0259,-1.78179,15,3
-4.27193,21.1104,2.64456,70,11
-2.53223,12.5246,-1.56895,69,4
-3.96355,19.604,3.1678,1,12
-1.99258,9.86432,-0.880447,49,5
-5.02185,24.8832,4.93432,6,13
-2.11401,10.4843,-0.560518,77,6
-4.05901,20.1486,4.74512,28,14
-2.22178,11.0287,-0.196374,40,7
-4.19187,20.8269,5.69247,21,15
-0.10372,0.519066,-0.141833,14,0
-2.11159,10.5675,0.188102,47,8
-0.12094,0.605796,-0.142619,26,1
-3.37657,16.9289,0.904679,11,9
-5.10884,25.6604,2.28906,18,10
-2.20321,11.0662,-1.78711,35,3
-4.18409,21.0348,2.63335,68,11
-1.97994,9.96288,-1.24721,34,4
-4.04205,20.3579,3.28731,10,12
-1.94263,9.79305,-0.873475,42,5
-5.27204,26.577,5.26671,7,13
-3.98687,20.1352,4.73882,32,14
-2.18133,11.0266,-0.1962,100,7
-5.19004,26.2598,7.17239,4,15
-0.0967864,0.492868,-0.134586,15,0
-2.09047,10.6552,0.189533,26,8
-0.11845,0.604303,-0.142169,26,1
-1.96082,10.0128,-1.98327,54,2
-4.88791,24.9831,2.22718,23,10
-2.16949,11.099,-1.79117,10,3
-4.10722,21.0318,2.63116,62,11
-2.02992,10.4042,-1.30156,64,4
-4.15761,21.3096,3.43874,20,12
-4.11232,21.1166,4.18177,2,13
-1.9461,10.0025,-0.534036,21,6
-3.9002,20.0648,4.71902,4,14
-3.14558,16.1826,-0.287755,78,7
-4.00509,20.6236,5.62931,4,15
-0.0950652,0.493203,-0.134586,15,0
-2.08048,10.7936,0.191872,100,8
-0.12013,0.623828,-0.146668,24,1
-2.05495,10.6812,0.570043,26,9
-1.8862,9.81334,-1.94244,38,2
-3.23952,16.8702,1.50291,29,10
-2.12373,11.0596,-1.78367,33,3
-4.11637,21.4566,2.68259,32,11
-2.21624,11.5631,-1.44561,15,4
-4.04901,21.1455,3.40996,15,12
-1.87555,9.80408,-0.873301,7,5
-4.03047,21.0685,4.16956,36,13
-1.90541,9.96962,-0.531943,45,6
-3.82195,20.0164,4.70463,23,14
-2.16318,11.3398,-0.201505,100,7
-3.79709,19.9239,5.43468,8,15
-0.0970227,0.512497,-0.139762,14,0
-2.04688,10.8225,0.192256,66,8
-0.115419,0.610839,-0.143519,25,1
-2.02691,10.7374,0.57266,8,9
-1.78555,9.45878,-1.87107,26,2
-2.0836,11.0483,0.98364,14,10
-2.13888,11.3523,-1.82966,50,3
-4.01501,21.3304,2.66504,71,11
-3.99123,21.2449,3.42373,24,12
-1.85627,9.88074,-0.879576,19,5
-3.74058,19.9683,4.69023,31,14
-2.44692,13.075,-0.232187,31,7
-3.74384,20.0244,5.45849,4,15
-0.0917061,0.493839,-0.134586,15,0
-2.03645,10.977,0.194874,46,8
-0.115062,0.620819,-0.145768,25,1
-3.14467,16.9836,0.905203,19,9
-1.7443,9.42056,-1.8623,42,2
-3.96068,21.4116,1.90505,21,10
-2.12616,11.5054,-1.85312,30,3
-3.97944,21.5551,2.69136,72,11
-1.90323,10.3192,-1.2884,26,4
-3.88125,21.0644,3.39244,22,12
-5.16135,28.0393,5.54186,4,13
-1.97304,10.7291,-0.571718,50,6
-4.28353,23.3162,5.47306,6,14
-2.36913,12.9084,-0.22908,100,7
-3.82931,20.8848,5.68936,14,15
-0.0955189,0.524565,-0.142868,14,0
-2.19603,12.072,0.214176,20,8
-0.108365,0.596292,-0.13992,26,1
-1.71105,9.42466,-1.86191,57,2
-3.89764,21.49,1.9108,35,10
-3.87484,21.4068,2.67113,65,11
-1.86967,10.3394,-1.29011,16,4
-3.80821,21.0597,3.38962,26,12
-1.80177,9.97385,-0.886723,40,5
-4.67642,25.9126,5.11826,7,13
-1.94408,10.7831,-0.57423,27,6
-3.82491,21.2367,4.98177,38,14
-2.3451,13.0205,-0.23093,31,7
-3.74773,20.829,5.67073,23,15
-0.088256,0.494467,-0.134586,15,0
-2.09661,11.7465,0.208277,81,8
-0.108097,0.60624,-0.142169,26,1
-2.00345,11.2473,0.598723,38,9
-1.67436,9.40931,-1.85772,83,2
-3.54155,19.9224,1.77031,45,10
-3.83264,21.5817,2.69136,26,11
-1.83364,10.3358,-1.28889,48,4
-3.72469,21.0164,3.38055,54,12
-1.7652,9.97027,-0.885851,61,5
-4.0045,22.6183,4.46493,2,13
-1.84708,10.4434,-0.555808,7,6
-3.60393,20.3972,4.78201,12,14
-1.8648,10.5651,-0.187264,100,7
-3.63742,20.6288,5.61275,7,15
-0.0866159,0.494757,-0.134586,15,0
-2.00771,11.48,0.203425,42,8
-0.107657,0.616212,-0.144419,25,1
-1.96864,11.2798,0.600084,40,9
-1.64214,9.40901,-1.85657,71,2
-3.47717,19.9438,1.77118,60,10
-2.01401,11.5636,-1.85907,50,3
-3.76885,21.6615,2.69965,46,11
-1.79687,10.3382,-1.2884,6,4
-3.67394,21.1597,3.40151,31,12
-1.73009,9.96429,-0.884805,56,5
-4.54456,26.2011,5.16902,10,13
-1.80176,10.3986,-0.553086,17,6
-3.53137,20.402,4.78021,33,14
-1.82008,10.5262,-0.186462,27,7
-3.53087,20.4415,5.5584,2,15
-0.0868474,0.506481,-0.137692,14,0
-1.94737,11.3687,0.201331,51,8
-0.106163,0.620426,-0.145318,25,1
-1.94541,11.3811,0.605108,27,9
-1.61954,9.47467,-1.8684,68,2
-3.40183,19.9224,1.76822,65,10
-1.90156,11.148,-1.79117,63,3
-3.67921,21.5923,2.68941,72,11
-1.77543,10.4305,-1.29913,28,4
-3.61727,21.2737,3.41778,43,12
-1.69529,9.97027,-0.884805,50,5
-4.46195,26.269,5.17932,7,13
-1.7601,10.3733,-0.551412,52,6
-3.4673,20.4565,4.79011,8,14
-2.13986,12.6382,-0.22374,100,7
-3.51393,20.7756,5.64588,14,15
-0.0831597,0.49535,-0.134586,15,0
-1.86733,11.1348,0.197073,25,8
-0.104318,0.622714,-0.145768,25,1
-1.89346,11.3028,0.600608,39,9
-1.59974,9.55966,-1.88405,54,2
-3.79644,22.7109,2.01452,19,10
-1.76893,10.5934,-1.70107,46,3
-3.60479,21.6109,2.69014,66,11
-1.73966,10.4406,-1.29961,34,4
-3.49249,20.9602,3.36553,28,12
-1.66245,9.98792,-0.885851,47,5
-7.99597,48.0913,9.47634,11,13
-2.28051,13.7308,-0.729459,32,6
-3.34835,20.182,4.72307,4,14
-1.7497,10.5462,-0.186601,82,7
-3.49366,21.0807,5.7256,25,15
-0.0808038,0.491824,-0.133551,15,0
-1.96233,11.944,0.211279,60,8
-0.0997282,0.607673,-0.142169,26,1
-1.83008,11.1635,0.592862,43,9
-1.57715,9.63106,-1.89702,23,2
-3.72968,22.8007,2.02132,19,10
-1.77302,10.839,-1.73955,57,3
-3.55039,21.7285,2.70331,53,11
-1.69576,10.3895,-1.29255,15,4
-3.40564,20.8884,3.35208,26,12
-1.62533,9.97989,-0.884631,38,5
-3.20659,19.6892,3.87762,19,13
-1.68657,10.3673,-0.55047,73,6
-3.35986,20.6758,4.836,34,14
-1.75292,10.799,-0.190964,25,7
-3.36625,20.7609,5.63553,14,15
-0.0791725,0.492089,-0.133551,15,0
-1.79783,11.1867,0.197771,31,8
-0.100077,0.62341,-0.145768,25,1
-1.74115,10.8582,0.576324,57,9
-1.53681,9.5839,-1.88672,45,2
-3.67232,22.9271,2.03143,14,10
-1.69991,10.6247,-1.7042,23,3
-3.48049,21.778,2.70794,53,11
-1.88291,11.795,-1.46658,43,4
-3.35043,21.0113,3.36991,11,12
-1.60948,10.0934,-0.894218,52,5
-3.12118,19.5956,3.85701,35,13
-1.63154,10.2548,-0.544189,100,6
-3.30235,20.7798,4.85759,48,14
-1.72055,10.8386,-0.191558,28,7
-3.27682,20.6657,5.60654,11,15
-0.0810567,0.515263,-0.139762,14,0
-2.9914,19.0375,0.336378,12,8
-0.0991094,0.631456,-0.147568,24,1
-1.67818,10.7044,0.567845,21,9
-1.50122,9.57562,-1.88405,49,2
-4.53887,28.9847,2.56674,14,10
-1.7028,10.8863,-1.74518,57,3
-3.33764,21.3625,2.6548,25,11
-1.83346,11.7485,-1.45999,46,4
-3.27555,21.0131,3.36835,11,12
-1.55521,9.97694,-0.883411,52,5
-1.61445,10.3808,-0.550574,100,6
-3.43889,22.1372,5.17207,21,14
-1.6965,10.9335,-0.193128,100,7
-3.21058,20.7152,5.61689,4,15
-0.0774965,0.504087,-0.136656,14,0
-2.9131,18.9707,0.335016,27,8
-0.0957226,0.624094,-0.145768,25,1
-1.65683,10.8148,0.573393,34,9
-1.46332,9.5517,-1.87832,66,2
-3.58782,23.4465,2.07518,10,10
-1.70329,11.1441,-1.78554,22,3
-3.26274,21.372,2.65456,70,11
-1.72811,11.3329,-1.40759,8,4
-3.52667,23.155,3.70969,11,12
-1.52068,9.98428,-0.883585,36,5
-3.89402,25.5969,5.03278,6,13
-3.74144,24.6518,5.7565,7,14
-1.64244,10.8345,-0.191278,22,7
-3.61605,23.8817,6.47203,7,15
-0.074015,0.492892,-0.133551,15,0
-2.93198,19.5483,0.345034,8,8
-0.093544,0.624424,-0.145768,25,1
-1.62941,10.8897,0.577056,16,9
-1.4259,9.52956,-1.87298,78,2
-2.96703,19.8528,1.75619,39,10
-1.67839,11.2437,-1.80056,28,3
-3.18198,21.3421,2.64944,25,11
-2.08443,13.9974,-1.73761,20,4
-2.88173,19.3747,3.10241,9,12
-1.51102,10.159,-0.898576,26,5
-3.31277,22.2993,4.38212,5,13
-1.55689,10.4926,-0.555913,28,6
-3.00828,20.2985,4.73747,16,14
-1.86258,12.583,-0.22203,100,7
-3.42924,23.1948,6.28257,16,15
-0.0773377,0.527552,-0.142868,14,0
-2.03923,13.9274,0.245695,30,8
-0.0891077,0.609321,-0.142169,26,1
-1.57378,10.7747,0.570671,13,9
-1.39972,9.58305,-1.88252,57,2
-3.38407,23.1969,2.05095,20,10
-1.85644,12.741,-2.03928,63,3
-3.09602,21.2745,2.63969,50,11
-1.73404,11.9301,-1.48023,24,4
-3.09988,21.3532,3.41747,3,12
-1.48042,10.1977,-0.901539,52,5
-3.03601,20.939,4.1127,12,13
-1.51368,10.4525,-0.553505,38,6
-3.06072,21.1614,4.93633,27,14
-1.66168,11.5028,-0.202867,95,7
-2.97417,20.6138,5.58066,13,15
-0.0705724,0.493396,-0.133551,15,0
-1.62862,11.4005,0.201017,31,8
-0.0891821,0.625062,-0.145768,25,1
-1.52687,10.7149,0.567217,37,9
-1.37624,9.65785,-1.89626,59,2
-4.15368,29.1853,2.57911,22,10
-3.01951,21.2694,2.63774,31,11
-1.71579,12.1012,-1.5007,63,4
-4.01049,28.3209,4.53034,13,12
-1.45236,10.2561,-0.906245,46,5
-3.15261,22.2908,4.37601,15,13
-2.93511,20.8053,4.85084,21,14
-1.58079,11.2195,-0.197771,18,7
-2.90166,20.6203,5.57962,20,15
-1.94001,13.9274,0.245451,56,8
-0.0880739,0.63309,-0.147568,24,1
-1.33306,9.59453,-1.8829,57,2
-2.77101,19.9697,1.76386,7,10
-2.69923,19.5022,2.4174,56,11
-1.67245,12.0992,-1.49972,18,4
-2.7854,20.1508,3.22192,22,12
-1.40293,10.1624,-0.89753,15,5
-3.19062,23.1418,4.54087,13,13
-1.42677,10.3619,-0.548167,59,6
-2.82079,20.5123,4.78021,49,14
-1.53486,11.1612,-0.196654,22,7
-3.09901,22.5647,6.10295,12,15
-1.89383,13.9337,0.245451,31,8
-0.0862359,0.63531,-0.148018,24,1
-2.86701,21.1493,1.11852,5,9
-1.29587,9.57189,-1.87756,47,2
-2.69569,19.9377,1.7602,29,10
-1.47582,10.9154,-1.74456,52,3
-2.617,19.3812,2.40131,56,11
-1.6225,12.0319,-1.49071,7,4
-2.68552,19.9412,3.18688,19,12
-1.77908,13.2279,-1.16771,17,5
-2.80689,20.87,4.09324,27,13
-1.47057,10.9485,-0.57894,100,6
-1.47836,11.0357,-0.19435,27,7
-2.77738,20.7602,5.61223,26,15
-0.0654878,0.494097,-0.133551,15,0
-1.50747,11.3889,0.200528,13,8
-0.0824857,0.624015,-0.145318,25,1
-2.44553,18.5256,0.979311,12,9
-1.26258,9.56446,-1.87527,30,2
-2.62592,19.9189,1.75776,14,10
-1.30879,9.94123,-1.58812,10,3
-2.5395,19.3155,2.39205,35,11
-1.73762,13.2342,-1.6389,14,4
-1.6044,12.2361,-1.07969,9,5
-2.73351,20.8757,4.09247,25,13
-1.44115,11.0209,-0.582499,77,6
-3.38008,25.8836,6.02644,7,14
-1.45043,11.1221,-0.195781,100,7
-2.49508,19.1587,5.1769,10,15
-0.0637626,0.494322,-0.133551,15,0
-0.0788153,0.612702,-0.142619,26,1
-2.37703,18.5043,0.97774,11,9
-1.22719,9.55323,-1.87222,30,2
-2.90468,22.6433,1.99726,33,10
-1.2781,9.97709,-1.59313,45,3
-3.27207,25.5779,3.16617,27,11
-1.6816,13.1634,-1.62939,43,4
-2.55325,20.0143,3.19564,29,12
-1.56118,12.2377,-1.07934,26,5
-2.939,23.0703,4.52065,21,13
-1.41174,11.0972,-0.586267,30,6
-2.3906,18.8178,4.37935,12,14
-1.4116,11.1271,-0.195781,100,7
-2.43838,19.2477,5.19864,17,15
-0.0620368,0.494542,-0.133551,15,0
-1.40978,11.2543,0.19798,66,8
-0.0766759,0.612974,-0.142619,26,1
-2.57533,20.6173,1.0889,16,9
-1.1897,9.52434,-1.86573,30,2
-2.43796,19.5453,1.72324,17,10
-1.24497,9.99521,-1.59532,15,3
-2.62952,21.1411,2.6158,36,11
-1.62732,13.1022,-1.62111,48,4
-2.45613,19.8035,3.1606,16,12
-1.29799,10.4655,-0.922631,22,5
-1.97264,15.9279,3.11973,11,13
-1.37104,11.0862,-0.58543,54,6
-2.32561,18.8318,4.3807,46,14
-1.3681,11.0943,-0.195118,31,7
-2.37543,19.2907,5.20796,26,15
-0.0621803,0.510097,-0.137692,14,0
-1.3758,11.3028,0.198748,27,8
-0.0759464,0.624845,-0.145318,25,1
-2.37846,19.5971,1.03458,5,9
-1.14722,9.45242,-1.85085,28,2
-2.36564,19.5201,1.72028,31,10
-1.69514,14.0079,-2.23482,27,3
-2.30281,19.0572,2.35695,30,11
-1.58015,13.096,-1.61964,45,4
-1.27169,10.5551,-0.930126,24,5
-2.32225,19.3029,3.77916,19,13
-1.33294,11.1288,-0.195641,100,7
-2.32551,19.4446,5.2473,15,15
-0.0585827,0.494963,-0.133551,15,0
-1.31288,11.109,0.195258,67,8
-0.0746784,0.632847,-0.147118,24,1
-2.25885,19.1709,1.01165,12,9
-1.10985,9.41932,-1.8436,30,2
-2.22835,18.9405,1.66851,70,10
-1.3812,11.7576,-1.87502,10,3
-2.23604,19.0632,2.35671,55,11
-1.53535,13.1093,-1.62062,45,4
-2.31805,19.8222,3.16092,14,12
-1.22883,10.508,-0.925594,15,5
-2.25143,19.2817,3.77344,14,13
-1.29707,11.1253,-0.587,10,6
-2.39508,20.5742,4.78201,16,14
-1.29893,11.175,-0.196374,53,7
-2.28078,19.6522,5.30113,9,15
-0.0550918,0.47981,-0.12941,15,0
-0.0718039,0.627296,-0.145768,25,1
-2.00981,17.5852,0.927603,11,9
-1.07451,9.40168,-1.8394,28,2
-1.13665,9.9763,-1.59031,5,3
-2.18609,19.2168,2.37475,56,11
-1.5019,13.223,-1.63402,43,4
-1.52306,13.4303,-1.18253,12,5
-2.19051,19.346,3.78451,26,13
