x, y, z, intensity, ring
-3.13986,-1.9704,0.194271,1,9
-3.17981,-1.99469,0.328403,1,10
-3.24623,-2.03478,0.470416,1,11
-3.14901,-1.97231,0.588507,10,12
-2.79556,-1.75026,0.641118,2,13
-2.55082,-1.59579,0.694649,1,14
-2.29174,-1.43259,0.724176,2,15
-3.10942,-1.9362,0.191968,1,9
-3.23073,-2.01095,0.332935,1,10
-3.25331,-2.02343,0.470416,1,11
-3.15588,-1.96131,0.588507,10,12
-2.79665,-1.73738,0.639973,2,13
-2.54147,-1.57762,0.6906,1,14
-2.2918,-1.42153,0.722623,1,15
-3.14335,-1.94213,0.193643,0,9
-3.19366,-1.97244,0.328403,1,10
-3.26035,-2.01206,0.470416,1,11
-3.14421,-1.93887,0.585065,10,12
-0.471454,-0.290721,-0.0484586,11,5
-2.81273,-1.73379,0.642263,2,13
-2.55692,-1.57487,0.693299,1,14
-2.30004,-1.41555,0.723658,2,15
-3.14637,-1.92961,0.193434,1,9
-3.15975,-1.9363,0.324219,1,10
-3.26736,-2.00067,0.470416,1,11
-3.15399,-1.9305,0.585691,10,12
-2.82714,-1.72908,0.644171,2,13
-2.54744,-1.55679,0.68925,1,14
-2.29318,-1.40086,0.720035,2,15
-0.434457,-0.264466,-0.117424,16,1
-3.15991,-1.92277,0.193852,1,9
-3.19033,-1.93975,0.32666,1,10
-3.27397,-1.98983,0.470416,1,11
-3.16916,-1.92461,0.587255,10,12
-2.80936,-1.70543,0.638829,2,13
-0.48151,-0.292187,-0.0295175,16,6
-2.55758,-1.55137,0.6906,1,14
-2.27988,-1.38183,0.714341,2,15
-3.18349,-1.92343,0.064923,1,8
-3.1495,-1.9014,0.192806,1,9
-3.20698,-1.93533,0.327706,1,10
-3.2809,-1.97838,0.470416,1,11
-3.17585,-1.91353,0.587255,11,12
-0.430052,-0.259117,-0.0439265,12,5
-2.81361,-1.6946,0.638447,2,13
-2.56131,-1.54143,0.69015,1,14
-2.32773,-1.39975,0.727799,1,15
-3.15245,-1.88969,0.064155,1,8
-0.43295,-0.259423,-0.116525,16,1
-3.1664,-1.89655,0.193434,1,9
-3.26499,-1.95483,0.332935,1,10
-3.28779,-1.96692,0.470416,1,11
-3.19269,-1.90851,0.589132,10,12
-0.475418,-0.284194,-0.0484586,11,5
-2.83131,-1.69182,0.641118,2,13
-0.483538,-0.288819,-0.0295175,16,6
-2.57337,-1.53647,0.691949,1,14
-2.32763,-1.38865,0.726246,2,15
-3.17965,-1.89094,0.0645739,1,8
-0.423802,-0.251936,-0.113825,16,1
-3.15035,-1.87277,0.192073,1,9
-3.22726,-1.91697,0.328403,1,10
-3.29463,-1.95543,0.470416,1,11
-3.18031,-1.88683,0.585691,10,12
-0.442133,-0.262206,-0.0449724,12,5
-2.85746,-1.69394,0.645698,2,13
-0.484543,-0.287129,-0.0295175,16,6
-2.57007,-1.52296,0.6897,1,14
-2.31726,-1.37206,0.721588,2,15
-3.15491,-1.86209,0.0639456,1,8
-0.458203,-0.270334,-0.122823,15,1
-3.17203,-1.87145,0.193015,1,9
-3.21644,-1.89614,0.32666,1,10
-3.3011,-1.9445,0.470416,1,11
-3.18485,-1.87527,0.585378,10,12
-2.84276,-1.67251,0.641118,2,13
-0.485492,-0.28552,-0.0295175,16,6
-2.60198,-1.53024,0.696898,1,14
-2.30681,-1.35556,0.716929,2,15
-3.15761,-1.8496,0.0638758,1,8
-3.18544,-1.8644,0.193434,1,9
-3.19863,-1.87138,0.324219,1,10
-3.30753,-1.93354,0.470416,1,11
-3.1982,-1.86813,0.586629,9,12
-2.84151,-1.65911,0.639592,2,13
-2.58374,-1.5074,0.6906,1,14
-2.31653,-1.35042,0.718482,2,15
-3.15367,-1.83254,0.0636664,1,8
-0.439812,-0.255463,-0.117424,16,1
-3.19711,-1.85628,0.193748,1,9
-3.24683,-1.88364,0.328403,1,10
-3.31426,-1.92198,0.470416,1,11
-3.2047,-1.85695,0.586629,9,12
-2.85267,-1.65164,0.640737,2,13
-2.60612,-1.50768,0.695099,1,14
-2.33461,-1.35006,0.722623,1,15
-3.18116,-1.83294,0.0640852,1,8
-3.18972,-1.83714,0.19291,1,9
-3.24648,-1.86831,0.327706,1,10
-3.21287,-1.84674,0.586942,10,12
-0.435341,-0.25013,-0.0439265,12,5
-2.86012,-1.64265,0.641118,2,13
-2.5942,-1.48932,0.6906,1,14
-2.33093,-1.3371,0.720035,2,15
-3.19764,-1.82834,0.0642947,1,8
-3.18712,-1.82159,0.192387,1,9
-3.25957,-1.86149,0.328403,1,10
-3.32759,-1.8988,0.470416,1,11
-3.2104,-1.83118,0.585378,9,12
-2.87067,-1.63607,0.642263,2,13
-2.59743,-1.47975,0.69015,1,14
-2.33032,-1.3265,0.718482,1,15
-3.20021,-1.81575,0.0642249,1,8
-3.19173,-1.80947,0.192282,1,9
-3.24493,-1.83888,0.326311,1,10
-3.33387,-1.88775,0.470416,1,11
-3.2099,-1.81607,0.584126,10,12
-2.87095,-1.62364,0.641118,2,13
-2.59919,-1.46876,0.68925,1,14
-2.34166,-1.32215,0.720552,1,15
-3.1891,-1.79477,0.0638758,1,8
-3.21717,-1.80909,0.193434,1,9
-3.27217,-1.83926,0.328403,1,10
-3.34044,-1.8761,0.470416,1,11
-3.22311,-1.80872,0.585378,9,12
-2.86119,-1.60497,0.637684,2,13
-0.491269,-0.275462,-0.0295175,16,6
-2.6332,-1.47587,0.696898,1,14
-2.34626,-1.31397,0.720552,2,15
-3.2128,-1.79337,0.0642249,1,8
-3.23045,-1.80174,0.193852,1,9
-3.2368,-1.80454,0.324219,1,10
-3.34697,-1.86443,0.470416,1,11
-3.23631,-1.8013,0.586629,9,12
-2.87707,-1.6007,0.639973,2,13
-2.60597,-1.44868,0.68835,1,14
-2.35421,-1.30765,0.721588,2,15
-3.21904,-1.78214,0.0642249,1,8
-3.21924,-1.78078,0.192806,1,9
-3.26401,-1.8048,0.326311,1,10
-3.35346,-1.85274,0.470416,1,11
-3.24084,-1.78904,0.586316,9,12
-0.484906,-0.267683,-0.0484586,11,5
-2.87576,-1.58685,0.638447,2,13
-0.49318,-0.272026,-0.0295175,16,6
-2.61955,-1.44428,0.6906,1,14
-2.34861,-1.29383,0.718482,2,15
-3.2568,-1.78822,0.0648531,1,8
-3.21318,-1.76281,0.192073,1,9
-3.27029,-1.7934,0.326311,1,10
-3.3599,-1.84102,0.470416,1,11
-3.24707,-1.77772,0.586316,9,12
-2.89162,-1.58246,0.640737,2,13
-2.62115,-1.43326,0.6897,1,14
-2.37006,-1.29489,0.723658,2,15
-3.20155,-1.74337,0.0636315,1,8
-3.24387,-1.76495,0.193538,1,9
-3.23833,-1.76047,0.322476,1,10
-3.36631,-1.82928,0.470416,1,11
-3.24457,-1.76166,0.584752,8,12
-0.486809,-0.264206,-0.0484586,11,5
-2.89395,-1.56998,0.639973,2,13
-2.63667,-1.42921,0.692399,1,14
-2.36778,-1.28292,0.721588,2,15
-3.21496,-1.73542,0.0637711,1,8
-3.23801,-1.74641,0.192806,1,9
-3.30408,-1.7813,0.328403,1,10
-3.24579,-1.74695,0.583813,8,12
-2.9046,-1.56266,0.641118,2,13
-2.63306,-1.41539,0.69015,1,14
-2.37416,-1.27515,0.722105,2,15
-3.2351,-1.73174,0.0640503,1,8
-3.23881,-1.73227,0.192492,1,9
-3.30356,-1.76542,0.327706,1,10
-3.26233,-1.74119,0.585691,8,12
-0.488687,-0.260715,-0.0484586,11,5
-2.89818,-1.54553,0.638447,2,13
-0.497023,-0.26494,-0.0295175,16,6
-2.63307,-1.40298,0.6888,1,14
-3.3249,-1.7716,-0.0657607,2,7
-2.35984,-1.25687,0.716411,2,15
-3.24053,-1.72157,0.0640503,1,8
-3.24247,-1.72115,0.192387,1,9
-3.30878,-1.75561,0.327706,1,10
-3.27302,-1.7337,0.586629,8,12
-2.90275,-1.53693,0.638447,2,13
-0.497807,-0.263464,-0.0295175,16,6
-2.64756,-1.40063,0.6915,1,14
-3.33044,-1.76115,-0.0657607,2,7
-2.3894,-1.26299,0.724176,2,15
-3.23944,-1.70652,0.0639107,1,8
-3.23609,-1.70331,0.191654,1,9
-3.32547,-1.74961,0.328751,1,10
-3.39121,-1.78269,0.470416,1,11
-3.25981,-1.71217,0.583188,8,12
-0.490361,-0.257554,-0.0484586,11,5
-2.91853,-1.53226,0.640737,2,13
-2.6369,-1.38323,0.68745,1,14
-3.33657,-1.74951,-0.0657607,2,7
-2.38182,-1.24836,0.720552,1,15
-3.23829,-1.6915,0.0637711,1,8
-3.27358,-1.70921,0.193538,1,9
-3.30683,-1.72509,0.326311,1,10
-3.26722,-1.70226,0.583501,8,12
-0.455914,-0.237435,-0.0449724,12,5
-2.91167,-1.51572,0.638065,2,13
-0.499634,-0.259982,-0.0295175,16,6
-2.63998,-1.37312,0.687001,1,14
-3.34235,-1.73844,-0.0657607,2,7
-2.37909,-1.23689,0.718482,1,15
-3.25098,-1.68443,0.0639107,1,8
-3.28485,-1.70052,0.193852,1,9
-3.29159,-1.70256,0.324219,1,10
-3.28192,-1.69538,0.585065,8,12
-2.90098,-1.49795,0.634631,2,13
-0.500493,-0.258324,-0.0295175,16,6
-2.64972,-1.36703,0.68835,1,14
-3.28442,-1.69376,-0.0645041,2,7
-2.37652,-1.22504,0.716411,1,15
-3.27463,-1.68221,0.0642598,1,8
-3.26767,-1.67719,0.192492,1,9
-3.29722,-1.69163,0.324219,1,10
-3.29485,-1.68751,0.586316,8,12
-0.492987,-0.252491,-0.0484586,11,5
-2.91842,-1.49407,0.637302,2,13
-2.66141,-1.36133,0.69015,1,14
-3.35441,-1.71506,-0.0657607,2,7
-2.38766,-1.22025,0.718482,2,15
-3.26266,-1.66169,0.0639107,1,8
-0.448055,-0.228099,-0.116075,16,1
-3.28774,-1.67302,0.193329,1,9
-3.34928,-1.7036,0.328751,1,10
-3.30072,-1.676,0.586316,6,12
-0.493865,-0.250769,-0.0484586,11,5
-2.91312,-1.47855,0.635012,2,13
-2.66267,-1.35027,0.68925,1,14
-3.36038,-1.70334,-0.0657607,2,7
-2.39191,-1.21191,0.718482,1,15
-3.30057,-1.66652,0.064539,1,8
-3.29,-1.65974,0.19312,1,9
-3.32318,-1.67575,0.325614,1,10
-3.28538,-1.65381,0.582562,7,12
-0.448467,-0.225752,-0.0439265,12,5
-2.9358,-1.47719,0.638829,2,13
-0.503171,-0.253069,-0.0295175,16,6
-2.65344,-1.33396,0.685651,2,14
-3.3663,-1.6916,-0.0657607,2,7
-2.40648,-1.20876,0.721588,2,15
-3.2563,-1.62992,0.0635617,1,8
-3.31542,-1.65807,0.194271,1,9
-3.33258,-1.66592,0.325962,1,10
-3.4275,-1.71188,0.470416,1,11
-3.29643,-1.64498,0.583501,5,12
-2.93918,-1.46606,0.638447,2,13
-2.67726,-1.33425,0.6906,2,14
-3.37219,-1.67984,-0.0657607,2,7
-2.40031,-1.19518,0.718482,1,15
-3.27272,-1.62388,0.0637711,1,8
-0.439945,-0.218199,-0.113375,16,1
-3.31553,-1.6444,0.193957,1,9
-3.33837,-1.65428,0.325962,1,10
-3.31249,-1.63929,0.585378,5,12
-2.92844,-1.44796,0.635012,2,13
-2.67119,-1.32019,0.6879,2,14
-3.37774,-1.66865,-0.0657607,2,7
-2.41119,-1.19064,0.720552,1,15
-3.28167,-1.61478,0.0638409,1,8
-0.440666,-0.216739,-0.113375,16,1
-3.31021,-1.62811,0.193329,1,9
-3.35814,-1.65023,0.327357,1,10
-3.31082,-1.62482,0.584126,5,12
-2.94556,-1.44429,0.637684,2,13
-2.6843,-1.31561,0.69015,3,14
-3.38325,-1.65744,-0.0657607,2,7
-2.40819,-1.17924,0.718482,1,15
-3.2906,-1.60565,0.0639107,1,8
-3.3087,-1.61304,0.19291,1,9
-3.38509,-1.64956,0.329449,1,10
-3.31647,-1.61325,0.584126,5,12
-2.95034,-1.43452,0.637684,2,13
-0.506569,-0.246195,-0.0295175,16,6
-2.68362,-1.30368,0.6888,1,14
-3.38902,-1.64562,-0.0657607,2,7
-2.41924,-1.1742,0.720552,2,15
-3.30339,-1.59763,0.0640503,1,8
-3.3179,-1.60322,0.19312,1,9
-3.35164,-1.61808,0.325614,1,10
-3.45049,-1.66506,0.470416,1,11
-3.30429,-1.59309,0.580998,5,12
-0.448711,-0.21624,-0.0435779,12,5
-2.96442,-1.42795,0.639592,2,13
-3.39474,-1.63378,-0.0657607,2,7
-2.42332,-1.16575,0.720552,1,15
-3.32004,-1.5907,0.0642598,1,8
-3.34149,-1.60026,0.194166,1,9
-3.32851,-1.59261,0.322825,1,10
-3.45657,-1.6524,0.470416,1,11
-3.32409,-1.58836,0.583501,5,12
-2.96939,-1.4176,0.639592,2,13
-3.40042,-1.62192,-0.0657607,2,7
-2.42738,-1.15728,0.720552,1,15
-3.29279,-1.56423,0.0636315,1,8
-0.443612,-0.210643,-0.113375,16,1
-3.34317,-1.58746,0.193957,1,9
-3.36618,-1.59694,0.325962,1,10
-3.32755,-1.57648,0.583188,4,12
-2.97407,-1.40774,0.639592,1,13
-3.40578,-1.61063,-0.0657607,2,7
-3.30519,-1.55671,0.0637711,1,8
-3.36496,-1.58343,0.194899,1,9
-3.37506,-1.58746,0.326311,1,10
-3.46745,-1.62944,0.470416,1,11
-3.32588,-1.5615,0.581936,4,12
-3.03204,-1.42289,0.65104,1,13
-0.509916,-0.239188,-0.0295175,16,6
-3.41138,-1.59874,-0.0657607,2,7
-3.3251,-1.55193,0.0640503,1,8
-3.35598,-1.56492,0.194062,1,9
-3.39169,-1.58013,0.327357,1,10
-3.47312,-1.61733,0.470416,1,11
-3.33489,-1.55154,0.582562,4,12
-3.41694,-1.58682,-0.0657607,2,7
-2.51977,-1.16964,0.744364,1,15
-3.35618,-1.55148,0.064539,1,8
-3.35961,-1.55236,0.193957,1,9
-3.39719,-1.56828,0.327357,1,10
-3.33311,-1.53659,0.581311,4,12
-2.43608,-1.12047,0.718482,1,15
-3.37221,-1.54534,0.0647484,1,8
-3.35566,-1.53705,0.193434,1,9
-3.38787,-1.55037,0.325962,1,10
-3.48433,-1.59304,0.470416,1,11
-3.32382,-1.51896,0.578808,4,12
-0.456693,-0.208609,-0.0439265,12,5
-2.71247,-1.23786,0.68835,1,14
-2.43275,-1.10918,0.716411,1,15
-3.35183,-1.52257,0.0642598,1,8
-3.38465,-1.53606,0.194794,1,9
-3.393,-1.53913,0.325962,1,10
-3.48959,-1.58148,0.470416,1,11
-3.3291,-1.50734,0.578808,3,12
-2.72387,-1.23159,0.69015,4,14
-2.92288,-1.32096,-0.0559873,1,7
-2.42957,-1.0975,0.714341,1,15
-3.37171,-1.51743,0.064539,1,8
-3.37542,-1.51768,0.193957,1,9
-3.43496,-1.54301,0.329449,1,10
-3.49509,-1.56929,0.470416,1,11
-3.33794,-1.49733,0.579433,3,12
-0.505407,-0.226609,-0.0484586,11,5
-2.72837,-1.2216,0.69015,5,14
-2.89827,-1.29767,-0.0554288,1,7
-2.43339,-1.08902,0.714341,1,15
-3.46858,-1.54576,0.0662842,1,8
-0.461052,-0.20537,-0.116525,16,1
-3.39164,-1.51077,0.194585,1,9
-3.42577,-1.52453,0.328054,1,10
-3.50082,-1.55647,0.470416,1,11
-3.33232,-1.48086,0.577556,2,12
-0.469778,-0.208668,-0.0449724,12,5
-2.72549,-1.20891,0.68835,5,14
-2.87353,-1.27457,-0.0548704,1,7
-2.4513,-1.08678,0.718482,1,15
-0.458165,-0.202266,-0.115625,16,1
-3.39507,-1.49811,0.19448,1,9
-3.43836,-1.51578,0.328751,1,10
-3.50596,-1.54485,0.470416,1,11
-3.31035,-1.45728,0.572863,2,12
-0.470504,-0.207026,-0.0449724,12,5
-2.72949,-1.19987,0.68835,5,14
-2.8743,-1.26293,-0.0548006,1,7
-2.43385,-1.06889,0.71227,1,15
-0.487436,-0.213158,-0.122823,15,1
-3.40002,-1.48685,0.19448,1,9
-3.44337,-1.50437,0.328751,1,10
-3.51133,-1.5326,0.470416,1,11
-3.31154,-1.44471,0.572237,2,12
-0.507714,-0.221393,-0.0484586,11,5
-2.74438,-1.195,0.69105,5,14
-2.85647,-1.24381,-0.0543817,1,7
-2.4303,-1.05773,0.7102,1,15
-3.41069,-1.47735,0.194794,1,9
-3.40106,-1.47177,0.324219,1,10
-3.51639,-1.52095,0.470416,1,11
-3.30931,-1.43001,0.570986,2,12
-2.98466,-1.2891,0.631959,1,13
-2.74475,-1.18435,0.69015,5,14
-2.83509,-1.22274,-0.053893,3,7
-2.42688,-1.04618,0.708129,1,15
-0.453095,-0.194384,-0.113825,16,1
-3.43418,-1.47331,0.195841,1,9
-3.4428,-1.47559,0.327706,1,10
-3.52194,-1.50805,0.470416,1,11
-3.32518,-1.42311,0.572863,2,12
-3.03269,-1.29668,0.641118,1,13
-2.7419,-1.17122,0.68835,5,14
-2.8798,-1.23012,-0.0546609,3,7
-2.45894,-1.04984,0.716411,2,15
-3.4577,-1.47056,0.0655861,1,8
-0.464497,-0.197454,-0.116525,16,1
-3.43562,-1.45975,0.195632,1,9
-3.46627,-1.47134,0.329449,1,10
-3.52693,-1.49636,0.470416,1,11
-3.31921,-1.40687,0.570986,2,12
-0.510004,-0.216064,-0.0484586,11,5
-3.04059,-1.28815,0.641881,1,13
-2.74218,-1.1606,0.68745,5,14
-2.87671,-1.21694,-0.0545213,3,7
-2.46971,-1.04426,0.718482,1,15
-3.43702,-1.44761,0.0650975,1,8
-0.490329,-0.206417,-0.122823,15,1
-3.45333,-1.45377,0.196365,0,9
-3.47113,-1.45984,0.329449,1,10
-3.3275,-1.39739,0.571612,2,12
-0.510718,-0.214371,-0.0484586,11,5
-2.74981,-1.15253,0.68835,5,14
-2.86966,-1.20276,-0.0543119,4,7
-2.46603,-1.03308,0.716411,1,15
-3.42703,-1.43005,0.0648182,1,8
-0.465831,-0.194288,-0.116525,16,1
-3.4547,-1.44017,0.196155,1,9
-3.43942,-1.4324,0.325962,1,10
-3.53703,-1.47232,0.470416,1,11
-3.34331,-1.39031,0.573489,2,12
-2.75002,-1.14191,0.68745,4,14
-2.89231,-1.2004,-0.0546609,1,7
-2.46606,-1.02299,0.715376,1,15
-3.43201,-1.41808,0.0648182,1,8
-0.455699,-0.188198,-0.113825,16,1
-3.48186,-1.43725,0.197411,1,9
-3.51782,-1.45138,0.332935,1,10
-3.34083,-1.37563,0.572237,2,12
-2.763,-1.13601,0.6897,2,14
-2.91498,-1.1979,-0.05501,1,7
-2.49106,-1.02318,0.721588,1,15
-3.43693,-1.40609,0.0648182,1,8
-0.456353,-0.186606,-0.113825,16,1
-3.45357,-1.41149,0.195527,1,9
-3.52286,-1.43909,0.332935,1,10
-3.35659,-1.36843,0.574115,2,12
-2.93396,-1.19375,-0.0552892,1,7
-3.44553,-1.39558,0.064888,1,8
-3.44713,-1.39553,0.194899,1,9
-3.52787,-1.42678,0.332935,1,10
-3.55225,-1.4352,0.470416,1,11
-3.35378,-1.35434,0.572863,2,12
-2.97871,-1.20045,-0.0560571,1,7
-3.44643,-1.38266,0.0648182,1,8
-0.457613,-0.183495,-0.113825,16,1
-3.47213,-1.39227,0.196051,1,9
-3.53258,-1.41508,0.332935,1,10
-3.55699,-1.42342,0.470416,1,11
-3.33991,-1.33587,0.569734,2,12
-0.51431,-0.205605,-0.0484586,11,5
-2.97896,-1.18909,-0.0559873,1,7
-3.43612,-1.36532,0.064539,1,8
-3.48625,-1.38382,0.196574,1,9
-3.50762,-1.3916,0.330146,1,10
-3.56169,-1.41161,0.470416,1,11
-3.34456,-1.3242,0.569734,2,12
-3.44087,-1.35331,0.064539,1,8
-3.49106,-1.37165,0.196574,1,9
-3.54237,-1.39038,0.332935,1,10
-3.5666,-1.39917,0.470416,1,11
-3.34548,-1.31108,0.569109,2,12
-3.49053,-1.3581,0.0653767,1,8
-3.48279,-1.35438,0.195841,1,9
-3.51006,-1.36358,0.329449,1,10
-3.36845,-1.30654,0.572237,2,12
-0.516434,-0.200208,-0.0484586,11,5
-3.06815,-1.18882,0.639592,1,13
-3.49502,-1.34651,0.0653767,1,8
-3.48727,-1.34283,0.195841,1,9
-3.55175,-1.36624,0.332935,1,10
-3.57628,-1.37424,0.470416,1,11
-3.37277,-1.29536,0.572237,2,12
-0.517096,-0.198494,-0.0484586,11,5
-3.05191,-1.17091,0.635394,2,13
-2.83304,-1.08637,0.700498,1,14
-3.49946,-1.33492,0.0653767,1,8
-3.48073,-1.32638,0.195213,1,9
-3.55626,-1.35445,0.332935,1,10
-3.58082,-1.36237,0.470416,1,11
-3.35511,-1.27516,0.568483,2,12
-3.05394,-1.16008,0.635012,2,13
-0.526554,-0.199914,-0.0295175,16,6
-2.79309,-1.05988,0.6897,1,14
-2.48564,-0.942221,0.71227,1,15
-3.5041,-1.32269,0.0653767,1,8
-3.48908,-1.31563,0.195422,1,9
-3.56097,-1.34203,0.332935,1,10
-3.58555,-1.34986,0.470416,1,11
-3.35954,-1.26344,0.568483,2,12
-3.06532,-1.15218,0.636539,2,13
-2.78217,-1.04464,0.686101,1,14
-2.49253,-0.934895,0.713305,1,15
-3.5574,-1.32864,0.0662842,1,8
-0.461899,-0.172421,-0.113825,16,1
-3.51962,-1.31383,0.196888,1,9
-3.5283,-1.31567,0.329449,1,10
-3.59024,-1.33734,0.470416,1,11
-3.36001,-1.25091,0.567857,2,12
-3.04356,-1.13189,0.631196,2,13
-2.79311,-1.03764,0.6879,1,14
-2.49562,-0.926625,0.713305,1,15
-3.56179,-1.31684,0.0662842,1,8
-0.473436,-0.174941,-0.116525,16,1
-3.53355,-1.305,0.197411,1,9
-3.57025,-1.31714,0.332935,1,10
-3.59466,-1.32543,0.470416,1,11
-3.38289,-1.246,0.570986,2,12
-3.04546,-1.12111,0.630815,2,13
-2.79288,-1.02703,0.687001,1,14
-2.50246,-0.919239,0.714341,1,15
-0.477704,-0.174626,-0.117424,16,1
-3.49659,-1.27819,0.195108,1,9
-3.5746,-1.30529,0.332935,1,10
-3.59926,-1.31287,0.470416,1,11
-3.37587,-1.23072,0.569109,2,12
-0.520415,-0.189621,-0.0484586,11,5
-3.03644,-1.10577,0.628143,2,13
-2.77612,-1.01043,0.682052,1,14
-2.50187,-0.909616,0.713305,1,15
-0.463621,-0.167737,-0.113825,16,1
-3.51208,-1.27066,0.195736,1,9
-3.57891,-1.29343,0.332935,1,10
-3.6036,-1.30093,0.470416,1,11
-3.38736,-1.2222,0.57036,2,12
-0.521041,-0.187894,-0.0484586,11,5
-3.06779,-1.10568,0.633868,2,13
-2.78313,-1.00254,0.682951,1,14
-1.66322,-0.598798,-0.0308559,1,7
-2.54849,-0.917012,0.725729,1,15
-0.475183,-0.17014,-0.116525,16,1
-3.53906,-1.26647,0.196993,1,9
-3.58318,-1.28155,0.332935,1,10
-3.60789,-1.28897,0.470416,1,11
-3.34324,-1.1931,0.562226,1,12
-0.521661,-0.186166,-0.0484586,11,5
-3.05665,-1.09023,0.630815,2,13
-2.79395,-0.995431,0.684751,1,14
-1.6653,-0.592988,-0.0308559,1,7
-2.50072,-0.889974,0.711235,1,15
-1.64173,-0.58169,0.0304021,1,8
-3.55476,-1.25811,0.197621,1,9
-3.58763,-1.26904,0.332935,1,10
-3.61237,-1.27637,0.470416,1,11
-3.34179,-1.17945,0.561287,4,12
-3.04192,-1.07302,0.626998,2,13
-2.79741,-0.985672,0.684751,1,14
-1.66736,-0.587172,-0.0308559,1,7
-1.61733,-0.566697,0.0299134,1,8
-0.465323,-0.162954,-0.113825,16,1
-3.55137,-1.24367,0.197202,0,9
-3.59204,-1.25651,0.332935,1,10
-3.6168,-1.26375,0.470416,1,11
-3.34196,-1.16706,0.560661,4,12
-0.522948,-0.182519,-0.0484586,11,5
-3.05863,-1.06692,0.62967,1,13
-2.81187,-0.979749,0.68745,1,14
-1.61643,-0.563216,-0.0298785,1,7
-1.63054,-0.565262,0.0301229,2,8
-0.473227,-0.163962,-0.115625,16,1
-3.56324,-1.23388,0.197621,0,9
-3.5964,-1.24396,0.332935,1,10
-3.62097,-1.25175,0.470416,1,11
-3.34601,-1.15539,0.560661,4,12
-0.523582,-0.180693,-0.0484586,11,5
-2.81695,-0.971054,0.6879,1,14
-1.60326,-0.55236,-0.0295993,2,7
-1.62493,-0.556973,0.0299832,2,8
-3.60051,-1.23203,0.332935,1,10
-3.62532,-1.2391,0.470416,1,11
-3.34235,-1.14174,0.55941,4,12
-0.524178,-0.178955,-0.0484586,11,5
-2.81663,-0.959958,0.687001,1,14
-1.59373,-0.543169,-0.0293899,3,7
-1.62298,-0.550297,0.0299134,4,8
-3.60479,-1.21945,0.332935,1,10
-3.62941,-1.22707,0.470416,1,11
-3.34257,-1.1288,0.558784,4,12
-0.5248,-0.177125,-0.0484586,11,5
-2.8198,-0.950612,0.687001,1,14
-1.58803,-0.535049,-0.0292502,2,7
-1.61172,-0.539898,0.0296691,4,8
-0.467526,-0.156523,-0.113825,16,1
-3.60902,-1.20686,0.332935,1,10
-3.63388,-1.21376,0.470416,1,11
-3.35043,-1.11779,0.55941,4,12
-0.525415,-0.175292,-0.0484586,11,5
-0.534339,-0.178062,-0.0295175,16,6
-2.81957,-0.939039,0.686101,1,14
-1.61275,-0.536803,-0.0296691,4,7
-1.62878,-0.539298,0.0299483,5,8
-1.7673,-0.58448,0.0975542,1,9
-3.61321,-1.19426,0.332935,1,10
-3.63809,-1.20107,0.470416,1,11
-3.38058,-1.11475,0.56379,4,12
-0.526023,-0.173457,-0.0484586,11,5
-3.08966,-1.01822,0.632341,2,13
-2.81728,-0.927364,0.684751,1,14
-1.62411,-0.534295,-0.0298436,5,7
-2.13618,-0.702339,0.602531,1,15
-1.63445,-0.534853,0.0300181,5,8
-1.73127,-0.566199,0.0954608,1,9
-3.61736,-1.18164,0.332935,1,10
-3.64227,-1.18837,0.470416,1,11
-3.36547,-1.09741,0.560661,4,12
-0.526626,-0.171619,-0.0484586,11,5
-3.08759,-1.0056,0.631196,2,13
-2.81123,-0.914509,0.682501,1,14
-1.61066,-0.523957,-0.0295644,4,7
-2.09073,-0.679723,0.589072,1,15
-1.63051,-0.527583,0.0299134,5,8
-1.69142,-0.54664,0.093158,1,9
-3.62146,-1.169,0.332935,1,10
-3.64619,-1.17628,0.470416,1,11
-3.37681,-1.08808,0.561913,4,12
-0.477913,-0.153901,-0.0439265,12,5
-3.09465,-0.996563,0.631959,2,13
-2.80126,-0.901005,0.679352,1,14
-1.59915,-0.514049,-0.02932,4,7
-2.1593,-0.693692,0.607707,1,15
-1.62282,-0.518843,0.0297389,4,8
-1.70093,-0.543163,0.0935767,1,9
-3.62532,-1.15699,0.332935,1,10
-3.65027,-1.16355,0.470416,1,11
-3.36176,-1.07029,0.558784,4,12
-0.527782,-0.168031,-0.0484586,11,5
-3.09436,-0.984564,0.631196,2,13
-2.82296,-0.897124,0.683851,1,14
-1.61047,-0.51149,-0.0294946,4,7
-1.60746,-0.507755,0.0294248,4,8
-0.485027,-0.153115,-0.117424,16,1
-1.6952,-0.534819,0.093158,1,9
-3.62934,-1.14433,0.332935,1,10
-3.65431,-1.1508,0.470416,1,11
-3.37678,-1.0621,0.560661,4,12
-0.47895,-0.150645,-0.0439265,12,5
-3.07905,-0.967868,0.62738,2,13
-2.8205,-0.885513,0.682501,1,14
-1.63514,-0.513049,-0.0299134,5,7
-2.16409,-0.6786,0.607707,1,15
-1.62258,-0.50631,0.0296691,3,8
-1.71603,-0.53514,0.0942047,1,9
-3.63331,-1.13165,0.332935,1,10
-3.6583,-1.13803,0.470416,1,11
-3.40481,-1.05852,0.564728,1,12
-0.528942,-0.164342,-0.0484586,11,5
-3.09366,-0.960608,0.62967,1,13
-1.63301,-0.506439,-0.0298436,5,7
-1.62425,-0.500926,0.0296691,3,8
-1.7217,-0.530323,0.0944141,1,9
-3.63724,-1.11896,0.332935,1,10
-3.66206,-1.1259,0.470416,1,11
-3.43869,-1.05591,0.569734,2,12
-1.63668,-0.501321,-0.0298785,4,7
-1.63747,-0.49875,0.0298785,4,8
-0.486578,-0.148112,-0.117424,16,1
-1.70061,-0.517334,0.093158,1,9
-3.64093,-1.10689,0.332935,1,10
-3.66597,-1.11311,0.470416,1,11
-3.42724,-1.03932,0.567231,2,12
-0.530048,-0.160738,-0.0484586,11,5
-2.20277,-0.666733,0.531334,1,14
-1.62694,-0.492131,-0.0296691,4,7
-1.63345,-0.491303,0.0297738,4,8
-0.487092,-0.146413,-0.117424,16,1
-1.73301,-0.520589,0.0948328,1,9
-3.66983,-1.1003,0.470416,1,11
-3.43841,-1.02961,0.568483,2,12
-0.530606,-0.158887,-0.0484586,11,5
-2.20882,-0.660157,0.532234,1,14
-1.62098,-0.48416,-0.0295295,4,7
-1.62174,-0.481613,0.0295295,4,8
-1.70792,-0.506883,0.0933674,1,9
-3.64857,-1.08145,0.332935,1,10
-3.67365,-1.08749,0.470416,1,11
-3.44181,-1.0182,0.568483,2,12
-2.23342,-0.65945,0.537633,1,14
-1.63792,-0.483309,-0.0298087,4,7
-1.63676,-0.480173,0.0297738,4,8
-1.73643,-0.509083,0.0948328,1,9
-3.65213,-1.06934,0.332935,1,10
-3.45275,-1.009,0.569734,2,12
-0.531675,-0.155271,-0.0484586,11,5
-2.2356,-0.652041,0.537633,1,14
-1.64527,-0.479554,-0.0299134,4,7
-2.11073,-0.614821,0.589072,1,15
-1.64603,-0.476969,0.0299134,4,8
-0.473575,-0.137138,-0.113825,16,1
-1.71517,-0.496357,0.0935767,1,9
-3.44866,-0.994752,0.568483,2,12
-0.532214,-0.153414,-0.0484586,11,5
-2.21164,-0.636685,0.531334,1,14
-1.63733,-0.471043,-0.0297389,3,7
-1.66498,-0.476169,0.0302276,4,8
-0.481545,-0.137626,-0.115625,16,1
-1.77067,-0.505725,0.0965075,1,9
-3.44071,-0.979463,0.566606,2,12
-0.532746,-0.151556,-0.0484586,11,5
-2.24395,-0.637091,0.538533,1,14
-1.62358,-0.460956,-0.0294597,2,7
-2.11497,-0.60007,0.589072,1,15
-1.6494,-0.465178,0.0299134,3,8
-3.34522,-0.939669,0.550336,1,12
-2.21542,-0.621474,0.447256,1,13
-2.35875,-0.660796,0.565527,1,14
-1.66369,-0.466075,-0.0301578,2,7
-0.465262,-0.129554,-0.12941,15,0
-1.65671,-0.461315,0.0300181,3,8
-3.28756,-0.911104,0.540325,2,12
-2.24395,-0.621461,0.452599,1,13
-2.22194,-0.61453,0.532234,1,14
-1.6653,-0.460264,-0.0301578,2,7
-2.1191,-0.585291,0.589072,1,15
-1.66409,-0.457118,0.0301229,3,8
-0.475443,-0.130513,-0.113825,16,1
-3.32486,-0.909579,0.545956,1,12
-2.18929,-0.598102,0.44115,1,13
-2.22032,-0.605744,0.531334,1,14
-1.67068,-0.455792,-0.0302276,1,7
-0.55936,-0.15166,-0.155291,12,0
-1.67911,-0.45526,0.0303672,1,8
-0.513492,-0.139128,-0.122823,15,1
-0.534785,-0.144196,-0.0484586,11,5
-2.19126,-0.590838,0.44115,1,13
-2.2336,-0.601418,0.534034,1,14
-1.70702,-0.45931,-0.0308559,2,7
-1.68842,-0.451463,0.0305068,1,8
-0.483851,-0.129286,-0.115625,16,1
-2.30782,-0.614495,0.378259,1,12
-2.19331,-0.583186,0.44115,1,13
-2.24322,-0.595618,0.535833,1,14
-1.7008,-0.451595,-0.0307162,4,7
-1.71698,-0.453003,0.0309955,1,8
-0.484277,-0.12768,-0.115625,16,1
-3.40304,-0.896582,0.184432,0,9
-2.24117,-0.588378,0.366995,1,12
-0.535754,-0.140553,-0.0484586,11,5
-2.21879,-0.581262,0.529535,1,14
-1.71591,-0.4492,-0.0309606,5,7
-0.560867,-0.14599,-0.155291,12,0
-1.74177,-0.453048,0.0314143,1,8
-3.40615,-0.884697,0.184432,0,9
-2.21644,-0.573623,0.362615,1,12
-0.536218,-0.138775,-0.0484586,11,5
-2.19723,-0.568243,0.44115,1,13
-2.27741,-0.588132,0.543032,1,14
-1.73683,-0.448204,-0.0313096,5,7
-1.74334,-0.446965,0.0314143,1,8
-0.477606,-0.122362,-0.113825,16,1
-3.40922,-0.872802,0.184432,0,9
-2.23374,-0.569788,0.365118,1,12
-0.486504,-0.124099,-0.0439265,12,5
-2.1992,-0.56057,0.44115,1,13
-2.27945,-0.580178,0.543032,1,14
-1.73644,-0.441646,-0.0312747,4,7
-0.47803,-0.120694,-0.113825,16,1
-2.2702,-0.570656,0.37075,1,12
-0.537173,-0.135028,-0.0484586,11,5
-2.23923,-0.562455,0.448783,1,13
-2.25878,-0.566529,0.537633,1,14
-1.70306,-0.426831,-0.0306464,4,7
-0.486013,-0.120906,-0.115625,16,1
-2.31819,-0.574125,0.378259,1,12
-0.537641,-0.133152,-0.0484586,11,5
-2.26024,-0.559352,0.452599,1,13
-2.30993,-0.570795,0.54933,1,14
-1.73948,-0.429513,-0.0312747,1,7
-2.13444,-0.526639,0.589072,1,15
-2.22139,-0.543159,0.280787,1,11
-2.23949,-0.546756,0.365118,1,12
-2.23156,-0.544409,0.446493,1,13
-2.30424,-0.561287,0.547531,1,14
-2.02846,-0.493735,-0.0364406,1,7
-2.13617,-0.519558,0.589072,1,15
-0.479248,-0.115765,-0.113825,16,1
-2.18467,-0.526107,0.275912,1,11
-2.20681,-0.530623,0.359486,1,12
-2.2449,-0.539368,0.448783,1,13
-2.29861,-0.551422,0.545731,1,14
-2.0185,-0.483855,-0.0362312,2,7
-2.13797,-0.512098,0.589072,1,15
-0.479649,-0.114092,-0.113825,16,1
-3.3265,-0.791257,0.179198,1,9
-2.18649,-0.518477,0.275912,1,11
-2.20856,-0.523302,0.359486,1,12
-0.538984,-0.127609,-0.0484586,11,5
-2.25823,-0.53424,0.451072,1,13
-2.27776,-0.53802,0.540332,1,14
-2.04345,-0.482675,-0.0366501,3,7
-2.1171,-0.49968,0.582861,1,15
-0.564243,-0.132342,-0.155291,12,0
-2.1882,-0.511224,0.275912,1,11
-2.3258,-0.542514,0.378259,1,12
-0.539426,-0.125727,-0.0484586,11,5
-2.33265,-0.543683,0.465574,1,13
-2.27953,-0.530464,0.540332,1,14
-2.02954,-0.471915,-0.0363708,3,7
-2.13012,-0.49491,0.585966,1,15
-0.491807,-0.113452,-0.116525,16,1
-2.18997,-0.503582,0.275912,1,11
-2.25827,-0.518874,0.366995,1,12
-0.53984,-0.123937,-0.0484586,11,5
-2.30774,-0.529391,0.460231,1,13
-2.28128,-0.522901,0.540332,1,14
-2.03889,-0.466968,-0.0365104,3,7
-2.13175,-0.487844,0.585966,1,15
-0.492181,-0.111821,-0.116525,16,1
-2.16065,-0.490095,0.193834,1,10
-2.19163,-0.496317,0.275912,1,11
-2.26769,-0.513126,0.368247,1,12
-0.540248,-0.122147,-0.0484586,11,5
-2.30949,-0.521736,0.460231,1,13
-2.27539,-0.513617,0.538533,1,14
-2.02872,-0.457565,-0.036301,3,7
-2.10697,-0.474826,0.578719,1,15
-0.494451,-0.110613,-0.116975,16,1
-2.1856,-0.488139,0.195926,1,10
-2.26947,-0.505207,0.368247,1,12
-0.490086,-0.109098,-0.0439265,12,5
-2.29204,-0.509812,0.456415,1,13
-2.39132,-0.531018,0.565527,1,14
-2.03812,-0.452213,-0.0364406,3,7
-2.1237,-0.470814,0.582861,1,15
-0.487221,-0.107212,-0.115175,16,1
-2.23399,-0.490766,0.20011,1,10
-2.19496,-0.481388,0.275912,1,11
-2.27122,-0.497282,0.368247,1,12
-0.541067,-0.118466,-0.0484586,11,5
-2.26312,-0.495095,0.450309,1,13
-2.39316,-0.522668,0.565527,1,14
-2.04359,-0.445949,-0.0365104,3,7
-2.12533,-0.463398,0.582861,1,15
-0.49902,-0.107983,-0.117874,16,1
-2.16558,-0.46782,0.193834,1,10
-2.33473,-0.502656,0.378259,1,12
-0.541477,-0.116577,-0.0484586,11,5
-2.31474,-0.497927,0.460231,1,13
-2.05687,-0.441329,-0.0367199,2,7
-2.1496,-0.460835,0.589072,1,15
-0.518455,-0.110296,-0.122373,15,1
-2.22321,-0.472558,0.119117,1,9
-2.18669,-0.464397,0.195577,1,10
-2.29782,-0.486322,0.372001,1,12
-0.541881,-0.114686,-0.0484586,11,5
-2.31646,-0.489844,0.460231,1,13
-2.03883,-0.43002,-0.0363708,3,7
-2.17388,-0.45811,0.595284,1,15
-2.19349,-0.458643,0.117442,1,9
-2.1688,-0.45269,0.193834,1,10
-2.23874,-0.466475,0.280787,1,11
-2.28782,-0.476284,0.370124,1,12
-0.542278,-0.112794,-0.0484586,11,5
-2.26818,-0.471369,0.450309,1,13
-0.551465,-0.114504,-0.0295175,16,6
-2.07157,-0.429756,-0.0369293,2,7
-2.12999,-0.441488,0.582861,1,15
-0.481018,-0.0989138,-0.113375,16,1
-2.20681,-0.453395,0.11807,1,9
-2.17036,-0.445117,0.193834,1,10
-2.27139,-0.465424,0.284687,1,11
-2.27786,-0.465919,0.368247,1,12
-0.491915,-0.100528,-0.0439265,12,5
-2.26973,-0.463845,0.450309,1,13
-2.09265,-0.426516,-0.0372783,1,7
-2.13531,-0.434821,0.583896,1,15
-0.492821,-0.0995492,-0.116075,16,1
-2.20047,-0.444493,0.117651,1,9
-2.29101,-0.4607,0.370124,1,12
-0.543033,-0.1091,-0.0484586,11,5
-2.29058,-0.459783,0.454125,1,13
-2.12543,-0.42586,-0.0378368,1,7
-2.14431,-0.429255,0.585966,1,15
-0.496971,-0.0986736,-0.116975,16,1
-2.20201,-0.436809,0.117651,1,9
-2.20461,-0.436525,0.196623,1,10
-2.39914,-0.474607,0.300286,1,11
-2.30423,-0.454996,0.372001,1,12
-0.543411,-0.107204,-0.0484586,11,5
-2.32291,-0.458264,0.460231,1,13
-2.21221,-0.435623,0.520537,1,14
-2.15717,-0.424003,0.589072,1,15
-0.497313,-0.0969381,-0.116975,16,1
-2.22313,-0.432938,0.118698,1,9
-2.23343,-0.43454,0.199064,1,10
-2.26437,-0.43974,0.283224,1,11
-2.31744,-0.449206,0.373878,1,12
-0.543763,-0.105401,-0.0484586,11,5
-2.34377,-0.453886,0.464048,1,13
-2.15864,-0.41647,0.589072,1,15
-0.49382,-0.0944692,-0.116075,16,1
-2.27956,-0.435674,0.121629,1,9
-2.21536,-0.423004,0.197321,1,10
-2.30489,-0.439266,0.288099,1,11
-2.29959,-0.437422,0.37075,1,12
-0.544128,-0.103503,-0.0484586,11,5
-2.35306,-0.447168,0.465574,1,13
-2.2152,-0.420168,0.520537,1,14
-2.14489,-0.406058,0.584931,1,15
-0.520961,-0.0977776,-0.122373,15,1
-2.26136,-0.424428,0.120582,1,9
-2.26349,-0.423191,0.282737,1,11
-2.32433,-0.434146,0.374504,1,12
-0.544486,-0.101603,-0.0484586,11,5
-2.21658,-0.41282,0.520537,1,14
-2.14433,-0.39859,0.584413,4,15
-0.521282,-0.0960495,-0.122373,15,1
-2.24311,-0.413307,0.119535,1,9
-2.29657,-0.422328,0.204293,1,10
-2.28831,-0.419983,0.285662,1,11
-2.34907,-0.430711,0.378259,1,12
-0.54482,-0.0997967,-0.0484586,11,5
-0.554045,-0.101286,-0.0295175,16,6
-2.2371,-0.408971,0.525036,1,14
-2.13424,-0.389396,0.581308,4,15
-0.483245,-0.087385,-0.113375,16,1
-2.23275,-0.403344,0.118907,1,9
-2.30972,-0.416834,0.205339,1,10
-2.25061,-0.405355,0.280787,1,11
-2.35056,-0.422509,0.378259,1,12
-0.545148,-0.0979894,-0.0484586,11,5
-2.1733,-0.389472,0.509739,1,14
-2.1508,-0.384665,0.585449,4,15
-0.521924,-0.092499,-0.122373,15,1
-2.26167,-0.400423,0.120373,1,9
-2.29154,-0.405299,0.203596,1,10
-2.25983,-0.398877,0.281762,1,11
-2.35202,-0.414302,0.378259,1,12
-0.545486,-0.0960859,-0.0484586,11,5
-0.554722,-0.0975129,-0.0295175,16,6
-2.18232,-0.383232,0.511539,1,14
-2.17306,-0.380823,0.591143,1,15
-0.522244,-0.0906766,-0.122373,15,1
-2.2866,-0.39702,0.121629,1,9
-2.25761,-0.391174,0.200458,1,10
-2.29251,-0.396397,0.285662,1,11
-2.33002,-0.402465,0.374504,1,12
-2.18365,-0.375612,0.511539,1,14
-2.16669,-0.372306,0.589072,1,15
-0.522542,-0.0889443,-0.122373,15,1
-2.30767,-0.392385,0.122675,1,9
-2.24325,-0.380625,0.199064,1,10
-2.37426,-0.401577,0.381387,1,12
-0.546144,-0.0922752,-0.0484586,11,5
-2.19257,-0.369665,0.513338,1,14
-2.16798,-0.364741,0.589072,1,15
-0.524771,-0.0874401,-0.122823,15,1
-2.29713,-0.38276,0.122047,1,9
-2.27201,-0.377759,0.201504,1,10
-2.37168,-0.393055,0.380762,1,12
-2.23911,-0.370281,0.44115,1,13
-2.18615,-0.36074,0.511539,1,14
-2.16918,-0.357549,0.589072,1,15
-0.525058,-0.0856994,-0.122823,15,1
-2.29846,-0.374739,0.122047,1,9
-2.28512,-0.371746,0.20255,1,10
-2.35744,-0.382245,0.378259,1,12
-0.546759,-0.0885557,-0.0484586,11,5
-2.19503,-0.354732,0.513338,1,14
-1.13316,-0.182922,-0.0200354,1,7
-2.13227,-0.343825,0.578719,1,15
-0.525383,-0.0836827,-0.122823,15,1
-2.29192,-0.365056,0.121629,1,9
-2.28646,-0.363367,0.20255,1,10
-2.37625,-0.376786,0.295411,1,11
-2.35883,-0.373602,0.378259,1,12
-0.507722,-0.0803244,-0.0449724,12,5
-0.556339,-0.0878168,-0.0295175,16,6
-2.19638,-0.346301,0.513338,1,14
-1.09826,-0.173162,-0.0194071,1,7
-2.14115,-0.337209,0.58079,1,15
-0.525658,-0.08194,-0.122823,15,1
-2.30897,-0.359512,0.122466,1,9
-2.28772,-0.355384,0.20255,1,10
-2.35394,-0.365251,0.292486,1,11
-0.496185,-0.076725,-0.0439265,12,5
-2.24287,-0.346814,0.44115,1,13
-0.588209,-0.0908493,-0.0311922,15,6
-2.19752,-0.339015,0.513338,1,14
-1.10281,-0.169937,-0.0194769,1,7
-2.17286,-0.334435,0.589072,1,15
-0.525941,-0.0801046,-0.122823,15,1
-2.30225,-0.35065,0.122047,1,9
-2.33558,-0.354057,0.290049,1,11
-0.547657,-0.0828254,-0.0484586,11,5
-2.24406,-0.338982,0.44115,1,13
-0.556924,-0.0840279,-0.0295175,16,6
-2.2141,-0.333666,0.516937,1,14
-1.14292,-0.172238,-0.020175,1,7
-2.13575,-0.321477,0.578719,1,15
-2.37142,-0.353566,0.0418509,1,8
-0.526204,-0.07836,-0.122823,15,1
-2.30346,-0.342611,0.122047,1,9
-2.33738,-0.346823,0.206733,1,10
-2.41921,-0.358533,0.300286,1,11
-2.36255,-0.349293,0.378259,1,12
-2.21022,-0.326377,0.434281,1,13
-0.557199,-0.0821806,-0.0295175,16,6
-2.19977,-0.32405,0.513338,1,14
-1.1079,-0.163008,-0.0195467,1,7
-2.16362,-0.317952,0.585966,1,15
-2.37264,-0.345285,0.0418509,1,8
-0.526474,-0.0765227,-0.122823,15,1
-2.31249,-0.33612,0.122466,1,9
-2.3188,-0.33621,0.20499,1,10
-2.223,-0.320339,0.436571,1,13
-0.589113,-0.0847876,-0.0311922,15,6
-2.19318,-0.31526,0.511539,1,14
-2.14936,-0.308579,0.581825,1,15
-2.3025,-0.327284,0.0405943,1,8
-0.526725,-0.0747765,-0.122823,15,1
-2.29783,-0.325803,0.121629,1,9
-2.32785,-0.32923,0.205688,1,10
-2.26707,-0.319423,0.362615,1,12
-0.520859,-0.0732947,-0.0460182,12,5
-2.21239,-0.311325,0.434281,1,13
-0.510278,-0.071715,-0.0270054,18,6
-2.21737,-0.311236,0.516937,1,14
-2.1466,-0.300539,0.58079,1,15
-2.29571,-0.318147,0.0404547,1,8
-0.526983,-0.0729375,-0.122823,15,1
-2.33061,-0.322156,0.123304,1,9
-2.32104,-0.320419,0.20499,1,10
-2.24469,-0.308282,0.358861,1,12
-0.525047,-0.0721092,-0.0463669,12,5
-2.1979,-0.301466,0.431228,1,13
-0.522398,-0.0715596,-0.0276334,17,6
-2.23389,-0.305607,0.520537,1,14
-2.13998,-0.292,0.578719,1,15
-2.2968,-0.310132,0.0404547,1,8
-0.527234,-0.0710975,-0.122823,15,1
-2.35152,-0.316684,0.12435,1,9
-2.23009,-0.29835,0.356358,1,12
-2.18921,-0.292492,0.42932,1,13
-0.530563,-0.0707923,-0.0280521,17,6
-2.23494,-0.297807,0.520537,1,14
-2.17929,-0.289618,0.589072,1,15
-2.29787,-0.302113,0.0404547,1,8
-0.527479,-0.0692567,-0.122823,15,1
-2.34067,-0.307324,0.123722,1,9
-2.22714,-0.290442,0.355732,1,12
-0.549246,-0.0715296,-0.0484586,11,5
-2.23305,-0.290418,0.437716,1,13
-0.526846,-0.0684255,-0.0278427,17,6
-2.3782,-0.304655,0.0418509,1,8
-0.527706,-0.0675071,-0.122823,15,1
-2.32583,-0.297533,0.122885,1,9
-2.21634,-0.281561,0.353855,1,12
-0.54948,-0.0697079,-0.0484586,11,5
-2.2301,-0.282518,0.436953,1,13
-0.558774,-0.0706887,-0.0295175,16,6
-0.527927,-0.0657568,-0.122823,15,1
-2.23009,-0.276191,0.275912,1,11
-2.22907,-0.275275,0.355732,1,12
-2.23103,-0.275121,0.436953,1,13
-0.559005,-0.0688353,-0.0295175,16,6
-2.18211,-0.267543,0.589072,1,15
-2.19958,-0.2654,0.193834,1,10
-2.23104,-0.268405,0.275912,1,11
-2.21825,-0.266081,0.353855,1,12
-2.25147,-0.269667,0.440769,1,13
-0.559242,-0.0668836,-0.0295175,16,6
-2.08711,-0.248504,0.56319,1,15
-2.2005,-0.25772,0.193834,1,10
-2.23196,-0.260616,0.275912,1,11
-2.23089,-0.260096,0.355732,1,12
-2.08793,-0.241581,0.56319,1,15
-0.528576,-0.0603172,-0.122823,15,1
-2.3059,-0.262724,0.121629,1,9
-2.20138,-0.250038,0.193834,1,10
-2.23281,-0.253213,0.275912,1,11
-2.23964,-0.253195,0.356983,1,12
-2.04652,-0.229554,0.551802,1,15
-0.528783,-0.0584716,-0.122823,15,1
-2.22342,-0.245468,0.117233,1,9
-2.2022,-0.242737,0.193834,1,10
-2.23368,-0.245417,0.275912,1,11
-2.27585,-0.249247,0.362615,1,12
-2.08956,-0.226999,0.56319,1,15
-0.528984,-0.0566254,-0.122823,15,1
-2.18455,-0.233461,0.115139,1,9
-2.20303,-0.235047,0.193834,1,10
-2.23453,-0.237619,0.275912,1,11
-0.560111,-0.0591665,-0.0295175,16,6
-2.07113,-0.217684,0.558014,1,15
-2.19723,-0.227449,0.115767,1,9
-2.20384,-0.227356,0.193834,1,10
-2.23534,-0.229818,0.275912,1,11
-0.584157,-0.0596455,-0.0307735,15,6
-2.24173,-0.22415,0.11807,1,9
-2.20462,-0.219662,0.193834,1,10
-2.23609,-0.222404,0.275912,1,11
-0.532674,-0.0526046,-0.0280521,17,6
-2.15725,-0.212281,-0.0378368,1,7
-0.529539,-0.0511754,-0.122823,15,1
-2.21069,-0.213255,0.116395,1,9
-2.20534,-0.21235,0.193834,1,10
-2.23685,-0.214597,0.275912,1,11
-2.18187,-0.207015,-0.0382557,1,7
-0.529714,-0.0493266,-0.122823,15,1
-2.27108,-0.211082,0.119535,1,9
-2.20607,-0.204651,0.193834,1,10
-2.23759,-0.206787,0.275912,1,11
-0.560873,-0.0514384,-0.0295175,16,6
-2.19851,-0.200854,-0.0385349,1,7
-0.529883,-0.0474774,-0.122823,15,1
-2.23596,-0.200342,0.117651,1,9
-2.24646,-0.200491,0.197321,1,10
-0.561049,-0.0494802,-0.0295175,16,6
-2.15932,-0.190055,-0.0378368,1,7
-2.31226,-0.199044,0.121629,1,9
-0.561373,-0.0456603,-0.0295175,16,6
-2.16057,-0.175353,-0.0378368,1,7
-2.13724,-0.165953,-0.037418,1,7
-0.530488,-0.040167,-0.122823,15,1
-2.16174,-0.160265,-0.0378368,1,7
-0.530618,-0.0384076,-0.122823,15,1
-0.561814,-0.039877,-0.0295175,16,6
-0.530742,-0.0366477,-0.122823,15,1
-0.561943,-0.0380139,-0.0295175,16,6
-0.530867,-0.0347949,-0.122823,15,1
-0.562072,-0.036052,-0.0295175,16,6
-0.582727,-0.0371727,-0.0101922,8,7
-0.530985,-0.0329416,-0.122823,15,1
-1.91064,-0.116191,0.372078,1,13
-0.562194,-0.0340899,-0.0295175,16,6
-0.566878,-0.0342746,-0.00991297,8,7
-0.531092,-0.0311806,-0.122823,15,1
-1.89142,-0.108728,0.368261,8,13
-0.531197,-0.0293266,-0.122823,15,1
-1.87806,-0.101384,0.36559,10,13
-0.567104,-0.0303162,-0.00991297,8,7
-0.531296,-0.0274722,-0.122823,15,1
-1.87056,-0.0944313,0.364064,2,13
-0.562516,-0.0282989,-0.0295175,16,6
-0.591173,-0.0295338,-0.0103318,8,7
-2.11863,-0.102136,0.111162,1,9
-1.865,-0.0876247,0.362919,1,13
-0.562611,-0.0263353,-0.0295175,16,6
-0.591267,-0.0275732,-0.0103318,8,7
-2.03916,-0.091171,0.106975,1,9
-1.87312,-0.0817822,0.364445,1,13
-0.562695,-0.0244695,-0.0295175,16,6
-0.599351,-0.0258538,-0.0104714,8,7
-2.03548,-0.0838884,0.106765,1,9
-2.06238,-0.0846366,0.180587,1,10
-1.8734,-0.0752436,0.364445,1,13
-0.51089,-0.0204302,-0.026796,18,6
-0.587449,-0.0232864,-0.010262,8,7
-0.531625,-0.0201442,-0.122823,15,1
-1.98786,-0.074976,0.104253,1,9
-2.0547,-0.0771385,0.179889,1,10
-1.87365,-0.0687037,0.364445,1,13
-0.562852,-0.0205405,-0.0295175,16,6
-0.599517,-0.021669,-0.0104714,8,7
-0.531692,-0.0182883,-0.122823,15,1
-2.06794,-0.0711299,0.10844,1,9
-2.0669,-0.070372,0.180935,1,10
-0.587594,-0.0192872,-0.010262,8,7
-2.12008,-0.0655149,0.111162,1,9
-2.01536,-0.0615747,0.176403,1,10
-0.607646,-0.0178223,-0.0106111,7,7
-0.563034,-0.0147436,-0.0295175,16,6
-0.563082,-0.0127781,-0.0295175,16,6
-0.563123,-0.0108126,-0.0295175,16,6
-0.603801,-0.0113827,-0.0105413,8,7
-2.12089,-0.0288748,0.111162,1,9
-0.607863,-0.0073208,-0.0106111,7,7
-2.02911,-0.0208959,0.106347,1,9
-2.04409,-0.0203361,0.178844,1,10
-0.563205,-0.00501337,-0.0295175,16,6
-0.639878,-0.0055842,-0.0111695,7,7
-2.03715,-0.0142227,0.106765,5,9
-2.01825,-0.0133857,0.176578,5,10
-2.04918,-0.00715288,0.107393,4,9
-2.03422,-0.00639112,0.177972,3,10
-0.579543,0.00374254,-0.155291,12,0
-0.540891,0.00547555,-0.144939,14,0
-0.553848,0.00638008,-0.0484586,11,5
-0.502235,0.00683762,-0.134586,15,0
-0.553822,0.00831334,-0.0484586,11,5
-0.540839,0.00925155,-0.144939,14,0
-1.97683,0.035541,0.242764,1,11
-0.59363,0.0109837,-0.0519448,10,5
-0.579435,0.0118339,-0.155291,12,0
-1.89731,0.0407368,0.233014,1,11
-0.577655,0.0126045,-0.0505503,10,5
-0.579392,0.0137554,-0.155291,12,0
-1.9051,0.0472252,0.233989,2,11
-0.525825,0.0132182,-0.0460182,12,5
-0.579343,0.0156766,-0.155291,12,0
-1.88112,0.0528733,0.231064,1,11
-0.597475,0.017002,-0.0522934,10,5
-0.579285,0.0176987,-0.155291,12,0
-1.8968,0.0599405,0.233014,1,11
-0.605377,0.0193421,-0.0529907,10,5
-0.57922,0.0197207,-0.155291,12,0
-0.593359,0.0210317,-0.0519448,10,5
-0.593286,0.0229992,-0.0519448,10,5
-0.579076,0.0235618,-0.155291,12,0
-0.593203,0.0250699,-0.0519448,10,5
-0.578986,0.025684,-0.155291,12,0
-0.593111,0.0271405,-0.0519448,10,5
-0.578893,0.0277049,-0.155291,12,0
-0.593013,0.0292107,-0.0519448,10,5
-0.608825,0.0321201,-0.0533393,10,5
-0.578685,0.0317456,-0.155291,12,0
-0.584838,0.0329023,-0.0512476,10,5
-0.57677,0.0343674,-0.0505503,10,5
-0.552791,0.0347786,-0.0484586,11,5
-0.604355,0.0401413,-0.0529907,10,5
-0.578207,0.0395194,-0.155291,12,0
-0.604218,0.0421451,-0.0529907,10,5
-0.578065,0.0415377,-0.155291,12,0
-1.73566,0.127154,0.275638,1,12
-0.576249,0.0422159,-0.0505503,10,5
-1.70566,0.130944,0.270945,2,12
-0.59199,0.0454472,-0.0519448,10,5
-0.577761,0.0455722,-0.155291,12,0
-1.70519,0.136897,0.270945,2,12
-0.591828,0.0475134,-0.0519448,10,5
-1.4704,0.118822,0.340576,1,14
-1.51731,0.123146,0.407899,1,15
-0.52754,0.0434643,-0.141833,14,0
-0.528252,0.0437086,-0.122373,15,1
-1.70273,0.142683,0.270632,2,12
-0.5996,0.0502443,-0.0526421,10,5
-1.47901,0.124196,0.288503,1,13
-1.48163,0.124937,0.343275,1,14
-1.49762,0.126812,0.402722,1,15
-0.550482,0.0472896,-0.148044,13,0
-0.528096,0.0455523,-0.122373,15,1
-1.68255,0.146908,0.267503,2,12
-0.607361,0.0530302,-0.0533393,10,5
-1.50009,0.131241,0.292701,1,13
-1.46954,0.129085,0.340576,1,14
-0.527224,0.0471462,-0.141833,14,0
-1.70566,0.154626,0.271257,1,12
-0.615109,0.0558711,-0.0540366,10,5
-0.577078,0.0535339,-0.155291,12,0
-0.61493,0.0578031,-0.0540366,10,5
-0.576907,0.0553466,-0.155291,12,0
-0.602837,0.0586838,-0.0529907,10,5
-0.57671,0.0573599,-0.155291,12,0
-0.580193,0.0580132,-0.113341,16,2
-0.614522,0.0619875,-0.0540366,10,5
-0.576506,0.0593727,-0.155291,12,0
-0.579987,0.0600381,-0.113341,16,2
-0.602412,0.0628908,-0.0529907,10,5
-0.576295,0.0613848,-0.155291,12,0
-0.579774,0.0620624,-0.113341,16,2
-0.58238,0.0628553,-0.0512476,10,5
-0.576089,0.0632955,-0.155291,12,0
-0.649816,0.0717404,-0.127079,14,2
-0.60197,0.0669898,-0.0529907,10,5
-0.575864,0.065306,-0.155291,12,0
-0.633956,0.0722301,-0.124026,14,2
-0.601733,0.0690909,-0.0529907,10,5
-0.575633,0.0673158,-0.155291,12,0
-0.579104,0.0680291,-0.113341,16,2
-0.617317,0.0730642,-0.0543852,9,5
-0.575394,0.0693247,-0.155291,12,0
-0.555475,0.0672199,-0.108761,17,2
-0.63288,0.0771473,-0.0557797,9,5
-1.34608,0.165039,0.363382,1,15
-0.575161,0.0712324,-0.155291,12,0
-0.578628,0.0719694,-0.113341,16,2
-0.60099,0.0752833,-0.0529907,10,5
-1.27266,0.160549,0.343712,1,15
-0.574909,0.0732396,-0.155291,12,0
-0.597307,0.0763049,-0.13902,13,1
-0.64069,0.0819605,-0.125552,14,2
-0.648149,0.0834897,-0.0571742,9,5
-1.31807,0.170954,0.356135,1,15
-0.57465,0.0752459,-0.155291,12,0
-0.613149,0.0806136,-0.12021,15,2
-0.588598,0.0779084,-0.0519448,10,5
-1.33282,0.177363,0.360276,1,15
-0.574384,0.0772514,-0.155291,12,0
-0.577843,0.0780247,-0.113341,16,2
-0.631756,0.0858658,-0.0557797,9,5
-1.30157,0.17783,0.351994,1,15
-0.574125,0.0791557,-0.155291,12,0
-0.643701,0.0890918,-0.126316,14,2
-0.588054,0.0819131,-0.0519448,10,5
-1.54971,0.216143,0.30415,1,13
-1.30094,0.182372,0.351994,1,15
-0.573845,0.0811593,-0.155291,12,0
-0.600623,0.0852674,-0.11792,16,2
-0.615378,0.08791,-0.0543852,9,5
-1.5334,0.219328,0.301097,1,13
-1.29265,0.185812,0.349923,1,15
-0.573558,0.0831619,-0.155291,12,0
-0.611979,0.0890599,-0.12021,15,2
-0.630838,0.0923668,-0.0557797,9,5
-1.52486,0.22354,0.29957,2,13
-0.557257,0.0817916,-0.0295175,16,6
-1.30349,0.191785,0.353029,1,15
-0.573279,0.0850635,-0.155291,12,0
-0.607796,0.0905105,-0.119446,15,2
-0.662055,0.0991809,-0.0585687,8,5
-1.51828,0.227722,0.298425,2,13
-1.30285,0.196107,0.353029,1,15
-0.572994,0.086964,-0.155291,12,0
-0.576439,0.0877956,-0.113341,16,2
-0.630212,0.0965484,-0.0557797,9,5
-1.5117,0.231862,0.29728,2,13
-1.28306,0.197711,0.347853,1,15
-0.572687,0.0889637,-0.155291,12,0
-0.599407,0.093436,-0.11792,16,2
-0.598378,0.0938103,-0.0529907,10,5
-1.52252,0.238964,0.29957,1,13
-1.30908,0.206401,0.3551,1,15
-0.572373,0.0909621,-0.155291,12,0
-0.637852,0.101711,-0.125552,14,2
-0.60985,0.0977913,-0.0540366,10,5
-1.48678,0.238676,0.292701,1,13
-1.31983,0.212584,0.358206,1,15
-0.572052,0.0929595,-0.155291,12,0
-0.625867,0.102041,-0.123263,15,2
-0.617369,0.101209,-0.0547338,9,5
-1.31146,0.215934,0.356135,1,15
-0.57174,0.094856,-0.155291,12,0
-0.555559,0.0923707,-0.130022,14,1
-0.641019,0.106695,-0.126316,14,2
-0.60524,0.101283,-0.0536879,10,5
-1.32216,0.222203,0.359241,1,15
-0.571406,0.0968512,-0.155291,12,0
-0.589833,0.10008,-0.13812,13,1
-0.636771,0.108273,-0.125552,14,2
-0.632378,0.108094,-0.0561283,9,5
-1.29092,0.221588,0.350959,1,15
-0.571064,0.0988451,-0.155291,12,0
-0.562581,0.0975791,-0.131821,14,1
-0.618981,0.107473,-0.122118,15,2
-0.62022,0.108246,-0.0550824,9,5
-0.570716,0.100838,-0.155291,12,0
-0.56993,0.100802,-0.133621,14,1
-0.618602,0.109633,-0.122118,15,2
-0.619838,0.11041,-0.0550824,9,5
-0.570378,0.10273,-0.155291,12,0
-0.561904,0.101406,-0.131821,14,1
-0.625963,0.11308,-0.123644,14,2
-0.619449,0.112573,-0.0550824,9,5
-0.569998,0.10482,-0.155291,12,0
-0.569213,0.104778,-0.133621,14,1
-0.617821,0.113949,-0.122118,15,2
-0.630807,0.116913,-0.0561283,9,5
-0.569628,0.106809,-0.155291,12,0
-0.576486,0.108303,-0.135421,13,1
-0.609702,0.114653,-0.120591,15,2
-0.642141,0.121334,-0.0571742,9,5
-0.569252,0.108797,-0.155291,12,0
-0.572295,0.109482,-0.134521,14,1
-0.609298,0.116781,-0.120591,15,2
-0.598672,0.115286,-0.0533393,10,5
-0.568888,0.110684,-0.155291,12,0
-0.587212,0.114461,-0.13812,13,1
-0.63203,0.123312,-0.125171,14,2
-0.625659,0.122636,-0.0557797,9,5
-0.568498,0.112669,-0.155291,12,0
-0.556245,0.110341,-0.130922,14,1
-0.608489,0.120926,-0.120591,15,2
-0.609596,0.121699,-0.0543852,9,5
-0.568122,0.114553,-0.155291,12,0
-0.574958,0.116141,-0.135421,13,1
-0.638874,0.129168,-0.126697,14,2
-0.601379,0.122133,-0.0536879,10,5
-1.20769,0.246147,0.330253,1,15
-0.567739,0.116437,-0.155291,12,0
-0.57457,0.118047,-0.135421,13,1
-0.623058,0.128122,-0.123644,14,2
-0.577557,0.119291,-0.0515962,21,5
-1.0405,0.215288,-0.0556855,2,6
-1.20687,0.25015,0.330253,1,15
-0.567349,0.118319,-0.155291,12,0
-0.57036,0.119154,-0.134521,14,1
-0.63416,0.132598,-0.125934,14,2
-0.573258,0.120386,-0.0512476,21,5
-0.942059,0.198179,-0.0504519,3,6
-1.20599,0.254361,0.330253,1,15
-0.566933,0.120298,-0.155291,12,0
-0.596627,0.126817,-0.140819,13,1
-0.629852,0.133994,-0.125171,14,2
-0.545556,0.116559,-0.0488072,34,5
-0.980422,0.209826,-0.0525453,2,6
-1.16732,0.250464,0.3199,1,15
-0.554276,0.119839,-0.130922,14,1
-0.567978,0.122905,-0.112959,16,2
-0.572382,0.124485,-0.0512476,42,5
-1.01872,0.221743,-0.0546387,2,6
-1.20418,0.262775,0.330253,1,15
-0.566058,0.124352,-0.155291,12,0
-0.580501,0.127631,-0.13722,13,1
-0.663389,0.146098,-0.13204,13,2
-0.575835,0.127343,-0.0515962,21,5
-0.963296,0.213381,-0.0517079,2,6
-1.24475,0.276182,0.341641,1,15
-0.572422,0.128056,-0.135421,13,1
-0.58705,0.131974,-0.0526421,20,5
-0.978133,0.220252,-0.0525453,2,6
-1.28901,0.290727,0.354064,4,15
-0.587197,0.133408,-0.13902,13,1
-0.571047,0.130472,-0.0512476,21,5
-1.02413,0.23418,-0.0550574,2,6
-1.27669,0.292635,0.350959,9,15
-0.579132,0.133703,-0.13722,13,1
-0.572552,0.132816,-0.0514219,21,5
-1.00385,0.233233,-0.0540107,2,6
-1.17687,0.273434,0.278939,1,14
-1.28512,0.299056,0.353547,11,15
-0.567302,0.132955,-0.134521,14,1
-0.614774,0.14476,-0.0552567,19,5
-0.975853,0.230142,-0.0525453,2,6
-1.1532,0.271967,0.27354,1,14
-1.2954,0.305981,0.356653,7,15
-0.570649,0.135737,-0.135421,13,1
-0.756315,0.18004,-0.151121,9,2
-0.612353,0.146335,-0.0550824,19,5
-1.05972,0.253439,0.211798,1,13
-0.916813,0.21943,-0.0494052,4,6
-1.15224,0.275991,0.27354,1,14
-1.29432,0.3105,0.356653,2,15
-0.611846,0.147795,-0.145318,12,1
-0.637009,0.15458,-0.0573485,18,5
-1.05883,0.257136,0.211798,1,13
-0.935449,0.227346,-0.0504519,3,6
-1.21186,0.294749,0.287937,1,14
-0.632596,0.155849,-0.0569999,18,5
-1.05793,0.260831,0.211798,1,13
-0.93465,0.23061,-0.0504519,3,6
-1.27137,0.313926,0.302334,7,14
-0.562438,0.139815,-0.155291,12,0
-0.70535,0.175602,-0.167813,9,1
-0.632467,0.157574,-0.126697,14,2
-0.631687,0.157849,-0.0799463,11,4
-0.645579,0.16144,-0.05822,17,5
-1.05701,0.264522,0.211798,1,13
-1.27972,0.32073,0.304584,11,14
-0.604194,0.153221,-0.076534,11,4
-0.66046,0.167613,-0.0596145,17,5
-1.28803,0.327597,0.306833,11,14
-0.937948,0.238731,-0.0168939,2,7
-0.561448,0.143738,-0.155291,12,0
-0.58443,0.150382,-0.0740966,12,4
-1.02344,0.263537,0.167385,1,12
-0.675307,0.173892,-0.061009,16,5
-1.15019,0.29639,0.230879,1,13
-1.30009,0.3355,0.309983,5,14
-0.703504,0.182856,-0.167813,9,1
-0.657411,0.170998,-0.13204,13,2
