x, y, z, intensity, ring
13.698,3.21537,1.72762,42,11
6.72174,1.57657,-0.847723,33,4
14.1931,3.32897,2.30897,91,12
7.61576,1.78486,-0.684347,37,5
14.1951,3.3242,2.8339,42,13
8.9263,2.08872,-0.480444,76,6
18.3513,4.29076,4.351,34,14
9.89362,2.31324,-0.177351,32,7
16.9364,3.9568,4.6603,6,15
12.4509,2.89055,0.223112,56,8
0.533432,0.123741,-0.126422,15,1
12.9076,2.99183,0.694394,46,9
0.688546,0.15947,-0.137382,49,2
12.9238,2.99082,1.16057,35,10
6.02181,1.39356,-0.978967,56,3
14.0026,3.23791,1.76467,42,11
6.73273,1.55561,-0.848454,34,4
14.4087,3.3265,2.34214,48,12
7.63165,1.76051,-0.685218,31,5
8.98962,2.07211,-0.48348,68,6
18.8896,4.35059,4.47518,35,14
9.91527,2.28184,-0.177596,100,7
16.9746,3.90329,4.66703,16,15
12.496,2.85509,0.22374,66,8
0.54716,0.124914,-0.129572,14,1
13.14,2.99739,0.706326,10,9
0.692927,0.157938,-0.138146,48,2
13.0385,2.97186,1.16998,67,10
6.01123,1.36903,-0.976464,47,3
14.1686,3.22424,1.78417,27,11
6.7478,1.5343,-0.849673,33,4
14.4664,3.28669,2.34965,42,12
7.64747,1.73606,-0.68609,41,5
15.2538,3.45997,3.04035,13,13
9.04975,2.05107,-0.486306,65,6
17.7472,4.0223,4.20119,12,14
9.83152,2.22645,-0.175955,97,7
16.9862,3.84359,4.66651,31,15
12.4596,2.79875,0.222902,82,8
0.528599,0.11864,-0.125073,15,1
13.0417,2.92474,0.700464,16,9
0.704995,0.157973,-0.140435,47,2
13.2515,2.96935,1.18811,20,10
6.02392,1.34871,-0.977716,52,3
13.8142,3.09039,1.7381,38,11
6.76113,1.51129,-0.850648,33,4
14.1121,3.15183,2.2902,38,12
7.67128,1.71193,-0.687659,31,5
15.3871,3.43096,3.06439,10,13
9.13908,2.03613,-0.490702,70,6
17.6192,3.92544,4.16744,24,14
12.0375,2.67967,-0.215258,100,7
17.0624,3.79515,4.68359,7,15
12.1788,2.68883,0.217701,22,8
0.532837,0.117542,-0.125973,15,1
0.705543,0.155511,-0.140435,35,2
13.8752,3.05575,1.24302,100,10
6.03075,1.32705,-0.978028,48,3
13.5928,2.98858,1.70885,89,11
6.75666,1.48555,-0.849429,32,4
13.9513,3.06484,2.26236,50,12
7.67526,1.68471,-0.687485,30,5
24.0764,5.28032,4.79121,12,13
9.27099,2.03158,-0.497401,77,6
17.5852,3.85349,4.1562,25,14
11.9217,2.61026,-0.213024,42,7
17.0699,3.73432,4.68204,31,15
11.8281,2.5703,0.211279,7,8
0.540841,0.117428,-0.127772,14,1
12.3138,2.67359,0.660375,82,9
0.690705,0.149841,-0.137382,37,2
13.0538,2.8295,1.16858,30,10
6.05635,1.31164,-0.98147,45,3
13.5658,2.93551,1.70422,30,11
6.77125,1.46524,-0.850648,38,4
13.4806,2.91461,2.18445,38,12
7.6886,1.66093,-0.688182,28,5
24.0881,5.19922,4.79007,27,13
9.34406,2.01514,-0.50096,73,6
17.4836,3.77051,4.1292,37,14
12.0242,2.59093,-0.2147,23,7
17.1917,3.70128,4.71206,19,15
0.556473,0.118891,-0.131371,14,1
12.4227,2.65186,0.665713,31,9
0.691224,0.147429,-0.137382,49,2
13.1236,2.79908,1.17399,65,10
6.06646,1.29279,-0.982409,46,3
13.0571,2.78013,1.63914,67,11
6.78409,1.44324,-0.851623,48,4
13.4946,2.86836,2.18508,21,12
7.6963,1.6345,-0.688356,31,5
14.0062,2.97199,2.78314,16,13
9.41356,1.99576,-0.504309,73,6
17.5271,3.71592,4.1364,31,14
11.8258,2.50502,-0.211,32,7
17.2367,3.64805,4.72086,18,15
11.7694,2.47163,0.209918,15,8
0.530204,0.111249,-0.125073,15,1
12.3541,2.58991,0.661527,37,9
0.699446,0.146504,-0.138909,24,2
13.044,2.73217,1.16597,17,10
6.04409,1.26488,-0.978028,57,3
13.8541,2.89679,1.73786,42,11
6.77962,1.41634,-0.850404,37,4
13.6191,2.84269,2.20354,51,12
7.70029,1.60587,-0.688182,30,5
17.0441,3.55139,3.38419,6,13
9.45014,1.96736,-0.505879,80,6
17.4414,3.63101,4.11301,46,14
11.7742,2.44903,-0.209918,28,7
11.6452,2.40102,0.207544,43,8
0.530609,0.109305,-0.125073,15,1
12.9328,2.66178,0.691986,25,9
0.696107,0.14327,-0.138146,36,2
12.5095,2.57238,1.11734,35,10
6.05449,1.24391,-0.978967,45,3
13.7518,2.82285,1.72372,50,11
6.79838,1.39427,-0.852111,30,4
13.7029,2.80783,2.21543,66,12
7.71951,1.58178,-0.689402,30,5
13.8944,2.84452,2.75681,19,13
9.49609,1.94236,-0.507973,63,6
17.4451,3.56511,4.11076,14,14
11.7889,2.40706,-0.210022,21,7
17.8422,3.63976,4.87926,28,15
11.7437,2.37862,0.20915,9,8
0.530987,0.107452,-0.125073,15,1
12.3723,2.50144,0.661527,46,9
0.696603,0.140839,-0.138146,36,2
12.4832,2.5216,1.1142,26,10
6.06654,1.22433,-0.980218,45,3
6.79931,1.36975,-0.851623,34,4
14.0322,2.82429,2.26705,16,12
7.72108,1.55404,-0.689053,31,5
13.6925,2.75343,2.71483,11,13
9.59288,1.9273,-0.512788,77,6
22.0143,4.41887,5.18377,16,14
9.89347,1.98409,-0.17613,100,7
11.6382,2.31498,0.207125,33,8
0.539004,0.107117,-0.126872,15,1
12.3869,2.45941,0.661841,28,9
0.697091,0.138407,-0.138146,36,2
12.4724,2.47413,1.11246,16,10
6.07853,1.20469,-0.98147,38,3
13.7946,2.73141,1.72664,3,11
6.81184,1.34755,-0.852598,40,4
13.5187,2.67187,2.18257,24,12
7.74795,1.53133,-0.690971,28,5
14.4147,2.84634,2.85603,7,13
9.57212,1.88839,-0.511322,70,6
18.372,3.62109,4.32311,31,14
10.0573,1.98046,-0.178922,35,7
16.6957,3.28465,4.55936,30,15
11.6344,2.27204,0.206916,12,8
0.554676,0.10822,-0.130472,14,1
12.4385,2.42456,0.664143,56,9
0.705277,0.137475,-0.139672,35,2
13.9438,2.71545,1.24284,31,10
6.08464,1.18384,-0.981783,41,3
13.9248,2.70672,1.74176,7,11
6.82625,1.32565,-0.853817,40,4
13.5202,2.62317,2.18132,34,12
7.75716,1.50503,-0.691319,28,5
14.2183,2.75603,2.8152,10,13
9.74728,1.88762,-0.520324,73,6
18.3022,3.54103,4.30376,15,14
10.0288,1.93851,-0.178294,100,7
12.7146,2.43694,0.225974,25,8
0.555051,0.106283,-0.130472,14,1
12.494,2.39014,0.666655,42,9
0.694183,0.1328,-0.137382,49,2
12.5618,2.40084,1.11891,26,10
6.07903,1.16074,-0.980218,45,3
12.9553,2.47137,1.6194,54,11
6.83084,1.30182,-0.853817,38,4
13.4905,2.56856,2.17507,30,12
7.81352,1.48627,-0.695851,28,5
9.51247,1.80772,-0.507449,42,6
20.6828,3.92675,4.86029,65,14
10.342,1.96163,-0.183739,26,7
21.7842,4.12798,5.94093,8,15
9.72995,1.8297,0.172814,48,8
0.547757,0.102906,-0.128672,14,1
12.5533,2.35609,0.669377,24,9
0.710102,0.133149,-0.140435,47,2
6.09295,1.14027,-0.981783,42,3
12.9795,2.42905,1.62135,39,11
6.86266,1.28307,-0.857229,38,4
18.8626,3.52323,3.03921,13,12
7.83041,1.46118,-0.696897,23,5
13.8343,2.57902,2.73544,39,13
9.86853,1.83794,-0.526081,100,6
9.0316,1.68043,-0.160353,24,7
19.8137,3.68298,5.4,8,15
9.70119,1.78751,0.172185,17,8
0.555797,0.102309,-0.130472,14,1
0.698978,0.128539,-0.138146,36,2
12.949,2.37892,1.15185,35,10
6.1105,1.12149,-0.983973,52,3
13.7791,2.52646,1.72006,62,11
6.87317,1.25898,-0.85796,40,4
13.0014,2.37916,2.09341,7,12
7.90406,1.44639,-0.702998,30,5
13.8258,2.52754,2.732,31,13
10.4054,1.90036,-0.554343,70,6
23.9272,4.36557,5.61523,26,14
9.08294,1.65557,-0.161156,100,7
17.4095,3.17012,4.74157,1,15
11.63,2.10095,0.206287,12,8
0.540808,0.0975992,-0.126872,15,1
13.2755,2.39342,0.706954,30,9
0.676237,0.121918,-0.133566,39,2
12.3141,2.21788,1.09468,90,10
6.12215,1.10155,-0.985224,45,3
6.85408,1.23077,-0.855035,43,4
13.5929,2.4384,2.18727,11,12
7.92475,1.4216,-0.704393,27,5
13.8964,2.49034,2.74422,60,13
9.8654,1.76618,-0.525244,56,6
21.5061,3.84631,5.04385,24,14
9.08867,1.62385,-0.161156,68,7
17.3006,3.08795,4.70895,12,15
0.556498,0.0984259,-0.130472,14,1
9.98345,1.76395,0.531315,17,9
0.692125,0.12229,-0.136619,37,2
12.1589,2.14613,1.08021,58,10
6.1318,1.0812,-0.986163,46,3
13.8179,2.43399,1.72275,73,11
6.88375,1.21131,-0.858204,41,4
13.7005,2.40838,2.20322,24,12
7.99245,1.40497,-0.709971,30,5
13.9359,2.44725,2.75032,26,13
10.1686,1.78384,-0.541049,70,6
21.4676,3.76213,5.03171,39,14
9.52763,1.66798,-0.168835,21,7
21.3799,3.73908,5.81566,18,15
9.54008,1.65472,0.169009,60,8
0.522275,0.0904945,-0.122373,15,1
0.684809,0.118533,-0.135093,38,2
12.2213,2.11318,1.08509,60,10
6.12385,1.05778,-0.984286,46,3
13.7187,2.36717,1.70934,46,11
6.8938,1.18829,-0.858935,43,4
15.2292,2.62234,2.44757,22,12
8.04051,1.38451,-0.713806,28,5
14.1727,2.43786,2.79535,27,13
10.0842,1.73278,-0.536234,52,6
18.7475,3.21805,4.39149,13,14
9.21213,1.57962,-0.163145,22,7
22.6419,3.87838,6.15523,12,15
9.29937,1.57955,0.164646,91,8
0.559092,0.0948647,-0.130922,14,1
10.5114,1.78165,0.558739,47,9
0.696833,0.11811,-0.137382,37,2
12.1421,2.05587,1.07742,69,10
6.1314,1.03705,-0.984912,48,3
13.6623,2.30835,1.7013,63,11
6.88812,1.16257,-0.857717,41,4
15.1253,2.55012,2.42943,43,12
8.10423,1.36637,-0.719035,30,5
13.672,2.30262,2.69499,7,13
9.78881,1.64687,-0.520219,77,6
18.8047,3.16033,4.40229,16,14
9.188,1.54249,-0.162622,32,7
18.4104,3.08746,5.00194,11,15
9.32653,1.55069,0.16503,98,8
0.540196,0.0897195,-0.126422,15,1
12.2219,2.02772,0.64928,19,9
0.689494,0.114393,-0.135856,25,2
12.1099,2.00696,1.07393,65,10
6.13109,1.01499,-0.984286,46,3
13.6585,2.25871,1.69983,60,11
6.88234,1.1369,-0.856498,42,4
8.19545,1.35234,-0.726705,23,5
13.6625,2.25202,2.69155,10,13
9.65852,1.5903,-0.512997,45,6
14.2949,2.35112,3.34457,24,14
9.24464,1.51884,-0.163529,76,7
21.3111,3.49746,5.78668,7,15
9.71901,1.57936,0.171871,51,8
0.525133,0.0852411,-0.122823,15,1
9.88488,1.60454,0.524825,43,9
0.693784,0.112493,-0.136619,37,2
12.2549,1.98486,1.08613,22,10
6.14257,0.99378,-0.985537,41,3
12.4498,2.01196,1.54847,18,11
6.89038,1.1123,-0.856985,46,4
8.24952,1.33022,-0.731062,25,5
17.1227,2.75794,3.37121,25,13
9.52428,1.53236,-0.505565,56,6
14.3149,2.30057,3.34727,9,14
9.54801,1.53447,-0.1688,31,7
22.048,3.5394,5.98338,11,15
0.552357,0.0877811,-0.129122,14,1
9.87464,1.56753,0.523988,57,9
0.682539,0.108226,-0.13433,38,2
12.4428,1.97074,1.10217,61,10
6.14973,0.974021,-0.986163,35,3
12.4583,1.97098,1.54872,3,11
6.89011,1.08882,-0.856498,48,4
13.1239,2.07158,2.10436,54,12
8.28167,1.30576,-0.733503,25,5
13.6527,2.1526,2.68659,29,13
9.5885,1.5101,-0.508706,100,6
17.8954,2.81515,4.18229,24,14
9.40515,1.47785,-0.166182,33,7
19.6918,3.0907,5.34099,16,15
9.2316,1.43573,0.163075,13,8
0.544957,0.0846561,-0.127322,15,1
9.30967,1.44454,0.493737,39,9
0.682894,0.105962,-0.13433,38,2
12.337,1.91208,1.09224,47,10
6.14919,0.951945,-0.985537,42,3
12.4671,1.92778,1.54896,36,11
6.92134,1.06901,-0.85991,54,4
13.7343,2.11882,2.20103,23,12
8.31155,1.28224,-0.735769,33,5
13.6581,2.10463,2.68621,29,13
9.50883,1.46355,-0.504205,49,6
20.8482,3.20513,4.86974,17,14
9.55256,1.46687,-0.168695,33,7
18.3047,2.80755,4.96208,19,15
0.545249,0.0827534,-0.127322,15,1
9.31465,1.41203,0.493737,24,9
0.689083,0.10446,-0.135474,25,2
12.3673,1.87258,1.09433,38,10
6.15638,0.931067,-0.986163,46,3
12.4345,1.87832,1.54408,43,11
6.91521,1.04336,-0.858692,40,4
8.35735,1.25946,-0.739429,31,5
14.0071,2.10837,2.75337,9,13
9.5593,1.43718,-0.506612,24,6
18.3193,2.75093,4.27677,31,14
9.68023,1.4519,-0.170859,100,7
17.0286,2.55102,4.61371,6,15
9.28294,1.37741,0.163808,27,8
0.533969,0.0791354,-0.124623,15,1
9.25828,1.37045,0.490493,118,9
0.699172,0.103369,-0.137382,24,2
12.626,1.8667,1.11664,52,10
6.17132,0.911301,-0.98804,46,3
12.4508,1.83635,1.5453,36,11
6.91489,1.01864,-0.858204,40,4
12.7931,1.88228,2.04804,39,12
8.42499,1.23809,-0.745007,31,5
14.0439,2.0613,2.7591,4,13
9.59415,1.40648,-0.508182,56,6
18.4272,2.70137,4.29971,78,14
9.4023,1.37668,-0.165868,26,7
16.9036,2.47199,4.57747,9,15
9.28396,1.3428,0.163738,13,8
0.553542,0.0799641,-0.129122,14,1
9.86418,1.42321,0.522313,51,9
0.691773,0.0996862,-0.135856,37,2
12.2975,1.7721,1.08701,90,10
6.17462,0.888678,-0.98804,41,3
12.483,1.79438,1.54847,76,11
6.93036,0.994979,-0.859666,39,4
12.7843,1.83313,2.04554,60,12
8.46103,1.21172,-0.747796,30,5
9.44304,1.34899,-0.499913,70,6
23.2386,3.31975,5.41952,30,14
9.36571,1.33627,-0.165135,69,7
16.7882,2.39231,4.54383,12,15
9.22744,1.30012,0.162656,30,8
0.557691,0.0784777,-0.130022,14,1
9.18105,1.29031,0.485887,102,9
0.697949,0.0980904,-0.137001,24,2
6.17588,0.865764,-0.987727,45,3
12.5485,1.75687,1.55578,36,11
6.95362,0.972321,-0.862104,38,4
12.7322,1.77807,2.03615,70,12
8.5244,1.19044,-0.753026,27,5
9.50506,1.32401,-0.502949,73,6
23.324,3.24477,5.43662,6,14
8.99224,1.24938,-0.158468,22,7
16.6399,2.30898,4.50138,16,15
9.21211,1.26518,0.162307,70,8
0.546378,0.0749417,-0.127322,15,1
9.14592,1.25284,0.483794,63,9
0.686617,0.0940549,-0.134711,25,2
9.35085,1.27925,0.825713,28,10
6.17886,0.8442,-0.987727,45,3
12.4542,1.69937,1.54335,43,11
6.95501,0.947773,-0.86186,43,4
12.7931,1.74107,2.04491,60,12
8.68644,1.18217,-0.766971,31,5
9.47004,1.28545,-0.500855,63,6
34.3577,4.65755,8.00466,11,14
9.3136,1.26091,-0.164053,27,7
16.2842,2.20171,4.40303,12,15
9.27395,1.2407,0.16332,71,8
0.554362,0.0740664,-0.129122,14,1
9.41552,1.2563,0.49782,129,9
0.696671,0.0929557,-0.136619,37,2
9.50535,1.2666,0.838961,42,10
6.18764,0.823412,-0.988666,46,3
12.6076,1.6755,1.56163,39,11
6.98582,0.927144,-0.865272,42,4
13.0596,1.73093,2.08652,30,12
8.75964,1.16101,-0.773071,34,5
14.3733,1.90249,2.81825,27,13
14.4531,1.90793,3.36572,9,14
9.24856,1.21924,-0.162831,100,7
9.21279,1.1998,0.162168,83,8
0.566212,0.0736387,-0.131821,14,1
9.54265,1.23937,0.504309,35,9
0.687257,0.0892588,-0.134711,25,2
9.93057,1.288,0.876089,16,10
6.21203,0.804598,-0.992108,45,3
12.6055,1.63046,1.56066,29,11
6.98114,0.901738,-0.864297,46,4
13.5553,1.7485,2.16474,24,12
8.82885,1.13884,-0.778824,36,5
14.2513,1.83574,2.79306,20,13
16.8004,2.15815,3.91055,21,14
9.60978,1.23274,-0.169114,29,7
16.3279,2.09165,4.41079,33,15
9.48474,1.20156,0.16688,77,8
0.550999,0.0697053,-0.128222,14,1
0.683668,0.0863677,-0.133948,26,2
12.2834,1.54957,1.08317,15,10
6.21284,0.78266,-0.991795,48,3
12.7805,1.60776,1.58162,36,11
7.04727,0.885279,-0.872097,33,4
13.4124,1.68249,2.14096,27,12
8.83475,1.10826,-0.778998,25,5
14.0589,1.76111,2.75414,28,13
16.7769,2.09562,3.90335,23,14
9.45925,1.17989,-0.166391,94,7
16.314,2.03202,4.4051,34,15
9.75085,1.20071,0.171487,92,8
0.547371,0.0673057,-0.127322,15,1
9.45988,1.16153,0.499494,49,9
0.693709,0.0851768,-0.135856,25,2
12.2808,1.50572,1.08247,27,10
6.22534,0.76217,-0.993359,52,3
12.26,1.49882,1.51654,42,11
7.1114,0.868136,-0.879653,38,4
14.9888,1.82712,2.39157,10,12
8.81285,1.07428,-0.776732,31,5
13.8623,1.68735,2.71445,45,13
8.24393,1.002,-0.435226,47,6
15.31,1.85814,3.56053,20,14
10.2058,1.23684,-0.179446,28,7
16.3056,1.9732,4.40096,19,15
9.71726,1.16216,0.170824,100,8
0.566953,0.0677053,-0.131821,14,1
9.47776,1.13016,0.500227,47,9
0.688154,0.0820576,-0.134711,25,2
12.0921,1.43976,1.06539,38,10
6.22208,0.739734,-0.99242,48,3
12.0128,1.42607,1.48534,21,11
7.13016,0.845175,-0.881603,39,4
15.8661,1.87788,2.53048,25,12
8.44277,0.997777,-0.743787,34,5
8.88012,1.04789,-0.468616,50,6
15.297,1.8024,3.55603,65,14
10.2577,1.20682,-0.180283,100,7
16.393,1.92574,4.4227,16,15
0.52847,0.0612398,-0.122823,15,1
9.75147,1.12828,0.514463,125,9
0.702102,0.0811118,-0.137382,24,2
11.0859,1.27876,0.976319,14,10
6.21297,0.715569,-0.990543,46,3
11.718,1.3496,1.4483,37,11
7.15871,0.823227,-0.884771,36,4
12.3813,1.42162,1.97389,28,12
9.17265,1.05158,-0.807759,21,5
15.2551,1.7408,3.54478,13,14
10.0413,1.14584,-0.176409,22,7
16.3958,1.86807,4.42166,15,15
0.548057,0.0614743,-0.127322,15,1
0.696527,0.0780052,-0.136238,25,2
10.3656,1.15902,0.912521,30,10
6.22917,0.69541,-0.992733,52,3
11.7386,1.3084,1.45025,74,11
7.19916,0.801157,-0.889403,33,4
9.28518,1.03165,-0.817347,35,5
15.3664,1.70461,3.00524,31,13
15.2049,1.68132,3.53173,18,14
9.61194,1.06287,-0.1688,100,7
16.3446,1.80447,4.40614,26,15
10.4406,1.1379,0.18332,16,8
0.552132,0.0600785,-0.128222,14,1
10.7718,1.17019,0.567845,9,9
0.692892,0.0751498,-0.135474,25,2
10.1596,1.1001,0.894044,10,10
6.2668,0.678579,-0.998365,52,3
11.6738,1.262,1.44171,70,11
7.25309,0.782815,-0.89574,37,4
9.29268,0.999664,-0.817695,34,5
14.068,1.51337,2.75032,10,13
7.35356,0.789764,-0.3876,100,6
15.2104,1.6309,3.53173,38,14
7.4662,0.799225,-0.131068,79,7
16.37,1.74945,4.41131,37,15
9.97516,1.05195,0.175083,46,8
0.579471,0.0610072,-0.134521,14,1
0.70096,0.0735503,-0.137001,24,2
10.1552,1.06557,0.893346,30,10
6.25734,0.655466,-0.996488,52,3
11.6327,1.21649,1.43611,54,11
7.30119,0.762235,-0.901346,45,4
14.8003,1.54253,2.35684,51,12
8.48759,0.883098,-0.746576,34,5
15.2257,1.5788,3.53398,49,14
7.4769,0.773984,-0.131207,100,7
15.6996,1.6224,4.2291,8,15
7.72294,0.785829,0.1355,82,8
0.529283,0.0537628,-0.122823,15,1
10.136,1.02779,0.533931,75,9
0.677786,0.0686079,-0.132421,26,2
11.1581,1.12947,0.981199,53,10
6.25184,0.631734,-0.995236,52,3
11.7339,1.18361,1.44805,74,11
7.33356,0.738451,-0.905002,45,4
8.43526,0.846412,-0.741695,23,5
15.2566,1.52551,3.53983,27,14
7.51551,0.750147,-0.131835,100,7
15.7093,1.56523,4.23014,15,15
7.72975,0.75791,0.13557,56,8
0.529476,0.0518224,-0.122823,15,1
10.1457,0.991221,0.534245,63,9
0.693653,0.0677689,-0.135474,25,2
10.8509,1.0582,0.953832,42,10
6.25804,0.609197,-0.995862,52,3
11.8113,1.1477,1.45707,16,11
7.35203,0.713102,-0.906952,46,4
11.569,1.12009,1.84092,15,12
8.56508,0.829252,-0.752851,33,5
13.935,1.3467,2.72132,11,13
7.40343,0.714175,-0.389798,31,6
15.2272,1.46621,3.53173,40,14
7.53612,0.72432,-0.13215,44,7
15.7534,1.51133,4.24049,13,15
7.57507,0.716054,0.132813,48,8
0.556815,0.0525367,-0.129122,14,1
10.161,0.956921,0.534873,47,9
0.686067,0.0646107,-0.133948,26,2
10.192,0.95804,0.895612,16,10
6.2621,0.587534,-0.996175,57,3
11.0938,1.0389,1.36811,26,11
7.36633,0.688541,-0.908414,43,4
8.52428,0.795279,-0.749016,30,5
15.3628,1.43057,2.99914,14,13
7.41582,0.68925,-0.390322,56,6
15.3816,1.42692,3.56637,13,14
10.2745,0.951326,-0.180109,99,7
15.7259,1.45331,4.23169,22,15
10.2262,0.930656,0.179236,26,8
0.529825,0.0481247,-0.122823,15,1
10.1225,0.917662,0.532675,58,9
0.690198,0.0625701,-0.134711,25,2
6.26608,0.565848,-0.996488,50,3
11.0815,0.99875,1.36616,29,11
7.38648,0.664425,-0.910608,48,4
11.7163,1.05183,1.86313,24,12
15.0724,1.35047,2.94151,35,13
7.45796,0.666919,-0.392415,100,6
16.2056,1.44632,3.75623,45,14
9.8495,0.877309,-0.172604,96,7
15.6712,1.39311,4.21564,31,15
7.85679,0.687378,0.137665,74,8
0.52999,0.046275,-0.122823,15,1
9.91079,0.863599,0.521371,65,9
0.682589,0.0594789,-0.133185,26,2
10.248,0.891178,0.89997,56,10
6.28769,0.545681,-0.999616,52,3
10.9702,0.950129,1.35202,18,11
7.40656,0.640174,-0.912801,45,4
11.5722,0.998199,1.83967,36,12
7.33266,0.632501,-0.643907,6,5
15.0633,1.29668,2.93884,16,13
7.48214,0.64276,-0.393566,90,6
16.2882,1.39639,3.77423,20,14
9.73495,0.832872,-0.170545,23,7
15.7645,1.34595,4.23946,15,15
7.85117,0.659285,0.137525,31,8
0.561219,0.0470282,-0.130022,14,1
9.87394,0.825668,0.519277,72,9
0.67888,0.0567685,-0.132421,26,2
11.1982,0.934437,0.983117,42,10
6.29153,0.523892,-0.999929,53,3
12.0081,0.997799,1.47949,38,11
7.40677,0.614157,-0.912558,47,4
11.5323,0.954212,1.83279,21,12
15.1284,1.2491,2.95067,32,13
7.52016,0.619596,-0.395451,83,6
16.326,1.34225,3.78188,10,14
9.8235,0.805914,-0.172046,23,7
15.7864,1.29234,4.24411,15,15
10.3988,0.836671,0.182098,55,8
0.5303,0.0425736,-0.122823,15,1
10.04,0.804276,0.527861,76,9
0.686902,0.0550257,-0.133948,26,2
10.8558,0.867717,0.952787,68,10
6.30907,0.503182,-1.00243,53,3
10.8915,0.866748,1.34154,53,11
7.28618,0.578555,-0.897446,50,4
11.5651,0.916288,1.83748,34,12
14.7628,1.16704,2.87854,24,13
7.45657,0.588157,-0.391996,84,6
15.3359,1.20696,3.55153,2,14
9.77442,0.76755,-0.171138,30,7
15.8852,1.24462,4.26948,5,15
10.7785,0.829359,0.188695,40,8
0.530445,0.0407226,-0.122823,15,1
7.6192,0.58359,0.400475,19,9
0.67926,0.0520277,-0.132421,26,2
10.8548,0.829512,0.952438,53,10
6.34624,0.483864,-1.00806,53,3
11.0667,0.841821,1.36274,55,11
7.47026,0.566937,-0.91987,32,4
11.6313,0.880693,1.84749,36,12
7.21173,0.546054,-0.632751,26,5
14.7041,1.11077,2.86633,55,13
7.4068,0.558221,-0.389275,77,6
15.3945,1.15752,3.56412,33,14
9.8927,0.7421,-0.173163,100,7
15.9473,1.19348,4.28501,23,15
7.89154,0.57952,0.138118,77,8
0.530584,0.0388707,-0.122823,15,1
7.60724,0.555973,0.399742,48,9
0.675521,0.0493702,-0.131658,26,2
6.36957,0.463283,-1.01151,52,3
11.0537,0.802033,1.36079,84,11
7.3336,0.530827,-0.902808,56,4
15.9551,1.15207,2.53361,30,12
7.42225,0.535942,-0.651053,40,5
15.0408,1.08341,2.93121,8,13
7.49835,0.538806,-0.393985,47,6
15.5578,1.1152,3.60102,26,14
9.89921,0.707846,-0.173233,100,7
15.9668,1.13891,4.28915,26,15
7.7479,0.541785,0.13557,59,8
0.530717,0.0370185,-0.122823,15,1
7.59311,0.529633,0.398905,39,9
0.675689,0.0470121,-0.131658,26,2
9.87245,0.685154,0.865805,44,10
6.40465,0.443366,-1.01682,48,3
11.0901,0.765776,1.36494,39,11
7.21262,0.496766,-0.887696,43,4
16.0475,1.10526,2.54769,13,12
7.41612,0.509485,-0.650356,56,5
7.48823,0.511809,-0.393357,94,6
15.4236,1.05147,3.56907,24,14
7.63511,0.52051,-0.133581,100,7
15.9955,1.08766,4.29588,10,15
7.60998,0.506789,0.133127,27,8
0.530836,0.0352582,-0.122823,15,1
7.67662,0.508536,0.403196,39,9
0.683685,0.0451707,-0.133185,26,2
9.98612,0.658027,0.875567,16,10
6.42382,0.423292,-1.01964,45,3
11.4531,0.752685,1.4093,61,11
7.38062,0.483752,-0.90817,22,4
22.9188,1.49816,3.63773,23,12
7.41587,0.483464,-0.650182,47,5
7.33841,0.477128,-0.385402,100,6
15.5923,1.01104,3.60732,16,14
7.0502,0.455917,-0.123319,53,7
16.0185,1.03306,4.30105,7,15
7.59175,0.478965,0.132778,56,8
0.562075,0.0353629,-0.130022,14,1
7.68433,0.482109,0.40351,128,9
0.664244,0.0415582,-0.129368,27,2
9.68201,0.605751,0.848723,4,10
6.46272,0.403205,-1.02558,42,3
11.4517,0.712452,1.40881,19,11
7.36245,0.456759,-0.905733,57,4
11.6621,0.721454,1.85062,27,12
7.39763,0.456346,-0.648439,41,5
7.47368,0.458419,-0.392415,100,6
15.6715,0.961257,3.62486,26,14
7.04775,0.431059,-0.123249,100,7
18.764,1.14438,5.03714,3,15
7.64735,0.454337,0.13372,48,8
0.550529,0.032611,-0.127322,15,1
9.95896,0.588183,0.522836,19,9
0.69575,0.0409697,-0.135474,25,2
6.51148,0.382292,-1.03309,48,3
12.34,0.722329,1.51776,45,11
7.23922,0.422483,-0.890377,61,4
7.09493,0.411577,-0.621769,50,5
14.2334,0.823186,2.77131,18,13
7.43543,0.428725,-0.390322,80,6
15.4785,0.892485,3.57942,9,14
7.01136,0.403046,-0.122586,100,7
18.5077,1.06067,4.96726,19,15
7.69488,0.428862,0.134523,61,8
0.570102,0.0316742,-0.131821,14,1
0.676286,0.0374553,-0.131658,26,2
9.62254,0.531243,0.843145,90,10
6.54242,0.36005,-1.03779,52,3
7.28235,0.398221,-0.895496,33,4
21.6003,1.17739,3.42623,9,12
7.20574,0.392771,-0.631356,26,5
14.2675,0.775204,2.77742,18,13
7.01009,0.379652,-0.367922,80,6
15.3337,0.827761,3.54523,33,14
7.12061,0.383149,-0.124471,94,7
18.1141,0.971509,4.86062,18,15
0.531287,0.0276576,-0.122823,15,1
10.1903,0.528701,0.534769,18,9
0.680334,0.0352976,-0.132421,26,2
9.6104,0.496937,0.841924,94,10
6.57718,0.338941,-1.04311,46,3
9.99963,0.513559,1.22942,54,11
7.57512,0.38772,-0.931326,35,4
11.5646,0.589887,1.83404,14,12
7.3563,0.375229,-0.64443,45,5
15.0348,0.764264,2.92625,20,13
7.03531,0.356394,-0.369178,63,6
15.3618,0.775511,3.55108,18,14
7.49538,0.377077,-0.130998,100,7
18.071,0.905955,4.8482,33,15
9.95467,0.485125,0.173966,1,8
0.585881,0.0284492,-0.135421,13,1
9.70132,0.469385,0.50902,30,9
0.690258,0.0333972,-0.13433,25,2
9.66382,0.46588,0.846457,94,10
6.675,0.320622,-1.05844,50,3
9.97558,0.477419,1.22625,51,11
7.18779,0.342742,-0.883553,45,4
11.5508,0.548762,1.83153,35,12
7.13666,0.339052,-0.625081,36,5
15.0021,0.71011,2.91938,21,13
7.05048,0.332494,-0.369911,70,6
19.0766,0.89629,4.40904,3,14
7.01525,0.328379,-0.122586,84,7
18.1744,0.847554,4.87512,15,15
7.96864,0.36046,0.139235,41,8
0.531467,0.0239481,-0.122823,15,1
9.65901,0.433545,0.506717,112,9
0.676642,0.0303711,-0.131658,26,2
9.61563,0.429916,0.842099,100,10
6.72542,0.299522,-1.06626,57,3
9.94347,0.441097,1.22211,60,11
7.42097,0.3279,-0.91207,57,4
14.9293,0.657055,2.36685,42,12
7.4722,0.32886,-0.654365,41,5
14.6573,0.642516,2.85183,36,13
7.01568,0.306312,-0.368026,45,6
14.6018,0.634981,3.37427,15,14
7.00037,0.303195,-0.122306,100,7
15.5196,0.66946,4.16233,13,15
9.97579,0.416367,0.17428,67,8
0.531547,0.0220927,-0.122823,15,1
9.58663,0.396768,0.502844,129,9
0.686551,0.0284147,-0.133566,26,2
9.78628,0.403325,0.856915,100,10
6.77576,0.278067,-1.07408,50,3
9.92115,0.40541,1.21918,20,11
7.34274,0.298767,-0.902321,97,4
14.7755,0.598617,2.34214,56,12
7.13094,0.287653,-0.624384,22,5
14.4594,0.583274,2.81291,24,13
7.0666,0.283826,-0.370643,31,6
19.0006,0.759827,4.39014,32,14
7.02137,0.279551,-0.122656,65,7
15.5373,0.615898,4.16647,55,15
0.554989,0.0211267,-0.128222,14,1
9.68974,0.367165,0.508182,38,9
0.678803,0.0256024,-0.13204,26,2
9.78371,0.367301,0.856567,94,10
6.74515,0.252052,-1.06907,63,3
11.5392,0.431196,1.41783,50,11
7.39531,0.275051,-0.908658,102,4
14.5979,0.540383,2.31367,33,12
7.04031,0.25939,-0.616365,61,5
14.7145,0.539557,2.86214,19,13
15.4881,0.562518,3.57807,18,14
7.6398,0.277472,-0.133441,100,7
15.5046,0.560399,4.15715,10,15
10.0485,0.34739,0.175501,32,8
0.531692,0.0182884,-0.122823,15,1
9.67904,0.331236,0.507554,72,9
0.682813,0.0233672,-0.132803,26,2
9.86458,0.335862,0.863539,62,10
6.68282,0.226364,-1.05906,51,3
11.257,0.379337,1.38297,26,11
7.42206,0.24881,-0.911826,41,4
13.2751,0.442701,2.10373,8,12
7.33987,0.244772,-0.642512,33,5
12.242,0.406106,2.38091,40,13
7.63137,0.251827,-0.400161,43,6
19.8392,0.651205,4.5827,24,14
7.65675,0.249985,-0.13372,82,7
18.507,0.601012,4.96156,8,15
7.62716,0.237027,0.133197,30,8
0.562917,0.0173956,-0.130022,14,1
9.55038,0.293462,0.50075,129,9
0.694664,0.0213455,-0.135093,25,2
10.726,0.327708,0.938842,25,10
6.65,0.202017,-1.05374,81,3
11.5023,0.347414,1.41295,70,11
7.48043,0.224627,-0.918895,47,4
13.32,0.397659,2.11061,21,12
6.94636,0.207379,-0.607998,28,5
12.1982,0.36204,2.37214,61,13
7.57031,0.223359,-0.396916,68,6
22.9521,0.673195,5.3012,28,14
7.60361,0.221689,-0.132778,95,7
15.6878,0.454641,4.20529,13,15
9.77879,0.269731,0.170754,35,8
0.531806,0.0145761,-0.122823,15,1
9.79692,0.266809,0.513625,82,9
0.69866,0.0190273,-0.135856,25,2
10.2969,0.278627,0.90119,10,10
6.57168,0.176677,-1.04123,60,3
11.3348,0.302753,1.39224,39,11
7.37004,0.195567,-0.905246,47,4
13.2522,0.349336,2.09966,40,12
6.96497,0.183602,-0.609567,13,5
15.002,0.392843,2.91709,16,13
7.59101,0.197453,-0.397963,87,6
15.501,0.400495,3.57987,9,14
7.66431,0.196683,-0.133825,82,7
15.6912,0.39993,4.20581,15,15
7.57665,0.182525,0.132289,77,8
0.563025,0.013465,-0.130022,14,1
7.71524,0.183169,0.404452,24,9
0.706573,0.0167749,-0.137382,24,2
9.94922,0.23447,0.870686,26,10
6.81121,0.159325,-1.07909,41,3
11.2842,0.261989,1.3859,35,11
7.30122,0.16824,-0.896715,28,4
7.57309,0.173179,-0.662732,25,5
12.2731,0.278519,2.38626,21,13
7.58367,0.170776,-0.397544,87,6
15.5412,0.347251,3.58887,67,14
9.89206,0.219304,-0.172709,100,7
15.7099,0.34554,4.21047,23,15
7.54125,0.155337,0.131661,48,8
0.563069,0.0114997,-0.130022,14,1
0.69485,0.0140697,-0.135093,25,2
10.2229,0.205214,0.894567,36,10
6.95788,0.138458,-1.10224,32,3
11.1719,0.220364,1.37201,52,11
7.38313,0.144342,-0.906708,62,4
7.67128,0.147297,-0.671273,32,5
12.2249,0.234731,2.37672,60,13
9.99048,0.190084,-0.523674,35,6
15.593,0.293958,3.60057,21,14
9.88077,0.184546,-0.1725,100,7
16.105,0.297987,4.31607,15,15
7.52575,0.128736,0.131382,52,8
0.563105,0.00953424,-0.130022,14,1
7.7343,0.129603,0.405394,135,9
0.702748,0.0116533,-0.136619,25,2
10.367,0.1701,0.907117,52,10
7.07289,0.114816,-1.12038,56,3
11.1031,0.18024,1.36347,74,11
7.54833,0.121216,-0.926938,52,4
12.4216,0.197306,1.96763,60,12
7.67573,0.120579,-0.671622,45,5
12.2139,0.189743,2.37443,42,13
7.43492,0.1142,-0.389694,14,6
15.6778,0.238073,3.61991,26,14
7.63596,0.115955,-0.133301,59,7
9.95758,0.133833,0.173826,63,8
0.531959,0.00705658,-0.122823,15,1
7.7487,0.101436,0.406127,127,9
0.700822,0.00917425,-0.136238,25,2
10.6943,0.138134,0.935704,44,10
7.09893,0.0904517,-1.12445,51,3
10.7623,0.135251,1.32155,68,11
7.65194,0.0948304,-0.939613,55,4
11.7506,0.143569,1.86126,31,12
7.90123,0.0965368,-0.691319,21,5
15.0885,0.181717,2.93312,24,13
7.45924,0.0885362,-0.39095,7,6
7.70232,0.0887289,-0.134453,52,7
15.535,0.176247,4.16285,13,15
7.48849,0.0745021,0.130719,45,8
0.54757,0.00535214,-0.126422,15,1
10.2075,0.0979902,0.534978,69,9
0.708702,0.0068034,-0.137764,24,2
10.6568,0.100443,0.932392,48,10
7.09327,0.0656146,-1.12351,63,3
10.6178,0.0963694,1.30376,72,11
7.71972,0.0687183,-0.9479,58,4
11.7748,0.102754,1.86501,52,12
7.97722,0.0696144,-0.697943,18,5
12.4701,0.106652,2.42404,59,13
7.43753,0.062312,-0.389798,24,6
15.8817,0.130278,3.6667,7,14
7.64059,0.0613462,-0.133371,100,7
15.5374,0.122038,4.16336,15,15
7.63668,0.0493155,0.133301,82,8
0.531996,0.00334288,-0.122823,15,1
10.2497,0.0626122,0.537176,36,9
0.730317,0.00446126,-0.141962,23,2
10.7488,0.0637845,0.94041,25,10
7.12704,0.0410523,-1.12883,57,3
10.5566,0.0589592,1.2962,48,11
6.42565,0.0347663,-0.788982,9,4
11.7691,0.061629,1.86407,56,12
8.00531,0.0419198,-0.700384,15,5
12.4822,0.0631787,2.42633,52,13
7.03027,0.0343567,-0.368445,17,6
15.4124,0.0726375,3.55828,22,14
7.63276,0.0346368,-0.133232,81,7
15.4334,0.067342,4.13541,6,15
7.6888,0.0228141,0.134209,78,8
0.532004,0.00148571,-0.122823,15,1
11.0049,0.0288071,0.576742,41,9
0.720512,0.00188606,-0.140054,23,2
11.259,0.0275126,0.985034,19,10
7.15677,0.0162394,-1.13352,43,3
10.6599,0.0223229,1.30888,69,11
6.43169,0.0123492,-0.789713,30,4
11.7792,0.0205608,1.86564,31,12
12.4352,0.0195299,2.41717,48,13
7.08227,0.00989027,-0.371167,87,6
15.4554,0.0188859,3.56817,18,14
7.49685,0.00784891,-0.130858,58,7
15.4374,0.0134755,4.13645,3,15
0.570981,-0.000498275,-0.131821,14,1
11.1667,-0.0116937,0.585221,18,9
0.694992,-0.000727794,-0.135093,25,2
11.2988,-0.0138041,0.98852,48,10
7.23185,-0.0100976,-1.14541,60,3
10.517,-0.0165201,1.29133,36,11
6.46742,-0.0112878,-0.794101,31,4
12.1604,-0.0233463,1.92602,79,12
6.60476,-0.0126802,-0.577843,13,5
12.4392,-0.0260525,2.41793,50,13
6.65485,-0.0150994,-0.348767,54,6
15.358,-0.0375267,3.54568,29,14
7.44684,-0.0194958,-0.129986,7,7
15.391,-0.0402937,4.12402,4,15
11.7841,-0.0493614,0.205694,26,8
0.563181,-0.00245735,-0.130022,14,1
10.9688,-0.0497753,0.574858,32,9
0.710691,-0.00322503,-0.138146,24,2
11.4999,-0.0541926,1.00613,100,10
6.89991,-0.0337196,-1.09285,20,3
10.8563,-0.0549493,1.33301,93,11
6.62615,-0.0346947,-0.8136,20,4
12.1464,-0.0635991,1.92383,50,12
6.62858,-0.0358644,-0.579934,35,5
12.3212,-0.0688152,2.39503,48,13
6.65476,-0.0383291,-0.348767,16,6
16.5832,-0.101302,-0.289466,39,7
15.2362,-0.0957332,4.08261,9,15
14.8813,-0.114282,0.259762,7,8
0.53199,-0.00417832,-0.122823,15,1
13.4092,-0.107658,0.702767,8,9
0.722454,-0.00580036,-0.140435,23,2
6.53629,-0.0547596,-1.03528,41,3
10.8005,-0.0923693,1.32618,34,11
6.62202,-0.0577895,-0.813112,9,4
11.7728,-0.104794,1.8647,87,12
6.61049,-0.0588427,-0.578366,18,5
12.2698,-0.111361,2.38511,46,13
6.6426,-0.0614474,-0.348139,13,6
15.5892,-0.146929,3.59922,30,14
21.5377,-0.206754,-0.37596,85,7
15.2261,-0.148823,4.08002,4,15
10.9257,-0.122046,0.19072,28,8
0.531972,-0.00603529,-0.122823,15,1
11.096,-0.127823,0.581557,28,9
0.704762,-0.00811863,-0.137001,24,2
11.7782,-0.137737,1.03053,46,10
6.54989,-0.0777393,-1.03747,66,3
10.818,-0.130285,1.32838,53,11
6.59994,-0.0806375,-0.810431,40,4
11.7684,-0.145839,1.86407,71,12
6.6202,-0.0820407,-0.579237,31,5
12.3027,-0.154609,2.3916,50,13
10.6725,-0.135984,-0.559367,16,6
15.7075,-0.20288,3.62666,35,14
21.2709,-0.278452,-0.371317,30,7
16.2628,-0.215731,4.358,26,15
15.418,-0.226056,0.269151,61,8
0.531948,-0.00789218,-0.122823,15,1
11.1295,-0.165122,0.583337,41,9
0.720433,-0.0108144,-0.140054,23,2
11.6621,-0.177095,1.02042,34,10
6.72536,-0.103302,-1.06532,40,3
10.9167,-0.169587,1.34056,37,11
6.58175,-0.103394,-0.808238,47,4
11.7599,-0.18474,1.86282,54,12
6.65175,-0.105655,-0.582026,47,5
12.2177,-0.196197,2.37519,62,13
6.58609,-0.106912,-0.345208,3,6
15.6326,-0.256494,3.60956,26,14
6.6141,-0.108521,-0.115465,90,7
18.0983,-0.325387,0.315958,20,8
0.551403,-0.0100098,-0.127322,15,1
10.8593,-0.199029,0.569206,112,9
0.702725,-0.0130022,-0.136619,25,2
10.7829,-0.201395,0.943548,53,10
6.61438,-0.123538,-1.0478,63,3
11.0788,-0.208856,1.36055,81,11
6.59328,-0.125446,-0.8097,46,4
11.9765,-0.22996,1.89724,47,12
6.54377,-0.126789,-0.572613,52,5
12.056,-0.233593,2.3439,36,13
6.60567,-0.129142,-0.346255,30,6
15.5849,-0.30741,3.59877,35,14
6.59969,-0.13133,-0.115221,47,7
16.3267,-0.327741,4.37559,7,15
15.786,-0.338938,0.275608,16,8
0.531882,-0.0115128,-0.122823,15,1
11.1361,-0.24299,0.583755,30,9
0.708564,-0.0155846,-0.137764,24,2
10.6946,-0.235223,0.935878,51,10
6.63366,-0.147064,-1.05093,22,3
11.0264,-0.246374,1.35421,37,11
6.61662,-0.148997,-0.812625,49,4
11.1639,-0.253345,1.76865,26,12
6.49548,-0.148537,-0.56843,52,5
12.6871,-0.292342,2.46678,45,13
6.64708,-0.154326,-0.348453,13,6
15.6442,-0.363211,3.61271,38,14
6.60119,-0.154413,-0.115256,11,7
16.3505,-0.385321,4.38232,1,15
15.7866,-0.396844,0.275643,22,8
0.551317,-0.0139553,-0.127322,15,1
10.4882,-0.267316,0.549842,53,9
0.708502,-0.0181815,-0.137764,24,2
10.7733,-0.276464,0.942851,31,10
6.6706,-0.172346,-1.05687,40,3
10.8171,-0.281366,1.32862,37,11
6.58229,-0.172363,-0.808481,43,4
11.2498,-0.296552,1.78241,37,12
6.55664,-0.173982,-0.573833,46,5
12.9862,-0.346861,2.52517,29,13
6.62252,-0.178043,-0.347197,37,6
15.7596,-0.42369,3.63971,16,14
11.8159,-0.319728,-0.206322,38,7
17.2161,-0.46886,4.61474,33,15
10.3681,-0.298663,0.181051,38,8
0.531783,-0.0154114,-0.122823,15,1
10.9882,-0.320365,0.576114,26,9
0.716284,-0.0208834,-0.139291,24,2
10.7901,-0.316474,0.94442,68,10
6.85158,-0.202153,-1.08566,48,3
10.8438,-0.321835,1.33203,90,11
6.56971,-0.196132,-0.807019,57,4
11.2309,-0.337249,1.7796,38,12
6.62171,-0.198841,-0.579586,7,5
12.6729,-0.382765,2.46449,7,13
6.57993,-0.199886,-0.344999,37,6
16.1008,-0.491923,3.71889,75,14
10.2856,-0.31605,-0.17962,27,7
17.2335,-0.532554,4.61992,16,15
10.8367,-0.350023,0.189254,52,8
0.555098,-0.0180266,-0.128222,14,1
11.554,-0.377229,0.605841,118,9
0.712282,-0.0232555,-0.138527,24,2
10.8069,-0.354725,0.945988,74,10
6.82714,-0.225287,-1.0819,37,3
10.9239,-0.362383,1.34203,40,11
6.55907,-0.218733,-0.8058,47,4
11.9423,-0.400342,1.89254,79,12
6.56721,-0.220152,-0.574879,23,5
19.2761,-0.649557,3.74902,17,13
6.61712,-0.224137,-0.346987,27,6
16.6287,-0.566159,3.84126,21,14
11.8313,-0.404887,-0.206636,19,7
15.8975,-0.546818,4.26223,5,15
10.7755,-0.385702,0.188207,52,8
0.504398,-0.0181428,-0.116525,16,1
11.2114,-0.403264,0.587942,42,9
0.708272,-0.0255998,-0.137764,24,2
7.56263,-0.275988,-1.1986,63,3
10.7044,-0.392511,1.31521,34,11
6.59397,-0.242942,-0.810187,35,4
11.9962,-0.441978,1.9013,53,12
6.55446,-0.242632,-0.573833,27,5
15.8816,-0.590677,3.0892,12,13
6.58237,-0.245966,-0.345208,50,6
13.0528,-0.490031,-0.227998,74,7
15.9149,-0.600261,4.26741,15,15
10.8321,-0.4237,0.189219,61,8
0.554963,-0.0218046,-0.128222,14,1
11.0662,-0.436726,0.580406,27,9
0.708179,-0.028072,-0.137764,24,2
10.1989,-0.406066,0.892998,12,10
7.52418,-0.299571,-1.19266,57,3
10.6871,-0.427371,1.31326,66,11
7.61265,-0.305755,-0.935469,32,4
12.0045,-0.484248,1.90287,82,12
6.54163,-0.265026,-0.572788,36,5
15.854,-0.642306,3.08424,25,13
6.69327,-0.27234,-0.35107,16,6
16.5388,-0.675832,3.82147,22,14
8.40165,-0.344789,-0.146775,100,7
15.8992,-0.655254,4.26379,6,15
12.3349,-0.525613,0.215502,18,8
0.550989,-0.023575,-0.127322,15,1
0.729658,-0.0313472,-0.141962,23,2
10.2533,-0.442288,0.897878,30,10
7.51322,-0.325407,-1.19109,70,3
10.7233,-0.466312,1.3179,62,11
7.65913,-0.334405,-0.941319,50,4
12.204,-0.534973,1.93478,42,12
6.58649,-0.288724,-0.576797,23,5
15.8085,-0.695744,3.07584,22,13
10.1442,-0.448226,-0.532152,38,6
16.5149,-0.732609,3.81652,25,14
8.33846,-0.371356,-0.145693,23,7
15.9103,-0.711352,4.26741,23,15
8.53763,-0.393664,0.149183,43,8
0.531437,-0.0245972,-0.122823,15,1
11.0948,-0.515454,0.582081,41,9
0.713855,-0.0331651,-0.138909,24,2
10.2477,-0.477891,0.89753,22,10
7.48244,-0.350245,-1.1864,51,3
13.5393,-0.636128,1.66425,22,11
6.83303,-0.322238,-0.839924,28,4
12.8138,-0.606523,2.03177,54,12
15.8413,-0.752599,3.08271,8,13
23.8448,-1.14118,5.5113,31,14
8.36109,-0.401612,-0.146112,100,7
15.8518,-0.764187,4.2524,27,15
12.1951,-0.604977,0.213129,11,8
0.531348,-0.0264521,-0.122823,15,1
10.2451,-0.511826,0.537595,60,9
0.707852,-0.0353628,-0.137764,24,2
7.45947,-0.37527,-1.18296,63,3
13.7134,-0.692292,1.68594,37,11
6.83385,-0.346188,-0.840167,30,4
12.7484,-0.648038,2.02176,54,12
9.94105,-0.507071,-0.87086,8,5
24.1853,-1.23364,4.70726,20,13
8.34561,-0.427151,-0.437947,36,6
15.5636,-0.79931,3.59787,9,14
12.2479,-0.631167,-0.214071,100,7
16.3911,-0.847548,4.39785,16,15
0.531253,-0.0283067,-0.122823,15,1
0.707718,-0.037957,-0.137764,24,2
10.6658,-0.573904,0.934484,61,10
7.52905,-0.406441,-1.19422,40,3
6.83855,-0.370362,-0.840899,29,4
11.9176,-0.647523,1.89035,54,12
10.9857,-0.598808,-0.962548,6,5
22.5339,-1.23223,4.3867,12,13
15.8025,-0.866899,-0.82942,19,6
15.5041,-0.853242,3.58482,11,14
12.2416,-0.673697,-0.214001,100,7
16.6813,-0.920945,4.47653,12,15
0.531145,-0.0302536,-0.122823,15,1
0.709541,-0.0405391,-0.138146,24,2
10.6259,-0.608965,0.931172,68,10
7.63803,-0.439068,-1.21174,63,3
13.8488,-0.798518,1.70325,18,11
6.89858,-0.398978,-0.848454,23,4
12.3806,-0.718197,1.96419,44,12
8.21476,-0.476537,-0.719906,1,5
23.335,-1.35775,4.54354,5,13
8.48789,-0.495354,-0.445588,29,6
15.4135,-0.902232,3.56457,18,14
10.123,-0.594327,-0.177002,21,7
16.3866,-0.964931,4.39837,8,15
12.0603,-0.727074,0.210895,43,8
0.531036,-0.0321075,-0.122823,15,1
10.4265,-0.632233,0.547434,35,9
0.728992,-0.0442039,-0.141962,23,2
10.6874,-0.649922,0.93675,51,10
7.71926,-0.470778,-1.22488,56,3
10.8323,-0.662529,1.33252,12,11
12.1,-0.744308,1.92008,91,12
8.18322,-0.503374,-0.717292,10,5
14.7592,-0.910467,2.87435,15,13
8.44425,-0.52239,-0.44339,21,6
15.383,-0.95434,3.55828,18,14
16.6723,-1.04017,4.47602,8,15
11.9718,-0.763694,0.209394,56,8
0.530921,-0.0339609,-0.122823,15,1
10.4543,-0.668718,0.549004,47,9
0.699444,-0.0448633,-0.136238,25,2
10.7586,-0.691956,0.943199,17,10
7.75699,-0.500263,-1.23114,50,3
10.8537,-0.701874,1.33544,71,11
6.87384,-0.445716,-0.845773,3,4
12.8702,-0.834535,2.04272,23,12
8.1655,-0.530902,-0.715897,15,5
14.7539,-0.961853,2.87397,11,13
16.6124,-1.08884,3.84351,28,14
10.023,-0.65694,-0.175327,100,7
16.6495,-1.09418,4.47084,4,15
11.8994,-0.798702,0.208172,51,8
0.515251,-0.0346746,-0.119224,16,1
0.709078,-0.0479671,-0.138146,24,2
7.76909,-0.526919,-1.23333,66,3
10.8572,-0.738266,1.33618,37,11
6.91391,-0.471343,-0.850892,19,4
13.017,-0.889692,2.0665,46,12
8.07813,-0.553544,-0.708402,33,5
14.6802,-1.00594,2.86023,25,13
10.1162,-0.694978,-0.531419,42,6
15.1429,-1.04296,3.50429,24,14
10.1662,-0.701978,-0.177875,79,7
17.0464,-1.18004,4.57851,6,15
10.5701,-0.746546,0.184961,52,8
0.546229,-0.0386751,-0.126422,15,1
0.716748,-0.0508742,-0.139672,23,2
7.41056,-0.528596,-1.1767,47,3
10.8783,-0.777859,1.3391,34,11
6.8647,-0.492068,-0.845042,34,4
13.0808,-0.939938,2.07714,23,12
8.22122,-0.592189,-0.721127,10,5
10.1058,-0.729711,-0.531001,73,6
16.1168,-1.16658,3.73059,32,14
10.3113,-0.74817,-0.180458,100,7
17.2503,-1.25468,4.63441,2,15
10.2463,-0.759634,0.179341,61,8
0.514996,-0.0382708,-0.119224,16,1
9.9587,-0.741807,0.52336,26,9
0.710683,-0.0530623,-0.138527,24,2
9.84277,-0.736627,0.863539,4,10
7.31796,-0.548956,-1.16231,32,3
10.927,-0.819688,1.34544,34,11
6.86492,-0.516176,-0.845286,45,4
12.9514,-0.976092,2.05711,37,12
10.0946,-0.762558,-0.885677,19,5
14.653,-1.10948,2.85641,10,13
10.115,-0.767652,-0.531629,63,6
15.4459,-1.17494,3.57627,11,14
10.2568,-0.780215,-0.17955,36,7
18.286,-1.39419,4.91394,19,15
10.1159,-0.787254,0.177107,40,8
0.530395,-0.0413704,-0.122823,15,1
9.97782,-0.780015,0.524511,30,9
0.72028,-0.0563078,-0.140435,23,2
9.83617,-0.770669,0.86319,2,10
6.85912,-0.53862,-1.08972,25,3
10.8665,-0.855215,1.33837,34,11
6.85507,-0.540709,-0.844311,43,4
12.9694,-1.02527,2.06055,54,12
8.08369,-0.640459,-0.709448,37,5
10.6937,-0.847247,2.08516,9,13
10.0684,-0.799477,-0.529326,77,6
15.3951,-1.22514,3.56547,18,14
10.0605,-0.802381,-0.176165,44,7
18.2769,-1.46089,4.9129,14,15
10.0632,-0.818508,0.176234,16,8
0.530247,-0.0432216,-0.122823,15,1
9.94319,-0.812238,0.522836,8,9
0.704415,-0.0576659,-0.137382,37,2
9.87299,-0.809973,0.866677,90,10
6.85316,-0.563433,-1.0891,37,3
10.909,-0.896883,1.34398,75,11
6.81555,-0.561538,-0.83968,39,4
13.0149,-1.0746,2.06838,36,12
8.10921,-0.670973,-0.711888,41,5
10.167,-0.844809,-0.534664,73,6
23.3644,-1.94554,5.41277,48,14
12.5566,-1.04558,-0.219935,46,7
16.5294,-1.3793,4.44444,12,15
10.0462,-0.8542,0.17599,13,8
0.530085,-0.0451648,-0.122823,15,1
9.89836,-0.845108,0.520638,15,9
0.710078,-0.0606255,-0.138527,24,2
6.86297,-0.588364,-1.09097,27,3
10.9135,-0.937539,1.34495,37,11
6.82729,-0.587706,-0.841386,16,4
10.8421,-0.935214,1.7236,17,12
8.07692,-0.698117,-0.709273,12,5
10.4996,-0.907518,2.04853,44,13
10.1998,-0.883396,-0.536548,84,6
15.2792,-1.326,3.54073,13,14
10.182,-0.885439,-0.178398,100,7
16.7937,-1.46335,4.51691,26,15
0.553218,-0.0490814,-0.128222,14,1
0.700073,-0.0623567,-0.136619,25,2
10.1071,-0.902032,0.887768,28,10
7.4038,-0.662074,-1.17733,35,3
10.9656,-0.98058,1.35177,15,11
6.79752,-0.609054,-0.837974,41,4
8.15778,-0.733803,-0.716594,15,5
10.2185,-0.92097,1.99434,72,13
10.1388,-0.915564,-0.533513,77,6
23.2199,-2.10092,5.38263,35,14
10.2545,-0.927823,-0.179725,100,7
16.9078,-1.53278,4.549,9,15
10.1495,-0.934397,0.17791,22,8
0.549162,-0.0506542,-0.127322,15,1
9.98171,-0.922461,0.525348,19,9
0.709637,-0.0655812,-0.138527,24,2
9.79255,-0.906703,0.860402,8,10
7.21274,-0.669105,-1.14729,88,3
11.98,-1.11346,1.4773,38,11
6.86255,-0.639036,-0.846261,20,4
10.6465,-0.993267,1.69356,49,12
8.13744,-0.759186,-0.715026,13,5
10.1822,-0.951745,1.98785,60,13
10.1436,-0.949926,-0.533931,63,6
23.0711,-2.16462,5.34979,34,14
10.305,-0.968665,-0.180667,100,7
16.8831,-1.58998,4.54383,30,15
9.94316,-0.950412,0.17435,48,8
0.529583,-0.0507132,-0.122823,15,1
0.715267,-0.0686204,-0.139672,35,2
7.18676,-0.692007,-1.14354,33,3
10.2807,-0.991731,1.26817,18,11
6.965,-0.673107,-0.859179,43,4
10.1337,-0.981121,1.61253,56,12
8.1982,-0.79373,-0.720604,38,5
10.171,-0.986524,1.98632,69,13
10.184,-0.989577,-0.536234,70,6
15.3789,-1.49707,3.56727,11,14
10.2896,-1.00347,-0.180458,100,7
16.912,-1.65228,4.55314,6,15
10.2124,-1.01213,0.179132,13,8
0.510011,-0.0506362,-0.118324,16,1
10.0168,-0.996275,0.527547,60,9
0.71893,-0.0715054,-0.140435,35,2
9.8177,-0.978206,0.86319,62,10
7.23934,-0.722582,-1.1523,63,3
10.2061,-1.0205,1.2594,46,11
6.82435,-0.683566,-0.842117,19,4
10.1577,-1.01925,1.61691,56,12
8.14781,-0.817568,-0.71642,52,5
10.1362,-1.01888,1.98022,60,13
10.0314,-1.01011,-0.528384,63,6
15.3542,-1.54879,3.56277,22,14
10.3099,-1.04179,-0.180877,100,7
31.3867,-3.17708,8.45303,6,15
10.3182,-1.059,0.181051,13,8
0.540848,-0.055605,-0.125523,15,1
10.2695,-1.05763,0.541049,60,9
0.718676,-0.0740144,-0.140435,23,2
9.80432,-1.01145,0.862319,66,10
7.08548,-0.732213,-1.12821,32,3
10.0998,-1.04549,1.24672,86,11
6.77255,-0.702265,-0.836024,24,4
10.1934,-1.05878,1.62316,54,12
8.09734,-0.841064,-0.712237,16,5
10.4704,-1.0894,2.04624,34,13
9.99408,-1.0416,-0.526604,100,6
15.3176,-1.59914,3.55558,18,14
12.6471,-1.32257,-0.22196,28,7
23.4154,-2.45279,6.30846,6,15
0.509645,-0.0541955,-0.118324,16,1
10.4107,-1.10891,0.54869,45,9
0.698892,-0.0744432,-0.136619,25,2
9.77497,-1.04292,0.860053,22,10
10.0665,-1.07757,1.24307,69,11
6.96744,-0.747064,-0.860398,45,4
9.99521,-1.07347,1.59219,58,12
10.7548,-1.15506,-0.946337,48,5
10.529,-1.13267,2.05845,39,13
9.86329,-1.06279,-0.519905,42,6
15.3081,-1.65218,3.55468,11,14
10.1593,-1.09827,-0.178364,26,7
23.3106,-2.52411,6.28257,13,15
0.513327,-0.0563998,-0.119224,16,1
10.2936,-1.13279,0.542724,41,9
0.690822,-0.0760233,-0.135093,25,2
9.80692,-1.08096,0.86319,100,10
6.88581,-0.760201,-1.09723,31,3
10.1159,-1.11859,1.24965,57,11
6.81089,-0.754336,-0.841386,14,4
9.86968,-1.09485,1.57279,61,12
10.2596,-1.13811,-0.903108,37,5
9.99819,-1.11088,1.95541,34,13
9.94885,-1.10715,-0.524616,77,6
22.2861,-2.48404,5.17702,42,14
10.1355,-1.1315,-0.178015,100,7
23.0674,-2.57928,6.21942,18,15
10.1079,-1.1445,0.177561,27,8
0.509254,-0.0577521,-0.118324,16,1
10.1785,-1.15609,0.536862,21,9
0.706158,-0.0802068,-0.138146,36,2
9.96542,-1.13365,0.877484,76,10
6.87919,-0.783785,-1.09661,62,3
10.0212,-1.14355,1.23844,28,11
6.95022,-0.794335,-0.858935,37,4
10.0228,-1.14727,1.59782,61,12
10.3862,-1.18887,-0.914612,20,5
10.1366,-1.16209,1.98327,23,13
9.86952,-1.13322,-0.520638,73,6
16.7695,-1.92843,3.89705,21,14
14.8078,-1.70547,-0.26018,25,7
22.9662,-2.64915,6.19458,18,15
15.3494,-1.79227,0.269744,13,8
0.50905,-0.0595294,-0.118324,16,1
0.701974,-0.0822145,-0.137382,24,2
9.61312,-1.12758,0.846805,80,10
7.01767,-0.824386,-1.11913,47,3
10.0329,-1.18037,1.24039,77,11
6.84489,-0.806512,-0.846261,34,4
10.0227,-1.18271,1.59845,71,12
10.4453,-1.23259,-0.92019,24,5
10.0311,-1.18549,1.96342,52,13
9.91311,-1.17329,-0.52315,70,6
16.7859,-1.98971,3.90245,31,14
14.6906,-1.74395,-0.258226,100,7
17.0119,-2.02252,4.59041,5,15
13.0837,-1.57403,0.230023,25,8
0.551403,-0.0664342,-0.128222,14,1
9.81326,-1.18406,0.518021,117,9
0.691937,-0.0834885,-0.135474,25,2
9.55177,-1.1542,0.84175,82,10
6.88139,-0.83274,-1.09786,60,3
10.013,-1.21348,1.23844,69,11
6.7573,-0.820116,-0.83578,13,4
9.95768,-1.2103,1.58875,37,12
15.8579,-1.93025,-1.39763,13,5
9.98406,-1.21528,1.95503,42,13
10.0894,-1.22988,-0.532675,70,6
10.434,-1.27375,2.42677,71,14
9.55738,-1.16842,-0.168067,43,7
16.9529,-2.07555,4.57644,15,15
11.7782,-1.4587,0.20716,52,8
0.551168,-0.0683586,-0.128222,14,1
9.75555,-1.21166,0.515195,60,9
0.70916,-0.0882049,-0.138909,24,2
9.5277,-1.18674,0.840007,84,10
6.85477,-0.855022,-1.0941,37,3
9.96142,-1.24253,1.23259,77,11
6.79379,-0.848619,-0.840655,31,4
9.95732,-1.24554,1.58937,14,12
10.5292,-1.31894,-0.928383,12,5
9.95616,-1.24893,1.95045,43,13
10.2552,-1.28826,-0.541677,77,6
10.4564,-1.31539,2.43307,49,14
9.5711,-1.20402,-0.168381,86,7
22.8797,-2.88226,6.17905,25,15
11.7767,-1.50237,0.20723,38,8
0.516119,-0.0659333,-0.120124,15,1
9.86595,-1.26211,0.521266,37,9
0.708848,-0.0906798,-0.138909,36,2
9.45038,-1.21062,0.833557,72,10
9.63389,-1.23755,1.19261,30,11
7.00918,-0.901627,-0.86771,32,4
10.317,-1.32896,-0.91008,11,5
10.347,-1.33466,2.02792,32,13
10.3655,-1.33889,-0.547748,49,6
10.243,-1.32488,2.38448,29,14
9.53291,-1.23472,-0.167787,100,7
22.754,-2.95119,6.14799,15,15
10.5897,-1.38852,0.186427,12,8
0.5468,-0.0717935,-0.127322,15,1
9.83376,-1.29289,0.519801,34,9
0.696848,-0.0916181,-0.136619,37,2
9.45005,-1.24412,0.833906,80,10
7.30299,-0.962754,-1.16669,32,3
9.60393,-1.26779,1.18944,60,11
7.03944,-0.93051,-0.871853,42,4
9.86198,-1.30536,1.57561,106,12
9.83038,-1.30118,-0.867548,19,5
10.3676,-1.37412,2.03288,13,13
10.3747,-1.37691,-0.548481,66,6
10.2286,-1.35934,2.38223,100,14
9.52259,-1.2672,-0.167683,100,7
16.6847,-2.22326,4.51018,16,15
0.527234,-0.0710974,-0.122823,15,1
0.708198,-0.0956262,-0.138909,24,2
13.5199,-1.83277,1.67522,26,11
7.01845,-0.952674,-0.86966,37,4
9.84562,-1.33818,1.57373,79,12
9.86701,-1.34284,-0.871209,35,5
10.3362,-1.40853,-0.546701,59,6
10.2335,-1.39636,2.38448,71,14
9.52604,-1.30152,-0.167822,86,7
16.6137,-2.27284,4.4931,16,15
14.8505,-2.05275,0.261681,25,8
0.526983,-0.0729374,-0.122823,15,1
0.680618,-0.0944435,-0.133566,26,2
9.49419,-1.31912,0.838613,40,10
7.48374,-1.04112,-1.19672,42,3
10.5543,-1.46829,1.30839,9,11
7.00918,-0.976345,-0.868928,33,4
9.82328,-1.37008,1.57092,55,12
9.45183,-1.31996,-0.834952,13,5
10.5636,-1.4771,2.07333,19,13
10.2241,-1.43145,-0.541049,87,6
10.1743,-1.42628,2.37188,84,14
9.50361,-1.33226,-0.167508,100,7
16.5598,-2.32438,4.48068,13,15
10.1586,-1.44216,0.179097,81,8
0.526712,-0.0748684,-0.122823,15,1
9.5824,-1.36207,0.50724,112,9
0.688059,-0.0979252,-0.135093,38,2
9.45796,-1.34775,0.835824,60,10
7.2806,-1.03878,-1.16481,72,3
10.0478,-1.43538,1.24624,23,11
7.02717,-1.00512,-0.87161,18,4
9.83017,-1.40604,1.57279,32,12
6.72346,-0.962877,-0.594228,13,5
9.91123,-1.42117,1.94625,20,13
10.0767,-1.44669,-0.533513,35,6
10.0824,-1.44931,2.35164,84,14
9.47911,-1.36258,-0.167159,69,7
16.3929,-2.35933,4.43771,20,15
10.1716,-1.47843,0.179411,20,8
0.526461,-0.0766146,-0.122823,15,1
9.18626,-1.33849,0.486515,21,9
0.68577,-0.100043,-0.134711,25,2
9.44335,-1.37932,0.834952,22,10
7.39439,-1.08004,-1.18358,67,3
9.72672,-1.42244,1.20699,71,11
7.16129,-1.04855,-0.888671,47,4
6.70429,-0.984025,-0.592833,13,5
9.88509,-1.45089,1.94205,52,13
11.2239,-1.64939,-0.594537,33,6
10.1566,-1.49437,2.37008,77,14
9.80072,-1.44375,-0.172918,23,7
16.4533,-2.42668,4.45635,16,15
0.51077,-0.0761529,-0.119224,16,1
0.699027,-0.104345,-0.137382,24,2
9.44857,-1.4121,0.835824,44,10
7.38276,-1.10468,-1.18233,53,3
9.70206,-1.45345,1.20456,68,11
7.03391,-1.05499,-0.873316,16,4
10.035,-1.5069,1.60721,71,12
6.69705,-1.00566,-0.592485,26,5
9.95568,-1.49677,1.95694,47,13
10.2458,-1.54404,2.39213,38,14
22.7827,-3.4415,6.17387,15,15
18.102,-2.76029,0.319623,9,8
0.525913,-0.0802881,-0.122823,15,1
10.462,-1.59904,0.554657,63,9
0.692836,-0.105895,-0.136238,25,2
9.48888,-1.452,0.839833,22,10
6.8048,-1.0425,-1.09035,22,3
9.69497,-1.487,1.20431,66,11
7.3971,-1.13588,-0.918895,21,4
