x, y, z, intensity, ring
32.028,11.6762,6.62641,6,13
8.362,3.04683,-0.466418,58,6
27.6917,10.0844,6.80387,10,14
9.92665,3.61497,-0.184402,20,7
28.9983,10.5545,8.26875,6,15
12.3764,4.48508,0.229778,43,8
0.520362,0.188471,-0.127772,14,1
0.731072,0.2645,-0.151121,39,2
16.7336,6.05088,1.55678,32,10
5.7123,2.06557,-0.962072,31,3
20.943,7.56887,2.73426,41,11
6.41138,2.31583,-0.836999,27,4
19.4757,7.03087,3.27949,28,12
7.24726,2.61489,-0.674062,21,5
19.35,6.98168,3.99859,3,13
8.37769,3.02112,-0.466732,54,6
27.7819,10.013,6.81782,50,14
9.95238,3.58504,-0.184646,20,7
29.2295,10.5233,8.32414,12,15
12.3807,4.4378,0.229569,43,8
0.524686,0.187968,-0.128672,14,1
0.713506,0.255332,-0.147305,42,2
5.72319,2.04695,-0.962698,28,3
20.8179,7.4416,2.71452,60,11
6.41569,2.2921,-0.836511,27,4
7.27323,2.5956,-0.675631,22,5
27.1326,9.67751,5.59948,8,13
8.37554,2.98569,-0.465999,61,6
30.0983,10.7293,7.37705,10,14
9.97425,3.55363,-0.184821,20,7
29.1951,10.3959,8.30395,25,15
12.4157,4.39907,0.229918,41,8
0.518024,0.183442,-0.126872,15,1
14.2058,5.02777,0.78975,4,9
0.725542,0.256643,-0.149594,40,2
16.2721,5.75586,1.51006,26,10
5.73625,2.02793,-0.963636,28,3
19.7782,6.98829,2.57559,66,11
6.42779,2.26989,-0.836999,31,4
26.6766,9.41525,4.4806,15,12
7.27518,2.56628,-0.674934,26,5
19.6006,6.91016,4.03981,22,13
8.39773,2.95896,-0.466627,58,6
26.8731,9.4688,6.57802,18,14
9.98532,3.51639,-0.184786,22,7
26.6727,9.38771,7.57667,30,15
12.4336,4.3542,0.229953,45,8
0.511335,0.178967,-0.125073,15,1
14.9849,5.2447,0.832037,11,9
0.719021,0.251516,-0.148068,41,2
16.2648,5.68632,1.50745,48,10
5.7455,2.00755,-0.963949,28,3
19.8767,6.94127,2.58509,30,11
6.43192,2.24613,-0.836511,27,4
20.1238,7.02363,3.37586,22,12
7.28409,2.54087,-0.674934,22,5
19.6932,6.8656,4.05393,36,13
8.41178,2.93094,-0.466837,58,6
10.024,3.49072,-0.185275,100,7
26.7272,9.30217,7.58288,35,15
12.4064,4.29854,0.229185,42,8
0.515609,0.178546,-0.125973,15,1
14.9494,5.17669,0.829106,28,9
0.716141,0.247846,-0.147305,42,2
16.2008,5.60369,1.49978,29,10
5.75773,1.99042,-0.964888,33,3
20.1342,6.95635,2.61556,12,11
6.42808,2.2209,-0.835049,25,4
20.162,6.96201,3.37836,13,12
7.28871,2.5154,-0.674585,22,5
19.9107,6.86747,4.094,19,13
8.42145,2.90303,-0.466837,58,6
26.832,9.24947,6.55237,46,14
10.0412,3.45941,-0.185379,100,7
26.82,9.23486,7.60048,41,15
12.4206,4.25738,0.229185,51,8
0.538321,0.184413,-0.131371,14,1
15.1166,5.17558,0.837375,31,9
0.709529,0.242926,-0.145778,43,2
16.1061,5.51123,1.48932,68,10
5.74187,1.96364,-0.961133,28,3
20.129,6.87991,2.6119,30,11
6.45646,2.20551,-0.83773,28,4
26.86,9.17006,4.4953,34,12
7.30455,2.49379,-0.675283,21,5
19.8851,6.78493,4.08408,30,13
8.43103,2.87509,-0.466837,54,6
26.6667,9.08848,6.50423,36,14
10.0702,3.43014,-0.185694,20,7
26.8447,9.13871,7.59841,20,15
12.4752,4.22747,0.229918,37,8
0.527887,0.178783,-0.128672,14,1
14.0108,4.74241,0.7752,26,9
0.72525,0.245484,-0.148831,40,2
16.2121,5.48434,1.49734,35,10
5.74495,1.94232,-0.960508,31,3
27.7845,9.38832,3.601,11,11
6.46788,2.18423,-0.838217,34,4
26.4408,8.924,4.4199,31,12
7.29811,2.46318,-0.673888,23,5
19.8342,6.69038,4.06881,12,13
8.42966,2.84181,-0.466209,58,6
27.0953,9.12911,6.60096,38,14
10.0954,3.39944,-0.185938,20,7
28.7514,9.67592,8.12847,24,15
12.505,4.18898,0.230197,41,8
0.539595,0.180651,-0.131371,14,1
14.2035,4.75241,0.784935,24,9
0.737273,0.246688,-0.151121,39,2
16.303,5.45173,1.50396,3,10
5.75918,1.92476,-0.961759,28,3
20.5154,6.85242,2.65578,31,11
6.46793,2.15912,-0.837242,29,4
20.4474,6.82177,3.41403,7,12
7.31423,2.44021,-0.674585,23,5
28.1994,9.40256,5.77808,17,13
8.4509,2.81616,-0.466837,65,6
27.9683,9.31467,6.80567,40,14
10.1508,3.3787,-0.186741,24,7
31.9361,10.6237,9.01829,7,15
12.5158,4.14404,0.230127,43,8
0.529122,0.175093,-0.128672,14,1
14.2901,4.72601,0.788808,45,9
0.715762,0.236716,-0.146541,42,2
17.8334,5.89438,1.64323,43,10
5.78838,1.91208,-0.965514,28,3
20.6071,6.80317,2.66455,44,11
6.48297,2.13902,-0.838217,31,4
26.4574,8.72435,4.41239,34,12
7.31513,2.41217,-0.673888,25,5
28.247,9.30899,5.78113,13,13
8.46827,2.78914,-0.467255,54,6
20.019,6.58965,4.86569,52,14
10.1607,3.34263,-0.186706,20,7
32.173,10.5779,9.07471,15,15
12.553,4.10779,0.230546,36,8
0.537139,0.175668,-0.130472,14,1
14.0692,4.59854,0.775724,28,9
0.712852,0.232996,-0.145778,43,2
17.8273,5.82342,1.64079,47,10
5.79502,1.89187,-0.965514,31,3
20.5779,6.71396,2.65773,12,11
6.49794,2.11884,-0.839192,25,4
20.5189,6.68681,3.41809,7,12
7.31782,2.38477,-0.673365,21,5
28.6508,9.33131,5.85707,4,13
8.48935,2.76327,-0.467883,58,6
26.678,8.67851,6.47679,36,14
10.1856,3.31146,-0.18695,22,7
28.8456,9.37251,8.12692,24,15
12.5634,4.06272,0.230476,43,8
0.548874,0.177387,-0.133171,14,1
13.5987,4.39225,0.748928,33,9
0.721134,0.23292,-0.147305,42,2
18.5813,5.99802,1.70825,24,10
5.78279,1.86556,-0.962385,33,3
20.2441,6.52696,2.61166,67,11
6.51475,2.09919,-0.840411,30,4
30.2049,9.72683,5.02593,16,12
7.33369,2.36165,-0.674062,21,5
42.0342,13.5281,8.58335,9,13
8.49894,2.73362,-0.467883,58,6
30.3277,9.74884,7.35455,10,14
10.2161,3.28201,-0.187299,22,7
28.0228,8.99716,7.88622,16,15
12.3966,3.96102,0.227161,51,8
0.527214,0.168357,-0.127772,14,1
13.8289,4.41337,0.760756,40,9
0.718202,0.229208,-0.146541,42,2
18.7312,5.9743,1.72011,59,10
5.79867,1.84836,-0.963949,35,3
24.1688,7.69931,3.11449,17,11
6.5069,2.07161,-0.838461,30,4
31.3775,9.98368,5.21521,4,12
7.35138,2.33906,-0.674934,25,5
27.9032,8.87287,5.69145,8,13
8.52366,2.70878,-0.468721,58,6
39.5367,12.557,9.57707,14,14
10.2161,3.2427,-0.18709,21,7
28.8606,9.15513,8.11294,12,15
12.4942,3.94422,0.228696,42,8
0.538949,0.170033,-0.130472,14,1
13.8938,4.38068,0.763477,46,9
0.732104,0.230832,-0.149213,40,2
14.2882,4.50232,1.31065,17,10
5.80321,1.82752,-0.963636,28,3
29.9518,9.42654,3.85546,12,11
6.50463,2.04591,-0.837242,29,4
30.3739,9.54771,5.04282,28,12
7.3595,2.31338,-0.674934,27,5
27.9434,8.77835,5.69336,29,13
8.52544,2.67661,-0.468302,72,6
36.4342,11.4318,8.81583,12,14
10.2388,3.21061,-0.187299,21,7
28.2804,8.86254,7.94109,28,15
12.4029,3.86783,0.226777,52,8
0.539539,0.168151,-0.130472,14,1
13.9223,4.33632,0.76421,22,9
0.721698,0.224646,-0.146923,42,2
14.456,4.49979,1.32459,8,10
5.81521,1.80901,-0.964575,30,3
19.5891,6.09008,2.5188,33,11
6.51552,2.02437,-0.83773,29,4
26.0982,8.10369,4.32823,33,12
7.37174,2.28758,-0.675283,25,5
28.0485,8.69856,5.70824,4,13
8.5619,2.65363,-0.469768,68,6
36.0756,11.181,8.71955,12,14
10.2423,3.17248,-0.18716,20,7
28.7651,8.9043,8.06843,36,15
12.2278,3.76411,0.223321,51,8
0.551327,0.16961,-0.133171,14,1
0.70938,0.217963,-0.144252,44,2
14.8857,4.57376,1.36242,24,10
5.82935,1.79,-0.965827,28,3
19.7024,6.04619,2.5305,23,11
6.53428,2.00397,-0.839192,33,4
19.5136,5.98081,3.23256,19,12
7.36864,2.25704,-0.674237,27,5
28.7166,8.79052,5.83761,31,13
8.57157,2.62223,-0.469768,68,6
32.503,9.94337,7.84719,23,14
10.2806,3.1431,-0.187648,20,7
28.2248,8.62383,7.90796,33,15
12.4903,3.79483,0.227859,43,8
0.563133,0.170986,-0.13587,13,1
10.1523,3.08065,0.556017,45,9
0.706379,0.214345,-0.143488,44,2
14.9043,4.51974,1.36259,39,10
5.83398,1.76805,-0.965514,35,3
19.713,5.97049,2.52903,28,11
6.54349,1.98058,-0.839436,32,4
19.5865,5.9247,3.24101,17,12
7.37648,2.23131,-0.674237,28,5
20.2754,6.12923,4.11728,14,13
8.60744,2.60038,-0.471233,65,6
28.9424,8.73824,6.97978,61,14
10.3131,3.11176,-0.188032,20,7
28.2636,8.52253,7.91003,22,15
12.2966,3.68915,0.224089,58,8
0.533861,0.160064,-0.128672,14,1
10.1573,3.04347,0.555703,13,9
0.710884,0.213005,-0.144252,44,2
14.6088,4.37453,1.33418,40,10
5.83823,1.74711,-0.965201,30,3
19.6424,5.87433,2.51733,61,11
6.54465,1.95602,-0.838705,31,4
19.4594,5.81219,3.21661,26,12
7.39186,2.20782,-0.674934,25,5
19.8188,5.91578,4.02035,44,13
8.62412,2.5726,-0.471652,68,6
28.3919,8.464,6.83986,30,14
10.3412,3.08087,-0.188346,20,7
28.9746,8.6267,8.10052,24,15
12.7523,3.7774,0.232152,40,8
0.547496,0.162072,-0.131821,14,1
10.1429,3.00063,0.554343,19,9
0.726684,0.214978,-0.147305,42,2
14.3164,4.23256,1.30612,14,10
5.86513,1.73288,-0.968642,41,3
19.8228,5.85296,2.53781,34,11
6.54954,1.9326,-0.838461,32,4
19.5193,5.75596,3.22318,21,12
7.40334,2.18313,-0.675283,25,5
19.6943,5.80383,3.99096,33,13
8.65412,2.54869,-0.472803,72,6
19.5956,5.7673,4.71587,36,14
10.3384,3.04081,-0.188102,20,7
28.682,8.43071,8.01045,11,15
0.55554,0.162346,-0.133621,14,1
10.1898,2.97584,0.556331,11,9
0.712354,0.208037,-0.144252,44,2
14.5338,4.24174,1.32459,46,10
5.86356,1.71018,-0.967391,33,3
19.7478,5.75595,2.52562,5,11
6.5429,1.90585,-0.836755,27,4
17.4909,5.09153,2.88528,15,12
7.41474,2.15839,-0.675631,26,5
19.8106,5.76301,4.01042,22,13
8.70132,2.52962,-0.474897,65,6
19.5614,5.68311,4.70283,34,14
10.3432,3.00303,-0.187997,21,7
29.3161,8.50602,8.1792,12,15
0.548559,0.158437,-0.131821,14,1
13.4229,3.87432,0.73218,26,9
0.701686,0.202531,-0.141962,46,2
14.6466,4.22477,1.33366,20,10
5.8708,1.6923,-0.967704,35,3
29.5208,8.50401,3.7721,61,11
6.56793,1.89077,-0.839192,33,4
7.42531,2.13619,-0.67598,23,5
19.6569,5.65139,3.9757,20,13
8.72266,2.50613,-0.475629,68,6
19.6896,5.65335,4.72937,32,14
10.3315,2.96446,-0.187613,23,7
29.3204,8.4075,8.17299,12,15
12.5668,3.58449,0.228103,33,8
0.54536,0.155453,-0.130922,14,1
13.6995,3.9024,0.74652,40,9
0.706165,0.201156,-0.142725,45,2
14.1247,4.02088,1.28485,30,10
5.85197,1.66477,-0.963636,33,3
29.4109,8.36128,3.75431,24,11
6.58213,1.87,-0.840167,31,4
19.8788,5.64387,3.27292,49,12
7.44039,2.11244,-0.676677,23,5
19.5047,5.53397,3.94097,33,13
8.74673,2.48003,-0.476467,65,6
19.698,5.5814,4.72667,44,14
10.3899,2.94199,-0.188486,20,7
29.4425,8.3314,8.19887,18,15
10.3194,2.90454,0.187125,10,8
0.549652,0.154604,-0.131821,14,1
10.2252,2.87416,0.556645,7,9
0.718239,0.201753,-0.145015,43,2
14.154,3.97585,1.28624,63,10
5.86155,1.6454,-0.964262,36,3
17.6605,4.95418,2.25215,23,11
6.5848,1.84594,-0.83968,25,4
20.079,5.62506,3.30264,28,12
7.43657,2.08193,-0.675631,23,5
19.5475,5.4688,3.94555,37,13
8.75961,2.44902,-0.476676,58,6
19.6517,5.49424,4.71093,46,14
10.4386,2.91647,-0.189184,20,7
28.5746,7.97817,7.94937,40,15
10.3974,2.88541,0.188346,8,8
0.538947,0.149463,-0.129122,14,1
0.718973,0.199119,-0.145015,43,2
14.2184,3.93778,1.29078,11,10
5.87896,1.62707,-0.966139,36,3
19.8444,5.48842,2.52806,33,11
6.5743,1.81704,-0.837486,30,4
20.865,5.76285,3.42842,15,12
7.44031,2.05359,-0.675283,26,5
17.6086,4.85683,3.55057,11,13
8.76467,2.41584,-0.476467,58,6
19.8464,5.47034,4.75277,32,14
10.4319,2.87341,-0.18887,20,7
28.585,7.86826,7.94419,17,15
10.3713,2.83726,0.187683,7,8
0.547011,0.149543,-0.130922,14,1
10.4863,2.86675,0.569729,105,9
0.704513,0.192469,-0.141962,46,2
14.1444,3.86151,1.28276,13,10
5.89823,1.60915,-0.968329,38,3
17.794,4.85121,2.26458,29,11
6.5806,1.79408,-0.837486,30,4
7.46666,2.03285,-0.677026,26,5
8.78076,2.38733,-0.476885,61,6
19.9462,5.42302,4.77211,16,14
10.492,2.85061,-0.189777,100,7
19.7398,5.35949,5.48075,25,15
10.3401,2.79191,0.18695,36,8
0.536215,0.144682,-0.128222,14,1
10.5594,2.84914,0.573183,39,9
0.697565,0.188087,-0.140435,47,2
13.605,3.66581,1.23273,21,10
5.90544,1.59009,-0.968642,41,3
16.796,4.51933,2.13564,23,11
6.58651,1.77225,-0.837486,32,4
17.7447,4.77128,2.91031,17,12
7.46951,2.00704,-0.676677,27,5
17.0288,4.57241,3.42731,47,13
8.80792,2.36337,-0.477932,68,6
19.9697,5.35835,4.77346,53,14
10.5052,2.81684,-0.189847,20,7
29.2388,7.83449,8.11087,18,15
10.3473,2.75709,0.186915,55,8
0.540458,0.143906,-0.129122,14,1
10.4206,2.77271,0.565124,55,9
0.713363,0.189811,-0.143488,44,2
10.3129,2.74213,0.933612,8,10
5.90304,1.56847,-0.967391,36,3
16.7783,4.45495,2.13149,50,11
6.60033,1.75128,-0.838461,30,4
17.8357,4.72905,2.92251,16,12
7.48768,1.98532,-0.677723,28,5
17.0989,4.5305,3.43838,28,13
8.81571,2.33415,-0.477932,61,6
10.5286,2.78373,-0.190092,21,7
29.1595,7.70427,8.08137,24,15
10.4091,2.73467,0.187858,36,8
0.540957,0.142019,-0.129122,14,1
10.5384,2.76471,0.570985,20,9
0.717819,0.188316,-0.144252,44,2
10.3455,2.71217,0.935704,25,10
5.90657,1.54736,-0.967078,32,3
16.9147,4.42803,2.14685,55,11
6.60833,1.72873,-0.838705,29,4
17.8712,4.67175,2.92564,37,12
7.50613,1.96219,-0.678769,25,5
17.183,4.48865,3.45212,13,13
8.8238,2.30336,-0.477932,58,6
26.5913,6.93643,6.34452,35,14
10.5479,2.74948,-0.190266,100,7
26.0829,6.79408,7.22209,4,15
10.4806,2.71436,0.188975,37,8
0.537676,0.139153,-0.128222,14,1
0.7071,0.182737,-0.141962,34,2
14.1185,3.64866,1.27579,16,10
5.89472,1.52229,-0.964262,42,3
16.9762,4.38086,2.1527,13,11
6.62009,1.70714,-0.839436,28,4
17.7344,4.56992,2.90061,59,12
7.53257,1.93964,-0.680512,25,5
19.8117,5.09785,3.97646,20,13
8.85153,2.27598,-0.478979,68,6
26.0152,6.68926,6.20145,41,14
10.5594,2.71314,-0.190301,22,7
26.1382,6.71115,7.23089,18,15
0.534406,0.136219,-0.127322,15,1
0.71157,0.181112,-0.142725,45,2
14.2128,3.61752,1.28311,63,10
5.92132,1.50603,-0.967704,38,3
14.0139,3.56168,1.77539,7,11
6.62053,1.6814,-0.838705,31,4
17.6648,4.48303,2.88653,23,12
7.54735,1.91398,-0.681209,25,5
17.5237,4.4407,3.51394,23,13
8.85207,2.24157,-0.47856,68,6
28.3877,7.18848,6.76068,10,14
10.544,2.66805,-0.189847,26,7
28.2266,7.13719,7.80132,11,15
10.4672,2.62918,0.188381,41,8
0.550022,0.138054,-0.130922,14,1
10.467,2.62525,0.565542,57,9
0.693155,0.173852,-0.138909,48,2
14.0521,3.52182,1.26742,27,10
5.92489,1.48383,-0.967391,46,3
17.5201,4.3845,2.21753,33,11
6.6305,1.65809,-0.839192,29,4
17.478,4.36748,2.85337,35,12
7.60618,1.90066,-0.685916,30,5
14.6877,3.6675,2.94266,11,13
8.86372,2.21162,-0.478769,72,6
10.5537,2.62939,-0.189847,22,7
27.1653,6.763,7.50109,10,15
10.7306,2.65556,0.192954,31,8
0.516449,0.127713,-0.122823,15,1
10.8794,2.68835,0.587314,32,9
0.701382,0.173315,-0.140435,47,2
14.0004,3.45698,1.26167,57,10
5.92811,1.46267,-0.967078,38,3
21.976,5.41815,2.77911,49,11
6.64588,1.63731,-0.840411,30,4
17.5085,4.31023,2.85587,37,12
7.62437,1.87696,-0.686962,27,5
14.6585,3.60589,2.93426,22,13
8.89078,2.18543,-0.479816,58,6
17.4298,4.28118,4.1436,25,14
10.5259,2.58347,-0.189184,20,7
27.5246,6.7505,7.59375,5,15
10.7243,2.6143,0.192675,62,8
0.532039,0.129599,-0.126422,15,1
10.586,2.57667,0.570985,6,9
0.713428,0.173651,-0.142725,45,2
10.3051,2.50639,0.92786,32,10
5.93702,1.4429,-0.967704,38,3
15.3473,3.72708,1.93919,45,11
6.65734,1.6155,-0.841142,31,4
17.7768,4.31053,2.89717,12,12
7.6483,1.85456,-0.68853,27,5
14.6729,3.55516,2.93464,16,13
8.89059,2.1525,-0.479397,65,6
28.6312,6.92663,6.80072,20,14
10.5349,2.54671,-0.189184,23,7
25.7509,6.22028,7.09837,18,15
0.536278,0.12865,-0.127322,15,1
0.702574,0.168414,-0.140435,47,2
15.6247,3.7425,1.40565,15,10
5.94586,1.42309,-0.968329,38,3
15.1498,3.62317,1.91262,57,11
6.65715,1.59087,-0.840411,32,4
17.6823,4.22229,2.87933,22,12
7.68186,1.83433,-0.690971,27,5
17.3606,4.14228,3.46929,48,13
8.89805,2.12145,-0.479397,68,6
26.5188,6.31766,6.29368,8,14
10.5282,2.50622,-0.188905,100,7
27.5315,6.54879,7.58288,15,15
10.4289,2.4653,0.187055,43,8
0.548103,0.129465,-0.130022,14,1
12.2185,2.88609,0.657968,55,9
0.699336,0.165059,-0.139672,35,2
16.1709,3.81371,1.45358,25,10
5.94887,1.40187,-0.968017,36,3
17.4347,4.10532,2.19925,23,11
6.65107,1.5649,-0.838949,40,4
15.2387,3.58544,2.47949,7,12
7.70373,1.81115,-0.692365,23,5
17.5298,4.11803,3.5002,12,13
8.92095,2.09404,-0.480235,65,6
26.5369,6.22417,6.29278,8,14
10.5247,2.46856,-0.188695,22,7
26.4321,6.19473,7.27437,19,15
10.5325,2.45293,0.188765,56,8
0.563714,0.13118,-0.133621,14,1
10.4408,2.42772,0.561774,72,9
0.699908,0.162617,-0.139672,47,2
19.0992,4.43397,1.7154,31,10
5.96311,1.38437,-0.969581,33,3
15.2495,3.53745,1.92212,78,11
6.67749,1.54776,-0.84163,38,4
7.70224,1.78245,-0.691668,28,5
14.4314,3.3397,2.87931,11,13
8.93563,2.06624,-0.480653,65,6
17.4625,4.03475,4.13775,5,14
10.5313,2.43135,-0.188661,31,7
21.7306,5.01292,5.97561,2,15
10.6092,2.43178,0.189987,22,8
0.55657,0.127472,-0.131821,14,1
10.5329,2.41042,0.566275,40,9
0.711955,0.162798,-0.141962,34,2
10.3755,2.37251,0.931172,17,10
5.96405,1.36266,-0.968955,45,3
15.2927,3.49127,1.92602,61,11
6.68092,1.524,-0.841386,37,4
15.3385,3.49609,2.49169,41,12
7.70842,1.75556,-0.691668,25,5
15.0484,3.42445,2.9999,20,13
8.93146,2.03082,-0.480025,72,6
17.4784,3.9742,4.1382,31,14
10.5261,2.39148,-0.188416,20,7
33.1494,7.52529,9.10836,7,15
10.659,2.40212,0.19072,55,8
0.553231,0.124574,-0.130922,14,1
10.454,2.35207,0.561565,105,9
0.693392,0.155881,-0.138146,48,2
5.95551,1.33776,-0.966765,36,3
14.3544,3.22174,1.80635,16,11
6.69808,1.50211,-0.842848,34,4
15.2298,3.41263,2.47198,36,12
7.72647,1.7299,-0.692714,25,5
15.0705,3.37141,3.00181,16,13
8.95054,2.00068,-0.480653,65,6
17.6564,3.94667,4.17689,33,14
21.2832,4.74957,5.8431,2,15
11.0602,2.44996,0.197736,21,8
0.542268,0.120019,-0.128222,14,1
11.3401,2.50781,0.608667,31,9
0.713102,0.157699,-0.141962,46,2
13.5229,2.98806,1.21164,70,10
5.96809,1.31763,-0.968017,30,3
13.3077,2.93563,1.67327,22,11
6.69773,1.47627,-0.842117,33,4
7.74413,1.70549,-0.69376,25,5
14.9997,3.30064,2.9854,22,13
8.95356,1.96857,-0.480444,68,6
10.0414,2.20407,-0.179446,100,7
21.2495,4.66034,5.82912,15,15
11.0335,2.40368,0.197107,56,8
0.546492,0.118955,-0.129122,14,1
10.3671,2.25471,0.556017,78,9
0.6983,0.151871,-0.138909,36,2
16.0059,3.47815,1.43301,25,10
5.99003,1.30056,-0.970832,35,3
18.548,4.02379,2.33039,30,11
6.70672,1.45372,-0.842605,29,4
7.75783,1.68014,-0.694457,25,5
14.8538,3.21422,2.9541,45,13
9.01895,1.94997,-0.483584,68,6
17.5394,3.78895,4.1427,14,14
8.6827,1.87409,-0.155047,67,7
21.3223,4.59837,5.84465,21,15
10.7818,2.30944,0.192465,62,8
0.573582,0.122756,-0.135421,13,1
0.702666,0.150254,-0.139672,47,2
15.9517,3.4081,1.42709,21,10
5.98101,1.27676,-0.968642,36,3
14.5801,3.10974,1.83048,8,11
6.75253,1.43899,-0.847723,33,4
14.6509,3.11949,2.37249,10,12
7.75195,1.65056,-0.693411,22,5
14.9417,3.17868,2.96937,14,13
9.06868,1.92761,-0.485887,68,6
14.7675,3.13625,3.48539,18,14
10.3695,2.20033,-0.18503,100,7
21.2475,4.50468,5.81981,10,15
10.4747,2.20546,0.186845,61,8
0.574007,0.120753,-0.135421,13,1
0.699344,0.146992,-0.138909,36,2
11.9858,2.51706,1.07149,49,10
5.9835,1.25547,-0.968329,33,3
14.7191,3.0857,1.84656,4,11
6.75557,1.415,-0.84748,37,4
7.75377,1.62267,-0.693062,23,5
14.8028,3.09516,2.9396,26,13
9.09099,1.89921,-0.486724,68,6
14.9997,3.13087,3.53758,20,14
10.5122,2.19228,-0.187439,20,7
21.5998,4.50063,5.91194,8,15
10.639,2.20129,0.189638,43,8
0.536257,0.110858,-0.126422,15,1
0.703698,0.145345,-0.139672,23,2
12.3067,2.53963,1.09938,19,10
5.98591,1.23418,-0.968017,37,3
14.8192,3.05274,1.85778,24,11
6.7838,1.39622,-0.850404,37,4
15.2895,3.14405,2.47229,52,12
7.75158,1.59399,-0.692365,22,5
14.7558,3.03163,2.92815,30,13
9.12104,1.87228,-0.48798,56,6
14.9972,3.07575,3.53443,24,14
11.084,2.27119,-0.197491,22,7
21.3845,4.37793,5.84879,5,15
10.4624,2.1267,0.186357,51,8
0.548099,0.111313,-0.129122,14,1
0.708049,0.143668,-0.140435,47,2
12.3389,2.50141,1.10147,16,10
5.99792,1.21484,-0.969268,36,3
13.46,2.7238,1.68618,82,11
6.78085,1.37095,-0.849429,37,4
21.1808,4.27851,3.42247,15,12
7.77272,1.57008,-0.69376,25,5
17.9475,3.62211,3.55897,15,13
9.14906,1.84477,-0.489132,73,6
15.0154,3.02492,3.53623,20,14
10.888,2.19145,-0.193861,24,7
21.4375,4.31087,5.85915,15,15
10.4717,2.09056,0.186392,71,8
0.537018,0.107112,-0.126422,15,1
10.301,2.05275,0.55047,40,9
0.693143,0.138127,-0.137382,24,2
13.4653,2.68086,1.20118,28,10
6.01375,1.19621,-0.971145,36,3
6.80117,1.35037,-0.851379,40,4
14.3733,2.8512,2.32086,11,12
7.80942,1.54914,-0.696549,22,5
18.0101,3.56936,3.56889,28,13
9.17503,1.81671,-0.490179,63,6
25.8174,5.1073,6.07593,31,14
9.60275,1.89791,-0.170859,70,7
21.786,4.3019,5.95025,19,15
10.4515,2.04861,0.185903,47,8
0.537389,0.105237,-0.126422,15,1
10.2258,2.00067,0.546073,28,9
0.693621,0.135706,-0.137382,37,2
12.358,2.41559,1.10165,2,10
6.01789,1.17521,-0.971145,37,3
14.8718,2.90156,1.86046,84,11
6.81558,1.32852,-0.852598,41,4
7.79131,1.5173,-0.694457,23,5
9.17152,1.78276,-0.489655,66,6
25.8504,5.02013,6.07953,7,14
9.61521,1.86553,-0.170964,26,7
21.6415,4.19494,5.90677,16,15
10.4939,2.01892,0.186531,81,8
0.560717,0.107774,-0.131821,14,1
0.686378,0.131803,-0.135856,37,2
12.3703,2.37319,1.102,9,10
6.01808,1.15346,-0.97052,42,3
14.8448,2.84254,1.85583,48,11
6.82408,1.30547,-0.853086,41,4
14.4801,2.76748,2.33494,24,12
7.79682,1.48873,-0.694457,23,5
8.19478,1.56324,-0.437215,32,6
25.7663,4.91052,6.05568,39,14
10.6392,2.02569,-0.189044,100,7
21.5308,4.09555,5.8726,19,15
10.4518,1.973,0.185659,50,8
0.56109,0.105816,-0.131821,14,1
0.702292,0.132192,-0.138909,36,2
10.7596,2.02332,0.957842,10,10
6.03003,1.13285,-0.971771,35,3
15.8301,2.97396,1.9777,34,11
6.85591,1.28676,-0.856498,40,4
14.7538,2.76642,2.37749,14,12
7.81764,1.46444,-0.695851,25,5
14.9556,2.79886,2.95754,23,13
14.5337,2.71467,3.41341,2,14
10.7681,2.01131,-0.191209,34,7
21.4785,4.00796,5.85449,28,15
10.3075,1.90667,0.182971,70,8
0.542311,0.100218,-0.127322,15,1
10.1955,1.88226,0.543352,21,9
0.710471,0.131165,-0.140435,47,2
10.7156,1.97636,0.95331,8,10
6.03006,1.11108,-0.971145,41,3
15.2904,2.81458,1.90896,45,11
6.85472,1.26055,-0.855767,33,4
17.7927,3.26878,2.86525,31,12
7.83446,1.4393,-0.696897,23,5
20.961,3.84706,4.14246,23,13
14.5642,2.66778,3.41836,20,14
10.9957,2.01214,-0.195118,23,7
29.0565,5.3119,7.91469,5,15
10.4971,1.90386,0.186217,35,8
0.515813,0.0934603,-0.121024,15,1
10.6855,1.93417,0.569101,20,9
0.699334,0.126586,-0.138146,36,2
10.697,1.93433,0.951043,8,10
6.0514,1.09318,-0.973961,45,3
15.134,2.73122,1.88824,8,11
6.85908,1.23661,-0.855767,40,4
15.162,2.73082,2.44007,6,12
7.83944,1.41195,-0.696897,21,5
20.9666,3.77249,4.14094,14,13
27.645,4.96417,6.48444,18,14
10.985,1.97057,-0.194804,33,7
21.615,3.87358,5.88399,11,15
10.61,1.88611,0.188102,77,8
0.537241,0.0954072,-0.125973,15,1
10.6725,1.89337,0.568054,61,9
0.688173,0.122086,-0.135856,37,2
16.1379,2.86008,1.43389,12,10
6.07852,1.07618,-0.977716,45,3
22.3722,3.95689,2.78959,14,11
6.88095,1.21577,-0.85796,38,4
7.83254,1.3825,-0.695851,25,5
20.8849,3.68257,4.12224,36,13
8.38916,1.47773,-0.446426,39,6
30.8712,5.43232,7.23668,42,14
11.1454,1.95921,-0.197526,100,7
21.6322,3.79878,5.88503,30,15
10.7564,1.87342,0.19058,31,8
0.55293,0.0962035,-0.129572,14,1
10.7125,1.86192,0.569834,30,9
0.698266,0.121365,-0.137764,24,2
10.4963,1.82245,0.932043,40,10
6.0764,1.05395,-0.976777,42,3
15.7728,2.73294,1.96551,8,11
6.90666,1.19547,-0.860641,34,4
17.9389,3.10181,2.8834,27,12
7.82162,1.35243,-0.694457,26,5
14.7494,2.54768,2.90946,7,13
8.51432,1.46915,-0.452811,25,6
30.7286,5.29671,7.19888,42,14
10.4368,1.79713,-0.184856,31,7
21.7976,3.74944,5.92644,22,15
11.0408,1.88327,0.195502,38,8
0.545579,0.0929636,-0.127772,14,1
10.5496,1.79569,0.560832,34,9
0.704492,0.119915,-0.138909,24,2
13.113,2.22966,1.1637,30,10
6.07615,1.03207,-0.976151,42,3
20.8316,3.53462,2.59435,30,11
6.91079,1.17135,-0.860641,34,4
15.1508,2.56529,2.43381,6,12
7.83808,1.32712,-0.695503,28,5
14.797,2.50272,2.91709,12,13
8.51546,1.43875,-0.452601,14,6
30.6028,5.1651,7.16514,42,14
10.3602,1.74672,-0.18339,24,7
21.2791,3.58381,5.78202,10,15
10.4813,1.7502,0.185484,15,8
0.538211,0.0897759,-0.125973,15,1
0.69716,0.116165,-0.137382,24,2
10.6129,1.76647,0.941282,19,10
6.06997,1.00923,-0.974587,38,3
15.5193,2.57755,1.93163,45,11
6.91484,1.14723,-0.860641,34,4
15.4247,2.55631,2.47636,14,12
7.87411,1.30496,-0.698292,28,5
8.36673,1.38361,-0.444437,10,6
30.5745,5.05061,7.15434,31,14
10.4372,1.72226,-0.184646,82,7
22.0749,3.63865,5.99477,5,15
0.534675,0.0872692,-0.125073,15,1
0.697581,0.113608,-0.137382,37,2
13.2364,2.15568,1.17329,22,10
6.10075,0.992481,-0.978967,45,3
14.3114,2.32563,1.78027,42,11
6.92076,1.1234,-0.860885,33,4
21.3613,3.46361,3.42748,20,12
7.89458,1.27864,-0.699686,25,5
35.8036,5.79251,7.05001,6,13
8.38752,1.35547,-0.445274,39,6
23.8972,3.86194,5.58868,26,14
10.9624,1.76963,-0.193826,100,7
21.7976,3.51483,5.91609,22,15
11.8027,1.88416,0.208626,26,8
0.558084,0.0889909,-0.130472,14,1
13.2782,2.11494,0.704651,11,9
0.690237,0.109817,-0.135856,25,2
13.2698,2.11123,1.17556,27,10
6.11801,0.97228,-0.981157,48,3
14.1434,2.24515,1.75833,31,11
6.93856,1.1002,-0.862591,32,4
15.3704,2.43443,2.46478,4,12
7.90905,1.25126,-0.700558,28,5
24.0498,3.80052,4.73283,24,13
8.43189,1.33095,-0.447368,7,6
23.8573,3.76582,5.57609,26,14
10.9372,1.72446,-0.193268,29,7
21.7225,3.42109,5.89227,30,15
10.7802,1.68042,0.190441,48,8
0.577662,0.0899431,-0.134971,14,1
13.2164,2.05782,0.700988,21,9
0.694496,0.10801,-0.136619,25,2
15.571,2.41888,1.37863,39,10
6.11567,0.948943,-0.980218,50,3
14.5674,2.25775,1.81,44,11
6.94451,1.07507,-0.862835,33,4
13.7742,2.13236,2.2076,4,12
7.93109,1.22638,-0.702127,27,5
23.3509,3.60657,4.59277,13,13
8.43648,1.30151,-0.447368,25,6
31.2572,4.81653,7.30146,10,14
10.8819,1.67683,-0.192186,100,7
21.5739,3.32055,5.84879,5,15
10.6453,1.62326,0.187962,32,8
0.539426,0.0821586,-0.125973,15,1
13.263,2.01768,0.703081,62,9
0.685164,0.104111,-0.134711,25,2
13.383,2.03117,1.18427,32,10
6.12074,0.928955,-0.980531,53,3
14.4923,2.19693,1.79977,28,11
6.95588,1.05322,-0.86381,33,4
13.8089,2.0884,2.21198,11,12
7.97472,1.20464,-0.705613,28,5
23.3453,3.52647,4.58934,22,13
8.51975,1.28545,-0.451555,3,6
23.8907,3.60035,5.57789,32,14
10.6247,1.59924,-0.187544,100,7
21.4326,3.22225,5.80738,7,15
10.6212,1.58167,0.187439,65,8
0.543565,0.0808487,-0.126872,15,1
10.4488,1.55227,0.55361,32,9
0.695215,0.10328,-0.136619,25,2
13.4035,1.98882,1.18549,22,10
6.14935,0.911347,-0.984599,45,3
15.3345,2.26987,1.90336,33,11
6.9497,1.02748,-0.862591,34,4
13.693,2.022,2.19227,19,12
7.99268,1.17883,-0.706833,30,5
23.2778,3.43321,4.57369,33,13
8.56765,1.26211,-0.453857,3,6
23.8395,3.50756,5.56304,25,14
9.16417,1.34671,-0.161679,25,7
21.5278,3.15976,5.83016,10,15
10.692,1.55408,0.188591,55,8
0.539987,0.0783907,-0.125973,15,1
13.2412,1.91988,0.701197,22,9
0.683931,0.0990436,-0.13433,25,2
13.2174,1.91173,1.16841,57,10
6.15851,0.889651,-0.985537,46,3
39.1682,5.65819,4.85917,15,11
6.9611,1.00435,-0.863566,32,4
13.7782,1.98547,2.20479,32,12
7.99674,1.15093,-0.706833,28,5
23.4807,3.37524,4.61109,30,13
23.885,3.42487,5.57069,26,14
9.04608,1.29712,-0.159515,8,7
22.426,3.21166,6.07034,18,15
10.5986,1.50086,0.186845,75,8
0.559566,0.0791401,-0.130472,14,1
13.2283,1.86854,0.70015,44,9
0.688161,0.0972046,-0.135093,38,2
13.0899,1.84665,1.15656,70,10
6.16158,0.868149,-0.985537,46,3
13.7581,1.93602,1.70593,7,11
6.9785,0.980764,-0.865272,33,4
13.713,1.9248,2.19321,42,12
8.01847,1.1255,-0.708402,22,5
22.9168,3.21259,4.49813,10,13
9.29051,1.30074,-0.491644,66,6
19.6374,2.74589,4.57775,14,14
9.26863,1.29437,-0.163355,8,7
22.3994,3.12411,6.05999,24,15
13.2483,1.82893,0.233443,52,8
0.555978,0.0766539,-0.129572,14,1
10.8427,1.49298,0.573602,43,9
0.684606,0.0942664,-0.13433,25,2
14.174,1.94915,1.25173,44,10
6.17631,0.848247,-0.987414,37,3
14.1562,1.94167,1.75443,19,11
6.97991,0.95613,-0.865029,30,4
15.8607,2.16983,2.53549,13,12
8.06972,1.10398,-0.712585,27,5
22.8073,3.11609,4.47447,36,13
9.41571,1.28477,-0.498029,59,6
19.67,2.68047,4.58315,14,14
9.04721,1.23127,-0.159375,92,7
21.2539,2.88876,5.74734,20,15
10.3968,1.39831,0.183111,58,8
0.536928,0.0721184,-0.125073,15,1
10.713,1.43893,0.566484,78,9
0.696606,0.0934424,-0.136619,25,2
21.8289,2.92423,1.92684,35,10
6.19098,0.828253,-0.989292,36,3
21.6358,2.89069,2.68015,19,11
6.98714,0.932283,-0.865516,32,4
13.9842,1.86589,2.23451,5,12
8.09723,1.07896,-0.714677,23,5
22.9173,3.04968,4.49393,31,13
19.8126,2.62948,4.6142,18,14
8.96006,1.18916,-0.15777,26,7
22.2995,2.95559,6.02738,11,15
13.3061,1.74469,0.234246,46,8
0.525571,0.0688198,-0.122373,15,1
10.6031,1.38651,0.560413,60,9
0.691088,0.0902473,-0.135474,25,2
21.9535,2.86295,1.93695,54,10
6.1937,0.807716,-0.989292,41,3
21.6177,2.81533,2.67674,19,11
6.97641,0.907317,-0.86381,33,4
8.1128,1.05223,-0.715723,23,5
23.0168,2.98528,4.51149,28,13
24.1,3.11721,5.61028,32,14
9.01175,1.16403,-0.158607,50,7
17.7554,2.29027,4.79695,22,15
13.3716,1.70583,0.235293,42,8
0.556738,0.0709249,-0.129572,14,1
10.7327,1.36536,0.567008,39,9
0.687503,0.0873397,-0.134711,25,2
29.9618,3.80632,2.64239,38,10
6.20824,0.787587,-0.991169,46,3
21.5861,2.73461,2.67162,39,11
6.98348,0.883459,-0.864297,33,4
13.9224,1.75882,2.22262,11,12
8.07887,1.01916,-0.712411,21,5
24.4085,3.07054,5.67956,54,14
9.21814,1.15798,-0.162168,23,7
17.4949,2.19461,4.72448,12,15
13.3738,1.65631,0.235224,48,8
0.54539,0.0674489,-0.126872,15,1
13.3779,1.65208,0.706431,16,9
0.681973,0.0840983,-0.133566,26,2
16.0605,1.98052,1.41576,34,10
6.21108,0.764829,-0.991169,41,3
14.1976,1.74577,1.75638,7,11
6.99652,0.859065,-0.865516,32,4
7.90456,0.967758,-0.696723,30,5
23.0127,2.81338,4.50653,18,13
23.5143,2.87055,5.46901,24,14
9.22034,1.12395,-0.162133,100,7
17.4357,2.12231,4.70637,6,15
13.4155,1.61158,0.235852,41,8
0.564982,0.06777,-0.131371,14,1
10.7682,1.28975,0.568369,35,9
0.699821,0.0836966,-0.137001,24,2
13.9331,1.66636,1.22768,28,10
6.24523,0.745802,-0.996175,46,3
22.2619,2.65458,2.75278,13,11
6.99568,0.832948,-0.865029,37,4
13.8859,1.65088,2.2148,60,12
8.0782,0.958981,-0.711714,28,5
23.017,2.72833,4.50538,5,13
23.1918,2.74493,5.39163,23,14
9.3078,1.10001,-0.163599,100,7
17.5048,2.06564,4.72293,18,15
11.2622,1.31106,0.19791,13,8
0.561355,0.0652489,-0.130472,14,1
10.6915,1.24083,0.564077,20,9
0.678671,0.0786453,-0.132803,26,2
16.7832,1.94485,1.47816,12,10
6.24007,0.722001,-0.994923,42,3
14.5019,1.67536,1.79245,16,11
7.00066,0.807531,-0.865272,33,4
13.886,1.5993,2.21386,41,12
8.16678,0.939152,-0.719209,21,5
23.0874,2.65088,4.51721,31,13
23.2114,2.66102,5.39388,5,14
9.3515,1.07043,-0.164297,100,7
11.5277,1.31749,3.10893,19,15
11.0579,1.25011,0.194245,6,8
0.526713,0.0594528,-0.122373,15,1
10.5903,1.19351,0.558529,7,9
0.682817,0.076952,-0.133566,26,2
16.8311,1.89386,1.48182,65,10
6.25813,0.70307,-0.997426,41,3
14.4995,1.62638,1.79148,44,11
7.00527,0.784531,-0.865516,34,4
14.5862,1.63095,2.32462,23,12
8.17975,0.913167,-0.720081,28,5
29.0934,3.24791,5.69031,12,13
8.58895,0.957337,-0.452915,83,6
23.3692,2.60064,5.42852,18,14
9.51002,1.05664,-0.16702,24,7
11.5569,1.28203,3.11566,21,15
10.6427,1.16557,0.18688,5,8
0.565661,0.0618503,-0.131371,14,1
10.5468,1.15134,0.556017,3,9
0.669432,0.07296,-0.130895,27,2
16.7805,1.82591,1.47677,90,10
6.26459,0.680553,-0.998052,41,3
13.694,1.48764,1.6913,15,11
7.00994,0.760285,-0.86576,33,4
14.4288,1.56237,2.29865,47,12
8.25221,0.892106,-0.726182,21,5
23.749,2.56319,4.64315,8,13
22.714,2.44347,5.2742,5,14
11.5921,1.24497,3.12395,19,15
15.5488,1.64523,0.272921,22,8
0.577511,0.0610047,-0.134071,14,1
0.685302,0.0722701,-0.133948,26,2
6.27086,0.659095,-0.998678,41,3
13.7349,1.44117,1.69569,15,11
7.01268,0.734589,-0.86576,25,4
7.92237,0.828483,-0.696897,10,5
24.3983,2.54715,4.76832,15,13
8.84787,0.922145,-0.466209,47,6
28.2,2.93409,6.54563,18,14
9.58497,0.99558,-0.168206,100,7
11.5965,1.20248,3.12395,37,15
17.7865,1.81923,0.312084,9,8
0.55058,0.0562173,-0.127772,14,1
13.2411,1.34965,0.697534,35,9
0.68555,0.0698774,-0.133948,26,2
15.8434,1.6121,1.39327,59,10
6.27509,0.637403,-0.998991,38,3
21.9498,2.2257,2.70891,33,11
7.05272,0.713902,-0.870391,37,4
14.2194,1.43684,2.26361,5,12
23.6589,2.38649,4.62216,2,13
8.84507,0.890652,-0.465895,90,6
23.2172,2.33377,5.38713,35,14
9.85301,0.988672,-0.172849,22,7
11.6583,1.16777,3.13948,25,15
14.3699,1.41911,0.252048,8,8
0.55853,0.0550597,-0.129572,14,1
11.8464,1.16573,0.623845,42,9
0.681882,0.0670995,-0.133185,26,2
15.7557,1.54764,1.38508,36,10
6.26548,0.614336,-0.997113,38,3
14.4756,1.4168,1.78587,32,11
7.08678,0.692369,-0.874291,38,4
41.9063,4.08681,6.6688,7,12
8.35034,0.814345,-0.734026,10,5
30.088,2.92895,5.87615,18,13
8.47838,0.823844,-0.446426,61,6
21.9043,2.12459,5.08074,5,14
9.02044,0.873339,-0.158189,100,7
17.2003,1.66226,4.63027,15,15
10.5467,1.00438,0.184926,26,8
0.527679,0.050159,-0.122373,15,1
11.7431,1.11419,0.618192,7,9
0.68993,0.0654608,-0.134711,25,2
14.1504,1.3401,1.24354,52,10
6.29709,0.595249,-1.00181,41,3
14.5002,1.36813,1.78831,32,11
7.08323,0.667067,-0.87356,29,4
42.3137,3.97747,6.73138,15,12
8.36305,0.786122,-0.734897,21,5
30.1703,2.8307,5.89027,13,13
8.36189,0.783069,-0.440145,76,6
24.075,2.25032,5.58239,52,14
9.00552,0.840176,-0.157874,92,7
11.6124,1.08133,3.12498,29,15
10.2693,0.941817,0.180004,5,8
0.566663,0.0518696,-0.131371,14,1
0.666693,0.0609085,-0.130132,27,2
14.1014,1.28582,1.23883,13,10
6.30109,0.573445,-1.00212,38,3
29.1502,2.64775,3.59393,23,11
7.11912,0.645386,-0.877703,33,4
42.89,3.88066,6.82086,8,12
8.39352,0.75944,-0.737338,28,5
24.1753,2.18311,4.71833,11,13
8.31285,0.749216,-0.437424,87,6
21.6721,1.94944,5.02361,24,14
9.11993,0.818747,-0.159829,100,7
11.6295,1.042,3.1286,20,15
9.44988,0.833408,0.165588,30,8
0.562958,0.0495494,-0.130472,14,1
11.6949,1.02728,0.615262,32,9
0.678636,0.0596119,-0.132421,26,2
14.4135,1.26355,1.26585,2,10
6.31683,0.55265,-1.00431,48,3
28.8685,2.5206,3.5581,56,11
7.15495,0.623463,-0.881847,32,4
44.1746,3.84146,7.02297,8,12
8.47155,0.736694,-0.743961,24,5
24.1691,2.09753,4.71565,11,13
8.36516,0.724504,-0.440041,43,6
13.0721,1.12987,3.02919,2,14
9.29008,0.801345,-0.162761,100,7
11.6793,1.00538,3.14103,5,15
9.44077,0.799401,0.165379,33,8
0.567011,0.0479125,-0.131371,14,1
11.4098,0.962118,0.600084,69,9
0.674928,0.0569125,-0.131658,26,2
11.2035,0.94275,0.98364,10,10
6.31085,0.52994,-1.00306,46,3
11.8452,0.992589,1.45951,3,11
7.14719,0.597655,-0.880628,31,4
38.2742,3.19382,6.08311,28,12
8.40259,0.701159,-0.737686,11,5
24.1763,2.01314,4.71565,28,13
8.23627,0.684382,-0.433132,68,6
13.1343,1.08907,3.04269,2,14
9.25297,0.765611,-0.162063,93,7
11.7078,0.966668,3.14776,6,15
9.37175,0.760621,0.164122,55,8
0.551636,0.0446744,-0.127772,14,1
11.435,0.924051,0.601236,47,9
0.690777,0.0558211,-0.134711,25,2
11.7965,0.951199,1.03541,48,10
6.30872,0.507589,-1.00243,42,3
16.1919,1.29992,1.99451,25,11
7.18683,0.575716,-0.885259,46,4
29.881,2.38843,4.74779,42,12
28.8174,2.29834,5.61933,24,13
8.23463,0.655313,-0.432923,72,6
22.7326,1.80507,5.26475,33,14
8.4602,0.670288,-0.148136,100,7
9.2946,0.721708,0.162726,21,8
0.540131,0.0418456,-0.125073,15,1
11.7687,0.909689,0.618611,35,9
0.690968,0.05341,-0.134711,25,2
11.8276,0.912158,1.03785,89,10
6.31833,0.486169,-1.00368,46,3
11.8281,0.908052,1.45658,37,11
7.21453,0.552595,-0.888428,29,4
8.36766,0.637984,-0.7342,18,5
23.53,1.79402,4.58705,5,13
8.34839,0.635046,-0.438785,97,6
22.422,1.70166,5.19142,37,14
8.53227,0.646042,-0.149358,89,7
12.3152,0.930311,3.30926,22,15
0.528614,0.0390973,-0.122373,15,1
11.8216,0.872274,0.621228,105,9
0.687243,0.0505887,-0.133948,26,2
11.8428,0.86968,1.0389,78,10
6.33583,0.464164,-1.00619,42,3
37.7902,2.76851,4.65248,30,11
7.24017,0.529146,-0.891352,29,4
30.224,2.20361,4.79972,18,12
8.22875,0.598508,-0.721824,10,5
20.474,1.48555,3.9902,1,13
8.35664,0.604878,-0.439099,65,6
22.329,1.61232,5.16848,42,14
8.42478,0.608332,-0.147438,97,7
12.1585,0.875794,3.2663,7,15
9.34341,0.65827,0.163494,41,8
0.552081,0.0387991,-0.127772,14,1
11.9223,0.835787,0.626357,43,9
0.679581,0.0476404,-0.132421,26,2
6.34333,0.442459,-1.00713,56,3
37.808,2.63055,4.65346,60,11
7.27771,0.505077,-0.89574,30,4
30.3009,2.0976,4.81067,14,12
23.5168,1.62384,4.58209,27,13
8.30689,0.572133,-0.436377,79,6
16.1307,1.10817,3.73284,5,14
8.8878,0.609031,-0.155501,67,7
9.34765,0.625787,0.163529,31,8
0.575546,0.0384295,-0.133171,14,1
10.4644,0.696882,0.549632,44,9
0.664072,0.0442241,-0.129368,27,2
18.8622,1.25283,1.65387,23,10
6.32118,0.418745,-1.00337,41,3
19.6651,1.29926,2.41984,5,11
7.30122,0.481108,-0.898421,31,4
12.1678,0.799651,1.93134,6,12
8.09555,0.53203,-0.709796,26,5
27.2151,1.78378,5.30144,18,13
8.22713,0.537794,-0.432086,79,6
16.1656,1.05388,3.74004,17,14
8.35109,0.54297,-0.146077,65,7
11.4974,0.745522,3.08719,31,15
9.34778,0.593029,0.163494,30,8
0.529,0.0334671,-0.122373,15,1
10.4429,0.658843,0.548376,47,9
0.679897,0.0428949,-0.132421,26,2
18.0353,1.13469,1.58101,77,10
6.33049,0.39717,-1.00462,50,3
19.7409,1.23508,2.42861,30,11
7.34842,0.458463,-0.904027,35,4
12.1882,0.758274,1.93416,9,12
8.18485,0.50921,-0.717466,36,5
27.1291,1.68306,5.2835,18,13
8.25886,0.51092,-0.433656,79,6
22.2688,1.37372,5.15093,31,14
8.36092,0.514309,-0.146216,100,7
11.4498,0.702306,3.07373,39,15
10.9407,0.655752,0.191313,41,8
0.529113,0.0316205,-0.122373,15,1
13.2423,0.789058,0.695231,32,9
0.680043,0.0405211,-0.132421,26,2
15.9369,0.946828,1.39676,25,10
6.34367,0.375773,-1.0065,52,3
12.0464,0.711468,1.48169,14,11
7.34998,0.432808,-0.904027,28,4
12.2697,0.720358,1.94667,33,12
27.1975,1.59202,5.29571,37,13
8.09909,0.472665,-0.425177,43,6
22.2345,1.29372,5.14193,42,14
8.44452,0.489866,-0.147647,100,7
11.593,0.670479,3.11152,15,15
10.6255,0.59964,0.185763,20,8
0.568134,0.0319627,-0.131371,14,1
13.235,0.742273,0.694708,11,9
0.688021,0.038587,-0.133948,26,2
12.4231,0.694561,1.08858,58,10
6.34889,0.353845,-1.00713,45,3
12.0329,0.668536,1.47974,52,11
7.37126,0.408248,-0.906464,30,4
12.5482,0.692766,1.99047,50,12
8.07091,0.444168,-0.707182,13,5
27.3676,1.50613,5.32777,7,13
8.33601,0.457302,-0.437529,79,6
22.0755,1.20716,5.10414,5,14
8.47812,0.462126,-0.148206,100,7
11.5933,0.629906,3.11101,30,15
15.3602,0.813056,0.268488,24,8
0.529321,0.0279261,-0.122373,15,1
12.5973,0.6624,0.661108,20,9
0.676395,0.0354483,-0.131658,26,2
18.2095,0.951143,1.5953,27,10
6.34028,0.330061,-1.00556,48,3
19.3463,1.00713,2.37865,20,11
7.40634,0.384262,-0.910608,33,4
23.7731,1.22094,4.62712,13,13
8.36356,0.428075,-0.438889,83,6
16.4357,0.838352,3.79942,17,14
9.10877,0.464619,-0.159201,100,7
11.5144,0.585312,3.08926,29,15
15.2052,0.748984,0.26573,33,8
0.568348,0.0278961,-0.131371,14,1
12.4999,0.611349,0.655874,27,9
0.672592,0.0328954,-0.130895,27,2
18.0754,0.880877,1.58327,27,10
6.35915,0.308788,-1.00838,50,3
19.3003,0.933818,2.37255,25,11
7.48107,0.360652,-0.919626,35,4
7.8967,0.379304,-0.691668,35,5
23.6086,1.12988,4.5943,30,13
8.08969,0.385748,-0.424445,83,6
16.4814,0.783006,3.80932,27,14
8.63502,0.40873,-0.150894,100,7
11.5088,0.542744,3.08719,55,15
15.032,0.687855,0.262659,25,8
0.552868,0.0252025,-0.127772,14,1
12.0291,0.546237,0.631067,33,9
0.688393,0.0312597,-0.133948,26,2
17.4275,0.788331,1.52627,26,10
6.37992,0.287482,-1.01151,56,3
29.0286,1.30295,3.56785,11,11
7.6092,0.340209,-0.935225,37,4
7.9338,0.353338,-0.694806,15,5
23.326,1.03475,4.53858,28,13
7.93137,0.350452,-0.416071,65,6
13.3963,0.589588,3.09578,12,14
8.75026,0.383575,-0.152883,82,7
11.995,0.523715,3.21712,10,15
15.2141,0.642982,0.2658,37,8
0.529589,0.022289,-0.122373,15,1
11.9989,0.505002,0.629392,75,9
0.664959,0.0278698,-0.129368,27,2
11.9857,0.500258,1.04953,9,10
6.38088,0.265208,-1.01151,43,3
12.2276,0.506072,1.50265,38,11
7.9376,0.327135,-0.975442,49,4
8.05642,0.330623,-0.705439,35,5
23.2903,0.951715,4.53095,13,13
8.03831,0.327069,-0.421619,58,6
13.3146,0.539427,3.07643,63,14
8.83541,0.357958,-0.154349,22,7
12.0083,0.484399,3.22023,40,15
10.3806,0.404227,0.181331,16,8
0.52966,0.0205326,-0.122373,15,1
12.0864,0.46643,0.633893,36,9
0.680747,0.0261519,-0.132421,26,2
17.5361,0.670604,1.53534,13,10
6.3916,0.244423,-1.01307,46,3
12.2035,0.464548,1.49948,7,11
8.15685,0.309081,-1.00225,42,4
8.20287,0.307953,-0.718163,28,5
23.0795,0.866453,4.48935,2,13
8.13515,0.303993,-0.426643,83,6
13.4487,0.500192,3.10702,17,14
8.64077,0.319863,-0.150928,82,7
12.4134,0.457353,3.32841,12,15
14.7165,0.521628,0.257039,25,8
0.529728,0.0186839,-0.122373,15,1
12.0999,0.426772,0.634521,70,9
0.676906,0.0237564,-0.131658,26,2
10.3959,0.363035,0.91008,26,10
6.40031,0.222389,-1.01432,41,3
31.8457,1.10095,3.91249,12,11
7.79482,0.268116,-0.957649,42,4
7.96689,0.272642,-0.69742,8,5
22.4721,0.765114,4.37067,27,13
8.04634,0.27255,-0.421933,68,6
13.4231,0.452329,3.10073,29,14
8.72772,0.294105,-0.152429,99,7
11.9283,0.399872,3.19797,6,15
14.7042,0.47237,0.256795,30,8
0.529787,0.0169271,-0.122373,15,1
10.4504,0.332071,0.547957,40,9
0.665211,0.0210212,-0.129368,27,2
10.3095,0.323993,0.902411,26,10
6.40101,0.201162,-1.01432,41,3
10.1567,0.317417,1.2477,17,11
8.03178,0.249601,-0.986654,39,4
22.702,0.70155,3.59737,29,12
12.3313,0.378913,2.39809,25,13
8.38657,0.256232,-0.439727,100,6
12.6064,0.382964,2.91177,36,14
8.7127,0.263156,-0.15215,66,7
11.9431,0.358635,3.20159,21,15
14.674,0.412452,0.256236,52,8
0.553226,0.015453,-0.127772,14,1
10.3557,0.289263,0.542933,72,9
0.688837,0.0191207,-0.133948,26,2
12.1828,0.336042,1.06626,11,10
6.44126,0.176546,-1.02058,35,3
10.1341,0.275992,1.24477,80,11
7.75292,0.209789,-0.952287,61,4
22.6947,0.614103,3.5958,31,12
8.40883,0.226069,-0.735943,22,5
12.3268,0.329249,2.39694,23,13
8.54326,0.226699,-0.447891,61,6
12.6079,0.332352,2.91177,34,14
7.96002,0.209832,-0.138991,86,7
11.9367,0.312575,3.19952,48,15
14.7652,0.366015,0.257807,58,8
0.529897,0.0130431,-0.122373,15,1
10.3787,0.253647,0.544085,78,9
0.698713,0.0169543,-0.135856,25,2
10.5705,0.25465,0.925071,40,10
6.46748,0.155805,-1.02465,33,3
10.1171,0.241955,1.24258,23,11
7.63847,0.181347,-0.93815,30,4
12.4315,0.292969,1.96951,11,12
8.33786,0.195035,-0.729668,55,5
8.49405,0.19721,-0.445274,87,6
16.1897,0.373056,3.73869,12,14
8.68441,0.198592,-0.151627,90,7
12.5152,0.284014,3.3543,9,15
15.0823,0.321195,0.263322,25,8
0.529939,0.0111934,-0.122373,15,1
0.688951,0.0144315,-0.133948,26,2
10.5215,0.218558,0.920713,12,10
6.48181,0.133514,-1.02684,36,3
12.1681,0.248511,1.49436,21,11
7.55967,0.153073,-0.928401,53,4
27.1165,0.544337,4.29569,12,12
8.39228,0.167002,-0.734374,13,5
40.5685,0.80729,7.88728,8,13
8.39285,0.165548,-0.439936,87,6
16.2669,0.318022,3.75623,2,14
7.88132,0.152706,-0.137595,23,7
13.2906,0.255194,3.56187,7,15
15.1353,0.269475,0.264229,51,8
0.529975,0.00934338,-0.122373,15,1
10.4021,0.181572,0.545236,69,9
0.688999,0.0119064,-0.133948,26,2
20.6879,0.35389,1.81022,31,10
6.50596,0.110156,-1.03059,37,3
12.0835,0.204593,1.48388,38,11
27.29,0.452534,4.32291,18,12
40.367,0.655289,7.84759,8,13
8.36943,0.134402,-0.43868,100,6
12.7432,0.202414,2.94236,23,14
13.9521,0.221617,-0.243566,8,7
13.1968,0.207309,3.5365,25,15
15.1342,0.213968,0.264195,19,8
0.530006,0.00740098,-0.122373,15,1
10.3708,0.143002,0.543561,40,9
0.712594,0.0098259,-0.138527,24,2
20.6054,0.280529,1.8029,38,10
6.50433,0.0874201,-1.03028,45,3
19.3728,0.256985,2.37889,61,11
6.34381,0.083045,-0.778989,10,4
27.0802,0.349784,4.28943,12,12
8.17212,0.104126,-0.715026,17,5
42.6698,0.543682,8.29485,9,13
8.51564,0.107017,-0.446321,97,6
7.86822,0.0961335,-0.13735,62,7
13.126,0.158082,3.51735,26,15
15.1888,0.161716,0.265137,30,8
0.530028,0.00555072,-0.122373,15,1
10.2394,0.105445,0.536653,27,9
0.712625,0.0072142,-0.138527,24,2
21.0924,0.209846,1.84544,32,10
6.50856,0.0636169,-1.0309,38,3
12.6663,0.123804,1.5553,32,11
6.35399,0.0609971,-0.780208,4,4
27.0457,0.254913,4.2838,11,12
7.54286,0.0697734,-0.659943,6,5
36.6996,0.333092,7.13397,6,13
8.7137,0.0775663,-0.456684,21,6
7.84651,0.0684737,-0.136966,15,7
13.1535,0.112496,3.5246,40,15
15.2133,0.106209,0.265556,34,8
0.553429,0.00376734,-0.127772,14,1
12.9699,0.0860197,0.679739,37,9
0.704793,0.00467436,-0.137001,24,2
21.2205,0.137036,1.85659,37,10
6.52257,0.0409856,-1.03309,41,3
19.4099,0.118568,2.38328,56,11
6.8941,0.0409105,-0.846505,37,4
20.0438,0.115454,3.17468,17,12
7.54904,0.0434831,-0.660466,10,5
12.2544,0.068442,2.38206,12,13
6.96035,0.0376593,-0.364782,33,6
7.52676,0.0380966,-0.131382,7,7
10.3064,0.0359771,0.179899,58,8
0.530054,0.00175779,-0.122373,15,1
10.182,0.0319937,0.533617,43,9
0.704805,0.00221463,-0.137001,24,2
19.4695,0.0577699,1.70337,38,10
6.51477,0.0181936,-1.03184,42,3
19.4399,0.0508873,2.38693,56,11
6.87832,0.016808,-0.844555,42,4
20.2278,0.0458989,3.20378,13,12
22.5852,0.0472957,4.39013,10,13
6.94046,0.013326,-0.363735,40,6
7.41486,0.0116452,-0.129427,28,7
11.8017,0.0164808,3.16225,36,15
10.2584,-0,0.179062,51,8
0.553442,-9.65939e-05,-0.127772,14,1
17.7057,-0.00618046,0.927917,29,9
0.696955,-0.000243283,-0.135474,25,2
19.5055,-0.0102131,1.70651,49,10
6.51479,-0.00454818,-1.03184,46,3
19.4202,-0.0169473,2.3845,51,11
8.17064,-0.00855627,-1.00323,52,4
23.1316,-0.0282607,3.6637,15,12
8.22059,-0.0100434,-0.719209,21,5
41.6543,-0.0581605,8.09679,17,13
7.02235,-0.0110307,-0.368026,38,6
12.5206,-0.0218527,2.89062,61,14
8.57668,-0.0164661,-0.149707,100,7
11.7514,-0.0246122,3.14879,66,15
16.1194,-0.0562677,0.281368,22,8
0.530054,-0.00194276,-0.122373,15,1
13.1539,-0.0505074,0.689369,17,9
0.685171,-0.00263088,-0.133185,26,2
19.5791,-0.0785958,1.71296,31,10
6.50288,-0.0272394,-1.02996,42,3
19.4438,-0.0848401,2.38742,46,11
7.93235,-0.0359961,-0.97398,37,4
23.0544,-0.108642,3.65149,23,12
7.15061,-0.0336967,-0.625604,12,5
22.9934,-0.112368,4.46951,34,13
7.0063,-0.0354623,-0.367189,31,6
12.5809,-0.065874,2.90457,59,14
9.08848,-0.0491739,-0.158642,41,7
11.7204,-0.0654595,3.14051,41,15
20.5364,-0.143373,0.358472,18,8
0.530044,-0.00379298,-0.122373,15,1
0.700863,-0.00513769,-0.136238,25,2
19.6524,-0.147492,1.71941,28,10
6.54621,-0.0502722,-1.03685,46,3
19.3481,-0.151963,2.37572,51,11
8.0751,-0.0648324,-0.991529,49,4
23.0677,-0.189229,3.65368,31,12
22.9555,-0.192316,4.46226,44,13
6.96019,-0.0595258,-0.364782,37,6
12.5319,-0.109364,2.89332,48,14
10.1441,-0.0902964,-0.177072,100,7
11.1618,-0.101304,2.99091,15,15
16.2986,-0.170685,0.284509,9,8
0.530027,-0.00564315,-0.122373,15,1
12.7977,-0.13849,0.670738,22,9
0.71262,-0.00771159,-0.138527,24,2
20.1618,-0.221699,1.76403,29,10
6.53216,-0.072968,-1.03466,56,3
19.9727,-0.226593,2.4525,57,11
7.80288,-0.0898867,-0.958137,20,4
23.1024,-0.270165,3.65932,27,12
7.37134,-0.0862022,-0.644952,15,5
22.9802,-0.272748,4.46722,34,13
6.94197,-0.0836046,-0.36384,37,6
12.5451,-0.153274,2.89647,25,14
10.1397,-0.125656,-0.177002,44,7
11.144,-0.140047,2.98625,15,15
16.4599,-0.229838,0.287336,17,8
0.553387,-0.00782384,-0.127772,14,1
12.879,-0.184333,0.675029,22,9
0.685106,-0.0098057,-0.133185,26,2
19.7385,-0.285957,1.72708,7,10
6.56742,-0.0962903,-1.04029,38,3
19.7793,-0.293453,2.42886,25,11
7.91566,-0.118822,-0.97203,60,4
32.268,-0.490007,5.11134,16,12
7.30525,-0.110934,-0.6392,27,5
23.0341,-0.353806,4.47791,21,13
6.93764,-0.107774,-0.36363,64,6
12.5971,-0.19789,2.90862,23,14
7.69186,-0.122176,-0.134279,100,7
11.1511,-0.17907,2.98832,47,15
9.56909,-0.167029,0.167054,38,8
0.529975,-0.00934327,-0.122373,15,1
10.0666,-0.179228,0.527651,58,9
0.700771,-0.0124767,-0.136238,25,2
19.7753,-0.355536,1.73039,49,10
6.57297,-0.119322,-1.04123,41,3
19.5638,-0.358565,2.40253,46,11
7.81993,-0.144689,-0.960331,51,4
38.2465,-0.714337,6.05871,11,12
7.33071,-0.136917,-0.641466,15,5
30.4349,-0.573751,5.91699,23,13
7.0191,-0.133548,-0.367922,49,6
12.5183,-0.240365,2.89062,23,14
7.74337,-0.150032,-0.135186,61,7
8.38888,-0.175722,0.146461,20,8
0.529939,-0.0111932,-0.122373,15,1
9.97405,-0.21241,0.522836,82,9
0.696797,-0.0148392,-0.135474,25,2
6.57646,-0.142351,-1.04185,46,3
19.5068,-0.425641,2.39571,61,11
7.91662,-0.174124,-0.972274,55,4
32.6588,-0.724023,5.17391,4,12
7.31622,-0.163473,-0.640246,22,5
30.3797,-0.678801,5.90668,4,13
7.04654,-0.158678,-0.369387,38,6
23.3126,-0.529037,5.38353,17,14
7.92072,-0.181129,-0.138293,78,7
11.6054,-0.267417,3.11049,36,15
8.51216,-0.208033,0.148625,47,8
0.553275,-0.0136184,-0.127772,14,1
9.94729,-0.246581,0.521476,86,9
0.708514,-0.0176869,-0.137764,24,2
45.5914,-1.14608,3.98999,15,10
6.62527,-0.167703,-1.04968,50,3
19.5806,-0.495638,2.40497,51,11
7.27102,-0.185319,-0.893059,11,4
20.6813,-0.530723,3.27668,8,12
6.79776,-0.175631,-0.594925,30,5
30.4378,-0.791726,5.91851,18,13
6.996,-0.183197,-0.36677,80,6
12.5163,-0.329937,2.89062,19,14
8.23988,-0.217208,-0.143878,100,7
11.6276,-0.308541,3.1167,37,15
8.49335,-0.238724,0.148311,13,8
0.529845,-0.014985,-0.122373,15,1
10.118,-0.287924,0.530477,62,9
0.712373,-0.0202717,-0.138527,24,2
25.3726,-0.72645,2.22073,23,10
6.85369,-0.197427,-1.08597,45,3
19.664,-0.569874,2.41545,30,11
20.5667,-0.603219,3.25884,10,12
6.96041,-0.204148,-0.609219,22,5
27.6659,-0.816272,5.38005,7,13
7.56828,-0.224621,-0.396811,39,6
8.20905,-0.246507,-0.143354,96,7
11.6225,-0.351039,3.11566,40,15
8.62238,-0.272476,0.150579,33,8
0.52979,-0.0168344,-0.122373,15,1
10.0171,-0.320051,0.525244,78,9
0.704449,-0.0225074,-0.137001,24,2
25.37,-0.815012,2.22073,17,10
6.58445,-0.212676,-1.04342,30,3
19.8424,-0.644374,2.43763,42,11
7.26554,-0.237214,-0.892571,20,4
20.369,-0.668591,3.22787,16,12
6.87204,-0.225567,-0.601549,45,5
25.3358,-0.836047,4.92745,13,13
7.46365,-0.247595,-0.391368,45,6
12.5507,-0.418543,2.89917,57,14
8.09622,-0.271408,-0.141399,100,7
11.6019,-0.390957,3.11049,63,15
8.61338,-0.302291,0.15044,60,8
0.549203,-0.0193705,-0.126872,15,1
10.0199,-0.355157,0.525453,36,9
0.70829,-0.0251054,-0.137764,24,2
21.329,-0.759732,1.86722,8,10
