x, y, z, intensity, ring
-0.566523,-0.0397146,-0.00991297,8,7
-0.530768,-0.0362772,-0.122823,15,1
-2.00978,-0.134898,0.39154,1,13
-0.561969,-0.0376215,-0.0295175,16,6
-0.566658,-0.0377367,-0.00991297,8,7
-0.530891,-0.0344243,-0.122823,15,1
-0.56678,-0.0358575,-0.00991297,8,7
-0.531002,-0.0326636,-0.122823,15,1
-1.90482,-0.114835,0.370933,1,13
-0.531113,-0.0308099,-0.122823,15,1
-1.85817,-0.105515,0.361774,11,13
-0.559031,-0.0314505,-0.00977335,8,7
-0.531218,-0.0289558,-0.122823,15,1
-1.86049,-0.0991323,0.362155,11,13
-0.531315,-0.0271012,-0.122823,15,1
-2.0893,-0.104743,0.331328,1,12
-1.87847,-0.0935159,0.36559,3,13
-0.603172,-0.0298166,-0.0105413,8,7
-0.531402,-0.0253392,-0.122823,15,1
-2.06597,-0.0963447,0.327574,1,12
-1.867,-0.0867394,0.3633,1,13
-0.562625,-0.0260408,-0.0295175,16,6
-0.595282,-0.0273439,-0.0104016,8,7
-1.99134,-0.0876403,0.104463,1,9
-1.87514,-0.0805592,0.364827,1,13
-0.562712,-0.0240765,-0.0295175,16,6
-0.595373,-0.025266,-0.0104016,8,7
-2.01957,-0.0818206,0.105928,1,9
-2.01466,-0.081269,0.176403,1,10
-1.87541,-0.0740132,0.364827,1,13
-0.562793,-0.0221121,-0.0295175,16,6
-0.575476,-0.0224094,-0.0100526,8,7
-2.07172,-0.077053,0.108649,1,9
-2.03882,-0.0751167,0.178495,1,10
-0.587538,-0.0209281,-0.010262,8,7
-2.06797,-0.0700472,0.10844,1,9
-2.01517,-0.0675542,0.176403,1,10
-0.567618,-0.018334,-0.00991297,8,7
-2.1201,-0.0647749,0.111162,1,9
-0.567675,-0.0164516,-0.00991297,17,7
-0.563729,-0.0144664,-0.00984316,8,7
-0.567776,-0.0124882,-0.00991297,8,7
-0.599806,-0.011098,-0.0104714,8,7
-0.563189,-0.00658602,-0.0295175,16,6
-0.567876,-0.00654185,-0.00991297,8,7
-0.531982,-0.00510684,-0.122823,15,1
-2.02912,-0.0194789,0.106347,2,9
-2.03613,-0.0188354,0.178146,2,10
-0.563208,-0.0046202,-0.0295175,16,6
-0.615886,-0.00494485,-0.0107507,7,7
-2.05314,-0.0129005,0.107603,5,9
-2.00032,-0.0118708,0.175009,5,10
-0.56322,-0.00275249,-0.0295175,16,6
-0.567907,-0.00267628,-0.00991297,8,7
-2.05317,-0.00573352,0.107603,4,9
-2.02028,-0.00528955,0.176752,2,10
-0.567913,-0.000693881,-0.00991297,8,7
-0.579541,0.00414712,-0.155291,12,0
-0.579524,0.00606894,-0.155291,12,0
-0.529277,0.00729817,-0.141833,14,0
-1.92136,0.0285058,0.235939,1,11
-0.533113,0.00911938,-0.142868,14,0
-1.89545,0.0344088,0.23277,2,11
-0.553788,0.0103432,-0.0484586,11,5
-0.579431,0.0120362,-0.155291,12,0
-1.91318,0.0414112,0.234964,2,11
-0.609522,0.0135125,-0.0533393,10,5
-0.662922,0.014928,-0.0347511,13,6
-0.579385,0.0140587,-0.155291,12,0
-1.90508,0.0482226,0.233989,1,11
-0.58557,0.0150269,-0.0512476,10,5
-0.662866,0.0172418,-0.0347511,13,6
-0.553652,0.016045,-0.0484586,11,5
-0.553593,0.0179777,-0.0484586,11,5
-0.562927,0.0183792,-0.0295175,16,6
-0.57921,0.020024,-0.155291,12,0
-0.553526,0.01991,-0.0484586,11,5
-0.61716,0.0243561,-0.0540366,10,5
-0.662565,0.0263798,-0.0347511,13,6
-0.57906,0.0239661,-0.155291,12,0
-0.553378,0.0236771,-0.0484586,11,5
-0.553297,0.0255121,-0.0484586,11,5
-0.667173,0.0311129,-0.0116582,7,7
-0.578883,0.0279069,-0.155291,12,0
-0.593003,0.0294177,-0.0519448,10,5
-0.762009,0.037935,-0.0399847,10,6
-0.578788,0.0298264,-0.155291,12,0
-0.608819,0.0322265,-0.0533393,10,5
-0.608703,0.0343515,-0.0533393,10,5
-0.761733,0.0431208,-0.0399847,10,6
-0.608579,0.0364759,-0.0533393,10,5
-0.552779,0.0349716,-0.0484586,11,5
-1.78377,0.11879,0.283146,1,12
-0.55266,0.0368045,-0.0484586,11,5
-0.761249,0.0509625,-0.0399847,10,6
-1.72028,0.120595,0.273135,2,12
-0.552528,0.0387334,-0.0484586,11,5
-0.578051,0.0417393,-0.155291,12,0
-1.7179,0.126155,0.272822,4,12
-0.59213,0.0435872,-0.0519448,10,5
-0.760875,0.0562756,-0.0399847,10,6
-0.577901,0.043757,-0.155291,12,0
-1.7017,0.130938,0.270319,2,12
-0.607866,0.0468793,-0.0533393,10,5
-0.760684,0.0587985,-0.0399847,10,6
-0.566209,0.043965,-0.00991297,8,7
-0.577753,0.045673,-0.155291,12,0
-1.69138,0.136085,0.268754,2,12
-0.623595,0.0501731,-0.0547338,9,5
-0.57759,0.0476896,-0.155291,12,0
-1.7342,0.145625,0.275638,1,12
-0.583708,0.0490154,-0.0512476,10,5
-0.760255,0.0641075,-0.0399847,10,6
-0.527377,0.0453976,-0.141833,14,0
-0.53003,0.0458124,-0.122823,15,1
-0.551777,0.0482742,-0.0484586,11,5
-1.51641,0.133735,0.407899,1,15
-0.53876,0.0482726,-0.144939,14,0
-0.615099,0.0559783,-0.0540366,10,5
-1.46908,0.134214,0.340576,1,14
-1.4967,0.137264,0.402722,1,15
-0.550139,0.0511316,-0.148044,13,0
-0.61491,0.0580177,-0.0540366,10,5
-0.759554,0.0719327,-0.0399847,10,6
-1.48024,0.140445,0.343275,1,14
-1.54239,0.146614,0.415146,1,15
-0.576878,0.0556486,-0.155291,12,0
-0.602806,0.0589994,-0.0529907,10,5
-1.46813,0.14421,0.340576,1,14
-0.609475,0.061156,-0.119065,15,2
-0.614501,0.062202,-0.0540366,10,5
-1.47665,0.149732,0.288503,1,13
-0.576486,0.0595739,-0.155291,12,0
-0.675651,0.0701792,-0.13204,13,2
-0.622206,0.0651769,-0.0547338,9,5
-1.47612,0.154885,0.288503,1,13
-0.576274,0.0615859,-0.155291,12,0
-0.577801,0.062055,-0.112959,16,2
-0.614051,0.0664903,-0.0540366,10,5
-0.576067,0.0634965,-0.155291,12,0
-0.577592,0.0639707,-0.112959,16,2
-0.590066,0.0658736,-0.0519448,10,5
-0.537463,0.0610461,-0.144939,14,0
-0.628092,0.071673,-0.122881,15,2
-0.589845,0.06783,-0.0519448,10,5
-0.575621,0.0674162,-0.155291,12,0
-0.577143,0.0679008,-0.112959,16,2
-0.550034,0.0651981,-0.0484586,11,5
-0.575394,0.0693247,-0.155291,12,0
-0.576914,0.0698143,-0.112959,16,2
-0.613102,0.0747364,-0.0540366,10,5
-0.575149,0.0713327,-0.155291,12,0
-0.631217,0.0786221,-0.123644,14,2
-0.676098,0.0848117,-0.0596145,8,5
-0.574896,0.0733399,-0.155291,12,0
-0.627044,0.0803262,-0.122881,15,2
-0.604662,0.0779952,-0.0533393,10,5
-0.574637,0.0753464,-0.155291,12,0
-0.607295,0.0799519,-0.119065,15,2
-0.588585,0.0780113,-0.0519448,10,5
-1.56866,0.207911,0.307584,1,13
-0.574384,0.0772514,-0.155291,12,0
-0.599244,0.0809146,-0.117538,16,2
-0.64755,0.0880124,-0.0571742,9,5
-1.56793,0.213386,0.307584,2,13
-1.29008,0.176261,0.348888,1,15
-0.598958,0.0830057,-0.117538,16,2
-0.647239,0.0902725,-0.0571742,9,5
-1.53416,0.213974,0.301097,2,13
-1.25885,0.176472,0.340606,1,15
-0.573831,0.0812595,-0.155291,12,0
-0.631708,0.0897928,-0.124026,14,2
-0.627197,0.0897101,-0.0554311,9,5
-1.55085,0.2221,0.304531,2,13
-1.25823,0.180865,0.340606,1,15
-0.573543,0.083262,-0.155291,12,0
-0.627505,0.0914312,-0.123263,15,2
-0.599281,0.0878529,-0.0529907,10,5
-1.53263,0.224679,0.301097,2,13
-1.29963,0.191449,0.351994,1,15
-0.607781,0.0906165,-0.119446,15,2
-0.646275,0.0969324,-0.0571742,9,5
-1.52213,0.22857,0.299189,2,13
-1.31424,0.198291,0.356135,1,15
-0.607461,0.0927374,-0.119446,15,2
-0.645933,0.0991877,-0.0571742,9,5
-1.52132,0.233881,0.299189,1,13
-1.31354,0.202877,0.356135,1,15
-0.572656,0.0891635,-0.155291,12,0
-0.611013,0.0954634,-0.12021,15,2
-0.645582,0.101442,-0.0571742,9,5
-1.49722,0.235529,0.294609,1,13
-1.33194,0.210244,0.361311,1,15
-0.572357,0.091062,-0.155291,12,0
-0.61457,0.0981081,-0.120973,15,2
-0.645243,0.103582,-0.0571742,9,5
-1.29691,0.209124,0.351994,1,15
-0.572052,0.0929595,-0.155291,12,0
-0.606491,0.0988819,-0.119446,15,2
-0.629166,0.103143,-0.0557797,9,5
-1.26567,0.208623,0.343712,1,15
-0.571724,0.0949558,-0.155291,12,0
-0.606142,0.100998,-0.119446,15,2
-0.664173,0.111263,-0.0589173,8,5
-0.571389,0.0969508,-0.155291,12,0
-0.591719,0.100613,-0.13857,13,1
-0.621269,0.105749,-0.122499,15,2
-0.61272,0.104844,-0.0543852,9,5
-0.571047,0.0989449,-0.155291,12,0
-0.556821,0.09658,-0.130472,14,1
-0.601553,0.104555,-0.118683,15,2
-0.628052,0.109725,-0.0557797,9,5
-0.570716,0.100838,-0.155291,12,0
-0.560318,0.0992025,-0.131371,14,1
-0.636,0.112716,-0.125552,14,2
-0.627684,0.111808,-0.0557797,9,5
-0.57036,0.10283,-0.155291,12,0
-0.579164,0.104521,-0.13587,13,1
-0.589236,0.106551,-0.116393,16,2
-0.595926,0.108298,-0.0529907,10,5
-0.570016,0.10472,-0.155291,12,0
-0.590295,0.108659,-0.13857,13,1
-0.600464,0.110639,-0.118683,15,2
-0.626909,0.116077,-0.0557797,9,5
-0.569647,0.10671,-0.155291,12,0
-0.559267,0.104967,-0.131371,14,1
-0.627087,0.117809,-0.124026,14,2
-0.665656,0.125657,-0.0592659,8,5
-0.569271,0.108697,-0.155291,12,0
-0.568467,0.10875,-0.133621,14,1
-0.611247,0.117044,-0.120973,15,2
-0.626083,0.120451,-0.0557797,9,5
-0.568888,0.110684,-0.155291,12,0
-0.571929,0.111379,-0.134521,14,1
-0.610834,0.119177,-0.120973,15,2
-0.699956,0.137199,-0.0624035,7,5
-0.568518,0.11257,-0.155291,12,0
-0.57536,0.114133,-0.135421,13,1
-0.62199,0.123496,-0.123263,15,2
-0.64088,0.127828,-0.0571742,9,5
-0.567317,0.114597,-0.133621,14,1
-0.621555,0.125666,-0.123263,15,2
-0.577949,0.117375,-0.0515962,10,5
-1.20765,0.246357,0.330253,1,15
-0.567718,0.116536,-0.155291,12,0
-0.574549,0.118147,-0.135421,13,1
-0.621112,0.127835,-0.123263,15,2
-0.579487,0.119795,-0.0517705,21,5
-1.13873,0.236234,0.311618,1,15
-0.499231,0.104295,-0.136656,14,0
-0.566524,0.118456,-0.133621,14,1
-0.647564,0.135637,-0.128605,14,2
-0.557618,0.117305,-0.0498531,22,5
-0.942025,0.198344,-0.0504519,3,6
-0.566107,0.120433,-0.133621,14,1
-0.631749,0.134513,-0.125552,14,2
-0.5884,0.12582,-0.0526421,31,5
-1.13332,0.243169,0.310583,1,15
-0.566488,0.122376,-0.155291,12,0
-0.580943,0.125604,-0.13722,13,1
-0.638951,0.13838,-0.127079,14,2
-0.584063,0.127026,-0.0522934,31,5
-0.940653,0.204752,-0.0504519,3,6
-1.20418,0.262775,0.330253,1,15
-0.566079,0.124253,-0.155291,12,0
-0.569081,0.125121,-0.134521,14,1
-0.552511,0.122084,-0.0495045,33,5
-0.939932,0.208034,-0.0504519,3,6
-1.20331,0.266766,0.330253,1,15
-0.595289,0.132954,-0.140819,13,1
-0.563746,0.126632,-0.0505503,21,5
-1.01718,0.228672,-0.0546387,2,6
-1.24571,0.280733,0.342159,2,15
-0.56522,0.128104,-0.155291,12,0
-0.556814,0.126403,-0.131821,14,1
-0.582724,0.133034,-0.0522934,20,5
-1.00859,0.230442,-0.0542201,2,6
-1.28239,0.293706,0.352512,6,15
-0.582953,0.134478,-0.13812,13,1
-0.584197,0.135517,-0.0524678,20,5
-1.0233,0.237753,-0.0550574,2,6
-1.28135,0.29818,0.352512,10,15
-0.555895,0.130384,-0.131821,14,1
-0.575963,0.135727,-0.0517705,21,5
-0.983589,0.232148,-0.052964,2,6
-1.1531,0.272369,0.27354,1,14
-1.29347,0.305763,0.356135,9,15
-0.582,0.138545,-0.13812,13,1
-0.596801,0.142838,-0.0536879,10,5
-1.05968,0.253624,0.211798,1,13
-1.01778,0.243783,-0.0548481,2,6
-1.13703,0.272558,0.269941,1,14
-1.29803,0.311628,0.357688,5,15
-0.563377,0.135983,-0.155291,12,0
-0.585302,0.141491,-0.13902,13,1
-0.627301,0.15234,-0.0564769,9,5
-1.05879,0.257321,0.211798,1,13
-0.96646,0.235062,-0.0521266,2,6
-1.17016,0.284821,0.27804,1,14
-23.205,5.65247,6.39956,7,15
-0.632569,0.155959,-0.0569999,18,5
-0.864842,0.213386,-0.0466837,5,6
-1.25245,0.309254,0.297835,4,14
-23.7608,5.87581,6.55848,32,15
-0.584325,0.145472,-0.13902,13,1
-0.635914,0.159023,-0.0573485,18,5
-1.05701,0.264522,0.211798,1,13
-1.00359,0.251339,-0.0542201,2,6
-1.2646,0.31694,0.300985,9,14
-23.1997,5.81875,6.40888,31,15
-0.561947,0.141777,-0.155291,12,0
-0.755631,0.191064,-0.151502,9,2
-0.63116,0.159942,-0.0799463,11,4
-0.635355,0.161242,-0.0573485,18,5
-1.12463,0.285411,0.225536,1,13
-1.26731,0.322092,0.301884,11,14
-23.4039,5.95688,6.47099,28,15
-0.753091,0.193081,-0.151121,9,2
-0.576792,0.148202,-0.0731216,12,4
-0.656042,0.168809,-0.0592659,17,5
-1.15025,0.296189,0.230879,1,13
-1.28511,0.331156,0.306383,9,14
-27.2299,7.02692,7.53526,10,15
-0.752447,0.195577,-0.151121,9,2
-0.572456,0.149113,-0.0726341,12,4
-1.09529,0.285506,0.179274,1,12
-0.657407,0.171487,-0.0594402,17,5
-1.29532,0.338371,0.309083,3,14
-23.3134,6.09876,6.45702,14,15
-0.702926,0.185065,-0.167813,9,1
-0.751794,0.198071,-0.151121,9,2
-0.587286,0.155168,-0.074584,12,4
-1.02176,0.269962,0.167385,1,12
-0.647203,0.171119,-0.0585687,17,5
-1.16724,0.308833,0.234695,1,13
-23.0626,6.11064,5.50815,31,14
-23.4331,6.21317,6.49584,29,15
-0.682817,0.182449,-0.137382,12,2
-0.552252,0.147872,-0.0701967,13,4
-1.09332,0.292955,0.179274,1,12
-0.660073,0.176989,-0.0597888,17,5
-1.17758,0.315753,0.236985,2,13
-0.934699,0.251151,-0.0168939,2,7
-22.971,6.17655,6.37368,23,15
-0.630169,0.170505,-0.150717,11,1
-0.621567,0.168294,-0.125171,14,2
-0.582384,0.158121,-0.0740966,12,4
-1.03892,0.282268,0.170514,1,12
-0.65756,0.178655,-0.0596145,8,5
-1.22005,0.331708,0.245762,5,13
-22.8983,6.2342,5.47891,42,14
-22.5132,6.13779,6.25255,13,15
-0.637087,0.174765,-0.152517,11,1
-0.700491,0.19229,-0.141199,11,2
-0.604796,0.166475,-0.0770214,11,4
-1.06459,0.293236,0.174894,1,12
-0.726083,0.199996,-0.0658897,6,5
-1.2397,0.341703,0.24996,12,13
-22.805,6.29439,5.46181,42,14
-23.1098,6.3872,6.42441,17,15
-0.598923,0.166546,-0.143519,12,1
-0.654422,0.182103,-0.13204,13,2
-0.581266,0.162183,-0.0740966,12,4
-1.09019,0.304388,0.179274,1,12
-1.24039,0.346557,0.250341,12,13
-23.7043,6.63175,5.68271,27,14
-22.8902,6.41258,6.36954,16,15
-0.600214,0.169165,-0.143969,25,1
-0.699131,0.197175,-0.141199,11,2
-0.626541,0.177175,-0.0799463,11,4
-1.10053,0.311419,0.181151,1,12
-1.24673,0.353024,0.251868,5,13
-22.7305,6.44494,5.45461,6,14
-22.4681,6.37901,6.25824,29,15
-0.597746,0.170724,-0.143519,25,1
-0.747518,0.213642,-0.151121,9,2
-1.14886,0.329214,0.189286,2,12
-22.985,6.59517,4.64811,23,13
-22.5917,6.49088,5.42672,54,14
-22.3373,6.42199,6.2277,19,15
-0.597176,0.172705,-0.143519,25,1
-1.1515,0.334324,0.189911,5,12
-23.2759,6.76228,4.71146,11,13
-22.7506,6.62688,6.34935,40,15
-0.957642,0.280397,0.0174175,1,8
-0.60218,0.176432,-0.144868,25,1
-1.1864,0.348725,0.195856,11,12
-23.642,6.95823,4.79045,6,13
-22.6255,6.66764,5.44562,12,14
-0.928379,0.273589,-0.0168939,2,7
-0.605328,0.179536,-0.145768,25,1
-1.2041,0.358501,0.198985,11,12
-21.6865,6.46091,4.39853,12,13
-22.5267,6.7198,5.42717,54,14
-0.927418,0.276828,-0.0168939,2,7
-28.8042,8.60331,8.05497,11,15
-0.606564,0.182209,-0.146218,25,1
-0.744541,0.223798,-0.151121,9,2
-0.623419,0.187865,-0.0799463,11,4
-1.22554,0.369546,0.202739,11,12
-21.4608,6.47531,4.35731,26,13
-22.6953,6.85644,5.47351,6,14
-26.7177,8.08183,7.47935,15,15
-0.954704,0.290243,0.0174175,1,8
-0.60406,0.183758,-0.145768,25,1
-1.10508,0.337012,0.141856,2,11
-0.543016,0.165706,-0.0697093,13,4
-15.2558,4.65834,2.52642,11,12
-21.6258,6.60755,4.39548,27,13
-26.3311,8.05525,6.35712,35,14
-0.925463,0.283296,-0.0168939,2,7
-26.5564,8.13431,7.44208,15,15
-0.953685,0.293574,0.0174175,1,8
-0.601553,0.185292,-0.145318,25,1
-1.09251,0.337354,0.140393,4,11
-0.557607,0.172288,-0.0716592,12,4
-20.3878,6.30329,3.37992,31,12
-21.5164,6.65632,4.37792,20,13
-0.919626,0.284672,-0.0504519,3,6
-13.9723,4.32783,3.37697,38,14
-0.924469,0.286525,-0.0168939,2,7
-16.7171,5.1844,4.6898,13,15
-0.883926,0.275481,0.0161609,2,8
-0.604623,0.188551,-0.146218,25,1
-0.618444,0.193216,-0.102621,14,3
-1.16143,0.36308,0.149412,8,11
-0.621418,0.194383,-0.0799463,11,4
-15.2342,4.76828,2.52829,26,12
-18.8382,5.89993,3.83717,10,13
-13.972,4.38124,3.38056,54,14
-0.923463,0.28975,-0.0168939,2,7
-16.7008,5.24331,4.69032,16,15
-0.856355,0.269843,0.0156723,3,8
-0.615179,0.193965,-0.148918,24,1
-0.741425,0.233913,-0.151121,9,2
-0.712016,0.224908,-0.118264,10,3
-1.17543,0.371513,0.151362,18,11
-20.4804,6.47711,3.40214,18,12
-18.8327,5.96323,3.83984,22,13
-0.822519,0.260602,-0.0452183,6,6
-13.9526,4.42335,3.37921,22,14
-0.922599,0.292488,-0.0168939,2,7
-19.3552,6.13983,5.44089,12,15
-0.950717,0.303047,0.0174175,1,8
-0.59968,0.191267,-0.145318,25,1
-1.0666,0.340805,0.0979631,1,10
-0.617183,0.197206,-0.102621,14,3
-1.18364,0.378432,0.15258,22,11
-26.4347,8.46182,4.39612,21,12
-18.8914,6.05081,3.85587,8,13
-13.9379,4.46959,3.37921,58,14
-0.921573,0.295707,-0.0168939,2,7
-16.7622,5.38175,4.71724,36,15
-0.900173,0.290401,0.01651,2,8
-0.584172,0.18857,-0.141719,13,1
-0.739816,0.238954,-0.151121,9,2
-1.0465,0.338213,0.0962199,1,10
-0.710468,0.229749,-0.118264,10,3
-1.18232,0.382561,0.15258,10,11
-26.1716,8.47338,4.35701,27,12
-18.9,6.12639,3.86197,14,13
-0.890154,0.288885,-0.0163355,2,7
-16.7259,5.43134,4.71206,22,15
-0.948632,0.309511,0.0174175,1,8
-0.598364,0.195344,-0.145318,12,1
-0.738977,0.241535,-0.151121,9,2
-1.07562,0.351773,0.0990089,1,10
-0.690927,0.225963,-0.115136,11,3
-20.8474,6.82205,2.69331,6,11
-20.5347,6.72764,3.42247,16,12
-17.8628,5.85573,3.65399,3,13
-0.914728,0.30004,-0.0504519,3,6
-14.8348,4.86881,3.60462,78,14
-0.919538,0.301973,-0.0168939,2,7
-16.6903,5.48427,4.7074,15,15
-0.947546,0.31282,0.0174175,1,8
-0.616182,0.203544,-0.149817,12,1
-0.667338,0.220572,-0.136619,12,2
-1.08768,0.359717,0.100229,5,10
-0.690134,0.228374,-0.115136,11,3
-21.1175,6.99211,2.73134,27,11
-20.7211,6.86889,3.45752,50,12
-15.4403,5.12135,3.16209,13,13
-14.6438,4.86283,3.56232,51,14
-0.888116,0.295092,-0.0163355,2,7
-16.7187,5.55834,4.72086,18,15
-0.946449,0.316126,0.0174175,1,8
-0.615468,0.205694,-0.149817,12,1
-0.737316,0.246559,-0.151121,9,2
-1.12421,0.376156,0.103715,11,10
-0.644376,0.21573,-0.107627,12,3
-18.5933,6.22843,2.40765,20,11
-20.8224,6.98326,3.47848,28,12
-15.4019,5.16835,3.15789,26,13
-0.912611,0.306418,-0.0504519,3,6
-14.6452,4.92013,3.56682,24,14
-0.917408,0.308385,-0.0168939,2,7
-18.9935,6.38834,5.36946,8,15
-0.596285,0.201599,-0.145318,12,1
-1.06327,0.35969,0.0588256,1,9
-0.736451,0.249132,-0.151121,9,2
-1.14554,0.387743,0.105807,16,10
-0.681039,0.230651,-0.113884,11,3
-18.8985,6.40415,2.45006,26,11
-15.4209,5.2347,3.16552,19,13
-0.816978,0.277486,-0.0452183,6,6
-14.5782,4.95429,3.55468,29,14
-0.916326,0.311586,-0.0168939,2,7
-16.8386,5.72906,4.76589,27,15
-0.606641,0.207463,-0.148018,12,1
-1.06201,0.363399,0.0588256,1,9
-0.735577,0.251701,-0.151121,9,2
-1.16303,0.398193,0.10755,15,10
-0.631642,0.216382,-0.10575,13,3
-14.0425,4.8133,1.82268,44,11
-26.2402,9.0045,4.39393,9,12
-17.0942,5.86931,3.51318,11,13
-0.872671,0.299803,-0.0483584,4,6
-14.406,4.95193,3.51688,63,14
-0.896323,0.308279,-0.0165449,2,7
-16.793,5.779,4.75865,12,15
-0.609597,0.210854,-0.148918,12,1
-1.06835,0.36953,0.0592443,1,9
-0.686456,0.237573,-0.141199,11,2
-1.13715,0.393775,0.105284,2,10
-0.612218,0.212119,-0.102621,14,3
-14.0162,4.85904,1.82146,60,11
-27.6995,9.60805,4.6436,13,12
-16.8918,5.86583,3.47578,15,13
-0.958404,0.333001,-0.0531733,2,6
-14.2303,4.94716,3.47819,54,14
-0.914184,0.317816,-0.0168939,2,7
-14.0897,4.90103,3.9972,29,15
-0.619932,0.216733,-0.151617,11,1
-1.11418,0.389744,0.0618611,4,9
-0.733802,0.25683,-0.151121,9,2
-20.9704,7.34374,1.94392,36,10
-0.648798,0.227206,-0.108878,12,3
-14.0356,4.91796,1.82609,44,11
-18.972,6.65505,3.18438,6,12
-0.804622,0.282406,-0.0746053,4,5
-18.671,6.55314,3.84633,19,13
-0.851766,0.299119,-0.0473117,5,6
-14.2506,5.00724,3.48719,47,14
-0.90175,0.317026,-0.0166845,2,7
-14.0452,4.94057,3.98944,41,15
-0.615497,0.217596,-0.150717,11,1
-1.12606,0.398096,0.0625938,9,9
-0.695929,0.246168,-0.143488,11,2
-17.7192,6.27121,1.64445,10,10
-0.640553,0.226832,-0.107627,12,3
-14.0334,4.97223,1.82804,88,11
-18.7245,6.63806,3.14652,17,12
-14.709,5.22028,3.03386,10,13
-0.869538,0.308774,-0.0483584,4,6
-14.1898,5.03882,3.47639,29,14
-0.927074,0.329387,-0.0171732,1,7
-13.6428,4.84993,3.8797,37,15
-0.611102,0.218325,-0.149817,12,1
-1.13978,0.407204,0.0634312,13,9
-0.687714,0.245831,-0.141962,11,2
-17.717,6.33664,1.6462,16,10
-13.9962,5.01138,1.82536,72,11
-15.3476,5.49827,2.58211,5,12
-14.6861,5.26704,3.03272,18,13
-0.86099,0.308957,-0.0479397,5,6
-17.271,6.19753,4.23628,21,14
-0.91092,0.327054,-0.0168939,2,7
-13.6521,4.90429,3.88694,32,15
-0.559051,0.201822,-0.13722,13,1
-1.13272,0.409144,0.0631172,20,9
-0.664737,0.240107,-0.137382,12,2
-20.8326,7.52897,1.938,49,10
-13.987,5.06046,1.82633,40,11
-14.4747,5.24548,2.99265,23,13
-0.874982,0.317257,-0.0487771,4,6
-14.8202,5.37654,3.63971,16,14
-0.92857,0.337054,-0.017243,1,7
-13.5841,4.93345,3.87245,27,15
-0.682827,0.249204,-0.167813,9,1
-1.14442,0.417891,0.0638499,12,9
-0.65283,0.238385,-0.135093,12,2
-20.7894,7.59549,1.93643,49,10
-13.9562,5.10448,1.82463,48,11
-15.2736,5.59238,2.57616,30,12
-0.845657,0.309634,-0.0787888,3,5
-14.4932,5.30948,3.00028,36,13
-0.903873,0.331307,-0.0504519,3,6
-13.9762,5.12562,3.4368,11,14
-0.934896,0.343049,-0.0173826,3,7
-1.04505,0.385333,0.019442,1,8
-0.612478,0.225955,-0.150717,11,1
-1.16176,0.428597,0.0648966,5,9
-0.64831,0.239303,-0.13433,25,2
-21.0599,7.77776,1.96414,13,10
-13.9122,5.14353,1.82122,88,11
-15.9498,5.89999,2.69349,35,12
-0.893152,0.330564,-0.0833209,2,5
-14.3512,5.31436,2.97471,14,13
-0.902711,0.33446,-0.0504519,3,6
-13.9509,5.17167,3.435,33,14
-0.922504,0.341977,-0.0171732,1,7
-1.04752,0.390193,0.0195118,5,8
-19.1012,7.12267,1.06839,6,9
-0.658507,0.245682,-0.136619,25,2
-20.5567,7.67355,1.91969,35,10
-13.9918,5.22576,1.83389,32,11
-15.707,5.87262,2.65594,10,12
-0.821081,0.307153,-0.0766971,4,5
-14.8649,5.56072,3.085,5,13
-0.901597,0.337452,-0.0504519,3,6
-0.94003,0.352211,-0.0175222,1,7
-12.8144,4.80386,3.66695,10,15
-1.07235,0.40371,0.0200005,10,8
-21.3769,8.05635,1.19724,19,9
-0.661363,0.249249,-0.137382,24,2
-17.539,6.61343,1.63992,13,10
-13.8992,5.24652,1.82414,68,11
-0.861061,0.325368,-0.0805319,3,5
-0.892941,0.337771,-0.0500332,3,6
-15.0162,5.68314,3.70674,42,14
-0.942535,0.356906,-0.017592,1,7
-1.09149,0.415273,0.0203844,13,8
-21.3543,8.13306,1.19755,15,9
-0.651316,0.248062,-0.135474,25,2
-18.1562,6.91867,1.69989,28,10
-13.8938,5.29996,1.82585,24,11
-0.791917,0.302245,-0.104076,5,4
-0.852475,0.325528,-0.0798347,3,5
-14.27,5.45205,2.96937,14,13
-0.910413,0.348017,-0.0510799,3,6
-14.9835,5.73064,3.70359,28,14
-0.997312,0.381635,-0.0186392,1,7
-12.7535,4.88284,3.65918,29,15
-1.10497,0.424822,0.0206636,10,8
-0.663271,0.25527,-0.138146,12,2
-20.3445,7.83399,1.90732,43,10
-13.9678,5.38413,1.83803,32,11
-0.790857,0.305008,-0.104076,5,4
-0.851334,0.328502,-0.0798347,3,5
-14.337,5.53506,2.98731,40,13
-0.916645,0.354071,-0.0514986,2,6
-15.0343,5.81031,3.72114,32,14
-1.04074,0.402422,-0.0194769,1,7
-12.7706,4.94057,3.66902,22,15
-17.6836,6.86968,0.331142,18,8
-15.8243,6.15373,0.889816,14,9
-0.680674,0.2647,-0.141962,11,2
-14.9398,5.81277,1.40251,71,10
-14.0266,5.46311,1.84827,12,11
-0.789787,0.307766,-0.104076,5,4
-13.3874,5.21952,2.27581,25,12
-0.835331,0.325682,-0.0784402,3,5
-14.3505,5.59792,2.99417,29,13
-0.928427,0.362352,-0.0522313,4,6
-14.5166,5.66854,3.59787,52,14
-1.0654,0.41624,-0.0199656,1,7
-15.5673,6.0851,4.4786,9,15
-17.317,6.79693,0.324719,10,8
-15.8205,6.21274,0.890758,11,9
-0.701673,0.275689,-0.146541,10,2
-14.9157,5.86342,1.40216,40,10
-13.9871,5.50404,1.84559,44,11
-0.788762,0.310384,-0.104076,5,4
-13.381,5.26822,2.27769,40,12
-0.856434,0.337359,-0.0805319,3,5
-14.4149,5.68109,3.01173,40,13
-0.927157,0.36559,-0.0522313,4,6
-14.4506,5.69806,3.58617,11,14
-1.08634,0.428577,-0.0203844,9,7
-17.2702,6.84474,0.324266,42,8
-15.6457,6.20406,0.88207,50,9
-0.697105,0.276567,-0.145778,21,2
-14.8851,5.90844,1.40112,53,10
-14.7584,5.86412,1.94991,21,11
-0.787729,0.312998,-0.104076,5,4
-15.0982,6.00218,2.57335,36,12
-0.844203,0.335779,-0.079486,3,5
-14.4088,5.73394,3.0144,8,13
-0.931506,0.37088,-0.0525453,4,6
-14.4461,5.75171,3.58977,40,14
-1.09606,0.436618,-0.0205938,16,7
-12.8384,5.11679,3.70318,20,15
-17.2382,6.89826,0.324091,12,8
-0.493891,0.197742,-0.122823,15,1
-15.1578,6.06883,0.855693,72,9
-0.703474,0.281797,-0.147305,10,2
-14.9061,5.97408,1.40495,25,10
-14.8162,5.94408,1.96015,46,11
-0.823534,0.330391,-0.108951,4,4
-13.2798,5.33036,2.26642,33,12
-0.876365,0.351941,-0.0826236,2,5
-0.952509,0.382906,-0.0538014,4,6
-14.0111,5.63241,3.48629,63,14
-1.08533,0.436519,-0.0204193,16,7
-12.8894,5.18675,3.72285,50,15
-19.3084,7.80112,0.363499,36,8
-15.5542,6.28748,0.879244,41,9
-0.680695,0.275295,-0.142725,11,2
-17.5402,7.09739,1.65544,38,10
-14.1194,5.71893,1.87045,20,11
-0.785636,0.318215,-0.104076,5,4
-13.262,5.37437,2.26642,56,12
-0.882578,0.357839,-0.0833209,4,5
-14.3868,5.83602,3.01784,32,13
-0.973441,0.395076,-0.0550574,6,6
-14.2758,5.7939,3.55693,51,14
-1.07461,0.436354,-0.0202448,3,7
-15.0781,6.1594,0.8536,25,9
-0.679682,0.277788,-0.142725,11,2
-14.7755,6.0418,1.39658,56,10
-14.1057,5.77365,1.87143,8,11
-0.821207,0.336132,-0.108951,4,4
-13.319,5.45438,2.27956,51,12
-0.897854,0.367871,-0.0848897,3,5
-13.7931,5.65414,2.89763,50,13
-1.01264,0.415314,-0.0573602,4,6
-14.3464,5.88389,3.57987,56,14
-17.2642,7.0841,-0.325732,73,7
-15.8499,6.50698,4.59093,8,15
-19.2646,7.94029,0.363708,38,8
-14.9985,6.185,0.85025,58,9
-0.675127,0.278543,-0.141962,11,2
-13.98,5.77643,1.85729,44,11
-0.842104,0.34795,-0.111876,3,4
-13.2881,5.49324,2.27737,54,12
-0.89847,0.371607,-0.085064,3,5
-13.7253,5.67958,2.88732,11,13
-1.05555,0.437005,-0.0598723,10,6
-13.684,5.66531,3.41926,31,14
-11.3176,4.68792,-0.213827,77,7
-12.9906,5.38354,3.76789,7,15
-14.9503,6.22319,0.84868,19,9
-0.717696,0.298895,-0.151121,9,2
-13.2932,5.53887,1.25992,46,10
-13.9498,5.81817,1.85583,4,11
-0.848212,0.353945,-0.112851,3,4
-13.2279,5.51978,2.27018,41,12
-0.915619,0.382261,-0.0868071,2,5
-1.05593,0.441273,-0.059977,18,6
-13.1715,5.50708,3.29598,18,14
-11.2799,4.71617,-0.213408,31,7
-12.9852,5.43181,3.77151,24,15
-20.8801,8.7686,0.395297,10,8
-15.5692,6.54468,0.885106,40,9
-0.745604,0.313576,-0.157227,8,2
-13.3087,5.59992,1.26324,79,10
-14.9751,6.30419,1.995,42,11
-0.843375,0.355215,-0.112364,3,4
-13.2431,5.58049,2.27612,66,12
-0.932638,0.393195,-0.0885502,3,5
-13.6222,5.74303,2.87358,27,13
-1.05078,0.44322,-0.0597677,22,6
-13.0239,5.49617,3.26359,67,14
-11.7055,4.94219,-0.221785,100,7
-13.0658,5.5192,3.8005,60,15
-18.6622,7.91396,0.35383,11,8
-0.715645,0.303773,-0.151121,9,2
-13.3157,5.65493,1.26568,66,10
-0.778136,0.330619,-0.133908,6,3
-14.8069,6.29429,1.9755,34,11
-0.860397,0.365926,-0.114801,2,4
-13.1918,5.61046,2.27049,47,12
-0.945995,0.402526,-0.0899447,5,5
-13.4612,5.73056,2.84382,12,13
-1.06944,0.455494,-0.0609191,10,6
-12.9778,5.53014,3.25684,24,14
-11.7074,4.98882,-0.222134,26,7
-13.0954,5.58295,3.81448,29,15
-18.5403,7.93489,0.352015,15,8
-23.8427,10.2141,1.35937,11,9
-13.2849,5.69666,1.26463,52,10
-0.777035,0.333198,-0.133908,6,3
-13.9175,5.97082,1.85948,24,11
-0.859179,0.368777,-0.114801,2,4
-13.174,5.65726,2.2708,78,12
-0.966551,0.415263,-0.0920365,5,5
-10.7967,4.64086,-0.61589,16,6
-13.2351,5.69171,3.32613,24,14
-11.7873,5.07154,-0.223984,100,7
-13.2799,5.71647,3.874,13,15
-18.4905,7.99004,0.351596,15,8
-14.0931,6.09572,0.804718,36,9
-13.244,5.73119,1.26254,22,10
-0.775867,0.335908,-0.133908,6,3
-17.4687,7.56662,2.33745,10,11
-0.861529,0.373353,-0.115288,2,4
-13.2828,5.759,2.29302,52,12
-0.994417,0.431147,-0.0948254,6,5
-10.9398,4.7477,-0.624996,54,6
-11.6962,5.08079,-0.222588,100,7
-11.8531,5.17112,0.225729,50,8
-17.2291,7.52364,0.985277,13,9
-13.3919,5.85077,1.27857,5,10
-0.77469,0.338615,-0.133908,6,3
-13.9992,6.12192,1.87606,20,11
-0.852946,0.373175,-0.114313,3,4
-13.221,5.78711,2.28582,62,12
-1.02028,0.446599,-0.0974401,12,5
-10.8848,4.76902,-0.622798,81,6
-13.1183,5.75033,3.30678,31,14
-11.7425,5.14969,-0.22381,9,7
-13.114,5.75393,3.83725,34,15
-13.3714,5.89748,1.27857,100,10
-0.79519,0.350887,-0.137662,6,3
-13.9251,6.1475,1.86899,57,11
-0.867981,0.383368,-0.116507,5,4
-13.3959,5.91945,2.31961,45,12
-1.03694,0.458211,-0.0991832,13,5
-10.8078,4.78033,-0.619344,77,6
-12.8932,5.7054,3.25504,58,14
-11.6092,5.13965,-0.221611,25,7
-14.6977,6.51006,4.30727,13,15
-29.3162,13.034,0.560013,8,8
-13.8643,6.16988,0.795297,41,9
-0.772307,0.344015,-0.133908,6,3
-13.938,6.21142,1.87362,53,11
-0.895646,0.39933,-0.120407,4,4
-13.3823,5.96939,2.32086,35,12
-1.0226,0.456146,-0.0979631,12,5
-15.6621,6.98961,3.33381,15,13
-10.8676,4.85223,-0.62374,100,6
-12.875,5.75116,3.25549,56,14
-11.5565,5.16464,-0.220947,35,7
-14.95,6.68434,4.38802,36,15
-11.5192,5.16969,0.220389,7,8
-13.7454,6.17164,0.789645,38,9
-14.2113,6.3868,1.36312,33,10
-0.781912,0.351569,-0.135785,6,3
-13.9289,6.26574,1.87533,41,11
-0.91597,0.412229,-0.123332,4,4
-13.4579,6.05671,2.33744,53,12
-1.01737,0.458077,-0.0976144,3,5
-13.998,6.30562,2.98425,7,13
-10.8779,4.90244,-0.62531,100,6
-11.636,5.2465,-0.222797,32,7
-14.8732,6.70925,4.37197,22,15
-21.5061,9.74655,1.23743,13,9
-14.2343,6.45694,1.36747,69,10
-0.773546,0.350896,-0.134534,13,3
-43.0184,19.5231,5.80049,22,11
-0.9634,0.437423,-0.129913,5,4
-13.318,6.04973,2.31679,53,12
-11.6142,5.2782,-1.11612,16,5
-10.8362,4.92691,-0.623845,100,6
-18.6856,8.49979,4.73927,32,14
-11.5138,5.23987,-0.220808,23,7
-15.1275,6.8876,4.45376,13,15
-20.5831,9.4063,0.395018,12,8
-14.2798,6.53479,1.37392,48,10
-0.784889,0.35935,-0.136724,12,3
-13.5087,6.18763,1.82438,36,11
-0.99796,0.457323,-0.134787,11,4
-13.3069,6.09797,2.31836,47,12
-11.5749,5.30671,-1.11402,28,5
-13.8816,6.3672,2.96861,8,13
-10.7608,4.93805,-0.620495,81,6
-30.0028,13.7744,7.62179,11,14
-11.4891,5.27469,-0.220668,24,7
-15.2766,7.01675,4.50449,5,15
-12.5613,5.79086,0.241437,19,8
-14.0238,6.47101,0.809428,20,9
-14.2605,6.58626,1.37427,36,10
-0.790866,0.365264,-0.137975,12,3
-14.054,6.49384,1.90092,8,11
-1.00725,0.465628,-0.13625,24,4
-13.4469,6.21901,2.34652,36,12
-11.5762,5.35629,-1.11594,11,5
-11.8174,5.47041,-0.682461,42,6
-11.536,5.34502,-0.221925,100,7
-15.1241,7.01073,4.4667,55,15
-12.4903,5.81105,0.240459,22,8
-14.2223,6.62595,1.3727,36,10
-0.809281,0.377202,-0.141417,10,3
-13.9377,6.49924,1.88824,45,11
-0.993025,0.463266,-0.134544,25,4
-13.4859,6.29432,2.35715,33,12
-12.7048,5.92973,-1.22663,20,5
-13.9589,6.51802,2.99456,50,13
-11.9647,5.5894,-0.692091,74,6
-13.894,6.49364,3.54073,38,14
-12.3378,5.76895,-0.237737,25,7
-19.0279,8.90118,5.6288,16,15
-12.4663,5.85291,0.240389,39,8
-19.2873,9.06358,1.11685,34,9
-14.3073,6.72641,1.38316,15,10
-0.802597,0.377502,-0.140478,10,3
-13.4569,6.33232,1.82609,28,11
-1.01475,0.477721,-0.137712,12,4
-13.4996,6.35819,2.36341,63,12
-12.127,5.71172,-1.17277,22,5
-14.2237,6.70228,3.05638,37,13
-11.7807,5.55363,-0.682566,61,6
-13.9224,6.56621,3.55378,47,14
-12.0879,5.70361,-0.233304,22,7
-19.0159,8.97661,5.63449,11,15
-11.5802,5.48629,0.22367,55,8
-13.9492,6.61166,0.809009,33,9
-14.2891,6.77887,1.38368,24,10
-0.797705,0.378608,-0.139852,22,3
-13.3934,6.35967,1.82048,32,11
-1.03468,0.491301,-0.140637,9,4
-13.4463,6.38766,2.35778,22,12
-13.2983,6.32018,-1.28816,28,5
-17.7605,8.4447,3.82267,10,13
-11.8226,5.62389,-0.686124,71,6
-13.8988,6.61151,3.55333,15,14
-14.7124,7.00171,-0.284404,47,7
-19.0035,9.04792,5.63967,26,15
-11.5547,5.52121,0.22353,31,8
-13.9236,6.65615,0.8088,47,9
-14.2073,6.79784,1.37793,60,10
-0.828517,0.396603,-0.145484,17,3
-13.306,6.37233,1.81147,24,11
-1.02051,0.488728,-0.138931,12,4
-13.4803,6.45868,2.36748,13,12
-11.0889,5.31531,-1.07585,9,5
-14.2627,6.83968,3.0747,11,13
-11.9983,5.75636,-0.697429,91,6
-13.8996,6.66852,3.55918,40,14
-12.5798,6.03805,-0.243566,100,7
-15.3825,7.38655,4.5723,24,15
-12.3145,5.93453,0.238609,27,8
-14.0514,6.7776,0.817592,25,9
-0.702015,0.338612,-0.151502,9,2
-14.4,6.94883,1.39885,25,10
-0.846765,0.408795,-0.148926,16,3
-13.3367,6.44145,1.81853,32,11
-11.5214,5.56716,-1.57114,13,4
-17.2067,8.31804,3.02701,16,12
-11.0282,5.33124,-1.07167,11,5
-15.6451,7.56649,3.37808,27,13
-11.7527,5.68651,-0.68424,35,6
-13.8833,6.7204,3.56098,63,14
-11.7704,5.70017,-0.228277,100,7
-15.2975,7.41157,4.5547,31,15
-18.063,8.7826,0.350584,20,8
-14.0869,6.85545,0.821047,7,9
-16.3085,7.9401,1.58693,3,10
-0.863092,0.420399,-0.152054,13,3
-13.3409,6.50101,1.82219,4,11
-11.5411,5.62648,-1.5765,32,4
-17.9729,8.76599,3.16717,19,12
-10.9612,5.34612,-1.06696,4,5
-14.1576,6.9082,3.0621,31,13
-11.5371,5.632,-0.672831,16,6
-13.8492,6.76368,3.55828,20,14
-11.6642,5.69909,-0.226602,23,7
-18.984,9.27961,5.66193,14,15
-20.025,9.82315,0.389328,10,8
-14.0217,6.88434,0.818639,4,9
-0.611519,0.300242,-0.132421,13,2
-0.905942,0.445189,-0.159876,16,3
-11.5446,5.67813,-1.57967,29,4
-13.3676,6.57768,2.35966,12,12
-11.729,5.77139,-1.14366,26,5
-13.7424,6.76508,2.97738,39,13
-11.3454,5.58753,-0.662783,48,6
-13.8342,6.81629,3.56053,45,14
-11.3967,5.61776,-0.221785,84,7
-14.133,6.96964,4.22237,13,15
-11.3359,5.60993,0.220773,1,8
-0.698431,0.345944,-0.151502,9,2
-0.936239,0.464142,-0.165508,22,3
-1.42626,0.707381,0.195478,1,11
-11.4411,5.67692,-1.56821,14,4
-15.3245,7.60715,2.70976,31,12
-13.7908,6.84881,2.99303,28,13
-11.5905,5.75862,-0.678274,13,6
-13.8505,6.88449,3.57087,22,14
-14.6171,7.27191,4.37456,8,15
-1.41859,0.708829,0.0831095,2,9
-0.644532,0.322054,-0.140054,11,2
-1.41501,0.707348,0.138403,4,10
-0.943447,0.471825,-0.167072,24,3
-1.4078,0.704361,0.193285,15,11
-13.2949,6.65758,2.35496,36,12
-13.665,6.84591,2.9709,42,13
-13.7794,6.90921,3.55873,24,14
-14.5675,7.31075,4.36731,6,15
-1.41987,0.715052,0.0277493,1,8
-1.39053,0.70058,-0.359472,1,1
-1.40719,0.709282,0.0825861,12,9
-0.653923,0.329604,-0.142344,11,2
-1.4232,0.717665,0.139449,13,10
-0.940031,0.474226,-0.166759,17,3
-1.41597,0.714638,0.194747,13,11
-13.3297,6.73333,2.36529,52,12
-13.7952,6.97149,3.00448,33,13
-1.39385,0.704692,-0.0818534,1,6
-13.7343,6.94672,3.55333,24,14
-1.42028,0.718679,-0.0277842,6,7
-14.4919,7.33625,4.3523,31,15
-1.41393,0.717946,0.0276795,16,8
-1.41386,0.718222,0.0831095,19,9
-0.642325,0.326434,-0.140054,11,2
-1.41726,0.720575,0.139101,9,10
-0.941974,0.479132,-0.167385,14,3
-1.42067,0.72293,0.195722,12,11
-1.3657,0.69526,-0.188166,3,4
-13.3226,6.78235,2.36779,46,12
-1.40611,0.716139,-0.138055,4,5
-13.835,7.04928,3.01822,26,13
-1.40218,0.714753,-0.0824815,12,6
-13.7129,6.9931,3.55378,24,14
-1.40376,0.71587,-0.027505,20,7
-13.8699,7.07622,4.17216,15,15
-1.35161,0.691951,-0.406864,1,0
-1.41688,0.725364,0.0277842,22,8
-1.42556,0.730439,0.0839469,10,9
-0.60624,0.310763,-0.132421,13,2
-1.40233,0.719154,0.13788,10,10
-0.9562,0.490365,-0.170201,19,3
-1.4218,0.72945,0.19621,43,11
-1.39518,0.716101,-0.192554,9,4
-13.4131,6.88746,2.38813,67,12
-1.36816,0.702835,-0.134568,15,5
-14.0386,7.21175,3.06783,18,13
-1.38026,0.709356,-0.0813301,19,6
-13.6775,7.0323,3.55063,24,14
-1.40659,0.72351,-0.0276097,13,7
-13.8262,7.11487,4.16647,20,15
-1.35102,0.697315,-0.407381,2,0
-1.39301,0.719296,0.0273654,11,8
-1.35566,0.70031,-0.352273,1,1
-1.41071,0.728746,0.0832142,12,9
-0.650553,0.336207,-0.142344,11,2
-0.943955,0.488255,-0.168324,19,3
-1.40501,0.727355,-0.19426,22,4
-13.6498,7.06631,2.43443,36,12
-1.39236,0.721112,-0.137183,12,5
-13.7292,7.11349,3.00562,20,13
-1.40792,0.729796,-0.0831095,9,6
-14.0958,7.30966,3.6658,9,14
-1.40241,0.72725,-0.0275748,10,7
-13.7305,7.12332,4.14473,22,15
-1.39594,0.726682,0.0274701,12,8
-0.586701,0.305808,-0.128605,14,2
-1.39917,0.729604,0.138055,100,10
-0.956343,0.498689,-0.170826,24,3
-1.39216,0.726256,0.192797,100,11
-1.39731,0.729255,-0.193529,11,4
-13.7389,7.17334,2.45477,97,12
-1.39866,0.73058,-0.138055,5,5
-1.39487,0.72891,-0.0824815,6,6
-14.0991,7.37081,3.673,21,14
-1.39986,0.732141,-0.0275748,13,7
-13.7261,7.18195,4.15094,46,15
-1.35138,0.709189,-0.408934,2,0
-1.381,0.725043,0.0272258,37,8
-1.37847,0.72402,-0.359472,5,1
-1.39157,0.730901,0.0823768,100,9
-0.655201,0.34428,-0.14387,11,2
-1.39498,0.733312,0.13788,100,10
-0.959841,0.504783,-0.171765,26,3
-1.38083,0.72649,0.191579,100,11
-1.36678,0.719096,-0.189629,9,4
-13.9213,7.32743,2.49169,20,12
-1.39623,0.735214,-0.138055,5,5
-13.3817,7.04939,2.93999,34,13
-1.37642,0.725394,-0.0815394,12,6
-13.9728,7.36392,3.64646,35,14
-1.38858,0.732115,-0.0274003,57,7
-13.7279,7.24095,4.1587,22,15
-1.34048,0.709149,-0.406346,2,0
-1.38036,0.730554,0.0272607,99,8
-1.37951,0.730411,-0.360372,5,1
-1.39091,0.736446,0.0824815,100,9
-0.602009,0.318882,-0.132421,13,2
-1.38902,0.736068,0.137532,100,10
-0.958162,0.507963,-0.171765,30,3
-1.38368,0.733856,0.19231,100,11
-1.36614,0.724554,-0.189872,8,4
-13.4694,7.14672,2.41504,25,12
-1.38323,0.734235,-0.137009,12,5
-13.1935,7.00625,2.90373,35,13
-14.0585,7.46873,3.67525,21,14
-1.37025,0.728269,-0.0270861,100,7
-13.6031,7.23292,4.12816,22,15
-1.33812,0.713591,-0.406346,2,0
-1.38675,0.739834,0.0274352,100,8
-0.469341,0.250499,-0.122823,15,1
-1.3848,0.739416,0.0822721,100,9
-0.58363,0.311629,-0.128605,14,2
-1.37603,0.735038,0.136486,100,10
-0.95473,0.510207,-0.171452,32,3
-1.38824,0.742183,0.193285,100,11
-1.36885,0.732127,-0.190604,11,4
-13.4269,7.18437,2.41191,25,12
-13.1927,7.062,2.90869,45,13
-1.35925,0.727907,-0.0808067,100,6
-14.0873,7.54721,3.68965,19,14
-1.35889,0.728325,-0.0269116,100,7
-13.6034,7.29405,4.13593,36,15
-1.33222,0.716427,-0.405311,2,0
-1.37007,0.737091,0.0271559,100,8
-1.36764,0.736089,-0.358572,4,1
-1.38221,0.744245,0.0822721,100,9
-0.599825,0.322972,-0.132421,13,2
-1.36293,0.734167,0.13544,100,10
-0.945988,0.509788,-0.170201,35,3
-1.38738,0.747967,0.193529,100,11
-1.38201,0.745382,-0.192797,33,4
-1.33962,0.722819,-0.133174,100,5
-13.2008,7.12573,2.91594,22,13
-1.36724,0.738341,-0.0814348,100,6
-14.03,7.57966,3.68155,2,14
-1.37393,0.742572,-0.0272607,100,7
-13.5183,7.30934,4.11781,40,15
-1.32971,0.721073,-0.405311,2,0
-1.36046,0.738054,0.0270163,100,8
-1.37974,0.748825,0.0822721,100,9
-0.557285,0.302581,-0.123263,15,2
-1.37261,0.745577,0.13666,100,10
-0.940731,0.5112,-0.169575,32,3
-1.37256,0.746168,0.191822,100,11
-1.3672,0.743563,-0.191091,100,4
-17.5772,9.55955,3.16905,8,12
-1.35984,0.73987,-0.13544,100,5
-13.2241,7.19805,2.92663,37,13
-1.35413,0.737378,-0.0808067,100,6
-14.0154,7.63512,3.6847,14,14
-1.37849,0.750951,-0.0274003,100,7
-15.9689,8.70292,4.87305,9,15
-1.33227,0.728491,-0.406864,2,0
-1.36502,0.746399,0.0271559,100,8
-1.3455,0.736029,-0.354073,4,1
-1.37011,0.749801,0.0818534,100,9
-0.597555,0.327152,-0.132421,13,2
-1.38049,0.756107,0.137706,100,10
-0.947693,0.519062,-0.171139,39,3
-1.36833,0.749762,0.191579,100,11
-1.36124,0.746184,-0.190604,100,4
-13.5601,7.43623,2.44945,12,12
-1.36074,0.746529,-0.135789,100,5
-13.2071,7.24564,2.92815,44,13
-1.36044,0.746669,-0.0813301,125,6
-15.5547,8.54068,4.09681,43,14
-1.36885,0.751907,-0.0272607,100,7
-15.7319,8.6451,4.80989,18,15
-1.36591,0.753091,0.0272258,100,8
-1.36398,0.752649,0.0816441,100,9
-0.596467,0.329132,-0.132421,13,2
-1.36925,0.755866,0.136835,100,10
-0.942417,0.520457,-0.170514,56,3
-1.36918,0.756454,0.192066,121,11
-1.33778,0.739408,-0.187679,100,4
-1.35477,0.749109,-0.13544,100,5
-13.4995,7.4675,2.99875,41,13
-1.36132,0.753348,-0.0815394,128,6
-1.35922,0.752805,-0.027121,100,7
-15.2606,8.45559,4.67479,12,15
-1.3239,0.735666,-0.405828,2,0
-1.35279,0.752024,0.0270163,100,8
-1.36833,0.76129,0.0820628,100,9
-0.629627,0.350302,-0.140054,11,2
-1.3579,0.755796,0.135963,100,10
-0.937143,0.521821,-0.169888,63,3
-1.37174,0.764126,0.192797,100,11
-1.35426,0.754702,-0.19036,100,4
-13.5061,7.52976,2.44914,16,12
-1.33823,0.746072,-0.134046,100,5
-13.4082,7.47824,2.98425,40,13
-1.35868,0.758095,-0.0815394,125,6
-16.4715,9.19427,4.35505,37,14
-1.35658,0.757545,-0.027121,100,7
-15.2411,8.51447,4.6779,18,15
-1.31796,0.738394,-0.404793,2,0
-1.33794,0.749898,0.026772,100,8
-1.35982,0.762469,-0.359922,5,1
-1.37263,0.76997,0.0824815,100,9
-0.580457,0.325604,-0.129368,13,2
-1.35004,0.757606,0.13544,100,10
-0.923258,0.51832,-0.167698,50,3
-1.36906,0.76891,0.192797,125,11
-1.35508,0.76137,-0.190847,100,4
-14.4165,8.1034,2.61934,13,12
-1.33562,0.750739,-0.134046,100,5
-13.1305,7.38354,2.92815,29,13
-1.35951,0.764792,-0.0817488,134,6
-16.4053,9.23259,4.34605,18,14
-1.3609,0.7662,-0.0272607,100,7
-15.2399,8.58373,4.6867,19,15
-1.31201,0.74109,-0.403758,2,0
-1.35273,0.764402,0.027121,100,8
-1.32322,0.74803,-0.350924,5,1
-1.36646,0.77279,0.0822721,100,9
-0.592988,0.33536,-0.132421,13,2
-1.35779,0.768201,0.136486,100,10
-0.918005,0.519594,-0.167072,27,3
-1.35255,0.765859,0.190847,100,11
-1.35069,0.765117,-0.190604,100,4
-14.3658,8.14102,2.61527,18,12
-1.33645,0.757361,-0.134394,100,5
-13.1319,7.44482,2.93426,49,13
-1.33945,0.75968,-0.0807021,128,6
-16.0391,9.10035,4.25742,30,14
-1.35821,0.770946,-0.0272607,100,7
-15.2585,8.66454,4.70171,16,15
-1.34484,0.766149,0.0270163,100,8
-1.33076,0.758434,-0.353623,5,1
-1.35521,0.772373,0.0817488,100,9
-0.591813,0.337428,-0.132421,13,2
-1.36722,0.779846,0.137706,100,10
-1.00026,0.570767,-0.182403,9,3
-1.34987,0.770576,0.190847,100,11
-1.33767,0.763921,-0.189141,100,4
-14.1963,8.1073,2.5893,17,12
-1.34072,0.765975,-0.135091,100,5
-13.0394,7.45262,2.91938,27,13
-1.34026,0.766333,-0.0809114,128,6
-15.7535,9.01114,4.18994,33,14
-1.35218,0.773459,-0.0271908,100,7
-15.7696,9.02405,4.86839,12,15
-1.31015,0.752155,-0.404793,2,0
-1.34576,0.772596,0.0270861,100,8
-1.34904,0.775108,0.0815394,100,9
-0.559994,0.321881,-0.125552,14,2
-1.35067,0.776668,0.136312,100,10
-1.28605,0.73951,-0.234965,6,3
-1.35591,0.779997,0.192066,121,11
-1.33685,0.769343,-0.189385,100,4
-14.0361,8.08091,2.56521,13,12
-1.33804,0.77065,-0.135091,100,5
-13.1116,7.55168,2.94113,13,13
-1.34117,0.772768,-0.0811207,128,6
-14.4775,8.34512,3.85791,42,14
-1.33215,0.768186,-0.0268418,100,7
-15.6159,9.00857,4.8306,16,15
-1.29762,0.750691,-0.401687,2,0
-1.34305,0.777289,0.0270861,100,8
-1.33737,0.77431,-0.356772,5,1
-1.35338,0.783581,0.0819581,100,9
-0.589503,0.341448,-0.132421,13,2
-1.34119,0.777147,0.135614,100,10
-1.292,0.748948,-0.236529,11,3
-1.35146,0.78373,0.191822,100,11
-1.3257,0.768792,-0.188166,100,4
-13.049,7.57032,2.38938,1,12
-1.32341,0.768082,-0.133871,100,5
-13.1378,7.62796,2.95296,10,13
-1.34538,0.781457,-0.0815394,134,6
-1.33651,0.776617,-0.0269814,100,7
-15.3972,8.9506,4.77211,3,15
-1.30681,0.7618,-0.405311,2,0
-1.32838,0.774686,0.0268418,100,8
-1.34905,0.787058,0.0818534,100,9
-0.564629,0.329546,-0.127079,14,2
-1.3386,0.78159,0.135614,100,10
-1.29122,0.754225,-0.236842,13,3
-1.34886,0.788207,0.191822,100,11
-1.33,0.77719,-0.189141,100,4
-12.78,7.47099,2.34464,16,12
-1.31914,0.771461,-0.133697,100,5
-16.7811,9.81787,3.77916,11,13
-1.33588,0.781879,-0.0811207,134,6
-13.2496,7.75485,3.54433,24,14
-1.33738,0.783066,-0.0270512,100,7
-15.7225,9.20958,4.88236,18,15
-1.28262,0.75341,-0.398581,2,0
-1.3258,0.779087,0.0268418,100,8
-1.32884,0.781187,-0.355873,5,1
-1.34815,0.79254,0.0819581,100,9
-0.577072,0.339379,-0.130132,13,2
-1.35146,0.795118,0.137183,100,10
-1.29552,0.762511,-0.238093,16,3
-1.34452,0.791669,0.191579,100,11
-1.32386,0.779813,-0.188654,100,4
-1.32344,0.779877,-0.134394,100,5
-1.32296,0.780217,-0.0804927,134,6
-13.2292,7.80501,3.54613,24,14
-1.34511,0.793593,-0.0272607,100,7
-14.4957,8.55565,4.51018,5,15
-1.31821,0.78052,-0.410487,2,0
-1.32837,0.786536,0.0269465,100,8
-1.33851,0.793168,0.0815394,100,9
-0.596149,0.353405,-0.134711,12,2
-1.33839,0.793733,0.136137,100,10
-1.2709,0.753704,-0.234026,12,3
-1.34189,0.796123,0.191579,100,11
-1.31615,0.781159,-0.187923,100,4
-12.8494,7.62941,2.36685,32,12
-1.32414,0.786527,-0.134743,100,5
-13.0342,7.74223,2.94685,36,13
-1.32037,0.7846,-0.0804927,139,6
-13.1848,7.83788,3.54118,42,14
-1.33545,0.794195,-0.027121,100,7
-14.4093,8.57262,4.49258,11,15
-1.31562,0.784887,-0.410487,2,0
-1.33592,0.797317,0.0271559,100,8
-1.33744,0.798859,0.0816441,100,9
-0.551152,0.329204,-0.124789,14,2
-1.34089,0.801233,0.13666,100,10
-0.959671,0.573669,-0.177084,8,3
-1.34251,0.80284,0.192066,100,11
-1.31682,0.787787,-0.18841,100,4
-12.9549,7.75335,2.39126,67,12
-1.3181,0.788867,-0.134394,100,5
-13.3693,8.00451,3.0289,52,13
-1.32105,0.791257,-0.0807021,139,6
-13.2158,7.91892,3.55693,51,14
-1.33096,0.797824,-0.0270861,100,7
-15.0619,9.0322,4.70585,22,15
-1.30128,0.782506,-0.406864,1,0
-1.32628,0.797852,0.0270163,100,8
-1.33409,0.802868,-0.359472,4,1
-1.34149,0.807644,0.0820628,100,9
-0.573547,0.345303,-0.130132,13,2
-1.32443,0.797685,0.135266,100,10
-0.893368,0.538276,-0.165195,17,3
-1.3533,0.815719,0.194016,100,11
-1.30896,0.789304,-0.187679,100,4
-12.8601,7.7577,2.37874,39,12
-1.29657,0.782143,-0.132477,167,5
-13.2505,7.99636,3.00829,43,13
-1.32512,0.799992,-0.0811207,139,6
-13.1981,7.97104,3.55963,36,14
-1.32645,0.801431,-0.0270512,100,7
-15.0137,9.07472,4.70067,13,15
-1.31176,0.795055,-0.411005,1,0
-1.31322,0.796256,0.0268069,100,8
-1.32794,0.805499,-0.358572,4,1
-1.34208,0.814394,0.0822721,100,9
-0.565624,0.343229,-0.128605,14,2
-1.32504,0.804371,0.135614,100,10
-0.879664,0.534214,-0.163005,24,3
-1.34875,0.819408,0.193772,100,11
-1.31298,0.797992,-0.188654,100,4
-12.9005,7.8436,2.39126,14,12
-1.30235,0.791839,-0.133348,100,5
-13.1806,8.01705,2.99875,15,13
-1.32573,0.806689,-0.0813301,128,6
-13.1852,8.02619,3.56367,49,14
-1.32365,0.806056,-0.0270512,100,7
-14.972,9.12104,4.69757,16,15
-1.30897,0.799628,-0.411005,1,0
-1.32238,0.808134,0.0270512,100,8
-1.34434,0.8222,0.0825861,94,9
-0.557723,0.341104,-0.127079,14,2
-1.32392,0.810031,0.135789,97,10
-0.864316,0.529031,-0.160502,17,3
-1.33742,0.818927,0.192554,100,11
-1.3085,0.801533,-0.18841,100,4
-12.7787,7.83078,2.37374,29,12
-1.30467,0.799504,-0.133871,100,5
-12.7324,7.80546,2.90297,15,13
-1.31269,0.805047,-0.0807021,128,6
-13.1936,8.09458,3.57357,45,14
-1.32594,0.81381,-0.0271559,100,7
-16.7066,10.2579,5.25299,45,15
-1.3159,0.810499,-0.41411,1,0
-1.32452,0.816123,0.0271559,100,8
-1.31053,0.807823,-0.355423,2,1
-1.33806,0.824791,0.0823768,87,9
-0.589891,0.363755,-0.134711,12,2
-1.3379,0.825338,0.137532,88,10
-0.857328,0.529083,-0.159563,14,3
-1.34116,0.827995,0.193529,76,11
-1.29893,0.801925,-0.187435,100,4
-15.8571,9.79357,2.95192,12,12
-1.31021,0.809516,-0.134743,100,5
-12.717,7.86034,2.90602,37,13
-1.30973,0.809852,-0.0807021,122,6
-13.9874,8.64892,3.79672,17,14
-1.32649,0.820537,-0.0272258,100,7
-17.3179,10.7167,5.45694,14,15
-1.31321,0.814859,-0.41411,1,0
-1.3252,0.82262,0.0272258,100,8
-1.30619,0.811136,-0.354973,2,1
-1.33193,0.827117,0.0821675,80,9
-0.572005,0.355349,-0.130895,13,2
-1.33177,0.827667,0.137183,78,10
-0.830405,0.516278,-0.15487,14,3
-1.34684,0.83768,0.194747,58,11
-1.29458,0.805179,-0.187191,100,4
-12.4903,7.77148,2.32994,17,12
-1.3109,0.815962,-0.135091,100,5
-14.2741,8.88833,3.26856,29,13
-1.31382,0.818415,-0.0811207,122,6
-13.0936,8.15638,3.56142,13,14
-1.31528,0.819643,-0.0270512,100,7
-17.3413,10.8108,5.47558,2,15
-1.3105,0.819209,-0.41411,1,0
-1.31907,0.824889,0.0271559,99,8
-1.32332,0.827866,-0.360372,1,1
-1.33411,0.83494,0.0824815,63,9
-0.567495,0.355161,-0.130132,13,2
-1.32902,0.832079,0.137183,66,10
-0.790183,0.494913,-0.147674,30,3
-1.35583,0.84952,0.196453,18,11
-1.3069,0.819182,-0.189385,100,4
-15.8219,9.92122,2.95786,18,12
-1.29468,0.811837,-0.133697,100,5
-1.32801,0.833384,-0.0821675,100,6
-1.31918,0.828484,-0.0271908,100,7
-16.2075,10.1827,5.12876,52,15
-1.30942,0.825224,0.0270163,86,8
-1.30394,0.822087,-0.355873,1,1
-1.34132,0.845984,0.0831095,57,9
-0.576215,0.363424,-0.132421,13,2
-1.32443,0.83565,0.137009,50,10
-0.736667,0.464982,-0.137975,60,3
-1.30739,0.825859,-0.189872,100,4
-14.0188,8.85887,2.62653,6,12
-1.29184,0.816352,-0.133697,100,5
-1.31328,0.830542,-0.0814348,100,6
-12.926,8.17778,3.53128,24,14
-1.31628,0.833084,-0.0271908,100,7
-1.31666,0.836222,0.0272258,75,8
-1.32738,0.843354,-0.363071,1,1
-1.34694,0.855783,0.0836329,49,9
-0.55506,0.352796,-0.127842,14,2
-1.33159,0.846682,0.138055,28,10
-0.720039,0.458009,-0.135159,53,3
-14.5521,9.25998,2.11785,9,11
-1.3045,0.830418,-0.189872,100,4
-14.2443,9.06761,2.6744,11,12
-1.30915,0.833699,-0.135789,100,5
-13.9914,8.91353,3.22467,24,13
-1.30027,0.828681,-0.0808067,100,6
-13.0617,8.32761,3.57627,29,14
-1.31857,0.840669,-0.0272956,90,7
-18.8725,12.037,5.99787,8,15
-1.32399,0.84705,0.0274352,66,8
-1.31144,0.839347,-0.359472,1,1
-1.34394,0.860479,0.0836329,35,9
-0.573664,0.367438,-0.132421,13,2
-1.35547,0.868523,0.140844,4,10
-0.711863,0.456131,-0.133908,55,3
-16.8226,10.7833,2.45347,31,11
-1.2867,0.825095,-0.187679,85,4
-27.4142,17.5861,5.15858,8,12
-1.30958,0.840416,-0.136137,94,5
-13.9304,8.93973,3.21742,9,13
-1.3076,0.839462,-0.0814348,100,6
-13.4669,8.6489,3.69505,33,14
-1.31899,0.847428,-0.0273654,77,7
-14.6083,9.38915,4.65305,2,15
-1.3227,0.85275,0.0274701,54,8
-1.36458,0.880087,0.0850983,11,9
-0.562544,0.362952,-0.130132,13,2
-18.8524,12.1682,1.9631,50,10
-0.723543,0.467185,-0.136411,31,3
-18.7124,12.0871,2.73524,6,11
-1.29229,0.834743,-0.188898,77,4
-18.5988,12.0183,3.50726,8,12
-1.31014,0.846917,-0.136486,74,5
-13.937,9.01283,3.2262,13,13
-1.30801,0.846191,-0.0816441,88,6
-13.5232,8.74855,3.71844,37,14
-1.3145,0.850711,-0.0273305,65,7
-14.6646,9.49423,4.681,15,15
-1.32657,0.861488,0.0276097,33,8
-13.6366,8.85913,0.852239,46,9
-0.571214,0.371234,-0.132421,13,2
-18.7668,12.2013,1.95839,18,10
-0.720334,0.468505,-0.136098,25,3
-16.7504,10.8986,2.45372,10,11
-1.29118,0.840106,-0.189141,73,4
-27.5138,17.9087,5.19957,8,12
-1.2973,0.844734,-0.13544,67,5
-16.2085,10.5581,3.76008,40,13
-1.32026,0.860337,-0.0825861,78,6
-13.1464,8.56673,3.62261,11,14
-1.32842,0.865986,-0.0276795,55,7
-14.6104,9.52804,4.67375,10,15
-12.5878,8.23409,0.262554,13,8
-13.604,8.90558,0.852134,38,9
-0.568337,0.372051,-0.13204,13,2
-18.6796,12.2329,1.95351,18,10
-0.702252,0.460066,-0.132969,14,3
-14.7966,9.69735,2.1722,4,11
-1.30318,0.854404,-0.191335,70,4
