x, y, z, intensity, ring
13.3045,4.3666,0.733855,10,9
0.686452,0.225296,-0.140435,35,2
19.6263,6.43761,1.80709,42,10
5.75141,1.8854,-0.958631,36,3
22.0071,7.21004,2.84346,44,11
6.39725,2.09465,-0.826518,43,4
19.634,6.42496,3.27198,14,12
7.23916,2.36892,-0.666393,27,5
20.2218,6.61342,4.13559,36,13
8.27144,2.70353,-0.456056,83,6
22.3383,7.29695,5.42537,48,14
9.79184,3.19669,-0.179795,22,7
32.2263,10.5145,9.083,15,15
11.8738,3.85573,0.217911,50,8
0.550511,0.178659,-0.133621,14,1
12.9093,4.18703,0.711246,8,9
0.702174,0.227744,-0.143488,44,2
20.4276,6.62157,1.87873,4,10
5.77674,1.87141,-0.961759,41,3
20.5704,6.65991,2.6548,70,11
6.4083,2.07353,-0.827005,37,4
19.0154,6.14913,3.1653,13,12
7.23222,2.33873,-0.664998,28,5
20.0169,6.46913,4.08904,24,13
8.27703,2.67341,-0.455846,83,6
21.848,7.05251,5.3003,39,14
9.8391,3.17415,-0.180458,100,7
32.1929,10.3794,9.06333,15,15
11.95,3.83442,0.219063,48,8
0.539997,0.173166,-0.130922,14,1
0.706704,0.22649,-0.144252,44,2
18.87,6.04397,1.73353,49,10
5.76443,1.84521,-0.958631,35,3
20.6729,6.61348,2.66504,45,11
6.42117,2.05296,-0.827737,31,4
7.23505,2.31039,-0.664475,28,5
19.8486,6.33831,4.05011,24,13
8.29202,2.64632,-0.45616,87,6
22.0006,7.01707,5.33134,28,14
9.86726,3.14525,-0.180772,22,7
11.9862,3.79993,0.219481,62,8
0.525737,0.166572,-0.127322,15,1
14.332,4.53813,0.787866,7,9
0.707529,0.223898,-0.144252,44,2
18.8312,5.95555,1.72795,42,10
5.76362,1.82169,-0.957379,42,3
19.6851,6.2218,2.53488,11,11
6.43777,2.03353,-0.828955,40,4
19.0333,6.0085,3.16123,35,12
7.24877,2.28692,-0.664998,31,5
20.1787,6.36233,4.1127,25,13
8.31118,2.61892,-0.456684,87,6
22.2046,6.99258,5.37453,11,14
9.89153,3.11499,-0.181016,21,7
32.7474,10.3064,9.19895,15,15
12.1794,3.81213,0.222763,52,8
0.526344,0.164644,-0.127322,15,1
0.704559,0.220255,-0.143488,44,2
5.77371,1.80273,-0.958005,46,3
19.8575,6.19633,2.55414,58,11
6.4338,2.00637,-0.827493,43,4
19.2673,6.00848,3.19658,45,12
7.27573,2.26753,-0.666741,31,5
19.6704,6.12664,4.0047,12,13
8.32981,2.59285,-0.457207,76,6
22.1415,6.88781,5.35338,57,14
9.90044,3.07985,-0.180981,22,7
12.1213,3.74985,0.221471,60,8
0.552952,0.170956,-0.133621,14,1
12.8272,3.96334,0.703605,8,9
0.705323,0.217794,-0.143488,44,2
25.6175,7.90546,2.34554,19,10
5.80608,1.79173,-0.962385,46,3
19.8646,6.12635,2.55243,5,11
6.44991,1.98795,-0.828712,40,4
19.5619,6.0255,3.24195,19,12
7.29503,2.24564,-0.667787,27,5
19.4935,6.00073,3.96463,9,13
8.37845,2.57755,-0.459405,58,6
22.1549,6.81149,5.35114,51,14
9.89966,3.04176,-0.180772,100,7
32.1002,9.8569,8.99759,7,15
12.446,3.80277,0.227161,36,8
0.561,0.171301,-0.135421,13,1
13.0626,3.98616,0.715747,29,9
0.709797,0.2166,-0.144252,44,2
31.7686,9.68842,2.90577,9,10
5.80097,1.768,-0.960508,42,3
19.6542,5.98641,2.5227,5,11
6.4701,1.96947,-0.830418,46,4
7.291,2.21796,-0.666741,32,5
19.4712,5.91951,3.95585,1,13
8.41224,2.55583,-0.460766,58,6
22.171,6.73186,5.34934,46,14
9.92744,3.0124,-0.181086,21,7
31.3431,9.50484,8.77604,7,15
11.8102,3.56347,0.215328,11,8
0.546669,0.164841,-0.131821,14,1
14.046,4.23271,0.768815,13,9
0.70303,0.211856,-0.142725,45,2
24.4174,7.35345,2.23101,23,10
5.80521,1.74717,-0.960195,52,3
15.548,4.67647,1.99354,34,11
6.48454,1.94916,-0.831393,51,4
18.1789,5.46085,3.00636,34,12
7.3006,2.19306,-0.666916,30,5
20.6218,6.19077,4.1852,45,13
8.41346,2.52416,-0.460347,58,6
23.3891,7.0126,5.63727,19,14
9.94364,2.97945,-0.181191,100,7
34.3427,10.2837,9.60581,17,15
11.5639,3.44514,0.210616,5,8
0.528564,0.157371,-0.127322,15,1
13.1705,3.91879,0.720143,5,9
0.711292,0.21164,-0.144252,44,2
21.0454,6.25792,1.92091,17,10
5.80749,1.72577,-0.959569,45,3
15.5433,4.61594,1.99086,59,11
6.4856,1.92482,-0.830662,47,4
18.2509,5.4131,3.01512,34,12
7.32158,2.17154,-0.668136,28,5
20.2612,6.00548,4.10774,17,13
8.40498,2.48967,-0.459405,54,6
22.1073,6.54428,5.32279,46,14
9.96548,2.94813,-0.1814,100,7
34.4951,10.1983,9.63842,8,15
11.2612,3.31222,0.204891,6,8
0.532849,0.156624,-0.128222,14,1
13.4524,3.9516,0.734797,24,9
0.696957,0.204729,-0.141199,46,2
13.7892,4.04794,1.25731,8,10
5.81916,1.70716,-0.960508,46,3
15.506,4.54602,1.98403,34,11
6.47703,1.8977,-0.828712,47,4
18.554,5.43262,3.06205,16,12
7.33677,2.1482,-0.668833,31,5
20.51,6.00143,4.15391,12,13
8.41554,2.46088,-0.45951,65,6
19.7301,5.76575,4.74557,16,14
9.98339,2.91556,-0.18154,22,7
31.2425,9.11821,8.72065,14,15
11.3322,3.29017,0.205973,5,8
0.522163,0.151505,-0.125523,15,1
0.697667,0.202295,-0.141199,46,2
13.7535,3.98536,1.25278,5,10
5.84406,1.69233,-0.963636,42,3
15.3292,4.43614,1.95942,42,11
6.48171,1.87453,-0.828468,43,4
18.924,5.46928,3.11993,24,12
7.34805,2.12369,-0.669182,31,5
20.3799,5.88623,4.12338,8,13
8.42792,2.43259,-0.459719,61,6
19.6733,5.6747,4.72712,28,14
9.98582,2.87848,-0.1814,100,7
0.563904,0.161484,-0.135421,13,1
13.3318,3.81528,0.726737,25,9
0.698369,0.199859,-0.141199,34,2
13.7482,3.93185,1.25103,13,10
5.83664,1.66812,-0.961446,45,3
15.377,4.39187,1.96356,46,11
6.49585,1.85407,-0.829443,43,4
19.5527,5.57712,3.22036,45,12
7.34584,2.09529,-0.66831,30,5
21.2198,6.04862,4.289,21,13
8.40947,2.3955,-0.458254,58,6
21.9234,6.24092,5.26251,44,14
10.0016,2.84525,-0.181505,24,7
31.3686,8.91782,8.73825,21,15
0.549462,0.155275,-0.131821,14,1
13.3085,3.75841,0.724748,54,9
0.699063,0.19742,-0.141199,34,2
13.7101,3.86923,1.24633,5,10
5.84052,1.6472,-0.961133,46,3
15.2661,4.30263,1.94747,46,11
6.51948,1.83623,-0.831636,39,4
19.5131,5.49224,3.21066,24,12
7.36306,2.07105,-0.669182,31,5
19.4756,5.47802,3.93257,9,13
8.38894,2.35802,-0.456684,50,6
19.3466,5.43445,4.63939,37,14
10.0307,2.81573,-0.181854,22,7
10.6515,2.97194,0.193024,6,8
0.550001,0.153356,-0.131821,14,1
13.3119,3.70924,0.724225,25,9
0.699781,0.194856,-0.141199,46,2
21.1774,5.89293,1.92318,17,10
5.84842,1.62631,-0.961446,50,3
15.2141,4.2307,1.93894,41,11
6.54689,1.81931,-0.834318,40,4
15.2363,4.23113,2.50452,5,12
7.36448,2.04374,-0.668659,28,5
18.6555,5.17365,3.76313,8,13
8.3956,2.32673,-0.456579,58,6
19.3063,5.34687,4.62499,54,14
10.0443,2.78176,-0.181924,21,7
24.9229,6.89768,6.9291,4,15
10.9804,3.02039,0.198783,60,8
0.531769,0.146174,-0.127322,15,1
13.5508,3.72233,0.736472,21,9
0.70803,0.194492,-0.142725,34,2
15.9066,4.36647,1.44312,100,10
5.85026,1.60484,-0.960821,52,3
15.1242,4.14604,1.92554,33,11
6.52671,1.78795,-0.830905,46,4
19.5462,5.3509,3.20972,8,12
7.37577,2.01779,-0.669007,37,5
19.537,5.34473,3.93715,3,13
8.43449,2.30583,-0.458254,58,6
19.291,5.27019,4.6169,32,14
10.0545,2.74493,-0.181924,100,7
24.9349,6.80272,6.92548,8,15
11.6683,3.16584,0.211035,11,8
0.551084,0.149417,-0.131821,14,1
13.3998,3.63061,0.727575,10,9
0.693578,0.187791,-0.139672,47,2
15.8955,4.30085,1.44068,37,10
5.86945,1.587,-0.963011,62,3
15.4452,4.17612,1.96453,46,11
6.53674,1.7662,-0.831393,43,4
19.5686,5.28367,3.21035,8,12
7.39816,1.99618,-0.670402,33,5
17.7898,4.79673,3.58149,9,13
8.46217,2.2801,-0.4593,65,6
19.139,5.15335,4.57595,21,14
10.0736,2.71242,-0.182098,25,7
25.0182,6.73171,6.94204,12,15
10.5763,2.82995,0.191104,3,8
0.540307,0.144472,-0.129122,14,1
12.6232,3.37294,0.684764,5,9
0.701784,0.187518,-0.141199,34,2
17.9213,4.78524,1.62284,37,10
5.87277,1.56701,-0.962698,41,3
15.6726,4.17895,1.99159,46,11
6.56013,1.74797,-0.833586,49,4
18.1667,4.83718,2.97757,18,12
7.38741,1.96702,-0.668833,31,5
17.6538,4.69732,3.55096,8,13
8.50057,2.26024,-0.460975,61,6
23.2881,6.18779,5.56304,6,14
10.085,2.67775,-0.182133,21,7
24.8567,6.59529,6.8908,16,15
10.82,2.85474,0.195327,1,8
0.525733,0.13861,-0.125523,15,1
0.706231,0.186067,-0.141962,34,2
25.8606,6.80853,2.33961,19,10
5.87056,1.5445,-0.961446,52,3
15.7351,4.13684,1.99768,29,11
6.57387,1.72708,-0.834561,57,4
18.1242,4.7582,2.96788,40,12
7.41543,1.94679,-0.670751,28,5
17.6378,4.6272,3.54447,48,13
8.55091,2.2417,-0.463278,58,6
18.2933,4.79233,4.36585,46,14
10.0923,2.64202,-0.182098,22,7
25.016,6.54417,6.92859,42,15
10.6732,2.77618,0.1925,5,8
0.533758,0.138735,-0.127322,15,1
13.4758,3.50012,0.729668,29,9
0.691674,0.179652,-0.138909,36,2
16.0855,4.17499,1.45393,50,10
5.86062,1.52003,-0.958943,60,3
15.1883,3.93645,1.92651,57,11
6.57025,1.70163,-0.833343,51,4
18.3301,4.7439,2.99885,30,12
7.43602,1.92308,-0.671971,31,5
18.5111,4.7873,3.71658,19,13
8.56255,2.21283,-0.463487,58,6
18.0646,4.6651,4.30736,25,14
10.0802,2.60128,-0.181714,21,7
25.0873,6.46936,6.94204,21,15
11.5157,2.95245,0.207509,15,8
0.515361,0.132035,-0.122823,15,1
13.3486,3.41741,0.722132,13,9
0.699936,0.179062,-0.140435,47,2
15.5487,3.97487,1.40408,65,10
5.89294,1.50538,-0.963324,47,3
14.9173,3.81071,1.89044,41,11
6.57808,1.67918,-0.833586,47,4
18.9399,4.83124,3.09584,18,12
7.45427,1.90007,-0.673017,27,5
8.5706,2.18143,-0.463487,65,6
17.8398,4.53738,4.24977,42,14
10.1183,2.57348,-0.182238,26,7
25.1154,6.38317,6.9436,25,15
10.8847,2.74819,0.195956,5,8
0.549853,0.138726,-0.130922,14,1
13.3107,3.35576,0.71941,43,9
0.700557,0.176618,-0.140435,35,2
15.6513,3.94296,1.4121,100,10
5.89816,1.4848,-0.963324,56,3
15.3355,3.85769,1.94162,45,11
6.58034,1.65409,-0.833099,41,4
18.9421,4.75794,3.09334,13,12
7.47051,1.87647,-0.673888,27,5
19.954,5.00839,3.99898,7,13
8.58592,2.15345,-0.463906,58,6
18.1731,4.55466,4.32536,21,14
10.1141,2.53297,-0.181994,24,7
25.2061,6.30796,6.96223,25,15
10.7118,2.6648,0.192675,10,8
0.576811,0.143388,-0.13722,13,1
13.4056,3.32999,0.723911,40,9
0.693548,0.172278,-0.138909,48,2
15.8062,3.92334,1.42482,87,10
5.90331,1.4642,-0.963324,46,3
15.4298,3.82421,1.95186,29,11
6.59185,1.63254,-0.83383,42,4
20.5176,5.07759,3.3477,20,12
7.47122,1.84894,-0.673365,28,5
16.2054,4.00744,3.2449,7,13
8.61859,2.12969,-0.465267,76,6
19.3127,4.76868,4.5926,36,14
10.2723,2.53454,-0.184681,25,7
25.1323,6.19634,6.93583,38,15
12.3817,3.03436,0.222518,40,8
0.533773,0.130712,-0.126872,15,1
13.3105,3.25706,0.718154,32,9
0.709401,0.173589,-0.141962,34,2
5.90071,1.44171,-0.962072,56,3
15.31,3.73783,1.93504,37,11
6.6168,1.61423,-0.836268,46,4
16.0155,3.90417,2.61089,10,12
7.46601,1.82002,-0.672319,30,5
8.62985,2.10054,-0.465476,68,6
24.4721,5.95208,5.81454,28,14
10.3219,2.50858,-0.185414,20,7
24.6563,5.98776,6.79866,20,15
12.1336,2.92872,0.217876,20,8
0.530437,0.127934,-0.125973,15,1
13.415,3.23304,0.723178,22,9
0.71382,0.172032,-0.142725,34,2
15.6259,3.76299,1.40617,59,10
5.90571,1.42111,-0.962072,46,3
15.3384,3.68808,1.93699,37,11
6.60116,1.58602,-0.833586,41,4
20.2068,4.85122,3.29138,10,12
7.46069,1.79115,-0.671273,26,5
16.2712,3.90337,3.25253,22,13
8.63713,2.07041,-0.465476,76,6
19.2925,4.62103,4.58,17,14
10.3987,2.48883,-0.186636,25,7
24.8875,5.952,6.85663,24,15
10.8656,2.58254,0.194943,10,8
0.530881,0.126082,-0.125973,15,1
13.434,3.18803,0.723597,10,9
0.702955,0.166819,-0.140435,35,2
16.0712,3.81093,1.44504,68,10
5.9164,1.40185,-0.963011,48,3
15.7761,3.73513,1.99061,46,11
6.60859,1.56342,-0.83383,43,4
20.1294,4.75839,3.27605,21,12
7.47303,1.76517,-0.671796,26,5
16.2579,3.84022,3.24719,13,13
8.63653,2.03841,-0.465057,68,6
24.3765,5.74888,5.78214,70,14
10.419,2.45527,-0.186845,20,7
25.4572,5.99438,7.00778,17,15
0.542703,0.12689,-0.128672,14,1
0.688267,0.160671,-0.137382,49,2
15.9182,3.71308,1.43005,40,10
5.93881,1.38419,-0.965827,56,3
15.4217,3.59442,1.9443,57,11
6.60047,1.53719,-0.832124,47,4
19.1031,4.44544,3.10648,33,12
7.44809,1.73185,-0.669007,25,5
16.2471,3.77484,3.24223,5,13
8.65561,2.00945,-0.465685,72,6
25.7376,5.97039,6.09977,40,14
10.4742,2.42972,-0.187683,20,7
25.6661,5.9491,7.05955,21,15
11.7978,2.71506,0.211314,36,8
0.539366,0.124027,-0.127772,14,1
16.0687,3.69203,0.864067,26,9
0.684996,0.157389,-0.136619,50,2
15.6903,3.60221,1.40844,71,10
5.93976,1.36257,-0.965201,50,3
15.3942,3.52857,1.93919,49,11
6.62347,1.51698,-0.834318,43,4
21.6996,4.96588,3.52572,18,12
7.42331,1.69744,-0.666219,25,5
16.3348,3.73516,3.25711,5,13
8.67426,1.98189,-0.466313,72,6
24.3676,5.56303,5.77044,35,14
10.5513,2.40689,-0.188905,20,7
25.4128,5.79231,6.98397,17,15
11.6629,2.64118,0.208731,20,8
0.539796,0.122143,-0.127772,14,1
16.5938,3.75176,0.891595,32,9
0.704719,0.159203,-0.140435,47,2
15.6645,3.5359,1.40495,75,10
5.95049,1.34209,-0.966139,53,3
15.3967,3.47263,1.93797,33,11
6.60936,1.48949,-0.83188,43,4
21.5722,4.85755,3.50226,26,12
7.42336,1.6702,-0.665696,21,5
16.3867,3.68388,3.26474,12,13
8.70095,1.95446,-0.46736,72,6
24.5171,5.50269,5.80104,28,14
10.6611,2.39281,-0.19072,22,7
25.4781,5.71372,6.9964,25,15
11.6998,2.6045,0.209219,6,8
0.551653,0.122703,-0.130472,14,1
14.4784,3.21774,0.777294,5,9
0.701437,0.15589,-0.139672,47,2
15.6204,3.46868,1.3999,37,10
5.95514,1.32131,-0.966139,53,3
15.0721,3.34141,1.89556,33,11
6.63804,1.47041,-0.834805,46,4
24.0953,5.33297,3.90867,17,12
7.44666,1.64816,-0.667264,22,5
23.8486,5.27402,4.74771,15,13
8.70382,1.92322,-0.467151,72,6
19.4002,4.28317,4.58675,14,14
10.8495,2.39335,-0.193931,24,7
25.6102,5.64482,7.02694,17,15
0.533041,0.116611,-0.125973,15,1
0.709649,0.155118,-0.141199,34,2
15.5526,3.3967,1.39275,43,10
5.95393,1.29925,-0.965201,48,3
15.0391,3.27905,1.88995,45,11
6.64313,1.44722,-0.834805,45,4
19.85,4.32073,3.21754,17,12
7.47573,1.62724,-0.669356,25,5
23.9686,5.21286,4.76794,12,13
8.71829,1.89452,-0.467569,72,6
25.7604,5.59313,6.08583,8,14
10.9086,2.36649,-0.194839,29,7
25.6694,5.56399,7.03781,17,15
0.525824,0.113111,-0.124173,15,1
14.5317,3.1233,0.778968,11,9
0.694831,0.149339,-0.138146,48,2
15.5293,3.33486,1.38961,84,10
5.96615,1.28012,-0.966452,56,3
15.6094,3.34637,1.96015,21,11
6.6559,1.42569,-0.83578,45,4
20.5816,4.4048,3.33362,17,12
7.50474,1.60614,-0.671448,25,5
17.1366,3.66439,3.40632,21,13
8.73266,1.86574,-0.467988,76,6
25.8084,5.50929,6.09257,40,14
11.0302,2.35259,-0.196863,100,7
26.3424,5.61366,7.21691,18,15
11.5777,2.45037,0.206567,30,8
0.537655,0.113694,-0.126872,15,1
14.5504,3.0742,0.779387,27,9
0.699189,0.147724,-0.138909,36,2
5.97058,1.25929,-0.966452,47,3
17.4255,3.67213,2.18658,27,11
6.66861,1.40408,-0.836755,51,4
17.0612,3.58915,2.76138,15,12
7.5181,1.58157,-0.672145,26,5
17.1935,3.61383,3.4151,13,13
8.76257,1.84018,-0.469244,79,6
19.3601,4.06217,4.56696,21,14
11.4493,2.40023,-0.204193,26,7
25.4126,5.32287,6.95706,8,15
11.7996,2.45432,0.210371,25,8
0.572392,0.118954,-0.134971,14,1
14.5683,3.02757,0.779806,29,9
0.688167,0.142889,-0.136619,50,2
17.2924,3.58737,1.5451,100,10
5.98074,1.23964,-0.967391,53,3
17.481,3.62015,2.19194,38,11
6.70652,1.38763,-0.840899,40,4
17.1794,3.55456,2.77859,23,12
7.52943,1.55653,-0.672668,20,5
17.3444,3.58239,3.44258,41,13
8.76308,1.80837,-0.46893,76,6
19.4982,4.02014,4.5962,36,14
11.3221,2.33439,-0.201785,100,7
26.2286,5.40306,7.1755,13,15
12.1016,2.47529,0.215607,60,8
0.519324,0.10613,-0.122373,15,1
0.704051,0.143625,-0.139672,47,2
17.4785,3.56241,1.56061,29,10
5.98289,1.21941,-0.967078,48,3
16.3861,3.33678,2.05325,4,11
6.6819,1.35945,-0.837242,48,4
16.9072,3.43673,2.7326,13,12
7.58753,1.54094,-0.677374,26,5
19.7285,4.00663,3.91311,15,13
8.76707,1.7789,-0.468826,79,6
19.3968,3.93223,4.56921,17,14
11.2792,2.28454,-0.200877,24,7
25.4653,5.15321,6.96171,17,15
0.519691,0.104316,-0.122373,15,1
19.6845,3.94764,1.05216,13,9
0.704523,0.141289,-0.139672,47,2
17.2011,3.44649,1.53481,35,10
5.98904,1.19891,-0.967391,53,3
16.46,3.29201,2.06105,21,11
6.69829,1.33845,-0.838705,34,4
19.3618,3.86537,3.12713,22,12
7.61631,1.51912,-0.679466,26,5
19.7058,3.93044,3.90586,19,13
8.78302,1.75024,-0.469349,79,6
25.4518,5.06731,5.99135,30,14
11.344,2.25646,-0.201889,100,7
25.4926,5.06618,6.9643,12,15
11.5084,2.27038,0.204752,6,8
0.531524,0.104763,-0.125073,15,1
19.6688,3.87312,1.05059,41,9
0.685773,0.134916,-0.135856,50,2
16.9321,3.32809,1.50971,16,10
6.00309,1.17885,-0.968955,51,3
16.5103,3.24219,2.06593,48,11
6.72045,1.3185,-0.840899,31,4
19.8715,3.89502,3.20722,24,12
7.62157,1.49253,-0.679466,27,5
19.7335,3.86083,3.90853,20,13
8.80309,1.72072,-0.470082,83,6
25.4282,4.96577,5.98145,7,14
11.6442,2.27396,-0.20709,100,7
25.7509,5.02414,7.03004,8,15
12.0723,2.33568,0.21463,5,8
0.547211,0.105773,-0.128672,14,1
19.8731,3.83774,1.06075,8,9
0.693951,0.13401,-0.137382,37,2
16.9691,3.27387,1.51198,13,10
6.04208,1.16462,-0.974587,52,3
16.5182,3.1809,2.06544,30,11
6.73108,1.29499,-0.84163,30,4
19.164,3.68347,3.09083,18,12
7.61891,1.46441,-0.678769,28,5
19.6505,3.77341,3.88945,19,13
8.80316,1.68885,-0.469768,79,6
25.2712,4.8436,5.94051,22,14
11.5091,2.20381,-0.204542,53,7
25.6667,4.91013,7.00209,8,15
11.6579,2.21333,0.207125,5,8
0.53226,0.100957,-0.125073,15,1
19.9079,3.77244,1.0619,11,9
0.70213,0.13305,-0.138909,24,2
17.413,3.29652,1.5505,26,10
6.03058,1.14058,-0.972084,52,3
19.1839,3.62484,2.39717,41,11
6.72971,1.27038,-0.840899,29,4
19.1534,3.61215,3.08708,39,12
7.63768,1.44039,-0.679989,28,5
19.6674,3.70553,3.89021,14,13
8.79919,1.65626,-0.469244,83,6
25.2477,4.74779,5.93106,52,14
11.7074,2.19944,-0.207928,100,7
25.7483,4.83261,7.01969,8,15
20.0659,3.73711,0.356273,11,8
0.557515,0.103732,-0.130922,14,1
16.035,2.98059,0.854751,10,9
0.698729,0.12988,-0.138146,24,2
17.348,3.22153,1.5437,26,10
6.03453,1.11952,-0.972084,56,3
19.4658,3.60778,2.43081,41,11
6.72044,1.24435,-0.839192,32,4
18.2277,3.37173,2.93596,24,12
7.64266,1.41373,-0.679989,31,5
24.2885,4.48845,4.80114,12,13
8.82259,1.6288,-0.470186,76,6
25.2354,4.65433,5.92431,60,14
11.3826,2.09732,-0.202029,100,7
23.5079,4.32722,6.40474,7,15
12.7531,2.32913,0.226288,6,8
0.561708,0.102485,-0.131821,14,1
18.4758,3.36763,0.98423,37,9
0.710767,0.129553,-0.140435,35,2
17.0769,3.10955,1.5186,13,10
6.01119,1.0935,-0.967704,51,3
17.242,3.13341,2.15173,4,11
6.70521,1.21733,-0.836755,37,4
17.3317,3.14345,2.78985,34,12
7.67107,1.3913,-0.682081,27,5
20.0695,3.6364,3.96463,5,13
8.83019,1.59835,-0.470291,83,6
24.7376,4.47328,5.80374,21,14
11.443,2.06718,-0.202971,100,7
23.5,4.24102,6.39852,10,15
12.4249,2.22217,0.220319,33,8
0.56208,0.100425,-0.131821,14,1
19.7759,3.52975,1.05279,10,9
0.699641,0.124877,-0.138146,48,2
17.1019,3.0494,1.51982,9,10
6.02488,1.0732,-0.969268,48,3
17.2846,3.07575,2.15563,23,11
6.69595,1.19032,-0.835049,29,4
17.3839,3.08716,2.79642,13,12
7.69181,1.36597,-0.683475,30,5
20.0363,3.55457,3.95547,20,13
8.87926,1.57365,-0.472594,72,6
24.7039,4.37375,5.79204,35,14
11.799,2.08686,-0.20915,20,7
25.3188,4.47352,6.88925,24,15
0.558588,0.0977906,-0.130922,14,1
16.3078,2.85203,0.867626,11,9
0.692337,0.121081,-0.136619,25,2
17.2008,3.00511,1.52767,3,10
6.03638,1.05352,-0.97052,46,3
17.3324,3.02188,2.16026,41,11
6.71375,1.16932,-0.836755,37,4
7.68672,1.3374,-0.682604,28,5
17.0872,2.96991,3.37121,13,13
9.01654,1.56553,-0.479607,79,6
24.5078,4.25085,5.74255,35,14
11.9067,2.06308,-0.21093,25,7
24.4339,4.22926,6.6444,3,15
15.564,2.67159,0.275643,15,8
0.551243,0.0945228,-0.129122,14,1
16.1188,2.76103,0.857054,4,9
0.696626,0.119327,-0.137382,24,2
18.1754,3.11005,1.61325,77,10
6.04196,1.03277,-0.970832,60,3
18.0199,3.07696,2.24459,61,11
6.71388,1.14521,-0.836268,37,4
7.6992,1.3119,-0.683301,28,5
17.3839,2.959,3.42769,40,13
9.10465,1.54811,-0.484003,76,6
24.3611,4.13787,5.70476,55,14
11.4762,1.94724,-0.203181,100,7
24.7609,4.19688,6.7293,3,15
15.5555,2.61426,0.275329,36,8
0.524664,0.088081,-0.122823,15,1
15.7541,2.64199,0.837166,8,9
0.689293,0.115596,-0.135856,37,2
18.2117,3.05087,1.61552,43,10
6.04553,1.01167,-0.970832,47,3
18.0501,3.01732,2.24703,33,11
6.71,1.12046,-0.835293,32,4
18.3311,3.0577,2.94347,21,12
7.70963,1.286,-0.683824,27,5
17.1114,2.85119,3.37198,22,13
9.19471,1.53042,-0.488504,73,6
21.5399,3.58136,5.04115,19,14
11.5835,1.92387,-0.204961,100,7
26.1038,4.33082,7.09009,13,15
11.9634,1.96766,0.211628,13,8
0.548044,0.0900405,-0.128222,14,1
21.0097,3.44801,1.1158,6,9
0.697442,0.11446,-0.137382,24,2
18.1711,2.97889,1.61099,16,10
6.07827,0.995357,-0.975525,53,3
17.6452,2.88635,2.19535,47,11
6.70016,1.09479,-0.833586,31,4
16.7547,2.73469,2.6888,37,12
7.71429,1.25773,-0.683824,30,5
17.2143,2.80661,3.39029,28,13
9.25519,1.50731,-0.491435,70,6
21.5408,3.50429,5.03845,34,14
11.0257,1.7917,-0.194978,22,7
24.5474,3.98461,6.66356,7,15
10.914,1.75595,0.192954,15,8
0.540658,0.08689,-0.126422,15,1
16.8686,2.70794,0.895364,4,9
0.684287,0.109728,-0.134711,25,2
12.8564,2.05926,1.13913,26,10
6.09163,0.974629,-0.97709,56,3
17.4886,2.79808,2.17464,50,11
6.75099,1.07892,-0.839436,29,4
7.7265,1.23205,-0.684521,27,5
16.9821,2.7049,3.34259,23,13
9.40464,1.49628,-0.499076,80,6
25.0196,3.97615,5.84873,29,14
11.0714,1.75947,-0.195676,84,7
24.3399,3.86377,6.60351,7,15
10.9796,1.72525,0.194001,37,8
0.525572,0.0824906,-0.122823,15,1
22.6834,3.55619,1.20331,8,9
0.698243,0.109467,-0.137382,49,2
12.7592,1.99803,1.12989,26,10
6.07547,0.950311,-0.973961,53,3
17.485,2.73182,2.17293,64,11
6.78039,1.05814,-0.842605,30,4
22.3501,3.48396,3.58266,4,12
7.72485,1.20416,-0.683998,28,5
16.9623,2.64107,3.33687,16,13
9.39205,1.46068,-0.498134,94,6
25.1528,3.90734,5.87662,29,14
11.1252,1.72624,-0.196514,100,7
24.7452,3.83519,6.70963,15,15
10.867,1.6687,0.191907,48,8
0.537414,0.082428,-0.125523,15,1
26.427,4.04862,1.40114,11,9
0.706383,0.108218,-0.138909,36,2
12.7779,1.95529,1.13093,40,10
6.09438,0.931483,-0.976464,45,3
19.1604,2.92511,2.37986,46,11
6.78012,1.03387,-0.842117,32,4
18.808,2.86459,3.01324,16,12
7.73885,1.17868,-0.68487,28,5
17.2024,2.61697,3.38228,15,13
9.45633,1.43689,-0.501274,66,6
21.7291,3.29786,5.074,25,14
11.1015,1.6829,-0.195991,25,7
24.6439,3.73144,6.67857,3,15
10.8391,1.62571,0.191313,20,8
0.541553,0.0811291,-0.126422,15,1
22.7512,3.40425,1.20561,10,9
0.706757,0.105752,-0.138909,48,2
12.7354,1.90331,1.12658,59,10
6.11127,0.912247,-0.978654,46,3
19.1234,2.85119,2.37402,56,11
6.80529,1.01341,-0.844798,31,4
18.8491,2.80357,3.01825,24,12
7.70765,1.14504,-0.681732,31,5
20.7322,3.07995,4.07415,20,13
9.30324,1.38042,-0.4929,73,6
21.5689,3.19655,5.03395,39,14
11.0697,1.63858,-0.195327,100,7
24.8364,3.67195,6.72722,15,15
10.8981,1.59569,0.192256,28,8
0.526407,0.0769822,-0.122823,15,1
16.4388,2.40109,0.870661,2,9
0.683827,0.0997597,-0.13433,38,2
12.7738,1.86122,1.12936,28,10
6.11848,0.89041,-0.97928,42,3
19.1058,2.78042,2.3706,35,11
6.83825,0.993938,-0.848454,32,4
18.8138,2.73123,3.01105,12,12
7.78061,1.12814,-0.687833,30,5
20.8055,3.01295,4.08637,16,13
9.34381,1.35146,-0.494784,63,6
21.5284,3.10996,5.02181,24,14
11.0437,1.59535,-0.194769,100,7
24.8662,3.58772,6.73188,19,15
13.5645,1.93535,0.239168,28,8
0.54212,0.0772518,-0.126422,15,1
15.6443,2.2293,0.828164,17,9
0.688059,0.0979252,-0.135093,25,2
12.6816,1.8026,1.12065,45,10
6.11959,0.86877,-0.978967,45,3
17.4413,2.47294,2.16294,9,11
6.8615,0.971649,-0.850892,37,4
14.2446,2.01715,2.27862,11,12
7.78253,1.10069,-0.687659,28,5
21.7432,3.07128,4.2684,6,13
9.25157,1.30516,-0.489655,80,6
21.6124,3.04513,5.0389,39,14
24.8958,3.50331,6.73654,15,15
13.4857,1.8785,0.237667,48,8
0.565535,0.0786757,-0.131821,14,1
0.684507,0.0949833,-0.13433,25,2
12.7293,1.76407,1.12431,57,10
6.12635,0.849013,-0.979593,45,3
19.2152,2.65949,2.38181,41,11
6.88632,0.951881,-0.853573,45,4
14.2456,1.96661,2.27769,11,12
7.78632,1.07352,-0.687659,31,5
21.5121,2.96592,4.22108,13,13
9.30531,1.28129,-0.492272,35,6
21.5954,2.96972,5.03261,39,14
11.0248,1.51413,-0.194245,25,7
24.8926,3.41429,6.7324,3,15
13.5199,1.83518,0.238156,61,8
0.550357,0.0746067,-0.128222,14,1
12.8134,1.73472,0.677646,44,9
0.70429,0.0952239,-0.138146,36,2
12.587,1.70183,1.11124,78,10
6.11949,0.826299,-0.978028,46,3
18.5771,2.50511,2.30162,53,11
6.88369,0.927044,-0.852842,42,4
14.135,1.90107,2.25891,38,12
7.792,1.04659,-0.687833,28,5
21.2932,2.85626,4.17605,12,13
9.30005,1.24585,-0.491749,38,6
21.6964,2.90648,5.05375,39,14
10.5226,1.40776,-0.18531,20,7
29.2472,3.90762,7.9064,5,15
13.6396,1.80053,0.240145,28,8
0.546763,0.0720798,-0.127322,15,1
12.4216,1.63534,0.656607,120,9
0.696848,0.0916184,-0.136619,25,2
12.8242,1.68607,1.13163,28,10
6.11073,0.802323,-0.976151,46,3
18.5468,2.43185,2.29675,53,11
6.88311,0.901294,-0.852354,43,4
14.322,1.87282,2.2877,37,12
7.81158,1.02009,-0.689228,28,5
20.8149,2.71445,4.08026,22,13
9.32039,1.21382,-0.492586,38,6
24.4007,3.17776,5.68091,20,14
10.5476,1.37176,-0.185659,22,7
28.7824,3.73817,7.777,5,15
13.5529,1.73856,0.238505,42,8
0.554755,0.0710659,-0.129122,14,1
12.5322,1.60542,0.662155,46,9
0.689374,0.0881888,-0.135093,38,2
12.694,1.62163,1.1196,49,10
6.11167,0.779672,-0.975838,45,3
18.5989,2.36938,2.30211,14,11
6.88834,0.876306,-0.852598,41,4
14.1913,1.80536,2.2658,25,12
7.79928,0.990814,-0.687833,30,5
21.3403,2.70727,4.18139,27,13
8.09807,1.0259,-0.427794,43,6
24.2343,3.06581,5.63952,26,14
10.5582,1.33569,-0.185763,22,7
28.7224,3.6285,7.75732,5,15
13.5248,1.6894,0.237911,37,8
0.574325,0.0716381,-0.133621,14,1
12.6389,1.57425,0.667493,41,9
0.693574,0.0862663,-0.135856,37,2
12.8933,1.60138,1.13669,38,10
6.10834,0.758672,-0.9749,46,3
18.7386,2.32406,2.31844,55,11
6.88529,0.852728,-0.851867,42,4
14.2446,1.76164,2.27331,40,12
7.79281,0.96236,-0.686962,31,5
21.3141,2.63215,4.17452,31,13
8.10143,0.999037,-0.427794,100,6
21.4437,2.64057,4.98806,9,14
10.5906,1.30224,-0.186252,23,7
13.6617,1.65808,0.240215,38,8
0.574572,0.0696327,-0.133621,14,1
12.5868,1.52316,0.664457,45,9
0.684126,0.0826673,-0.133948,26,2
12.7027,1.53495,1.11943,61,10
6.09918,0.735924,-0.973022,46,3
18.8491,2.27097,2.33112,40,11
6.91779,0.832247,-0.855523,52,4
18.8714,2.26699,3.01043,25,12
7.78425,0.933726,-0.685916,31,5
21.2515,2.54538,4.1604,21,13
8.16057,0.97598,-0.430725,39,6
24.5468,2.93573,5.70746,6,14
24.2276,2.88898,6.53777,14,15
13.481,1.58604,0.236934,56,8
0.528373,0.0620698,-0.122823,15,1
12.6498,1.48377,0.667493,59,9
0.700024,0.0819861,-0.137001,24,2
12.6331,1.47957,1.1128,54,10
6.08418,0.7115,-0.970207,33,3
14.005,1.63529,1.73128,11,11
6.9346,0.808493,-0.857229,46,4
19.119,2.22568,3.0486,37,12
7.80148,0.906801,-0.687136,30,5
21.4362,2.48784,4.19475,11,13
10.287,1.19207,-0.542724,84,6
21.9479,2.54336,5.10099,25,14
9.50116,1.09932,-0.16695,100,7
24.9194,2.87886,6.72153,15,15
14.4483,1.64618,0.253828,26,8
0.528597,0.0601326,-0.122823,15,1
12.5696,1.4299,0.662992,53,9
0.694453,0.0788775,-0.135856,25,2
12.5988,1.42877,1.10932,64,10
6.08871,0.689417,-0.97052,37,3
14.0247,1.58552,1.73298,58,11
6.93357,0.782628,-0.856742,43,4
18.7811,2.11992,2.99353,15,12
7.80657,0.879785,-0.68731,26,5
21.0702,2.37085,4.12147,17,13
10.3109,1.15838,-0.543771,80,6
9.48904,1.06436,-0.16667,34,7
24.9369,2.79272,6.7236,15,15
10.4825,1.15913,0.184088,20,8
0.552037,0.0609456,-0.128222,14,1
12.4613,1.37355,0.657026,70,9
0.696676,0.0766675,-0.136238,25,2
12.6988,1.39523,1.11769,49,10
6.09293,0.669439,-0.970832,33,3
14.0535,1.5416,1.73591,34,11
6.92626,0.758548,-0.855523,47,4
19.2204,2.10159,3.06236,16,12
7.87298,0.859453,-0.692888,31,5
21.0994,2.30332,4.12567,25,13
10.3742,1.13067,-0.546911,49,6
25.7487,2.80176,5.97965,30,14
10.5384,1.14483,-0.18503,25,7
25.1194,2.7244,6.77019,16,15
10.5044,1.12445,0.184402,38,8
0.528994,0.0565332,-0.122823,15,1
17.4529,1.86209,0.919857,13,9
0.689118,0.0735238,-0.134711,25,2
13.1293,1.39848,1.15516,35,10
6.1188,0.650672,-0.974587,38,3
19.1774,2.03594,2.36792,40,11
6.92294,0.73374,-0.854792,48,4
14.0671,1.48845,2.24045,8,12
7.97301,0.84222,-0.701429,30,5
20.9414,2.21211,4.09324,31,13
10.4218,1.09906,-0.549214,84,6
24.2796,2.55618,5.63637,6,14
25.0173,2.62501,6.74017,7,15
13.8101,1.42957,0.242344,45,8
0.552449,0.0570899,-0.128222,14,1
17.4891,1.80424,0.921427,15,9
0.677665,0.069791,-0.132421,26,2
12.8291,1.31897,1.12832,57,10
6.14276,0.630461,-0.978028,48,3
14.0955,1.44669,1.73981,23,11
6.94916,0.712,-0.857717,42,4
19.6611,2.01096,3.13025,17,12
7.97194,0.813981,-0.701081,28,5
21.0079,2.14131,4.10468,17,13
10.4655,1.06489,-0.551307,100,6
24.3237,2.47072,5.64447,26,14
9.50762,0.965753,-0.16681,43,7
25.2992,2.56534,6.81367,16,15
13.8471,1.38212,0.242903,61,8
0.568168,0.0566105,-0.131821,14,1
17.4737,1.73795,0.920276,27,9
0.683765,0.0680078,-0.133566,26,2
12.7662,1.26749,1.12239,38,10
6.12723,0.607259,-0.975213,27,3
20.0488,1.98347,2.4737,16,11
6.9616,0.687499,-0.858935,40,4
19.7646,1.94839,3.14558,17,12
8.06013,0.793144,-0.708576,30,5
20.689,2.03587,4.04095,20,13
10.5427,1.03558,-0.55518,70,6
21.6461,2.12242,5.02136,48,14
9.47726,0.927585,-0.166217,60,7
23.8549,2.33059,6.42234,7,15
13.8837,1.33685,0.243461,57,8
0.548964,0.0527626,-0.127322,15,1
17.4618,1.67523,0.919333,8,9
0.689873,0.0660625,-0.134711,25,2
12.8005,1.22354,1.12501,26,10
6.16678,0.588364,-0.981157,43,3
14.4178,1.37558,1.77832,54,11
6.97186,0.663945,-0.85991,40,4
13.9308,1.3242,2.21636,7,12
8.17393,0.775545,-0.718338,27,5
12.3857,1.17297,2.41831,4,13
8.84041,0.835663,-0.465371,14,6
21.5858,2.03667,5.00561,47,14
9.33113,0.880412,-0.163599,68,7
24.2822,2.28679,6.53518,10,15
17.2234,1.59778,0.301927,19,8
0.549145,0.0508459,-0.127322,15,1
17.5172,1.61886,0.92195,8,9
0.682269,0.0630519,-0.133185,26,2
12.9295,1.19261,1.13599,11,10
6.18837,0.56972,-0.984286,46,3
6.96623,0.638884,-0.858935,39,4
21.1548,1.9364,3.36459,3,12
8.25185,0.755334,-0.724961,31,5
21.5439,1.96065,4.99436,38,14
9.16089,0.832095,-0.160562,22,7
23.9552,2.17167,6.44511,14,15
11.4149,1.01875,0.200039,12,8
0.529908,0.0471997,-0.122823,15,1
0.686395,0.0610178,-0.133948,26,2
12.9713,1.15082,1.1393,21,10
6.2218,0.550901,-0.989292,37,3
14.4092,1.27332,1.77612,31,11
6.96842,0.614562,-0.858935,39,4
13.0502,1.14863,2.07495,5,12
8.40131,0.73945,-0.737861,27,5
20.9262,1.83818,4.08331,20,13
10.4754,0.918324,-0.551098,42,6
21.4711,1.87847,4.97592,38,14
9.24143,0.806898,-0.161923,100,7
24.159,2.10515,6.49791,18,15
15.6044,1.33777,0.273374,19,8
0.561136,0.0480079,-0.130022,14,1
12.5471,1.07125,0.659956,17,9
0.690517,0.0589553,-0.134711,25,2
13.1241,1.11821,1.15237,37,10
6.23943,0.530523,-0.991795,41,3
13.211,1.12097,1.62793,41,11
6.98239,0.591237,-0.860398,40,4
21.1304,1.78552,3.35865,20,12
8.82882,0.744481,-0.775163,37,5
12.4695,1.05148,2.43243,7,13
9.85161,0.828995,-0.518126,66,6
21.7396,1.82554,5.03665,39,14
9.28404,0.777971,-0.162622,68,7
15.7226,1.31473,4.22755,2,15
14.3972,1.18367,0.252152,19,8
0.565185,0.0463674,-0.130922,14,1
15.2798,1.25087,0.803462,37,9
0.678988,0.0554651,-0.132421,26,2
12.4609,1.01572,1.0938,42,10
6.22755,0.506525,-0.989605,45,3
12.8903,1.04845,1.58796,29,11
7.00815,0.568789,-0.863322,41,4
13.0796,1.05926,2.07839,15,12
8.48979,0.686053,-0.745182,15,5
13.1523,1.06053,2.56485,16,13
8.93682,0.719041,-0.469872,72,6
21.7384,1.74521,5.03485,48,14
9.2269,0.740756,-0.161574,93,7
15.7386,1.26077,4.23066,7,15
15.488,1.21621,0.271176,13,8
0.561465,0.0439913,-0.130022,14,1
16.5826,1.29634,0.871708,44,9
0.69875,0.0546246,-0.136238,25,2
12.4306,0.969584,1.09084,11,10
6.23716,0.485401,-0.990856,56,3
13.2345,1.02763,1.62988,41,11
7.00821,0.542947,-0.863079,42,4
13.111,1.01344,2.08277,6,12
9.00266,0.695882,-0.78998,45,5
12.4435,0.959656,2.42595,23,13
9.00499,0.692896,-0.473326,21,6
21.7094,1.66665,5.02676,4,14
9.30732,0.712891,-0.162936,100,7
24.4401,1.86769,6.56779,14,15
17.1991,1.29019,0.301054,8,8
0.553842,0.0414492,-0.128222,14,1
0.68719,0.0513086,-0.133948,26,2
12.4677,0.9287,1.0938,58,10
6.25064,0.464503,-0.992733,43,3
13.8121,1.02399,1.70056,30,11
7.00611,0.518185,-0.862591,42,4
13.1341,0.969122,2.0859,15,12
9.1322,0.673833,-0.801136,34,5
12.4957,0.91982,2.43549,12,13
8.92369,0.655316,-0.46893,18,6
22.1738,1.62445,5.13293,20,14
9.34365,0.682878,-0.163529,68,7
24.6006,1.79361,6.6092,15,15
12.0554,0.862023,0.210965,36,8
0.553983,0.0395158,-0.128222,14,1
0.683448,0.0486307,-0.133185,26,2
12.9836,0.921565,1.13878,28,10
6.27192,0.444078,-0.995862,52,3
13.17,0.930183,1.62111,36,11
7.01975,0.494562,-0.864054,43,4
13.1808,0.926319,2.09278,30,12
8.07516,0.567506,-0.708228,12,5
12.5008,0.876337,2.43587,15,13
22.1793,1.54705,5.13293,30,14
9.1445,0.636242,-0.160004,100,7
24.4968,1.7001,6.5797,15,15
12.0244,0.817633,0.210371,13,8
0.569672,0.0386366,-0.131821,14,1
11.9662,0.809479,0.628555,57,9
0.687531,0.0465095,-0.133948,26,2
12.7919,0.863096,1.12169,21,10
6.27738,0.422446,-0.996488,52,3
13.2841,0.891647,1.63476,37,11
7.01351,0.469526,-0.863079,46,4
13.1504,0.878063,2.08746,15,12
12.5136,0.833344,2.43778,40,13
9.79096,0.650316,-0.514253,70,6
24.9671,1.65394,5.77674,35,14
9.19854,0.607743,-0.160911,93,7
24.9845,1.64634,6.70911,11,15
9.10569,0.587245,0.159271,13,8
0.562025,0.0361476,-0.130022,14,1
12.0547,0.773204,0.633056,32,9
0.68573,0.0439838,-0.133566,26,2
11.9717,0.765787,1.04953,33,10
6.28276,0.400781,-0.997113,50,3
13.1584,0.837082,1.61891,50,11
7.03492,0.4463,-0.865516,42,4
12.9819,0.821299,2.06024,10,12
9.12682,0.577408,-0.80009,33,5
9.546,0.600587,-0.501274,49,6
24.7432,1.55237,5.72365,20,14
11.3102,0.707615,-0.197806,100,7
24.8359,1.5495,6.6677,11,15
9.15759,0.558502,0.160143,13,8
0.531025,0.0322928,-0.122823,15,1
12.0812,0.732569,0.634312,48,9
0.666283,0.0404014,-0.12975,27,2
12.6565,0.765239,1.10932,42,10
6.28412,0.378849,-0.997113,50,3
13.0205,0.782685,1.60161,72,11
7.03842,0.421861,-0.86576,52,4
8.3054,0.496341,-0.727925,6,5
13.1795,0.785316,2.56638,18,13
9.26891,0.550676,-0.48662,100,6
27.3261,1.61868,6.31978,8,14
9.45808,0.558601,-0.165379,60,7
25.0841,1.4771,6.73292,19,15
0.531135,0.0304391,-0.122823,15,1
13.3818,0.764562,0.702453,50,9
0.69386,0.0396434,-0.135093,25,2
11.9748,0.682076,1.04936,24,10
6.2854,0.356912,-0.997113,50,3
12.8805,0.729155,1.58406,61,11
7.02597,0.396505,-0.864054,45,4
12.9065,0.726106,2.04741,41,12
25.0177,1.40309,4.87059,15,13
9.29072,0.519434,-0.487667,87,6
29.9193,1.66751,6.91814,40,14
12.8343,0.713056,-0.224368,64,7
27.2264,1.5079,7.30646,23,15
9.61853,0.519236,0.168136,16,8
0.554589,0.0298415,-0.128222,14,1
13.2308,0.709606,0.694394,38,9
0.674397,0.0360518,-0.131277,27,2
11.9692,0.637761,1.04866,60,10
6.30048,0.334604,-0.999304,46,3
13.0812,0.694713,1.60843,10,11
7.03128,0.372185,-0.864541,42,4
13.0687,0.689482,2.07276,40,12
9.2956,0.488789,-0.814383,34,5
25.0737,1.31405,4.88051,15,13
9.65756,0.504446,-0.506821,80,6
31.163,1.62228,7.20428,21,14
9.40583,0.489647,-0.164402,77,7
31.7864,1.64917,8.52861,13,15
0.581942,0.0291745,-0.134521,14,1
13.335,0.666193,0.699732,21,9
0.686283,0.0342854,-0.133566,26,2
12.0112,0.597954,1.05214,36,10
6.29963,0.312513,-0.998991,52,3
12.6554,0.625597,1.55578,32,11
7.04449,0.346999,-0.866004,43,4
13.4559,0.660452,2.13377,13,12
9.40073,0.461415,-0.823447,53,5
25.2114,1.23305,4.90646,18,13
9.50965,0.463438,-0.498971,59,6
31.1023,1.51026,7.18899,10,14
29.5848,1.42624,7.93643,5,15
17.4303,0.815898,0.304579,19,8
0.582041,0.0271431,-0.134521,14,1
13.1338,0.610183,0.689055,36,9
0.686399,0.0318894,-0.133566,26,2
12.051,0.557771,1.05546,78,10
6.3066,0.290796,-0.999929,53,3
13.0263,0.598356,1.60112,36,11
7.08532,0.32422,-0.870878,32,4
13.2173,0.602513,2.0956,10,12
8.95446,0.40819,-0.784227,13,5
13.2383,0.601148,2.57592,7,13
9.13411,0.41318,-0.479188,79,6
12.3989,0.558701,2.86543,19,14
9.47302,0.425197,-0.165519,69,7
31.7994,1.42175,8.52912,13,15
12.5603,0.544003,0.219447,30,8
0.550981,0.0237674,-0.127322,15,1
16.5121,0.709394,0.86616,24,9
0.710043,0.0305049,-0.138146,24,2
12.1345,0.519196,1.0626,24,10
6.29969,0.268442,-0.998678,42,3
12.9629,0.550114,1.59308,39,11
7.14393,0.301918,-0.877947,42,4
13.2648,0.55828,2.10279,20,12
25.2822,1.05963,4.91867,22,13
9.5785,0.399785,-0.502425,77,6
37.7243,1.56793,8.71685,12,14
9.47844,0.39229,-0.165588,100,7
31.8234,1.31155,8.5343,27,15
12.4962,0.497528,0.218295,52,8
0.554955,0.0219984,-0.128222,14,1
12.9461,0.510922,0.679007,10,9
0.714074,0.0280559,-0.138909,24,2
12.1682,0.475966,1.06539,60,10
6.30655,0.245582,-0.999616,50,3
12.5343,0.488096,1.54018,38,11
7.16477,0.277747,-0.880384,40,4
12.9528,0.499864,2.05305,9,12
9.18611,0.352898,-0.804273,31,5
25.2114,0.964113,4.90417,15,13
9.56194,0.363994,-0.501483,63,6
12.4085,0.470184,2.86678,23,14
9.47376,0.358981,-0.165484,24,7
31.822,1.20023,8.53275,27,15
12.5019,0.451871,0.218365,12,8
0.551137,0.019824,-0.127322,15,1
0.700433,0.025072,-0.136238,25,2
11.8273,0.421286,1.03541,46,10
6.32316,0.224125,-1.00212,50,3
12.4943,0.440686,1.53507,14,11
7.21931,0.253366,-0.886965,33,4
12.9505,0.454506,2.05242,37,12
8.88064,0.31012,-0.777429,30,5
19.2989,0.670572,3.75359,13,13
9.52523,0.329301,-0.499494,80,6
12.2854,0.422577,2.83798,21,14
9.43298,0.324463,-0.164751,86,7
19.8343,0.678768,5.3177,15,15
13.5506,0.444789,0.236655,39,8
0.562886,0.0183777,-0.130022,14,1
0.716214,0.0231338,-0.139291,24,2
11.9741,0.384665,1.04813,99,10
6.32782,0.203281,-1.00275,45,3
12.9322,0.413194,1.58869,39,11
7.29352,0.231759,-0.895983,37,4
8.22849,0.258593,-0.720255,10,5
25.1231,0.789535,4.88586,15,13
9.54823,0.2984,-0.500646,63,6
12.9518,0.400244,-0.226183,26,7
12.0356,0.369826,3.22644,12,15
0.53178,0.0155044,-0.122823,15,1
16.6781,0.483341,0.874429,8,9
0.728065,0.0209726,-0.14158,34,2
6.32454,0.181082,-1.00212,50,3
12.4474,0.354211,1.52897,28,11
7.33992,0.207587,-0.901589,38,4
13.8617,0.38962,2.19634,10,12
8.13773,0.227308,-0.712237,2,5
19.1245,0.530858,3.71887,17,13
9.50134,0.262078,-0.498134,73,6
13.0111,0.356617,-0.227195,25,7
12.3501,0.316929,0.215642,3,8
0.531833,0.0135551,-0.122823,15,1
12.4389,0.314865,0.652106,21,9
0.728137,0.0183041,-0.14158,23,2
11.8072,0.296811,1.03332,36,10
6.33898,0.158244,-1.00431,46,3
12.3713,0.306671,1.51947,7,11
7.34262,0.180734,-0.901833,30,4
16.2683,0.397585,2.57741,5,12
18.9085,0.455515,3.67651,34,13
9.69592,0.231882,-0.508287,42,6
12.9359,0.309368,2.98735,31,14
11.1192,0.263983,-0.194141,21,7
12.2696,0.289154,3.28855,37,15
13.6166,0.299499,0.237737,42,8
0.563052,0.0122858,-0.130022,14,1
14.8422,0.321272,0.778026,18,9
0.728197,0.0157625,-0.14158,34,2
13.7662,0.295572,1.20467,21,10
6.33557,0.134924,-1.00368,42,3
12.9598,0.273737,1.59161,39,11
7.30949,0.153112,-0.89769,67,4
16.5758,0.344318,2.62591,11,12
9.17098,0.190503,-0.80253,30,5
18.6313,0.383772,3.62232,24,13
9.56088,0.195264,-0.501169,31,6
12.8181,0.25955,2.95991,25,14
11.1021,0.222863,-0.193826,25,7
12.3093,0.244947,3.29891,14,15
13.7076,0.253628,0.239307,15,8
0.563091,0.0103204,-0.130022,14,1
0.71647,0.0130065,-0.139291,24,2
11.8428,0.212922,1.03628,89,10
6.36168,0.113266,-1.00775,52,3
12.8058,0.225765,1.5726,39,11
7.63946,0.133349,-0.93815,48,4
7.79506,0.134704,-0.682081,7,5
18.6816,0.319569,3.63186,19,13
9.47564,0.160437,-0.496668,56,6
12.6923,0.212685,2.93066,34,14
11.0868,0.183846,-0.193547,20,7
12.565,0.206164,3.36724,12,15
13.7244,0.206021,0.239587,63,8
0.531948,0.00789212,-0.122823,15,1
13.1246,0.192429,0.687904,38,9
0.732215,0.0107355,-0.142344,22,2
12.1144,0.17551,1.05999,36,10
6.37191,0.0911986,-1.00932,53,3
12.874,0.182013,1.58089,39,11
7.70141,0.107542,-0.945706,46,4
16.2025,0.223415,2.56646,48,12
7.70981,0.10631,-0.674585,11,5
18.5589,0.252668,3.60782,27,13
9.39026,0.126208,-0.492167,66,6
12.6969,0.168427,2.93156,38,14
9.60172,0.125693,-0.167613,100,7
12.3512,0.159536,3.30978,31,15
13.749,0.158385,0.240005,38,8
0.56315,0.00638906,-0.130022,14,1
12.9634,0.14481,0.679425,24,9
0.724396,0.00809199,-0.140817,34,2
13.4359,0.147743,1.17556,17,10
6.35046,0.0687221,-1.00587,52,3
13.5654,0.144431,1.66571,22,11
7.77717,0.0814464,-0.954968,45,4
16.2249,0.167083,2.56991,46,12
7.77588,0.0800758,-0.680338,10,5
18.6401,0.188702,3.62346,25,13
9.36868,0.0932079,-0.491016,73,6
20.8778,0.204067,4.82025,34,14
9.66208,0.0927541,-0.16866,33,7
12.3169,0.11609,3.30046,25,15
13.4835,0.105906,0.235363,45,8
0.551477,0.00423504,-0.127322,15,1
12.7981,0.0960545,0.670738,11,9
0.732273,0.00549599,-0.142344,22,2
12.7709,0.0936214,1.11734,19,10
6.3724,0.0455999,-1.00932,48,3
12.871,0.0898566,1.5804,39,11
7.97592,0.0542941,-0.979342,100,4
21.2487,0.140926,3.36553,16,12
7.81,0.0517978,-0.683301,6,5
18.6976,0.120744,3.63453,19,13
9.40091,0.0590722,-0.492691,80,6
21.2448,0.129777,4.90483,36,14
9.72835,0.0577293,-0.169812,100,7
12.3327,0.0710376,3.3046,26,15
11.4921,0.0501447,0.200598,81,8
0.555386,0.0023267,-0.128222,14,1
12.8503,0.0515853,0.673459,10,9
0.720509,0.00289237,-0.140054,23,2
12.8409,0.0493065,1.12344,30,10
6.37252,0.0233602,-1.00932,48,3
12.9328,0.0451453,1.58796,32,11
8.31154,0.027563,-1.02053,39,4
21.2866,0.0668865,3.37148,20,12
9.21276,0.0289483,-0.806016,51,5
18.6096,0.0552183,3.61736,18,13
9.36511,0.0261536,-0.490807,56,6
20.9099,0.0547352,4.82745,34,14
9.70649,0.023719,-0.169428,100,7
12.3793,0.0280898,3.31703,27,15
11.4742,0.010016,0.200284,26,8
0.547596,0.000382436,-0.126422,15,1
14.0148,0.00733522,0.734483,24,9
0.712661,0.000373001,-0.138527,24,2
12.7772,0.00446367,1.11786,26,10
6.39232,0.00111753,-1.01244,46,3
12.8674,-0,1.57991,79,11
8.25798,-0.00144129,-1.01395,55,4
21.4388,-0.00748354,3.39557,9,12
9.0833,-0.00317067,-0.794686,39,5
18.7118,-0.00979746,3.6372,30,13
9.57086,-0.00668172,-0.501588,80,6
18.743,-0.0163563,4.32716,28,14
9.71452,-0.010173,-0.169568,23,7
12.5029,-0.0152752,3.35015,23,15
9.81447,-0.0256943,0.171313,46,8
0.551491,-0.00154006,-0.127322,15,1
9.9543,-0.0295351,0.521685,25,9
0.716585,-0.00212616,-0.139291,24,2
12.9923,-0.0408167,1.13669,30,10
6.40611,-0.0212436,-1.01463,52,3
13.6315,-0.0475833,1.67375,33,11
8.17257,-0.0299542,-1.00347,66,4
21.3655,-0.0820381,3.38399,7,12
8.40384,-0.0322686,-0.735246,17,5
18.7902,-0.0754289,3.65247,22,13
9.79647,-0.0410356,-0.513416,52,6
18.4524,-0.0805145,4.26012,21,14
9.68443,-0.0439468,-0.169044,69,7
12.2092,-0.0575348,3.27147,30,15
9.3524,-0.0571313,0.16325,35,8
0.563175,-0.00353858,-0.130022,14,1
13.0059,-0.0817195,0.681624,6,9
0.710683,-0.00458946,-0.138146,36,2
6.38624,-0.0434705,-1.01151,50,3
12.9068,-0.0901076,1.58479,7,11
8.35901,-0.0598168,-1.02638,59,4
9.25639,-0.0678541,-0.809851,46,5
16.7147,-0.125445,3.2491,19,13
9.80625,-0.0753081,-0.513939,100,6
18.1461,-0.142522,4.18949,24,14
9.57825,-0.0752289,-0.167194,31,7
12.3113,-0.0988435,3.29891,28,15
9.37416,-0.088352,0.163634,67,8
0.56316,-0.00540611,-0.130022,14,1
0.716552,-0.00712877,-0.139291,24,2
6.39002,-0.0646878,-1.01213,52,3
13.3351,-0.137323,1.63744,41,11
8.4461,-0.0884506,-1.03711,44,4
9.1784,-0.0993237,-0.803053,15,5
16.7338,-0.181084,3.25291,20,13
9.83391,-0.108134,-0.515405,100,6
11.9723,-0.133738,2.7642,38,14
9.62791,-0.10923,-0.168067,25,7
12.251,-0.141128,3.28286,25,15
9.7817,-0.126342,0.170754,41,8
0.531961,-0.00696374,-0.122823,15,1
13.1148,-0.173972,0.687381,30,9
0.734193,-0.00973927,-0.142725,34,2
6.39765,-0.0871003,-1.01338,52,3
13.281,-0.183131,1.63086,86,11
8.53308,-0.119152,-1.04783,45,4
13.7887,-0.194947,2.18414,11,12
9.59439,-0.135647,-0.839484,22,5
14.8878,-0.213084,2.89419,7,13
8.50943,-0.123278,-0.446007,39,6
12.0166,-0.176185,2.77455,12,14
9.62747,-0.142837,-0.168067,23,7
12.3122,-0.184818,3.29943,19,15
9.53926,-0.156516,0.166531,85,8
0.563109,-0.00933755,-0.130022,14,1
13.0762,-0.219115,0.685392,6,9
0.730228,-0.0122362,-0.141962,34,2
12.2475,-0.207365,1.07167,24,10
6.40916,-0.109634,-1.01526,52,3
13.3398,-0.230518,1.63817,41,11
8.37383,-0.146166,-1.02833,61,4
9.08189,-0.160111,-0.794686,36,5
12.4407,-0.22584,2.87262,74,14
9.63491,-0.176589,-0.168206,69,7
12.4448,-0.230261,3.33514,18,15
9.50867,-0.189217,0.166007,96,8
0.531899,-0.0106773,-0.122823,15,1
12.041,-0.243813,0.631172,4,9
0.714476,-0.0145919,-0.138909,24,2
12.2228,-0.249628,1.06958,49,10
6.43046,-0.132453,-1.0187,46,3
15.5915,-0.323873,1.91481,20,11
8.43876,-0.176767,-1.03638,48,4
13.7456,-0.290328,2.17757,40,12
8.97567,-0.191148,-0.785448,18,5
14.7446,-0.316578,2.86671,27,13
9.71838,-0.210359,-0.509438,77,6
12.4904,-0.270362,2.88432,51,14
9.65223,-0.210612,-0.16852,26,7
13.0001,-0.285934,3.48422,17,15
9.48192,-0.223454,0.165554,92,8
0.531856,-0.0126268,-0.122823,15,1
14.8014,-0.353985,0.775933,11,9
0.726193,-0.0174941,-0.141199,34,2
12.2078,-0.294089,1.06836,27,10
6.45363,-0.156596,-1.02246,48,3
12.798,-0.312777,1.57187,29,11
8.46386,-0.20833,-1.03955,37,4
13.7641,-0.341196,2.1807,45,12
9.00678,-0.22484,-0.788237,40,5
14.7845,-0.371654,2.87473,21,13
9.80141,-0.2481,-0.513834,100,6
9.60542,-0.244816,-0.167718,94,7
12.9604,-0.332589,3.47387,11,15
9.40908,-0.256246,0.164297,43,8
0.531806,-0.014576,-0.122823,15,1
12.6578,-0.349143,0.66362,7,9
0.737903,-0.0203537,-0.143488,44,2
12.2027,-0.33872,1.06801,20,10
6.48856,-0.181242,-1.02809,53,3
14.7414,-0.41434,1.81073,32,11
8.43724,-0.238621,-1.03638,55,4
8.33079,-0.237066,-0.729145,10,5
17.0301,-0.487594,3.31168,20,13
8.99392,-0.259078,-0.471547,50,6
17.2391,-0.499599,3.98163,30,14
13.0864,-0.381539,-0.228522,25,7
12.5092,-0.366893,3.35326,30,15
9.50806,-0.292159,0.166042,72,8
0.562917,-0.0173954,-0.130022,14,1
19.1185,-0.594144,1.00244,20,9
0.741752,-0.0230513,-0.144252,44,2
13.5635,-0.423882,1.18724,32,10
6.55304,-0.205938,-1.03841,52,3
13.101,-0.414005,1.60941,14,11
8.43239,-0.267945,-1.03589,50,4
13.5777,-0.433814,2.1516,0,12
8.92334,-0.285104,-0.78109,30,5
18.2489,-0.586246,3.54905,16,13
9.03089,-0.291696,-0.473536,14,6
17.208,-0.558823,3.97488,16,14
9.49549,-0.310021,-0.165833,32,7
12.8418,-0.42152,3.44281,6,15
9.51498,-0.32562,0.166182,42,8
0.531692,-0.0182884,-0.122823,15,1
19.0026,-0.656943,0.996477,23,9
0.718122,-0.0248264,-0.139672,35,2
9.84842,-0.342193,0.862145,54,10
6.6194,-0.231155,-1.04905,50,3
11.6949,-0.410439,1.43684,33,11
8.54845,-0.301506,-1.05027,52,4
13.5011,-0.478547,2.13971,0,12
9.14331,-0.324085,-0.800438,12,5
14.1539,-0.50416,2.75299,26,13
8.65258,-0.309715,-0.453753,79,6
14.2731,-0.513393,3.29733,33,14
13.0655,-0.472239,-0.228208,29,7
12.8287,-0.465923,3.43971,25,15
9.48181,-0.357625,0.165623,52,8
0.554993,-0.0210297,-0.128222,14,1
12.7233,-0.484333,0.667284,28,9
0.721955,-0.0274823,-0.140435,23,2
9.81132,-0.375198,0.859007,42,10
6.68567,-0.256838,-1.05969,50,3
11.6934,-0.45126,1.43684,20,11
8.66041,-0.335727,-1.06416,46,4
9.17597,-0.357317,-0.803402,37,5
14.0481,-0.549497,2.73277,30,13
8.63747,-0.339367,-0.45302,87,6
14.3433,-0.566055,3.31398,20,14
9.11146,-0.361176,-0.159166,58,7
12.9949,-0.517387,3.48474,5,15
9.50249,-0.391627,0.166007,10,8
0.549075,-0.0227251,-0.126872,15,1
0.731662,-0.0304099,-0.142344,22,2
9.81194,-0.409527,0.859181,56,10
6.81894,-0.285798,-1.08096,38,3
14.6231,-0.615448,1.79709,56,11
8.58183,-0.362686,-1.05466,56,4
13.6139,-0.577732,2.15817,60,12
14.0579,-0.599032,2.73506,23,13
8.6063,-0.368235,-0.45145,58,6
14.1173,-0.6065,3.26224,18,14
9.07618,-0.391513,-0.158573,100,7
12.1014,-0.524125,3.24559,8,15
12.8292,-0.573597,0.224159,26,8
0.552886,-0.0248163,-0.127772,14,1
12.1929,-0.549411,0.63965,39,9
0.73743,-0.0333575,-0.143488,22,2
9.81237,-0.445577,0.859356,38,10
6.79614,-0.3098,-1.07752,85,3
17.3892,-0.792681,2.13734,37,11
8.66975,-0.396724,-1.06563,46,4
13.6947,-0.629057,2.17131,47,12
9.36424,-0.431779,-0.820136,16,5
13.9242,-0.644471,2.70949,28,13
8.48918,-0.3944,-0.445379,50,6
14.0722,-0.656241,3.25234,38,14
8.76514,-0.408754,-0.153162,100,7
12.1458,-0.568531,3.25801,2,15
12.855,-0.621968,0.224647,37,8
0.548898,-0.0266535,-0.126872,15,1
12.0611,-0.587777,0.632846,44,9
0.721621,-0.0351669,-0.140435,35,2
9.78289,-0.478463,0.856915,22,10
6.81277,-0.334392,-1.08034,78,3
14.9951,-0.738628,1.8434,40,11
13.7929,-0.684238,2.18727,61,12
13.7709,-0.685555,2.6801,30,13
8.4678,-0.423034,-0.444332,76,6
14.0931,-0.706529,3.25774,24,14
9.1031,-0.457957,-0.159096,67,7
18.966,-0.957455,5.08838,9,15
11.8523,-0.614927,0.20716,8,8
0.552694,-0.028772,-0.127772,14,1
12.1049,-0.632271,0.635254,41,9
0.725415,-0.0378904,-0.141199,23,2
6.97727,-0.366884,-1.10662,38,3
17.3157,-0.913538,2.12906,18,11
13.7451,-0.72997,2.18007,39,12
8.39207,-0.445685,-0.735246,23,5
14.3271,-0.763391,2.78886,7,13
9.16831,-0.490119,-0.481177,65,6
14.077,-0.754988,3.25459,22,14
9.04354,-0.486615,-0.158084,92,7
11.8983,-0.642308,3.19279,4,15
12.9262,-0.715899,0.225974,20,8
0.548699,-0.0304849,-0.126872,15,1
12.0707,-0.672742,0.633579,33,9
0.733119,-0.0408594,-0.142725,45,2
11.7746,-0.6583,1.03175,27,10
6.88522,-0.386149,-1.09223,60,3
11.4458,-0.643928,1.40759,9,11
8.72251,-0.492246,-1.07269,39,4
13.6063,-0.770242,2.15848,25,12
8.45611,-0.478692,-0.740998,6,5
8.45866,-0.481799,-0.444018,25,6
17.9012,-1.02277,4.13955,31,14
8.6405,-0.495182,-0.151068,66,7
11.8382,-0.680511,3.17726,10,15
12.1112,-0.713173,0.211768,17,8
0.55248,-0.0326298,-0.127772,14,1
11.9068,-0.705306,0.625101,37,9
0.721213,-0.0427217,-0.140435,35,2
11.7225,-0.696443,1.02739,25,10
7.02186,-0.418405,-1.11413,27,3
13.8412,-0.827166,1.70251,100,11
8.77424,-0.525897,-1.07927,41,4
13.5977,-0.817376,2.15754,48,12
8.09441,-0.486568,-0.709448,6,5
13.6081,-0.82039,2.64996,30,13
8.44297,-0.510478,-0.443286,58,6
17.9111,-1.08608,4.1427,11,14
8.61477,-0.523884,-0.150649,49,7
11.7624,-0.717361,3.15759,12,15
11.9988,-0.748596,0.209848,43,8
0.564032,-0.0352882,-0.130472,14,1
9.85906,-0.618552,0.517707,7,9
0.724979,-0.0454848,-0.141199,23,2
9.87071,-0.621012,0.865282,16,10
8.51481,-0.540183,-1.04759,35,4
13.577,-0.863707,2.15473,24,12
8.33317,-0.53158,-0.730539,15,5
