x, y, z, intensity, ring
8.32024,3.25899,-0.468302,72,6
38.737,15.1653,9.60406,15,14
9.80454,3.83643,-0.183774,25,7
38.635,15.1098,11.1158,12,15
11.864,4.62079,0.222239,48,8
0.519374,0.202183,-0.128672,14,1
15.047,5.8545,0.846168,39,9
0.724588,0.281777,-0.151121,39,2
17.0503,6.63048,1.60053,37,10
5.69849,2.21488,-0.968329,45,3
20.7649,8.06669,2.73524,6,11
6.38977,2.48099,-0.84163,23,4
23.3768,9.07198,3.97156,15,12
7.21473,2.79841,-0.677026,25,5
23.7289,9.19908,4.94691,13,13
8.33585,3.22992,-0.468512,68,6
39.1567,15.1722,9.69494,15,14
9.82532,3.80508,-0.183913,25,7
38.4966,14.9009,11.0609,12,15
11.9051,4.58663,0.222693,51,8
0.512838,0.197476,-0.126872,15,1
15.0665,5.7986,0.846063,35,9
0.718287,0.2763,-0.149594,40,2
17.0856,6.57224,1.60157,30,10
5.71394,2.19681,-0.969581,33,3
17.7406,6.81708,2.33355,5,11
6.384,2.45187,-0.83968,24,4
23.6073,9.06198,4.00504,5,12
7.24726,2.78051,-0.679118,22,5
23.7277,9.0987,4.93966,26,13
8.34017,3.19649,-0.468093,65,6
9.83174,3.76618,-0.183774,25,7
38.5184,14.7473,11.0516,11,15
11.948,4.55293,0.223181,55,8
0.539054,0.205306,-0.133171,14,1
15.0615,5.73338,0.844598,38,9
0.715577,0.272394,-0.148831,40,2
17.4448,6.63711,1.63295,37,10
5.72565,2.17726,-0.970207,33,3
18.7823,7.13848,2.46712,26,11
6.39479,2.42916,-0.839924,27,4
29.8048,11.3158,5.04939,4,12
7.25692,2.7552,-0.679118,22,5
23.6877,8.98865,4.92478,22,13
8.35315,3.16806,-0.468197,76,6
38.4396,14.5712,9.49069,14,14
9.8567,3.73437,-0.183983,25,7
11.9357,4.50061,0.222658,55,8
0.532473,0.200674,-0.131371,14,1
15.0142,5.65542,0.840829,36,9
0.712849,0.268511,-0.148068,41,2
17.2087,6.47859,1.60872,74,10
5.73876,2.15935,-0.971145,35,3
18.9093,7.11131,2.48053,32,11
6.40695,2.40822,-0.840411,29,4
24.3686,9.15472,4.12299,8,12
7.26277,2.72845,-0.678769,25,5
23.4561,8.80723,4.87021,28,13
8.38473,3.1466,-0.469349,72,6
38.3133,14.3705,9.44704,14,14
9.87529,3.70205,-0.184088,24,7
11.9551,4.46032,0.222728,55,8
0.555081,0.206985,-0.13677,13,1
14.9084,5.55625,0.833817,40,9
0.704584,0.262593,-0.14616,42,2
17.3077,6.44699,1.61587,57,10
5.7333,2.13448,-0.968955,38,3
16.8261,6.26092,2.20437,23,11
6.43765,2.39414,-0.843336,25,4
23.6209,8.77986,3.99127,15,12
7.27972,2.70586,-0.679466,22,5
23.5106,8.73419,4.87517,15,13
8.40128,3.1194,-0.469663,72,6
38.661,14.3472,9.52038,14,14
9.88065,3.66477,-0.183948,23,7
39.1805,14.5244,11.1965,12,15
11.9762,4.42064,0.222832,55,8
0.511922,0.188858,-0.125973,15,1
14.9053,5.49589,0.83256,40,9
0.716548,0.264207,-0.148449,41,2
16.7711,6.18055,1.56375,48,10
5.74257,2.11513,-0.969268,36,3
16.8199,6.19186,2.20072,9,11
6.43479,2.36754,-0.841874,25,4
24.3745,8.96324,4.11329,13,12
7.29286,2.6818,-0.679815,23,5
23.5594,8.65883,4.87899,12,13
8.41211,3.09006,-0.469663,68,6
38.8389,14.2592,9.55187,14,14
9.90277,3.6337,-0.184123,22,7
39.2091,14.3796,11.1903,12,15
11.9972,4.38087,0.222937,58,8
0.530884,0.193751,-0.130472,14,1
14.8568,5.41918,0.828792,41,9
0.724844,0.264395,-0.149976,40,2
16.8918,6.15814,1.57299,40,10
5.74807,2.0944,-0.968955,38,3
18.2646,6.65139,2.38669,5,11
6.42995,2.34031,-0.840167,30,4
24.1829,8.79707,4.07574,24,12
7.30592,2.6577,-0.680163,23,5
23.2869,8.46653,4.8164,6,13
8.40596,3.05453,-0.468721,83,6
9.90411,3.59502,-0.183913,22,7
39.1247,14.1938,11.152,12,15
11.9842,4.32878,0.222413,50,8
0.531557,0.191896,-0.130472,14,1
14.9902,5.40864,0.835177,34,9
0.699908,0.252535,-0.144633,44,2
19.1154,6.8933,1.7778,18,10
5.76463,2.07767,-0.97052,35,3
21.19,7.63304,2.76546,7,11
6.45116,2.32256,-0.841874,27,4
24.4328,8.79151,4.11266,13,12
7.3039,2.62813,-0.679118,25,5
24.0405,8.64563,4.966,6,13
8.43724,3.03261,-0.469872,79,6
40.445,14.5292,9.92169,15,14
9.92601,3.5638,-0.184088,24,7
39.2067,14.069,11.1613,12,15
11.9371,4.26471,0.221262,52,8
0.543235,0.193972,-0.133171,14,1
15.2009,5.42475,0.845854,44,9
0.713729,0.254709,-0.147305,42,2
17.032,6.07487,1.58205,27,10
5.77185,2.05753,-0.97052,35,3
24.4964,8.7276,3.19298,9,11
6.46671,2.30269,-0.842848,27,4
24.374,8.67438,4.09764,13,12
7.30928,2.60128,-0.678769,27,5
23.7968,8.46429,4.90952,15,13
8.46095,3.00782,-0.470605,87,6
39.3644,13.986,9.64455,15,14
9.96101,3.53717,-0.184507,24,7
11.9425,4.21969,0.221087,51,8
0.536559,0.189479,-0.131371,14,1
0.725722,0.256136,-0.149594,40,2
17.7182,6.25,1.64376,77,10
5.77527,2.03606,-0.969894,37,3
17.0002,5.99005,2.21315,4,11
6.48594,2.28406,-0.844311,25,4
24.8382,8.74207,4.17054,8,12
7.31456,2.57443,-0.67842,27,5
24.278,8.54012,5.00263,22,13
8.47705,2.98025,-0.470919,83,6
39.492,13.8764,9.6639,15,14
9.96574,3.49972,-0.184367,24,7
39.3405,13.8077,11.1717,12,15
12.0478,4.20963,0.222763,47,8
0.518819,0.18118,-0.126872,15,1
0.709929,0.24778,-0.14616,42,2
15.6913,5.4735,1.45393,31,10
5.78234,2.01589,-0.969894,35,3
21.4787,7.4839,2.79276,14,11
6.49012,2.2601,-0.843823,29,4
23.1093,8.04301,3.87551,5,12
7.33479,2.55281,-0.679466,23,5
24.2873,8.44822,4.99843,13,13
8.4591,2.94081,-0.469349,76,6
39.461,13.7109,9.64455,15,14
9.97223,3.46294,-0.184263,25,7
41.2755,14.3252,11.7069,13,15
12.0889,4.17669,0.223251,50,8
0.534185,0.184456,-0.130472,14,1
15.5854,5.37865,0.864067,26,9
0.718213,0.247862,-0.147686,41,2
5.78748,1.99505,-0.969581,38,3
19.6973,6.78618,2.55804,17,11
6.48483,2.23291,-0.842117,32,4
24.7959,8.5331,4.15334,13,12
7.35119,2.52979,-0.680163,25,5
24.4002,8.39214,5.01561,10,13
8.47687,2.91386,-0.469768,76,6
28.5648,9.81338,6.97303,41,14
9.98048,3.42682,-0.184193,25,7
43.021,14.7629,12.1873,15,15
12.1438,4.14593,0.223984,48,8
0.534857,0.182497,-0.130472,14,1
15.4528,5.27261,0.855693,51,9
0.713542,0.243327,-0.146541,42,2
16.0186,5.45941,1.4806,56,10
5.79849,1.9751,-0.970207,52,3
24.9368,8.48919,3.23441,38,11
6.48319,2.20706,-0.840899,31,4
23.6549,8.04818,3.95748,5,12
7.3755,2.50795,-0.681558,26,5
24.3583,8.27802,5.00072,16,13
8.48749,2.88277,-0.469768,76,6
28.7982,9.78129,7.02162,41,14
9.98481,3.38939,-0.184053,25,7
29.3186,9.94661,8.29567,6,15
12.1405,4.09988,0.22367,41,8
0.528074,0.178229,-0.128672,14,1
15.5365,5.24369,0.859356,8,9
0.693882,0.234057,-0.142344,45,2
16.012,5.39799,1.47834,50,10
5.81999,1.9609,-0.97271,28,3
19.6991,6.6333,2.55219,47,11
6.49048,2.18555,-0.840899,31,4
23.7414,7.98986,3.96749,2,12
7.38,2.48221,-0.681209,27,5
29.5813,9.94373,6.0662,9,13
8.52351,2.86351,-0.471233,72,6
28.9284,9.71863,7.04547,41,14
10.0017,3.35816,-0.184158,23,7
29.3129,9.83643,8.2848,31,15
12.1635,4.06276,0.223845,37,8
0.524965,0.175244,-0.127772,14,1
15.1757,5.06302,0.838422,17,9
0.69842,0.232875,-0.143107,45,2
15.6613,5.22197,1.44434,34,10
5.83395,1.94409,-0.973961,35,3
21.9546,7.31186,2.84126,22,11
6.5169,2.16915,-0.843336,25,4
26.2583,8.73497,4.38298,15,12
7.39619,2.45895,-0.681907,28,5
24.2855,8.06931,4.97439,16,13
8.51829,2.82871,-0.470396,72,6
28.9991,9.62987,7.05446,51,14
10.0342,3.33016,-0.184542,22,7
28.5825,9.48042,8.06894,24,15
12.1878,4.02129,0.224019,38,8
0.518201,0.170877,-0.125973,15,1
0.725374,0.238912,-0.148449,41,2
16.6511,5.48428,1.53377,35,10
5.8279,1.91837,-0.971771,36,3
15.685,5.16002,2.02742,48,11
6.51726,2.14277,-0.842361,31,4
24.7719,8.13981,4.12987,8,12
7.41651,2.43555,-0.682952,25,5
24.4231,8.01575,4.99652,6,13
8.51722,2.79373,-0.469768,68,6
29.0805,9.53871,7.06571,41,14
10.0711,3.30146,-0.184996,24,7
29.1255,9.54221,8.21233,18,15
12.1986,3.97535,0.223949,45,8
0.522529,0.170183,-0.126872,15,1
0.718736,0.233948,-0.146923,42,2
15.629,5.08423,1.4379,15,10
5.84805,1.90127,-0.973961,33,3
15.6982,5.10065,2.02669,48,11
6.52318,2.11826,-0.842117,32,4
24.3112,7.8898,4.04821,13,12
7.4496,2.41765,-0.685218,30,5
40.7223,13.2079,8.32156,18,13
8.53831,2.76768,-0.470396,65,6
29.0096,9.39782,7.04007,51,14
10.0603,3.25713,-0.184577,24,7
29.2706,9.47108,8.24339,18,15
12.2315,3.93887,0.224298,45,8
0.52312,0.168359,-0.126872,15,1
15.5053,4.98718,0.8536,34,9
0.693383,0.223022,-0.14158,46,2
15.6391,5.0272,1.4372,15,10
5.86029,1.88266,-0.9749,36,3
15.6875,5.03672,2.02303,21,11
6.54377,2.09972,-0.843823,29,4
25.0139,8.02145,4.16053,11,12
7.44661,2.38798,-0.684173,28,5
24.2897,7.78454,4.95798,6,13
8.54032,2.73542,-0.469977,72,6
29.4376,9.42305,7.1359,10,14
10.0659,3.22017,-0.184472,25,7
28.2252,9.0241,7.94005,11,15
12.2375,3.89373,0.224159,45,8
0.523705,0.166532,-0.126872,15,1
15.3437,4.87616,0.84376,38,9
0.709126,0.225357,-0.144633,44,2
17.1168,5.43636,1.57124,3,10
5.86682,1.8622,-0.9749,37,3
15.4553,4.90269,1.99086,46,11
6.57188,2.08346,-0.846505,37,4
31.2108,9.88868,5.18549,17,12
7.4511,2.36077,-0.683824,30,5
24.4496,7.74177,4.98508,6,13
8.56505,2.71041,-0.470814,72,6
30.4123,9.61816,7.364,21,14
10.0961,3.19104,-0.184821,23,7
28.286,8.93482,7.94833,28,15
12.2415,3.84799,0.223984,52,8
0.550311,0.172879,-0.133171,14,1
15.0653,4.72984,0.827536,51,9
0.713654,0.224056,-0.145396,43,2
16.8049,5.27279,1.54091,35,10
5.86952,1.84052,-0.974274,36,3
15.5121,4.86118,1.99598,34,11
6.59616,2.06585,-0.848698,33,4
16.9988,5.32058,2.82114,6,12
7.44599,2.33058,-0.682604,28,5
24.379,7.62591,4.96523,16,13
8.57064,2.67931,-0.470605,72,6
10.1129,3.15757,-0.184926,23,7
28.601,8.92466,8.02805,17,15
12.251,3.80405,0.223914,48,8
0.550911,0.170957,-0.133171,14,1
15.1496,4.70117,0.831304,43,9
0.716307,0.222145,-0.145778,43,2
14.8554,4.60421,1.36068,3,10
5.86459,1.81652,-0.972397,42,3
23.2564,7.19907,2.98921,8,11
6.60297,2.04396,-0.848698,33,4
17.0182,5.26475,2.82145,15,12
7.44837,2.3028,-0.682081,28,5
24.4055,7.54077,4.96523,19,13
8.57231,2.64702,-0.470186,68,6
27.9094,8.61805,6.74358,9,14
10.1329,3.12696,-0.1851,25,7
28.5197,8.79561,7.99699,35,15
12.2464,3.75812,0.2236,55,8
0.506761,0.155416,-0.122373,15,1
12.4746,3.82579,0.683822,23,9
0.724548,0.22207,-0.147305,42,2
14.562,4.4604,1.33244,2,10
5.88191,1.80053,-0.974274,41,3
17.7487,5.4297,2.27896,29,11
6.58314,2.01392,-0.845286,33,4
17.0412,5.21003,2.82239,15,12
7.46549,2.28101,-0.682952,26,5
24.3477,7.43456,4.94844,22,13
8.59441,2.62266,-0.470919,72,6
28.0534,8.56072,6.77148,20,14
10.1317,3.08985,-0.184891,22,7
28.6208,8.72294,8.01718,23,15
12.2243,3.70704,0.222972,55,8
0.533383,0.161648,-0.128672,14,1
14.4415,4.37389,0.790796,21,9
0.699012,0.211577,-0.141962,46,2
16.3845,4.95926,1.49768,26,10
5.8973,1.78387,-0.975838,45,3
16.1609,4.88543,2.073,9,11
6.59393,1.99208,-0.845773,33,4
17.5472,5.29782,2.90311,16,12
7.47531,2.25551,-0.683127,30,5
24.4563,7.37446,4.96523,16,13
8.64367,2.60474,-0.473117,76,6
28.3742,8.55046,6.84166,40,14
10.1156,3.04639,-0.184402,26,7
28.9729,8.71985,8.10725,6,15
12.165,3.64043,0.221646,55,8
0.560111,0.167509,-0.134971,14,1
12.4845,3.73128,0.68288,7,9
0.707308,0.211261,-0.143488,44,2
5.91327,1.76507,-0.977403,46,3
16.1996,4.83241,2.07568,18,11
6.60689,1.9696,-0.846505,34,4
17.0591,5.08231,2.81926,12,12
7.4778,2.22639,-0.682604,30,5
15.4584,4.59953,3.13499,29,13
8.63976,2.56906,-0.472384,76,6
28.607,8.50639,6.89025,10,14
10.1152,3.00588,-0.184193,25,7
29.0325,8.62186,8.11501,12,15
12.1131,3.57657,0.220459,56,8
0.568197,0.167661,-0.13677,13,1
12.4265,3.66676,0.679007,15,9
0.711807,0.209901,-0.144252,44,2
15.1648,4.46901,1.38316,30,10
5.90643,1.73948,-0.975213,45,3
16.2192,4.77355,2.07592,45,11
6.62549,1.94873,-0.847967,37,4
17.0029,5.001,2.80706,15,12
7.48935,2.2014,-0.682952,28,5
15.382,4.51842,3.11629,17,13
8.65251,2.54001,-0.472594,83,6
29.7039,8.71418,7.1467,10,14
10.0758,2.95591,-0.183285,25,7
29.2422,8.57318,8.16522,6,15
12.1594,3.54646,0.221087,47,8
0.542557,0.158141,-0.130472,14,1
12.8477,3.74233,0.701302,17,9
0.716305,0.208513,-0.145015,43,2
15.4845,4.50453,1.41088,34,10
5.89889,1.71602,-0.973022,42,3
16.252,4.72474,2.07812,54,11
6.64526,1.93063,-0.849673,38,4
14.9468,4.33961,2.46509,28,12
7.4989,2.17579,-0.683127,30,5
15.1009,4.3815,3.05638,38,13
8.65321,2.50908,-0.472175,83,6
26.3073,7.62307,6.32337,34,14
10.1725,2.94575,-0.184856,24,7
29.8676,8.64346,8.33139,25,15
12.1295,3.49182,0.220319,56,8
0.531869,0.153014,-0.127772,14,1
12.1965,3.50652,0.665085,4,9
0.713219,0.205051,-0.144252,44,2
15.0034,4.31066,1.36573,100,10
5.91434,1.69814,-0.974587,50,3
17.9514,5.15087,2.29309,19,11
6.65769,1.90906,-0.850404,40,4
17.6355,5.05358,2.90561,19,12
7.5256,2.15509,-0.68487,30,5
15.1463,4.33741,3.06248,15,13
8.65808,2.47776,-0.471966,83,6
26.6055,7.6089,6.38861,44,14
10.2077,2.91737,-0.18531,25,7
28.5434,8.15237,7.95403,5,15
12.155,3.45329,0.220564,55,8
0.53615,0.152221,-0.128672,14,1
0.702633,0.199223,-0.141962,46,2
15.2031,4.30779,1.38246,69,10
5.92813,1.67861,-0.975838,52,3
22.6678,6.41862,2.89269,15,11
6.65285,1.88257,-0.848942,37,4
17.0999,4.83558,2.81457,11,12
7.52158,2.12556,-0.683824,26,5
15.1508,4.27867,3.06019,35,13
8.67863,2.44927,-0.472594,79,6
26.44,7.45685,6.34227,26,14
10.2351,2.8866,-0.185624,24,7
29.6353,8.35245,8.25012,25,15
12.1291,3.39792,0.219865,48,8
0.547964,0.153407,-0.131371,14,1
12.681,3.54776,0.690102,21,9
0.703324,0.196769,-0.141962,46,2
13.9248,3.89311,1.26498,24,10
5.94156,1.66003,-0.97709,45,3
17.875,4.99078,2.27871,9,11
6.68456,1.86511,-0.852111,45,4
14.7695,4.11816,2.42849,15,12
7.52127,2.09715,-0.683127,30,5
15.2129,4.23893,3.06974,29,13
8.68521,2.41842,-0.472489,79,6
24.549,6.83112,5.88292,36,14
10.2707,2.85603,-0.186078,25,7
33.4517,9.29583,9.30299,8,15
12.3317,3.4083,0.223321,51,8
0.525955,0.145267,-0.125973,15,1
12.1773,3.36106,0.66205,19,9
0.715362,0.197446,-0.144252,44,2
13.9844,3.8572,1.26916,27,10
5.94541,1.63876,-0.976777,57,3
22.7055,6.25414,2.89172,30,11
6.66615,1.83491,-0.848942,45,4
14.6885,4.04038,2.41285,14,12
7.542,2.07458,-0.684347,28,5
14.3871,3.95476,2.9003,8,13
8.70322,2.39073,-0.473012,79,6
15.622,4.28834,3.74004,20,14
10.2825,2.82069,-0.186112,22,7
29.6161,8.11872,8.22838,6,15
12.3937,3.37891,0.224229,40,8
0.53774,0.146504,-0.128672,14,1
12.7665,3.47817,0.693452,44,9
0.697104,0.189791,-0.140435,47,2
14.2746,3.88368,1.29426,43,10
5.93775,1.61437,-0.974587,45,3
17.8538,4.85078,2.27164,34,11
6.67603,1.81384,-0.849429,36,4
14.7019,3.99165,2.41285,11,12
7.55688,2.05033,-0.685044,33,5
8.71923,2.36243,-0.473431,83,6
15.6098,4.22938,3.73374,17,14
10.3034,2.78972,-0.186322,24,7
26.0102,7.03758,7.22002,18,15
12.0727,3.24843,0.218225,45,8
0.534459,0.143708,-0.127772,14,1
12.1454,3.2657,0.659119,7,9
0.709105,0.190535,-0.142725,45,2
13.4138,3.60174,1.21513,39,10
5.97742,1.60388,-0.980218,56,3
17.7682,4.7643,2.25873,9,11
6.67434,1.78963,-0.848454,40,4
15.7549,4.22151,2.58336,17,12
7.58481,2.03093,-0.686962,30,5
15.1419,4.05161,3.04684,9,13
8.74438,2.33814,-0.474373,72,6
15.5879,4.16803,3.72519,7,14
10.3203,2.7576,-0.186462,23,7
26.8378,7.16609,7.44312,10,15
12.095,3.21145,0.218434,30,8
0.550001,0.145933,-0.131371,14,1
0.705938,0.187176,-0.141962,46,2
12.9442,3.42967,1.17155,12,10
5.97124,1.58102,-0.978341,63,3
17.7167,4.68758,2.2502,23,11
6.6863,1.76785,-0.849186,40,4
15.2463,4.02824,2.49763,38,12
7.57995,2.00271,-0.685916,31,5
14.8155,3.91166,2.97853,11,13
8.7714,2.31423,-0.47542,83,6
29.1226,7.67823,6.95324,10,14
10.326,2.72054,-0.186392,24,7
26.1715,6.89037,7.25159,9,15
11.9881,3.13832,0.216305,31,8
0.546737,0.143026,-0.130472,14,1
12.1427,3.17426,0.657758,64,9
0.691391,0.180738,-0.138909,48,2
12.9272,3.37692,1.16893,10,10
5.99202,1.56416,-0.980844,53,3
17.7003,4.61718,2.24605,28,11
6.69243,1.7445,-0.849186,38,4
15.1149,3.93715,2.47386,32,12
7.57147,1.97222,-0.684521,31,5
14.7132,3.82975,2.95525,6,13
8.78715,2.28561,-0.475839,90,6
26.8558,6.98039,6.40616,17,14
10.3432,2.68648,-0.186531,24,7
26.5207,6.88343,7.34166,19,15
11.9158,3.07497,0.214804,25,8
0.53591,0.138197,-0.127772,14,1
11.5271,2.97039,0.623845,27,9
0.699623,0.180284,-0.140435,47,2
13.62,3.50715,1.23046,49,10
5.9917,1.54175,-0.979906,51,3
14.944,3.84254,1.89458,16,11
6.72155,1.72705,-0.852111,42,4
18.7582,4.81627,3.06737,18,12
7.5976,1.95073,-0.686264,30,5
14.7512,3.78472,2.96021,4,13
8.79121,2.25393,-0.475629,87,6
26.6572,6.82953,6.35307,35,14
10.3544,2.65087,-0.186566,25,7
26.5577,6.79416,7.34528,19,15
12.1784,3.09744,0.219342,51,8
0.543944,0.138245,-0.129572,14,1
12.4375,3.15874,0.672517,75,9
0.704053,0.178807,-0.141199,46,2
13.3425,3.38608,1.20432,97,10
5.99513,1.52034,-0.979593,56,3
17.0586,4.32284,2.16074,18,11
6.71407,1.70017,-0.850404,45,4
15.5978,3.94686,2.54832,10,12
7.61402,1.92665,-0.687136,30,5
14.7662,3.73368,2.96059,7,13
8.79902,2.22322,-0.475629,87,6
18.4977,4.67033,4.40454,26,14
10.3869,2.62057,-0.186985,23,7
15.2519,3.84516,4.21461,13,15
12.4191,3.10794,0.223461,26,8
0.533128,0.133319,-0.126872,15,1
11.6062,2.90236,0.626985,34,9
0.697116,0.174198,-0.139672,47,2
14.0107,3.49845,1.26341,82,10
6.00476,1.49827,-0.980218,55,3
17,4.23857,2.15124,9,11
6.71284,1.67246,-0.849429,45,4
14.627,3.64421,2.3875,1,12
7.60783,1.89403,-0.685916,28,5
15.9102,3.95801,3.18689,15,13
8.80555,2.18895,-0.475525,83,6
26.7406,6.64241,6.36117,8,14
10.4003,2.58345,-0.187055,23,7
14.6584,3.63845,4.04689,28,15
12.1575,2.99968,0.218574,92,8
0.541135,0.133416,-0.128672,14,1
0.705345,0.173641,-0.141199,46,2
13.8912,3.41716,1.25156,55,10
6.03655,1.48495,-0.984599,56,3
14.9667,3.67895,1.89239,8,11
6.7145,1.64924,-0.848942,46,4
14.6626,3.59877,2.39126,5,12
7.61827,1.86841,-0.686264,30,5
15.8851,3.89588,3.17926,24,13
8.79919,2.1564,-0.474792,79,6
19.4221,4.75617,4.61645,3,14
10.3918,2.54285,-0.186741,23,7
15.1533,3.70519,4.17993,16,15
12.2612,2.97989,0.220249,40,8
0.55296,0.134286,-0.131371,14,1
12.288,2.98187,0.662678,39,9
0.690654,0.167597,-0.138146,48,2
6.03594,1.46248,-0.98366,51,3
14.9988,3.63136,1.89482,8,11
6.72793,1.62766,-0.849917,45,4
14.7269,3.5601,2.3997,10,12
7.62474,1.8418,-0.686264,30,5
15.8395,3.82612,3.16743,14,13
8.80084,2.12427,-0.474478,87,6
15.2027,3.66669,3.61046,19,14
10.4064,2.50797,-0.186845,25,7
11.7367,2.80907,0.210651,28,8
0.561007,0.134168,-0.133171,14,1
12.3217,2.94453,0.663934,91,9
0.695083,0.165977,-0.138909,48,2
6.03357,1.43851,-0.982409,53,3
13.7504,3.27835,1.73566,7,11
6.76061,1.6106,-0.853329,43,4
18.3078,4.35817,2.9807,10,12
7.64663,1.81886,-0.687659,30,5
15.7598,3.74579,3.14873,26,13
8.79302,2.08831,-0.47364,87,6
18.2858,4.33943,4.33886,15,14
10.4034,2.46886,-0.186636,26,7
15.2559,3.61758,4.20115,15,15
11.5231,2.71332,0.206636,48,8
0.534937,0.125863,-0.126872,15,1
0.703303,0.165347,-0.140435,47,2
15.8038,3.71257,1.42029,59,10
6.02702,1.41473,-0.980531,48,3
18.1205,4.25012,2.28529,24,11
6.76646,1.58582,-0.853329,45,4
19.8739,4.65406,3.23287,11,12
7.66101,1.79264,-0.688356,31,5
15.1897,3.55433,3.03234,27,13
8.82359,2.06306,-0.474897,83,6
15.314,3.57776,3.63071,26,14
10.3832,2.42389,-0.186112,26,7
15.2464,3.55638,4.19494,23,15
11.5753,2.68302,0.207404,32,8
0.501201,0.11608,-0.118774,16,1
0.71538,0.165422,-0.142725,45,2
16.0153,3.70036,1.43807,21,10
6.03601,1.39352,-0.981157,53,3
19.4988,4.50166,2.45713,31,11
6.75455,1.55817,-0.851136,40,4
19.7957,4.56292,3.21754,6,12
7.65557,1.76321,-0.68731,31,5
15.2524,3.51008,3.04226,19,13
8.85056,2.03518,-0.475943,87,6
15.3574,3.52859,3.63791,26,14
10.3448,2.37689,-0.185275,27,7
15.2268,3.49578,4.18614,17,15
11.6026,2.64457,0.207719,32,8
0.543425,0.123762,-0.128672,14,1
11.9536,2.72018,0.642476,30,9
0.704468,0.16031,-0.140435,35,2
22.6511,5.15037,2.0323,24,10
6.03891,1.37201,-0.980844,46,3
16.141,3.66419,2.03229,8,11
6.75634,1.53253,-0.850648,41,4
7.67139,1.73868,-0.688182,30,5
13.411,3.03707,2.67285,13,13
8.88293,2.01,-0.477304,87,6
15.3677,3.47453,3.63746,26,14
10.3047,2.32794,-0.184402,26,7
15.1754,3.42549,4.16854,13,15
12.7298,2.85479,0.227719,27,8
0.532444,0.119308,-0.125973,15,1
12.2261,2.73734,0.656607,44,9
0.693528,0.155276,-0.138146,48,2
20.8841,4.67197,1.87228,20,10
6.05909,1.35437,-0.983347,52,3
20.5476,4.58918,2.58509,12,11
6.77328,1.51153,-0.852111,41,4
15.0888,3.36444,2.44851,16,12
7.65797,1.70755,-0.686439,30,5
13.3967,2.98469,2.66789,21,13
8.90549,1.98246,-0.478141,87,6
15.1039,3.35951,3.57222,9,14
10.2991,2.28892,-0.184158,27,7
15.3212,3.40224,4.20529,28,15
0.536663,0.118288,-0.126872,15,1
12.2473,2.69723,0.657235,23,9
0.694066,0.152854,-0.138146,48,2
13.4808,2.96641,1.20763,21,10
6.06378,1.33321,-0.983347,52,3
24.5382,5.39059,3.08476,17,11
6.77851,1.48787,-0.852111,38,4
13.8732,3.04261,2.24953,26,12
7.69307,1.68721,-0.689053,30,5
15.6277,3.42455,3.10981,23,13
8.92796,1.95478,-0.478979,87,6
26.7891,5.86056,6.33102,43,14
10.3168,2.25509,-0.184332,31,7
15.3197,3.34585,4.20167,23,15
0.537073,0.116414,-0.126872,15,1
12.3074,2.66545,0.659956,48,9
0.706108,0.152924,-0.140435,35,2
13.491,2.91933,1.20763,36,10
6.07225,1.31287,-0.983973,50,3
24.4928,5.29106,3.07671,17,11
6.82441,1.473,-0.857229,46,4
13.8451,2.98584,2.24327,41,12
7.70865,1.66245,-0.689925,33,5
15.6607,3.37452,3.114,14,13
8.94059,1.92486,-0.479293,83,6
17.8037,3.8298,4.20434,24,14
10.3324,2.22074,-0.184472,24,7
15.4371,3.31506,4.23066,13,15
11.2629,2.40223,0.201017,7,8
0.533664,0.113726,-0.125973,15,1
12.4768,2.65659,0.66854,42,9
0.710478,0.151276,-0.141199,46,2
19.4722,4.1425,1.74172,18,10
6.08067,1.29249,-0.984599,50,3
24.3209,5.16514,3.05283,17,11
6.79844,1.44257,-0.853329,46,4
13.8246,2.93094,2.23826,56,12
7.75339,1.64379,-0.693411,36,5
13.6788,2.89754,2.71788,7,13
8.93944,1.89199,-0.478874,79,6
17.8227,3.76883,4.20569,15,14
10.436,2.20491,-0.186182,26,7
15.3049,3.23083,4.19132,13,15
11.3906,2.38792,0.203146,3,8
0.56839,0.119054,-0.134071,14,1
12.7929,2.67725,0.684973,44,9
0.691785,0.144774,-0.137382,49,2
14.3302,2.99634,1.28084,11,10
6.08707,1.27166,-0.984912,46,3
18.993,3.96438,2.3823,5,11
6.80732,1.41964,-0.853817,45,4
13.8173,2.87904,2.23545,23,12
7.74738,1.61428,-0.692365,33,5
13.6888,2.84977,2.71788,10,13
8.9499,1.86158,-0.479083,79,6
15.2371,3.16655,3.59292,11,14
10.6316,2.20751,-0.189533,24,7
15.3274,3.17974,4.19442,30,15
11.2833,2.32435,0.201087,1,8
0.553532,0.113926,-0.130472,14,1
12.6476,2.60079,0.676704,9,9
0.696132,0.143149,-0.138146,48,2
14.4596,2.97077,1.29147,30,10
6.09535,1.25119,-0.985537,48,3
18.927,3.8817,2.37231,40,11
6.82196,1.39787,-0.855035,47,4
14.6091,2.99085,2.36185,31,12
7.75715,1.58667,-0.692714,35,5
15.2951,3.12851,3.03463,7,13
8.95047,1.82913,-0.478769,90,6
15.3149,3.12698,3.60866,9,14
10.7392,2.19076,-0.191313,23,7
15.0394,3.06527,4.11263,9,15
11.2835,2.28336,0.200947,1,8
0.519545,0.105042,-0.122373,15,1
11.9303,2.40991,0.637871,6,9
0.70435,0.14215,-0.139672,35,2
6.10183,1.22924,-0.98585,45,3
15.4512,3.11271,1.93529,24,11
6.83458,1.37561,-0.85601,52,4
13.6473,2.74434,2.20479,12,12
7.76264,1.55959,-0.692714,35,5
8.99824,1.80456,-0.480967,83,6
22.3082,4.46976,5.25261,16,14
10.8663,2.17723,-0.193442,23,7
11.1663,2.21707,0.198713,3,8
0.55051,0.109204,-0.129572,14,1
11.9117,2.36074,0.636405,9,9
0.689436,0.136637,-0.136619,25,2
6.09639,1.20601,-0.984286,46,3
19.0341,3.76195,2.3823,10,11
6.84542,1.35171,-0.856742,46,4
7.78003,1.53343,-0.69376,35,5
15.2362,3.00304,3.0186,9,13
8.99273,1.77082,-0.480339,83,6
22.2873,4.38471,5.24406,27,14
10.9763,2.15744,-0.195258,23,7
15.0571,2.95682,4.1116,13,15
12.5911,2.4543,0.223914,62,8
0.527935,0.102811,-0.124173,15,1
11.8767,2.31075,0.634102,21,9
0.705349,0.137106,-0.139672,23,2
12.9477,2.51444,1.15394,10,10
6.10271,1.18404,-0.984599,52,3
19.0569,3.69738,2.38352,25,11
6.8384,1.32554,-0.855279,46,4
13.6491,2.64324,2.20197,21,12
7.7736,1.504,-0.692714,38,5
13.8882,2.6845,2.74956,3,13
9.02661,1.74315,-0.481805,87,6
18.3098,3.53255,4.30511,6,14
10.8934,2.10169,-0.193652,100,7
15.1167,2.91375,4.12506,20,15
0.539793,0.103069,-0.126872,15,1
11.8203,2.25485,0.630648,44,9
0.701967,0.133908,-0.138909,24,2
12.9251,2.46326,1.15115,10,10
6.11263,1.16383,-0.985537,48,3
15.3007,2.91047,1.91237,20,11
6.86077,1.3038,-0.857473,49,4
14.5514,2.76268,2.34589,10,12
7.7788,1.47685,-0.692714,35,5
9.02872,1.71089,-0.481596,87,6
15.1723,2.87233,3.56502,11,14
10.121,1.91422,-0.179795,99,7
15.2468,2.88092,4.15767,6,15
11.1657,2.09364,0.198294,11,8
0.547811,0.102619,-0.128672,14,1
11.8635,2.22019,0.632532,25,9
0.686992,0.128567,-0.135856,37,2
12.9924,2.42911,1.15638,37,10
6.12248,1.14358,-0.986476,50,3
15.3264,2.85995,1.91432,24,11
6.85942,1.27875,-0.856742,42,4
7.7369,1.44094,-0.68853,41,5
13.8545,2.57778,2.73925,11,13
9.03463,1.67937,-0.481596,83,6
18.2785,3.39432,4.29207,15,14
10.8571,2.0142,-0.192744,26,7
22.019,4.08099,6.00046,2,15
11.1611,2.05248,0.198085,6,8
0.540499,0.0992976,-0.126872,15,1
11.8256,2.17253,0.630125,9,9
0.691298,0.126877,-0.136619,37,2
13.1615,2.41321,1.17068,10,10
6.12643,1.1222,-0.986476,50,3
19.4622,3.56145,2.42934,20,11
6.86775,1.25552,-0.857229,48,4
14.2143,2.59856,2.28864,49,12
7.77324,1.41965,-0.691319,30,5
13.3805,2.44131,2.64385,8,13
9.05223,1.64997,-0.482224,83,6
14.2066,2.58689,3.33377,31,14
11.0447,2.01114,-0.195956,35,7
21.9849,3.9993,5.98752,17,15
11.2249,2.02575,0.199097,2,8
0.533154,0.0961218,-0.125073,15,1
11.8213,2.12913,0.629497,12,9
0.707195,0.127244,-0.139672,35,2
13.9601,2.5093,1.24092,13,10
6.14179,1.10398,-0.988353,45,3
14.3256,2.57242,1.78709,76,11
6.86797,1.23203,-0.856742,45,4
15.353,2.75138,2.47041,22,12
7.786,1.39391,-0.692017,28,5
25.7239,4.60529,5.07972,16,13
9.05765,1.61994,-0.482224,79,6
14.217,2.54011,3.33422,24,14
10.9591,1.95606,-0.194315,100,7
27.8736,4.97007,7.5865,5,15
11.1827,1.97785,0.198224,12,8
0.545001,0.0962946,-0.127772,14,1
0.703746,0.124216,-0.138909,24,2
14.0115,2.4706,1.24476,13,10
6.14755,1.08287,-0.988666,41,3
13.7734,2.42366,1.71714,62,11
6.87027,1.2077,-0.856498,42,4
14.0025,2.45895,2.25172,19,12
7.79474,1.36741,-0.692365,43,5
13.8493,2.42956,2.73315,8,13
9.06325,1.58831,-0.482224,83,6
14.5905,2.55432,3.41971,13,14
10.6881,1.86923,-0.189394,30,7
13.9834,2.44301,3.8036,13,15
10.5216,1.82307,0.186392,6,8
0.537653,0.093062,-0.125973,15,1
11.8241,2.0445,0.628869,13,9
0.700328,0.120968,-0.138146,24,2
23.8216,4.11043,2.11492,10,10
6.15537,1.061,-0.989292,46,3
13.7935,2.37759,1.7186,27,11
6.89401,1.18709,-0.858935,45,4
15.3679,2.64346,2.46979,27,12
7.83481,1.34627,-0.695503,35,5
9.07098,1.55542,-0.482328,79,6
14.0869,2.41298,3.29958,11,14
10.7675,1.84439,-0.190685,100,7
13.9195,2.38182,3.78393,25,15
0.553361,0.0936935,-0.129572,14,1
0.693002,0.117213,-0.136619,50,2
24.0775,4.06807,2.13636,21,10
6.16098,1.03984,-0.989605,52,3
19.5923,3.30324,2.43958,10,11
6.91789,1.1651,-0.861373,45,4
15.9385,2.6815,2.55989,30,12
7.84952,1.31919,-0.696374,31,5
13.8276,2.32388,2.72552,27,13
9.06454,1.52176,-0.4817,87,6
14.5949,2.44759,3.41656,11,14
11.1075,1.86076,-0.196584,100,7
13.9625,2.33651,3.79325,32,15
13.02,2.16012,0.230372,38,8
0.576755,0.0955846,-0.134971,14,1
13.5054,2.2358,0.717421,47,9
0.689553,0.114032,-0.135856,25,2
24.1178,3.98402,2.13863,10,10
6.15111,1.015,-0.987414,53,3
24.3043,4.01048,3.02455,33,11
6.92191,1.14095,-0.861373,45,4
15.404,2.53631,2.4726,6,12
7.85407,1.29178,-0.696374,32,5
14.7253,2.41928,2.90068,12,13
9.03064,1.48206,-0.479607,90,6
24.2865,3.98141,5.68181,27,14
10.6088,1.73915,-0.187648,91,7
13.8066,2.26092,3.74874,24,15
11.8099,1.91492,0.208835,6,8
0.546323,0.0884851,-0.127772,14,1
12.9828,2.10275,0.689265,7,9
0.701576,0.113505,-0.138146,24,2
26.6668,4.30953,2.36332,6,10
6.16436,0.995098,-0.988979,55,3
24.2679,3.91317,3.01822,33,11
6.92213,1.11494,-0.860885,46,4
16.1226,2.59686,2.58649,13,12
7.87034,1.26626,-0.69742,30,5
14.6735,2.35821,2.88885,11,13
9.01998,1.44799,-0.478769,90,6
14.106,2.26195,3.29823,24,14
10.1922,1.63436,-0.180179,100,7
14.1368,2.26435,3.83622,18,15
11.9229,1.89267,0.21072,55,8
0.523517,0.0830108,-0.122373,15,1
0.705846,0.111669,-0.138909,24,2
14.4646,2.28579,1.28119,46,10
6.18714,0.977736,-0.992108,50,3
19.5611,3.08767,2.43154,15,11
6.94736,1.09539,-0.863566,47,4
7.87077,1.23816,-0.697072,31,5
14.2856,2.24729,2.811,11,13
8.97738,1.41064,-0.476257,94,6
14.4195,2.2632,3.36977,11,14
10.6582,1.67093,-0.188311,100,7
11.9749,1.85809,0.211523,20,8
0.558467,0.0865551,-0.130472,14,1
12.709,1.96745,0.673983,23,9
0.68099,0.105423,-0.133948,26,2
16.4607,2.54532,1.45724,71,10
6.19833,0.957337,-0.993359,52,3
26.9798,4.16224,3.35189,10,11
6.9688,1.07385,-0.86576,46,4
14.3539,2.20929,2.30021,20,12
7.90043,1.21599,-0.699338,30,5
14.3536,2.20666,2.82283,16,13
8.99014,1.3805,-0.476676,76,6
13.8899,2.13042,3.24424,38,14
9.47598,1.45172,-0.167334,8,7
14.1408,2.16384,3.83311,2,15
11.9714,1.81477,0.211349,60,8
0.512523,0.0776035,-0.119674,16,1
0.685237,0.103633,-0.134711,25,2
14.3971,2.17478,1.27387,16,10
6.20358,0.935991,-0.993672,53,3
26.9883,4.06715,3.35116,20,11
6.9725,1.04951,-0.86576,48,4
23.9939,3.60733,3.84297,14,12
7.90857,1.189,-0.699686,28,5
14.2,2.13235,2.79115,11,13
9.02058,1.35296,-0.478037,83,6
13.9532,2.0903,3.25729,45,14
10.4145,1.55831,-0.183809,45,7
14.196,2.1216,3.84605,13,15
11.9618,1.77064,0.211069,48,8
0.524358,0.0775239,-0.122373,15,1
0.691439,0.10198,-0.135856,25,2
20.1325,2.96932,1.78042,30,10
6.20486,0.914041,-0.993359,47,3
22.2024,3.26669,2.75547,27,11
6.97612,1.02517,-0.86576,48,4
23.0252,3.37954,3.68591,4,12
7.89513,1.15741,-0.698117,31,5
14.1475,2.07147,2.77932,7,13
9.03339,1.32105,-0.478455,83,6
14.0047,2.04806,3.26764,51,14
9.46412,1.38235,-0.16695,69,7
14.2702,2.0818,3.86417,10,15
11.7367,1.69337,0.206986,61,8
0.540069,0.0778252,-0.125973,15,1
11.3197,1.62918,0.599351,6,9
0.687921,0.0988857,-0.135093,25,2
20.1176,2.89182,1.77815,33,10
6.20817,0.891295,-0.993359,50,3
22.4186,3.2146,2.78081,14,11
6.96215,0.997059,-0.863566,49,4
23.1391,3.30968,3.70218,4,12
7.92299,1.13184,-0.700209,30,5
14.1045,2.01239,2.7694,14,13
9.04212,1.2885,-0.478665,97,6
14.0353,2.00002,3.27304,51,14
9.8433,1.40091,-0.173547,96,7
14.3141,2.03465,3.874,4,15
0.563508,0.0790959,-0.131371,14,1
0.688262,0.096484,-0.135093,25,2
20.2346,2.83298,1.78756,30,10
6.22313,0.870177,-0.995236,52,3
22.7389,3.17551,2.81908,29,11
6.96576,0.971536,-0.863566,49,4
14.7245,2.05106,2.35465,11,12
7.93873,1.10583,-0.701255,30,5
22.8696,3.18156,4.48821,13,13
9.09009,1.26297,-0.480967,87,6
8.75894,1.21385,-0.154349,16,7
24.8616,3.44099,6.72515,15,15
0.544473,0.0744869,-0.126872,15,1
0.674978,0.0922204,-0.132421,26,2
15.0031,2.04718,1.32477,28,10
6.23983,0.850314,-0.997426,57,3
23.3695,3.18044,2.89586,15,11
6.97894,0.948553,-0.864785,48,4
15.6398,2.12293,2.49982,13,12
7.94255,1.07811,-0.701255,31,5
15.8127,2.14358,3.10179,10,13
8.98954,1.21703,-0.47542,97,6
14.0106,1.89432,3.26404,22,14
8.83051,1.19236,-0.155536,8,7
13.283,1.7912,3.59137,11,15
11.2625,1.50273,0.198329,35,8
0.564047,0.0751597,-0.131371,14,1
18.329,2.43911,0.969053,2,9
0.679188,0.0903821,-0.133185,26,2
12.2629,1.62969,1.0823,24,10
6.2173,0.825148,-0.993359,48,3
23.286,3.08634,2.88416,15,11
6.99008,0.925227,-0.86576,42,4
15.3397,2.02768,2.4507,20,12
7.95021,1.0509,-0.701604,32,5
23.3292,3.07964,4.57407,8,13
8.91057,1.17468,-0.471024,94,6
9.91911,1.30412,-0.174629,97,7
13.2872,1.74458,3.59086,27,15
11.6305,1.51054,0.204717,17,8
0.564306,0.0731904,-0.131371,14,1
11.9635,1.54954,0.632218,3,9
0.691182,0.0895236,-0.135474,25,2
12.2191,1.58048,1.07794,20,10
6.23778,0.805719,-0.996175,62,3
12.4053,1.60016,1.5358,7,11
6.99721,0.901326,-0.866247,45,4
15.8698,2.04142,2.53424,13,12
7.94988,1.02264,-0.701255,32,5
8.9166,1.14382,-0.471128,83,6
13.9984,1.79324,3.25819,38,14
9.84625,1.25959,-0.173267,17,7
13.3066,1.6999,3.59448,29,15
0.545223,0.068781,-0.126872,15,1
11.1802,1.40842,0.590559,21,9
0.687594,0.0866195,-0.134711,25,2
12.2523,1.54131,1.08038,20,10
6.22879,0.782462,-0.994298,51,3
12.4108,1.55685,1.5358,10,11
7.01213,0.878381,-0.86771,42,4
12.5348,1.56796,2.0008,8,12
7.97119,0.997103,-0.702824,36,5
12.2478,1.52989,2.39923,22,13
9.08305,1.13297,-0.479711,68,6
12.9971,1.61887,3.02379,25,14
9.76724,1.21484,-0.171801,100,7
13.3067,1.65273,3.59293,9,15
11.6051,1.42492,0.204088,15,8
0.506775,0.0621347,-0.117874,16,1
11.1434,1.36429,0.588361,18,9
0.695687,0.0851732,-0.136238,25,2
12.1943,1.49079,1.0748,18,10
6.25306,0.763352,-0.997739,60,3
12.3117,1.50079,1.52288,21,11
7.01909,0.854377,-0.868197,43,4
12.5226,1.52205,1.99798,14,12
7.98847,0.970953,-0.704044,31,5
13.9779,1.69646,2.73696,15,13
9.11471,1.10462,-0.481177,94,6
13.0162,1.57513,3.02694,34,14
9.5987,1.15987,-0.168765,94,7
13.345,1.6102,3.60173,11,15
0.54182,0.0645124,-0.125973,15,1
11.1957,1.33104,0.590873,41,9
0.688182,0.081817,-0.134711,25,2
12.2647,1.45597,1.08056,29,10
6.24587,0.740355,-0.996175,51,3
12.2893,1.45453,1.51947,38,11
7.00429,0.827775,-0.866004,51,4
15.4626,1.82466,2.46603,9,12
8.00368,0.944468,-0.70509,31,5
9.1681,1.07863,-0.483794,90,6
12.9577,1.52219,3.01209,48,14
9.50935,1.11541,-0.167124,100,7
24.2893,2.84474,6.55278,18,15
12.2087,1.41259,0.214525,38,8
0.573016,0.0661989,-0.133171,14,1
11.1765,1.28921,0.589617,14,9
0.696265,0.0803147,-0.136238,25,2
12.1945,1.40448,1.07393,69,10
6.26019,0.719901,-0.998052,57,3
12.3456,1.41752,1.5258,21,11
6.9953,0.801962,-0.864541,51,4
12.476,1.42808,1.98891,21,12
7.99505,0.915163,-0.704044,32,5
12.0642,1.37881,2.36031,27,13
9.36231,1.06836,-0.493842,100,6
12.1536,1.38473,2.82404,34,14
9.61849,1.09419,-0.168974,100,7
24.3816,2.76932,6.57504,15,15
12.1897,1.36729,0.214106,77,8
0.546131,0.061162,-0.126872,15,1
11.1551,1.2473,0.588256,32,9
0.696541,0.0778836,-0.136238,25,2
12.1241,1.3535,1.06731,58,10
6.23911,0.69542,-0.994298,52,3
13.7729,1.53271,1.70154,37,11
7.03555,0.781702,-0.869172,41,4
12.5163,1.38844,1.99454,22,12
8.01024,0.887171,-0.70509,31,5
11.9772,1.32653,2.34237,50,13
9.12578,1.00911,-0.481177,61,6
12.1293,1.33909,2.81729,25,14
9.26845,1.02161,-0.162761,76,7
21.1939,2.33234,5.71317,7,15
11.6855,1.26945,0.20517,37,8
0.526967,0.0571539,-0.122373,15,1
12.0748,1.30747,0.63651,21,9
0.696822,0.0753299,-0.136238,25,2
12.3231,1.33001,1.08439,58,10
6.25144,0.673604,-0.995862,51,3
16.7268,1.80235,2.06569,21,11
7.056,0.759051,-0.871366,42,4
12.5308,1.3458,1.9961,49,12
8.02121,0.860052,-0.705787,32,5
11.9742,1.28179,2.34084,60,13
9.30021,0.993906,-0.490179,100,6
12.1516,1.29649,2.82134,10,14
9.28985,0.99116,-0.163075,85,7
20.6275,2.19717,5.5584,9,15
11.4036,1.19656,0.200144,48,8
0.527173,0.0552222,-0.122373,15,1
15.0134,1.57003,0.79111,15,9
0.697081,0.0728973,-0.136238,25,2
12.2127,1.27499,1.07428,22,10
6.27536,0.654033,-0.999304,57,3
19.4995,2.02884,2.40716,20,11
7.04886,0.732157,-0.870147,40,4
12.6221,1.30883,2.00987,37,12
8.05403,0.833726,-0.708402,35,5
12.0216,1.24443,2.34924,62,13
9.16455,0.947063,-0.482852,100,6
13.6234,1.40545,3.16191,11,14
9.28944,0.956697,-0.163005,17,7
20.5374,2.11147,5.532,11,15
11.5072,1.16683,0.201889,32,8
0.558384,0.0565216,-0.129572,14,1
11.1578,1.12747,0.587733,3,9
0.68953,0.0695535,-0.134711,25,2
12.1796,1.22643,1.07097,24,10
6.28755,0.632017,-1.00087,55,3
13.2789,1.33478,1.63866,15,11
7.05532,0.707946,-0.870635,40,4
11.0739,1.10922,1.7627,10,12
8.02914,0.802834,-0.705962,33,5
11.7252,1.17033,2.29047,48,13
9.22957,0.919607,-0.486096,76,6
13.6363,1.35627,3.16371,18,14
9.15742,0.910804,-0.160632,100,7
20.0948,1.99511,5.41087,12,15
11.7821,1.15109,0.206636,33,8
0.577983,0.0563663,-0.134071,14,1
0.674136,0.0656246,-0.131658,26,2
6.29954,0.611017,-1.00243,60,3
19.5412,1.89193,2.41058,25,11
7.07367,0.683611,-0.872585,39,4
11.1308,1.07569,1.77115,19,12
7.99223,0.770974,-0.702475,30,5
11.6569,1.12243,2.27635,42,13
8.26452,0.794329,-0.435121,29,6
19.5787,1.87833,4.54086,13,14
9.23618,0.886092,-0.161958,85,7
13.6921,1.31117,3.68558,13,15
11.6107,1.09549,0.203565,25,8
0.566525,0.0533528,-0.131371,14,1
11.1415,1.0473,0.586477,12,9
0.689998,0.0647383,-0.134711,25,2
16.9964,1.59167,1.4935,9,10
6.2917,0.589201,-1.00087,53,3
14.7287,1.37671,1.81634,56,11
7.08381,0.660889,-0.87356,41,4
11.0479,1.02877,1.75738,39,12
7.97702,0.741409,-0.700907,31,5
11.9245,1.1083,2.32787,66,13
25.6119,2.37143,5.93826,30,14
9.38657,0.867461,-0.164541,60,7
13.762,1.26941,3.70318,34,15
9.61495,0.873338,0.16852,33,8
0.551182,0.0499676,-0.127772,14,1
0.69803,0.0631573,-0.136238,25,2
17.0453,1.53925,1.49734,9,10
6.30356,0.568123,-1.00243,60,3
14.7038,1.32263,1.81268,80,11
7.09596,0.637044,-0.874778,42,4
11.2836,1.011,1.7943,83,12
7.95562,0.712817,-0.698815,31,5
11.9224,1.06614,2.32673,40,13
13.764,1.22598,3.19026,27,14
9.28795,0.825662,-0.162761,100,7
13.6009,1.20667,3.65867,23,15
13.4368,1.17321,0.235433,68,8
0.54747,0.047705,-0.126872,15,1
11.2859,0.981429,0.593699,26,9
0.690423,0.0600398,-0.134711,25,2
17.12,1.48577,1.50344,35,10
6.31534,0.54697,-1.004,55,3
7.09814,0.612272,-0.874778,42,4
11.3264,0.975003,1.80056,90,12
7.97195,0.686244,-0.700035,28,5
10.9754,0.942852,2.14126,35,13
13.7702,1.1781,3.19071,33,14
9.39837,0.802419,-0.164646,69,7
13.6108,1.15968,3.66022,29,15
13.403,1.12312,0.23477,67,8
0.50491,0.042221,-0.116975,16,1
12.2943,1.02591,0.646558,35,9
0.67889,0.0566504,-0.132421,26,2
17.139,1.42715,1.50466,13,10
6.32115,0.525248,-1.00462,53,3
15.0509,1.248,1.85436,16,11
7.08243,0.586016,-0.872585,41,4
11.4183,0.942772,1.81464,70,12
7.96437,0.65759,-0.699163,32,5
10.963,0.903253,2.13821,37,13
9.28787,0.763603,-0.488399,35,6
9.51671,0.779078,-0.16667,94,7
13.7938,1.12679,3.70836,19,15
14.8061,1.18867,0.259273,13,8
0.528365,0.0423257,-0.122373,15,1
11.2606,0.900074,0.592024,51,9
0.679083,0.0542801,-0.132421,26,2
17.0644,1.36098,1.49768,39,10
6.32098,0.503024,-1.00431,51,3
14.9919,1.19042,1.84656,4,11
7.10026,0.562542,-0.874534,41,4
11.5614,0.913964,1.83685,71,12
7.98251,0.631043,-0.700558,32,5
10.8995,0.859728,2.12523,66,13
9.175,0.722087,-0.482328,68,6
21.2305,1.66715,4.91653,13,14
8.71994,0.683215,-0.152674,16,7
13.8208,1.08044,3.71457,6,15
14.7804,1.1321,0.258749,3,8
0.563492,0.0430615,-0.130472,14,1
11.5445,0.882217,0.606783,22,9
0.673405,0.0513431,-0.131277,27,2
12.6252,0.960371,1.10775,14,10
6.32278,0.479851,-1.00431,57,3
12.696,0.961312,1.56334,3,11
7.11415,0.537414,-0.875997,41,4
11.598,0.876128,1.84217,47,12
7.97682,0.601181,-0.699861,31,5
10.9085,0.820217,2.12638,46,13
9.05012,0.678894,-0.475629,76,6
21.2403,1.58961,4.91743,13,14
8.77811,0.656949,-0.153651,16,7
19.5596,1.46041,5.25558,14,15
11.8564,0.868602,0.207509,13,8
0.528647,0.038636,-0.122373,15,1
11.2805,0.822455,0.592757,13,9
0.681413,0.0495617,-0.132803,26,2
16.9585,1.23047,1.48757,26,10
6.32039,0.458594,-1.00368,52,3
12.3408,0.893262,1.51922,28,11
7.12183,0.51425,-0.876728,43,4
11.1005,0.799587,1.7627,35,12
8.03253,0.57719,-0.704567,30,5
11.4731,0.82442,2.2359,26,13
8.79732,0.630603,-0.462231,43,6
13.9816,0.999757,3.23615,18,14
8.6886,0.619761,-0.152045,49,7
19.5492,1.39102,5.25144,10,15
11.8594,0.827213,0.207509,23,8
0.579324,0.0403073,-0.134071,14,1
15.0969,1.04774,0.793099,46,9
0.681573,0.0473016,-0.132803,26,2
19.0634,1.31968,1.67182,7,10
6.36334,0.439391,-1.01025,52,3
12.2805,0.845811,1.51142,73,11
7.12359,0.489388,-0.876728,42,4
11.4166,0.782314,1.81245,43,12
8.11599,0.554716,-0.711714,27,5
10.9765,0.750225,2.13859,88,13
9.0346,0.615918,-0.474583,39,6
13.9072,0.945661,3.21815,45,14
8.75655,0.593891,-0.153197,66,7
19.4344,1.31469,5.21935,8,15
0.528904,0.0349444,-0.122373,15,1
14.7019,0.968769,0.772165,13,9
0.66607,0.0437734,-0.12975,27,2
16.8692,1.10567,1.47903,25,10
6.37871,0.416966,-1.01244,46,3
12.2318,0.799575,1.50509,63,11
7.14506,0.465809,-0.879166,43,4
11.2359,0.730535,1.78335,30,12
8.07613,0.523677,-0.708053,36,5
10.9889,0.710625,2.1405,52,13
8.82752,0.569305,-0.463592,72,6
13.7978,0.887431,3.19206,24,14
12.5262,0.805646,-0.219098,47,7
19.4351,1.2466,5.21831,10,15
11.6514,0.728967,0.203774,30,8
0.529029,0.0330058,-0.122373,15,1
14.6615,0.912146,0.769862,47,9
0.681894,0.0424232,-0.132803,26,2
11.5297,0.715291,1.01066,8,10
6.39195,0.395427,-1.01432,53,3
12.2704,0.756935,1.50947,45,11
7.15068,0.439863,-0.879653,43,4
8.20726,0.501977,-0.719384,31,5
11.011,0.673458,2.14431,80,13
8.76367,0.534478,-0.460138,100,6
12.1533,0.739068,2.81099,59,14
8.97614,0.544287,-0.156967,33,7
19.4703,1.17722,5.22659,5,15
9.79144,0.57829,0.171208,31,8
0.568048,0.0334499,-0.131371,14,1
14.6766,0.861668,0.77049,37,9
0.685965,0.0401532,-0.133566,26,2
19.0228,1.11018,1.66711,14,10
6.38744,0.371654,-1.01338,56,3
12.4334,0.723441,1.52922,42,11
7.1601,0.415358,-0.880628,43,4
8.28653,0.4778,-0.726182,28,5
11.1584,0.641437,2.17255,42,13
8.7217,0.499837,-0.457835,47,6
12.0703,0.689631,2.79119,87,14
8.61863,0.492421,-0.150684,41,7
19.5341,1.11265,5.24264,1,15
21.5976,1.19616,0.377565,19,8
0.552601,0.0305081,-0.127772,14,1
12.5177,0.691082,0.657026,10,9
0.68218,0.0375425,-0.132803,26,2
13.0902,0.718112,1.14697,57,10
6.37687,0.348707,-1.01151,53,3
7.16356,0.389221,-0.880872,41,4
11.2431,0.610875,1.78335,32,12
7.87235,0.42635,-0.689751,13,5
11.0076,0.594225,2.14279,19,13
8.65558,0.465743,-0.454276,54,6
12.0726,0.64749,2.79119,46,14
13.217,0.708865,-0.231035,100,7
20.867,1.11551,5.59929,13,15
12.3454,0.642674,0.215782,33,8
0.529345,0.0274639,-0.122373,15,1
12.3027,0.636149,0.645616,16,9
0.69015,0.0355654,-0.13433,25,2
12.2649,0.6299,1.07446,18,10
6.38588,0.327965,-1.01276,51,3
11.441,0.585588,1.40662,19,11
7.15688,0.365057,-0.879897,40,4
11.3714,0.578041,1.80338,35,12
11.0213,0.558317,2.14507,33,13
8.80668,0.444587,-0.462127,39,6
11.9813,0.602755,2.7696,36,14
8.55994,0.429136,-0.149602,57,7
20.8245,1.04035,5.58687,13,15
0.568367,0.0274996,-0.131371,14,1
12.2968,0.592813,0.645198,26,9
0.67066,0.032214,-0.130513,27,2
12.5157,0.60117,1.09624,23,10
6.39882,0.30624,-1.01463,50,3
10.977,0.523426,1.34934,40,11
7.16802,0.340542,-0.881115,42,4
11.3023,0.534984,1.79211,63,12
8.00847,0.377673,-0.701429,17,5
12.1195,0.569421,2.3584,17,13
8.85215,0.414363,-0.464429,39,6
11.2378,0.526032,2.59728,42,14
12.091,0.563857,-0.211279,57,7
20.8473,0.968546,5.59204,11,15
13.4704,0.604619,0.235363,20,8
0.599613,0.0268088,-0.13857,13,1
0.666851,0.0295818,-0.12975,27,2
13.1448,0.58311,1.15115,30,10
6.40385,0.282958,-1.01526,50,3
12.732,0.560349,1.5648,29,11
7.19302,0.315312,-0.88404,42,4
10.5898,0.462361,1.67885,36,12
8.09938,0.352215,-0.709273,50,5
8.79574,0.379417,-0.461394,36,6
11.2241,0.484166,2.59369,58,14
13.1159,0.563486,-0.22915,21,7
20.457,0.875288,5.48645,12,15
13.3666,0.550882,0.233513,37,8
0.529612,0.0217344,-0.122373,15,1
20.0677,0.82003,1.05258,10,9
0.663027,0.0270934,-0.128987,27,2
11.7374,0.477582,1.02774,27,10
6.39892,0.259246,-1.01432,53,3
10.9627,0.442221,1.34714,37,11
7.20405,0.289346,-0.885259,39,4
10.5855,0.423309,1.67792,7,12
8.29566,0.33174,-0.726356,26,5
11.2955,0.449722,2.19736,30,13
11.2394,0.443565,2.59683,48,14
14.1549,0.556146,-0.247266,27,7
20.2593,0.792455,5.43261,10,15
0.529684,0.0198855,-0.122373,15,1
0.698431,0.0260989,-0.135856,25,2
12.2607,0.456006,1.07341,24,10
6.39189,0.236614,-1.01307,57,3
10.9741,0.404324,1.34836,68,11
7.19509,0.263832,-0.88404,46,4
8.41225,0.306993,-0.736466,22,5
11.2283,0.407804,2.184,50,13
9.4748,0.342458,-0.496878,45,6
11.2039,0.402995,2.58829,66,14
14.2847,0.511321,-0.2495,35,7
20.0303,0.713475,5.3705,10,15
12.0551,0.412549,0.210546,15,8
0.560912,0.0190975,-0.129572,14,1
12.6813,0.429548,0.664981,16,9
0.694594,0.0235276,-0.135093,25,2
16.1551,0.54439,1.41419,37,10
6.39071,0.214236,-1.01276,50,3
7.1801,0.238187,-0.88209,45,4
10.6474,0.351353,1.6873,57,12
7.99509,0.263829,-0.699861,30,5
9.41805,0.30749,-0.493842,80,6
11.2266,0.364582,2.59324,36,14
19.9998,0.642492,5.3617,8,15
14.3251,0.440178,0.250163,22,8
0.560975,0.0171393,-0.129572,14,1
12.7806,0.388253,0.67011,7,9
0.675048,0.0205069,-0.131277,27,2
11.7637,0.355307,1.02966,6,10
6.41708,0.192696,-1.01682,48,3
12.2922,0.366975,1.50996,63,11
7.17295,0.212891,-0.881115,45,4
10.7039,0.315813,1.69606,39,12
8.52173,0.25143,-0.745879,27,5
12.2042,0.357955,2.37328,4,13
9.20545,0.268391,-0.482642,39,6
11.3096,0.32776,2.61213,14,14
9.56657,0.275574,-0.167054,60,7
19.8281,0.567713,5.31511,7,15
0.55324,0.0149703,-0.127772,14,1
12.2108,0.328284,0.640173,4,9
0.694741,0.0186779,-0.135093,25,2
6.41969,0.170349,-1.01714,50,3
7.17762,0.187954,-0.881603,43,4
8.49068,0.220855,-0.74309,37,5
11.8561,0.306323,2.30535,15,13
8.85892,0.227339,-0.464429,72,6
11.3205,0.28853,2.61438,40,14
14.6011,0.369596,-0.254945,100,7
19.8956,0.500142,5.33271,7,15
11.8948,0.282398,0.207684,52,8
0.564978,0.0133146,-0.130472,14,1
12.154,0.2843,0.637138,31,9
0.706578,0.0165279,-0.137382,24,2
12.4192,0.288341,1.08683,29,10
6.4163,0.147849,-1.01651,50,3
11.3339,0.25918,1.39199,19,11
7.17029,0.162719,-0.880628,43,4
8.43762,0.190006,-0.738383,39,5
11.8178,0.264055,2.29772,52,13
8.83171,0.195796,-0.462964,36,6
11.3,0.248544,2.60943,82,14
14.5503,0.317488,-0.254037,23,7
19.876,0.430234,5.32701,3,15
14.1869,0.287266,0.247685,22,8
0.529951,0.0106382,-0.122373,15,1
0.702706,0.0139835,-0.136619,25,2
12.0994,0.238659,1.05877,29,10
6.42072,0.125527,-1.01714,50,3
12.2894,0.238115,1.50923,38,11
7.18074,0.137878,-0.881847,39,4
11.2853,0.214719,1.78773,12,12
8.40241,0.158401,-0.735246,37,5
11.8422,0.223248,2.3023,47,13
8.69056,0.162316,-0.455532,68,6
11.3163,0.209383,2.61303,62,14
14.6293,0.268128,-0.255399,100,7
11.6742,0.211928,3.1286,12,15
14.2798,0.239287,0.24929,74,8
0.529985,0.00878842,-0.122373,15,1
11.8022,0.193649,0.618611,37,9
0.696864,0.0113124,-0.135474,25,2
12.2177,0.196201,1.06905,58,10
6.43299,0.102182,-1.01901,50,3
12.1036,0.192255,1.48632,59,11
7.18515,0.112872,-0.882334,47,4
8.37103,0.128579,-0.732457,36,5
11.3973,0.173073,2.21567,32,13
8.57926,0.128786,-0.449671,43,6
11.4028,0.169175,2.63283,50,14
8.0039,0.118748,-0.139724,32,7
11.671,0.171117,3.12757,27,15
14.1606,0.185373,0.247196,55,8
0.553396,0.00714801,-0.127772,14,1
0.708677,0.00902969,-0.137764,24,2
6.44516,0.0798747,-1.02089,56,3
12.7652,0.155964,1.56748,47,11
7.19544,0.0866576,-0.883553,46,4
10.9724,0.132145,1.73799,68,12
8.41725,0.0999072,-0.736466,31,5
11.6335,0.136045,2.26147,77,13
8.80733,0.101458,-0.461603,36,6
11.3897,0.129218,2.62968,34,14
14.5528,0.165105,-0.254037,100,7
11.403,0.127379,3.05562,35,15
14.0972,0.137791,0.246079,27,8
0.553417,0.00531269,-0.127772,14,1
0.696926,0.00644674,-0.135474,25,2
11.4558,0.103975,1.00229,6,10
6.44934,0.0585354,-1.02152,51,3
11.8446,0.105436,1.45439,20,11
7.22348,0.0630367,-0.886965,48,4
10.9906,0.093998,1.7408,17,12
8.561,0.0717245,-0.749016,55,5
11.0626,0.0926826,2.15042,36,13
11.5596,0.0928115,2.66882,26,14
14.5333,0.114151,-0.253688,22,7
11.3744,0.0873491,3.04785,36,15
14.3015,0.0898661,0.249639,50,8
0.553432,0.00338073,-0.127772,14,1
13.0558,0.0797537,0.68424,59,9
0.722465,0.0042872,-0.140435,23,2
6.43963,0.0359658,-1.01995,48,3
12.095,0.0654405,1.4851,31,11
7.22762,0.0378474,-0.887453,43,4
11.8126,0.0618566,1.87096,35,12
8.59107,0.0434837,-0.751631,28,5
11.0235,0.0538717,2.14279,56,13
11.5871,0.0525812,2.67512,74,14
14.5196,0.0658889,-0.253444,100,7
11.4171,0.0498174,3.05924,45,15
14.3837,0.0426793,0.25107,34,8
0.530055,0.00148027,-0.122373,15,1
13.2877,0.0347828,0.696382,26,9
0.708733,0.00173187,-0.137764,24,2
12.6975,0.0288118,1.11089,66,10
6.44366,0.0146213,-1.02058,62,3
11.2058,0.0234661,1.37591,13,11
7.25947,0.0139385,-0.891352,43,4
13.9619,0.024371,2.21136,23,12
8.43377,0.0132455,-0.737861,42,5
10.9667,0.0172236,2.13172,67,13
9.47299,0.0132289,-0.496459,38,6
11.6651,0.0142543,2.69311,46,14
14.3998,0.015076,-0.25135,100,7
14.2678,-0.012451,0.249046,41,8
0.530057,-0.000555075,-0.122373,15,1
13.2119,-0.0138354,0.692405,12,9
0.72444,-0.000885071,-0.140817,23,2
14.9628,-0.0208921,1.30908,31,10
6.46145,-0.0101496,-1.02339,47,3
10.8565,-0.0189481,1.33301,43,11
7.28528,-0.0139867,-0.894521,42,4
11.0384,-0.0211922,1.74831,26,12
8.26441,-0.017309,-0.723044,18,5
11.1611,-0.0253237,2.1695,29,13
8.37848,-0.0204725,-0.439099,29,6
11.7879,-0.0308607,2.72146,51,14
14.4817,-0.0379132,-0.252781,34,7
11.6374,-0.0324979,3.11825,25,15
13.8638,-0.0580728,0.241995,27,8
0.530052,-0.0023128,-0.122373,15,1
0.712653,-0.00335832,-0.138527,24,2
11.3545,-0.055489,0.993401,10,10
6.46533,-0.0315958,-1.02402,52,3
10.8742,-0.0550397,1.3352,37,11
7.27923,-0.0381143,-0.89379,30,4
10.894,-0.058943,1.72547,12,12
7.92959,-0.0442876,-0.69376,33,5
11.2473,-0.0628175,2.18629,27,13
8.47822,-0.0488316,-0.444332,29,6
11.7273,-0.0695921,2.70751,97,14
14.5635,-0.0889645,-0.254212,100,7
11.7841,-0.0740424,3.15759,7,15
13.8295,-0.106205,0.241402,39,8
0.530041,-0.00416302,-0.122373,15,1
13.511,-0.108476,0.708106,15,9
0.704786,-0.0056585,-0.137001,24,2
21.4673,-0.176101,1.87821,42,10
6.47901,-0.0542797,-1.02621,57,3
10.993,-0.094016,1.34982,75,11
7.38625,-0.0644588,-0.906952,45,4
8.06685,-0.0732144,-0.705787,30,5
11.8556,-0.107601,2.30459,35,13
8.47401,-0.0783889,-0.444123,32,6
12.1109,-0.114146,2.79614,76,14
13.9112,-0.133542,-0.242833,44,7
11.7219,-0.114572,3.14103,19,15
13.857,-0.154791,0.24189,12,8
0.553407,-0.00627847,-0.127772,14,1
15.0743,-0.173651,0.790064,25,9
0.712613,-0.00833346,-0.138527,24,2
11.5311,-0.136861,1.00891,23,10
6.47679,-0.0780023,-1.0259,45,3
11.1058,-0.133751,1.36372,58,11
7.41178,-0.0905565,-0.91012,46,4
11.559,-0.143245,1.83091,49,12
7.89721,-0.0992445,-0.690971,30,5
