x, y, z, intensity, ring
1.25278,-6.83257,-0.364049,37,6
2.66427,-14.545,3.41386,47,14
1.19613,-6.53645,-0.115989,24,7
2.59272,-14.1824,3.86313,9,15
2.76283,-15.2331,0.270233,10,8
2.23228,-12.3324,0.656816,11,9
0.103857,-0.573763,-0.113341,16,2
2.59341,-14.3417,1.27509,52,10
0.119397,-0.66093,-0.106375,13,3
3.045,-16.8727,2.10517,36,11
1.27289,-7.0603,-0.880872,39,4
1.17286,-6.51195,-0.578888,30,5
2.58904,-14.3893,2.84191,38,13
1.23104,-6.84869,-0.364677,37,6
2.59798,-14.4679,3.39361,29,14
1.18848,-6.62522,-0.11749,6,7
2.55887,-14.2788,3.88694,7,15
3.07224,-17.2824,0.306394,40,8
2.68638,-15.1424,0.805974,8,9
0.101853,-0.574122,-0.113341,16,2
2.54681,-14.3703,1.27683,35,10
0.112956,-0.638001,-0.102621,14,3
1.9921,-11.2633,1.40442,35,11
1.27104,-7.19371,-0.896958,38,4
1.89397,-10.7303,1.72579,42,12
1.14483,-6.49266,-0.576797,27,5
2.53403,-14.3712,2.83657,41,13
1.18287,-6.71526,-0.35735,87,6
2.55489,-14.5191,3.40351,36,14
1.19963,-6.82431,-0.120945,51,7
2.51002,-14.2934,3.8885,29,15
2.67907,-15.3821,0.272537,12,8
0.0997482,-0.574491,-0.113341,16,2
2.50638,-14.4502,1.28311,38,10
0.113315,-0.653982,-0.105124,13,3
1.9277,-11.1254,1.38639,35,11
1.22967,-7.10422,-0.885259,46,4
1.92988,-11.1612,1.79399,65,12
1.1442,-6.62423,-0.588127,48,5
2.48367,-14.3939,2.83924,35,13
1.18234,-6.85929,-0.364782,40,6
2.87435,-16.6928,3.91055,15,14
1.18564,-6.8856,-0.121957,26,7
2.46207,-14.3135,3.8916,22,15
3.24676,-19.0544,0.33739,23,8
1.86751,-10.9831,0.58386,6,9
2.45292,-14.4412,1.28154,41,10
0.107066,-0.631003,-0.10137,14,3
1.90781,-11.2557,1.40174,45,11
1.20494,-7.11651,-0.886234,37,4
1.90378,-11.2558,1.80807,58,12
1.09834,-6.50068,-0.576797,30,5
2.42033,-14.3251,2.82397,32,13
1.15008,-6.81414,-0.362165,50,6
2.44089,-14.4775,3.38956,15,14
1.84952,-10.9816,-0.194385,100,7
2.41953,-14.3814,3.90765,9,15
3.15095,-18.8901,0.334283,22,8
0.0956348,-0.57519,-0.113341,16,2
1.86266,-11.2149,0.994621,21,10
0.107339,-0.646981,-0.103873,13,3
2.78342,-16.777,2.08811,36,11
1.07526,-6.48811,-0.807506,23,4
1.85416,-11.2001,1.79806,61,12
1.09125,-6.59883,-0.585164,40,5
1.84657,-11.1784,2.20232,27,13
1.11437,-6.75328,-0.358711,70,6
2.4382,-14.7921,3.4611,29,14
1.7715,-10.7473,-0.190127,46,7
2.38218,-14.4679,3.92887,24,15
3.05788,-18.7555,0.3317,16,8
1.90079,-11.6842,0.62039,17,9
2.35335,-14.482,1.28363,30,10
0.106979,-0.659051,-0.10575,13,3
1.83484,-11.3161,1.40759,26,11
1.02863,-6.35092,-0.789957,57,4
1.78659,-11.043,1.77178,52,12
1.08221,-6.68914,-0.592833,11,5
1.79251,-11.0918,2.184,28,13
1.14681,-7.10416,-0.377133,70,6
2.37818,-14.7485,3.44895,29,14
1.17339,-7.28498,-0.128799,77,7
2.38812,-14.9765,0.264718,24,8
1.85811,-11.6789,0.619762,69,9
5.27852,-33.2147,2.94238,27,10
0.107775,-0.67893,-0.108878,12,3
1.78787,-11.2754,1.40174,9,11
1.07818,-6.80739,-0.846261,32,4
1.74711,-11.0433,1.77084,37,12
1.7455,-11.0456,2.1737,53,13
1.12979,-7.15744,-0.37975,80,6
2.32243,-14.7298,3.44265,24,14
1.14235,-7.25348,-0.12817,49,7
2.24497,-14.2709,3.8709,29,15
2.33583,-14.9847,0.264718,9,8
1.81826,-11.6912,0.620076,65,9
0.0896063,-0.57616,-0.113341,16,2
2.77028,-17.8332,1.57891,37,10
0.10177,-0.655878,-0.105124,13,3
2.77491,-17.9042,2.2246,28,11
1.00461,-6.48939,-0.806288,47,4
1.71579,-11.0962,1.77835,56,12
1.02208,-6.6099,-0.585164,30,5
1.11515,-7.22845,-0.383309,87,6
2.2618,-14.6781,3.4287,58,14
1.1222,-7.29102,-0.128764,56,7
2.20424,-14.3378,3.88694,24,15
1.66596,-10.9382,0.193128,26,8
1.78103,-11.7212,0.621333,35,9
0.0875945,-0.57647,-0.113341,16,2
1.79976,-11.8584,1.04936,27,10
0.0971111,-0.640605,-0.102621,14,3
2.70437,-17.8608,2.21802,9,11
1.05972,-7.0071,-0.870147,15,4
1.68561,-11.1587,1.78742,21,12
0.995733,-6.59175,-0.583246,36,5
1.66278,-11.0207,2.16645,11,13
1.11312,-7.38635,-0.391473,42,6
2.18213,-14.4971,3.38461,33,14
1.1226,-7.46693,-0.131801,79,7
2.15074,-14.3225,3.88073,29,15
1.62983,-10.9578,0.193373,48,8
1.73747,-11.7096,0.62039,28,9
0.0855817,-0.576772,-0.113341,16,2
1.78319,-12.0321,1.06417,56,10
0.0977668,-0.660481,-0.10575,13,3
1.75941,-11.9003,1.47706,38,11
1.0341,-7.0029,-0.869172,51,4
1.63771,-11.104,1.77772,45,12
0.977658,-6.6287,-0.58621,27,5
2.14075,-14.5322,2.85527,37,13
1.076,-7.31312,-0.387391,38,6
2.06804,-14.0727,3.28384,45,14
1.09653,-7.47081,-0.131801,65,7
2.09905,-14.3185,3.87763,27,15
1.58812,-10.9396,0.192954,62,8
2.2124,-15.2775,0.809009,13,9
0.083568,-0.577067,-0.113341,16,2
1.72264,-11.9101,1.05284,56,10
0.0898122,-0.621716,-0.0994923,14,3
1.70907,-11.8455,1.4695,42,11
0.949341,-6.58797,-0.817256,41,4
1.5995,-11.1135,1.77835,87,12
0.948838,-6.59263,-0.582723,31,5
2.10174,-14.6212,2.87129,24,13
1.05699,-7.36231,-0.389798,49,6
2.02167,-14.0991,3.28833,29,14
1.06875,-7.46271,-0.131591,58,7
2.04659,-14.3085,3.87297,18,15
1.55301,-10.9669,0.193338,75,8
1.61298,-11.4047,0.603643,14,9
1.68189,-11.922,1.05336,58,10
0.0881927,-0.625938,-0.100118,14,3
1.67352,-11.8926,1.47462,38,11
0.927996,-6.60303,-0.818718,18,4
0.912804,-6.50317,-0.574531,53,5
2.13628,-15.239,2.99112,9,13
1.07338,-7.6666,-0.405708,25,6
1.9719,-14.1022,3.28743,33,14
2.17466,-15.5523,-0.274107,96,7
2.24896,-16.1041,4.35696,6,15
1.51746,-10.9779,0.193442,47,8
1.56797,-11.3727,0.601654,35,9
1.62506,-11.8172,1.0436,58,10
0.0893459,-0.649711,-0.103873,13,3
1.57249,-11.4497,1.41905,37,11
1.09276,-7.96702,-0.987386,33,4
1.92649,-14.0637,2.24828,40,12
0.880915,-6.4392,-0.568604,33,5
2.06976,-15.1293,2.96823,10,13
1.06931,-7.82645,-0.413977,47,6
1.9246,-14.1048,3.28653,31,14
2.13791,-15.6886,-0.276376,88,7
2.18387,-16.0468,4.33936,10,15
1.48153,-11.001,0.193757,13,8
1.51391,-11.2712,0.596002,65,9
0.0776213,-0.577897,-0.113341,16,2
1.56282,-11.6507,1.02844,48,10
0.0839301,-0.626524,-0.100118,14,3
1.55831,-11.648,1.44293,64,11
1.8685,-14.0038,2.23764,16,12
0.882381,-6.62195,-0.584466,13,5
1.48068,-11.112,2.17904,15,13
1.06121,-7.97466,-0.421619,25,6
2.43603,-18.3304,4.26912,18,14
2.37885,-17.9241,-0.315609,97,7
2.02073,-15.2461,4.12092,16,15
2.40892,-18.3719,0.323428,22,8
1.48725,-11.3734,0.601131,58,9
0.0755026,-0.578178,-0.113341,16,2
1.525,-11.6939,1.03175,23,10
0.083674,-0.642498,-0.102621,14,3
1.40895,-10.8187,1.33959,25,11
0.864562,-6.64767,-0.823106,12,4
1.4446,-11.1228,1.77647,10,12
1.44019,-11.1193,2.17942,48,13
0.898754,-6.9485,-0.367189,3,6
2.3888,-18.4939,4.30511,31,14
2.30269,-17.8272,-0.313759,100,7
1.96725,-15.2512,4.1204,24,15
1.41945,-11.1422,0.19606,25,8
1.93411,-15.2246,0.804299,30,9
0.073484,-0.578438,-0.113341,16,2
1.48192,-11.6814,1.03018,38,10
0.0814307,-0.642786,-0.102621,14,3
1.35633,-10.7214,1.32691,34,11
1.0136,-8.0235,-0.992992,12,4
1.37118,-10.8693,1.73517,14,12
0.815432,-6.46388,-0.569999,22,5
1.94465,-15.4368,3.02432,18,13
0.867263,-6.89413,-0.364154,37,6
2.32691,-18.5233,4.31006,21,14
2.2555,-17.9803,-0.316307,82,7
1.90558,-15.2123,4.10798,10,15
2.28256,-18.4304,0.324161,20,8
1.38085,-11.1816,0.590454,47,9
0.0714644,-0.578691,-0.113341,16,2
1.95614,-15.8628,1.39833,34,10
0.0811179,-0.658751,-0.105124,13,3
1.32931,-10.8108,1.33739,28,11
0.986557,-8.03487,-0.993966,5,4
0.79141,-6.45482,-0.568953,36,5
1.8991,-15.5117,3.03768,9,13
0.85507,-6.99426,-0.369283,17,6
2.26389,-18.5449,4.31321,34,14
2.17603,-17.8511,-0.313899,82,7
2.46661,-20.2643,5.46988,10,15
1.82458,-15.1663,0.266638,16,8
1.33515,-11.1308,0.587524,24,9
1.38635,-11.5747,1.0199,10,10
0.0788179,-0.65903,-0.105124,13,3
1.29792,-10.8686,1.34398,21,11
0.968612,-8.12302,-1.00445,15,4
1.29807,-10.9021,1.73893,46,12
0.767459,-6.44568,-0.567907,33,5
1.84703,-15.5358,3.04111,3,13
0.833476,-7.021,-0.370539,28,6
2.11136,-17.8388,-0.31355,30,7
1.83425,-15.5207,4.18769,32,15
1.77743,-15.2222,0.267511,34,8
1.76811,-15.1884,0.801368,19,9
0.0674227,-0.579175,-0.113341,16,2
1.83339,-15.7731,1.38926,30,10
0.0746952,-0.643604,-0.102621,14,3
1.28168,-11.0604,1.36713,45,11
0.782363,-6.76177,-0.83578,12,4
1.26205,-10.9243,1.74174,60,12
0.745413,-6.45228,-0.568255,41,5
1.79369,-15.5499,3.04264,10,13
0.809876,-7.0318,-0.370957,17,6
3.93879,-34.2514,7.95967,11,14
0.955307,-8.32006,-0.146181,32,7
1.77478,-15.4809,4.17527,23,15
1.71393,-15.137,0.265905,52,8
1.71867,-15.2263,0.803043,25,9
1.22496,-10.8694,0.95697,44,10
0.0742151,-0.659564,-0.105124,13,3
1.29648,-11.5402,1.42587,33,11
0.763403,-6.80589,-0.840899,13,4
1.22787,-10.9639,1.74737,41,12
0.72599,-6.48256,-0.570696,38,5
0.774025,-6.93335,-0.365619,37,6
0.902372,-8.1087,-0.142412,8,7
1.71796,-15.4621,4.16854,28,15
1.66632,-15.1906,0.266743,39,8
1.67484,-15.3176,0.807544,38,9
0.0633777,-0.579632,-0.113341,16,2
1.26766,-11.6124,1.02199,21,10
0.068488,-0.628399,-0.100118,14,3
1.25834,-11.5644,1.42831,20,11
0.723134,-6.65655,-0.822131,15,4
1.23069,-11.3472,1.80776,29,12
0.714313,-6.58607,-0.579586,27,5
0.7393,-6.83872,-0.36049,30,6
1.99128,-18.4802,-0.32444,30,7
1.66707,-15.4968,4.1763,25,15
1.62046,-15.2639,0.267929,57,8
1.62998,-15.4047,0.811835,46,9
1.15156,-10.9015,0.959062,17,10
0.0679514,-0.64435,-0.102621,14,3
1.88057,-17.8624,2.20535,28,11
0.701345,-6.67286,-0.823837,9,4
1.15191,-10.9781,1.74831,66,12
0.683735,-6.52722,-0.574182,41,5
0.707945,-6.76974,-0.356722,23,6
0.703956,-6.75438,-0.118537,50,7
1.60917,-15.466,4.16647,26,15
1.57391,-15.3351,0.269081,39,8
1.5636,-15.2872,0.805346,12,9
0.0592283,-0.580071,-0.113341,16,2
1.18312,-11.6073,1.02077,8,10
0.0655893,-0.644595,-0.102621,14,3
1.16572,-11.4564,1.41393,97,11
0.677648,-6.67131,-0.823349,9,4
1.15982,-11.438,1.8209,17,12
0.659341,-6.51371,-0.572788,50,5
0.685534,-6.79614,-0.357978,40,6
0.677969,-6.73292,-0.118118,49,7
1.56252,-15.5446,4.18614,20,15
1.53718,-15.5378,0.272537,19,8
1.50952,-15.3127,0.806392,11,9
0.0572032,-0.580274,-0.113341,16,2
1.59643,-16.2234,1.42622,6,10
0.061794,-0.629093,-0.100118,14,3
1.11616,-11.3835,1.40442,74,11
0.654932,-6.69153,-0.825543,9,4
1.43693,-14.7078,2.34057,11,12
0.648999,-6.64288,-0.583943,53,5
0.667612,-6.85813,-0.361118,50,6
0.645179,-6.65177,-0.116652,60,7
1.47382,-15.4475,0.270861,48,8
0.050436,-0.52961,-0.122823,15,1
1.72235,-18.1193,0.953875,11,9
0.0551772,-0.58047,-0.113341,16,2
1.69355,-17.8494,1.56863,43,10
0.0581078,-0.613572,-0.0976151,15,3
1.0781,-11.4051,1.40662,58,11
0.6215,-6.58706,-0.812381,4,4
1.38576,-14.7147,2.34089,15,12
0.62506,-6.63717,-0.583246,50,5
0.643668,-6.86041,-0.361118,37,6
0.622701,-6.66194,-0.116792,42,7
1.45662,-15.613,4.20167,8,15
1.43416,-15.6079,0.273584,15,8
1.39339,-15.1933,0.799589,16,9
1.63141,-17.8571,1.5688,30,10
0.0588356,-0.645247,-0.102621,14,3
1.03433,-11.3653,1.40125,32,11
0.595336,-6.54164,-0.806531,4,4
1.3911,-15.3153,2.43568,32,12
0.59829,-6.59962,-0.57976,38,5
1.45969,-16.1329,3.14873,2,13
0.62331,-6.9024,-0.363212,37,6
0.605093,-6.71376,-0.117664,67,7
1.77435,-19.7257,5.30683,1,15
1.38451,-15.6364,0.274003,15,8
1.34617,-15.2337,0.801473,39,9
1.57027,-17.8406,1.56689,29,10
0.0566956,-0.645438,-0.102621,14,3
1.6462,-18.7784,2.31454,20,11
0.577974,-6.59301,-0.812625,1,4
1.3546,-15.4831,2.46165,20,12
0.575882,-6.59562,-0.579237,45,5
1.42476,-16.3508,3.19033,4,13
0.596437,-6.85867,-0.360804,40,6
0.579368,-6.67589,-0.116966,30,7
1.38772,-16.0227,4.30934,13,15
1.33435,-15.6609,0.274352,16,8
1.29602,-15.2741,0.803357,30,9
0.0491971,-0.581007,-0.113341,16,2
2.92604,-34.5559,3.03407,9,10
0.0558855,-0.66137,-0.105124,13,3
0.958592,-11.368,1.40077,87,11
0.555623,-6.6029,-0.8136,1,4
1.29459,-15.4169,2.45039,29,12
0.550027,-6.56384,-0.576274,38,5
1.3842,-16.5533,3.22887,4,13
0.574154,-6.88061,-0.361851,40,6
1.48947,-17.8874,-0.313306,22,7
1.32954,-16.0005,4.30209,7,15
1.35444,-16.6164,0.291001,27,8
0.0431291,-0.530255,-0.122823,15,1
1.23939,-15.2708,0.802938,22,9
0.0470673,-0.581184,-0.113341,16,2
2.82976,-34.9417,3.06701,19,10
0.0502789,-0.622191,-0.0988666,15,3
0.915165,-11.3497,1.39809,39,11
0.530462,-6.59302,-0.812137,1,4
1.23286,-15.3566,2.44007,22,12
0.525648,-6.56183,-0.575925,37,5
0.540198,-6.77317,-0.356094,50,6
1.43532,-18.0362,-0.315819,15,7
1.26844,-15.9744,4.29381,8,15
1.22169,-15.6981,0.274841,9,8
0.0411853,-0.53041,-0.122823,15,1
1.12155,-14.4767,0.760965,19,9
0.0450383,-0.581345,-0.113341,16,2
1.25034,-16.1758,1.41942,21,10
0.0486057,-0.630249,-0.100118,14,3
0.872951,-11.345,1.39711,19,11
0.507813,-6.61472,-0.814575,1,4
1.17431,-15.3314,2.43537,33,12
0.498936,-6.51397,-0.571567,47,5
0.558155,-7.32068,-0.384774,45,6
0.503615,-6.6359,-0.116163,30,7
1.22228,-16.1427,4.33781,1,15
0.588628,-7.92095,0.138642,57,8
1.0794,-14.5941,0.766931,43,9
0.0430087,-0.581498,-0.113341,16,2
2.59446,-35.1617,3.08462,39,10
0.0475655,-0.646175,-0.102621,14,3
1.06989,-14.5691,1.79367,40,11
0.0568554,-0.776076,-0.0955456,7,4
1.12697,-15.4201,2.44883,29,12
0.599635,-8.20469,-0.719732,10,5
1.14622,-15.7212,3.06401,20,13
0.498405,-6.85247,-0.360071,54,6
1.2815,-17.6618,4.08826,11,14
1.10469,-15.2617,-0.267092,90,7
1.16091,-16.0775,4.31917,5,15
0.559705,-7.905,0.138328,20,8
1.03466,-14.6494,0.769653,30,9
0.0409786,-0.581645,-0.113341,16,2
1.13179,-16.1046,1.41245,25,10
0.0461385,-0.658161,-0.104498,13,3
1.01889,-14.5707,1.79343,44,11
0.056774,-0.811905,-0.0999329,6,4
1.07432,-15.4021,2.44538,30,12
0.456352,-6.55903,-0.575228,21,5
1.07625,-15.5077,3.02165,23,13
0.501792,-7.24868,-0.380796,17,6
1.22131,-17.6426,4.08286,2,14
1.06151,-15.373,-0.268976,89,7
1.38117,-20.0534,5.38602,8,15
1.00586,-14.9078,0.260809,33,8
0.0357213,-0.530805,-0.122823,15,1
1.01048,-15.0154,0.788703,38,9
0.0390496,-0.581777,-0.113341,16,2
1.07891,-16.1162,1.41314,12,10
0.0431661,-0.646484,-0.102621,14,3
0.968848,-14.5483,1.79026,44,11
0.0551366,-0.827935,-0.101883,5,4
1.02494,-15.4312,2.44945,24,12
0.428672,-6.47105,-0.567384,32,5
0.932146,-14.1086,2.74841,8,13
0.50034,-7.59309,-0.3988,14,6
1.15396,-17.5124,4.05182,14,14
0.51772,-7.8778,-0.137804,54,7
1.31289,-20.0309,5.37878,8,15
0.956545,-14.9131,0.260844,34,8
0.033961,-0.530921,-0.122823,15,1
0.955267,-14.975,0.7864,29,9
2.19095,-34.4406,3.01925,19,10
0.0410221,-0.646624,-0.102621,14,3
0.92135,-14.5633,1.79172,44,11
0.053496,-0.847934,-0.10432,10,4
0.968588,-15.3953,2.44319,29,12
0.406581,-6.48046,-0.568081,32,5
0.886447,-14.1686,2.75948,1,13
0.472339,-7.57087,-0.397544,18,6
1.10617,-17.7302,4.10131,28,14
0.494689,-7.95141,-0.139061,55,7
1.24309,-20.0373,5.37929,2,15
0.91081,-15.0642,0.263427,18,8
0.0320148,-0.531042,-0.122823,15,1
0.897498,-14.9305,0.783888,41,9
0.97639,-16.2904,1.42779,31,10
0.0379447,-0.634939,-0.100744,14,3
0.872217,-14.6379,1.8005,36,11
0.0502702,-0.846142,-0.104076,5,4
0.886691,-14.9688,2.37499,21,12
0.968072,-16.4889,-0.865637,13,6
1.04221,-17.7517,4.10536,20,14
0.464723,-7.9392,-0.138816,39,7
0.966593,-16.5626,4.44548,1,15
0.864206,-15.2192,0.266079,79,8
0.0300683,-0.531156,-0.122823,15,1
0.852784,-15.1112,0.793204,42,9
0.0328536,-0.58216,-0.113341,16,2
0.977221,-17.3701,1.52209,3,10
0.0345112,-0.615351,-0.0976151,15,3
0.819668,-14.6608,1.80294,36,11
0.0451802,-0.810645,-0.0996891,12,4
0.825027,-14.8497,2.35559,37,12
0.422864,-7.61114,-0.666916,1,5
0.383141,-6.93989,-0.364258,16,6
0.804198,-14.6129,3.37876,24,14
0.437045,-7.96681,-0.13927,31,7
0.425914,-7.99344,0.139724,13,8
0.804992,-15.2078,0.798123,24,9
0.0308213,-0.582271,-0.113341,16,2
0.860846,-16.3169,1.42953,9,10
0.0331928,-0.631249,-0.100118,14,3
0.770357,-14.6993,1.80732,32,11
0.0422468,-0.808815,-0.0994454,12,4
0.761995,-14.6375,2.32149,17,12
0.352894,-6.77889,-0.593879,10,5
0.786314,-15.1556,2.94991,15,13
0.360357,-6.96911,-0.365724,6,6
0.755492,-14.6604,3.38911,31,14
0.364721,-7.10156,-0.124122,6,7
0.768773,-15.4425,0.269884,7,8
0.0263594,-0.531353,-0.122823,15,1
0.72804,-14.7278,0.772793,66,9
0.0287886,-0.582375,-0.113341,16,2
0.844561,-17.1456,1.50187,42,10
0.0313766,-0.639252,-0.10137,14,3
0.719141,-14.7039,1.80757,28,11
0.039713,-0.814906,-0.100177,12,4
0.714728,-14.719,2.334,37,12
0.364404,-7.50446,-0.657329,13,5
0.732362,-15.1367,2.94571,15,13
0.335067,-6.95038,-0.364677,37,6
0.781448,-16.2688,3.76028,20,14
0.34165,-7.13874,-0.12475,6,7
0.789013,-16.5468,4.43875,5,15
0.673693,-14.6664,0.769443,33,9
0.696,-15.2099,1.33209,14,10
0.0291449,-0.639358,-0.10137,14,3
0.668078,-14.7122,1.8083,32,11
0.0365094,-0.807107,-0.0992016,19,4
0.665034,-14.7589,2.33995,38,12
0.331928,-7.36636,-0.645127,2,5
0.680401,-15.1587,2.94953,11,13
0.31348,-7.01136,-0.367817,21,6
0.717978,-16.1215,3.72564,27,14
0.667665,-15.0509,-0.262973,83,7
0.73176,-16.5611,4.44185,9,15
0.695142,-16.2467,0.283846,37,8
0.617412,-14.5489,0.763163,30,9
0.641975,-15.1904,1.33017,31,10
0.0257501,-0.611825,-0.0969894,15,3
0.61697,-14.7204,1.80903,24,11
0.0334434,-0.80128,-0.0984704,26,4
0.612611,-14.7394,2.33651,46,12
0.291734,-7.01911,-0.614622,1,5
0.623668,-15.0688,2.93159,9,13
0.282012,-6.84279,-0.35892,13,6
0.328954,-8.05005,-0.140631,32,7
1.44552,-35.5263,9.52713,16,15
0.649729,-16.5367,0.288872,50,8
0.0207937,-0.5316,-0.122823,15,1
0.567402,-14.5709,0.76421,33,9
0.0226886,-0.582645,-0.113341,16,2
0.592885,-15.294,1.33906,48,10
0.0240713,-0.623755,-0.0988666,15,3
0.570459,-14.8494,1.82463,32,11
0.0303429,-0.793457,-0.0974955,27,4
0.556648,-14.623,2.31773,44,12
0.279963,-7.35456,-0.643907,5,5
0.570988,-15.0689,2.93121,13,13
0.277773,-7.36465,-0.386239,52,6
0.603877,-16.0853,3.71619,32,14
0.565262,-15.1271,-0.264229,24,7
0.594658,-15.9885,4.28708,5,15
0.596724,-16.6708,0.291176,16,8
0.018938,-0.531669,-0.122823,15,1
0.521203,-14.7046,0.771118,9,9
0.0206545,-0.582721,-0.113341,16,2
0.534089,-15.1427,1.32564,54,10
0.0213395,-0.608042,-0.0963636,15,3
0.518413,-14.8454,1.8239,32,11
0.0281935,-0.811413,-0.0996891,31,4
0.506078,-14.6387,2.31992,38,12
0.251742,-7.28182,-0.637457,31,5
0.518453,-15.0728,2.93159,17,13
0.245301,-7.16796,-0.375877,31,6
0.522196,-15.3374,3.54298,24,14
0.271256,-8.00819,-0.139864,40,7
0.537605,-15.9538,4.27724,8,15
0.017082,-0.531732,-0.122823,15,1
0.475294,-14.876,0.780015,10,9
0.0186204,-0.582789,-0.113341,16,2
0.456104,-14.3539,1.25644,33,10
0.0190922,-0.604164,-0.0957379,15,3
0.461914,-14.6983,1.80562,44,11
0.0246788,-0.789681,-0.097008,28,4
0.47547,-15.2998,2.42442,24,12
0.226817,-7.29858,-0.638852,33,5
0.466929,-15.1098,2.93846,13,13
0.468297,-15.3275,3.54028,38,14
0.250042,-8.23095,-0.143738,40,7
0.479406,-15.8726,4.25499,16,15
0.496678,-17.2422,0.301089,33,8
0.01517,-0.52984,-0.122373,15,1
0.425069,-14.9374,0.783155,3,9
0.0165859,-0.582851,-0.113341,16,2
0.407575,-14.4112,1.26132,55,10
0.0172052,-0.612125,-0.0969894,30,3
0.408108,-14.6105,1.79465,40,11
0.0223077,-0.803653,-0.0987142,19,4
0.422825,-15.329,2.4288,25,12
0.200351,-7.26348,-0.635714,47,5
0.413911,-15.1016,2.93655,11,13
0.206183,-7.5708,-0.396916,36,6
0.416741,-15.4011,3.55693,27,14
0.352383,-13.1073,-0.228871,21,7
0.422914,-15.8336,4.24411,11,15
0.0133204,-0.52989,-0.122373,15,1
0.367342,-14.7152,0.771432,7,9
0.0145513,-0.582905,-0.113341,16,2
0.356577,-14.3846,1.25888,55,10
0.0151655,-0.616131,-0.0976151,15,3
0.356379,-14.5821,1.79099,44,11
0.0205617,-0.847385,-0.104076,5,4
0.368647,-15.3028,2.42442,31,12
0.175715,-7.29401,-0.638329,50,5
0.361055,-15.097,2.93541,11,13
0.176246,-7.42372,-0.38917,49,6
0.36206,-15.3635,3.54793,31,14
0.193134,-8.25648,-0.144157,40,7
0.368493,-15.8717,4.25395,20,15
0.364397,-16.5675,0.289256,17,8
0.0115631,-0.529931,-0.122373,15,1
0.313573,-14.4867,0.759395,33,9
0.0126183,-0.58295,-0.113341,16,2
0.311698,-14.5172,1.27038,60,10
0.0132064,-0.620128,-0.0982409,15,3
0.309823,-14.6685,1.80147,40,11
0.016255,-0.776001,-0.0953018,7,4
0.316422,-15.2328,2.41316,34,12
0.147873,-7.17905,-0.628219,33,5
0.310423,-15.0707,2.93006,11,13
0.148284,-7.26052,-0.380587,56,6
0.305431,-15.0841,3.48314,29,14
0.262395,-13.0714,-0.228208,74,7
0.316896,-15.925,4.26793,15,15
0.323913,-17.5063,0.305627,28,8
0.00971329,-0.529968,-0.122373,15,1
0.262386,-14.4538,0.757615,28,9
0.256927,-14.4306,1.26271,33,10
0.0114209,-0.647823,-0.102621,14,3
0.322829,-18.3116,2.24873,9,11
0.0127146,-0.728418,-0.0894521,8,4
0.265536,-15.3661,2.43412,39,12
0.123767,-7.2353,-0.633099,20,5
0.255184,-15.0717,2.93006,10,13
0.124281,-7.41678,-0.388752,42,6
0.246718,-14.8785,3.43545,33,14
0.122805,-7.40585,-0.129287,14,7
0.260705,-15.8893,4.25809,15,15
0.259124,-17.4654,0.304894,19,8
0.00777078,-0.53,-0.122373,15,1
0.211873,-14.4506,0.757406,20,9
0.00844645,-0.583025,-0.113341,16,2
0.207465,-14.4951,1.26829,41,10
0.00860103,-0.608355,-0.0963636,15,3
0.255628,-18.3067,2.248,9,11
0.0103184,-0.748309,-0.0918895,8,4
0.214509,-15.5566,2.46416,10,12
0.098862,-7.26159,-0.635365,50,5
0.22872,-17.0179,3.30825,36,13
0.0972781,-7.33329,-0.384355,52,6
0.195138,-14.9066,3.44175,31,14
0.0973194,-7.43423,-0.129776,21,7
0.218739,-16.9351,4.53813,19,15
0.201184,-17.4642,0.304859,19,8
0.00601317,-0.530023,-0.122373,15,1
0.160782,-14.3933,0.754371,51,9
0.00641132,-0.583051,-0.113341,16,2
0.16715,-15.4461,1.35144,15,10
0.00654083,-0.60443,-0.0957379,15,3
0.179237,-16.8346,2.06715,26,11
0.00775366,-0.740399,-0.0909145,8,4
0.159433,-15.4822,2.45227,14,12
0.0772052,-7.62648,-0.667264,18,5
0.149768,-14.7943,2.87587,8,13
0.0736944,-7.40747,-0.388228,31,6
0.145668,-14.9033,3.44085,36,14
0.128956,-13.4333,-0.234491,27,7
0.150098,-15.9255,4.26741,8,15
0.140283,-17.4728,0.304998,56,8
0.00416306,-0.530041,-0.122373,15,1
0.110203,-14.3499,0.752068,32,9
0.00447779,-0.583069,-0.113341,16,2
0.105505,-14.0579,1.22994,2,10
0.00457579,-0.624202,-0.0988666,15,3
0.119323,-16.6743,2.04741,30,11
0.0054741,-0.784092,-0.0962768,21,4
0.10469,-15.3799,2.436,5,12
0.0517989,-7.81,-0.683301,37,5
0.097786,-14.7437,2.86595,7,13
0.0473089,-7.32579,-0.383937,38,6
0.0933629,-14.8589,3.4305,27,14
0.047554,-7.78467,-0.135884,38,7
0.0950244,-16.0128,4.2907,10,15
0.0796005,-17.5411,0.306185,42,8
0.00231283,-0.530052,-0.122373,15,1
0.0584797,-13.9607,0.731657,60,9
0.0023407,-0.583082,-0.113341,16,2
0.0537039,-13.9865,1.22367,55,10
0.00230234,-0.628166,-0.0994923,14,3
0.0620033,-16.9168,2.07714,36,11
0.00280644,-0.803958,-0.0987142,26,4
0.0498302,-15.0266,2.37999,23,12
0.0259697,-8.26638,-0.723218,12,5
0.0438008,-14.7616,2.86939,27,13
0.0205696,-7.36586,-0.38603,42,6
0.0409934,-15.6581,3.61496,26,14
0.0204175,-7.79879,-0.136129,68,7
0.0392509,-16.0633,4.30416,18,15
0.01535,-17.5893,0.307023,45,8
0.000370068,-0.530057,-0.122373,15,1
0.00731824,-13.9788,0.732599,45,9
0.00030526,-0.583086,-0.113341,16,2
0.00488578,-13.9945,1.22436,44,10
0.000108987,-0.624219,-0.0988666,15,3
-7.42761e-07,-16.9924,2.0864,4,11
-0.000145097,-0.831754,-0.102127,17,4
-0.00522111,-14.9615,2.36967,27,12
-0.00267823,-7.67468,-0.671448,25,5
-0.00787845,-15.0464,2.92472,9,13
-0.0051605,-7.39185,-0.387391,38,6
-0.0136198,-15.6094,3.60372,35,14
-0.00809973,-7.73482,-0.135012,75,7
-0.0196435,-16.0788,4.3083,15,15
-0.0376044,-14.3638,0.250721,22,8
-0.00148013,-0.530055,-0.122373,15,1
-0.0412268,-13.8949,0.728203,48,9
-0.00173004,-0.583084,-0.113341,16,2
-0.0436518,-13.8949,1.21565,13,10
-0.00214857,-0.64792,-0.102621,14,3
-0.0506245,-14.503,1.78075,42,11
-0.00319399,-0.87145,-0.107001,18,4
-0.0574183,-14.9535,2.36842,41,12
-0.0289258,-7.53317,-0.659072,33,5
-0.0602332,-15.005,2.91671,27,13
-0.0306443,-7.3159,-0.383413,49,6
-0.0677518,-15.5274,3.58482,31,14
-0.0343,-7.55877,-0.13194,72,7
-0.0758603,-16.0979,4.31348,15,15
-0.0818434,-13.3977,0.233862,5,8
-0.00333044,-0.530047,-0.122373,15,1
-0.091288,-14.1363,0.740868,48,9
-0.00376532,-0.583074,-0.113341,16,2
-0.091969,-13.8667,1.21321,26,10
-0.00441024,-0.647909,-0.102621,14,3
-0.10222,-14.6417,1.79782,44,11
-0.00642059,-0.897239,-0.11017,11,4
-0.109151,-14.89,2.35841,34,12
-0.0573821,-7.82789,-0.68487,26,5
-0.112522,-14.993,2.91442,29,13
-0.0560435,-7.29777,-0.382471,42,6
-0.121675,-15.492,3.57672,36,14
-0.0584223,-7.27666,-0.127019,41,7
-0.132655,-16.171,4.33315,15,15
-0.139895,-14.5731,0.254386,38,8
-0.00518058,-0.530032,-0.122373,15,1
-0.142224,-14.2957,0.749242,44,9
-0.00580069,-0.583058,-0.113341,16,2
-0.140573,-13.8862,1.21495,2,10
-0.00667177,-0.647889,-0.102621,14,3
-0.154118,-14.7167,1.80708,44,11
-0.00986953,-0.926986,-0.113826,9,4
-0.163433,-15.1028,2.3922,39,12
-0.0810189,-7.48696,-0.655063,10,5
-0.164253,-14.9375,2.90373,31,13
-0.0826328,-7.39739,-0.387705,77,6
-0.173809,-15.32,3.53713,31,14
-0.0827159,-7.18043,-0.125343,74,7
-0.190952,-16.3288,4.37559,15,15
-0.172808,-13.2009,0.230442,6,8
-0.00703072,-0.530011,-0.122373,15,1
-0.191613,-14.2571,0.747253,14,9
-0.188637,-13.8558,1.21234,52,10
-0.00893338,-0.647862,-0.102621,14,3
-0.20363,-14.5831,1.79075,44,11
-0.0133858,-0.946795,-0.116263,10,4
-0.217595,-15.2029,2.40815,36,12
-0.107011,-7.47667,-0.654191,32,5
-0.215311,-14.8622,2.88923,35,13
-0.108601,-7.40704,-0.388228,45,6
-0.226329,-15.255,3.52228,27,14
-0.109551,-7.29807,-0.127403,20,7
-0.247891,-16.3242,4.37456,20,15
-0.219385,-13.2302,0.230965,13,8
-0.00987099,-0.583003,-0.113341,16,2
-0.259084,-15.1459,1.32529,28,10
-0.254984,-14.6081,1.79392,28,11
-0.0168656,-0.956666,-0.117482,9,4
-0.269359,-15.129,2.39658,51,12
-0.133002,-7.47028,-0.653668,36,5
-0.267932,-14.9026,2.89724,25,13
-0.129852,-7.153,-0.374935,49,6
-0.280612,-15.3106,3.53533,36,14
-0.140204,-7.57755,-0.132289,73,7
-0.305702,-16.3677,4.38647,12,15
-0.295914,-14.4891,0.759499,32,9
-0.011906,-0.582965,-0.113341,16,2
-0.299028,-14.5175,1.27038,41,10
-0.312584,-14.9226,1.83267,8,11
-0.0199953,-0.946678,-0.116263,5,4
-0.323473,-15.1892,2.40628,48,12
-0.158866,-7.45981,-0.652797,26,5
-0.319949,-14.9016,2.89724,25,13
-0.167007,-7.7156,-0.404452,39,6
-0.333504,-15.2842,3.52948,27,14
-0.167709,-7.62499,-0.133127,29,7
-0.352941,-15.9203,4.26689,22,15
-0.32253,-13.6861,0.238958,50,8
-0.347203,-14.5179,0.76107,34,9
-0.0127204,-0.53189,-0.103418,18,2
-0.348356,-14.4606,1.2655,63,10
-0.356282,-14.5781,1.7905,16,11
-0.17658,-7.17394,-0.881115,2,4
-0.382805,-15.4427,2.44664,40,12
-0.185793,-7.49506,-0.655934,30,5
-0.371621,-14.8866,2.89457,24,13
-0.194993,-7.7569,-0.40665,39,6
-0.387888,-15.3239,3.53893,13,14
-0.362358,-14.2172,-0.248243,70,7
-0.405739,-15.8109,4.2379,17,15
-0.354021,-13.0832,0.228452,55,8
-0.0134221,-0.492849,-0.113825,16,1
-0.398973,-14.5566,0.763163,35,9
-0.397787,-14.4214,1.26219,66,10
-0.403842,-14.4577,1.77588,42,11
-0.208871,-7.43124,-0.912801,1,4
-0.439443,-15.538,2.46197,32,12
-0.211672,-7.48441,-0.655063,28,5
-0.425705,-14.9598,2.90907,10,13
-0.224412,-7.83803,-0.410942,39,6
-0.439468,-15.2562,3.52363,11,14
-0.411462,-14.1979,-0.247929,100,7
-0.46937,-16.099,4.31555,10,15
-0.400299,-13.1019,0.228801,56,8
-0.0163394,-0.531755,-0.122823,15,1
-0.450708,-14.585,0.764733,64,9
-0.01801,-0.582808,-0.113341,16,2
-0.449982,-14.4797,1.26742,66,10
-0.455365,-14.49,1.78002,46,11
-0.0327291,-1.0357,-0.127232,2,4
-0.492237,-15.491,2.45477,46,12
-0.238114,-7.49358,-0.655934,7,5
-0.563624,-17.6407,3.43075,10,13
-0.43614,-13.5764,-0.711874,35,6
-0.494419,-15.3072,3.53578,6,14
-0.249949,-7.69677,-0.134418,82,7
-0.530227,-16.2402,4.35385,18,15
-0.0163497,-0.482686,-0.12941,15,0
-0.445145,-13.0744,0.228347,55,8
-0.0181956,-0.531695,-0.122823,15,1
-0.499557,-14.5235,0.761593,30,9
-0.0200443,-0.582742,-0.113341,16,2
-0.506511,-14.6512,1.28258,46,10
-0.511207,-14.6391,1.79855,32,11
-0.0357872,-1.01971,-0.125282,9,4
-0.546306,-15.4892,2.45477,40,12
-0.266494,-7.51854,-0.6582,1,5
-0.278273,-7.81232,-0.409686,10,6
-0.604938,-16.9003,3.90425,21,14
-0.278035,-7.72982,-0.135012,52,7
-0.584053,-16.159,4.33263,15,15
-0.486731,-12.9649,0.226462,57,8
-0.54836,-14.4717,0.758976,47,9
-0.02218,-0.582665,-0.113341,16,2
-0.5497,-14.3745,1.25853,60,10
-0.56741,-14.7701,1.81488,52,11
-0.0401885,-1.0414,-0.127963,27,4
-0.60435,-15.5898,2.47104,33,12
-0.68194,-17.4341,3.39144,20,13
-0.519087,-13.2117,-0.692928,3,6
-0.62392,-15.8095,3.65276,16,14
-0.303754,-7.69684,-0.134453,30,7
-0.644739,-16.265,4.36162,5,15
-0.535564,-12.995,0.227021,31,8
-0.020388,-0.49261,-0.113825,16,1
-0.601728,-14.4776,0.759395,31,9
-0.0242137,-0.582584,-0.113341,16,2
-0.600208,-14.3805,1.25923,44,10
-0.618869,-14.7045,1.80708,44,11
-0.044089,-1.04323,-0.128207,48,4
-0.653278,-15.3941,2.44038,24,12
-0.0697763,-1.64423,-0.143981,4,5
-0.705095,-16.547,3.21933,14,13
-0.675254,-15.7177,3.63206,19,14
-0.606532,-14.0608,-0.24566,8,7
-0.70577,-16.2953,4.37042,13,15
-0.579938,-12.9711,0.226637,11,8
-0.0221075,-0.492535,-0.113825,16,1
-0.650823,-14.4435,0.75772,42,9
-0.0262472,-0.582496,-0.113341,16,2
-0.748446,-16.5458,1.44905,25,10
-0.667845,-14.6506,1.80074,44,11
-0.0480931,-1.051,-0.129182,69,4
-0.792483,-17.2525,2.73541,15,12
-0.0754237,-1.64199,-0.143807,20,5
-0.75598,-16.3954,3.19033,9,13
-0.0790454,-1.70783,-0.0895992,1,6
-0.73301,-15.7775,3.64646,35,14
-1.71715,-36.6843,9.8403,8,15
-0.729493,-15.1321,0.264439,9,8
-0.0243917,-0.504134,-0.116525,16,1
-0.711698,-14.6566,0.769025,21,9
-0.810853,-16.6386,1.45742,40,10
-0.722678,-14.7236,1.81,4,11
-0.0507849,-1.031,-0.126744,56,4
-0.0805647,-1.62978,-0.142761,36,5
-0.831784,-16.7672,3.26322,32,13
-0.0820272,-1.6477,-0.086459,13,6
-0.781565,-15.6445,3.61631,40,14
-1.39278,-27.6851,7.42759,9,15
-0.751328,-14.4326,0.757406,12,9
-0.0303131,-0.582298,-0.113341,16,2
-0.77103,-14.7614,1.29322,46,10
-0.830355,-15.7914,1.94162,20,11
-0.0544881,-1.0328,-0.126988,40,4
-0.92074,-17.3945,2.75888,15,12
-0.0862532,-1.62949,-0.142761,45,5
-0.89562,-16.8641,3.28268,25,13
-0.841266,-15.737,3.63836,28,14
-0.0894249,-1.66735,-0.0291455,9,7
-1.50051,-27.8865,7.48298,5,15
-0.0294192,-0.531192,-0.122823,15,1
-0.796609,-14.3382,0.752591,4,9
-0.0323456,-0.582189,-0.113341,16,2
-0.876212,-15.7215,1.37758,24,10
-0.898591,-16.0223,1.97038,25,11
-0.0586504,-1.04251,-0.128207,23,4
-0.980786,-17.3794,2.757,27,12
-0.0900323,-1.59536,-0.139798,48,5
-0.95448,-16.8609,3.28268,14,13
-0.0928487,-1.63512,-0.085831,49,6
-0.900958,-15.8176,3.6577,21,14
-0.0936474,-1.63908,-0.0286569,31,7
-1.12765,-19.6765,5.28094,20,15
-0.0966908,-1.64691,0.0287965,4,8
-0.0312733,-0.531086,-0.122823,15,1
-0.0343775,-0.582072,-0.113341,16,2
-0.954884,-16.1201,1.41279,6,10
-0.925821,-15.5375,1.91116,33,11
-0.0627628,-1.05023,-0.129182,13,4
-1.04109,-17.3699,2.75606,38,12
-0.0963158,-1.60697,-0.140844,52,5
-1.00225,-16.6733,3.24681,31,13
-0.0979549,-1.62482,-0.0853076,57,6
-0.955697,-15.8066,3.6559,35,14
-0.0991263,-1.63475,-0.028587,46,7
-1.1955,-19.6589,5.27732,11,15
-0.102152,-1.64658,0.0287965,18,8
-0.0330343,-0.530979,-0.122823,15,1
-0.102438,-1.64655,0.086459,4,9
-0.0363076,-0.581955,-0.113341,16,2
-0.978213,-15.5483,1.91286,28,11
-0.0668701,-1.05992,-0.1304,13,4
-1.09043,-17.2838,2.74292,27,12
-0.101644,-1.60664,-0.140844,52,5
-1.05381,-16.6111,3.23536,30,13
-0.102074,-1.60455,-0.0842609,63,6
-0.104389,-1.63642,-0.0286219,47,7
-1.24036,-19.3909,5.2064,21,15
-0.106698,-1.63227,0.0285521,36,8
-0.0347949,-0.530867,-0.122823,15,1
-0.108447,-1.65017,0.0866684,13,9
-0.0383387,-0.581825,-0.113341,16,2
-0.113223,-1.7137,0.150256,1,10
-0.0427147,-0.646514,-0.102621,14,3
-1.17095,-17.6762,2.17512,4,11
-0.0698582,-1.05177,-0.129425,12,4
-1.15377,-17.3252,2.75012,42,12
-0.107119,-1.60429,-0.140669,51,5
-1.11124,-16.6428,3.24223,23,13
-0.107128,-1.60022,-0.0840516,63,6
-1.9417,-28.9283,6.69364,9,14
-0.109832,-1.63206,-0.0285521,50,7
-0.11267,-1.63587,0.0286219,52,8
-0.0366477,-0.530742,-0.122823,15,1
-0.113793,-1.6438,0.0863543,33,9
-0.0402679,-0.581694,-0.113341,16,2
-0.114353,-1.64773,0.144504,5,10
-0.0449712,-0.646361,-0.102621,14,3
-0.0738061,-1.05548,-0.129913,13,4
-1.21314,-17.3053,2.74762,24,12
-0.112579,-1.60192,-0.140495,54,5
-1.16686,-16.6035,3.23536,30,13
-0.112994,-1.60382,-0.0842609,64,6
-2.03347,-28.7911,6.6635,9,14
-0.115104,-1.62568,-0.0284474,54,7
-1.38651,-19.534,5.2473,14,15
-0.118091,-1.63148,0.0285521,64,8
-0.0385001,-0.530611,-0.122823,15,1
-0.11953,-1.6434,0.0863543,58,9
-0.120101,-1.64332,0.144156,22,10
-0.0473399,-0.646192,-0.102621,14,3
-0.122993,-1.67886,0.20669,1,11
-0.0782168,-1.06511,-0.131131,14,4
-1.97847,-26.8773,4.26847,17,12
-0.11685,-1.58363,-0.138926,75,5
-1.23002,-16.6305,3.24146,24,13
-0.119167,-1.60738,-0.0844702,67,6
-2.75348,-37.0525,8.57783,12,14
-0.119889,-1.61331,-0.028238,55,7
-1.45425,-19.5233,5.24574,15,15
-0.12316,-1.61908,0.0283427,77,8
-0.125096,-1.63697,0.0860403,57,9
-0.125837,-1.64289,0.144156,43,10
-0.0495953,-0.646023,-0.102621,14,3
-0.12747,-1.65663,0.204009,11,11
-0.0816622,-1.05888,-0.1304,13,4
-0.122684,-1.58718,-0.139275,85,5
-1.30217,-16.8081,3.27695,13,13
-0.124158,-1.59899,-0.0840516,94,6
-2.25546,-28.9817,6.71119,48,14
-0.124713,-1.5989,-0.0279937,68,7
-1.52836,-19.5506,5.25454,12,15
-0.128652,-1.61664,0.0283078,92,8
-0.130332,-1.63055,0.0857263,65,9
-0.131093,-1.63649,0.143633,63,10
-0.0543793,-0.67735,-0.107627,12,3
-0.132615,-1.64826,0.203034,37,11
-0.0853579,-1.05859,-0.1304,12,4
-2.27448,-28.1463,4.47246,3,12
-0.128866,-1.59469,-0.139972,73,5
-1.36067,-16.8015,3.27657,16,13
-0.129578,-1.59655,-0.0839469,100,6
-2.34019,-28.7717,6.6644,48,14
-0.131106,-1.60842,-0.0281682,95,7
-1.6084,-19.6895,5.29337,16,15
-0.0399093,-0.481311,-0.12941,15,0
-0.134295,-1.61618,0.0283078,100,8
-0.134694,-1.61417,0.0848889,69,9
-0.136971,-1.638,0.143807,79,10
-0.0541042,-0.645661,-0.102621,14,3
-0.138036,-1.64383,0.202547,70,11
-0.0868887,-1.03257,-0.127232,9,4
-2.48061,-29.4176,4.67583,3,12
-0.134934,-1.60019,-0.140495,18,5
-1.4208,-16.8143,3.28001,13,13
-0.134813,-1.59211,-0.0837375,100,6
-2.40534,-28.3478,6.56812,46,14
-0.136042,-1.59998,-0.0280286,100,7
-1.67301,-19.6357,5.28043,11,15
-0.139935,-1.6157,0.0283078,100,8
-0.139809,-1.60772,0.0845749,85,9
-0.141304,-1.62164,0.142412,81,10
-0.0563576,-0.645468,-0.102621,14,3
-0.143254,-1.6374,0.201816,85,11
-0.0878921,-1.0026,-0.123576,4,4
-0.144504,-1.64508,0.261558,3,12
-0.14017,-1.59574,-0.140146,21,5
-1.47776,-16.7896,3.27619,13,13
-0.14072,-1.59561,-0.0839469,100,6
-2.43944,-27.6055,6.39806,35,14
-0.141802,-1.60149,-0.0280635,100,7
-1.75589,-19.7914,5.32391,18,15
-0.145215,-1.61122,0.028238,100,8
-0.14596,-1.61319,0.0848889,93,9
-0.0525426,-0.580714,-0.113341,16,2
-0.146065,-1.61121,0.141541,88,10
-0.148609,-1.63294,0.201328,97,11
-0.091211,-1.00031,-0.123332,5,4
-0.150066,-1.6426,0.261246,11,12
-0.143202,-1.56746,-0.137706,52,5
-1.53618,-16.7824,3.27581,10,13
-0.145924,-1.59113,-0.0837375,100,6
-2.53543,-27.5929,6.39716,35,14
-0.147941,-1.60696,-0.0281682,100,7
-1.81343,-19.6601,5.29026,16,15
-0.149533,-1.59677,0.0279937,100,8
-0.151964,-1.61665,0.0850983,96,9
-0.0545693,-0.580527,-0.113341,16,2
-0.151501,-1.60871,0.141367,100,10
-0.0771913,-0.818123,-0.130153,7,3
-0.153001,-1.61858,0.199622,100,11
-0.0954509,-1.00789,-0.124307,9,4
-0.15468,-1.63027,0.259368,21,12
-0.149613,-1.57687,-0.138578,63,5
-1.78184,-18.7451,3.6601,7,13
-0.151856,-1.59459,-0.0839469,100,6
-2.71095,-28.4142,6.58972,46,14
-0.15374,-1.60842,-0.0282031,100,7
-1.88186,-19.6517,5.28974,11,15
-0.155493,-1.60022,0.0280635,100,8
-0.158188,-1.62207,0.0854123,100,9
-0.0565954,-0.580333,-0.113341,16,2
-0.156341,-1.60024,0.140669,100,10
-0.0823556,-0.841441,-0.133908,13,3
-0.158068,-1.6121,0.198891,100,11
-0.0964457,-0.981865,-0.121138,6,4
-0.16095,-1.63561,0.260307,36,12
-0.155117,-1.57634,-0.138578,83,5
-1.84186,-18.684,3.64941,18,13
-0.157029,-1.59007,-0.0837375,100,6
-2.80283,-28.3308,6.57262,46,14
-0.158959,-1.6039,-0.0281333,100,7
-2.82613,-28.465,7.66467,26,15
-0.161479,-1.60365,0.0281333,100,8
-0.161841,-1.60163,0.0843656,100,9
-0.16333,-1.61356,0.14189,100,10
-0.0840967,-0.829356,-0.132031,14,3
-0.163694,-1.61154,0.198891,100,11
-0.0972602,-0.955849,-0.11797,8,4
-0.166057,-1.62915,0.259368,49,12
-0.158598,-1.55596,-0.136835,77,5
-1.91006,-18.7068,3.65514,15,13
-0.162781,-1.5915,-0.0838422,28,6
-2.89515,-28.2569,6.55777,18,14
-0.164965,-1.60731,-0.0282031,100,7
-2.03481,-19.7918,5.33115,7,15
-0.16749,-1.60705,0.0282031,100,8
-0.0552404,-0.52913,-0.122823,15,1
-0.167015,-1.59709,0.0841562,100,9
-0.0606455,-0.579924,-0.113341,16,2
-0.168754,-1.611,0.141715,100,10
-0.0857543,-0.81727,-0.130153,15,3
-0.168904,-1.60701,0.198403,100,11
-0.0972706,-0.923917,-0.11407,12,4
-0.170707,-1.61873,0.257804,56,12
-0.122237,-1.15912,-0.101972,43,5
-1.9737,-18.6844,3.65208,7,13
-0.167916,-1.58695,-0.0836329,15,6
-2.09847,-19.7994,4.59665,10,14
-0.169519,-1.59678,-0.0280286,100,7
-2.0138,-18.9374,5.10288,1,15
-0.172884,-1.60447,0.0281682,100,8
-0.172589,-1.59649,0.0841562,100,9
-0.174504,-1.61421,-0.315598,1,2
-0.17309,-1.59851,0.140669,100,10
-0.0913755,-0.842496,-0.134221,13,3
-0.175155,-1.61233,0.199135,100,11
-0.100495,-0.923572,-0.11407,12,4
-0.176357,-1.61813,0.257804,65,12
-0.12067,-1.10719,-0.0974401,57,5
-2.99722,-27.456,5.3686,7,13
-0.173237,-1.58437,-0.0835282,52,6
-2.18645,-19.9643,4.63669,3,14
-0.17531,-1.59817,-0.0280635,100,7
-2.08917,-19.0148,5.12565,1,15
-0.176714,-1.58795,0.0278889,100,8
-0.0589331,-0.528732,-0.122823,15,1
-0.179712,-1.60978,0.0848889,100,9
-0.179266,-1.60578,-0.314072,1,2
-0.179111,-1.60186,0.141018,100,10
-0.0916777,-0.818615,-0.130466,15,3
-0.181889,-1.62158,0.200353,100,11
-0.102389,-0.911379,-0.112607,13,4
-0.182225,-1.61947,0.258117,70,12
-0.123866,-1.10082,-0.0969172,42,5
-3.08886,-27.4083,5.36135,18,13
-0.178094,-1.5778,-0.0832142,85,6
-2.27386,-20.1134,4.67313,15,14
-0.181788,-1.60549,-0.0282031,100,7
-2.144,-18.9056,5.09822,9,15
-0.182256,-1.58733,0.0278889,100,8
-0.0607783,-0.528523,-0.122823,15,1
-0.185787,-1.61311,0.0850983,100,9
-0.184702,-1.60123,0.141018,100,10
-0.0954413,-0.826139,-0.131718,14,3
-0.184582,-1.5953,0.197185,100,11
-0.104198,-0.899185,-0.111145,15,4
-0.188332,-1.62274,0.258743,70,12
-0.127478,-1.0984,-0.0967429,7,5
-3.12762,-26.9078,5.26557,14,13
-0.182677,-1.56923,-0.0827955,100,6
-2.35714,-20.2176,4.69923,15,14
-0.187391,-1.60485,-0.0282031,100,7
-2.19517,-18.7714,5.06405,6,15
-0.188266,-1.59065,0.0279588,100,8
-0.0626228,-0.528308,-0.122823,15,1
-0.189062,-1.59262,0.0840516,100,9
-0.190009,-1.60059,-0.313308,2,2
-0.191701,-1.61244,0.142064,100,10
-0.0983246,-0.825801,-0.131718,14,3
-0.19015,-1.59464,0.197185,100,11
-0.104982,-0.879105,-0.108707,17,4
-0.193761,-1.62012,0.25843,75,12
-0.129182,-1.08015,-0.0951741,5,5
-3.34433,-27.9221,5.4663,32,13
-0.189818,-1.58247,-0.0835282,100,6
-2.42352,-20.1745,4.69113,11,14
-0.192514,-1.60022,-0.0281333,100,7
-2.14421,-17.7969,4.80316,10,15
-0.194301,-1.59396,0.0280286,100,8
-0.0644666,-0.528086,-0.122823,15,1
-0.195105,-1.59591,0.0842609,100,9
-0.193213,-1.58043,-0.309492,3,2
-0.196844,-1.60781,0.141715,100,10
-0.101207,-0.825453,-0.131718,14,3
-0.196682,-1.60185,0.19816,100,11
-0.104417,-0.849179,-0.105051,15,4
-0.197966,-1.60767,0.256553,77,12
-0.130517,-1.05992,-0.093431,7,5
-2.27858,-18.4776,3.61888,18,13
-0.195341,-1.5818,-0.0835282,100,6
-0.196624,-1.58763,-0.0279239,100,7
-2.20799,-17.8028,4.80679,24,15
-0.199366,-1.5893,0.0279588,100,8
-0.201641,-1.60516,0.0847843,100,9
-0.200199,-1.59144,-0.311782,3,2
-0.200961,-1.59525,0.140669,100,10
-0.105076,-0.832933,-0.132969,14,3
-0.203268,-1.60903,0.199135,100,11
-0.105739,-0.837012,-0.103589,11,4
-0.203544,-1.60896,0.256865,72,12
-0.132713,-1.04759,-0.0923851,6,5
-2.34727,-18.5026,3.62537,37,13
-0.202875,-1.59696,-0.0843656,55,6
-0.203149,-1.59688,-0.0280984,100,7
-2.27995,-17.8969,4.83422,12,15
-0.203614,-1.5807,0.0278191,100,8
-0.0680596,-0.527635,-0.122823,15,1
-0.206963,-1.60449,0.0847843,100,9
-0.206481,-1.59855,-0.313308,2,2
-0.20625,-1.59458,0.140669,100,10
-0.104793,-0.809072,-0.129215,16,3
-0.208347,-1.60638,0.198891,100,11
-0.107238,-0.826813,-0.10237,11,4
-0.209133,-1.61024,0.257178,77,12
-0.134131,-1.03134,-0.0909906,5,5
-2.41444,-18.5395,3.63415,16,13
-4.16482,-31.9364,7.43553,43,14
-0.209738,-1.60612,-0.0282729,49,7
-2.3984,-18.3413,4.95639,19,15
-0.208854,-1.58001,0.0278191,100,8
-0.0698089,-0.527406,-0.122823,15,1
-0.212562,-1.60375,0.0847843,100,9
-0.211543,-1.59393,-0.312545,2,2
-0.212061,-1.59783,0.141018,100,10
-0.104353,-0.785222,-0.12546,17,3
-0.211054,-1.586,0.196453,100,11
-0.115629,-0.867756,-0.107489,9,4
-0.215798,-1.61733,0.25843,75,12
-0.135092,-1.01112,-0.0892475,3,5
-2.47784,-18.5212,3.63224,12,13
-0.145322,-1.08481,-0.0573602,4,6
-4.28145,-31.9603,7.44453,54,14
-0.21428,-1.59745,-0.0281333,11,7
-2.46858,-18.3788,4.96881,17,15
-0.215183,-1.5832,0.0278889,67,8
-0.217899,-1.59901,0.0845749,100,9
-0.217914,-1.59703,-0.313308,2,2
-0.218455,-1.60099,0.141367,100,10
-0.109102,-0.798535,-0.127651,33,3
-0.217404,-1.58915,0.196941,100,11
-0.112074,-0.818158,-0.101395,12,4
-0.221187,-1.61261,0.257804,77,12
-0.135002,-0.982983,-0.0868071,2,5
-2.53233,-18.4148,3.61316,22,13
-0.150932,-1.09614,-0.0579882,10,6
-4.36932,-31.732,7.39504,54,14
-0.221226,-1.60457,-0.0282729,6,7
-0.0736731,-0.52688,-0.122823,15,1
-0.22542,-1.61007,0.0852029,51,9
-0.221586,-1.58067,-0.310255,1,2
-0.223768,-1.59624,0.141018,100,10
-0.112851,-0.803998,-0.128589,32,3
-0.224332,-1.59621,0.197916,100,11
-0.115072,-0.817742,-0.101395,6,4
-0.225994,-1.60397,0.256553,77,12
-0.138047,-0.978536,-0.0864585,3,5
-2.34307,-16.5878,3.25635,24,13
-0.15355,-1.08569,-0.0574649,17,6
-2.60507,-18.4194,4.29477,34,14
-0.226825,-1.60177,-0.028238,5,7
-2.78928,-19.6723,5.32391,11,15
-0.227066,-1.58356,0.0279239,6,8
-0.0756038,-0.526607,-0.122823,15,1
-0.23132,-1.60923,0.0852029,9,9
-0.222903,-1.54876,-0.30415,1,2
-0.227062,-1.57766,0.139449,76,10
-0.11298,-0.784028,-0.12546,35,3
-0.231315,-1.60323,0.198891,100,11
-0.120339,-0.833032,-0.103345,5,4
-0.232154,-1.60508,0.256865,72,12
-0.134779,-0.930699,-0.082275,5,5
-2.40751,-16.6043,3.26131,9,13
-0.152363,-1.04954,-0.0555808,12,6
-2.48834,-17.1407,3.99873,11,14
-0.230969,-1.58906,-0.0280286,5,7
-2.68943,-18.4805,5.00401,17,15
-0.230894,-1.57694,0.0278191,5,8
-0.0771659,-0.52638,-0.122823,15,1
-0.236674,-1.61249,0.0854123,7,9
-0.114731,-0.77978,-0.124835,36,3
-0.235782,-1.60058,0.198647,100,11
-0.121072,-0.820888,-0.101883,5,4
-0.238069,-1.6122,0.258117,72,12
-0.13796,-0.934262,-0.0826236,2,5
-2.46191,-16.6519,3.27199,4,13
-0.147982,-0.99972,-0.052964,10,6
-2.72288,-18.3728,4.28802,40,14
-0.234508,-1.58045,-0.0278889,6,7
-2.73772,-18.4285,4.9921,19,15
-0.238177,-1.58799,0.0280286,9,8
-0.0790028,-0.526107,-0.122823,15,1
-0.242895,-1.6156,0.0856216,5,9
-0.239025,-1.58798,0.140495,5,10
-0.113331,-0.752029,-0.120455,40,3
-0.238406,-1.58012,0.19621,25,11
-0.123936,-0.820461,-0.101883,5,4
-0.243991,-1.61332,0.25843,45,12
-0.142412,-0.941654,-0.0833209,2,5
-2.77779,-18.3456,3.60667,21,13
-0.146083,-0.963653,-0.0510799,15,6
-2.79373,-18.4075,4.29837,40,14
-0.171832,-1.13085,-0.0199656,3,7
-2.80407,-18.4322,4.99573,19,15
-0.245236,-1.59703,0.0282031,11,8
-0.0808387,-0.525828,-0.122823,15,1
-2.01621,-13.0996,0.694603,7,9
-0.246084,-1.59698,0.141367,5,10
-0.115955,-0.751628,-0.120455,20,3
-0.245738,-1.59104,0.197672,7,11
-0.124373,-0.804329,-0.0999329,6,4
-0.144031,-0.929313,-0.082275,2,5
-3.12295,-20.1498,3.96348,11,13
-0.148833,-0.95919,-0.0508706,12,6
-0.175164,-1.12629,-0.0198957,16,7
-2.87315,-18.4529,5.00401,19,15
-1.25281,-7.97294,0.140876,5,8
-2.00817,-12.7511,0.676495,10,9
-0.24914,-1.57835,0.139798,6,10
-0.117476,-0.743394,-0.119203,20,3
-0.253769,-1.60586,0.199622,6,11
-0.120976,-0.764676,-0.0950581,7,4
-0.256175,-1.61743,0.259368,5,12
-0.145402,-0.916997,-0.0812292,2,5
-5.05003,-31.8128,6.26121,36,13
-0.149527,-0.940885,-0.0499285,15,6
-6.17777,-38.8294,9.07722,13,14
-0.174381,-1.09605,-0.0193722,28,7
-2.94514,-18.4904,5.01695,17,15
-1.4904,-9.26344,0.163773,1,8
-0.0845995,-0.525237,-0.122823,15,1
-5.03438,-31.2213,1.65738,16,9
-2.2696,-14.0596,1.24598,57,10
-0.117549,-0.727378,-0.1167,21,3
-0.259019,-1.601,0.199135,6,11
-0.128538,-0.79362,-0.0987142,6,4
-0.258624,-1.59503,0.255927,4,12
-0.144776,-0.892884,-0.0791374,3,5
-3.30732,-20.375,4.01233,8,13
-0.155053,-0.954157,-0.0506612,6,6
-0.178397,-1.0954,-0.0193722,21,7
-3.05548,-18.7407,5.08786,13,15
-2.27747,-13.8019,1.22384,97,10
-0.117834,-0.713321,-0.11451,22,3
-3.42433,-20.7072,2.57705,18,11
-0.130011,-0.785333,-0.0977392,6,4
-3.38053,-20.398,3.2748,8,12
-0.149194,-0.900235,-0.0798347,3,5
-6.58398,-39.6846,7.81935,32,13
-0.156419,-0.941789,-0.0500332,7,6
-6.70055,-40.3002,9.43175,14,14
-0.17828,-1.0711,-0.0189533,12,7
-3.03261,-18.2002,4.94396,17,15
-2.19987,-13.0619,0.694184,39,9
-2.32828,-13.8096,1.22524,42,10
-0.116378,-0.689531,-0.110756,12,3
-6.16906,-36.5124,4.5467,14,11
-0.130765,-0.773131,-0.0962768,7,4
-0.147014,-0.868278,-0.0770457,4,5
-3.44325,-20.3146,4.00508,8,13
-0.152689,-0.899885,-0.0478351,10,6
-6.84641,-40.3073,9.43895,14,14
-0.177995,-1.04681,-0.0185345,9,7
-3.0932,-18.1724,4.9393,19,15
-0.202982,-1.18252,0.0209429,1,8
-0.090095,-0.524322,-0.122823,15,1
-2.24511,-13.0521,0.69408,16,9
-2.42617,-14.09,1.25086,22,10
-0.118113,-0.685228,-0.11013,12,3
-4.77282,-27.6604,3.44647,21,11
-0.130084,-0.753108,-0.0938394,7,4
-0.153439,-0.887392,-0.0787888,3,5
-3.01356,-17.4104,3.43456,15,13
-0.159239,-0.919026,-0.0488818,8,6
-3.13718,-18.0871,4.23808,33,14
-0.175148,-1.00875,-0.0178713,7,7
-0.193301,-1.10302,0.0195467,5,8
-2.24662,-12.8066,0.681414,16,9
-2.47879,-14.1011,1.2526,22,10
-0.125297,-0.712048,-0.11451,11,3
-2.53833,-14.4103,1.7966,24,11
-0.134091,-0.760469,-0.0948144,7,4
-6.37195,-36.1371,5.81185,21,12
-0.16554,-0.937865,-0.0833209,2,5
-3.58977,-20.3171,4.01042,22,13
-0.154445,-0.87323,-0.0464743,11,6
-3.23258,-18.2583,4.28082,15,14
-0.175704,-0.992413,-0.017592,6,7
-3.46461,-19.549,5.31977,3,15
-0.19731,-1.10434,0.0195816,13,8
-0.0936618,-0.523696,-0.122823,15,1
-4.86216,-27.1042,2.40916,67,10
-0.130448,-0.727183,-0.117013,10,3
-2.57277,-14.3275,1.78734,48,11
-0.135208,-0.752206,-0.0938394,7,4
-7.20781,-40.0594,6.44667,6,12
-0.168812,-0.937281,-0.0833209,2,5
-0.158404,-0.87861,-0.0467883,11,6
-3.27442,-18.1439,4.25652,30,14
-0.177034,-0.979986,-0.0173826,4,7
-3.49983,-19.3543,5.27007,13,15
-0.201163,-1.10365,0.0195816,16,8
-0.0954892,-0.523366,-0.122823,15,1
-2.49602,-13.6669,0.728098,0,9
-2.57328,-14.0761,1.25191,41,10
-0.130141,-0.711179,-0.11451,11,3
-2.68213,-14.6426,1.8278,32,11
-0.142128,-0.775159,-0.0967643,7,4
-5.2594,-28.6562,4.6145,3,12
-7.33677,-39.9357,7.89262,8,13
-0.158941,-0.864301,-0.0460556,6,6
-3.33703,-18.1286,4.25562,24,14
-0.179004,-0.971496,-0.017243,1,7
-3.53583,-19.171,5.22349,21,15
-0.202456,-1.08917,0.0193373,13,8
-0.0973156,-0.52303,-0.122823,15,1
-2.47964,-13.3012,1.18375,10,10
-0.130448,-0.699069,-0.112633,11,3
-2.57104,-13.7648,1.71933,54,11
-0.139726,-0.747341,-0.0933519,7,4
-5.35031,-28.5891,4.60668,37,12
-6.99753,-37.3549,7.38736,7,13
-0.165638,-0.883372,-0.0471024,11,6
-3.38842,-18.0536,4.24078,33,14
-0.178702,-0.951212,-0.0168939,2,7
-3.64843,-19.4015,5.28974,20,15
-0.199183,-1.05113,0.0186741,7,8
-0.218307,-1.14985,0.0613377,1,9
-2.50336,-13.173,1.17312,52,10
-0.128458,-0.675322,-0.108878,12,3
-2.56152,-13.4535,1.68155,90,11
-0.138618,-0.727348,-0.0909145,8,4
-5.44044,-28.5198,4.59855,32,12
-0.178455,-0.935493,-0.0833209,2,5
-7.12052,-37.2917,7.37973,7,13
-0.163471,-0.855324,-0.045637,6,6
-3.44849,-18.0263,4.23718,33,14
-0.182021,-0.950583,-0.0168939,2,7
-3.74813,-19.5556,5.3353,20,15
-0.19906,-1.0308,0.018325,6,8
-0.100965,-0.522338,-0.122823,15,1
-0.222319,-1.14908,0.0613377,5,9
-2.5588,-13.2131,1.17747,30,10
-0.139836,-0.721412,-0.116387,10,3
-2.65837,-13.7017,1.71373,93,11
-0.142291,-0.732706,-0.0916458,16,4
-3.29729,-16.9631,2.73698,8,12
-3.54208,-18.2055,3.60515,15,13
-0.166456,-0.854748,-0.045637,6,6
-3.49313,-17.9205,4.21513,36,14
-0.185338,-0.949941,-0.0168939,2,7
-3.73639,-19.1329,5.22349,10,15
-0.197639,-1.00459,0.0178713,6,8
-0.222269,-1.12875,0.060291,12,9
-2.60143,-13.1865,1.17591,20,10
-0.138527,-0.70154,-0.113259,11,3
-0.145233,-0.734152,-0.0918895,16,4
-7.6267,-38.553,6.22453,6,12
-3.69836,-18.661,3.69788,24,13
-0.167884,-0.846325,-0.0452183,6,6
-3.57387,-17.9999,4.23673,33,14
-0.188487,-0.949322,-0.0168939,2,7
-3.80095,-19.1261,5.22504,7,15
-0.194296,-0.970593,0.0172779,6,8
-0.226601,-1.12992,0.0603957,13,9
-0.15339,-0.764169,-0.151502,9,2
-2.65687,-13.2242,1.18009,2,10
-0.135405,-0.673964,-0.108878,12,3
-2.68465,-13.3505,1.67205,18,11
-0.14375,-0.714206,-0.0894521,8,4
-7.36956,-36.5819,5.91041,11,12
-3.67795,-18.2406,3.61698,13,13
-0.169109,-0.837933,-0.0447996,7,6
-3.6347,-17.9937,4.23808,30,14
-3.90102,-19.2774,5.27007,18,15
-0.198481,-0.973828,0.0173477,3,8
-0.106338,-0.52127,-0.122823,15,1
-0.228546,-1.11934,0.0598723,12,9
-0.155923,-0.763656,-0.151502,9,2
-0.13934,-0.681228,-0.11013,12,3
-2.72885,-13.3294,1.67059,45,11
-0.148234,-0.723423,-0.0906708,17,4
-7.49126,-36.5269,5.90571,22,12
-3.69541,-18.0027,3.57233,33,13
-0.172033,-0.837337,-0.0447996,7,6
-3.69435,-17.9656,4.23448,39,14
-3.99635,-19.3999,5.30734,3,15
