x, y, z, intensity, ring
18.3864,26.9433,4.00511,13,11
4.35154,6.37434,-0.947656,28,4
22.2093,32.5211,6.23736,24,12
5.01249,7.33978,-0.777604,18,5
22.8107,33.3891,7.86019,16,13
5.95028,8.70645,-0.552668,38,6
22.0949,32.3172,9.03808,13,14
7.32768,10.7138,-0.226567,100,7
22.8189,33.3512,10.828,11,15
0.286319,0.417378,-0.135621,15,0
9.67536,14.0988,0.298471,35,8
0.335293,0.488402,-0.13677,13,1
13.8645,20.188,1.28349,22,9
3.42544,4.98778,-1.17615,23,2
17.6825,25.7378,2.73198,33,10
3.84778,5.59855,-1.07596,22,3
21.2717,30.939,4.61007,15,11
4.36702,6.3493,-0.946194,23,4
22.2801,32.3815,6.22547,24,12
5.03582,7.31895,-0.777255,18,5
22.8614,33.2139,7.83767,16,13
5.96704,8.66589,-0.551412,38,6
7.33667,10.647,-0.225695,100,7
22.8212,33.1059,10.7741,11,15
0.287775,0.416376,-0.135621,15,0
9.67221,13.9893,0.296865,35,8
0.323693,0.467996,-0.131371,14,1
13.8064,19.9539,1.27166,20,9
3.44283,4.97579,-1.17615,23,2
17.0964,24.6996,2.62809,15,10
3.86055,5.57535,-1.07408,22,3
21.1919,30.5936,4.56961,14,11
4.38689,6.33075,-0.945706,25,4
22.4459,32.3798,6.24017,30,12
5.04318,7.27513,-0.774466,19,5
22.966,33.1178,7.83385,16,13
5.98473,8.62696,-0.55026,38,6
22.9944,33.1339,9.31117,14,14
7.35667,10.5967,-0.225171,100,7
20.5839,29.6384,9.66896,17,15
0.275979,0.396344,-0.12941,15,0
9.65811,13.8652,0.294946,35,8
0.325325,0.466863,-0.131371,14,1
13.8212,19.8269,1.26663,18,9
3.4613,4.96535,-1.17653,23,2
17.0275,24.4175,2.60439,30,10
3.87886,5.56021,-1.07377,18,3
4.39532,6.29587,-0.942781,18,4
22.5916,32.3482,6.24924,24,12
5.05713,7.24115,-0.772723,17,5
23.1299,33.1066,7.85026,33,13
5.99879,8.5831,-0.548795,38,6
22.6231,32.3571,9.11502,13,14
7.3707,10.5382,-0.224473,100,7
23.0285,32.9126,10.7632,22,15
0.303988,0.433335,-0.141833,14,0
9.68233,13.797,0.294213,35,8
0.333671,0.475294,-0.134071,14,1
13.7549,19.593,1.2546,18,9
3.46394,4.93235,-1.17157,23,2
17.194,24.4737,2.61676,31,10
3.89143,5.53694,-1.07189,21,3
22.3024,31.7213,4.76119,15,11
4.40928,6.26912,-0.941075,20,4
22.7749,32.3814,6.27021,6,12
5.08238,7.22345,-0.772723,16,5
24.3086,34.5364,8.20937,8,13
6.01951,8.54904,-0.547957,38,6
22.8649,32.4612,9.16676,13,14
7.37106,10.4646,-0.223426,100,7
23.172,32.885,10.7793,11,15
0.294349,0.416494,-0.136656,14,0
9.68995,13.711,0.293061,34,8
0.344245,0.486915,-0.13767,13,1
13.7159,19.3932,1.24486,20,9
3.47661,4.91382,-1.17004,23,2
17.117,24.1842,2.59219,37,10
3.91091,5.52562,-1.0722,26,3
22.8846,32.3212,4.86259,15,11
4.4289,6.25285,-0.940831,17,4
23.4851,33.1447,6.43384,13,12
5.09143,7.18291,-0.770282,16,5
24.4287,34.4636,8.21127,17,13
6.03859,8.516,-0.54712,38,6
22.6849,31.9799,9.05203,13,14
7.39365,10.4193,-0.223007,100,7
23.3101,32.837,10.7902,22,15
0.336055,0.472177,-0.155291,12,0
9.67164,13.5842,0.291071,30,8
0.339159,0.476187,-0.134971,14,1
13.7117,19.2444,1.23837,20,9
3.48832,4.89587,-1.16851,26,2
17.159,24.0738,2.58643,15,10
3.91526,5.49103,-1.06813,22,3
22.972,32.2055,4.85722,15,11
4.4507,6.23735,-0.940831,18,4
24.6003,34.4629,6.70635,15,12
5.10721,7.15213,-0.768888,16,5
24.5066,34.319,8.19715,8,13
6.0497,8.46886,-0.545445,38,6
23.1227,32.3571,9.1816,13,14
7.41021,10.3658,-0.222413,100,7
23.3617,32.6674,10.7612,22,15
0.297249,0.414429,-0.136656,14,0
9.68053,13.4967,0.289919,30,8
0.338547,0.471833,-0.134071,14,1
13.6111,18.9628,1.2233,21,9
3.50739,4.88465,-1.1689,26,2
17.4621,24.3101,2.61868,15,10
3.92499,5.4622,-1.06532,18,3
23.1259,32.1832,4.866,31,11
4.46317,6.20888,-0.938882,18,4
23.9201,33.2638,6.48922,13,12
5.12284,7.12132,-0.767493,16,5
26.076,36.2352,8.67761,28,13
6.06904,8.43042,-0.544399,38,6
23.2377,32.2674,9.18025,27,14
7.41947,10.3025,-0.221611,100,7
23.5806,32.7314,10.8093,11,15
0.296432,0.410258,-0.135621,15,0
9.64794,13.3477,0.287476,32,8
0.340274,0.470589,-0.134071,14,1
13.5789,18.7792,1.21451,19,9
3.52212,4.86919,-1.16813,23,2
17.4709,24.144,2.60735,22,10
3.94519,5.45007,-1.06563,20,3
23.3951,32.3072,4.89769,16,11
4.47426,6.1764,-0.936444,16,4
24.0221,33.1609,6.48546,13,12
5.14065,7.09371,-0.766448,16,5
26.2311,36.1837,8.68715,9,13
6.08553,8.3914,-0.543247,38,6
24.1021,33.2224,9.47584,14,14
7.42133,10.2296,-0.220598,93,7
23.9058,32.9397,10.9056,11,15
0.297862,0.40922,-0.135621,15,0
9.65684,13.2671,0.286429,30,8
0.353304,0.485212,-0.13857,13,1
13.555,18.609,1.20655,21,9
3.51944,4.8299,-1.16165,23,2
19.9129,27.3175,2.95754,27,10
3.96441,5.43855,-1.06594,25,3
23.3782,32.0594,4.87185,15,11
4.49237,6.15833,-0.935957,17,4
24.1412,33.0816,6.4864,13,12
5.15364,7.05963,-0.764704,16,5
26.3209,36.0553,8.67723,38,13
6.10272,8.35666,-0.542305,38,6
24.0523,32.9236,9.4133,14,14
7.43576,10.1746,-0.21997,100,7
0.285513,0.389533,-0.12941,15,0
9.64634,13.1559,0.284753,30,8
0.35269,0.480833,-0.13767,13,1
13.5646,18.4931,1.20195,19,9
3.53544,4.8182,-1.16165,23,2
17.3696,23.6632,2.56813,14,10
3.97167,5.40876,-1.06282,20,3
24.0822,32.784,4.99469,16,11
4.50091,6.12501,-0.933276,18,4
24.3572,33.1462,6.51487,14,12
5.15695,7.01521,-0.761741,17,5
26.4954,36.0296,8.69326,9,13
6.12239,8.32244,-0.541468,38,6
24.4905,33.2789,9.53927,14,14
7.44931,10.1225,-0.219377,100,7
28.4358,38.6258,12.8519,17,15
0.302935,0.410292,-0.136656,14,0
9.6424,13.0595,0.283357,32,8
0.36123,0.489066,-0.140369,13,1
13.5899,18.3926,1.19849,19,9
3.5499,4.80267,-1.16088,26,2
19.6281,26.5453,2.88834,71,10
3.98254,5.38603,-1.06094,20,3
24.1483,32.6465,4.98592,16,11
4.50939,6.09409,-0.930838,21,4
26.1652,35.3473,6.9654,8,12
5.18141,6.99717,-0.761741,17,5
27.6394,37.3253,9.02794,20,13
6.12618,8.26999,-0.539374,38,6
28.5804,38.5679,11.0824,19,14
7.46673,10.0723,-0.218853,100,7
0.301989,0.406184,-0.135621,15,0
9.63661,12.9568,0.281856,40,8
0.347812,0.467477,-0.134521,14,1
13.5591,18.224,1.19043,17,9
3.56815,4.79402,-1.16165,23,2
19.7827,26.5696,2.8981,8,10
3.9907,5.35784,-1.05812,17,3
24.2289,32.5174,4.97909,16,11
4.52708,6.07354,-0.930107,18,4
26.2126,35.1669,6.94694,17,12
5.20101,6.97515,-0.761218,16,5
27.9855,37.5181,9.09816,31,13
6.13111,8.21654,-0.537281,42,6
28.5726,38.2773,11.0276,19,14
7.47976,10.0203,-0.21826,100,7
28.0739,37.5955,12.5724,16,15
0.303405,0.405128,-0.135621,15,0
9.62798,12.856,0.280355,29,8
0.349361,0.466321,-0.134521,14,1
13.5639,18.0983,1.1853,19,9
3.58015,4.77525,-1.16012,23,2
20.4707,27.2941,2.98491,18,10
4.00726,5.34299,-1.05781,26,3
24.4367,32.5703,4.99957,16,11
4.54004,6.04897,-0.928644,18,4
26.5143,35.3137,6.99419,17,12
5.22294,6.95377,-0.76087,16,5
29.1014,38.7453,9.4191,11,13
6.15113,8.18658,-0.536653,38,6
28.8352,38.3631,11.0797,19,14
7.48585,9.95573,-0.217422,100,7
28.342,37.6794,12.6335,16,15
0.304817,0.404066,-0.135621,15,0
9.64733,12.7839,0.279553,32,8
0.358112,0.474369,-0.13722,13,1
13.5736,17.9735,1.18039,19,9
3.58378,4.74549,-1.15592,23,2
19.8164,26.2305,2.87614,8,10
4.02324,5.32354,-1.05687,22,3
24.6133,32.5565,5.01127,16,11
4.55261,6.01962,-0.926695,13,4
26.6531,35.2289,6.99669,8,12
5.24358,6.92823,-0.760172,16,5
29.1436,38.5069,9.38704,21,13
6.17748,8.1592,-0.536339,38,6
28.9815,38.2649,11.082,38,14
7.49934,9.89794,-0.216759,100,7
29.2314,38.5668,12.9668,17,15
0.308634,0.406022,-0.136656,14,0
9.59993,12.6291,0.2769,28,8
0.352689,0.463809,-0.134521,14,1
13.5951,17.872,1.17683,17,9
3.59877,4.7292,-1.15516,23,2
20.4253,26.8315,2.95022,36,10
4.03794,5.30248,-1.05562,17,3
24.9914,32.8178,5.06489,17,11
4.57479,6.00527,-0.926938,17,4
27.3243,35.8552,7.13998,18,12
5.25324,6.89086,-0.758081,16,5
28.2417,37.0323,9.05274,10,13
6.19522,8.12063,-0.535292,38,6
29.137,38.1785,11.0878,19,14
7.50837,9.83832,-0.216026,100,7
28.564,37.4142,12.6128,16,15
0.293608,0.383468,-0.12941,15,0
9.60724,12.5431,0.275783,33,8
0.361498,0.471795,-0.13722,13,1
13.6015,17.7515,1.17201,17,9
3.61287,4.71349,-1.15439,23,2
20.0157,26.1038,2.87788,17,10
4.04921,5.27894,-1.05374,18,3
25.0535,32.6504,5.05319,17,11
4.6016,5.99477,-0.927913,20,4
27.2111,35.4494,7.07803,8,12
5.25541,6.84405,-0.754943,16,5
27.9115,36.3356,8.9062,10,13
6.21014,8.08154,-0.534141,38,6
29.0776,37.8263,11.015,19,14
7.51341,9.77401,-0.215188,100,7
28.6355,37.2377,12.5869,16,15
0.309102,0.400798,-0.135621,15,0
9.63901,12.4985,0.275504,33,8
0.367822,0.476765,-0.13902,13,1
13.5524,17.56,1.16249,35,9
3.6257,4.69619,-1.15325,26,2
20.1871,26.1379,2.88939,17,10
4.05462,5.24985,-1.05061,23,3
28.2444,36.5571,5.67229,21,11
4.60932,5.96377,-0.925476,17,4
27.3878,35.4229,7.0918,9,12
5.29512,6.84615,-0.757209,15,5
28.0511,36.2677,8.91231,20,13
6.21491,8.03246,-0.532257,38,6
29.6538,38.3122,11.185,19,14
7.53769,9.73507,-0.214909,100,7
30.625,39.5384,13.4006,18,15
0.312799,0.402822,-0.136656,14,0
9.66173,12.4379,0.27491,30,8
0.345569,0.444703,-0.130022,14,1
13.54,17.418,1.15621,24,9
3.64367,4.68724,-1.15401,21,2
20.4779,26.3335,2.9185,18,10
4.07171,5.23411,-1.0503,20,3
25.2752,32.4791,5.05319,17,11
4.61548,5.92884,-0.922551,17,4
27.4312,35.2243,7.07115,17,12
5.30923,6.81754,-0.755989,15,5
28.2427,36.2532,8.93291,10,13
6.22818,7.99182,-0.531001,38,6
29.4483,37.7735,11.0577,19,14
7.5458,9.67559,-0.214176,100,7
32.5975,41.7831,14.1998,19,15
0.357049,0.456509,-0.155291,12,0
9.67058,12.36,0.273933,28,8
0.356728,0.45577,-0.133621,14,1
13.5601,17.3187,1.15275,18,9
3.64669,4.65749,-1.14982,23,2
20.5807,26.2759,2.92007,36,10
4.08995,5.21986,-1.0503,17,3
30.9922,39.54,6.16854,25,11
4.62267,5.89551,-0.91987,18,4
5.32192,6.78486,-0.75442,15,5
28.5678,36.4077,8.9955,10,13
6.24864,7.9606,-0.530373,38,6
29.5848,37.6766,11.0595,19,14
7.57089,9.63818,-0.213932,100,7
37.7277,48.0123,16.3615,28,15
0.298867,0.379383,-0.12941,15,0
9.67282,12.2743,0.272781,30,8
0.360729,0.457583,-0.134521,14,1
13.5549,17.1882,1.1472,21,9
3.66536,4.64782,-1.15058,21,2
20.4255,25.8911,2.8852,26,10
4.10203,5.1978,-1.04874,18,3
31.1645,39.4752,6.17536,25,11
4.64322,5.87934,-0.91987,16,4
34.6589,43.8701,8.85513,14,12
5.32952,6.74592,-0.752154,15,5
28.6485,36.2492,8.981,10,13
6.26276,7.92151,-0.529221,38,6
30.1464,38.1173,11.2197,19,14
7.58091,9.58189,-0.213268,100,7
0.317,0.399525,-0.136656,14,0
9.67831,12.1935,0.271734,33,8
0.369595,0.465478,-0.13722,13,1
13.5465,17.0548,1.14145,18,9
3.68645,4.64114,-1.1521,19,2
20.2679,25.5076,2.85034,35,10
4.11031,5.17108,-1.04623,20,3
31.391,39.4781,6.19291,25,11
4.66125,5.85999,-0.919382,16,4
5.33814,6.70857,-0.750062,16,5
29.1233,36.5868,9.08976,10,13
6.26798,7.87147,-0.527337,38,6
30.1008,37.7878,11.1535,19,14
7.60434,9.54286,-0.212989,100,7
36.9469,46.3489,15.8822,25,15
0.330453,0.413507,-0.141833,14,0
9.67461,12.1018,0.270442,31,8
0.366349,0.458098,-0.135421,13,1
13.5473,16.9341,1.13653,25,9
3.69772,4.62212,-1.15058,19,2
20.4601,25.5659,2.86481,35,10
4.12587,5.15362,-1.04561,23,3
4.67298,5.83284,-0.917676,16,4
34.7815,43.3989,8.80883,14,12
5.36519,6.69207,-0.750411,15,5
30.108,37.554,9.35613,21,13
6.26043,7.80592,-0.524406,42,6
30.1521,37.5821,11.1238,19,14
7.62384,9.4991,-0.212605,100,7
37.2004,46.3342,15.9215,25,15
0.363467,0.451416,-0.155291,12,0
9.69423,12.04,0.269814,28,8
0.365502,0.453781,-0.134521,14,1
13.5049,16.7607,1.12805,18,9
3.7171,4.61159,-1.15134,19,2
20.58,25.5233,2.86847,26,10
4.12985,5.12001,-1.04185,23,3
31.2296,38.7172,6.1076,24,11
4.6796,5.7995,-0.914995,16,4
34.9427,43.2895,8.81133,14,12
5.37475,6.65625,-0.748493,16,5
29.673,36.7348,9.17906,10,13
6.29277,7.78758,-0.52472,38,6
31.0418,38.4019,11.4001,20,14
7.63935,9.45067,-0.212117,100,7
37.2647,46.0839,15.8801,25,15
0.3042,0.375121,-0.12941,15,0
9.71813,11.9795,0.269256,31,8
0.379442,0.46757,-0.13902,13,1
13.4865,16.6189,1.12166,19,9
3.71709,4.57877,-1.14638,21,2
20.5019,25.2456,2.84529,17,10
4.15392,5.11323,-1.04342,20,3
4.69457,5.7746,-0.913776,17,4
34.9865,43.0355,8.78442,13,12
5.39418,6.63281,-0.747971,16,5
30.962,38.058,9.53663,22,13
6.32369,7.77022,-0.525034,38,6
31.2089,38.3341,11.4122,20,14
7.63315,9.37587,-0.211035,100,7
0.322616,0.395003,-0.136656,14,0
9.72112,11.9023,0.268243,33,8
0.368661,0.451218,-0.134521,14,1
13.4787,16.4913,1.11622,16,9
3.73429,4.56729,-1.14676,21,2
20.441,24.9919,2.82472,17,10
4.17461,5.10401,-1.04436,21,3
30.8556,37.7116,5.98281,23,11
4.71243,5.75747,-0.913533,16,4
35.0564,42.8153,8.7644,13,12
5.40594,6.60006,-0.746402,15,5
31.1079,37.9794,9.54274,22,13
6.34942,7.74921,-0.525034,38,6
31.2568,38.1339,11.3834,40,14
7.64809,9.32752,-0.210546,100,7
0.321471,0.390947,-0.135621,15,0
9.70545,11.7988,0.266673,31,8
0.382615,0.464976,-0.13902,13,1
13.4245,16.3084,1.10701,16,9
3.74442,4.54882,-1.14524,21,2
20.4098,24.7855,2.80903,17,10
4.18235,5.07721,-1.04185,21,3
30.9012,37.4995,5.96624,23,11
4.72998,5.73792,-0.913045,16,4
35.3464,42.8634,8.79944,14,12
5.41626,6.56578,-0.744659,15,5
31.2965,37.9387,9.55991,11,13
6.35737,7.70389,-0.523464,38,6
31.3723,38.0036,11.3771,20,14
7.63985,9.25142,-0.209429,100,7
9.71723,11.7294,0.26587,33,8
0.379262,0.457636,-0.13722,13,1
13.4061,16.1707,1.10083,16,9
3.76608,4.54111,-1.14676,21,2
20.2677,24.4299,2.77713,25,10
4.19589,5.05577,-1.0406,20,3
30.966,37.3119,5.95356,23,11
4.74364,5.71374,-0.911826,20,4
35.5311,42.7823,8.8082,14,12
5.43151,6.53764,-0.743613,15,5
39.5844,47.6289,12.0381,22,13
6.37918,7.67285,-0.522941,38,6
7.67466,9.22777,-0.209499,100,7
0.37129,0.445004,-0.155291,12,0
9.75887,11.6922,0.265835,36,8
0.363451,0.435301,-0.130922,14,1
13.3575,15.9981,1.09225,16,9
3.77436,4.51889,-1.14447,21,2
20.2162,24.1954,2.75848,25,10
4.21097,5.03806,-1.03998,18,3
30.1908,36.1078,5.77904,21,11
4.74162,5.66891,-0.907439,22,4
35.9717,43.0065,8.88016,14,12
5.44407,6.50642,-0.742218,15,5
6.39695,7.63982,-0.522208,38,6
31.6997,37.8453,11.3974,20,14
7.69398,9.1856,-0.20915,100,7
0.372841,0.443705,-0.155291,12,0
9.76414,11.62,0.264928,40,8
0.387464,0.460944,-0.13902,13,1
13.3362,15.8597,1.08597,16,9
3.78253,4.49667,-1.14218,23,2
20.153,23.9494,2.73843,24,10
4.2302,5.02709,-1.0406,21,3
32.5833,38.7077,6.21241,26,11
4.75784,5.65011,-0.906952,18,4
36.338,43.1375,8.93335,14,12
5.46033,6.47976,-0.741347,16,5
6.40938,7.60329,-0.521161,38,6
31.8402,37.7579,11.4028,20,14
7.69505,9.122,-0.208312,100,7
9.76201,11.5354,0.263776,31,8
0.373961,0.441741,-0.133621,14,1
13.3024,15.7079,1.07875,17,9
3.79361,4.47961,-1.14104,23,2
20.1653,23.8034,2.72937,24,10
4.24645,5.01079,-1.04029,22,3
33.5141,39.5325,6.36353,29,11
4.77753,5.63347,-0.906952,18,4
5.47518,6.45154,-0.740301,16,5
6.42036,7.5626,-0.519905,38,6
7.72814,9.09661,-0.208347,100,7
0.375929,0.441091,-0.155291,12,0
9.76331,11.4556,0.262729,30,8
0.380558,0.446364,-0.135421,13,1
13.2975,15.5914,1.07393,22,9
3.81128,4.46717,-1.14142,23,2
20.1606,23.6217,2.71699,16,10
4.24683,4.97416,-1.03591,18,3
32.2985,37.8301,6.1076,24,11
4.79845,5.61827,-0.907195,18,4
38.871,45.496,9.47774,15,12
5.48343,6.41573,-0.738383,15,5
6.43765,7.52688,-0.519068,38,6
7.73515,9.04071,-0.207684,100,7
0.344753,0.401663,-0.141833,14,0
9.75833,11.3652,0.261472,33,8
0.372034,0.43314,-0.131821,14,1
13.27,15.4441,1.06713,15,9
3.83069,4.45831,-1.14256,21,2
20.1157,23.4031,2.69991,16,10
4.26417,4.9593,-1.03591,22,3
4.80477,5.58409,-0.904514,21,4
39.0014,45.3113,9.46898,15,12
5.50839,6.39957,-0.738732,15,5
39.8716,46.3059,11.8779,21,13
6.44173,7.47863,-0.517289,38,6
7.74081,8.98049,-0.206951,100,7
0.330993,0.382918,-0.135621,15,0
9.77833,11.3083,0.260948,31,8
0.373543,0.431839,-0.131821,14,1
13.2166,15.2739,1.05855,18,9
3.84366,4.44194,-1.1418,21,2
20.0968,23.2168,2.68649,32,10
4.27886,4.9414,-1.03528,20,3
31.3935,36.2416,5.88726,22,11
4.81514,5.55679,-0.902808,21,4
5.51895,6.36676,-0.737163,16,5
6.4534,7.43951,-0.516137,38,6
7.74721,8.92472,-0.206287,100,7
0.317106,0.364276,-0.12941,15,0
9.80067,11.2545,0.260495,37,8
0.375048,0.430532,-0.131821,14,1
13.2292,15.1863,1.05551,20,9
3.84753,4.41517,-1.13837,21,2
20.0377,22.9858,2.66784,31,10
4.29219,4.92197,-1.03434,17,3
32.6394,37.4153,6.09639,24,11
4.83059,5.53546,-0.902077,21,4
5.53721,6.34295,-0.73664,15,5
6.47013,7.40641,-0.515405,38,6
7.75966,8.87941,-0.205834,100,7
0.34894,0.39803,-0.141833,14,0
9.81553,11.1964,0.259901,30,8
0.389323,0.443938,-0.13632,13,1
13.2373,15.089,1.05195,20,9
3.85904,4.39729,-1.13722,26,2
19.9469,22.7211,2.64518,31,10
4.30979,4.90919,-1.03466,18,3
32.9729,37.5455,6.13539,24,11
4.8463,5.51642,-0.901589,21,4
40.8221,46.4504,9.79436,17,12
5.53695,6.29814,-0.733677,15,5
6.4907,7.38041,-0.515091,38,6
7.77078,8.82975,-0.20531,100,7
0.383494,0.43453,-0.155291,12,0
9.82808,11.1321,0.259203,31,8
0.39087,0.442576,-0.13632,13,1
13.2265,14.9761,1.04714,16,9
3.8671,4.37711,-1.13531,21,2
19.9074,22.5249,2.63001,31,10
4.31774,4.88376,-1.03247,23,3
33.3221,37.677,6.17585,25,11
4.86684,5.50096,-0.901833,18,4
41.1565,46.519,9.83754,17,12
5.53932,6.25886,-0.731237,15,5
6.51113,7.35173,-0.514672,38,6
7.78941,8.79196,-0.205031,100,7
0.385009,0.433189,-0.155291,12,0
9.84502,11.077,0.25868,37,8
0.387156,0.435452,-0.134521,14,1
13.2375,14.8836,1.04389,14,9
3.88366,4.36505,-1.1357,23,2
19.8997,22.3586,2.61868,31,10
4.31684,4.85023,-1.0284,18,3
4.87449,5.47293,-0.899883,13,4
5.56113,6.23949,-0.731237,15,5
6.51022,7.30177,-0.512683,35,6
7.83337,8.77963,-0.20538,100,7
0.353089,0.394355,-0.141833,14,0
9.87948,11.0302,0.25847,33,8
0.388825,0.433962,-0.134521,14,1
13.204,14.7368,1.03698,22,9
3.89832,4.34933,-1.13531,23,2
19.8978,22.192,2.6077,30,10
4.34731,4.84685,-1.03122,23,3
32.9412,36.7136,6.05642,23,11
4.88884,5.44679,-0.898665,23,4
5.58663,6.22203,-0.731585,15,5
6.52486,7.26186,-0.511636,35,6
7.84277,8.72558,-0.204787,100,7
0.354464,0.39312,-0.141833,14,0
9.8785,10.9558,0.257493,33,8
0.387652,0.429776,-0.133621,14,1
13.2085,14.6387,1.03332,18,9
3.9069,4.32841,-1.13341,23,2
19.8509,21.9849,2.59149,30,10
4.35673,4.82508,-1.02965,20,3
4.90022,5.42318,-0.897446,13,4
5.60698,6.20101,-0.731411,15,5
6.54756,7.23871,-0.511532,38,6
7.83292,8.65368,-0.203739,100,7
9.87635,10.8768,0.256446,33,8
0.38915,0.42842,-0.133621,14,1
13.2166,14.5452,1.02997,22,9
3.92123,4.31543,-1.13341,23,2
19.708,21.6816,2.56342,29,10
4.37488,4.81131,-1.02996,23,3
4.91779,5.40458,-0.897202,16,4
5.60981,6.16078,-0.728971,13,5
6.57413,7.21728,-0.511636,35,6
7.86713,8.63071,-0.203844,100,7
9.87783,10.8024,0.255503,33,8
0.406426,0.444314,-0.13902,13,1
13.2079,14.4342,1.02537,18,9
3.93437,4.29813,-1.13264,23,2
19.6918,21.5049,2.55105,29,10
4.3738,4.77485,-1.02558,17,3
4.94065,5.39177,-0.897933,17,4
5.62993,6.13969,-0.728796,15,5
6.58704,7.17843,-0.51059,35,6
7.88097,8.58553,-0.203425,100,7
0.345475,0.375175,-0.136656,14,0
9.89974,10.7471,0.255049,34,8
0.386923,0.419892,-0.131821,14,1
13.2068,14.3322,1.02139,18,9
3.94935,4.28437,-1.13264,26,2
19.6573,21.3174,2.53693,29,10
4.39179,4.761,-1.0259,22,3
4.95136,5.36574,-0.896471,16,4
5.64727,6.11561,-0.728273,15,5
6.59443,7.13632,-0.509229,38,6
7.90004,8.54621,-0.203146,100,7
0.346717,0.374027,-0.136656,14,0
9.90677,10.6834,0.254316,37,8
0.383012,0.412892,-0.130022,14,1
13.1972,14.2268,1.01699,23,9
3.96087,4.26837,-1.13188,26,2
19.591,21.1046,2.51932,29,10
4.40352,4.74207,-1.02496,23,3
4.95291,5.33184,-0.893546,14,4
5.65939,6.08809,-0.727228,13,5
6.60038,7.0954,-0.507868,38,6
7.90518,8.49508,-0.202553,100,7
0.347955,0.372875,-0.136656,14,0
9.92714,10.6344,0.253933,28,8
0.397679,0.425863,-0.134521,14,1
13.2114,14.1427,1.01427,18,9
3.96368,4.24161,-1.12844,26,2
19.5344,20.9041,2.50311,28,10
4.40303,4.71012,-1.0212,25,3
32.6409,34.9052,5.86777,22,11
4.96878,5.31161,-0.893059,15,4
5.66562,6.0523,-0.72531,21,5
6.61418,7.06066,-0.507031,42,6
7.9129,8.44409,-0.201994,100,7
0.346673,0.368783,-0.135621,15,0
9.92221,10.5513,0.252816,30,8
0.399238,0.424402,-0.134521,14,1
13.196,14.0229,1.00914,22,9
3.97785,4.22563,-1.12806,21,2
19.4989,20.7134,2.48882,28,10
4.42568,4.69971,-1.02246,22,3
32.5453,34.5484,5.82779,22,11
4.99366,5.29915,-0.894034,18,4
5.6782,6.02135,-0.72409,15,5
6.6359,7.03201,-0.506717,38,6
7.93282,8.4034,-0.201715,100,7
0.332083,0.350677,-0.12941,15,0
9.92505,10.4771,0.251908,30,8
0.392748,0.414449,-0.131821,14,1
13.1938,13.9179,1.00506,18,9
3.99393,4.21314,-1.12844,21,2
19.3882,20.4452,2.46511,28,10
4.43608,4.67629,-1.02089,21,3
32.6171,34.3713,5.81804,22,11
5.01578,5.28369,-0.894521,16,4
5.68958,5.99138,-0.72287,15,5
6.64665,6.99433,-0.50567,38,6
7.95943,8.36992,-0.20161,100,7
0.399966,0.419419,-0.155291,12,0
9.94224,10.4222,0.251419,30,8
0.394192,0.413076,-0.131821,14,1
13.1981,13.8255,1.00171,20,9
4.00997,4.20059,-1.12883,23,2
19.2737,20.1829,2.44158,27,10
4.44146,4.64935,-1.01839,21,3
32.2431,33.7405,5.7303,21,11
5.02048,5.2518,-0.892084,14,4
5.72698,5.98876,-0.724961,13,5
6.65031,6.94944,-0.5041,38,6
7.97338,8.3262,-0.201226,100,7
0.401427,0.41802,-0.155291,12,0
9.95502,10.3629,0.250826,35,8
0.392931,0.408887,-0.130922,14,1
13.2048,13.7362,0.99857,20,9
4.02461,4.18657,-1.12883,23,2
19.2598,20.0279,2.43095,27,10
4.45903,4.63524,-1.0187,22,3
32.2396,33.5019,5.70885,21,11
5.02501,5.21994,-0.889646,13,4
5.752,5.97304,-0.725484,13,5
6.64958,6.90029,-0.502216,38,6
7.98435,8.2796,-0.200772,100,7
0.335736,0.34718,-0.12941,15,0
9.96471,10.3008,0.250163,35,8
0.410618,0.424318,-0.13632,13,1
13.2152,13.6513,0.995744,21,9
4.02691,4.1598,-1.12539,23,2
19.2021,19.8288,2.41491,27,10
4.47518,4.61965,-1.0187,22,3
32.2293,33.258,5.68642,21,11
5.03768,5.19667,-0.888671,14,4
5.75894,5.93862,-0.723741,13,5
6.68476,6.88851,-0.503053,38,6
8.00067,8.23877,-0.200458,100,7
0.35312,0.362615,-0.135621,15,0
10.0034,10.2688,0.250233,31,8
0.412097,0.422882,-0.13632,13,1
13.2265,13.5679,0.993023,21,9
4.03866,4.14291,-1.12463,23,2
19.1613,19.649,2.40114,33,10
4.48163,4.5941,-1.01651,27,3
32.0956,32.8896,5.64255,20,11
5.05856,5.18189,-0.889159,14,4
5.76989,5.9085,-0.722521,13,5
6.70318,6.85941,-0.502635,38,6
8.0154,8.1965,-0.200109,100,7
0.405783,0.413793,-0.155291,12,0
9.99716,10.191,0.249185,28,8
0.413571,0.421441,-0.13632,13,1
13.2094,13.4561,0.988208,25,9
4.05585,4.13159,-1.12539,21,2
19.1166,19.4669,2.38702,33,10
4.49625,4.57702,-1.0162,22,3
31.9709,32.5338,5.60063,20,11
5.06966,5.15713,-0.88794,14,4
5.77931,5.87696,-0.721127,13,5
6.73128,6.84025,-0.502949,38,6
8.02572,8.14994,-0.199656,100,7
0.358358,0.36289,-0.136656,14,0
10.0285,10.1517,0.249081,28,8
0.406821,0.411678,-0.133621,14,1
13.2217,13.3795,0.9858,23,9
4.073,4.1202,-1.12615,21,2
19.1004,19.315,2.37656,26,10
4.5122,4.56129,-1.0162,26,3
31.7659,32.1003,5.54506,20,11
5.08813,5.1417,-0.888184,15,4
5.79839,5.85533,-0.720952,13,5
6.73122,6.79259,-0.501169,35,6
8.02455,8.09488,-0.198957,100,7
0.359559,0.361699,-0.136656,14,0
10.0452,10.1014,0.248662,27,8
0.421927,0.424142,-0.13812,13,1
13.211,13.2804,0.981718,21,9
4.08526,4.10528,-1.12577,21,2
19.0913,19.1781,2.3675,26,10
4.52312,4.54211,-1.01526,28,3
31.7321,31.8542,5.52068,20,11
5.09254,5.11214,-0.88599,15,4
5.81636,5.83466,-0.720778,13,5
6.74807,6.76458,-0.50075,35,6
8.02168,8.0385,-0.198224,100,7
0.341625,0.341387,-0.12941,15,0
10.0517,10.0412,0.247999,30,8
0.401268,0.400709,-0.130922,14,1
13.1838,13.1608,0.976275,21,9
4.08428,4.07574,-1.12158,21,2
19.0998,19.0598,2.3607,32,10
4.53396,4.5229,-1.01432,25,3
31.5705,31.4824,5.47437,19,11
5.10473,5.08872,-0.885015,18,4
5.82399,5.80167,-0.719209,13,5
6.77164,6.74098,-0.50075,38,6
8.02843,7.9893,-0.197701,100,7
0.342874,0.340133,-0.12941,15,0
10.0572,9.97331,0.247231,30,8
0.411038,0.407467,-0.133621,14,1
13.2106,13.0913,0.974705,23,9
4.0964,4.05798,-1.12081,19,2
19.0633,18.8845,2.34763,31,10
4.54911,4.50486,-1.01401,25,3
31.4204,31.104,5.42855,19,11
5.12194,5.06858,-0.884771,19,4
5.83247,5.76768,-0.71764,13,5
6.7963,6.71611,-0.50075,38,6
8.05197,7.95419,-0.197561,100,7
0.412943,0.406649,-0.155291,12,0
10.0709,9.91394,0.246672,30,8
0.418085,0.411425,-0.135421,13,1
13.2221,13.0115,0.972193,19,9
4.10914,4.04227,-1.12043,21,2
18.9918,18.6762,2.33037,31,10
4.55572,4.47846,-1.01182,25,3
31.2567,30.7159,5.38078,19,11
5.13394,5.04511,-0.883797,16,4
5.84119,5.73612,-0.716246,13,5
6.814,6.68676,-0.500332,35,6
8.06969,7.91624,-0.197317,100,7
0.364574,0.356644,-0.136656,14,0
10.0737,9.85113,0.245939,28,8
0.419447,0.410036,-0.135421,13,1
13.2252,12.9285,0.969262,23,9
4.12393,4.03,-1.12081,19,2
18.9596,18.5213,2.31887,31,10
4.57338,4.46609,-1.01244,22,3
5.15206,5.02944,-0.88404,22,4
5.85162,5.70837,-0.7152,13,5
6.81897,6.64739,-0.499076,35,6
8.0959,7.88943,-0.197317,100,7
0.379609,0.368896,-0.141833,14,0
10.0848,9.79676,0.245416,30,8
0.426396,0.414074,-0.13722,13,1
13.2143,12.828,0.96518,24,9
4.13445,4.01357,-1.12005,19,2
18.9365,18.3764,2.30858,31,10
4.58674,4.44952,-1.01213,21,3
31.1548,30.2122,5.32862,18,11
5.15248,4.99485,-0.881115,22,4
5.8791,5.69725,-0.716246,13,5
6.83811,6.62196,-0.498866,38,6
8.11045,7.84861,-0.197003,100,7
0.364213,0.351471,-0.135621,15,0
10.1161,9.75872,0.245346,30,8
0.416617,0.401761,-0.133621,14,1
13.2116,12.736,0.961726,20,9
4.1343,3.98548,-1.11623,19,2
18.9403,18.2521,2.30126,30,10
4.5994,4.43074,-1.01151,21,3
5.16846,4.97545,-0.880872,19,4
5.89178,5.66978,-0.715374,15,5
6.85831,6.59528,-0.498657,35,6
8.13203,7.81471,-0.196863,100,7
0.41844,0.400989,-0.155291,12,0
10.1313,9.70538,0.244892,31,8
0.423647,0.405695,-0.135421,13,1
13.23,12.665,0.959841,22,9
4.14393,3.96695,-1.11509,19,2
18.9103,18.0964,2.28993,30,10
4.61056,4.41057,-1.01057,23,3
30.9001,29.5494,5.24964,18,11
5.17718,4.94915,-0.879409,19,4
5.89713,5.63542,-0.713631,15,5
6.88128,6.57131,-0.498657,35,6
8.1419,7.76971,-0.196444,100,7
0.419837,0.399526,-0.155291,12,0
10.1332,9.63963,0.244124,35,8
0.433533,0.412271,-0.13812,13,1
13.251,12.5967,0.958167,23,9
4.16202,3.95652,-1.11623,19,2
18.8896,17.9507,2.27982,36,10
4.61447,4.38356,-1.00806,22,3
30.8217,29.2691,5.21893,18,11
5.2045,4.94062,-0.881115,20,4
5.91677,5.6148,-0.713631,15,5
6.88534,6.52938,-0.497296,38,6
8.18059,7.75224,-0.196724,100,7
0.421368,0.397911,-0.155291,12,0
10.0916,9.52652,0.242239,33,8
0.423775,0.399904,-0.134521,14,1
13.2753,12.5275,0.956597,24,9
4.17576,3.93917,-1.11585,19,2
18.8743,17.7987,2.26971,36,10
4.62552,4.36039,-1.00681,23,3
30.7893,29.0144,5.19456,18,11
5.21391,4.91334,-0.879653,19,4
5.93973,5.59341,-0.713806,15,5
6.89436,6.48784,-0.496145,38,6
8.2206,7.73317,-0.197003,100,7
0.352238,0.330427,-0.12941,15,0
10.1028,9.47385,0.241751,34,8
0.413725,0.387834,-0.130922,14,1
13.2599,12.4301,0.952514,23,9
4.17877,3.9159,-1.11318,19,2
18.8693,17.6761,2.26204,36,10
4.63995,4.34503,-1.00681,25,3
30.639,28.6815,5.15312,17,11
5.21713,4.88381,-0.877459,16,4
5.95679,5.57232,-0.713631,13,5
6.90416,6.45403,-0.495308,38,6
8.23889,7.69904,-0.196828,100,7
0.353332,0.329257,-0.12941,15,0
10.1224,9.42939,0.241471,34,8
0.440679,0.410365,-0.13902,13,1
13.2564,12.3402,0.949165,23,9
4.18311,3.894,-1.11089,19,2
18.8228,17.5157,2.24949,30,10
4.65,4.32558,-1.00587,21,3
30.638,28.4906,5.13704,17,11
5.22688,4.85881,-0.876241,16,4
5.9621,5.54033,-0.712062,15,5
6.9226,6.42838,-0.495098,38,6
8.25839,7.66344,-0.196654,100,7
0.371494,0.343766,-0.135621,15,0
10.1479,9.38721,0.241297,33,8
0.42494,0.392948,-0.133621,14,1
13.276,12.2722,0.94749,22,9
4.19956,3.88204,-1.11165,19,2
18.7726,17.3471,2.23624,35,10
4.66652,4.31067,-1.00619,22,3
30.4981,28.1626,5.09706,17,11
5.24818,4.84458,-0.876972,19,4
5.97262,5.51138,-0.711016,15,5
6.90683,6.36897,-0.492377,38,6
8.27332,7.62372,-0.196374,100,7
0.372691,0.342468,-0.135621,15,0
10.1615,9.33415,0.240843,30,8
0.417696,0.383554,-0.130922,14,1
13.2908,12.2001,0.945501,22,9
4.22755,3.88063,-1.11547,19,2
18.8066,17.2572,2.2331,29,10
4.65825,4.27298,-1.00118,22,3
30.3768,27.8547,5.0605,17,11
5.26359,4.82489,-0.876728,18,4
5.99476,5.49318,-0.711365,15,5
6.9349,6.35022,-0.492795,38,6
8.29988,7.59479,-0.196374,100,7
10.1896,9.29458,0.240738,30,8
0.407513,0.371589,-0.127322,15,1
13.3155,12.1375,0.944245,21,9
4.23236,3.85791,-1.11318,16,2
18.7901,17.1217,2.22404,29,10
4.67459,4.25803,-1.00149,26,3
30.3711,27.655,5.04344,17,11
5.2716,4.79847,-0.875266,22,4
6.008,5.46686,-0.710668,15,5
6.95555,6.32463,-0.492691,38,6
8.31598,7.55636,-0.19613,100,7
0.357894,0.324291,-0.12941,15,0
10.219,9.25627,0.240669,30,8
0.429031,0.388476,-0.133621,14,1
13.2986,12.0373,0.940059,20,9
4.22834,3.8273,-1.1086,19,2
18.7996,17.0106,2.21811,28,10
4.68943,4.24169,-1.00149,26,3
30.2966,27.3943,5.01517,16,11
5.27506,4.76806,-0.873072,28,4
6.02705,5.44586,-0.710668,15,5
6.97758,6.30031,-0.492691,38,6
8.31707,7.50451,-0.195537,100,7
10.2498,9.2192,0.240634,37,8
0.433283,0.389582,-0.134521,14,1
13.2722,11.9294,0.935244,23,9
4.25043,3.8204,-1.11089,19,2
18.7847,16.8783,2.2094,28,10
4.70861,4.22925,-1.00243,25,3
30.0553,26.986,4.9596,16,11
5.27838,4.73768,-0.870878,22,4
6.03564,5.41547,-0.709448,13,5
6.9921,6.26925,-0.492167,38,6
8.32386,7.45809,-0.195083,100,7
0.432179,0.386142,-0.155291,12,0
10.2774,9.17937,0.240529,24,8
0.443362,0.395855,-0.13722,13,1
13.2273,11.8059,0.929173,22,9
4.26081,3.80292,-1.11013,19,2
18.7558,16.7343,2.19911,23,10
4.72482,4.2141,-1.00275,25,3
30.096,26.8334,4.95082,16,11
5.29933,4.72319,-0.87161,22,4
6.03219,5.37449,-0.706833,15,5
7.02289,6.25277,-0.492795,38,6
8.33191,7.41303,-0.194664,100,7
0.381502,0.338475,-0.136656,14,0
10.3034,9.13813,0.240389,22,8
0.433076,0.383962,-0.133621,14,1
13.2595,11.7517,0.928545,22,9
4.27553,3.78933,-1.11051,19,2
18.7798,16.6384,2.1951,22,10
4.73211,4.19104,-1.00118,22,3
30.1894,26.7282,4.95082,16,11
5.31876,4.70729,-0.872097,19,4
6.03898,5.34284,-0.705439,15,5
7.0357,6.22028,-0.492167,38,6
8.33525,7.36405,-0.194141,100,7
0.362387,0.319263,-0.12941,15,0
10.3142,9.08361,0.239901,27,8
0.419786,0.369571,-0.129122,14,1
13.2855,11.6921,0.927498,23,9
4.29381,3.77752,-1.11165,16,2
18.7495,16.4951,2.18482,22,10
4.73781,4.16667,-0.999304,25,3
30.208,26.5571,4.93863,16,11
5.31428,4.67035,-0.868685,22,4
6.05253,5.31541,-0.704741,15,5
7.04043,6.17865,-0.490911,38,6
8.36241,7.33623,-0.194175,100,7
0.436266,0.381519,-0.155291,12,0
10.3294,9.02995,0.239482,26,8
0.435812,0.380853,-0.133621,14,1
13.3042,11.6223,0.925823,22,9
4.29876,3.75401,-1.10936,19,2
18.7693,16.3908,2.18011,22,10
4.76049,4.15577,-1.00087,20,3
5.33585,4.65476,-0.869416,20,4
6.07798,5.29843,-0.705439,15,5
38.921,33.9171,10.035,13,13
7.05249,6.14362,-0.490179,38,6
8.39075,7.30684,-0.19421,100,7
0.437661,0.379917,-0.155291,12,0
10.3443,8.97631,0.239063,27,8
0.431317,0.374146,-0.131821,14,1
13.313,11.5483,0.923625,21,9
4.30294,3.73126,-1.10707,16,2
18.754,16.2567,2.1714,22,10
4.77868,4.14088,-1.00149,21,3
5.35287,4.63517,-0.869416,16,4
6.08138,5.26414,-0.703695,15,5
34.232,29.6213,8.79935,9,13
7.06785,6.11374,-0.48976,38,6
8.40411,7.26704,-0.193931,100,7
0.438985,0.378387,-0.155291,12,0
10.3528,8.92368,0.238574,30,8
0.441413,0.380346,-0.134521,14,1
13.3547,11.5031,0.92373,22,9
4.31296,3.71366,-1.10631,16,2
18.7095,16.104,2.15972,27,10
4.7849,4.11857,-0.999929,22,3
29.9654,25.7834,4.85381,15,11
5.3637,4.61351,-0.868685,15,4
34.5653,29.7204,7.22008,9,12
6.09065,5.23509,-0.70265,15,5
44.901,38.5937,11.5088,40,13
7.08354,6.08636,-0.489446,38,6
8.41881,7.22854,-0.193687,100,7
0.440237,0.376929,-0.155291,12,0
10.3611,8.86798,0.238051,35,8
0.441257,0.377536,-0.134071,14,1
13.4024,11.4629,0.924253,18,9
4.32376,3.69806,-1.10593,16,2
18.6704,15.9629,2.14909,27,10
4.79323,4.09671,-0.998678,22,3
29.8107,25.4698,4.81433,15,11
5.38581,4.59992,-0.86966,15,4
33.4219,28.535,6.9604,8,12
6.10888,5.2138,-0.70265,15,5
45.0294,38.4316,11.5073,80,13
7.09411,6.05252,-0.488713,38,6
8.42572,7.18354,-0.193268,100,7
0.441616,0.375313,-0.155291,12,0
10.3676,8.81104,0.237492,33,8
0.430691,0.365899,-0.130472,14,1
13.4347,11.4096,0.92373,20,9
4.33878,3.68346,-1.10631,16,2
18.7045,15.8738,2.1463,27,10
4.80219,4.074,-0.997426,22,3
29.7874,25.2705,4.79629,15,11
5.40335,4.58237,-0.869903,16,4
33.5906,28.4769,6.97479,8,12
6.12705,5.19244,-0.70265,15,5
45.1939,38.2866,11.5134,80,13
7.09948,6.01228,-0.487562,39,6
8.45533,7.15796,-0.193373,100,7
0.442923,0.373769,-0.155291,12,0
10.3952,8.76911,0.237388,31,8
0.452886,0.381906,-0.13677,13,1
13.4474,11.3358,0.921741,19,9
4.34561,3.66323,-1.10478,19,2
18.7339,15.7866,2.14333,22,10
4.81487,4.05594,-0.997113,21,3
29.8586,25.1433,4.79288,15,11
5.40644,4.55103,-0.86771,15,4
33.6706,28.3332,6.96978,17,12
6.14209,5.16846,-0.702301,15,5
45.3393,38.1387,11.5165,80,13
7.09902,5.96947,-0.486096,50,6
8.45701,7.10634,-0.192814,100,7
0.370188,0.310184,-0.12941,15,0
10.4288,8.73534,0.237457,30,8
0.445251,0.372817,-0.134071,14,1
13.4593,11.2657,0.919857,17,9
4.34933,3.64048,-1.10249,19,2
18.7461,15.6853,2.13845,21,10
4.82749,4.03784,-0.996801,22,3
29.87,24.9752,4.78069,15,11
5.42229,4.53213,-0.86771,16,4
33.7299,28.1826,6.96165,42,12
6.16315,5.14954,-0.70265,15,5
45.4843,37.9903,11.5195,80,13
7.13821,5.96001,-0.487352,43,6
8.45874,7.05756,-0.192291,100,7
0.445522,0.370668,-0.155291,12,0
10.4439,8.6861,0.237108,38,8
0.452544,0.376244,-0.13587,13,1
13.4602,11.1868,0.91724,22,9
4.35598,3.62026,-1.10097,19,2
18.7731,15.5968,2.13532,21,10
4.83699,4.01718,-0.995862,20,3
29.8807,24.8074,4.7685,15,11
5.43808,4.51318,-0.86771,16,4
33.8554,28.0874,6.96728,8,12
6.17189,5.12036,-0.701604,13,5
45.6317,37.8438,11.5233,80,13
7.1559,5.93251,-0.487143,43,6
8.44636,6.99738,-0.191453,100,7
0.446813,0.369111,-0.155291,12,0
10.4587,8.63686,0.236759,28,8
0.435821,0.359774,-0.130472,14,1
13.4729,11.1181,0.915461,24,9
4.36556,3.60253,-1.1002,21,2
18.7906,15.5008,2.13113,21,10
4.83727,3.98896,-0.993046,22,3
29.8139,24.5767,4.74413,15,11
5.44614,4.48786,-0.866491,18,4
33.9487,27.9653,6.96634,17,12
6.18972,5.09879,-0.701604,15,5
45.7665,37.6868,11.5241,80,13
7.17656,5.9075,-0.487143,39,6
8.45529,6.95515,-0.191104,100,7
0.448099,0.367549,-0.155291,12,0
10.4687,8.58381,0.236306,33,8
0.440088,0.360721,-0.131371,14,1
13.5144,11.0771,0.915775,22,9
4.37659,3.58603,-1.09982,19,2
18.8029,15.401,2.12643,26,10
4.84964,3.9708,-0.992733,20,3
29.6998,24.309,4.71244,15,11
5.46177,4.46882,-0.866491,16,4
34.0351,27.8475,6.96509,17,12
6.21365,5.08219,-0.702301,15,5
45.9024,37.5306,11.5252,60,13
7.19096,5.87735,-0.486724,39,6
8.50154,6.94605,-0.191627,100,7
0.449379,0.365982,-0.155291,12,0
10.4785,8.5339,0.235887,35,8
0.441282,0.35926,-0.131371,14,1
13.5545,11.0312,0.915879,21,9
4.39365,3.57444,-1.10097,19,2
18.7947,15.285,2.11945,26,10
4.86431,3.95594,-0.993046,22,3
29.657,24.1102,4.69295,15,11
5.46116,4.43816,-0.864054,19,4
34.1383,27.7335,6.96634,17,12
6.22362,5.05419,-0.701429,15,5
45.9717,37.3336,11.5115,40,13
7.21196,5.85473,-0.486829,39,6
8.5102,6.90373,-0.191278,22,7
0.45059,0.36449,-0.155291,12,0
10.4849,8.47841,0.235363,33,8
0.427378,0.345467,-0.126872,15,1
13.5646,10.9648,0.9141,22,9
4.39632,3.55245,-1.09868,19,2
18.7942,15.1812,2.1137,36,10
4.87963,3.94018,-0.993359,21,3
29.5773,23.8744,4.66711,15,11
5.47353,4.41658,-0.863566,20,4
34.2116,27.6053,6.96259,25,12
6.23414,5.02852,-0.700732,15,5
7.22924,5.82701,-0.48662,39,6
8.55484,6.89304,-0.191767,100,7
10.4896,8.42481,0.23484,33,8
0.455874,0.366008,-0.134971,14,1
13.5623,10.8849,0.911378,22,9
4.40256,3.53217,-1.09715,18,2
18.8362,15.1068,2.11248,26,10
4.88342,3.91656,-0.991482,25,3
29.4797,23.6346,4.63932,15,11
5.48349,4.39468,-0.862835,21,4
34.3232,27.498,6.96571,34,12
6.23455,4.99303,-0.698815,13,5
7.24541,5.80051,-0.48641,39,6
8.57417,6.85939,-0.191662,100,7
0.453124,0.361336,-0.155291,12,0
10.4985,8.36885,0.234351,37,8
0.46026,0.366764,-0.13587,13,1
13.5709,10.8102,0.909285,25,9
4.41486,3.51678,-1.09715,15,2
18.853,15.0124,2.10847,26,10
4.89001,3.89248,-0.989917,23,3
29.5786,23.5363,4.64127,15,11
5.50578,4.37949,-0.86381,21,4
34.4515,27.3942,6.97135,34,12
6.24345,4.96271,-0.697769,15,5
7.26036,5.76895,-0.485992,39,6
8.60708,6.83413,-0.191837,100,7
0.454445,0.359673,-0.155291,12,0
10.5371,8.33961,0.23456,30,8
0.443199,0.350646,-0.130472,14,1
13.5693,10.7318,0.906668,23,9
4.43234,3.50423,-1.0983,19,2
18.8313,14.8827,2.09993,26,10
4.90425,3.87453,-0.989917,23,3
29.6793,23.4477,4.6442,15,11
5.51324,4.3541,-0.862591,22,4
34.5098,27.2444,6.96384,25,12
6.26074,4.94089,-0.697769,15,5
7.25636,5.72251,-0.484317,39,6
8.62147,6.79662,-0.191627,100,7
0.379748,0.298403,-0.12941,15,0
10.5691,8.30216,0.234595,34,8
0.447546,0.351426,-0.131371,14,1
13.5989,10.6782,0.906145,26,9
4.43992,3.4851,-1.09715,18,2
18.8251,14.7714,2.09348,42,10
4.92085,3.85983,-0.990543,22,3
29.64,23.2408,4.6247,15,11
5.51823,4.32529,-0.860885,28,4
34.6699,27.1749,6.97698,86,12
6.27638,4.91777,-0.697595,15,5
38.3785,30.0602,9.47596,11,13
7.26686,5.68976,-0.483689,39,6
8.63411,6.75786,-0.191383,100,7
0.402111,0.313712,-0.136656,14,0
10.5934,8.26461,0.234525,34,8
0.454856,0.354734,-0.133171,14,1
13.6361,10.6307,0.906145,20,9
4.44586,3.46475,-1.09563,18,2
18.8152,14.6578,2.08668,35,10
4.93051,3.84106,-0.989917,22,3
29.6543,23.0935,4.61495,15,11
5.51844,4.29599,-0.858692,25,4
34.7708,27.0586,6.97823,34,12
6.2825,4.88727,-0.696374,15,5
37.2166,28.9515,9.16532,10,13
7.26834,5.65214,-0.482538,43,6
8.64186,6.7154,-0.191034,100,7
0.38177,0.295812,-0.12941,15,0
10.6175,8.22391,0.234421,31,8
0.474581,0.36746,-0.13857,13,1
13.6494,10.5647,0.904575,27,9
4.44956,3.44398,-1.09372,15,2
18.837,14.5746,2.08372,41,10
4.94388,3.82383,-0.989917,22,3
29.6248,22.9049,4.59789,15,11
5.53812,4.28035,-0.859423,21,4
34.8666,26.9383,6.97854,43,12
6.2869,4.85557,-0.69498,15,5
35.9439,27.7605,8.82797,9,13
7.28961,5.62796,-0.482642,39,6
8.651,6.6742,-0.19072,100,7
10.6255,8.17094,0.233967,34,8
0.457321,0.351549,-0.133171,14,1
13.7036,10.5304,0.905726,23,9
4.46683,3.43123,-1.09486,15,2
18.876,14.4946,2.08215,35,10
4.94533,3.79606,-0.987414,25,3
29.6038,22.724,4.58229,15,11
5.56405,4.26945,-0.861129,23,4
34.9745,26.8272,6.98136,25,12
6.30381,4.83359,-0.69498,15,5
34.724,26.6158,8.50436,9,13
7.30068,5.59392,-0.482014,39,6
8.65678,6.63059,-0.190336,100,7
10.6363,8.11739,0.233548,30,8
0.453958,0.346325,-0.131821,14,1
13.745,10.4861,0.90604,21,9
4.47878,3.41562,-1.09486,18,2
18.9297,14.431,2.0825,25,10
4.95698,3.77758,-0.987102,26,3
29.6142,22.56,4.57108,14,11
5.5686,4.24061,-0.859423,21,4
35.079,26.7134,6.98355,8,12
6.32065,4.81156,-0.69498,15,5
7.30585,5.55751,-0.481072,39,6
8.68306,6.60275,-0.190406,100,7
0.461878,0.350077,-0.155291,12,0
10.6504,8.07241,0.233269,38,8
0.445785,0.337756,-0.129122,14,1
13.7625,10.4236,0.904784,20,9
4.47815,3.39049,-1.09181,18,2
18.9752,14.3612,2.08198,20,10
4.96633,3.75873,-0.986476,25,3
29.6762,22.4521,4.56913,14,11
5.57314,4.21493,-0.85796,22,4
6.3374,4.78947,-0.69498,15,5
7.31946,5.52964,-0.480758,39,6
8.67892,6.55192,-0.189812,100,7
0.463036,0.348543,-0.155291,12,0
10.6722,8.03038,0.233129,27,8
0.462535,0.347913,-0.133621,14,1
13.7748,10.3575,0.903214,19,9
4.47995,3.36854,-1.08952,20,2
18.9606,14.2515,2.07518,25,10
4.98258,3.74375,-0.987102,26,3
29.6592,22.2768,4.5545,14,11
5.59417,4.20022,-0.858935,24,4
6.34369,4.76125,-0.693934,15,5
7.33233,5.49927,-0.480339,39,6
8.69694,6.51799,-0.189708,100,7
10.6905,7.98589,0.23292,30,8
0.476238,0.355624,-0.13722,13,1
13.7949,10.2974,0.902167,20,9
4.49641,3.3564,-1.09066,18,2
18.9607,14.1483,2.06977,30,10
4.99403,3.72515,-0.986789,27,3
29.6222,22.0877,4.53695,14,11
5.60083,4.17474,-0.857717,29,4
6.3411,4.72479,-0.691842,15,5
7.35628,5.47722,-0.480653,39,6
8.71643,6.4852,-0.189638,100,7
10.6974,7.93304,0.232466,30,8
0.45869,0.340033,-0.131821,14,1
13.8131,10.2361,0.901016,21,9
4.50967,3.34186,-1.09105,18,2
18.978,14.0583,2.06629,35,10
5.00065,3.703,-0.985537,26,3
29.7501,22.022,4.54475,14,11
5.60101,4.14453,-0.855523,22,4
6.35517,4.69915,-0.691494,15,5
7.3593,5.43963,-0.479607,43,6
8.7358,6.45236,-0.189568,100,7
10.7218,7.89328,0.232396,26,8
0.466153,0.34305,-0.133621,14,1
13.8327,10.176,0.899969,16,9
4.52031,3.32414,-1.09066,13,2
19.0117,13.9757,2.06437,41,10
5.0126,3.68347,-0.985224,25,3
29.7948,21.8945,4.53988,14,11
5.62504,4.13201,-0.856985,25,4
6.36029,4.66868,-0.690273,18,5
7.37274,5.4079,-0.479188,43,6
8.75827,6.42183,-0.189568,100,7
10.7346,7.84213,0.232047,28,8
0.442227,0.322951,-0.126422,15,1
13.8294,10.0994,0.897457,18,9
4.53823,3.31297,-1.09219,13,2
19.0443,13.8975,2.06263,30,10
5.02224,3.66362,-0.984599,25,3
29.8877,21.7945,4.54183,14,11
5.63213,4.10552,-0.855767,27,4
6.37816,4.64763,-0.690448,20,5
7.37704,5.37155,-0.478246,50,6
8.76931,6.38298,-0.189324,100,7
10.7476,7.7971,0.231768,28,8
0.459071,0.332923,-0.130922,14,1
13.8419,10.0346,0.895992,21,9
4.5291,3.28213,-1.08723,15,2
19.0733,13.8169,2.06054,25,10
5.04076,3.65158,-0.98585,27,3
29.8891,21.644,4.5311,14,11
5.64089,4.08332,-0.855035,25,4
6.39919,4.62884,-0.690971,15,5
7.40291,5.35291,-0.478769,47,6
8.76074,6.33008,-0.188661,100,7
10.7617,7.75019,0.231489,30,8
0.453904,0.326764,-0.129122,14,1
13.8509,9.96756,0.894317,24,9
4.53996,3.2671,-1.08723,18,2
19.1287,13.7606,2.06158,25,10
5.05027,3.63166,-0.985224,25,3
29.871,21.4724,4.51697,14,11
5.65672,4.06477,-0.855279,23,4
6.39589,4.59253,-0.688879,18,5
7.42317,5.3282,-0.478874,39,6
8.78929,6.30412,-0.1888,100,7
10.7708,7.69978,0.231105,31,8
0.470897,0.336508,-0.133621,14,1
13.8775,9.91335,0.893794,19,9
4.55829,3.255,-1.08876,11,2
19.1677,13.6823,2.06036,25,10
5.05229,3.60509,-0.983034,23,3
29.8649,21.3103,4.50478,14,11
5.67734,4.04961,-0.856254,23,4
6.41188,4.57017,-0.688879,15,5
7.42638,5.28937,-0.477827,43,6
8.8145,6.27572,-0.18887,100,7
10.7843,7.64984,0.230791,30,8
0.456231,0.323508,-0.129122,14,1
13.9056,9.85664,0.89327,15,9
4.57443,3.24248,-1.0899,11,2
19.1958,13.6015,2.05827,20,10
5.06001,3.58401,-0.982096,28,3
29.8975,21.1686,4.49795,14,11
5.67918,4.0196,-0.854304,20,4
6.42533,4.54434,-0.68853,20,5
7.43338,5.25535,-0.477095,39,6
8.826,6.2353,-0.188626,100,7
10.8028,7.60639,0.230616,35,8
0.463731,0.3264,-0.130922,14,1
13.9187,9.7931,0.891909,20,9
4.5895,3.22795,-1.09066,11,2
19.2146,13.5092,2.05496,25,10
5.08119,3.57112,-0.98366,25,3
29.9517,21.0504,4.49503,14,11
5.68668,3.99518,-0.853329,22,4
51.534,36.1918,9.97395,18,12
6.44931,4.52761,-0.689402,13,5
51.1435,35.891,12.145,23,13
7.44769,5.22462,-0.476781,47,6
8.84935,6.2056,-0.188661,100,7
10.8371,7.57133,0.230756,22,8
0.46812,0.326929,-0.131821,14,1
13.9659,9.75003,0.892642,15,9
4.59108,3.20516,-1.08837,9,2
19.2175,13.4113,2.05025,30,10
5.09362,3.55336,-0.98366,23,3
30.0254,20.9382,4.49454,14,11
5.6964,3.97091,-0.852598,24,4
6.46344,4.50393,-0.689228,15,5
51.2685,35.7122,12.145,23,13
7.47572,5.20544,-0.477409,39,6
8.86711,6.1697,-0.188556,100,7
10.8618,7.53232,0.230721,26,8
0.482071,0.334175,-0.135421,13,1
13.9999,9.70121,0.892642,15,9
4.59094,3.18129,-1.0857,9,2
19.2331,13.3226,2.04694,25,10
5.106,3.53556,-0.98366,23,3
30.0689,20.8129,4.49015,14,11
5.71349,3.95326,-0.853086,19,4
6.46765,4.47341,-0.688007,15,5
51.2637,35.4437,12.1145,23,13
7.49384,5.17931,-0.477409,39,6
8.88202,6.13416,-0.188416,100,7
10.8782,7.48755,0.230511,25,8
0.470391,0.323654,-0.131821,14,1
14.0287,9.64889,0.892328,12,9
4.61496,3.17415,-1.08876,4,2
19.268,13.2475,2.04572,30,10
5.10365,3.50765,-0.980844,27,3
30.0727,20.6607,4.47992,14,11
5.73216,3.93666,-0.853817,23,4
44.2557,30.382,8.50221,13,12
6.47994,4.44855,-0.687659,15,5
50.8367,34.8869,11.9847,22,13
7.50693,5.14974,-0.477095,39,6
8.91162,6.10877,-0.188591,100,7
10.9158,7.45743,0.230756,25,8
0.458643,0.313218,-0.128222,14,1
14.0392,9.5841,0.890863,12,9
4.63412,3.16355,-1.09066,4,2
19.3026,13.1723,2.0445,35,10
5.1126,3.48758,-0.980218,26,3
30.1905,20.5869,4.48674,14,11
5.74259,3.91439,-0.853329,20,4
44.0546,30.0182,8.44339,13,12
6.50202,4.43039,-0.688356,15,5
7.51496,5.11675,-0.476467,39,6
8.92793,6.07425,-0.188486,100,7
10.9269,7.40918,0.230442,22,8
0.495222,0.335669,-0.13812,13,1
14.0313,9.50702,0.888246,16,9
0.672878,0.455915,-0.15799,17,2
19.3583,13.1115,2.04555,35,10
5.13292,3.47525,-0.981783,27,3
30.1997,20.4391,4.47748,29,11
5.748,3.88876,-0.852111,21,4
44.3555,29.9971,8.48094,13,12
6.52074,4.4099,-0.688705,15,5
7.53774,5.09385,-0.476781,39,6
8.93748,6.03521,-0.188242,100,7
10.9543,7.37211,0.230476,27,8
0.460819,0.310008,-0.128222,14,1
14.0511,9.44908,0.887409,20,9
0.663061,0.445895,-0.155319,18,2
19.3875,13.0327,2.0438,35,10
5.14175,3.45511,-0.981157,26,3
30.294,20.349,4.48089,29,11
5.7533,3.86314,-0.850892,19,4
44.3845,29.7914,8.46655,13,12
6.54272,4.39155,-0.689402,15,5
51.1275,34.3045,11.9679,22,13
7.55547,5.0675,-0.476781,39,6
8.94188,5.99285,-0.187893,100,7
10.97,7.32717,0.230267,23,8
0.494312,0.330039,-0.13722,13,1
14.0857,9.40108,0.887513,19,9
0.684209,0.456656,-0.159898,24,2
19.3698,12.923,2.03718,40,10
5.15377,3.43714,-0.981157,26,3
30.3285,20.2189,4.47553,29,11
5.77501,3.84854,-0.852111,21,4
44.7315,29.7984,8.51285,13,12
6.54474,4.35985,-0.688007,15,5
7.57644,5.04331,-0.47699,39,6
8.96274,5.9616,-0.187893,100,7
10.9672,7.27005,0.229674,25,8
0.475968,0.315395,-0.131821,14,1
14.1201,9.35296,0.887618,17,9
0.682525,0.452097,-0.159135,16,2
19.4065,12.8498,2.03631,40,10
5.1608,3.41586,-0.980218,25,3
30.3956,20.1108,4.47504,29,11
5.79006,3.82946,-0.852354,22,4
43.8037,28.9601,8.317,12,12
6.55493,4.33368,-0.687485,15,5
52.0438,34.3949,12.1259,23,13
7.584,5.01023,-0.476362,39,6
8.98851,5.93358,-0.187997,100,7
10.9875,7.22842,0.229569,27,8
0.444501,0.292316,-0.122823,15,1
14.1459,9.29922,0.887199,19,9
0.677537,0.445397,-0.157608,25,2
19.4396,12.7743,2.03509,39,10
5.16774,3.39457,-0.97928,26,3
30.434,19.9838,4.47041,29,11
5.80007,3.80704,-0.851867,20,4
42.101,27.6237,7.97534,12,12
6.56835,4.30968,-0.68731,13,5
51.4642,33.7543,11.9633,22,13
7.59309,4.97825,-0.475839,39,6
9.0008,5.89669,-0.187823,100,7
11.011,7.18893,0.229534,30,8
0.478158,0.312064,-0.131821,14,1
14.1649,9.24105,0.886362,21,9
0.705397,0.460193,-0.163714,22,2
19.4607,12.6911,2.03265,34,10
5.18121,3.37759,-0.979593,26,3
30.472,19.8569,4.46578,29,11
5.80834,3.78352,-0.851136,16,4
6.58336,4.28673,-0.68731,15,5
7.60373,4.94736,-0.47542,39,6
9.02301,5.86633,-0.187858,100,7
11.0461,7.15697,0.229743,26,8
0.446532,0.289206,-0.122823,15,1
14.1854,9.18396,0.885629,22,9
0.731718,0.473733,-0.169438,31,2
19.52,12.6329,2.03421,39,10
5.19131,3.35841,-0.97928,25,3
30.5561,19.7601,4.46797,29,11
5.81151,3.75676,-0.849673,16,4
6.59493,4.26156,-0.686962,15,5
7.62263,4.92187,-0.475525,39,6
9.0283,5.82504,-0.187544,100,7
11.0508,7.1054,0.229325,37,8
0.447538,0.287646,-0.122823,15,1
14.214,9.13223,0.88542,25,9
0.784571,0.504073,-0.181269,20,2
19.5857,12.5786,2.03648,35,10
5.20633,3.3424,-0.979906,26,3
30.6066,19.6415,4.46529,29,11
5.83294,3.74181,-0.850892,23,4
6.59803,4.23098,-0.685741,15,5
7.64481,4.89846,-0.475839,39,6
9.04858,5.79349,-0.187544,100,7
11.0536,7.0528,0.228871,27,8
0.474828,0.302848,-0.130022,14,1
14.2525,9.08685,0.885838,20,9
0.809502,0.516107,-0.186611,28,2
19.5455,12.4567,2.02777,39,10
5.20297,3.31466,-0.97709,25,3
30.6783,19.5367,4.46578,29,11
5.85099,3.72462,-0.851623,25,4
6.6094,4.20579,-0.685393,15,5
47.4545,30.1854,10.9322,17,13
7.65006,4.86425,-0.475106,39,6
9.07719,5.76723,-0.187718,100,7
11.0579,7.00133,0.228452,35,8
0.449535,0.284514,-0.122823,15,1
14.2487,9.01462,0.88364,27,9
0.826231,0.522725,-0.190046,27,2
19.604,12.3979,2.02933,39,10
5.20616,3.2912,-0.975525,28,3
30.701,19.4009,4.4592,29,11
5.85221,3.69675,-0.849917,16,4
39.3497,24.847,7.37088,10,12
6.63246,4.18801,-0.686264,15,5
7.66362,4.83538,-0.474897,39,6
61.5156,38.7985,16.7908,53,14
9.09388,5.73338,-0.187648,100,7
11.1009,6.97439,0.228836,31,8
0.450526,0.282943,-0.122823,15,1
14.2479,8.94464,0.881652,26,9
0.848003,0.532364,-0.194625,24,2
19.6134,12.3083,2.02585,39,10
5.22263,3.27615,-0.976464,27,3
30.7567,19.2862,4.45749,29,11
5.8533,3.66893,-0.848211,19,4
39.9853,25.0535,7.4735,10,12
6.64439,4.16155,-0.685916,13,5
7.67368,4.80437,-0.474478,39,6
9.10536,5.69629,-0.187474,100,7
11.132,6.93983,0.228976,28,8
0.451511,0.281369,-0.122823,15,1
14.2723,8.89063,0.881233,23,9
0.841616,0.524064,-0.192717,24,2
19.7058,12.2658,2.03073,39,10
5.23796,3.25908,-0.97709,26,3
30.8879,19.2186,4.46676,29,11
5.86439,3.64742,-0.847967,31,4
37.8077,23.5058,7.05113,8,12
6.65718,4.13729,-0.685741,15,5
52.2842,32.4808,11.9645,22,13
7.68614,4.77305,-0.474164,43,6
9.1082,5.65393,-0.187125,100,7
11.1471,6.89267,0.228766,28,8
0.485692,0.300204,-0.131821,14,1
14.298,8.83407,0.880814,28,9
0.808366,0.499452,-0.184703,28,2
19.7179,12.1781,2.02759,39,10
5.25267,3.24285,-0.977716,27,3
30.9767,19.1167,4.46944,29,11
5.87941,3.62695,-0.848211,19,4
43.6642,26.9255,8.12489,12,12
6.64275,4.09624,-0.682778,15,5
39.4952,24.3451,9.0184,20,13
7.69596,4.742,-0.473745,39,6
9.12035,5.61527,-0.18695,100,7
11.149,6.84012,0.228312,27,8
0.496704,0.30462,-0.134521,14,1
14.3304,8.78514,0.880919,20,9
0.79002,0.484314,-0.180124,39,2
19.7671,12.1133,2.02829,39,10
5.26058,3.22243,-0.97709,28,3
31.0433,19.0084,4.46944,29,11
5.8988,3.61054,-0.849186,24,4
40.2666,24.6368,7.47663,20,12
6.66381,4.07719,-0.683475,15,5
39.4158,24.1067,8.981,10,13
7.71758,4.71823,-0.474059,58,6
9.16379,5.59799,-0.187439,100,7
11.1779,6.80429,0.228417,30,8
