x, y, z, intensity, ring
2.31602,-5.76128,-0.762415,11,4
3.66627,-9.12014,1.55684,20,12
3.16068,-7.86639,-0.741695,9,5
3.81328,-9.4954,1.98899,47,13
8.60937,-21.4489,-1.21126,20,6
2.73621,-6.8203,1.69658,19,14
3.83601,-9.56165,-0.17983,100,7
4.37938,-10.9216,3.15293,11,15
5.77894,-14.4703,0.271978,7,8
0.196503,-0.492288,-0.122373,15,1
3.05513,-7.65774,0.432086,65,9
0.215245,-0.53979,-0.112959,16,2
3.61522,-9.07081,0.854301,24,10
0.253779,-0.636746,-0.108566,38,3
5.66837,-14.2295,1.88069,41,11
1.92828,-4.84309,-0.640058,1,4
3.198,-8.04029,-0.757035,27,5
3.77741,-9.49705,1.9867,38,13
7.96121,-20.026,-1.12941,31,6
2.69991,-6.79493,1.68803,22,14
4.61598,-11.623,-0.218295,100,7
5.67252,-14.3491,0.269326,7,8
0.194783,-0.492971,-0.122373,15,1
3.57639,-9.05602,0.510276,63,9
0.21336,-0.540538,-0.112959,16,2
3.57414,-9.05495,0.851686,24,10
0.255179,-0.646816,-0.11013,49,3
3.48509,-8.83836,1.16653,10,11
1.90772,-4.84056,-0.638839,19,4
3.67346,-9.32563,1.5875,79,12
3.14728,-7.99394,-0.751631,67,5
2.62182,-6.66269,1.39176,36,13
7.77518,-19.7688,-1.11329,17,6
2.67475,-6.80068,1.68713,13,14
4.37199,-11.1217,-0.208591,19,7
2.44434,-6.22124,1.79103,36,15
3.30595,-8.45315,0.158433,37,8
0.192975,-0.493682,-0.122373,15,1
3.12018,-7.98636,0.449357,21,9
0.211377,-0.541317,-0.112959,16,2
4.69177,-12.0152,1.12849,23,10
0.262143,-0.67167,-0.114197,45,3
3.44906,-8.84182,1.16531,13,11
1.87555,-4.81053,-0.633964,17,4
3.82215,-9.80838,1.66728,66,12
3.0001,-7.7028,-0.723218,10,5
2.59168,-6.65762,1.38871,13,13
7.45789,-19.168,-1.07791,24,6
4.29622,-11.042,2.7354,27,14
4.60589,-11.844,-0.22182,46,7
3.13958,-8.07759,2.32212,31,15
3.27494,-8.46521,0.158433,48,8
0.191164,-0.494386,-0.122373,15,1
2.63802,-6.82593,0.383518,46,9
4.18824,-10.8428,1.01693,4,10
0.249719,-0.646827,-0.109817,49,3
3.3859,-8.77477,1.15483,39,11
4.69489,-12.1798,2.06744,15,12
2.91873,-7.57194,-0.709971,22,5
3.6222,-9.4018,1.95846,39,13
5.08423,-13.2035,-0.741496,3,6
3.36748,-8.74974,2.16448,78,14
3.43529,-8.93061,-0.16702,100,7
3.09748,-8.05659,2.31281,13,15
3.60716,-9.42154,0.176095,61,8
0.189437,-0.49505,-0.122373,15,1
2.62416,-6.86122,0.384983,33,9
4.6633,-12.1992,1.14261,54,10
0.245345,-0.642158,-0.108878,50,3
3.34746,-8.76614,1.15215,44,11
1.83471,-4.80714,-0.631771,35,4
3.67231,-9.62692,1.63192,22,12
2.90365,-7.61187,-0.71276,28,5
3.5418,-9.28964,1.93251,27,13
6.77343,-17.7751,-0.996895,3,6
3.34593,-8.78512,2.17033,37,14
3.60045,-9.45835,-0.176653,29,7
0.187708,-0.495708,-0.122373,15,1
2.6002,-6.87034,0.384983,72,9
4.61716,-12.2061,1.14174,30,10
0.2438,-0.644859,-0.109191,50,3
3.32316,-8.79448,1.15435,28,11
1.82423,-4.83023,-0.633964,64,4
3.62055,-9.59163,1.62379,49,12
2.90942,-7.7077,-0.720778,11,5
6.71838,-17.8173,-0.997942,14,6
4.27119,-11.3333,2.79614,17,14
2.51705,-6.68588,1.91423,39,15
3.32159,-8.86042,0.16517,36,8
2.5769,-6.88124,0.385088,54,9
4.56894,-12.2072,1.14035,9,10
0.240856,-0.643856,-0.108878,50,3
3.52116,-9.41776,1.23454,31,11
1.80249,-4.82355,-0.632258,45,4
3.58981,-9.61161,1.62504,47,12
3.4645,-9.28103,1.92564,34,13
3.5438,-9.49854,-0.531315,70,6
4.83895,-12.9769,3.19745,20,14
3.08948,-8.28965,-0.154419,57,7
4.12425,-11.072,3.16587,8,15
4.64111,-12.513,0.232955,8,8
0.184243,-0.497006,-0.122373,15,1
2.57299,-6.94451,0.388123,34,9
2.62293,-7.0831,0.660815,15,10
0.239978,-0.648398,-0.109504,25,3
4.8388,-13.081,1.71251,11,11
3.53274,-9.55536,-1.25087,45,4
2.61275,-7.07076,1.19391,11,12
4.75394,-12.8654,-1.19996,10,5
3.40215,-9.21204,1.90885,23,13
3.52031,-9.53708,-0.53278,63,6
3.89857,-10.5675,2.60043,8,14
3.15254,-8.54992,-0.159061,33,7
4.61394,-12.5742,0.233792,6,8
2.55354,-6.96657,0.388856,35,9
0.199994,-0.545625,-0.112959,16,2
2.6585,-7.25684,0.676154,20,10
0.235676,-0.643666,-0.108566,38,3
3.30933,-9.04318,1.18238,13,11
1.73673,-4.74839,-0.620803,30,4
4.71037,-12.8856,-1.20031,12,5
3.37335,-9.23308,1.91076,77,13
4.70368,-12.8813,-0.718677,74,6
4.38278,-12.009,2.95136,6,14
4.47261,-12.2618,-0.227824,24,7
4.61642,-12.718,0.236166,15,8
0.180769,-0.498281,-0.122373,15,1
2.52498,-6.95998,0.388019,78,9
2.59582,-7.16305,0.666567,20,10
0.236791,-0.653772,-0.11013,37,3
3.26018,-9.00615,1.17604,52,11
1.72081,-4.75629,-0.621046,54,4
2.84963,-7.8806,-0.733154,21,5
3.33109,-9.2171,1.90504,34,13
4.64851,-12.8694,-0.717107,58,6
2.45032,-6.78743,1.66599,35,14
4.50933,-12.4909,-0.231803,100,7
3.80873,-10.556,3.00696,38,15
4.54582,-12.6542,0.2347,19,8
2.49729,-6.95935,0.387495,47,9
0.19618,-0.547008,-0.112959,16,2
0.236621,-0.660132,-0.111068,24,3
3.22628,-9.0057,1.17458,33,11
1.70169,-4.75263,-0.619828,44,4
2.53181,-7.07497,1.19015,25,12
2.8268,-7.90363,-0.734374,17,5
2.60034,-7.27045,1.5009,19,13
3.49788,-9.78535,-0.544608,31,6
4.65891,-13.0405,3.197,27,14
3.01928,-8.45576,-0.156723,22,7
3.76212,-10.542,2.9992,11,15
4.52238,-12.7284,0.235782,45,8
0.177373,-0.499499,-0.122373,15,1
2.52776,-7.12237,0.396079,63,9
0.194365,-0.547655,-0.112959,16,2
2.52569,-7.12047,0.660989,41,10
0.225735,-0.63675,-0.107001,26,3
2.56037,-7.22624,0.941319,40,11
1.68575,-4.76041,-0.620071,8,4
3.94387,-11.1433,1.87221,15,12
2.74604,-7.76318,-0.720429,13,5
2.57494,-7.27949,1.5009,15,13
4.58476,-12.9686,-0.720876,52,6
2.4177,-6.84254,1.67544,8,14
2.95512,-8.36819,-0.154908,100,7
4.574,-12.9597,3.68248,22,15
4.55084,-12.9517,0.239622,61,8
2.4837,-7.0765,0.393043,65,9
2.50814,-7.15412,0.663255,30,10
0.226013,-0.64503,-0.108253,25,3
2.54366,-7.25949,0.944488,9,11
1.68028,-4.79812,-0.624215,32,4
2.4158,-6.90229,1.15824,23,12
2.69458,-7.70314,-0.71398,17,5
3.35814,-9.60545,1.97793,32,13
4.5141,-12.9264,-0.238993,45,7
4.5663,-13.0832,3.71302,21,15
4.49809,-12.9531,0.239342,60,8
2.44597,-7.05159,0.391159,65,9
2.54385,-7.3379,0.679466,20,10
0.212766,-0.614084,-0.102934,28,3
3.18738,-9.2046,1.19603,11,11
1.67177,-4.8305,-0.627627,6,4
2.65266,-7.67342,-0.710319,11,5
3.31432,-9.58743,1.97182,41,13
4.5812,-13.2597,-0.735216,13,6
3.99634,-11.5734,2.82674,21,14
2.95518,-8.56303,-0.158119,100,7
4.57752,-13.2715,3.76168,13,15
4.44181,-12.9366,0.238749,56,8
0.220257,-0.642586,-0.13204,13,2
2.5066,-7.31702,0.676677,60,10
0.210514,-0.61486,-0.102934,28,3
2.48522,-7.25873,0.94205,24,11
3.73525,-10.916,-1.41661,28,4
3.06339,-8.96784,1.84207,15,13
2.70444,-7.92158,-0.43868,39,6
3.61659,-10.5994,2.58559,12,14
4.4344,-12.9962,-0.239691,21,7
4.4894,-13.1649,3.72699,31,15
4.41398,-13.0032,0.239691,57,8
4.41852,-13.024,0.720771,23,9
2.48552,-7.33473,0.677549,11,10
0.212275,-0.626781,-0.104811,27,3
3.12495,-9.23227,1.19676,27,11
3.68821,-10.9026,-1.4132,66,4
2.66482,-7.88193,-0.727925,20,5
3.04808,-9.02073,1.85085,20,13
2.67752,-7.92861,-0.438575,36,6
4.41941,-13.0942,-0.241227,100,7
4.38675,-13.0651,0.240564,26,8
4.37621,-13.0488,0.721294,23,9
2.44725,-7.30557,0.674062,48,10
0.214588,-0.640593,-0.107001,26,3
4.04908,-12.0944,1.56602,25,11
3.65708,-10.9299,-1.41515,17,4
2.35239,-7.03464,1.17482,55,12
2.60129,-7.78347,-0.717989,10,5
2.34047,-7.00305,1.43527,25,13
2.63666,-7.89388,-0.436168,50,6
3.32592,-9.96324,2.42497,57,14
4.51734,-13.5402,-0.249151,100,7
4.37639,-13.1866,0.242519,52,8
2.37051,-7.151,0.394822,118,9
2.43992,-7.36471,0.678769,35,10
0.206141,-0.622585,-0.103873,13,3
4.00622,-12.1066,1.56578,47,11
1.63368,-4.93979,-0.638839,30,4
2.34084,-7.08219,1.18139,70,12
2.98784,-9.045,1.85161,20,13
3.2783,-9.93593,2.41552,40,14
4.25588,-12.9063,-0.237213,36,7
2.20098,-6.67861,1.8842,39,15
2.66688,-8.13049,0.149358,20,8
2.37413,-7.24654,0.399637,29,9
0.203967,-0.623301,-0.103873,13,3
4.01391,-12.2733,1.58552,29,11
1.60656,-4.91527,-0.634939,30,4
2.29096,-7.01334,1.16857,44,12
1.61779,-4.95256,-0.455824,53,5
3.01535,-9.2364,1.88863,40,13
2.41112,-7.38994,-0.407383,76,6
3.24843,-9.96213,2.41912,47,14
4.84341,-14.8623,-0.272851,40,7
2.17706,-6.68442,1.88369,14,15
0.199359,-0.616491,-0.102621,14,3
2.41193,-7.46303,0.963012,38,11
1.57902,-4.88874,-0.630796,54,4
2.29559,-7.11152,1.18358,51,12
1.606,-4.97524,-0.457393,42,5
2.37796,-7.3755,-0.406127,83,6
3.21483,-9.97712,2.42002,49,14
6.75174,-20.9663,-0.384477,40,7
3.21074,-9.97636,2.80819,42,15
2.24678,-7.02739,0.645475,46,10
0.203218,-0.636,-0.10575,13,3
2.37077,-7.42413,0.956918,45,11
1.55772,-4.88098,-0.62909,33,4
2.25154,-7.05927,1.17357,63,12
2.55427,-8.00841,-0.73542,11,5
3.48222,-10.931,-0.601236,81,6
3.21132,-10.0867,2.44387,21,14
4.15929,-13.0722,-0.239447,8,7
3.13199,-9.84943,2.76936,37,15
2.89472,-9.14745,0.167473,15,8
2.30895,-7.30528,0.401522,23,9
0.175037,-0.554136,-0.112959,16,2
2.23604,-7.07888,0.649485,48,10
0.203375,-0.64424,-0.107001,26,3
2.2631,-7.18201,1.19266,66,12
2.52071,-8.00442,-0.7342,18,5
2.06637,-6.56568,1.33795,13,13
3.44633,-10.957,-0.601968,77,6
2.72061,-8.64972,2.09339,53,14
4.56758,-14.5307,-0.26587,25,7
3.84922,-12.3357,0.677227,6,9
0.173005,-0.554773,-0.112959,16,2
2.2255,-7.13649,0.654017,43,10
0.197486,-0.633666,-0.105124,13,3
2.30283,-7.39352,0.950825,13,11
1.50741,-4.84272,-0.622752,7,4
3.50829,-11.2777,1.87064,19,12
2.54696,-8.19245,-0.750585,6,5
3.40538,-10.9603,2.23094,6,13
2.31104,-7.44276,-0.40843,43,6
3.04429,-9.8042,2.37008,73,14
3.39772,-10.9492,-0.200109,42,7
2.2093,-7.17697,0.65698,22,10
0.192839,-0.626833,-0.103873,13,3
2.26988,-7.38294,0.948387,27,11
2.24994,-7.32265,1.21331,23,12
2.45226,-7.98607,-0.730888,23,5
4.026,-13.1193,2.66751,30,13
2.30671,-7.52143,-0.412303,87,6
2.96319,-9.66199,2.33319,48,14
3.35538,-10.9476,-0.199865,45,7
3.45356,-11.275,3.15966,14,15
2.80824,-9.21409,0.168136,6,8
2.23873,-7.35007,0.402673,105,9
0.169225,-0.555938,-0.112959,16,2
2.20346,-7.24334,0.662384,18,10
0.190759,-0.627469,-0.103873,13,3
2.79245,-9.19102,1.17945,33,11
1.47442,-4.85287,-0.622752,52,4
2.24229,-7.38488,1.22238,37,12
2.4732,-8.15049,-0.745182,35,5
3.9631,-13.0687,2.65453,7,13
2.04659,-6.75308,1.6291,18,14
2.67391,-8.82856,-0.161016,100,7
4.04512,-13.432,0.244857,9,8
2.22917,-7.4114,0.405604,72,9
0.167283,-0.556525,-0.112959,16,2
2.24538,-7.47004,0.682429,35,10
0.189814,-0.631882,-0.104498,13,3
2.24426,-7.47578,0.958381,18,11
1.45176,-4.83898,-0.620315,35,4
2.25394,-7.51755,1.24303,23,12
2.25375,-7.53122,-0.411989,76,6
2.09955,-7.01595,1.69073,11,14
2.63849,-8.82251,-0.160737,93,7
2.20426,-7.42718,0.406022,31,9
0.165242,-0.557135,-0.112959,16,2
2.23102,-7.52215,0.686439,54,10
0.18862,-0.636361,-0.105124,13,3
4.29782,-14.5092,1.85802,20,11
2.94254,-9.94658,1.64287,5,12
3.75807,-12.7115,-1.15969,28,5
2.08494,-7.05672,1.4303,4,13
3.81371,-12.9163,-0.705803,35,6
2.08817,-7.07219,1.70243,11,14
2.60331,-8.82253,-0.160562,100,7
3.92324,-13.3043,3.71664,22,15
2.28973,-7.81003,0.142063,56,8
0.163297,-0.557708,-0.112959,16,2
2.20679,-7.54175,0.687485,46,10
0.186286,-0.637048,-0.105124,13,3
2.20778,-7.55491,0.966424,74,11
5.00947,-17.1533,-2.19414,2,4
3.71703,-12.736,-1.16074,19,5
2.046,-7.01495,1.42038,6,13
2.06877,-7.10225,1.70783,28,14
5.71422,-19.6301,-0.356867,7,7
3.15946,-10.8608,3.03077,6,15
3.18412,-11.0028,0.199935,13,8
0.147259,-0.509191,-0.122373,15,1
2.11743,-7.33119,0.667613,37,10
0.18187,-0.630103,-0.103873,13,3
3.2157,-11.1484,1.42465,27,11
2.43355,-8.44227,-1.07879,37,4
2.05709,-7.14098,1.17701,33,12
2.37648,-8.24973,-0.751108,22,5
1.96719,-6.83339,1.38222,8,13
2.21982,-7.71602,-0.420781,14,6
2.02782,-7.05324,1.69433,55,14
5.67548,-19.7537,-0.358752,51,7
3.09754,-10.7882,3.00748,41,15
3.14761,-11.0279,0.601026,127,9
0.159399,-0.558835,-0.112959,16,2
2.09947,-7.36537,0.670053,60,10
0.181834,-0.638333,-0.105124,13,3
2.40825,-8.45984,-1.08001,31,4
2.01232,-7.07366,1.16481,45,12
2.35421,-8.28098,-0.7532,44,5
2.18306,-7.68914,-0.418897,68,6
1.89424,-6.67188,1.6012,48,14
5.69237,-20.0629,-0.364022,30,7
3.07545,-10.8467,3.02094,22,15
2.14568,-7.60801,0.137979,49,8
3.10886,-11.0305,0.600608,57,9
0.157545,-0.55936,-0.112959,16,2
2.18084,-7.74819,0.704218,60,10
0.175437,-0.62372,-0.102621,14,3
3.13276,-11.1451,1.42148,100,11
2.39415,-8.51747,-1.08634,8,4
1.99686,-7.10882,1.1695,15,12
3.61153,-12.8657,-1.16911,22,5
2.01661,-7.18876,1.45129,12,13
2.14083,-7.63672,-0.415652,90,6
1.86316,-6.64622,1.59355,57,14
2.28075,-8.14128,-0.147578,24,7
2.114,-7.59197,0.13756,79,8
2.19011,-7.87594,0.428422,61,9
0.155689,-0.55988,-0.112959,16,2
3.06999,-11.0476,1.00316,100,10
0.177597,-0.639525,-0.105124,13,3
3.2131,-11.5782,1.47535,21,11
2.37289,-8.55638,-1.09024,8,4
3.52087,-12.7131,-1.15412,42,5
3.76858,-13.6075,2.7446,17,13
2.16451,-7.82086,-0.425282,61,6
1.96722,-7.11285,1.70378,59,14
2.21183,-8.0027,-0.144925,100,7
3.70924,-13.4297,3.73321,13,15
2.09808,-7.63787,0.138258,82,8
3.87452,-14.1241,0.767559,15,9
0.153636,-0.560446,-0.112959,16,2
2.0072,-7.32702,0.66465,22,10
0.176295,-0.643982,-0.10575,26,3
3.11186,-11.3672,1.44708,20,11
3.76674,-13.7689,-1.75273,20,4
1.93625,-7.08258,1.16293,18,12
2.31345,-8.46814,-0.768016,19,5
3.05995,-11.2084,2.25842,35,13
2.14477,-7.8615,-0.427061,32,6
1.94626,-7.13881,1.70828,19,14
2.1439,-7.86375,-0.142272,100,7
3.59429,-13.1928,3.66384,6,15
2.0983,-7.74974,0.140143,60,8
0.151679,-0.560979,-0.112959,16,2
2.11309,-7.82061,0.70875,61,10
0.166837,-0.617895,-0.10137,14,3
3.01898,-11.1888,1.42295,30,11
3.73588,-13.8554,-1.76199,15,4
3.16015,-11.7283,1.92383,5,12
3.38474,-12.5706,-1.13895,33,5
3.01468,-11.1962,2.25384,108,13
2.06853,-7.68765,-0.417222,47,6
1.87731,-6.98184,1.66914,65,14
2.12648,-7.91404,-0.14304,32,7
3.54692,-13.2096,3.66488,13,15
2.09599,-7.84975,0.141818,17,8
2.03359,-7.6267,0.413663,47,9
0.149622,-0.561531,-0.112959,16,2
2.09262,-7.85911,0.71154,16,10
0.164571,-0.618502,-0.10137,14,3
2.36381,-8.88386,1.12875,57,11
2.5816,-9.7092,-1.23356,5,4
3.11615,-11.7278,1.92195,0,12
3.371,-12.6959,-1.14924,26,5
2.68412,-10.1161,2.03441,15,13
2.04648,-7.71834,-0.418478,14,6
2.48558,-9.38102,2.24051,61,14
2.11882,-7.9968,-0.144401,32,7
3.67039,-13.8625,3.84243,11,15
4.03012,-15.3183,0.276481,9,8
1.98207,-7.53911,0.408534,13,9
0.147661,-0.56205,-0.112959,16,2
2.02621,-7.71798,0.698117,41,10
0.164917,-0.628626,-0.102934,28,3
2.31462,-8.8291,1.12071,52,11
3.78253,-14.4387,-1.83267,8,4
3.29992,-12.6054,-1.14,21,5
2.00892,-7.68486,-0.41628,39,6
2.44937,-9.37644,2.23736,16,14
2.10151,-8.04478,-0.145134,23,7
2.57242,-9.8545,2.72899,14,15
1.96676,-7.58852,0.410837,54,9
0.145698,-0.562562,-0.112959,16,2
2.02023,-7.80602,0.705439,58,10
0.160357,-0.619608,-0.10137,14,3
2.28881,-8.85018,1.12242,57,11
2.52568,-9.77311,-1.23941,11,4
3.15916,-12.2332,2.00111,49,12
3.80453,-14.7429,-1.33209,13,5
2.59116,-10.041,2.01571,33,13
3.70302,-14.3599,-0.777189,29,6
2.39687,-9.30148,2.21757,16,14
2.09735,-8.14502,-0.14681,48,7
2.54234,-9.88026,2.73365,12,15
1.94703,-7.61628,0.411989,53,9
2.09929,-8.22387,0.742567,33,10
0.163076,-0.639305,-0.104498,13,3
2.1265,-8.34259,1.05709,30,11
2.46362,-9.67222,-1.22552,37,4
3.47158,-13.6295,2.22763,11,12
3.70205,-14.5449,-1.31309,15,5
2.59529,-10.2041,2.04662,17,13
1.95902,-7.70803,-0.416804,47,6
2.36726,-9.32113,2.22027,16,14
4.00676,-15.7767,-0.284125,47,7
3.03466,-11.9577,3.30564,20,15
1.95968,-7.76738,0.139829,15,8
3.56519,-14.1518,0.764838,22,9
0.141866,-0.563541,-0.112959,16,2
2.06085,-8.1925,0.739081,50,10
0.160955,-0.639842,-0.104498,13,3
2.10511,-8.37463,1.06026,30,11
2.4412,-9.71884,-1.23039,37,4
3.67258,-14.6428,-1.32076,26,5
3.07965,-12.2787,2.46067,15,13
1.93782,-7.73193,-0.417746,32,6
2.34344,-9.35728,2.22702,25,14
2.0773,-8.30072,-0.149358,65,7
2.80121,-11.2017,3.09392,8,15
2.06858,-8.3338,0.149881,16,8
2.75984,-11.1353,0.601236,19,9
1.93406,-7.80934,0.70387,39,10
0.161344,-0.65196,-0.106375,13,3
2.07104,-8.37494,1.05929,52,11
2.41101,-9.75705,-1.23405,38,4
1.90314,-7.70755,1.25742,61,12
3.57017,-14.4589,-1.30298,21,5
2.90784,-11.7942,-0.636615,48,6
2.30517,-9.35675,2.22477,52,14
3.90965,-15.8814,-0.285486,86,7
2.76649,-11.2462,3.10324,26,15
5.08474,-20.8269,1.12355,12,9
0.137829,-0.564542,-0.112959,16,2
1.87279,-7.67668,0.691319,9,10
0.161874,-0.664035,-0.108253,12,3
3.08242,-12.6542,1.59917,18,11
2.37553,-9.75962,-1.23332,71,4
1.8781,-7.72183,1.25867,21,12
2.37973,-9.7843,-0.88097,8,5
2.51989,-10.3685,2.07409,8,13
2.14834,-8.84638,-0.477095,29,6
2.67322,-11.0161,2.61708,68,14
4.89608,-20.1917,-0.362661,22,7
1.95159,-8.05459,2.22067,42,15
1.9214,-7.97866,0.143249,100,8
2.6741,-11.1213,0.599456,12,9
0.135858,-0.565019,-0.112959,16,2
1.86227,-7.75097,0.69742,67,10
0.151255,-0.630021,-0.102621,14,3
2.79095,-11.6341,1.46901,7,11
2.35348,-9.81804,-1.23966,100,4
1.84653,-7.70913,1.25554,58,12
2.30565,-9.62591,-0.865979,26,5
2.37904,-9.93997,1.9867,3,13
3.42796,-14.3336,-0.772374,52,6
3.2281,-13.5083,3.20645,20,14
3.81123,-15.9608,-0.286429,7,7
1.93467,-8.10833,2.23361,67,15
1.89861,-8.00672,0.143633,31,8
0.133885,-0.56549,-0.112959,16,2
1.82833,-7.72834,0.694806,20,10
0.151781,-0.64208,-0.104498,13,3
2.13199,-9.02598,1.13875,100,11
2.32239,-9.83972,-1.24136,70,4
2.68022,-11.3647,1.84937,21,12
2.47987,-10.5234,2.10157,8,13
3.37655,-14.3622,-0.257528,25,7
1.88956,-8.04357,2.21394,41,15
2.7412,-11.7425,0.210476,31,8
2.17885,-9.34827,0.503053,102,9
0.13191,-0.565954,-0.112959,16,2
2.8778,-12.3569,1.11002,42,10
0.150435,-0.646454,-0.105124,13,3
2.09462,-9.00823,1.13558,68,11
2.24697,-9.67875,1.57373,30,12
2.2848,-9.84167,-0.883933,100,5
2.73161,-11.785,-0.633998,26,6
1.71834,-7.41929,1.75822,37,14
3.29619,-14.2433,-0.255189,68,7
1.87932,-8.12728,2.23516,14,15
1.8364,-7.99249,0.143145,18,8
2.65574,-11.577,0.622484,24,9
0.129934,-0.566411,-0.112959,16,2
3.15426,-13.7612,1.23517,13,10
0.142003,-0.620018,-0.100744,14,3
2.05918,-8.99807,1.13338,81,11
4.52851,-19.8043,-2.49442,11,4
2.21361,-9.68845,1.57404,16,12
2.2562,-9.87484,-0.8862,49,5
2.44479,-10.7089,2.13515,35,13
2.24538,-9.84329,-0.529117,38,6
2.15364,-9.44875,2.23736,13,14
1.79885,-7.89852,-0.141399,88,7
2.29604,-10.1718,0.546492,6,9
0.127956,-0.566861,-0.112959,16,2
2.041,-9.04925,0.811594,5,10
0.142444,-0.632072,-0.102621,14,3
3.25575,-14.4587,1.81975,28,11
1.71115,-7.60534,-0.957162,5,4
2.55413,-11.3613,1.84436,28,12
1.59243,-7.08348,-0.635191,38,5
2.51927,-11.2154,2.23437,14,13
2.20269,-9.81404,-0.527128,100,6
2.43109,-10.8405,2.56489,26,14
1.77039,-7.90084,-0.14133,88,7
1.70675,-7.67328,0.137211,45,8
2.45752,-11.0669,0.594118,8,9
2.72537,-12.2832,1.10078,16,10
0.141947,-0.640279,-0.103873,13,3
1.70695,-7.70594,0.969105,18,11
1.69231,-7.64615,-0.961549,15,4
1.56813,-7.09094,-0.635365,31,5
2.50425,-11.3334,2.25613,37,13
1.7443,-7.90063,-0.424026,83,6
2.37141,-10.75,2.5415,41,14
1.61712,-7.33675,-0.131137,58,7
1.68465,-7.70068,0.137595,34,8
2.41078,-11.0383,0.592129,9,9
0.123995,-0.567741,-0.112959,16,2
1.99731,-9.15282,0.819613,44,10
0.139711,-0.640771,-0.103873,13,3
1.67286,-7.67887,0.964962,33,11
1.65632,-7.60934,-0.956187,41,4
1.70088,-7.82061,-0.700209,50,5
2.47301,-11.3804,2.26376,21,13
1.7201,-7.92229,-0.424863,58,6
2.33056,-10.743,2.5379,11,14
1.5915,-7.34235,-0.131137,100,7
1.95458,-9.02502,2.47431,10,15
2.15904,-10.0368,0.179201,27,8
4.52976,-21.0935,1.13067,6,9
2.07194,-9.6565,0.864062,50,10
0.137473,-0.641255,-0.103873,13,3
1.65145,-7.7099,0.96813,27,11
1.59361,-7.44619,-0.934982,7,4
2.40032,-11.2251,1.81808,36,12
1.67315,-7.82455,-0.700035,46,5
2.4263,-11.3564,2.25727,9,13
1.69452,-7.93801,-0.425387,58,6
2.96864,-13.9186,3.28564,18,14
2.09851,-9.84735,-0.175746,71,7
1.81564,-8.52729,2.3361,39,15
1.69663,-8.02333,0.143145,51,8
2.95327,-13.9901,0.749346,25,9
0.120028,-0.568592,-0.112959,16,2
2.49956,-11.851,1.05964,29,10
0.135234,-0.641731,-0.103873,13,3
1.62248,-7.70591,0.966911,58,11
1.65547,-7.86936,-0.987386,45,4
2.60166,-12.3779,2.0033,39,12
1.60198,-7.62171,-0.681384,32,5
1.9533,-9.30123,1.84741,8,13
2.9169,-13.9018,-0.744427,19,6
2.07838,-9.91404,2.33859,24,14
2.06904,-9.8781,-0.176165,100,7
1.78666,-8.53736,2.33714,35,15
2.03155,-9.77561,0.17428,102,8
2.88657,-13.9142,0.744741,27,9
2.48648,-11.9962,1.07184,65,10
0.129788,-0.626724,-0.10137,14,3
1.57265,-7.60072,0.953018,54,11
1.53516,-7.42603,-0.931082,17,4
2.56683,-12.4275,2.00987,29,12
1.62776,-7.88092,-0.704044,25,5
2.86593,-13.9001,-0.743799,22,6
2.04022,-9.90406,2.33454,14,14
3.06855,-14.9092,-0.265695,49,7
1.77552,-8.63438,2.36198,36,15
2.04303,-10.0239,0.53613,56,9
0.129175,-0.634916,-0.102621,14,3
1.55086,-7.62951,0.955943,40,11
1.5515,-7.6395,-0.957162,53,4
2.5635,-12.6339,2.04178,48,12
1.60024,-7.88655,-0.704044,33,5
3.17027,-15.6523,-0.836957,12,6
1.88968,-9.33811,2.19957,1,14
1.54193,-7.6265,-0.135815,100,7
1.75149,-8.67082,2.37026,26,15
1.97235,-9.85273,0.526604,139,9
0.114068,-0.569818,-0.112959,16,2
2.24013,-11.2006,0.999328,23,10
0.126958,-0.635363,-0.102621,14,3
1.59728,-8.00085,1.00177,15,11
1.48444,-7.44241,-0.931813,58,4
1.8021,-9.04325,1.46047,43,12
1.43603,-7.20624,-0.642861,30,5
3.79087,-19.058,-1.01835,15,6
1.50723,-7.58428,1.78521,17,14
1.50634,-7.58673,-0.135012,100,7
1.72009,-8.67119,2.36871,57,15
1.93948,-9.8674,0.527023,150,9
0.112078,-0.570213,-0.112959,16,2
2.19986,-11.2024,0.998805,38,10
0.121697,-0.620295,-0.100118,14,3
2.84657,-14.5225,1.81707,8,11
1.46799,-7.49625,-0.937907,38,4
1.76369,-9.01459,1.45484,32,12
1.41737,-7.24445,-0.645824,27,5
1.50951,-7.72258,1.52953,48,13
2.83429,-14.5135,-0.774991,13,6
1.47515,-7.56081,1.77846,18,14
1.48176,-7.60175,-0.135186,61,7
1.69904,-8.72455,2.38165,53,15
1.5127,-7.82593,0.139131,53,8
1.90465,-9.87215,0.526918,123,9
0.110087,-0.570601,-0.112959,16,2
1.89452,-9.82885,0.875741,100,10
0.124014,-0.643993,-0.103873,13,3
1.42775,-7.42115,0.927913,29,11
1.45605,-7.57541,-0.947169,27,4
1.73482,-9.03427,1.45703,46,12
1.39169,-7.2474,-0.64565,10,5
1.48255,-7.7278,1.52953,26,13
2.71293,-14.1546,-0.755313,45,6
2.87211,-15.0134,-0.266812,90,7
1.68707,-8.8272,2.40805,35,15
1.47606,-7.78204,0.138258,12,8
2.23091,-11.7842,0.628555,20,9
1.86279,-9.8491,0.876961,100,10
0.118831,-0.628894,-0.10137,14,3
1.39668,-7.39878,0.924501,58,11
1.41157,-7.48486,-0.935225,50,4
1.54344,-8.19196,1.32031,13,12
1.36417,-7.24047,-0.644604,6,5
1.4552,-7.731,1.52914,37,13
2.67754,-14.2386,-0.75929,26,6
1.62131,-8.63005,2.02726,12,14
1.62269,-8.6457,-0.153546,33,7
1.64343,-8.76468,2.38942,45,15
1.4562,-7.82647,0.138956,16,8
2.17883,-11.733,0.625415,30,9
1.76334,-9.50489,0.845759,26,10
0.115195,-0.621536,-0.100118,14,3
1.3741,-7.42118,0.926695,42,11
1.36883,-7.39995,-0.924013,28,4
3.37728,-18.2756,-1.62598,7,5
2.24905,-12.1823,2.40801,21,13
2.62057,-14.2085,-0.757197,35,6
2.05515,-11.1647,-0.198155,24,7
1.62051,-8.81216,2.40081,14,15
1.41954,-7.78036,0.138049,37,8
2.68207,-14.7293,0.784621,18,9
1.81181,-9.95988,0.885677,32,10
0.121501,-0.668579,-0.107627,12,3
1.3535,-7.45523,0.930351,18,11
1.33378,-7.3539,-0.917676,37,4
1.47812,-8.15783,1.31311,28,12
4.34715,-23.9922,-2.13322,5,5
1.40399,-7.75642,1.5322,8,13
2.68966,-14.874,-0.792157,16,6
1.72176,-9.53097,2.23601,51,14
1.43053,-7.92673,-0.140597,48,7
1.97227,-10.9395,2.97849,11,15
1.38146,-7.72424,0.136966,39,8
0.102109,-0.572082,-0.112959,16,2
1.44828,-8.12238,0.721824,61,10
0.113624,-0.637883,-0.102621,14,3
1.54309,-8.67163,1.08147,27,11
1.30567,-7.34483,-0.91597,22,4
1.48093,-8.33917,-0.740998,17,5
1.54576,-8.72193,-0.46422,58,6
1.68746,-9.53116,2.23466,18,14
1.40006,-7.91592,-0.140317,100,7
1.3393,-7.64235,0.135431,79,8
1.32847,-7.59613,0.404138,60,9
0.100112,-0.572435,-0.112959,16,2
1.41855,-8.11953,0.721127,80,10
0.110038,-0.630492,-0.10137,14,3
1.50838,-8.65154,1.0783,22,11
1.3008,-7.46864,-0.930838,25,4
1.42587,-8.19519,1.31749,67,12
1.23153,-7.07822,-0.628567,13,5
1.3498,-7.76604,1.5322,61,13
2.46822,-14.2155,-0.75615,16,6
1.65219,-9.52548,2.23196,39,14
1.35945,-7.84588,-0.138991,55,7
1.39141,-8.03868,2.18599,21,15
1.30382,-7.59574,0.134523,15,8
1.96556,-11.4749,0.610133,21,9
1.39557,-8.15586,0.723916,76,10
0.109168,-0.638661,-0.102621,14,3
1.48318,-8.6861,1.08196,27,11
1.28073,-7.50835,-0.935225,81,4
1.40223,-8.22933,1.32218,12,12
1.20949,-7.09819,-0.629962,18,5
1.35201,-7.94295,1.56616,48,13
1.48048,-8.70691,-0.462859,18,6
1.34978,-7.95507,-0.140841,100,7
1.80466,-10.6472,2.8936,32,15
1.26649,-7.55203,0.401312,36,9
0.0961131,-0.57312,-0.112959,16,2
3.22928,-19.2767,1.71,17,10
0.102374,-0.611762,-0.0982409,15,3
1.43322,-8.57375,1.06733,26,11
1.27511,-7.63613,-0.950581,41,4
1.19061,-7.13774,-0.633099,10,5
1.30491,-7.83143,1.54326,55,13
2.46927,-14.8353,-0.78818,19,6
1.62688,-9.78476,2.29,78,14
1.3148,-7.91633,-0.140073,88,7
1.63121,-9.83203,2.6705,21,15
1.2089,-7.35011,0.13002,88,8
1.89155,-11.5258,0.612121,78,9
0.0941119,-0.573452,-0.112959,16,2
3.1494,-19.2112,1.7032,70,10
0.107899,-0.658901,-0.10575,13,3
1.2783,-7.81467,0.972274,24,11
1.26285,-7.7287,-0.961549,6,4
1.69032,-10.3562,1.66196,38,12
1.20773,-7.39945,-0.655934,12,5
1.29589,-7.94832,1.5654,48,13
2.4043,-14.763,-0.783888,52,6
1.4034,-8.62669,2.01781,22,14
1.27818,-7.86561,-0.139096,100,7
1.31923,-8.12718,2.20617,17,15
1.16894,-7.26544,0.12845,82,8
1.83105,-11.4061,0.605422,102,9
3.12459,-19.4857,1.72656,42,10
0.0987252,-0.616363,-0.0988666,15,3
1.23157,-7.69756,0.957162,24,11
1.23336,-7.71738,-0.959599,16,4
1.18374,-7.4235,-0.657677,20,5
1.24928,-7.83453,1.54212,65,13
1.45897,-9.15981,-0.486096,21,6
2.39658,-15.0633,3.52138,11,14
1.25479,-7.8957,-0.139549,100,7
1.16377,-7.39788,0.130719,56,8
0.0900061,-0.574111,-0.112959,16,2
3.05685,-19.5206,1.72865,17,10
0.0976866,-0.624527,-0.100118,14,3
1.20746,-7.71946,0.959356,51,11
1.63199,-10.4575,1.67635,12,12
1.27259,-8.16385,-0.72287,13,5
1.20938,-7.76728,1.528,66,13
1.42324,-9.15128,-0.485364,29,6
1.33804,-8.61341,2.01241,13,14
1.21065,-7.79333,-0.137665,100,7
1.51927,-9.7913,2.65497,49,15
1.15213,-7.5029,0.132499,93,8
1.5171,-9.90272,0.525034,43,9
0.0880014,-0.574421,-0.112959,16,2
1.15787,-7.56668,0.669705,61,10
0.100281,-0.656107,-0.105124,13,3
1.19323,-7.81607,0.970811,31,11
1.22658,-8.04391,-0.999085,31,4
1.14808,-7.53795,-0.66709,23,5
1.18728,-7.80445,1.53449,58,13
1.39458,-9.17791,-0.486515,18,6
1.46938,-9.68155,2.26076,35,14
1.17608,-7.75817,-0.136966,100,7
1.12593,-7.50688,0.132499,48,8
1.7237,-11.5198,0.610447,57,9
0.0859958,-0.574725,-0.112959,16,2
1.1341,-7.58841,0.671273,43,10
0.0979905,-0.656453,-0.105124,13,3
1.15716,-7.76128,0.963499,51,11
1.19206,-8.00495,-0.993723,27,4
1.12207,-7.54394,1.20799,113,12
1.12909,-7.59118,-0.671448,10,5
1.16897,-7.86875,1.54632,39,13
1.33264,-8.98121,-0.475839,47,6
2.22408,-15.007,3.50249,20,14
1.1487,-7.76025,-0.136932,100,7
1.08842,-7.4336,0.131137,24,8
1.68578,-11.5274,0.610551,63,9
0.0839891,-0.575022,-0.112959,16,2
2.2523,-15.439,1.36503,33,10
0.0934199,-0.641153,-0.102621,14,3
1.64378,-11.2953,1.4015,16,11
1.13356,-7.79887,-0.967643,57,4
1.08085,-7.43619,1.19015,79,12
1.10516,-7.61282,-0.673017,25,5
1.15108,-7.93884,1.55929,22,13
1.28822,-8.9066,2.07765,16,14
1.12039,-7.7462,-0.136617,77,7
1.44676,-10.0151,2.71139,31,15
2.01339,-14.1115,0.747044,26,9
1.61139,-11.3222,1.00055,8,10
0.0896233,-0.629726,-0.100744,14,3
1.23449,-8.68482,1.07708,65,11
1.10379,-7.77507,-0.96423,51,4
1.0754,-7.58465,1.21331,51,12
1.07551,-7.59493,-0.671099,15,5
1.1982,-8.47195,-0.448415,25,6
2.19301,-15.5254,3.61991,26,14
1.11038,-7.87085,-0.138747,63,7
1.40048,-9.93972,2.68965,5,15
1.00824,-7.22892,0.127403,50,8
1.40574,-10.1047,0.534664,104,9
0.0800731,-0.57558,-0.112959,16,2
2.08958,-15.0395,1.32843,37,10
0.0890535,-0.641774,-0.102621,14,3
1.20525,-8.69695,1.07806,30,11
1.08753,-7.85753,-0.97398,15,4
1.11384,-8.05798,1.28839,56,12
1.0585,-7.65766,-0.676329,16,5
1.13729,-8.23821,1.61653,20,13
2.16087,-15.6932,3.65725,33,14
1.10823,-8.05892,-0.141993,88,7
1.36446,-9.93498,2.68706,5,15
0.954453,-7.02235,0.123703,88,8
2.05418,-15.1731,1.33958,74,10
0.0868129,-0.642081,-0.102621,14,3
1.13159,-8.38044,1.03833,9,11
1.03648,-7.68619,-0.952287,3,4
1.08465,-8.05399,1.28714,49,12
1.02219,-7.59022,-0.670053,37,5
1.13077,-8.40752,1.64897,63,13
2.08405,-15.5365,3.61901,26,14
1.06231,-7.92994,-0.139654,88,7
1.3354,-9.98181,2.69845,25,15
0.922587,-6.97014,0.122725,99,8
1.07691,-8.15794,0.431248,9,9
0.0760529,-0.576125,-0.112959,16,2
2.01474,-15.2829,1.34865,24,10
0.084571,-0.64238,-0.102621,14,3
1.09741,-8.34694,1.0337,26,11
1.02102,-7.77636,-0.963012,2,4
1.14256,-8.71387,1.39195,74,12
0.986625,-7.5246,-0.663952,13,5
1.10447,-8.43478,1.65355,39,13
1.11407,-8.51968,-0.450299,25,6
2.00634,-15.364,3.57717,27,14
1.04988,-8.0506,-0.141714,56,7
1.30679,-10.0343,2.71139,62,15
0.904127,-7.01893,0.123528,66,8
1.95454,-15.2365,1.34394,45,10
0.0873482,-0.681859,-0.108878,12,3
1.11538,-8.71894,1.07927,67,11
0.993864,-7.77987,-0.963012,2,4
1.11239,-8.71976,1.39227,70,12
0.954303,-7.48057,-0.659769,35,5
1.06659,-8.37237,1.64058,9,13
1.09567,-8.61267,-0.455009,50,6
1.14077,-8.97973,2.0898,35,14
0.976217,-7.69514,-0.135396,83,7
1.03309,-8.15485,2.20255,45,15
0.871667,-6.95855,0.122411,28,8
1.00854,-8.07409,0.426433,106,9
0.072029,-0.576642,-0.112959,16,2
0.0800843,-0.642955,-0.102621,14,3
1.08738,-8.74248,1.08171,45,11
0.962787,-7.75178,-0.959112,13,4
1.08559,-8.75299,1.39696,61,12
0.909737,-7.34561,-0.647567,32,5
1.36818,-11.0473,2.16377,4,13
1.02957,-8.32507,-0.439622,100,6
1.10536,-8.95078,2.08215,13,14
0.980676,-7.95254,-0.139864,88,7
1.01453,-8.23894,2.22429,51,15
0.826351,-6.78885,0.119374,66,8
0.069915,-0.576902,-0.112959,16,2
1.00531,-8.30743,0.732108,31,10
0.0805709,-0.666778,-0.106375,13,3
0.933108,-7.73341,-0.956431,1,4
1.07535,-8.92539,1.42387,58,12
0.93359,-7.76019,-0.683824,23,5
1.0804,-9.00699,-0.47542,36,6
0.917002,-7.65611,-0.134593,15,7
0.994716,-8.31724,2.24448,42,15
0.796073,-6.74616,0.118572,82,8
0.0679008,-0.577143,-0.112959,16,2
0.972354,-8.27725,0.729145,30,10
0.0773225,-0.659207,-0.105124,13,3
1.02179,-8.7244,1.07854,2,11
1.06431,-9.10117,-1.1251,4,4
1.30335,-11.1621,1.77991,39,12
0.932828,-8.00104,-0.704741,6,5
1.02585,-8.81231,-0.464953,100,6
1.15603,-9.94567,2.3116,35,14
0.993366,-8.55924,-0.150405,24,7
0.963557,-8.31507,2.24293,21,15
0.785027,-6.85817,0.120491,31,8
0.891731,-7.81449,0.412198,17,9
0.065785,-0.577388,-0.112959,16,2
0.931875,-8.19167,0.721301,75,10
0.0757976,-0.667337,-0.106375,13,3
0.990439,-8.72002,1.07757,27,11
1.4808,-13.0576,-1.61355,6,4
0.995896,-8.79546,1.40197,39,12
0.881841,-7.80033,-0.686787,17,5
1.01189,-8.97876,-0.473536,76,6
1.13744,-10.1086,2.34849,34,14
0.963482,-8.56265,-0.150405,100,7
0.937546,-8.34526,2.25017,44,15
0.756363,-6.8292,0.119933,61,8
0.909387,-8.25033,0.726182,28,10
0.0738998,-0.671525,-0.107001,13,3
1.24465,-11.3282,1.3993,35,11
1.4035,-12.7946,-1.5804,6,4
0.855552,-7.79941,1.24272,54,12
0.951564,-8.68866,-0.764704,11,5
0.967538,-8.86311,-0.467255,100,6
1.08483,-9.95368,2.3116,19,14
0.924704,-8.48446,-0.148974,73,7
0.917604,-8.43299,2.27295,17,15
0.740333,-6.8933,0.121015,48,8
1.18324,-11.0536,0.582604,53,9
0.0617525,-0.577833,-0.112959,16,2
0.895802,-8.3961,0.738732,20,10
0.0666429,-0.624625,-0.0994923,14,3
0.931219,-8.74252,1.07952,2,11
1.37156,-12.8979,-1.59259,8,4
0.827906,-7.79842,1.24209,10,12
0.854871,-8.06584,-0.709622,12,5
0.865637,-8.18104,-0.431144,79,6
1.14046,-10.7964,2.5064,39,14
0.835522,-7.92285,-0.139061,86,7
0.695193,-6.69297,0.117455,82,8
0.885118,-8.55051,0.450508,47,9
0.0598361,-0.578035,-0.112959,16,2
0.87246,-8.44262,0.742567,50,10
0.0664892,-0.644503,-0.102621,14,3
1.01255,-9.83177,1.21358,46,11
1.33038,-12.9401,-1.59722,6,4
1.43431,-13.9749,-1.22907,27,5
0.978307,-9.54836,1.86573,30,13
1.19881,-11.7207,-0.61746,30,6
0.81293,-7.97546,-0.139933,64,7
0.700576,-6.98187,0.122481,20,8
0.0528293,-0.527418,-0.122373,15,1
0.825061,-8.25147,0.434598,36,9
0.057818,-0.57824,-0.112959,16,2
0.0642391,-0.644731,-0.102621,14,3
0.979007,-9.84315,1.21455,27,11
0.0827645,-0.83361,-0.102858,5,4
0.769546,-7.7647,1.23583,103,12
0.81233,-8.19638,-0.720604,13,5
0.796528,-8.06564,-0.424759,29,6
0.818377,-8.31656,-0.145867,89,7
0.840199,-8.55364,2.30297,37,15
0.792993,-8.22051,0.432818,72,9
0.0557992,-0.578438,-0.112959,16,2
0.0650121,-0.676413,-0.107627,12,3
0.808718,-8.4297,1.03979,26,11
1.36869,-14.2928,-1.76296,5,4
0.85446,-8.93932,1.4223,71,12
0.783334,-8.1952,-0.720255,18,5
0.850091,-8.91002,1.7398,8,13
0.795952,-8.38904,-0.147089,100,7
0.896307,-9.46429,2.5473,45,15
0.735221,-7.88057,0.138153,35,8
0.767251,-8.25504,0.434493,56,9
0.0537797,-0.578629,-0.112959,16,2
0.790077,-8.51676,0.748319,50,10
0.0611935,-0.6609,-0.105124,13,3
0.780201,-8.44236,1.04101,26,11
0.078037,-0.846028,-0.10432,5,4
0.733067,-7.96265,1.26649,11,12
1.30615,-14.1876,-1.2465,12,5
0.729804,-7.95764,-0.418792,100,6
1.00346,-10.9626,2.5415,28,14
0.778854,-8.52519,-0.149428,100,7
0.790287,-8.66704,2.33196,83,15
0.706278,-7.86716,0.137874,6,8
0.73932,-8.26762,0.435017,69,9
0.0517596,-0.578814,-0.112959,16,2
0.759102,-8.50558,0.747099,20,10
0.0574841,-0.645369,-0.102621,14,3
1.3241,-14.895,1.83608,4,11
0.862053,-9.71658,-1.19773,1,4
0.695733,-7.87313,-0.691494,20,5
0.773004,-8.74755,1.70698,12,13
0.696758,-7.90045,-0.415652,100,6
0.970829,-11.0301,2.55634,100,14
0.737892,-8.40037,-0.147194,100,7
0.758174,-8.64857,2.32627,40,15
0.781407,-9.05898,0.158712,66,8
0.704302,-8.19851,0.431248,106,9
0.0496378,-0.578999,-0.112959,16,2
0.72979,-8.53014,0.749016,9,10
0.0551183,-0.645575,-0.102621,14,3
0.833375,-9.76092,1.20285,35,11
0.698536,-8.1985,-1.0103,5,4
0.670263,-7.88294,1.25304,77,12
0.669089,-7.88544,-0.692365,36,5
0.729012,-8.60947,1.6795,30,13
0.670824,-7.93877,-0.417536,83,6
0.9245,-10.9637,2.54015,24,14
0.708397,-8.4009,-0.147159,100,7
0.734622,-8.73009,2.34749,29,15
0.694721,-8.41408,0.147368,62,8
0.691105,-8.40606,0.44203,76,9
0.0476165,-0.579169,-0.112959,16,2
0.731452,-8.91588,0.782659,61,10
0.0518975,-0.633951,-0.100744,14,3
0.798238,-9.77182,1.20383,13,11
0.666547,-8.17727,-1.00737,4,4
0.641847,-7.89125,1.25398,40,12
0.645501,-7.95337,-0.698117,8,5
0.704036,-8.67458,1.69171,104,13
0.639562,-7.89727,-0.415234,79,6
0.677922,-8.40743,-0.147229,97,7
0.750338,-9.32582,2.50692,31,15
0.679372,-8.59388,0.150475,47,8
0.661287,-8.40245,0.441716,60,9
0.0454934,-0.57934,-0.112959,16,2
0.637607,-8.13788,0.714154,18,10
0.0492657,-0.630198,-0.100118,14,3
0.877374,-11.2232,1.38224,16,11
0.637227,-8.16965,-1.00615,1,4
0.884049,-11.3596,1.80463,15,12
0.618353,-7.96352,-0.698815,32,5
0.605071,-7.82788,-0.411465,50,6
0.846023,-10.97,2.54015,24,14
0.642421,-8.32999,-0.145832,23,7
0.716149,-9.3072,2.50123,28,15
0.598027,-7.89819,0.138258,16,8
0.0399275,-0.528551,-0.122373,15,1
0.623964,-8.27913,0.435121,63,9
0.0436731,-0.57948,-0.112959,16,2
0.841646,-11.1935,0.982071,17,10
0.0475811,-0.634289,-0.100744,14,3
0.82667,-11.0459,1.36006,34,11
0.0632599,-0.847261,-0.10432,5,4
0.790907,-10.6179,1.68636,30,12
0.640318,-8.61652,1.6795,37,13
0.574127,-7.74409,-0.406964,39,6
0.812705,-10.9882,2.54375,45,14
0.624947,-8.46968,-0.148241,89,7
0.0380823,-0.528688,-0.122373,15,1
0.614529,-8.55218,0.449357,82,9
0.0415488,-0.579636,-0.112959,16,2
0.0460993,-0.646282,-0.102621,14,3
0.784153,-10.9933,1.35324,43,11
0.0588929,-0.827676,-0.101883,5,4
0.748246,-10.5417,1.67385,35,12
0.562867,-7.94966,-0.697246,42,5
0.605413,-8.57181,1.67034,33,13
0.544335,-7.72622,-0.405918,39,6
0.77188,-10.9833,2.54195,46,14
0.621173,-8.83885,-0.154663,100,7
1.00876,-14.3898,3.8652,41,15
0.580455,-8.47084,0.148206,43,8
0.0361443,-0.528824,-0.122373,15,1
0.541772,-7.9266,0.416385,37,9
0.0395253,-0.579778,-0.112959,16,2
0.0433084,-0.638555,-0.10137,14,3
0.571826,-8.45306,1.04028,28,11
0.0551909,-0.817983,-0.100664,12,4
0.711975,-10.5522,1.6751,65,12
0.534042,-7.93567,-0.695851,36,5
0.581923,-8.71526,-0.152464,100,7
0.949538,-14.2583,3.82897,21,15
0.56368,-8.64633,0.151243,45,8
0.0343904,-0.528941,-0.122373,15,1
0.513194,-7.9145,0.415652,51,9
0.868863,-13.4724,1.18113,42,10
0.0406821,-0.63081,-0.100118,14,3
0.544937,-8.47273,1.04247,30,11
0.0515886,-0.804295,-0.0989579,13,4
0.678289,-10.6039,1.68292,58,12
0.50672,-7.94345,-0.696374,31,5
0.911131,-14.2831,2.782,10,13
0.557922,-8.77021,-0.460556,14,6
0.54973,-8.6893,-0.151976,100,7
0.593474,-9.4068,2.52556,26,15
0.490893,-7.95766,0.139165,85,8
0.0325439,-0.529057,-0.122373,15,1
0.517602,-8.43854,0.443076,24,9
0.035578,-0.580033,-0.112959,16,2
0.822113,-13.4414,1.17817,27,10
0.040404,-0.662496,-0.105124,13,3
0.519456,-8.54195,1.05076,23,11
0.049021,-0.808433,-0.0994454,6,4
0.526583,-8.70934,1.38194,71,12
0.480427,-7.96904,-0.698466,31,5
0.581031,-9.63779,1.8768,20,13
0.551244,-9.19714,2.12714,59,14
0.504125,-8.43566,-0.147508,89,7
0.560635,-9.40882,2.52556,19,15
0.477401,-8.20487,0.143459,75,8
0.0334518,-0.58016,-0.112959,16,2
0.482642,-8.39602,0.735769,16,10
0.0363931,-0.635029,-0.100744,14,3
0.495541,-8.64677,1.06343,16,11
0.0469914,-0.822472,-0.101152,12,4
0.651536,-11.4386,1.81464,16,12
0.458707,-8.07808,-0.707879,6,5
0.547368,-9.66925,1.88252,26,13
0.509667,-9.03122,-0.474059,50,6
0.518188,-9.21077,2.12984,16,14
0.468724,-8.33155,-0.145658,100,7
0.535685,-9.55152,2.56334,37,15
0.446998,-8.20058,0.143354,80,8
0.0287573,-0.529277,-0.122373,15,1
0.451804,-8.34231,0.437843,39,9
0.0314265,-0.580273,-0.112959,16,2
0.451935,-8.37179,0.733503,18,10
0.0341763,-0.635153,-0.100744,14,3
0.427486,-7.9706,0.980073,13,11
0.042811,-0.800834,-0.0984704,6,4
0.517672,-9.74756,1.8974,42,13
0.487957,-9.21843,-0.483794,47,6
0.540037,-10.2361,2.36649,33,14
0.441649,-8.39912,-0.14681,26,7
0.532219,-10.1553,2.72485,24,15
0.411647,-8.07028,0.14105,61,8
0.0269096,-0.529374,-0.122373,15,1
0.420761,-8.30594,0.435854,127,9
0.419446,-8.33757,0.730365,84,10
0.0310569,-0.61949,-0.0982409,15,3
0.428486,-8.547,1.05076,26,11
0.0412038,-0.82477,-0.101395,12,4
0.401025,-8.05549,1.27744,23,12
0.423497,-8.53685,-0.747796,23,5
0.431442,-8.72779,1.69858,19,13
0.412897,-8.38232,-0.439831,14,6
0.502325,-10.2342,2.36559,61,14
0.413211,-8.41858,-0.147124,100,7
0.466663,-9.5416,2.55972,35,15
0.381308,-8.05575,0.140771,56,8
0.388379,-8.23553,0.432086,60,9
0.387265,-8.2733,0.724613,80,10
0.0287102,-0.615649,-0.0976151,15,3
0.0391537,-0.842755,-0.103589,11,4
0.374457,-8.09038,1.28276,49,12
0.380939,-8.26163,-0.723567,32,5
0.401153,-8.73316,1.69934,13,13
0.37131,-8.11436,-0.425701,87,6
0.490833,-10.7263,2.47896,22,14
0.386554,-8.4799,-0.148171,24,7
0.41714,-9.18615,2.46396,8,15
0.358901,-8.15486,0.142481,77,8
0.0232132,-0.529549,-0.122373,15,1
0.392117,-8.94512,0.469244,21,9
0.0254338,-0.582532,-0.113341,16,2
0.357664,-8.22478,0.720255,35,10
0.0270104,-0.623634,-0.0988666,15,3
0.0341345,-0.791316,-0.0972517,21,4
0.344744,-8.02448,1.27213,67,12
0.332248,-7.76521,-0.679989,10,5
0.439558,-10.3154,2.00693,33,13
0.359896,-8.48072,-0.444856,100,6
0.429233,-10.1146,2.33724,66,14
0.358346,-8.47914,-0.148136,100,7
0.33893,-8.32984,0.145518,51,8
0.0235021,-0.582613,-0.113341,16,2
0.347179,-8.64399,0.75686,50,10
0.0254158,-0.635563,-0.100744,14,3
0.33137,-8.32285,1.02273,63,11
0.0309004,-0.779529,-0.0957893,29,4
0.323742,-8.20328,1.30028,54,12
0.311917,-7.90363,-0.692017,23,5
0.402727,-10.2501,1.99395,73,13
0.333567,-8.52777,-0.447263,100,6
0.394835,-10.1394,2.34264,100,14
0.340908,-8.79405,-0.153616,100,7
0.352741,-9.14051,2.45102,42,15
0.310818,-8.35695,0.145972,70,8
0.0196082,-0.529695,-0.122373,15,1
0.303407,-8.2351,0.431876,45,9
0.0214682,-0.582691,-0.113341,16,2
0.0229089,-0.627752,-0.0994923,14,3
0.303181,-8.34776,1.02565,47,11
0.0290395,-0.803438,-0.0987142,26,4
0.295531,-8.2162,1.30216,119,12
0.283466,-7.88078,-0.689925,36,5
0.366525,-10.2397,1.99166,33,13
0.30394,-8.53287,-0.447472,29,6
0.307954,-8.73124,-0.152499,100,7
0.333232,-9.495,2.54574,28,15
0.282519,-8.38396,0.146426,83,8
0.274926,-8.2441,0.432295,78,9
0.0194341,-0.582763,-0.113341,16,2
0.315625,-9.5144,0.83286,14,10
0.0205872,-0.623879,-0.0988666,15,3
0.294229,-8.96382,1.10121,17,11
0.0262996,-0.805518,-0.0989579,13,4
0.269286,-8.29221,1.31405,26,12
0.252399,-7.7722,-0.680338,28,5
0.293199,-9.12676,-0.47856,72,6
0.317629,-9.9413,2.2963,45,14
0.274806,-8.64832,-0.151033,66,7
0.299111,-9.46521,2.53746,9,15
0.257961,-8.5408,0.149148,100,8
0.0159098,-0.529819,-0.122373,15,1
0.247815,-8.3009,0.435226,30,9
0.0173997,-0.582827,-0.113341,16,2
0.262907,-8.85825,0.775338,61,10
0.0184094,-0.623948,-0.0988666,30,3
0.263402,-8.98067,1.10316,25,11
0.0247603,-0.849259,-0.10432,5,4
0.238451,-8.22794,1.30373,48,12
0.230924,-7.96821,-0.69742,47,5
0.226741,-7.87135,1.53067,3,13
0.264425,-9.23554,-0.484212,58,6
0.282981,-9.94429,2.29675,27,14
0.238285,-8.42535,-0.147124,100,7
0.228147,-8.54165,0.149148,58,8
0.0140603,-0.529871,-0.122373,15,1
0.221417,-8.39955,0.440355,112,9
0.0153652,-0.582884,-0.113341,16,2
0.231098,-8.82525,0.772374,46,10
0.016334,-0.627957,-0.0994923,14,3
0.231694,-8.96764,1.10146,12,11
0.0199625,-0.7779,-0.0955456,7,4
0.361576,-14.1865,2.24765,43,12
0.206406,-8.15423,-0.713631,22,5
0.213614,-8.49765,-0.445484,65,6
0.247634,-9.9199,2.2909,24,14
0.348568,-14.0615,-0.24552,96,7
0.240249,-9.76062,2.61614,49,15
0.196287,-8.45443,0.147612,66,8
0.190544,-8.33238,0.436796,58,9
0.0132287,-0.582936,-0.113341,16,2
0.0140322,-0.628013,-0.0994923,14,3
0.772952,-34.5935,4.24861,13,11
0.016631,-0.750181,-0.0921332,8,4
0.217448,-9.88634,1.56622,49,12
0.179157,-8.21067,-0.718512,43,5
0.180267,-8.32814,1.61921,34,13
0.179295,-8.35061,-0.437738,87,6
0.210984,-9.9071,2.28775,17,14
0.297353,-13.9627,-0.243775,97,7
0.20634,-9.76913,2.61821,42,15
0.167058,-8.54507,0.149183,63,8
0.0102682,-0.529958,-0.122373,15,1
0.165102,-8.59861,0.450717,17,9
0.0111938,-0.582979,-0.113341,16,2
0.393681,-20.6912,1.81057,58,10
0.0116911,-0.620158,-0.0982409,15,3
0.174079,-9.32037,1.1446,21,11
0.0141751,-0.766115,-0.0940831,7,4
0.180414,-9.84363,1.55934,82,12
0.148521,-8.1814,-0.715897,32,5
0.149235,-8.22076,1.59822,38,13
0.149318,-8.30526,-0.435331,65,6
0.147261,-8.27109,1.90983,37,14
0.198732,-11.2725,-0.196793,65,7
0.165543,-9.48395,2.5416,11,15
0.137229,-8.5456,0.149183,55,8
0.00841832,-0.52999,-0.122373,15,1
0.139698,-8.8927,0.466104,37,9
0.00905695,-0.583016,-0.113341,16,2
0.316923,-20.6327,1.80534,19,10
0.00923805,-0.608346,-0.0963636,15,3
0.142206,-9.36459,1.14996,47,11
0.0114412,-0.76219,-0.0935957,7,4
0.145759,-9.82444,1.55621,61,12
0.119465,-8.148,-0.712934,43,5
0.160483,-11.0775,2.15347,26,13
0.119478,-8.34769,-0.437529,29,6
0.139259,-9.8499,2.27426,53,14
0.16023,-11.3331,-0.19784,22,7
0.132842,-9.51344,2.54937,26,15
0.107319,-8.66002,0.151173,31,8
0.00647574,-0.530018,-0.122373,15,1
0.108802,-8.90511,0.466732,30,9
0.00702185,-0.583044,-0.113341,16,2
0.110897,-9.34365,0.817521,100,10
0.00711453,-0.608374,-0.0963636,15,3
0.107815,-9.35909,1.14923,44,11
0.00821967,-0.724512,-0.0889646,17,4
0.0924462,-8.27587,-0.72409,18,5
0.121599,-11.0583,2.14965,20,13
0.0901222,-8.32808,-0.436482,68,6
0.105394,-9.89904,2.2855,17,14
0.0903949,-8.49023,-0.148206,73,7
0.0999958,-9.54862,2.55869,72,15
0.0787652,-8.67832,0.151487,65,8
0.00471808,-0.530036,-0.122373,15,1
0.0774031,-8.86949,0.464848,6,9
0.00498658,-0.583065,-0.113341,16,2
0.0788998,-9.41769,0.82397,66,10
0.005428,-0.647901,-0.102621,14,3
0.076501,-9.32565,1.14508,13,11
0.00611983,-0.762251,-0.0935957,23,4
0.0634511,-8.2622,-0.72287,13,5
0.07858,-10.2322,1.98899,6,13
0.0606443,-8.47449,-0.147927,89,7
0.065829,-9.42914,2.52659,38,15
0.0485486,-8.69254,0.151731,71,8
0.00286793,-0.53005,-0.122373,15,1
0.00305302,-0.583079,-0.113341,16,2
0.0476587,-9.41591,0.823796,50,10
0.00326289,-0.667669,-0.10575,13,3
0.0456596,-9.68913,1.18969,16,11
0.0035582,-0.784103,-0.0962768,14,4
0.155733,-35.6908,5.65292,10,12
0.0346267,-8.26635,-0.723218,16,5
0.0323111,-8.04889,-0.421828,18,6
0.0412194,-11.2462,-0.196305,37,7
0.0314792,-9.01783,2.41633,27,15
0.0179677,-8.57868,0.149742,37,8
0.00101762,-0.530056,-0.122373,15,1
0.000915968,-0.583086,-0.113341,16,2
0.013136,-9.40805,0.823099,40,10
0.000791589,-0.647923,-0.102621,14,3
0.0114011,-9.33191,1.14582,28,11
0.000898147,-0.857559,-0.105295,15,4
0.0310679,-35.6002,5.63852,20,12
0.00579358,-8.2983,-0.726007,26,5
0.00281912,-8.07492,-0.423189,54,6
0.00172062,-9.85478,2.27515,63,14
0.00148141,-8.48471,-0.148101,40,7
-0.0133996,-8.53069,0.148904,13,8
-0.000925092,-0.530057,-0.122373,15,1
-0.0166535,-8.67408,0.45459,17,9
-0.00111947,-0.583085,-0.113341,16,2
-0.0638671,-30.4954,2.66801,31,10
-0.00147003,-0.647922,-0.102621,14,3
-0.0748727,-30.6418,3.76235,36,11
-0.00232304,-0.887333,-0.108951,17,4
-0.100166,-35.8707,5.68139,10,12
-0.0247514,-8.3421,-0.729842,21,5
-0.0276894,-8.81386,-0.461917,76,6
-0.0326793,-9.85472,2.27515,37,14
-0.0294073,-8.42467,-0.147054,65,7
-0.0332641,-9.07578,2.43186,41,15
-0.0432179,-8.53859,0.149044,25,8
-0.0482923,-8.92562,0.467779,44,9
-0.00325652,-0.583077,-0.113341,16,2
-0.174801,-30.3496,2.65529,39,10
-0.00384478,-0.647912,-0.102621,14,3
-0.181382,-30.5659,3.75309,49,11
-0.00551743,-0.9032,-0.110901,15,4
-0.217253,-34.5763,5.47646,14,12
-0.0664316,-10.0163,1.94702,29,13
-0.068853,-9.86233,2.27695,19,14
-0.100221,-14.3555,-0.250582,94,7
-0.0653592,-9.13356,2.44739,56,15
-0.0896121,-10.924,0.190685,13,8
-0.089878,-10.5092,0.550784,60,9
-0.00498656,-0.583065,-0.113341,16,2
-0.0805349,-9.2284,0.807411,15,10
-0.00576712,-0.647898,-0.102621,14,3
-0.277336,-30.5573,3.75211,61,11
-0.00837319,-0.905163,-0.111145,11,4
-0.334219,-35.4604,5.61662,20,12
-0.0780115,-8.12658,-0.711016,10,5
-0.0959989,-10.0004,1.94396,8,13
-0.106975,-10.7526,2.48256,67,14
-0.148537,-14.673,-0.256132,22,7
-0.0934952,-9.07922,2.4329,83,15
-0.127392,-10.8936,0.190161,41,8
-0.1078,-8.95107,0.46914,69,9
-0.00712351,-0.583043,-0.113341,16,2
-0.114778,-9.26191,0.810374,37,10
-0.443094,-35.2584,4.32953,28,11
-0.0119879,-0.940857,-0.115532,10,4
-0.453962,-35.1469,5.56719,19,12
-0.132287,-9.97246,1.93862,22,13
-0.117587,-8.7492,-0.458568,65,6
-0.144659,-10.6255,2.45332,63,14
-0.201416,-14.7944,-0.258261,25,7
-0.12375,-8.97453,2.40495,50,15
-0.167502,-10.9051,0.190371,10,8
-0.00823325,-0.529993,-0.122373,15,1
-0.00915875,-0.583015,-0.113341,16,2
-0.150176,-9.45469,0.827282,10,10
-0.0104032,-0.64784,-0.102621,14,3
-0.574511,-35.3915,4.34611,14,11
-0.016055,-0.978519,-0.120163,6,4
-0.591983,-35.7,5.65511,10,12
-0.167623,-10.0033,1.94473,43,13
-0.146471,-8.65089,-0.453439,58,6
-0.180315,-10.5411,2.43397,22,14
-0.254602,-14.7336,-0.257214,42,7
-0.157383,-9.01651,2.41633,18,15
-0.378529,-20.0794,0.350549,36,8
-0.0100832,-0.529961,-0.122373,15,1
-0.0102138,-0.531944,-0.103418,18,2
-0.198425,-10.241,0.896135,22,10
-0.185991,-9.42934,1.158,5,11
-0.0197472,-0.99235,-0.121869,5,4
-0.719253,-35.8301,5.67607,20,12
-0.181806,-8.90192,-0.466627,39,6
-0.211732,-10.2794,2.37368,49,14
-0.308106,-14.8325,-0.258959,100,7
-0.449737,-20.1279,0.351422,18,8
-0.0110557,-0.490958,-0.113375,16,1
-0.241242,-10.6307,0.557273,25,9
-0.0132286,-0.582936,-0.113341,16,2
-0.235491,-10.298,0.90119,6,10
-0.452139,-19.4745,2.39181,25,11
-0.193161,-8.25771,-1.0142,5,4
-0.8405,-35.6654,5.65041,15,12
-0.202203,-8.51706,-0.745356,28,5
-0.206479,-8.63368,-0.452601,83,6
-0.239305,-9.93374,2.29405,17,14
-0.357165,-14.7194,-0.257004,93,7
-0.216739,-8.86841,2.37699,50,15
-0.512141,-19.8224,0.346116,23,8
-0.269305,-10.2844,0.539165,13,9
-0.0153651,-0.582884,-0.113341,16,2
-0.528763,-19.9268,1.74399,39,10
-0.25224,-9.44369,1.15995,31,11
-0.222038,-8.25897,-1.01444,4,4
-0.96638,-35.7136,5.65855,30,12
-0.228568,-8.39282,-0.734549,21,5
-0.274112,-10.001,1.94473,45,13
-0.240324,-8.71272,-0.456788,100,6
-0.289014,-10.412,2.40473,19,14
-0.546202,-19.6774,-0.343603,79,7
-0.249745,-8.94099,2.39666,56,15
-0.574116,-19.4586,0.339798,23,8
-0.0145685,-0.490866,-0.113375,16,1
-0.30615,-10.3153,0.54084,12,9
-0.261155,-8.69684,0.761218,16,10
-0.594738,-19.5779,2.40497,30,11
-0.0320083,-1.04764,-0.128694,1,4
-1.09767,-35.9272,5.69296,10,12
-0.258964,-8.42782,-0.737686,11,5
-0.309263,-10.0078,1.94625,16,13
-0.26993,-8.68588,-0.455428,76,6
-0.325967,-10.4304,2.40923,71,14
-0.610953,-19.5495,-0.341404,58,7
-0.281377,-8.95358,2.40029,78,15
-0.644742,-19.6424,0.343044,23,8
-0.646966,-19.5025,1.02264,12,9
-0.019434,-0.582763,-0.113341,16,2
-0.292912,-8.7377,0.764879,84,10
-0.661062,-19.6175,2.41009,51,11
-0.0353477,-1.04356,-0.128207,5,4
-1.18059,-34.6754,5.49523,14,12
-0.342852,-10.0185,1.94854,8,13
-0.288639,-8.39151,-0.440041,29,6
-0.685785,-19.7371,-0.34472,50,7
-0.718309,-19.7779,0.345453,10,8
-0.717086,-19.556,1.02558,19,9
-0.0213664,-0.582695,-0.113341,16,2
-0.319025,-8.65903,0.758081,24,10
-0.733666,-19.7261,2.42374,41,11
-0.0393609,-1.05335,-0.129425,21,4
-1.30637,-34.7974,5.51525,19,12
-0.337516,-8.90738,-0.467151,36,6
-0.396586,-10.4182,2.40698,8,14
-0.754292,-19.7246,-0.344545,79,7
-0.342914,-8.9263,2.39356,9,15
-0.786868,-19.7633,0.345244,2,8
-0.0211797,-0.529634,-0.122373,15,1
