x, y, z, intensity, ring
-5.7532,14.1119,-1.87118,78,4
-9.72997,23.8783,4.08388,13,12
-5.97006,14.6584,-1.38473,31,5
-7.79516,19.1492,4.01882,44,13
-6.00511,14.7592,-0.835073,13,6
-9.40356,23.1119,5.76055,42,14
-6.9658,17.129,-0.322765,82,7
-9.21587,22.6732,6.55796,18,15
-9.06476,22.391,0.42165,22,8
-0.232444,0.574454,-0.143069,12,1
-8.90438,22.017,1.24465,22,9
-3.8085,9.41689,-1.97449,59,2
-9.13718,22.604,2.13305,26,10
-5.38046,13.3171,-2.27487,56,3
-9.07282,22.4673,2.97507,56,11
-5.65116,14.0012,-1.85388,20,4
-5.94568,14.7457,-1.39101,21,5
-7.75438,19.2314,4.03065,12,13
-6.17712,15.3274,-0.866055,42,6
-7.65835,19.0124,4.73207,20,14
-6.88357,17.0975,-0.321718,60,7
-9.16262,22.7698,6.57659,7,15
-8.86677,22.1237,0.41603,13,8
-0.230438,0.575262,-0.143069,12,1
-8.79554,21.9682,1.24015,20,9
-4.43334,11.0785,-2.31947,42,2
-8.99804,22.4967,2.1198,69,10
-5.21502,13.0451,-2.22512,75,3
-7.79174,19.4906,2.57729,66,11
-5.93075,14.843,-1.96258,11,4
-7.72339,19.3392,3.29826,29,12
-5.62679,14.0965,-1.3279,13,5
-9.47276,23.7437,4.96905,13,13
-5.91968,14.8453,-0.837585,35,6
-13.393,33.6039,8.35153,12,14
-8.10465,20.3351,-0.382103,100,7
-6.03609,15.1526,4.37042,13,15
-8.964,22.6059,0.424477,22,8
-0.22402,0.565232,-0.140369,13,1
-8.71807,21.9969,1.24005,22,9
-4.54865,11.4827,-2.40076,44,2
-8.91432,22.515,2.11858,53,10
-5.19563,13.1293,-2.23639,70,3
-7.71661,19.5098,2.57607,84,11
-6.17334,15.6159,-2.06179,56,4
-9.247,23.391,3.98376,15,12
-5.62587,14.2384,-1.33941,39,5
-9.30617,23.5648,4.92478,22,13
-5.84876,14.8176,-0.834863,84,6
-11.4133,28.93,7.17999,10,14
-6.65469,16.868,-0.316517,67,7
-5.96049,15.1161,4.35385,33,15
-8.96135,22.8198,0.427933,57,8
-0.222144,0.565972,-0.140369,13,1
-8.88704,22.6538,1.27532,62,9
-3.67004,9.36003,-1.95427,49,2
-7.70378,19.6577,1.84718,80,10
-5.18378,13.2274,-2.25015,42,3
-6.10921,15.6049,-2.05764,24,4
-9.07748,23.1987,3.94559,12,12
-8.97484,22.9482,4.78969,12,13
-5.80032,14.8388,-0.834968,52,6
-6.01572,15.3977,3.81652,20,14
-7.63517,19.553,-0.366396,82,7
-5.91471,15.1548,4.35903,18,15
-8.88164,22.8509,0.427933,27,8
-0.214522,0.552212,-0.13677,13,1
-7.70605,19.8366,1.11528,34,9
-5.01328,12.9116,-2.69232,30,2
-7.64359,19.6961,1.8484,44,10
-4.43251,11.4277,-1.94135,15,3
-8.88165,22.9101,3.017,50,11
-5.78118,14.9125,-1.9638,22,4
-8.7871,22.678,3.85204,26,12
-5.68712,14.6851,-1.37776,13,5
-17.4294,45.0288,9.38551,10,13
-6.57145,16.9862,-0.954503,31,6
-5.96884,15.4285,3.81922,42,14
-7.60852,19.677,-0.368246,100,7
-8.74477,22.7216,0.424966,68,8
-0.222484,0.578384,-0.143069,12,1
-7.62876,19.8322,1.1136,34,9
-3.75654,9.77082,-2.03479,23,2
-8.51944,22.1708,2.07797,66,10
-5.07662,13.2181,-2.24264,13,3
-8.64414,22.5188,2.96167,65,11
-5.70039,14.85,-1.95308,56,4
-8.7161,22.718,3.85392,26,12
-5.63911,14.7057,-1.37793,21,5
-8.54342,22.3029,-1.25167,33,6
-8.66292,22.6266,-0.422907,52,7
-8.81672,23.0404,6.61024,3,15
-7.60412,19.955,0.372749,92,8
-0.217791,0.571834,-0.141269,13,1
-8.32331,21.8653,1.22613,14,9
-3.30016,8.66949,-1.80315,16,2
-8.42603,22.1467,2.07309,56,10
-5.33467,14.0289,-2.37718,42,3
-8.61597,22.6698,2.97776,65,11
-5.62174,14.7993,-1.94382,6,4
-6.48687,17.0948,-1.59966,27,5
-5.95877,15.7031,3.26474,48,13
-8.62098,22.7307,-1.27407,28,6
-11.612,30.6333,7.5633,11,14
-7.62814,20.1341,-0.37582,100,7
-9.09678,24.0232,6.88303,16,15
-7.53654,19.987,0.372853,42,8
-0.218542,0.579885,-0.143069,12,1
-8.26665,21.9465,1.22906,22,9
-3.26836,8.68153,-1.80315,28,2
-8.14273,21.6404,2.02288,68,10
-5.17196,13.7525,-2.32712,39,3
-6.01425,15.9922,2.09786,58,11
-6.13159,16.3128,-2.13978,33,4
-5.95356,15.8476,2.68129,100,12
-6.41315,17.08,-1.59617,37,5
-7.36204,19.628,-1.09864,17,6
-14.3221,38.2045,9.4196,14,14
-7.53254,20.0932,-0.374564,40,7
-8.45706,22.5714,6.45857,7,15
-8.04803,21.5828,0.402069,18,8
-0.216415,0.580682,-0.143069,12,1
-8.21613,22.0572,1.23356,21,9
-4.5031,12.0891,-2.50761,30,2
-6.00882,16.14,1.50675,32,10
-5.12874,13.7834,-2.32931,74,3
-5.95075,16.0011,2.09615,36,11
-5.36354,14.4298,-1.89019,4,4
-9.47576,25.5068,-2.38057,14,5
-11.2879,30.4011,6.30357,10,13
-7.26985,19.5899,-1.09508,46,6
-11.1716,30.1199,7.41664,10,14
-7.48804,20.1995,-0.37603,100,7
-8.35682,22.5551,6.44511,38,15
-7.97194,21.6089,0.402034,28,8
-0.208994,0.566807,-0.13947,13,1
-8.16257,22.1494,1.23712,22,9
-3.18459,8.6415,-1.79017,26,2
-4.23782,11.5118,-1.94292,23,3
-7.95807,21.6294,2.82981,51,11
-5.63446,15.3223,-2.00451,54,4
-6.66834,18.1436,-1.69117,18,5
-8.51797,23.1887,4.8019,15,13
-7.41619,20.2001,-1.12774,81,6
-8.33554,22.7165,5.58643,6,14
-7.53453,20.5446,-0.381963,86,7
-8.28004,22.5896,6.44666,38,15
-7.88755,21.6122,0.40158,42,8
-0.203007,0.556548,-0.13677,13,1
-5.95782,16.3335,0.911169,9,9
-3.13692,8.60461,-1.78025,16,2
-5.89531,16.1797,1.50657,84,10
-7.99114,21.9555,2.8688,37,11
-5.33376,14.6544,-1.91481,53,4
-9.34067,25.6772,4.3276,6,12
-7.38515,20.3126,-1.89093,66,5
-12.7611,35.118,7.26295,7,13
-8.25617,22.733,5.58373,91,14
-7.82117,21.5469,-0.400114,100,7
-9.14194,25.1993,7.18275,4,15
-7.30633,20.2276,0.375401,2,8
-0.219688,0.608541,-0.149367,12,1
-3.07239,8.51524,-1.75964,23,2
-7.9943,22.1686,2.06176,35,10
-7.90955,21.9576,2.86564,75,11
-5.23199,14.5245,-1.89556,72,4
-8.31802,23.1042,3.88927,27,12
-6.03201,16.7637,-1.55869,42,5
-8.24368,22.9228,4.73512,81,13
-7.74534,21.5489,-1.20006,30,6
-8.17744,22.7511,5.58149,78,14
-7.80173,21.7177,-0.402802,75,7
-8.4584,23.5586,6.70704,23,15
-0.195175,0.545703,-0.155291,12,0
-5.89637,16.4951,0.305766,19,8
-0.203245,0.568893,-0.13947,13,1
-5.84583,16.3718,0.911064,46,9
-3.05734,8.56236,-1.76727,26,2
-8.33057,23.3434,2.16843,22,10
-4.1297,11.5783,-1.94698,30,3
-7.88402,22.1164,2.88294,45,11
-5.27187,14.797,-1.9287,23,4
-8.21347,23.0661,3.87801,27,12
-8.16056,22.9175,-2.12834,17,5
-8.14919,22.8982,4.72443,48,13
-7.716,21.693,-1.20666,25,6
-7.77675,21.888,-0.405454,100,7
-8.39421,23.6389,6.72153,15,15
-0.193269,0.546381,-0.155291,12,0
-5.82743,16.4836,0.305173,50,8
-0.206452,0.584299,-0.143069,12,1
-7.57698,21.4562,1.19253,24,9
-3.00717,8.5156,-1.75544,38,2
-7.76299,21.9952,2.04066,55,10
-4.80551,13.6232,-2.28801,52,3
-7.73218,21.9323,2.8554,45,11
-5.24196,14.877,-1.93675,21,4
-8.11453,23.0424,3.86925,55,12
-5.92438,16.8232,-1.56044,35,5
-8.08681,22.9765,4.73473,33,13
-7.86491,22.3585,-1.24214,43,6
-10.6664,30.3397,7.42473,10,14
-5.86604,16.6947,-0.308873,100,7
-7.86166,22.3867,6.35763,13,15
-0.191361,0.547052,-0.155291,12,0
-5.78834,16.5567,0.30615,73,8
-0.195412,0.55926,-0.13677,13,1
-7.49282,21.4561,1.19106,32,9
-3.35996,9.62145,-1.98098,42,2
-8.91653,25.5473,2.36732,32,10
-3.39815,9.74172,-1.63411,48,3
-7.62943,21.8842,2.84565,14,11
-5.14428,14.764,-1.91969,2,4
-8.03925,23.0856,3.87175,52,12
-5.85121,16.8024,-1.5566,26,5
-8.6409,24.8273,5.10987,21,13
-7.71595,22.1821,-1.23084,59,6
-10.6641,30.6749,7.49762,11,14
-8.11555,23.3703,6.62887,7,15
-0.173031,0.500248,-0.141833,14,0
-7.64742,22.1219,0.408561,34,8
-0.197277,0.57099,-0.13947,13,1
-7.4107,21.4614,1.18991,29,9
-3.32892,9.64054,-1.98251,68,2
-7.43895,21.5554,1.99499,57,10
-3.97988,11.5388,-1.93322,46,3
-7.9431,23.0423,2.99262,90,11
-8.58629,24.9364,4.17711,13,12
-7.4959,21.7697,-2.01434,21,5
-8.39256,24.3876,5.01332,16,13
-5.79495,16.8488,-0.933778,14,6
-10.5057,30.5627,7.46118,44,14
-5.74285,16.7163,-0.308524,49,7
-8.04018,23.4168,6.63405,15,15
-0.187537,0.548374,-0.155291,12,0
-7.6426,22.3604,0.41247,28,8
-0.190243,0.556923,-0.13587,13,1
-7.38146,21.6087,1.19671,19,9
-3.36058,9.84347,-2.02181,47,2
-7.40935,21.7151,2.00737,80,10
-3.2663,9.57824,-1.60283,85,3
-7.91002,23.2089,3.01066,41,11
-7.91568,23.2388,3.88834,10,12
-7.4128,21.775,-2.01243,32,5
-8.71969,25.6286,5.26213,18,13
-5.72516,16.8368,-0.931999,70,6
-10.4626,30.7689,7.50302,11,14
-7.52056,22.1294,-0.407967,100,7
-7.63507,22.4793,6.36125,16,15
-0.154764,0.457494,-0.12941,15,0
-7.45505,22.0503,0.406292,31,8
-0.200872,0.594474,-0.144868,25,1
-3.29337,9.75226,-2.00082,64,2
-7.85848,23.2837,2.14996,100,10
-3.24841,9.6302,-1.60971,68,3
-8.69671,25.7971,3.34263,20,11
-5.33002,15.8104,-2.04862,65,4
-10.3861,30.8259,5.15201,8,12
-5.55834,16.5068,-1.52383,28,5
-8.1124,24.1055,4.94386,13,13
-5.67758,16.8803,-0.93336,100,6
-10.199,30.3232,7.38604,10,14
-8.77943,26.1177,-0.480953,80,7
-7.86071,23.3981,6.61386,15,15
-0.167958,0.501974,-0.141833,14,0
-7.30768,21.853,0.402208,49,8
-0.191487,0.572958,-0.13947,13,1
-7.32342,21.9255,1.21147,5,9
-3.20442,9.59368,-1.9661,38,2
-7.7011,23.0697,2.12782,43,10
-3.21958,9.65029,-1.61128,56,3
-9.77213,29.3078,3.79331,24,11
-5.25723,15.7762,-2.0418,11,4
-9.61487,28.8697,4.81943,14,12
-5.64712,16.9561,-1.56357,35,5
-7.99398,24.0168,4.9202,16,13
-7.09868,21.3394,-1.17861,48,6
-13.1794,39.6417,9.64455,15,14
-7.35525,22.1365,-0.407165,100,7
-7.90015,23.7903,6.71687,3,15
-0.163779,0.49522,-0.139762,14,0
-7.16797,21.6866,0.398683,39,8
-0.185818,0.562521,-0.13677,13,1
-7.27753,22.0439,1.2166,42,9
-3.17091,9.6048,-1.9661,71,2
-7.52127,22.7956,2.1001,31,10
-3.18587,9.66147,-1.61128,40,3
-7.3379,22.266,2.87855,38,11
-5.19095,15.7605,-2.03741,11,4
-9.32071,28.3158,4.72151,17,12
-5.60658,17.0325,-1.5688,37,5
-7.90027,24.0147,4.9141,34,13
-7.04162,21.4172,-1.18154,48,6
-7.54459,22.9605,5.57969,6,14
-7.18746,21.8865,-0.402103,100,7
-7.84295,23.8966,6.73913,11,15
-0.162049,0.495789,-0.139762,14,0
-7.15369,21.8997,0.402138,31,8
-0.189901,0.581691,-0.141269,13,1
-7.23894,22.1869,1.22309,21,9
-3.09717,9.49263,-1.94091,90,2
-7.56641,23.2043,2.13532,10,10
-3.15274,9.67441,-1.61159,81,3
-7.17162,22.0196,2.84346,51,11
-5.2465,16.1183,-2.08128,22,4
-9.18821,28.2449,4.7043,14,12
-5.31905,16.3509,-1.50431,28,5
-7.77452,23.9133,4.88776,28,13
-7.01495,21.5898,-1.1897,65,6
-7.48246,23.0423,5.59318,32,14
-6.97275,21.4854,-0.394285,97,7
-7.85009,24.2032,6.81781,12,15
-0.17813,0.551502,-0.155291,12,0
-7.14969,22.1491,0.406257,47,8
-0.192656,0.597187,-0.144868,12,1
-5.10158,15.8231,0.871289,25,9
-3.0339,9.40996,-1.92183,61,2
-7.38698,22.9253,2.10725,47,10
-4.46984,13.8803,-2.3096,13,3
-7.11904,22.1201,2.85321,52,11
-5.20357,16.1781,-2.08665,58,4
-9.03939,28.1207,4.67833,23,12
-5.26194,16.3694,-1.50431,28,5
-7.63456,23.7646,4.85189,34,13
-6.96579,21.6959,-1.1942,50,6
-7.51094,23.4078,5.67552,6,14
-7.02655,21.9114,-0.40165,100,7
-7.78088,24.2783,6.83127,20,15
-0.164457,0.515312,-0.144939,14,0
-7.06929,22.1644,0.406083,31,8
-0.188203,0.590429,-0.143069,12,1
-5.06147,15.8884,0.873906,11,9
-3.12677,9.81519,-2.00235,90,2
-7.31961,22.9908,2.11091,52,10
-3.91645,12.3089,-2.04585,1,3
-7.06644,22.2224,2.8632,60,11
-5.12062,16.1129,-2.07592,29,4
-11.0651,34.8394,5.78964,10,12
-5.58351,17.5802,-1.61378,14,5
-7.59194,23.9183,4.87784,25,13
-5.63328,17.7584,-0.97638,25,6
-9.76482,30.8013,7.45983,44,14
-5.07345,16.0129,-0.2932,77,7
-7.55555,23.8614,6.70652,15,15
-0.152201,0.482719,-0.135621,15,0
-7.02314,22.2881,0.407898,44,8
-0.1838,0.583648,-0.141269,13,1
-5.01797,15.9441,0.875999,9,9
-3.08482,9.8017,-1.99739,38,2
-6.91352,21.9804,2.01591,9,10
-3.88946,12.3734,-2.0543,26,3
-6.99538,22.2678,2.86588,45,11
-5.53106,17.6281,-1.61639,24,5
-9.54676,30.4451,6.20206,20,13
-5.56888,17.7703,-0.975961,39,6
-9.37709,29.9407,7.24342,10,14
-5.05098,16.1374,-0.295155,26,7
-7.46875,23.8766,6.70341,15,15
-0.157409,0.505381,-0.141833,14,0
-6.90608,22.1865,0.405594,42,8
-0.184076,0.591729,-0.143069,12,1
-4.9888,16.0369,0.880186,24,9
-2.98065,9.58744,-1.95159,28,2
-6.78945,21.8521,2.00197,52,10
-3.03318,9.76842,-1.62004,53,3
-5.14967,16.5949,2.13344,18,11
-4.9208,15.8574,-2.03863,69,4
-9.74697,31.4291,5.21177,8,12
-4.90267,15.8184,-1.44888,17,5
-6.82357,22.0298,4.48287,15,13
-5.00893,16.1812,-0.887723,81,6
-9.29332,30.0219,7.25557,10,14
-6.87797,22.2329,-0.406222,67,7
-7.80209,25.2356,7.07767,17,15
-0.155732,0.5059,-0.141833,14,0
-6.80482,22.1194,0.403953,28,8
-0.174096,0.566258,-0.13677,27,1
-4.9397,16.0667,0.880919,15,9
-2.96153,9.63856,-1.95999,19,2
-6.64794,21.6498,1.9814,60,10
-3.00424,9.78976,-1.62191,62,3
-6.75052,22.0112,2.82688,22,11
-4.88973,15.9438,-2.04765,51,4
-9.90377,32.3131,5.35288,9,12
-4.89045,15.966,-1.4609,31,5
-6.75738,22.0748,4.48745,23,13
-4.9827,16.2875,-0.892642,84,6
-9.21994,30.1382,7.27627,21,14
-6.80655,22.2632,-0.406362,100,7
-7.71667,25.2558,7.07611,17,15
-0.168672,0.554468,-0.155291,12,0
-5.71238,18.7899,0.3428,89,8
-0.180148,0.592937,-0.143069,12,1
-4.89801,16.1212,0.883012,9,9
-2.94095,9.6859,-1.96762,26,2
-6.58999,21.7175,1.98558,52,10
-2.97693,9.81668,-1.62473,21,3
-5.0654,16.7141,2.14441,50,11
-4.86972,16.0786,-2.06276,27,4
-6.75607,22.3068,3.69154,24,12
-4.83171,15.9631,-1.45916,31,5
-6.73017,22.2493,4.51836,13,13
-9.09778,30.1143,7.26277,10,14
-6.75351,22.3546,-0.407618,67,7
-8.94112,29.6144,8.28894,12,15
-0.166735,0.555053,-0.155291,12,0
-5.65752,18.8336,0.343254,82,8
-0.180422,0.600997,-0.144868,12,1
-4.83539,16.1172,0.881861,33,9
-2.89416,9.65285,-1.95885,61,2
-6.5862,21.9808,2.00755,57,10
-2.93415,9.79244,-1.6191,15,3
-6.69777,22.3674,2.86685,45,11
-3.87564,12.951,-1.65986,52,4
-6.61874,22.1315,3.65869,27,12
-4.78508,16.0104,-1.46195,23,5
-5.10134,17.0685,3.4628,15,13
-5.34785,17.9048,-0.979311,47,6
-7.38256,24.7327,5.95895,7,14
-4.87481,16.3418,-0.297668,31,7
-9.21576,30.9136,8.64352,6,15
-0.164893,0.555603,-0.155291,12,0
-6.59308,22.2293,0.404721,36,8
-0.178323,0.601623,-0.144868,12,1
-4.79101,16.1742,0.884059,30,9
-2.82867,9.54945,-1.93595,45,2
-6.55456,22.142,2.02027,53,10
-4.06553,13.7426,-2.26986,14,3
-6.57744,22.2478,2.84857,60,11
-4.58299,15.5117,-1.98598,13,4
-6.54648,22.1716,3.66151,22,12
-4.73027,16.0204,-1.46143,54,5
-5.10562,17.3028,3.50669,6,13
-4.84695,16.4367,-0.898085,57,6
-7.27359,24.6817,5.94051,37,14
-5.58096,18.9503,-0.344825,100,7
-9.10234,30.9271,8.63835,6,15
-0.162953,0.556175,-0.155291,12,0
-6.45419,22.043,0.400917,47,8
-0.171844,0.587279,-0.141269,13,1
-4.75302,16.2541,0.887513,24,9
-2.81075,9.61203,-1.94663,21,2
-4.93924,16.9018,1.54056,68,10
-6.532,22.3812,2.86271,60,11
-3.80847,13.0578,-1.6701,42,4
-3.83524,13.1581,-1.19909,27,5
-4.99633,17.1528,3.47272,48,13
-4.55007,15.6309,-0.853181,32,6
-10.8763,37.3879,8.98949,13,14
-4.5468,15.64,-0.2843,100,7
-8.02795,27.6324,7.71022,10,15
-0.161011,0.556741,-0.155291,12,0
-6.36555,22.0251,0.400184,31,8
-0.177363,0.614086,-0.147568,12,1
-4.69799,16.2659,0.887304,51,9
-2.85177,9.8802,-1.99892,33,2
-4.8907,16.9553,1.54388,48,10
-2.83363,9.83022,-1.62035,20,3
-6.42747,22.3123,2.85101,60,11
-3.76617,13.0825,-1.67156,50,4
-11.535,40.069,6.60404,21,12
-4.68497,16.2848,-1.48252,24,5
-6.92293,24.0796,4.87021,21,13
-5.11594,17.8062,-0.970937,39,6
-10.734,37.3844,8.9796,13,14
-4.51699,15.7319,-0.285696,100,7
-8.83834,30.8026,8.58658,6,15
-0.159066,0.557299,-0.155291,12,0
-6.29521,22.0557,0.400358,34,8
-0.172118,0.603427,-0.144868,12,1
-4.65213,16.3206,0.889397,32,9
-4.82221,16.9397,1.54091,55,10
-3.61174,12.6875,-2.08934,42,3
-6.37679,22.4156,2.86149,45,11
-3.88127,13.6524,-1.74273,33,4
-5.03191,17.7116,2.91625,1,12
-4.60415,16.2167,-1.47485,39,5
-6.83231,24.0647,4.86258,25,13
-4.49481,15.8421,-0.86302,19,6
-11.2499,39.6771,9.52128,14,14
-4.61251,16.2786,-0.29533,100,7
-7.78231,27.4838,7.6538,5,15
-0.157218,0.557824,-0.155291,12,0
-6.3006,22.3701,0.405664,34,8
-0.173179,0.615279,-0.147568,12,1
-4.58648,16.306,0.887723,45,9
-2.47986,8.81646,-1.78025,4,2
-4.7466,16.8866,1.53464,35,10
-2.78108,9.90063,-1.6288,46,3
-6.28295,22.3823,2.85442,60,11
-3.7537,13.3811,-1.70641,100,4
-4.95512,17.6758,2.90749,9,12
-6.71861,23.9825,4.84121,3,13
-4.45779,15.9231,-0.866579,35,6
-10.7827,38.5414,9.23964,13,14
-4.4512,15.921,-0.288558,30,7
-8.28207,29.643,8.24701,12,15
-4.48294,16.1322,0.292258,52,8
-0.173116,0.623391,-0.149367,12,1
-4.52206,16.295,0.886257,39,9
-2.45379,8.84209,-1.78368,9,2
-4.35112,15.6896,1.42447,46,10
-2.73911,9.88362,-1.62442,17,3
-6.67581,24.1048,3.07111,43,11
-4.90603,17.7386,2.915,17,12
-3.57591,12.9294,-1.17364,50,5
-8.48578,30.7027,6.19175,25,13
-4.38463,15.875,-0.863125,68,6
-9.53802,34.5569,8.2764,24,14
-4.39666,15.9402,-0.288628,38,7
-6.97116,25.2914,7.02953,4,15
-4.41444,16.1033,0.291455,71,8
-0.160641,0.586402,-0.140369,13,1
-4.45302,16.2663,0.88385,48,9
-2.43017,8.87711,-1.78903,4,2
-4.31263,15.7643,1.42988,68,10
-6.59685,24.1471,3.07355,17,11
-3.61471,13.2404,-1.68521,26,4
-11.0961,40.672,6.67725,22,12
-3.51031,12.8668,-1.16684,30,5
-4.74363,17.3994,3.50554,5,13
-4.36175,16.0097,-0.869614,16,6
-7.52016,27.6216,6.60906,9,14
-4.44862,16.3511,-0.295783,24,7
-6.89754,25.3696,7.04454,21,15
-0.151367,0.559439,-0.155291,12,0
-4.46103,16.4989,0.298331,38,8
-0.161644,0.598246,-0.143069,12,1
-4.41964,16.3686,0.88856,26,9
-4.33388,16.062,1.4555,37,10
-2.61965,9.71559,-1.59375,57,3
-7.25208,26.9148,3.42258,63,11
-3.58241,13.3047,-1.69179,56,4
-3.44467,12.802,-1.15987,54,5
-7.03652,26.1693,5.26747,10,13
-3.54345,13.1875,-0.715642,52,6
-8.33636,31.0467,7.42159,32,14
-4.34124,16.1791,-0.292398,30,7
-9.24603,34.4825,9.56595,8,15
-0.149414,0.559964,-0.155291,12,0
-4.40753,16.5299,0.298611,36,8
-0.162063,0.608222,-0.145318,12,1
-4.34837,16.3194,0.885106,8,9
-2.90258,10.901,-2.19278,35,2
-4.23065,15.8999,1.43946,100,10
-2.60146,9.78386,-1.60345,22,3
-7.09182,26.6905,3.39089,51,11
-3.53696,13.3209,-1.69228,70,4
-4.58472,17.267,2.82959,33,12
-3.41784,12.8814,-1.16597,42,5
-4.70406,17.7414,3.56775,16,13
-4.1757,15.7598,-0.854437,45,6
-8.22196,31.053,7.41619,10,14
-4.25123,16.0562,-0.289919,28,7
-4.27739,16.2582,0.293445,52,8
-0.160045,0.608756,-0.145318,12,1
-6.01229,22.8849,1.24005,16,9
-2.72194,10.368,-2.08363,52,2
-4.10889,15.6621,1.41663,43,10
-7.01788,26.7696,3.39796,31,11
-3.4988,13.3556,-1.6952,42,4
-3.44043,13.1515,-1.18933,30,5
-4.65762,17.8044,3.57729,37,13
-3.46725,13.2635,-0.718468,87,6
-7.24567,27.7372,6.61851,38,14
-4.16283,15.9471,-0.287685,29,7
-7.47902,28.6713,7.93953,5,15
-4.26931,16.4608,0.296831,78,8
-0.16183,0.624403,-0.148918,12,1
-5.90683,22.8072,1.23471,21,9
-2.71116,10.4682,-2.10195,47,2
-4.12182,15.9264,1.43929,81,10
-3.31774,12.8288,-2.09873,41,3
-6.91495,26.7574,3.39333,52,11
-3.44323,13.3332,-1.69082,52,4
-3.46101,13.4117,-1.21181,37,5
-4.58466,17.7787,3.56889,18,13
-3.43039,13.3123,-0.720457,97,6
-7.20323,27.9736,6.6689,19,14
-4.0887,15.8899,-0.286394,25,7
-7.53909,29.3203,8.11191,36,15
-4.2559,16.648,0.299937,21,8
-0.155791,0.609859,-0.145318,12,1
-4.19996,16.4531,0.889921,12,9
-2.63236,10.3121,-2.06875,42,2
-3.98052,15.6048,1.40896,31,10
-2.52497,9.90584,-1.6191,28,3
-5.66025,22.2222,2.81567,29,11
-3.42898,13.4721,-1.7069,56,4
-4.29702,16.8948,2.76107,13,12
-3.49079,13.7249,-1.23901,30,5
-4.50129,17.7109,3.5521,15,13
-3.40553,13.4093,-0.725062,19,6
-7.13575,28.1176,6.69724,29,14
-4.04255,15.9409,-0.287057,35,7
-0.141679,0.561971,-0.155291,12,0
-4.21046,16.7132,0.300845,47,8
-0.163176,0.648194,-0.154316,11,1
-5.65735,22.473,1.21451,17,9
-2.45698,9.7672,-1.9577,35,2
-3.9401,15.6746,1.41401,71,10
-3.10442,12.3592,-2.01832,68,3
-6.84011,27.2517,3.44988,32,11
-3.37801,13.4583,-1.70373,47,4
-4.24337,16.9186,2.76263,5,12
-3.42494,13.6655,-1.23256,30,5
-4.43277,17.6999,3.54676,11,13
-9.87297,39.4516,9.38901,14,14
-4.00373,16.0105,-0.288069,33,7
-7.46251,29.8639,8.24805,6,15
-4.26108,17.154,0.308524,28,8
-0.14882,0.599557,-0.142619,13,1
-5.56163,22.4064,1.2099,21,9
-2.39953,9.6743,-1.93747,64,2
-3.8627,15.5851,1.40478,100,10
-2.43944,9.84993,-1.60721,22,3
-6.41777,25.9331,3.28024,9,11
-3.35338,13.5504,-1.71397,61,4
-4.18155,16.9095,2.75888,15,12
-3.35523,13.5782,-1.22367,35,5
-4.37169,17.7049,3.54485,15,13
-3.22711,13.0793,-0.706012,100,6
-6.4202,26.0207,6.1875,16,14
-3.9578,16.0528,-0.288593,23,7
-8.29183,33.6569,9.28798,24,15
-0.153315,0.626548,-0.148918,12,1
-6.28557,25.7064,1.3869,9,9
-2.39448,9.79282,-1.95961,28,2
-2.39645,9.81575,-1.60032,72,3
-4.01745,16.4677,2.08128,27,11
-3.33052,13.6623,-1.72664,76,4
-4.12671,16.9413,2.76169,34,12
-3.34272,13.7228,-1.23569,32,5
-4.32085,17.7518,3.55134,16,13
-3.19882,13.152,-0.709362,26,6
-3.9041,16.0762,-0.288768,26,7
-6.5297,26.9083,7.41931,19,15
-0.135983,0.563377,-0.155291,12,0
-3.92854,16.2884,0.292467,21,8
-0.152954,0.634657,-0.150717,11,1
-5.63092,23.3825,1.26046,24,9
-2.3373,9.70568,-1.94053,9,2
-2.39635,9.96618,-1.62348,43,3
-3.99472,16.6264,2.09957,49,11
-3.2119,13.3785,-1.68935,43,4
-3.23299,13.4767,-1.21251,25,5
-6.24596,26.0563,5.20832,14,13
-6.24517,26.0933,6.19425,8,14
-3.92471,16.4106,-0.294527,24,7
-5.86323,24.5353,6.75932,48,15
-3.90447,16.4401,0.294946,70,8
-0.145338,0.612434,-0.145318,12,1
-5.59073,23.577,1.26988,7,9
-2.28664,9.6431,-1.92641,42,2
-3.75025,15.8276,1.42308,68,10
-2.39113,10.0994,-1.64381,46,3
-3.90604,16.5108,2.08323,67,11
-3.11723,13.1868,-1.66376,71,4
-3.8485,16.293,2.65156,12,12
-3.1447,13.3134,-1.19682,42,5
-4.19546,17.7758,3.55019,11,13
-3.12802,13.2634,-0.714177,65,6
-5.82554,24.7208,5.86357,7,14
-0.132047,0.564312,-0.155291,12,0
-3.8944,16.6562,0.298576,40,8
-0.143199,0.612938,-0.145318,12,1
-4.02461,17.2402,0.927812,8,9
-2.25074,9.64147,-1.9245,76,2
-3.71851,15.9415,1.43214,68,10
-2.25587,9.6787,-1.57404,88,3
-3.87586,16.6423,2.0981,76,11
-3.03924,13.0603,-1.64645,63,4
-6.00258,25.8149,4.19776,14,12
-3.07519,13.2253,-1.18793,27,5
-5.48898,23.6248,4.71451,8,13
-3.09208,13.319,-0.716584,61,6
-4.00859,17.2805,4.09546,31,14
-3.09076,13.3344,-0.238923,44,7
-5.97905,25.8159,7.10044,18,15
-0.130076,0.56477,-0.155291,12,0
-3.99006,17.3381,0.310548,15,8
-0.143679,0.624829,-0.148018,12,1
-3.85662,16.785,0.902586,37,9
-2.22103,9.66648,-1.92793,87,2
-3.64277,15.867,1.4243,37,10
-2.20043,9.59218,-1.55871,31,3
-3.85543,16.8202,2.11882,36,11
-2.91696,12.7361,-1.60429,29,4
-3.78269,16.5293,2.68567,13,12
-2.97074,12.9918,-1.16597,42,5
-3.92597,17.1692,3.4235,6,13
-3.05091,13.3531,-0.71784,87,6
-3.90401,17.1006,4.04957,74,14
-3.03841,13.3198,-0.23847,24,7
-5.61199,24.6217,6.76657,16,15
-0.128005,0.565243,-0.155291,12,0
-3.99445,17.6386,0.315679,20,8
-0.140637,0.621525,-0.147118,12,1
-3.78744,16.7516,0.900074,33,9
-2.23187,9.87947,-1.96877,28,2
-3.63549,16.1057,1.44452,68,10
-2.14178,9.49612,-1.54182,10,3
-3.78141,16.7658,2.11029,49,11
-2.87423,12.754,-1.60526,32,4
-3.73495,16.5868,2.69286,28,12
-2.93631,13.0507,-1.17033,20,5
-3.86732,17.2026,3.42731,20,13
-3.0002,13.3564,-0.717421,100,6
-3.78198,16.8505,3.98703,24,14
-2.94985,13.143,-0.235119,39,7
-5.61859,25.054,6.87993,16,15
-0.126031,0.565686,-0.155291,12,0
-2.9256,13.1423,0.235014,48,8
-0.140897,0.63345,-0.149817,12,1
-3.72286,16.7374,0.898608,25,9
-2.42823,10.9259,-2.1756,16,2
-3.5624,16.0425,1.43772,62,10
-3.71478,16.7563,2.10736,49,11
-2.88383,13.0081,-1.63597,64,4
-3.75563,16.9546,2.75043,44,12
-2.86706,12.9538,-1.16074,26,5
-3.81107,17.2333,3.43075,10,13
-2.87168,12.9963,-0.697534,26,6
-3.72314,16.8497,3.98388,38,14
-2.83196,12.8271,-0.22929,48,7
-5.49116,24.8923,6.83024,33,15
-0.113395,0.517039,-0.141833,14,0
-2.87644,13.1265,0.23456,71,8
-0.13296,0.607263,-0.143519,12,1
-3.54389,16.1858,0.868358,43,9
-2.12807,9.72757,-1.93557,26,2
-3.50961,16.0561,1.4379,100,10
-2.07246,9.48925,-1.53838,55,3
-3.70236,16.9663,2.13223,4,11
-2.22573,10.1996,-1.28182,16,4
-3.72043,17.0634,2.76607,17,12
-2.79609,12.8348,-1.14924,28,5
-3.73144,17.1571,4.05362,23,14
-2.79153,12.8462,-0.229464,35,7
-5.44342,25.0709,6.87423,16,15
-0.122277,0.566509,-0.155291,12,0
-3.61194,16.7483,0.299064,50,8
-0.130945,0.6077,-0.143519,12,1
-3.51249,16.301,0.873906,14,9
-2.08836,9.70003,-1.9287,35,2
-3.5259,16.391,1.46683,37,10
-3.64274,16.963,2.13028,22,11
-3.68372,17.1684,2.78109,34,12
-2.70131,12.6005,-1.12745,71,5
-3.69545,17.2524,3.4296,20,13
-2.72482,12.7318,-0.682356,68,6
-3.65889,17.1109,4.03967,27,14
-2.81122,13.1467,-0.234665,23,7
-5.35581,25.068,6.86854,16,15
-0.108269,0.51024,-0.139762,14,0
-3.54061,16.6859,0.297738,73,8
-0.130142,0.61385,-0.144868,25,1
-3.46136,16.3405,0.875371,10,9
-2.02482,9.56705,-1.90084,23,2
-3.46866,16.4032,1.46683,28,10
-2.01275,9.51825,-1.54088,23,3
-4.90944,23.2367,2.91609,31,11
-2.71224,12.8482,-1.61233,24,4
-3.60297,17.0826,2.76514,26,12
-2.66306,12.6371,-1.12989,35,5
-3.68518,17.4874,3.47387,38,13
-2.69452,12.7975,-0.685392,42,6
-3.57766,17.0066,4.01223,30,14
-2.76572,13.1584,-0.2347,26,7
-5.26471,25.0695,6.86388,4,15
-0.108155,0.51816,-0.141833,14,0
-3.50929,16.8274,0.300042,80,8
-0.131179,0.629563,-0.148468,24,1
-3.40674,16.3642,0.875999,12,9
-2.03149,9.75823,-1.93747,100,2
-3.42399,16.4614,1.47101,71,10
-2.33242,11.2233,-1.81558,5,3
-3.49249,16.8202,2.10931,27,11
-2.65124,12.7799,-1.60258,48,4
-3.54052,17.0815,2.76295,53,12
-2.67388,12.9117,-1.15359,26,5
-3.62332,17.4963,3.47311,44,13
-2.6644,12.8772,-0.68916,26,6
-3.52774,17.0648,4.02302,13,14
-2.73636,13.2483,-0.236131,44,7
-5.56877,26.9854,7.38307,9,15
-0.106255,0.518553,-0.141833,14,0
-3.44612,16.8179,0.299658,85,8
-0.125463,0.612835,-0.144419,25,1
-3.33839,16.3212,0.873069,30,9
-3.33533,16.3353,1.45864,62,10
-2.17083,10.6415,-1.72015,32,3
-3.46827,17.0015,2.13052,45,11
-2.06943,10.1534,-1.27232,74,4
-3.486,17.1189,2.76701,16,12
-2.7706,13.6179,-1.21582,30,5
-3.55291,17.4787,3.467,33,13
-2.63627,12.9808,-0.694184,65,6
-5.47986,27.0068,6.36207,35,14
-2.69566,13.2852,-0.23662,29,7
-4.02443,19.8516,5.42744,6,15
-0.0998701,0.496194,-0.135621,15,0
-3.37696,16.7932,0.298995,77,8
-0.1236,0.615201,-0.144868,25,1
-3.27669,16.3093,0.871812,45,9
-1.88665,9.39909,-1.86344,19,2
-3.27084,16.3097,1.45533,28,10
-2.13445,10.6528,-1.72078,33,3
-3.37749,16.872,2.11273,13,11
-2.02597,10.1298,-1.26842,37,4
-4.72519,23.6258,3.81606,28,12
-2.56299,12.8265,-1.14435,49,5
-3.50072,17.5353,3.47578,13,13
-2.63625,13.2172,-0.706326,100,6
-3.95435,19.8436,4.67133,27,14
-2.61137,13.1043,-0.233234,43,7
-3.95625,19.8713,5.42899,8,15
-0.10488,0.530653,-0.144939,14,0
-3.26735,16.5316,0.294143,35,8
-0.121559,0.615608,-0.144868,25,1
-3.22824,16.3637,0.874115,50,9
-2.10554,10.6827,-2.11645,52,2
-3.23045,16.4051,1.46282,68,10
-2.19605,11.1522,-1.80025,37,3
-3.30467,16.7974,2.102,49,11
-2.03257,10.341,-1.29401,35,4
-3.51066,17.8775,2.88559,59,12
-2.21095,11.2693,-1.00473,25,5
-3.98418,20.3075,4.02264,48,13
-2.54899,13.0044,-0.694498,42,6
-3.91136,19.9733,4.69878,38,14
-2.66505,13.6216,-0.242274,21,7
-3.88722,19.8868,5.42951,8,15
-0.0994368,0.512034,-0.139762,14,0
-3.20202,16.5037,0.293445,66,8
-0.114959,0.593071,-0.13947,26,1
-3.18704,16.4572,0.878511,50,9
-1.97231,10.1846,-2.01647,59,2
-3.14576,16.2592,1.44888,68,10
-2.08251,10.7738,-1.73799,88,3
-3.2637,16.9005,2.11346,54,11
-2.03144,10.5293,-1.31668,96,4
-3.51067,18.2135,2.93784,16,12
-2.44319,12.6754,-1.12936,47,5
-2.2006,11.4383,-0.610447,33,6
-3.84824,20.0212,4.70688,15,14
-2.69592,14.0393,-0.249535,37,7
-3.77703,19.6878,5.37153,18,15
-0.0940321,0.493401,-0.134586,15,0
-3.16982,16.6483,0.295818,33,8
-0.117622,0.618356,-0.145318,25,1
-3.53974,18.6266,0.99365,10,9
-1.79087,9.4238,-1.86459,19,2
-3.08786,16.2642,1.44835,59,10
-2.03016,10.7034,-1.72547,16,3
-3.19988,16.8864,2.11029,49,11
-1.94113,10.2535,-1.28133,31,4
-3.43348,18.1539,2.92626,33,12
-2.10086,11.1079,-0.989043,17,5
-3.82372,20.2365,4.00317,8,13
-2.15324,11.4066,-0.608353,37,6
-3.74076,19.8354,4.66009,18,14
-2.45326,13.0209,-0.231279,47,7
-3.68612,19.5832,5.33944,15,15
-0.0923091,0.493726,-0.134586,15,0
-3.16016,16.9188,0.300426,59,8
-0.11725,0.628341,-0.147568,24,1
-1.88893,10.1325,-2.00349,54,2
-2.99168,16.0634,1.42953,100,10
-3.2044,17.239,2.15294,46,11
-1.99956,10.7677,-1.34471,56,4
-3.33937,17.9826,2.89685,26,12
-3.1867,17.1939,3.39907,6,13
-2.44614,13.211,-0.704128,26,6
-3.66832,19.8311,4.65604,26,14
-2.44063,13.1941,-0.234211,35,7
-3.61378,19.5554,5.32857,20,15
-0.0961597,0.524448,-0.142868,14,0
-3.08455,16.823,0.298541,47,8
-0.11341,0.619142,-0.145318,25,1
-3.00519,16.4224,0.874953,14,9
-1.96123,10.7281,-2.11989,21,2
-2.91446,15.9581,1.41924,93,10
-1.95194,10.6878,-1.72078,31,3
-3.09627,16.9703,2.11809,49,11
-2.43086,13.3365,-1.66449,14,4
-3.28012,18.0136,2.89998,45,12
-1.92663,10.5911,-0.941805,50,5
-3.58513,19.7473,4.63354,22,14
-2.40026,13.234,-0.23477,23,7
-3.53758,19.5242,5.31666,15,15
-0.0930517,0.517159,-0.140798,14,0
-3.01768,16.7883,0.297738,24,8
-0.10746,0.598435,-0.140369,26,1
-1.89133,10.5432,-2.08211,100,2
-2.89351,16.1461,1.43511,71,10
-1.91531,10.6984,-1.72141,57,3
-3.02898,16.9361,2.11248,49,11
-1.98837,11.1289,-1.38809,19,4
-3.3026,18.5033,2.97695,45,12
-1.97762,11.0799,-0.984686,23,5
-3.07063,17.221,3.40022,42,13
-2.3495,13.19,-0.702139,81,6
-3.52095,19.7865,4.63984,41,14
-2.60955,14.6796,-0.26025,100,7
-3.44982,19.4261,5.28664,3,15
-0.0872202,0.494651,-0.134586,15,0
-2.94796,16.7358,0.296621,38,8
-0.109423,0.621838,-0.145768,25,1
-2.85623,16.2482,0.86459,20,9
-2.83334,16.1345,1.43319,81,10
-1.88376,10.7381,-1.72672,21,3
-2.98389,17.0267,2.12248,22,11
-1.86461,10.6508,-1.32764,17,4
-1.83356,10.4842,-0.931172,54,5
-3.41865,19.5678,3.86121,21,13
-2.30413,13.2021,-0.702349,71,6
-3.1205,17.8981,4.19444,12,14
-2.55726,14.6827,-0.260146,67,7
-3.38265,19.4418,5.28767,45,15
-0.082205,0.475915,-0.12941,15,0
-2.87388,16.6553,0.295015,43,8
-0.108576,0.629898,-0.147568,24,1
-2.80403,16.2674,0.865113,42,9
-1.67909,9.7513,-1.92335,11,2
-2.77768,16.1483,1.43354,34,10
-1.85196,10.7777,-1.73204,15,3
-2.93451,17.0957,2.12979,27,11
-3.12183,18.206,2.92564,34,12
-1.86524,10.8892,-0.966557,46,5
-3.34436,19.5448,3.85434,47,13
-2.24087,13.1096,-0.69701,61,6
-3.06015,17.9026,4.19309,3,14
-2.45908,14.4013,-0.255015,76,7
-3.31523,19.4358,5.28301,43,15
-0.0877215,0.51809,-0.140798,14,0
-2.82596,16.7081,0.295783,17,8
-0.102266,0.605275,-0.141719,26,1
-1.64511,9.74713,-1.92145,9,2
-2.73339,16.2124,1.43842,71,10
-1.8162,10.7838,-1.73204,45,3
-2.89098,17.1836,2.13954,60,11
-1.83642,10.9155,-1.35909,46,4
-3.02182,17.9806,2.88778,35,12
-1.84561,10.9936,-0.975273,19,5
-3.28247,19.5732,3.85778,40,13
-2.25678,13.4715,-0.715851,29,6
-3.27347,19.5405,4.57415,28,14
-2.44431,14.6066,-0.258505,25,7
-3.37213,20.1726,5.48024,17,15
-0.0853705,0.514566,-0.139762,14,0
-2.7627,16.67,0.294946,77,8
-0.100895,0.609456,-0.142619,26,1
-1.6352,9.88812,-1.94816,9,2
-3.88304,23.5064,2.08442,30,10
-1.73895,10.5384,-1.69168,72,3
-2.87466,17.4399,2.17025,37,11
-1.78315,10.8298,-1.34763,34,4
-2.96257,18.0125,2.89122,38,12
-1.79754,10.941,-0.970043,55,5
-3.34389,20.3531,4.00928,14,13
-1.78255,10.8616,-0.576847,54,6
-2.90164,17.6999,4.1409,14,14
-2.65734,16.2274,-0.287022,86,7
-4.80673,29.3851,7.97836,11,15
-0.0797734,0.491992,-0.133551,15,0
-2.70129,16.6599,0.294597,42,8
-0.101259,0.625193,-0.146218,25,1
-2.69315,16.6464,0.883745,25,9
-1.72203,10.6557,-2.09814,35,2
-2.96116,18.3436,1.62563,13,10
-1.82735,11.3325,-1.81808,51,3
-2.81091,17.4322,2.16806,37,11
-1.86655,11.5885,-1.44123,28,4
-2.8661,17.814,2.85775,45,12
-1.74922,10.8842,-0.964465,50,5
-4.32511,26.9423,5.30411,18,13
-1.73451,10.8168,-0.574125,70,6
-2.81241,17.5584,4.10536,28,14
-2.55323,15.9404,-0.281787,86,7
-3.06334,19.1465,5.19553,17,15
-0.0847116,0.534244,-0.144939,14,0
-2.63959,16.6657,0.294527,42,8
-0.0965313,0.610162,-0.142619,26,1
-2.59222,16.4037,0.870347,42,9
-1.6171,10.2331,-2.0138,19,2
-2.89648,18.3498,1.62528,10,10
-1.79547,11.3876,-1.8259,53,3
-2.74701,17.4424,2.16806,46,11
-1.70869,10.8618,-1.35007,42,4
-2.79925,17.8146,2.85618,31,12
-1.72482,10.9769,-0.972135,34,5
-3.12297,19.8974,3.91502,20,13
-1.7119,10.9195,-0.579254,84,6
-2.77551,17.7241,4.1418,14,14
-2.58966,16.5561,-0.292502,100,7
-2.67585,17.1267,4.64477,5,15
-2.50951,16.2104,0.286324,53,8
-0.0994632,0.643235,-0.150267,24,1
-2.66999,17.287,0.916717,41,9
-1.49057,9.6508,-1.89817,14,2
-2.82999,18.3441,1.62389,27,10
-1.69374,10.9916,-1.76145,68,3
-2.73713,17.7835,2.20925,52,11
-1.64422,10.6951,-1.32862,49,4
-2.73736,17.8262,2.85649,22,12
-1.66835,10.8647,-0.961676,48,5
-4.15387,27.0825,5.32586,15,13
-1.66409,10.8622,-0.575905,100,6
-3.12307,20.4093,4.76671,28,14
-1.69465,11.0875,-0.195781,100,7
-2.62071,17.1665,4.65305,16,15
-0.0723036,0.47752,-0.12941,15,0
-3.66156,24.211,0.427409,16,8
-0.092269,0.610821,-0.142619,26,1
-2.60458,17.2627,0.914937,25,9
-1.44604,9.58411,-1.88405,9,2
-2.76177,18.3263,1.62145,43,10
-2.67328,17.7811,2.20779,52,11
-1.64166,10.9324,-1.35738,24,4
-2.82982,18.8672,3.02169,43,12
-1.61328,10.7561,-0.951566,44,5
-3.00349,20.0488,3.94059,24,13
-1.62409,10.8541,-0.575172,100,6
-3.02243,20.2235,4.72082,48,14
-1.65653,11.0973,-0.195851,24,7
-4.33387,29.068,7.87483,11,15
-0.0751569,0.508347,-0.137692,14,0
-2.37816,16.1049,0.28416,17,8
-0.0904207,0.613067,-0.143069,25,1
-2.53382,17.2005,0.911169,51,9
-1.44262,9.79304,-1.92412,68,2
-3.50694,23.8354,2.10777,42,10
-1.89957,12.9263,-2.06932,28,3
-2.60572,17.753,2.20315,52,11
-1.58967,10.8438,-1.34568,45,4
-2.72588,18.617,2.98008,39,12
-1.56418,10.6829,-0.944594,54,5
-2.83632,19.3948,3.81007,17,13
-1.59803,10.9407,-0.579464,100,6
-2.98389,20.4538,4.77211,33,14
-1.6175,11.1011,-0.195816,34,7
-2.98043,20.4802,5.54546,9,15
-0.0711749,0.49331,-0.133551,15,0
-2.32565,16.1388,0.284614,56,8
-0.0899456,0.624952,-0.145768,25,1
-2.45827,17.0803,0.904365,43,9
-1.38217,9.61535,-1.88825,19,2
-3.42119,23.8297,2.10621,26,10
-1.85444,12.9329,-2.06932,24,3
-2.44326,17.0605,2.11614,31,11
-2.0687,14.445,-1.79172,36,4
-2.68287,18.7569,3.00104,16,12
-1.54434,10.8105,-0.955401,22,5
-2.86621,20.0888,3.9444,3,13
-1.57308,11.0392,-0.584383,37,6
-2.95976,20.7703,4.84365,21,14
-1.57081,11.0371,-0.194594,38,7
-4.12231,29.0012,7.84895,11,15
-0.0716949,0.508847,-0.137692,14,0
-2.2749,16.1662,0.284963,29,8
-0.0878729,0.625247,-0.145768,25,1
-2.3602,16.7937,0.888769,38,9
-1.34482,9.581,-1.88061,42,2
-3.42844,24.4565,2.16059,22,10
-1.49081,10.6481,-1.70295,47,3
-2.39629,17.1373,2.12467,36,11
-2.026,14.4892,-1.79635,32,4
-2.58705,18.5251,2.96256,12,12
-1.48674,10.6597,-0.941631,18,5
-2.82151,20.2557,3.97531,11,13
-1.50839,10.8426,-0.573707,81,6
-2.87744,20.6835,4.82115,17,14
-1.53943,11.0799,-0.195258,42,7
-2.42554,17.48,4.72862,12,15
-2.21393,16.1202,0.28402,35,8
-0.0871229,0.635189,-0.148018,24,1
-2.26742,16.5525,0.875581,86,9
-1.30851,9.55234,-1.87413,54,2
-2.58415,18.8892,1.66799,38,10
-1.46271,10.7059,-1.71139,20,3
-2.35127,17.2317,2.13539,50,11
-1.42461,10.4541,-1.29547,15,4
-2.56525,18.8491,3.01293,16,12
-3.55444,26.1516,5.13009,35,13
-1.84369,13.5826,-0.718363,35,6
-2.77668,20.4829,4.77211,24,14
-2.36995,17.5285,4.73949,16,15
-0.0660914,0.494016,-0.133551,15,0
-2.15473,16.106,0.283637,16,8
-0.0849052,0.635489,-0.148018,24,1
-2.16577,16.2317,0.858205,24,9
-1.28905,9.67383,-1.89702,30,2
-2.27757,17.1152,1.51058,68,10
-1.44663,10.8854,-1.73924,13,3
-2.27018,17.0824,2.1159,81,11
-1.4056,10.5909,-1.3118,19,4
-1.42275,10.7488,-0.948603,32,5
-2.69419,20.3819,3.9963,35,13
-1.80017,13.6368,-0.720876,39,6
-2.69854,20.4698,4.76671,4,14
-1.46884,11.1419,-0.196165,20,7
-3.15474,23.9626,6.47617,14,15
-0.0688574,0.528726,-0.142868,14,0
-2.1697,16.6829,0.293654,19,8
-0.0810694,0.624201,-0.145318,25,1
-2.11192,16.2831,0.860508,51,9
-1.26032,9.71721,-1.90466,33,2
-1.42002,10.9786,-1.75332,32,3
-2.20476,17.0689,2.11321,49,11
-1.35839,10.531,-1.30376,39,4
-2.39422,18.5868,2.96819,22,12
-1.39565,10.8348,-0.95575,46,5
-2.7117,21.0805,4.1314,27,13
-1.38484,10.7805,-0.569625,100,6
-2.62855,20.4907,4.76941,4,14
-1.42698,11.1393,-0.196025,75,7
-3.08527,24.1177,6.51499,14,15
-0.0655544,0.517464,-0.139762,14,0
-2.11697,16.7341,0.294422,38,8
-0.0786459,0.622546,-0.144868,25,1
-2.11181,16.7402,0.884268,45,9
-1.24458,9.86569,-1.9329,68,2
-2.32089,18.4235,1.62458,70,10
-1.38317,10.9952,-1.75519,40,3
-2.10433,16.7516,2.073,49,11
-1.36141,10.8528,-1.343,34,4
-2.08552,16.6487,2.65751,10,12
-1.35188,10.7921,-0.951566,52,5
-1.32269,10.5891,-0.559262,33,6
-2.55412,20.4765,4.76401,4,14
-1.36781,10.9815,-0.193163,22,7
-2.99702,24.0958,6.50619,14,15
-0.0628035,0.51002,-0.137692,14,0
-2.02731,16.4873,0.289954,35,8
-0.0769472,0.626686,-0.145768,25,1
-2.05531,16.7391,0.88385,47,9
-1.23068,10.0376,-1.96571,23,2
-2.26141,18.471,1.62807,57,10
-2.03382,16.6603,2.06081,48,11
-1.94997,15.9966,-1.97867,13,4
-2.26359,18.5694,2.96287,22,12
-1.313,10.7869,-0.950695,58,5
-4.06177,33.418,6.5436,11,13
-1.28067,10.552,-0.557064,38,6
-2.80195,23.1202,5.37678,23,14
-1.32898,10.9661,-0.192814,92,7
-2.1533,17.7939,4.80265,37,15
-0.0610226,0.510236,-0.137692,14,0
-0.0744066,0.623067,-0.144868,25,1
-2.00562,16.8196,0.887723,37,9
-1.18147,9.92288,-1.94244,33,2
-2.20304,18.5302,1.6326,54,10
-1.97646,16.6492,2.05862,48,11
-1.27465,10.7534,-1.32959,30,4
-2.19968,18.585,2.96412,40,12
-1.27464,10.7855,-0.950172,12,5
-2.22905,18.8613,3.69177,17,13
-1.25129,10.6038,-0.559576,37,6
-2.11322,17.9349,4.16924,36,14
-1.88628,16.033,-0.281787,100,7
-2.08554,17.7533,4.78971,82,15
-0.057546,0.495085,-0.133551,15,0
-0.0722313,0.623323,-0.144868,25,1
-2.19008,18.8994,0.997105,31,9
-1.14789,9.92089,-1.94129,23,2
-2.11848,18.3375,1.615,47,10
-1.23479,10.7047,-1.7067,45,3
-1.92242,16.6915,2.063,26,11
-1.24958,10.8662,-1.343,11,4
-2.12156,18.4489,2.94128,43,12
-2.07107,18.0653,3.53455,38,13
-1.84842,16.1482,-0.85182,29,6
-2.05016,17.9383,4.16834,100,14
-1.83537,16.059,-0.282136,63,7
-2.03016,17.7909,4.79799,36,15
-0.0558174,0.495282,-0.133551,15,0
-1.86142,16.5169,0.290129,52,8
-0.0688566,0.61194,-0.142169,26,1
-2.02911,18.0614,0.952514,23,9
-1.12857,10.0614,-1.968,61,2
-2.08041,18.5765,1.63539,60,10
-1.20984,10.803,-1.72172,60,3
-1.84433,16.4946,2.0379,35,11
-1.45052,12.9931,-1.60526,17,4
-2.03462,18.254,2.90906,63,12
-1.20934,10.8672,-0.956621,72,5
-2.00919,18.0545,3.53111,79,13
-1.80722,16.2655,-0.857682,26,6
-1.99303,17.9663,4.17329,39,14
-1.82135,16.4449,-0.288802,100,7
-2.61649,23.662,6.37885,27,15
-0.0554349,0.506987,-0.136656,14,0
-1.78206,16.3245,0.286638,50,8
-0.0671423,0.616051,-0.143069,25,1
-1.77959,16.3549,0.862183,25,9
-1.07842,9.91091,-1.93786,47,2
-1.95833,18.0267,1.58641,30,10
-1.19001,10.9721,-1.748,56,3
-1.80191,16.641,2.0552,26,11
-1.41839,13.1204,-1.62037,22,4
-1.96601,18.2158,2.90186,100,12
-1.17266,10.8652,-0.956098,48,5
-1.9493,18.0907,3.53684,48,13
-1.75641,16.3273,-0.860613,65,6
-2.01187,18.7327,4.34965,9,14
-1.75945,16.4094,-0.288069,39,7
-2.45451,22.9295,6.17905,6,15
-0.0508188,0.480282,-0.12941,15,0
-1.73704,16.444,0.288628,47,8
-0.0682616,0.64729,-0.150267,24,1
-1.91615,18.2003,0.959109,15,9
-1.03827,9.86189,-1.92755,35,2
-1.87706,17.859,1.57107,37,10
-1.73721,16.584,2.04741,56,11
-1.54745,14.7976,-1.82682,32,4
-1.90097,18.2088,2.89967,61,12
-1.14507,10.9683,-0.964814,52,5
-1.95454,18.7535,3.66506,12,13
-1.69672,16.3075,-0.859252,81,6
-2.16974,20.8892,4.8486,30,14
-1.98246,19.1186,-0.335505,95,7
-2.38281,23.0187,6.20079,18,15
-0.0507144,0.495831,-0.133551,15,0
-1.68472,16.4997,0.289501,35,8
-0.0644206,0.632015,-0.146668,24,1
-1.90054,18.6457,0.982241,38,9
-0.99867,9.81468,-1.91763,40,2
-1.6825,16.6216,2.05131,48,11
-1.14195,11.3011,-1.39467,26,4
-1.87474,18.5531,2.95348,30,12
-1.11278,11.0317,-0.970043,17,5
-2.37391,23.5753,4.60575,13,13
-1.65058,16.4206,-0.864904,45,6
-2.10596,20.9878,4.86974,21,14
-1.64692,16.4131,-0.28793,86,7
-1.80489,18.019,4.85234,6,15
-0.0493632,0.49985,-0.134586,15,0
-1.65593,16.7679,0.294108,71,8
-0.0630893,0.639982,-0.148468,24,1
-1.83035,18.6005,0.97952,91,9
-0.958265,9.75558,-1.90542,33,2
-1.80834,18.4428,1.62127,100,10
-1.63472,16.7022,2.06057,21,11
-1.44149,14.7544,-1.82024,16,4
-1.7977,18.4337,2.93346,46,12
-1.08488,11.1445,-0.979631,44,5
-1.75969,18.0766,3.53035,11,13
-1.61002,16.5691,-0.87244,81,6
-1.79686,18.5255,4.29702,12,14
-1.738,17.9513,-0.314806,90,7
-2.35951,24.415,6.57245,7,15
-0.0499072,0.523088,-0.140798,14,0
-1.58885,16.684,0.292537,24,8
-0.0606704,0.638259,-0.148018,24,1
-1.76692,18.6227,0.980357,34,9
-0.919045,9.68639,-1.8913,28,2
-1.63832,17.3639,2.14149,23,11
-1.05979,11.2533,-1.38785,33,4
-1.71615,18.2569,2.90436,34,12
-1.06749,11.3564,-0.997933,19,5
-1.69878,18.1061,3.53493,24,13
-1.55068,16.5587,-0.871603,52,6
-1.86058,19.9054,4.61555,21,14
-1.52691,16.3664,-0.286918,78,7
-2.13562,22.9342,6.1718,15,15
-0.0487879,0.530954,-0.142868,14,0
-1.54284,16.8228,0.294876,78,8
-0.0577317,0.630704,-0.146218,25,1
-1.70609,18.6745,0.982765,21,9
-0.876656,9.59569,-1.87298,28,2
-1.75331,19.2285,1.68925,52,10
-1.56746,17.2568,2.1276,49,11
-1.01745,11.2233,-1.3837,8,4
-1.67377,18.4989,2.94191,22,12
-1.02713,11.3521,-0.997236,42,5
-1.62921,18.0415,3.52119,27,13
-1.49377,16.574,-0.872127,94,6
-1.79476,19.9525,4.62499,10,14
-1.4814,16.5011,-0.289186,100,7
-2.05658,22.9531,6.17491,6,15
-0.0459141,0.519575,-0.139762,14,0
-1.46689,16.6329,0.291455,26,8
-0.0565547,0.642549,-0.148918,24,1
-1.5291,17.3729,0.913995,8,9
-0.839206,9.55371,-1.8642,28,2
-1.66269,18.9665,1.66572,52,10
-1.4846,17.0031,2.09567,49,11
-0.981201,11.2604,-1.38785,33,4
-1.55222,17.8136,2.83209,27,12
-0.992847,11.4171,-1.00264,17,5
-1.57811,18.184,3.5479,16,13
-1.48037,17.0925,-0.899132,33,6
-1.50493,17.4114,4.03472,2,14
-1.47247,17.0359,-0.298471,100,7
-1.48423,17.2069,4.62768,15,15
-1.38113,16.277,0.285137,68,8
-0.0547526,0.646617,-0.149817,24,1
-1.46509,17.3383,0.911902,35,9
-0.804365,9.53898,-1.86077,28,2
-1.58896,18.8829,1.65788,28,10
-0.9834,11.6865,-1.8575,21,3
-1.43767,17.1207,2.10956,45,11
-0.950487,11.3428,-1.3976,42,4
-1.49119,17.8327,2.83428,45,12
-1.39917,16.7675,-1.47206,33,5
-1.49723,17.9426,3.49982,39,13
-0.949675,11.4048,-0.59977,74,6
-1.75024,21.0634,4.87964,39,14
-1.37252,16.5527,-0.289919,23,7
-1.41619,17.1157,4.6018,5,15
-0.0392371,0.481366,-0.12941,15,0
-1.32884,16.3376,0.286115,37,8
-0.0515495,0.63515,-0.147118,24,1
-1.4052,17.3513,0.91232,44,9
-0.770982,9.52006,-1.85657,28,2
-1.48011,18.3161,1.60767,64,10
-1.00913,12.5149,-1.9886,70,3
-1.36802,17.003,2.09445,63,11
-0.915968,11.4093,-1.4054,13,4
-1.41364,17.6468,2.80393,30,12
-1.33226,16.631,-1.45968,11,5
-1.44725,18.1063,3.53073,26,13
-1.29111,16.1883,-0.851087,26,6
-1.38979,17.464,4.04462,8,14
-1.3095,16.4916,-0.288768,26,7
-1.91182,24.1305,6.48601,36,15
-0.039059,0.50076,-0.134586,15,0
-1.2521,16.0889,0.281682,48,8
-0.0485776,0.625611,-0.144868,25,1
-0.7379,9.52466,-1.85695,28,2
-1.4154,18.3112,1.6068,40,10
-0.938091,12.1638,-1.93228,11,3
-1.30212,16.9225,2.08397,18,11
-1.12518,14.6565,-1.80489,38,4
-1.32487,17.2971,2.74762,35,12
-1.24863,16.3018,-1.4304,34,5
-1.39571,18.2639,3.5605,12,13
-1.22321,16.0434,-0.843237,39,6
-1.86832,24.5611,5.68676,74,14
-1.26085,16.6137,-0.290827,100,7
-1.42954,18.88,5.07337,3,15
-0.0358758,0.481629,-0.12941,15,0
-1.22364,16.4661,0.288209,81,8
-0.0468259,0.631607,-0.146218,25,1
-1.21848,16.4743,0.865742,33,9
-0.702188,9.49389,-1.85047,28,2
-1.29473,17.5471,1.53934,13,10
-1.24392,16.9388,2.08543,18,11
-1.00845,13.7655,-1.69472,10,4
-1.25397,17.1578,2.72478,42,12
-1.18242,16.1789,-1.41924,38,5
-1.30255,17.8653,3.48188,6,13
-1.15575,15.8902,-0.834968,68,6
-1.27135,17.5218,4.05587,48,14
-1.21513,16.7875,-0.293794,85,7
-2.13302,29.5403,7.93591,11,15
-0.0352885,0.497167,-0.133551,15,0
-1.14978,16.2389,0.28416,47,8
-0.0444834,0.629823,-0.145768,25,1
-1.16222,16.4964,0.866684,49,9
-0.666282,9.45711,-1.84283,26,2
-1.16574,16.5876,1.4548,15,10
-0.909924,12.98,-2.06087,48,3
-1.26343,18.0679,2.22387,52,11
-1.05544,15.1313,-1.86241,22,4
-1.19764,17.2133,2.73291,28,12
-1.12235,16.1312,-1.41471,33,5
-1.24357,17.9187,3.49142,27,13
-1.10592,15.9758,-0.83926,39,6
-1.24737,18.0647,4.18049,36,14
-1.14759,16.662,-0.291525,31,7
-1.21957,17.7524,4.76796,3,15
-0.0358939,0.531982,-0.142868,14,0
-1.08866,16.1769,0.283008,37,8
-0.0441116,0.657196,-0.152067,23,1
-1.1045,16.4984,0.866579,15,9
-0.628679,9.39082,-1.82948,28,2
-1.10717,16.5816,1.45393,37,10
-1.17891,17.7493,2.18414,46,11
-1.00209,15.127,-1.86143,32,4
-1.13728,17.2134,2.73228,20,12
-1.06642,16.141,-1.41523,30,5
-1.19716,18.1678,3.53913,11,13
-1.05579,16.0653,-0.84376,100,6
-1.17091,17.8647,4.13325,34,14
-1.0589,16.199,-0.283357,70,7
-1.15698,17.747,4.76538,16,15
-0.0318168,0.497401,-0.133551,15,0
-1.0458,16.3942,0.286743,34,8
-0.0411991,0.647621,-0.149817,24,1
-0.595271,9.38316,-1.82757,26,2
-1.15457,18.2497,1.59983,40,10
-1.11358,17.6998,2.17756,50,11
-0.946042,15.0789,-1.8551,56,4
-1.07066,17.1128,2.7157,17,12
-1.00984,16.1407,-1.41489,22,5
-1.13214,18.1464,3.53416,27,13
-1.01558,16.324,-0.857158,58,6
-1.11182,17.9212,4.1454,34,14
-1.00235,16.2026,-0.283357,47,7
-1.09966,17.8261,4.78556,31,15
-0.0321788,0.532219,-0.142868,14,0
-0.962696,15.9686,0.279238,43,8
-0.0381195,0.634145,-0.146668,24,1
-0.998527,16.6112,0.872127,33,9
-0.561102,9.36167,-1.82299,30,2
-0.969033,16.215,1.42116,15,10
-0.666443,11.1845,-1.77459,20,3
-1.37848,23.2025,2.85394,37,11
-0.939353,15.8112,-1.94479,51,4
-1.00666,16.994,2.6963,43,12
-0.983674,16.6552,-1.45968,31,5
-1.62724,27.634,5.38081,31,13
-0.962106,16.3873,-0.860299,81,6
-1.04998,17.884,4.13595,37,14
-0.953522,16.2896,-0.284823,7,7
-1.0465,17.9318,4.813,9,15
-0.0297529,0.520751,-0.139762,14,0
-0.936122,16.4349,0.287336,40,8
-0.0360163,0.634268,-0.146668,24,1
-0.952377,16.7719,0.880396,8,9
-0.527065,9.31055,-1.81269,38,2
-0.917393,16.2559,1.42447,18,10
-1.01386,18.0776,2.22314,47,11
-0.861686,15.3643,-1.88946,29,4
-0.904929,16.2367,-1.42273,11,5
-0.889097,16.0533,-0.842609,39,6
-0.982374,17.7375,4.10131,14,14
-0.950752,17.2211,-0.301054,100,7
-0.990113,17.9912,4.82801,27,15
-0.0286485,0.532421,-0.142868,14,0
-0.898213,16.7474,0.292747,29,8
-0.034433,0.644113,-0.148918,24,1
-0.492842,9.24951,-1.80047,35,2
-0.947585,17.8426,1.56323,58,10
-0.560194,10.5831,-1.67854,15,3
-0.952446,18.0531,2.21973,47,11
-0.800548,15.2245,-1.87191,23,4
-0.852961,16.2754,-1.42587,30,5
-0.957812,18.3373,3.56927,24,13
-0.856308,16.4491,-0.863229,68,6
-0.931858,17.9608,4.15215,43,14
-0.851699,16.4715,-0.287895,86,7
-0.923831,17.927,4.80989,15,15
-0.0262076,0.520941,-0.139762,14,0
-0.835939,16.6745,0.29142,8,8
-0.0324763,0.650069,-0.150267,24,1
-0.820972,16.4909,0.865323,38,9
-0.459871,9.23745,-1.7978,30,2
-0.909774,18.3393,1.60645,37,10
-0.868136,17.6241,2.16659,9,11
-0.770849,15.705,-1.93065,55,4
-0.836536,17.1041,2.71226,13,12
-0.789626,16.145,-1.41419,33,5
-0.852319,17.4895,3.40365,30,13
-0.795489,16.3822,-0.859566,42,6
-0.865582,17.8899,4.13505,34,14
-0.879899,18.252,-0.31896,30,7
-0.862448,17.9552,4.81662,18,15
-0.0238469,0.509451,-0.136656,14,0
-0.778384,16.6913,0.291665,53,8
-0.0300259,0.646285,-0.149367,24,1
-0.770263,16.5793,0.869824,81,9
-0.427258,9.23116,-1.79628,30,2
-0.851446,18.4658,1.61726,43,10
-0.48829,10.6301,-1.68543,38,3
-0.808966,17.6786,2.17293,46,11
-0.696592,15.2813,-1.87825,40,4
-0.815789,17.8961,2.83741,59,12
-0.733351,16.1496,-1.41436,30,5
-0.797832,17.6375,3.43189,15,13
-0.730751,16.2173,-0.850773,74,6
-0.721188,16.0674,-0.280739,86,7
-0.772619,17.2805,4.63493,1,15
-0.0222357,0.513391,-0.137692,14,0
-0.732119,16.9036,0.29533,57,8
-0.0272108,0.630805,-0.145768,25,1
-0.720525,16.7715,0.879768,50,9
-0.394363,9.2169,-1.79322,28,2
-0.751022,17.6246,1.54335,35,10
-0.449591,10.5508,-1.6726,66,3
-0.749911,17.6713,2.17171,60,11
-0.6517,15.4203,-1.89507,6,4
-0.757796,18.0054,2.8543,34,12
-0.670462,15.9968,-1.40077,38,5
-0.729469,17.4047,3.3861,25,13
-0.671892,16.0979,-0.844388,58,6
-0.752358,18.1018,4.18274,42,14
-0.666251,16.0978,-0.281228,100,7
-0.714047,17.3256,4.64632,26,15
-0.0203786,0.509601,-0.136656,14,0
-0.688857,17.3017,0.302241,42,8
-0.0252404,0.636738,-0.147118,24,1
-0.646307,16.3768,0.858938,45,9
-0.3624,9.18285,-1.78635,28,2
-0.7061,17.9714,1.57351,50,10
-0.416622,10.651,-1.68824,51,3
-0.644894,16.561,2.03497,26,11
-0.58956,15.2083,-1.86874,17,4
-0.659447,17.0881,2.70851,10,12
-0.61401,15.9831,-1.39937,22,5
-0.667208,17.3679,3.37846,15,13
-0.623858,16.3137,-0.855588,26,6
-0.67946,17.8492,4.1238,25,14
-0.615889,16.2539,-0.283916,33,7
-0.670599,17.7797,4.76745,15,15
-0.0175292,0.482645,-0.12941,15,0
-0.625414,17.22,0.300775,42,8
-0.0232286,0.642665,-0.148468,24,1
-0.590497,16.4168,0.860927,40,9
-0.327689,9.15468,-1.78063,26,2
-0.60108,16.8748,1.47729,15,10
-0.376664,10.6268,-1.68417,76,3
-0.62329,17.5848,2.1605,50,11
-0.437953,12.417,-1.52556,28,4
-0.554247,15.8717,-1.38944,28,5
-0.609754,17.5488,3.41319,31,13
-0.533287,15.4256,-0.808905,45,6
-0.608269,17.6841,4.08511,43,14
-0.560313,16.2899,-0.284509,100,7
-0.612161,17.8881,4.79592,6,15
-0.016478,0.502011,-0.134586,15,0
-0.556091,17.0323,0.297459,77,8
-0.0209996,0.646641,-0.149367,24,1
-0.295032,9.13419,-1.77643,26,2
-0.535515,16.6697,1.45916,81,10
-0.365565,11.4415,-1.81308,42,3
-0.551903,17.3687,2.13369,50,11
-0.391935,12.4026,-1.52361,16,4
-0.556293,17.6037,2.78954,20,12
-0.501606,15.9611,-1.39711,33,5
-0.552476,17.6783,3.438,6,13
-0.548896,17.7621,4.10266,31,14
