x, y, z, intensity, ring
-23.7868,12.5308,7.20397,9,15
-1.36122,0.719515,-0.412558,2,0
-1.38781,0.733569,0.0274003,76,8
-1.36783,0.723311,-0.357222,5,1
-1.3894,0.735027,0.0823768,100,9
-0.583033,0.30857,-0.128224,14,2
-1.3928,0.737448,0.13788,100,10
-0.935733,0.495445,-0.167698,13,3
-1.38757,0.734989,0.192797,100,11
-1.3699,0.725937,-0.19036,9,4
-20.4111,10.8208,3.659,24,12
-1.3782,0.730952,-0.136486,9,5
-26.5019,14.0557,5.83112,18,13
-1.36733,0.725491,-0.0811207,24,6
-20.5589,10.9129,5.37363,5,14
-1.36168,0.723102,-0.0269116,77,7
-22.1922,11.7899,6.73344,3,15
-1.32985,0.708581,-0.403758,2,0
-1.38524,0.738409,0.0274003,100,8
-1.38682,0.739873,0.0823768,100,9
-0.599328,0.319743,-0.13204,13,2
-1.37452,0.733619,0.136312,100,10
-0.940968,0.50243,-0.168949,16,3
-1.3885,0.741699,0.193285,100,11
-1.36561,0.729778,-0.190116,10,4
-20.5422,10.9823,3.68935,24,12
-1.36874,0.731761,-0.135789,34,5
-20.3952,10.9083,4.49584,15,13
-20.5516,11.0012,5.38173,11,14
-1.3662,0.731627,-0.0270512,100,7
-20.8192,11.1538,6.32864,3,15
-1.32737,0.713219,-0.403758,2,0
-1.37385,0.738506,0.0272258,100,8
-1.37648,0.740227,-0.360821,4,1
-1.38423,0.744709,0.0823768,100,9
-0.584377,0.314391,-0.128987,13,2
-1.37371,0.739357,0.136486,100,10
-0.940948,0.506648,-0.169262,17,3
-1.3859,0.746541,0.193285,100,11
-1.37703,0.742074,-0.192066,26,4
-23.258,12.5388,4.18494,11,12
-21.8448,11.7819,4.82441,6,13
-1.3675,0.737864,-0.0814348,100,6
-20.5662,11.1016,5.39568,29,14
-1.38123,0.745893,-0.0274003,100,7
-19.8743,10.737,6.05274,33,15
-1.34865,0.730732,-0.411005,2,0
-1.36072,0.737579,0.0270163,100,8
-1.37731,0.746885,-0.361721,4,1
-1.38176,0.749295,0.0823768,100,9
-0.631595,0.342642,-0.139672,11,2
-1.37462,0.746049,0.136835,100,10
-0.944381,0.512757,-0.170201,21,3
-1.37107,0.744742,0.191579,100,11
-1.3641,0.740952,-0.190604,88,4
-23.2961,12.6593,4.19933,8,12
-1.3601,0.739395,-0.13544,100,5
-20.353,11.0692,4.50347,13,13
-1.3579,0.738815,-0.0810161,100,6
-20.5088,11.1585,5.39028,58,14
-1.37875,0.75047,-0.0274003,100,7
-20.3577,11.0856,6.21114,25,15
-1.33096,0.726867,-0.406346,2,0
-1.35826,0.742088,0.0270163,100,8
-1.3526,0.739298,-0.355873,5,1
-1.37576,0.751957,0.0821675,100,9
-0.582223,0.318362,-0.128987,13,2
-1.37389,0.751559,0.137009,100,10
-0.942676,0.515886,-0.170201,27,3
-1.3686,0.749284,0.191579,100,11
-1.35641,0.742611,-0.189872,100,4
-20.7297,11.3539,3.74348,11,12
-1.35764,0.743902,-0.13544,100,5
-19.5966,10.7422,4.34396,9,13
-1.34494,0.737551,-0.080388,100,6
-20.5451,11.2668,5.40962,48,14
-1.36924,0.75119,-0.0272607,100,7
-20.3479,11.1679,6.21942,6,15
-1.3593,0.748517,0.0270861,100,8
-0.46427,0.255762,-0.122373,15,1
-1.36613,0.752899,0.0817488,100,9
-0.59492,0.327872,-0.13204,13,2
-1.37662,0.758997,0.137532,100,10
-0.949608,0.523779,-0.171765,48,3
-1.36784,0.754778,0.191822,100,11
-1.34686,0.743504,-0.188898,100,4
-20.5482,11.3479,3.71782,29,12
-1.35516,0.748399,-0.13544,100,5
-19.5677,10.8109,4.34548,11,13
-1.36171,0.752635,-0.0815394,125,6
-19.8934,10.9999,5.24811,44,14
-1.35611,0.750157,-0.0270512,100,7
-20.6773,11.4428,6.33227,6,15
-1.31584,0.730285,-0.40324,2,0
-1.36367,0.75714,0.0272258,100,8
-1.36349,0.757663,0.0817488,100,9
-0.593772,0.329946,-0.13204,13,2
-1.35829,0.755085,0.135963,100,10
-0.946048,0.526131,-0.171452,69,3
-1.37561,0.765338,0.193285,100,11
-1.35292,0.753028,-0.190116,100,4
-20.3358,11.3234,3.68654,49,12
-1.34558,0.749248,-0.134743,100,5
-19.9741,11.1266,4.44432,10,13
-1.35908,0.757383,-0.0815394,125,6
-20.3826,11.3634,5.38758,23,14
-1.36047,0.758783,-0.0271908,100,7
-20.5866,11.4866,6.31674,23,15
-1.32172,0.73959,-0.405828,2,0
-1.34357,0.752127,0.0268767,100,8
-0.523683,0.293276,-0.13857,13,1
-1.37143,0.768036,0.0823768,100,9
-0.568638,0.318583,-0.126697,14,2
-1.35739,0.760796,0.136137,100,10
-0.932144,0.522667,-0.169262,68,3
-1.3712,0.769164,0.193041,100,11
-1.35029,0.757746,-0.190116,100,4
-1.33601,0.750039,-0.134046,100,5
-19.9369,11.1972,4.44471,27,13
-1.35294,0.760167,-0.0813301,128,6
-1.36143,0.76525,-0.0272607,100,7
-20.5248,11.5416,6.30949,37,15
-1.30567,0.736606,-0.401687,2,0
-1.34455,0.758544,0.0269465,100,8
-1.36526,0.770854,0.0821675,100,9
-0.577779,0.326359,-0.128987,13,2
-1.35646,0.76651,0.136312,100,10
-0.923527,0.521868,-0.168011,50,3
-1.35481,0.765892,0.191091,100,11
-1.35295,0.765151,-0.190847,100,4
-20.3649,11.5219,3.70593,4,12
-1.34379,0.760587,-0.135091,100,5
-20.2259,11.4479,4.51759,31,13
-1.34346,0.760712,-0.0809114,134,6
-19.8418,11.2397,5.26475,38,14
-1.35527,0.768025,-0.0271908,100,7
-20.6693,11.7179,6.36643,16,15
-1.31833,0.749525,-0.406346,2,0
-1.34885,0.767187,0.0270861,100,8
-1.34145,0.763288,-0.356322,5,1
-1.35054,0.768463,0.0814348,100,9
-0.607405,0.345755,-0.135856,12,2
-1.36257,0.775933,0.137183,100,10
-0.928565,0.529,-0.169262,19,3
-1.35558,0.772582,0.191579,121,11
-1.32785,0.757087,-0.187679,100,4
-21.7097,12.378,3.95811,27,12
-1.34126,0.765039,-0.135091,100,5
-20.2762,11.57,4.53782,31,13
-1.33733,0.763417,-0.0807021,131,6
-20.1697,11.5186,5.36238,29,14
-1.34924,0.770532,-0.027121,100,7
-20.6874,11.819,6.38403,33,15
-1.30733,0.749319,-0.403758,2,0
-1.3463,0.771656,0.0270861,100,8
-1.33553,0.765793,-0.355423,5,1
-1.35132,0.77516,0.0816441,100,9
-0.561921,0.322467,-0.125934,14,2
-1.35812,0.779693,0.137009,100,10
-1.2266,0.70419,-0.224014,8,3
-1.34785,0.774107,0.190847,100,11
-1.33222,0.765442,-0.188654,100,4
-21.704,12.4753,3.96499,25,12
-1.33512,0.767729,-0.134743,100,5
-20.2803,11.6617,4.54736,36,13
-1.34518,0.773823,-0.0813301,128,6
-20.0774,11.5543,5.34799,11,14
-1.33961,0.771246,-0.0269814,100,7
-20.8201,11.9914,6.43787,17,15
-1.3047,0.753877,-0.403758,2,0
-1.34346,0.776585,0.0270861,100,8
-1.33609,0.772634,-0.356322,5,1
-1.35033,0.780873,0.0817488,100,9
-0.577786,0.334257,-0.12975,13,2
-1.3416,0.776445,0.135614,100,10
-1.28727,0.745302,-0.23559,11,3
-1.35531,0.785012,0.19231,100,11
-1.33284,0.77231,-0.189141,100,4
-20.0469,11.6161,3.66964,15,12
-1.32554,0.768388,-0.134046,100,5
-20.2001,11.7143,4.53896,23,13
-1.33888,0.776744,-0.0811207,134,6
-19.7365,11.4547,5.26835,33,14
-1.34037,0.777925,-0.0270512,100,7
-20.8934,12.131,6.47358,7,15
-1.29705,0.75551,-0.402205,2,0
-1.3236,0.770971,0.0267371,100,8
-1.33688,0.779023,-0.357222,5,1
-1.3476,0.785581,0.0817488,100,9
-0.569832,0.332316,-0.128224,14,2
-1.3406,0.782127,0.135789,100,10
-1.28991,0.752553,-0.236529,16,3
-1.3527,0.789502,0.19231,100,11
-1.3217,0.771721,-0.187923,100,4
-19.7913,11.5605,3.63022,23,12
-1.32285,0.773011,-0.134046,100,5
-20.1052,11.7485,4.52637,28,13
-1.33974,0.783195,-0.0813301,131,6
-19.6985,11.5201,5.26835,44,14
-1.3411,0.784619,-0.027121,100,7
-22.1347,12.9552,6.87216,4,15
-1.30121,0.763719,-0.404275,2,0
-1.3209,0.775587,0.0267371,100,8
-1.31063,0.769866,-0.350924,5,1
-1.35174,0.794328,0.0821675,100,9
-0.585653,0.344151,-0.13204,13,2
-1.34143,0.788588,0.136137,100,10
-1.29068,0.759054,-0.237155,18,3
-1.34309,0.790193,0.191335,100,11
-1.3344,0.785392,-0.190116,100,4
-19.8274,11.6746,3.6443,17,12
-1.31856,0.776382,-0.133871,100,5
-20.8557,12.2849,4.70497,8,13
-1.32323,0.779755,-0.0804927,128,6
-19.6094,11.5601,5.25531,5,14
-1.34352,0.792343,-0.0272258,100,7
-21.8048,12.8645,6.78365,24,15
-1.30685,0.773175,-0.406864,2,0
-1.33023,0.787322,0.0269814,100,8
-1.33693,0.791917,0.0814348,100,9
-0.584448,0.346193,-0.13204,13,2
-1.34724,0.798344,0.137009,100,10
-1.28292,0.760533,-0.236216,12,3
-1.33861,0.793863,0.191091,100,11
-1.30945,0.776878,-0.186948,100,4
-19.8562,11.7851,3.65713,24,12
-1.3227,0.785048,-0.134568,100,5
-19.6226,11.651,4.43593,20,13
-1.32394,0.786409,-0.0807021,125,6
-20.5188,12.1929,5.5104,25,14
-1.33215,0.791919,-0.0270512,100,7
-21.5871,12.8379,6.72981,7,15
-1.30912,0.7807,-0.408416,2,0
-1.32919,0.792985,0.0270163,100,8
-1.31527,0.78499,-0.353623,4,1
-1.33758,0.798626,0.0816441,100,9
-0.573123,0.342192,-0.12975,13,2
-1.34616,0.804063,0.137183,100,10
-1.08865,0.650509,-0.200862,7,3
-1.34265,0.802606,0.192066,100,11
-1.31696,0.787557,-0.18841,100,4
-1.32166,0.790683,-0.134743,100,5
-19.5582,11.7053,4.43058,37,13
-1.32804,0.795129,-0.0811207,139,6
-23.5188,14.0869,6.32922,100,14
-1.32424,0.79348,-0.0269465,100,7
-20.1072,12.053,6.28154,19,15
-1.29811,0.780289,-0.405828,1,0
-1.32813,0.798651,0.0270512,100,8
-1.3192,0.793595,-0.355423,5,1
-1.33992,0.80638,0.0819581,100,9
-0.595474,0.358363,-0.135093,12,2
-1.32286,0.796426,0.135091,100,10
-0.90023,0.542197,-0.166446,17,3
-1.35004,0.813434,0.193529,100,11
-1.3091,0.789075,-0.187679,100,4
-19.4317,11.7173,3.59393,14,12
-1.30695,0.78809,-0.133523,100,5
-19.4937,11.7593,4.42524,20,13
-1.32868,0.801825,-0.0813301,138,6
-1.32659,0.801199,-0.0270512,100,7
-20.2006,12.205,6.32399,13,15
-1.30529,0.790821,-0.408934,1,0
-1.31507,0.797064,0.0268418,100,8
-1.32309,0.802236,-0.357222,4,1
-1.34066,0.81289,0.0821675,100,9
-0.560648,0.340076,-0.12746,14,2
-1.32859,0.806207,0.135963,100,10
-0.889889,0.54021,-0.164882,24,3
-1.34211,0.81505,0.192797,100,11
-1.30803,0.794671,-0.187923,100,4
-19.4384,11.8094,3.60237,27,12
-1.311,0.796786,-0.13422,100,5
-23.4668,14.2681,5.33845,45,13
-1.32587,0.806458,-0.0813301,128,6
-23.4982,14.2983,6.35037,35,14
-1.32735,0.807673,-0.027121,100,7
-20.0775,12.2217,6.2981,13,15
-1.29922,0.793359,-0.407899,1,0
-1.31583,0.803504,0.0269116,100,8
-1.30711,0.798492,-0.353623,2,1
-1.34122,0.819648,0.0823768,96,9
-0.552758,0.337935,-0.125934,14,2
-1.32916,0.812918,0.136312,97,10
-0.872926,0.533882,-0.162066,19,3
-1.33939,0.819496,0.192797,100,11
-1.31047,0.802113,-0.188654,100,4
-19.4998,11.9401,3.62146,23,12
-1.3184,0.807602,-0.135266,100,5
-23.031,14.1079,5.24992,14,13
-1.31297,0.804589,-0.0807021,128,6
-24.8595,15.2399,6.73188,9,14
-1.32793,0.814392,-0.0271908,100,7
-12.8389,7.87694,4.03602,6,15
-1.29329,0.795638,-0.406864,1,0
-1.32665,0.816477,0.0271908,100,8
-1.29602,0.797941,-0.351374,2,1
-1.33509,0.821996,0.0821675,89,9
-0.610141,0.375801,-0.139291,12,2
-1.33664,0.823593,0.137357,100,10
-0.866013,0.533817,-0.161128,13,3
-1.33822,0.825209,0.193041,99,11
-1.29428,0.798119,-0.186704,100,4
-19.3945,11.9643,3.60926,17,12
-1.31233,0.809877,-0.134917,100,5
-21.8022,13.4601,4.9805,16,13
-1.31015,0.809167,-0.0807021,125,6
-21.201,13.094,5.7529,7,14
-1.32352,0.81774,-0.0271559,100,7
-20.0432,12.3886,6.31363,20,15
-1.31364,0.814171,-0.41411,1,0
-1.32223,0.819818,0.0271559,100,8
-1.30165,0.80737,-0.353623,2,1
-1.34085,0.831683,0.0826908,77,9
-0.558845,0.346769,-0.127842,14,2
-1.34406,0.834325,0.138403,86,10
-0.842422,0.523138,-0.15706,8,3
-1.34559,0.835927,0.194503,75,11
-1.30006,0.807644,-0.187923,100,4
-21.1852,13.1661,3.9506,12,12
-1.31471,0.81738,-0.13544,100,5
-21.3974,13.3083,4.89807,31,13
-1.31085,0.815617,-0.0809114,122,6
-24.8075,15.4353,6.74538,9,14
-1.3191,0.821068,-0.027121,100,7
-19.9397,12.4162,6.29396,19,15
-1.31093,0.818523,-0.41411,1,0
-1.31951,0.824198,0.0271559,100,8
-1.33639,0.835067,0.0825861,67,9
-0.561022,0.350701,-0.128605,14,2
-1.33284,0.833496,0.137532,72,10
-0.788768,0.493451,-0.147361,18,3
-1.35291,0.846703,0.195966,46,11
-1.30228,0.815337,-0.188654,100,4
-19.3934,12.1419,3.62396,10,12
-1.30524,0.817505,-0.134743,100,5
-19.9041,12.4713,4.56568,11,13
-1.32168,0.828446,-0.0817488,100,6
-24.841,15.5767,6.76923,20,14
-1.31298,0.823313,-0.0270512,100,7
-1.30806,0.823094,-0.41411,1,0
-1.31169,0.825374,0.0270512,91,8
-1.30946,0.824291,-0.357222,1,1
-1.34191,0.845048,0.0831095,60,9
-0.566439,0.356843,-0.130132,13,2
-1.32486,0.834956,0.137009,55,10
-0.738663,0.465521,-0.138288,29,3
-1.3652,0.860713,0.19816,12,11
-1.30293,0.821769,-0.189141,100,4
-21.2354,13.3985,3.97688,23,12
-1.29564,0.817802,-0.134046,100,5
-19.7978,12.4963,4.55079,13,13
-1.31048,0.827492,-0.0812254,100,6
-21.1184,13.3402,5.76685,28,14
-1.31179,0.82896,-0.0270861,100,7
-11.8011,7.46035,3.74097,24,15
-1.31893,0.836374,0.0272607,83,8
-1.31645,0.83512,-0.359922,1,1
-1.34401,0.852937,0.0834235,50,9
-0.565189,0.358818,-0.130132,13,2
-1.33554,0.847888,0.138403,39,10
-0.723693,0.459624,-0.135785,32,3
-20.0626,12.7468,2.91853,39,11
-1.3034,0.828442,-0.189629,100,4
-25.5275,16.2315,4.79128,14,12
-1.30286,0.828736,-0.135091,100,5
-20.5453,13.0737,4.73359,6,13
-1.3007,0.828,-0.0808067,100,6
-20.9402,13.3301,5.73085,55,14
-1.32744,0.845349,-0.0274701,93,7
-11.8288,7.53576,3.75805,25,15
-1.31754,0.842279,0.0272956,72,8
-1.32651,0.848339,-0.363521,1,1
-1.3392,0.856782,0.0833189,44,9
-0.563871,0.360888,-0.130132,13,2
-1.34417,0.860296,0.139624,10,10
-0.725331,0.464404,-0.136411,50,3
-19.9906,12.8042,2.91487,46,11
-1.28699,0.824646,-0.187679,93,4
-24.6147,15.7781,4.63077,3,12
-1.30652,0.837808,-0.135789,92,5
-21.6325,13.8771,4.99576,26,13
-1.30102,0.834919,-0.0810161,100,6
-20.8486,13.3794,5.71916,41,14
-1.32434,0.850209,-0.0274701,85,7
-11.7929,7.57384,3.75546,25,15
-1.32453,0.853602,0.027505,61,8
-1.34795,0.869026,0.0840516,21,9
-0.552708,0.356469,-0.127842,14,2
-24.7476,15.9671,2.57667,30,10
-0.726944,0.469202,-0.137037,61,3
-25.5481,16.4899,3.73359,12,11
-1.28243,0.828056,-0.187435,83,4
-24.1463,15.5971,4.55287,6,12
-1.30024,0.8402,-0.13544,82,5
-24.9354,16.1129,5.77083,17,13
-1.31166,0.847903,-0.0818534,100,6
-23.3954,15.1294,6.43225,9,14
-1.31632,0.851568,-0.0273654,73,7
-11.7762,7.62126,3.75857,54,15
-1.32017,0.85667,0.0274701,41,8
-20.0938,13.0491,1.25564,20,9
-0.554816,0.360439,-0.128605,14,2
-25.0315,16.2618,2.61153,15,10
-0.715528,0.465024,-0.135159,53,3
-25.0839,16.3084,3.67363,12,11
-1.288,0.837716,-0.188654,69,4
-34.9055,22.7026,6.59496,14,12
-1.2976,0.844281,-0.13544,70,5
-24.8143,16.1516,5.75518,13,13
-1.31386,0.855517,-0.0821675,79,6
-24.9192,16.2322,6.86596,20,14
-1.32705,0.864431,-0.0276446,58,7
-11.4301,7.44833,3.65556,18,15
-1.32401,0.86542,0.0276097,13,8
-25.0196,16.3661,1.56683,28,9
-0.550395,0.360031,-0.127842,14,2
-26.1244,17.0953,2.73146,41,10
-0.707371,0.463067,-0.133908,34,3
-20.6737,13.5388,3.0343,34,11
-1.30182,0.852861,-0.191091,73,4
-28.2273,18.4996,5.34537,22,12
-1.30479,0.855132,-0.136486,63,5
-24.6047,16.1315,5.71893,4,13
-1.32104,0.866442,-0.0827955,73,6
-25.3638,16.6419,7.00363,20,14
-1.32569,0.870155,-0.0276795,33,7
-11.3846,7.47546,3.64935,23,15
-23.088,15.2064,0.482559,16,8
-25.4893,16.8007,1.59991,15,9
-0.542578,0.357628,-0.126316,14,2
-25.193,16.6117,2.64012,31,10
-0.695857,0.459007,-0.132031,29,3
-20.5866,13.5847,3.02845,33,11
-1.30546,0.861775,-0.192066,61,4
-28.156,18.5937,5.34411,36,12
-1.30678,0.862975,-0.137009,52,5
-24.3451,16.0831,5.67161,17,13
-1.31301,0.867744,-0.0824815,58,6
-25.8729,17.1054,7.16064,10,14
-22.8419,15.1073,-0.478021,49,7
-11.2554,7.44693,3.61622,22,15
-18.871,12.5236,0.395332,32,8
-23.2154,15.4126,1.46038,20,9
-0.531513,0.353003,-0.124026,14,2
-20.7007,13.7535,2.17436,22,10
-0.689315,0.458153,-0.131092,15,3
-20.744,13.7927,3.05868,43,11
-1.28922,0.857531,-0.190116,52,4
-25.1484,16.7275,4.78377,14,12
-1.31869,0.877465,-0.138578,46,5
-24.0731,16.0244,5.62123,4,13
-1.31828,0.877857,-0.0830048,18,6
-23.4808,15.642,6.51368,37,14
-23.266,15.4989,-0.487969,60,7
-11.0972,7.39529,3.57326,32,15
-18.7097,12.5061,0.392819,37,8
-23.1017,15.4535,1.45661,27,9
-0.553121,0.370142,-0.129368,13,2
-19.8694,13.3014,2.09191,26,10
-0.704207,0.471425,-0.134221,13,3
-20.6932,13.8581,3.05795,34,11
-1.29132,0.865116,-0.190847,44,4
-25.0472,16.7866,4.77563,7,12
-1.31397,0.880953,-0.138403,13,5
-23.8567,15.9948,5.58307,8,13
-22.9998,15.4261,-1.45138,28,6
-20.7037,13.8914,5.75605,14,14
-22.7137,15.2457,-0.477498,98,7
-11.0376,7.41137,3.56239,15,15
-18.6029,12.5289,0.391492,42,8
-25.0218,16.8647,1.58138,15,9
-0.581194,0.391725,-0.136238,12,2
-19.7277,13.3015,2.08163,10,10
-0.70747,0.477194,-0.135159,26,3
-20.5197,13.8459,3.03942,34,11
-1.3031,0.879614,-0.193041,24,4
-20.4815,13.8306,3.9143,12,12
-13.8336,9.34143,-1.46038,23,5
-23.8691,16.1241,5.5991,4,13
-22.8631,15.4504,-1.44615,21,6
-20.5582,13.8981,5.72905,27,14
-20.6494,13.9649,-0.435123,63,7
-11.6341,7.87095,3.76375,9,15
-18.7957,12.7543,0.396484,20,8
-32.0279,21.7498,2.02896,23,9
-0.544092,0.369487,-0.127842,14,2
-30.3837,20.641,3.21361,10,10
-0.7058,0.479661,-0.135159,33,3
-20.2841,13.7902,3.01164,25,11
-13.7947,9.38189,-2.04838,24,4
-24.4443,16.6311,4.68271,6,12
-13.8932,9.45242,-1.47014,6,5
-21.211,14.4366,4.98737,9,13
-13.9667,9.50961,-0.885524,40,6
-20.785,14.1573,5.80599,7,14
-20.6187,14.0493,-0.435507,99,7
-11.8013,8.04426,3.8269,23,15
-18.7675,12.8312,0.396833,40,8
-0.437514,0.299236,-0.122373,15,1
-22.9748,15.7194,1.45892,12,9
-0.562242,0.384687,-0.132421,13,2
-30.2523,20.7064,3.20733,10,10
-0.700861,0.47989,-0.134534,33,3
-20.149,13.8015,2.99872,24,11
-15.5975,10.6878,-2.32161,32,4
-24.4122,16.7341,4.68772,6,12
-13.4525,9.22149,-1.42691,30,5
-25.9191,17.7738,6.10894,5,13
-22.7711,15.6209,-1.44719,49,6
-16.9499,11.6319,4.74602,20,14
-22.772,15.6332,-0.48214,80,7
-18.7144,12.8909,0.396658,40,8
-0.436467,0.300761,-0.122373,15,1
-20.4466,14.0946,1.30149,14,9
-0.573827,0.395561,-0.135474,12,2
-30.0387,20.7146,3.19234,10,10
-0.694304,0.478968,-0.133595,42,3
-21.5809,14.8932,3.21954,38,11
-15.6075,10.7749,-2.32868,27,4
-25.6247,17.6971,4.93238,7,12
-13.4727,9.30462,-1.43249,28,5
-25.0896,17.334,5.92767,46,13
-22.9794,15.882,-1.46394,36,6
-23.3834,16.1673,6.56317,37,14
-17.4084,12.0407,-0.369467,83,7
-11.0713,7.66039,3.60742,4,15
-18.3052,12.6987,0.388875,30,8
-0.435467,0.302207,-0.122373,15,1
-20.4227,14.1783,1.30296,8,9
-0.546709,0.379548,-0.129368,13,2
-31.9009,22.1552,3.39803,11,10
-0.702445,0.48803,-0.135472,39,3
-20.5338,14.2714,3.07038,34,11
-13.3746,9.29907,-2.00012,36,4
-37.4042,26.0159,7.21632,18,12
-13.5514,9.42547,-1.44417,31,5
-25.0707,17.4441,5.93683,9,13
-18.3383,12.7645,-1.17096,39,6
-23.2609,16.1969,6.54383,27,14
-20.7502,14.454,-0.441406,27,7
-11.3818,7.93121,3.71716,5,15
-18.2837,12.7786,0.389363,27,8
-24.0294,16.8068,1.53679,5,9
-0.558251,0.390456,-0.132421,13,2
-24.6976,17.2806,2.63716,31,10
-0.694264,0.485948,-0.134221,33,3
-20.4595,14.3259,3.06672,17,11
-13.2071,9.25117,-1.97989,24,4
-20.9675,14.6925,4.05509,2,12
-13.4841,9.4487,-1.44051,31,5
-21.7189,15.2247,5.15566,31,13
-18.1923,12.7573,-1.16448,52,6
-21.0314,14.7537,5.93106,30,14
-18.7943,13.1893,-0.400777,49,7
-11.4616,8.04637,3.75236,46,15
-18.1049,12.7479,0.386501,70,8
-0.513006,0.36135,-0.144868,12,1
-14.5095,10.2202,0.930115,8,9
-0.556885,0.392403,-0.132421,13,2
-24.7772,17.4654,2.65215,15,10
-0.708707,0.499753,-0.137349,12,3
-21.0663,14.8607,3.16543,18,11
-13.1958,9.30865,-1.98281,2,4
-20.8848,14.738,4.04852,34,12
-13.3095,9.39575,-1.42534,30,5
-20.7916,14.6832,4.94768,16,13
-17.2814,12.2088,-1.10889,26,6
-19.7393,13.9452,5.57969,39,14
-18.7064,13.2204,-0.399835,90,7
-11.3433,8.01965,3.72234,12,15
-18.3055,12.9802,0.391702,27,8
-0.432332,0.306675,-0.122373,15,1
-26.6803,18.9256,1.71432,3,9
-0.555581,0.394247,-0.132421,13,2
-31.3916,22.2841,3.36805,11,10
-0.687719,0.488375,-0.133595,14,3
-20.2547,14.3889,3.05063,42,11
-13.7621,9.77658,-2.07275,18,4
-13.2782,9.43983,-1.42534,33,5
-21.6067,15.3665,5.15375,31,13
-18.0253,12.8241,-1.15935,33,6
-19.7294,14.0365,5.59003,52,14
-20.3617,14.4917,-0.43624,45,7
-11.4363,8.14237,3.76168,46,15
-18.36,13.1106,0.393796,37,8
-0.431313,0.308107,-0.122373,15,1
-26.6092,19.0152,1.714,14,9
-0.576633,0.412068,-0.137764,12,2
-26.3919,18.8669,2.83831,17,10
-8.49506,6.07514,-1.65414,2,3
-20.0325,14.3313,3.02431,25,11
-13.8053,9.88,-2.08445,24,4
-37.4642,26.8217,7.29767,9,12
-13.1837,9.43858,-1.41855,11,5
-21.4056,15.3306,5.11788,21,13
-17.9696,12.8745,-1.15851,38,6
-16.8181,12.0539,4.77706,45,14
-20.3224,14.5709,-0.436485,45,7
-20.5527,14.7849,0.44193,31,8
-0.430235,0.309611,-0.122373,15,1
-13.8038,9.9373,0.891386,4,9
-0.575191,0.414078,-0.137764,12,2
-26.1722,18.8483,2.82175,8,10
-0.684379,0.493045,-0.133595,7,3
-20.2577,14.5996,3.06599,17,11
-13.7692,9.92697,-2.08421,18,4
-25.2067,18.1797,4.92237,3,12
-22.6719,16.3514,-2.44559,7,5
-24.9565,18.0059,5.98186,19,13
-18.1675,13.1125,-1.17421,39,6
-21.1382,15.2622,6.01924,31,14
-20.2811,14.6487,-0.436694,99,7
-22.3841,16.1736,7.39964,9,15
-13.3456,9.67128,0.287685,14,8
-0.473329,0.343137,-0.134971,14,1
-14.1249,10.2397,0.914309,12,9
-0.573742,0.416083,-0.137764,12,2
-26.0789,18.9196,2.81879,17,10
-12.4285,9.01987,-2.43224,3,3
-20.8026,15.1029,3.15642,9,11
-13.8436,10.0543,-2.10078,63,4
-23.1244,16.7947,4.52659,13,12
-17.0472,12.3855,-1.84352,18,5
-21.8476,15.879,5.24992,18,13
-18.1669,13.2087,-1.17714,24,6
-16.8786,12.2765,4.81845,34,14
-18.0315,13.1151,-0.389189,80,7
-21.0869,15.343,6.9876,8,15
-20.4532,14.9257,0.441965,23,8
-0.506816,0.369983,-0.144868,12,1
-14.0713,10.276,0.913158,8,9
-0.569115,0.415767,-0.137001,12,2
-27.9092,20.3965,3.0243,38,10
-0.693766,0.507016,-0.136098,12,3
-25.2539,18.4627,3.84108,37,11
-13.7061,10.024,-2.08494,31,4
-24.4064,17.8563,4.78971,18,12
-24.6601,18.0485,-2.67359,8,5
-24.0175,17.5782,5.78533,8,13
-18.0972,13.25,-1.17547,48,6
-20.8735,15.2883,5.97335,38,14
-18.2066,13.3398,-0.393971,40,7
-20.9304,15.3412,6.95343,21,15
-20.3881,14.9875,0.441685,34,8
-0.427024,0.314025,-0.122373,15,1
-26.7016,19.643,1.73724,14,9
-0.570896,0.419979,-0.137764,12,2
-27.8238,20.476,3.02239,38,10
-13.4533,9.90412,-2.64593,7,3
-20.255,14.9169,3.08866,17,11
-13.7541,10.133,-2.09762,24,4
-24.239,17.864,4.76906,18,12
-14.0306,10.3405,-1.52488,6,5
-20.0545,14.7854,4.84311,12,13
-13.7848,10.1668,-0.897666,10,6
-20.7667,15.3217,5.95805,30,14
-18.2049,13.4366,-0.394948,89,7
-18.3062,13.5162,6.09726,18,15
-20.2874,15.0229,0.440638,34,8
-0.425925,0.315513,-0.122373,15,1
-26.1916,19.4091,1.70846,10,9
-0.578891,0.428982,-0.140054,11,2
-25.1768,18.6639,2.74192,66,10
-8.50307,6.30573,-1.67666,5,3
-13.8159,10.2531,-2.11248,33,4
-30.8761,22.9222,6.09062,57,12
-13.9785,10.3775,-1.52313,3,5
-20.05,14.8905,4.85456,12,13
-13.4415,9.98614,-0.877569,19,6
-18.295,13.597,5.26251,22,14
-18.0151,13.3938,-0.391841,27,7
-16.9351,12.5954,5.6552,4,15
-20.408,15.2227,0.444408,11,8
-0.468553,0.34963,-0.134971,14,1
-15.4162,11.5076,1.0082,4,9
-0.624588,0.466232,-0.151502,9,2
-27.5684,20.5863,3.01019,18,10
-8.42087,6.29045,-1.66478,6,3
-20.2903,15.1625,3.11011,26,11
-13.9279,10.4118,-2.13515,19,4
-30.8528,23.0725,6.10188,11,12
-20.1984,15.1048,-2.20661,12,5
-20.0341,14.9874,4.86334,3,13
-13.4225,10.045,-0.878616,16,6
-18.2194,13.6397,5.25441,60,14
-18.199,13.6344,6.09312,36,15
-20.2332,15.2026,0.441755,11,8
-0.423712,0.318479,-0.122373,15,1
-0.622957,0.46841,-0.151502,9,2
-20.7739,15.6259,2.27424,12,10
-8.38465,6.30911,-1.66196,13,3
-19.9089,14.9861,3.05965,17,11
-8.13982,6.12934,-1.25111,8,4
-38.4624,28.9729,7.62681,10,12
-20.1949,15.2124,-2.21201,12,5
-16.769,12.6363,4.0814,36,13
-13.4448,10.135,-0.882384,40,6
-18.153,13.6892,5.24901,60,14
-17.6178,13.2905,-0.38521,80,7
-20.0844,15.2007,0.439661,37,8
-0.422598,0.319956,-0.122373,15,1
-13.6226,10.3139,0.895468,38,9
-0.590017,0.446875,-0.14387,11,2
-20.6589,15.6526,2.26762,66,10
-8.87579,6.72733,-1.76396,13,3
-19.7806,14.998,3.04795,25,11
-13.548,10.2761,-2.08787,40,4
-21.0803,15.9892,4.19057,5,12
-14.3611,10.8967,-1.57717,10,5
-13.325,10.1179,-0.876837,13,6
-18.1159,13.7607,5.25216,33,14
-17.6628,13.4166,-0.387164,88,7
-17.9689,13.6539,6.04705,39,15
-0.46096,0.351284,-0.155291,12,0
-13.1661,10.0335,0.288942,13,8
-0.440132,0.335533,-0.127772,14,1
-13.1291,10.0126,0.865323,8,9
-0.52914,0.403681,-0.129368,13,2
-20.5551,15.6871,2.26221,60,10
-14.3731,10.9692,-2.86369,4,3
-18.2586,13.9396,2.82054,14,11
-13.6448,10.4209,-2.1081,47,4
-20.9632,16.016,4.17837,19,12
-14.0443,10.7338,-1.54649,13,5
-18.2221,13.9268,4.45806,49,13
-17.5738,13.4361,-1.15935,52,6
-17.2312,13.179,5.00831,4,14
-17.7001,13.5425,-0.389014,64,7
-19.8869,15.2652,0.437602,31,8
-0.44514,0.341815,-0.129572,14,1
-0.59319,0.455664,-0.145396,10,2
-20.4935,15.7479,2.26117,24,10
-13.2572,10.191,-2.64844,15,3
-16.8959,12.9928,2.61702,36,11
-13.6306,10.4819,-2.11126,19,4
-20.7628,15.9722,4.14896,2,12
-15.1613,11.6674,-1.67374,18,5
-18.0645,13.9065,4.43135,45,13
-17.5141,13.4877,-1.15851,47,6
-17.05,13.1303,4.96827,23,14
-17.6218,13.5755,-0.388281,96,7
-17.1043,13.1816,5.78616,2,15
-19.7048,15.2296,0.434705,31,8
-0.450171,0.348057,-0.131371,14,1
-13.3595,10.3291,0.885001,26,9
-0.579252,0.44802,-0.142344,11,2
-23.9898,18.5615,2.65372,15,10
-13.2921,10.2881,-2.6622,7,3
-16.8794,13.0694,2.62117,12,11
-13.5785,10.5136,-2.10858,36,4
-16.7742,12.9927,3.36053,43,12
-13.9524,10.8109,-1.54423,32,5
-17.9376,13.9038,4.4115,67,13
-20.3892,15.8098,-1.35215,19,6
-20.148,15.6228,5.88607,7,14
-20.9027,16.2138,-0.461756,100,7
-29.0523,22.5434,9.85324,18,15
-20.1292,15.6645,0.445211,15,8
-0.41826,0.325606,-0.122373,15,1
-13.3454,10.3928,0.886467,29,9
-0.577763,0.449938,-0.142344,11,2
-26.6755,20.7813,2.95841,9,10
-8.20185,6.39187,-1.64694,11,3
-21.2164,16.5403,3.30315,20,11
-13.6466,10.6428,-2.12491,33,4
-13.8772,10.8264,-1.53987,16,5
-17.9564,14.0139,4.42753,35,13
-12.9155,10.0834,-0.858728,35,6
-17.1138,13.366,5.01326,19,14
-19.7272,15.4126,-0.436973,45,7
-12.6351,9.87514,4.29691,5,15
-13.3871,10.4931,0.2969,42,8
-0.447791,0.351113,-0.131371,14,1
-0.56692,0.444682,-0.140054,11,2
-20.0383,15.7233,2.2284,64,10
-13.0912,10.2759,-2.63592,9,3
-20.6808,16.2391,3.22856,9,11
-13.5282,10.6266,-2.11224,11,4
-13.7704,10.8206,-1.5322,15,5
-21.3894,16.8137,5.28846,22,13
-12.5756,9.88894,-0.838422,100,6
-17.1314,13.4762,5.03216,24,14
-25.8193,20.3178,-0.573486,22,7
-0.440446,0.347843,-0.129572,14,1
-23.1129,18.2535,1.54349,11,9
-0.574608,0.453961,-0.142344,11,2
-19.9036,15.7302,2.21951,46,10
-12.8724,10.177,-2.599,20,3
-16.7953,13.2832,2.62921,56,11
-13.7977,10.9164,-2.16026,16,4
-17.8696,14.1379,3.60894,100,12
-13.6903,10.8353,-1.52749,21,5
-25.3049,20.0349,6.2738,5,13
-12.5175,9.91417,-0.836852,59,6
-21.7139,17.204,6.39581,8,14
-19.2755,15.2721,-0.429259,53,7
-13.3107,10.5802,0.296796,52,8
-0.414885,0.329896,-0.122373,15,1
-26.5206,21.0955,1.77597,7,9
-0.58531,0.465743,-0.145396,10,2
-19.8719,15.8182,2.22212,23,10
-13.1075,10.4337,-2.65344,5,3
-17.8615,14.2229,2.80348,100,11
-13.7366,10.9423,-2.15636,19,4
-17.834,14.2112,3.61176,68,12
-13.3268,10.6234,-1.49106,15,5
-23.0031,18.3369,5.71816,34,13
-12.6095,10.0552,-0.845226,32,6
-16.8717,13.4589,4.98267,23,14
-13.4389,10.7243,-0.300112,54,7
-16.6242,13.2709,5.69971,60,15
-13.3268,10.6691,0.297982,26,8
-0.413731,0.331342,-0.122373,15,1
-26.6142,21.3144,1.78696,3,9
-0.531668,0.425946,-0.132421,13,2
-16.8406,13.4967,1.88814,59,10
-13.3531,10.7055,-2.7107,28,3
-17.7916,14.2691,2.80031,100,11
-13.8114,11.0808,-2.17415,83,4
-19.6496,15.7648,3.99002,23,12
-13.9767,11.2175,-1.56793,20,5
-22.9589,18.433,5.72313,12,13
-12.5417,10.0729,-0.843028,48,6
-16.8231,13.5165,4.98222,33,14
-13.3424,10.7199,-0.29875,32,7
-12.3127,9.89615,4.23273,5,15
-19.8801,16.0241,0.4457,21,8
-0.41263,0.332712,-0.122373,15,1
-33.5772,27.0837,2.26081,52,9
-0.566847,0.457388,-0.14158,11,2
-16.8492,13.6004,1.89442,34,10
-12.3614,9.97797,-2.51609,28,3
-17.7534,14.3355,2.80178,100,11
-13.8518,11.1889,-2.18634,42,4
-18.4728,14.927,3.76162,4,12
-14.0723,11.3752,-1.5831,37,5
-21.099,17.0552,5.27358,10,13
-12.7505,10.3104,-0.859356,22,6
-16.81,13.5979,4.99166,23,14
-13.322,10.7803,-0.299134,41,7
-21.5321,17.4301,7.42293,19,15
-19.7527,16.0354,0.444094,28,8
-0.465925,0.378377,-0.13857,13,1
-15.0374,12.2118,1.01521,46,9
-0.57447,0.466692,-0.14387,11,2
-17.6884,14.375,1.99412,99,10
-12.2989,9.99862,-2.51046,16,3
-13.577,11.0456,-2.14904,26,4
-19.8943,16.1849,4.06198,31,12
-14.1303,11.4998,-1.5939,16,5
-16.9149,13.7709,4.23978,6,13
-12.7624,10.3939,-0.862601,35,6
-16.9377,13.7993,5.04385,39,14
-13.3234,10.8547,-0.299972,100,7
-16.2045,13.2066,5.60136,11,15
-33.4888,27.3712,0.754956,8,8
-0.410356,0.335513,-0.122373,15,1
-14.9699,12.244,1.01354,31,9
-0.542448,0.44383,-0.136238,12,2
-17.6273,14.4278,1.9929,66,10
-12.761,10.4447,-2.61183,22,3
-23.9527,19.6121,3.80111,24,11
-13.5004,11.0578,-2.14271,33,4
-19.7551,16.1867,4.04508,23,12
-13.6401,11.1802,-1.54301,9,5
-18.9068,15.4971,4.75191,12,13
-12.873,10.5552,-0.87244,78,6
-12.6519,10.3776,3.77783,40,14
-19.098,15.6705,-0.431214,81,7
-16.2061,13.3023,5.61793,11,15
-14.9715,12.3328,0.338577,36,8
-0.409064,0.337086,-0.122373,15,1
-14.9619,12.3293,1.01605,20,9
-0.555967,0.458304,-0.140054,11,2
-17.5897,14.505,1.99465,100,10
-12.6872,10.466,-2.60495,31,3
-18.5506,15.3083,2.95314,48,11
-13.7349,11.3383,-2.18682,19,4
-19.6545,16.225,4.03664,31,12
-14.1951,11.7224,-1.61064,17,5
-16.9567,14.0079,4.27527,26,13
-13.2635,10.9608,-0.901749,94,6
-12.597,10.4137,3.77333,92,14
-14.6356,12.099,-0.331456,22,7
-16.2182,13.4121,5.63915,9,15
-14.9136,12.3684,0.338193,89,8
-0.407944,0.338441,-0.122373,15,1
-14.9726,12.4261,1.01971,45,9
-0.5453,0.452717,-0.137764,12,2
-12.692,10.5408,-2.61308,20,3
-21.7841,18.0983,3.47742,32,11
-12.6606,10.5223,-2.02133,22,4
-19.0434,15.8326,3.92244,10,12
-13.2856,11.0495,-1.5118,50,5
-16.6355,13.8356,4.20581,36,13
-18.9039,15.739,-0.429364,97,7
-16.2767,13.5564,5.6759,19,15
-0.40676,0.339863,-0.122373,15,1
-14.9252,12.4705,1.0193,47,9
-0.537771,0.449487,-0.136238,12,2
-17.5379,14.664,2.00005,38,10
-12.6278,10.5623,-2.60745,45,3
-24.4231,20.4354,3.91006,12,11
-13.0424,10.9168,-2.08835,78,4
-16.9095,14.1535,3.49256,10,12
-13.2305,11.0781,-1.50971,81,5
-16.3974,13.7347,4.15773,25,13
-18.784,15.7393,-1.28432,23,6
-16.6851,13.9856,5.02631,39,14
-14.91,12.4977,-0.339589,48,7
-21.9842,18.4339,7.68744,10,15
-0.443575,0.372996,-0.155291,12,0
-16.7698,14.1015,0.382452,62,8
-0.405631,0.34121,-0.122373,15,1
-14.9549,12.5843,1.02432,14,9
-0.533194,0.448832,-0.135474,12,2
-20.6566,17.3945,2.36262,52,10
-12.5565,10.5735,-2.59994,33,3
-18.876,15.9007,3.0304,17,11
-12.8437,10.8231,-2.06227,27,4
-16.8615,14.2138,3.49287,16,12
-13.207,11.1371,-1.51145,34,5
-16.3173,13.7599,4.14895,48,13
-19.8904,16.7789,-1.36377,52,6
-16.8278,14.2005,5.08344,15,14
-14.8617,12.5458,-0.339484,26,7
-21.9537,18.5391,7.69935,5,15
-17.3675,14.7079,0.397252,100,8
-0.404437,0.342624,-0.122373,15,1
-21.6731,18.3671,1.48885,10,9
-0.552672,0.468368,-0.140817,11,2
-20.6702,17.5234,2.37081,65,10
-10.2446,8.68804,-2.12751,13,3
-18.7523,15.9087,3.01944,41,11
-13.272,11.2635,-2.13734,61,4
-12.7504,10.8246,2.64906,21,12
-14.0023,11.8875,-1.60698,42,5
-16.5714,14.0735,4.22604,18,13
-19.4649,16.5366,-1.33854,6,6
-16.7395,14.2263,5.07175,5,14
-16.7968,14.2801,-0.384826,100,7
-22.1096,18.8034,7.777,5,15
-17.3419,14.7905,0.397845,97,8
-0.403239,0.344034,-0.122373,15,1
-21.5754,18.4141,1.48655,13,9
-0.5361,0.457549,-0.137001,12,2
-32.5446,27.7858,3.74386,27,10
-8.12029,6.93538,-1.69137,12,3
-18.6543,15.9379,3.01261,50,11
-12.8343,10.9692,-2.073,63,4
-12.7335,10.887,2.65344,40,12
-13.8199,11.8159,-1.59077,16,5
-14.0742,12.0417,-0.970727,3,6
-22.9153,19.6131,6.96358,10,14
-16.7302,14.3243,-0.384442,26,7
-21.8046,18.6756,7.69262,10,15
-14.7614,12.6789,0.339659,29,8
-18.8647,16.209,1.30348,4,9
-0.525567,0.45174,-0.134711,12,2
-9.86769,8.48755,-2.06149,56,3
-18.6197,16.0211,3.01602,16,11
-12.7617,10.9807,-2.06715,54,4
-16.2651,14,3.39901,71,12
-13.7409,11.8315,-1.58641,27,5
-12.6127,10.8639,3.23574,48,13
-22.5741,19.4511,6.87945,10,14
-17.2309,14.8523,-0.397077,47,7
-21.5758,18.604,7.63361,15,15
-14.7223,12.7304,0.339729,70,8
-18.7806,16.2454,1.30139,18,9
-0.515158,0.445772,-0.132421,13,2
-20.7282,17.9427,2.39853,39,10
-9.89325,8.56678,-2.07276,28,3
-18.5484,16.0671,3.0131,16,11
-12.9173,11.1893,-2.09835,13,4
-16.1932,14.0319,3.39369,18,12
-16.0667,13.9272,-1.86025,22,5
-15.9955,13.8704,4.11537,25,13
-16.7498,14.5296,-1.16207,38,6
-22.4667,19.4888,6.86641,40,14
-17.2374,14.9579,-0.398369,28,7
-20.8006,18.0562,7.38048,19,15
-14.6891,12.787,0.339938,17,8
-0.399736,0.348098,-0.122373,15,1
-18.6259,16.2256,1.29458,24,9
-0.535882,0.466821,-0.138146,12,2
-20.7347,18.0689,2.4062,59,10
-10.1239,8.8254,-2.1272,75,3
-16.2404,14.1624,2.64578,57,11
-10.1721,8.87366,-1.65742,47,4
-16.1158,14.0637,3.38775,22,12
-14.6979,12.8263,-1.70668,69,5
-12.5048,10.9163,3.22658,14,13
-16.6624,14.5509,-1.15935,57,6
-21.6971,18.9542,6.65135,9,14
-19.0176,16.6194,-0.440848,100,7
-20.9483,18.3131,7.45554,20,15
-14.7872,12.9635,0.343254,12,8
-0.398518,0.349491,-0.122373,15,1
-18.5151,16.243,1.29081,10,9
-0.531298,0.4661,-0.137382,12,2
-20.6325,18.107,2.40166,26,10
-9.44429,8.29117,-1.99047,31,3
-16.1759,14.2059,2.64335,70,11
-12.6717,11.1363,2.6719,66,12
-14.6485,12.8736,-1.70616,85,5
-16.2369,14.2745,4.20238,13,13
-17.1005,15.039,-1.19347,100,6
-20.807,18.3052,6.39806,26,14
-18.8424,16.5826,-0.438125,100,7
-21.0235,18.5086,7.50523,25,15
-20.4218,18.0296,0.475508,15,8
-0.397296,0.35088,-0.122373,15,1
-18.4043,16.2541,1.28684,16,9
-0.523782,0.462752,-0.135856,12,2
-16.2129,14.3289,1.89302,34,10
-9.46265,8.36596,-2.00048,26,3
-18.5099,16.3704,3.03406,51,11
-9.64006,8.52881,-1.5804,6,4
-12.5992,11.1468,2.66439,65,12
-16.6729,14.7561,-1.94793,30,5
-16.2369,14.3753,4.21535,24,13
-17.0882,15.1344,-1.1963,30,6
-20.6657,18.3092,6.37421,35,14
-14.1129,12.5036,-0.329118,100,7
-20.8724,18.4988,7.47314,20,15
-20.3619,18.0972,0.475508,15,8
-0.436908,0.388451,-0.134971,14,1
-18.343,16.3143,1.28652,36,9
-0.516297,0.459357,-0.13433,12,2
-16.1598,14.3827,1.89267,93,10
-9.44076,8.40254,-2.00174,50,3
-24.6987,21.9903,4.06044,13,11
-9.67695,8.61882,-1.59113,48,4
-16.6005,14.7957,-1.94549,55,5
-14.9002,13.2849,-1.0462,7,6
-20.458,18.2466,6.32877,34,14
-14.5691,12.9988,-0.340811,26,7
-20.5742,18.3631,7.38928,24,15
-19.044,17.0453,0.446118,21,8
-0.447164,0.400373,-0.13857,13,1
-20.3881,18.2611,1.43442,20,9
-0.52647,0.471546,-0.137382,12,2
-19.896,17.8266,2.33717,44,10
-9.47315,8.49082,-2.01488,45,3
-12.6738,11.3635,2.09006,4,11
-9.70887,8.70822,-1.60136,34,4
-16.8231,15.0945,3.57985,17,12
-9.6481,8.65978,-1.13424,19,5
-18.545,16.6453,4.84388,15,13
-19.2839,17.3146,-1.35822,31,6
-20.3623,18.2893,6.31888,43,14
-14.5251,13.0509,-0.340845,100,7
-20.6795,18.5872,7.45037,10,15
-20.1757,18.1854,0.474112,15,8
-0.422607,0.381052,-0.131371,14,1
-18.3309,16.5342,1.29374,22,9
-0.518908,0.468211,-0.135856,12,2
-19.9251,17.9848,2.34832,19,10
-9.42144,8.50696,-2.0105,50,3
-12.6325,11.4064,2.08982,100,11
-9.65632,8.72209,-1.59771,45,4
-16.593,14.9929,3.54199,46,12
-9.61781,8.69341,-1.13424,47,5
-18.0179,16.2919,4.72176,14,13
-18.5596,16.7876,-1.31154,24,6
-20.3211,18.3873,6.32697,43,14
-17.8973,16.1941,-0.421301,43,7
-30.0487,27.1988,10.86,11,15
-20.1444,18.2915,0.47495,34,8
-0.464483,0.421906,-0.144868,12,1
-0.511458,0.464739,-0.13433,12,2
-18.4012,16.7262,2.17558,45,10
-9.41361,8.55972,-2.01519,61,3
-9.45254,8.59813,-1.56895,42,4
-16.4514,14.9696,3.5229,16,12
-9.58741,8.72693,-1.13424,11,5
-17.5124,15.9462,4.60384,52,13
-18.4847,16.8375,-1.31039,36,6
-20.5251,18.6961,6.40976,44,14
-17.814,16.2323,-0.420673,100,7
-30.3948,27.7056,11.02,23,15
-18.9545,17.3261,0.448248,12,8
-0.391174,0.357692,-0.122373,15,1
-0.521503,0.477033,-0.137382,12,2
-12.6336,11.5604,1.49821,84,10
-9.51923,8.7136,-2.04397,13,3
-20.1787,18.4775,3.35945,20,11
-9.35516,8.56642,-1.55749,43,4
-16.6129,15.2176,3.56827,10,12
-18.2502,16.7232,-2.16565,12,5
-17.9283,16.4397,-1.2748,23,6
-20.5578,18.851,6.43945,45,14
-18.0651,16.5711,-0.427898,97,7
-30.3583,27.8572,11.0402,11,15
-16.0496,14.7687,0.380707,100,8
-0.412926,0.380104,-0.129572,14,1
-18.2332,16.7898,1.29898,16,9
-0.508365,0.468121,-0.13433,12,2
-12.6099,11.6157,1.49995,100,10
-9.39441,8.65677,-2.02332,64,3
-18.7497,17.2836,3.13107,18,11
-9.40693,8.67438,-1.57114,53,4
-16.9328,15.6197,3.64868,21,12
-9.55129,8.81059,-1.13686,7,5
-17.7338,16.3642,4.69047,8,13
-17.7929,16.4246,-1.26904,22,6
-18.5576,17.1365,5.83163,14,14
-17.9984,16.6259,-0.427689,97,7
-27.8148,25.7027,10.1478,9,15
-15.9994,14.826,0.380742,28,8
-0.411597,0.381543,-0.129572,14,1
-12.6416,11.7226,0.903528,25,9
-0.49809,0.461883,-0.13204,13,2
-9.34241,8.66936,-2.01863,53,3
-18.7024,17.3611,3.13326,9,11
-9.26749,8.60586,-1.55286,34,4
-16.2544,15.0993,3.51383,22,12
-17.7549,16.4931,-2.12015,47,5
-20.5644,19.1096,5.45676,19,13
-18.5348,17.2357,5.84333,50,14
-16.0032,14.8867,-0.38151,27,7
-21.1345,19.6669,7.73558,21,15
-17.8979,16.7018,0.427305,22,8
-0.410262,0.382978,-0.129572,14,1
-12.6041,11.7658,0.903633,29,9
-0.507954,0.474338,-0.135093,12,2
-18.7294,17.496,2.24234,23,10
-9.47518,8.85432,-2.05398,35,3
-21.8407,20.4167,3.67095,24,11
-9.32729,8.72222,-1.56797,61,4
-16.2375,15.1841,3.52103,22,12
-9.46626,8.85528,-1.13407,26,5
-20.4846,19.1692,5.45332,15,13
-18.6779,17.4907,5.90766,36,14
-15.9406,14.9274,-0.381195,49,7
-31.1836,29.2117,11.4491,13,15
-12.6349,11.8691,0.30259,28,8
-0.386268,0.362984,-0.122373,15,1
-17.7232,16.6606,1.2748,10,9
-0.509156,0.478798,-0.135856,12,2
-18.6276,17.5231,2.23746,23,10
-9.25728,8.70839,-2.013,20,3
-18.4031,17.3179,3.10279,35,11
-9.23761,8.69595,-1.55773,56,4
-16.1887,15.2448,3.52197,8,12
-13.6613,12.8693,-1.64201,18,5
-18.9105,17.8141,5.04995,37,13
-15.9222,15.0043,-1.14658,23,6
-18.5645,17.5005,5.89012,29,14
-19.4333,18.3322,7.15842,9,15
-12.5803,11.9007,0.302276,92,8
-0.407646,0.385761,-0.129572,14,1
-17.646,16.7045,1.27344,22,9
-0.510417,0.483183,-0.136619,12,2
-18.5057,17.5245,2.22979,23,10
-10.5046,9.95108,-2.29177,17,3
-17.4823,16.5669,2.95728,8,11
-9.12796,8.65303,-1.54433,43,4
-18.7183,17.7506,4.08576,5,12
-13.7198,13.0105,-1.65422,14,5
-20.4349,19.3852,5.47507,20,13
-18.5669,17.6255,5.91036,36,14
-18.3823,17.4563,-0.442488,45,7
-19.358,18.3893,7.15428,9,15
-12.5474,11.9529,0.302485,63,8
-0.428869,0.408692,-0.13677,13,1
-17.5587,16.7385,1.27135,20,9
-0.517253,0.49309,-0.138909,12,2
-19.9771,19.0506,2.41509,13,10
-8.87467,8.46601,-1.9426,42,3
-18.1108,17.2829,3.07379,17,11
-9.22406,8.80546,-1.56578,73,4
-18.6948,17.8526,4.0942,30,12
-17.4869,16.6992,-2.11544,23,5
-19.5111,18.6387,5.24496,3,13
-18.4236,17.6121,5.88427,36,14
-12.5894,12.0391,-0.304056,83,7
-19.0284,18.203,7.05592,30,15
-0.4183,0.401135,-0.155291,12,0
-17.4408,16.731,0.42186,13,8
-0.438688,0.420981,-0.140369,13,1
-17.5189,16.8176,1.27271,18,9
-0.495701,0.475858,-0.133566,26,2
-20.5946,19.7771,2.49806,35,10
-9.16559,8.80485,-2.013,68,3
-17.0485,16.3832,2.90317,85,11
-9.12028,8.76745,-1.55335,14,4
-17.7083,17.0291,3.89115,5,12
-9.49981,9.13548,-1.15307,26,5
-17.5825,16.9141,4.74237,12,13
-17.1314,16.4859,-1.24601,66,6
-18.3452,17.6601,5.87887,36,14
-18.9954,18.2988,7.06731,21,15
-17.9331,17.3239,0.435228,17,8
-0.403584,0.390009,-0.129572,14,1
-20.9438,20.2464,1.52664,5,9
-0.499683,0.483044,-0.135093,12,2
-20.4724,19.7976,2.49161,57,10
-9.15325,8.85464,-2.01707,59,3
-16.9969,16.4481,2.90415,7,11
-9.10816,8.81718,-1.55652,21,4
-17.4586,16.9067,3.84923,26,12
-9.47502,9.17552,-1.15394,9,5
-20.1292,19.4998,5.4476,19,13
-17.4954,16.9542,-1.27679,34,6
-17.8357,17.29,5.7349,27,14
-12.4964,12.1184,-0.303846,25,7
-18.8926,18.3273,7.05282,17,15
-17.8098,17.3132,0.433553,17,8
-0.435887,0.423881,-0.140369,13,1
-26.044,25.3267,1.90388,4,9
-0.510828,0.496932,-0.138527,24,2
-17.186,16.7243,2.09801,10,10
-9.16219,8.91918,-2.0252,24,3
-17.6605,17.1981,3.02675,16,11
-9.54823,9.30147,-1.63671,19,4
-17.397,16.9474,3.84672,26,12
-16.4466,16.0271,-2.00911,15,5
-15.828,15.4297,4.29664,26,13
-12.5346,12.2235,-0.917554,23,6
-17.8566,17.4194,5.7592,21,14
-18.3957,17.9516,6.88718,20,15
-0.414218,0.405349,-0.155291,12,0
-18.5184,18.1218,0.452262,18,8
-0.417768,0.408966,-0.134971,14,1
-20.1533,19.7356,1.47828,28,9
-0.517505,0.506955,-0.140817,11,2
-17.0834,16.741,2.09261,68,10
-9.07472,8.89283,-2.01237,63,3
-17.497,17.1523,3.00847,25,11
-9.4904,9.30668,-1.63207,31,4
-17.6339,17.2985,3.91243,12,12
-16.4218,16.1151,-2.01295,26,5
-15.7823,15.4876,4.29816,26,13
-12.4669,12.2384,-0.915565,50,6
-14.3004,14.0432,4.62724,14,14
-18.6176,18.2891,-0.455543,85,7
-14.4169,14.1675,5.41605,20,15
-18.4806,18.2116,0.45289,18,8
-0.416338,0.410421,-0.134971,14,1
-20.2664,19.9853,1.49168,10,9
-0.490659,0.483855,-0.133948,13,2
-16.8519,16.624,2.07099,56,10
-9.15048,9.0299,-2.03615,63,3
-17.0556,16.8367,2.94266,32,11
-9.44091,9.32301,-1.62915,19,4
-18.5164,18.2915,4.12236,30,12
-16.887,16.6877,-2.0771,28,5
-29.2904,28.9448,8.00444,25,13
-12.4454,12.3029,-0.917135,74,6
-18.314,18.1106,5.94636,30,14
-11.6787,11.553,-0.286743,100,7
-14.3729,14.2231,5.41812,54,15
-17.5284,17.3943,0.43104,20,8
-0.414903,0.411872,-0.134971,14,1
-18.4136,18.2855,1.36,13,9
-0.497239,0.493952,-0.136238,25,2
-16.7654,16.6604,2.06786,30,10
-9.56842,9.51181,-2.1369,12,3
-16.9095,16.8094,2.92755,31,11
-9.45898,9.4063,-1.63792,24,4
-15.7313,15.6491,3.51446,16,12
-11.767,11.7097,-1.45236,31,5
-28.6039,28.4744,7.8453,16,13
-14.4495,14.3941,4.70868,23,14
-11.6496,11.605,-0.287022,63,7
-11.0679,11.064,0.273165,16,8
-0.418902,0.418902,-0.13677,13,1
-17.7859,17.7921,1.31845,44,9
-0.495512,0.495685,-0.136238,25,2
-16.748,16.7597,2.07291,25,10
-15.7424,15.7644,2.73548,20,11
-9.4006,9.41702,-1.63378,47,4
-11.287,11.3107,-1.39798,22,5
-14.517,14.5525,3.99554,20,13
-16.9998,17.0473,-1.26172,56,6
-14.3744,14.4196,4.70058,100,14
-11.6056,11.6462,-0.286987,100,7
-18.0105,18.0798,6.838,16,15
-11.0376,11.1111,0.273374,12,8
-0.373497,0.376113,-0.122373,15,1
-0.496545,0.500198,-0.137001,12,2
-23.8384,24.0221,2.96085,18,10
-8.93279,9.0048,-2.00893,13,3
-15.7138,15.846,2.74011,6,11
-9.35789,9.43991,-1.63207,21,4
-11.2348,11.3373,-1.39641,30,5
-14.4274,14.5641,3.98486,3,13
-16.8896,17.0555,-1.25795,45,6
-11.5564,11.6781,-0.286778,100,7
-17.3047,17.4929,6.59316,11,15
-11.0255,11.1766,0.274038,13,8
-0.372181,0.377415,-0.122373,15,1
-16.6028,16.8362,1.23921,46,9
-0.494796,0.501928,-0.137001,24,2
-23.8033,24.1549,2.96696,18,10
-15.6125,15.8541,2.73207,87,11
-9.35021,9.49494,-1.63622,31,4
-18.2411,18.5299,4.11829,22,12
-11.2161,11.3977,-1.39902,30,5
-14.3614,14.5989,3.98066,56,13
-16.6619,16.9434,-1.24539,71,6
-18.114,18.4201,5.96435,61,14
-19.961,20.3054,-0.49701,100,7
-18.0549,18.3728,6.90219,16,15
-10.9884,11.2131,0.274038,37,8
-0.392747,0.40092,-0.129572,14,1
-0.484887,0.49515,-0.134711,25,2
-17.546,17.9236,2.19441,22,10
-9.20426,9.40565,-2.08433,24,3
-15.5806,15.9271,2.73572,61,11
-9.44083,9.65076,-1.65767,63,4
-18.1257,18.5353,4.10609,30,12
-11.1922,11.4491,-1.40077,30,5
-14.3417,14.676,3.98867,33,13
-16.5121,16.9029,-1.23837,80,6
-18.061,18.4884,5.96705,38,14
-19.8964,20.3743,-0.497079,100,7
-18.0776,18.5183,6.93428,17,15
-10.8716,11.1678,0.272048,16,8
-0.36967,0.379875,-0.122373,15,1
-17.3652,17.8508,1.30515,12,9
-0.496932,0.510828,-0.138527,24,2
-22.6675,23.3095,2.84459,43,10
-9.09591,9.3568,-2.06681,44,3
-15.4337,15.8819,2.71915,6,11
-9.57999,9.86164,-1.68813,40,4
-14.3618,14.7892,3.2651,19,12
-11.2097,11.5433,-1.40774,13,5
-17.9605,18.5015,5.01217,16,13
-16.4893,16.9919,-1.24089,53,6
-18.0276,18.5835,5.9774,45,14
-11.5198,11.8792,-0.288837,63,7
-18.5816,19.168,7.15324,9,15
-0.402884,0.416616,-0.155291,12,0
-0.395426,0.409189,-0.131371,14,1
-17.0905,17.6915,1.28914,24,9
-0.48969,0.506911,-0.137001,24,2
-15.4887,16.039,1.95072,100,10
-9.05085,9.3757,-2.064,49,3
-17.603,18.2411,3.11254,8,11
-9.50278,9.85073,-1.68058,71,4
-11.1375,11.5494,-1.40373,22,5
-17.6111,18.2687,4.93241,29,13
-19.5995,20.3385,-1.48027,44,6
-17.8382,18.5172,5.93601,30,14
-11.5046,11.9467,-0.289501,26,7
-18.2801,18.9892,7.06265,17,15
-10.5732,11.0141,0.266498,67,8
-0.402091,0.419004,-0.134071,14,1
-16.993,17.7077,1.28621,18,9
-0.485199,0.505784,-0.136238,25,2
-15.4478,16.1088,1.95264,49,10
-8.77611,9.15484,-2.00862,63,3
-14.3541,14.9788,2.54731,46,11
-9.52876,9.94692,-1.6913,22,4
-11.1302,11.6227,-1.40791,35,5
-17.4467,18.2251,4.90417,34,13
-11.2459,11.7517,-0.852448,22,6
-17.7519,18.5569,5.92881,30,14
-21.3429,22.3106,-0.53893,55,7
-17.4774,18.2762,6.77588,16,15
-0.399966,0.419419,-0.155291,12,0
-10.5642,11.078,0.267196,36,8
-0.400699,0.420335,-0.134071,14,1
-15.454,16.217,1.174,24,9
-0.507805,0.533061,-0.143107,22,2
-8.69121,9.12667,-1.9961,36,3
-14.2797,15.0004,2.54293,57,11
-19.7528,20.7642,4.5391,22,12
-11.0045,11.572,-1.39711,60,5
-17.3307,18.2245,4.88853,25,13
-14.2893,15.0315,-1.08691,28,6
-27.6953,29.144,9.28193,14,14
-11.3376,11.9348,-0.287336,86,7
-16.2654,17.1282,6.32916,6,15
-10.5048,11.093,0.266673,57,8
-0.391191,0.41324,-0.131371,14,1
-11.6723,12.3302,0.889816,34,9
-0.489841,0.517631,-0.138527,24,2
-14.3273,15.1454,1.824,16,10
-8.64844,9.14547,-1.9936,60,3
-17.2587,18.257,3.08476,17,11
-9.54031,10.0921,-1.7052,52,4
-17.9322,18.9761,4.13519,22,12
-10.9482,11.5896,-1.39484,22,5
-27.1325,28.732,7.68159,31,13
-14.3725,15.225,-1.09728,25,6
-18.0926,19.1659,6.08493,8,14
-11.2252,11.8953,-0.285486,100,7
-17.2107,18.2444,6.7205,23,15
-0.397175,0.422062,-0.155291,12,0
-10.442,11.1001,0.26601,66,8
-0.389819,0.414535,-0.131371,14,1
-17.3246,18.423,1.32536,23,9
-0.477365,0.507809,-0.135474,25,2
-14.2483,15.1623,1.82033,46,10
-8.61942,9.17554,-1.99391,45,3
-9.46059,10.0745,-1.69691,59,4
-19.6741,20.9581,4.55287,13,12
-10.9902,11.7115,-1.40512,30,5
-24.8826,26.5251,7.06947,33,13
-14.3028,15.2522,-1.09581,34,6
-16.4107,17.5001,5.53874,25,14
-11.1857,11.9324,-0.285486,100,7
-16.4606,17.5656,6.45029,84,15
-10.4406,11.1727,0.266917,69,8
-0.399084,0.427217,-0.134971,14,1
-17.1552,18.371,1.3173,19,9
-0.489078,0.523738,-0.139291,24,2
-14.2184,15.2313,1.82295,31,10
-8.65094,9.2705,-2.00831,70,3
-24.7987,26.584,4.46383,14,11
-9.39964,10.0799,-1.69228,22,4
-29.241,31.3681,6.79207,15,12
-10.9608,11.7581,-1.40635,19,5
-27.1461,29.131,7.73998,32,13
-11.1332,11.9515,-0.856007,35,6
-16.8409,18.085,5.70521,41,14
-11.0922,11.9158,-0.28416,100,7
-16.365,17.5861,6.43683,45,15
-10.6205,11.4451,0.272537,24,8
-0.386988,0.417178,-0.131371,14,1
-0.484577,0.522563,-0.138527,24,2
-18.899,20.3877,2.43217,27,10
-8.61584,9.29775,-2.00768,50,3
-17.7287,19.1385,3.20321,100,11
-9.14185,9.8723,-1.65206,78,4
-19.6508,21.2283,4.58165,16,12
-10.6991,11.558,-1.37793,21,5
-27.927,30.1795,7.99261,17,13
-10.3604,11.2,-0.799589,13,6
-16.3371,17.6672,5.55539,31,14
-15.253,16.5007,-0.392225,100,7
-16.5499,17.9099,6.53415,18,15
-10.4355,11.3247,0.268802,63,8
-0.380248,0.412793,-0.129572,14,1
-14.1949,15.4152,1.09822,17,9
-0.501368,0.54447,-0.14387,22,2
-19.1259,20.7775,2.47069,91,10
-8.55257,9.29433,-2.00048,62,3
-11.5174,12.5207,2.08884,22,11
-9.25245,10.062,-1.67838,38,4
-19.8586,21.6037,4.64767,16,12
-10.5596,11.4915,-1.36538,18,5
-26.5941,28.9411,7.63999,7,13
-10.3118,11.2258,-0.798856,45,6
-16.2411,17.6868,5.54369,100,14
-11.1264,12.1211,-0.287197,26,7
-16.5487,18.0345,6.55848,14,15
-0.391244,0.427566,-0.155291,12,0
-10.7537,11.752,0.278052,25,8
-0.391958,0.428497,-0.134071,14,1
-11.6422,12.7319,0.904156,12,9
-0.475526,0.520221,-0.137001,24,2
-19.0322,20.8283,2.46842,35,10
-8.46382,9.26582,-1.98766,53,3
-11.4522,12.5373,2.08494,9,11
-9.05129,9.91243,-1.64816,78,4
-20.2279,22.1601,4.75217,17,12
-10.6242,11.6431,-1.37898,21,5
-27.9141,30.602,8.05138,8,13
-10.2908,11.2856,-0.800426,29,6
-16.1827,17.7534,5.54594,76,14
-16.5624,18.1764,6.58902,11,15
-10.4672,11.5234,0.271734,33,8
-0.400865,0.441473,-0.13767,13,1
-16.9091,18.622,1.31824,19,9
-0.484264,0.533507,-0.140054,23,2
-11.1553,12.2939,1.45236,12,10
-9.13748,10.0737,-2.1541,43,3
-11.3941,12.566,2.08275,40,11
-20.2048,22.2906,4.76499,7,12
-10.6236,11.7244,-1.38421,31,5
-16.1046,17.7796,4.66299,31,13
-10.2527,11.323,-0.800531,35,6
-10.9449,12.0917,-0.284684,26,7
-16.4678,18.1997,6.57659,15,15
-10.3659,11.4883,0.270093,43,8
-0.375905,0.416753,-0.129572,14,1
-16.3318,18.1128,1.27815,24,9
-0.47977,0.532277,-0.139291,24,2
-11.1229,12.3446,1.45376,12,10
-9.03394,10.0262,-2.13752,55,3
-9.12001,10.1288,-1.67351,57,4
-16.0751,17.8594,3.80574,26,12
-10.7478,11.9451,-1.40582,33,5
-16.0088,17.792,4.65231,57,13
-16.6283,18.4935,5.74165,35,14
-10.8652,12.0882,-0.283706,100,7
-16.0271,17.8375,6.42544,28,15
-0.38682,0.431572,-0.155291,12,0
-10.3831,11.5885,0.271594,63,8
-0.371847,0.415159,-0.128672,14,1
-15.6493,17.4721,1.22927,7,9
-0.470145,0.52509,-0.137001,24,2
-16.5179,18.4549,2.16687,55,10
-8.69198,9.71463,-2.06462,79,3
-42.351,47.3504,7.80013,48,11
-9.12343,10.2004,-1.68033,57,4
-16.0658,17.9686,3.81763,14,12
-10.6551,11.9212,-1.39885,33,5
-15.9976,17.9049,4.66719,23,13
-10.8858,12.188,-0.856426,32,6
-18.1025,20.2679,6.27388,8,14
-10.1205,11.3351,-0.265242,100,7
-16.1956,18.1456,6.51706,14,15
-10.3008,11.5735,0.270442,49,8
-0.386013,0.433861,-0.134071,14,1
-15.8143,17.7746,1.24685,20,9
-0.481448,0.541315,-0.140817,23,2
-16.8975,19.0054,2.22491,23,10
-8.75421,9.84971,-2.08715,30,3
-11.5867,13.0413,2.14198,27,11
-9.0645,10.2024,-1.6757,10,4
-10.6948,12.0459,-1.40931,22,5
-17.6128,19.8447,5.15757,14,13
-10.9739,12.3689,-0.866579,29,6
