x, y, z, intensity, ring
-0.348188,-0.465263,-0.112959,16,2
-0.996546,-1.32727,-0.028971,7,7
-1.3297,-1.76393,0.115767,1,9
-0.34981,-0.464045,-0.112959,16,2
-1.33396,-1.76894,0.193834,1,10
-0.993935,-1.31422,-0.0287616,7,7
-1.33313,-1.75633,0.115558,1,9
-0.351427,-0.462821,-0.112959,16,2
-1.3112,-1.7262,0.189651,1,10
-1.35986,-1.78895,0.275912,1,11
-1.00677,-1.32205,-0.0290059,5,7
-1.34167,-1.75484,0.115767,1,9
-0.353041,-0.461591,-0.112959,16,2
-1.34628,-1.75959,0.193834,1,10
-1.36578,-1.78443,0.275912,1,11
-1.00529,-1.3106,-0.0288314,4,7
-1.3551,-1.75964,0.116395,1,9
-0.35457,-0.460418,-0.112959,16,2
-1.33751,-1.73617,0.191743,1,10
-1.34776,-1.74821,0.271037,1,11
-1.00864,-1.3055,-0.0287965,5,7
-1.39062,-1.79277,0.118907,1,9
-0.356175,-0.459177,-0.112959,16,2
-1.34601,-1.73464,0.192091,1,10
-1.34899,-1.73723,0.270062,1,11
-1.38541,-1.78285,0.357609,1,12
-1.01565,-1.30512,-0.0288663,5,7
-1.42852,-1.82908,0.121629,1,9
-0.357775,-0.457931,-0.112959,16,2
-1.36433,-1.74563,0.193834,1,10
-1.3844,-1.77003,0.275912,1,11
-1.36454,-1.74402,0.350726,1,12
-1.01873,-1.30017,-0.0288314,6,7
-1.43489,-1.82408,0.121629,1,9
-1.35587,-1.72177,0.269088,1,11
-1.37306,-1.74235,0.351352,1,12
-1.02079,-1.29347,-0.0287616,6,7
-1.44093,-1.81931,0.121629,1,9
-0.360884,-0.455486,-0.112959,16,2
-1.37618,-1.7363,0.193834,1,10
-1.39641,-1.76057,0.275912,1,11
-1.38374,-1.74397,0.352603,1,12
-1.41126,-1.77738,0.44115,1,13
-1.02383,-1.28851,-0.0287267,5,7
-1.32589,-1.66807,0.570955,1,15
-0.362472,-0.454223,-0.112959,16,2
-1.38223,-1.73149,0.193834,1,10
-1.40224,-1.75593,0.275912,1,11
-1.38982,-1.73913,0.352603,1,12
-1.37792,-1.72362,0.428939,1,13
-1.02832,-1.28493,-0.0287267,5,7
-1.3148,-1.64232,0.563708,1,15
-1.06289,-1.32386,0.0296342,1,8
-1.38796,-1.72689,0.193834,1,10
-1.39093,-1.72811,0.351352,1,12
-1.38393,-1.7188,0.428939,1,13
-1.03531,-1.28445,-0.0287965,5,7
-1.05744,-1.3077,0.0293549,1,8
-1.40442,-1.73246,0.353229,1,12
-1.41495,-1.74421,0.436571,1,13
-1.42229,-1.752,0.520987,1,14
-1.03348,-1.27306,-0.0286219,7,7
-1.04455,-1.28211,0.0288663,4,8
-1.47913,-1.81424,0.122675,1,9
-1.40576,-1.72118,0.351978,1,12
-1.40613,-1.72101,0.431992,1,13
-1.40866,-1.72289,0.513788,1,14
-1.03814,-1.26927,-0.0286219,9,7
-1.03379,-1.25991,0.0284474,4,8
-1.47278,-1.79363,0.121629,1,9
-1.44421,-1.75821,0.199064,1,10
-1.43686,-1.74677,0.358235,1,12
-1.41213,-1.71609,0.431992,1,13
-1.41962,-1.72398,0.515588,1,14
-1.04384,-1.26718,-0.0286569,9,7
-1.05602,-1.27787,0.0289361,5,8
-1.4943,-1.80695,0.122885,1,9
-1.46558,-1.77158,0.201155,1,10
-1.49083,-1.79955,0.370124,1,12
-1.41059,-1.70209,0.429702,1,13
-1.40822,-1.69801,0.509289,1,14
-1.05081,-1.26661,-0.0287267,9,7
-1.0528,-1.26495,0.0287267,5,8
-1.48526,-1.7833,0.121629,1,9
-1.4539,-1.74502,0.198715,1,10
-1.53001,-1.83377,0.378259,1,12
-1.42156,-1.70318,0.431228,1,13
-1.40164,-1.67813,0.50479,1,14
-1.0501,-1.25679,-0.028587,9,7
-1.41114,-1.6883,0.58959,1,15
-1.05978,-1.26434,0.0287965,5,8
-1.49148,-1.77811,0.121629,1,9
-1.47791,-1.7613,0.201155,1,10
-1.50885,-1.7969,0.288099,1,11
-1.5364,-1.82842,0.378259,1,12
-1.41233,-1.68017,0.426649,1,13
-1.43007,-1.70007,0.512888,1,14
-1.05061,-1.24853,-0.0284823,11,7
-1.41702,-1.68336,0.58959,1,15
-1.0616,-1.25757,0.0287267,5,8
-1.50541,-1.78205,0.122257,1,9
-1.48405,-1.75613,0.201155,1,10
-1.51511,-1.79163,0.288099,1,11
-1.54277,-1.82304,0.378259,1,12
-1.46639,-1.73217,0.44115,1,13
-1.42088,-1.67723,0.50749,1,14
-1.05109,-1.24028,-0.0283776,12,7
-1.42289,-1.67841,0.58959,1,15
-1.0621,-1.24929,0.0286219,4,8
-1.47508,-1.73444,0.119326,1,9
-1.45401,-1.70846,0.196275,1,10
-1.52136,-1.78633,0.288099,1,11
-1.54881,-1.81792,0.378259,1,12
-1.47243,-1.72704,0.44115,1,13
-1.42673,-1.67226,0.50749,1,14
-1.06428,-1.24743,-0.0286219,11,7
-1.42845,-1.67368,0.58959,1,15
-1.06104,-1.23968,0.0284823,4,8
-1.50451,-1.75659,0.12121,1,9
-0.378103,-0.441296,-0.112959,16,2
-1.46256,-1.7064,0.196623,1,10
-1.51435,-1.7662,0.285662,1,11
-1.55515,-1.8125,0.378259,1,12
-1.47815,-1.72215,0.44115,1,13
-1.43227,-1.66752,0.50749,1,14
-1.07123,-1.24674,-0.0286918,12,7
-1.43428,-1.66868,0.58959,1,15
-1.07841,-1.25112,0.0288314,4,8
-0.347413,-0.402908,-0.122823,15,1
-1.48164,-1.71831,0.118907,1,9
-1.48643,-1.72266,0.199064,1,10
-1.50754,-1.74588,0.283224,1,11
-1.54565,-1.7894,0.374504,1,12
-1.48415,-1.71698,0.44115,1,13
-1.43808,-1.66251,0.50749,1,14
-1.07929,-1.24772,-0.0287965,22,7
-1.43981,-1.66392,0.58959,1,15
-1.08125,-1.24603,0.0287965,5,8
-0.348747,-0.401754,-0.122823,15,1
-1.48501,-1.71011,0.118698,1,9
-0.381098,-0.438712,-0.112959,16,2
-1.49766,-1.72347,0.199761,1,10
-1.50029,-1.72589,0.280787,1,11
-1.54671,-1.77803,0.373253,1,12
-1.48984,-1.71205,0.44115,1,13
-1.44102,-1.65479,0.50659,1,14
-1.07181,-1.23038,-0.0284823,48,7
-1.43038,-1.64141,0.583378,1,15
-1.10006,-1.25881,0.0291804,9,8
-0.350147,-0.400534,-0.122823,15,1
-1.50644,-1.72322,0.119954,1,9
-0.336024,-0.384243,-0.0992207,19,2
-1.4955,-1.7095,0.198715,1,10
-1.52461,-1.74155,0.284199,1,11
-1.5604,-1.7818,0.37513,1,12
-1.4288,-1.62924,0.500291,1,14
-1.43581,-1.63665,0.583378,1,15
-1.11084,-1.26266,0.0293549,23,8
-0.351473,-0.399371,-0.122823,15,1
-1.49925,-1.70296,0.118907,1,9
-1.49619,-1.69829,0.198018,1,10
-1.52776,-1.73351,0.283712,1,11
-1.564,-1.77338,0.374504,1,12
-1.45741,-1.65078,0.508389,1,14
-1.08149,-1.22455,-0.0285172,163,7
-1.44919,-1.64032,0.586484,1,15
-0.32021,-0.36155,-0.12941,15,0
-1.11789,-1.26177,0.0294248,48,8
-0.352866,-0.398141,-0.122823,15,1
-1.46279,-1.6499,0.115558,1,9
-1.50446,-1.6963,0.198366,1,10
-1.51799,-1.71035,0.280787,1,11
-1.55444,-1.75019,0.37075,1,12
-1.46576,-1.6486,0.509289,1,14
-1.42922,-1.60638,0.576131,1,15
-0.354253,-0.396907,-0.122823,15,1
-1.37809,-1.54347,0.10844,1,9
-1.51598,-1.69672,0.199064,1,10
-1.51336,-1.6932,0.278837,1,11
-1.55,-1.73297,0.368247,1,12
-1.50559,-1.68096,0.520987,1,14
-1.09535,-1.22293,-0.0286569,12,7
-1.47608,-1.64743,0.592696,1,15
-0.322789,-0.35925,-0.12941,15,0
-1.12154,-1.24779,0.0292851,100,8
-1.35034,-1.50129,0.105823,2,9
-1.51922,-1.68845,0.198715,1,10
-1.53816,-1.70829,0.282249,1,11
-1.54312,-1.71261,0.365118,1,12
-1.56681,-1.73829,0.454889,1,13
-1.51145,-1.67569,0.520987,1,14
-1.10384,-1.22336,-0.0287616,10,7
-1.47434,-1.6334,0.58959,1,15
-1.13663,-1.25572,0.0295644,185,8
-1.37032,-1.51285,0.106975,3,9
-1.52243,-1.68019,0.198366,1,10
-1.55211,-1.71174,0.283712,1,11
-1.54378,-1.70136,0.363867,1,12
-1.57815,-1.73862,0.456415,1,13
-0.669704,-0.737028,-0.0173826,32,7
-1.45014,-1.59536,0.577684,1,15
-0.325289,-0.356987,-0.12941,15,0
-1.13831,-1.24879,0.0294946,190,8
-1.37829,-1.51101,0.107184,4,9
-1.49337,-1.6366,0.193834,1,10
-1.55272,-1.70045,0.282737,1,11
-1.5657,-1.71346,0.367621,1,12
-1.55771,-1.70412,0.448783,1,13
-0.672273,-0.734686,-0.0173826,32,7
-1.47657,-1.61309,0.585966,1,15
-1.14266,-1.24481,0.0294946,190,8
-0.333468,-0.363152,-0.113825,16,1
-1.3849,-1.50766,0.107289,4,9
-1.49907,-1.63137,0.193834,1,10
-1.5479,-1.68333,0.280787,1,11
-1.5904,-1.72833,0.372001,1,12
-1.57429,-1.71023,0.451836,1,13
-1.11524,-1.21026,-0.0287267,47,7
-1.49005,-1.61645,0.589072,1,15
-0.327774,-0.354708,-0.12941,15,0
-1.15243,-1.24669,0.0296342,190,8
-0.342672,-0.37057,-0.116525,16,1
-1.37362,-1.48546,0.106033,4,9
-1.46958,-1.58811,0.189302,1,10
-1.54837,-1.67209,0.279812,1,11
-1.57196,-1.69696,0.36637,1,12
-1.57758,-1.70184,0.451072,1,13
-1.1138,-1.2007,-0.028587,33,7
-1.48752,-1.603,0.585966,1,15
-0.347434,-0.373361,-0.136656,14,0
-1.15656,-1.24286,0.0296342,186,8
-0.343899,-0.369432,-0.116525,16,1
-1.38016,-1.48212,0.106137,4,9
-1.49956,-1.60921,0.19244,1,10
-1.54849,-1.66114,0.278837,1,11
-1.56709,-1.67991,0.363867,1,12
-1.58322,-1.6966,0.451072,1,13
-1.10161,-1.17926,-0.0281682,18,7
-1.50102,-1.60627,0.589072,1,15
-1.15952,-1.23736,0.0295993,182,8
-1.39489,-1.48749,0.10687,4,9
-1.49944,-1.59841,0.191743,1,10
-1.53798,-1.63835,0.275912,1,11
-1.59188,-1.69459,0.368247,1,12
-1.59988,-1.70251,0.454125,1,13
-0.663156,-0.704956,-0.0168939,2,7
-1.50662,-1.60102,0.589072,1,15
-0.397691,-0.421576,-0.155291,12,0
-1.16109,-1.23039,0.0295295,185,8
-0.346469,-0.367022,-0.116525,16,1
-1.4083,-1.49132,0.107498,4,9
-1.48859,-1.57579,0.189651,1,10
-1.52187,-1.60989,0.272012,1,11
-1.59779,-1.68902,0.368247,1,12
-1.60312,-1.69406,0.453362,1,13
-0.665613,-0.702637,-0.0168939,2,7
-1.5122,-1.59575,0.589072,1,15
-0.35126,-0.369763,-0.136656,14,0
-0.339692,-0.357336,-0.113825,16,1
-1.39948,-1.47217,0.106451,4,9
-1.49408,-1.57058,0.189651,1,10
-1.51379,-1.59019,0.269575,1,11
-1.57886,-1.65796,0.362615,1,12
-1.59277,-1.6714,0.448783,1,13
-1.50415,-1.57675,0.583896,1,15
-0.333853,-0.348992,-0.12941,15,0
-1.40461,-1.46727,0.106451,4,9
-0.401928,-0.419712,-0.112959,16,2
-1.51334,-1.57975,0.191394,1,10
-1.53966,-1.60666,0.273231,1,11
-1.55182,-1.61822,0.355106,1,12
-1.60102,-1.66895,0.449546,1,13
-1.61945,-1.68698,0.539883,1,14
-1.52302,-1.58542,0.589072,1,15
-0.351089,-0.364581,-0.135621,15,0
-1.1737,-1.21837,0.0295295,8,8
-1.40254,-1.45542,0.105928,3,9
-1.52963,-1.58619,0.192788,1,10
-1.5618,-1.61842,0.276156,1,11
-1.54895,-1.60454,0.353229,1,12
-1.60956,-1.66617,0.450309,1,13
-1.64429,-1.70093,0.546181,1,14
-1.50947,-1.56092,0.581825,1,15
-1.17494,-1.2116,0.0294597,8,8
-1.41039,-1.45338,0.106137,4,9
-1.52405,-1.56941,0.191394,1,10
-1.54779,-1.5933,0.272744,1,11
-1.56555,-1.61046,0.355732,1,12
-1.58223,-1.62704,0.44115,1,13
-1.63362,-1.67871,0.540782,1,14
-1.50143,-1.5418,0.576649,1,15
-1.17917,-1.20749,0.0294597,8,8
-0.344525,-0.352679,-0.113825,16,1
-1.41685,-1.44988,0.106242,4,9
-1.54875,-1.58429,0.193834,1,10
-1.53946,-1.57369,0.270306,1,11
-1.56011,-1.59369,0.353229,1,12
-1.5879,-1.62151,0.44115,1,13
-1.63128,-1.66465,0.538083,1,14
-1.53927,-1.56966,0.589072,1,15
-1.18758,-1.20765,0.0295644,5,8
-0.353954,-0.359809,-0.116525,16,1
-1.42751,-1.45062,0.106661,4,9
-1.55427,-1.57888,0.193834,1,10
-1.57838,-1.60225,0.276156,1,11
-1.57399,-1.59667,0.355106,1,12
-1.59355,-1.61596,0.44115,1,13
-1.6453,-1.66727,0.540782,1,14
-1.54474,-1.56427,0.589072,1,15
-0.339773,-0.343231,-0.12941,15,0
-1.1946,-1.20634,0.0296342,5,8
-0.374408,-0.377954,-0.122823,15,1
-1.42132,-1.43428,0.105823,4,9
-1.57941,-1.59325,0.196275,1,10
-1.58396,-1.59673,0.276156,1,11
-1.58233,-1.59397,0.355732,1,12
-1.62685,-1.63825,0.448783,1,13
-1.62363,-1.63387,0.531784,1,14
-1.55019,-1.55887,0.589072,1,15
-1.19175,-1.19508,0.0294597,3,8
-0.3482,-0.349052,-0.113825,16,1
-1.42349,-1.42648,0.105614,4,9
-1.58215,-1.58491,0.195926,1,10
-1.55305,-1.55468,0.269819,1,11
-1.56833,-1.56888,0.351352,1,12
-1.60479,-1.60479,0.44115,1,13
-1.61554,-1.61441,0.527285,1,14
-1.203,-1.19797,0.0296342,1,8
-0.349416,-0.347834,-0.113825,16,1
-1.43388,-1.42739,0.106033,4,9
-1.58484,-1.57657,0.195577,1,10
-1.5948,-1.58591,0.276156,1,11
-1.59034,-1.58038,0.355106,1,12
-1.59061,-1.58009,0.435808,1,13
-1.63748,-1.62552,0.532684,1,14
-1.19254,-1.18012,0.0292851,1,8
-0.358819,-0.354957,-0.116525,16,1
-1.42724,-1.41139,0.105195,2,9
-1.59829,-1.57998,0.196623,1,10
-1.5831,-1.56388,0.273231,1,11
-1.63466,-1.61424,0.363867,1,12
-1.60143,-1.58033,0.437334,1,13
-1.63454,-1.61187,0.529985,1,14
-1.1993,-1.17896,0.0293549,1,8
-0.362774,-0.356497,-0.117424,16,1
-1.33075,-1.30727,0.0977636,1,9
-1.57978,-1.55027,0.271769,1,11
-1.61207,-1.58086,0.357609,1,12
-1.62068,-1.58875,0.44115,1,13
-1.63987,-1.60644,0.529985,1,14
-1.20484,-1.17616,0.0293899,1,8
-1.23237,-1.2022,0.0902272,1,9
-1.20961,-1.17958,0.147816,1,10
-1.59939,-1.55861,0.274206,1,11
-1.61192,-1.56972,0.356358,1,12
-1.61496,-1.57213,0.438097,1,13
-1.63709,-1.59256,0.527285,1,14
-1.23478,-1.197,0.0300181,1,8
-0.354059,-0.343107,-0.113825,16,1
-1.17918,-1.14231,0.0860403,1,9
-1.20513,-1.16704,0.14677,1,10
-1.65047,-1.59719,0.282006,1,11
-1.62023,-1.56683,0.356983,1,12
-1.65432,-1.59923,0.447256,1,13
-1.64264,-1.58683,0.527285,1,14
-1.18028,-1.13541,0.085831,2,9
-1.2092,-1.16282,0.14677,1,10
-1.61999,-1.55569,0.355732,1,12
-1.62023,-1.55538,0.436571,1,13
-1.63973,-1.573,0.524586,1,14
-1.15619,-1.10565,0.0279239,1,8
-0.384559,-0.367621,-0.122823,15,1
-1.1826,-1.13011,0.0857263,2,9
-1.19864,-1.14504,0.145027,1,10
-1.63943,-1.56394,0.358861,1,12
-1.62822,-1.5527,0.437334,1,13
-1.66187,-1.58368,0.529985,1,14
-1.16874,-1.10987,0.0281333,1,8
-0.357573,-0.339443,-0.113825,16,1
-1.19378,-1.13285,0.0862497,2,9
-1.19107,-1.12988,0.143633,1,10
-1.64775,-1.56093,0.359486,1,12
-1.60512,-1.52001,0.429702,1,13
-1.66172,-1.57251,0.528185,1,14
-1.7377,-1.64326,0.640836,1,15
-1.1697,-1.10304,0.0280635,1,8
-0.387116,-0.364927,-0.122823,15,1
-1.18174,-1.11361,0.0850983,4,9
-1.1776,-1.10933,0.141541,2,10
-1.25606,-1.18241,0.211809,1,11
-1.65031,-1.55246,0.358861,1,12
-1.6333,-1.53592,0.435808,1,13
-1.66152,-1.56137,0.526385,1,14
-1.1677,-1.09348,0.0279239,2,8
-0.388387,-0.363574,-0.122823,15,1
-1.17687,-1.10129,0.0844702,4,9
-1.18583,-1.10929,0.142064,2,10
-1.23698,-1.15633,0.207909,1,11
-1.66438,-1.55478,0.360738,1,12
-1.66735,-1.55701,0.44344,1,13
-1.64987,-1.5396,0.520987,1,14
-1.67849,-1.56521,0.614954,1,15
-1.15979,-1.0785,0.0276446,2,8
-0.389654,-0.362216,-0.122823,15,1
-1.19222,-1.10826,0.0853076,4,9
-1.17802,-1.0943,0.140669,3,10
-1.25556,-1.16551,0.210347,1,11
-1.69849,-1.57612,0.366995,1,12
-1.64399,-1.52448,0.435808,1,13
-1.67238,-1.54973,0.526385,1,14
-1.75453,-1.62528,0.640836,1,15
-1.15896,-1.07058,0.0275399,2,8
-0.390853,-0.360922,-0.122823,15,1
-1.20048,-1.10816,0.0856216,4,9
-1.18036,-1.08883,0.140495,2,10
-1.22439,-1.12904,0.204497,1,11
-1.69817,-1.56483,0.365744,1,12
-1.66925,-1.53764,0.44115,1,13
-1.67464,-1.54153,0.525486,1,14
-1.15385,-1.05842,0.0273305,2,8
-1.19256,-1.09316,0.0847843,4,9
-1.17075,-1.07279,0.138926,2,10
-1.18879,-1.08857,0.197916,3,11
-1.67426,-1.53042,0.523686,1,14
-1.69451,-1.54785,0.614954,1,15
-1.1664,-1.06246,0.0275399,2,8
-0.393363,-0.358184,-0.122823,15,1
-1.19342,-1.08631,0.0845749,4,9
-1.19217,-1.08479,0.141018,2,10
-1.18818,-1.0804,0.197185,3,11
-1.77295,-1.61043,0.465574,1,13
-1.69402,-1.53766,0.528185,1,14
-1.70849,-1.54971,0.61806,1,15
-1.17455,-1.06241,0.0276446,1,8
-0.394611,-0.356809,-0.122823,15,1
-1.19997,-1.08502,0.0847843,4,9
-1.19004,-1.07528,0.140321,4,10
-1.19194,-1.07625,0.197185,3,11
-1.77856,-1.60423,0.465574,1,13
-1.67622,-1.51087,0.520987,1,14
-1.7251,-1.55438,0.622201,1,15
-1.18105,-1.06118,0.0277144,1,8
-1.19632,-1.07415,0.0842609,2,9
-1.18785,-1.0658,0.139624,4,10
-1.2029,-1.07892,0.198403,4,11
-1.68122,-1.5053,0.520987,1,14
-1.70172,-1.52259,0.611848,1,15
-1.17877,-1.05173,0.0275748,1,8
-0.397031,-0.354114,-0.122823,15,1
-1.2105,-1.07928,0.0849936,2,9
-1.19286,-1.06318,0.139798,4,10
-1.20665,-1.07471,0.198403,6,11
-1.71569,-1.52434,0.614954,1,15
-1.18244,-1.04761,0.0275748,1,8
-1.2023,-1.06445,0.0841562,2,9
-1.17419,-1.0392,0.137183,2,10
-1.19999,-1.06129,0.196697,6,11
-1.71231,-1.51067,0.611848,1,15
-1.18459,-1.04215,0.0275399,2,8
-0.399493,-0.351334,-0.122823,15,1
-1.19382,-1.04991,0.0833189,3,9
-1.18978,-1.04562,0.138578,2,10
-1.20369,-1.05709,0.196697,6,11
-1.72603,-1.51262,0.614954,1,15
-1.21665,-1.06322,0.0282031,3,8
-0.400656,-0.350007,-0.122823,15,1
-1.20933,-1.05646,0.0841562,3,9
-1.18874,-1.03774,0.138055,4,10
-1.21766,-1.06223,0.198403,6,11
-1.73687,-1.51196,0.617025,1,15
-1.20959,-1.05,0.0279588,2,8
-1.22206,-1.06008,0.0847843,4,9
-1.19067,-1.03248,0.13788,4,10
-1.22717,-1.06339,0.199378,6,11
-1.72752,-1.49326,0.611848,1,15
-1.19053,-1.02619,0.0274352,1,8
-1.23332,-1.06233,0.0853076,5,9
-1.19729,-1.03092,0.138229,4,10
-1.23088,-1.0591,0.199378,6,11
-1.7767,-1.52497,0.627377,1,15
-1.21538,-1.04023,0.0279239,1,8
-1.24006,-1.06061,0.085517,5,9
-1.19785,-1.02414,0.13788,4,10
-1.21495,-1.03803,0.19621,6,11
-2.94002,-2.51013,0.612285,1,12
-1.25252,-1.06447,0.0286918,1,8
-1.23767,-1.0511,0.0850983,4,9
-1.21053,-1.02769,0.138926,2,10
-1.22462,-1.03892,0.197185,3,11
-2.86439,-2.42832,0.594764,5,12
-1.2654,-1.06783,0.0289012,1,8
-1.2442,-1.04957,0.0853076,4,9
-1.21563,-1.02475,0.139101,2,10
-1.21913,-1.02696,0.195722,3,11
-2.87545,-2.42135,0.59539,9,12
-2.54619,-2.14257,0.646843,2,13
-2.31184,-1.94399,0.697348,1,14
-2.08807,-1.7552,0.730905,1,15
-1.272,-1.0662,0.028971,1,8
-1.25092,-1.04778,0.085517,4,9
-1.19476,-1.00004,0.136312,2,10
-1.23166,-1.03056,0.197185,3,11
-2.88085,-2.40877,0.594764,9,12
-2.57286,-2.15048,0.651804,2,13
-2.33323,-1.94881,0.701847,1,14
-2.0838,-1.73924,0.727282,2,15
-1.26034,-1.04896,0.0286219,1,8
-1.25764,-1.04597,0.0857263,4,9
-1.19194,-0.990973,0.135614,2,10
-1.23983,-1.03006,0.197916,3,11
-2.89684,-2.405,0.596328,10,12
-2.55769,-2.12268,0.646079,2,13
-2.34752,-1.94687,0.704097,1,14
-2.10771,-1.74675,0.733493,2,15
-1.31024,-1.08277,0.0296691,1,8
-1.25666,-1.03775,0.0854123,4,9
-1.20154,-0.99188,0.136312,2,10
-1.22198,-1.00804,0.194503,3,11
-2.90979,-2.39865,0.597267,10,12
-2.66054,-2.1924,0.670121,1,13
-2.3558,-1.9399,0.704547,1,14
-2.10484,-1.73201,0.730387,2,15
-1.25873,-1.0321,0.0853076,3,9
-1.21732,-0.997784,0.137706,2,10
-1.25006,-1.02389,0.198403,1,11
-2.90898,-2.38097,0.59539,10,12
-2.59828,-2.12591,0.652567,1,13
-2.34446,-1.91687,0.699148,1,14
-2.11686,-1.72954,0.732458,2,15
-1.25303,-1.02013,0.0846796,2,9
-1.23007,-1.00107,0.138752,2,10
-1.27211,-1.03455,0.201328,1,11
-2.91267,-2.36706,0.594451,10,12
-2.35416,-1.91113,0.700048,1,14
-2.12888,-1.72701,0.734528,2,15
-1.27523,-1.03082,0.0859357,1,9
-1.24285,-1.00429,0.139798,2,10
-1.28498,-1.03759,0.202791,1,11
-2.91323,-2.35068,0.592887,10,12
-2.36385,-1.90535,0.700947,1,14
-2.12437,-1.71109,0.730905,1,15
-1.33177,-1.06886,0.0894945,1,9
-1.24013,-0.994956,0.139101,1,10
-1.36604,-1.09518,0.214978,1,11
-2.92758,-2.34544,0.594138,9,12
-2.59435,-2.07772,0.646079,2,13
-2.37962,-1.90439,0.703647,1,14
-2.12882,-1.70246,0.730387,2,15
-1.3603,-1.08436,0.0911692,1,9
-1.28723,-1.02538,0.143981,1,10
-2.93998,-2.3394,0.595077,10,12
-2.60159,-2.06865,0.646079,2,13
-2.38167,-1.89243,0.702297,1,14
-2.12084,-1.68457,0.725729,2,15
-1.34998,-1.06845,0.0902272,2,9
-1.28768,-1.01841,0.143633,1,10
-2.93883,-2.32178,0.5932,10,12
-2.58686,-2.04298,0.640737,2,13
-2.37264,-1.87245,0.697798,1,14
-2.1358,-1.68434,0.728835,2,15
-2.98662,-2.34855,0.0663191,1,8
-1.35056,-1.06126,0.0900178,2,9
-2.93759,-2.30419,0.591322,10,12
-2.62333,-2.05695,0.647987,2,13
-2.38683,-1.87017,0.700048,1,14
-2.15688,-1.68878,0.734011,2,15
-2.99322,-2.33688,0.0662842,1,8
-2.95575,-2.30596,0.196469,0,9
-1.38101,-1.07625,0.214978,1,11
-2.95185,-2.29878,0.592574,10,12
-2.6212,-2.04055,0.645698,2,13
-2.40103,-1.86781,0.702297,1,14
-2.15361,-1.67413,0.730905,2,15
-0.420538,-0.32585,-0.122823,15,1
-2.94799,-2.2834,0.195422,0,9
-3.00894,-2.32977,0.332935,1,10
-2.96298,-2.29088,0.5932,10,12
-2.62831,-2.03139,0.645698,2,13
-2.41217,-1.86299,0.703647,1,14
-2.14568,-1.65598,0.726246,2,15
-3.00947,-2.31593,0.0662842,1,8
-0.421673,-0.32438,-0.122823,15,1
-2.97653,-2.28892,0.196783,0,9
-3.01706,-2.31925,0.332935,1,10
-3.0383,-2.3339,0.470416,1,11
-2.97096,-2.28052,0.5932,10,12
-2.62604,-2.01503,0.643408,2,13
-2.41401,-1.851,0.702297,1,14
-2.16371,-1.65788,0.730387,2,15
-0.422803,-0.322906,-0.122823,15,1
-2.95235,-2.2548,0.19469,0,9
-3.02513,-2.30871,0.332935,1,10
-3.04642,-2.32328,0.470416,1,11
-2.97222,-2.26587,0.591948,10,12
-2.64242,-2.01299,0.645698,2,13
-2.41271,-1.83666,0.700048,1,14
-2.16459,-1.64718,0.728835,2,15
-0.423871,-0.321503,-0.122823,15,1
-2.94747,-2.23482,0.193852,1,9
-3.03317,-2.29813,0.332935,1,10
-3.05411,-2.31316,0.470416,1,11
-2.97224,-2.24952,0.590384,10,12
-2.65378,-2.00777,0.646843,2,13
-2.41568,-1.8263,0.699148,1,14
-2.16724,-1.63729,0.727799,2,15
-0.424991,-0.320021,-0.122823,15,1
-2.9776,-2.24134,0.195318,0,9
-3.04078,-2.28806,0.332935,1,10
-3.06217,-2.30249,0.470416,1,11
-2.97376,-2.23438,0.589132,10,12
-2.6592,-1.99731,0.646461,2,13
-2.42359,-1.81902,0.699598,1,14
-2.17603,-1.63203,0.728835,2,15
-0.394889,-0.2952,-0.113825,16,1
-2.9854,-2.23093,0.195318,0,9
-3.04874,-2.27744,0.332935,1,10
-3.07019,-2.29178,0.470416,1,11
-2.99104,-2.23108,0.591009,10,12
-2.65514,-1.9798,0.64379,2,13
-2.42993,-1.81055,0.699598,1,14
-2.16932,-1.6152,0.724693,2,15
-0.405306,-0.300787,-0.116525,16,1
-2.99278,-2.22102,0.195318,0,9
-3.05668,-2.26678,0.332935,1,10
-2.99683,-2.21997,0.590697,10,12
-2.66519,-1.97286,0.644553,2,13
-2.44563,-1.80901,0.702297,1,14
-2.18243,-1.61374,0.727282,1,15
-0.406301,-0.299442,-0.116525,16,1
-2.98765,-2.20108,0.19448,0,9
-3.06457,-2.2561,0.332935,1,10
-3.08571,-2.27083,0.470416,1,11
-3.01093,-2.21417,0.591948,10,12
-2.68279,-1.97215,0.647224,2,13
-2.43277,-1.78705,0.696898,1,14
-2.17559,-1.59696,0.72314,1,15
-2.99854,-2.193,0.19469,0,9
-3.00428,-2.19317,0.589132,11,12
-2.6849,-1.9593,0.646079,2,13
-2.42483,-1.76821,0.692849,1,14
-2.18584,-1.59277,0.724693,2,15
-0.408382,-0.296598,-0.116525,16,1
-3.00618,-2.18252,0.19469,0,9
-3.07986,-2.23518,0.332935,1,10
-3.01671,-2.18615,0.590071,10,12
-2.69968,-1.95568,0.647987,2,13
-2.44203,-1.76774,0.695999,1,14
-2.19921,-1.59079,0.727282,1,15
-0.406253,-0.292891,-0.115625,16,1
-3.05267,-2.20003,0.197202,0,9
-3.04561,-2.19414,0.328403,1,10
-3.10933,-2.23839,0.470416,1,11
-3.02112,-2.17329,0.589445,10,12
-2.69374,-1.93707,0.644934,2,13
-2.46243,-1.76944,0.700048,1,14
-2.20632,-1.58423,0.727799,2,15
-3.03759,-2.1731,0.195736,0,9
-3.05325,-2.18349,0.328403,1,10
-3.11712,-2.22753,0.470416,1,11
-3.0303,-2.16388,0.589758,10,12
-2.70208,-1.9288,0.645316,2,13
-2.45749,-1.75291,0.696898,1,14
-2.18824,-1.5597,0.720035,2,15
-3.01584,-2.14166,0.193852,0,9
-3.10309,-2.20281,0.332935,1,10
-3.12488,-2.21663,0.470416,1,11
-3.03944,-2.15444,0.590071,10,12
-2.69918,-1.91254,0.643026,2,13
-2.45882,-1.74094,0.695549,1,14
-2.21733,-1.56879,0.727799,2,15
-3.03636,-2.14033,0.19469,1,9
-3.11076,-2.19196,0.332935,1,10
-3.13259,-2.20571,0.470416,1,11
-3.03402,-2.13472,0.587568,10,12
-2.70905,-1.90537,0.64379,2,13
-2.46169,-1.73011,0.694649,1,14
-2.20066,-1.5455,0.720552,2,15
-0.403917,-0.282721,-0.113825,16,1
-3.03526,-2.12452,0.194166,1,9
-3.07595,-2.1514,0.328403,1,10
-3.14028,-2.19476,0.470416,1,11
-3.04108,-2.12465,0.587568,9,12
-2.73501,-1.90939,0.648369,2,13
-2.47731,-1.72819,0.697348,1,14
-2.21052,-1.54151,0.722105,2,15
-3.04266,-2.11392,0.194166,1,9
-3.12599,-2.17019,0.332935,1,10
-3.14754,-2.18434,0.470416,1,11
-3.0501,-2.11514,0.587881,10,12
-2.71389,-1.88129,0.641881,2,13
-2.49103,-1.72552,0.699598,1,14
-2.2286,-1.54258,0.726246,2,15
-3.04472,-2.10041,0.193852,1,9
-3.13317,-2.15982,0.332935,1,10
-3.15514,-2.17334,0.470416,1,11
-3.06686,-2.11174,0.589758,10,12
-2.72691,-1.87626,0.643408,2,13
-2.47456,-1.70136,0.693299,1,14
-2.24166,-1.54065,0.728835,2,15
-3.05203,-2.08977,0.193852,1,9
-3.14069,-2.14887,0.332935,1,10
-3.16233,-2.16286,0.470416,1,11
-3.07258,-2.09991,0.589445,10,12
-2.7315,-1.8661,0.643026,2,13
-2.49307,-1.70193,0.696898,1,14
-2.23905,-1.52737,0.726246,2,15
-3.03747,-2.06504,0.192492,1,9
-3.10458,-2.10987,0.328403,1,10
-3.16949,-2.15236,0.470416,1,11
-3.05992,-2.0764,0.585691,10,12
-2.7393,-1.85813,0.643408,2,13
-2.48579,-1.68491,0.693299,1,14
-2.2377,-1.51561,0.724176,2,15
-0.418336,-0.282384,-0.116525,16,1
-3.06287,-2.06671,0.193643,1,9
-3.07265,-2.07175,0.324219,1,10
-3.17698,-2.14129,0.470416,1,11
-3.07861,-2.07343,0.587881,10,12
-2.75261,-1.85246,0.644934,2,13
-2.50165,-1.68231,0.695999,1,14
-2.23977,-1.50563,0.72314,1,15
-3.08003,-2.06268,0.194271,1,9
-3.10304,-2.07652,0.32666,1,10
-3.18481,-2.12963,0.470416,1,11
-3.08748,-2.06377,0.588194,10,12
-2.75252,-1.83848,0.643408,2,13
-2.51886,-1.68114,0.699148,1,14
-2.24983,-1.50102,0.724693,2,15
-3.08721,-2.05191,0.194271,1,9
-3.17002,-2.10536,0.332935,1,10
-3.19185,-2.11906,0.470416,1,11
-3.09631,-2.05407,0.588507,10,12
-2.7537,-1.82609,0.642263,2,13
-2.50167,-1.65771,0.692849,1,14
-2.24862,-1.48889,0.722623,2,15
-3.06101,-2.01913,0.192178,1,9
-3.17698,-2.09483,0.332935,1,10
-3.19923,-2.1079,0.470416,1,11
-3.10016,-2.04107,0.587881,10,12
-2.76333,-1.81863,0.643026,2,13
-2.51396,-1.65325,0.694649,1,14
-2.26026,-1.48528,0.724693,2,15
-0.412457,-0.27011,-0.113825,16,1
-3.07973,-2.01609,0.19291,1,9
-3.12426,-2.04446,0.32666,1,10
-3.20657,-2.09672,0.470416,1,11
-3.09403,-2.0216,0.585378,10,12
-2.78117,-1.81648,0.645698,2,13
-2.49523,-1.62849,0.6879,1,14
-2.27028,-1.48054,0.726246,1,15
-3.09478,-2.01131,0.193434,0,9
-3.14809,-2.04439,0.328403,1,10
-3.21387,-2.08551,0.470416,1,11
-3.10238,-2.0124,0.585691,9,12
-2.77761,-1.80036,0.643408,2,13
-2.5189,-1.63142,0.692849,1,14
-2.25248,-1.45831,0.718999,2,15
-3.11856,-2.01132,0.19448,1,9
-3.13846,-2.0226,0.32666,1,10
-3.22076,-2.07485,0.470416,1,11
-3.11769,-2.0069,0.587255,10,12
-2.76706,-1.78051,0.639592,2,13
-2.53413,-1.62938,0.695549,1,14
-2.25756,-1.45044,0.718999,2,15
-3.11547,-1.99396,0.193852,0,9
-3.14515,-2.01218,0.32666,1,10
-3.22799,-2.06359,0.470416,1,11
-3.12967,-1.9992,0.588194,10,12
-2.78484,-1.77824,0.642263,2,13
-2.54801,-1.62577,0.697798,1,14
-2.27238,-1.44878,0.722105,2,15
-3.11904,-1.98093,0.193643,1,9
-3.15215,-2.00119,0.32666,1,10
-3.23517,-2.05231,0.470416,1,11
-3.13162,-1.98509,0.587255,10,12
-0.467815,-0.296541,-0.0484586,11,5
-2.78937,-1.76746,0.641881,2,13
-2.53721,-1.60644,0.693299,1,14
-2.28395,-1.44497,0.724176,2,15
-3.12559,-1.97058,0.193643,1,9
-3.2198,-2.0284,0.332935,1,10
-3.24232,-2.04101,0.470416,1,11
-3.1315,-1.97049,0.586004,11,12
-0.468848,-0.294906,-0.0484586,11,5
-2.79718,-1.75876,0.642263,2,13
-2.53097,-1.59076,0.69015,1,14
-2.27728,-1.4302,0.720552,2,15
-3.10841,-1.94537,0.192178,1,9
-3.22651,-2.01772,0.332935,1,10
-3.24907,-2.03024,0.470416,1,11
-3.13299,-1.95695,0.585065,10,12
-2.798,-1.74635,0.641118,2,13
-2.54119,-1.58545,0.6915,1,14
-2.28201,-1.42264,0.720552,1,15
-3.13045,-1.94399,0.19312,1,9
-3.23319,-2.007,0.332935,1,10
-3.25578,-2.01946,0.470416,1,11
-3.15827,-1.95745,0.588507,10,12
-2.79877,-1.73396,0.639973,2,13
-2.55334,-1.58067,0.693299,1,14
-2.29189,-1.41771,0.722105,2,15
-0.432974,-0.266888,-0.117424,16,1
-3.16272,-1.94876,0.19469,0,9
-3.24017,-1.99571,0.332935,1,10
-3.15331,-1.93917,0.586316,10,12
-0.471809,-0.290145,-0.0484586,11,5
-2.81317,-1.72932,0.641881,2,13
-2.56216,-1.57379,0.694199,1,14
-2.2853,-1.40263,0.718482,1,15
-0.430578,-0.263342,-0.116525,16,1
-3.12487,-1.91117,0.191968,1,9
-3.20292,-1.95737,0.328403,1,10
-3.2698,-1.99668,0.470416,1,11
-3.16647,-1.93282,0.587568,10,12
-2.82087,-1.72051,0.642263,2,13
-2.55266,-1.55571,0.69015,1,14
-2.29489,-1.39806,0.720035,2,15
-3.16031,-1.91924,0.064539,1,8
-0.45477,-0.27607,-0.122823,15,1
-3.15201,-1.91269,0.193224,0,9
-3.18929,-1.93378,0.326311,1,10
-3.2764,-1.98582,0.470416,1,11
-3.15292,-1.90947,0.583813,10,12
-2.82488,-1.71013,0.641881,2,13
-2.56615,-1.55228,0.692399,1,14
-2.29479,-1.38704,0.718482,1,15
-3.16699,-1.90819,0.064539,1,8
-0.455731,-0.274481,-0.122823,15,1
-3.15867,-1.90167,0.193224,0,9
-3.1752,-1.91087,0.324219,1,10
-3.28331,-1.97438,0.470416,1,11
-3.16464,-1.90151,0.584752,10,12
-2.83083,-1.70026,0.641881,2,13
-0.482881,-0.289915,-0.0295175,16,6
-2.57322,-1.54431,0.692849,1,14
-2.30459,-1.382,0.720035,2,15
-3.15304,-1.88481,0.0641201,1,8
-0.423229,-0.252897,-0.113825,16,1
-3.17557,-1.89678,0.193852,1,9
-3.2058,-1.91407,0.32666,1,10
-3.29019,-1.9629,0.470416,1,11
-3.17296,-1.89146,0.585065,10,12
-2.82663,-1.68434,0.639592,2,13
-2.59031,-1.5423,0.695999,1,14
-2.30608,-1.37197,0.718999,2,15
-3.18024,-1.88604,0.064539,1,8
-3.16843,-1.87754,0.193015,1,9
-3.21246,-1.90287,0.32666,1,10
-3.29702,-1.95141,0.470416,1,11
-3.18634,-1.8844,0.586316,10,12
-2.83249,-1.67446,0.639592,2,13
-2.58729,-1.52829,0.693749,1,14
-2.32084,-1.36981,0.722105,2,15
-3.15233,-1.85464,0.0638409,1,8
-0.45858,-0.269693,-0.122823,15,1
-3.18013,-1.8695,0.193329,1,9
-3.21254,-1.88705,0.325962,1,10
-3.30552,-1.94089,0.470659,1,11
-3.19801,-1.87626,0.587255,11,12
-2.84538,-1.66804,0.641118,2,13
-2.57606,-1.50895,0.68925,1,14
-2.33061,-1.36463,0.723658,1,15
-3.17638,-1.85315,0.06419,1,8
-3.16421,-1.84531,0.191968,1,9
-3.28796,-1.91595,0.332935,1,10
-3.31261,-1.92876,0.470659,1,11
-3.19088,-1.85714,0.584752,9,12
-0.433981,-0.252482,-0.0439265,12,5
-2.86477,-1.666,0.644171,2,13
-2.57263,-1.4955,0.687001,1,14
-2.33703,-1.35745,0.724176,2,15
-3.19981,-1.85263,0.064539,1,8
-3.17031,-1.83481,0.191968,1,9
-3.19081,-1.84519,0.322476,1,10
-3.31899,-1.91777,0.470659,1,11
-3.20045,-1.84852,0.585378,9,12
-0.445169,-0.257018,-0.0449724,12,5
-2.84987,-1.64471,0.639592,2,13
-0.487867,-0.281443,-0.0295175,16,6
-2.59614,-1.49767,0.691949,1,14
-2.32645,-1.34101,0.719517,2,15
-3.19207,-1.83404,0.0642598,1,8
-0.461333,-0.264957,-0.122823,15,1
-3.19369,-1.83423,0.193015,1,9
-3.23839,-1.8584,0.32666,1,10
-3.20656,-1.8379,0.585378,10,12
-2.8536,-1.63427,0.63921,2,13
-2.60617,-1.49196,0.693299,1,14
-2.33759,-1.33713,0.721588,2,15
-3.19466,-1.82146,0.06419,1,8
-0.43512,-0.247987,-0.115625,16,1
-3.2067,-1.82759,0.193434,1,9
-3.22029,-1.83385,0.324219,1,10
-3.33164,-1.89571,0.470659,1,11
-3.21607,-1.82921,0.586004,10,12
-0.481504,-0.273755,-0.0484586,11,5
-2.87266,-1.63256,0.642263,2,13
-2.60941,-1.48235,0.692849,1,14
-2.35042,-1.33414,0.724176,2,15
-3.21872,-1.81958,0.064539,1,8
-0.42924,-0.242556,-0.113825,16,1
-3.20468,-1.81091,0.19291,1,9
-3.20964,-1.81223,0.322476,1,10
-3.33856,-1.88349,0.470659,1,11
-3.22275,-1.81741,0.586004,9,12
-2.86836,-1.61624,0.639973,2,13
-2.60319,-1.46563,0.6897,1,14
-2.34856,-1.32172,0.722105,2,15
-3.21078,-1.80107,0.0642598,1,8
-3.20402,-1.7958,0.192492,1,9
-3.27853,-1.83607,0.328751,1,10
-3.34479,-1.87241,0.470659,1,11
-3.22218,-1.80229,0.584752,9,12
-2.87714,-1.60864,0.640737,2,13
-2.60974,-1.45794,0.69015,1,14
-2.35822,-1.31634,0.723658,2,15
-3.19958,-1.78013,0.0639107,1,8
-0.427475,-0.237734,-0.112925,16,1
-3.20852,-1.78364,0.192387,1,9
-3.26022,-1.81163,0.326311,1,10
-3.35131,-1.86072,0.470659,1,11
-3.22845,-1.79103,0.584752,9,12
-2.86556,-1.58906,0.63692,2,13
-0.49261,-0.273058,-0.0295175,16,6
-2.6097,-1.44598,0.6888,1,14
-2.35942,-1.30623,0.722623,1,15
-3.22328,-1.77861,0.0642598,1,8
-3.23746,-1.78497,0.193748,1,9
-3.26652,-1.80024,0.326311,1,10
-3.23122,-1.77785,0.584126,9,12
-2.87281,-1.58,0.637302,2,13
-0.49356,-0.271337,-0.0295175,16,6
-2.62498,-1.4425,0.6915,1,14
-2.36227,-1.29706,0.722105,2,15
-3.20491,-1.75391,0.0637711,1,8
-3.23285,-1.76847,0.19312,1,9
-3.25181,-1.77736,0.324219,1,10
-3.25097,-1.7747,0.586629,10,12
-0.440736,-0.240497,-0.0439265,12,5
-2.87659,-1.56902,0.63692,2,13
-2.63146,-1.43472,0.691949,1,14
-2.36147,-1.28644,0.720552,2,15
-3.22653,-1.75186,0.0640852,1,8
-3.22641,-1.75107,0.192387,1,9
-3.29972,-1.78937,0.328403,1,10
-3.30746,-1.79207,0.461885,1,11
-3.25684,-1.76391,0.586629,9,12
-2.88696,-1.56227,0.638065,2,13
-0.495395,-0.267971,-0.0295175,16,6
-2.63277,-1.42413,0.69105,1,14
-3.31401,-1.79188,-0.0657607,2,7
-2.36572,-1.27861,0.720552,2,15
-3.25696,-1.75443,0.0645739,1,8
-3.21492,-1.73033,0.19134,1,9
-3.26353,-1.75576,0.324219,1,10
-3.37632,-1.81493,0.470659,1,11
-3.24905,-1.74505,0.584126,9,12
-0.488003,-0.261994,-0.0484586,11,5
-2.90596,-1.56012,0.641118,2,13
-2.63945,-1.41585,0.6915,1,14
-3.285,-1.7614,-0.0650626,2,7
-2.36336,-1.26669,0.718482,1,15
-3.23837,-1.72986,0.0640852,1,8
-3.26146,-1.74073,0.193748,1,9
-3.25236,-1.73441,0.322476,1,10
-3.38264,-1.80313,0.470659,1,11
-3.25164,-1.73184,0.583501,9,12
-2.89952,-1.543,0.638447,2,13
-0.497254,-0.264506,-0.0295175,16,6
-2.63429,-1.40068,0.6888,1,14
-3.32644,-1.7687,-0.0657607,2,7
-2.37288,-1.26115,0.720035,2,15
-3.23409,-1.71236,0.0638758,1,8
-3.25163,-1.72092,0.192806,1,9
-3.27601,-1.73236,0.324219,1,10
-3.38923,-1.79072,0.470659,1,11
-3.26465,-1.72417,0.584752,8,12
-0.48982,-0.258581,-0.0484586,11,5
-2.90663,-1.53379,0.638829,2,13
-2.64754,-1.39648,0.69105,1,14
-3.33259,-1.75708,-0.0657607,2,7
-2.3824,-1.25556,0.721588,2,15
-3.22913,-1.69605,0.0636664,1,8
-3.2697,-1.71663,0.193538,1,9
-3.32761,-1.74555,0.328751,1,10
-3.39515,-1.77947,0.470659,1,11
-3.27385,-1.71517,0.585378,8,12
-0.490675,-0.256955,-0.0484586,11,5
-2.91692,-1.52687,0.639973,2,13
-2.65043,-1.38679,0.6906,1,14
-3.27461,-1.71265,-0.0645041,2,7
-2.37627,-1.24229,0.718482,2,15
-3.25602,-1.69642,0.0640852,1,8
-3.26858,-1.70152,0.19312,1,9
-3.32277,-1.72899,0.327706,1,10
-3.40103,-1.7682,0.470659,1,11
-3.28332,-1.70555,0.586004,9,12
-2.92719,-1.51991,0.641118,2,13
-2.65526,-1.37753,0.6906,1,14
-3.34448,-1.73435,-0.0657607,2,7
-2.38403,-1.23576,0.719517,2,15
-3.26192,-1.68504,0.0640852,1,8
-3.25498,-1.68002,0.191968,1,9
-3.31462,-1.71007,0.326311,1,10
-3.27696,-1.68775,0.583813,8,12
-2.94121,-1.51417,0.643026,2,13
-0.500808,-0.257712,-0.0295175,16,6
-2.65312,-1.36469,0.6888,1,14
-3.30071,-1.69707,-0.0647833,2,7
-2.3952,-1.23097,0.721588,2,15
-3.27846,-1.67912,0.0642947,1,8
-0.438864,-0.224674,-0.113825,16,1
-3.27476,-1.6765,0.192806,1,9
-3.25671,-1.66583,0.320036,1,10
-3.41329,-1.74441,0.470659,1,11
-3.28254,-1.67687,0.583813,8,12
-2.93074,-1.49586,0.639592,2,13
-2.67349,-1.36339,0.692849,1,14
-3.3562,-1.71155,-0.0657607,2,7
-2.38894,-1.21775,0.718482,1,15
-3.26618,-1.65918,0.0639456,1,8
-3.28415,-1.66687,0.193015,1,9
-3.31937,-1.68328,0.325614,1,10
-3.29366,-1.66808,0.584752,8,12
-2.92692,-1.4817,0.637684,2,13
-2.67626,-1.35363,0.692399,1,14
-3.36216,-1.69982,-0.0657607,2,7
-2.37938,-1.20243,0.714341,1,15
-3.2791,-1.65137,0.0640852,1,8
-0.440383,-0.221682,-0.113825,16,1
-3.29709,-1.65898,0.193434,1,9
-3.36409,-1.69196,0.329449,1,10
-3.42508,-1.72114,0.470659,1,11
-3.31182,-1.66278,0.586942,8,12
-0.494998,-0.248525,-0.0484586,11,5
-2.95138,-1.48116,0.641881,2,13
-0.503436,-0.252542,-0.0295175,16,6
-2.66529,-1.33642,0.68835,1,14
-3.36807,-1.68808,-0.0657607,2,7
-2.40429,-1.20451,0.720552,2,15
-3.30989,-1.65241,0.0645739,1,8
-0.441154,-0.220144,-0.113825,16,1
-3.28856,-1.64033,0.192596,1,9
-3.33432,-1.66243,0.325962,1,10
-3.3123,-1.64857,0.586004,7,12
-0.460189,-0.229041,-0.0449724,12,5
-2.93017,-1.45774,0.636157,2,13
-0.504314,-0.250783,-0.0295175,16,6
-2.64899,-1.3167,0.682951,1,14
-3.37394,-1.67631,-0.0657607,2,7
-2.39464,-1.18923,0.716411,1,15
-3.28338,-1.62489,0.0639456,1,8
-0.44192,-0.218602,-0.113825,16,1
-3.29247,-1.62796,0.192492,1,9
-3.35439,-1.65784,0.327357,1,10
-3.43702,-1.69719,0.470659,1,11
-3.30209,-1.62913,0.583188,7,12
-2.95284,-1.45618,0.639973,2,13
-0.505186,-0.249021,-0.0295175,16,6
-2.66581,-1.31348,0.686101,1,14
-3.37977,-1.66452,-0.0657607,2,7
-2.41264,-1.18769,0.720552,1,15
-3.30698,-1.62222,0.0642947,1,8
-0.453178,-0.222206,-0.116525,16,1
-3.31069,-1.62261,0.193224,1,9
-3.36373,-1.64788,0.327706,1,10
-3.31131,-1.61933,0.583813,7,12
-2.95085,-1.44242,0.638447,2,13
-2.67914,-1.30844,0.68835,1,14
-3.38556,-1.65271,-0.0657607,2,7
-2.39594,-1.1691,0.714341,2,15
-3.31262,-1.61067,0.0642947,1,8
-3.31605,-1.61162,0.193224,1,9
-3.36588,-1.63438,0.327357,1,10
-3.31666,-1.60834,0.583813,6,12
-2.94174,-1.42526,0.635394,2,13
-0.506913,-0.245488,-0.0295175,16,6
-3.39103,-1.64148,-0.0657607,2,7
-2.40676,-1.16451,0.716411,2,15
-3.31795,-1.59967,0.0642947,1,8
-0.444147,-0.21404,-0.113825,16,1
-3.34325,-1.61044,0.19448,1,9
-3.3572,-1.61571,0.325962,1,10
-3.33828,-1.60445,0.586629,5,12
-2.95706,-1.4206,0.637684,2,13
-3.39673,-1.62963,-0.0657607,2,7
-2.43868,-1.16947,0.724693,1,15
-3.32351,-1.58808,0.0642947,1,8
-3.33624,-1.59273,0.193748,1,9
-3.36254,-1.60457,0.325962,1,10
-3.33672,-1.58939,0.585378,5,12
-2.97264,-1.41533,0.639973,2,13
-0.508572,-0.242032,-0.0295175,16,6
-3.4024,-1.61776,-0.0657607,2,7
-2.50905,-1.19246,0.744364,1,15
-3.37241,-1.59701,0.0651324,1,8
-3.32553,-1.57339,0.192806,1,9
-3.39694,-1.60645,0.328751,1,10
-3.33153,-1.57268,0.583501,5,12
-3.0042,-1.41751,0.645698,1,13
-3.33452,-1.56484,0.0642947,1,8
-0.48165,-0.225929,-0.122823,15,1
-3.34366,-1.56771,0.193538,1,9
-3.3917,-1.58951,0.327706,1,10
-3.47152,-1.62544,0.470659,1,11
-3.33342,-1.55936,0.582875,5,12
-0.510249,-0.238475,-0.0295175,16,6
-3.41361,-1.59397,-0.0657607,2,7
-2.4823,-1.15857,0.734011,1,15
-3.32908,-1.54813,0.0640852,1,8
-0.457695,-0.212747,-0.116525,16,1
-3.35273,-1.55771,0.193748,1,9
-3.39362,-1.57599,0.327357,1,10
-3.35319,-1.55436,0.585378,5,12
-0.502519,-0.232942,-0.0484586,11,5
-0.511078,-0.236693,-0.0295175,16,6
-3.41916,-1.58205,-0.0657607,2,7
-2.44425,-1.13044,0.721588,1,15
-3.34146,-1.54043,0.0642249,1,8
-3.35761,-1.54717,0.193748,1,9
-3.36625,-1.54973,0.324219,1,10
-3.35805,-1.54382,0.585378,5,12
-2.75946,-1.26629,0.700947,1,14
-2.43023,-1.1147,0.716411,1,15
-3.36474,-1.53766,0.0645739,1,8
-0.448461,-0.204848,-0.113825,16,1
-3.37207,-1.53959,0.194271,1,9
-3.38977,-1.54623,0.325962,1,10
-3.35983,-1.53045,0.584752,5,12
-0.512637,-0.233298,-0.0295175,16,6
-2.71753,-1.23616,0.68925,4,14
-2.42004,-1.09982,0.71227,2,15
-3.35187,-1.51765,0.0642249,1,8
-0.484681,-0.219351,-0.122823,15,1
-3.36469,-1.52204,0.193538,1,9
-3.43118,-1.5514,0.329449,1,10
-3.49333,-1.57803,0.470659,1,11
-3.34894,-1.5114,0.581936,5,12
-0.513448,-0.231507,-0.0295175,16,6
-2.72005,-1.22586,0.6888,4,14
-2.90626,-1.30917,-0.0556383,1,7
-2.43795,-1.09771,0.716411,2,15
-3.46662,-1.55505,0.0663191,1,8
-3.39185,-1.52009,0.194794,1,9
-3.40048,-1.52253,0.325962,1,10
-3.3578,-1.50131,0.582562,5,12
-2.72452,-1.21589,0.6888,5,14
-2.84507,-1.26968,-0.0543817,1,7
-2.45059,-1.09312,0.718999,2,15
-0.486238,-0.215877,-0.122823,15,1
-3.37888,-1.50014,0.193748,1,9
-3.40577,-1.51065,0.325962,1,10
-3.36302,-1.48959,0.582562,4,12
-2.7321,-1.20842,0.6897,5,14
-2.89703,-1.28077,-0.0552892,1,7
-2.45263,-1.08378,0.718482,1,15
-0.486951,-0.214264,-0.122823,15,1
-3.40212,-1.49697,0.194794,1,9
-3.45818,-1.5202,0.330495,1,10
-3.50784,-1.54057,0.470416,1,11
-3.36795,-1.47842,0.582562,4,12
-2.7361,-1.19935,0.6897,5,14
-2.90859,-1.27436,-0.0554288,1,7
-2.47036,-1.08184,0.722623,1,15
-3.42747,-1.49386,0.195946,1,9
-3.43398,-1.49599,0.327706,1,10
-3.51293,-1.52893,0.470416,1,11
-3.36946,-1.46508,0.581936,4,12
-0.507945,-0.220861,-0.0484586,11,5
-2.73669,-1.18824,0.6888,5,14
-2.86166,-1.24191,-0.0544515,1,7
-2.45995,-1.06706,0.718482,1,15
-0.488398,-0.210944,-0.122823,15,1
-3.39598,-1.46606,0.193852,1,9
-3.39162,-1.46347,0.323173,1,10
-3.51825,-1.51665,0.470416,1,11
-3.3673,-1.45019,0.580685,4,12
-0.461136,-0.198596,-0.0439265,12,5
-2.73366,-1.1756,0.687001,5,14
-2.83658,-1.21928,-0.053893,3,7
-2.47076,-1.06152,0.720552,1,15
-0.464048,-0.198508,-0.116525,16,1
-3.41368,-1.46029,0.194585,1,9
-3.45167,-1.47511,0.328403,1,10
-3.52352,-1.50436,0.470416,1,11
-3.35755,-1.43281,0.578182,4,12
-0.509475,-0.217309,-0.0484586,11,5
-0.518145,-0.220794,-0.0295175,16,6
-2.74492,-1.16911,0.6888,5,14
-2.85901,-1.2177,-0.0542421,3,7
-2.44227,-1.0397,0.711235,1,15
-3.22175,-1.36623,0.0610834,1,8
-0.453939,-0.192405,-0.113825,16,1
-3.41876,-1.44836,0.194585,0,9
-3.46047,-1.46461,0.328751,1,10
-3.52849,-1.49267,0.470416,1,11
-3.36981,-1.42416,0.579433,3,12
-0.518875,-0.219075,-0.0295175,16,6
-2.75955,-1.16455,0.6915,5,14
-2.86324,-1.20771,-0.0542421,4,7
-2.45656,-1.03567,0.714341,2,15
-3.43669,-1.44324,0.0650626,1,8
-0.465389,-0.195345,-0.116525,16,1
-3.44933,-1.44784,0.196051,0,9
-3.45796,-1.45004,0.328054,1,10
-3.37452,-1.41298,0.579433,2,12
-0.463156,-0.193837,-0.0439265,12,5
-2.7672,-1.15641,0.692399,5,14
-2.88937,-1.20747,-0.0546609,4,7
-2.47424,-1.03348,0.718482,1,15
-3.41561,-1.42108,0.0645739,1,8
-0.455238,-0.189311,-0.113825,16,1
-3.43591,-1.42812,0.195004,0,9
-3.48876,-1.44866,0.330495,1,10
-3.53857,-1.46862,0.470416,1,11
-3.35936,-1.39287,0.575992,2,12
-2.74941,-1.13828,0.687001,4,14
-2.90835,-1.20349,-0.0549402,1,7
-2.48676,-1.02853,0.72107,1,15
-3.46122,-1.42591,0.0653418,1,8
-0.491935,-0.20256,-0.122823,15,1
-3.4612,-1.42448,0.196155,1,9
-3.51934,-1.44769,0.332935,1,10
-3.54367,-1.45626,0.470416,1,11
-3.34227,-1.37213,0.572237,2,12
-0.464465,-0.19068,-0.0439265,12,5
-2.80926,-1.15159,0.700947,1,14
-2.94214,-1.20546,-0.0554987,1,7
-2.57257,-1.05352,0.744881,1,15
-0.470984,-0.192014,-0.117424,16,1
-3.42176,-1.3943,0.193643,1,9
-3.48747,-1.42037,0.329449,1,10
-3.369,-1.36938,0.575992,2,12
-2.91668,-1.18316,-0.0549402,1,7
-3.40249,-1.374,0.0640503,1,8
-0.466231,-0.18818,-0.116075,16,1
-3.44118,-1.38893,0.19448,1,9
-3.52936,-1.42309,0.332935,1,10
-3.34054,-1.34492,0.57036,2,12
-0.513842,-0.206771,-0.0484586,11,5
-2.93914,-1.18093,-0.0552892,1,7
-3.45901,-1.38351,0.0650277,1,8
-0.466852,-0.186633,-0.116075,16,1
-3.45875,-1.3827,0.195213,1,9
-3.50815,-1.40103,0.330495,1,10
-3.55848,-1.41969,0.470416,1,11
-3.37067,-1.34408,0.57474,2,12
-0.514525,-0.205066,-0.0484586,11,5
-2.94304,-1.17118,-0.0552892,1,7
-3.45614,-1.36908,0.064888,1,8
-0.456597,-0.18078,-0.113375,16,1
-3.45798,-1.36841,0.194899,1,9
-3.51649,-1.39086,0.330843,1,10
-3.56317,-1.40788,0.470416,1,11
-3.36064,-1.3265,0.572237,2,12
-0.515237,-0.203269,-0.0484586,11,5
-2.94711,-1.1609,-0.0552892,1,7
-3.4758,-1.36285,0.0651673,1,8
-0.47174,-0.184873,-0.116975,16,1
-3.47018,-1.35925,0.195318,1,9
-3.54383,-1.38667,0.332935,1,10
-3.36893,-1.3162,0.572863,2,12
-0.515944,-0.201469,-0.0484586,11,5
-3.06523,-1.19632,0.639592,1,13
-3.49195,-1.35444,0.0653767,1,8
-0.457879,-0.177508,-0.113375,16,1
-3.47862,-1.34857,0.195527,1,9
-3.54864,-1.37429,0.332935,1,10
-3.35508,-1.29731,0.569734,2,12
-0.516644,-0.199667,-0.0484586,11,5
-3.07122,-1.18632,0.639973,2,13
-2.81784,-1.08788,0.697348,1,14
-2.59372,-1.00031,0.744881,1,15
-3.50763,-1.34715,0.0655861,1,8
-0.458465,-0.175988,-0.113375,16,1
-3.50172,-1.34419,0.196574,1,9
-3.55318,-1.36252,0.332935,1,10
-3.57772,-1.37049,0.470416,1,11
-3.37781,-1.29324,0.572863,2,12
-0.517303,-0.197953,-0.0484586,11,5
-3.04947,-1.16631,0.634631,2,13
-0.526099,-0.201108,-0.0295175,16,6
-2.80505,-1.07227,0.693299,1,14
-2.48513,-0.94898,0.712788,1,15
-3.47095,-1.31988,0.0648182,1,8
-3.51199,-1.33408,0.196888,1,9
-3.52043,-1.33658,0.329449,1,10
-3.37492,-1.27864,0.571612,2,12
-0.517991,-0.196146,-0.0484586,11,5
-3.04414,-1.15271,0.632723,2,13
-2.79602,-1.05764,0.69015,2,14
-2.4812,-0.937568,0.710717,1,15
-3.50548,-1.31902,0.0653767,1,8
-3.49793,-1.31479,0.195841,1,9
-3.5253,-1.32367,0.329449,1,10
-3.58696,-1.34611,0.470416,1,11
-3.39416,-1.2724,0.574115,2,12
-0.518672,-0.194337,-0.0484586,11,5
-3.06489,-1.14774,0.636157,2,13
-2.79075,-1.04397,0.6879,1,14
-2.51341,-0.939726,0.718999,1,15
-3.50655,-1.30477,0.0653069,1,8
-0.460283,-0.171178,-0.113375,16,1
-3.51396,-1.30613,0.196469,1,9
-3.56726,-1.32523,0.332935,1,10
-3.38027,-1.25308,0.570986,2,12
-0.519381,-0.192434,-0.0484586,11,5
-3.04679,-1.12885,0.631578,2,13
-2.80717,-1.03896,0.69105,1,14
-2.50597,-0.926489,0.715894,1,15
-3.49982,-1.28838,0.0650975,1,8
-0.471851,-0.173607,-0.116075,16,1
-3.54099,-1.30213,0.197725,1,9
-3.53468,-1.29841,0.329449,1,10
-3.39576,-1.24536,0.572863,2,12
-3.07855,-1.12781,0.637302,2,13
-0.52889,-0.193651,-0.0295175,16,6
-2.8073,-1.02733,0.69015,1,14
-2.52007,-0.921717,0.718999,1,15
-3.53767,-1.2897,0.0657258,1,8
-0.457746,-0.166787,-0.112476,17,1
-3.53756,-1.28827,0.197307,1,9
-3.57597,-1.30155,0.332935,1,10
-3.38851,-1.23064,0.570986,2,12
-0.520613,-0.189076,-0.0484586,11,5
-3.06343,-1.11197,0.633486,2,13
-2.80484,-1.017,0.6888,1,14
-2.53022,-0.916427,0.72107,1,15
-3.53462,-1.27463,0.0655861,1,8
-3.52888,-1.27117,0.196574,1,9
-3.58049,-1.28906,0.332935,1,10
-3.40022,-1.22147,0.572237,2,12
-3.07469,-1.10393,0.635012,2,13
-2.82855,-1.01444,0.693749,1,14
-2.50067,-0.895862,0.711752,1,15
-3.53905,-1.26229,0.0655861,1,8
-0.477255,-0.170131,-0.116975,16,1
-3.54813,-1.26483,0.197411,1,9
-3.58497,-1.27655,0.332935,1,10
-3.60969,-1.28393,0.470416,1,11
-3.39681,-1.20755,0.570986,2,12
-3.08037,-1.09384,0.635394,2,13
-2.8082,-0.996089,0.6879,1,14
-2.54368,-0.901765,0.72314,1,15
-3.58093,-1.26386,0.0662842,1,8
-0.463115,-0.163361,-0.113375,16,1
-3.5318,-1.24513,0.19626,1,9
-3.5894,-1.26403,0.332935,1,10
-3.35814,-1.18061,0.56379,3,12
-0.522565,-0.183614,-0.0484586,11,5
-3.09695,-1.08818,0.638065,2,13
-2.81148,-0.986771,0.6879,1,14
-1.93603,-0.679126,-0.0358123,1,7
-2.50306,-0.877541,0.710717,1,15
-3.58532,-1.25135,0.0662842,1,8
-3.55288,-1.23933,0.197202,0,9
-3.59357,-1.25212,0.332935,1,10
-3.61834,-1.25933,0.470416,1,11
-3.35457,-1.16687,0.562538,4,12
-2.80185,-0.972969,0.684751,1,14
-1.93071,-0.67008,-0.0356727,2,7
-2.49866,-0.866703,0.708647,1,15
-3.58945,-1.23945,0.0662842,1,8
-3.56075,-1.22885,0.197411,1,9
-3.5977,-1.24019,0.332935,1,10
-3.34348,-1.1506,0.560035,4,12
-0.523771,-0.180144,-0.0484586,11,5
-2.82165,-0.96937,0.6888,1,14
-1.94049,-0.666271,-0.0358123,3,7
-3.5557,-1.21461,0.0655861,1,8
-0.473966,-0.161813,-0.115625,16,1
-3.55368,-1.21254,0.196783,1,9
-3.6018,-1.22826,0.332935,1,10
-3.62661,-1.23531,0.470416,1,11
-3.36992,-1.14656,0.56379,4,12
-2.83055,-0.961395,0.69015,1,14
-1.94659,-0.660779,-0.0358821,4,7
-3.54476,-1.19708,0.0653069,1,8
-0.474528,-0.160157,-0.115625,16,1
-3.57871,-1.20715,0.197935,1,9
-3.60606,-1.21568,0.332935,1,10
-3.6309,-1.22264,0.470416,1,11
-3.36641,-1.13227,0.562538,4,12
-0.475886,-0.160061,-0.0439265,12,5
-2.81727,-0.945926,0.686101,1,14
-1.92045,-0.644437,-0.0353586,4,7
-3.60203,-1.20243,0.0662842,1,8
-3.57721,-1.19276,0.197621,1,9
-3.61028,-1.20308,0.332935,1,10
-3.3666,-1.11927,0.561913,4,12
-0.525598,-0.174741,-0.0484586,11,5
-3.11511,-1.03505,0.638065,1,13
-2.82055,-0.936086,0.686101,1,14
-1.92838,-0.639619,-0.0354633,4,7
-3.6062,-1.18985,0.0662842,1,8
-3.60412,-1.18776,0.198877,0,9
-3.61446,-1.19047,0.332935,1,10
-3.63935,-1.19726,0.470416,1,11
-3.37048,-1.10751,0.561913,4,12
-0.526205,-0.172906,-0.0484586,11,5
-3.11683,-1.02356,0.637684,2,13
-0.535142,-0.175635,-0.0295175,16,6
-2.80714,-0.920769,0.682052,1,14
-1.9382,-0.635375,-0.0356029,3,7
-3.60424,-1.17457,0.198667,0,9
-3.6186,-1.17785,0.332935,1,10
-3.64351,-1.18455,0.470416,1,11
-3.38917,-1.10121,0.564416,4,12
-0.526805,-0.171068,-0.0484586,11,5
-3.10918,-1.00904,0.635394,2,13
-2.82887,-0.916973,0.686551,1,14
-1.93649,-0.627711,-0.0355331,3,7
-0.469272,-0.151209,-0.113825,16,1
-3.61212,-1.1632,0.198877,0,9
-3.62268,-1.16521,0.332935,1,10
-3.64742,-1.17246,0.470416,1,11
-3.39111,-1.08877,0.564103,5,12
-0.527399,-0.169228,-0.0484586,11,5
-3.11812,-1.00052,0.636539,2,13
-2.86159,-0.917103,0.693749,1,14
-1.75204,-0.561171,-0.0321124,1,7
-2.18763,-0.700265,0.615472,1,15
-3.60644,-1.14819,0.198353,1,9
-3.62653,-1.15319,0.332935,1,10
-3.39658,-1.07811,0.564416,4,12
-0.47858,-0.151815,-0.0439265,12,5
-3.11972,-0.989035,0.636157,2,13
-2.82947,-0.895932,0.685201,1,14
-1.72721,-0.546907,-0.0316238,3,7
-3.59328,-1.1302,0.197411,1,9
-3.63053,-1.14052,0.332935,1,10
-3.65531,-1.14761,0.470416,1,11
-3.43614,-1.07748,0.57036,2,12
-3.15109,-0.987491,0.641881,2,13
-2.84173,-0.889454,0.68745,1,14
-1.67948,-0.525353,-0.0307162,3,7
-1.71659,-0.534,0.0313794,1,8
-3.64298,-1.13187,0.199923,0,9
-3.63429,-1.12848,0.332935,1,10
-3.6593,-1.13484,0.470416,1,11
-3.44743,-1.06782,0.571612,2,12
-2.91821,-0.903336,0.593798,1,13
-0.538068,-0.166457,-0.0295175,16,6
-2.90067,-0.896798,0.700947,1,14
-1.65074,-0.510041,-0.0301578,4,7
-1.71844,-0.528004,0.0313794,1,8
-3.63841,-1.11515,0.332935,1,10
-3.66323,-1.12206,0.470416,1,11
-3.45491,-1.05693,0.572237,2,12
-2.90648,-0.888045,0.590745,1,13
-1.63721,-0.499607,-0.0298785,2,7
-1.69357,-0.513578,0.0308908,1,8
-3.64228,-1.10244,0.332935,1,10
-3.66732,-1.10863,0.470416,1,11
-3.47749,-1.05058,0.575366,2,12
-0.530244,-0.16009,-0.0484586,11,5
-2.88701,-0.871089,0.586165,1,13
-2.21653,-0.668365,0.534484,1,14
-1.66192,-0.500813,-0.0302974,1,7
-1.70293,-0.510255,0.0310304,1,8
-1.78321,-0.533972,0.0975542,1,9
-3.67098,-1.09646,0.470416,1,11
-3.46581,-1.03452,0.572863,2,12
-0.530772,-0.158331,-0.0484586,11,5
-2.94632,-0.878337,0.597614,1,13
-2.21126,-0.658785,0.532684,1,14
-1.6674,-0.49644,-0.0303672,1,7
-1.67393,-0.495523,0.0304719,1,8
-0.472777,-0.139864,-0.113825,16,1
-1.76974,-0.523214,0.0967169,1,9
-3.64951,-1.07826,0.332935,1,10
-3.46561,-1.0213,0.572237,2,12
-0.531294,-0.15657,-0.0484586,11,5
-3.15638,-0.929572,0.639592,1,13
-2.21355,-0.651063,0.532684,1,14
-1.65761,-0.487233,-0.0301578,1,7
-1.67373,-0.489116,0.030437,2,8
-0.488227,-0.142583,-0.117424,16,1
-1.72938,-0.504724,0.0944141,1,9
-3.60352,-1.05101,0.328403,1,10
-3.44639,-1.00257,0.568483,2,12
-3.186,-0.926221,0.644934,1,13
-2.22329,-0.645505,0.534484,1,14
-1.64778,-0.478101,-0.0299483,1,7
-1.63892,-0.472741,0.0297738,1,8
-0.484977,-0.139798,-0.116525,16,1
-1.74256,-0.502305,0.0950421,1,9
-3.47628,-0.998777,0.572863,2,12
-0.532374,-0.152857,-0.0484586,11,5
-0.541409,-0.155246,-0.0295175,16,6
-2.19919,-0.630609,0.528185,1,14
-1.65705,-0.474837,-0.0300879,2,7
