x, y, z, intensity, ring
3.41369,-4.19008,0.856009,56,12
3.87348,-4.75443,-0.536531,10,5
3.4788,-4.27152,1.07082,30,13
4.20283,-5.16237,-0.348872,13,6
3.40978,-4.18975,1.24713,36,14
4.56077,-5.60602,-0.126146,6,7
8.81018,-10.8332,3.74149,4,15
4.21566,-5.19848,0.116826,72,8
0.335019,-0.413271,-0.122823,15,1
4.23763,-5.22931,0.352744,45,9
0.390591,-0.481996,-0.120591,15,2
5.24223,-6.4713,0.728622,37,10
4.46662,-5.51582,-1.12414,32,3
4.83359,-5.97112,0.943269,13,11
7.68213,-9.49341,-1.49948,6,4
3.35308,-4.14514,0.844433,82,12
5.60109,-6.92418,-0.779172,3,5
3.48239,-4.30653,1.07654,6,13
5.3512,-6.61999,-0.446112,14,6
3.2947,-4.07734,1.21024,45,14
4.53866,-5.6188,-0.126076,68,7
9.37428,-11.6094,3.99824,13,15
4.16363,-5.17111,0.115884,75,8
0.333574,-0.414438,-0.122823,15,1
4.71766,-5.8634,0.394404,63,9
0.386445,-0.480297,-0.119828,15,2
6.97654,-8.67397,0.973878,19,10
3.48435,-4.33365,-0.880726,15,3
4.81769,-5.99414,0.944244,13,11
3.87172,-4.81889,-0.759002,9,4
3.42023,-4.25847,0.865083,28,12
3.82023,-4.75651,-0.533742,15,5
3.59413,-4.47819,-0.300932,18,6
3.31337,-4.12985,1.22238,24,14
4.59533,-5.72976,-0.128205,77,7
8.77421,-10.9442,3.75857,4,15
4.20174,-5.2559,0.117455,75,8
0.332125,-0.4156,-0.122823,15,1
4.65229,-5.82365,0.390636,23,9
0.387132,-0.484779,-0.120591,15,2
7.0519,-8.8306,0.988695,70,10
3.4729,-4.35042,-0.881665,40,3
7.73372,-9.69133,1.52239,21,11
4.83407,-6.05987,-0.9518,10,4
3.37948,-4.23795,0.858512,51,12
3.80401,-4.77203,-0.533916,21,5
6.69252,-8.39859,2.08745,21,13
3.61253,-4.53507,-0.303863,34,6
3.25766,-4.08957,1.20709,65,14
4.55164,-5.71605,-0.127542,28,7
8.78167,-11.0322,3.77824,13,15
4.03454,-5.08485,0.113301,26,8
0.316068,-0.398493,-0.117424,16,1
4.51055,-5.68886,0.380482,57,9
0.378036,-0.476963,-0.118302,15,2
3.44957,-4.35383,-0.879788,13,3
5.18263,-6.54354,1.02492,26,11
5.24433,-6.62382,-1.03735,17,4
5.91016,-7.46747,1.50834,26,12
3.48673,-4.40864,1.09257,46,13
3.48317,-4.40571,-0.294337,18,6
3.29703,-4.17027,1.22733,40,14
4.37691,-5.53815,-0.123214,46,7
6.57954,-8.32815,2.8439,20,15
0.32907,-0.418023,-0.122823,15,1
4.51784,-5.73909,0.382785,57,9
0.381225,-0.484451,-0.119828,15,2
5.19835,-6.6083,0.735594,16,10
3.44702,-4.38353,-0.883229,6,3
5.13899,-6.53753,1.02102,6,11
5.24332,-6.67266,-1.04198,4,4
3.58951,-4.56801,0.920148,48,12
4.57837,-5.82852,-0.648439,21,5
3.44343,-4.38527,1.0838,10,13
6.12902,-7.80821,-0.520219,38,6
3.30578,-4.21299,1.23633,47,14
4.28348,-5.459,-0.12112,63,7
6.57189,-8.37843,2.85322,4,15
0.310878,-0.397619,-0.116525,16,1
4.51008,-5.77056,0.383832,48,9
0.386784,-0.495061,-0.122118,15,2
4.72886,-6.05484,0.672145,28,10
3.43611,-4.3996,-0.884168,30,3
6.36575,-8.15366,1.27012,24,11
9.8048,-12.5631,-1.95673,18,4
5.6902,-7.29362,1.46517,26,12
6.31927,-8.10286,1.99739,32,13
6.09695,-7.82061,-0.519696,56,6
3.3457,-4.2931,1.25658,13,14
4.2558,-5.46288,-0.120875,31,7
6.50462,-8.35254,2.83666,24,15
0.326217,-0.420253,-0.122823,15,1
4.43726,-5.71842,0.379331,42,9
0.377919,-0.487034,-0.119828,15,2
4.65136,-5.9965,0.663952,58,10
3.42315,-4.41469,-0.884793,16,3
5.18436,-6.68846,1.03906,14,11
4.9534,-6.39279,-0.992992,4,4
3.3652,-4.34465,0.870401,27,12
3.26778,-4.22039,-0.46698,35,5
6.22484,-8.03949,1.9764,41,13
6.14786,-7.94293,-0.526395,45,6
8.64334,-11.1711,3.26089,15,14
4.2,-5.43025,-0.119828,31,7
0.324748,-0.42139,-0.122823,15,1
4.39289,-5.70223,0.377238,102,9
0.378527,-0.491527,-0.120591,15,2
4.61355,-5.99298,0.661686,33,10
3.44309,-4.47417,-0.894179,21,3
6.33168,-8.22779,1.27475,33,11
3.32489,-4.32214,-0.66955,4,4
5.72344,-7.44278,1.48707,37,12
4.24387,-5.52074,-0.609219,13,5
6.15944,-8.01555,1.96495,52,13
6.50439,-8.4675,-0.559576,27,6
3.72911,-4.85636,1.41359,17,14
4.22852,-5.50673,-0.12119,57,7
6.34969,-8.27209,2.79421,20,15
0.299524,-0.391619,-0.113825,16,1
4.31252,-5.64055,0.372109,63,9
0.391118,-0.511561,-0.125171,14,2
4.71359,-6.16735,0.679118,45,10
3.40826,-4.46105,-0.889174,27,3
6.3075,-8.25883,1.27597,9,11
3.32589,-4.35638,-0.672963,10,4
3.50899,-4.59788,0.91608,64,12
4.19435,-5.49592,-0.604861,18,5
6.47479,-8.49016,-0.559576,20,6
3.72749,-4.88949,1.41944,6,14
4.23012,-5.55082,-0.121818,84,7
6.39894,-8.3998,2.82941,21,15
0.321724,-0.423703,-0.122823,15,1
4.32179,-5.69375,0.374621,18,9
0.375086,-0.494158,-0.120591,15,2
6.48647,-8.5487,0.938842,38,10
3.38431,-4.4619,-0.886984,7,3
7.56195,-9.97333,1.53677,10,11
9.55907,-12.6119,-1.94309,17,4
5.63663,-7.43946,1.47831,41,12
4.29787,-5.67251,-0.622641,16,5
3.80727,-5.02864,-0.330554,16,6
3.69158,-4.87761,1.41224,11,14
3.81861,-5.04727,-0.110474,44,7
6.13651,-8.11392,2.72588,11,15
0.320243,-0.424823,-0.122823,15,1
4.32352,-5.73751,0.376505,60,9
0.373359,-0.495464,-0.120591,15,2
4.94014,-6.55817,0.718338,18,10
4.30388,-5.71559,-1.13321,30,3
6.26521,-8.32328,1.27914,18,11
9.4577,-12.569,-1.93139,10,4
3.28919,-4.37284,0.866647,22,12
3.24327,-4.31178,-0.472035,10,5
6.12118,-8.14081,1.97983,42,13
3.7585,-5.00039,-0.327832,19,6
3.67571,-4.89202,1.41269,27,14
3.77815,-5.03019,-0.109811,33,7
6.14759,-8.18782,2.74348,41,15
3.7978,-5.07294,0.110613,23,8
0.318759,-0.425938,-0.122823,15,1
4.37645,-5.85012,0.38289,53,9
0.381036,-0.509341,-0.123644,14,2
4.87307,-6.51634,0.711888,28,10
4.31111,-5.76697,-1.14041,13,3
4.85058,-6.49098,0.994941,11,11
6.26793,-8.39071,-1.28597,11,4
3.23416,-4.33106,-0.472907,36,5
6.08099,-8.14639,1.97602,50,13
3.71832,-4.98307,-0.325844,78,6
6.36178,-8.52877,2.45647,50,14
4.04267,-5.42168,-0.118048,67,7
6.08318,-8.16121,2.72744,43,15
3.81467,-5.13271,0.111626,57,8
0.301,-0.405149,-0.116525,16,1
4.33457,-5.8365,0.381006,45,9
0.369891,-0.498059,-0.120591,15,2
4.73866,-6.38293,0.695503,15,10
4.68414,-6.3118,-1.24491,10,3
4.82553,-6.50469,0.994454,49,11
6.22677,-8.3966,-1.28353,37,4
3.4221,-4.61628,0.910136,35,12
3.21945,-4.34449,-0.473081,10,5
3.71755,-5.01848,-0.327309,65,6
6.27979,-8.48045,2.43622,68,14
3.75722,-5.07573,-0.110229,60,7
6.02133,-8.13736,2.71242,47,15
3.80266,-5.15404,0.1118,46,8
0.315777,-0.428153,-0.122823,15,1
4.4315,-6.01075,0.391368,66,9
0.358745,-0.486768,-0.117538,16,2
4.71877,-6.40507,0.696026,48,10
3.24827,-4.41068,-0.867586,3,3
4.70744,-6.39202,0.974711,24,11
6.23273,-8.46624,-1.29084,12,4
4.55456,-6.18895,1.21706,18,12
3.25149,-4.41989,-0.480054,15,5
3.72752,-5.0707,-0.329821,52,6
6.14365,-8.36051,2.39528,24,14
3.75013,-5.10332,-0.110544,77,7
5.95286,-8.10384,2.69431,45,15
3.76248,-5.1389,0.111172,27,8
0.314206,-0.429308,-0.122823,15,1
3.87614,-5.29608,0.343952,41,9
0.375591,-0.513368,-0.123644,14,2
4.82224,-6.59358,0.714677,75,10
3.18739,-4.3598,-0.855384,25,3
4.69569,-6.42526,0.977149,24,11
6.19698,-8.48262,-1.28987,5,4
4.5271,-6.19684,1.2155,32,12
3.25954,-4.4634,-0.48354,17,5
6.04484,-8.28044,1.99281,40,13
3.6945,-5.06271,-0.328461,55,6
6.09261,-8.35199,2.38673,57,14
3.75233,-5.14384,-0.111137,61,7
5.94844,-8.15735,2.70518,46,15
3.70544,-5.09636,0.109985,46,8
0.31278,-0.430347,-0.122823,15,1
3.87172,-5.32896,0.345208,45,9
0.350723,-0.482906,-0.116012,16,2
4.77578,-6.57813,0.711191,39,10
3.17175,-4.36875,-0.855071,26,3
4.11138,-5.66714,-0.859666,6,4
3.24043,-4.46991,-0.483017,20,5
6.03003,-8.31793,1.99701,61,13
3.6226,-4.99892,-0.323541,65,6
6.04887,-8.35005,2.38043,29,14
3.91966,-5.41281,-0.116652,60,7
5.93013,-8.19215,2.70984,12,15
3.69582,-5.12061,0.110229,64,8
0.311276,-0.431437,-0.122823,15,1
3.86244,-5.3554,0.346045,29,9
0.346823,-0.480882,-0.115249,16,2
4.62111,-6.40968,0.691319,37,10
4.23175,-5.87178,-1.14635,22,3
4.67274,-6.48606,0.981536,9,11
8.01493,-11.1293,-1.68399,7,4
3.2411,-4.50383,-0.485457,30,5
6.05829,-8.4186,2.01609,25,13
3.62729,-5.04234,-0.32553,39,6
6.01742,-8.36795,2.37953,49,14
3.76185,-5.23324,-0.112498,63,7
5.87669,-8.17828,2.69845,30,15
3.71403,-5.18387,0.111311,94,8
0.309768,-0.43252,-0.122823,15,1
3.84489,-5.37048,0.34615,6,9
0.347343,-0.485343,-0.116012,16,2
4.59759,-6.42658,0.691319,48,10
3.34724,-4.68056,-0.911387,5,3
4.5473,-6.35863,0.959843,24,11
4.06363,-5.6844,-0.85796,14,4
3.3169,-4.64155,0.903566,34,12
3.23926,-4.53457,-0.487549,22,5
3.58906,-5.02796,-0.32375,39,6
6.23459,-8.73735,2.47806,82,14
3.75053,-5.2561,-0.112708,63,7
5.77295,-8.09337,2.66377,44,15
3.70427,-5.21049,0.111591,68,8
0.285604,-0.401884,-0.113825,16,1
3.8481,-5.4148,0.348139,9,9
0.336551,-0.473749,-0.112959,16,2
4.60512,-6.48482,0.695851,20,10
3.25885,-4.59073,-0.891677,5,3
4.58829,-6.46591,0.973492,15,11
4.04736,-5.70573,-0.858935,22,4
4.30185,-6.06449,1.17764,68,12
3.24761,-4.57998,-0.49121,28,5
3.5865,-5.06165,-0.325111,45,6
5.95963,-8.41398,2.38043,54,14
3.74603,-5.28874,-0.113127,46,7
5.78708,-8.17339,2.68344,34,15
3.67198,-5.20151,0.111137,100,8
0.306741,-0.434673,-0.122823,15,1
0.357523,-0.50701,-0.120591,15,2
4.57327,-6.48783,0.694457,43,10
3.15939,-4.48204,-0.868524,3,3
4.40789,-6.25554,0.939613,36,11
4.29203,-6.09562,1.18077,70,12
3.49849,-4.97047,1.18149,10,13
3.63176,-5.16172,-0.330763,42,6
5.90255,-8.39225,2.36873,80,14
3.7609,-5.34923,-0.114139,64,7
5.68298,-8.08606,2.64824,19,15
3.62855,-5.17826,0.110369,53,8
0.305222,-0.435741,-0.122823,15,1
4.56055,-6.51072,0.416594,42,9
0.353588,-0.504976,-0.119828,15,2
4.19984,-6.00022,0.640769,20,10
3.1675,-4.52703,-0.875095,18,3
4.35076,-6.22046,0.932057,47,11
3.20652,-4.58619,-0.687099,8,4
8.79826,-12.5839,2.43193,34,12
3.22892,-4.61995,-0.493127,31,5
5.24191,-7.50294,1.7791,39,13
3.63773,-5.20875,-0.332961,45,6
5.87211,-8.41121,2.36828,80,14
3.92171,-5.61746,-0.119584,62,7
5.81313,-8.32982,2.72174,62,15
3.71301,-5.33636,0.113476,30,8
0.303776,-0.43675,-0.122823,15,1
4.52069,-6.502,0.415024,60,9
0.363028,-0.522328,-0.123644,14,2
4.57675,-6.58753,0.701778,7,10
5.71999,-8.23305,-1.58781,11,3
4.28595,-6.17126,0.922551,67,11
3.18903,-4.59354,-0.686612,29,4
8.76103,-12.6243,2.43381,14,12
3.19801,-4.60991,-0.490861,6,5
5.23379,-7.54448,1.78483,9,13
3.6193,-5.21914,-0.332857,42,6
5.81309,-8.38579,2.35569,73,14
3.83943,-5.54071,-0.117664,49,7
5.80162,-8.37547,2.73002,37,15
3.66771,-5.31665,0.112743,89,8
0.30202,-0.437966,-0.122823,15,1
4.49682,-6.52338,0.415234,58,9
0.347648,-0.504322,-0.119065,15,2
5.71042,-8.29011,-1.59438,12,3
4.26339,-6.19169,0.923038,24,11
3.17507,-4.61285,-0.687587,49,4
4.60428,-6.69176,1.28652,42,12
3.18028,-4.62215,-0.490861,3,5
3.45229,-5.01935,1.18416,8,13
3.6085,-5.24844,-0.333799,35,6
3.77413,-5.49345,-0.116338,48,7
5.89919,-8.58979,2.79214,36,15
0.300489,-0.439018,-0.122823,15,1
4.43793,-6.48629,0.411884,57,9
0.345886,-0.505532,-0.119065,15,2
4.08293,-5.96967,0.632751,65,10
4.16967,-6.09878,-1.17013,13,3
4.27871,-6.26061,0.931082,42,11
3.1567,-4.62062,-0.687099,51,4
5.66484,-8.29502,1.59094,22,12
3.19784,-4.68258,-0.496091,6,5
5.93304,-8.691,2.04547,15,13
3.61043,-5.2907,-0.335683,35,6
8.96872,-13.1477,3.67435,19,14
3.74254,-5.48841,-0.115954,66,7
5.84849,-8.58,2.78231,12,15
0.298955,-0.440064,-0.122823,15,1
4.45341,-6.55792,0.415443,110,9
0.348531,-0.513233,-0.120591,15,2
4.05983,-5.98059,0.632402,43,10
6.00624,-8.8512,-1.69419,11,3
4.24903,-6.26401,0.929376,11,11
3.13833,-4.62833,-0.686612,9,4
5.64029,-8.32128,1.59219,48,12
4.06571,-5.99826,-0.633971,25,5
5.33333,-7.87137,1.84818,21,13
3.61434,-5.33635,-0.337776,35,6
5.93249,-8.76225,2.44297,24,14
3.72336,-5.50145,-0.115954,54,7
0.297417,-0.441105,-0.122823,15,1
3.72613,-5.52837,0.349395,51,9
0.335765,-0.498166,-0.116775,16,2
4.04561,-6.00464,0.633448,20,10
4.17996,-6.20638,-1.18515,6,3
3.36488,-4.99992,-0.739991,48,4
4.56483,-6.7855,1.29528,70,12
4.12593,-6.1331,-0.646696,41,5
3.67591,-5.46827,-0.345313,37,6
5.51711,-8.21032,2.2837,8,14
3.71974,-5.53765,-0.116442,6,7
5.55691,-8.2758,2.67101,11,15
6.37084,-9.51665,0.1999,10,8
0.295876,-0.44214,-0.122823,15,1
3.6957,-5.52474,0.348348,22,9
0.351489,-0.525444,-0.122881,15,2
4.05342,-6.06178,0.63798,86,10
7.43724,-11.1264,-2.11969,2,3
4.34636,-6.50479,0.960574,33,11
3.23274,-4.83996,-0.714642,73,4
4.55757,-6.82604,1.29997,20,12
3.86996,-5.79618,-0.609742,15,5
5.01668,-7.5165,1.75659,53,13
3.67454,-5.50766,-0.346987,27,6
5.4603,-8.18738,2.27201,24,14
3.67155,-5.50734,-0.115535,6,7
5.46157,-8.19547,2.63892,41,15
5.89604,-8.87426,0.185973,23,8
0.281393,-0.423691,-0.117424,16,1
3.6543,-5.50433,0.346255,41,9
0.32142,-0.484142,-0.112959,16,2
4.36494,-6.57724,0.690622,60,10
7.39835,-11.1523,-2.11969,2,3
4.13603,-6.23703,0.918895,56,11
3.39021,-5.11429,-0.753396,42,4
3.80568,-5.74322,-0.602769,25,5
4.99149,-7.5356,1.75697,60,13
3.73468,-5.64035,-0.354524,50,6
5.42416,-8.19501,2.26886,14,14
4.40483,-6.6575,-0.13934,86,7
5.43506,-8.21771,2.63995,24,15
5.87053,-8.90313,0.186147,7,8
0.292782,-0.444195,-0.122823,15,1
4.56152,-6.92054,0.434388,141,9
0.33701,-0.511492,-0.119065,15,2
4.07018,-6.17978,0.647393,20,10
2.95136,-4.48277,-0.850065,12,3
4.12624,-6.26967,0.921576,54,11
3.39634,-5.16258,-0.758759,23,4
4.00181,-6.08292,1.15323,79,12
3.78561,-5.75647,-0.602769,28,5
4.97702,-7.57103,1.76117,36,13
5.39338,-8.21064,2.26796,21,14
4.36077,-6.63864,-0.138642,100,7
5.40884,-8.2373,2.64047,45,15
3.64171,-5.563,0.116058,45,8
0.291307,-0.445164,-0.122823,15,1
5.92259,-9.05411,0.567008,24,9
0.335223,-0.512665,-0.119065,15,2
4.77785,-7.30967,0.764007,30,10
2.98727,-4.57025,-0.86477,11,3
4.30521,-6.58909,0.966424,47,11
3.99891,-6.12497,1.15855,74,12
3.96803,-6.07999,-0.635191,8,5
3.34883,-5.13122,1.19103,16,13
3.64491,-5.58702,-0.349604,16,6
5.46406,-8.37865,2.30935,42,14
4.30263,-6.60022,-0.137525,62,7
5.36318,-8.23024,2.63219,8,15
4.54827,-7.00104,0.145728,77,8
0.289751,-0.446178,-0.122823,15,1
4.76213,-7.33584,0.458358,69,9
0.337706,-0.520419,-0.120591,15,2
3.92607,-6.05024,0.631008,13,10
3.0573,-4.71323,-0.889799,12,3
4.20119,-6.47916,0.948144,18,11
2.82343,-4.35602,-0.637377,22,4
4.03122,-6.22178,1.1742,56,12
5.10223,-7.88081,1.8249,129,13
3.61573,-5.58693,-0.348767,23,6
5.46866,-8.45002,2.32374,68,14
4.22851,-6.53628,-0.135884,91,7
3.5899,-5.57043,0.115675,30,8
0.288114,-0.447237,-0.122823,15,1
5.83386,-9.05932,0.564705,17,9
0.314543,-0.488638,-0.112959,16,2
4.32984,-6.72633,0.699861,20,10
3.12872,-4.86228,-0.915767,17,3
4.19674,-6.52456,0.952531,58,11
4.11092,-6.39604,1.20423,21,12
3.57041,-5.56149,-0.346359,20,6
5.38291,-8.38474,2.30035,71,14
4.21101,-6.56184,-0.136094,83,7
5.44496,-8.48792,2.70207,34,15
3.55438,-5.55996,0.115186,27,8
0.286473,-0.44829,-0.122823,15,1
4.17171,-6.53066,0.406127,39,9
0.312836,-0.489733,-0.112959,16,2
4.33411,-6.7875,0.704567,11,10
3.06837,-4.80711,-0.903253,16,3
4.09378,-6.41606,0.934494,27,11
3.32622,-5.2151,-0.75949,27,4
5.04958,-7.92014,1.48769,70,12
2.89089,-4.53429,-0.470467,40,5
4.86422,-7.63235,1.75926,4,13
3.57995,-5.6194,-0.349186,13,6
5.35109,-8.40277,2.2999,74,14
4.2868,-6.73411,-0.13934,31,7
4.9637,-7.80046,2.47742,41,15
5.17602,-8.15925,0.16866,27,8
0.284906,-0.449287,-0.122823,15,1
4.06228,-6.40854,0.397649,120,9
0.323738,-0.51072,-0.117538,16,2
5.00035,-7.89147,0.817347,40,10
2.99766,-4.73269,-0.887296,11,3
4.09791,-6.47224,0.940588,40,11
3.11691,-4.92475,-0.715617,47,4
5.0219,-7.93772,1.48769,63,12
3.23587,-5.11864,-0.317365,13,6
3.39395,-5.37285,-0.110927,33,7
3.79139,-6.02295,0.124226,61,8
0.283336,-0.450279,-0.122823,15,1
3.87931,-6.1674,0.381843,39,9
0.321953,-0.511847,-0.117538,16,2
4.92399,-7.83129,0.809328,46,10
2.99584,-4.76653,-0.891677,11,3
4.06051,-6.46298,0.937175,24,11
2.83576,-4.51533,-0.654682,9,4
4.15497,-6.61846,1.23771,33,12
3.17167,-5.05216,-0.521889,2,5
4.8296,-7.69606,1.76613,80,13
3.21586,-5.12652,-0.317156,39,6
7.43531,-11.8575,3.2312,9,14
3.338,-5.32536,-0.109706,82,7
3.76398,-6.02597,0.124017,67,8
0.281763,-0.451265,-0.122823,15,1
3.8144,-6.11143,0.377552,49,9
0.30769,-0.492982,-0.112959,16,2
4.28495,-6.86801,0.708228,18,10
2.68022,-4.29759,-0.802196,2,3
4.02322,-6.45353,0.933763,47,11
2.82628,-4.53531,-0.656145,35,4
4.11931,-6.6128,1.23396,13,12
3.70813,-5.95272,-0.613576,23,5
4.88573,-7.84619,1.79666,31,13
3.10296,-4.98511,-0.307735,46,6
3.36375,-5.4083,-0.111172,45,7
4.85829,-7.81428,2.46551,8,15
3.67234,-5.92519,0.121678,57,8
0.280186,-0.452246,-0.122823,15,1
3.77096,-6.08905,0.375354,106,9
0.322506,-0.520758,-0.119065,15,2
2.63922,-4.26493,-0.794374,5,3
4.08526,-6.60428,0.953506,31,11
2.71543,-4.39151,-0.633964,40,4
5.30823,-8.5914,1.96304,42,13
3.30593,-5.35276,-0.329717,65,6
5.71133,-9.25103,2.51,58,14
3.3186,-5.37747,-0.110299,55,7
3.66735,-5.96352,0.122202,60,8
0.278605,-0.453221,-0.122823,15,1
3.94208,-6.41529,0.394613,42,9
0.330871,-0.538666,-0.122881,15,2
4.0741,-6.63532,0.681209,22,10
0.380257,-0.619552,-0.115136,22,3
4.08295,-6.65233,0.958381,18,11
2.60977,-4.25375,-0.612759,33,4
5.01076,-8.1704,1.51804,40,12
2.64495,-4.31447,-0.442751,1,5
5.23464,-8.54216,1.9474,16,13
3.31759,-5.41594,-0.332857,58,6
4.89482,-7.99388,2.16403,24,14
3.26221,-5.32762,-0.109043,53,7
4.87018,-7.95676,2.49967,63,15
3.63922,-5.96668,0.121992,55,8
0.276943,-0.454239,-0.122823,15,1
3.70341,-6.0743,0.372841,47,9
0.302424,-0.496229,-0.112959,16,2
4.04677,-6.6427,0.680512,16,10
2.57472,-4.22803,-0.78405,5,3
4.05957,-6.66895,0.958624,18,11
2.66846,-4.38539,-0.630308,41,4
4.03957,-6.6387,1.23083,16,12
3.56689,-5.8642,-0.600503,38,5
5.15176,-8.47315,1.92755,28,13
3.27066,-5.3814,-0.330031,45,6
4.96605,-8.17413,2.20812,36,14
3.29863,-5.42956,-0.110893,28,7
4.84338,-7.97536,2.50019,40,15
3.65462,-6.03688,0.123179,52,8
0.275435,-0.455155,-0.122823,15,1
3.70286,-6.12137,0.374935,28,9
0.30069,-0.497282,-0.112959,16,2
4.06993,-6.73351,0.688356,41,10
2.69659,-4.46139,-0.825661,5,3
4.07336,-6.74184,0.967155,9,11
2.78218,-4.60662,-0.660776,8,4
4.04292,-6.69673,1.23896,36,12
3.42492,-5.67532,-0.579934,47,5
3.84856,-6.37731,1.44786,6,13
3.30954,-5.48628,-0.335788,52,6
4.90973,-8.14216,2.19507,58,14
3.25694,-5.40336,-0.110125,99,7
4.80155,-7.96905,2.49295,67,15
3.61706,-6.02217,0.122621,48,8
0.273844,-0.456114,-0.122823,15,1
4.18507,-6.9734,0.426224,114,9
0.311163,-0.518477,-0.117538,16,2
3.95329,-6.58979,0.672319,56,10
2.7064,-4.51312,-0.833483,6,3
4.03756,-6.73559,0.96423,24,11
2.5763,-4.29958,-0.61544,16,4
3.80027,-6.34476,1.17138,12,12
3.40202,-5.68212,-0.579411,50,5
3.82728,-6.39239,1.44824,21,13
3.29037,-5.4978,-0.335788,52,6
4.82025,-8.05724,2.16763,60,14
3.24319,-5.42328,-0.110299,71,7
4.81137,-8.04877,2.51262,42,15
3.61444,-6.06568,0.123249,60,8
0.258289,-0.433628,-0.116525,16,1
4.06874,-6.83351,0.416804,63,9
0.297211,-0.499369,-0.112959,16,2
3.94642,-6.63334,0.675283,75,10
2.84534,-4.78448,-0.881665,6,3
4.03228,-6.78035,0.968618,24,11
2.55012,-4.28978,-0.612759,1,4
3.8003,-6.39535,1.17826,7,12
3.37606,-5.68368,-0.578366,53,5
4.81217,-8.10461,1.83215,12,13
3.27733,-5.52184,-0.33652,32,6
4.77776,-8.05306,2.16178,48,14
3.16404,-5.3331,-0.10824,59,7
4.81576,-8.12035,2.5297,38,15
3.56675,-6.03585,0.122376,70,8
0.250751,-0.424504,-0.113825,16,1
4.04469,-6.8501,0.416908,66,9
0.295467,-0.500404,-0.112959,16,2
3.94755,-6.68826,0.679466,39,10
2.53853,-4.30269,-0.791246,2,3
3.7906,-6.42746,0.916214,20,11
3.32485,-5.64222,-0.572962,31,5
4.80776,-8.16196,1.84131,33,13
3.24587,-5.5126,-0.335264,35,6
4.90184,-8.32833,2.23106,31,14
3.16171,-5.37396,-0.108833,59,7
4.93581,-8.39273,2.6089,37,15
3.51127,-5.98961,0.12119,78,8
0.268973,-0.459003,-0.122823,15,1
4.06012,-6.93139,0.42099,51,9
0.309595,-0.528536,-0.119065,15,2
3.59599,-6.14149,0.622641,37,10
2.99047,-5.10939,-0.937668,5,3
3.57868,-6.11682,0.870147,11,11
3.7993,-6.49912,1.19234,78,12
3.09799,-5.29946,-0.537054,31,5
4.74655,-8.12275,1.82871,27,13
3.22661,-5.5239,-0.335264,39,6
4.99066,-8.54733,2.28505,35,14
3.12278,-5.35042,-0.108135,53,7
4.72443,-8.09787,2.5121,55,15
3.37474,-5.80304,0.117175,66,8
0.267369,-0.45994,-0.122823,15,1
4.066,-6.99732,0.424131,102,9
0.291966,-0.502454,-0.112959,16,2
3.88075,-6.6812,0.67598,31,10
2.77326,-4.77643,-0.874782,6,3
3.88514,-6.69413,0.950337,63,11
2.64078,-4.55192,-0.646151,32,4
3.78452,-6.52601,1.19485,21,12
3.33035,-5.74285,-0.580806,33,5
3.2043,-5.52994,-0.33495,19,6
5.06335,-8.74176,2.33229,58,14
3.41269,-5.8943,-0.118886,100,7
4.70678,-8.13271,2.51779,42,15
0.265762,-0.46087,-0.122823,15,1
4.3318,-7.51501,0.45459,70,9
0.301976,-0.523881,-0.117538,16,2
3.58287,-6.21824,0.62787,15,10
3.00896,-5.22429,-0.954876,5,3
3.77855,-6.56314,0.929863,18,11
2.62289,-4.55767,-0.645664,12,4
3.20498,-5.57137,-0.562329,36,5
5.00877,-8.71052,1.95312,12,13
3.18896,-5.54802,-0.335369,13,6
5.14056,-8.94694,2.38223,33,14
3.43989,-5.98941,-0.120561,100,7
4.71492,-8.21275,2.53746,54,15
3.79382,-6.63244,0.133371,72,8
0.264071,-0.461841,-0.122823,15,1
4.16973,-7.29255,0.44025,60,9
0.301028,-0.526689,-0.11792,16,2
3.54819,-6.21057,0.625778,33,10
0.353641,-0.619246,-0.112946,23,3
3.80466,-6.66487,0.942294,38,11
2.57567,-4.5138,-0.638108,13,4
3.61747,-6.33953,1.15605,54,12
3.33063,-5.83922,-0.588127,40,5
4.93208,-8.65037,1.93557,6,13
3.68286,-6.46199,-0.389798,35,6
4.91095,-8.6203,2.29045,14,14
3.41996,-6.00312,-0.120596,51,7
4.66519,-8.19223,2.52607,36,15
3.76293,-6.62933,0.133057,57,8
0.262538,-0.462714,-0.122823,15,1
3.74716,-6.60693,0.398067,18,9
0.318552,-0.561894,-0.125552,14,2
3.81136,-6.7256,0.676329,35,10
0.358403,-0.632445,-0.115136,22,3
3.79134,-6.69299,0.944488,54,11
2.5558,-4.51368,-0.636889,13,4
4.50217,-7.95433,1.44764,28,12
3.31121,-5.85255,-0.588301,30,5
4.65051,-8.22309,-0.495098,24,6
4.85261,-8.58395,2.2765,19,14
3.44227,-6.09162,-0.122132,32,7
4.71067,-8.33966,2.56645,34,15
3.27671,-5.81997,0.116582,13,8
0.260921,-0.463628,-0.122823,15,1
0.285885,-0.508193,-0.113341,16,2
3.75193,-6.67221,0.669705,11,10
0.361033,-0.642302,-0.1167,21,3
3.64835,-6.49332,0.914508,31,11
2.51475,-4.47758,-0.630552,2,4
3.00605,-5.35672,-0.537402,46,5
3.68748,-6.57102,1.46465,13,13
2.92745,-5.21879,-0.313597,37,6
5.37922,-9.5935,2.53925,48,14
3.38774,-6.04429,-0.120945,51,7
4.5805,-8.17572,2.51106,7,15
3.27392,-5.8628,0.11721,15,8
0.259301,-0.464536,-0.122823,15,1
4.21867,-7.56081,0.453753,17,9
0.310796,-0.557246,-0.124026,14,2
3.49461,-6.26826,0.62787,41,10
0.346176,-0.621189,-0.112633,35,3
3.60247,-6.4644,0.908658,18,11
2.39478,-4.29904,-0.604228,11,4
4.92126,-8.83814,1.6022,30,12
3.16853,-5.69273,-0.569999,27,5
5.2593,-9.45298,2.10272,15,13
2.87336,-5.16665,-0.309829,21,6
5.4245,-9.75793,2.57749,15,14
3.40063,-6.11726,-0.122167,39,7
4.99859,-8.99546,2.75746,26,15
3.92168,-7.08365,0.14133,66,8
0.257597,-0.465483,-0.122823,15,1
3.6273,-6.55732,0.392729,36,9
0.308849,-0.558328,-0.124026,14,2
3.5132,-6.35366,0.635191,50,10
0.350694,-0.634496,-0.114823,22,3
3.38196,-6.12136,0.858692,66,11
2.72257,-4.92988,-0.691487,40,4
6.6416,-12.0312,2.17663,12,12
2.91177,-5.27466,-0.527118,15,5
3.60432,-6.53192,1.45015,11,13
2.84952,-5.16615,-0.309201,12,6
3.39749,-6.16471,-0.122865,52,7
4.94694,-8.97988,2.74711,9,15
3.58895,-6.53638,0.13016,8,8
0.25597,-0.466379,-0.122823,15,1
4.48147,-8.16865,0.488295,47,9
0.306899,-0.559402,-0.124026,14,2
3.46226,-6.31347,0.629962,16,10
0.350376,-0.639181,-0.115449,22,3
3.32719,-6.0722,0.850161,83,11
5.73586,-10.4724,-1.46609,10,4
3.08087,-5.62733,-0.561283,5,5
3.59941,-6.57718,1.4574,25,13
2.83913,-5.19008,-0.310038,6,6
5.17861,-9.47069,2.49201,46,14
3.33279,-6.09757,-0.121294,100,7
0.254341,-0.46727,-0.122823,15,1
6.09188,-11.1965,0.668016,17,9
0.278672,-0.512183,-0.113341,16,2
3.38499,-6.224,0.619852,97,10
0.353804,-0.650813,-0.117326,43,3
3.30692,-6.08552,0.850404,35,11
3.01308,-5.54709,-0.775089,24,4
3.47242,-6.39541,1.15261,13,12
2.81028,-5.17804,-0.515439,23,5
8.9584,-16.5062,3.65056,18,13
3.43053,-6.32352,-0.377028,38,6
4.71727,-8.69898,2.2846,35,14
3.32673,-6.13729,-0.121853,71,7
4.85468,-8.95984,2.73054,6,15
3.6202,-6.7038,0.132987,35,8
0.252708,-0.468155,-0.122823,15,1
6.02621,-11.1685,0.665085,9,9
0.276793,-0.513201,-0.113341,16,2
3.32433,-6.16622,0.612879,20,10
0.342045,-0.634716,-0.114197,34,3
3.48718,-6.47099,0.902564,18,11
5.61648,-10.4266,-1.45415,15,4
2.89652,-5.38617,-0.320505,16,6
4.64014,-8.63211,2.26256,82,14
3.35168,-6.23517,-0.123563,46,7
3.60881,-6.7417,0.133476,48,8
0.250991,-0.469078,-0.122823,15,1
3.55424,-6.64255,0.394822,14,9
0.275,-0.514164,-0.113341,16,2
3.24455,-6.06885,0.602072,75,10
0.336103,-0.628937,-0.112946,47,3
3.48683,-6.5275,0.908658,54,11
5.54643,-10.3875,-1.44586,24,4
3.39512,-6.3585,1.14166,27,12
2.84442,-5.32936,-0.528512,15,5
5.12143,-9.59964,2.11493,32,13
3.19723,-5.99544,-0.356094,27,6
4.47523,-8.39546,2.19642,66,14
3.36282,-6.3086,-0.124785,74,7
3.31164,-6.23616,0.123249,60,8
0.249434,-0.469908,-0.122823,15,1
3.52916,-6.65138,0.394613,22,9
0.309998,-0.584498,-0.128605,14,2
3.24574,-6.12238,0.606255,52,10
0.334941,-0.631793,-0.113259,46,3
3.45494,-6.51974,0.905977,40,11
2.64076,-4.98542,-0.692705,23,4
3.27031,-6.17653,1.10693,56,12
3.13718,-5.9301,-0.351593,37,6
4.4838,-8.47916,2.21442,60,14
3.26041,-6.16826,-0.121783,71,7
3.27308,-6.21583,0.122621,61,8
0.247792,-0.470776,-0.122823,15,1
3.18554,-6.05729,0.59876,58,10
0.339168,-0.645198,-0.115449,44,3
3.28165,-6.24532,0.866247,40,11
2.62149,-4.99109,-0.692218,11,4
3.2149,-6.12089,1.09504,87,12
3.41563,-6.50581,-0.642861,2,5
14.1005,-26.8689,5.89829,4,13
3.02646,-5.76945,-0.34144,84,6
4.57725,-8.72948,2.2756,73,14
3.14522,-5.99839,-0.118223,49,7
5.35128,-10.21,3.08875,27,15
3.24875,-6.21956,0.122481,35,8
0.246229,-0.471595,-0.122823,15,1
3.78136,-7.24539,0.428317,53,9
0.295116,-0.565707,-0.124026,14,2
3.15977,-6.05954,0.597888,82,10
0.336113,-0.644568,-0.115136,56,3
3.25358,-6.24209,0.864297,49,11
4.18623,-8.03482,-1.11242,11,4
3.1926,-6.13032,1.09473,21,12
3.11046,-5.97514,-0.589347,38,5
6.72917,-12.9266,2.83275,10,13
2.98058,-5.72807,-0.338404,29,6
4.48084,-8.61495,2.24186,63,14
3.09843,-5.95965,-0.117245,67,7
4.98065,-9.58407,2.89411,11,15
3.28863,-6.34984,0.12482,71,8
0.244582,-0.472451,-0.122823,15,1
3.60276,-6.96232,0.410837,78,9
0.29314,-0.566733,-0.124026,14,2
3.13417,-6.05936,0.596843,56,10
0.332047,-0.642228,-0.11451,56,3
3.26914,-6.32571,0.874291,26,11
2.56833,-4.97178,-0.687099,10,4
3.07314,-5.9541,-0.58621,32,5
3.06117,-5.936,-0.350023,50,6
3.05746,-5.93133,-0.116477,66,7
4.73657,-9.19268,2.77092,16,15
3.24707,-6.32627,0.124122,68,8
0.242848,-0.473345,-0.122823,15,1
3.7358,-7.28471,0.42905,66,9
0.265984,-0.518886,-0.113341,16,2
3.31825,-6.47328,0.636411,28,10
0.314377,-0.613554,-0.109191,50,3
3.21426,-6.27581,0.86576,52,11
2.54285,-4.96703,-0.685149,32,4
3.20355,-6.26028,1.11381,50,12
4.82419,-9.43134,-0.926814,35,5
4.44904,-8.70168,1.89969,9,13
3.03031,-5.92939,-0.348976,67,6
5.0975,-9.97426,2.58604,14,14
3.12758,-6.12236,-0.120003,82,7
4.70724,-9.21858,2.7735,11,15
3.29367,-6.47537,0.126809,78,8
0.241112,-0.474231,-0.122823,15,1
3.65478,-7.19152,0.42277,65,9
0.264172,-0.519811,-0.113341,16,2
3.30262,-6.50139,0.63798,15,10
0.320175,-0.630554,-0.112007,59,3
3.14272,-6.19196,0.852598,33,11
2.20849,-4.35317,-0.599353,40,4
3.07337,-6.06056,1.07627,47,12
4.01399,-7.91886,-0.776732,30,5
3.40407,-6.7156,1.46351,13,13
3.01952,-5.95953,-0.350128,70,6
5.13487,-10.1389,2.62383,34,14
3.02654,-5.97856,-0.116966,67,7
4.58532,-9.06168,2.72122,11,15
3.09908,-6.14579,0.120142,37,8
0.239455,-0.47507,-0.122823,15,1
3.52721,-7.00089,0.410837,118,9
0.262265,-0.520776,-0.113341,16,2
3.29042,-6.53659,0.640246,43,10
0.321413,-0.638782,-0.113259,58,3
4.59865,-9.13943,1.25623,31,11
2.1915,-4.3573,-0.598866,8,4
3.17553,-6.31658,1.11976,18,12
3.98543,-7.93104,-0.776558,16,5
3.38737,-6.74383,1.46694,37,13
2.96271,-5.90095,-0.346045,40,6
6.59061,-13.1325,3.39226,13,14
3.01014,-5.99802,-0.117141,79,7
4.43153,-8.83415,2.64824,29,15
3.0819,-6.16784,0.120352,82,8
0.237712,-0.475945,-0.122823,15,1
3.55148,-7.11384,0.416699,58,9
0.260445,-0.521688,-0.113341,16,2
3.27292,-6.55873,0.641292,26,10
0.314773,-0.631061,-0.111694,48,3
4.51641,-9.05851,1.24282,11,11
6.4562,-12.9605,2.29333,25,12
4.82655,-9.68904,-0.947034,16,5
3.18704,-6.40061,1.38985,102,13
2.90204,-5.83079,-0.341335,81,6
5.0752,-10.2016,2.63058,2,14
3.02998,-6.09317,-0.118781,68,7
4.37247,-8.79671,2.63219,65,15
3.82188,-7.71603,0.1503,15,8
3.53903,-7.15126,0.418164,110,9
0.258623,-0.522594,-0.113341,16,2
3.20142,-6.47189,0.631705,35,10
0.309066,-0.625073,-0.110443,49,3
3.16194,-6.39769,0.876241,38,11
2.48821,-5.03673,-0.689781,35,4
3.36027,-6.80497,1.20204,35,12
3.49683,-7.08152,-0.690971,13,5
3.15686,-6.39585,1.38642,32,13
2.95237,-5.98418,-0.349709,64,6
5.51361,-11.1805,2.87802,27,14
3.09711,-6.28307,-0.122272,71,7
4.31441,-8.75646,2.61563,44,15
3.19299,-6.50333,0.12646,31,8
0.234384,-0.477593,-0.122823,15,1
3.42697,-6.98605,0.407802,42,9
0.256797,-0.523493,-0.113341,16,2
3.17179,-6.46872,0.63031,7,10
0.306882,-0.626148,-0.110443,36,3
3.57887,-7.30537,0.998841,20,11
2.1476,-4.38574,-0.599597,6,4
3.12981,-6.39438,1.12758,73,12
3.47209,-7.09368,-0.690971,10,5
4.26045,-8.70821,1.88443,43,13
2.94989,-6.03212,-0.351907,60,6
5.49423,-11.2399,2.88837,19,14
3.10325,-6.35134,-0.123389,92,7
4.37029,-8.94853,2.66842,23,15
0.232715,-0.478408,-0.122823,15,1
3.27418,-6.73393,0.392415,14,9
0.254968,-0.524387,-0.113341,16,2
3.17096,-6.52455,0.634668,43,10
0.304695,-0.627216,-0.110443,36,3
3.17876,-6.5464,0.893546,2,11
2.14095,-4.41107,-0.602035,11,4
4.17836,-8.61263,1.51616,41,12
2.68375,-5.53188,-0.537925,18,5
4.19919,-8.65943,1.87069,53,13
2.94624,-6.07833,-0.354,57,6
6.14831,-12.6901,3.25549,31,14
3.00697,-6.20916,-0.120422,100,7
4.37606,-9.04024,2.6912,34,15
2.99982,-6.21927,0.120526,39,8
0.231044,-0.479217,-0.122823,15,1
0.253136,-0.525273,-0.113341,16,2
3.16892,-6.57866,0.638852,43,10
0.299933,-0.622936,-0.109504,37,3
3.13265,-6.50916,0.886965,23,11
2.66356,-5.53942,-0.537751,33,5
4.14513,-8.62449,1.86001,29,13
2.90684,-6.05077,-0.351802,37,6
6.32498,-13.1717,3.37337,27,14
2.98095,-6.2106,-0.120247,82,7
4.36203,-9.09204,2.70207,55,15
3.148,-6.58512,0.127403,60,8
0.22937,-0.480021,-0.122823,15,1
2.98521,-6.25019,0.363002,44,9
0.251301,-0.526154,-0.113341,16,2
3.26354,-6.836,0.662732,60,10
0.303712,-0.636459,-0.111694,36,3
4.04912,-8.48915,1.15483,36,11
2.65878,-5.57926,-0.540714,28,5
4.14201,-8.69562,1.87222,66,13
2.9707,-6.23941,-0.362165,60,6
5.85356,-12.2999,3.14482,10,14
2.95238,-6.20652,-0.119968,31,7
3.13099,-6.60872,0.127647,70,8
0.227693,-0.480819,-0.122823,15,1
3.18383,-6.72632,0.390008,30,9
0.249463,-0.527028,-0.113341,16,2
3.23113,-6.82934,0.660989,45,10
0.302333,-0.639301,-0.112007,23,3
2.18707,-4.62888,-0.628602,22,4
3.30004,-6.98761,1.22394,25,12
2.6563,-5.62454,-0.5442,18,5
4.07057,-8.62304,1.85352,33,13
2.91907,-6.18652,-0.358501,37,6
2.96566,-6.29095,-0.121399,44,7
3.13,-6.66667,0.128554,64,8
0.226013,-0.48161,-0.122823,15,1
3.13064,-6.67411,0.386344,64,9
0.247621,-0.527895,-0.113341,16,2
3.03135,-6.46536,0.624732,15,10
0.293393,-0.626043,-0.109504,25,3
3.31862,-7.08449,0.960574,18,11
2.20205,-4.703,-0.63762,31,4
2.61892,-5.59588,-0.54054,15,5
4.08869,-8.74033,1.87565,40,13
2.85685,-6.10983,-0.353477,43,6
4.5472,-9.72933,2.47941,18,14
2.93607,-6.28496,-0.121085,70,7
4.3148,-9.24049,2.73261,30,15
3.06261,-6.57677,0.126635,35,8
0.224499,-0.482318,-0.122823,15,1
3.12483,-6.71651,0.388228,78,9
0.245962,-0.528671,-0.113341,16,2
3.16393,-6.80365,0.656457,15,10
0.288094,-0.619796,-0.108253,25,3
3.29718,-7.09668,0.960818,2,11
2.22405,-4.78912,-0.648345,11,4
2.60888,-5.62035,-0.542109,5,5
4.1488,-8.94191,1.9161,33,13
2.87294,-6.19487,-0.357873,30,6
4.44531,-9.58975,2.44027,71,14
2.88857,-6.23428,-0.119933,100,7
4.29874,-9.28205,2.74089,11,15
3.00947,-6.52206,0.125378,82,8
0.222814,-0.483099,-0.122823,15,1
3.10889,-6.7437,0.38917,49,9
0.244115,-0.529526,-0.113341,16,2
0.293367,-0.636946,-0.111068,24,3
3.29978,-7.16765,0.968861,22,11
3.99598,-8.68788,1.5146,47,12
2.45687,-5.34161,-0.514393,10,5
4.08394,-8.8832,1.90046,48,13
2.78374,-6.05786,-0.349395,40,6
4.44191,-9.67074,2.45692,73,14
2.85511,-6.21888,-0.119444,75,7
2.91934,-6.38521,0.122551,49,8
0.221126,-0.483874,-0.122823,15,1
3.0538,-6.68547,0.385193,63,9
0.242172,-0.530417,-0.113341,16,2
3.07332,-6.73133,0.647393,69,10
0.294422,-0.645154,-0.11232,23,3
3.325,-7.2893,0.983729,49,11
2.02503,-4.44148,-0.599353,36,4
3.27015,-7.17569,1.24897,38,12
4.06925,-8.93742,1.90885,38,13
2.81281,-6.18073,-0.355885,100,6
5.67139,-12.462,3.16101,24,14
2.85408,-6.27431,-0.120317,76,7
4.3002,-9.4578,2.78386,36,15
2.92231,-6.45416,0.123668,77,8
0.219351,-0.484681,-0.122823,15,1
3.03833,-6.71664,0.386344,72,9
0.240227,-0.531301,-0.113341,16,2
3.1619,-6.99308,0.671448,20,10
0.292869,-0.648029,-0.112633,35,3
3.31705,-7.34304,0.989335,20,11
2.00629,-4.44344,-0.598622,41,4
3.24626,-7.19302,1.24991,37,12
4.08166,-9.0525,1.93022,47,13
2.77865,-6.16551,-0.354419,43,6
4.37259,-9.70227,2.45692,19,14
2.80807,-6.23368,-0.11934,75,7
4.53756,-10.0777,2.96141,40,15
2.84627,-6.34805,0.121434,66,8
0.217573,-0.485482,-0.122823,15,1
3.02104,-6.74413,0.387286,33,9
0.260843,-0.582304,-0.124026,14,2
3.04751,-6.80641,0.652448,28,10
0.282422,-0.631068,-0.109504,37,3
3.24959,-7.26455,0.977149,18,11
1.98351,-4.43627,-0.596672,13,4
3.89126,-8.70717,1.51053,30,12
2.40786,-5.38789,-0.516311,2,5
4.06364,-9.09717,1.93671,47,13
2.88658,-6.46514,-0.371062,70,6
4.38306,-9.82145,2.48301,52,14
2.80394,-6.28593,-0.120142,76,7
4.14422,-9.29498,2.72692,34,15
2.8866,-6.49867,0.124122,53,8
0.215877,-0.486238,-0.122823,15,1
3.20892,-7.23111,0.414605,12,9
0.252438,-0.568855,-0.120973,15,2
2.99545,-6.75326,0.646347,52,10
0.287424,-0.648302,-0.11232,47,3
3.21295,-7.25044,0.973736,51,11
1.96158,-4.42865,-0.594722,23,4
3.81206,-8.61051,1.49145,52,12
2.40033,-5.42177,-0.518751,13,5
2.85915,-6.46422,-0.370434,38,6
4.42913,-10.0185,2.5289,76,14
2.75854,-6.24264,-0.11913,68,7
4.11253,-9.31116,2.72744,72,15
2.97343,-6.75763,0.128869,100,8
0.214179,-0.486989,-0.122823,15,1
4.85498,-11.039,0.632009,21,9
0.256772,-0.584111,-0.124026,14,2
2.91095,-6.62505,0.633099,39,10
0.28357,-0.645685,-0.111694,48,3
3.12619,-7.12165,0.954968,27,11
1.93973,-4.42092,-0.592773,33,4
3.77872,-8.61225,1.48957,49,12
2.77269,-6.32236,-0.603989,13,5
4.00398,-9.13431,1.93862,21,13
2.83657,-6.47416,-0.370434,73,6
4.37146,-9.98212,2.51585,71,14
2.72338,-6.21878,-0.118502,100,7
4.09016,-9.34421,2.73313,43,15
2.83111,-6.4925,0.123633,48,8
4.13998,-9.50315,0.543247,6,9
0.245326,-0.563404,-0.119446,15,2
2.88781,-6.63517,0.633099,37,10
0.281427,-0.646621,-0.111694,48,3
3.1366,-7.21025,0.965449,27,11
1.91398,-4.40185,-0.58936,10,4
3.20772,-7.38077,1.27463,13,12
2.75775,-6.34845,-0.605558,11,5
4.22632,-9.72916,2.06188,19,13
2.81667,-6.48719,-0.370643,59,6
4.34997,-10.0234,2.5226,78,14
2.70007,-6.22458,-0.118432,75,7
4.05675,-9.35666,2.73261,30,15
2.9234,-6.76853,0.128694,66,8
0.210859,-0.488435,-0.122823,15,1
2.89769,-6.71546,0.383309,3,9
0.231011,-0.535373,-0.113341,16,2
3.03307,-7.03256,0.670053,20,10
0.28386,-0.658484,-0.113571,46,3
3.20018,-7.42716,0.992992,24,11
2.61156,-6.06397,-0.810675,20,4
3.2163,-7.47176,1.28839,20,12
2.76471,-6.42576,-0.612008,15,5
4.20087,-9.76369,2.06608,10,13
2.824,-6.56671,-0.374621,31,6
4.30803,-10.0224,2.51855,15,14
2.69332,-6.26888,-0.119095,68,7
3.99433,-9.30153,2.71242,30,15
2.90447,-6.78973,0.128903,90,8
0.209153,-0.489168,-0.122823,15,1
0.244471,-0.572325,-0.120973,15,2
3.00962,-7.04913,0.670576,39,10
0.276793,-0.648619,-0.111694,48,3
4.52917,-10.6133,1.41685,37,11
2.59271,-6.07852,-0.811406,34,4
5.3421,-12.5426,2.64996,11,13
2.79052,-6.55496,-0.373365,56,6
4.2995,-10.1045,2.5352,20,14
2.66907,-6.27272,-0.118991,68,7
4.02232,-9.45764,2.75383,19,15
2.88815,-6.82058,0.129287,31,8
0.207358,-0.489932,-0.122823,15,1
2.84373,-6.71897,0.382367,78,9
0.242472,-0.573174,-0.120973,15,2
2.98577,-7.06142,0.670751,45,10
0.272989,-0.645942,-0.111068,48,3
3.04344,-7.20483,0.960331,24,11
2.56887,-6.08433,-0.810919,23,4
4.826,-11.4303,1.96513,21,12
3.27908,-7.77023,-0.737861,38,5
4.11563,-9.75732,2.05845,15,13
4.68419,-11.1161,2.78489,23,14
2.58038,-6.12352,-0.115989,100,7
3.9293,-9.32919,2.71242,23,15
2.73245,-6.51296,0.123284,60,8
0.205733,-0.490617,-0.122823,15,1
2.82181,-6.73254,0.382576,68,9
0.225298,-0.537802,-0.113341,16,2
2.90185,-6.93029,0.657329,48,10
0.272372,-0.650488,-0.111694,48,3
3.10613,-7.42181,0.987873,18,11
1.90289,-4.54901,-0.605447,5,4
4.85084,-11.602,1.99172,43,12
2.6796,-6.41207,-0.607998,28,5
3.94624,-9.44304,1.98937,12,13
3.0653,-7.33863,-0.416804,50,6
4.98365,-11.9372,2.98645,23,14
2.53974,-6.08635,-0.115116,94,7
4.03651,-9.67805,2.80974,16,15
3.05723,-7.359,0.139096,46,8
0.204019,-0.491332,-0.122823,15,1
2.8136,-6.77925,0.384669,65,9
0.223514,-0.538546,-0.113341,16,2
2.7735,-6.68591,0.633274,50,10
0.270856,-0.653259,-0.112007,47,3
3.09769,-7.47479,0.993479,13,11
2.57449,-6.21538,-0.82603,32,4
4.78764,-11.5641,1.98234,32,12
2.65299,-6.40804,-0.606778,38,5
5.0813,-12.2795,2.58317,32,13
2.78013,-6.72177,-0.381215,38,6
4.94269,-11.9563,2.9869,36,14
2.55437,-6.18204,-0.116757,48,7
4.56314,-11.0491,3.20314,29,15
0.202302,-0.492041,-0.122823,15,1
2.59178,-6.30687,0.35735,46,9
0.221632,-0.539323,-0.113341,16,2
2.735,-6.65869,0.629787,78,10
0.270074,-0.657855,-0.112633,47,3
3.08213,-7.51127,0.996891,54,11
2.75014,-6.70552,-0.88989,6,4
4.77347,-11.6447,1.99329,43,12
2.6374,-6.43385,-0.608347,38,5
4.92005,-12.0083,2.5225,12,13
2.7574,-6.73328,-0.38132,73,6
4.86402,-11.8833,2.96441,29,14
2.53959,-6.20758,-0.117071,67,7
4.49749,-10.9988,3.18399,29,15
3.07819,-7.55796,0.142447,51,8
0.200584,-0.492744,-0.122823,15,1
2.57427,-6.32697,0.357978,55,9
0.219748,-0.540093,-0.113341,16,2
2.73951,-6.73649,0.636237,39,10
0.264057,-0.649644,-0.111068,48,3
4.4471,-10.9464,1.45073,27,11
4.72239,-11.6357,1.98891,33,12
2.63103,-6.48594,-0.612356,27,5
4.29805,-10.5954,2.22254,34,13
4.80421,-11.8551,2.95316,27,14
2.57045,-6.34615,-0.119514,75,7
4.45835,-11.0127,3.18347,33,15
2.85362,-7.07718,0.133197,20,8
0.198862,-0.493441,-0.122823,15,1
2.72231,-6.75832,0.381843,43,9
0.217767,-0.540895,-0.113341,16,2
2.64861,-6.58198,0.620723,65,10
0.255778,-0.635946,-0.108566,38,3
4.35331,-10.8237,1.43245,43,11
2.65439,-6.603,-0.873803,25,4
4.67439,-11.6338,1.98578,43,12
3.33453,-8.30328,-0.782833,18,5
4.22043,-10.5145,2.20232,27,13
2.38715,-5.95021,-0.335997,6,6
4.66861,-11.6429,2.89602,19,14
2.56838,-6.40519,-0.120457,100,7
4.42204,-11.0335,3.18503,8,15
2.82174,-7.07274,0.132918,15,8
0.197053,-0.494167,-0.122823,15,1
2.54593,-6.38791,0.360385,75,9
0.215878,-0.541652,-0.113341,16,2
3.57677,-8.9789,0.845585,26,10
0.252095,-0.633165,-0.10794,25,3
4.29599,-10.7954,1.4266,40,11
2.61916,-6.58501,-0.870147,52,4
4.63828,-11.6673,1.9886,14,12
3.36367,-8.46113,-0.796603,22,5
4.24967,-10.6952,2.23704,14,13
2.32803,-5.86199,-0.330554,26,6
2.51318,-6.33464,-0.118956,56,7
4.67923,-11.8003,3.4014,44,15
0.195326,-0.494852,-0.122823,15,1
2.47598,-6.27599,0.353582,55,9
0.213986,-0.542402,-0.113341,16,2
2.95414,-7.49184,0.704567,45,10
0.25785,-0.654256,-0.111381,24,3
4.2983,-10.9119,1.44001,37,11
2.61143,-6.63291,-0.875266,19,4
4.61633,-11.7313,1.99673,42,12
2.55421,-6.49088,-0.610264,32,5
2.3492,-5.97603,-0.33652,13,6
4.62998,-11.784,2.92301,27,14
2.4757,-6.30429,-0.118223,67,7
4.64648,-11.8382,3.40761,23,15
2.51166,-6.4255,0.120422,33,8
2.64121,-6.76041,0.380378,24,9
2.54984,-6.53326,0.613576,35,10
0.249104,-0.63859,-0.108566,25,3
4.20755,-10.7918,1.42222,47,11
4.02691,-10.3338,-1.36177,28,4
4.56593,-11.717,1.99172,41,12
2.53443,-6.50719,-0.610962,12,5
4.26321,-10.9515,2.28437,21,13
2.32471,-5.97488,-0.335997,81,6
4.45179,-11.4478,2.83573,34,14
2.46638,-6.34228,-0.118781,68,7
4.45042,-11.4502,3.29166,26,15
2.75742,-7.1238,0.133336,93,8
0.191954,-0.49617,-0.122823,15,1
2.60247,-6.73047,0.37818,68,9
0.210194,-0.543883,-0.113341,16,2
2.50261,-6.47893,0.60765,54,10
0.251256,-0.650468,-0.110443,24,3
4.18746,-10.8464,1.42758,40,11
3.72678,-9.65817,-1.2711,13,4
4.5378,-11.7661,1.99736,28,12
2.48877,-6.4565,-0.605384,31,5
2.29626,-5.9602,-0.334741,71,6
4.36619,-11.3388,2.80514,19,14
2.44925,-6.36391,-0.119025,68,7
4.39725,-11.4314,3.28183,27,15
2.73969,-7.15205,0.133685,71,8
0.19022,-0.496837,-0.122823,15,1
2.64749,-6.91859,0.388228,21,9
0.228036,-0.595917,-0.124026,14,2
2.51385,-6.57279,0.615668,39,10
0.244046,-0.638425,-0.108253,25,3
4.13116,-10.8128,1.42124,27,11
2.43181,-6.36829,-0.836999,3,4
4.71857,-12.3632,2.09591,20,12
2.4844,-6.5094,-0.609567,27,5
4.22915,-11.0867,2.3065,18,13
2.25623,-5.91779,-0.331915,58,6
3.97338,-10.4271,2.57614,13,14
2.44695,-6.42475,-0.120003,63,7
4.38,-11.5062,3.29891,35,15
2.39149,-6.30891,0.117769,15,8
0.188485,-0.497498,-0.122823,15,1
2.55683,-6.75221,0.378389,57,9
0.206487,-0.545301,-0.113341,16,2
2.4782,-6.54799,0.612531,67,10
0.23972,-0.63373,-0.107314,26,3
2.93297,-7.75779,1.01834,24,11
2.41027,-6.3786,-0.837242,37,4
4.68446,-12.4036,2.09998,11,12
2.4504,-6.48821,-0.606778,28,5
3.88952,-10.3042,2.14088,7,13
2.24684,-5.95553,-0.333589,65,6
4.33711,-11.5021,2.83798,42,14
2.42663,-6.43887,-0.120107,51,7
4.34526,-11.5359,3.30305,25,15
2.37859,-6.34156,0.118223,64,8
2.583,-6.89388,0.385821,39,9
0.204582,-0.546018,-0.113341,16,2
2.45043,-6.54354,0.61131,45,10
0.2472,-0.660464,-0.111694,36,3
2.56438,-6.85509,0.898665,4,11
2.40259,-6.42602,-0.842361,18,4
2.41239,-6.45566,-0.602943,31,5
3.96206,-10.6083,2.20117,7,13
2.21836,-5.94275,-0.332438,71,6
4.21996,-11.3109,2.78714,53,14
2.84779,-7.63708,-0.142272,100,7
4.31643,-11.5818,3.31185,20,15
2.35017,-6.33296,0.117908,19,8
0.185007,-0.498801,-0.122823,15,1
2.55754,-6.89911,0.385611,127,9
2.43796,-6.58007,0.613925,60,10
0.245579,-0.663175,-0.112007,47,3
2.5239,-6.81932,0.892815,28,11
2.38772,-6.45485,-0.845042,4,4
4.40184,-11.9061,2.0105,11,12
2.25719,-6.10524,-0.569476,50,5
3.94474,-10.6755,2.21224,7,13
2.23566,-6.0535,-0.338195,48,6
4.20408,-11.3895,2.80289,68,14
2.37539,-6.43877,-0.119793,6,7
4.26863,-11.5768,3.30615,19,15
2.37002,-6.46588,0.360909,52,9
0.199994,-0.545625,-0.112959,16,2
2.48236,-6.77605,0.631356,22,10
0.235676,-0.643666,-0.108566,38,3
4.10546,-11.2187,1.46682,21,11
2.39268,-6.54186,-0.855279,31,4
4.38666,-12.0001,2.02364,35,12
2.22279,-6.08392,-0.566687,53,5
3.52965,-9.66089,1.9993,3,13
2.34636,-6.42562,-0.358501,50,6
4.15495,-11.3847,2.79794,42,14
2.34629,-6.4324,-0.119514,6,7
4.2255,-11.5906,3.30564,30,15
2.64049,-7.27442,0.135082,53,8
0.181433,-0.500112,-0.122823,15,1
2.34539,-6.46848,0.360595,58,9
3.62927,-10.0203,0.932392,10,10
0.236677,-0.653813,-0.11013,49,3
2.44125,-6.74388,0.880628,21,11
2.36308,-6.5315,-0.852842,7,4
4.35147,-12.0339,2.02677,23,12
2.20831,-6.11038,-0.56843,57,5
2.29024,-6.344,-0.353477,47,6
4.18463,-11.5978,2.84653,34,14
2.46635,-6.83556,-0.126844,27,7
4.21124,-11.678,3.32634,20,15
2.42739,-6.76457,0.125448,57,8
0.179599,-0.500774,-0.122823,15,1
2.3156,-6.46011,0.359653,102,9
0.196085,-0.547042,-0.112959,16,2
3.84155,-10.7231,0.996539,25,10
0.235059,-0.656495,-0.110443,49,3
2.41518,-6.74904,0.88014,68,11
2.3291,-6.51208,-0.849186,5,4
4.24084,-11.8638,1.99548,19,12
2.20507,-6.16871,-0.573136,20,5
2.28218,-6.39146,-0.355675,37,6
4.13233,-11.5793,2.83843,19,14
2.71402,-7.60924,-0.141015,24,7
3.99715,-11.2129,3.18969,20,15
2.33755,-6.58643,0.121992,34,8
2.29904,-6.4851,0.360595,74,9
2.94041,-8.29885,0.770282,15,10
0.235404,-0.66476,-0.111694,48,3
2.39955,-6.77989,0.883065,57,11
3.48138,-9.84202,-1.28182,39,4
4.34293,-12.2845,2.06368,34,12
2.19017,-6.19515,-0.574879,10,5
2.25986,-6.39939,-0.355675,60,6
2.97282,-8.42769,-0.15599,92,7
3.93679,-11.1667,3.1726,43,15
2.44766,-6.97381,0.129008,77,8
2.28234,-6.51005,0.361537,77,9
0.192261,-0.548398,-0.112959,16,2
4.14477,-11.829,1.09659,14,10
0.233735,-0.667442,-0.112007,47,3
2.38505,-6.81445,0.886478,26,11
2.57656,-7.36575,-0.958137,28,4
2.68272,-7.67352,-0.711191,13,5
2.2915,-6.56185,-0.364258,57,6
4.00194,-11.4662,2.80379,29,14
2.58904,-7.4222,-0.137211,62,7
3.88761,-11.1512,3.16432,28,15
2.45084,-7.06165,0.130474,66,8
2.25698,-6.51042,0.361118,108,9
0.190346,-0.549065,-0.112959,16,2
2.9548,-8.52814,0.789631,28,10
0.231404,-0.668254,-0.112007,47,3
2.35021,-6.79085,0.882334,61,11
2.47362,-7.15146,-0.929132,10,4
4.18478,-12.1054,2.02864,14,12
2.19362,-6.35271,-0.352221,47,6
3.9797,-11.5317,2.81639,51,14
3.74133,-10.8472,-0.200284,100,7
3.86504,-11.2122,3.17778,24,15
2.39891,-6.99072,0.129008,64,8
2.28735,-6.67319,0.369701,18,9
0.188428,-0.549727,-0.112959,16,2
2.92889,-8.54972,0.790677,31,10
0.229069,-0.669057,-0.112007,47,3
3.3672,-9.846,-1.27768,28,4
4.15272,-12.1499,2.03365,23,12
3.91824,-11.4704,2.35611,26,13
2.17723,-6.37734,-0.353163,43,6
3.93312,-11.5271,2.81189,40,14
2.47133,-7.24704,-0.133651,82,7
3.83086,-11.2402,3.18192,29,15
2.45994,-7.25092,0.133651,50,8
0.186508,-0.550381,-0.112959,16,2
3.9868,-11.7717,1.08736,18,10
0.221666,-0.654884,-0.109504,25,3
3.83452,-11.3351,1.46926,45,11
3.08994,-9.13934,-1.18457,15,4
4.11029,-12.1643,2.03365,10,12
2.15895,-6.38934,-0.590044,53,5
3.91649,-11.5974,2.37939,23,13
2.1473,-6.36219,-0.351907,81,6
4.0355,-11.9636,2.91492,19,14
2.42558,-7.19499,-0.132534,100,7
3.79345,-11.259,3.18347,25,15
2.30046,-6.85942,0.126286,64,8
2.51603,-7.51092,0.415129,42,9
2.32769,-6.9527,0.641466,28,10
0.220632,-0.6594,-0.11013,24,3
2.8292,-8.46049,1.09536,7,11
1.50007,-4.48843,-0.581073,15,4
2.14925,-6.43464,-0.593531,55,5
3.47005,-10.395,2.13019,6,13
2.09979,-6.29386,-0.34772,40,6
4.16816,-12.5008,3.04224,23,14
2.35746,-7.07441,-0.13016,78,7
3.78343,-11.3602,3.20832,25,15
2.30481,-6.95282,0.127856,100,8
2.47724,-7.48173,0.413035,38,9
0.222671,-0.673295,-0.11232,23,3
4.05245,-12.2607,1.58552,36,11
1.43582,-4.34661,-0.562061,31,4
2.28759,-6.9292,1.15574,36,12
2.17362,-6.584,-0.606604,38,5
2.0678,-6.2708,-0.346045,77,6
4.14462,-12.5763,3.05709,23,14
2.32399,-7.056,-0.129671,100,7
4.50724,-13.6927,3.86262,13,15
2.21827,-6.7708,0.124366,82,8
2.49025,-7.60992,0.41963,120,9
2.28405,-6.98393,0.642861,61,10
0.212341,-0.649659,-0.108253,25,3
7.41828,-22.7097,2.9334,47,11
1.41694,-4.34028,-0.560599,54,4
2.26584,-6.94465,1.15699,58,12
2.11417,-6.47979,-0.59632,23,5
2.28786,-7.01628,1.4345,4,13
1.9803,-6.07669,-0.33495,39,6
4.1007,-12.5907,3.05709,23,14
2.29749,-7.05837,-0.129567,78,7
4.23471,-13.0176,3.66798,12,15
2.41144,-7.44817,0.136652,28,8
2.39115,-7.39433,0.407278,60,9
0.190886,-0.590292,-0.120591,15,2
2.26333,-7.00323,0.643907,67,10
0.207037,-0.640997,-0.106688,26,3
2.76911,-8.57845,1.10682,10,11
1.39996,-4.33953,-0.559868,42,4
2.10927,-6.54212,-0.601375,48,5
1.95847,-6.08167,-0.334845,81,6
3.57195,-11.0987,2.69176,8,14
2.27222,-7.06444,-0.129532,99,7
3.91611,-12.1826,3.42883,16,15
2.31718,-7.24322,0.132743,64,8
2.32217,-7.26755,0.399847,43,9
2.26433,-7.0908,0.651228,16,10
0.206599,-0.647362,-0.107627,25,3
2.74578,-8.60886,1.1095,15,11
2.20169,-6.90714,-0.890134,14,4
2.05989,-6.47007,-0.594054,20,5
2.23465,-7.01899,1.43183,15,13
1.92693,-6.05611,-0.333066,81,6
2.2633,-7.12188,-0.130439,99,7
3.86479,-12.1686,3.42107,24,15
2.32081,-7.34279,0.134418,46,8
2.61184,-8.27363,0.454695,48,9
2.22335,-7.05155,0.64687,3,10
0.204225,-0.648115,-0.107627,25,3
2.72705,-8.65437,1.11413,20,11
2.21633,-7.03786,-0.905977,10,4
2.2096,-7.02076,1.16575,75,12
1.98827,-6.32137,-0.57976,38,5
1.90173,-6.05361,-0.332543,42,6
3.50002,-11.1481,2.69761,44,14
2.25759,-7.19079,-0.131556,79,7
3.81593,-12.1618,3.41538,30,15
2.29329,-7.34934,0.134384,100,8
2.44482,-7.84458,0.43062,45,9
0.172908,-0.554804,-0.112959,16,2
3.68645,-11.8358,1.08457,100,10
0.196678,-0.631848,-0.104811,27,3
3.45066,-11.0924,1.42636,37,11
1.3802,-4.43949,-0.570836,27,4
3.77983,-12.1655,2.01769,25,12
1.95614,-6.29593,-0.576797,45,5
3.44608,-11.1119,2.68592,52,14
2.19274,-7.07486,-0.129287,100,7
3.75646,-12.1277,3.40192,14,15
2.333,-7.56942,0.138258,66,8
2.45209,-7.96569,0.436796,63,9
0.170971,-0.555404,-0.112959,16,2
3.54611,-11.5268,1.05511,20,10
0.196213,-0.638196,-0.10575,26,3
2.14207,-6.97157,0.895496,11,11
2.09307,-6.81633,-0.875509,10,4
2.1622,-7.04583,1.16731,74,12
1.89908,-6.18844,-0.566338,57,5
3.19825,-10.4284,2.12027,28,13
1.84713,-6.02664,-0.330345,35,6
3.42668,-11.1872,2.70121,48,14
2.19613,-7.17425,-0.130963,72,7
3.72146,-12.1647,3.40865,4,15
2.39915,-7.88169,0.143808,30,8
2.36462,-7.77314,0.425805,69,9
0.169031,-0.555997,-0.112959,16,2
3.52612,-11.6058,1.06121,31,10
0.196853,-0.648327,-0.107314,26,3
2.11715,-6.9771,0.895252,18,11
2.31295,-7.62716,-0.978611,63,4
2.11933,-6.98869,1.15668,80,12
1.91388,-6.31515,-0.57732,40,5
3.17321,-10.4771,2.1279,6,13
1.82608,-6.03305,-0.330345,61,6
3.38083,-11.1767,2.69581,34,14
2.16885,-7.17001,-0.130753,87,7
3.68054,-12.1752,3.40813,16,15
2.18178,-7.25384,0.132219,89,8
2.12947,-7.08891,0.387914,47,9
0.167089,-0.556584,-0.112959,16,2
2.22487,-7.41587,0.677374,31,10
0.194135,-0.647085,-0.107001,26,3
