x, y, z, intensity, ring
3.72863,-5.38683,1.27346,35,13
4.6786,-6.76684,-0.143598,56,7
9.1385,-13.2223,4.30675,15,15
3.70578,-5.37785,0.113999,92,8
0.300685,-0.43652,-0.122373,15,1
0.365199,-0.530375,-0.125171,14,2
4.13903,-6.01333,0.638677,35,10
7.5191,-10.9322,1.62915,45,11
3.78446,-5.50437,-0.820181,18,4
5.5353,-8.05391,-0.854998,19,5
3.71536,-5.4079,1.27537,36,13
4.4956,-6.54604,-0.416176,97,6
4.44043,-6.46811,1.81131,43,14
4.26911,-6.22089,-0.131696,58,7
3.66892,-5.36434,0.113441,100,8
0.29916,-0.437566,-0.122373,15,1
4.17647,-6.11101,0.387914,8,9
0.345621,-0.505713,-0.119065,15,2
4.10228,-6.00471,0.636237,37,10
3.31424,-4.85304,-0.930785,7,3
7.52118,-11.0174,1.63792,41,11
3.26058,-4.77805,-0.710255,11,4
3.75808,-5.50914,1.05625,44,12
5.50266,-8.0666,-0.854301,19,5
3.71194,-5.44355,1.28071,12,13
3.99801,-5.86526,-0.372004,45,6
4.40904,-6.47069,1.80771,66,14
4.23161,-6.21262,-0.131207,100,7
3.63239,-5.35293,0.112917,100,8
4.23699,-6.2486,0.39566,1,9
0.354783,-0.523226,-0.122881,15,2
3.90027,-5.75418,0.608173,11,10
5.83053,-8.60518,-1.64632,3,3
3.93407,-5.80842,0.861373,26,11
3.24639,-4.7949,-0.710986,33,4
3.97107,-5.86745,-0.619852,5,5
4.27063,-6.31243,1.48144,7,13
4.36809,-6.45892,-0.408639,94,6
4.18448,-6.18975,1.72492,29,14
4.20097,-6.21649,-0.130963,100,7
8.86961,-13.13,4.24567,15,15
3.62597,-5.38382,0.113301,22,8
0.274254,-0.407365,-0.113375,16,1
0.370493,-0.550521,-0.128987,13,2
3.92575,-5.83553,0.61532,61,10
3.27282,-4.86679,-0.928908,3,3
3.91045,-5.81717,0.860641,85,11
3.2252,-4.79961,-0.710011,28,4
5.44591,-8.10743,-0.854475,8,5
4.27317,-6.36634,-0.401836,39,6
4.16936,-6.21403,1.72762,49,14
4.15586,-6.19624,-0.13023,100,7
8.8291,-13.1689,4.24826,13,15
4.54728,-6.80292,0.14283,51,8
0.294484,-0.440727,-0.122373,15,1
4.07567,-6.10198,0.384565,60,9
0.335856,-0.502834,-0.117538,16,2
4.04365,-6.05633,0.637108,65,10
3.33147,-4.99156,-0.950496,6,3
3.88902,-5.82914,0.860398,66,11
3.71288,-5.56723,-0.821643,6,4
3.72771,-5.59158,1.06438,63,12
5.39848,-8.1008,-0.851686,19,5
4.18073,-6.27348,1.46541,25,13
4.2476,-6.37623,-0.401522,32,6
4.15412,-6.23828,1.73032,44,14
4.15304,-6.23901,-0.130823,100,7
8.75525,-13.1578,4.2348,6,15
4.18082,-6.30218,0.13201,61,8
0.292944,-0.441752,-0.122373,15,1
4.09738,-6.18109,0.388647,78,9
0.338348,-0.510607,-0.119065,15,2
3.99612,-6.0329,0.633099,43,10
3.45275,-5.21456,-0.990543,10,3
3.95085,-5.96681,0.878678,38,11
4.27959,-6.46576,-0.952043,38,4
4.23591,-6.40461,-0.671796,6,5
4.16312,-6.29695,1.46732,33,13
3.77491,-5.71192,-0.358815,43,6
4.12352,-6.24178,-0.130579,58,7
8.69756,-13.1705,4.2291,23,15
4.09393,-6.22058,0.129986,15,8
0.269902,-0.410262,-0.113375,16,1
4.12847,-6.27783,0.393776,77,9
0.319304,-0.48554,-0.112959,16,2
3.66531,-5.57566,0.583769,24,10
3.38679,-5.15394,-0.976777,6,3
3.98998,-6.07417,0.892327,80,11
3.62718,-5.52396,-0.811406,21,4
4.16481,-6.34755,1.47572,10,13
5.29066,-8.06653,-0.505565,24,6
4.16921,-6.35911,1.75552,10,14
4.17515,-6.37059,-0.132952,100,7
4.08203,-6.2499,0.1303,9,8
0.289775,-0.443837,-0.122373,15,1
4.28992,-6.5732,0.411361,39,9
0.347558,-0.532747,-0.123644,14,2
3.25893,-4.99918,-0.945177,10,3
3.89179,-5.96999,0.875022,19,11
3.61221,-5.54324,-0.812381,34,4
3.69384,-5.67067,1.07189,10,12
4.14307,-6.37004,-0.132638,81,7
12.6098,-19.3951,6.19872,18,15
0.288147,-0.444896,-0.122373,15,1
3.49513,-5.39852,0.337044,112,9
0.349964,-0.540549,-0.125171,14,2
3.64805,-5.63687,0.58743,73,10
3.21892,-4.9757,-0.938607,10,3
4.52312,-6.99436,1.02273,58,11
4.24318,-6.56649,-0.683998,1,5
3.85412,-5.97126,1.64079,43,14
4.10344,-6.35997,-0.132115,100,7
15.9521,-24.7338,7.88622,11,15
4.46223,-6.93998,0.144017,37,8
0.265519,-0.413112,-0.113375,16,1
3.44604,-5.36364,0.334113,44,9
0.335341,-0.521946,-0.120591,15,2
3.6305,-5.65292,0.587778,46,10
3.28798,-5.12155,-0.963949,8,3
4.06554,-6.33516,0.924257,27,11
3.16623,-4.93569,-0.720004,30,4
3.64464,-5.68365,1.06939,35,12
5.79044,-9.02994,-0.938493,22,5
3.88722,-6.06427,1.40016,15,13
4.57951,-7.14704,-0.444856,54,6
4.08876,-6.38605,-0.132359,100,7
3.83858,-5.9976,1.90801,0,15
4.00666,-6.27951,0.13002,45,8
0.285034,-0.446897,-0.122373,15,1
3.45092,-5.41269,0.336416,33,9
0.329295,-0.516492,-0.119065,15,2
3.62039,-5.68068,0.589347,15,10
3.66809,-5.75775,-1.08128,7,3
4.02847,-6.32587,0.920845,18,11
3.14898,-4.94672,-0.720004,11,4
3.93978,-6.19376,1.42687,14,13
4.053,-6.37421,-0.395869,18,6
3.83534,-6.03421,1.65069,8,14
4.08146,-6.42391,-0.132848,100,7
16.213,-25.5278,8.10311,6,15
0.283472,-0.447889,-0.122373,15,1
3.38182,-5.34537,0.331496,49,9
0.31061,-0.491147,-0.112959,16,2
3.67407,-5.8118,0.601549,3,10
3.33883,-5.28355,-0.989917,3,3
4.48675,-7.10007,1.03126,54,11
3.52713,-5.58368,-0.810919,28,4
3.53737,-5.60206,1.04936,74,12
5.87457,-9.30702,-0.962897,38,5
3.92334,-6.21812,1.42916,11,13
4.01896,-6.37213,-0.394822,43,6
3.83502,-6.08284,1.66014,10,14
4.02488,-6.38399,-0.131731,100,7
16.097,-25.5418,8.08965,6,15
3.9361,-6.26738,0.129183,68,8
0.281828,-0.448925,-0.122373,15,1
3.46402,-5.51784,0.34144,72,9
0.321417,-0.512184,-0.117538,16,2
3.65058,-5.81952,0.601026,5,10
3.13042,-4.99225,-0.933288,2,3
3.95147,-6.30407,0.913533,56,11
3.13669,-5.00613,-0.725366,5,4
3.82196,-6.09982,1.14009,38,12
4.64698,-7.41943,-0.765925,11,5
5.82127,-9.30152,-0.575068,30,6
3.80756,-6.08628,1.65744,15,14
7.31896,-11.6991,-0.240878,44,7
15.9606,-25.5225,8.06584,6,15
3.91952,-6.28719,0.129322,17,8
0.280338,-0.449857,-0.122373,15,1
3.32858,-5.34342,0.329926,46,9
0.327929,-0.526635,-0.120591,15,2
3.37545,-5.42289,0.558843,26,10
0.374747,-0.602057,-0.11232,23,3
3.9232,-6.30534,0.911826,24,11
3.8896,-6.25377,-0.904271,30,4
3.79334,-6.10138,1.1379,33,12
4.62842,-7.44745,-0.767145,12,5
4.02608,-6.48077,-0.399847,7,6
3.82202,-6.15708,-0.126495,20,7
15.9366,-25.6831,8.09897,6,15
3.8944,-6.29573,0.129218,45,8
0.278766,-0.450833,-0.122373,15,1
3.30675,-5.34991,0.329612,105,9
0.334438,-0.541079,-0.123644,14,2
3.15969,-5.11597,-0.952373,3,3
4.31517,-6.98958,1.00859,24,11
3.45908,-5.60511,-0.808725,37,4
4.47415,-7.25276,1.34972,54,12
4.72056,-7.65519,-0.786842,7,5
4.47326,-7.25415,1.6566,44,13
4.00553,-6.49819,-0.400056,18,6
3.74765,-6.08219,1.64934,15,14
3.82777,-6.21466,-0.127403,6,7
15.862,-25.7632,8.10673,12,15
3.8724,-6.30928,0.129218,66,8
0.277191,-0.451803,-0.122373,15,1
3.42067,-5.57765,0.342905,42,9
0.303723,-0.495436,-0.112959,16,2
3.55404,-5.79967,0.595099,39,10
3.079,-5.02645,-0.933601,6,3
6.83948,-11.1654,1.6077,21,11
3.43846,-5.61545,-0.808481,11,4
3.59803,-5.87836,1.0916,93,12
5.6827,-9.28786,-0.952612,22,5
4.43128,-7.24538,1.65088,44,13
4.9245,-8.05497,-0.494784,38,6
4.35663,-7.1289,-0.145832,89,7
13.1486,-21.5239,6.75828,4,15
4.53446,-7.44908,0.15222,18,8
0.275533,-0.452816,-0.122373,15,1
3.39812,-5.58674,0.342696,55,9
0.322396,-0.53004,-0.120591,15,2
3.51722,-5.78481,0.59231,60,10
3.33845,-5.49294,-1.01808,5,3
6.86756,-11.304,1.62403,37,11
3.48792,-5.7434,-0.825056,13,4
3.72202,-6.13129,1.13603,54,12
4.50132,-7.41795,-0.759126,24,5
4.37744,-7.2138,1.64019,37,13
3.71817,-6.13218,1.65564,20,14
6.99633,-11.5432,-0.235607,9,7
13.0816,-21.5918,6.76449,4,15
4.45984,-7.38441,0.150579,25,8
0.273951,-0.453775,-0.122373,15,1
3.40234,-5.63789,0.345103,12,9
0.316395,-0.524494,-0.119065,15,2
3.49496,-5.79595,0.592136,26,10
3.4376,-5.70308,-1.05468,10,3
4.41677,-7.32755,1.05051,26,11
3.46171,-5.74533,-0.823593,32,4
3.57422,-5.93441,1.09723,50,12
4.46923,-7.42337,-0.758081,33,5
4.30643,-7.15579,1.6234,42,13
5.52668,-9.18704,-0.561879,67,6
3.7027,-6.15746,1.65879,20,14
3.65009,-6.06997,-0.123633,72,7
13.037,-21.6886,6.78054,8,15
3.50592,-5.85332,0.119095,41,8
0.272286,-0.454776,-0.122373,15,1
3.37032,-5.62917,0.343847,9,9
0.31557,-0.52728,-0.119446,15,2
3.47778,-5.81324,0.592659,93,10
3.43896,-5.75065,-1.06125,6,3
4.4459,-7.4374,1.06392,35,11
3.04453,-5.09511,-0.728779,17,4
3.80781,-6.37248,1.17576,128,12
4.35543,-7.29183,-0.74309,33,5
4.27136,-7.15392,1.61959,37,13
3.83638,-6.42793,-0.39231,42,6
4.5588,-7.64139,2.05425,49,14
3.60634,-6.0449,-0.122865,71,7
3.9322,-6.5937,2.05709,8,15
3.48853,-5.86835,0.119165,82,8
0.270776,-0.455677,-0.122373,15,1
0.297691,-0.501368,-0.113341,16,2
3.44831,-5.80993,0.59109,80,10
3.49953,-5.89622,-1.08597,5,3
4.41311,-7.43844,1.06197,38,11
3.5572,-5.99815,-0.856254,48,4
3.81979,-6.4435,1.1864,39,12
4.32081,-7.29156,-0.741521,31,5
6.66768,-11.252,2.54234,18,13
3.83642,-6.47671,-0.394508,39,6
4.61187,-7.78894,2.0898,38,14
3.56791,-6.0282,-0.122272,26,7
3.47209,-5.88738,0.119305,27,8
0.249391,-0.423044,-0.113375,16,1
3.67773,-6.24105,0.379645,35,9
0.296026,-0.502353,-0.113341,16,2
3.98014,-6.75693,0.68609,33,10
3.37469,-5.73137,-1.05343,5,3
4.29146,-7.29128,1.03881,21,11
3.5,-5.94894,-0.84748,13,4
3.79427,-6.45169,1.18546,68,12
5.50295,-9.36083,-0.949998,16,5
6.80087,-11.5733,-0.7035,16,6
4.51556,-7.68737,2.0583,8,14
4.44292,-7.56672,-0.153162,57,7
3.90758,-6.65765,2.06848,13,15
0.267588,-0.457556,-0.122373,15,1
3.67809,-6.29178,0.381948,13,9
0.294183,-0.503434,-0.113341,16,2
3.82471,-6.54783,0.663429,50,10
3.34569,-5.73005,-1.05093,5,3
4.22295,-7.2325,1.02833,30,11
3.39916,-5.82397,-0.82798,25,4
4.23262,-7.25488,1.33032,35,12
4.24471,-7.27852,-0.737163,26,5
3.75524,-6.44179,1.44939,23,13
6.80466,-11.6775,-0.708315,29,6
4.51511,-7.75152,-0.156583,92,7
3.90959,-6.71465,2.08194,45,15
3.9597,-6.82535,0.137734,48,8
0.265909,-0.458533,-0.122373,15,1
0.308178,-0.531634,-0.119446,15,2
3.75987,-6.48873,0.656108,22,10
0.361378,-0.623911,-0.114197,34,3
4.18149,-7.22216,1.02468,21,11
3.41458,-5.89996,-0.836999,40,4
4.16472,-7.19609,1.31687,39,12
4.21628,-7.28812,-0.73664,27,5
3.73862,-6.46506,1.45167,12,13
5.39949,-9.34089,-0.565438,23,6
4.0958,-7.08842,1.89004,38,14
4.60108,-7.96288,-0.160527,93,7
3.88516,-6.72659,2.08142,43,15
3.98793,-6.92683,0.139515,41,8
0.264388,-0.459413,-0.122373,15,1
3.65101,-6.34674,0.383727,27,9
0.290662,-0.505476,-0.113341,16,2
3.6816,-6.40509,0.646347,60,10
0.366198,-0.637094,-0.116387,32,3
4.11895,-7.16886,1.01517,24,11
3.38314,-5.89059,-0.834074,34,4
4.13269,-7.19859,1.31468,56,12
3.82191,-6.65995,-0.671796,15,5
6.52947,-11.3781,2.54997,27,13
4.13916,-7.21569,-0.435959,50,6
4.10523,-7.15945,1.90534,43,14
4.55436,-7.94593,-0.159864,85,7
3.81076,-6.65127,2.05399,31,15
4.26421,-7.46686,0.150091,55,8
0.262782,-0.460333,-0.122373,15,1
3.62598,-6.35187,0.383309,32,9
0.288984,-0.506437,-0.113341,16,2
3.63171,-6.36707,0.641292,50,10
0.363972,-0.638369,-0.116387,21,3
4.0418,-7.09179,1.00225,24,11
3.36157,-5.90064,-0.83383,12,4
4.14498,-7.27576,1.32625,50,12
3.80276,-6.67778,-0.672319,23,5
3.67899,-6.46306,1.44557,8,13
4.14654,-7.28738,-0.439413,65,6
4.01759,-7.06363,1.87609,42,14
4.17603,-7.34219,-0.147438,56,7
3.77627,-6.64204,2.04726,39,15
4.48393,-7.91242,0.158747,20,8
0.261254,-0.461202,-0.122373,15,1
3.75436,-6.6304,0.399323,27,9
0.314292,-0.555282,-0.124026,14,2
3.62614,-6.40919,0.644255,45,10
0.356989,-0.630976,-0.114823,45,3
3.92934,-6.94791,0.980073,33,11
4.34136,-7.67958,-1.08317,16,4
4.08748,-7.23344,1.31593,67,12
3.75983,-6.65632,-0.668833,47,5
4.08602,-7.23674,-0.43554,76,6
4.12974,-7.32015,-0.146705,89,7
3.74926,-6.64845,2.04519,16,15
6.58822,-11.7305,0.23484,11,8
0.259481,-0.462201,-0.122373,15,1
3.68782,-6.57162,0.394927,30,9
0.333391,-0.594097,-0.132421,13,2
3.59873,-6.41548,0.643558,46,10
0.353598,-0.630619,-0.11451,45,3
3.81528,-6.8071,0.958137,45,11
4.38073,-7.81915,-1.10048,13,4
4.06837,-7.26459,1.31874,49,12
3.73833,-6.67527,-0.669356,45,5
3.72375,-6.65196,1.48182,30,13
4.11282,-7.34998,-0.441401,65,6
3.62245,-6.47895,-0.129567,7,7
3.76989,-6.74542,2.07055,63,15
4.08132,-7.32666,0.146391,43,8
0.257866,-0.463104,-0.122373,15,1
3.68137,-6.61412,0.396707,30,9
0.283576,-0.509485,-0.113341,16,2
3.50948,-6.30787,0.631531,48,10
0.348514,-0.62667,-0.113571,46,3
3.80018,-6.83599,0.960331,27,11
3.31977,-5.97427,-0.839192,12,4
4.02859,-7.25284,1.31405,65,12
4.13682,-7.44768,-0.745356,20,5
3.68812,-6.64261,1.47686,24,13
4.09101,-7.37128,-0.44182,39,6
3.95823,-7.13497,1.88374,22,14
4.08179,-7.36071,-0.146914,89,7
3.7894,-6.83627,2.09436,43,15
4.06249,-7.35312,0.146635,56,8
0.256248,-0.464002,-0.122373,15,1
5.23643,-9.48577,0.567845,28,9
0.281796,-0.510472,-0.113341,16,2
3.58562,-6.49802,0.64931,48,10
0.341554,-0.619235,-0.112007,47,3
3.783,-6.86139,0.962037,18,11
3.34106,-6.06231,-0.849917,45,4
4.01469,-7.28762,1.3178,47,12
4.10791,-7.45684,-0.744833,33,5
3.6545,-6.63652,1.47266,22,13
3.51725,-6.38993,-0.382262,21,6
4.01691,-7.3007,1.92378,75,14
3.66772,-6.66879,-0.132848,7,7
3.87255,-7.04413,2.15389,18,15
3.97241,-7.24975,0.144296,43,8
0.254627,-0.464893,-0.122373,15,1
3.63319,-6.63615,0.396497,16,9
0.30641,-0.55967,-0.124026,14,2
3.57057,-6.52448,0.650705,28,10
0.343182,-0.627355,-0.113259,58,3
3.77046,-6.89545,0.964962,24,11
3.27798,-5.9973,-0.839192,45,4
3.89546,-7.12997,1.28683,50,12
4.09236,-7.49037,-0.74675,33,5
3.63978,-6.66475,1.4761,24,13
3.5045,-6.4197,-0.383309,38,6
3.9298,-7.20177,1.89409,42,14
3.57643,-6.55691,-0.130369,57,7
3.81532,-7.02111,0.13948,53,8
0.253003,-0.465779,-0.122373,15,1
4.00359,-7.3737,0.439727,63,9
0.278135,-0.512475,-0.113341,16,2
3.54397,-6.5299,0.650007,54,10
0.342874,-0.632022,-0.113884,46,3
3.78989,-6.98884,0.976174,27,11
3.29865,-6.08549,-0.849917,55,4
3.85738,-7.11921,1.28245,52,12
5.29744,-9.78108,-0.973181,42,5
3.64897,-6.7402,1.48984,19,13
3.49045,-6.45007,-0.384355,31,6
3.87403,-7.15889,1.87924,38,14
3.56494,-6.59046,-0.130788,58,7
3.75712,-6.94864,2.11662,46,15
3.44437,-6.39421,0.126774,11,8
0.251294,-0.466703,-0.122373,15,1
3.69541,-6.86599,0.408639,55,9
0.30602,-0.568817,-0.125552,14,2
3.52284,-6.54811,0.65053,52,10
0.335878,-0.624575,-0.11232,47,3
3.75109,-6.97821,0.972761,24,11
3.2378,-6.02585,-0.839924,64,4
3.87519,-7.2151,1.29715,44,12
3.42571,-6.3809,-0.633622,7,5
3.64003,-6.78293,1.49632,28,13
3.85198,-7.18091,-0.427061,47,6
3.8754,-7.22456,1.89274,28,14
3.57005,-6.65812,-0.13187,29,7
3.67596,-6.8585,2.08505,35,15
3.37664,-6.32389,0.125134,31,8
0.250499,-0.469341,-0.122823,15,1
3.24823,-6.08595,0.361537,27,9
0.307729,-0.57681,-0.127079,14,2
3.50913,-6.58031,0.652448,48,10
0.338232,-0.634518,-0.113884,69,3
3.67602,-6.89906,0.959843,27,11
4.52921,-8.50031,-1.18262,24,4
4.07191,-7.64528,1.37193,52,12
3.39874,-6.38403,-0.632751,23,5
3.63754,-6.83546,1.5051,18,13
3.89134,-7.31546,1.91298,41,14
3.66508,-6.893,-0.136268,53,7
3.8569,-7.25682,2.20203,14,15
3.35191,-6.32798,0.124994,60,8
0.248942,-0.470169,-0.122823,15,1
3.63737,-6.8698,0.407383,51,9
0.272754,-0.515359,-0.113341,16,2
3.49381,-6.60424,0.653668,46,10
0.329662,-0.623413,-0.111694,60,3
3.76258,-7.1183,0.988604,24,11
3.21898,-6.08987,-0.845773,51,4
3.91827,-7.41596,1.32844,11,12
5.22822,-9.89945,-0.979456,23,5
3.6011,-6.82144,1.49938,6,13
3.3789,-6.40324,-0.379436,38,6
3.72609,-7.06118,1.84325,27,14
4.8149,-9.12842,-0.180144,72,7
3.93462,-7.46268,2.26053,10,15
3.32439,-6.32667,0.12475,67,8
0.247381,-0.470992,-0.122823,15,1
0.271043,-0.516261,-0.113341,16,2
3.48856,-6.64755,0.656806,46,10
0.332181,-0.633249,-0.113259,58,3
3.67259,-7.00415,0.971055,33,11
3.15807,-6.02546,-0.835293,25,4
7.23782,-13.8153,-1.36451,15,5
3.37618,-6.4498,-0.381529,52,6
3.78363,-7.23127,1.88419,36,14
4.89051,-9.35072,-0.184193,45,7
3.92287,-7.50376,2.26881,7,15
3.29582,-6.32582,0.124505,41,8
0.245735,-0.471852,-0.122823,15,1
0.269239,-0.517204,-0.113341,16,2
3.45522,-6.64024,0.654888,48,10
0.332703,-0.639662,-0.114197,45,3
3.59684,-6.9183,0.957406,27,11
3.18462,-6.12804,-0.847967,43,4
3.5568,-6.84712,1.22207,70,12
7.25752,-13.9713,-1.37741,13,5
3.5564,-6.84928,1.50014,18,13
3.39321,-6.53778,-0.38603,38,6
3.72606,-7.18216,1.86799,45,14
3.55892,-6.86292,-0.134942,7,7
3.28106,-6.3515,0.124785,28,8
0.244087,-0.472707,-0.122823,15,1
3.27302,-6.34136,0.373993,50,9
0.267342,-0.518187,-0.113341,16,2
3.33884,-6.47166,0.637108,48,10
0.317793,-0.61624,-0.109817,49,3
3.57085,-6.92728,0.956918,27,11
4.43159,-8.60077,-1.18798,13,4
3.60071,-6.99121,1.24553,56,12
5.13704,-9.97845,-0.981897,34,5
3.81604,-7.41565,1.62111,38,13
3.48616,-6.77751,-0.399428,100,6
3.7393,-7.26964,1.88734,37,14
3.30452,-6.42715,-0.126146,20,7
3.90483,-7.59797,2.289,15,15
3.27416,-6.39552,0.125413,53,8
0.242353,-0.473599,-0.122823,15,1
3.26613,-6.38532,0.375877,66,9
0.265441,-0.519164,-0.113341,16,2
3.34322,-6.53884,0.642512,43,10
0.320926,-0.627955,-0.111694,48,3
3.63122,-7.10827,0.980073,24,11
3.13166,-6.13299,-0.84553,37,4
3.64421,-7.13984,1.26962,56,12
5.09409,-9.98479,-0.980676,17,5
3.75315,-7.35963,1.60585,36,13
3.4622,-6.79202,-0.399533,54,6
3.59492,-7.05239,1.8275,25,14
3.26823,-6.41427,-0.125657,20,7
3.67706,-7.21974,2.17097,10,15
3.25522,-6.4164,0.125588,67,8
0.240615,-0.474484,-0.122823,15,1
3.38989,-6.68762,0.392938,40,9
0.263627,-0.520087,-0.113341,16,2
0.312375,-0.616791,-0.109504,37,3
3.63653,-7.18352,0.988604,33,11
3.09392,-6.11432,-0.841386,50,4
3.85518,-7.62203,1.35285,56,12
7.08973,-14.017,-1.37427,13,5
3.7735,-7.46379,1.62569,38,13
3.41505,-6.75772,-0.396811,32,6
3.78256,-7.48819,1.93683,26,14
3.5899,-7.10988,-0.139026,63,7
5.94501,-11.7793,3.53547,10,15
3.2355,-6.43308,0.125692,70,8
0.238957,-0.475321,-0.122823,15,1
3.28133,-6.52988,0.382995,19,9
3.46357,-6.89554,0.675108,37,10
0.322629,-0.642593,-0.113884,34,3
3.61321,-7.19971,0.989092,22,11
2.96397,-5.90861,-0.81165,41,4
3.60631,-7.19222,1.27432,30,12
3.94904,-7.87574,-0.770805,4,5
3.68585,-7.35406,1.59898,17,13
3.28051,-6.54817,-0.383832,84,6
3.70753,-7.40377,1.91163,57,14
3.20614,-6.40531,-0.125029,6,7
3.64691,-7.28906,2.18392,9,15
3.22106,-6.46044,0.126006,67,8
0.237297,-0.476152,-0.122823,15,1
3.14007,-6.30352,0.369073,8,9
0.25999,-0.521915,-0.113341,16,2
3.44836,-6.92542,0.676851,28,10
0.318623,-0.640178,-0.113259,34,3
3.87365,-7.78635,1.06782,38,11
3.0273,-6.08778,-0.834805,47,4
3.56271,-7.16762,1.26775,44,12
3.26527,-6.56921,-0.641815,5,5
3.58241,-7.2104,1.56502,33,13
3.21499,-6.47372,-0.378808,31,6
3.64008,-7.33289,1.89004,28,14
3.15265,-6.35376,-0.123807,72,7
3.18077,-6.43579,0.125308,67,8
0.235633,-0.476977,-0.122823,15,1
0.258166,-0.522819,-0.113341,16,2
0.310269,-0.628886,-0.111068,24,3
3.81747,-7.74107,1.05978,21,11
3.02095,-6.12858,-0.838949,51,4
3.81531,-7.74349,1.36724,39,12
3.87018,-7.85486,-0.766099,26,5
3.57283,-7.25456,1.57188,29,13
3.19325,-6.48669,-0.378912,7,6
3.58951,-7.29484,1.87699,42,14
3.12869,-6.36114,-0.123738,92,7
3.54394,-7.20859,2.15234,43,15
3.16532,-6.46122,0.125588,23,8
0.233967,-0.477797,-0.122823,15,1
2.94865,-6.02161,0.351384,49,9
2.88771,-5.90236,0.574879,22,10
0.308072,-0.629965,-0.111068,24,3
3.58644,-7.33703,1.00274,24,11
3.01174,-6.16406,-0.842361,43,4
3.75145,-7.67801,1.35347,45,12
3.87159,-7.9274,-0.771851,9,5
3.57677,-7.32698,1.58486,11,13
3.14782,-6.45113,-0.376191,10,6
3.56488,-7.30908,1.87744,31,14
3.1032,-6.36249,-0.123563,39,7
3.52171,-7.22378,2.15337,42,15
5.64552,-11.6213,0.22552,10,8
0.232381,-0.47857,-0.122823,15,1
2.96163,-6.10194,0.355466,39,9
0.25451,-0.524609,-0.113341,16,2
0.306843,-0.63276,-0.111381,24,3
3.53784,-7.29886,0.995916,24,11
3.02504,-6.24368,-0.851867,13,4
3.77457,-7.79417,1.37162,49,12
3.15377,-6.51517,-0.633274,11,5
3.92712,-8.11279,1.75201,15,13
3.12728,-6.46333,-0.376296,7,6
3.53553,-7.31033,1.87474,39,14
4.07227,-8.4239,-0.16332,93,7
3.50068,-7.24472,2.15596,38,15
3.09264,-6.42316,0.124436,38,8
0.230709,-0.479378,-0.122823,15,1
3.01304,-6.26343,0.364258,45,9
0.252769,-0.52545,-0.113341,16,2
2.70328,-5.62202,0.545769,30,10
0.302921,-0.630267,-0.110756,36,3
3.51406,-7.31475,0.996404,24,11
2.96542,-6.17547,-0.841142,18,4
5.674,-11.8214,2.07682,13,12
3.12611,-6.51302,-0.632053,2,5
3.51747,-7.33168,1.58066,27,13
3.10038,-6.4652,-0.375772,35,6
3.50746,-7.31736,1.87339,41,14
4.68655,-9.78159,-0.189324,74,7
3.49706,-7.3022,2.16942,42,15
3.06073,-6.41407,0.124052,49,8
2.97826,-6.24686,0.362688,48,9
0.250933,-0.526329,-0.113341,16,2
2.68364,-5.63142,0.545769,41,10
0.300719,-0.63132,-0.110756,24,3
3.48851,-7.32697,0.996404,6,11
4.35648,-9.15409,-1.24477,41,4
3.45277,-7.25843,1.27306,34,12
3.0734,-6.46092,-0.625953,16,5
3.48849,-7.33682,1.57914,20,13
3.72336,-7.83432,-0.45459,50,6
3.4819,-7.32956,1.87339,22,14
3.07071,-6.4669,-0.124959,33,7
3.46989,-7.31087,2.16839,36,15
3.03234,-6.41206,0.123807,41,8
0.227357,-0.480977,-0.122823,15,1
2.90695,-6.15248,0.356617,58,9
0.249095,-0.527202,-0.113341,16,2
2.66311,-5.63895,0.545595,45,10
0.293454,-0.621648,-0.108878,37,3
5.73905,-12.163,1.65133,7,11
4.36684,-9.25902,-1.25696,27,4
3.44004,-7.29724,1.27776,56,12
6.78051,-14.3898,-1.3917,13,5
5.86878,-12.4549,2.67629,10,13
3.66705,-7.78583,-0.451031,36,6
3.38823,-7.19709,1.8365,43,14
3.04216,-6.46491,-0.124715,54,7
3.63922,-7.73725,2.29107,29,15
0.225677,-0.481768,-0.122823,15,1
2.888,-6.16802,0.356931,40,9
0.247161,-0.528111,-0.113341,16,2
2.47696,-5.29495,0.51143,37,10
0.290337,-0.62093,-0.108566,38,3
3.32124,-7.10299,0.962768,11,11
5.49355,-11.7542,-1.59308,32,4
3.49398,-7.47922,1.30748,30,12
3.02456,-6.47733,-0.62543,13,5
3.08204,-6.60644,-0.382053,14,6
3.40712,-7.3066,1.86124,21,14
3.0238,-6.48455,-0.124889,13,7
3.61954,-7.76566,2.29573,35,15
3.50164,-7.54364,0.145169,62,8
0.223909,-0.482592,-0.122823,15,1
2.85949,-6.16588,0.356199,36,9
0.245316,-0.528971,-0.113341,16,2
2.44086,-5.26561,0.507769,61,10
0.302285,-0.65241,-0.113884,46,3
3.27516,-7.07188,0.956918,24,11
4.03195,-8.70996,-1.17848,13,4
3.4823,-7.52604,1.31342,36,12
6.4365,-13.9171,-1.3415,13,5
3.63187,-7.85288,1.68179,28,13
2.95001,-6.38148,-0.368445,31,6
3.56551,-7.71648,1.96247,26,14
3.36055,-7.27622,-0.139898,16,7
3.58538,-7.7666,2.2921,42,15
3.48699,-7.58125,0.145658,52,8
0.222224,-0.483371,-0.122823,15,1
3.0798,-6.70212,0.386553,8,9
0.243375,-0.529866,-0.113341,16,2
2.43734,-5.30892,0.511081,41,10
0.294125,-0.640946,-0.111694,48,3
3.30593,-7.20415,0.973249,29,11
4.05283,-8.83585,-1.19359,31,4
5.5092,-12.0165,2.09372,22,12
3.75338,-8.19053,-0.788237,3,5
3.63168,-7.92861,1.69515,35,13
2.99561,-6.54298,-0.377133,31,6
3.54288,-7.7419,1.96562,15,14
3.9018,-8.5262,-0.163669,100,7
3.5237,-7.70352,2.26984,39,15
3.42699,-7.51636,0.144192,55,8
0.204457,-0.448639,-0.113825,16,1
3.19085,-7.00493,0.403406,17,9
0.241617,-0.530671,-0.113341,16,2
2.39341,-5.25672,0.505329,73,10
0.293746,-0.645462,-0.11232,47,3
3.27462,-7.19882,0.971055,18,11
6.65847,-14.6445,-1.97526,9,4
3.35499,-7.38232,1.28433,33,12
3.58446,-7.89092,-0.758255,4,5
5.49165,-12.095,2.58203,12,13
2.91199,-6.41647,-0.369283,42,6
3.7595,-8.28778,-0.158852,100,7
3.50132,-7.72221,2.27191,36,15
3.47759,-7.70201,0.147508,41,8
0.218844,-0.48491,-0.122823,15,1
3.20294,-7.10032,0.40822,39,9
0.23967,-0.531553,-0.113341,16,2
2.40443,-5.33265,0.511779,54,10
0.286509,-0.635729,-0.110443,49,3
3.08271,-6.84335,0.921576,9,11
6.54526,-14.5367,-1.95747,15,4
3.26386,-7.25226,1.25961,71,12
4.07291,-9.05418,-0.868594,49,5
3.64467,-8.10597,1.72758,16,13
2.86553,-6.37609,-0.366352,37,6
3.36309,-7.48321,1.89409,32,14
3.67011,-8.17017,-0.156339,92,7
3.49357,-7.78081,2.28537,24,15
3.2412,-7.24919,0.138607,34,8
0.217065,-0.485709,-0.122823,15,1
3.02456,-6.771,0.388647,23,9
0.237813,-0.532386,-0.113341,16,2
2.37106,-5.3105,0.508815,56,10
0.287397,-0.64399,-0.111694,48,3
5.30006,-11.8818,1.59746,14,11
3.90276,-8.7534,-1.17677,28,4
3.22681,-7.24072,1.25554,53,12
4.01046,-8.99918,-0.86197,40,5
3.59958,-8.08098,1.71957,12,13
3.48908,-7.8366,-0.449566,29,6
3.37922,-7.59341,1.91883,48,14
3.24597,-7.29742,-0.13941,7,7
3.44619,-7.75119,2.27295,57,15
3.19725,-7.21841,0.137804,49,8
0.215368,-0.486464,-0.122823,15,1
2.93787,-6.63906,0.380482,20,9
0.251843,-0.569119,-0.120973,15,2
2.34364,-5.29871,0.506898,60,10
0.280355,-0.634149,-0.109817,49,3
3.07217,-6.95239,0.933276,4,11
2.90814,-6.58431,-0.883797,37,4
3.17359,-7.18869,1.24459,72,12
3.84062,-8.69963,-0.831989,14,5
3.28998,-7.45586,1.5841,26,13
3.9187,-8.88488,-0.508915,17,6
3.4541,-7.83519,1.97687,48,14
3.58978,-8.14681,-0.155396,75,7
3.35449,-7.61643,2.22998,49,15
2.91011,-6.63256,0.126425,66,8
0.213669,-0.487213,-0.122823,15,1
2.82166,-6.43708,0.36834,64,9
0.234091,-0.534033,-0.113341,16,2
2.38909,-5.45285,0.520843,75,10
0.283686,-0.647791,-0.112007,47,3
3.04629,-6.95944,0.932788,40,11
2.87957,-6.58169,-0.88209,13,4
3.14135,-7.18344,1.24178,54,12
3.83265,-8.76842,-0.837218,52,5
3.26944,-7.47989,1.58677,38,13
7.99121,-18.2912,-1.04609,19,6
3.41035,-7.80969,1.96742,23,14
3.44853,-7.90088,-0.150475,99,7
3.34796,-7.67413,2.24344,42,15
0.211967,-0.487956,-0.122823,15,1
2.77213,-6.3846,0.364782,48,9
0.232132,-0.534888,-0.113341,16,2
2.38812,-5.50543,0.525026,65,10
0.282882,-0.652451,-0.112633,47,3
3.02435,-6.97549,0.933519,27,11
3.89139,-8.97958,-1.20163,17,4
3.1932,-7.372,1.27244,25,12
3.7664,-8.69946,-0.829374,30,5
3.27865,-7.57651,1.6047,29,13
3.94858,-9.129,-0.521266,35,6
9.31225,-21.54,5.41772,30,14
3.59312,-8.31118,-0.158049,92,7
3.43303,-7.94469,2.31902,14,15
3.20716,-7.4541,0.141644,38,8
0.210177,-0.488729,-0.122823,15,1
2.71511,-6.31351,0.360176,48,9
0.230263,-0.535695,-0.113341,16,2
2.38147,-5.54303,0.527815,60,10
0.268911,-0.626208,-0.10794,38,3
2.9972,-6.98288,0.933032,29,11
3.45539,-8.05427,-1.07611,8,4
3.19082,-7.43756,1.28182,46,12
3.85379,-8.98723,-0.855521,21,5
3.50045,-8.16715,1.7272,27,13
3.8868,-9.07296,-0.517289,21,6
3.24929,-7.58847,1.90579,22,14
3.59557,-8.3972,-0.159445,100,7
3.32319,-7.76481,2.26311,26,15
3.22791,-7.57138,0.143668,45,8
0.208555,-0.489423,-0.122823,15,1
2.67505,-6.28068,0.357769,40,9
0.228392,-0.536495,-0.113341,16,2
2.35197,-5.52747,0.525549,54,10
0.269153,-0.632549,-0.108878,25,3
2.94372,-6.92154,0.923526,27,11
3.45662,-8.13145,-1.08488,35,4
3.19728,-7.52501,1.29496,41,12
3.79358,-8.93277,-0.849071,29,5
3.55085,-8.36123,1.76575,43,13
3.31822,-7.81725,-0.445065,14,6
3.22411,-7.59921,1.90579,39,14
3.60137,-8.49254,-0.161016,93,7
3.18449,-7.51312,2.1865,28,15
2.85844,-6.77018,0.128275,41,8
0.206845,-0.490148,-0.122823,15,1
2.53047,-5.99922,0.34123,30,9
0.226612,-0.53725,-0.113341,16,2
2.33827,-5.54626,0.526595,54,10
0.270779,-0.642587,-0.110443,24,3
2.87562,-6.82749,0.909633,33,11
3.39047,-8.05381,-1.07294,19,4
3.15337,-7.49425,1.28777,54,12
3.69439,-8.78002,-0.833383,37,5
3.14642,-7.48138,1.57761,23,13
5.10583,-12.1522,3.04314,27,14
3.653,-8.69865,-0.164681,100,7
3.18142,-7.57941,2.20255,55,15
2.81628,-6.73584,0.127437,77,8
0.205133,-0.490868,-0.122823,15,1
0.224735,-0.538037,-0.113341,16,2
2.378,-5.69596,0.540017,71,10
0.271577,-0.65082,-0.111694,24,3
2.86629,-6.8723,0.914264,40,11
3.12947,-7.51068,1.28871,46,12
3.63077,-8.71378,-0.825888,34,5
3.10066,-7.44519,1.56769,41,13
3.62661,-8.71238,-0.494575,52,6
5.06862,-12.1826,3.04629,40,14
3.45293,-8.3033,-0.156967,100,7
3.19573,-7.68858,2.23102,38,15
2.79275,-6.74563,0.127437,71,8
0.203418,-0.491581,-0.122823,15,1
2.72135,-6.57966,0.373155,63,9
2.3855,-5.77051,0.546292,71,10
0.263269,-0.637159,-0.109191,25,3
2.84986,-6.90061,0.916701,47,11
3.31826,-8.03875,-1.06782,44,4
3.11303,-7.5453,1.29277,37,12
3.44234,-8.3476,-0.78998,19,5
3.05594,-7.4106,1.55815,41,13
3.73089,-9.05183,-0.513102,84,6
5.04685,-12.2506,3.05888,36,14
3.42012,-8.30605,-0.156792,100,7
3.16813,-7.6979,2.2305,46,15
2.7836,-6.79049,0.128101,28,8
2.7241,-6.65196,0.376714,57,9
0.258064,-0.630479,-0.132421,13,2
2.39829,-5.86219,0.554136,48,10
0.265417,-0.64909,-0.111068,24,3
2.76791,-6.76904,0.897933,36,11
3.31647,-8.1146,-1.07635,34,4
3.0792,-7.53783,1.28965,9,12
3.43502,-8.41305,-0.795035,36,5
3.02876,-7.42175,1.55815,41,13
3.56569,-8.74181,-0.494784,59,6
3.14946,-7.72523,1.92603,17,14
3.39186,-8.31979,-0.156827,92,7
3.05522,-7.49781,2.16942,36,15
3.3638,-8.29234,0.156199,55,8
0.199895,-0.493024,-0.122823,15,1
2.73839,-6.75397,0.381948,51,9
0.218994,-0.540399,-0.113341,16,2
2.42867,-5.9961,0.565989,24,10
0.260926,-0.644519,-0.11013,24,3
2.71851,-6.71841,0.88989,52,11
3.23832,-8.00708,-1.06051,38,4
3.42803,-8.48041,-0.800264,24,5
3.0021,-7.43046,1.55776,36,13
3.52842,-8.73753,-0.493842,42,6
3.11956,-7.72895,1.92423,18,14
3.35082,-8.30191,-0.156269,92,7
3.03481,-7.52276,2.17356,18,15
3.35194,-8.34242,0.156932,63,8
0.198259,-0.493684,-0.122823,15,1
2.75571,-6.86543,0.387705,43,9
0.243422,-0.606756,-0.127079,14,2
2.42849,-6.05632,0.57087,41,10
0.252906,-0.630713,-0.107627,25,3
2.694,-6.72186,0.889159,54,11
3.18592,-7.95328,-1.05198,39,4
2.91049,-7.26939,1.24021,37,12
3.49686,-8.73834,-0.823447,48,5
2.98765,-7.46589,1.56311,35,13
6.54269,-16.3579,-0.923311,28,6
7.5391,-18.8587,4.68888,23,14
3.16897,-7.93103,-0.149078,89,7
3.02,-7.56201,2.18184,48,15
2.71973,-6.83785,0.12845,42,8
0.196535,-0.494373,-0.122823,15,1
2.73837,-6.89172,0.388647,55,9
2.34221,-5.89769,0.555182,58,10
0.255804,-0.644444,-0.109817,24,3
2.68589,-6.76997,0.894277,27,11
3.15301,-7.95144,-1.05027,41,4
2.86982,-7.24094,1.23364,49,12
3.44285,-8.69122,-0.817869,39,5
2.93988,-7.42151,1.55166,42,13
3.59753,-9.08632,-0.51216,38,6
7.34201,-18.5533,4.60655,29,14
2.88605,-7.29678,-0.136966,7,7
3.00211,-7.59407,2.18806,46,15
2.69951,-6.85661,0.128624,38,8
0.194808,-0.495056,-0.122823,15,1
2.72892,-6.93841,0.39074,35,9
0.213323,-0.542663,-0.113341,16,2
2.30018,-5.85431,0.550301,48,10
0.259217,-0.660087,-0.11232,47,3
2.67168,-6.80333,0.897446,33,11
3.13757,-7.99381,-1.05441,49,4
2.85534,-7.2785,1.23834,75,12
2.90263,-7.40665,1.54632,46,13
3.43891,-8.77958,-0.494156,100,6
3.06403,-7.82652,1.94043,11,14
2.90285,-7.41481,-0.138991,7,7
2.9791,-7.6135,2.19064,30,15
3.30865,-8.49502,0.159131,67,8
0.192992,-0.495766,-0.122823,15,1
2.70781,-6.95953,0.391368,13,9
0.210716,-0.541575,-0.112959,16,2
2.37938,-6.11856,0.574356,43,10
0.250471,-0.644417,-0.109504,50,3
2.61797,-6.73906,0.887696,33,11
3.26632,-8.41236,-1.10804,13,4
2.88153,-7.42519,1.26149,73,12
3.03257,-7.81844,-0.733677,22,5
2.85404,-7.35816,1.5341,57,13
2.88557,-7.44329,-0.418374,29,6
3.31184,-8.55171,-0.160073,100,7
3.26244,-8.4636,0.158328,50,8
3.11556,-8.09098,0.454381,59,9
2.36194,-6.14026,0.575576,30,10
0.250943,-0.652706,-0.110756,49,3
2.58161,-6.7148,0.883309,30,11
3.2227,-8.38665,-1.10316,33,4
2.87118,-7.47578,1.26837,38,12
3.01454,-7.85316,-0.735943,9,5
2.82143,-7.35391,1.53105,43,13
2.79963,-7.30089,-0.409791,50,6
3.00934,-7.85188,1.94133,37,14
2.79676,-7.29722,-0.136408,7,7
2.9197,-7.62199,2.18702,4,15
3.22641,-8.46243,0.158084,35,8
3.2174,-8.44764,0.473745,51,9
0.206835,-0.543069,-0.112959,16,2
2.34617,-6.16336,0.576971,48,10
0.244448,-0.6425,-0.108878,50,3
2.52523,-6.64072,0.872341,42,11
3.2004,-8.42068,-1.10609,42,4
2.83254,-7.4567,1.26336,29,12
2.98358,-7.85432,-0.735071,23,5
2.77832,-7.31783,1.52151,22,13
2.73161,-7.19858,-0.40351,32,6
7.07366,-18.651,4.6052,21,14
3.33632,-8.80144,-0.164297,100,7
2.89586,-7.64348,2.19013,5,15
3.23003,-8.56157,0.159724,85,8
3.18859,-8.46069,0.47385,72,9
0.204938,-0.543787,-0.112959,16,2
2.32885,-6.1827,0.578017,39,10
0.252644,-0.67108,-0.113571,46,3
2.49644,-6.63463,0.870391,49,11
3.16749,-8.42251,-1.10487,55,4
3.03465,-8.07356,-0.754594,13,5
2.74171,-7.29808,1.51541,25,13
2.7177,-7.23799,-0.405185,29,6
7.07014,-18.8397,4.64569,37,14
3.16443,-8.43669,-0.157281,50,7
3.20991,-8.59902,0.160213,45,8
3.16881,-8.49797,0.475315,32,9
2.31908,-6.22253,0.58098,43,10
0.245473,-0.659,-0.111381,48,3
2.48365,-6.67121,0.874047,59,11
3.14153,-8.44281,-1.10609,52,4
2.69572,-7.24856,1.22488,49,12
3.08632,-8.29886,-0.77464,21,5
2.7299,-7.34441,1.52304,25,13
2.6792,-7.21186,-0.403196,18,6
6.76896,-18.2304,4.48957,26,14
3.09391,-8.33708,-0.155222,100,7
2.79876,-7.54578,2.15648,49,15
3.16949,-8.58204,0.15969,55,8
0.184224,-0.499091,-0.122823,15,1
3.20826,-8.69636,0.485782,128,9
3.17411,-8.60842,0.802704,58,10
0.234291,-0.635757,-0.107314,39,3
2.45898,-6.67612,0.87356,59,11
3.18199,-8.64374,-1.13095,42,4
2.67722,-7.27647,1.22801,24,12
3.04013,-8.26284,-0.770282,31,5
2.72661,-7.4147,1.53563,42,13
3.26308,-8.87836,-0.495726,38,6
6.57962,-17.9118,4.40544,35,14
3.06892,-8.35909,-0.155431,100,7
2.79902,-7.62805,2.17719,49,15
3.20196,-8.76397,0.162866,57,8
0.18248,-0.499731,-0.122823,15,1
3.05942,-8.38292,0.467674,43,9
0.199232,-0.545904,-0.112959,16,2
3.16793,-8.68496,0.808805,46,10
0.230041,-0.631004,-0.106375,39,3
2.41052,-6.61565,0.864541,52,11
3.23127,-8.87303,-1.15947,35,4
2.62883,-7.22266,1.21737,41,12
3.0358,-8.3408,-0.776558,24,5
2.70876,-7.44631,1.54021,37,13
2.60217,-7.15718,-0.399114,18,6
6.52372,-17.953,4.40994,22,14
3.0329,-8.35096,-0.155082,100,7
2.79479,-7.69951,2.19479,49,15
3.33311,-9.22269,0.171173,48,8
0.180735,-0.500365,-0.122823,15,1
3.01115,-8.34095,0.464743,65,9
0.197326,-0.546596,-0.112959,16,2
3.20184,-8.874,0.825365,52,10
0.226497,-0.628086,-0.10575,26,3
2.37597,-6.59228,0.860398,52,11
3.12964,-8.68816,-1.13387,30,4
2.60361,-7.23179,1.21737,68,12
3.02152,-8.39259,-0.780393,25,5
2.67478,-7.43355,1.53563,37,13
2.57177,-7.15119,-0.398277,39,6
6.72599,-18.7129,4.5908,3,14
3.0159,-8.39537,-0.15571,100,7
2.77181,-7.72013,2.19789,42,15
3.27262,-9.15518,0.169707,28,8
2.96926,-8.31567,0.462755,58,9
0.230275,-0.645618,-0.108566,25,3
2.33228,-6.54256,0.852842,26,11
3.26519,-9.16465,-1.19456,33,4
2.61943,-7.35621,1.23677,45,12
2.67474,-7.51154,-0.697595,22,5
2.63828,-7.41325,1.52953,44,13
2.55415,-7.18082,-0.399428,14,6
6.65214,-18.7124,4.58495,29,14
2.95511,-8.31728,-0.15407,100,7
2.73903,-7.71337,2.19323,36,15
3.21265,-9.08736,0.168241,41,8
2.93489,-8.31092,0.461917,60,9
0.193505,-0.54796,-0.112959,16,2
3.12787,-8.86232,0.822227,32,10
0.22342,-0.633378,-0.106375,26,3
3.12653,-8.86839,1.15459,21,11
2.97853,-8.45329,-1.10048,38,4
2.60686,-7.40257,1.24303,54,12
2.58827,-7.35389,1.51541,25,13
2.55558,-7.26506,-0.403615,47,6
6.3638,-18.1012,4.42974,26,14
2.93004,-8.33887,-0.154279,90,7
2.68776,-7.65363,2.17356,45,15
3.05948,-8.75119,0.161819,21,8
2.93088,-8.39276,0.465895,39,9
0.191591,-0.548632,-0.112959,16,2
3.09823,-8.87695,0.822576,22,10
0.220558,-0.632289,-0.106063,26,3
3.10471,-8.90549,1.158,21,11
2.95815,-8.48988,-1.10389,38,4
2.56346,-7.36126,1.23458,40,12
2.62223,-7.53425,-0.697943,2,5
2.55162,-7.33136,1.50892,25,13
2.53414,-7.28525,-0.404243,14,6
6.27626,-18.0534,4.41264,26,14
2.93241,-8.43971,-0.155955,33,7
2.67054,-7.69033,2.18133,44,15
3.14064,-9.085,0.167787,37,8
3.06194,-8.86736,0.491644,40,9
0.221458,-0.642431,-0.107627,25,3
3.01214,-8.73799,1.13485,28,11
2.94079,-8.53582,-1.10852,17,4
2.54675,-7.39631,1.23896,72,12
2.92591,-8.50229,-0.786668,46,5
2.5624,-7.4502,1.53143,61,13
2.51132,-7.30582,-0.404871,18,6
7.04392,-20.5035,5.00516,23,14
5.21138,-15.1693,-0.279971,39,7
2.66438,-7.75991,2.19841,46,15
2.94571,-8.62337,0.159061,20,8
3.0436,-8.92011,0.493947,120,9
3.02756,-8.87815,0.820658,36,10
0.217939,-0.63946,-0.107001,26,3
2.99226,-8.78467,1.13948,21,11
3.11547,-9.15164,-1.18701,17,4
2.56608,-7.54211,1.2618,51,12
2.86477,-8.42002,-0.778126,33,5
2.49024,-7.32341,1.50357,22,13
3.00443,-8.84061,-0.489341,38,6
6.23778,-18.3654,4.47788,26,14
5.18082,-15.2622,-0.281333,23,7
2.62971,-7.75132,2.19323,45,15
3.08203,-9.13696,0.505356,53,9
3.02392,-8.96984,0.828154,50,10
0.209398,-0.621497,-0.103873,27,3
2.94067,-8.73298,1.13144,28,11
5.17738,-15.3843,-1.99305,15,4
2.96859,-8.82607,1.47486,32,12
2.8468,-8.46397,-0.781264,31,5
2.46716,-7.3395,1.5051,21,13
2.41382,-7.18497,-0.39723,14,6
6.04586,-18.0065,4.3852,16,14
3.00844,-8.96526,-0.165065,43,7
2.6008,-7.75496,2.19168,54,15
2.87765,-8.63041,0.476781,54,9
0.183816,-0.551286,-0.112959,16,2
2.99322,-8.98224,0.828328,38,10
0.207228,-0.622224,-0.103873,13,3
2.91456,-8.75638,1.13314,42,11
5.0873,-15.293,-1.97891,18,4
2.93277,-8.82138,1.47236,40,12
2.33638,-7.02751,-0.647916,12,5
2.46258,-7.41142,1.51808,25,13
2.38684,-7.18766,-0.396916,21,6
6.02594,-18.157,4.41669,26,14
2.60758,-7.86157,-0.144576,56,7
2.59195,-7.81901,2.20721,44,15
3.01565,-9.13989,0.167997,50,8
2.85063,-8.64988,0.477304,35,9
2.96683,-9.00777,0.829723,64,10
0.207525,-0.630449,-0.105124,13,3
2.9001,-8.81553,1.13948,31,11
5.01219,-15.2447,-1.97038,24,4
6.83805,-20.8103,3.4694,16,12
2.31246,-7.03752,-0.64809,23,5
2.45139,-7.46473,1.52724,42,13
2.33807,-7.12384,-0.392938,47,6
5.97771,-18.2242,4.42794,26,14
2.59383,-7.91243,-0.145344,8,7
2.54419,-7.76559,2.18961,15,15
2.88764,-8.85567,0.162587,70,8
2.82626,-8.67258,0.478037,31,9
0.180571,-0.554422,-0.113341,16,2
2.93352,-9.01239,0.8292,52,10
0.202879,-0.623656,-0.103873,27,3
2.89755,-8.91244,1.15069,39,11
4.96447,-15.2791,-1.97258,9,4
2.30191,-7.08456,1.17983,5,12
2.31926,-7.14219,-0.65698,11,5
2.43017,-7.48818,1.53029,55,13
2.31195,-7.12816,-0.392729,18,6
5.90925,-18.2301,4.42434,29,14
2.39862,-7.39977,-0.13578,22,7
5.96384,-18.4094,5.18518,19,15
2.96871,-9.20778,0.168869,27,8
2.79107,-8.66719,0.477199,58,9
0.178634,-0.555049,-0.113341,16,2
2.90997,-9.04723,0.831466,32,10
0.203229,-0.631847,-0.105124,13,3
2.91171,-9.05806,1.16824,21,11
4.92895,-15.3427,-1.97867,45,4
2.27717,-7.09255,1.17983,10,12
2.31988,-7.22992,-0.664301,25,5
2.41432,-7.52424,1.53601,19,13
3.39586,-10.5896,-0.582813,16,6
5.56388,-17.3607,4.20883,15,14
2.54784,-7.95466,-0.145797,89,7
5.90484,-18.4467,5.18984,21,15
4.8206,-15.1323,0.277214,18,8
2.76262,-8.68259,0.477513,51,9
2.88237,-9.06442,0.832163,18,10
0.201022,-0.632553,-0.105124,27,3
3.41007,-10.7369,1.38322,13,11
2.84306,-8.95704,-1.15386,11,4
4.84884,-15.2855,2.53987,22,12
2.25068,-7.09933,-0.651576,25,5
2.38317,-7.52181,1.53372,24,13
3.33954,-10.5467,-0.579778,54,6
5.52442,-17.4469,4.22503,33,14
2.37043,-7.49069,-0.137141,100,7
5.88993,-18.6238,5.23384,14,15
2.97954,-9.47296,0.173337,31,8
2.72779,-8.68313,0.47699,61,9
2.88673,-9.19468,0.843145,22,10
0.199294,-0.63517,-0.105437,26,3
2.82841,-9.01995,1.16068,28,11
2.82149,-9.0034,-1.15849,13,4
2.22524,-7.10943,-0.651751,30,5
2.30694,-7.37498,1.50205,17,13
3.30504,-10.5722,-0.58051,67,6
2.31303,-7.39897,1.78971,20,14
3.2619,-10.4407,-0.190929,64,7
5.80896,-18.6047,5.22245,17,15
2.92938,-9.43416,0.17243,60,8
0.157673,-0.508104,-0.122823,15,1
2.50663,-8.08262,0.443495,75,9
2.85183,-9.2014,0.842796,40,10
0.198718,-0.641557,-0.106375,26,3
2.74544,-8.86907,1.13997,34,11
2.80432,-9.06488,-1.16507,27,4
2.75692,-8.9172,1.47831,65,12
2.19393,-7.09622,-0.649833,18,5
2.27365,-7.3586,1.49709,36,13
4.73305,-15.3279,-0.840725,26,6
2.29221,-7.42788,1.79466,13,14
3.22125,-10.4449,-0.19079,100,7
6.3803,-20.7009,5.80428,15,15
2.88881,-9.41947,0.171976,56,8
0.155899,-0.508651,-0.122823,15,1
2.50589,-8.18108,0.448415,56,9
0.17077,-0.557519,-0.113341,16,2
2.81911,-9.20939,0.842622,34,10
0.196477,-0.642247,-0.106375,26,3
2.74174,-8.96782,1.15142,28,11
2.80282,-9.17333,-1.17775,26,4
2.97615,-9.74671,1.61409,35,12
2.15169,-7.04667,-0.644604,13,5
2.24623,-7.36086,1.49594,22,13
5.59013,-18.3302,-1.00433,41,6
5.29611,-17.377,4.19399,33,14
3.16496,-10.391,-0.189603,74,7
6.57465,-21.5991,6.04964,12,15
2.842,-9.38357,0.171138,23,8
2.47065,-8.16258,0.446949,49,9
0.189286,-0.625762,-0.127079,14,2
3.07233,-10.1632,0.928906,48,10
0.190807,-0.631583,-0.104498,13,3
2.77353,-9.18638,1.17823,30,11
2.73394,-9.05525,-1.16141,27,4
2.23853,-7.41905,1.22738,45,12
2.11155,-7.00263,-0.639897,26,5
2.25564,-7.4852,1.5196,4,13
3.11985,-10.3596,-0.567008,37,6
5.24239,-17.4075,4.19714,12,14
3.13279,-10.4091,-0.189743,64,7
7.86903,-26.1625,7.32044,19,15
2.87049,-9.59218,0.174768,15,8
2.41667,-8.08079,0.44203,54,9
3.0158,-10.097,0.921933,38,10
0.193231,-0.647355,-0.107001,13,3
2.751,-9.22216,1.18165,5,11
2.70333,-9.06237,-1.16117,23,4
2.20658,-7.40182,1.22332,60,12
2.97632,-9.99025,-0.911998,22,5
5.67617,-19.0646,3.86655,10,13
3.0832,-10.3622,-0.566589,43,6
4.5294,-15.2227,3.6667,26,14
2.18064,-7.33349,-0.133546,100,7
6.45327,-21.7163,6.07034,18,15
2.83584,-9.59206,0.174594,40,8
2.95064,-9.99319,0.546073,39,9
0.165118,-0.559219,-0.113341,16,2
2.97497,-10.0821,0.919667,16,10
0.193318,-0.655571,-0.108253,12,3
3.18109,-10.7945,1.38175,35,11
2.71262,-9.21076,-1.17896,38,4
2.18017,-7.40758,1.223,52,12
2.49428,-8.47482,-0.772897,6,5
5.5758,-18.9572,3.84099,19,13
5.26742,-17.9203,-0.978892,14,6
4.46745,-15.2085,3.6595,42,14
2.14995,-7.32379,-0.133232,81,7
6.36873,-21.709,6.06206,21,15
2.89366,-9.91479,0.180283,31,8
2.92412,-10.0322,0.547643,10,9
0.163165,-0.559792,-0.113341,16,2
2.92806,-10.0522,0.916007,46,10
0.183299,-0.629689,-0.103873,13,3
3.14617,-10.8151,1.38297,48,11
2.63612,-9.06767,-1.15947,31,4
2.86689,-9.86789,1.62754,39,12
2.06057,-7.09253,-0.646173,12,5
5.53642,-19.0689,3.85968,17,13
2.32136,-8.0006,-0.436587,39,6
2.79003,-9.62214,2.31295,14,14
2.08876,-7.20833,-0.130998,100,7
6.27786,-21.6791,6.04757,6,15
2.33538,-8.10705,0.147263,40,8
3.07793,-10.6988,0.583441,37,9
0.161112,-0.560386,-0.113341,16,2
2.26481,-7.87759,0.717117,45,10
0.187646,-0.653108,-0.107627,12,3
3.08758,-10.7535,1.37371,26,11
2.61704,-9.12071,-1.16507,9,4
2.83188,-9.87594,1.62723,60,12
2.03785,-7.11152,-0.647219,40,5
2.13493,-7.45519,1.50739,3,13
2.84538,-9.94268,-0.541991,38,6
2.7591,-9.64119,2.3152,22,14
2.03939,-7.13098,-0.129462,100,7
4.4609,-15.6084,4.34971,22,15
2.97456,-10.47,0.189987,18,8
0.159057,-0.560973,-0.113341,16,2
2.22397,-7.84366,0.713283,67,10
0.178788,-0.630984,-0.103873,13,3
3.05355,-10.7838,1.37615,35,11
2.60306,-9.199,-1.17385,11,4
2.82792,-10.0003,1.646,49,12
2.01882,-7.14387,-0.649485,27,5
2.10705,-7.46108,1.50701,4,13
2.23987,-7.93667,-0.43219,29,6
2.72957,-9.67186,2.32015,48,14
2.00618,-7.11339,-0.129008,91,7
2.93185,-10.4654,0.189708,13,8
2.1317,-7.61438,0.414396,66,9
0.157098,-0.561525,-0.113341,16,2
2.21613,-7.9266,0.720081,16,10
0.18179,-0.650661,-0.107001,26,3
3.0092,-10.7778,1.37396,52,11
2.57146,-9.20994,-1.17409,2,4
2.79034,-10.0006,1.64444,56,12
2.15708,-7.73622,-0.70265,50,5
2.08258,-7.47406,1.50815,7,13
2.69527,-9.67946,2.3197,61,14
2.00975,-7.22245,-0.130858,79,7
4.32736,-15.5617,4.32797,6,15
2.04206,-7.38848,0.401731,114,9
0.155235,-0.562043,-0.113341,16,2
2.15802,-7.81867,0.709622,20,10
0.17648,-0.639834,-0.105124,13,3
2.9898,-10.847,1.38151,35,11
5.08762,-18.4579,-2.35086,10,4
4.17665,-15.1632,2.49106,22,12
2.1256,-7.7222,-0.700732,47,5
2.05101,-7.45632,1.50319,15,13
2.7194,-9.89297,-0.5377,45,6
2.66884,-9.70901,2.32464,69,14
1.96725,-7.16159,-0.129636,100,7
4.26806,-15.5481,4.32021,15,15
1.99076,-7.29199,0.13194,75,8
2.00651,-7.35474,0.399533,72,9
0.15337,-0.562554,-0.113341,16,2
2.81816,-10.344,0.93797,53,10
0.170206,-0.625168,-0.102621,28,3
5.13009,-18.8558,2.39936,5,11
2.1695,-7.97408,-1.01468,63,4
4.159,-15.2971,2.51077,6,12
2.01431,-7.41389,-0.672145,62,5
2.02165,-7.44602,1.49976,3,13
2.7028,-9.96169,-0.540945,66,6
2.64785,-9.75918,2.33454,16,14
2.34642,-8.65418,-0.156513,100,7
5.20264,-19.2019,5.33064,18,15
1.95564,-7.258,0.131207,35,8
1.99198,-7.398,0.401522,33,9
0.151504,-0.56306,-0.113341,16,2
2.80351,-10.4264,0.944594,25,10
0.168132,-0.625729,-0.102621,14,3
2.90595,-10.8225,1.37591,42,11
2.82101,-10.5062,-1.33569,15,4
1.99281,-7.43207,-0.673191,62,5
4.16868,-15.5577,3.13079,11,13
2.75757,-10.2986,-0.558739,40,6
2.60993,-9.7472,2.32959,24,14
2.03084,-7.5898,-0.137141,93,7
5.19583,-19.4318,5.38965,22,15
1.9352,-7.29865,0.131801,82,8
1.9712,-7.44489,0.403615,127,9
0.149242,-0.563664,-0.113341,16,2
2.04052,-7.71215,0.697943,26,10
0.167638,-0.634038,-0.103873,13,3
2.82953,-10.7093,1.36006,28,11
1.8846,-7.13796,-0.906464,40,4
2.68144,-10.1632,1.66478,42,12
1.97363,-7.48047,-0.676851,53,5
4.07867,-15.4699,3.10981,24,13
2.0944,-7.94945,-0.43083,39,6
2.5661,-9.74674,2.32689,37,14
2.06517,-7.84964,-0.141679,24,7
4.04259,-15.3766,4.26016,15,15
1.89758,-7.25893,0.130963,81,8
1.94066,-7.43434,0.402673,117,9
2.00755,-7.69609,0.695851,75,10
0.165424,-0.634619,-0.103873,13,3
2.80363,-10.7633,1.36567,35,11
1.97918,-7.60363,-0.964718,38,4
2.64445,-10.1668,1.66384,10,12
1.94901,-7.4931,-0.677374,16,5
4.01674,-15.4537,3.1037,40,13
2.74096,-10.5529,-0.571404,43,6
2.50955,-9.66888,2.3062,52,14
3.89146,-15.0147,4.15612,35,15
1.84877,-7.1745,0.129322,100,8
1.94655,-7.56486,0.409372,117,9
0.145303,-0.564692,-0.113341,16,2
1.97968,-7.69919,0.695503,71,10
0.163208,-0.635193,-0.103873,13,3
2.72655,-10.6192,1.34617,40,11
1.95016,-7.60088,-0.963499,35,4
1.90404,-7.42652,-0.670751,37,5
3.97739,-15.5246,3.11515,20,13
1.78771,-6.9829,-0.377761,31,6
2.46805,-9.64737,2.299,63,14
1.94346,-7.60232,-0.136966,100,7
3.94853,-15.4569,4.27466,18,15
1.82323,-7.17897,0.129287,100,8
1.90393,-7.50772,0.405918,108,9
0.143331,-0.565196,-0.113341,16,2
1.94496,-7.67515,0.692714,46,10
0.15905,-0.628099,-0.102621,14,3
2.6958,-10.6537,1.34934,28,11
1.93092,-7.63651,-0.967155,36,4
2.53083,-10.0164,1.6363,65,12
1.88152,-7.44664,-0.671971,31,5
3.91212,-15.4947,3.10637,23,13
1.76577,-6.99878,-0.378284,70,6
2.45056,-9.72017,2.3143,63,14
1.91642,-7.60712,-0.136932,85,7
4.82362,-19.1612,5.2944,18,15
1.78068,-7.11545,0.128031,81,8
1.85544,-7.42519,0.401103,77,9
0.141358,-0.565692,-0.113341,16,2
1.93892,-7.76502,0.700209,45,10
0.160682,-0.643983,-0.105124,13,3
3.81164,-15.2877,1.93455,41,11
2.1634,-8.68336,-1.09877,17,4
1.87785,-7.54287,1.23114,27,12
1.85985,-7.47056,-0.67354,38,5
2.61577,-10.5147,2.10615,31,13
1.73795,-6.99134,-0.377552,52,6
2.45138,-9.86862,2.34759,65,14
2.13603,-8.60551,-0.154768,23,7
3.84145,-15.4878,4.27569,31,15
1.74147,-7.06338,0.126984,56,8
1.82139,-7.39865,0.399323,74,9
1.94273,-7.89749,0.71154,46,10
0.161263,-0.65605,-0.107001,13,3
2.65214,-10.7976,1.36518,32,11
2.08339,-8.48843,-1.07318,22,4
1.86139,-7.58967,1.23771,42,12
1.84563,-7.52538,-0.677897,10,5
2.58232,-10.5371,2.10882,31,13
1.72969,-7.06332,-0.38111,73,6
2.42155,-9.89605,2.35209,58,14
2.13067,-8.71393,-0.156583,100,7
3.78507,-15.4917,4.2731,25,15
1.72954,-7.12188,0.127926,79,8
1.78755,-7.37196,0.397544,77,9
0.137405,-0.566666,-0.113341,16,2
1.92642,-7.9507,0.715723,37,10
0.154323,-0.63741,-0.103873,13,3
2.56402,-10.5984,1.33886,34,11
2.08173,-8.61142,-1.08781,61,4
1.81726,-7.52315,1.22582,104,12
2.56901,-10.6434,2.12828,44,13
1.69706,-7.0363,-0.379331,77,6
2.40936,-9.99727,2.37413,38,14
2.08292,-8.64938,-0.155292,100,7
3.69527,-15.3565,4.23221,23,15
1.69584,-7.09092,0.127263,61,8
1.77433,-7.43061,0.40037,31,9
1.89541,-7.94381,0.714503,73,10
0.154846,-0.649473,-0.10575,13,3
2.58359,-10.8448,1.36884,35,11
2.02086,-8.48925,-1.07148,44,4
1.80013,-7.56789,1.23208,103,12
2.51959,-10.6007,2.11798,44,13
1.69141,-7.12186,-0.383623,94,6
2.3983,-10.1061,2.39798,50,14
2.03887,-8.59822,-0.154244,100,7
2.66264,-11.2375,3.09444,32,15
1.67474,-7.11237,0.127542,67,8
1.74656,-7.42898,0.399951,128,9
0.133446,-0.567611,-0.113341,16,2
1.85081,-7.87861,0.708053,76,10
0.150772,-0.642318,-0.104498,13,3
2.674,-11.4007,1.43781,37,11
1.97627,-8.43247,-1.06343,41,4
1.7719,-7.56643,1.23083,66,12
1.66314,-7.102,-0.638154,40,5
2.47675,-10.5846,2.11302,42,13
1.66472,-7.11994,-0.383204,100,6
2.36966,-10.1429,2.40473,47,14
2.01157,-8.61697,-0.154454,25,7
2.61638,-11.2166,3.08616,30,15
1.64042,-7.07727,0.126809,88,8
1.71341,-7.4039,0.398277,117,9
1.85427,-8.01897,0.720081,16,10
0.142304,-0.615895,-0.100118,14,3
1.71207,-7.41578,0.934494,31,11
1.96958,-8.53797,-1.07586,45,4
1.73084,-7.50905,1.2205,56,12
1.62134,-7.03399,-0.631531,50,5
2.43759,-10.5836,2.11111,23,13
1.66494,-7.2347,-0.389066,80,6
2.33991,-10.1758,2.41058,33,14
1.98999,-8.66097,-0.155117,100,7
3.63671,-15.8406,4.35489,15,15
1.62193,-7.11024,0.127298,82,8
1.69373,-7.43096,0.399428,56,9
0.12948,-0.568529,-0.113341,16,2
1.83909,-8.08173,0.725136,84,10
0.143657,-0.631797,-0.102621,14,3
1.69189,-7.44687,0.937663,27,11
1.95514,-8.61255,-1.08439,52,4
1.69456,-7.46466,1.21237,34,12
1.59898,-7.04932,-0.632402,40,5
1.63968,-7.24047,-0.389066,17,6
2.28761,-10.1098,2.39303,21,14
1.86991,-8.26379,-0.147892,89,7
3.4883,-15.4286,4.23842,15,15
1.62464,-7.23265,0.129392,35,8
0.143287,-0.639981,-0.103873,13,3
1.66502,-7.44276,0.936444,58,11
1.95342,-8.73909,-1.09951,85,4
1.66677,-7.46282,1.21112,66,12
1.5761,-7.06263,-0.633099,51,5
1.65696,-7.42497,1.47877,31,13
1.61479,-7.24197,-0.388856,21,6
2.26,-10.1439,2.39933,71,14
1.84061,-8.26832,-0.147857,89,7
4.8748,-21.9164,6.01599,23,15
1.63304,-7.39058,0.132115,48,8
1.54302,-7.00058,0.627173,84,10
0.137654,-0.625044,-0.10137,14,3
1.6322,-7.41751,0.932544,54,11
1.8888,-8.59076,-1.08001,48,4
1.63944,-7.4628,1.21018,68,12
1.5651,-7.13037,-0.638677,42,5
1.62135,-7.38661,1.46999,13,13
2.31927,-10.5839,2.50146,24,14
1.65948,-7.57927,-0.135431,83,7
4.47748,-20.4669,5.61379,19,15
1.56647,-7.20864,0.128764,41,8
1.49514,-6.89201,0.369597,55,9
0.123519,-0.569853,-0.113341,16,2
1.51229,-6.98282,0.625081,22,10
0.137033,-0.633267,-0.102621,14,3
1.60882,-7.4348,0.934007,27,11
