x, y, z, intensity, ring
-0.567756,0.376502,-0.132421,13,2
-16.1644,10.7234,1.6971,38,10
-0.697864,0.463133,-0.132656,57,3
-18.3655,12.1928,2.70672,6,11
-1.3014,0.864319,-0.191822,54,4
-19.3442,12.8522,3.6784,13,12
-1.30603,0.867723,-0.137183,50,5
-15.8207,10.5152,3.69254,13,13
-1.32222,0.879148,-0.0832142,25,6
-19.3314,12.8584,5.36013,29,14
-13.3452,8.87994,-0.279797,100,7
-19.9121,13.2546,6.4094,28,15
-22.5922,15.0785,0.474112,18,8
-12.8715,8.59393,0.811103,26,9
-0.579565,0.387106,-0.135474,12,2
-15.8355,10.581,1.66624,14,10
-0.699609,0.46764,-0.133282,35,3
-16.1221,10.7806,2.38133,20,11
-1.29357,0.865318,-0.191091,45,4
-16.4337,10.9931,3.13151,17,12
-1.31805,0.882022,-0.138752,21,5
-15.944,10.6736,3.72955,35,13
-13.2262,8.85751,-0.834235,61,6
-22.0426,14.7674,6.12542,16,14
-13.3039,8.91292,-0.279518,100,7
-19.8896,13.33,6.41561,24,15
-19.588,13.1675,0.411981,13,8
-13.027,8.76367,0.822826,15,9
-0.56518,0.380358,-0.132421,13,2
-15.4795,10.4214,1.6326,27,10
-0.696416,0.468854,-0.132969,28,3
-15.0242,10.1187,2.22412,33,11
-1.29728,0.87404,-0.192066,31,4
-16.4116,11.0614,3.13463,17,12
-12.2658,8.27027,-1.29426,10,5
-15.7929,10.6485,3.70246,8,13
-13.0378,8.7941,-0.824187,61,6
-22.0226,14.86,6.13352,32,14
-13.286,8.96825,-0.279797,33,7
-19.883,13.4264,6.42855,14,15
-14.4656,9.79764,0.304963,8,8
-12.6392,8.56704,0.800217,47,9
-0.563915,0.38223,-0.132421,13,2
-15.4432,10.4716,1.63243,13,10
-0.706218,0.479045,-0.135159,26,3
-14.951,10.1455,2.21851,47,11
-1.29915,0.881908,-0.192797,7,4
-14.956,10.1565,2.86338,19,12
-11.6944,7.94153,-1.23674,27,5
-18.2225,12.3793,4.28214,9,13
-13.1854,8.9608,-0.835491,71,6
-21.9706,14.9368,6.13352,56,14
-13.2397,9.00445,-0.279483,32,7
-27.6864,18.8368,8.97274,15,15
-14.4578,9.86611,0.305522,1,8
-12.629,8.62462,0.801473,47,9
-0.582033,0.397483,-0.137001,12,2
-15.4132,10.5299,1.63312,43,10
-0.693125,0.473705,-0.132969,21,3
-18.0029,12.3084,2.67771,45,11
-11.522,7.88044,-1.71397,33,4
-17.8224,12.1941,3.42028,18,12
-11.6699,7.98455,-1.23709,20,5
-16.1022,11.0213,3.7929,8,13
-13.1887,9.03047,-0.837689,48,6
-19.6112,13.4331,5.48791,31,14
-13.1472,9.00879,-0.278191,23,7
-19.819,13.5856,6.43838,24,15
-13.2302,9.09628,0.280251,17,8
-0.483292,0.332406,-0.135421,13,1
-12.6464,8.69814,0.804404,51,9
-0.577407,0.397286,-0.136238,12,2
-15.3632,10.5746,1.63173,37,10
-0.70123,0.482843,-0.134847,26,3
-14.9289,10.2834,2.22582,28,11
-11.4599,7.89383,-1.70861,20,4
-18.1284,12.4919,3.48692,22,12
-11.7141,8.075,-1.24476,27,5
-29.9567,20.658,7.07329,27,13
-13.1587,9.07759,-0.837794,39,6
-16.0568,11.0769,4.50352,30,14
-13.132,9.06256,-0.278506,32,7
-19.7452,13.6315,6.42907,10,15
-15.7269,10.8898,0.333899,8,8
-0.51743,0.358419,-0.145318,12,1
-12.5321,8.6809,0.798961,45,9
-0.572859,0.396962,-0.135474,12,2
-15.5819,10.8015,1.65875,35,10
-0.701248,0.486291,-0.135159,33,3
-14.8164,10.2785,2.21412,38,11
-11.3048,7.8424,-1.68935,38,4
-18.1063,12.5655,3.49068,22,12
-11.4991,7.98313,-1.22471,15,5
-29.8719,20.746,7.06947,27,13
-13.0564,9.07103,-0.833189,48,6
-16.0904,11.179,4.52332,37,14
-13.2234,9.19051,-0.281088,32,7
-19.7412,13.7256,6.44252,7,15
-13.1007,9.13578,0.278785,29,8
-12.5001,8.72345,0.798856,59,9
-0.52968,0.369648,-0.125552,14,2
-15.4479,10.7846,1.64829,47,10
-0.70449,0.492007,-0.136098,38,3
-17.9701,12.5548,2.69161,39,11
-11.0691,7.73625,-1.65815,17,4
-23.0891,16.1431,4.46214,12,12
-11.7795,8.23585,-1.25748,27,5
-29.6855,20.7628,7.04162,6,13
-13.0426,9.12573,-0.834235,26,6
-16.0194,11.2127,4.51432,30,14
-19.8308,13.8908,6.48756,14,15
-13.1784,9.25847,0.281123,43,8
-14.0642,9.88818,0.901016,41,9
-0.573356,0.403111,-0.136238,12,2
-15.3955,10.8282,1.64672,20,10
-0.681766,0.479687,-0.132031,36,3
-17.8661,12.5751,2.68259,26,11
-12.0353,8.47427,-1.80732,22,4
-17.7888,12.53,3.44625,46,12
-11.6546,8.20922,-1.2472,20,5
-26.7449,18.8455,6.35966,27,13
-12.8278,9.04231,-0.822512,42,6
-15.8925,11.2068,4.48957,39,14
-12.2341,8.63018,-0.261332,100,7
-20.8776,14.733,6.8468,4,15
-13.208,9.34832,0.28245,52,8
-0.43419,0.307424,-0.122823,15,1
-14.2139,10.064,0.912739,7,9
-0.57515,0.407379,-0.137001,12,2
-17.6644,12.5164,1.89407,34,10
-0.696203,0.493487,-0.135159,33,3
-17.7654,12.5972,2.67406,26,11
-12.6468,8.97104,-1.90384,40,4
-17.7456,12.5878,3.44594,20,12
-11.3643,8.06422,-1.21913,47,5
-26.695,18.9501,6.36348,16,13
-12.8206,9.10438,-0.824082,71,6
-15.9073,11.3006,4.50487,20,14
-15.5603,11.0541,-0.333166,59,7
-20.6712,14.6902,6.79504,4,15
-13.1851,9.39787,0.282624,56,8
-0.433168,0.308862,-0.122823,15,1
-0.573724,0.409384,-0.137001,12,2
-15.6455,11.1681,1.68176,28,10
-0.684916,0.488907,-0.133282,35,3
-17.7025,12.6411,2.67089,39,11
-11.5251,8.23291,-1.73908,18,4
-17.6983,12.6474,3.44531,12,12
-11.2663,8.05401,-1.21164,27,5
-27.7676,19.8503,6.63481,6,13
-15.8492,11.3385,4.49902,27,14
-12.0726,8.63994,-0.259133,16,7
-20.4627,14.6498,6.74327,4,15
-13.1473,9.44034,0.28252,26,8
-0.432088,0.310372,-0.122823,15,1
-0.553231,0.397537,-0.132421,13,2
-17.5141,12.5898,1.8871,25,10
-0.697639,0.501674,-0.136098,19,3
-17.813,12.8141,2.69429,39,11
-13.2735,9.55203,-2.00792,18,4
-21.0442,15.1441,4.10641,24,12
-11.474,8.26012,-1.23691,20,5
-27.4145,19.7429,6.56688,23,13
-11.8314,8.52365,-0.76421,29,6
-26.2833,18.9422,7.47962,22,14
-11.906,8.58054,-0.256166,76,7
-20.7149,14.9345,6.84266,4,15
-12.8291,9.27649,0.276341,49,8
-0.431056,0.311803,-0.122823,15,1
-12.6177,9.13033,0.816232,17,9
-0.631356,0.457026,-0.151502,9,2
-17.4765,12.6555,1.88779,17,10
-0.694372,0.502826,-0.135785,13,3
-24.2571,17.5721,3.67777,24,11
-11.2566,8.15741,-1.7069,54,4
-37.266,27.0157,7.29016,9,12
-11.3161,8.20655,-1.22297,30,5
-27.4697,19.9213,6.59589,5,13
-11.8241,8.57809,-0.76557,35,6
-19.9022,14.4439,5.67731,20,14
-11.706,8.4987,-0.252501,94,7
-19.0479,13.834,6.30794,6,15
-12.7562,9.29178,0.275469,34,8
-0.429965,0.313306,-0.122823,15,1
-12.5615,9.15667,0.814662,18,9
-0.629837,0.459117,-0.151502,9,2
-15.3964,11.2273,1.66711,28,10
-0.695804,0.507575,-0.136411,6,3
-24.3816,17.7924,3.70605,24,11
-11.0517,8.0679,-1.68009,49,4
-28.0832,20.5086,5.50775,19,12
-11.292,8.24638,-1.22332,30,5
-28.478,20.8046,6.85539,6,13
-11.857,8.66527,-0.769653,35,6
-19.9728,14.6018,5.71196,27,14
-11.728,8.57728,-0.253618,100,7
-18.8218,13.7704,6.24893,19,15
-14.0183,10.2862,0.303497,21,8
-0.428869,0.314805,-0.122823,15,1
-0.587087,0.431101,-0.14158,11,2
-15.3427,11.2703,1.66555,28,10
-9.25796,6.80313,-1.81965,6,3
-28.0061,20.5875,4.26786,27,11
-11.073,8.14289,-1.68765,22,4
-28.0209,20.6136,5.50962,14,12
-11.2327,8.26331,-1.22001,30,5
-24.5533,18.0692,5.92576,4,13
-11.9231,8.77765,-0.775933,35,6
-19.9845,14.7177,5.72995,41,14
-11.6883,8.61105,-0.253409,69,7
-18.9089,13.9357,6.29396,3,15
-15.2013,11.2361,0.329955,16,8
-0.459105,0.339472,-0.131821,14,1
-12.3576,9.14081,0.805555,13,9
-0.579265,0.428477,-0.140054,11,2
-18.6874,13.828,2.03387,19,10
-10.4757,7.75447,-2.06431,6,3
-28.001,20.7348,4.2781,14,11
-11.0653,8.19685,-1.69082,56,4
-28.0552,20.79,5.53058,9,12
-11.1622,8.27162,-1.21547,30,5
-27.4614,20.3575,6.64473,6,13
-12.2053,9.05121,-0.796344,35,6
-20.0113,14.8454,5.75245,35,14
-11.6052,8.61247,-0.252257,29,7
-18.8741,14.012,6.29862,22,15
-12.2813,9.14421,0.267266,60,8
-0.426661,0.317791,-0.122823,15,1
-0.584063,0.435189,-0.14158,11,2
-19.0128,14.1717,2.07466,41,10
-0.684117,0.51011,-0.135159,6,3
-15.0701,11.2411,2.30845,43,11
-11.0748,8.26392,-1.69667,21,4
-30.9141,23.0762,6.11002,5,12
-16.0556,11.9849,-1.75288,20,5
-19.0199,14.2029,4.61414,11,13
-11.7512,8.7782,-0.768711,16,6
-20.0936,15.0155,5.79114,28,14
-11.6279,8.69244,-0.253409,27,7
-18.9519,14.1727,6.34107,13,15
-11.6222,8.71669,0.253583,33,8
-0.425549,0.319279,-0.122823,15,1
-11.9197,8.94303,0.780957,45,9
-0.623366,0.467866,-0.151502,9,2
-14.577,10.9447,1.59478,47,10
-10.9157,8.19874,-2.16224,6,3
-14.9848,11.2591,2.30138,53,11
-11.1395,8.3729,-1.71105,45,4
-18.6392,14.01,3.69311,6,12
-13.1823,9.91194,-1.44295,31,5
-18.9342,14.242,4.60537,30,13
-11.8369,8.90683,-0.776352,19,6
-20.1422,15.1617,5.82038,64,14
-11.6022,8.73336,-0.253479,100,7
-18.9758,14.2889,6.36488,6,15
-12.1262,9.1577,0.265242,52,8
-0.468025,0.353579,-0.135421,13,1
-11.9792,9.05322,0.786923,75,9
-0.621729,0.470039,-0.151502,9,2
-12.8542,9.72156,1.41001,28,10
-9.72416,7.35433,-1.93103,10,3
-14.9837,11.3362,2.30699,53,11
-11.0848,8.38943,-1.7069,33,4
-18.639,14.1119,3.7028,33,12
-13.281,10.0589,-1.45759,25,5
-18.7241,14.1815,4.56568,52,13
-13.5394,10.2583,-0.890235,13,6
-22.3096,16.9094,6.46284,36,14
-11.6003,8.79555,-0.254107,100,7
-18.9751,14.3924,6.38144,27,15
-12.3122,9.36583,0.270024,61,8
-0.479194,0.364651,-0.13902,13,1
-12.0238,9.15305,0.791948,34,9
-0.54206,0.41264,-0.132421,13,2
-14.5433,11.075,1.59931,37,10
-9.74715,7.42533,-1.94073,3,3
-14.9772,11.4137,2.31211,24,11
-18.6085,14.1913,3.70656,13,12
-12.2226,9.32122,-1.34481,5,5
-11.7459,8.96417,-0.774363,16,6
-20.147,15.3813,5.85188,7,14
-11.6538,8.90032,-0.255957,68,7
-18.9186,14.4539,6.37937,16,15
-14.2001,10.8804,0.312258,16,8
-0.422238,0.323644,-0.122823,15,1
-12.1107,9.28612,0.799798,30,9
-0.571776,0.438422,-0.140054,11,2
-12.0779,9.26437,1.33174,23,10
-9.63027,7.38957,-1.92258,10,3
-18.5433,14.2339,2.87027,45,11
-12.3012,9.44589,-1.90433,17,4
-18.4398,14.1647,3.68278,49,12
-12.3432,9.48156,-1.36172,26,5
-18.9686,14.5762,4.65002,5,13
-11.6638,8.96616,-0.771013,19,6
-21.4758,16.5147,6.25454,34,14
-11.5481,8.88363,-0.254316,100,7
-18.9706,14.5988,6.41405,14,15
-12.169,9.39169,0.268313,13,8
-0.421106,0.325116,-0.122823,15,1
-12.0134,9.27496,0.795402,67,9
-0.579565,0.447615,-0.142344,11,2
-12.0376,9.30038,1.33087,63,10
-10.2781,7.94378,-2.05743,13,3
-18.4354,14.2536,2.86125,52,11
-13.6735,10.5757,-2.12248,19,4
-18.0192,13.9369,3.60801,42,12
-11.4686,8.87352,-1.26864,10,5
-23.9199,18.5141,5.87959,27,13
-11.6341,9.00805,-0.771118,29,6
-21.3795,16.5597,6.24329,8,14
-11.5186,8.92188,-0.254316,26,7
-23.5171,18.222,7.97163,17,15
-12.1725,9.45899,0.269081,4,8
-0.463105,0.359999,-0.135421,13,1
-12.0424,9.36465,0.799484,30,9
-0.537709,0.418294,-0.132421,13,2
-12.0035,9.34112,1.33069,20,10
-10.1971,7.93536,-2.04648,19,3
-18.493,14.3964,2.87758,61,11
-11.9798,9.32938,-1.86436,56,4
-18.2292,14.2012,3.65994,27,12
-11.3228,8.8241,-1.25591,27,5
-18.6506,14.5348,4.59621,5,13
-11.957,9.32165,-0.794565,26,6
-21.4212,16.706,6.27164,42,14
-11.5899,9.04199,-0.256585,100,7
-18.9774,14.8108,6.45029,14,15
-0.443433,0.347196,-0.130022,14,1
-11.9531,9.35898,0.795611,17,9
-0.613598,0.480604,-0.151502,9,2
-12.123,9.49885,1.34743,45,10
-19.8032,15.5277,3.08988,8,11
-12.0253,9.4324,-1.87654,48,4
-17.9799,14.1031,3.61927,25,12
-11.422,8.96245,-1.27021,27,5
-23.7316,18.628,5.86432,18,13
-11.3997,8.95135,-0.759604,35,6
-17.9362,14.089,5.26565,27,14
-11.6416,9.1446,-0.2584,93,7
-18.2689,14.3556,6.22563,13,15
-12.3953,9.76813,0.275469,49,8
-0.417793,0.329362,-0.122823,15,1
-0.587255,0.463287,-0.145396,10,2
-12.5121,9.87436,1.39449,100,10
-10.0839,7.95809,-2.03459,5,3
-19.694,15.5478,3.08086,35,11
-11.9737,9.45623,-1.87338,65,4
-17.8732,14.1205,3.60769,8,12
-11.4657,9.06156,-1.27857,15,5
-23.5495,18.6116,5.83456,22,13
-11.2963,8.93088,-0.754685,35,6
-17.9184,14.1714,5.2742,33,14
-11.3791,9.0028,-0.253269,22,7
-18.1869,14.3941,6.21476,15,15
-12.3205,9.77562,0.274526,21,8
-0.416699,0.330745,-0.122823,15,1
-12.2473,9.72453,0.819581,53,9
-0.585797,0.46513,-0.145396,10,2
-14.4858,11.506,1.61848,20,10
-10.8632,8.63173,-2.19759,12,3
-24.0292,19.1,3.76893,12,11
-25.7709,20.4991,5.21553,17,12
-13.2412,10.5326,-1.48025,15,5
-23.5998,18.7789,5.86242,18,13
-11.2291,8.93844,-0.752172,35,6
-16.7523,13.3397,4.94397,4,14
-11.5384,9.19124,-0.257493,93,7
-18.1723,14.4808,6.22615,13,15
-0.415542,0.332198,-0.122823,15,1
-12.3038,9.83958,0.825652,38,9
-0.556571,0.445101,-0.138527,12,2
-14.4642,11.5714,1.62057,33,10
-10.8223,8.66096,-2.1954,10,3
-18.193,14.5649,2.86149,30,11
-11.1668,8.94312,-1.75662,20,4
-22.7716,18.2435,4.62139,16,12
-13.9974,11.214,-1.56915,3,5
-19.1726,15.3656,4.77595,15,13
-11.201,8.98008,-0.752382,35,6
-16.7118,13.403,4.94577,37,14
-11.4829,9.21269,-0.256969,100,7
-18.1126,14.5369,6.22305,6,15
-12.3672,9.95418,0.277109,51,8
-0.41438,0.333646,-0.122823,15,1
-12.0874,9.73588,0.813406,36,9
-0.57642,0.464282,-0.14387,11,2
-14.6192,11.7794,1.64254,54,10
-10.795,8.70116,-2.19603,19,3
-13.8244,11.1469,2.18049,46,11
-11.1201,8.96958,-1.75419,13,4
-18.6508,15.0493,3.79573,9,12
-13.6,10.9738,-1.52889,34,5
-16.6073,13.4052,4.14857,14,13
-11.1618,9.01285,-0.751858,42,6
-20.8292,16.8251,6.18165,33,14
-11.7057,9.45884,-0.262694,100,7
-18.0572,14.5964,6.22149,3,15
-12.4008,10.0527,0.278645,49,8
-0.452566,0.367004,-0.134521,14,1
-12.0332,9.76166,0.812045,58,9
-0.559549,0.453923,-0.140054,11,2
-10.7907,8.75996,-2.20135,25,3
-13.8594,11.2552,2.19219,47,11
-11.1442,9.05341,-1.76296,30,4
-22.7326,18.4743,4.63953,6,12
-11.3243,9.20298,-1.27666,28,5
-16.463,13.3839,4.12415,29,13
-11.279,9.17273,-0.761907,29,6
-16.5014,13.4247,4.91113,49,14
-11.3687,9.25224,-0.255852,76,7
-18.8991,15.3863,6.53,10,15
-13.1261,10.7169,0.295783,33,8
-0.466375,0.380909,-0.13902,13,1
-12.0238,9.82382,0.81372,49,9
-0.557961,0.455873,-0.140054,11,2
-18.7188,15.2993,2.1151,21,10
-10.7126,8.75881,-2.19165,12,3
-13.797,11.2847,2.18853,50,11
-11.1094,9.08974,-1.76247,13,4
-21.1088,17.2773,4.32041,6,12
-11.2982,9.2475,-1.27735,28,5
-14.6131,11.9649,3.67117,12,13
-13.3977,10.9737,-0.90761,27,6
-11.3533,9.30581,-0.256236,100,7
-18.2865,14.994,6.33641,10,15
-13.1643,10.8249,0.297494,77,8
-0.410863,0.337967,-0.122823,15,1
-0.556366,0.457818,-0.140054,11,2
-35.1647,28.9463,3.98476,15,10
-11.356,9.35117,-2.32994,14,3
-13.7575,11.3327,2.18853,50,11
-13.2944,10.9552,-2.11516,47,4
-18.7285,15.4385,3.84422,4,12
-13.1261,10.8203,-1.48827,21,5
-14.6091,12.0471,3.68071,27,13
-11.1638,9.20931,-0.758453,35,6
-16.4599,13.5829,4.92688,36,14
-14.7258,12.1563,-0.333306,100,7
-18.7152,15.4551,6.5036,14,15
-13.0864,10.8376,0.296586,43,8
-0.409681,0.3394,-0.122823,15,1
-17.1198,14.1828,1.1651,17,9
-0.557788,0.462263,-0.140817,11,2
-18.6667,15.4754,2.12137,53,10
-11.3917,9.4475,-2.34401,27,3
-13.7133,11.3769,2.1878,37,11
-11.1129,9.22286,-1.7732,11,4
-20.5453,17.051,4.22874,8,12
-13.7934,11.4515,-1.56845,13,5
-14.6198,12.1419,3.69406,29,13
-11.2653,9.35926,-0.767559,55,6
-18.9766,15.7715,5.69666,6,14
-14.6239,12.1539,-0.33191,100,7
-18.8392,15.6628,6.56469,14,15
-12.7924,10.6658,0.290722,39,8
-0.408553,0.340756,-0.122823,15,1
-13.6656,11.4019,0.932732,15,9
-0.538084,0.449111,-0.136238,12,2
-18.6279,15.5533,2.12311,59,10
-11.753,9.81313,-2.42505,14,3
-13.68,11.4261,2.18853,23,11
-13.6643,11.4171,-2.18634,21,4
-14.4291,12.0603,2.97851,19,12
-11.1748,9.34358,-1.27439,27,5
-14.6246,12.2281,3.70551,13,13
-15.9515,13.347,4.80181,46,14
-14.3973,12.0508,-0.327721,100,7
-16.6381,13.9314,5.81463,23,15
-13.2528,11.1283,0.302066,14,8
-0.407361,0.34218,-0.122823,15,1
-17.1207,14.3813,1.1718,6,9
-0.533586,0.448367,-0.135474,12,2
-18.5899,15.6265,2.12468,26,10
-12.9539,10.8928,-2.68066,24,3
-18.3812,15.462,2.94924,48,11
-13.2067,11.1132,-2.11931,23,4
-14.3603,12.0839,2.97257,12,12
-15.6052,13.1362,-1.7846,12,5
-20.6819,17.4158,5.25564,14,13
-11.9926,10.1023,-0.821779,42,6
-15.9242,13.4189,4.80765,51,14
-16.8075,14.1683,5.8902,19,15
-13.2265,11.1812,0.302311,1,8
-13.0174,11.0123,0.893584,24,9
-0.541009,0.457836,-0.137764,12,2
-18.5049,15.6655,2.1212,43,10
-10.4874,8.87821,-2.17632,48,3
-18.401,15.5831,2.96069,40,11
-10.0951,8.55216,-1.62452,45,4
-14.8696,12.6014,3.08708,16,12
-13.8298,11.7244,-1.58623,16,5
-14.4377,12.2397,3.67918,16,13
-11.4457,9.70663,-0.786505,19,6
-15.9257,13.5108,4.8216,21,14
-11.7932,10.0084,-0.269989,100,7
-14.1616,12.0226,4.97761,6,15
-12.9605,11.0342,0.29711,61,8
-0.405023,0.344945,-0.122823,15,1
-12.9002,10.9867,0.888037,35,9
-0.569377,0.485092,-0.145396,10,2
-18.5089,15.7746,2.12765,43,10
-10.3586,8.83146,-2.15598,40,3
-18.3209,15.6254,2.95655,24,11
-10.3023,8.78654,-1.66254,12,4
-14.8803,12.6955,3.09803,18,12
-13.5393,11.5555,-1.5573,9,5
-14.4711,12.3551,3.69864,43,13
-11.3176,9.66611,-0.780015,16,6
-13.9307,11.898,4.22953,3,14
-11.8208,10.0994,-0.271385,100,7
-16.7165,14.2874,5.89227,16,15
-12.3257,10.5644,0.283357,14,8
-0.403877,0.346286,-0.122823,15,1
-0.532,0.456302,-0.136238,12,2
-18.4958,15.8696,2.13218,5,10
-10.2993,8.84003,-2.14972,30,3
-17.5054,15.0304,2.83297,7,11
-10.3333,8.87238,-1.67229,50,4
-13.6423,11.7177,2.84836,9,12
-11.3807,9.77857,-1.31274,21,5
-13.4369,11.5494,3.4441,15,13
-12.3122,10.5864,-0.850983,61,6
-14.067,12.0953,4.28307,37,14
-11.8873,10.2247,-0.273689,89,7
-14.4315,12.4174,5.10132,3,15
-12.2376,10.5595,0.282136,47,8
-12.024,10.3825,0.83256,12,9
-0.533456,0.460629,-0.137001,12,2
-20.2328,17.4768,2.33909,12,10
-10.0711,8.70236,-2.10811,30,3
-18.4015,15.9062,2.98653,16,11
-10.3383,8.93956,-1.67814,52,4
-16.5221,14.2917,3.46002,10,12
-11.3947,9.85996,-1.31832,28,5
-16.7256,14.4728,4.29931,19,13
-12.866,11.137,-0.891805,43,6
-14.0483,12.1647,4.29027,40,14
-11.8409,10.2569,-0.273444,31,7
-14.3457,12.431,5.08631,19,15
-12.1418,10.551,0.280774,52,8
-0.442691,0.384825,-0.135421,13,1
-11.8927,10.3418,0.825966,9,9
-0.522877,0.45485,-0.134711,12,2
-12.1547,10.5771,1.40966,62,10
-14.2314,12.3887,2.31674,30,11
-10.2831,8.95473,-1.67424,19,4
-13.2355,11.5298,2.78015,22,12
-14.5581,12.6864,-1.68943,15,5
-13.4285,11.7062,3.4628,35,13
-14.0183,12.2289,4.29477,34,14
-11.5474,10.0734,-0.267476,25,7
-14.1669,12.3629,5.03817,22,15
-12.2068,10.6863,0.283183,84,8
-0.441277,0.386445,-0.135421,13,1
-11.8908,10.4169,0.828478,25,9
-0.527193,0.461848,-0.136238,12,2
-12.1297,10.63,1.41105,37,10
-14.1442,12.4041,2.30991,29,11
-12.8154,11.2427,-2.09323,9,4
-14.3334,12.5789,3.02044,15,12
-11.3301,9.94321,-1.31884,13,5
-13.3713,11.7387,3.4586,28,13
-13.0171,11.4317,-0.907924,3,6
-13.9975,12.2971,4.30151,43,14
-14.1374,12.4288,5.04387,19,15
-12.6479,11.1507,0.294317,33,8
-0.428233,0.377671,-0.131821,14,1
-11.8768,10.4782,0.830048,32,9
-0.528522,0.466283,-0.137001,12,2
-12.1239,10.6999,1.41471,31,10
-9.18713,8.11095,-1.94104,18,3
-18.2788,16.1433,2.99433,16,11
-9.05244,7.99766,-1.48315,18,4
-13.4916,11.9238,2.8518,31,12
-11.3252,10.0091,-1.32233,28,5
-13.3244,11.7801,3.45708,15,13
-13.6937,12.1109,-0.958062,38,6
-13.9968,12.3833,4.31456,34,14
-11.4929,10.1717,-0.267894,90,7
-14.2241,12.5933,5.09045,19,15
-14.0789,12.4998,0.328629,12,8
-0.421084,0.373987,-0.130022,14,1
-11.7852,10.4671,0.826071,19,9
-0.518085,0.460301,-0.134711,12,2
-14.3769,12.7778,1.6828,28,10
-9.19714,8.17709,-1.94917,30,3
-12.0147,10.6859,1.97428,25,11
-9.08082,8.07935,-1.49241,39,4
-13.5509,12.0564,2.87276,12,12
-11.372,10.1214,-1.33191,21,5
-13.27,11.8148,3.45364,34,13
-12.0122,10.6988,-0.843028,3,6
-13.9579,12.436,4.31591,34,14
-13.0358,11.6145,-0.304754,83,7
-14.1722,12.6314,5.08683,29,15
-12.4212,11.1019,0.290792,22,8
-0.448896,0.40136,-0.13902,13,1
-11.7233,10.4855,0.824291,17,9
-0.513549,0.459488,-0.133948,13,2
-13.627,12.1968,1.60001,6,10
-9.17292,8.21018,-1.9498,30,3
-12.0191,10.7615,1.98086,21,11
-9.05102,8.10677,-1.49192,10,4
-15.9936,14.3301,3.4012,20,12
-14.6941,13.1704,-1.72638,19,5
-13.2278,11.8561,3.45288,41,13
-12.4525,11.1652,-0.876523,3,6
-13.9514,12.5134,4.32671,34,14
-14.7455,13.2304,-0.345802,29,7
-14.0547,12.615,5.06043,14,15
-12.855,11.5706,0.301892,1,8
-0.424322,0.382061,-0.131821,14,1
-11.6588,10.4976,0.822198,27,9
-0.506187,0.455933,-0.132421,13,2
-13.7537,12.3926,1.6197,27,10
-9.14714,8.2448,-1.95043,30,3
-11.9048,10.7342,1.96819,17,11
-9.0521,8.162,-1.49656,46,4
-13.8235,12.4686,2.94848,4,12
-11.4597,10.3401,-1.35039,15,5
-13.2228,11.9351,3.46242,30,13
-12.4787,11.2675,-0.881128,37,6
-12.4793,11.268,3.88176,15,14
-14.712,13.2886,-0.346046,72,7
-14.1074,12.747,5.09459,19,15
-12.8758,11.6669,0.303288,8,8
-0.394175,0.357291,-0.122823,15,1
-0.516308,0.468159,-0.135474,12,2
-13.745,12.4676,1.62354,30,10
-9.17973,8.32951,-1.96325,35,3
-11.8016,10.7123,1.95698,21,11
-9.06467,8.22799,-1.50314,45,4
-13.8727,12.5967,2.96788,16,12
-11.4386,10.3901,-1.35196,28,5
-13.1962,11.9908,3.46585,9,13
-12.8285,11.6608,-0.908552,16,6
-12.3626,11.2372,3.85701,36,14
-11.7014,10.64,-0.276062,64,7
-12.626,11.4847,4.57333,16,15
-13.6851,12.4831,0.323323,10,8
-0.392988,0.358596,-0.122823,15,1
-11.5561,10.5485,0.82,20,9
-0.503152,0.45928,-0.132421,13,2
-13.6536,12.4674,1.61761,13,10
-9.09955,8.31194,-1.95199,20,3
-11.7821,10.7661,1.95966,42,11
-8.92894,8.16181,-1.48534,13,4
-13.7106,12.537,2.94253,25,12
-13.3479,12.2054,-1.5824,37,5
-13.5412,12.3909,-0.961935,73,6
-12.3894,11.3409,3.87771,42,14
-19.0485,17.4425,-0.450831,9,7
-12.5758,11.5196,4.56971,26,15
-12.7077,11.6731,0.301194,8,8
-0.414693,0.381062,-0.130022,14,1
-11.5266,10.5955,0.820523,30,9
-0.527563,0.484949,-0.139291,12,2
-13.5572,12.4665,1.61134,27,10
-9.10392,8.37442,-1.95919,60,3
-11.8978,10.9483,1.98525,8,11
-9.36045,8.61643,-1.56212,45,4
-13.5912,12.5153,2.92626,42,12
-11.1258,10.245,-1.3232,15,5
-13.0637,12.0338,3.4525,27,13
-11.4945,10.592,-0.819162,16,6
-13.7382,12.6639,4.31366,12,14
-13.4115,12.3671,-0.318437,37,7
-12.5483,11.5752,4.57437,24,15
-11.6482,10.775,0.27697,1,8
-0.390475,0.361331,-0.122823,15,1
-11.7739,10.8989,0.840829,24,9
-0.508578,0.470784,-0.134711,12,2
-11.6643,10.8013,1.39083,42,10
-9.07898,8.41017,-1.96012,56,3
-13.5718,12.5765,2.27189,29,11
-9.10612,8.44122,-1.52459,36,4
-12.1221,11.2409,2.6184,10,12
-11.1264,10.3176,-1.32756,13,5
-13.0735,12.1274,3.46624,15,13
-11.4238,10.6008,-0.816755,35,6
-13.6167,12.6402,4.28937,34,14
-14.4717,13.4385,-0.34472,14,7
-12.539,11.6479,4.58576,26,15
-12.7269,11.8556,0.303602,19,8
-0.44909,0.41849,-0.141719,13,1
-11.5823,10.7969,0.829839,26,9
-0.515548,0.480588,-0.137001,12,2
-13.8705,12.9345,1.65927,17,10
-8.75779,8.16962,-1.89692,43,3
-11.8763,11.0825,1.99451,12,11
-9.18108,8.57049,-1.54213,16,4
-11.1108,10.3755,-1.33,13,5
-12.9808,12.126,3.45288,13,13
-13.9273,13.0147,-0.998989,21,6
-13.3775,12.5053,4.22773,15,14
-11.876,11.1056,-0.283811,100,7
-12.5547,11.7443,4.60646,27,15
-0.422824,0.396364,-0.155291,12,0
-11.8225,11.0866,0.282904,1,8
-0.405062,0.379979,-0.128222,14,1
-11.5479,10.8366,0.829944,45,9
-0.50393,0.472891,-0.13433,12,2
-11.8723,11.145,1.42465,15,10
-8.72345,8.19186,-1.89536,48,3
-15.2482,14.324,2.56876,5,11
-9.21771,8.66206,-1.5531,29,4
-11.8582,11.1473,2.57773,33,12
-13.8925,13.0596,-1.66816,14,5
-13.0278,12.251,3.47616,15,13
-13.8012,12.9828,-0.993023,43,6
-13.116,12.3426,4.158,18,14
-11.3935,10.7255,-0.27313,100,7
-12.6535,11.9157,4.65719,28,15
-11.73,11.077,0.281612,4,8
-0.409399,0.386744,-0.130022,14,1
-11.857,11.2047,0.85496,10,9
-0.507984,0.480041,-0.135856,12,2
-11.816,11.1699,1.42256,43,10
-8.80101,8.3227,-1.91851,66,3
-12.8691,12.174,2.17512,27,11
-9.33593,8.83472,-1.57821,16,4
-11.8565,11.2239,2.58586,53,12
-13.815,13.0779,-1.66433,21,5
-12.9194,12.2344,3.4586,13,13
-13.8138,13.0859,-0.997209,14,6
-13.2907,12.5947,4.22728,24,14
-11.2835,10.6964,-0.271385,26,7
-0.420046,0.399306,-0.155291,12,0
-11.5941,11.0255,0.279273,37,8
-0.413695,0.393543,-0.131821,14,1
-13.7834,13.112,0.997,10,9
-0.520527,0.495345,-0.139672,11,2
-13.8145,13.1508,1.66868,17,10
-8.85917,8.43646,-1.9376,48,3
-12.8035,12.1969,2.17122,18,11
-8.95151,8.53037,-1.51825,24,4
-11.7635,11.21,2.57366,45,12
-13.7635,13.1206,-1.66363,18,5
-12.9008,12.3024,3.46509,44,13
-16.9054,16.127,-1.22445,36,6
-13.2678,12.6612,4.23403,15,14
-11.3217,10.8041,-0.273165,26,7
-12.5707,12.0002,4.65667,18,15
-0.423647,0.405695,-0.135421,13,1
-11.8872,11.3874,0.862706,18,9
-0.496116,0.475425,-0.133566,13,2
-13.7729,13.2031,1.66921,14,10
-8.81118,8.44666,-1.93322,56,3
-12.796,12.2709,2.17683,23,11
-9.33001,8.95028,-1.58747,42,4
-11.8768,11.3974,2.60714,53,12
-13.8527,13.2982,-1.68001,18,5
-13.8872,13.3359,-1.00904,41,6
-12.3446,11.8587,3.95194,22,14
-11.4915,11.0431,-0.278191,100,7
-13.1889,12.6786,4.90203,13,15
-11.824,11.3984,0.286673,22,8
-0.411006,0.39635,-0.131821,14,1
-11.8393,11.4171,0.861973,44,9
-0.483233,0.466164,-0.130513,27,2
-11.4666,11.0655,1.39414,12,10
-8.77027,8.46639,-1.93071,46,3
-12.9444,12.5003,2.20949,28,11
-10.1211,9.77722,-1.72786,18,4
-11.8517,11.4491,2.60995,46,12
-13.3472,12.8983,-1.62389,17,5
-12.677,12.2548,3.42731,13,13
-13.8391,13.3829,-1.00893,15,6
-12.2947,11.8936,3.94924,35,14
-11.5382,11.1618,-0.280216,47,7
-13.237,12.8096,4.93568,8,15
-12.5137,12.1436,0.30437,22,8
-0.40969,0.397711,-0.131821,14,1
-11.6575,11.3206,0.851611,28,9
-0.50695,0.492471,-0.137382,12,2
-11.1322,10.818,1.35806,18,10
-8.82431,8.57527,-1.94886,33,3
-12.51,12.1612,2.14222,23,11
-8.88889,8.64407,-1.52239,16,4
-11.8216,11.5,2.61214,50,12
-11.9499,11.6289,-1.45881,23,5
-12.4928,12.1572,3.38839,30,13
-11.7925,11.4797,-0.862497,35,6
-12.3054,11.9832,3.96544,33,14
-13.6249,13.2727,-0.332015,100,7
-12.9279,12.5982,4.83681,18,15
-11.5674,11.3039,0.28231,8,8
-0.402725,0.393689,-0.130022,14,1
-11.6308,11.3738,0.852553,8,9
-0.508121,0.496895,-0.138146,12,2
-11.0991,10.8576,1.35841,24,10
-8.80279,8.61431,-1.95074,45,3
-12.4008,12.1396,2.13076,36,11
-8.95086,8.76532,-1.53823,33,4
-11.8025,11.5619,2.61684,46,12
-10.963,10.7432,-1.3429,10,5
-12.4306,12.1815,3.38304,23,13
-12.4834,12.2417,4.03652,16,14
-15.5354,15.2453,5.83223,13,15
-11.3454,11.1647,0.277842,45,8
-0.379128,0.373219,-0.122823,15,1
-11.5625,11.3863,0.850459,26,9
-0.489513,0.482221,-0.133566,13,2
-13.2801,13.0869,1.63121,27,10
-8.58969,8.46763,-1.91038,53,3
-12.627,12.4476,2.17707,37,11
-8.96826,8.84391,-1.54652,27,4
-12.0448,11.8819,2.67972,32,12
-10.914,10.7702,-1.3415,13,5
-12.4334,12.2738,3.39602,15,13
-12.486,12.33,-0.919648,3,6
-13.1607,13.0009,4.27092,25,14
-15.552,15.3631,-0.381579,70,7
-13.087,12.9326,4.92999,19,15
-11.2703,11.1724,0.277005,33,8
-0.377758,0.374606,-0.122823,15,1
-11.3639,11.2691,0.838736,67,9
-0.482252,0.478396,-0.13204,26,2
-13.1014,13.0012,1.61482,27,10
-8.66242,8.59915,-1.93322,50,3
-12.5235,12.4364,2.16708,27,11
-9.10777,9.04441,-1.57601,35,4
-11.8841,11.8055,2.65313,30,12
-13.717,13.6311,-1.69187,7,5
-12.4267,12.3531,3.40594,32,13
-13.4909,13.4157,-0.997105,14,6
-13.0346,12.962,4.24393,24,14
-11.4933,11.4332,-0.282973,100,7
-13.1363,13.0722,4.9657,14,15
-0.376513,0.375857,-0.122823,15,1
-11.007,10.9878,0.81508,41,9
-0.497334,0.496639,-0.136619,25,2
-12.9145,12.901,1.59704,37,10
-8.66879,8.66274,-1.94104,53,3
-12.5974,12.593,2.18707,23,11
-9.25322,9.24999,-1.60648,17,4
-11.7778,11.7778,2.63811,46,12
-13.4196,13.4243,-1.66067,36,5
-12.9241,12.9331,3.55401,15,13
-15.7047,15.7212,-1.16458,19,6
-21.755,21.7778,7.10665,10,14
-11.3931,11.409,-0.281438,31,7
-13.0751,13.0979,4.95897,26,15
-11.3187,11.3702,0.280041,1,8
-0.375265,0.377103,-0.122823,15,1
-11.4382,11.4942,0.849831,12,9
-0.501222,0.503853,-0.138146,12,2
-12.8632,12.9352,1.596,27,10
-8.69015,8.74187,-1.9523,17,3
-12.7094,12.7895,2.21388,14,11
-10.5555,10.6258,-1.83901,16,4
-12.0547,12.135,2.70913,33,12
-12.3123,12.3985,-1.52871,3,5
-12.6833,12.7766,3.49944,37,13
-13.2159,13.3178,-0.983288,14,6
-13.318,13.4254,4.36585,12,14
-11.2918,11.3829,-0.279867,78,7
-13.0534,13.1632,4.96726,14,15
-0.407513,0.41209,-0.155291,12,0
-11.108,11.2328,0.275748,49,8
-0.374012,0.378346,-0.122823,15,1
-0.491182,0.49722,-0.135856,25,2
-12.7634,12.9248,1.5892,37,10
-8.59865,8.70739,-1.93822,33,3
-14.4785,14.6667,2.5305,11,11
-8.59885,8.71367,-1.50314,49,4
-11.8611,12.0237,2.67503,31,12
-13.5028,13.6926,-1.68245,18,5
-16.1974,16.4309,-1.20917,25,6
-13.2775,13.4736,4.3672,12,14
-15.02,15.2472,-0.373586,85,7
-13.0832,13.2857,4.99624,17,15
-11.0589,11.2615,0.275504,57,8
-0.416374,0.42415,-0.13722,13,1
-11.1996,11.4127,0.838003,30,9
-0.48678,0.496043,-0.135093,12,2
-12.5907,12.8348,1.57299,37,10
-8.5848,8.75428,-1.94198,47,3
-13.0376,13.2996,2.28676,14,11
-8.4739,8.64722,-1.48656,51,4
-11.7112,11.9549,2.65063,52,12
-12.9484,13.2179,-1.61883,21,5
-12.4477,12.7112,3.45822,1,13
-16.0548,16.4003,-1.20279,41,6
-12.7561,13.0352,4.21063,21,14
-14.9415,15.2738,-0.372958,31,7
-13.0287,13.323,4.99314,19,15
-11.081,11.363,0.277039,22,8
-0.371362,0.380947,-0.122823,15,1
-10.9869,11.2744,0.825024,37,9
-0.485046,0.497739,-0.135093,25,2
-12.7905,13.1298,1.60367,6,10
-8.52525,8.75447,-1.93541,37,3
-11.785,12.1061,2.07446,4,11
-8.91575,9.16187,-1.56968,53,4
-11.7039,12.0311,2.65845,36,12
-13.1634,13.5315,-1.6516,29,5
-12.6045,12.9615,3.51432,30,13
-14.6957,15.1172,-1.10492,38,6
-15.6101,16.0634,5.17118,21,14
-11.179,11.5077,-0.280041,24,7
-13.04,13.428,5.0154,17,15
-11.0621,11.4232,0.277563,28,8
-0.397138,0.410244,-0.131821,14,1
-10.9766,11.3428,0.827222,43,9
-0.483305,0.49943,-0.135093,25,2
-26.3827,27.2724,3.31976,21,10
-8.54408,8.83529,-1.94667,12,3
-11.7358,12.1401,2.07324,40,11
-8.96097,9.27287,-1.58333,35,4
-11.832,12.2481,2.69724,31,12
-11.8148,12.2303,-1.48775,24,5
-12.4978,12.9418,3.49715,31,13
-14.69,15.2173,-1.10848,21,6
-15.7149,16.2847,5.22471,37,14
-11.1429,11.5509,-0.280146,100,7
-15.9298,16.5189,6.14902,25,15
-11.0541,11.4949,0.278366,9,8
-0.368693,0.383531,-0.122823,15,1
-10.9715,11.4171,0.829839,31,9
-0.489721,0.509607,-0.137382,24,2
-12.7247,13.2461,1.60698,43,10
-8.55833,8.91208,-1.957,58,3
-11.6934,12.1809,2.07324,40,11
-8.78285,9.15228,-1.55749,40,4
-11.6059,12.0983,2.65532,6,12
-11.7831,12.283,-1.48914,24,5
-12.5925,13.1313,3.53645,11,13
-12.4793,13.0179,-0.945083,28,6
-15.5879,16.2663,5.20132,37,14
-11.1772,11.6677,-0.282031,100,7
-12.7335,13.2969,4.93309,19,15
-0.400332,0.419069,-0.155291,12,0
-11.2431,11.7735,0.28416,19,8
-0.367352,0.384815,-0.122823,15,1
-11.0784,11.6051,0.840829,29,9
-0.492005,0.515574,-0.138527,24,2
-12.6936,13.3063,1.60889,43,10
-8.489,8.90188,-1.94824,50,3
-11.6398,12.2102,2.07129,36,11
-8.66321,9.0909,-1.54189,19,4
-11.7938,12.3803,-1.49594,6,5
-12.5195,13.1468,3.52882,30,13
-12.4724,13.1018,-0.948014,38,6
-15.5753,16.3672,5.21617,26,14
-14.6082,15.3509,-0.369886,38,7
-12.6653,13.3138,4.92377,17,15
-10.5242,11.094,0.266917,6,8
-0.40362,0.425624,-0.135421,13,1
-10.7177,11.3059,0.816441,10,9
-0.4821,0.508738,-0.136238,25,2
-8.43498,8.90416,-1.9426,15,3
-11.6033,12.253,2.07202,54,11
-7.92883,8.37572,-1.41612,8,4
-11.6984,12.3621,2.69568,18,12
-8.10429,8.56705,-1.03175,63,5
-12.4772,13.1896,3.5292,24,13
-12.7678,13.5016,-0.973868,14,6
-12.4594,13.18,4.18724,3,14
-11.1525,11.8017,-0.283427,55,7
-12.6427,13.3833,4.93309,30,15
-10.5553,11.2049,0.268697,24,8
-0.431524,0.458242,-0.145318,12,1
-0.483102,0.513193,-0.137001,24,2
-12.7938,13.5955,1.6333,13,10
-8.42415,8.95514,-1.9473,35,3
-12.5424,13.3376,2.248,9,11
-7.93773,8.44101,-1.4227,30,4
-11.6249,12.3663,2.68817,37,12
-8.04445,8.56048,-1.02774,49,5
-11.6125,12.3617,3.2968,19,13
-12.7138,13.5388,-0.973344,7,6
-12.3435,13.1445,4.16294,51,14
-15.0276,16.0083,-0.383255,15,7
-12.5255,13.3476,4.90462,12,15
-12.5389,13.3994,0.320321,20,8
-0.390064,0.416977,-0.131821,14,1
-10.8731,11.6233,0.834131,30,9
-0.486761,0.520528,-0.138527,24,2
-11.0602,11.8316,1.41698,34,10
-8.4052,8.99457,-1.9498,43,3
-11.3245,12.1229,2.03692,21,11
-8.04927,8.6167,-1.44781,39,4
-11.3573,12.1622,2.63561,58,12
-8.02418,8.59585,-1.02879,27,5
-11.5553,12.3829,3.29222,23,13
-13.1143,14.0584,-1.00757,45,6
-12.276,13.1597,4.15485,34,14
-9.91747,10.6352,-0.253828,25,7
-12.5615,13.4753,4.9362,19,15
-12.4971,13.4438,0.320391,30,8
-0.388679,0.418268,-0.131821,14,1
-10.7957,11.6217,0.831304,54,9
-0.479688,0.516386,-0.137001,24,2
-11.029,11.877,1.41802,15,10
-8.33232,8.97606,-1.93979,66,3
-11.2762,12.1516,2.03546,17,11
-8.03805,8.66512,-1.45122,37,4
-11.4008,12.2945,2.65563,51,12
-8.12433,8.7612,-1.04535,40,5
-11.3794,12.2757,3.25367,33,13
-11.6327,12.5534,-0.896934,13,6
-12.2419,13.2154,4.1589,48,14
-9.85991,10.6477,-0.253304,100,7
-12.4895,13.4921,4.92636,19,15
-10.8076,11.7079,0.278122,12,8
-0.403075,0.436808,-0.13722,13,1
-10.9352,11.8545,0.845226,45,9
-0.488531,0.529602,-0.140054,23,2
-12.7582,13.8356,1.64655,20,10
-7.8899,8.5592,-1.84374,43,3
-11.6561,12.6493,2.112,4,11
-8.01851,8.7048,-1.45317,34,4
-11.414,12.3952,2.66877,56,12
-8.10719,8.80416,-1.04709,21,5
-11.4508,12.4396,3.28649,30,13
-11.582,12.5865,-0.89641,6,6
-12.2009,13.2638,4.16069,30,14
-9.79155,10.6482,-0.252501,86,7
-12.4227,13.5143,4.9186,37,15
-0.391691,0.427156,-0.155291,12,0
-10.541,11.4994,0.272292,37,8
-0.380483,0.415224,-0.130022,14,1
-0.476071,0.519722,-0.137001,24,2
-12.0613,13.1718,1.56253,39,10
-7.8293,8.55317,-1.83654,36,3
-11.5583,12.6313,2.10225,22,11
-8.08856,8.84259,-1.47145,39,4
-11.196,12.244,2.62779,53,12
-8.15708,8.92063,-1.05755,28,5
-11.3663,12.4346,3.27466,27,13
-12.407,13.5779,-0.963924,39,6
-12.0757,13.22,4.1337,46,14
-13.7294,15.0356,-0.355401,44,7
-12.1931,13.3578,4.84613,30,15
-9.50331,10.4403,0.246428,8,8
-0.392146,0.430963,-0.134521,14,1
-10.8481,11.9261,0.844912,24,9
-0.474254,0.521381,-0.137001,24,2
-11.1105,12.2188,1.44487,34,10
-7.80073,8.58191,-1.83685,60,3
-11.462,12.6143,2.09274,49,11
-7.98557,8.79143,-1.45829,28,4
-11.0961,12.2202,2.61433,15,12
-8.38975,9.23963,-1.09189,47,5
-12.3731,13.6313,3.57843,16,13
-9.80014,10.8005,-0.764314,19,6
-12.1591,13.4049,4.17824,33,14
-9.60549,10.5934,-0.249604,69,7
-12.101,13.3502,4.82801,16,15
-9.51961,10.5282,0.247754,2,8
-0.422077,0.466958,-0.145318,12,1
-11.1562,12.3424,0.871917,23,9
-0.477787,0.528777,-0.138527,24,2
-11.102,12.2911,1.44905,9,10
-7.80003,8.63852,-1.84342,57,3
-11.3869,12.6154,2.08665,22,11
-11.1506,12.358,-2.04375,13,4
-13.3153,14.757,3.14809,21,12
-10.1579,11.2617,-1.32686,21,5
-11.0644,12.2711,3.2117,15,13
-9.75491,10.8225,-0.763582,35,6
-12.0128,13.3322,4.14315,17,14
-9.78232,10.8567,-0.255084,93,7
-14.906,16.549,5.96785,11,15
-10.3024,11.4701,0.269116,16,8
-0.37626,0.419054,-0.130022,14,1
-11.149,12.4214,0.874743,31,9
-0.475939,0.530442,-0.138527,24,2
-11.8705,13.2345,1.55538,35,10
-7.56162,8.43053,-1.79368,37,3
-12.368,13.7941,2.27481,9,11
-7.86879,8.77915,-1.44756,39,4
-13.3441,14.8931,3.16717,17,12
-9.64,10.7628,-1.26411,2,5
-11.0329,12.3179,3.21437,49,13
-9.69232,10.825,-0.761488,42,6
-9.55768,10.6822,-0.250198,27,7
-11.7971,13.1897,4.74157,6,15
-13.6219,15.2727,0.357216,4,8
-0.374795,0.420365,-0.130022,14,1
-0.485933,0.545208,-0.141962,23,2
-11.2314,12.6059,1.47712,53,10
-7.39945,8.30788,-1.76208,52,3
-11.0671,12.4302,2.04351,35,11
-7.83414,8.80212,-1.44683,49,4
-10.9797,12.3407,2.61621,22,12
-8.05847,9.06053,-1.06086,11,5
-11.0185,12.3886,3.22276,15,13
-9.63191,10.8334,-0.759709,35,6
-11.8817,13.3686,4.1292,54,14
-9.49511,10.6871,-0.249535,21,7
-11.5239,12.9751,4.64994,13,15
-9.92113,11.202,0.261193,1,8
-0.362991,0.409998,-0.126422,15,1
-10.4108,11.7631,0.823245,2,9
-0.477427,0.539633,-0.140054,23,2
-7.58222,8.57617,-1.81308,36,3
-10.9513,12.3869,2.0301,8,11
-7.8244,8.85321,-1.45073,44,4
-10.93,12.3716,2.61465,56,12
-7.99118,9.04829,-1.05615,26,5
-10.9016,12.348,3.20178,13,13
-9.58025,10.8552,-0.758767,35,6
-10.943,12.4037,3.81877,30,14
-9.45509,10.7172,-0.249465,100,7
-11.522,13.0646,4.66754,33,15
-13.4211,15.2662,0.354807,9,8
-0.376923,0.428892,-0.131821,14,1
-16.2922,18.5385,1.29343,10,9
-0.479428,0.545721,-0.141199,34,2
-13.7875,15.6995,1.828,8,10
-7.5353,8.58329,-1.80901,67,3
-16.9159,19.2753,3.14886,36,11
-7.79583,8.88631,-1.45146,52,4
-10.9493,12.4809,2.62966,11,12
-7.08727,8.08148,-0.94041,40,5
-11.002,12.5498,3.24413,19,13
-11.1061,12.673,-0.883117,50,6
-10.8008,12.329,3.78413,30,14
-9.40313,10.7335,-0.249081,100,7
-11.2116,12.8024,4.55987,31,15
-9.2613,10.6052,0.245765,39,8
-0.403693,0.462436,-0.141719,13,1
-0.483973,0.554789,-0.143107,45,2
-10.9984,12.6121,1.46404,34,10
-7.17053,8.22263,-1.72798,51,3
-16.7906,19.261,3.1374,18,11
-7.03546,8.07913,-0.937273,50,5
-10.8418,12.45,3.20903,34,13
-11.0824,12.7309,-0.884582,74,6
-10.8635,12.4838,3.82057,20,14
-9.3013,10.6924,-0.24737,30,7
-11.357,13.0601,4.63752,11,15
-0.384207,0.443227,-0.135421,13,1
-11.2428,12.9699,0.899551,19,9
-0.482131,0.556391,-0.143107,56,2
-10.993,12.6907,1.46892,50,10
-7.11981,8.22223,-1.72266,66,3
-11.1588,12.8912,2.09347,13,11
-8.14043,9.40751,-1.52751,12,4
-11.0205,12.7359,2.66752,51,12
-8.94556,10.3416,-1.1963,25,5
-11.034,12.765,-0.884268,67,6
-10.8236,12.526,3.82192,20,14
-11.2012,12.9676,4.59145,60,15
-10.0737,11.6953,0.26943,1,8
-0.382735,0.444499,-0.135421,13,1
-10.1082,11.7436,0.812045,9,9
-0.49171,0.571464,-0.146541,53,2
-11.0825,12.8846,1.48688,58,10
-6.63263,7.71115,-1.61096,15,3
-11.7476,13.6626,2.21242,33,11
-9.1961,10.699,-1.73225,52,4
-10.9155,12.7039,2.65282,61,12
-8.74324,10.1793,-1.17399,32,5
-11.3145,13.1729,3.37541,13,13
-10.9708,12.7772,-0.882594,54,6
-10.8074,12.5914,3.83092,5,14
-9.23351,10.7615,-0.24751,70,7
-11.0817,12.9201,4.56091,12,15
-13.5045,15.7894,0.362661,11,8
-0.368517,0.431021,-0.130922,14,1
-0.491088,0.574584,-0.146923,63,2
-10.9685,12.8379,1.47729,59,10
-11.6856,13.6869,2.20973,19,11
-7.88569,9.24275,-1.06295,11,5
-10.8419,12.7167,-0.87579,29,6
-10.8228,12.6988,3.85206,2,14
-9.17385,10.7678,-0.246917,23,7
-11.0628,12.9896,4.57178,37,15
-9.33167,10.988,0.251629,1,8
-0.369533,0.435276,-0.131821,14,1
-10.057,11.8504,0.814557,41,9
-0.471294,0.555338,-0.14158,57,2
-10.9752,12.9369,1.48426,26,10
-7.28518,8.59039,-1.78398,56,3
-10.9484,12.9145,2.07885,9,11
-7.49896,8.84873,-1.42417,19,4
-11.2185,13.2425,2.74887,19,12
-7.8405,9.25502,-1.06121,4,5
-10.7921,12.7437,3.24604,31,13
-9.39338,11.0959,-0.761907,35,6
-17.7752,21.0044,6.35262,35,14
-11.2414,13.2883,-0.303811,45,7
-10.7396,12.7357,0.290792,16,8
-0.362987,0.430603,-0.130022,14,1
-9.11782,10.8163,0.741391,10,9
-0.468088,0.555479,-0.141199,46,2
-9.79781,11.6311,1.33052,11,10
-7.25642,8.61728,-1.78429,45,3
-11.4607,13.6148,2.18512,23,11
-7.49003,8.89784,-1.42807,5,4
-11.2,13.3098,2.75512,31,12
-8.67002,10.3069,-1.17835,27,5
-10.7615,12.7978,3.25024,13,13
-10.7413,12.7783,-0.874848,16,6
-11.1775,13.2973,4.01043,49,14
-11.0056,13.0973,-0.298611,31,7
-11.1779,13.3072,4.65667,7,15
-9.873,11.7871,0.268383,1,8
-0.374068,0.446746,-0.134521,14,1
-9.12421,10.897,0.744845,29,9
-0.468764,0.560039,-0.141962,23,2
-9.08794,10.8613,1.23901,18,10
-6.56624,7.85035,-1.62097,56,3
-9.80979,11.7324,1.87776,45,11
-8.07805,9.66124,-1.54628,34,4
-11.1507,13.3409,2.75387,30,12
-10.6447,12.7445,3.22773,42,13
-11.0086,13.1848,-0.900179,20,6
-11.0809,13.2714,3.99153,46,14
-10.9505,13.12,-0.298297,85,7
-11.0211,13.2092,4.60957,13,15
-10.0155,12.038,0.27334,1,8
-0.340185,0.409029,-0.122823,15,1
-8.99546,10.8197,0.737414,42,9
-0.463139,0.557061,-0.140817,23,2
-9.75865,11.7418,1.33575,74,10
-6.99714,8.42211,-1.73423,46,3
-9.80254,11.803,1.88386,61,11
-7.42675,8.94557,-1.42758,38,4
-10.8455,13.0681,2.68973,55,12
-8.41697,10.1419,-1.15307,23,5
-10.7014,12.8991,3.25787,40,13
-10.9113,13.1567,-0.895782,37,6
-10.9798,13.244,3.97174,35,14
-8.94475,10.7931,-0.244683,26,7
-11.0021,13.2803,4.62095,22,15
-10.8407,13.1228,0.29711,42,8
-0.383427,0.464308,-0.13902,13,1
-8.87881,10.7555,0.730924,21,9
-0.467441,0.566244,-0.142725,22,2
-9.00746,10.9153,1.23813,26,10
-6.44854,7.81715,-1.60502,36,3
-9.76633,11.8433,1.88483,24,11
-7.41063,8.98982,-1.4305,15,4
-10.8086,13.1165,2.69192,40,12
-10.9855,13.3455,3.99063,24,14
-10.8155,13.1436,-0.29711,77,7
-11.0121,13.3873,4.64477,16,15
-9.03584,11.0161,0.248697,15,8
-0.371919,0.453588,-0.135421,13,1
-8.91021,10.8668,0.736472,5,9
-0.459238,0.560281,-0.140817,23,2
-8.97562,10.9544,1.23901,13,10
-6.45251,7.87781,-1.61284,33,3
-9.62055,11.7498,1.8646,24,11
-7.8922,9.64238,-1.52995,24,4
-10.9064,13.325,2.72728,42,12
-8.29424,10.1372,-1.14592,49,5
-18.6058,22.7481,5.71244,17,13
-8.87606,10.856,-0.734902,39,6
-9.81386,12.0073,-0.270687,100,7
-10.7904,13.2068,4.56971,12,15
-10.5415,12.9389,0.291316,32,8
-0.375335,0.460863,-0.13722,13,1
-0.454801,0.558835,-0.140054,23,2
-8.9499,11.0011,1.24075,2,10
-6.75796,8.30677,-1.69606,30,3
-9.60533,11.8109,1.86923,8,11
-7.60222,9.35119,-1.47974,48,4
-10.9333,13.4535,2.74574,15,12
-18.5352,22.8157,5.71397,21,13
-8.87652,10.9304,-0.737937,74,6
-10.806,13.311,3.95824,33,14
-9.82229,12.1036,-0.272083,89,7
-15.1403,18.6634,6.43942,14,15
-9.44484,11.6759,0.262135,15,8
-0.383527,0.474293,-0.140819,13,1
-8.76005,10.8371,0.730296,18,9
-0.466522,0.577135,-0.144252,33,2
-8.89333,11.0059,1.23796,55,10
-6.55886,8.11978,-1.6532,57,3
-10.5867,13.1108,2.0691,43,11
-6.73291,8.3412,-1.31619,12,4
-10.8119,13.3993,2.72697,31,12
-9.0483,11.2137,-1.26062,12,5
-11.3805,14.109,3.52348,16,13
-8.82202,10.9411,-0.736576,48,6
-10.7998,13.3987,3.97309,22,14
-8.39109,10.4141,-0.233443,100,7
-10.6398,13.2096,4.54486,16,15
-8.68401,10.8123,0.242065,1,8
-0.394069,0.490824,-0.145318,12,1
-9.61226,11.9766,0.804822,18,9
-0.464504,0.57876,-0.144252,44,2
-8.90224,11.0959,1.24458,22,10
-8.90055,11.1017,1.74712,23,11
-6.87383,8.57687,-1.34958,9,4
-7.69237,9.60164,-1.07637,45,5
-11.2931,14.1011,3.51165,16,13
-9.76863,12.202,-0.819162,52,6
-10.7846,13.4759,3.98478,16,14
-8.60952,10.7618,-0.240564,27,7
-10.4705,13.0927,4.49206,5,15
-9.39801,11.7853,0.263112,19,8
-0.392353,0.492197,-0.145318,12,1
-0.468599,0.588055,-0.14616,53,2
-8.83118,11.0864,1.24005,57,10
-8.86915,11.1421,1.74858,15,11
-6.83519,8.58994,-1.34787,1,4
-15.1241,19.0136,3.84798,11,12
-7.67324,9.65004,-1.07864,47,5
-10.931,13.7471,3.41395,15,13
-14.4181,18.1456,5.35069,51,14
-8.56071,10.7777,-0.24025,40,7
-10.4944,13.217,4.52209,5,15
-10.9618,13.8452,0.308244,18,8
-0.364026,0.459946,-0.135421,13,1
-0.454262,0.57437,-0.142344,56,2
-8.59772,10.8749,1.21286,21,10
-6.35814,8.04502,-1.6241,21,3
-8.81667,11.1558,1.7459,23,11
-6.97006,8.82247,-1.38054,11,4
-10.5841,13.4017,2.70475,2,12
-6.85679,8.68532,-0.968126,17,5
-10.8501,13.7485,3.40441,15,13
-11.1344,14.1189,4.15125,34,14
-9.80465,12.4327,-0.276376,23,7
-10.3526,13.1322,4.48068,20,15
-10.8035,13.7485,0.305208,36,8
-0.352708,0.449017,-0.131821,14,1
-15.1653,19.3063,1.28663,12,9
-0.449829,0.572864,-0.14158,57,2
-8.70118,11.0851,1.23291,7,10
-10.6955,13.6356,2.12784,54,11
-6.92477,8.83465,-0.982071,23,5
-10.7222,13.6843,3.37923,27,13
-8.68741,11.0914,-0.738356,32,6
-10.5144,13.4288,3.93754,60,14
-9.73037,12.4275,-0.275504,40,7
-10.3436,13.2154,4.49672,30,15
-10.6779,13.6818,0.302939,43,8
-0.375191,0.480914,-0.140819,13,1
-0.455069,0.583721,-0.14387,44,2
-9.5724,12.283,1.36242,27,10
-5.78231,7.41968,-1.48988,5,3
-11.1822,14.3538,2.23411,52,11
-7.64865,9.82159,-1.52849,37,4
-10.5715,13.5797,2.72571,15,12
-6.69443,8.60247,-0.953658,22,5
-16.7415,21.5132,5.29877,15,13
-8.65794,11.1296,-0.738984,19,6
-10.4351,13.419,3.9245,76,14
-9.69921,12.4771,-0.275853,88,7
-10.2914,13.2438,4.49413,22,15
-0.355054,0.458063,-0.155291,12,0
-8.78672,11.34,0.250407,41,8
-0.35919,0.463733,-0.135421,13,1
-8.93915,11.5409,0.765047,15,9
-0.45914,0.592988,-0.145778,43,2
-9.57552,12.3714,1.36869,45,10
-5.79022,7.48357,-1.49864,32,3
-10.4737,13.5416,2.102,27,11
-10.4805,13.5553,2.71383,15,12
-6.6878,8.653,-0.956796,36,5
-10.7656,13.9341,3.42273,13,13
-8.56287,11.0871,-0.734169,16,6
-10.9622,14.1988,4.14135,31,14
-9.95718,12.897,-0.284404,78,7
-10.9356,14.1694,4.79592,7,15
-0.353453,0.459299,-0.155291,12,0
-8.75272,11.3739,0.250512,39,8
-0.32438,0.421673,-0.122823,15,1
-8.49337,11.0448,0.730191,42,9
-0.457068,0.594587,-0.145778,43,2
-9.55655,12.4364,1.37218,72,10
-6.81012,8.86231,-1.77021,50,3
-10.4094,13.5511,2.0981,9,11
-8.01478,10.4451,-1.15185,30,5
-10.558,13.7594,3.37121,23,13
-9.34536,12.1835,-0.804718,42,6
-9.62987,12.5635,-0.276307,40,7
-10.1165,13.2031,4.45686,5,15
-0.351928,0.460469,-0.155291,12,0
-8.70933,11.3996,0.250407,11,8
-0.353659,0.463069,-0.134521,14,1
-8.42882,11.0364,0.727784,21,9
-0.438415,0.574253,-0.140435,23,2
-9.30615,12.194,1.34202,71,10
-6.46403,8.47297,-1.68793,26,3
-10.4319,13.6789,2.11224,4,11
-6.66616,8.74424,-1.35007,50,4
-10.1844,13.3593,2.66064,46,12
-7.94991,10.432,-1.14749,42,5
-10.5206,13.8103,3.37465,25,13
-9.40442,12.3495,-0.81351,71,6
-10.2208,13.4265,3.8957,21,14
-8.63733,11.3463,-0.248906,35,7
-10.8693,14.2835,4.80938,19,15
-8.27742,10.9091,0.239028,15,8
-0.361543,0.476661,-0.13812,13,1
-8.85482,11.6785,0.768083,45,9
-0.443523,0.585168,-0.142725,22,2
-9.15644,12.085,1.32651,71,10
-6.45021,8.51326,-1.69168,13,3
-10.3145,13.6185,2.09762,58,11
-7.0613,9.32656,-1.43635,31,4
-10.1401,13.3979,2.66126,43,12
-10.3978,13.7433,3.34984,50,13
-9.40679,12.438,-0.817278,68,6
-10.966,14.5049,4.19804,51,14
-9.65746,12.7787,-0.279588,86,7
-10.8776,14.3984,4.83526,34,15
-8.26697,10.9746,0.239831,9,8
-0.334088,0.443672,-0.128222,14,1
-8.82446,11.719,0.768815,35,9
-0.442761,0.588204,-0.143107,22,2
-9.27445,12.3255,1.34952,60,10
-7.5414,10.026,-1.98703,47,3
-10.3815,13.8067,2.12101,36,11
-6.56951,8.74022,-1.34251,26,4
-10.1728,13.5341,2.6816,17,12
-8.44002,11.2329,-1.22924,12,5
-10.5219,14.0087,3.40556,32,13
-9.40769,12.5299,-0.821151,68,6
-10.8978,14.5197,4.19129,15,14
-10.1288,13.4952,-0.294527,7,7
-10.9202,14.555,4.87563,30,15
-8.48927,11.3478,0.24737,39,8
-0.339617,0.454141,-0.130922,14,1
-9.33598,12.4887,0.817174,67,9
-0.443055,0.592891,-0.14387,22,2
-9.26714,12.4057,1.35475,96,10
-10.5577,14.1385,2.16659,4,11
-6.53574,8.7556,-1.34154,49,4
-10.4173,13.9606,2.75888,37,12
-9.62657,12.9056,-1.40861,22,5
-10.4002,13.9428,3.38114,6,13
-8.60676,11.5427,-0.75458,48,6
-10.8507,14.5574,4.19174,33,14
-8.299,11.138,-0.242449,30,7
-14.1201,18.9574,6.33382,30,15
-8.22904,11.0804,0.240913,60,8
-0.356616,0.480358,-0.13812,13,1
-8.52781,11.4869,0.749765,62,9
-0.448107,0.603816,-0.14616,21,2
-9.52509,12.8396,1.39868,53,10
-10.4634,14.1147,2.15733,23,11
-6.59141,8.89479,-1.35933,8,4
-13.6628,18.4373,3.6346,17,12
-8.33491,11.2517,-1.22506,10,5
-11.107,15.0103,4.31096,50,14
-9.7893,13.2295,-0.287267,28,7
-14.0526,18.9979,6.33175,37,15
-0.344001,0.466421,-0.155291,12,0
-8.15783,11.061,0.239901,22,8
-0.348082,0.472127,-0.135421,13,1
-8.44855,11.4635,0.746311,50,9
-0.445996,0.605376,-0.14616,21,2
-8.59647,11.6727,1.26829,22,10
-6.89717,9.36535,-1.84217,60,3
-10.6719,14.4962,2.21022,38,11
-8.39972,11.4139,-1.74005,18,4
-13.7131,18.6408,3.66526,24,12
-8.55172,11.629,-1.26289,20,5
-10.4004,14.143,3.41243,33,13
-8.64984,11.7667,-0.765361,3,6
-11.2822,15.3532,4.39869,35,14
-9.77147,13.3022,-0.288104,41,7
-17.5651,23.9207,7.95196,11,15
-8.3318,11.3798,0.246184,15,8
-0.337225,0.460759,-0.131821,14,1
-8.17499,11.1738,0.725586,29,9
-0.437031,0.597345,-0.14387,22,2
-8.64004,11.8138,1.28049,33,10
-6.88891,9.42285,-1.84874,53,3
-10.4994,14.3667,2.18487,37,11
-7.84107,10.7331,-1.63207,54,4
-13.4907,18.4732,3.62302,17,12
-8.43203,11.5463,-1.25086,5,5
-10.4367,14.2965,3.44067,11,13
-9.48584,12.9988,-0.843342,48,6
-10.8633,14.8919,4.25562,39,14
-14.0767,19.311,6.40318,14,15
-0.340818,0.468751,-0.155291,12,0
-8.50012,11.6951,0.252362,28,8
-0.344778,0.474546,-0.135421,13,1
-8.12889,11.1926,0.724958,28,9
-0.426867,0.587748,-0.141199,34,2
-10.0888,13.8963,1.50239,29,10
-6.90471,9.51399,-1.86188,67,3
-10.4562,14.4129,2.18634,9,11
-7.78725,10.7379,-1.62866,63,4
-14.4684,19.958,3.90429,5,12
-8.32385,11.4821,-1.24075,10,5
-9.85636,13.606,-0.8805,16,6
-11.0627,15.277,4.3546,40,14
-9.71472,13.4203,-0.289186,86,7
-14.4576,19.9798,6.60817,15,15
-0.339179,0.469938,-0.155291,12,0
-8.32821,11.5431,0.248452,46,8
-0.338559,0.469424,-0.133621,14,1
-9.15606,12.6952,0.820314,54,9
-0.428257,0.594012,-0.142344,45,2
-8.53755,11.8463,1.27753,35,10
-6.9061,9.58612,-1.87127,48,3
-10.4766,14.5476,2.2012,19,11
-8.19971,11.3901,-1.72323,26,4
-13.9232,19.3406,3.77445,4,12
-9.73378,13.526,-1.45794,11,5
-13.0171,18.0952,4.33289,30,13
-9.3727,13.0339,-0.841353,3,6
-13.7802,19.1701,5.45056,36,14
-9.32,12.9654,-0.278715,88,7
-14.3721,20.0009,6.59937,15,15
-0.337537,0.471119,-0.155291,12,0
-8.28755,11.5674,0.248383,26,8
-0.337001,0.470544,-0.133621,14,1
-8.49084,11.8599,0.764419,11,9
-0.421611,0.589117,-0.140817,46,2
-10.14,14.1738,1.5247,29,10
-7.46159,10.4299,-2.03115,63,3
-10.3775,14.5112,2.19048,50,11
-13.3009,18.6128,3.62334,44,12
-9.54637,13.3638,-1.43685,37,5
-12.8703,18.0168,4.30389,21,13
-9.36076,13.1088,-0.844179,35,6
-13.5931,19.0428,5.40152,12,14
-9.28979,13.019,-0.279169,94,7
-14.3527,20.1218,6.62266,18,15
-0.335973,0.472236,-0.155291,12,0
-12.096,17.0082,0.364302,13,8
-0.328581,0.462188,-0.130922,14,1
-10.9083,15.3438,0.986638,10,9
-0.420792,0.592112,-0.141199,46,2
-8.38864,11.8083,1.26724,38,10
-7.24786,10.2063,-1.98265,46,3
-10.4153,14.6719,2.20925,28,11
-7.53266,10.6152,-1.59819,30,4
-13.7032,19.3109,3.75036,13,12
-8.32391,11.7345,-1.2587,30,5
-15.4828,21.8348,5.20298,14,13
-9.35769,13.2017,-0.848052,48,6
-13.7136,19.3541,5.47621,18,14
-10.1333,14.3012,-0.305941,61,7
-14.2725,20.1503,6.61645,7,15
