x, y, z, intensity, ring
-1.05237,-1.68154,0.0346256,5,8
-1.06652,-1.70282,0.1053,6,9
-0.308464,-0.492498,-0.112959,16,2
-1.07691,-1.71874,0.177449,1,10
-1.06724,-1.70198,0.246664,1,11
-1.07566,-1.70415,0.105614,2,9
-0.310182,-0.491418,-0.112959,16,2
-1.06695,-1.6897,0.174834,5,10
-1.09438,-1.73181,0.251538,1,11
-0.295036,-0.463828,-0.106853,18,2
-1.06963,-1.68092,0.174311,2,10
-0.288177,-0.449572,-0.1038,18,2
-0.315311,-0.488143,-0.112959,16,2
-0.318084,-0.488685,-0.113341,16,2
-1.12953,-1.70978,0.107393,1,9
-0.321488,-0.486452,-0.113341,16,2
-1.1045,-1.65927,0.104463,1,9
-0.281833,-0.423231,-0.0988391,19,2
-1.11218,-1.65947,0.0348699,1,8
-1.15257,-1.71843,0.10844,1,9
-0.324791,-0.484253,-0.113341,16,2
-1.12341,-1.67434,0.176403,1,10
-1.04206,-1.549,0.431006,1,14
-1.11796,-1.65558,0.0348699,1,8
-1.13172,-1.67469,0.105928,1,9
-0.326479,-0.483116,-0.113341,16,2
-1.12925,-1.67041,0.176403,1,10
-1.13756,-1.67072,0.105928,1,9
-0.328164,-0.481973,-0.113341,16,2
-1.13507,-1.66645,0.176403,1,10
-1.05285,-1.54169,0.431006,1,14
-0.307633,-0.448446,-0.105708,18,2
-1.05823,-1.538,0.431006,1,14
-0.309196,-0.44737,-0.105708,18,2
-1.04582,-1.50867,0.423808,1,14
-0.317567,-0.455899,-0.107998,17,2
-1.0692,-1.53039,0.431006,1,14
-0.312389,-0.445146,-0.105708,18,2
-1.07427,-1.52684,0.431006,1,14
-0.313864,-0.444107,-0.105708,18,2
-1.07933,-1.52327,0.431006,1,14
-0.335808,-0.472353,-0.155291,12,0
-1.21574,-1.70945,0.0366151,1,8
-0.306228,-0.430268,-0.102655,18,2
-1.2597,-1.76407,-0.0378368,1,7
-1.19259,-1.66456,0.0357425,4,8
-0.298576,-0.416432,-0.0996023,19,2
-1.23315,-1.71421,-0.0368595,1,7
-1.2136,-1.68147,0.0361963,6,8
-1.19283,-1.65147,0.106765,1,9
-0.341411,-0.472682,-0.113341,16,2
-1.23123,-1.69339,0.0365453,6,8
-0.331588,-0.455555,-0.109524,17,2
-1.24452,-1.69855,0.0367548,2,8
-0.298349,-0.406897,-0.0980758,19,2
-0.988031,-1.34357,-0.0291106,1,7
-0.346424,-0.469021,-0.113341,16,2
-0.97248,-1.31279,-0.0285172,4,7
-1.38503,-1.86222,0.121629,1,9
-0.324545,-0.436363,-0.105708,18,2
-0.996191,-1.33503,-0.0290757,5,7
-1.35799,-1.81262,0.118698,1,9
-0.994838,-1.32356,-0.0289012,6,7
-1.321,-1.75048,0.11493,1,9
-0.306296,-0.405879,-0.0988391,19,2
-1.33489,-1.76824,0.193834,1,10
-1.35454,-1.79298,0.275912,1,11
-1.00066,-1.32167,-0.0289361,5,7
-1.32226,-1.7395,0.114511,1,9
-0.352858,-0.4642,-0.113341,16,2
-1.34105,-1.76357,0.193834,1,10
-1.3608,-1.78824,0.275912,1,11
-1.00163,-1.3134,-0.0288314,5,7
-1.33319,-1.74121,0.11493,1,9
-0.311509,-0.406848,-0.0996023,19,2
-1.32297,-1.72725,0.190348,1,10
-1.36703,-1.78348,0.275912,1,11
-1.00133,-1.30355,-0.0286918,5,7
-1.36853,-1.77451,0.117442,1,9
-0.324917,-0.421305,-0.103418,18,2
-1.35333,-1.75417,0.193834,1,10
-1.35869,-1.75984,0.272987,1,11
-1.36835,-1.77108,0.354481,1,12
-1.00955,-1.30479,-0.0287965,5,7
-1.4234,-1.83306,0.121629,1,9
-0.357619,-0.460542,-0.113341,16,2
-1.35914,-1.74967,0.193834,1,10
-1.35477,-1.74279,0.271037,1,11
-1.36451,-1.75406,0.351978,1,12
-1.01633,-1.30459,-0.0288663,6,7
-1.42979,-1.82808,0.121629,1,9
-1.36524,-1.74491,0.193834,1,10
-1.35595,-1.7318,0.270062,1,11
-1.37794,-1.75861,0.353855,1,12
-1.02088,-1.30104,-0.0288663,5,7
-0.360825,-0.458034,-0.113341,16,2
-1.37132,-1.74014,0.193834,1,10
-1.39149,-1.76446,0.275912,1,11
-1.37183,-1.73829,0.350726,1,12
-1.40629,-1.78131,0.44115,1,13
-1.02293,-1.29433,-0.0287965,5,7
-1.44252,-1.81805,0.121629,1,9
-0.362422,-0.456772,-0.113341,16,2
-1.39764,-1.75959,0.275912,1,11
-1.37297,-1.7273,0.349475,1,12
-1.38318,-1.73951,0.431992,1,13
-1.02122,-1.28293,-0.0286219,4,7
-1.3093,-1.64424,0.56319,1,15
-1.07689,-1.34851,0.0301229,1,8
-0.364014,-0.455504,-0.113341,16,2
-1.39381,-1.741,0.353229,1,12
-1.38433,-1.72854,0.430465,1,13
-1.02444,-1.27779,-0.028587,5,7
-1.049,-1.30423,0.0292153,1,8
-1.38947,-1.72568,0.193834,1,10
-1.4098,-1.74843,0.355732,1,12
-1.39529,-1.72981,0.431992,1,13
-1.41739,-1.75597,0.520987,1,14
-1.0314,-1.27732,-0.0286569,5,7
-1.03341,-1.2757,0.0286569,3,8
-1.46148,-1.80285,0.121629,1,9
-0.367186,-0.452951,-0.113341,16,2
-1.41091,-1.73736,0.354481,1,12
-1.40132,-1.72493,0.431992,1,13
-1.39893,-1.72077,0.511989,1,14
-1.0346,-1.27216,-0.0286219,6,7
-1.04671,-1.28293,0.0289012,4,8
-1.48797,-1.82249,0.123304,1,9
-1.4645,-1.7931,0.20255,1,10
-1.44948,-1.77218,0.362615,1,12
-1.39241,-1.7018,0.427412,1,13
-1.39999,-1.70984,0.510189,1,14
-1.02889,-1.25617,-0.0283427,9,7
-1.04991,-1.27772,0.0288663,5,8
-1.48925,-1.81111,0.122885,1,9
-1.46062,-1.77566,0.201155,1,10
-1.41083,-1.71208,0.431228,1,13
-1.42331,-1.72599,0.516488,1,14
-1.04218,-1.26336,-0.028587,9,7
-1.03396,-1.2494,0.0283078,5,8
-1.50066,-1.81206,0.123304,1,9
-0.370656,-0.447569,-0.112959,16,2
-1.46681,-1.77055,0.201155,1,10
-1.46182,-1.76202,0.362615,1,12
-1.40676,-1.69506,0.428175,1,13
-1.41189,-1.70003,0.510189,1,14
-1.05169,-1.26587,-0.0287267,9,7
-1.40518,-1.69075,0.589072,1,15
-1.04728,-1.25654,0.0285521,6,8
-1.4862,-1.78253,0.121629,1,9
-1.46277,-1.75318,0.199761,1,10
-1.51655,-1.81635,0.290537,1,11
-1.53097,-1.83297,0.378259,1,12
-1.40512,-1.6811,0.425886,1,13
-1.42282,-1.70107,0.511989,1,14
-1.05589,-1.26238,-0.0287267,9,7
-1.41078,-1.68608,0.589072,1,15
-1.06172,-1.26531,0.0288314,5,8
-1.477,-1.75897,0.120373,1,9
-1.46888,-1.74807,0.199761,1,10
-1.50979,-1.79611,0.288099,1,11
-1.53736,-1.82761,0.378259,1,12
-1.44608,-1.71849,0.436571,1,13
-1.42092,-1.6874,0.509289,1,14
-1.05256,-1.24951,-0.0285172,12,7
-1.41666,-1.68115,0.589072,1,15
-1.06484,-1.26007,0.0287965,5,8
-1.48313,-1.75381,0.120373,1,9
-0.349891,-0.413747,-0.105327,18,2
-1.47725,-1.74623,0.20011,1,10
-1.50066,-1.77265,0.285174,1,11
-1.54373,-1.82224,0.378259,1,12
-1.4673,-1.7314,0.44115,1,13
-1.42932,-1.6854,0.510189,1,14
-1.05562,-1.2443,-0.0284823,12,7
-1.42252,-1.67619,0.589072,1,15
-0.375544,-0.441419,-0.155291,12,0
-1.06923,-1.25635,0.0287965,5,8
-1.47888,-1.73645,0.119535,1,9
-0.376792,-0.442416,-0.112959,16,2
-1.46524,-1.71983,0.197669,1,10
-1.52229,-1.78553,0.288099,1,11
-1.55008,-1.81684,0.378259,1,12
-1.42507,-1.66854,0.50659,1,14
-1.06385,-1.24517,-0.028587,12,7
-1.42836,-1.67121,0.589072,1,15
-1.05539,-1.23135,0.0283078,5,8
-1.49014,-1.73734,0.119954,2,9
-0.378334,-0.441098,-0.112959,16,2
-1.46864,-1.71168,0.197321,1,10
-1.51817,-1.76816,0.286149,1,11
-1.55641,-1.81141,0.378259,1,12
-1.47935,-1.72112,0.44115,1,13
-1.4436,-1.67833,0.511089,1,14
-1.06819,-1.24145,-0.028587,23,7
-1.41906,-1.64865,0.582861,1,15
-1.07798,-1.24885,0.0287965,6,8
-0.347694,-0.402665,-0.122823,15,1
-1.49358,-1.72911,0.119745,2,9
-1.48503,-1.7186,0.198715,1,10
-1.50096,-1.73582,0.281762,1,11
-1.5317,-1.77012,0.37075,1,12
-1.48535,-1.71595,0.44115,1,13
-1.42903,-1.64972,0.50389,1,14
-1.08038,-1.24678,-0.0287965,33,7
-1.4324,-1.65244,0.585966,1,15
-1.08758,-1.25112,0.0289361,11,8
-0.349097,-0.401449,-0.122823,15,1
-1.49669,-1.72113,0.119535,1,9
-0.381404,-0.438446,-0.112959,16,2
-1.49102,-1.71341,0.198715,1,10
-1.50701,-1.73057,0.281762,1,11
-1.55054,-1.77993,0.373878,1,12
-1.43449,-1.64497,0.50389,1,14
-1.44549,-1.65642,0.589072,1,15
-1.11411,-1.27309,0.0295295,24,8
-0.350427,-0.400289,-0.122823,15,1
-1.50238,-1.71616,0.119535,1,9
-1.48619,-1.69647,0.197321,1,10
-1.50751,-1.71959,0.280787,1,11
-1.54341,-1.75992,0.37075,1,12
-1.4528,-1.65485,0.508389,1,14
-1.07147,-1.22005,-0.0283427,174,7
-1.44333,-1.64291,0.585966,1,15
-1.11568,-1.26638,0.0294597,56,8
-1.46874,-1.66596,0.116395,1,9
-1.49181,-1.69153,0.197321,1,10
-1.51583,-1.71756,0.281274,1,11
-1.54431,-1.7486,0.369498,1,12
-1.47922,-1.67313,0.515588,1,14
-1.44137,-1.62918,0.582861,1,15
-1.41648,-1.59486,0.11179,1,9
-1.50594,-1.69499,0.198366,1,10
-1.51948,-1.70902,0.280787,1,11
-1.55334,-1.74588,0.370124,1,12
-1.50089,-1.68516,0.520987,1,14
-1.44734,-1.62388,0.582861,1,15
-1.10894,-1.24028,0.0290408,179,8
-0.328686,-0.367486,-0.113825,16,1
-1.34881,-1.50803,0.106033,2,9
-1.50682,-1.68352,0.197669,1,10
-1.51778,-1.69457,0.279325,1,11
-1.54888,-1.72868,0.367621,1,12
-1.56225,-1.74238,0.454889,1,13
-1.50706,-1.67964,0.520987,1,14
-1.09641,-1.22197,-0.0286569,4,7
-1.45816,-1.62457,0.584931,1,15
-0.387723,-0.430761,-0.155291,12,0
-1.12643,-1.25146,0.0293899,182,8
-1.36476,-1.51518,0.10687,2,9
-1.51269,-1.67825,0.197669,1,10
-1.53403,-1.70132,0.281274,1,11
-1.54167,-1.7086,0.364492,2,12
-1.56539,-1.73428,0.454125,1,13
-1.51262,-1.67464,0.520987,1,14
-1.10469,-1.22259,-0.0287616,7,7
-1.469,-1.6252,0.587002,1,15
-0.324291,-0.357894,-0.12941,15,0
-1.1375,-1.25493,0.0295644,189,8
-0.331179,-0.36524,-0.113825,16,1
-1.36441,-1.50473,0.106451,4,9
-1.48879,-1.64076,0.193834,1,10
-1.53729,-1.69302,0.280787,1,11
-1.55264,-1.70932,0.365744,2,12
-1.57144,-1.7288,0.454125,1,13
-1.51846,-1.66935,0.520987,1,14
-1.10605,-1.21596,-0.0286918,9,7
-1.46398,-1.60889,0.582861,1,15
-1.14435,-1.25411,0.0296342,190,8
-1.37369,-1.50438,0.106765,3,9
-1.51602,-1.65909,0.196623,1,10
-1.54557,-1.69084,0.281274,1,11
-1.55593,-1.70098,0.365118,1,12
-1.56656,-1.712,0.451072,1,13
-1.11029,-1.21209,-0.0286918,11,7
-1.48525,-1.62087,0.589072,1,15
-1.14331,-1.24421,0.0294946,190,8
-1.37758,-1.49811,0.106661,4,9
-1.49993,-1.63059,0.193834,1,10
-1.55685,-1.69128,0.282249,1,11
-1.56721,-1.70135,0.36637,1,12
-1.57518,-1.7094,0.451836,1,13
-1.11316,-1.20674,-0.0286569,10,7
-1.49876,-1.62419,0.592178,1,15
-0.393551,-0.425443,-0.155291,12,0
-1.15036,-1.24315,0.0295644,190,8
-0.342865,-0.370391,-0.116525,16,1
-1.38416,-1.49476,0.106765,4,9
-1.48395,-1.60196,0.191045,1,10
-1.56004,-1.68292,0.281762,1,11
-1.5812,-1.70456,0.368247,1,12
-1.57313,-1.69526,0.449546,1,13
-0.658714,-0.709109,-0.0168939,2,7
-1.49653,-1.61046,0.589072,1,15
-1.15742,-1.24205,0.0296342,190,8
-1.38775,-1.4887,0.106661,4,9
-1.50312,-1.61134,0.192788,1,10
-1.5334,-1.64264,0.275912,1,11
-1.60033,-1.71374,0.371375,1,12
-1.60317,-1.71558,0.456415,1,13
-1.47547,-1.57727,0.578719,1,15
-0.396512,-0.422685,-0.155291,12,0
-1.16564,-1.24258,0.0297389,188,8
-1.38747,-1.47802,0.106242,4,9
-1.51692,-1.61479,0.193834,1,10
-1.50621,-1.60283,0.270062,1,11
-1.59277,-1.69375,0.368247,1,12
-1.60346,-1.70453,0.454889,1,13
-1.49156,-1.58336,0.582861,1,15
-1.16997,-1.23851,0.0297389,100,8
-0.346661,-0.366841,-0.116525,16,1
-1.39811,-1.47897,0.106661,4,9
-0.399209,-0.422299,-0.112959,16,2
-1.48668,-1.57212,0.189302,1,10
-1.51179,-1.59756,0.270062,1,11
-1.56607,-1.65376,0.360738,1,12
-1.5905,-1.67897,0.449546,1,13
-1.58737,-1.67449,0.532684,1,14
-1.48644,-1.56693,0.578719,1,15
-0.332816,-0.349981,-0.12941,15,0
-1.39638,-1.46685,0.106137,4,9
-0.40068,-0.420903,-0.112959,16,2
-1.51414,-1.59,0.192091,1,10
-1.53653,-1.61239,0.273475,1,11
-1.58001,-1.65686,0.362615,1,12
-1.59364,-1.67057,0.448783,1,13
-1.60935,-1.68586,0.538083,1,14
-1.49724,-1.56732,0.58079,1,15
-0.35007,-0.36556,-0.135621,15,0
-1.17029,-1.22165,0.0295295,5,8
-1.40287,-1.46341,0.106242,4,9
-1.52244,-1.58758,0.19244,1,10
-1.5559,-1.62134,0.275912,1,11
-1.54748,-1.61144,0.353855,1,12
-1.59402,-1.65933,0.447256,1,13
-1.60983,-1.67461,0.536283,1,14
-1.5027,-1.56208,0.58079,1,15
-0.348662,-0.361555,-0.134586,15,0
-1.17316,-1.21611,0.0294946,6,8
-1.40103,-1.45132,0.105719,4,9
-1.55288,-1.60806,0.195577,1,10
-1.53396,-1.58735,0.271037,1,11
-1.53936,-1.59183,0.350726,2,12
-1.57797,-1.63118,0.44115,1,13
-1.61566,-1.66898,0.536283,1,14
-1.55654,-1.60678,0.599425,1,15
-1.18018,-1.21488,0.0295644,7,8
-1.40331,-1.44356,0.105509,4,9
-1.56404,-1.60834,0.196275,1,10
-1.53395,-1.5763,0.270062,1,11
-1.54766,-1.58928,0.351352,2,12
-1.58365,-1.62566,0.44115,1,13
-1.61059,-1.65217,0.532684,1,14
-1.53515,-1.57368,0.589072,1,15
-1.18442,-1.21075,0.0295644,6,8
-1.41532,-1.44579,0.106033,4,9
-1.53898,-1.57155,0.19244,1,10
-1.58946,-1.62197,0.278837,1,11
-1.57257,-1.60361,0.355732,1,12
-1.58932,-1.62013,0.44115,1,13
-1.63273,-1.66322,0.538083,1,14
-1.54064,-1.56831,0.589072,1,15
-1.18442,-1.20234,0.0294597,5,8
-0.346061,-0.351172,-0.113825,16,1
-1.41731,-1.43824,0.105823,4,9
-1.57523,-1.59738,0.196275,1,10
-1.57838,-1.59946,0.275912,1,11
-1.5751,-1.59558,0.355106,1,12
-1.5784,-1.59781,0.436571,1,13
-1.63579,-1.65474,0.537183,1,14
-0.340073,-0.342934,-0.12941,15,0
-1.187,-1.19698,0.0294248,4,8
-1.4181,-1.42903,0.105509,3,9
-1.59484,-1.60601,0.198018,1,10
-1.53611,-1.54633,0.267625,1,11
-1.59459,-1.60408,0.358235,1,12
-1.60031,-1.60927,0.44115,1,13
-1.61103,-1.61892,0.527285,1,14
-1.19965,-1.20132,0.0296342,1,8
-0.375988,-0.376382,-0.122823,15,1
-1.42142,-1.42291,0.105405,4,9
-1.62269,-1.62326,0.200807,1,10
-1.578,-1.57745,0.273962,1,11
-1.58872,-1.58761,0.355732,1,12
-1.58091,-1.5787,0.434281,1,13
-1.61391,-1.61053,0.526385,1,14
-1.20362,-1.19734,0.0296342,1,8
-0.357889,-0.355896,-0.116525,16,1
-1.43346,-1.42498,0.105928,3,9
-1.59442,-1.58388,0.196623,1,10
-1.59449,-1.5834,0.275912,1,11
-1.59425,-1.58205,0.355732,2,12
-1.61122,-1.59834,0.44115,1,13
-1.62478,-1.61066,0.528185,1,14
-1.63047,-1.61517,0.614954,1,15
-1.20068,-1.1861,0.0294597,2,8
-0.377155,-0.372445,-0.122373,15,1
-1.42705,-1.40874,0.105091,2,9
-1.29335,-1.27631,0.158972,1,10
-1.58588,-1.56389,0.273475,1,11
-1.61102,-1.58757,0.358235,1,12
-1.61679,-1.59271,0.44115,1,13
-1.62483,-1.59951,0.526385,1,14
-1.18911,-1.1665,0.0290757,2,8
-0.378452,-0.371126,-0.122373,15,1
-1.40058,-1.37299,0.102788,1,9
-1.20388,-1.17975,0.147468,2,10
-1.61686,-1.58334,0.277862,1,11
-1.59679,-1.5626,0.353855,1,12
-1.60831,-1.57332,0.437334,1,13
-1.63041,-1.59383,0.526385,1,14
-1.2075,-1.1763,0.0294248,1,8
-0.379746,-0.369803,-0.122373,15,1
-1.2048,-1.17326,0.0881338,1,9
-1.22084,-1.18804,0.149036,2,10
-1.63945,-1.5943,0.280787,1,11
-1.61046,-1.56555,0.355732,1,12
-1.61379,-1.5677,0.437334,1,13
-1.63568,-1.58841,0.526385,1,14
-1.64701,-1.5983,0.614954,1,15
-1.22002,-1.18063,0.0296342,1,8
-0.38097,-0.368541,-0.122373,15,1
-1.16562,-1.1276,0.0849936,1,9
-1.2262,-1.18537,0.149211,1,10
-1.61617,-1.56127,0.275912,1,11
-1.61848,-1.56295,0.356358,1,12
-1.61333,-1.55689,0.435808,1,13
-1.63253,-1.57486,0.523686,1,14
-1.15185,-1.10728,0.0278889,1,8
-0.38219,-0.367276,-0.122373,15,1
-1.17387,-1.12767,0.0853076,2,9
-1.23875,-1.18958,0.150256,1,10
-1.61252,-1.54635,0.353855,1,12
-1.62132,-1.55425,0.436571,1,13
-1.64927,-1.57994,0.527285,1,14
-1.65785,-1.58705,0.614954,1,15
-1.18463,-1.13087,0.028587,1,8
-0.38347,-0.36594,-0.122373,15,1
-1.18792,-1.13322,0.0860403,2,9
-1.18234,-1.1275,0.142935,1,10
-1.64366,-1.56523,0.359486,1,12
-1.62105,-1.54316,0.435045,1,13
-1.65195,-1.57149,0.526385,1,14
-1.66338,-1.58125,0.614954,1,15
-1.19438,-1.13223,0.0287267,1,8
-1.18752,-1.12494,0.0857263,4,9
-1.15588,-1.0946,0.139275,2,10
-1.66921,-1.57849,0.363867,1,12
-1.61501,-1.5267,0.431992,1,13
-1.64043,-1.54965,0.520987,1,14
-1.15173,-1.0842,0.0276097,1,8
-0.386015,-0.363254,-0.122373,15,1
-1.19144,-1.12079,0.0857263,4,9
-1.1657,-1.09581,0.139972,2,10
-1.20357,-1.13102,0.202791,1,11
-1.69775,-1.59429,0.368872,1,12
-1.6435,-1.54227,0.438097,1,13
-1.6461,-1.54363,0.520987,1,14
-1.14985,-1.07451,0.0274701,1,8
-0.387344,-0.361836,-0.122373,15,1
-1.17656,-1.0987,0.0843656,4,9
-1.1768,-1.09853,0.140844,3,10
-1.199,-1.11847,0.201328,1,11
-1.6978,-1.58267,0.367621,1,12
-1.64887,-1.53652,0.438097,1,13
-1.65148,-1.53787,0.520987,1,14
-1.72255,-1.60294,0.630483,1,15
-1.17118,-1.08681,0.0278889,1,8
-0.388604,-0.360482,-0.122373,15,1
-1.1921,-1.10545,0.0852029,4,9
-1.1852,-1.09827,0.141367,2,10
-1.21163,-1.12237,0.202791,1,11
-1.71781,-1.59015,0.37075,1,12
-1.67755,-1.5518,0.444203,1,13
-1.6571,-1.53181,0.520987,1,14
-1.68557,-1.55758,0.614954,1,15
-1.16596,-1.07479,0.0276795,1,8
-1.19557,-1.1017,0.0852029,4,9
-1.1564,-1.06485,0.137532,2,10
-1.20366,-1.1076,0.200841,1,11
-1.65303,-1.51897,0.518287,1,14
-1.70184,-1.56273,0.619095,1,15
-1.17837,-1.07902,0.0278889,1,8
-0.390987,-0.357897,-0.122373,15,1
-1.19627,-1.09503,0.0849936,4,9
-1.17756,-1.07715,0.139624,2,10
-1.1956,-1.09289,0.198891,3,11
-1.76873,-1.61507,0.465574,1,13
-1.69836,-1.55027,0.530885,1,14
-1.68703,-1.53885,0.611848,1,15
-1.17306,-1.06703,0.0276795,1,8
-0.392171,-0.356598,-0.122373,15,1
-1.19565,-1.08682,0.0846796,2,9
-1.16786,-1.06118,0.138055,4,10
-1.18012,-1.07157,0.195722,3,11
-1.76826,-1.60392,0.464048,1,13
-1.68355,-1.52601,0.524586,1,14
-1.68953,-1.53036,0.610813,1,15
-1.17381,-1.06025,0.0276097,1,8
-1.17868,-1.0639,0.0832142,2,9
-1.20114,-1.08379,0.141541,4,10
-1.18827,-1.07143,0.196453,4,11
-1.72942,-1.55663,0.537183,1,14
-1.69055,-1.52058,0.60926,1,15
-1.17155,-1.0508,0.0274701,1,8
-0.394651,-0.353852,-0.122373,15,1
-1.19726,-1.07311,0.0842609,2,9
-1.19008,-1.0663,0.139798,4,10
-1.19348,-1.0686,0.196697,6,11
-1.7189,-1.53526,0.617542,1,15
-1.20209,-1.07065,0.0280984,1,8
-1.21443,-1.08088,0.0852029,2,9
-1.1804,-1.05022,0.138229,4,10
-1.21056,-1.0763,0.198891,6,11
-1.68956,-1.49848,0.605119,1,15
-1.16987,-1.03465,0.0272607,2,8
-0.397112,-0.351088,-0.122373,15,1
-1.2152,-1.07398,0.0849936,2,9
-1.19301,-1.05401,0.139275,2,10
-1.20687,-1.0655,0.197672,6,11
-1.71508,-1.51045,0.612366,1,15
-1.19451,-1.04903,0.0277493,1,8
-0.398335,-0.3497,-0.122373,15,1
-1.22194,-1.07237,0.0852029,2,9
-1.17122,-1.0275,0.136312,2,10
-1.19715,-1.0495,0.195478,7,11
-1.72034,-1.50446,0.612366,1,15
-1.21625,-1.06063,0.0281682,1,8
-0.399553,-0.348307,-0.122373,15,1
-1.21646,-1.06044,0.0845749,3,9
-1.19734,-1.04303,0.138926,4,10
-1.20679,-1.05053,0.196453,7,11
-1.71949,-1.49367,0.610295,1,15
-1.21976,-1.05659,0.0281682,1,8
-1.22299,-1.05901,0.0847843,4,9
-1.20079,-1.03906,0.138926,4,10
-1.20877,-1.04522,0.19621,7,11
-1.23539,-1.06297,0.0284474,1,8
-1.22365,-1.05213,0.0845749,5,9
-1.19214,-1.02468,0.137532,4,10
-1.22578,-1.05285,0.198403,7,11
-1.25429,-1.07165,0.0287965,1,8
-1.23643,-1.05564,0.0852029,5,9
-1.20935,-1.03215,0.139101,3,10
-1.22794,-1.04727,0.19816,7,11
-2.87606,-2.45119,0.598518,1,12
-1.25802,-1.06726,0.0287965,1,8
-1.24297,-1.05411,0.0854123,5,9
-1.20535,-1.02148,0.138229,2,10
-1.22855,-1.04042,0.197672,6,11
-2.87211,-2.43142,0.596015,5,12
-2.55706,-2.16318,0.65104,1,13
-2.33651,-1.9752,0.706346,1,14
-1.24359,-1.0472,0.0852029,4,9
-1.21043,-1.01855,0.138403,2,10
-1.2244,-1.02995,0.196453,6,11
-2.88361,-2.42393,0.596641,7,12
-2.57023,-2.15974,0.652567,2,13
-2.352,-1.97496,0.709046,1,14
-2.11771,-1.77697,0.74074,1,15
-1.2411,-1.03772,0.0847843,4,9
-1.21839,-1.01837,0.138926,2,10
-1.24018,-1.03585,0.198403,6,11
-2.8875,-2.41005,0.595703,9,12
-2.57625,-2.1495,0.652185,2,13
-2.36486,-1.97173,0.710845,1,14
-2.12539,-1.77081,0.741258,2,15
-1.25548,-1.04232,0.085517,4,9
-1.1974,-0.99375,0.136137,2,10
-1.23767,-1.02644,0.197428,4,11
-2.89286,-2.39743,0.595077,10,12
-2.5928,-2.14801,0.654475,2,13
-2.36423,-1.95725,0.708596,1,14
-2.11369,-1.7486,0.735046,2,15
-1.4639,-1.2076,0.0331247,1,8
-1.26681,-1.04428,0.0860403,3,9
-1.21009,-0.997166,0.137183,2,10
-1.23206,-1.01455,0.195966,3,11
-2.90731,-2.39234,0.596328,10,12
-2.63213,-2.16513,0.662489,1,13
-2.36653,-1.94527,0.707246,1,14
-2.1377,-1.75593,0.741258,2,15
-1.54546,-1.26584,0.0348699,1,8
-1.26427,-1.03479,0.0856216,2,9
-1.20585,-0.986628,0.136312,2,10
-1.23252,-1.00773,0.195478,3,11
-2.92176,-2.38718,0.59758,10,12
-2.61534,-2.13606,0.656383,1,13
-2.37783,-1.9407,0.708596,1,14
-2.13483,-1.74113,0.738152,2,15
-1.28027,-1.04045,0.086459,1,9
-1.21857,-0.98995,0.137357,2,10
-1.23294,-1.00091,0.194991,1,11
-2.9224,-2.37074,0.596015,10,12
-2.36642,-1.91766,0.703197,1,14
-2.1394,-1.73245,0.737634,2,15
-1.30255,-1.05102,0.0877151,1,9
-1.25321,-1.01049,0.140844,1,10
-1.28589,-1.03647,0.202791,1,11
-2.92605,-2.35681,0.595077,10,12
-2.68562,-2.16161,0.670121,1,13
-2.37647,-1.91142,0.704097,1,14
-2.14694,-1.72618,0.738152,2,15
-1.33115,-1.06645,0.0893898,1,9
-1.26295,-1.01109,0.141541,1,10
-1.32998,-1.06399,0.209128,1,11
-2.92191,-2.33671,0.592574,10,12
-2.6272,-2.09952,0.653712,2,13
-2.37519,-1.89745,0.701847,1,14
-2.13181,-1.7018,0.730905,2,15
-1.3675,-1.08815,0.0915879,2,9
-1.28813,-1.02426,0.143981,1,10
-2.94821,-2.34175,0.596328,11,12
-2.61877,-2.07859,0.649895,2,13
-2.39826,-1.90288,0.706796,1,14
-2.16469,-1.71633,0.740223,2,15
-1.3758,-1.08732,0.0919019,3,9
-1.3009,-1.02739,0.145027,1,10
-2.94975,-2.32707,0.595077,10,12
-2.61794,-2.06382,0.647987,2,13
-2.41068,-1.89974,0.708596,1,14
-2.1643,-1.70436,0.738152,2,15
-1.40453,-1.10248,0.0935767,1,9
-2.95745,-2.31727,0.595077,11,12
-2.63559,-2.06359,0.650659,2,13
-2.40315,-1.88093,0.704547,1,14
-2.17146,-1.69836,0.73867,2,15
-0.418146,-0.325752,-0.122373,15,1
-2.94003,-2.2904,0.195318,0,9
-2.95189,-2.29551,0.592261,10,12
-2.64158,-2.05272,0.650277,2,13
-2.4119,-1.87288,0.704997,1,14
-2.1853,-1.69632,0.741258,2,15
-0.419224,-0.324364,-0.122373,15,1
-2.93536,-2.27035,0.19448,0,9
-3.01097,-2.32714,0.332935,1,10
-3.03177,-2.34237,0.470416,1,11
-2.96771,-2.29122,0.593825,11,12
-2.64838,-2.04395,0.650277,2,13
-2.42581,-1.87082,0.707246,1,14
-2.16673,-1.66981,0.732976,2,15
-2.97179,-2.28198,0.196365,1,9
-3.01867,-2.31715,0.332935,1,10
-3.03992,-2.33177,0.470416,1,11
-2.96785,-2.27484,0.592261,11,12
-2.65705,-2.03588,0.650659,2,13
-2.42459,-1.85642,0.704997,1,14
-2.19402,-1.67867,0.740223,2,15
-0.390487,-0.297795,-0.113375,16,1
-2.97338,-2.26675,0.195946,0,9
-3.02674,-2.3066,0.332935,1,10
-3.04804,-2.32115,0.470416,1,11
-2.97891,-2.26686,0.592887,11,12
-2.65477,-2.01946,0.648369,2,13
-2.4295,-1.84677,0.704547,1,14
-2.18602,-1.66049,0.735564,2,15
-2.97172,-2.24913,0.195318,0,9
-3.03478,-2.29602,0.332935,1,10
-3.05613,-2.31049,0.470416,1,11
-2.98681,-2.25645,0.592887,11,12
-2.66493,-2.01255,0.649132,2,13
-2.43593,-1.83828,0.704547,1,14
-2.18409,-1.64703,0.732976,2,15
-0.401903,-0.302087,-0.116075,16,1
-2.96997,-2.23154,0.19469,0,9
-3.04277,-2.28541,0.332935,1,10
-3.06418,-2.29981,0.470416,1,11
-2.9836,-2.23771,0.590697,11,12
-2.67823,-2.00795,0.650659,2,13
-2.43298,-1.82275,0.701847,1,14
-2.19292,-1.64171,0.734011,2,15
-0.424821,-0.316998,-0.122373,15,1
-2.97774,-2.22116,0.19469,0,9
-3.05073,-2.27477,0.332935,1,10
-2.98981,-2.2261,0.590384,11,12
-2.69624,-2.00679,0.65333,2,13
-2.44871,-1.82123,0.704547,1,14
-2.20484,-1.63866,0.736081,2,15
-0.425925,-0.315513,-0.122373,15,1
-2.98548,-2.21075,0.19469,0,9
-3.08016,-2.27836,0.470416,1,11
-3.00392,-2.22035,0.591635,11,12
-2.69376,-1.99037,0.65104,2,13
-2.46446,-1.81961,0.707246,1,14
-2.22299,-1.64012,0.740223,2,15
-3.00245,-2.20794,0.195318,1,9
-3.08809,-2.2676,0.470416,1,11
-3.0049,-2.2057,0.590384,11,12
-2.68802,-1.97166,0.647987,2,13
-2.47865,-1.81676,0.709496,1,14
-2.21906,-1.62589,0.737117,2,15
-0.428063,-0.312607,-0.122373,15,1
-3.00046,-2.19038,0.19469,0,9
-3.07438,-2.2427,0.332935,1,10
-3.09559,-2.25735,0.470416,1,11
-3.02535,-2.20451,0.592887,11,12
-2.69772,-1.96505,0.648751,2,13
-2.46103,-1.79133,0.702747,1,14
-2.22472,-1.61814,0.737117,2,15
-3.01779,-2.18692,0.195318,0,9
-3.08181,-2.23249,0.332935,1,10
-3.10345,-2.24653,0.470416,1,11
-3.01542,-2.1812,0.589445,11,12
-2.70297,-1.95447,0.648369,2,13
-2.46569,-1.78158,0.702297,1,14
-2.22723,-1.6081,0.736081,2,15
-3.0254,-2.17638,0.195318,0,9
-3.08958,-2.22172,0.332935,1,10
-3.11128,-2.23568,0.470416,1,11
-3.0182,-2.1672,0.588507,11,12
-2.71297,-1.94731,0.649132,2,13
-2.47506,-1.77524,0.703197,1,14
-2.22497,-1.59469,0.733493,2,15
-0.399599,-0.285452,-0.113375,16,1
-3.05249,-2.17973,0.196574,0,9
-3.03894,-2.16925,0.32666,1,10
-3.11906,-2.22481,0.470416,1,11
-3.03218,-2.16124,0.589758,10,12
-2.72135,-1.93897,0.649514,2,13
-2.48918,-1.77224,0.705446,1,14
-2.21164,-1.57347,0.727282,2,15
-3.03075,-2.14827,0.19469,1,9
-3.06275,-2.17015,0.328403,1,10
-3.12681,-2.2139,0.470416,1,11
-3.03971,-2.15064,0.589758,11,12
-2.71848,-1.92266,0.647224,2,13
-2.49376,-1.76241,0.704997,1,14
-2.2187,-1.56686,0.727799,2,15
-0.403175,-0.283777,-0.113825,16,1
-3.01336,-2.12097,0.19312,1,9
-3.11267,-2.18925,0.332935,1,10
-3.13452,-2.20298,0.470416,1,11
-3.04682,-2.14055,0.589758,11,12
-2.72839,-1.91541,0.647987,2,13
-2.49959,-1.75414,0.704997,1,14
-2.25235,-1.57946,0.737117,2,15
-3.03674,-2.1224,0.194166,1,9
-3.05785,-2.13556,0.326311,1,10
-3.14181,-2.19257,0.470416,1,11
-3.05391,-2.13043,0.589758,11,12
-2.74117,-1.91085,0.649514,2,13
-2.48141,-1.72913,0.698248,1,14
-2.23696,-1.55763,0.730387,2,15
-3.03921,-2.10837,0.193852,0,9
-3.08456,-2.13904,0.328403,1,10
-3.14906,-2.18214,0.470416,1,11
-3.04508,-2.10852,0.586629,11,12
-2.75234,-1.9051,0.650659,2,13
-2.49705,-1.7271,0.700947,1,14
-2.24239,-1.54981,0.730387,2,15
-3.05313,-2.10228,0.194271,1,9
-3.07559,-2.11696,0.32666,1,10
-3.15666,-2.17113,0.470416,1,11
-3.06382,-2.10571,0.588819,10,12
-2.74764,-1.8877,0.647987,2,13
-2.49503,-1.71286,0.698698,1,14
-2.25097,-1.54416,0.731423,2,15
-3.06705,-2.09612,0.19469,1,9
-3.09942,-2.11745,0.328403,1,10
-3.16422,-2.1601,0.470416,1,11
-3.07278,-2.09611,0.589132,11,12
-2.74935,-1.87478,0.646843,2,13
-2.51548,-1.71402,0.702747,1,14
-2.25954,-1.53847,0.732458,2,15
-3.03467,-2.05849,0.192178,0,9
-3.10679,-2.10662,0.328403,1,10
-3.17174,-2.14904,0.470416,1,11
-3.08172,-2.08648,0.589445,10,12
-2.76075,-1.86847,0.647987,2,13
-2.5037,-1.69322,0.697798,1,14
-2.2713,-1.5349,0.734528,2,15
-3.03817,-2.04619,0.191968,1,9
-3.1571,-2.12468,0.332935,1,10
-3.17922,-2.13796,0.470416,1,11
-3.08042,-2.07074,0.587881,11,12
-2.78356,-1.86977,0.651804,2,13
-2.51606,-1.68881,0.699598,1,14
-2.2475,-1.50798,0.725211,2,15
-3.06854,-2.05111,0.193434,0,9
-3.08166,-2.05832,0.324219,1,10
-3.18629,-2.1274,0.470416,1,11
-3.08599,-2.05888,0.587568,11,12
-2.77667,-1.85181,0.648751,2,13
-2.53138,-1.68694,0.702297,1,14
-2.25918,-1.50441,0.727282,2,15
-3.07533,-2.04092,0.193434,1,9
-3.12832,-2.07452,0.328403,1,10
-3.1937,-2.11627,0.470416,1,11
-3.09445,-2.04972,0.587881,11,12
-2.7864,-1.84427,0.649514,2,13
-2.534,-1.67595,0.701397,1,14
-2.26738,-1.49904,0.728317,2,15
-3.0891,-2.03457,0.193852,1,9
-3.17881,-2.09206,0.332935,1,10
-3.2007,-2.10567,0.470416,1,11
-3.10653,-2.04216,0.588819,11,12
-2.77773,-1.82532,0.646079,2,13
-2.53629,-1.6654,0.700498,1,14
-2.25806,-1.48158,0.723658,2,15
-3.07313,-2.00794,0.192387,0,9
-3.14308,-2.05208,0.328403,1,10
-3.20876,-2.09336,0.470416,1,11
-3.11069,-2.02861,0.588194,11,12
-2.79459,-1.82107,0.648369,2,13
-2.5345,-1.65033,0.698248,1,14
-2.291,-1.49121,0.732458,2,15
-3.07677,-1.99503,0.192178,1,9
-3.1937,-2.06926,0.332935,1,10
-3.21569,-2.08271,0.470416,1,11
-3.10614,-2.01022,0.586004,11,12
-2.80061,-1.8118,0.648369,2,13
-2.54159,-1.64297,0.698698,1,14
-2.28646,-1.47691,0.729352,2,15
-3.10352,-1.99778,0.193434,1,9
-3.15698,-2.03064,0.328403,1,10
-3.11279,-1.99991,0.586004,10,12
-2.81353,-1.80625,0.649895,2,13
-2.54895,-1.63514,0.699148,1,14
-2.27508,-1.45889,0.724176,2,15
-0.428585,-0.273881,-0.117424,16,1
-3.11721,-1.99124,0.193852,0,9
-3.12374,-1.99388,0.324219,1,10
-3.12309,-1.99116,0.586629,10,12
-2.79963,-1.78425,0.645316,2,13
-2.57244,-1.6382,0.704097,1,14
-2.29483,-1.46028,0.728835,2,15
-3.10052,-1.96538,0.192387,0,9
-3.1539,-1.99844,0.32666,1,10
-3.17658,-2.01126,0.461641,1,11
-3.14003,-1.98658,0.588507,11,12
-2.81912,-1.78286,0.648369,2,13
-2.55673,-1.61567,0.698248,1,14
-2.28848,-1.44504,0.725211,2,15
-3.1006,-1.95029,0.191968,1,9
-3.22157,-2.02559,0.332935,1,10
-3.14695,-1.97561,0.588507,11,12
-0.469105,-0.294497,-0.0484586,11,5
-2.82366,-1.77197,0.647987,2,13
-2.5541,-1.60156,0.695999,1,14
-2.30006,-1.44115,0.727282,2,15
-0.418205,-0.261121,-0.113825,16,1
-3.10739,-1.93945,0.191968,1,9
-3.1441,-1.9616,0.324219,1,10
-3.25119,-2.02684,0.470416,1,11
-3.13706,-1.95417,0.585378,11,12
-2.8115,-1.75068,0.64379,2,13
-2.55636,-1.59058,0.695099,1,14
-2.30015,-1.43005,0.725729,2,15
-3.12094,-1.9328,0.192387,1,9
-3.23564,-2.00305,0.332935,1,10
-3.25825,-2.01548,0.470416,1,11
-3.15058,-1.94736,0.586629,11,12
-2.82594,-1.74602,0.645698,2,13
-2.57848,-1.59188,0.699598,1,14
-2.29198,-1.4139,0.721588,2,15
-0.426659,-0.262277,-0.115625,16,1
-3.12733,-1.92244,0.192387,0,9
-3.17809,-1.95212,0.326311,1,10
-3.26526,-2.00409,0.470416,1,11
-3.15365,-1.93483,0.586004,11,12
-2.82365,-1.73101,0.64379,2,13
-2.58541,-1.58434,0.700048,1,14
-2.30983,-1.41436,0.725729,1,15
-0.430853,-0.262891,-0.116525,16,1
-3.15244,-1.9235,0.193538,1,9
-3.16414,-1.92913,0.324219,1,10
-3.27189,-1.99325,0.470416,1,11
-3.1668,-1.92847,0.587255,11,12
-0.473121,-0.288001,-0.0484586,11,5
-2.8277,-1.72062,0.643408,2,13
-2.59065,-1.57576,0.700048,1,14
-2.30956,-1.40368,0.724176,2,15
-0.431723,-0.261461,-0.116525,16,1
-3.13351,-1.89697,0.191968,0,9
-3.17052,-1.91862,0.324219,1,10
-3.17351,-1.91741,0.587255,11,12
-2.81826,-1.7021,0.639973,2,13
-0.482171,-0.291094,-0.0295175,16,6
-2.58946,-1.56268,0.698248,1,14
-2.33099,-1.40559,0.729352,2,15
-3.08329,-1.85336,0.0627938,1,8
-0.456018,-0.274003,-0.122823,15,1
-3.14182,-1.88705,0.192073,1,9
-3.21853,-1.93159,0.328403,1,10
-3.28538,-1.97094,0.470416,1,11
-3.16663,-1.89819,0.584752,11,12
-2.84806,-1.70588,0.645316,2,13
-0.483235,-0.289325,-0.0295175,16,6
-2.58514,-1.54717,0.695549,1,14
-2.34583,-1.40339,0.732458,2,15
-3.26183,-1.94444,0.0662842,1,8
-0.423538,-0.252379,-0.113825,16,1
-3.16931,-1.88779,0.193329,1,9
-3.26976,-1.94685,0.332935,1,10
-3.29258,-1.95888,0.470416,1,11
-3.18036,-1.89061,0.586004,10,12
-2.85569,-1.69693,0.645698,2,13
-0.484242,-0.287636,-0.0295175,16,6
-2.58885,-1.53714,0.695099,1,14
-2.31772,-1.37507,0.722105,2,15
-3.18254,-1.88215,0.064539,1,8
-3.17072,-1.87367,0.193015,1,9
-3.19076,-1.88476,0.324219,1,10
-3.2994,-1.94738,0.470416,1,11
-3.18524,-1.8785,0.585691,10,12
-2.86159,-1.68695,0.645698,2,13
-0.485243,-0.285944,-0.0295175,16,6
-2.60259,-1.53304,0.697348,1,14
-2.3325,-1.37285,0.725211,2,15
-3.1477,-1.84674,0.0637013,1,8
-0.42529,-0.249416,-0.113825,16,1
-3.1683,-1.85809,0.192492,1,9
-3.23858,-1.89778,0.328403,1,10
-3.30618,-1.93585,0.470416,1,11
-3.19316,-1.86892,0.586004,11,12
-2.86408,-1.67497,0.644934,2,13
-0.486238,-0.284248,-0.0295175,16,6
-2.61129,-1.52592,0.698248,1,14
-2.32703,-1.35926,0.722105,2,15
-3.17454,-1.84837,0.0641201,1,8
-0.43622,-0.253886,-0.116525,16,1
-3.16441,-1.84099,0.191864,1,9
-3.24518,-1.88647,0.328403,1,10
-3.31258,-1.92487,0.470416,1,11
-3.20649,-1.86173,0.587255,10,12
-2.87301,-1.66744,0.645698,2,13
-0.487178,-0.282635,-0.0295175,16,6
-2.61802,-1.51823,0.698698,1,14
-2.34179,-1.35694,0.725211,2,15
-3.17751,-1.83528,0.0640503,1,8
-3.1705,-1.83049,0.191864,1,9
-3.21,-1.8518,0.324219,1,10
-3.2058,-1.84714,0.586004,11,12
-2.89242,-1.66523,0.648751,2,13
-0.488162,-0.280932,-0.0295175,16,6
-2.61629,-1.50565,0.696898,1,14
-2.34628,-1.34917,0.725211,2,15
-3.20787,-1.83865,0.064539,1,8
-3.19215,-1.8289,0.192806,1,9
-3.21612,-1.84115,0.324219,1,10
-3.3256,-1.90228,0.470416,1,11
-3.20334,-1.8316,0.584439,11,12
-2.87747,-1.64395,0.644171,2,13
-0.489091,-0.279312,-0.0295175,16,6
-2.62634,-1.49986,0.698248,1,14
-2.35242,-1.34234,0.725729,2,15
-3.17918,-1.80823,0.0638409,1,8
-3.21067,-1.82465,0.193538,1,9
-3.20489,-1.82063,0.322476,1,10
-3.33189,-1.89124,0.470416,1,11
-3.21143,-1.82138,0.584752,11,12
-2.87437,-1.62955,0.642263,2,13
-0.490014,-0.277688,-0.0295175,16,6
-2.62308,-1.48588,0.695999,1,14
-2.34028,-1.3246,0.720552,1,15
-3.16806,-1.7873,0.0634919,1,8
-0.429451,-0.242181,-0.113825,16,1
-3.20136,-1.80461,0.192596,1,9
-3.2289,-1.81865,0.324219,1,10
-3.33848,-1.8796,0.470416,1,11
-3.23154,-1.81791,0.587255,11,12
-2.87006,-1.61324,0.639973,2,13
-0.491029,-0.275891,-0.0295175,16,6
-2.64381,-1.48485,0.700048,1,14
-2.34152,-1.31453,0.719517,2,15
-3.19204,-1.78543,0.0638409,1,8
-3.20589,-1.79245,0.192492,1,9
-3.27697,-1.83069,0.328403,1,10
-3.34534,-1.86735,0.470416,1,11
-3.23614,-1.80565,0.586942,11,12
-2.88596,-1.60894,0.642263,2,13
-0.491989,-0.274175,-0.0295175,16,6
-2.62148,-1.46089,0.692849,1,14
-2.36466,-1.31669,0.725211,2,15
-3.21543,-1.78454,0.06419,1,8
-3.20309,-1.77696,0.191968,1,9
-3.26212,-1.80822,0.326311,1,10
-3.26469,-1.80816,0.458229,1,11
-3.23174,-1.78917,0.585065,11,12
-0.439301,-0.243108,-0.0439265,12,5
-2.89815,-1.60317,0.64379,2,13
-0.492895,-0.272542,-0.0295175,16,6
-2.65189,-1.46634,0.699598,1,14
-2.36394,-1.30604,0.723658,1,15
-3.20731,-1.76615,0.0639107,1,8
-3.21771,-1.77115,0.192492,1,9
-3.28904,-1.80891,0.328403,1,10
-3.24631,-1.78394,0.454816,1,11
-3.23766,-1.77845,0.585065,10,12
-2.89657,-1.58977,0.642263,2,13
-0.493796,-0.270906,-0.0295175,16,6
-2.64136,-1.4491,0.695549,1,14
-2.37672,-1.30284,0.726246,2,15
-3.21315,-1.75551,0.0639107,1,8
-3.23058,-1.7643,0.19291,1,9
-3.25305,-1.77509,0.324219,1,10
-3.36375,-1.83398,0.470416,1,11
-3.24874,-1.77054,0.586004,11,12
-0.486394,-0.26497,-0.0484586,11,5
-2.89148,-1.57452,0.639973,2,13
-2.64615,-1.44033,0.695549,1,14
-2.36067,-1.28387,0.720035,2,15
-3.21253,-1.73991,0.0637711,1,8
-3.24054,-1.75435,0.19312,1,9
-3.24551,-1.75557,0.322825,1,10
-3.25868,-1.76049,0.586629,11,12
-2.91278,-1.57231,0.643408,2,13
-0.495675,-0.267452,-0.0295175,16,6
-2.66342,-1.4371,0.698698,1,14
-3.31589,-1.78841,-0.0657607,2,7
-2.37896,-1.28255,0.724176,2,15
-3.24295,-1.7425,0.0642598,1,8
-3.23402,-1.73697,0.192387,1,9
-3.30047,-1.77118,0.327706,1,10
-3.37647,-1.81045,0.470416,1,11
-3.27495,-1.75528,0.588507,10,12
-0.44257,-0.237105,-0.0439265,12,5
-2.92317,-1.56542,0.644553,2,13
-0.450778,-0.2413,-0.026796,18,6
-2.65614,-1.42182,0.695549,1,14
-3.3218,-1.7774,-0.0657607,2,7
-2.39342,-1.28012,0.727282,2,15
-3.23812,-1.72609,0.0640503,1,8
-3.24183,-1.72661,0.192492,1,9
-3.27116,-1.7415,0.324219,1,10
-3.38246,-1.79924,0.470416,1,11
-3.25489,-1.72993,0.583813,10,12
-0.489141,-0.259862,-0.0484586,11,5
-2.92661,-1.5548,0.644171,2,13
-0.497438,-0.264159,-0.0295175,16,6
-2.66109,-1.41254,0.695549,1,14
-3.32798,-1.7658,-0.0657607,2,7
-2.4047,-1.27537,0.729352,2,15
-3.23705,-1.71104,0.0639107,1,8
-3.239,-1.71062,0.191968,1,9
-3.25989,-1.7202,0.322476,1,10
-3.38872,-1.78743,0.470416,1,11
-3.25916,-1.71764,0.583501,10,12
-2.9236,-1.53948,0.642263,2,13
-0.498403,-0.262334,-0.0295175,16,6
-2.6628,-1.40097,0.694649,1,14
-3.33413,-1.75417,-0.0657607,2,7
-2.3681,-1.24539,0.716929,2,15
-3.23976,-1.69731,0.0638409,1,8
-3.25734,-1.70579,0.192701,1,9
-3.3259,-1.74022,0.328403,1,10
-3.27389,-1.71082,0.585065,9,12
-2.922,-1.52564,0.640737,2,13
-0.499316,-0.260592,-0.0295175,16,6
-2.66595,-1.39076,0.694199,1,14
-3.34023,-1.74252,-0.0657607,2,7
-2.38443,-1.24337,0.720552,1,15
-3.24892,-1.6884,0.0639107,1,8
-3.26682,-1.69625,0.19291,1,9
-3.27536,-1.69924,0.322825,1,10
-3.40112,-1.76372,0.470416,1,11
-3.29212,-1.70575,0.587255,10,12
-2.92704,-1.51594,0.640737,2,13
-0.500177,-0.258935,-0.0295175,16,6
-2.67574,-1.3846,0.695549,1,14
-3.34629,-1.73085,-0.0657607,2,7
-2.39562,-1.23859,0.722623,1,15
-3.25124,-1.67522,0.0638409,1,8
-3.27272,-1.68484,0.19291,1,9
-3.29515,-1.69566,0.324219,1,10
-3.3437,-1.71916,0.461641,1,11
-3.29806,-1.69424,0.587255,9,12
-2.94279,-1.51109,0.643026,2,13
-0.501078,-0.257188,-0.0295175,16,6
-2.66841,-1.36903,0.692399,1,14
-3.35231,-1.71916,-0.0657607,2,7
-2.39993,-1.23022,0.722623,1,15
-3.26775,-1.66931,0.0640503,1,8
-3.27858,-1.67341,0.19291,1,9
-3.31909,-1.69262,0.325962,1,10
-3.41335,-1.73994,0.470416,1,11
-3.29515,-1.67824,0.585691,10,12
-0.447438,-0.227784,-0.0439265,12,5
-2.93431,-1.49317,0.639973,2,13
-2.66126,-1.35305,0.68925,1,14
-3.29412,-1.67482,-0.0645041,2,7
-2.40421,-1.22183,0.722623,1,15
-3.24887,-1.64468,0.0635617,1,8
-3.2844,-1.66195,0.19291,1,9
-3.32498,-1.68103,0.325962,1,10
-3.4197,-1.72742,0.470416,1,11
-3.29394,-1.66317,0.584439,9,12
-2.94827,-1.48734,0.641881,2,13
-0.502906,-0.253595,-0.0295175,16,6
-2.67965,-1.35124,0.692849,1,14
-3.31423,-1.67051,-0.0647833,2,7
-2.40155,-1.20996,0.720552,2,15
-3.26503,-1.63928,0.0637711,1,8
-0.438911,-0.22027,-0.113375,16,1
-3.29704,-1.65463,0.193329,1,9
-3.34835,-1.67892,0.327706,1,10
-3.42541,-1.71607,0.470416,1,11
-3.31356,-1.65931,0.586942,9,12
-0.448978,-0.224733,-0.0439265,12,5
-2.94968,-1.4758,0.641118,2,13
-0.457299,-0.228699,-0.026796,18,6
-2.67714,-1.33886,0.69105,1,14
-3.36984,-1.68455,-0.0657607,2,7
-2.40383,-1.20112,0.720035,2,15
-3.29551,-1.64092,0.0642598,1,8
-3.30458,-1.644,0.193434,1,9
-3.33606,-1.65894,0.325962,1,10
-3.31403,-1.6451,0.586004,8,12
-2.95983,-1.46863,0.642263,2,13
-0.504576,-0.250254,-0.0295175,16,6
-2.701,-1.33903,0.695999,1,14
-3.3757,-1.67277,-0.0657607,2,7
-2.39762,-1.18758,0.716929,2,15
-3.30121,-1.62941,0.0642598,1,8
-3.28522,-1.62009,0.191968,1,9
-3.37042,-1.66138,0.328751,1,10
-3.43701,-1.69271,0.470416,1,11
-3.32861,-1.63788,0.587568,9,12
-0.461224,-0.22695,-0.0449724,12,5
-2.95261,-1.45222,0.639592,2,13
-0.505447,-0.248492,-0.0295175,16,6
-2.68992,-1.32186,0.691949,1,14
-3.38152,-1.66098,-0.0657607,2,7
-2.41909,-1.18772,0.722105,2,15
-3.30329,-1.61612,0.06419,1,8
-3.30672,-1.61708,0.19291,1,9
-3.34756,-1.63561,0.325962,1,10
-3.4429,-1.6807,0.470416,1,11
-3.31805,-1.61904,0.584752,8,12
-0.451268,-0.220098,-0.0439265,12,5
-2.95589,-1.44105,0.63921,2,13
-0.506311,-0.246726,-0.0295175,16,6
-3.387,-1.64976,-0.0657607,2,7
-2.41607,-1.17631,0.720035,2,15
-3.31223,-1.6069,0.0642598,1,8
-3.30696,-1.60292,0.192596,1,9
-3.37118,-1.6326,0.327706,1,10
-3.44845,-1.66928,0.470416,1,11
-3.33257,-1.61174,0.586316,8,12
-2.97833,-1.43978,0.643026,2,13
-0.507127,-0.245046,-0.0295175,16,6
-3.32791,-1.60663,-0.0645041,2,7
-2.4306,-1.1729,0.72314,1,15
-3.31782,-1.59533,0.0642598,1,8
-0.442615,-0.212731,-0.113375,16,1
-3.35726,-1.61357,0.195213,1,9
-3.35502,-1.61106,0.325614,1,10
-3.45426,-1.65723,0.470416,1,11
-3.3379,-1.60069,0.586316,9,12
-0.452756,-0.217022,-0.0439265,12,5
-2.9798,-1.42768,0.642263,2,13
-0.507979,-0.243274,-0.0295175,16,6
-3.39816,-1.62666,-0.0657607,2,7
-2.44493,-1.16984,0.726246,1,15
-3.29782,-1.57227,0.0637711,1,8
-0.450354,-0.214615,-0.115175,16,1
-3.35025,-1.59583,0.19448,1,9
-3.4002,-1.61817,0.329449,1,10
-3.34525,-1.58987,0.586629,8,12
-2.98983,-1.42032,0.643408,1,13
-0.508783,-0.241588,-0.0295175,16,6
-3.40381,-1.61479,-0.0657607,2,7
-3.31775,-1.56759,0.0640503,1,8
-0.454625,-0.214706,-0.116075,16,1
-3.33773,-1.5756,0.193434,1,9
-3.39834,-1.60349,0.328751,1,10
-3.35256,-1.57903,0.586942,8,12
-0.457828,-0.215633,-0.0442751,12,5
-0.509623,-0.23981,-0.0295175,16,6
-3.40943,-1.6029,-0.0657607,2,7
-2.51598,-1.18232,0.744881,1,15
-3.34856,-1.56787,0.064539,1,8
-3.34502,-1.56479,0.193538,1,9
-3.39309,-1.58655,0.327706,1,10
-3.34373,-1.56063,0.584439,8,12
-0.465799,-0.217404,-0.0449724,12,5
-0.510457,-0.23803,-0.0295175,16,6
-3.415,-1.59099,-0.0657607,2,7
-2.46405,-1.14744,0.728317,1,15
-3.33587,-1.54775,0.06419,1,8
-0.480863,-0.223005,-0.122373,15,1
-3.37221,-1.56318,0.194794,1,9
-3.37691,-1.56465,0.325614,1,10
-3.47678,-1.60944,0.470416,1,11
-3.35275,-1.55061,0.585065,8,12
-0.502723,-0.232503,-0.0484586,11,5
-0.511285,-0.236247,-0.0295175,16,6
-2.42594,-1.1194,0.715894,1,15
-3.32672,-1.52942,0.0639107,1,8
-0.46039,-0.211561,-0.116975,16,1
-3.3722,-1.5489,0.19448,1,9
-3.40408,-1.56283,0.327706,1,10
-3.36532,-1.54219,0.586316,8,12
-0.512106,-0.234461,-0.0295175,16,6
-2.74307,-1.25529,0.696449,1,14
-2.44038,-1.11575,0.718999,1,15
-3.33204,-1.51779,0.0639107,1,8
-0.461126,-0.209953,-0.116975,16,1
-3.36823,-1.53357,0.193957,1,9
-3.39138,-1.54268,0.325962,1,10
-3.37761,-1.53429,0.587568,8,12
-0.512922,-0.232672,-0.0295175,16,6
-2.73302,-1.23975,0.692849,1,14
-2.92126,-1.32453,-0.0559873,1,7
-2.4511,-1.11084,0.72107,2,15
-3.39537,-1.53307,0.0650277,1,8
-0.468924,-0.211629,-0.118774,16,1
-3.3915,-1.53061,0.195004,1,9
-3.42554,-1.54453,0.328751,1,10
-3.38268,-1.52308,0.587568,8,12
-0.457851,-0.206055,-0.0439265,12,5
-2.71756,-1.22189,0.6879,1,14
-2.85633,-1.28368,-0.0546609,3,7
-2.44067,-1.09637,0.716929,2,15
-0.45895,-0.205298,-0.116075,16,1
-3.36921,-1.50712,0.193434,1,9
-3.43064,-1.53316,0.328751,1,10
-3.37689,-1.50702,0.585691,8,12
-0.514454,-0.229265,-0.0295175,16,6
-2.71982,-1.21208,0.68745,2,14
-2.84961,-1.26932,-0.0544515,3,7
-2.4443,-1.08827,0.716929,1,15
-0.459628,-0.203775,-0.116075,16,1
-3.3888,-1.50242,0.194271,1,9
-3.40656,-1.50887,0.325962,1,10
-3.38368,-1.49661,0.586004,7,12
-2.73808,-1.20935,0.69105,2,14
-2.88673,-1.2744,-0.0550798,1,7
-2.45673,-1.08406,0.719517,2,15
-2.92784,-1.28523,0.0558128,1,8
-3.40917,-1.49581,0.195108,1,9
-3.41598,-1.49738,0.326311,1,10
-3.39664,-1.48678,0.587255,7,12
-2.74985,-1.20195,0.692849,3,14
-2.8916,-1.26331,-0.0550798,1,7
-2.45202,-1.07075,0.716929,1,15
-2.93209,-1.27552,0.0558128,1,8
-3.41228,-1.4837,0.195004,1,9
-3.46478,-1.50509,0.330495,1,10
-3.40336,-1.47629,0.587568,6,12
-0.516826,-0.223865,-0.0295175,16,6
-2.75561,-1.1936,0.693299,3,14
-2.8554,-1.23623,-0.0543119,3,7
-2.47683,-1.07182,0.72314,1,15
-2.9363,-1.26579,0.0558128,1,8
-3.38993,-1.45993,0.193434,1,9
-3.45878,-1.48887,0.329449,1,10
-3.40486,-1.46284,0.586942,6,12
-0.508904,-0.218642,-0.0484586,11,5
-0.517566,-0.22215,-0.0295175,16,6
-2.74185,-1.17629,0.6888,4,14
-2.86338,-1.22784,-0.0543817,3,7
-2.47701,-1.06165,0.722105,2,15
-2.9407,-1.25553,0.0558128,1,8
-0.451675,-0.192749,-0.113375,16,1
-3.41888,-1.45828,0.194794,1,9
-3.46395,-1.47679,0.329449,1,10
-3.4045,-1.44863,0.586004,5,12
-0.509664,-0.216865,-0.0484586,11,5
-2.74594,-1.16671,0.6888,4,14
-2.86764,-1.21783,-0.0543817,3,7
-2.47714,-1.05148,0.72107,1,15
-2.9819,-1.26083,0.0565109,1,8
-0.466705,-0.19724,-0.116975,16,1
-3.42186,-1.44616,0.19469,0,9
-3.41402,-1.44144,0.324219,1,10
-3.53005,-1.48898,0.470416,1,11
-3.39472,-1.43119,0.583501,5,12
-2.7482,-1.15637,0.68835,4,14
-2.86061,-1.20366,-0.0541723,4,7
-2.46637,-1.03727,0.716929,1,15
-3.45637,-1.44654,0.196365,0,9
-3.47418,-1.45257,0.329449,1,10
-3.41063,-1.4239,0.585378,5,12
-2.7754,-1.15699,0.694199,4,14
-2.88325,-1.20136,-0.0545213,1,7
-2.46998,-1.02866,0.716929,2,15
-0.453635,-0.188088,-0.113375,16,1
-3.44294,-1.42682,0.195318,1,9
-3.45689,-1.43189,0.327357,1,10
-3.41558,-1.41199,0.585378,5,12
-2.76681,-1.14209,0.69105,1,14
-2.94288,-1.21417,-0.0555685,1,7
-2.49141,-1.02739,0.722105,1,15
-3.44421,-1.41328,0.195108,1,9
-3.52085,-1.44401,0.332935,1,10
-3.5452,-1.45255,0.470416,1,11
-3.415,-1.39781,0.584439,4,12
-0.512606,-0.209817,-0.0484586,11,5
-0.521327,-0.213174,-0.0295175,16,6
-2.9397,-1.20087,-0.0554288,1,7
-0.491044,-0.199592,-0.122373,15,1
-3.44332,-1.39959,0.194794,1,9
-3.52587,-1.43171,0.332935,1,10
-3.40498,-1.38054,0.581936,4,12
-0.522068,-0.211353,-0.0295175,16,6
-2.92142,-1.18211,-0.05501,1,7
-0.491703,-0.197963,-0.122373,15,1
-3.4519,-1.38905,0.195004,1,9
-3.53085,-1.41939,0.332935,1,10
-3.555,-1.42838,0.470416,1,11
-3.40244,-1.3657,0.580685,4,12
-2.97008,-1.18975,-0.0558477,1,7
-3.46761,-1.38204,0.195632,1,9
-3.48,-1.38557,0.327706,1,10
-3.40328,-1.35295,0.580059,4,12
-2.98144,-1.18285,-0.0559873,1,7
-3.43898,-1.35812,0.064539,1,8
-0.493039,-0.194611,-0.122373,15,1
-3.47404,-1.37126,0.195736,1,9
-3.54018,-1.39594,0.332935,1,10
-3.42245,-1.34745,0.582562,2,12
-3.05478,-1.20146,0.638065,1,13
-0.52418,-0.206058,-0.0295175,16,6
-3.13425,-1.23145,-0.0587797,1,7
-3.46208,-1.35399,0.064888,1,8
-0.457381,-0.178786,-0.113375,16,1
-3.45648,-1.3504,0.19448,1,9
-3.51881,-1.37405,0.330495,1,10
-3.56928,-1.39232,0.470416,1,11
-3.41057,-1.32904,0.579746,2,12
-0.516119,-0.201019,-0.0484586,11,5
-3.05509,-1.1899,0.637302,1,13
-2.82951,-1.10091,0.700947,1,14
-3.48171,-1.34767,0.0651673,1,8
-0.472543,-0.182813,-0.116975,16,1
-3.47607,-1.34409,0.195318,1,9
-3.51267,-1.35684,0.329449,1,10
-3.37833,-1.30291,0.573489,2,12
-3.06676,-1.18152,0.638829,2,13
-2.80079,-1.07793,0.692849,4,14
-2.51526,-0.967534,0.722105,1,15
-3.49783,-1.33919,0.0653767,1,8
-0.458649,-0.175508,-0.113375,16,1
-3.49753,-1.33838,0.19626,1,9
-3.51739,-1.34457,0.329449,1,10
-3.39024,-1.29393,0.57474,2,12
-0.51751,-0.197411,-0.0484586,11,5
-3.05986,-1.16661,0.636539,2,13
-2.80981,-1.07072,0.694199,5,14
-2.48974,-0.947751,0.713823,1,15
-3.47233,-1.31624,0.0648182,1,8
-3.48514,-1.3204,0.195318,1,9
-3.52183,-1.3329,0.329449,1,10
-3.58366,-1.35487,0.470416,1,11
-3.4019,-1.28547,0.575992,2,12
-3.05269,-1.1523,0.634249,2,13
-2.81335,-1.06139,0.694199,5,14
-2.48925,-0.938128,0.712788,1,15
-3.4954,-1.31175,0.0651673,1,8
-0.467101,-0.1752,-0.115175,16,1
-3.50656,-1.31454,0.19626,1,9
-3.56354,-1.33519,0.332935,1,10
-3.41007,-1.27497,0.576617,2,12
-0.518808,-0.193974,-0.0484586,11,5
-3.07121,-1.14767,0.637302,2,13
-2.81704,-1.05157,0.694199,5,14
-2.49975,-0.932132,0.714858,1,15
-3.46622,-1.28701,0.064539,1,8
-0.496942,-0.184416,-0.122373,15,1
-3.51113,-1.30229,0.19626,1,9
-3.53082,-1.30889,0.329449,1,10
-3.5928,-1.33044,0.470416,1,11
-3.39968,-1.25758,0.574115,2,12
-3.07888,-1.1383,0.638065,2,13
-2.80972,-1.03768,0.6915,4,14
-2.51749,-0.928751,0.718999,1,15
-3.51198,-1.29007,0.0653069,1,8
-3.5194,-1.2914,0.196469,1,9
-3.57278,-1.31028,0.332935,1,10
-3.40404,-1.2457,0.574115,2,12
-0.520183,-0.190257,-0.0484586,11,5
-3.08836,-1.12957,0.63921,2,13
-2.80784,-1.02586,0.69015,4,14
-2.52797,-0.922606,0.72107,1,15
-3.50895,-1.27507,0.0651673,1,8
-0.472574,-0.171629,-0.116075,16,1
-3.53328,-1.28252,0.196993,1,9
-3.57755,-1.29718,0.332935,1,10
-3.40094,-1.23112,0.572863,2,12
-3.10541,-1.12292,0.641881,2,13
-2.81708,-1.01754,0.6915,3,14
-2.49665,-0.901313,0.711235,1,15
-3.53618,-1.27032,0.0655861,1,8
-3.52833,-1.2668,0.196469,1,9
-3.58206,-1.28468,0.332935,1,10
-3.60676,-1.29212,0.470416,1,11
-3.41266,-1.22191,0.574115,2,12
-0.521498,-0.186621,-0.0484586,11,5
-3.07788,-1.10083,0.635394,2,13
-2.82961,-1.01148,0.693749,2,14
-2.50706,-0.895191,0.713305,1,15
-3.54791,-1.26126,0.0657258,1,8
-0.473761,-0.168326,-0.116075,16,1
-3.55886,-1.26446,0.197935,1,9
-3.5863,-1.27279,0.332935,1,10
-3.40552,-1.20663,0.572237,2,12
-0.522114,-0.18489,-0.0484586,11,5
-3.08707,-1.09258,0.636539,2,13
-2.82376,-0.998838,0.6915,2,14
-1.9947,-0.705183,-0.0369293,1,7
-2.54645,-0.899745,0.723658,1,15
-3.58225,-1.26011,0.0662842,1,8
-0.474316,-0.166754,-0.116075,16,1
-3.55361,-1.24934,0.197411,1,9
-3.5905,-1.26089,0.332935,1,10
-3.61525,-1.26817,0.470416,1,11
-3.37408,-1.18291,0.566293,2,12
-3.11661,-1.09142,0.641881,1,13
-2.82154,-0.987537,0.69015,1,14
-1.93285,-0.676116,-0.0357425,1,7
-2.52024,-0.881095,0.715376,1,15
-3.58641,-1.24822,0.0662842,1,8
-3.55019,-1.23492,0.196993,1,9
-3.59466,-1.24898,0.332935,1,10
-3.36306,-1.16654,0.56379,4,12
-2.81559,-0.974986,0.6879,1,14
-1.9124,-0.661854,-0.0353237,3,7
-2.56331,-0.886625,0.726764,1,15
-3.59075,-1.23569,0.0662842,1,8
-3.56225,-1.22449,0.197411,1,9
-3.599,-1.23643,0.332935,1,10
-3.6238,-1.24353,0.470416,1,11
-3.36731,-1.1542,0.56379,4,12
-0.523959,-0.179596,-0.0484586,11,5
-0.532861,-0.182439,-0.0295175,16,6
-2.82837,-0.967815,0.69015,1,14
-1.91481,-0.654841,-0.0353237,4,7
-2.51536,-0.85973,0.71227,1,15
-3.59504,-1.22315,0.0662842,1,8
-0.472318,-0.160606,-0.115175,16,1
-3.55516,-1.2082,0.196783,1,9
-3.60329,-1.22386,0.332935,1,10
-3.38629,-1.14751,0.566293,4,12
-2.83357,-0.95856,0.6906,1,14
-1.91898,-0.648793,-0.0353586,4,7
-2.4488,-0.827444,0.6926,1,15
-3.59929,-1.21059,0.0662842,1,8
-0.47657,-0.160198,-0.116075,16,1
-3.58754,-1.20595,0.198353,1,9
-3.60755,-1.21127,0.332935,1,10
-3.38258,-1.13377,0.565041,4,12
-0.476081,-0.159479,-0.0439265,12,5
-3.26913,-1.09447,0.670121,1,13
-2.83321,-0.947428,0.6897,1,14
-1.93819,-0.648134,-0.0356727,4,7
-3.60328,-1.19865,0.0662842,1,8
-3.57467,-1.18775,0.197411,0,9
-3.61175,-1.19867,0.332935,1,10
-3.37902,-1.11947,0.56379,4,12
-0.525811,-0.174099,-0.0484586,11,5
-3.10314,-1.02747,0.635394,2,13
-2.82338,-0.933744,0.686551,1,14
-1.93664,-0.64011,-0.0356029,2,7
-0.481352,-0.158168,-0.116975,16,1
-3.59756,-1.18212,0.198458,0,9
-3.61571,-1.18669,0.332935,1,10
-3.37896,-1.10702,0.563164,4,12
-0.477155,-0.156235,-0.0439265,12,5
-3.1235,-1.02213,0.638829,2,13
-2.81921,-0.921461,0.684751,1,14
-1.93115,-0.631199,-0.0354633,1,7
-0.504115,-0.163797,-0.122373,15,1
-3.61307,-1.17326,0.199086,0,9
-3.61983,-1.17406,0.332935,1,10
-3.64454,-1.18137,0.470416,1,11
-3.39783,-1.10009,0.565667,4,12
-3.11753,-1.00874,0.63692,2,13
-2.8445,-0.919299,0.69015,1,14
-2.18407,-0.705014,0.614954,1,15
-3.60953,-1.1582,0.198667,0,9
-3.6237,-1.16205,0.332935,1,10
-3.64864,-1.16864,0.470416,1,11
-3.40918,-1.09063,0.566919,4,12
-0.527576,-0.168675,-0.0484586,11,5
-3.1173,-0.996655,0.636157,2,13
-2.83656,-0.905807,0.68745,1,14
-1.53927,-0.491242,-0.0282031,1,7
-2.16075,-0.689168,0.607707,1,15
-1.71348,-0.543877,0.0313794,1,8
-0.468095,-0.148489,-0.113375,16,1
-3.61736,-1.1468,0.198877,0,9
-3.62793,-1.14876,0.332935,1,10
-3.44499,-1.08884,0.572237,2,12
-0.528162,-0.166833,-0.0484586,11,5
-3.11344,-0.982859,0.634631,2,13
-2.8603,-0.90185,0.692399,1,14
-1.47994,-0.466624,-0.0270861,2,7
-1.73454,-0.543574,0.0317285,1,8
-3.63192,-1.13609,0.332935,1,10
-3.65691,-1.1425,0.470416,1,11
-3.46008,-1.08035,0.574115,2,12
