x, y, z, intensity, ring
3.68064,31.7624,7.38199,10,14
1.54088,13.2768,-0.233304,100,7
3.57098,30.7221,8.28739,25,15
0.0586014,0.498851,-0.134586,15,0
1.74748,14.8533,0.261053,37,8
0.0738839,0.627054,-0.145768,25,1
0.901432,7.63903,-1.49518,21,2
2.01963,17.0893,1.50553,32,10
1.06594,9.00609,-1.43638,33,3
2.03149,17.1384,2.11906,36,11
1.27278,10.7216,-1.32569,28,4
1.45669,12.2526,-1.07951,57,5
1.99226,16.7324,3.27543,13,13
1.60076,13.4243,-0.708524,55,6
3.79173,31.7513,7.38244,21,14
1.57819,13.1959,-0.231977,100,7
3.66463,30.5963,8.25685,12,15
0.0626633,0.517822,-0.139762,14,0
1.72426,14.2277,0.250163,33,8
0.0779505,0.642269,-0.149367,24,1
1.83412,15.0901,0.796658,44,9
0.926672,7.62414,-1.49289,21,2
2.07975,17.0861,1.50588,42,10
1.09665,8.99644,-1.43544,30,3
2.06076,16.881,2.08811,27,11
1.30731,10.6935,-1.32277,22,4
2.72508,22.2583,3.55169,23,12
1.50042,12.2553,-1.08021,52,5
2.04611,16.6883,3.26818,21,13
1.80922,14.735,-0.778026,32,6
3.89017,31.6373,7.35905,32,14
1.63768,13.2995,-0.233897,21,7
3.77235,30.591,8.25892,31,15
0.0668584,0.536771,-0.144939,14,0
0.0809167,0.647794,-0.150717,23,1
1.89702,15.187,0.802101,18,9
0.948652,7.58385,-1.48564,23,2
2.0693,16.5193,1.45655,25,10
1.12682,8.98275,-1.43388,27,3
2.06153,16.4108,2.03083,39,11
1.3398,10.6655,-1.31985,23,4
2.85213,22.6725,3.61927,14,12
1.53647,12.1966,-1.0755,52,5
2.11836,16.7921,3.28993,42,13
1.68992,13.3772,-0.70664,35,6
3.92105,31.0384,7.22273,42,14
1.69458,13.3952,-0.235677,100,7
3.88641,30.678,8.28583,18,15
0.0686379,0.536546,-0.144939,14,0
1.7362,13.5532,0.238505,15,8
0.0820725,0.63979,-0.148918,24,1
1.92831,15.032,0.794251,29,9
0.972794,7.57287,-1.48411,23,2
2.13881,16.627,1.46666,21,10
1.15484,8.96525,-1.43169,26,3
2.10781,16.3409,2.02303,35,11
1.37211,10.6373,-1.31692,23,4
1.58892,12.2844,-1.08369,76,5
4.01594,30.9634,7.20833,42,14
1.73564,13.3637,-0.235224,99,7
3.9921,30.6956,8.29412,19,15
0.0628721,0.478853,-0.12941,15,0
1.85751,14.1282,0.248732,4,8
0.0854657,0.649175,-0.151167,23,1
1.99199,15.1103,0.798751,17,9
0.994563,7.5443,-1.47915,23,2
2.17516,16.4776,1.45411,18,10
1.17964,8.92416,-1.42574,25,3
2.15939,16.3141,2.02059,39,11
1.40479,10.599,-1.31278,19,4
1.63961,12.3541,-1.09032,59,5
4.05875,30.5408,5.98873,19,13
1.94775,14.6367,-0.773839,71,6
4.14923,31.1385,7.25242,21,14
1.88463,14.1247,-0.248732,78,7
4.20974,31.5086,8.51773,27,15
0.0676414,0.501605,-0.135621,15,0
2.0588,15.2473,0.268558,63,8
0.0843364,0.623768,-0.145318,25,1
2.07688,15.3408,0.811312,75,9
1.01931,7.52911,-1.47686,23,2
2.53778,18.7206,1.65282,70,10
1.20866,8.90433,-1.42324,25,3
2.223,16.3557,2.02669,48,11
1.43402,10.537,-1.30571,20,4
2.40503,17.6489,2.82114,6,12
1.66604,12.2259,-1.07951,38,5
2.22188,16.2835,3.19452,4,13
1.93881,14.1905,-0.750602,100,6
4.27744,31.2667,7.28571,43,14
1.87177,13.6643,-0.240738,21,7
4.31472,31.4574,8.5079,26,15
0.0715109,0.516675,-0.139762,14,0
2.09472,15.1152,0.266359,40,8
0.0886561,0.638911,-0.148918,24,1
2.14692,15.4522,0.817592,36,9
1.04019,7.48661,-1.46923,26,2
2.2981,16.5192,1.45916,31,10
1.23456,8.86289,-1.4173,33,3
2.33904,16.7705,2.07909,36,11
1.46173,10.4671,-1.29766,30,4
1.70457,12.1904,-1.0769,49,5
4.25662,30.4029,5.96736,23,13
1.92955,13.7643,-0.728412,65,6
4.16091,29.644,6.91095,40,14
1.94368,13.83,-0.243775,100,7
4.4183,31.3981,8.49599,13,15
0.0711414,0.501121,-0.135621,15,0
2.12327,14.9376,0.263357,34,8
0.0917097,0.644386,-0.150267,24,1
2.19604,15.411,0.815813,108,9
1.06132,7.44795,-1.46236,26,2
2.32818,16.3178,1.44208,12,10
1.26158,8.83115,-1.41292,30,3
2.48159,17.3498,2.15197,18,11
1.49686,10.4521,-1.29645,17,4
2.51053,17.5084,2.80143,44,12
1.7505,12.208,-1.07899,47,5
4.38948,30.5744,6.004,24,13
1.98583,13.8148,-0.731447,87,6
4.27048,29.6717,6.92084,50,14
2.20641,15.3115,-0.270024,48,7
4.61561,31.9906,8.6606,14,15
0.0723339,0.497046,-0.134586,15,0
2.08372,14.3008,0.252257,16,8
0.0964902,0.661417,-0.154316,22,1
2.24867,15.3953,0.815394,41,9
1.08505,7.42866,-1.45931,23,2
2.37734,16.2563,1.43737,6,10
1.29153,8.82082,-1.41198,28,3
3.32244,22.6637,2.8125,7,11
1.52728,10.4055,-1.29133,17,4
3.20865,21.8344,3.49537,32,12
1.77544,12.0816,-1.06836,57,5
4.52305,30.7415,6.03987,24,13
2.02182,13.7248,-0.727051,100,6
4.64243,31.4766,7.34555,43,14
1.91748,12.9852,-0.229115,100,7
4.64108,31.3914,8.50272,26,15
0.0769171,0.515898,-0.139762,14,0
0.100239,0.670713,-0.156566,22,1
2.15373,14.3938,0.762744,16,9
1.10719,7.39959,-1.45435,21,2
2.57841,17.2115,1.52261,35,10
1.31558,8.77133,-1.40478,30,3
2.83407,18.8731,2.3433,10,11
1.55739,10.3589,-1.28621,16,4
3.41069,22.6591,3.62928,25,12
1.8176,12.0753,-1.06836,26,5
3.36473,22.3273,4.38899,27,13
2.0697,13.7177,-0.727051,100,6
4.82738,31.9573,7.46163,11,14
4.75668,31.4151,8.51359,33,15
0.0787176,0.515626,-0.139762,14,0
2.08712,13.6553,0.241122,53,8
0.0955048,0.624127,-0.145768,25,1
2.21233,14.4576,0.766513,47,9
1.13213,7.38985,-1.4532,23,2
2.64361,17.2358,1.52557,68,10
1.34229,8.7413,-1.40071,26,3
2.68215,17.4465,2.16732,18,11
1.5872,10.3122,-1.28109,19,4
3.36591,21.8687,3.50445,18,12
1.96776,12.7699,-1.13041,28,5
4.70284,30.4841,5.9956,19,13
2.12337,13.7479,-0.72904,39,6
4.97078,32.1463,7.50977,11,14
1.99055,12.873,-0.22737,64,7
4.91138,31.7256,8.60211,6,15
0.0852885,0.545887,-0.148044,13,0
2.22376,14.2331,0.251454,61,8
0.100585,0.64306,-0.150267,24,1
2.2671,14.4775,0.767978,24,9
1.15609,7.37422,-1.45091,23,2
2.73681,17.4371,1.54423,29,10
1.36912,8.72314,-1.39852,22,3
2.73536,17.4081,2.16367,50,11
1.61831,10.2873,-1.27865,17,4
2.00891,12.7413,-1.12849,33,5
3.5319,22.4008,4.40807,20,13
2.13003,13.4942,-0.715956,74,6
5.10045,32.276,7.54396,33,14
2.0364,12.8719,-0.227475,100,7
5.00064,31.5728,8.56536,13,15
0.0822256,0.515078,-0.139762,14,0
2.60889,16.3243,0.288558,13,8
0.10129,0.633084,-0.148018,24,1
2.40418,15.0098,0.796658,68,9
1.17588,7.34127,-1.44519,23,2
2.86781,17.8843,1.58467,43,10
1.39581,8.69491,-1.39477,23,3
2.7832,17.3181,2.15368,9,11
1.64821,10.2443,-1.27402,22,4
2.04513,12.6972,-1.12518,40,5
3.62258,22.4659,4.42333,12,13
2.1542,13.3447,-0.70842,39,6
5.23143,32.3715,7.5705,22,14
2.16245,13.3661,-0.23634,100,7
4.93229,30.4529,8.26616,25,15
0.0815333,0.499535,-0.135621,15,0
2.20891,13.5186,0.239098,38,8
0.104443,0.638496,-0.149367,24,1
2.49594,15.2418,0.809428,45,9
1.20055,7.33131,-1.44404,26,2
2.72135,16.6002,1.47171,15,10
1.41912,8.6471,-1.38789,30,3
2.83913,17.2808,2.15026,37,11
1.67784,10.2013,-1.26939,23,4
4.47697,27.1904,4.36452,33,12
2.09042,12.6959,-1.1257,28,5
3.68214,22.3388,4.40082,22,13
2.19654,13.3115,-0.707059,68,6
4.66695,28.2519,6.61086,9,14
2.15134,13.0093,-0.230162,100,7
4.62208,27.9197,7.58288,10,15
0.0839124,0.503058,-0.136656,14,0
2.22019,13.2959,0.235293,53,8
0.106993,0.64005,-0.149817,24,1
2.4888,14.8725,0.790273,7,9
1.22289,7.30771,-1.44023,26,2
2.96098,17.6752,1.56793,37,10
1.44243,8.60118,-1.38132,27,3
3.6192,21.5581,2.68405,26,11
1.70094,10.121,-1.26013,30,4
3.78988,22.5267,3.61802,8,12
2.1324,12.6748,-1.12448,30,5
3.7689,22.3781,4.41112,35,13
2.25627,13.3825,-0.711246,71,6
4.58424,27.1613,6.35937,43,14
2.19641,12.9997,-0.230127,100,7
4.70404,27.812,7.55803,30,15
0.0876148,0.514189,-0.139762,14,0
2.26188,13.2604,0.234805,66,8
0.109226,0.639672,-0.149817,24,1
1.24541,7.28598,-1.43679,21,2
2.88187,16.8419,1.4949,71,10
1.46477,8.55131,-1.37412,27,3
3.80816,22.2087,2.76668,14,11
1.73256,10.0935,-1.25745,22,4
4.7289,27.5206,4.42272,18,12
2.15605,12.5475,-1.11385,26,5
3.83767,22.3106,4.40044,30,13
2.29111,13.3057,-0.707582,81,6
4.71743,27.3679,6.41155,44,14
2.24484,13.0097,-0.230442,100,7
4.78925,27.7268,7.5394,25,15
0.0913961,0.525299,-0.142868,14,0
2.30747,13.2485,0.234735,66,8
0.112128,0.643127,-0.150717,23,1
2.44418,14.019,0.745787,51,9
1.26814,7.26611,-1.43374,23,2
2.92899,16.7651,1.48897,65,10
1.49155,8.52863,-1.3713,26,3
3.1288,17.8719,2.22777,14,11
1.7647,10.0698,-1.25525,27,4
3.13977,17.9162,2.8809,13,12
2.17677,12.4084,-1.10217,26,5
4.83949,27.5586,5.43882,31,13
2.40912,13.7048,-0.729249,35,6
4.82574,27.4242,6.42865,45,14
2.3136,13.148,-0.233025,100,7
4.85034,27.5358,7.49178,10,15
0.0878245,0.494544,-0.134586,15,0
2.35419,13.2565,0.235014,50,8
0.113237,0.636995,-0.149367,24,1
2.85106,16.022,0.852867,13,9
1.28936,7.23845,-1.42916,23,2
3.00567,16.8567,1.49803,35,10
1.51289,8.48475,-1.36505,25,3
3.03875,17.0251,2.12345,49,11
1.79494,10.0463,-1.25306,24,4
3.04684,17.036,2.74104,2,12
2.16986,12.1203,-1.07724,26,5
4.77896,26.694,5.27129,36,13
2.57893,14.3907,-0.766198,45,6
4.92561,27.4579,6.44035,36,14
2.35206,13.0985,-0.232292,100,7
5.0435,28.0587,7.63879,10,15
0.0929048,0.513259,-0.139762,14,0
2.45392,13.5434,0.24025,66,8
0.114764,0.632761,-0.148468,24,1
1.3095,7.21288,-1.42496,26,2
3.12674,17.2054,1.52993,45,10
1.54003,8.46581,-1.36286,25,3
3.11275,17.0944,2.13344,37,11
1.82501,10.0126,-1.24965,24,4
3.1304,17.1574,2.76232,17,12
2.17106,11.8994,-1.05824,26,5
4.92573,26.9707,5.3293,18,13
2.5397,13.8924,-0.740135,81,6
5.0509,27.6016,6.47814,45,14
2.432,13.277,-0.235607,63,7
5.13338,27.9972,7.62688,5,15
0.094696,0.512932,-0.139762,14,0
2.56732,13.8926,0.246603,26,8
0.122289,0.6611,-0.155216,22,1
2.59122,13.9946,0.745892,15,9
1.33324,7.20055,-1.42344,23,2
3.18316,17.1748,1.52819,52,10
1.55947,8.406,-1.3541,30,3
3.13398,16.8766,2.10761,36,11
1.85705,9.99056,-1.2477,23,4
3.191,17.1502,2.76295,13,12
2.19911,11.8192,-1.0518,26,5
5.0619,27.1792,5.37394,31,13
2.66798,14.3115,-0.762954,71,6
5.17511,27.7332,6.51323,46,14
2.53451,13.5692,-0.240948,71,7
5.11286,27.3467,7.45451,25,15
0.096486,0.512598,-0.139762,14,0
2.59729,13.7853,0.244857,50,8
0.119179,0.631945,-0.148468,24,1
2.76009,14.6213,0.779806,41,9
1.35619,7.18428,-1.42115,26,2
3.23606,17.1264,1.52488,22,10
1.5833,8.37139,-1.3494,27,3
3.2922,17.3902,2.17317,23,11
1.88895,9.96841,-1.24575,27,4
3.25599,17.1661,2.76733,6,12
2.20507,11.6255,-1.03524,24,5
5.24866,27.6455,5.46973,36,13
2.64595,13.9234,-0.742752,68,6
5.21943,27.4393,6.44845,45,14
2.6043,13.6782,-0.243042,25,7
5.13885,26.9644,7.35512,19,15
0.0968184,0.504669,-0.137692,14,0
2.64954,13.7978,0.245241,30,8
0.121016,0.629611,-0.148018,24,1
2.80243,14.5665,0.777398,25,9
1.37865,7.166,-1.41847,23,2
3.26229,16.9409,1.50936,9,10
1.60616,8.33284,-1.34408,25,3
3.4232,17.7431,2.21875,9,11
1.91283,9.90523,-1.23868,23,4
5.16222,26.7066,4.30821,18,12
2.22862,11.5297,-1.02739,24,5
5.28023,27.2916,5.40333,38,13
2.69871,13.9356,-0.743903,48,6
5.28922,27.287,6.41695,35,14
2.65774,13.6984,-0.243566,27,7
5.19979,26.7756,7.30853,28,15
0.0970972,0.496744,-0.135621,15,0
2.74799,14.0455,0.249814,37,8
0.123962,0.63301,-0.148918,24,1
2.83021,14.439,0.771118,11,9
1.39913,7.13803,-1.41389,21,2
3.31374,16.8903,1.50588,61,10
1.63067,8.30392,-1.34033,23,3
3.48703,17.7408,2.21997,4,11
1.94126,9.86733,-1.23478,23,4
5.22793,26.5489,4.28568,33,12
2.26885,11.5219,-1.02739,24,5
5.37736,27.2826,5.40524,42,13
2.76165,13.9986,-0.747776,19,6
5.36632,27.1766,6.39536,44,14
2.68499,13.5851,-0.241716,23,7
5.30598,26.8217,7.32613,38,15
0.0973216,0.488824,-0.133551,15,0
2.82278,14.1653,0.252117,17,8
0.127315,0.638306,-0.150267,24,1
1.41981,7.11192,-1.4097,23,2
3.34065,16.7184,1.49158,32,10
1.65693,8.28462,-1.33814,20,3
3.51894,17.5786,2.2012,38,11
1.97179,9.84103,-1.23234,23,4
3.59366,17.9194,2.89466,52,12
2.30867,11.5119,-1.02722,27,5
5.466,27.231,5.39875,42,13
2.78453,13.8596,-0.740868,48,6
5.41083,26.9074,6.33642,60,14
2.73555,13.5913,-0.241995,97,7
5.50715,27.3371,7.47211,25,15
0.102098,0.503628,-0.137692,14,0
2.76127,13.6086,0.242379,48,8
0.12993,0.639768,-0.150717,23,1
1.44306,7.09923,-1.40817,23,2
3.36603,16.5446,1.47712,34,10
1.67756,8.23813,-1.33157,22,3
3.6548,17.9319,2.24703,9,11
2.00097,9.8088,-1.22917,24,4
5.40091,26.4517,4.27598,14,12
2.35482,11.5331,-1.02983,24,5
5.5508,27.1617,5.38883,15,13
2.87971,14.0788,-0.753114,68,6
5.45509,26.6459,6.27928,68,14
2.78378,13.5856,-0.242065,21,7
5.60099,27.3101,7.47004,25,15
0.106198,0.51462,-0.140798,14,0
2.80067,13.5597,0.241681,8,8
0.130189,0.629768,-0.148468,24,1
3.36004,16.2393,0.869091,11,9
1.46306,7.07108,-1.40359,26,2
3.44759,16.6478,1.4874,39,10
1.69749,8.18967,-1.32469,25,3
5.56337,26.8173,3.36286,20,11
2.03197,9.78621,-1.22722,28,4
5.42929,26.1252,4.22623,31,12
2.39952,11.5463,-1.03175,24,5
5.63479,27.0903,5.37852,31,13
2.93617,14.1038,-0.754999,35,6
5.59338,26.8442,6.33057,43,14
2.87855,13.8029,-0.246114,100,7
5.61182,26.8857,7.35926,24,15
0.105612,0.502903,-0.137692,14,0
0.132387,0.62931,-0.148468,24,1
3.38262,16.0795,0.861136,33,9
1.48652,7.06016,-1.40245,26,2
3.52623,16.7332,1.49612,35,10
1.72117,8.16051,-1.32093,23,3
4.01443,19.0169,2.38645,15,11
2.05791,9.74021,-1.22235,27,4
5.53509,26.1979,4.24094,31,12
2.44311,11.5534,-1.03314,24,5
5.74395,27.1396,5.39226,31,13
2.9858,14.0955,-0.755103,19,6
5.63571,26.5824,6.27343,51,14
2.93301,13.8344,-0.246847,22,7
5.67768,26.7573,7.32924,19,15
0.104945,0.491196,-0.134586,15,0
0.131213,0.613622,-0.144868,25,1
3.44374,16.091,0.862392,27,9
1.50376,7.02038,-1.39558,26,2
3.63474,16.9545,1.51703,42,10
1.74492,8.1393,-1.31843,25,3
3.93087,18.3203,2.30065,24,11
2.08437,9.70616,-1.21894,22,4
5.69624,26.5029,4.2935,27,12
2.48593,11.5565,-1.03419,24,5
5.79634,26.9457,5.35754,18,13
5.71604,26.5274,6.26489,8,14
2.97664,13.8025,-0.246463,70,7
5.79388,26.8431,7.35823,24,15
0.106573,0.490845,-0.134586,15,0
3.01445,13.8721,0.247789,55,8
0.13791,0.634107,-0.149817,24,1
3.59292,16.5063,0.885315,31,9
1.52411,7.00192,-1.39291,23,2
3.75371,17.2305,1.54283,48,10
1.76827,8.11,-1.31468,25,3
3.99607,18.3123,2.30138,29,11
2.11696,9.69301,-1.21821,16,4
4.88263,22.3376,3.62146,36,12
2.52339,11.5443,-1.03384,24,5
5.89498,26.9464,5.36173,30,13
3.08893,14.108,-0.756883,42,6
5.82528,26.5834,6.28288,42,14
3.02866,13.8096,-0.246777,23,7
5.9886,27.2831,7.48453,20,15
0.104121,0.471606,-0.12941,15,0
3.02058,13.6701,0.244369,33,8
0.140964,0.637427,-0.150717,23,1
3.61296,16.324,0.876209,41,9
1.54599,6.98506,-1.39062,26,2
3.79702,17.1414,1.53603,26,10
1.78973,8.07292,-1.30967,26,3
3.94473,17.7789,2.23606,23,11
2.14906,9.67781,-1.21723,20,4
4.96444,22.3378,3.62427,25,12
2.56541,11.5432,-1.03454,24,5
6.01246,27.0311,5.38272,38,13
3.00362,13.4928,-0.724434,52,6
6.05704,27.1868,6.43045,72,14
3.08164,13.8204,-0.247161,26,7
6.12587,27.4506,7.53629,30,15
0.112535,0.501399,-0.137692,14,0
3.07486,13.6888,0.244892,11,8
0.139341,0.61982,-0.146668,24,1
3.60837,16.0508,0.862183,39,9
1.56692,6.9643,-1.38756,23,2
3.85727,17.13,1.53621,42,10
1.81137,8.03772,-1.30498,20,3
3.96965,17.6004,2.21534,38,11
2.16928,9.61022,-1.20968,26,4
5.00716,22.1824,3.60175,14,12
2.607,11.54,-1.03506,24,5
6.10028,26.9812,5.377,42,13
3.01015,13.303,-0.714805,45,6
6.15447,27.1769,6.43315,72,14
3.13142,13.8277,-0.247475,43,7
6.09133,26.8762,7.38411,29,15
0.107411,0.470867,-0.12941,15,0
0.143131,0.626954,-0.148468,24,1
3.65015,15.9758,0.858833,45,9
1.58684,6.93965,-1.38375,23,2
3.72859,16.293,1.4623,15,10
1.82833,7.9893,-1.29809,25,3
3.94423,17.2214,2.16927,50,11
2.19316,9.56815,-1.20529,27,4
5.09914,22.2284,3.61207,23,12
2.63969,11.4978,-1.0321,24,5
6.19191,26.9704,5.37891,42,13
3.16383,13.7698,-0.740449,58,6
6.08167,26.4479,6.26534,51,14
3.47701,15.1087,-0.270617,100,7
6.20159,26.9263,7.40378,29,15
0.120305,0.519442,-0.142868,14,0
3.14041,13.5487,0.242763,26,8
0.144878,0.624552,-0.148018,24,1
3.71575,16.0181,0.861764,21,9
1.60452,6.9114,-1.37917,23,2
3.7871,16.2999,1.46404,25,10
1.85486,7.9771,-1.29715,23,3
4.00522,17.2114,2.16976,27,11
2.22204,9.5411,-1.20285,20,4
5.1522,22.1228,3.59768,21,12
2.66378,11.4288,-1.02669,24,5
6.27041,26.8817,5.36555,41,13
3.18281,13.6342,-0.73375,39,6
6.17795,26.4436,6.26939,42,14
3.54711,15.1828,-0.272153,100,7
6.38233,27.2969,7.51145,30,15
3.22975,13.727,0.246149,50,8
0.147395,0.625965,-0.148468,24,1
3.77392,16.0148,0.862287,21,9
1.62593,6.89429,-1.37688,26,2
3.85085,16.3157,1.46666,46,10
1.87586,7.94784,-1.2934,26,3
4.1102,17.4009,2.19535,19,11
2.24499,9.49698,-1.19822,15,4
6.28356,26.5606,4.32291,30,12
2.6977,11.3943,-1.02443,24,5
3.2059,13.5303,-0.728726,61,6
6.27954,26.4818,6.28333,51,14
3.58024,15.0866,-0.270652,100,7
6.53426,27.5132,7.57719,20,15
0.121322,0.507294,-0.139762,14,0
3.36203,14.0471,0.252117,42,8
0.152521,0.636765,-0.151167,23,1
3.81585,15.9309,0.858519,10,9
1.64844,6.87683,-1.37459,23,2
3.9227,16.3518,1.47119,34,10
1.90037,7.9156,-1.28933,25,3
4.18485,17.4178,2.1995,19,11
2.27653,9.47517,-1.19651,16,4
5.3016,22.0489,3.59174,17,12
2.72872,11.3398,-1.02042,24,5
6.32978,26.2846,5.25526,18,13
3.27795,13.6014,-0.733227,55,6
6.44824,26.756,6.35397,43,14
3.57034,14.8032,-0.2658,66,7
6.51857,27.0064,7.44415,30,15
0.117537,0.484361,-0.133551,15,0
3.40671,14.0281,0.251978,28,8
0.152331,0.626788,-0.148918,24,1
1.66845,6.85988,-1.3723,23,2
3.9934,16.4065,1.47729,28,10
1.91959,7.88047,-1.28464,22,3
4.22238,17.3209,2.18902,13,11
2.29854,9.429,-1.19164,19,4
5.37844,22.0466,3.59424,6,12
2.75685,11.2919,-1.01693,24,5
6.57673,26.9176,5.38616,34,13
3.34771,13.6913,-0.73867,68,6
6.56008,26.8291,6.37646,43,14
3.53432,14.4436,-0.259552,58,7
6.61911,27.0297,7.45658,10,15
0.127455,0.517734,-0.142868,14,0
3.40106,13.8051,0.248173,13,8
0.150677,0.611142,-0.145318,25,1
3.93041,15.9298,0.85988,20,9
1.68884,6.84478,-1.37039,21,2
4.05495,16.4222,1.4799,12,10
1.94003,7.85105,-1.28089,25,3
4.28836,17.3415,2.1934,38,11
2.32238,9.38431,-1.18701,20,4
4.67183,18.8639,3.078,27,12
2.78375,11.2402,-1.0131,24,5
6.57007,26.5088,5.30869,22,13
3.39213,13.6763,-0.73846,35,6
6.6659,26.8552,6.38816,26,14
3.58616,14.437,-0.259657,100,7
7.57095,30.456,8.40903,13,15
0.124578,0.498543,-0.137692,14,0
3.43226,13.7252,0.246952,39,8
0.154701,0.618175,-0.147118,24,1
4.18542,16.7122,0.9029,44,9
1.70366,6.80266,-1.36314,23,2
4.3525,17.3665,1.56636,32,10
1.96262,7.82507,-1.27776,25,3
4.32278,17.2224,2.18024,37,11
2.34642,9.34149,-1.18262,17,4
4.69093,18.6616,3.04766,10,12
2.81568,11.2014,-1.01048,22,5
6.65251,26.4457,5.30067,3,13
3.50129,13.9084,-0.751649,39,6
6.77055,26.8753,6.39851,35,14
3.99731,15.8554,-0.285417,100,7
10.2873,40.7748,11.2679,12,15
0.118719,0.468144,-0.12941,15,0
3.48752,13.7422,0.247475,15,8
0.157818,0.621408,-0.148018,24,1
4.09269,16.1033,0.870766,29,9
1.72643,6.79286,-1.36238,26,2
4.34089,17.0674,1.54074,45,10
1.98748,7.8086,-1.27619,21,3
4.39219,17.2438,2.18487,18,11
2.36969,9.29669,-1.17799,19,4
4.4128,17.2995,2.82771,15,12
2.84489,11.1447,-1.0063,24,5
6.84822,26.8275,5.38196,19,13
3.44303,13.4781,-0.72904,35,6
10.4553,40.8984,9.74578,15,14
3.85489,15.0684,-0.27149,56,7
10.3889,40.5796,11.2239,25,15
0.125252,0.486414,-0.134586,15,0
3.96282,15.3896,0.277389,43,8
0.159986,0.620854,-0.148018,24,1
4.24514,16.4621,0.890967,69,9
1.74935,6.77888,-1.36085,23,2
4.39794,17.0301,1.53882,35,10
2.00818,7.77066,-1.27119,21,3
4.46377,17.2726,2.19048,37,11
2.39766,9.27106,-1.1758,20,4
2.86829,11.0749,-1.0009,23,5
4.58815,17.7028,3.55477,9,13
3.49893,13.4905,-0.730401,42,6
9.03651,34.8162,8.30429,12,14
4.1707,16.069,-0.28978,47,7
9.13615,35.1749,9.73781,17,15
0.126949,0.485974,-0.134586,15,0
0.161274,0.616493,-0.147118,24,1
4.69886,17.9621,0.97303,37,9
1.76803,6.75375,-1.35703,26,2
4.47604,17.086,1.54527,35,10
2.03079,7.74641,-1.26837,22,3
4.55223,17.3521,2.20267,9,11
2.42195,9.23192,-1.1719,24,4
4.72759,18.0077,2.94879,37,12
2.90491,11.0571,-1.0002,23,5
7.01854,26.6962,5.36555,30,13
3.71624,14.1253,-0.765466,32,6
9.12663,34.69,8.28135,12,14
4.10203,15.5806,-0.281228,100,7
9.24755,35.0998,9.7259,26,15
0.131527,0.496755,-0.137692,14,0
4.0548,15.3035,0.276341,37,8
0.164316,0.619722,-0.148018,24,1
4.45179,16.79,0.910332,24,9
1.78387,6.72318,-1.35207,23,2
2.05342,7.72817,-1.26649,23,3
4.6883,17.6323,2.2402,19,11
2.43469,9.15669,-1.16336,20,4
4.75985,17.8888,2.9319,31,12
2.9313,11.0089,-0.996713,23,5
9.08244,34.0865,6.85691,12,13
3.74557,14.0473,-0.761907,42,6
9.26924,34.7631,8.30609,12,14
4.15058,15.5553,-0.281019,70,7
9.41322,35.2537,9.77715,8,15
0.130169,0.485121,-0.134586,15,0
4.08893,15.2282,0.275224,49,8
0.168393,0.626701,-0.149817,24,1
5.24391,19.516,1.05907,53,9
1.80055,6.69637,-1.34787,26,2
4.89469,18.191,1.64812,13,10
2.07647,7.71178,-1.26493,26,3
4.67135,17.3368,2.20462,38,11
2.45631,9.1098,-1.15849,22,4
4.82634,17.8997,2.93628,12,12
2.95638,10.9568,-0.992878,23,5
4.94572,18.3169,3.68796,17,13
3.7765,13.9769,-0.758767,32,6
10.8859,40.2612,9.6288,15,14
4.19119,15.5009,-0.280286,31,7
8.75155,32.3449,8.97843,15,15
0.136934,0.503305,-0.139762,14,0
4.12313,15.1547,0.274142,42,8
0.168423,0.618618,-0.148018,24,1
4.88202,17.9194,0.973344,11,9
1.82288,6.68625,-1.34711,26,2
4.95187,18.1508,1.64602,43,10
2.09631,7.6839,-1.26149,25,3
4.72149,17.2945,2.2012,38,11
2.47709,9.06714,-1.1541,22,4
2.98251,10.9022,-0.988869,23,5
11.5452,42.2024,8.50474,9,13
3.77747,13.7987,-0.749765,39,6
7.6073,27.7695,6.6473,38,14
4.21037,15.3589,-0.277982,72,7
8.91757,32.5079,9.03227,30,15
0.128335,0.4656,-0.12941,15,0
4.16377,15.0959,0.27334,22,8
0.169026,0.612391,-0.146668,24,1
4.83979,17.523,0.952724,32,9
1.84243,6.67071,-1.3452,26,2
4.99929,18.0882,1.64184,13,10
2.11469,7.64607,-1.25648,25,3
4.81202,17.3869,2.2151,23,11
2.50024,9.02783,-1.1502,22,4
4.93536,17.8084,2.92689,45,12
3.00777,10.8457,-0.984686,23,5
7.81686,28.1867,5.68573,8,13
3.80424,13.7084,-0.745578,35,6
9.84258,35.4432,8.49235,12,14
4.23665,15.2459,-0.276202,88,7
9.05998,32.5808,9.06126,38,15
0.130041,0.465126,-0.12941,15,0
4.28105,15.3124,0.277528,42,8
0.173263,0.619304,-0.148468,24,1
4.63763,16.5655,0.901539,26,9
1.86422,6.65446,-1.3433,23,2
5.04889,18.0102,1.63644,27,10
2.1411,7.63256,-1.25554,27,3
4.82978,17.2171,2.1956,23,11
2.52101,8.98082,-1.14533,17,4
4.99483,17.7816,2.92532,25,12
3.03644,10.8025,-0.981722,23,5
7.8829,28.0256,5.65901,17,13
3.82742,13.5982,-0.740345,35,6
9.87467,35.0598,8.40912,24,14
4.26707,15.1502,-0.274736,100,7
9.21765,32.7052,9.10474,15,15
0.13693,0.483256,-0.134586,15,0
4.31751,15.2273,0.276272,36,8
0.172872,0.609291,-0.146218,25,1
4.69613,16.5407,0.901121,18,9
1.88476,6.63847,-1.34139,26,2
5.07033,17.8469,1.62319,27,10
2.15963,7.59654,-1.25085,23,3
4.84126,17.0179,2.17244,18,11
2.54141,8.92761,-1.13972,19,4
5.07241,17.8068,2.93252,31,12
3.06485,10.7593,-0.978759,25,5
7.99576,28.0507,5.6697,21,13
3.83102,13.4311,-0.731971,35,6
9.86757,34.5717,8.30024,12,14
4.18418,14.6499,-0.26594,41,7
9.68147,33.8748,9.44017,16,15
0.145014,0.505058,-0.140798,14,0
4.3353,15.0892,0.274038,19,8
0.173382,0.603065,-0.144868,25,1
6.24532,21.7085,1.18384,13,9
1.90357,6.61676,-1.33833,26,2
5.09623,17.7027,1.61168,13,10
2.17958,7.56617,-1.2471,25,3
5.39767,18.7252,2.39278,20,11
2.56595,8.89579,-1.1368,19,4
4.94226,17.1229,2.8227,15,12
3.09798,10.7332,-0.977364,23,5
9.87937,34.2055,6.92064,26,13
3.8058,13.1683,-0.718363,35,6
10.0369,34.7055,8.34074,12,14
4.22195,14.5891,-0.265102,100,7
9.91303,34.2324,9.54939,8,15
4.56232,15.673,0.284928,16,8
0.180391,0.619295,-0.148918,24,1
5.089,17.4709,0.953666,34,9
1.92227,6.59499,-1.33528,26,2
5.22437,17.9124,1.63243,74,10
2.20375,7.55094,-1.24584,26,3
4.94102,16.9189,2.16416,9,11
2.58419,8.84296,-1.13119,23,4
3.12256,10.6783,-0.973355,23,5
10.1481,34.6814,7.02406,26,13
3.77542,12.8942,-0.704128,35,6
10.1164,34.5281,8.30654,12,14
4.29505,14.6594,-0.266638,66,7
10.2053,34.8092,9.71969,35,15
4.6154,15.6616,0.284998,8,8
0.178034,0.60374,-0.145318,25,1
5.19914,17.6197,0.962772,55,9
1.94138,6.57506,-1.33261,26,2
2.22095,7.51706,-1.24146,22,3
5.75238,19.4571,2.49125,22,11
2.6073,8.8134,-1.12851,16,4
3.14397,10.6139,-0.968475,25,5
9.78187,33.0231,6.69473,30,13
3.7858,12.7725,-0.698162,35,6
10.218,34.4514,8.2962,12,14
4.58401,15.4457,-0.281228,100,7
10.2404,34.4826,9.63842,8,15
0.14358,0.481323,-0.134586,15,0
5.91691,19.8226,0.36109,11,8
0.174006,0.582576,-0.140369,26,1
5.17196,17.3049,0.946548,27,9
1.96317,6.56859,-1.33261,26,2
5.28054,17.6569,1.61238,50,10
2.24038,7.48656,-1.23771,25,3
5.76331,19.2467,2.46688,16,11
2.62837,8.77192,-1.12437,17,4
5.0769,16.9329,2.79986,26,12
3.17412,10.5799,-0.966383,22,5
9.89708,32.9887,6.69473,30,13
3.8005,12.6597,-0.692719,35,6
10.4975,34.9456,8.42397,24,14
4.6448,15.4526,-0.281647,86,7
10.4119,34.6169,9.68604,8,15
0.139753,0.462301,-0.12941,15,0
5.27665,17.4551,0.318297,41,8
0.18168,0.600618,-0.144868,25,1
5.22655,17.2676,0.945501,37,9
1.98155,6.54256,-1.32879,26,2
5.21693,17.2141,1.57368,16,10
2.26207,7.45939,-1.23458,25,3
5.76191,19.0005,2.43787,26,11
2.64744,8.7247,-1.11949,19,4
5.19796,17.1192,2.83365,16,12
3.20525,10.5497,-0.96464,24,5
10.1458,33.373,6.78021,12,13
3.8242,12.5712,-0.688637,35,6
10.6323,34.9292,8.42937,12,14
4.72551,15.5242,-0.283253,39,7
10.3402,33.9483,9.50901,8,15
0.141366,0.46181,-0.12941,15,0
5.33474,17.4165,0.317948,52,8
0.184452,0.601811,-0.145318,25,1
5.25636,17.1499,0.940059,33,9
1.99631,6.50933,-1.32345,26,2
5.34655,17.4225,1.59443,23,10
2.28462,7.44012,-1.2327,25,3
5.35225,17.4194,2.23752,19,11
2.66773,8.67699,-1.11462,17,4
5.28613,17.1935,2.84898,31,12
3.23678,10.5213,-0.963071,22,5
10.8404,35.2156,7.16221,13,13
3.87277,12.573,-0.689474,35,6
10.9091,35.3947,8.55084,25,14
4.27785,13.8795,-0.253514,100,7
10.47,33.9489,9.51937,8,15
0.154415,0.498219,-0.139762,14,0
5.41259,17.4637,0.319135,46,8
0.186446,0.601196,-0.145318,25,1
5.15045,16.5974,0.91075,24,9
2.01669,6.49482,-1.32192,26,2
5.2749,16.9775,1.55538,42,10
2.30282,7.41175,-1.22926,26,3
5.34281,17.1855,2.20973,33,11
2.68293,8.6245,-1.10901,17,4
5.43477,17.4598,2.89623,9,12
3.26579,10.4852,-0.960805,22,5
10.3856,33.3444,6.7886,25,13
3.92216,12.5849,-0.690835,35,6
10.7642,34.5175,8.34748,12,14
5.20248,16.6725,-0.304859,53,7
10.68,34.2054,9.60167,17,15
0.14913,0.475584,-0.133551,15,0
5.49866,17.5248,0.320601,39,8
0.189711,0.60426,-0.146218,25,1
5.20836,16.5793,0.91075,38,9
2.03234,6.46936,-1.31811,26,2
5.30727,16.8839,1.54841,29,10
2.32454,7.39048,-1.22707,40,3
5.40873,17.1857,2.21217,9,11
2.70765,8.59804,-1.10682,16,4
5.46184,17.3333,2.87839,24,12
3.28317,10.4192,-0.95575,22,5
10.5669,33.5139,6.83058,25,13
3.97568,12.6016,-0.692509,35,6
10.904,34.541,8.36233,12,14
5.31305,16.8201,-0.307895,100,7
10.8762,34.411,9.67,17,15
0.150789,0.475061,-0.133551,15,0
5.54467,17.4579,0.319728,11,8
0.184737,0.581307,-0.140819,26,1
5.28313,16.6143,0.913681,26,9
2.0549,6.46223,-1.31811,26,2
5.3837,16.9203,1.55346,13,10
2.34253,7.35785,-1.223,23,3
5.49157,17.2386,2.22143,9,11
2.72861,8.56017,-1.10316,16,4
5.54572,17.3875,2.8906,15,12
3.30984,10.3773,-0.952961,22,5
10.7578,33.7087,6.8779,31,13
4.01783,12.5819,-0.692195,35,6
11.1787,34.9854,8.4793,12,14
4.93692,15.4415,-0.282973,39,7
11.0733,34.6139,9.73781,8,15
0.159537,0.496603,-0.139762,14,0
5.58661,17.3794,0.318646,58,8
0.186765,0.580659,-0.140819,26,1
5.31418,16.5121,0.909076,27,9
2.07565,6.44941,-1.31696,26,2
5.54045,17.2049,1.58135,27,10
2.36032,7.32519,-1.21894,26,3
5.58096,17.31,2.23313,4,11
2.74872,8.52036,-1.09926,17,4
5.73988,17.7816,2.95943,21,12
3.34053,10.3487,-0.951392,22,5
10.9521,33.9082,6.92637,26,13
4.06787,12.5868,-0.693242,35,6
11.1766,34.5623,8.38618,12,14
5.03266,15.5536,-0.285347,100,7
11.7463,36.2806,10.2182,9,15
0.163659,0.503392,-0.141833,14,0
5.6695,17.4282,0.319903,45,8
0.194822,0.598534,-0.145318,25,1
5.39405,16.5618,0.912844,72,9
2.09024,6.41786,-1.312,26,2
5.62207,17.2517,1.58745,10,10
2.38282,7.30751,-1.21737,25,3
5.64012,17.2866,2.23265,28,11
2.76735,8.47675,-1.09487,27,4
5.81909,17.8141,2.96819,34,12
3.36426,10.2991,-0.947906,22,5
11.0746,33.8829,6.92904,32,13
4.11736,12.5896,-0.694184,35,6
11.2469,34.3694,8.34883,36,14
5.03278,15.3706,-0.28231,55,7
10.6471,32.498,9.16323,31,15
0.158171,0.480796,-0.135621,15,0
0.197519,0.599701,-0.145768,25,1
2.10772,6.39561,-1.30895,23,2
6.67121,20.2311,1.86374,37,10
2.40398,7.28602,-1.21518,22,3
5.70167,17.2706,2.23313,23,11
2.79008,8.4463,-1.09219,16,4
5.88434,17.803,2.96975,22,12
3.38519,10.2418,-0.943722,22,5
11.2156,33.913,6.94316,26,13
4.15752,12.5638,-0.693556,35,6
11.3276,34.2115,8.32004,12,14
5.10276,15.4023,-0.283218,7,7
10.7398,32.3983,9.14563,31,15
0.152527,0.458245,-0.12941,15,0
5.79293,17.3939,0.320007,54,8
0.193451,0.58052,-0.141269,26,1
5.82858,17.4806,0.965703,18,9
2.12692,6.3789,-1.30704,26,2
6.12133,18.3479,1.69222,28,10
2.42189,7.2551,-1.21143,22,3
5.68142,17.0096,2.20194,4,11
2.81576,8.42522,-1.09073,16,4
6.0354,18.0484,3.01418,18,12
3.41207,10.2035,-0.941282,20,5
11.2249,33.5478,6.87638,25,13
4.18866,12.5114,-0.691463,26,6
11.351,33.8853,8.25031,24,14
5.16666,15.4147,-0.283776,47,7
10.9462,32.639,9.22431,31,15
0.16029,0.476019,-0.134586,15,0
5.78912,17.1822,0.316482,45,8
0.201079,0.596461,-0.145318,25,1
5.80485,17.2189,0.952305,59,9
2.1498,6.37329,-1.30742,23,2
6.21656,18.419,1.70076,17,10
2.44151,7.22975,-1.20861,25,3
5.78143,17.11,2.21753,9,11
2.83435,8.38337,-1.08659,16,4
6.34007,18.7525,3.13526,34,12
3.43043,10.1406,-0.936576,22,5
11.2935,33.3652,6.84699,25,13
4.21309,12.4399,-0.688323,32,6
11.5543,34.0965,8.31149,12,14
5.22352,15.4145,-0.28409,39,7
11.1307,32.8275,9.28798,24,15
0.171917,0.504715,-0.142868,14,0
5.83769,17.1383,0.316028,54,8
0.196141,0.575501,-0.140369,26,1
5.85331,17.1645,0.950421,46,9
2.17014,6.36018,-1.30628,21,2
5.86433,17.1772,1.58798,27,10
2.45335,7.1861,-1.20267,30,3
5.81311,17.0175,2.20803,9,11
2.85507,8.35326,-1.08391,16,4
6.2361,18.2349,3.05235,13,12
3.44709,10.0739,-0.931521,22,5
11.432,33.4093,6.86378,25,13
4.24267,12.3919,-0.686438,32,6
11.6294,33.9474,8.2845,24,14
5.27729,15.3962,-0.28409,47,7
11.2189,32.7117,9.26624,24,15
0.167301,0.485876,-0.137692,14,0
5.68252,16.4939,0.30451,31,8
0.201959,0.585867,-0.143069,25,1
5.90082,17.1081,0.948432,46,9
2.18225,6.32696,-1.30094,23,2
5.90241,17.103,1.58292,23,10
2.48035,7.18309,-1.20361,27,3
5.87507,17.0046,2.209,4,11
2.87838,8.32636,-1.08171,17,4
6.2939,18.1962,3.04953,37,12
3.47006,10.0323,-0.928732,20,5
8.88907,25.6846,5.28312,3,13
4.26434,12.3147,-0.682984,32,6
11.7127,33.8053,8.25975,36,14
5.3166,15.3361,-0.283322,86,7
14.8435,42.7929,12.1365,15,15
0.165184,0.474343,-0.134586,15,0
6.30723,18.1017,0.334598,50,8
0.200795,0.575958,-0.140819,26,1
5.97365,17.1251,0.950526,18,9
2.19915,6.30448,-1.29788,23,2
6.9935,20.0376,1.85677,16,10
2.50476,7.17253,-1.20329,26,3
6.25393,17.8985,2.32795,10,11
2.90415,8.30689,-1.08049,19,4
6.35216,18.1592,3.04703,16,12
3.4794,9.94675,-0.921933,20,5
8.97868,25.6534,5.28312,15,13
4.2875,12.2432,-0.679844,29,6
11.4331,32.6295,7.98216,11,14
5.38334,15.3552,-0.28402,94,7
11.4028,32.5068,9.23052,7,15
6.83955,19.4111,0.35924,15,8
0.206044,0.584443,-0.143069,25,1
2.21396,6.2764,-1.29369,26,2
6.16158,17.4579,1.6197,6,10
2.51991,7.1358,-1.1986,27,3
6.29587,17.8185,2.32039,30,11
2.93114,8.29109,-1.07976,20,4
6.4076,18.1146,3.04328,25,12
3.50214,9.90074,-0.918796,20,5
9.38126,26.5066,5.46553,8,13
4.31754,12.1924,-0.677855,29,6
10.6318,30.0068,7.3496,10,14
5.48501,15.472,-0.286534,86,7
14.8642,41.9054,11.914,14,15
0.168491,0.473178,-0.134586,15,0
5.90728,16.5804,0.307232,33,8
0.202194,0.5672,-0.13902,26,1
2.23652,6.27048,-1.29407,26,2
5.89502,16.5186,1.53446,22,10
2.54016,7.11394,-1.19641,27,3
6.31596,17.6787,2.30504,24,11
2.95205,8.25837,-1.07684,20,4
7.4487,20.8263,3.50319,10,12
3.52595,9.85844,-0.916007,20,5
9.43538,26.3665,5.4434,15,13
4.33449,12.1058,-0.673878,35,6
10.7201,29.9236,7.33835,53,14
5.49648,15.3342,-0.284335,78,7
12.2699,34.2121,9.73884,8,15
0.163598,0.454411,-0.12941,15,0
6.93898,19.2632,0.35739,27,8
0.206816,0.573823,-0.140819,26,1
2.25573,6.25525,-1.29254,26,2
5.95197,16.4961,1.53429,68,10
2.5643,7.10317,-1.1961,28,3
6.37357,17.6453,2.30357,14,11
2.96736,8.21068,-1.07196,19,4
7.61172,21.0616,3.547,22,12
3.54476,9.80297,-0.911998,20,5
9.51531,26.3001,5.43653,15,13
4.3638,12.0549,-0.671889,35,6
10.8298,29.9007,7.34195,53,14
5.51869,15.2369,-0.282869,86,7
12.3537,34.0895,9.71555,17,15
0.17179,0.47199,-0.134586,15,0
7.01103,19.2626,0.357809,18,8
0.214718,0.589615,-0.144868,25,1
6.03279,16.557,0.92352,21,9
2.26813,6.22151,-1.2872,26,2
5.7965,15.8912,1.4799,37,10
2.58446,7.08535,-1.19453,30,3
6.61445,18.1238,2.3689,30,11
2.98368,8.17096,-1.06806,23,4
7.60182,20.8067,3.50851,16,12
3.56254,9.74563,-0.907814,20,5
9.50609,26.0048,5.38196,27,13
4.38386,11.9859,-0.668854,35,6
9.57007,26.1514,6.4291,27,14
5.62203,15.3546,-0.285417,86,7
10.9282,29.8306,8.51256,27,15
0.173355,0.471418,-0.134586,15,0
6.36909,17.3107,0.321962,20,8
0.20735,0.563259,-0.13857,27,1
6.12162,16.6202,0.928231,21,9
2.27925,6.18816,-1.28185,26,2
5.78646,15.7018,1.46404,78,10
2.60712,7.07072,-1.1936,28,3
6.80479,18.4452,2.41399,30,11
3.00118,8.1307,-1.06416,20,4
7.6566,20.7318,3.50038,8,12
3.57827,9.68891,-0.903631,20,5
9.61723,26.0267,5.39341,38,13
4.41806,11.95,-0.667702,35,6
10.9513,29.6051,7.28751,10,14
5.61591,15.1736,-0.282415,86,7
10.6439,28.7433,8.21285,6,15
0.174999,0.47081,-0.134586,15,0
6.34653,17.0653,0.317808,61,8
0.215432,0.578969,-0.142619,26,1
6.1545,16.5313,0.924462,49,9
2.2981,6.17281,-1.28033,23,2
5.86558,15.7468,1.47014,37,10
2.62006,7.03011,-1.18828,27,3
6.79074,18.2111,2.38645,35,11
3.02538,8.10901,-1.0627,17,4
7.75172,20.7661,3.5107,16,12
3.59325,9.62596,-0.898924,20,5
9.74235,26.0849,5.41249,19,13
4.44016,11.8821,-0.664771,35,6
10.9706,29.3422,7.23218,53,14
5.70386,15.2476,-0.28416,86,7
10.7509,28.7241,8.21802,25,15
6.48346,17.2489,0.321648,34,8
0.208534,0.554501,-0.13677,27,1
6.23679,16.5752,0.928126,47,9
2.31479,6.15189,-1.27766,23,2
6.08549,16.1645,1.51111,39,10
2.62648,6.97286,-1.18014,28,3
6.84448,18.1613,2.38303,30,11
3.04667,8.07983,-1.06026,20,4
6.84308,18.1384,3.0705,24,12
3.61206,9.57421,-0.895264,20,5
9.5997,25.4317,5.28388,15,13
4.45198,11.788,-0.660375,35,6
10.9986,29.1068,7.18359,52,14
5.78958,15.3136,-0.285766,86,7
11.0172,29.1254,8.34381,12,15
0.191996,0.505698,-0.144939,14,0
6.42645,16.9178,0.315889,61,8
0.21393,0.562878,-0.13902,13,1
6.3869,16.796,0.941733,38,9
2.33137,6.13093,-1.27499,21,2
2.65854,6.98396,-1.18358,28,3
6.84566,17.9741,2.36158,40,11
3.06283,8.03761,-1.05612,23,4
3.6334,9.52989,-0.8923,18,5
9.63944,25.2697,5.25717,3,13
4.47244,11.7183,-0.65734,35,6
11.0876,29.0355,7.17549,52,14
5.8166,15.2242,-0.284474,100,7
11.134,29.1265,8.3552,25,15
0.17992,0.468952,-0.134586,15,0
6.32351,16.4733,0.308,46,8
0.213098,0.554851,-0.13722,13,1
6.47558,16.8519,0.94613,50,9
2.34149,6.09343,-1.26888,23,2
7.05187,18.342,1.71923,7,10
2.68148,6.97095,-1.18296,31,3
7.08803,18.4169,2.42301,30,11
3.08231,8.00464,-1.05319,22,4
6.89499,17.8967,3.03764,21,12
3.65518,9.48741,-0.889511,17,5
9.78478,25.3843,5.28808,22,13
4.50398,11.6784,-0.655979,35,6
11.2548,29.1675,7.21778,42,14
5.83441,15.1124,-0.282764,100,7
11.198,28.9901,8.32724,31,15
0.182952,0.471923,-0.135621,15,0
6.65649,17.1615,0.321299,38,8
0.216444,0.557737,-0.13812,13,1
6.49388,16.7249,0.940268,17,9
2.3599,6.0779,-1.26735,21,2
6.37851,16.4193,1.54109,35,10
2.69435,6.93209,-1.17795,23,3
7.14077,18.3625,2.41911,20,11
3.10376,7.97718,-1.051,27,4
7.00829,18.0032,3.05986,36,12
3.67526,9.44117,-0.886374,17,5
10.1569,26.078,5.43996,7,13
4.53094,11.6272,-0.65399,35,6
11.3042,28.9937,7.18449,42,14
5.84935,14.9951,-0.280949,86,7
11.3061,28.9689,8.33242,31,15
0.190235,0.485672,-0.139762,14,0
6.77692,17.2927,0.324196,14,8
0.220524,0.562421,-0.13947,26,1
6.47709,16.5106,0.929487,64,9
2.3811,6.06962,-1.26735,21,2
6.41977,16.3561,1.53725,32,10
2.70986,6.90058,-1.1742,28,3
7.37178,18.7624,2.47517,10,11
3.1236,7.94598,-1.04832,24,4
7.04434,17.9106,3.04828,12,12
3.68997,9.38193,-0.882016,19,5
11.2083,28.4832,5.94981,19,13
4.55759,11.5761,-0.652001,35,6
11.3482,28.809,7.14849,52,14
5.77774,14.6601,-0.27505,72,7
11.4129,28.9436,8.33656,31,15
0.191929,0.485005,-0.139762,14,0
7.18912,18.1576,0.34088,46,8
0.216744,0.547154,-0.13587,27,1
6.46037,16.3004,0.918915,47,9
2.40083,6.05762,-1.26659,21,2
6.51355,16.4262,1.54597,61,10
2.72592,6.87088,-1.17076,28,3
6.32037,15.9228,2.10347,40,11
3.14399,7.91658,-1.04588,27,4
7.10535,17.8822,3.04766,7,12
3.70945,9.33567,-0.878878,19,5
10.0588,25.3023,5.29266,41,13
4.58616,11.5304,-0.650327,35,6
11.5149,28.9358,7.18989,53,14
5.76526,14.4801,-0.272048,81,7
11.5953,29.1082,8.39557,32,15
0.197924,0.495095,-0.142868,14,0
7.14403,17.8613,0.335784,19,8
0.225893,0.564486,-0.140369,26,1
6.7236,16.7932,0.948014,24,9
2.41247,6.02551,-1.26163,23,2
6.87164,17.1543,1.61674,43,10
2.74842,6.85765,-1.17013,30,3
6.36409,15.8712,2.09957,45,11
3.15534,7.86502,-1.04052,22,4
3.73162,9.29677,-0.876438,17,5
10.1243,25.2105,5.28083,14,13
4.61819,11.4939,-0.649175,35,6
11.6072,28.8737,7.18449,52,14
5.70086,14.1742,-0.266673,82,7
11.6305,28.9027,8.34795,31,15
0.202544,0.501566,-0.144939,14,0
7.282,18.0236,0.33931,57,8
0.222749,0.551048,-0.13722,13,1
6.44071,15.9253,0.900283,51,9
2.42171,5.98794,-1.25552,23,2
7.21173,17.8228,1.68211,35,10
2.76567,6.83154,-1.16731,28,3
7.32342,18.0807,2.39522,10,11
3.1798,7.8466,-1.03955,23,4
3.73935,9.22276,-0.870686,17,5
11.6595,28.7426,6.02918,34,13
4.64477,11.4444,-0.647291,32,6
11.4198,28.1235,7.00768,41,14
5.69008,14.006,-0.26388,92,7
11.6084,28.5594,8.26047,25,15
0.189701,0.465081,-0.134586,15,0
7.18014,17.5944,0.3317,24,8
0.227618,0.557483,-0.13902,13,1
6.50858,15.9408,0.902377,38,9
2.44037,5.97399,-1.25438,26,2
6.59399,16.1339,1.52488,13,10
2.78651,6.81453,-1.16606,27,3
7.34289,17.9484,2.38108,5,11
3.20129,7.82499,-1.03808,23,4
7.69992,18.8118,3.21942,19,12
3.76699,9.19859,-0.86964,17,5
11.5498,28.1895,5.92157,41,13
4.67181,11.3967,-0.645512,32,6
11.5322,28.1323,7.01937,31,14
5.72209,13.9519,-0.263217,92,7
11.6752,28.4529,8.2408,25,15
0.183887,0.446586,-0.12941,15,0
7.52409,18.2639,0.34479,55,8
0.226495,0.549519,-0.13722,13,1
6.53629,15.8582,0.898922,23,9
2.45868,5.96224,-1.25362,26,2
7.2736,17.6296,1.66851,28,10
2.80306,6.79064,-1.16356,27,3
7.96689,19.2909,2.56267,35,11
3.22267,7.80332,-1.03662,22,4
11.1765,27.0491,4.63547,27,12
3.7891,9.16579,-0.867723,19,5
11.6628,28.1982,5.93149,33,13
4.69048,11.335,-0.642895,35,6
11.6313,28.1083,7.02297,41,14
5.76908,13.9347,-0.263252,92,7
11.8693,28.6549,8.31068,12,15
0.200196,0.481651,-0.139762,14,0
7.06095,16.9796,0.320985,26,8
0.228316,0.548764,-0.13722,27,1
6.59192,15.8439,0.899341,21,9
2.47994,5.95768,-1.25438,26,2
7.15584,17.1824,1.62842,70,10
2.81569,6.75761,-1.15949,26,3
8.19427,19.6565,2.61483,24,11
3.23937,7.77061,-1.0337,28,4
7.80399,18.7111,3.21097,8,12
3.81027,9.13111,-0.865631,19,5
10.7487,25.7461,5.42317,19,13
4.71265,11.2825,-0.640801,35,6
11.9468,28.6019,7.15614,42,14
5.82837,13.9468,-0.263845,92,7
12.2109,29.2054,8.48202,6,15
7.76424,18.4975,0.350165,31,8
0.228626,0.544411,-0.13632,13,1
6.96999,16.5972,0.943408,47,9
2.49664,5.94218,-1.25285,26,2
7.24058,17.2247,1.63469,57,10
2.83502,6.74095,-1.15824,25,3
8.34796,19.8396,2.64286,19,11
3.2528,7.73054,-1.0298,27,4
11.4077,27.0982,4.65674,13,12
3.82892,9.09088,-0.863016,19,5
11.8716,28.1727,5.94256,38,13
4.74305,11.2503,-0.639859,35,6
11.9356,28.3107,7.09316,41,14
5.89091,13.9661,-0.264578,82,7
12.032,28.5115,8.29204,12,15
0.203638,0.480206,-0.139762,14,0
7.58059,17.8674,0.338786,6,8
0.236806,0.55788,-0.13992,13,1
6.73129,15.8503,0.902481,43,9
2.51023,5.91087,-1.24827,26,2
7.3129,17.2114,1.63609,27,10
2.85779,6.72274,-1.15699,26,3
7.44516,17.5057,2.33575,10,11
3.28225,7.71377,-1.02931,27,4
7.98273,18.7515,3.22787,8,12
3.84742,9.03762,-0.859356,19,5
11.8359,27.7891,5.87119,23,13
4.76821,11.1897,-0.637452,35,6
11.8986,27.9094,7.00453,61,14
5.95085,13.9516,-0.264753,90,7
12.1509,28.4737,8.29515,12,15
7.69253,17.9567,0.340985,51,8
0.238752,0.55705,-0.13992,13,1
6.77793,15.8065,0.90133,17,9
2.52543,5.88944,-1.2456,23,2
7.03359,16.3948,1.56079,3,10
2.87189,6.69094,-1.15323,23,3
8.8895,20.7008,2.76619,21,11
3.30759,7.69862,-1.02882,28,4
12.0656,28.0699,4.83914,21,12
3.8695,9.00217,-0.857264,17,5
12.2074,28.3861,6.00629,24,13
4.79145,11.1363,-0.635359,35,6
12.0075,27.8945,7.01127,10,14
5.99397,13.9179,-0.264509,90,7
12.65,29.3589,8.56588,6,15
0.191653,0.443308,-0.12941,15,0
7.7369,17.8875,0.340182,25,8
0.232955,0.538328,-0.135421,27,1
7.39806,17.0877,0.975856,32,9
2.55144,5.8932,-1.24827,26,2
7.60551,17.5585,1.67409,21,10
2.88423,6.6555,-1.14885,22,3
9.0691,20.9174,2.79934,14,11
3.32891,7.67428,-1.02711,27,4
11.5076,26.5163,4.57821,16,12
3.88503,8.95205,-0.853778,19,5
12.1781,28.048,5.9437,23,13
4.79846,11.0463,-0.631172,35,6
12.1778,28.0205,7.05357,10,14
6.03216,13.873,-0.264055,66,7
12.3879,28.4767,8.32103,12,15
0.204018,0.467424,-0.136656,14,0
7.85051,17.9777,0.342416,38,8
0.237954,0.544655,-0.13722,13,1
7.42566,16.9886,0.971669,29,9
2.57278,5.88605,-1.24865,26,2
7.03691,16.0915,1.53656,13,10
2.89874,6.62549,-1.14541,25,3
7.22131,16.4975,2.2112,9,11
3.34453,7.63716,-1.0237,27,4
11.1688,25.4917,4.40801,25,12
3.91306,8.93114,-0.85308,19,5
12.5865,28.7137,6.09406,35,13
4.8017,10.949,-0.626566,32,6
12.2991,28.0313,7.06706,20,14
6.06688,13.8207,-0.263462,75,7
0.200975,0.456102,-0.133551,15,0
7.91484,17.9538,0.342486,40,8
0.238281,0.540255,-0.13632,13,1
7.48195,16.9639,0.971669,39,9
2.59014,5.86985,-1.24713,26,2
7.17995,16.2637,1.55538,35,10
2.91705,6.60449,-1.14354,26,3
10.6262,24.0474,3.22808,28,11
3.35539,7.59334,-1.01932,31,4
11.2429,25.431,4.40394,25,12
3.93857,8.90467,-0.85186,19,5
12.7947,28.9138,6.14596,41,13
4.82696,10.9029,-0.624891,37,6
6.09,13.7494,-0.262484,83,7
7.42655,16.696,0.31896,7,8
0.24324,0.546583,-0.13812,13,1
7.52761,16.9152,0.970309,7,9
2.59921,5.83791,-1.24217,26,2
7.22734,16.2253,1.55399,42,10
2.93653,6.58936,-1.1426,25,3
7.34394,16.4715,2.21437,4,11
3.36358,7.5441,-1.0142,28,4
11.2773,25.2817,4.38455,33,12
3.94697,8.84425,-0.847328,17,5
12.9337,28.968,6.16657,30,13
4.84353,10.8431,-0.622379,37,6
12.902,28.8833,7.30326,53,14
6.09885,13.6469,-0.260913,67,7
7.5523,16.8282,0.321962,10,8
0.248244,0.552885,-0.13992,13,1
7.56287,16.836,0.967273,30,9
2.61694,5.82568,-1.2414,26,2
7.26478,16.1649,1.5505,16,10
2.94864,6.55797,-1.13884,30,3
10.7472,23.8913,3.21662,38,11
3.38501,7.52145,-1.01273,27,4
11.4555,25.4422,4.41927,25,12
3.96472,8.80135,-0.844539,19,5
12.4234,27.5788,5.87959,18,13
4.85156,10.7651,-0.61882,33,6
13.0548,28.9535,7.3325,10,14
6.11685,13.5599,-0.259657,67,7
0.199284,0.439931,-0.12941,15,0
8.65066,19.0968,0.365942,26,8
0.245346,0.541365,-0.13722,13,1
7.66695,16.9096,0.97303,39,9
2.63422,5.80711,-1.2395,23,2
7.31492,16.1182,1.54858,3,10
2.96449,6.52913,-1.13571,26,3
10.7435,23.6621,3.19078,37,11
3.40714,7.50055,-1.01152,27,4
11.6595,25.6556,4.46339,25,12
3.98387,8.76207,-0.842099,19,5
12.578,27.6511,5.90478,9,13
4.86948,10.6999,-0.616099,33,6
13.2698,29.1449,7.39324,21,14
6.14176,13.4894,-0.258714,76,7
0.216884,0.474371,-0.139762,14,0
7.88713,17.2429,0.330967,2,8
0.245707,0.536918,-0.13632,13,1
7.76001,16.9572,0.977322,16,9
2.65039,5.78896,-1.23759,26,2
10.7978,23.5737,2.26849,24,10
2.97574,6.4936,-1.13133,23,3
10.8567,23.6802,3.19858,46,11
3.43129,7.4808,-1.01054,30,4
11.6913,25.4891,4.44149,28,12
4.00945,8.73725,-0.841053,19,5
12.6966,27.6552,5.91508,18,13
4.88095,10.6266,-0.612854,33,6
13.4146,29.1923,7.41709,21,14
6.16377,13.4133,-0.257667,85,7
0.212063,0.459578,-0.135621,15,0
7.73983,16.7736,0.322451,10,8
0.247486,0.5361,-0.13632,13,1
8.77217,18.9934,1.09644,15,9
2.66646,5.77076,-1.23568,26,2
7.76085,16.7883,1.61813,16,10
2.99892,6.48728,-1.13196,23,3
10.3852,22.455,3.03772,8,11
3.44441,7.44415,-1.00713,27,4
11.7703,25.4266,4.43773,31,12
4.02737,8.69608,-0.838438,17,5
12.8121,27.6646,5.92615,23,13
4.89769,10.5705,-0.610551,30,6
13.5408,29.2113,7.43328,10,14
6.17353,13.3119,-0.256132,93,7
0.203803,0.437855,-0.12941,15,0
7.96379,17.1018,0.329292,22,8
0.242772,0.521102,-0.132721,14,1
8.97172,19.2487,1.11298,30,9
2.67563,5.74053,-1.2311,23,2
7.787,16.6993,1.61203,43,10
3.0157,6.46425,-1.12977,26,3
7.91625,16.961,2.29821,4,11
3.4603,7.4105,-1.0042,31,4
11.8523,25.371,4.43523,34,12
4.0442,8.65309,-0.835649,17,5
14.621,31.2836,6.71228,42,13
4.90918,10.4991,-0.607411,30,6
13.6873,29.2591,7.45758,11,14
6.19877,13.245,-0.255259,93,7
0.21198,0.451093,-0.133551,15,0
8.0447,17.1191,0.330165,48,8
0.246248,0.523778,-0.133621,14,1
7.88786,16.7701,0.971251,37,9
2.68913,5.7147,-1.22767,21,2
8.23682,17.4962,1.69187,35,10
3.02086,6.41383,-1.12289,31,3
11.9415,25.3541,3.4411,10,11
3.48699,7.40017,-1.00445,28,4
11.9753,25.4028,4.44806,31,12
4.06758,8.6245,-0.834255,17,5
14.6644,31.0789,6.67984,12,13
4.92631,10.4358,-0.604794,30,6
6.20654,13.1419,-0.253688,94,7
0.206931,0.436386,-0.12941,15,0
8.07054,17.0118,0.328664,32,8
0.259864,0.547519,-0.13992,13,1
7.98696,16.8205,0.975856,45,9
2.70485,5.69641,-1.22576,23,2
8.29101,17.453,1.69047,28,10
3.04577,6.4086,-1.12383,27,3
12.0787,25.4034,3.45378,10,11
3.50215,7.36225,-1.00103,27,4
12.0683,25.3587,4.44806,31,12
4.0831,8.57967,-0.831291,17,5
13.3726,28.0868,6.04674,24,13
4.94038,10.3717,-0.602073,30,6
6.23315,13.0739,-0.252816,94,7
0.216792,0.453087,-0.134586,15,0
8.16959,17.0665,0.330269,44,8
0.251673,0.525518,-0.134521,14,1
8.07152,16.8466,0.978997,29,9
2.72472,5.68693,-1.22576,26,2
8.35533,17.4311,1.69117,38,10
3.06385,6.38903,-1.12226,26,3
11.4581,23.8827,3.25245,28,11
3.52697,7.34819,-1.00079,26,4
12.1542,25.3111,4.44712,34,12
4.09923,8.53663,-0.828502,19,5
13.542,28.1886,6.07879,25,13
4.94368,10.286,-0.598095,30,6
6.26142,13.0161,-0.252117,94,7
8.2439,17.0685,0.330863,36,8
0.26368,0.545692,-0.13992,13,1
9.18121,18.9923,1.10554,15,9
2.74114,5.67032,-1.22423,23,2
8.44128,17.4539,1.69623,45,10
3.08527,6.37651,-1.12195,25,3
11.5336,23.8265,3.25026,48,11
3.53789,7.30546,-0.996648,22,4
12.2683,25.3218,4.45651,21,12
4.12031,8.50433,-0.826759,19,5
14.2337,29.3654,6.34326,22,13
4.9569,10.2219,-0.595374,27,6
19.1079,39.3862,10.1066,16,14
6.27101,12.9204,-0.250686,100,7
0.21149,0.434195,-0.12941,15,0
8.24473,16.9192,0.328524,44,8
0.261313,0.53601,-0.13767,27,1
9.25621,18.9781,1.10659,16,9
2.75231,5.64307,-1.22041,26,2
8.48992,17.3992,1.69378,38,10
3.10924,6.36925,-1.12257,22,3
11.6628,23.8806,3.26317,9,11
3.55291,7.27166,-0.993723,23,4
12.6811,25.9426,4.57352,13,12
4.14035,8.47021,-0.824842,17,5
14.2758,29.1921,6.31654,21,13
4.97587,10.1705,-0.593385,30,6
18.1341,37.0491,9.52308,14,14
6.30464,12.8751,-0.250233,94,7
0.221524,0.450792,-0.134586,15,0
8.3108,16.9047,0.328803,44,8
0.262323,0.533345,-0.13722,27,1
9.76602,19.8559,1.15966,76,9
2.77112,5.63167,-1.22003,26,2
8.40541,17.0745,1.66502,28,10
3.12971,6.35482,-1.12195,23,3
12.4384,25.2447,3.45548,43,11
3.5695,7.24141,-0.991285,23,4
12.7173,25.7994,4.55569,16,12
4.1461,8.40746,-0.820136,19,5
14.5296,29.4502,6.38332,11,13
4.99189,10.1137,-0.591082,30,6
18.0485,36.5504,9.41105,14,14
6.34553,12.8505,-0.250163,94,7
0.214516,0.432708,-0.12941,15,0
8.40412,16.9523,0.330269,38,8
0.260627,0.525489,-0.135421,13,1
9.89563,19.9434,1.16678,30,9
2.78727,5.61492,-1.21851,26,2
11.9291,24.0205,2.34641,12,10
3.14462,6.33202,-1.11976,20,3
12.5423,25.2442,3.46109,21,11
3.59172,7.22598,-0.990798,20,4
12.8046,25.7495,4.55475,19,12
4.16832,8.37866,-0.818741,19,5
14.2013,28.5458,6.19748,5,13
5.01027,10.0667,-0.589303,33,6
18.0853,36.3212,9.36741,14,14
6.37965,12.8068,-0.249744,94,7
17.9825,36.0832,10.8026,22,15
0.241864,0.483833,-0.144939,14,0
8.42836,16.8531,0.328908,26,8
0.262459,0.524577,-0.135421,13,1
9.562,19.1032,1.11957,41,9
2.80676,5.6074,-1.21889,26,2
8.68827,17.3501,1.69762,17,10
3.15697,6.30158,-1.11632,22,3
12.706,25.3511,3.48181,21,11
3.61248,7.20452,-0.989579,20,4
13.0458,26.0066,4.60825,16,12
4.1934,8.35945,-0.818218,19,5
14.2771,28.4487,6.18717,10,13
5.02388,10.0063,-0.586791,37,6
18.1289,36.0924,9.32467,42,14
6.40277,12.7416,-0.248906,96,7
18.1613,36.1254,10.8342,45,15
0.243551,0.482986,-0.144939,14,0
8.38986,16.6307,0.325138,26,8
0.262533,0.520178,-0.134521,14,1
9.79516,19.3995,1.13894,7,9
2.82012,5.58531,-1.21622,26,2
8.7353,17.293,1.695,28,10
3.18162,6.29581,-1.11726,18,3
12.3887,24.5041,3.37139,31,11
3.61879,7.15467,-0.984461,27,4
13.2008,26.0878,4.63077,23,12
4.21896,8.33765,-0.817521,19,5
14.3488,28.3444,6.17534,20,13
5.04343,9.95838,-0.585011,30,6
18.3367,36.1906,9.36651,28,14
6.42369,12.6728,-0.247999,96,7
18.2532,35.9946,10.814,22,15
0.22947,0.451139,-0.135621,15,0
8.35355,16.416,0.321508,26,8
0.268767,0.527941,-0.13677,27,1
9.85581,19.3598,1.13852,16,9
2.83692,5.57018,-1.21507,26,2
8.8137,17.2979,1.69849,28,10
3.19999,6.27763,-1.116,18,3
12.4308,24.3758,3.35969,10,11
3.63021,7.11547,-0.980805,27,4
14.5216,28.4633,5.06097,16,12
4.23808,8.30335,-0.815603,19,5
15.6494,30.6476,6.689,6,13
5.06726,9.91936,-0.583755,30,6
18.4319,36.0656,9.35077,14,14
6.44112,12.6033,-0.247056,87,7
18.3434,35.8771,10.7969,44,15
0.238098,0.464086,-0.139762,14,0
8.29201,16.1622,0.317075,20,8
0.280305,0.546118,-0.141719,13,1
2.85276,5.55326,-1.21355,26,2
