x, y, z, intensity, ring
-0.228707,-0.620272,-0.0346464,26,6
-0.339944,-0.921459,0.226751,1,14
-0.350033,-0.947787,0.270725,2,15
-0.195942,-0.528001,-0.130022,14,1
-0.224829,-0.605518,-0.125552,14,2
-0.211977,-0.570294,-0.0963636,15,3
-0.228081,-0.611983,-0.0342277,27,6
-0.343158,-0.920267,0.226751,1,14
-0.351988,-0.94294,0.269689,2,15
-0.205997,-0.549209,-0.135421,13,1
-0.204868,-0.545911,-0.113341,16,2
-0.233032,-0.61866,-0.0346464,26,6
-0.349118,-0.926357,0.22855,1,14
-0.348458,-0.923631,0.264513,2,15
-0.188572,-0.497465,-0.122823,15,1
-0.206773,-0.545193,-0.113341,16,2
-0.232348,-0.610376,-0.0342277,27,6
-0.352349,-0.925133,0.22855,1,14
-0.354271,-0.929691,0.266584,2,15
-0.19022,-0.496837,-0.122823,15,1
-0.234371,-0.609602,-0.0342277,27,6
-0.350572,-0.91042,0.261407,2,15
-0.23722,-0.610642,-0.0343324,27,6
-0.341139,-0.876784,0.25209,2,15
-0.23935,-0.60981,-0.0343324,27,6
-0.351265,-0.893568,0.257266,2,15
-0.238533,-0.601545,-0.0339137,27,6
-0.35866,-0.903109,0.260372,2,15
-0.229491,-0.572898,-0.0323436,29,6
-0.344547,-0.85882,0.247949,2,15
-0.235235,-0.58135,-0.032867,29,6
-0.351171,-0.866565,0.250537,1,15
-0.243412,-0.595274,-0.0337044,28,6
-0.348339,-0.851031,0.246396,1,15
-0.237102,-0.574114,-0.032553,29,6
-0.360164,-0.871233,0.252607,1,15
-0.242078,-0.580699,-0.0329717,28,6
-0.3571,-0.855771,0.248466,1,15
-0.223841,-0.534584,-0.155291,12,0
-0.244003,-0.579893,-0.0329717,28,6
-0.38409,-0.911487,0.265031,1,15
-0.252956,-0.596505,-0.102621,14,3
-0.253159,-0.595537,-0.0339137,13,6
-0.236375,-0.552037,-0.0951122,15,3
-0.24657,-0.574461,-0.0327623,29,6
-0.601312,-1.40026,0.351823,1,14
-0.225667,-0.522237,-0.0901063,17,3
-0.249268,-0.575473,-0.032867,14,6
-0.587355,-1.35535,0.341026,1,14
-0.235388,-0.539551,-0.0932349,16,3
-0.23527,-0.538001,-0.0307735,31,6
-0.603018,-1.37829,0.347324,1,14
-0.30779,-0.703498,-0.0134034,5,7
-0.261053,-0.593006,-0.102621,14,3
-0.246729,-0.559145,-0.0320296,15,6
-0.604437,-1.36915,0.345525,1,14
-0.310243,-0.70242,-0.0134034,5,7
-0.247866,-0.556456,-0.0319249,30,6
-0.620318,-1.39195,0.351823,2,14
-0.257079,-0.572026,-0.032867,29,6
-0.610546,-1.35789,0.343725,1,14
-0.315017,-0.700292,-0.0134034,5,7
-0.252571,-0.556531,-0.0320296,15,6
-0.610685,-1.345,0.341026,1,14
-0.250353,-0.546566,-0.0315063,30,6
-0.32002,-0.69802,-0.0134034,5,7
-0.257288,-0.556567,-0.0321343,29,6
-0.322455,-0.696898,-0.0134034,5,7
-0.264295,-0.566525,-0.0327623,29,6
-0.324886,-0.695768,-0.0134034,5,7
-0.246879,-0.526075,-0.112959,16,2
-0.249257,-0.529458,-0.0306689,31,6
-0.296627,-0.629509,-0.0121469,6,7
-0.258817,-0.544822,-0.0316109,30,6
-0.249494,-0.520501,-0.0302502,32,6
-0.252375,-0.523461,-0.112959,16,2
-0.246962,-0.510637,-0.0297268,33,6
-0.299718,-0.619168,-0.0120073,6,7
-0.2542,-0.522577,-0.112959,16,2
-0.263632,-0.540287,-0.0315063,30,6
-0.336859,-0.690051,-0.0134034,5,7
-0.256023,-0.521686,-0.112959,16,2
-0.260131,-0.528657,-0.0308782,31,6
-0.339265,-0.688871,-0.0134034,5,7
-0.257752,-0.520834,-0.112959,16,2
-0.262863,-0.529535,-0.0309829,31,6
-0.341668,-0.687683,-0.0134034,5,7
-0.26471,-0.528614,-0.0309829,15,6
-0.344066,-0.686486,-0.0134034,5,7
-0.264753,-0.524121,-0.0307735,31,6
-0.240864,-0.474358,-0.122823,15,1
-0.769818,-1.51151,0.329718,1,13
-0.268394,-0.526753,-0.0309829,31,6
-0.242518,-0.473514,-0.122823,15,1
-0.766119,-1.49135,0.325902,2,13
-0.283012,-0.550682,-0.0324483,14,6
-0.244169,-0.472665,-0.122823,15,1
-0.76861,-1.48343,0.324757,4,13
-0.272065,-0.524866,-0.0309829,15,6
-0.233212,-0.447614,-0.116525,16,1
-0.781058,-1.49466,0.32781,3,13
-0.272045,-0.520374,-0.0307735,15,6
-0.247381,-0.470992,-0.122823,15,1
-0.78601,-1.49206,0.32781,2,13
-0.262595,-0.498266,-0.0295175,16,6
-0.248941,-0.470169,-0.122823,15,1
-0.806607,-1.51893,0.334297,1,13
-0.264246,-0.497392,-0.0295175,16,6
-0.250581,-0.469297,-0.122823,15,1
-0.299935,-0.559846,-0.0332857,14,6
-0.252218,-0.468419,-0.122823,15,1
-0.25377,-0.46758,-0.122823,15,1
-0.27805,-0.508501,-0.155291,12,0
-0.279823,-0.507527,-0.155291,12,0
-0.239068,-0.419642,-0.12941,15,0
-0.288895,-0.506487,-0.113341,16,2
-0.290661,-0.505476,-0.113341,16,2
-0.931672,-1.61761,0.295661,1,12
-0.290391,-0.501555,-0.155291,12,0
-0.292424,-0.504458,-0.113341,16,2
-0.933345,-1.60752,0.29441,2,12
-0.294095,-0.503486,-0.113341,16,2
-0.935957,-1.59914,0.293471,4,12
-0.315867,-0.536236,-0.120973,15,2
-0.947556,-1.60607,0.295348,2,12
-0.295627,-0.498487,-0.155291,12,0
-0.297691,-0.501368,-0.113341,16,2
-0.964547,-1.62126,0.29879,1,12
-0.299439,-0.500326,-0.113341,16,2
-0.301184,-0.499278,-0.113341,16,2
-0.302925,-0.498223,-0.113341,16,2
-0.440727,-0.72231,0.226725,2,15
-1.0429,-1.70386,0.0348699,1,8
-0.304575,-0.497216,-0.113341,16,2
-1.02755,-1.66635,0.0341718,5,8
-1.0615,-1.72005,0.105928,1,9
-0.306309,-0.49615,-0.113341,16,2
-1.04392,-1.67974,0.0345209,7,8
-1.05695,-1.69938,0.104881,4,9
-0.293436,-0.471792,-0.107998,17,2
-1.05402,-1.68286,0.0346605,5,8
-1.07136,-1.70922,0.105719,6,9
-0.309765,-0.493999,-0.113341,16,2
-1.06722,-1.7013,0.175706,1,10
-1.08893,-1.73524,0.251538,1,11
-1.09435,-1.7331,0.0357774,1,8
-1.07518,-1.70209,0.105509,2,9
-0.280024,-0.443126,-0.101892,19,2
-1.05719,-1.6723,0.173091,6,10
-1.07831,-1.70439,0.247639,1,11
-0.300552,-0.471953,-0.108761,17,2
-1.08122,-1.69717,0.176055,2,10
-0.293635,-0.457734,-0.105708,18,2
-0.290967,-0.450111,-0.104182,18,2
-0.290394,-0.445803,-0.103418,18,2
-0.319958,-0.48746,-0.113341,16,2
-1.12602,-1.70252,0.106975,1,9
-0.321657,-0.48634,-0.113341,16,2
-1.17626,-1.76506,0.111162,1,9
-0.323353,-0.485214,-0.113341,16,2
-1.11247,-1.65928,0.0348699,1,8
-1.1128,-1.65853,0.104672,1,9
-0.324876,-0.484196,-0.113341,16,2
-1.04124,-1.5472,0.430556,1,14
-1.11825,-1.65538,0.0348699,1,8
-1.13201,-1.67449,0.105928,1,9
-0.311251,-0.460234,-0.107998,17,2
-1.12983,-1.67001,0.176403,1,10
-1.14909,-1.68703,0.106975,1,9
-0.306222,-0.44941,-0.105708,18,2
-1.12443,-1.64959,0.17466,1,10
-1.05202,-1.53989,0.430556,1,14
-0.314376,-0.458105,-0.107998,17,2
-1.14117,-1.66228,0.176403,1,10
-1.05712,-1.5364,0.430556,1,14
-0.298034,-0.431219,-0.101892,19,2
-1.14668,-1.65849,0.176403,1,10
-1.04915,-1.51348,0.425157,1,14
-0.333277,-0.478452,-0.113341,16,2
-1.06809,-1.52879,0.430556,1,14
-0.319156,-0.454788,-0.107998,17,2
-1.07342,-1.52505,0.430556,1,14
-0.334405,-0.473347,-0.155291,12,0
-0.309484,-0.437586,-0.104182,18,2
-1.27463,-1.79027,0.0383604,1,8
-0.31101,-0.436503,-0.104182,18,2
-1.18763,-1.65581,0.035568,3,8
-0.32398,-0.451364,-0.107998,17,2
-1.24573,-1.72979,-0.0372085,1,7
-1.21917,-1.68731,0.0363359,6,8
-1.20043,-1.66077,0.107393,1,9
-0.307147,-0.424776,-0.101892,19,2
-1.24207,-1.7127,-0.0369293,1,7
-1.22711,-1.6865,0.0364057,6,8
-0.294687,-0.40471,-0.0973126,19,2
-1.24097,-1.69371,0.0366501,2,8
-0.316923,-0.432229,-0.104182,18,2
-1.25922,-1.71547,0.261288,1,11
-0.323172,-0.43738,-0.105708,18,2
-1.00486,-1.356,-0.0294597,1,7
-1.30905,-1.75943,0.11493,1,9
-0.348141,-0.467748,-0.113341,16,2
-0.9725,-1.30281,-0.0283776,4,7
-1.31737,-1.75905,0.0383604,1,8
-1.32237,-1.76444,0.115558,1,9
-0.349771,-0.46653,-0.113341,16,2
-1.32933,-1.77243,0.193834,1,10
-0.980647,-1.3042,-0.0284823,6,7
-1.33815,-1.77256,0.116395,1,9
-0.351317,-0.465367,-0.113341,16,2
-1.3352,-1.76801,0.193834,1,10
-0.985194,-1.30077,-0.0284823,7,7
-1.32257,-1.73927,0.114511,1,9
-0.352939,-0.464138,-0.113341,16,2
-1.31241,-1.72528,0.189651,1,10
-1.36111,-1.788,0.275912,1,11
-0.999432,-1.31004,-0.0287616,7,7
-1.32863,-1.73464,0.114511,1,9
-0.354557,-0.462903,-0.113341,16,2
-1.33296,-1.73967,0.191743,1,10
-1.34801,-1.75804,0.272012,1,11
-1.00278,-1.30496,-0.0287267,5,7
-1.34688,-1.7458,0.115558,1,9
-0.35617,-0.461663,-0.113341,16,2
-1.35364,-1.75393,0.193834,1,10
-1.35536,-1.75489,0.272256,1,11
-1.36866,-1.77084,0.354481,1,12
-1.00366,-1.29671,-0.0286219,4,7
-1.36246,-1.75395,0.116395,1,9
-0.35778,-0.460417,-0.113341,16,2
-1.3304,-1.71144,0.189651,1,10
-1.35172,-1.73762,0.270306,1,11
-1.36967,-1.76005,0.353229,1,12
-0.99443,-1.27602,-0.028238,5,7
-1.43011,-1.82783,0.121629,1,9
-0.359385,-0.459165,-0.113341,16,2
-1.36585,-1.74444,0.193834,1,10
-1.35748,-1.73312,0.270306,1,11
-1.38068,-1.76148,0.354481,1,12
-1.00382,-1.27884,-0.0283776,5,7
-1.43617,-1.82308,0.121629,1,9
-0.360905,-0.457971,-0.113341,16,2
-1.39303,-1.76578,0.276156,1,11
-1.38162,-1.75069,0.353229,1,12
-1.40539,-1.77953,0.440769,1,13
-1.01301,-1.28178,-0.0285172,5,7
-1.44252,-1.81805,0.121629,1,9
-1.39887,-1.76115,0.276156,1,11
-1.37789,-1.73349,0.350726,1,12
-1.38318,-1.73951,0.431992,1,13
-1.01499,-1.2751,-0.0284474,5,7
-0.364014,-0.455504,-0.113341,16,2
-1.38344,-1.73052,0.193834,1,10
-1.40501,-1.75625,0.276156,1,11
-1.3864,-1.73175,0.351352,1,12
-1.37942,-1.72241,0.428939,1,13
-1.01443,-1.26531,-0.0283078,5,7
-1.45518,-1.80794,0.121629,1,9
-1.38977,-1.72544,0.193834,1,10
-1.41114,-1.75134,0.276156,1,11
-1.39988,-1.73613,0.353229,1,12
-1.39312,-1.72651,0.431228,1,13
-1.41648,-1.7542,0.520537,1,14
-1.01256,-1.25398,-0.0281333,5,7
-1.05881,-1.30659,0.0293549,1,8
-1.46179,-1.80259,0.121629,1,9
-1.41869,-1.74632,0.356358,1,12
-1.40162,-1.72469,0.431992,1,13
-1.39308,-1.71296,0.509739,1,14
-1.02346,-1.25802,-0.0283078,5,7
-1.03808,-1.2719,0.0286569,1,8
-1.49335,-1.82842,0.123722,1,9
-0.368843,-0.451602,-0.113341,16,2
-1.44968,-1.77433,0.200458,1,10
-1.41226,-1.72607,0.353229,1,12
-1.39768,-1.70763,0.428939,1,13
-1.40399,-1.71412,0.511539,1,14
-1.02911,-1.25599,-0.0283427,6,7
-1.01965,-1.24047,0.0280286,4,8
-1.48957,-1.81085,0.122885,1,9
-0.370417,-0.450312,-0.113341,16,2
-1.45334,-1.76618,0.20011,1,10
-1.43838,-1.74552,0.358235,1,12
-1.41862,-1.72092,0.433518,1,13
-1.40253,-1.70019,0.508839,1,14
-1.03858,-1.25856,-0.0284823,7,7
-1.03163,-1.24614,0.028238,5,8
-1.48059,-1.78719,0.121629,1,9
-0.371987,-0.449016,-0.113341,16,2
-1.46712,-1.7703,0.201155,1,10
-1.47979,-1.78305,0.366995,1,12
-1.40455,-1.69179,0.427412,1,13
-1.41592,-1.70428,0.511539,1,14
-1.03402,-1.24416,-0.028238,9,7
-1.40548,-1.6905,0.589072,1,15
-1.03597,-1.24253,0.028238,5,8
-1.48682,-1.78201,0.121629,1,9
-1.47585,-1.76823,0.201504,1,10
-1.50541,-1.80237,0.288343,1,11
-1.42556,-1.70495,0.431992,1,13
-1.40186,-1.67541,0.50434,1,14
-1.03066,-1.23134,-0.0280286,9,7
-1.41137,-1.68559,0.589072,1,15
-1.03773,-1.23585,0.0281682,5,8
-1.47247,-1.75234,0.119954,1,9
-0.375113,-0.446408,-0.113341,16,2
-1.45124,-1.72646,0.197321,1,10
-1.49892,-1.78191,0.285906,1,11
-1.538,-1.82708,0.378259,1,12
-1.46185,-1.73601,0.44115,1,13
-1.41523,-1.67945,0.50704,1,14
-1.03624,-1.22926,-0.0280635,10,7
-1.41725,-1.68065,0.589072,1,15
-1.03042,-1.21847,0.027854,5,8
-1.49376,-1.76575,0.12121,1,9
-0.3754,-0.443598,-0.112959,16,2
-1.45983,-1.72442,0.197669,1,10
-1.52823,-1.80394,0.290293,1,11
-1.54405,-1.82197,0.378259,1,12
-1.4679,-1.73089,0.44115,1,13
-1.42361,-1.67747,0.507939,1,14
-1.04678,-1.23344,-0.028238,12,7
-1.45532,-1.71423,0.602531,1,15
-0.375699,-0.441288,-0.155291,12,0
-1.05001,-1.23332,0.0282729,5,8
-1.4766,-1.73316,0.119326,1,9
-0.376946,-0.442285,-0.112959,16,2
-1.46584,-1.71932,0.197669,1,10
-1.50328,-1.76261,0.284443,1,11
-1.5504,-1.81657,0.378259,1,12
-1.47363,-1.72602,0.44115,1,13
-1.42663,-1.66978,0.50704,1,14
-1.05368,-1.23282,-0.0283078,12,7
-1.42865,-1.67096,0.589072,1,15
-1.05431,-1.22965,0.0282729,5,8
-1.48264,-1.72799,0.119326,1,9
-0.378411,-0.441032,-0.112959,16,2
-1.47932,-1.72352,0.198715,1,10
-1.49132,-1.73627,0.281031,1,11
-1.55673,-1.81114,0.378259,1,12
-1.47965,-1.72086,0.44115,1,13
-1.43753,-1.6707,0.508839,1,14
-1.06058,-1.23217,-0.0283776,12,7
-1.43448,-1.66597,0.589072,1,15
-1.06382,-1.23201,0.0284125,5,8
-0.347764,-0.402605,-0.122823,15,1
-1.48082,-1.71374,0.118698,2,9
-0.379948,-0.439709,-0.112959,16,2
-1.49575,-1.7304,0.20011,1,10
-1.49088,-1.72354,0.279812,1,11
-1.5527,-1.79375,0.375756,1,12
-1.41783,-1.63621,0.499841,1,14
-1.04916,-1.21033,-0.0279588,9,7
-1.43269,-1.65219,0.585966,1,15
-1.06155,-1.22075,0.028238,5,8
-0.349168,-0.401388,-0.122823,15,1
-1.50223,-1.7269,0.119954,1,9
-0.381481,-0.43838,-0.112959,16,2
-1.473,-1.69211,0.196275,1,10
-1.50992,-1.7333,0.282249,1,11
-1.55345,-1.78263,0.374504,1,12
-1.43635,-1.64594,0.50434,1,14
-1.04791,-1.20081,-0.0278191,6,7
-1.41529,-1.62124,0.576649,1,15
-1.06296,-1.21421,0.0281682,5,8
-0.324819,-0.370907,-0.113825,16,1
-1.49772,-1.70963,0.119117,1,9
-1.48941,-1.69894,0.197669,1,10
-1.51043,-1.72231,0.281274,1,11
-1.55966,-1.7772,0.374504,1,12
-1.44952,-1.64995,0.50704,1,14
-1.07453,-1.22268,-0.0284125,2,7
-1.4388,-1.6366,0.583896,1,15
-1.07645,-1.22099,0.0284125,10,8
-1.45611,-1.65047,0.115348,1,9
-1.50295,-1.70296,0.198715,1,10
-1.51117,-1.71108,0.2803,1,11
-1.53969,-1.74214,0.368247,1,12
-1.47334,-1.66531,0.513338,1,14
-1.08144,-1.22192,-0.0284823,1,7
-1.43682,-1.62289,0.58079,1,15
-0.384706,-0.433458,-0.155291,12,0
-1.09797,-1.23667,0.0288663,13,8
-1.40084,-1.5767,0.110534,1,9
-1.50094,-1.68877,0.197669,1,10
-1.53825,-1.72952,0.284199,1,11
-1.55627,-1.74856,0.37075,1,12
-1.49989,-1.68344,0.520537,1,14
-1.07639,-1.20769,-0.028238,5,7
-1.45533,-1.63228,0.585966,1,15
-0.321848,-0.360094,-0.12941,15,0
-1.10628,-1.2373,0.028971,37,8
-1.35413,-1.51398,0.106451,2,9
-1.51746,-1.69539,0.199064,1,10
-1.51249,-1.68866,0.27835,1,11
-1.53306,-1.71102,0.363867,1,12
-1.64613,-1.83593,0.479312,1,13
-1.50576,-1.67819,0.520537,1,14
-1.07638,-1.19965,-0.0281333,4,7
-1.46074,-1.62745,0.585966,1,15
-0.323103,-0.358968,-0.12941,15,0
-0.329902,-0.366394,-0.113825,16,1
-1.36208,-1.51222,0.106661,2,9
-1.52603,-1.69305,0.199412,1,10
-1.54732,-1.71607,0.283712,1,11
-1.54961,-1.7174,0.36637,2,12
-1.5575,-1.72553,0.451836,1,13
-1.09531,-1.2122,-0.0285172,5,7
-1.45864,-1.61374,0.582861,1,15
-0.324291,-0.357894,-0.12941,15,0
-1.10661,-1.22085,0.0287616,181,8
-1.37004,-1.51041,0.10687,4,9
-1.48879,-1.64076,0.193834,1,10
-1.54797,-1.70478,0.282737,1,11
-1.55294,-1.70905,0.365744,1,12
-1.56879,-1.7259,0.453362,1,13
-1.09819,-1.20689,-0.0284823,11,7
-1.47206,-1.61721,0.585966,1,15
-1.11761,-1.22437,0.0289361,178,8
-0.332452,-0.364082,-0.113825,16,1
-1.38338,-1.51447,0.107498,4,9
-1.4948,-1.63529,0.193834,1,10
-1.55123,-1.69643,0.282249,1,11
-1.55356,-1.69779,0.364492,2,12
-1.55124,-1.69407,0.446493,1,13
-1.1078,-1.20895,-0.0286219,12,7
-1.47248,-1.60637,0.583896,1,15
-1.13021,-1.2291,0.0291455,100,8
-0.3417,-0.371466,-0.116525,16,1
-1.37134,-1.49028,0.106137,4,9
-1.5005,-1.63007,0.193834,1,10
-1.55744,-1.69074,0.282249,1,11
-1.5571,-1.68918,0.363867,1,12
-1.57844,-1.71174,0.452599,1,13
-1.1068,-1.19901,-0.0284823,13,7
-1.4836,-1.60663,0.585966,1,15
-0.328083,-0.354422,-0.12941,15,0
-1.13857,-1.22954,0.0292502,185,8
-1.38332,-1.49281,0.106661,4,9
-1.50076,-1.61897,0.193137,1,10
-1.58493,-1.70857,0.286149,1,11
-1.56298,-1.68374,0.363867,1,12
-1.58441,-1.70622,0.452599,1,13
-1.10825,-1.1922,-0.0284125,14,7
-1.50498,-1.61842,0.592178,1,15
-0.329318,-0.353274,-0.12941,15,0
-1.14422,-1.22702,0.0292851,190,8
-1.38989,-1.48943,0.106765,4,9
-1.49553,-1.60207,0.191743,1,10
-1.53397,-1.6421,0.275912,1,11
-1.56345,-1.6725,0.362615,1,12
-1.58767,-1.69781,0.451836,1,13
-1.10148,-1.17665,-0.0281333,21,7
-1.5027,-1.6047,0.589072,1,15
-1.14165,-1.21573,0.0291106,192,8
-1.40055,-1.49039,0.107184,4,9
-1.51749,-1.61426,0.193834,1,10
-1.52609,-1.62228,0.273475,1,11
-1.58824,-1.68717,0.366995,1,12
-1.58821,-1.68654,0.450309,1,13
-1.48444,-1.57414,0.579755,1,15
-0.331777,-0.350967,-0.12941,15,0
-1.14589,-1.21174,0.0291106,192,8
-0.338818,-0.358165,-0.113825,16,1
-1.39725,-1.47703,0.106556,3,9
-1.49846,-1.58291,0.190697,1,10
-1.5099,-1.59389,0.269575,1,11
-1.5748,-1.66182,0.362615,1,12
-1.59138,-1.67814,0.449546,1,13
-1.6191,-1.70617,0.543032,1,14
-1.50561,-1.58603,0.585966,1,15
-0.333,-0.349806,-0.12941,15,0
-1.15817,-1.21663,0.02932,189,8
-0.348067,-0.365507,-0.116525,16,1
-1.39551,-1.46492,0.106033,4,9
-1.52872,-1.60363,0.193834,1,10
-1.51518,-1.58887,0.269575,1,11
-1.55605,-1.63059,0.356983,1,12
-1.60778,-1.68421,0.452599,1,13
-1.60859,-1.68389,0.537633,1,14
-1.50847,-1.57797,0.584931,1,15
-1.40174,-1.46172,0.106137,4,9
-1.50644,-1.5698,0.190348,1,10
-1.55646,-1.6208,0.275912,1,11
-1.53407,-1.59693,0.350726,1,12
-1.60549,-1.6701,0.450309,1,13
-1.59526,-1.65888,0.531334,1,14
-1.51637,-1.57574,0.585966,1,15
-1.41213,-1.46282,0.106556,3,9
-1.51994,-1.57339,0.191394,1,10
-1.53424,-1.58708,0.271037,1,11
-1.53387,-1.58615,0.349475,1,12
-1.60556,-1.65912,0.448783,1,13
-1.62786,-1.68158,0.540332,1,14
-1.50277,-1.55128,0.578719,1,15
-1.16346,-1.19767,0.0291455,6,8
-1.40609,-1.44642,0.105719,3,9
-1.5446,-1.58834,0.193834,1,10
-1.52011,-1.56207,0.267625,1,11
-1.56972,-1.61192,0.356358,1,12
-1.58365,-1.62566,0.44115,1,13
-1.62012,-1.66194,0.535833,1,14
-1.53515,-1.57368,0.589072,1,15
-1.17323,-1.19932,0.0292851,7,8
-0.344833,-0.352378,-0.113825,16,1
-1.41812,-1.44864,0.106242,4,9
-1.55877,-1.59121,0.19488,1,10
-1.57279,-1.60496,0.275912,1,11
-1.58363,-1.61489,0.358235,1,12
-1.5896,-1.61985,0.44115,1,13
-1.61527,-1.64486,0.532234,1,14
-1.17762,-1.19501,0.0292851,7,8
-0.354331,-0.359438,-0.116525,16,1
-1.41615,-1.43657,0.105719,4,9
-1.57831,-1.59994,0.196623,1,10
-1.56751,-1.58788,0.273962,1,11
-1.57538,-1.5953,0.355106,1,12
-1.59524,-1.61429,0.44115,1,13
-1.61278,-1.6309,0.529535,1,14
-1.18157,-1.1911,0.0292851,7,8
-1.41975,-1.4302,0.105614,4,9
-1.58388,-1.59442,0.196623,1,10
-1.54758,-1.55733,0.269575,1,11
-1.55865,-1.56738,0.3501,1,12
-1.58674,-1.59507,0.437334,1,13
-1.59069,-1.59792,0.520537,1,14
-1.18007,-1.18131,0.0291455,6,8
-0.376054,-0.376316,-0.122823,15,1
-1.43719,-1.4382,0.106556,4,9
-1.60889,-1.60889,0.199064,1,10
-1.53615,-1.53508,0.26665,1,11
-1.57782,-1.57616,0.353229,1,12
-1.58952,-1.58675,0.436571,1,13
-1.61557,-1.61163,0.526835,1,14
-1.17831,-1.17175,0.0290059,5,8
-1.42804,-1.41909,0.105509,4,9
-1.5947,-1.58361,0.196623,1,10
-1.59477,-1.58312,0.275912,1,11
-1.59453,-1.58178,0.355732,1,12
-1.60035,-1.587,0.438097,1,13
-1.62921,-1.61449,0.529535,1,14
-1.17955,-1.16482,0.0289361,4,8
-1.43441,-1.4155,0.105614,4,9
-1.57725,-1.55592,0.193834,1,10
-1.58615,-1.56361,0.273475,1,11
-1.6113,-1.58729,0.358235,1,12
-1.61707,-1.59242,0.44115,1,13
-1.62095,-1.59513,0.525036,1,14
-1.21216,-1.18869,0.0296342,2,8
-0.352077,-0.34514,-0.113825,16,1
-1.43221,-1.4035,0.105091,2,9
-1.21262,-1.1879,0.148513,1,10
-1.59727,-1.56362,0.27445,1,11
-1.60271,-1.56784,0.355106,2,12
-1.59735,-1.56206,0.434281,1,13
-1.63487,-1.59763,0.527735,1,14
-1.57288,-1.53598,0.589072,1,15
-1.20341,-1.1719,0.02932,2,8
-0.36445,-0.354784,-0.117424,16,1
-1.39964,-1.36252,0.102369,1,9
-1.20819,-1.17533,0.147468,2,10
-1.64542,-1.59954,0.281762,1,11
-1.58806,-1.54325,0.350726,1,12
-1.64505,-1.59751,0.44573,1,13
-1.62645,-1.57834,0.523236,1,14
-1.19723,-1.15817,0.0290757,2,8
-0.382435,-0.36983,-0.122823,15,1
-1.23782,-1.1966,0.0902272,1,9
-1.19652,-1.15587,0.14555,2,10
-1.6304,-1.57336,0.358861,1,12
-1.6136,-1.5566,0.435808,1,13
-1.6429,-1.58376,0.526835,1,14
-1.20415,-1.15675,0.0291455,1,8
-0.383724,-0.368492,-0.122823,15,1
-1.19856,-1.15098,0.087087,1,9
-1.20754,-1.1588,0.146422,1,10
-1.62705,-1.55974,0.356983,1,12
-1.60201,-1.53467,0.431228,1,13
-1.66812,-1.59688,0.533134,1,14
-1.22823,-1.17208,0.0296342,1,8
-0.384943,-0.367218,-0.122823,15,1
-1.17944,-1.12474,0.0854123,1,9
-1.19427,-1.13808,0.14433,1,10
-1.64393,-1.56495,0.359486,1,12
-1.61847,-1.54017,0.434281,1,13
-1.65364,-1.57254,0.526835,1,14
-1.66366,-1.58096,0.614954,1,15
-1.15974,-1.09901,0.0278889,1,8
-0.386223,-0.365872,-0.122823,15,1
-1.18317,-1.12082,0.0854123,2,9
-1.18935,-1.1259,0.143284,1,10
-1.19981,-1.135,0.202791,1,11
-1.65485,-1.56492,0.360738,1,12
-1.62954,-1.53991,0.435808,1,13
-1.64212,-1.5507,0.521437,1,14
-1.73913,-1.64174,0.640836,1,15
-1.1925,-1.12258,0.028587,1,8
-0.387434,-0.364589,-0.122823,15,1
-1.18707,-1.11669,0.0854123,2,9
-1.16715,-1.09717,0.140146,2,10
-1.20357,-1.13102,0.202791,1,11
-1.68335,-1.58077,0.365744,1,12
-1.65468,-1.55331,0.44115,1,13
-1.64441,-1.54258,0.520537,1,14
-1.19641,-1.11841,0.028587,1,8
-0.388704,-0.363234,-0.122823,15,1
-1.18512,-1.10708,0.0849936,3,9
-1.16787,-1.09058,0.139798,3,10
-1.22492,-1.14306,0.205715,1,11
-1.67441,-1.56141,0.362615,1,12
-1.66871,-1.55555,0.44344,1,13
-1.64978,-1.53683,0.520537,1,14
-1.69116,-1.57428,0.619095,1,15
-1.1622,-1.07885,0.0276795,1,8
-0.38997,-0.361876,-0.122823,15,1
-1.19337,-1.10701,0.0853076,4,9
-1.15852,-1.0743,0.138229,4,10
-1.19687,-1.10909,0.200353,1,11
-1.65396,-1.53105,0.438097,1,13
-1.66086,-1.53636,0.522336,1,14
-1.66828,-1.54214,0.608742,1,15
-1.1836,-1.09105,0.0280984,1,8
-0.391231,-0.360512,-0.122823,15,1
-1.19576,-1.10149,0.0852029,4,9
-1.17105,-1.07835,0.139275,4,10
-1.18321,-1.08878,0.197428,1,11
-1.32175,-1.21541,0.284398,1,12
-1.67195,-1.53582,0.524136,1,14
-1.67365,-1.53631,0.608742,1,15
-1.16085,-1.06261,0.0274701,1,8
-0.392487,-0.359144,-0.122823,15,1
-1.18781,-1.08652,0.0843656,4,9
-1.18823,-1.08615,0.140844,3,10
-1.16062,-1.06054,0.193041,3,11
-1.74899,-1.59593,0.460231,1,13
-1.67757,-1.52969,0.524136,1,14
-1.71327,-1.56169,0.621166,1,15
-1.1677,-1.06104,0.0275399,1,8
-0.393801,-0.357703,-0.122823,15,1
-1.18883,-1.07948,0.0841562,4,9
-1.16989,-1.06191,0.138229,2,10
-1.17627,-1.06695,0.194991,3,11
-1.73709,-1.57399,0.455652,1,13
-1.6829,-1.52382,0.524136,1,14
-1.70179,-1.53984,0.614954,1,15
-1.16249,-1.04892,0.0273305,1,8
-0.395047,-0.356326,-0.122823,15,1
-1.18814,-1.07131,0.0838422,4,9
-1.16489,-1.04961,0.137183,3,10
-1.20063,-1.08143,0.198403,6,11
-1.69427,-1.52285,0.525936,1,14
-1.69853,-1.52615,0.611848,1,15
-1.1628,-1.04259,0.0272607,1,8
-0.396164,-0.355084,-0.122823,15,1
-1.19745,-1.0729,0.0842609,2,9
-1.17542,-1.0528,0.138055,4,10
-1.18627,-1.06177,0.195478,6,11
-1.69467,-1.51308,0.608742,1,15
-1.16046,-1.03321,0.027121,1,8
-0.397401,-0.353699,-0.122823,15,1
-1.19969,-1.06739,0.0841562,2,9
-1.191,-1.05928,0.139449,4,10
-1.18404,-1.05235,0.194503,6,11
-1.70862,-1.51485,0.611848,1,15
-1.19702,-1.05829,0.0278889,1,8
-0.398633,-0.352309,-0.122823,15,1
-1.18994,-1.05129,0.0832142,2,9
-1.18274,-1.04456,0.138055,4,10
-1.18324,-1.04427,0.193772,6,11
-1.70809,-1.50377,0.609778,1,15
-1.18868,-1.04355,0.0276097,1,8
-0.399861,-0.350916,-0.122823,15,1
-1.19811,-1.05108,0.0835282,2,9
-1.18788,-1.04174,0.138229,2,10
-1.19882,-1.0506,0.195722,6,11
-1.71333,-1.4978,0.609778,1,15
-1.22247,-1.06567,0.0283078,1,8
-0.401083,-0.349518,-0.122823,15,1
-1.20026,-1.04558,0.0834235,2,9
-1.16747,-1.01666,0.13544,2,10
-1.20847,-1.05162,0.196697,7,11
-1.71855,-1.49181,0.609778,1,15
-1.18989,-1.02999,0.0274701,1,8
-0.402301,-0.348116,-0.122823,15,1
-1.21448,-1.05053,0.0841562,2,9
-1.1695,-1.01127,0.135266,3,10
-1.21213,-1.04739,0.196697,7,11
-1.81154,-1.56148,0.640836,1,15
-1.19045,-1.02322,0.0274003,1,8
-0.403514,-0.346709,-0.122823,15,1
-1.22099,-1.0491,0.0843656,3,9
-1.19721,-1.02795,0.138055,4,10
-1.1977,-1.02765,0.193772,7,11
-1.18471,-1.01148,0.0271908,1,8
-1.2216,-1.04224,0.0841562,4,9
-1.19625,-1.01989,0.137532,4,10
-1.20262,-1.02496,0.194016,7,11
-1.21874,-1.0332,0.0278889,1,8
-1.21914,-1.03281,0.0837375,5,9
-1.21635,-1.03008,0.139449,4,10
-1.21983,-1.03229,0.19621,7,11
-2.55781,-2.16229,0.65104,1,13
-2.34762,-1.98319,0.709496,1,14
-1.23191,-1.03626,0.0843656,5,9
-1.21536,-1.02198,0.138926,4,10
-1.23558,-1.03825,0.19816,6,11
-2.91513,-2.44782,0.602898,1,12
-2.58189,-2.16723,0.655238,2,13
-2.34855,-1.96997,0.707696,1,14
-2.11716,-1.77462,0.740223,2,15
-1.24453,-1.03985,0.0849936,4,9
-1.22045,-1.01901,0.139101,4,10
-1.22395,-1.02121,0.195722,6,11
-2.88986,-2.41031,0.596015,2,12
-2.58039,-2.15066,0.652948,2,13
-2.35058,-1.95843,0.706346,1,14
-2.11858,-1.76388,0.73867,2,15
-1.25412,-1.04082,0.0854123,4,9
-1.21615,-1.00859,0.138229,4,10
-1.21816,-1.00954,0.19426,6,11
-2.9024,-2.40449,0.596954,4,12
-2.58902,-2.14334,0.65333,2,13
-2.36757,-1.95932,0.709496,1,14
-2.10656,-1.74208,0.732458,2,15
-1.24986,-1.03031,0.0848889,4,9
-1.21334,-0.999488,0.137532,3,10
-1.23223,-1.01433,0.195966,6,11
-2.89968,-2.38607,0.594764,5,12
-2.63554,-2.16717,0.663252,1,13
-2.36085,-1.93991,0.705446,1,14
-2.13621,-1.7547,0.74074,2,15
-1.25654,-1.02847,0.0850983,4,9
-1.21836,-0.996509,0.137706,2,10
-1.24788,-1.02029,0.197916,6,11
-2.90493,-2.37343,0.594138,7,12
-2.61838,-2.13855,0.657146,1,13
-2.36576,-1.93084,0.704997,1,14
-2.13932,-1.74479,0.739705,2,15
-1.25702,-1.02155,0.0848889,2,9
-1.2031,-0.977387,0.135614,2,10
-1.24219,-1.00842,0.196453,4,11
-2.90553,-2.35705,0.592574,9,12
-2.38308,-1.93116,0.708146,1,14
-2.1394,-1.73245,0.737634,2,15
-1.26835,-1.02343,0.0854123,2,9
-1.22202,-0.985691,0.137357,2,10
-1.25034,-1.00782,0.197185,3,11
-2.92297,-2.35433,0.594451,10,12
-2.65924,-2.14114,0.663634,1,13
-2.36855,-1.90572,0.701847,1,14
-2.15145,-1.72981,0.739705,2,15
-1.31244,-1.05147,0.0881338,1,9
-1.25344,-1.00384,0.140495,1,10
-1.2306,-0.98484,0.193529,3,11
-2.93117,-2.34411,0.594451,10,12
-2.6207,-2.09507,0.652185,2,13
-2.3965,-1.91447,0.708146,1,14
-2.13936,-1.70783,0.733493,2,15
-1.33486,-1.0618,0.0893898,2,9
-1.30372,-1.03666,0.145724,1,10
-1.30242,-1.03488,0.204253,1,11
-2.93934,-2.33387,0.594451,10,12
-2.62953,-2.08713,0.652567,2,13
-2.38943,-1.8952,0.704097,1,14
-2.16045,-1.71235,0.73867,2,15
-1.33856,-1.05713,0.0893898,3,9
-1.29482,-1.02222,0.14433,1,10
-1.29667,-1.02295,0.202791,1,11
-2.93971,-2.31748,0.592887,10,12
-2.61984,-2.06457,0.648369,2,13
-2.39144,-1.88323,0.702747,1,14
-2.1573,-1.69763,0.735564,2,15
-1.3611,-1.06724,0.0906459,2,9
-1.27329,-0.998031,0.141541,1,10
-2.94933,-2.30842,0.5932,11,12
-2.63321,-2.06026,0.649895,2,13
-2.39493,-1.87247,0.701847,1,14
-2.16017,-1.68771,0.734528,2,15
-0.41974,-0.326877,-0.122823,15,1
-2.95303,-2.2997,0.196155,0,9
-2.95229,-2.29499,0.592261,10,12
-2.64969,-2.05828,0.652185,2,13
-2.423,-1.88083,0.708146,1,14
-2.16576,-1.68054,0.734528,2,15
-0.420822,-0.325483,-0.122823,15,1
-2.95946,-2.28816,0.196051,1,9
-3.01138,-2.32662,0.332935,1,10
-2.9728,-2.29433,0.594764,10,12
-2.65029,-2.04468,0.650659,2,13
-2.42459,-1.86921,0.706796,1,14
-2.17161,-1.67297,0.734528,2,15
-0.421956,-0.324012,-0.122823,15,1
-2.95594,-2.26982,0.195318,0,9
-3.01908,-2.31662,0.332935,1,10
-3.04033,-2.33124,0.470416,1,11
-2.98039,-2.28446,0.594764,11,12
-2.64962,-2.02945,0.648751,2,13
-2.42337,-1.85481,0.704547,1,14
-2.18942,-1.67515,0.73867,2,15
-0.423028,-0.322611,-0.122823,15,1
-2.98926,-2.27886,0.196993,0,9
-3.02715,-2.30607,0.332935,1,10
-3.04804,-2.32115,0.470416,1,11
-2.97891,-2.26686,0.592887,11,12
-2.6532,-2.01828,0.647987,2,13
-2.42175,-1.84087,0.702297,1,14
-2.18295,-1.65815,0.734528,2,15
-0.424207,-0.321058,-0.122823,15,1
-2.9753,-2.25102,0.195527,0,9
-3.03518,-2.29549,0.332935,1,10
-3.05653,-2.30996,0.470416,1,11
-2.9809,-2.25117,0.591635,10,12
-2.66215,-2.00972,0.648369,2,13
-2.43626,-1.83785,0.704547,1,14
-2.1705,-1.63618,0.728317,2,15
-2.99591,-2.25021,0.196365,0,9
-3.04357,-2.28435,0.332935,1,10
-2.98558,-2.23838,0.591009,11,12
-2.68364,-2.01054,0.651804,2,13
-2.44454,-1.83008,0.704997,1,14
-2.17929,-1.63091,0.729352,2,15
-0.426494,-0.318015,-0.122823,15,1
-2.99414,-2.23258,0.195736,0,9
-3.05152,-2.27371,0.332935,1,10
-3.07298,-2.28803,0.470416,1,11
-3.00288,-2.23502,0.592887,11,12
-2.67331,-1.98827,0.647606,2,13
-2.44778,-1.81921,0.704097,1,14
-2.19117,-1.6279,0.731423,2,15
-0.405621,-0.300363,-0.116525,16,1
-2.98586,-2.21023,0.19469,0,9
-3.05944,-2.26304,0.332935,1,10
-3.08055,-2.27783,0.470416,1,11
-3.00431,-2.21983,0.591635,11,12
-2.68937,-1.9864,0.649895,2,13
-2.44596,-1.8053,0.701847,1,14
-2.20306,-1.62483,0.733493,2,15
-2.98674,-2.19558,0.194271,0,9
-3.06693,-2.25289,0.332935,1,10
-3.08849,-2.26706,0.470416,1,11
-3.00687,-2.20635,0.590697,11,12
-2.69629,-1.977,0.649895,2,13
-2.45068,-1.79559,0.701397,1,14
-2.21467,-1.62208,0.735564,2,15
-2.98793,-2.18044,0.193852,0,9
-3.07478,-2.24217,0.332935,1,10
-3.09599,-2.2568,0.470416,1,11
-3.00977,-2.19235,0.589758,11,12
-2.70283,-1.96805,0.649895,2,13
-2.47395,-1.80007,0.706346,1,14
-2.22188,-1.61548,0.736081,2,15
-3.02787,-2.19343,0.195946,0,9
-3.08219,-2.23196,0.332935,1,10
-3.10385,-2.24598,0.470416,1,11
-3.0238,-2.18646,0.591009,11,12
-2.69695,-1.9494,0.646843,2,13
-2.46758,-1.78229,0.702747,1,14
-2.20244,-1.58962,0.727799,2,15
-0.409724,-0.294742,-0.116525,16,1
-3.03551,-2.18284,0.195946,0,9
-3.00908,-2.16304,0.324219,1,10
-3.02981,-2.17474,0.590697,11,12
-2.7149,-1.94798,0.649514,2,13
-2.4817,-1.77935,0.704997,1,14
-2.21897,-1.5898,0.731423,2,15
-3.02361,-2.15831,0.19469,0,9
-3.0977,-2.21039,0.332935,1,10
-3.11945,-2.22426,0.470416,1,11
-3.039,-2.16529,0.591009,10,12
-2.71529,-1.93394,0.647987,2,13
-2.46726,-1.75598,0.699148,1,14
-2.2371,-1.591,0.735564,2,15
-0.402232,-0.285113,-0.113825,16,1
-3.01808,-2.13851,0.193852,0,9
-3.1054,-2.19956,0.332935,1,10
-3.1272,-2.21336,0.470416,1,11
-3.03363,-2.14555,0.588507,10,12
-2.73325,-1.93238,0.650659,2,13
-2.48292,-1.75411,0.701847,1,14
-2.21897,-1.56647,0.727799,2,15
-3.02843,-2.13078,0.194062,1,9
-3.05438,-2.14745,0.32666,1,10
-3.1349,-2.20243,0.470416,1,11
-3.04073,-2.13548,0.588507,11,12
-2.73998,-1.92283,0.650659,2,13
-2.49541,-1.74991,0.703647,1,14
-2.23681,-1.56797,0.73194,1,15
-3.03257,-2.11791,0.193852,0,9
-3.05859,-2.1345,0.326311,1,10
-3.14219,-2.19202,0.470416,1,11
-3.05789,-2.13163,0.590384,11,12
-2.72701,-1.90027,0.646079,2,13
-2.49481,-1.73717,0.701847,1,14
-2.24385,-1.56126,0.732458,2,15
-3.04651,-2.11186,0.194271,1,9
-3.046,-2.11073,0.324219,1,10
-3.06822,-2.12454,0.458229,1,11
-3.06369,-2.11982,0.590071,10,12
-2.7417,-1.89632,0.647987,2,13
-2.52009,-1.74174,0.707246,1,14
-2.23498,-1.54354,0.727799,1,15
-3.02754,-2.0831,0.192596,1,9
-3.09275,-2.12718,0.328403,1,10
-3.15742,-2.17003,0.470416,1,11
-3.06456,-2.10464,0.588819,10,12
-2.75316,-1.89007,0.649132,2,13
-2.50848,-1.72081,0.702297,1,14
-2.24832,-1.54119,0.730387,2,15
-3.03443,-2.07305,0.192596,1,9
-3.10016,-2.11637,0.328403,1,10
-3.16497,-2.159,0.470416,1,11
-3.06662,-2.09112,0.587881,11,12
-2.74513,-1.8705,0.645698,2,13
-2.50773,-1.70809,0.700498,1,14
-2.24064,-1.52503,0.726246,2,15
-3.03467,-2.05849,0.192178,0,9
-3.15004,-2.13514,0.332935,1,10
-3.17211,-2.14849,0.470416,1,11
-3.0719,-2.07983,0.587568,10,12
-2.77246,-1.87569,0.650659,2,13
-2.51822,-1.70304,0.701847,1,14
-2.2745,-1.53706,0.735564,2,15
-0.425097,-0.2863,-0.118324,16,1
-3.08161,-2.07466,0.19469,0,9
-3.09759,-2.08464,0.32666,1,10
-3.17922,-2.13796,0.470416,1,11
-3.08078,-2.0702,0.587881,10,12
-2.75911,-1.85335,0.646079,2,13
-2.52901,-1.6975,0.703197,1,14
-2.25418,-1.51189,0.727282,2,15
-3.0772,-2.05612,0.193957,1,9
-3.10485,-2.07381,0.32666,1,10
-3.14373,-2.0982,0.464078,1,11
-3.09128,-2.06163,0.588507,10,12
-2.77373,-1.84915,0.647987,2,13
-2.52843,-1.68434,0.701397,1,14
-2.26909,-1.51044,0.730387,2,15
-3.07271,-2.03764,0.193224,1,9
-3.13864,-2.08057,0.329449,1,10
-3.19407,-2.11571,0.470416,1,11
-3.09516,-2.04864,0.587881,11,12
-2.77198,-1.83404,0.646079,2,13
-2.53429,-1.67551,0.701397,1,14
-2.27758,-1.50464,0.731423,2,15
-3.06145,-2.01483,0.192073,1,9
-3.17918,-2.09151,0.332935,1,10
-3.20143,-2.10455,0.470416,1,11
-3.09569,-2.03349,0.586629,11,12
-2.78821,-1.83082,0.648369,2,13
-2.52546,-1.65703,0.697348,1,14
-2.27151,-1.48926,0.727799,1,15
-3.07014,-2.00522,0.192178,0,9
-3.1264,-2.04118,0.32666,1,10
-3.20876,-2.09336,0.470416,1,11
-3.10111,-2.02159,0.586316,11,12
-2.79788,-1.82322,0.649132,2,13
-2.52307,-1.64289,0.695099,1,14
-2.27507,-1.48027,0.727282,2,15
-3.09556,-2.00644,0.193329,1,9
-3.1937,-2.06926,0.332935,1,10
-3.13273,-2.02821,0.458229,1,11
-3.11479,-2.01505,0.587568,10,12
-2.78939,-1.80384,0.645698,2,13
-2.55661,-1.65205,0.702747,1,14
-2.28347,-1.47442,0.728317,2,15
-3.11094,-2.00102,0.193852,0,9
-3.13722,-2.01715,0.326311,1,10
-3.2233,-2.07091,0.470416,1,11
-3.12346,-2.00523,0.587881,11,12
-2.78575,-1.78773,0.643408,2,13
-2.55088,-1.63575,0.699598,1,14
-2.27559,-1.4581,0.724176,2,15
-3.10275,-1.98048,0.19291,1,9
-3.1644,-2.01905,0.328403,1,10
-3.23051,-2.05965,0.470416,1,11
-3.13211,-1.99537,0.588194,11,12
-2.81019,-1.7896,0.647606,2,13
-2.55329,-1.62474,0.698698,1,14
-2.2823,-1.45118,0.724693,1,15
-0.426294,-0.270221,-0.116525,16,1
-3.084,-1.95415,0.19134,0,9
-3.11385,-1.9723,0.322476,1,10
-3.23732,-2.04892,0.470416,1,11
-3.12034,-1.97336,0.584752,10,12
-2.82109,-1.78342,0.648751,2,13
-2.54713,-1.60898,0.695549,1,14
-2.30507,-1.45495,0.730387,2,15
-3.10433,-1.95187,0.192178,1,9
-3.17167,-1.99267,0.327706,1,10
-3.13391,-1.96666,0.586004,10,12
-0.469207,-0.294333,-0.0484586,11,5
-2.81929,-1.76785,0.646843,2,13
-2.56952,-1.60998,0.700048,1,14
-2.31177,-1.44792,0.730905,1,15
-3.11112,-1.94103,0.192178,0,9
-3.18537,-1.9858,0.328403,1,10
-3.2519,-2.0257,0.470416,1,11
-3.14746,-1.95988,0.587255,11,12
-2.81878,-1.75385,0.645316,2,13
-0.478268,-0.297464,-0.0295175,16,6
-2.57181,-1.59895,0.699148,1,14
-2.3004,-1.42965,0.725729,1,15
-0.41916,-0.259586,-0.113825,16,1
-3.11788,-1.93015,0.192178,0,9
-3.20245,-1.98096,0.329449,1,10
-3.2586,-2.01491,0.470416,1,11
-3.15428,-1.94889,0.587255,10,12
-0.471251,-0.29105,-0.0484586,11,5
-2.83293,-1.74965,0.647224,2,13
-2.56881,-1.58529,0.696898,1,14
-2.30044,-1.41857,0.724176,2,15
-3.13107,-1.92399,0.192596,1,9
-3.24295,-1.99118,0.332935,1,10
-3.26561,-2.00352,0.470416,1,11
-3.15904,-1.93738,0.586942,11,12
-0.438241,-0.26866,-0.0449724,12,5
-2.83065,-1.73462,0.645316,2,13
-2.56934,-1.57326,0.695549,1,14
-2.32656,-1.42404,0.730905,2,15
-3.13776,-1.91305,0.192596,1,9
-3.16481,-1.92802,0.324219,1,10
-3.2112,-1.95551,0.461641,1,11
-3.16072,-1.92326,0.586004,11,12
-0.428963,-0.260916,-0.0439265,12,5
-2.85651,-1.73747,0.649895,2,13
-0.481254,-0.292607,-0.0295175,16,6
-2.56622,-1.55967,0.693299,1,14
-2.31665,-1.40689,0.726246,2,15
-0.420143,-0.254247,-0.113375,16,1
-3.14101,-1.90001,0.192387,1,9
-3.25643,-1.96906,0.332935,1,10
-3.16065,-1.90813,0.584752,11,12
-2.83567,-1.71126,0.64379,2,13
-2.59001,-1.56177,0.698248,1,14
-2.30666,-1.38982,0.721588,2,15
-3.25537,-1.95525,0.0662842,1,8
-3.14762,-1.88904,0.192387,1,9
-3.16077,-1.89618,0.322476,1,10
-3.28607,-1.96979,0.470416,1,11
-3.17916,-1.90419,0.586942,11,12
-2.83994,-1.70034,0.643408,2,13
-2.5921,-1.55072,0.697348,1,14
-2.31978,-1.38671,0.724176,2,15
-3.17628,-1.89269,0.064539,1,8
-0.431953,-0.257292,-0.116075,16,1
-3.17102,-1.88881,0.193434,0,9
-3.1845,-1.89533,0.324219,1,10
-3.18885,-1.89566,0.587568,11,12
-0.431627,-0.256485,-0.0439265,12,5
-2.83404,-1.6834,0.640737,2,13
-2.5922,-1.53913,0.695999,1,14
-2.32769,-1.38098,0.725211,2,15
-3.18254,-1.88215,0.064539,1,8
-0.45629,-0.269741,-0.122373,15,1
-3.16008,-1.86812,0.192387,0,9
-3.27654,-1.93542,0.332935,1,10
-3.2994,-1.94738,0.470416,1,11
-3.19512,-1.88508,0.587568,11,12
-0.432475,-0.255052,-0.0439265,12,5
-2.85821,-1.68496,0.644934,2,13
-0.485243,-0.285944,-0.0295175,16,6
-2.59561,-1.52954,0.695549,1,14
-2.34558,-1.3811,0.729352,2,15
-3.16462,-1.85741,0.0640503,1,8
-0.423565,-0.248504,-0.113375,16,1
-3.16141,-1.85405,0.192073,1,9
-3.22106,-1.88827,0.32666,1,10
-3.30584,-1.93642,0.470416,1,11
-3.19316,-1.86892,0.586004,11,12
-2.86548,-1.67646,0.645316,2,13
-0.486188,-0.284333,-0.0295175,16,6
-2.61271,-1.52736,0.698698,1,14
-2.34371,-1.36901,0.727282,2,15
-0.434536,-0.252906,-0.116075,16,1
-3.1834,-1.85204,0.193015,1,9
-3.24485,-1.88703,0.328403,1,10
-3.31258,-1.92487,0.470416,1,11
-3.19624,-1.85578,0.585378,11,12
-2.86112,-1.66054,0.643026,2,13
-2.63151,-1.52605,0.702297,1,14
-2.33678,-1.35404,0.723658,2,15
-3.20175,-1.84928,0.064539,1,8
-0.459043,-0.265029,-0.122373,15,1
-3.19158,-1.84191,0.19312,1,9
-3.25142,-1.8757,0.328403,1,10
-3.31928,-1.9133,0.470416,1,11
-3.20099,-1.84363,0.585065,11,12
-2.8635,-1.64858,0.642263,2,13
-2.62669,-1.51102,0.699598,1,14
-2.35656,-1.35454,0.728317,2,15
-3.17349,-1.81821,0.0638409,1,8
-3.17719,-1.81886,0.191864,1,9
-3.26173,-1.86575,0.328751,1,10
-3.32594,-1.9017,0.470416,1,11
-3.2177,-1.83832,0.586942,11,12
-0.480978,-0.274679,-0.0484586,11,5
-2.85759,-1.63126,0.639592,2,13
-0.489188,-0.279141,-0.0295175,16,6
-2.62036,-1.49463,0.696449,1,14
-2.33946,-1.33386,0.721588,2,15
-3.2149,-1.82632,0.064539,1,8
-3.18178,-1.80677,0.191759,1,9
-3.26476,-1.85238,0.328403,1,10
-3.28798,-1.86404,0.464078,1,11
-3.22238,-1.8261,0.586629,11,12
-0.481933,-0.272998,-0.0484586,11,5
-2.8906,-1.63675,0.645698,2,13
-2.63573,-1.49123,0.699148,1,14
-2.3626,-1.33615,0.727282,2,15
-3.1861,-1.79601,0.0638409,1,8
-0.444816,-0.250641,-0.117874,16,1
-3.19851,-1.80153,0.192387,1,9
-3.25037,-1.82925,0.326311,1,10
-3.33913,-1.87843,0.470416,1,11
-3.22529,-1.81291,0.586004,11,12
-0.482883,-0.271314,-0.0484586,11,5
-2.89601,-1.62716,0.645698,2,13
-2.63727,-1.48057,0.698248,1,14
-2.36051,-1.32411,0.725211,2,15
-3.22726,-1.80439,0.064539,1,8
-3.20795,-1.79286,0.192596,1,9
-3.27033,-1.82623,0.327706,1,10
-3.34567,-1.86677,0.470416,1,11
-3.23128,-1.8022,0.586004,10,12
-2.91368,-1.62373,0.648369,2,13
-0.492036,-0.274089,-0.0295175,16,6
-2.6322,-1.46567,0.695549,1,14
-2.35476,-1.31064,0.722105,2,15
-3.21224,-1.78204,0.0641201,1,8
-3.21943,-1.78456,0.19291,1,9
-3.25926,-1.80515,0.325962,1,10
-3.28932,-1.82105,0.461641,1,11
-3.23755,-1.79091,0.586004,11,12
-2.88125,-1.59316,0.639973,2,13
-0.492943,-0.272456,-0.0295175,16,6
-2.64558,-1.46164,0.697798,1,14
-2.36439,-1.30522,0.723658,2,15
-3.19391,-1.75732,0.0636315,1,8
-3.22564,-1.77331,0.19291,1,9
-3.26872,-1.79625,0.326311,1,10
-3.27129,-1.79618,0.458229,1,11
-3.25071,-1.7834,0.587255,11,12
-2.88163,-1.58026,0.638829,2,13
-0.493891,-0.270734,-0.0295175,16,6
-2.63357,-1.44303,0.693299,1,14
-2.37741,-1.30159,0.726246,2,15
-3.21407,-1.75382,0.0639107,1,8
-3.23532,-1.76395,0.19312,1,9
-3.23648,-1.76385,0.322476,1,10
-3.27754,-1.78475,0.458229,1,11
-3.25692,-1.77204,0.587255,11,12
-0.486532,-0.264716,-0.0484586,11,5
-2.91127,-1.58332,0.644171,2,13
-2.64544,-1.43756,0.695099,1,14
-2.37175,-1.28775,0.72314,1,15
-3.21314,-1.73879,0.0637711,1,8
-3.22885,-1.74656,0.192387,1,9
-3.28118,-1.77339,0.326311,1,10
-3.30821,-1.7865,0.461641,1,11
-3.24365,-1.75091,0.583813,11,12
-0.487453,-0.263016,-0.0484586,11,5
-2.92197,-1.57595,0.645316,2,13
-0.495769,-0.267279,-0.0295175,16,6
-2.64701,-1.42646,0.694199,1,14
-2.3624,-1.27255,0.718999,2,15
-3.21889,-1.72812,0.0637711,1,8
-3.23845,-1.73717,0.192596,1,9
-3.26628,-1.75063,0.324219,1,10
-3.37711,-1.80927,0.470416,1,11
-3.2602,-1.74517,0.585691,10,12
-2.91679,-1.56069,0.643026,2,13
-2.65001,-1.41676,0.693749,1,14
-3.32273,-1.77566,-0.0657607,2,7
-2.38557,-1.27431,0.724693,2,15
-3.2249,-1.71688,0.0637711,1,8
-0.43352,-0.230701,-0.113375,16,1
-3.25124,-1.73017,0.193015,1,9
-3.2404,-1.72295,0.321082,1,10
-3.26945,-1.7362,0.586316,10,12
-0.489232,-0.259691,-0.0484586,11,5
-2.92222,-1.5505,0.643026,2,13
-2.67388,-1.41754,0.698698,1,14
-3.3286,-1.76463,-0.0657607,2,7
-2.38296,-1.26277,0.722623,2,15
-3.23411,-1.70804,0.0638409,1,8
-3.2608,-1.72068,0.193224,1,9
-3.27812,-1.72836,0.324219,1,10
-3.32612,-1.75292,0.461641,1,11
-3.27899,-1.72662,0.586942,10,12
-2.92908,-1.54172,0.643408,2,13
-2.67339,-1.40594,0.697348,1,14
-3.33474,-1.75301,-0.0657607,2,7
-2.39761,-1.25984,0.725729,2,15
-3.22972,-1.69061,0.0636315,1,8
-3.24201,-1.69632,0.191759,1,9
-3.32651,-1.73906,0.328403,1,10
-3.39587,-1.77381,0.470416,1,11
-3.28675,-1.71608,0.587255,10,12
-2.94167,-1.5346,0.644934,2,13
-2.67334,-1.39343,0.695999,1,14
-3.34084,-1.74135,-0.0657607,2,7
-2.39,-1.24522,0.722105,2,15
-3.28145,-1.70385,0.064539,1,8
-3.24968,-1.68591,0.191864,1,9
-3.29011,-1.70543,0.324219,1,10
-3.40173,-1.76254,0.470416,1,11
-3.28395,-1.70006,0.585691,10,12
-2.94849,-1.52574,0.645316,2,13
-0.500268,-0.258761,-0.0295175,16,6
-2.66929,-1.38009,0.693749,1,14
-3.34689,-1.72968,-0.0657607,2,7
-2.40806,-1.24396,0.726246,1,15
-3.27316,-1.68506,0.0642598,1,8
-3.25348,-1.67422,0.191759,1,9
-3.29574,-1.69451,0.324219,1,10
-3.28254,-1.68555,0.584439,9,12
-2.94507,-1.51096,0.643408,2,13
-2.68079,-1.37478,0.695549,1,14
-3.35261,-1.71857,-0.0657607,2,7
-2.38982,-1.22451,0.719517,2,15
-3.24311,-1.65601,0.0635617,1,8
-3.28036,-1.67431,0.193015,1,9
-3.31909,-1.69262,0.325962,1,10
-3.29691,-1.67914,0.586004,9,12
-2.93956,-1.49584,0.641118,2,13
-0.502017,-0.255349,-0.0295175,16,6
-2.66276,-1.3544,0.6897,1,14
-3.35829,-1.70745,-0.0657607,2,7
-2.39215,-1.21571,0.718999,2,15
-3.27356,-1.6579,0.0640503,1,8
-3.2844,-1.66195,0.19291,1,9
-3.29269,-1.66542,0.322825,1,10
-3.4194,-1.72801,0.470416,1,11
-3.30275,-1.66762,0.586004,9,12
-0.494433,-0.249648,-0.0484586,11,5
-2.94451,-1.48609,0.641118,2,13
-0.502861,-0.253683,-0.0295175,16,6
-2.69009,-1.35651,0.695549,1,14
-3.36423,-1.69571,-0.0657607,2,7
-2.39638,-1.20735,0.718999,1,15
-3.26503,-1.63928,0.0637711,1,8
-3.29733,-1.65406,0.193329,1,9
-3.31273,-1.66106,0.324219,1,10
-3.42541,-1.71607,0.470416,1,11
-3.31032,-1.65696,0.586316,9,12
-0.448978,-0.224733,-0.0439265,12,5
-2.94792,-1.47492,0.640737,2,13
-2.67389,-1.33665,0.69015,1,14
-3.37013,-1.68396,-0.0657607,2,7
-2.4144,-1.20588,0.72314,1,15
-3.31011,-1.64748,0.064539,1,8
-0.439678,-0.218736,-0.113375,16,1
-3.27804,-1.63009,0.191864,1,9
-3.30423,-1.64239,0.322825,1,10
-3.43138,-1.7041,0.470416,1,11
-3.31077,-1.64276,0.585378,9,12
-2.96536,-1.47073,0.643408,2,13
-0.50462,-0.250167,-0.0295175,16,6
-2.69076,-1.33337,0.693299,1,14
-2.4186,-1.19745,0.72314,1,15
-3.27998,-1.61822,0.0638409,1,8
-3.29983,-1.62658,0.192806,1,9
-3.3424,-1.64612,0.325962,1,10
-3.31649,-1.6312,0.585378,9,12
-2.96897,-1.45898,0.643026,2,13
-2.69388,-1.32264,0.692849,1,14
-3.3818,-1.66039,-0.0657607,2,7
-2.41583,-1.18559,0.72107,2,15
-3.30745,-1.61672,0.0642598,1,8
-3.31985,-1.62207,0.193643,1,9
-3.36603,-1.64318,0.327706,1,10
-3.44349,-1.6795,0.470416,1,11
-3.33282,-1.6248,0.587255,10,12
-2.95992,-1.44173,0.639973,2,13
-0.506397,-0.246549,-0.0295175,16,6
-2.7,-1.31455,0.693299,1,14
-3.38758,-1.64858,-0.0657607,2,7
-2.40605,-1.17039,0.716929,2,15
-3.31279,-1.60575,0.0642598,1,8
-0.455974,-0.220918,-0.116975,16,1
-3.30544,-1.60147,0.192492,1,9
-3.3356,-1.61465,0.324219,1,10
-3.44904,-1.66807,0.470416,1,11
-3.33819,-1.61374,0.587255,9,12
-0.452072,-0.218443,-0.0439265,12,5
-2.95939,-1.42935,0.638829,2,13
-0.507212,-0.244868,-0.0295175,16,6
-2.73243,-1.31914,0.700498,1,14
-3.39303,-1.63733,-0.0657607,2,7
-2.40992,-1.16241,0.716929,1,15
-3.33251,-1.60168,0.064539,1,8
-3.31821,-1.59338,0.19291,1,9
-3.35889,-1.6122,0.325962,1,10
-3.45455,-1.65663,0.470416,1,11
-3.33845,-1.59952,0.586316,8,12
-2.96942,-1.42207,0.639973,2,13
-0.508021,-0.243185,-0.0295175,16,6
-3.39872,-1.62548,-0.0657607,2,7
-2.43488,-1.16399,0.72314,1,15
-3.30559,-1.57456,0.0639107,1,8
-3.32916,-1.58436,0.193224,1,9
-3.34651,-1.5919,0.324219,1,10
-3.46031,-1.64456,0.470416,1,11
-3.33866,-1.58531,0.585378,8,12
-0.464347,-0.220488,-0.0449724,12,5
-2.98856,-1.41843,0.643026,2,13
-3.40438,-1.6136,-0.0657607,2,7
-2.48257,-1.17616,0.736081,1,15
-3.30383,-1.5596,0.0637711,1,8
-3.33801,-1.57502,0.193434,1,9
-3.36646,-1.58701,0.325614,1,10
-3.46603,-1.63247,0.470416,1,11
-3.34748,-1.57592,0.586004,8,12
-2.99527,-1.40883,0.643408,1,13
-3.40971,-1.60231,-0.0657607,2,7
-3.32347,-1.55541,0.0640503,1,8
-0.455409,-0.213039,-0.116075,16,1
-3.35434,-1.56843,0.194062,1,9
-3.37198,-1.57525,0.325614,1,10
-3.34401,-1.56005,0.584439,9,12
-2.99636,-1.39723,0.642645,1,13
-0.510499,-0.237941,-0.0295175,16,6
-3.41528,-1.5904,-0.0657607,2,7
-2.45549,-1.14293,0.725729,1,15
-3.33977,-1.54885,0.0642598,1,8
-0.457918,-0.212267,-0.116525,16,1
-3.36523,-1.55923,0.194376,1,9
-3.3338,-1.54396,0.32143,1,10
-3.36378,-1.555,0.586942,8,12
-0.455742,-0.210679,-0.0439265,12,5
-3.42081,-1.57846,-0.0657607,2,7
-2.46648,-1.13759,0.727799,1,15
-3.34515,-1.53719,0.0642598,1,8
-0.483448,-0.222055,-0.122823,15,1
-3.34706,-1.53665,0.193015,1,9
-3.38625,-1.55392,0.325962,1,10
-3.48266,-1.59669,0.470416,1,11
-3.36739,-1.54242,0.586629,8,12
-3.4263,-1.56651,-0.0657607,2,7
-2.47747,-1.13218,0.72987,1,15
-3.36506,-1.53213,0.064539,1,8
-0.48422,-0.220366,-0.122823,15,1
-3.37395,-1.53546,0.194271,1,9
-3.40979,-1.55034,0.327706,1,10
-3.37248,-1.53125,0.586629,8,12
-2.76362,-1.25247,0.700498,1,14
-2.45657,-1.1128,0.722623,1,15
-3.3519,-1.51273,0.06419,1,8
-0.460079,-0.20754,-0.116525,16,1
-3.38111,-1.5245,0.194376,1,9
-3.39338,-1.52861,0.325614,1,10
-3.49344,-1.57295,0.470416,1,11
-3.38141,-1.52109,0.587255,8,12
-2.73221,-1.22733,0.6915,1,14
-2.95528,-1.32692,-0.0565458,1,7
-2.46397,-1.1058,0.723658,1,15
-3.3389,-1.49286,0.0638409,1,8
-0.460801,-0.205933,-0.116525,16,1
-3.37729,-1.50862,0.193852,1,9
-3.40207,-1.51897,0.325962,1,10
-3.49891,-1.56074,0.470416,1,11
-3.38129,-1.50686,0.586316,8,12
-0.514534,-0.229085,-0.0295175,16,6
-2.74182,-1.22016,0.692849,1,14
-2.89412,-1.28734,-0.0552892,1,7
-2.45722,-1.09248,0.720552,2,15
-0.461517,-0.204324,-0.116525,16,1
-3.40263,-1.50571,0.195004,1,9
-3.43286,-1.51837,0.328403,1,10
-3.39556,-1.49904,0.587881,8,12
-0.506704,-0.223694,-0.0484586,11,5
-2.73536,-1.20587,0.69015,1,14
-2.86566,-1.26271,-0.0546609,4,7
-2.46456,-1.08546,0.721588,2,15
-0.487213,-0.213669,-0.122823,15,1
-3.38383,-1.48399,0.193643,1,9
-3.46004,-1.51597,0.330495,1,10
-3.50972,-1.53628,0.470416,1,11
-3.40052,-1.48777,0.587881,9,12
-0.470972,-0.205958,-0.0449724,12,5
-2.72863,-1.19211,0.68745,1,14
-2.86616,-1.2516,-0.0545911,3,7
-2.4646,-1.07573,0.720552,2,15
-2.93231,-1.27501,0.0558128,1,8
-0.466472,-0.202731,-0.117424,16,1
-3.40522,-1.47992,0.194585,1,9
-3.41753,-1.48386,0.325962,1,10
-3.5148,-1.52463,0.470416,1,11
-3.39999,-1.47413,0.586942,8,12
-2.7433,-1.1877,0.69015,1,14
-2.907,-1.25797,-0.0552892,1,7
-2.47525,-1.07062,0.722623,1,15
-2.93652,-1.26527,0.0558128,1,8
-3.41561,-1.47099,0.194899,1,9
-3.45904,-1.48827,0.329449,1,10
-3.40486,-1.46284,0.586942,8,12
-0.461343,-0.198113,-0.0439265,12,5
-0.517604,-0.222059,-0.0295175,16,6
-2.7311,-1.17168,0.686101,2,14
-2.845,-1.21996,-0.0540326,1,7
-2.45748,-1.05328,0.716411,2,15
-2.86714,-1.22412,0.0544166,1,8
-0.464221,-0.198103,-0.116525,16,1
-3.41679,-1.45809,0.19469,1,9
-3.46395,-1.47679,0.329449,1,10
-3.41333,-1.45309,0.587568,8,12
-0.509664,-0.216865,-0.0484586,11,5
-0.518338,-0.220342,-0.0295175,16,6
-2.75291,-1.17024,0.6906,2,14
-2.85639,-1.21364,-0.0541723,3,7
-2.47518,-1.05116,0.720552,1,15
-2.89739,-1.2245,0.0549053,1,8
-0.454173,-0.19185,-0.113825,16,1
-3.43315,-1.45022,0.195318,0,9
-3.45099,-1.45633,0.327706,1,10
-3.41317,-1.43827,0.586629,7,12
-0.510456,-0.214995,-0.0484586,11,5
-2.75918,-1.16042,0.69105,3,14
-2.8645,-1.20471,-0.0542421,3,7
-2.47189,-1.03909,0.718482,1,15
-2.89775,-1.21334,0.0548355,1,8
-3.42714,-1.4336,0.19469,0,9
-3.46708,-1.44889,0.328751,1,10
-3.42546,-1.42939,0.587881,7,12
-0.511203,-0.213212,-0.0484586,11,5
-2.74682,-1.14452,0.687001,4,14
-2.86869,-1.19471,-0.0542421,3,7
-2.48264,-1.03342,0.720552,2,15
-2.99063,-1.23998,0.0565109,1,8
-0.455469,-0.188754,-0.113825,16,1
-3.43212,-1.42163,0.19469,1,9
-3.47923,-1.44043,0.329449,1,10
-3.41765,-1.41214,0.585691,6,12
-0.511907,-0.211516,-0.0484586,11,5
-0.520617,-0.214902,-0.0295175,16,6
-2.7526,-1.13566,0.68745,3,14
-2.85806,-1.17859,-0.0539628,3,7
-2.48266,-1.02328,0.719517,2,15
-0.456125,-0.187163,-0.113825,16,1
-3.42598,-1.4051,0.194062,1,9
-3.5211,-1.44339,0.332935,1,10
-3.41708,-1.39796,0.584752,5,12
-2.77459,-1.13342,0.691949,1,14
-2.89548,-1.18221,-0.0545911,1,7
-2.49337,-1.01753,0.721588,1,15
-0.467608,-0.189971,-0.116525,16,1
-3.47318,-1.41102,0.196469,1,9
-3.52612,-1.43109,0.332935,1,10
-3.42902,-1.38959,0.586004,5,12
-0.513371,-0.207937,-0.0484586,11,5
-2.94758,-1.1921,-0.0554987,1,7
-0.468235,-0.188419,-0.116525,16,1
-3.45214,-1.38845,0.195004,1,9
-3.5311,-1.41878,0.332935,1,10
-3.55525,-1.42776,0.470416,1,11
-3.44118,-1.38056,0.587255,5,12
-0.514094,-0.206144,-0.0484586,11,5
-2.92573,-1.17139,-0.05501,1,7
-0.472511,-0.188226,-0.117424,16,1
-3.46995,-1.38156,0.195736,1,9
-3.50986,-1.39674,0.330495,1,10
-3.44965,-1.36999,0.587881,5,12
-0.514775,-0.204438,-0.0484586,11,5
-0.52353,-0.207703,-0.0295175,16,6
-2.96327,-1.17444,-0.0556383,1,7
-0.469539,-0.185146,-0.116525,16,1
-3.46546,-1.36578,0.195213,1,9
-3.5036,-1.3801,0.329449,1,10
-3.56513,-1.40291,0.470416,1,11
-3.43419,-1.34999,0.584439,4,12
-0.515485,-0.20264,-0.0484586,11,5
-0.524252,-0.205875,-0.0295175,16,6
-2.94873,-1.15678,-0.0552892,1,7
-3.44417,-1.3449,0.064539,1,8
-3.47928,-1.35791,0.195736,1,9
-3.54552,-1.38234,0.332935,1,10
-3.57001,-1.39045,0.470416,1,11
-3.4276,-1.3343,0.582562,4,12
-3.11976,-1.21321,0.650659,1,13
-2.95255,-1.147,-0.0552892,1,7
-3.48772,-1.3472,0.195946,1,9
-3.54846,-1.36924,0.332761,1,10
-3.44698,-1.32801,0.585065,4,12
