x, y, z, intensity, ring
4.39475,18.4902,2.33355,5,11
2.24906,9.45521,-1.19334,17,4
5.15093,21.6381,3.5229,22,12
2.69513,11.313,-1.01746,22,5
5.30961,22.2874,4.45348,20,13
3.57035,14.9751,-0.806811,26,6
8.46845,35.4919,8.42397,12,14
3.50794,14.6907,-0.263636,100,7
8.50658,35.5966,9.80665,17,15
3.50249,14.5666,0.261507,21,8
0.151364,0.629026,-0.149367,24,1
4.46007,18.5348,0.999093,33,9
1.65748,6.88273,-1.37611,23,2
4.05606,16.83,1.51459,16,10
1.90403,7.89441,-1.2862,21,3
4.45741,18.467,2.33258,10,11
2.27645,9.42414,-1.19042,17,4
5.28666,21.8859,3.56608,19,12
2.72467,11.2711,-1.01449,20,5
4.86619,20.1144,4.02264,10,13
3.49569,14.4385,-0.77855,6,6
5.38464,22.2235,5.27915,50,14
3.57877,14.7703,-0.265277,49,7
8.63231,35.6001,9.81545,17,15
0.118129,0.484217,-0.133551,15,0
3.41476,13.9973,0.251489,72,8
0.153911,0.630414,-0.149817,24,1
4.07914,16.6953,0.900702,38,9
1.6773,6.85974,-1.37268,26,2
4.36104,17.8221,1.60523,16,10
1.92456,7.86502,-1.28245,18,3
4.51012,18.4174,2.32819,5,11
2.29494,9.36449,-1.18384,16,4
4.85345,19.7895,3.22724,17,12
2.74785,11.1957,-1.00857,22,5
4.9324,20.0963,4.02225,16,13
3.27581,13.3367,-0.719724,3,6
5.72066,23.2728,5.5329,25,14
3.63748,14.7869,-0.2658,100,7
5.44962,22.1369,6.10865,6,15
0.123534,0.498803,-0.137692,14,0
3.48816,14.074,0.253095,56,8
0.155283,0.626063,-0.148918,24,1
4.1456,16.7016,0.901853,20,9
1.69745,6.8386,-1.36963,26,2
4.46068,17.9576,1.61883,40,10
1.95051,7.84642,-1.28057,26,3
5.06353,20.3541,2.57534,12,11
2.32445,9.33675,-1.1814,19,4
4.90684,19.6949,3.21473,17,12
2.77198,11.1261,-1.00316,21,5
5.57929,22.3773,4.48287,28,13
3.3034,13.2394,-0.715119,26,6
5.5609,22.2704,5.2994,45,14
3.99609,15.9918,-0.28772,100,7
8.58549,34.3324,9.48261,16,15
3.49386,13.8891,0.249988,39,8
0.158419,0.629297,-0.149817,24,1
4.17801,16.5844,0.896306,22,9
1.71508,6.80789,-1.36467,23,2
4.52286,17.94,1.61866,57,10
1.97354,7.82232,-1.27776,22,3
5.13649,20.344,2.57632,24,11
2.34827,9.29393,-1.17701,26,4
4.16011,16.4527,2.68786,13,12
2.79224,11.0429,-0.996539,21,5
5.62798,22.2416,4.45959,21,13
3.30204,13.04,-0.704965,52,6
5.6319,22.2244,5.2931,28,14
3.67093,14.4755,-0.260669,92,7
8.69577,34.2648,9.47226,33,15
0.123193,0.482953,-0.133551,15,0
3.55024,13.9078,0.250547,19,8
0.161579,0.632516,-0.150717,23,1
4.24824,16.618,0.898922,10,9
1.73688,6.79425,-1.36314,26,2
4.62249,18.0688,1.63173,33,10
1.99103,7.77711,-1.2715,22,3
4.77147,18.6241,2.36061,25,11
2.36887,9.23953,-1.17116,28,4
5.05649,19.708,3.22255,19,12
2.82334,11.0042,-0.993924,21,5
5.18073,20.1776,4.04935,24,13
3.35798,13.069,-0.707164,48,6
5.65945,22.0103,5.24676,22,14
3.71247,14.4278,-0.260041,92,7
8.7739,34.0733,9.42774,33,15
0.121006,0.467558,-0.12941,15,0
4.26406,16.4642,0.296865,26,8
0.158408,0.611198,-0.145768,25,1
4.84375,18.6756,1.01113,1,9
1.75615,6.77104,-1.3597,26,2
4.66651,17.9793,1.62511,67,10
2.01718,7.76629,-1.27087,22,3
4.81298,18.517,2.34915,10,11
2.38462,9.16781,-1.16312,23,4
5.20687,20.0038,3.27386,19,12
2.8502,10.9499,-0.989915,21,5
5.3026,20.357,4.08904,48,13
3.40055,13.0456,-0.706536,39,6
5.77856,22.1525,5.28545,5,14
3.78402,14.496,-0.261507,92,7
8.94063,34.2256,9.47847,16,15
0.132448,0.504504,-0.139762,14,0
4.60809,17.54,0.316552,20,8
0.164504,0.625719,-0.149367,24,1
4.87417,18.5397,1.00464,5,9
1.77628,6.75158,-1.35703,26,2
4.6841,17.7914,1.60959,27,10
2.04025,7.74392,-1.26837,22,3
4.84114,18.3619,2.3316,25,11
2.41002,9.13447,-1.15995,20,4
5.39261,20.4391,3.34801,18,12
2.87162,10.8763,-0.984163,23,5
5.37914,20.3592,4.09324,17,13
3.45475,13.0665,-0.708315,81,6
8.85606,33.4715,7.99341,47,14
3.81213,14.4079,-0.260146,100,7
9.07236,34.2649,9.49762,8,15
0.128244,0.481637,-0.133551,15,0
4.64256,17.4358,0.314946,24,8
0.165575,0.621404,-0.148468,24,1
4.84829,18.1829,0.986219,24,9
1.79731,6.73585,-1.35513,26,2
4.88751,18.3043,1.65753,24,10
2.06489,7.73329,-1.26775,22,3
5.41804,20.277,2.57705,12,11
2.43004,9.08808,-1.15508,23,4
5.61556,20.9869,3.44093,22,12
2.90184,10.8374,-0.981548,21,5
5.45069,20.3565,4.09629,25,13
3.59524,13.4176,-0.727993,45,6
9.00887,33.5982,8.03075,11,14
4.01216,14.9527,-0.270233,48,7
9.59972,35.7518,9.91898,18,15
3.74686,13.8769,0.250896,39,8
0.171809,0.635872,-0.152067,23,1
4.91741,18.1995,0.987998,37,9
1.81554,6.71469,-1.35207,26,2
5.00335,18.4919,1.67601,49,10
2.08517,7.70125,-1.26368,25,3
5.0143,18.5067,2.35427,40,11
2.45759,9.06421,-1.15313,22,4
5.52178,20.3657,3.34207,15,12
2.92315,10.7738,-0.976667,23,5
5.54744,20.432,4.11537,17,13
3.66038,13.4724,-0.731657,58,6
9.86079,36.2688,8.67726,12,14
4.08113,15.0107,-0.271525,65,7
9.61122,35.3264,9.80976,17,15
3.93216,14.3736,0.260111,18,8
0.166714,0.608985,-0.145768,25,1
4.992,18.2227,0.990196,36,9
1.83792,6.70453,-1.35131,26,2
4.84228,17.652,1.6014,16,10
2.1039,7.66953,-1.25961,27,3
5.09246,18.5513,2.36207,15,11
2.47817,9.02156,-1.14874,20,4
5.39284,19.6187,3.22255,6,12
2.95387,10.7386,-0.974401,23,5
5.54643,20.1637,4.06499,22,13
3.71351,13.491,-0.733332,35,6
10.0012,36.3091,8.69481,12,14
4.11757,14.9386,-0.270477,32,7
9.70363,35.1809,9.7787,17,15
0.143431,0.517547,-0.143903,14,0
3.80489,13.72,0.248522,24,8
0.173528,0.625299,-0.149817,24,1
4.9535,17.8376,0.970204,12,9
1.85962,6.69651,-1.35093,26,2
4.88638,17.584,1.59669,10,10
2.12696,7.64882,-1.25742,25,3
5.16889,18.5755,2.36743,10,11
2.4974,8.96887,-1.14313,16,4
5.48621,19.6892,3.23726,22,12
2.98626,10.7172,-0.973355,23,5
5.65263,20.2728,4.09094,14,13
3.71925,13.3299,-0.725272,39,6
5.5749,19.967,4.78606,8,14
4.6163,16.5226,-0.299448,100,7
9.81286,35.0984,9.76524,17,15
0.130609,0.464967,-0.12941,15,0
4.43176,15.7665,0.28587,11,8
0.174654,0.620938,-0.148918,24,1
4.1061,14.5884,0.794251,11,9
1.87554,6.66352,-1.34559,26,2
4.97474,17.6627,1.60541,13,10
2.14882,7.62424,-1.2546,26,3
5.89377,20.8977,2.66601,6,11
2.52061,8.93144,-1.13948,22,4
5.57368,19.7364,3.24821,33,12
3.02419,10.7087,-0.97353,23,5
5.61285,19.8618,4.01195,18,13
3.71631,13.1419,-0.715747,39,6
10.2099,36.0809,8.65702,25,14
4.6636,16.4699,-0.298785,100,7
9.85422,34.7777,9.68553,17,15
0.13752,0.483089,-0.134586,15,0
3.8973,13.6816,0.248313,26,8
0.172547,0.605331,-0.145318,25,1
5.03024,17.6355,0.961098,38,9
1.8934,6.63805,-1.34177,23,2
5.0566,17.7161,1.61186,30,10
2.16999,7.59769,-1.25148,25,3
5.41463,18.9455,2.41935,10,11
2.5414,8.88632,-1.13485,19,4
5.66102,19.7814,3.25884,31,12
3.05629,10.6726,-0.971264,23,5
5.66485,19.7817,3.99974,28,13
3.69834,12.9061,-0.703605,35,6
10.0661,35.1047,8.43117,12,14
4.74643,16.5419,-0.300391,100,7
9.95956,34.6874,9.67,17,15
3.93394,13.6295,0.247615,16,8
0.1752,0.606598,-0.145768,25,1
5.11506,17.6984,0.965494,31,9
1.91609,6.62541,-1.34062,26,2
5.14309,17.7721,1.61866,30,10
2.19453,7.5783,-1.2496,22,3
6.15105,21.2412,2.71525,13,11
2.56799,8.86215,-1.1329,20,4
5.74599,19.8166,3.26792,12,12
3.09075,10.6523,-0.970392,25,5
8.97192,30.9016,6.25472,15,13
3.69546,12.7199,-0.694184,39,6
9.62457,33.1065,7.95967,11,14
4.83205,16.6212,-0.302136,85,7
9.20317,31.6363,8.82832,14,15
0.135552,0.46355,-0.12941,15,0
3.99005,13.6361,0.247999,17,8
0.182898,0.624654,-0.150267,24,1
5.16305,17.622,0.962354,31,9
1.93644,6.60926,-1.33872,26,2
5.17315,17.6451,1.60872,23,10
2.21207,7.54027,-1.24459,22,3
6.81038,23.1995,2.96874,8,11
2.59429,8.83172,-1.13022,15,4
5.82416,19.8143,3.27105,38,12
3.11668,10.6032,-0.966906,23,5
5.91871,20.123,4.07721,22,13
3.73139,12.6782,-0.692614,39,6
9.45161,32.0931,7.72392,11,14
4.92121,16.6993,-0.303881,91,7
9.2819,31.4763,8.79312,14,15
0.137169,0.463074,-0.12941,15,0
5.09291,17.1824,0.312817,48,8
0.182861,0.616538,-0.148468,24,1
1.95559,6.58928,-1.33604,26,2
5.26932,17.7434,1.61935,43,10
2.23163,7.50978,-1.24084,22,3
5.25052,17.6576,2.2619,24,11
2.61888,8.80168,-1.12754,16,4
5.52407,18.5538,3.06612,13,12
3.15196,10.5865,-0.966383,22,5
5.99789,20.1324,4.08331,24,13
3.78076,12.6823,-0.693556,35,6
9.36971,31.4101,7.56735,22,14
4.94515,16.5671,-0.301787,77,7
10.3526,34.6609,9.69277,17,15
0.143225,0.477396,-0.133551,15,0
5.28741,17.6127,0.320985,32,8
0.181088,0.602832,-0.145318,25,1
5.26162,17.5157,0.958481,12,9
1.97631,6.5749,-1.33452,26,2
5.3427,17.7631,1.62284,43,10
2.25214,7.48303,-1.23771,23,3
5.28293,17.5422,2.24946,47,11
2.63813,8.75448,-1.12266,16,4
5.96345,19.7894,3.27355,14,12
3.18027,10.5469,-0.963768,22,5
8.02921,26.6108,5.40295,19,13
3.83308,12.6958,-0.695022,35,6
9.36715,31.006,7.47782,44,14
5.60382,18.5491,-0.338228,21,7
10.415,34.4525,9.64412,17,15
0.144891,0.476893,-0.133551,15,0
5.17371,17.0287,0.310653,20,8
0.183086,0.602228,-0.145318,25,1
1.98954,6.53603,-1.32803,26,2
5.40641,17.75,1.62336,30,10
2.27809,7.4793,-1.23834,23,3
5.35034,17.555,2.25336,14,11
2.65962,8.721,-1.11949,17,4
5.37753,17.6221,2.91813,16,12
3.20019,10.4804,-0.958713,22,5
9.65282,31.6125,6.42492,22,13
3.87983,12.6983,-0.695859,35,6
9.57475,31.3176,7.5606,44,14
5.14848,16.8294,-0.307197,100,7
10.5261,34.3864,9.63583,17,15
0.14193,0.461637,-0.12941,15,0
5.22019,16.9685,0.309885,20,8
0.18576,0.603448,-0.145768,25,1
5.39365,17.5215,0.960784,20,9
2.00947,6.52377,-1.32689,26,2
5.4001,17.5207,1.60401,27,10
2.29952,7.4562,-1.23583,26,3
5.34778,17.3294,2.2268,28,11
2.6836,8.69079,-1.11681,17,4
5.40388,17.5004,2.90092,11,12
3.23257,10.4622,-0.958016,22,5
8.2206,26.5893,5.40982,31,13
3.93417,12.7171,-0.697638,35,6
9.73356,31.4441,7.5993,44,14
5.16227,16.6766,-0.304719,68,7
9.82385,31.7161,8.89665,14,15
0.143541,0.461139,-0.12941,15,0
5.6033,18.0012,0.329083,22,8
0.18834,0.604689,-0.146218,25,1
5.50945,17.678,0.970413,24,9
2.03047,6.51109,-1.32574,26,2
5.39119,17.2773,1.58345,33,10
2.31482,7.41836,-1.23083,25,3
5.46438,17.5011,2.25117,28,11
2.70234,8.64964,-1.11267,17,4
5.45845,17.4607,2.89748,11,12
3.26551,10.4394,-0.95697,22,5
6.20399,19.8334,4.03943,10,13
3.98288,12.7249,-0.69879,35,6
6.72238,21.4643,5.19277,43,14
4.7313,15.0976,-0.276167,24,7
9.61024,30.6475,8.60625,6,15
0.150872,0.479087,-0.134586,15,0
5.65108,17.9339,0.32821,26,8
0.188691,0.598452,-0.144868,25,1
5.56812,17.6491,0.96989,39,9
2.04496,6.48185,-1.32116,26,2
5.44186,17.2384,1.58153,30,10
2.33416,7.38952,-1.22738,27,3
5.50749,17.4251,2.24386,19,11
2.72294,8.60987,-1.10877,16,4
6.38414,20.1742,3.35145,7,12
3.2977,10.4209,-0.956273,20,5
6.52981,20.622,4.20467,9,13
4.02667,12.7091,-0.698685,35,6
9.90911,31.2564,7.57005,44,14
5.44244,17.1567,-0.314178,100,7
9.69318,30.5383,8.58503,13,15
0.156063,0.489601,-0.137692,14,0
5.7021,17.8778,0.327547,10,8
0.186631,0.584794,-0.141719,26,1
5.61937,17.5972,0.968111,28,9
2.06937,6.48029,-1.32231,26,2
5.57113,17.4357,1.6014,37,10
2.35392,7.36251,-1.22426,26,3
5.61849,17.5627,2.26409,19,11
2.72938,8.52658,-1.09926,22,4
3.32372,10.3771,-0.95331,22,5
6.52985,20.3748,4.15887,23,13
4.07162,12.6968,-0.69879,35,6
10.0015,31.1696,7.55746,11,14
4.9833,15.5212,-0.284544,7,7
9.86295,30.7011,8.64042,13,15
0.154213,0.478022,-0.134586,15,0
6.3204,19.58,0.359136,38,8
0.193463,0.598975,-0.145318,25,1
5.68198,17.5918,0.968843,24,9
2.08655,6.45621,-1.31887,26,2
5.65893,17.4995,1.60907,27,10
2.37657,7.34485,-1.22269,27,3
5.7244,17.6809,2.28188,24,11
2.76218,8.52644,-1.10048,15,4
6.65645,20.5475,3.42091,26,12
3.34948,10.3332,-0.950346,22,5
6.11698,18.8597,3.85396,19,13
4.10666,12.654,-0.69722,35,6
10.118,31.1586,7.5633,55,14
5.50967,16.9671,-0.311386,100,7
10.2304,31.4858,8.87076,29,15
0.161876,0.495846,-0.139762,14,0
6.32075,19.3613,0.355506,24,8
0.195449,0.59833,-0.145318,25,1
5.80603,17.7636,0.979415,51,9
2.10357,6.4321,-1.31544,26,2
5.8402,17.847,1.64289,43,10
2.39907,7.3313,-1.22175,26,3
5.81944,17.7731,2.29626,39,11
2.78488,8.50026,-1.09829,16,4
6.25679,19.0863,3.18125,22,12
3.36939,10.2722,-0.945814,22,5
6.18866,18.8673,3.85968,17,13
4.13739,12.6062,-0.695336,35,6
10.1727,30.9768,7.52731,44,14
5.53454,16.8433,-0.309466,100,7
10.1996,31.0223,8.75015,28,15
0.16473,0.498975,-0.140798,14,0
5.8401,17.6796,0.324999,22,8
0.196925,0.595793,-0.144868,25,1
5.95141,18.0059,0.99386,34,9
2.11934,6.40831,-1.312,26,2
5.89371,17.8105,1.64132,20,10
2.41099,7.28162,-1.21487,25,3
5.83836,17.6226,2.27944,9,11
2.80829,8.47164,-1.09585,19,4
6.38034,19.2473,3.2116,19,12
3.39591,10.2383,-0.943722,22,5
6.25572,18.8493,3.86045,19,13
4.15934,12.5253,-0.691672,32,6
10.1376,30.5102,7.42249,32,14
5.61307,16.8932,-0.310723,53,7
10.2939,30.9627,8.74291,35,15
0.162799,0.487403,-0.137692,14,0
5.90504,17.6791,0.325348,14,8
0.196428,0.587744,-0.143069,25,1
6.05855,18.1176,1.00119,40,9
2.13734,6.38784,-1.30933,26,2
5.94888,17.7691,1.6394,37,10
2.42822,7.25298,-1.21143,25,3
5.89929,17.6107,2.28042,24,11
2.82943,8.44158,-1.09317,17,4
6.53228,19.4777,3.25384,21,12
3.42465,10.2056,-0.941805,20,5
6.30882,18.8006,3.85472,7,13
4.17797,12.4433,-0.687904,35,6
10.3206,30.7203,7.48187,22,14
4.88,14.5174,-0.267336,41,7
10.4192,30.9778,8.7574,14,15
0.159717,0.472134,-0.133551,15,0
5.98878,17.6931,0.326046,2,8
0.198161,0.585105,-0.142619,26,1
6.06017,17.8937,0.990092,50,9
2.15744,6.36657,-1.30666,23,2
5.86417,17.2951,1.59774,30,10
2.4516,7.22634,-1.20861,25,3
5.91379,17.4215,2.25897,19,11
2.84395,8.37802,-1.08634,16,4
6.38657,18.8035,3.14527,29,12
3.4542,10.1641,-0.93919,22,5
6.41711,18.8717,3.87457,12,13
4.22017,12.4038,-0.686648,32,6
6.27942,18.4562,4.50082,20,14
4.91122,14.4266,-0.26601,100,7
10.5903,31.0912,8.80088,35,15
0.172534,0.504505,-0.142868,14,0
6.59706,19.2794,0.35568,29,8
0.2001,0.584445,-0.142619,26,1
6.30708,18.4215,1.02045,19,9
2.17154,6.33895,-1.30246,26,2
5.96024,17.3887,1.6082,37,10
2.47427,7.21443,-1.20799,25,3
6.28854,18.3255,2.37889,25,11
2.8685,8.35915,-1.08512,17,4
6.40719,18.6607,3.12494,37,12
3.46976,10.0998,-0.93431,22,5
6.48987,18.88,3.88067,38,13
4.24438,12.3406,-0.683926,32,6
6.33867,18.4298,4.49947,33,14
5.12432,14.8905,-0.274875,100,7
10.7399,31.191,8.83919,29,15
0.170419,0.492975,-0.139762,14,0
6.56422,18.9778,0.350514,33,8
0.205224,0.592986,-0.144868,25,1
6.14,17.7313,0.983393,61,9
2.18677,6.31502,-1.29903,26,2
6.02245,17.382,1.60942,40,10
2.49042,7.18379,-1.20423,26,3
7.2353,20.859,2.71086,6,11
2.89766,8.34909,-1.08512,17,4
6.55524,18.8771,3.16498,13,12
3.48036,10.0224,-0.928209,22,5
6.4822,18.6563,3.83908,24,13
4.26102,12.2566,-0.680053,29,6
10.8167,31.0964,7.6011,55,14
4.9909,14.34,-0.265032,90,7
10.8703,31.2154,8.85679,29,15
0.165763,0.474141,-0.134586,15,0
6.63636,18.9717,0.350828,49,8
0.207293,0.592266,-0.144868,25,1
6.21109,17.7361,0.984858,28,9
2.2101,6.31105,-1.29979,23,2
6.23989,17.8084,1.6509,30,10
2.51091,7.162,-1.20204,28,3
6.56556,18.7169,2.43544,26,11
2.92153,8.32394,-1.08317,17,4
6.52227,18.5727,3.11774,31,12
3.48562,9.92557,-0.920365,20,5
6.52385,18.5669,3.82534,15,13
4.28324,12.1833,-0.676809,32,6
10.8942,30.9702,7.5795,44,14
5.24673,14.9072,-0.275853,100,7
10.9209,31.0114,8.80968,7,15
0.167417,0.473559,-0.134586,15,0
6.72721,19.0182,0.35212,67,8
0.206108,0.582353,-0.142619,26,1
6.2583,17.6729,0.982555,22,9
2.23059,6.29551,-1.29826,23,2
6.46037,18.2334,1.69239,35,10
2.53655,7.15506,-1.20236,28,3
6.6229,18.6714,2.43251,30,11
2.94924,8.30995,-1.08269,19,4
6.56987,18.5014,3.1096,24,12
3.52063,9.90898,-0.920016,20,5
6.59252,18.5447,3.82572,3,13
4.30511,12.1035,-0.67325,35,6
11.0388,31.0348,7.60469,55,14
5.35238,15.0395,-0.278645,100,7
11.0563,31.0496,8.83142,29,15
0.175657,0.491132,-0.139762,14,0
6.29359,17.587,0.326046,14,8
0.20627,0.57609,-0.141269,26,1
6.4234,17.93,0.998151,72,9
2.24835,6.2725,-1.29521,23,2
6.58767,18.3784,1.70808,28,10
2.56142,7.142,-1.20173,28,3
6.69933,18.6694,2.43544,15,11
2.9676,8.26545,-1.0783,19,4
6.60891,18.3973,3.09615,37,12
3.54951,9.87538,-0.918099,20,5
11.3271,31.4967,6.50621,28,13
4.33863,12.0576,-0.671575,32,6
10.973,30.4954,7.48232,44,14
5.47994,15.2211,-0.28238,100,7
11.1995,31.0906,8.85472,29,15
0.164311,0.454153,-0.12941,15,0
6.37094,17.5995,0.326709,22,8
0.213026,0.588156,-0.144419,25,1
6.3438,17.515,0.976275,16,9
2.26087,6.23878,-1.28987,23,2
6.64412,18.3242,1.70529,42,10
2.5795,7.11027,-1.19798,28,3
6.80157,18.7381,2.44762,10,11
2.99033,8.23825,-1.07611,17,4
7.66503,21.1053,3.55638,17,12
3.56627,9.81425,-0.913566,20,5
11.0318,30.3425,6.27571,21,13
4.35952,11.9842,-0.66833,29,6
11.0587,30.4001,7.46837,33,14
5.30803,14.5837,-0.270896,65,7
11.3284,31.1076,8.87076,7,15
0.165816,0.453606,-0.12941,15,0
6.579,17.9877,0.334318,62,8
0.214975,0.587446,-0.144419,25,1
6.39842,17.4845,0.975752,32,9
2.27749,6.22018,-1.28758,23,2
6.56366,17.9167,1.66938,45,10
2.59831,7.0887,-1.19579,33,3
6.84659,18.6688,2.44153,15,11
3.01012,8.20779,-1.07343,17,4
7.36955,20.0839,3.38837,16,12
3.57958,9.75,-0.908686,18,5
11.1513,30.3574,6.28639,37,13
4.38408,11.9284,-0.666027,32,6
11.2509,30.6121,7.52956,11,14
5.35153,14.5529,-0.270652,73,7
13.7362,37.3339,10.6592,21,15
0.180705,0.489298,-0.139762,14,0
6.55683,17.7444,0.3302,36,8
0.213543,0.577591,-0.142169,26,1
6.45316,17.4452,0.97481,21,9
2.29811,6.2126,-1.28758,26,2
6.6431,17.949,1.67444,38,10
2.61014,7.04855,-1.19047,33,3
7.86572,21.2297,2.77984,14,11
3.02979,8.17303,-1.07026,19,4
7.46572,20.1285,3.40026,7,12
3.59249,9.68577,-0.903805,20,5
11.2628,30.3497,6.2925,32,13
4.39789,11.8445,-0.662155,32,6
11.4106,30.7151,7.56465,11,14
5.74577,15.4582,-0.28786,86,7
13.9876,37.6116,10.7524,22,15
0.1689,0.452466,-0.12941,15,0
6.59213,17.6503,0.328873,54,8
0.212147,0.567715,-0.13992,26,1
6.50982,17.4113,0.974182,28,9
2.31359,6.18799,-1.28414,26,2
6.69034,17.8846,1.6706,24,10
2.63057,7.0283,-1.18859,27,3
7.76853,20.7448,2.71988,27,11
3.05203,8.14568,-1.06806,19,4
7.62677,20.3446,3.44125,1,12
3.61089,9.63212,-0.89997,20,5
11.5507,30.7954,6.39325,11,13
4.41956,11.7768,-0.659224,32,6
11.5589,30.7845,7.59165,11,14
5.77508,15.3725,-0.286638,86,7
14.4655,38.4848,11.0164,23,15
0.177298,0.469949,-0.134586,15,0
6.66359,17.6533,0.329362,34,8
0.216193,0.57244,-0.141269,13,1
6.59999,17.4756,0.978997,9,9
2.33171,6.17069,-1.28224,26,2
6.93734,18.3495,1.71627,14,10
2.65159,7.00983,-1.18702,33,3
7.7643,20.5152,2.69331,33,11
3.06427,8.09228,-1.06246,17,4
7.9789,21.0711,3.56858,31,12
3.64237,9.61387,-0.899447,20,5
11.6428,30.7146,6.38485,22,13
4.44435,11.7183,-0.656816,35,6
14.6406,38.5821,9.52713,14,14
5.78843,15.2542,-0.284788,94,7
14.6486,38.583,11.0583,12,15
0.185819,0.487378,-0.139762,14,0
6.70501,17.5863,0.328524,42,8
0.217395,0.569899,-0.140819,26,1
2.34553,6.14234,-1.27804,21,2
7.25521,18.9896,1.7785,52,10
2.6713,6.99178,-1.18546,28,3
7.88191,20.6191,2.71037,33,11
3.08258,8.05982,-1.05953,19,4
7.98181,20.8586,3.5373,20,12
3.65952,9.5583,-0.895438,18,5
7.98067,20.8447,4.33861,16,13
4.48533,11.7091,-0.65713,35,6
14.7224,38.4133,9.49743,14,14
5.80584,15.1405,-0.283043,86,7
14.788,38.5442,11.0619,24,15
0.184658,0.479548,-0.137692,14,0
6.75917,17.5441,0.328175,48,8
0.222187,0.57641,-0.142619,26,1
6.56587,17.0247,0.956283,13,9
2.35458,6.10522,-1.27193,26,2
7.34612,19.0379,1.7853,18,10
2.68999,6.96767,-1.18296,31,3
7.99174,20.6896,2.72329,20,11
3.10855,8.04346,-1.0588,19,4
8.04602,20.8085,3.53354,8,12
3.67058,9.48787,-0.890034,20,5
8.09446,20.9229,4.36075,9,13
4.52401,11.6878,-0.656816,35,6
15.1294,39.0667,9.672,15,14
5.81819,15.0158,-0.281088,86,7
14.8401,38.2798,11.0008,23,15
0.189217,0.486069,-0.139762,14,0
6.8755,17.6621,0.330828,30,8
0.224905,0.577447,-0.143069,25,1
6.54259,16.7895,0.94435,50,9
2.37623,6.09472,-1.27155,26,2
7.43394,19.0572,1.78966,30,10
2.70331,6.92648,-1.17764,27,3
8.08124,20.706,2.72914,60,11
3.13372,8.02516,-1.05783,23,4
8.35583,21.3875,3.63679,25,12
3.69207,9.44531,-0.887245,19,5
12.5123,31.9933,6.67755,24,13
4.55517,11.6414,-0.655142,35,6
12.4081,31.6944,7.85799,11,14
5.821,14.8687,-0.278715,88,7
14.8743,37.9741,10.9279,11,15
0.197984,0.503384,-0.144939,14,0
0.219167,0.556673,-0.13812,27,1
6.63042,16.8409,0.948537,25,9
2.38598,6.05716,-1.26545,26,2
7.1125,18.0469,1.6971,14,10
2.7195,6.89679,-1.1742,27,3
8.28675,21.0049,2.77253,28,11
3.14708,7.973,-1.05246,20,4
8.14904,20.6452,3.5154,26,12
3.7155,9.40827,-0.884979,19,5
8.26129,20.9083,4.36991,27,13
4.57963,11.5845,-0.652839,35,6
14.9972,37.9173,9.41375,14,14
5.77799,14.6084,-0.274212,88,7
14.8866,37.6184,10.8404,22,15
0.178339,0.44883,-0.12941,15,0
7.05991,17.7679,0.333725,80,8
0.221012,0.555943,-0.13812,27,1
6.99772,17.5934,0.99229,34,9
2.41001,6.05609,-1.26697,23,2
7.17767,18.0275,1.69762,38,10
2.74089,6.88406,-1.17357,28,3
8.22927,20.6583,2.73036,40,11
3.15659,7.92011,-1.04686,23,4
8.35714,20.958,3.57359,17,12
3.73651,9.36564,-0.88219,19,5
14.8999,37.3469,7.81592,16,13
4.60172,11.5285,-0.650536,35,6
15.4221,38.6166,9.60001,15,14
5.76737,14.4341,-0.271315,89,7
14.9561,37.412,10.7959,22,15
0.194212,0.484095,-0.139762,14,0
7.03996,17.539,0.329885,50,8
0.226582,0.56421,-0.140369,26,1
7.01813,17.467,0.986533,19,9
2.41983,6.02256,-1.26163,26,2
7.29983,18.1589,1.71226,31,10
2.7649,6.87445,-1.17357,28,3
8.36284,20.7823,2.75059,41,11
3.17681,7.89063,-1.04442,23,4
8.54095,21.2035,3.62052,25,12
3.75354,9.31373,-0.87853,19,5
15.1006,37.4695,7.85255,16,13
4.62999,11.4827,-0.648861,35,6
15.7128,38.9493,9.69629,15,14
5.76158,14.2748,-0.268697,90,7
15.0447,37.2556,10.7658,22,15
0.195986,0.48338,-0.139762,14,0
7.0771,17.455,0.328768,58,8
0.230015,0.567027,-0.141269,13,1
2.43746,6.00274,-1.25934,23,2
7.19086,17.7001,1.67147,35,10
2.77893,6.83682,-1.16888,27,3
8.48542,20.8761,2.76692,28,11
3.2006,7.87029,-1.0432,19,4
8.4474,20.7619,3.55012,23,12
3.76725,9.25444,-0.874172,17,5
15.383,37.7702,7.92735,25,13
4.67054,11.462,-0.648652,35,6
15.8084,38.7759,9.6675,15,14
5.74947,14.1027,-0.265835,82,7
15.3359,37.5982,10.8802,11,15
7.14405,17.4363,0.328908,50,8
0.230614,0.562574,-0.140369,26,1
6.98612,17.0424,0.965284,16,9
2.45393,5.98329,-1.25705,23,2
7.21252,17.5772,1.66223,24,10
2.79377,6.80515,-1.16512,33,3
8.4427,20.5548,2.72841,40,11
3.22187,7.84015,-1.04076,17,4
9.13703,22.2342,3.8073,23,12
3.78589,9.20806,-0.871035,17,5
15.8008,38.4117,8.07351,17,13
4.70444,11.4308,-0.647815,29,6
15.8264,38.4358,9.59641,15,14
5.80552,14.0992,-0.266149,90,7
15.4391,37.4766,10.8606,11,15
0.203786,0.492711,-0.142868,14,0
7.20261,17.4144,0.328943,32,8
0.232478,0.561806,-0.140369,26,1
7.01119,16.9349,0.960574,41,9
2.4733,5.97106,-1.25629,23,2
8.31806,20.0717,1.90087,21,10
2.80498,6.76847,-1.16043,28,3
8.42034,20.3085,2.69941,39,11
3.23645,7.80192,-1.03711,22,4
9.36527,22.5652,3.86956,27,12
3.81037,9.17639,-0.869291,19,5
15.7421,37.9112,7.97925,25,13
4.70861,11.334,-0.643209,29,6
15.7503,37.8936,9.47404,14,14
5.86391,14.101,-0.266568,90,7
16.0277,38.5229,11.1799,24,15
0.19351,0.463509,-0.134586,15,0
6.75235,16.1658,0.305801,8,8
0.234438,0.560991,-0.140369,26,1
7.06564,16.8992,0.959946,13,9
2.48702,5.94834,-1.25323,23,2
8.30999,19.8657,1.88396,17,10
2.8324,6.76775,-1.162,30,3
8.49348,20.2844,2.70014,33,11
3.25752,7.77593,-1.03516,24,4
10.0266,23.9224,4.10828,22,12
3.83231,9.14349,-0.867374,19,5
15.8341,37.7601,7.95903,16,13
4.735,11.2862,-0.64143,32,6
15.8621,37.7899,9.46189,14,14
5.93013,14.121,-0.267336,90,7
16.1703,38.4863,11.1856,24,15
0.187622,0.44503,-0.12941,15,0
7.33565,17.3913,0.329467,52,8
0.235637,0.558374,-0.13992,26,1
7.05699,16.7144,0.95084,38,9
2.49861,5.91792,-1.24865,23,2
7.44352,17.6213,1.67356,28,10
2.85293,6.75055,-1.16074,26,3
8.59361,20.3241,2.7094,13,11
3.27691,7.74623,-1.03272,28,4
9.58572,22.6484,3.89522,10,12
3.851,9.09886,-0.864411,19,5
15.9153,37.5853,7.93384,33,13
4.75956,11.2346,-0.639441,29,6
16.1141,38.0178,9.53298,14,14
5.98875,14.1223,-0.267755,90,7
16.2834,38.3799,11.1711,12,15
0.196741,0.462147,-0.134586,15,0
7.54129,17.706,0.335924,34,8
0.234529,0.550377,-0.13812,27,1
7.1106,16.6786,0.950212,23,9
2.51771,5.90555,-1.24789,26,2
7.54017,17.6777,1.68141,7,10
2.87182,6.72965,-1.15887,26,3
8.69413,20.3634,2.71866,13,11
3.2977,7.72013,-1.03077,28,4
9.12829,21.3597,3.67903,4,12
3.86786,9.05056,-0.861099,19,5
16.0271,37.4844,7.9243,16,13
4.78619,11.1886,-0.637766,29,6
16.2306,37.9237,9.52353,14,14
6.04903,14.1271,-0.268243,90,7
16.4028,38.2891,11.1613,24,15
0.210559,0.489855,-0.142868,14,0
7.2744,16.9153,0.321404,18,8
0.240299,0.558506,-0.140369,26,1
7.16404,16.6427,0.949584,9,9
2.53676,5.89312,-1.24713,26,2
7.39141,17.1627,1.63487,30,10
2.88357,6.69237,-1.15417,27,3
9.12036,21.1569,2.82883,14,11
3.32305,7.70493,-1.03028,33,4
10.5192,24.3784,4.20527,14,12
3.88995,9.01505,-0.859007,19,5
9.35001,21.6584,4.58552,22,13
4.80145,11.1168,-0.634626,35,6
16.3119,37.7487,9.49383,29,14
6.09593,14.1004,-0.268139,82,7
16.5801,38.3326,11.1908,12,15
0.199962,0.460762,-0.134586,15,0
7.32624,16.8733,0.321089,44,8
0.240694,0.554089,-0.13947,13,1
7.20855,16.5865,0.947804,34,9
2.55418,5.87703,-1.2456,26,2
7.43697,17.1039,1.63173,47,10
2.90297,6.67321,-1.15261,26,3
9.88493,22.7121,3.04137,34,11
3.34121,7.67326,-1.0276,34,4
9.6409,22.1303,3.82326,23,12
3.90628,8.96671,-0.855695,19,5
16.3167,37.4364,7.93804,25,13
4.82347,11.0615,-0.632428,32,6
15.9651,36.5949,9.21759,13,14
6.09952,13.9745,-0.266149,90,7
16.6952,38.232,11.1784,12,15
0.209322,0.477756,-0.139762,14,0
7.43004,16.9502,0.323044,56,8
0.239497,0.546107,-0.13767,13,1
7.68048,17.5049,1.00181,41,9
2.57468,5.86807,-1.2456,23,2
7.48141,17.0431,1.62842,37,10
2.9199,6.64856,-1.15011,22,3
9.90027,22.5321,3.02187,41,11
3.35359,7.62884,-1.02322,30,4
9.30932,21.1671,3.66244,6,12
3.93515,8.94755,-0.855172,19,5
9.62986,21.8855,4.64773,5,13
4.82342,10.9569,-0.627403,32,6
16.1996,36.7815,9.27878,14,14
6.13939,13.933,-0.265765,82,7
16.8021,38.1134,11.1608,24,15
0.19536,0.441687,-0.12941,15,0
7.4657,16.8712,0.322032,36,8
0.243768,0.550613,-0.13902,26,1
7.74639,17.489,1.00244,23,9
2.5864,5.8393,-1.2414,23,2
7.88796,17.8002,1.70337,38,10
2.93909,6.6293,-1.14854,25,3
8.98564,20.2582,2.7211,6,11
3.37376,7.60257,-1.02127,24,4
9.41682,21.2103,3.67558,24,12
3.95989,8.91919,-0.853778,19,5
9.61374,21.6437,4.60346,30,13
4.84218,10.8962,-0.624891,33,6
16.6089,37.3568,9.4385,14,14
6.14409,13.8129,-0.26388,83,7
0.214228,0.479811,-0.140798,14,0
7.53678,16.8724,0.322555,24,8
0.248074,0.555096,-0.140369,26,1
7.8294,17.5111,1.00527,27,9
2.60116,5.81769,-1.23873,26,2
8.70177,19.453,1.86444,28,10
2.95898,6.61179,-1.14729,21,3
9.9681,22.2631,2.99506,16,11
3.40028,7.59075,-1.02127,27,4
9.63541,21.4999,3.73159,18,12
3.97308,8.86531,-0.849943,17,5
9.93342,22.1546,4.71947,8,13
4.86465,10.8446,-0.622903,37,6
15.2623,34.0077,8.60573,37,14
6.16934,13.7402,-0.262903,75,7
20.8841,46.4909,13.6563,18,15
0.211139,0.468493,-0.137692,14,0
7.64083,16.9462,0.324475,60,8
0.251613,0.557779,-0.141269,13,1
7.79135,17.272,0.993023,57,9
2.62145,5.80858,-1.23873,35,2
7.98743,17.6902,1.69814,3,10
2.96659,6.56721,-1.14135,25,3
9.11133,20.1606,2.71647,40,11
3.41939,7.56256,-1.01907,28,4
9.37623,20.7371,3.60456,17,12
3.99168,8.82416,-0.847328,17,5
9.91761,21.9141,4.67558,23,13
4.88105,10.7802,-0.620181,37,6
15.3664,33.9223,8.59763,12,14
6.18352,13.6505,-0.261577,83,7
15.2248,33.594,9.88275,9,15
0.212773,0.467753,-0.137692,14,0
7.86425,17.2885,0.331526,54,8
0.253461,0.556942,-0.141269,13,1
7.89131,17.3319,0.998047,41,9
2.62951,5.77259,-1.23301,26,2
8.03509,17.6314,1.69518,17,10
2.9818,6.54296,-1.13884,27,3
9.90364,21.7215,2.9312,31,11
3.43292,7.52589,-1.01566,28,4
10.0924,22.115,3.85017,26,12
4.01418,8.79205,-0.845585,17,5
9.73419,21.3203,4.55576,11,13
4.89022,10.7058,-0.616832,30,6
16.5658,36.2498,9.2014,13,14
6.1987,13.5579,-0.260215,67,7
0.217546,0.474068,-0.139762,14,0
7.98379,17.39,0.334004,44,8
0.25703,0.559596,-0.142169,26,1
7.98679,17.3805,1.00244,30,9
2.66339,5.79595,-1.23988,21,2
8.05857,17.5286,1.68786,7,10
2.99967,6.52174,-1.13697,27,3
9.99268,21.7157,2.9351,23,11
3.44838,7.49042,-1.01249,27,4
9.90256,21.5001,3.74911,27,12
4.03484,8.75627,-0.843493,17,5
13.6537,29.6309,6.34173,10,13
4.90331,10.6361,-0.613796,33,6
15.3766,33.3391,8.47616,12,14
6.21499,13.469,-0.258924,85,7
15.2387,33.0098,9.74195,8,15
0.203039,0.438211,-0.12941,15,0
8.3084,17.9317,0.344964,29,8
0.24505,0.528639,-0.134521,28,1
7.86675,16.963,0.979939,43,9
2.67883,5.77369,-1.23721,23,2
8.73345,18.8146,1.81476,27,10
3.01856,6.49996,-1.13509,28,3
10.0149,21.5654,2.9195,15,11
3.46781,7.46394,-1.01054,26,4
9.97089,21.451,3.74661,24,12
4.0595,8.72949,-0.842273,17,5
15.6397,33.616,7.20686,14,13
4.92962,10.5909,-0.612226,30,6
15.4378,33.1518,8.44286,12,14
6.22483,13.3675,-0.257388,76,7
15.3652,32.9809,9.7492,8,15
0.21275,0.454999,-0.134586,15,0
8.16141,17.4465,0.336203,36,8
0.25029,0.534797,-0.13632,13,1
7.83147,16.726,0.967901,21,9
2.69647,5.75897,-1.23606,21,2
11.5788,24.7182,2.38807,6,10
3.03117,6.46792,-1.13133,26,3
10.4209,22.226,3.01407,16,11
3.48587,7.43141,-1.00786,28,4
9.97559,21.257,3.71907,24,12
4.07556,8.6846,-0.83931,17,5
14.2484,30.3481,6.51689,17,13
4.95298,10.5447,-0.610551,30,6
15.5949,33.1859,8.46536,49,14
6.24315,13.2794,-0.256132,85,7
15.7171,33.4156,9.89465,18,15
8.09676,17.1521,0.331072,38,8
0.257148,0.544493,-0.13902,13,1
8.35567,17.6846,1.02505,13,9
2.71153,5.73887,-1.23377,19,2
9.97829,21.1093,2.04276,40,10
3.04022,6.42872,-1.12633,27,3
10.0688,21.2815,2.89074,15,11
3.51179,7.4192,-1.00786,28,4
9.90263,20.9114,3.66463,27,12
4.08709,8.63071,-0.835475,17,5
10.4196,21.9931,4.73054,11,13
4.9581,10.4606,-0.606678,30,6
15.7783,33.2739,8.5018,37,14
6.27318,13.2232,-0.255468,93,7
15.8278,33.3483,9.89103,36,15
0.220904,0.463968,-0.137692,14,0
8.12735,17.0623,0.329885,50,8
0.25737,0.540074,-0.13812,13,1
8.43833,17.7072,1.02798,31,9
2.73239,5.73114,-1.23415,23,2
9.72941,20.3981,1.97722,18,10
3.06179,6.41629,-1.12602,26,3
11.5986,24.2952,3.30558,10,11
3.53339,7.39793,-1.00664,30,4
9.9932,20.923,3.67246,22,12
4.10603,8.59301,-0.833209,17,5
14.3846,30.0903,6.48293,11,13
4.97304,10.3982,-0.604062,30,6
15.9498,33.3346,8.53149,37,14
6.29456,13.1554,-0.254561,93,7
15.9558,33.3322,9.9019,36,15
0.209137,0.435333,-0.12941,15,0
8.19601,17.0605,0.330374,46,8
0.254095,0.528679,-0.135421,13,1
8.50095,17.6795,1.02809,6,9
2.75067,5.71803,-1.23339,21,2
8.43194,17.5203,1.70111,45,10
3.07705,6.39364,-1.12383,22,3
10.1152,21.0086,2.86295,22,11
3.54757,7.36472,-1.00372,34,4
10.1271,21.0143,3.69467,22,12
4.1308,8.56786,-0.832163,17,5
10.5435,21.8686,4.71909,11,13
4.99188,10.3492,-0.602178,30,6
16.1068,33.3781,8.55624,50,14
6.3074,13.0649,-0.253234,94,7
16.057,33.245,9.89258,27,15
0.219003,0.452023,-0.134586,15,0
8.31744,17.1596,0.332852,30,8
0.257639,0.531295,-0.13632,13,1
9.30886,19.1879,1.11769,48,9
2.75591,5.68061,-1.22728,21,2
8.49348,17.4994,1.7018,10,10
3.09245,6.36865,-1.12132,23,3
10.1712,20.9374,2.85808,7,11
3.55763,7.32015,-0.999329,24,4
10.0233,20.6147,3.63053,8,12
4.14674,8.52473,-0.829374,17,5
14.583,29.9793,6.48026,17,13
4.99913,10.2725,-0.598723,33,6
16.0706,33.008,8.47571,12,14
6.34946,13.0357,-0.253095,94,7
16.1594,33.161,9.8843,27,15
8.6707,17.7304,0.344511,27,8
0.266344,0.544397,-0.13992,13,1
9.53821,19.4871,1.13705,39,9
2.77412,5.66519,-1.22614,21,2
10.2817,20.9876,2.04467,40,10
3.10881,6.34308,-1.11882,23,3
10.3848,21.1888,2.89732,31,11
3.58403,7.30947,-0.999572,24,4
10.083,20.5547,3.62615,21,12
4.15716,8.47085,-0.825539,17,5
14.7698,30.0825,6.51422,17,13
5.02618,10.2326,-0.597467,27,6
16.1235,32.8107,8.44016,12,14
6.37111,12.965,-0.252152,94,7
16.2529,33.0593,9.87084,36,15
0.239327,0.485093,-0.144939,14,0
8.68518,17.5963,0.342521,40,8
0.26316,0.532933,-0.13722,27,1
9.60972,19.4609,1.13747,39,9
2.78779,5.64315,-1.22347,23,2
10.1536,20.5443,2.00493,38,10
3.12218,6.31448,-1.11569,22,3
10.583,21.3943,2.93071,23,11
3.60552,7.28561,-0.99811,23,4
10.1687,20.5477,3.63116,8,12
4.18052,8.44379,-0.824319,17,5
14.7841,29.8478,6.47453,11,13
5.04236,10.1756,-0.595165,27,6
16.1783,32.6338,8.40912,37,14
6.39502,12.8996,-0.251315,94,7
16.4523,33.172,9.92157,27,15
0.223803,0.449665,-0.134586,15,0
8.5136,17.1055,0.333515,40,8
0.263189,0.528568,-0.13632,13,1
9.6669,19.4058,1.13621,28,9
2.80222,5.62284,-1.22118,23,2
10.4404,20.9402,2.04711,30,10
3.13253,6.28288,-1.11194,22,3
10.6734,21.3982,2.93608,7,11
3.627,7.26828,-0.997379,23,4
10.3498,20.7313,3.66995,20,12
4.20018,8.40954,-0.822402,17,5
16.2418,32.5192,7.06566,27,13
5.0484,10.1034,-0.59192,30,6
16.3422,32.6915,8.43791,12,14
6.41497,12.8272,-0.250337,94,7
16.625,33.2284,9.95573,18,15
0.216628,0.431654,-0.12941,15,0
8.54634,17.0221,0.332468,34,8
0.266782,0.531129,-0.13722,13,1
9.65119,19.2059,1.12648,13,9
2.8182,5.60825,-1.22003,26,2
10.2494,20.3875,1.99639,52,10
3.15266,6.26838,-1.11131,26,3
10.6597,21.1852,2.91195,23,11
3.63004,7.21125,-0.991285,24,4
10.3332,20.5186,3.63867,23,12
4.22355,8.38667,-0.82153,19,5
16.3985,32.5482,7.08436,20,13
5.07195,10.0626,-0.590559,30,6
16.3456,32.415,8.38123,49,14
6.44979,12.785,-0.249953,94,7
16.5947,32.8804,9.86877,18,15
0.226859,0.448132,-0.134586,15,0
8.48193,16.7478,0.327686,68,8
0.273919,0.540625,-0.13992,13,1
9.80034,19.3343,1.136,18,9
2.8209,5.56511,-1.21278,26,2
10.3286,20.3676,1.99796,4,10
3.17274,6.25381,-1.11068,26,3
10.7273,21.1355,2.91024,15,11
3.64979,7.18792,-0.989823,23,4
10.5238,20.7166,3.68028,9,12
4.23656,8.3399,-0.818392,19,5
16.3413,32.1548,7.01109,26,13
5.09075,10.0128,-0.588675,30,6
16.7131,32.858,8.5108,37,14
6.47534,12.725,-0.24922,86,7
17.031,33.4541,10.0587,9,15
0.228421,0.447337,-0.134586,15,0
8.37841,16.4011,0.321473,22,8
0.270483,0.529254,-0.13722,13,1
10.7933,21.1102,1.24256,22,9
2.84031,5.55523,-1.21278,26,2
10.6401,20.8015,2.04415,35,10
3.18555,6.22511,-1.10756,22,3
11.1411,21.7623,3.00189,33,11
3.67124,7.16806,-0.988848,24,4
10.6113,20.7096,3.6856,29,12
4.2602,8.31442,-0.817347,19,5
16.5277,32.2425,7.04276,33,13
5.112,9.96826,-0.587105,33,6
16.7539,32.6556,8.47346,49,14
6.49688,12.6579,-0.248348,70,7
0.221136,0.429362,-0.12941,15,0
8.32294,16.1531,0.31718,28,8
0.281258,0.545628,-0.141719,13,1
11.0208,21.3707,1.26015,5,9
2.85788,5.54179,-1.21202,23,2
10.7172,20.773,2.04502,45,10
3.20364,6.20693,-1.1063,26,3
10.9729,21.2506,2.93656,7,11
3.69351,7.14991,-0.988117,23,4
10.6872,20.6795,3.68685,18,12
4.27822,8.27826,-0.815255,19,5
16.4022,31.7242,6.94201,19,13
5.14218,9.94149,-0.586581,33,6
16.883,32.6263,8.4811,49,14
6.50609,12.5676,-0.247021,96,7
0.240444,0.462875,-0.139762,14,0
8.27785,15.9288,0.313341,26,8
0.270576,0.520436,-0.135421,13,1
10.8428,20.8555,1.23188,31,9
2.87811,5.53352,-1.2124,26,2
10.7556,20.6701,2.03857,55,10
3.22984,6.20447,-1.10787,26,3
10.9205,20.9692,2.90293,7,11
3.70161,7.1077,-0.983973,23,4
10.8077,20.7438,3.70468,4,12
4.29972,8.24914,-0.81386,19,5
16.5055,31.6529,6.93896,26,13
5.15283,9.87744,-0.58386,33,6
17.2651,33.0954,8.61788,12,14
6.52553,12.5034,-0.246184,96,7
0.224053,0.427847,-0.12941,15,0
8.29815,15.8392,0.312119,35,8
0.279537,0.533345,-0.13902,26,1
10.8887,20.7752,1.22927,19,9
2.89371,5.51873,-1.21126,23,2
10.8083,20.6043,2.03561,58,10
3.25132,6.19548,-1.10818,25,3
11.0564,21.0594,2.92048,7,11
3.71316,7.07254,-0.980805,27,4
10.9151,20.7813,3.71782,11,12
4.32334,8.22778,-0.813163,19,5
17.2553,32.8248,7.20838,35,13
5.17068,9.83201,-0.582185,33,6
16.7026,31.7599,8.2845,12,14
6.55113,12.4517,-0.24559,87,7
0.257939,0.488605,-0.148044,13,0
8.36464,15.8381,0.312642,30,8
0.275842,0.522076,-0.13632,13,1
11.2347,21.2635,1.26035,48,9
2.90099,5.48828,-1.20668,23,2
11.116,21.021,2.08041,30,10
3.27554,6.19164,-1.10943,25,3
11.6592,22.0297,3.06038,8,11
3.72545,7.03913,-0.97788,34,4
11.6014,21.9112,3.92682,30,12
4.33755,8.18875,-0.810723,18,5
17.3825,32.8021,7.21601,28,13
5.18922,9.78835,-0.580615,33,6
16.8973,31.8731,8.32859,12,14
6.5624,12.3733,-0.244473,78,7
0.237777,0.446817,-0.135621,15,0
8.45094,15.8739,0.313899,30,8
0.27574,0.517719,-0.135421,13,1
11.2469,21.1168,1.25387,35,9
2.91917,5.47863,-1.20668,23,2
10.9373,20.5181,2.03421,58,10
3.29234,6.17378,-1.10818,23,3
12.0013,22.4954,3.13058,9,11
3.73756,7.00572,-0.974955,24,4
4.34967,8.1462,-0.807934,18,5
17.6826,33.1028,7.29501,28,13
5.21224,9.75347,-0.579568,30,6
18.3044,34.2523,8.9661,39,14
6.55531,12.2616,-0.242693,79,7
0.239491,0.4459,-0.135621,15,0
8.5336,15.8818,0.314702,26,8
0.281416,0.523522,-0.13722,27,1
11.3165,21.0434,1.25219,22,9
2.94205,5.47084,-1.20744,23,2
11.0046,20.4549,2.03212,39,10
3.30479,6.14022,-1.10443,25,3
10.9131,20.2678,2.82639,14,11
3.75906,6.97843,-0.973249,20,4
12.0006,22.269,4.0066,13,12
4.36768,8.10488,-0.805493,18,5
17.0904,31.7005,7.0004,26,13
5.23164,9.69998,-0.57758,37,6
6.56648,12.1648,-0.241297,97,7
0.263126,0.485831,-0.148044,13,0
8.60041,15.873,0.315121,20,8
0.283242,0.522537,-0.13722,13,1
11.3489,20.9282,1.24769,22,9
2.96113,5.46053,-1.20744,23,2
11.0294,20.3306,2.02358,53,10
3.32243,6.1217,-1.10318,22,3
11.141,20.5192,2.86685,30,11
3.77392,6.94782,-0.970811,22,4
12.6932,23.3586,4.21059,5,12
4.38453,8.06858,-0.803402,18,5
17.2188,31.6734,7.00765,33,13
5.24352,9.64131,-0.575172,30,6
18.0422,33.1605,8.7155,12,14
6.58023,12.0891,-0.24025,71,7
0.242598,0.444218,-0.135621,15,0
8.65385,15.8394,0.315051,20,8
0.28226,0.516415,-0.13587,27,1
11.6587,21.3304,1.27396,8,9
2.97263,5.43638,-1.20439,23,2
11.0917,20.2762,2.02201,39,10
3.33714,6.09793,-1.10099,25,3
11.1592,20.3827,2.85321,45,11
3.78767,6.91545,-0.96813,23,4
12.5714,22.9525,4.14489,22,12
4.40692,8.04274,-0.802356,18,5
17.4849,31.8972,7.07062,6,13
5.26274,9.59668,-0.573602,33,6
22.2576,40.5703,10.6834,18,14
6.58277,11.9988,-0.238889,90,7
0.279557,0.507673,-0.155291,12,0
8.67932,15.7616,0.314074,20,8
0.284912,0.517183,-0.13632,13,1
11.7321,21.2878,1.27386,4,9
2.98022,5.40534,-1.19981,23,2
11.3279,20.5375,2.05199,20,10
3.35353,6.07991,-1.09973,25,3
11.2689,20.422,2.86393,37,11
3.79619,6.87678,-0.964474,18,4
12.4193,22.4883,4.06886,28,12
4.41762,7.99592,-0.799218,18,5
19.2843,34.9047,7.75142,16,13
5.2868,9.56519,-0.572765,33,6
22.2431,40.2269,10.6123,18,14
6.58396,11.9023,-0.237423,90,7
0.245616,0.442556,-0.135621,15,0
8.66149,15.6,0.311456,20,8
0.292393,0.526407,-0.13902,26,1
12.0712,21.7233,1.30243,22,9
2.9924,5.38513,-1.19752,26,2
11.2856,20.3013,2.03212,29,10
3.36993,6.05954,-1.09817,25,3
11.151,20.0426,2.81616,14,11
3.81148,6.84788,-0.96228,17,4
12.1576,21.8339,3.95811,20,12
4.43484,7.9613,-0.797301,21,5
18.7143,33.5955,7.47513,15,13
5.29974,9.51004,-0.570567,37,6
22.4384,40.2477,10.6384,18,14
6.59624,11.8268,-0.236375,90,7
0.245349,0.438282,-0.134586,15,0
8.68072,15.5069,0.310199,20,8
0.294229,0.525383,-0.13902,13,1
11.5788,20.667,1.24151,20,9
3.01596,5.38098,-1.19904,23,2
11.3931,20.3188,2.03805,50,10
3.37665,6.01958,-1.09316,25,3
11.1898,19.9481,2.80836,36,11
3.82856,6.82242,-0.960574,18,4
12.7927,22.7869,4.13894,13,12
4.4548,7.93188,-0.795906,18,5
18.1286,32.2652,7.19388,28,13
5.31597,9.45747,-0.568578,37,6
22.6354,40.2535,10.6618,18,14
6.61103,11.7567,-0.235433,72,7
22.6915,40.3368,12.4011,32,15
0.248776,0.440787,-0.135621,15,0
8.68834,15.3879,0.308454,20,8
0.292318,0.517514,-0.13722,13,1
11.4177,20.2053,1.21629,29,9
3.02893,5.36016,-1.19675,23,2
11.7944,20.8635,2.09679,47,10
3.38695,5.98885,-1.08972,25,3
11.2306,19.85,2.80031,14,11
3.8506,6.80316,-0.959843,21,4
15.6267,27.5976,5.02311,20,12
4.48345,7.91801,-0.796081,18,5
18.9456,33.4453,7.4717,15,13
5.33024,9.40584,-0.566589,37,6
22.92,40.4285,10.7293,18,14
6.62152,11.6749,-0.234281,63,7
22.8183,40.2164,12.3897,48,15
0.254135,0.446632,-0.137692,14,0
8.6965,15.2776,0.306848,24,8
0.292195,0.513103,-0.13632,13,1
11.4604,20.1168,1.21336,35,9
3.04082,5.33762,-1.19408,23,2
11.7714,20.6543,2.07988,56,10
3.39903,5.96154,-1.08691,27,3
11.3165,19.84,2.80446,14,11
3.86744,6.7776,-0.958137,18,4
15.7376,27.5686,5.0278,16,12
4.50908,7.89885,-0.795732,18,5
19.1547,33.5409,7.50795,7,13
5.34917,9.3629,-0.565124,37,6
19.7209,34.5045,9.1753,13,14
6.6255,11.5875,-0.23299,82,7
23.0448,40.2875,12.4363,32,15
0.240313,0.418931,-0.12941,15,0
8.702,15.1638,0.305173,36,8
0.305626,0.532361,-0.141719,13,1
11.5724,20.1494,1.21775,14,9
3.04672,5.30484,-1.18912,23,2
11.8613,20.6441,2.08302,20,10
3.42178,5.95307,-1.08753,27,3
13.064,22.7189,3.21784,28,11
3.88811,6.7589,-0.957406,18,4
14.0287,24.3769,4.45463,12,12
4.51575,7.84681,-0.792071,18,5
19.3774,33.6576,7.54917,7,13
5.36986,9.3234,-0.563868,37,6
23.2036,40.2709,10.7302,18,14
6.63096,11.5037,-0.231768,82,7
0.241774,0.418089,-0.12941,15,0
8.72584,15.0832,0.304161,24,8
0.301626,0.521171,-0.13902,13,1
11.6366,20.0985,1.21713,14,9
3.05834,5.28228,-1.18645,26,2
11.9792,20.6819,2.09104,36,10
3.44155,5.93938,-1.08722,26,3
12.2303,21.0983,2.99433,49,11
3.90072,6.7264,-0.954725,22,4
17.0924,29.4623,5.3948,32,12
4.51512,7.78274,-0.787191,21,5
20.2004,34.8055,7.82241,8,13
5.38933,9.28214,-0.562507,37,6
23.1737,39.8965,10.6519,18,14
6.63993,11.4269,-0.230686,73,7
0.254906,0.437271,-0.135621,15,0
8.72505,14.9611,0.302311,28,8
0.299515,0.513382,-0.13722,13,1
11.5939,19.8646,1.2054,7,9
3.07774,5.27327,-1.18683,23,2
11.4998,19.6954,1.99534,52,10
3.4513,5.90856,-1.08378,23,3
13.2833,22.7317,3.23271,19,11
3.93019,6.72302,-0.956187,26,4
17.0606,29.1723,5.35256,18,12
4.54931,7.77897,-0.788411,16,5
19.0379,32.5404,7.32821,29,13
5.40152,9.2288,-0.560413,37,6
23.5994,40.3047,10.7828,18,14
6.65754,11.3657,-0.229918,73,7
0.268176,0.456365,-0.141833,14,0
8.72958,14.8495,0.30067,29,8
0.295378,0.502255,-0.134521,14,1
11.7351,19.9462,1.21283,7,9
3.09414,5.25911,-1.18607,26,2
11.6908,19.8629,2.01644,39,10
3.4699,5.89308,-1.08315,25,3
11.7728,19.9862,2.84809,15,11
3.95766,6.7161,-0.957162,22,4
18.5798,31.517,5.79465,10,12
4.57036,7.75274,-0.787365,18,5
19.8375,33.6372,7.59076,15,13
5.41442,9.17721,-0.558425,37,6
23.63,40.0358,10.7329,18,14
6.66464,11.2873,-0.228801,74,7
23.7466,40.2013,12.5108,32,15
0.269767,0.455426,-0.141833,14,0
8.75689,14.7777,0.299832,33,8
0.299118,0.504573,-0.135421,27,1
11.8155,19.9312,1.2143,15,9
3.10647,5.23814,-1.18378,23,2
11.6472,19.6318,1.99709,52,10
3.49247,5.88433,-1.08378,22,3
11.8617,19.9774,2.85272,52,11
3.97297,6.68859,-0.955212,20,4
17.7208,29.8333,5.49586,19,12
4.575,7.69906,-0.78353,18,5
19.3078,32.4792,7.34462,7,13
5.43723,9.1428,-0.557483,37,6
23.941,40.2411,10.8102,18,14
6.68158,11.2307,-0.228103,74,7
23.8629,40.0941,12.502,16,15
0.277298,0.464434,-0.144939,14,0
8.76383,14.6781,0.298401,28,8
0.300789,0.503579,-0.135421,13,1
11.8891,19.8967,1.21472,26,9
3.11466,5.21041,-1.17996,26,2
11.6962,19.5585,1.99377,28,10
3.51602,5.87949,-1.08503,22,3
12.0645,20.1662,2.88538,7,11
3.99106,6.66857,-0.954237,18,4
17.9801,30.0306,5.54373,24,12
4.58752,7.65912,-0.78109,18,5
20.1336,33.6142,7.61633,15,13
5.45623,9.10587,-0.556331,38,6
24.0162,40.0646,10.7842,18,14
6.68372,11.1456,-0.226846,74,7
24.2949,40.4976,12.6542,16,15
0.248961,0.41385,-0.12941,15,0
8.78716,14.6012,0.297459,24,8
0.315612,0.524229,-0.141269,26,1
11.9183,19.7884,1.21064,28,9
3.1299,5.19669,-1.1792,26,2
12.5384,20.8097,2.12555,21,10
3.5304,5.85703,-1.08315,22,3
12.2106,20.2498,2.90342,38,11
4.00918,6.6461,-0.953018,18,4
17.5122,29.0189,5.36821,13,12
4.60054,7.62339,-0.778998,18,5
20.6039,34.1286,7.74914,8,13
5.48282,9.07822,-0.555808,38,6
23.7185,39.2566,10.5889,17,14
6.70087,11.0863,-0.226113,92,7
24.3072,40.1993,12.5874,33,15
0.250404,0.412978,-0.12941,15,0
8.81008,14.5243,0.296516,26,8
0.30733,0.506464,-0.13677,13,1
11.923,19.6408,1.20415,33,9
3.14089,5.17399,-1.17653,26,2
12.5768,20.7097,2.1198,37,10
3.54262,5.83117,-1.08065,22,3
12.2998,20.2376,2.9078,46,11
4.03236,6.63206,-0.953018,16,4
17.985,29.5685,5.48146,28,12
4.60848,7.57664,-0.77586,18,5
21.9333,36.0456,8.20173,8,13
5.4989,9.03344,-0.554238,38,6
24.3034,39.9092,10.7878,18,14
6.72183,11.0338,-0.22552,74,7
24.3066,39.8832,12.5149,32,15
0.276021,0.451663,-0.141833,14,0
8.82839,14.4405,0.295434,29,8
0.309096,0.505389,-0.13677,13,1
11.9672,19.5671,1.20205,35,9
3.15688,5.15964,-1.17577,26,2
12.6345,20.6418,2.11736,59,10
3.54851,5.79518,-1.07627,22,3
12.3662,20.1877,2.90683,7,11
4.03993,6.59256,-0.949362,15,4
18.1067,29.5474,5.48866,23,12
4.63178,7.55542,-0.775338,16,5
21.9615,35.8098,8.16548,17,13
5.51891,8.99546,-0.553086,38,6
24.3263,39.6348,10.7365,18,14
6.74479,10.9893,-0.225066,92,7
24.5499,39.9835,12.5719,33,15
0.263412,0.427669,-0.134586,15,0
8.84897,14.3669,0.294527,21,8
0.307703,0.499384,-0.135421,27,1
12.2996,19.9536,1.22843,36,9
3.16457,5.13188,-1.17195,26,2
12.8309,20.7994,2.1381,10,10
3.56771,5.78338,-1.07627,22,3
17.0608,27.6454,3.98878,26,11
4.05238,6.56392,-0.947169,22,4
17.6762,28.6202,5.32785,4,12
4.64346,7.51547,-0.772897,15,5
21.2804,34.4424,7.86973,8,13
5.53506,8.95503,-0.551726,38,6
24.5683,39.733,10.7851,18,14
6.76628,10.9384,-0.224508,64,7
24.3631,39.3703,12.4057,16,15
0.291312,0.469472,-0.148044,13,0
8.87691,14.3003,0.293794,29,8
0.310473,0.499962,-0.13587,13,1
12.2574,19.7307,1.21733,17,9
3.1795,5.11802,-1.17119,26,2
13.2879,21.3812,2.20243,63,10
3.5837,5.76418,-1.07502,26,3
16.9612,27.2705,3.9432,25,11
4.06163,6.52783,-0.944,15,4
17.7749,28.5566,5.32753,18,12
4.66019,7.48399,-0.771328,16,5
21.388,34.3479,7.86515,16,13
5.5515,8.91192,-0.55026,38,6
24.6667,39.5825,10.7675,18,14
6.77163,10.8622,-0.223426,75,7
24.7682,39.7144,12.5413,16,15
0.268441,0.429095,-0.135621,15,0
8.8939,14.2166,0.292712,19,8
0.328757,0.525306,-0.143069,12,1
12.163,19.4271,1.20122,22,9
3.1899,5.09303,-1.16813,26,2
12.9526,20.6722,2.13427,59,10
3.59641,5.73762,-1.07251,26,3
13.1934,21.0483,3.05015,8,11
4.06436,6.48165,-0.939369,22,4
12.9388,20.6261,3.85642,9,12
4.66616,7.43562,-0.768016,15,5
21.4992,34.246,7.8598,16,13
5.56394,8.85938,-0.548272,38,6
24.7867,39.4522,10.7567,18,14
6.77864,10.7894,-0.222413,84,7
24.6096,39.155,12.3917,32,15
0.2823,0.447766,-0.141833,14,0
8.90007,14.1112,0.291211,24,8
0.322362,0.510912,-0.13947,13,1
12.1275,19.2135,1.19075,17,9
3.20975,5.08518,-1.1689,26,2
13.0342,20.642,2.13584,48,10
3.60376,5.70499,-1.06876,27,3
12.948,20.4897,2.97605,48,11
4.0849,6.46168,-0.938638,23,4
13.0153,20.5803,3.85674,26,12
4.6838,7.40331,-0.766448,16,5
21.6627,34.2405,7.87583,16,13
5.58629,8.8264,-0.547434,38,6
24.9044,39.3341,10.7482,18,14
6.79782,10.7323,-0.22175,100,7
25.364,40.029,12.6977,16,15
0.310883,0.489118,-0.155291,12,0
8.89886,14.0007,0.28957,26,8
0.317869,0.499917,-0.13677,13,1
11.949,18.7852,1.16678,17,9
3.21888,5.05847,-1.16546,26,2
13.0926,20.5672,2.13305,26,10
3.61403,5.67508,-1.06563,28,3
13.0941,20.5616,2.99311,41,11
4.10424,6.44236,-0.937907,25,4
17.5046,27.4662,5.15858,21,12
4.71175,7.39028,-0.766796,16,5
20.9709,32.8797,7.58046,15,13
5.59281,8.76546,-0.544922,38,6
25.0652,39.2689,10.7554,18,14
6.82125,10.6866,-0.221297,93,7
0.285497,0.445734,-0.141833,14,0
8.89833,13.8872,0.287895,30,8
0.317596,0.495467,-0.13587,13,1
11.8949,18.5496,1.15485,22,9
3.2397,5.05217,-1.16661,26,2
15.5795,24.2862,2.52438,58,10
3.63062,5.65744,-1.06469,28,3
13.5018,21.0313,3.06867,43,11
4.11387,6.40556,-0.934738,28,4
17.7323,27.5996,5.19581,8,12
4.7248,7.35117,-0.76453,16,5
25.7667,40.0896,9.2634,10,13
5.61258,8.72908,-0.543875,38,6
25.1515,39.1025,10.7338,18,14
6.83332,10.6195,-0.220424,75,7
0.274554,0.425209,-0.135621,15,0
8.88276,13.757,0.285836,24,8
0.321438,0.49763,-0.13677,13,1
12.0138,18.5918,1.16008,19,9
3.25287,5.03201,-1.1647,26,2
15.0387,23.2552,2.42293,6,10
3.6524,5.64576,-1.06501,28,3
13.1158,20.274,2.96484,16,11
4.13298,6.38616,-0.934007,26,4
17.9605,27.7415,5.2343,30,12
4.73852,7.31624,-0.762613,16,5
19.3203,29.819,6.90652,6,13
5.63693,8.69672,-0.543143,38,6
25.4495,39.2487,10.7995,18,14
6.84206,10.552,-0.219516,84,7
8.87073,13.6337,0.283916,19,8
0.329552,0.506304,-0.13947,13,1
12.1287,18.6339,1.16521,19,9
3.27168,5.02449,-1.16546,26,2
15.7693,24.2086,2.52769,43,10
3.6614,5.61872,-1.06219,26,3
13.644,20.9299,3.0677,43,11
4.16063,6.3824,-0.935469,25,4
18.2995,28.0607,5.30594,22,12
4.76711,7.30716,-0.76331,16,5
19.2882,29.5542,6.85997,25,13
5.65373,8.65958,-0.541991,38,6
25.6664,39.3122,10.839,18,14
6.85624,10.4974,-0.218853,95,7
26.9855,41.3011,13.2194,18,15
0.285837,0.436307,-0.139762,14,0
8.85781,13.5155,0.282066,22,8
0.324818,0.49543,-0.13677,13,1
12.2047,18.6153,1.16657,21,9
3.29155,5.01854,-1.16661,26,2
16.0583,24.4743,2.56098,29,10
3.67026,5.59168,-1.05937,26,3
17.5835,26.7785,3.93346,12,11
4.17742,6.36193,-0.934494,22,4
18.0075,27.4138,5.19488,17,12
4.79241,7.29298,-0.763484,16,5
19.5004,29.664,6.90042,6,13
5.66376,8.61242,-0.540212,38,6
25.7998,39.2318,10.8404,18,14
6.86683,10.4379,-0.218085,85,7
27.0565,41.1114,13.1873,18,15
0.278771,0.422457,-0.135621,15,0
8.84969,13.406,0.28039,21,8
0.326459,0.49435,-0.13677,13,1
12.2454,18.5359,1.16427,16,9
3.30797,5.00538,-1.16622,26,2
17.0962,25.8687,2.71281,32,10
3.68551,5.57454,-1.05844,26,3
17.14,25.9154,3.815,12,11
4.1985,6.34565,-0.93425,23,4
18.2099,27.5122,5.22554,17,12
4.80794,7.26125,-0.761916,16,5
19.2483,29.0589,6.77525,6,13
5.67503,8.56429,-0.538432,38,6
25.9409,39.1479,10.8422,18,14
6.88554,10.3872,-0.217527,85,7
26.3201,39.69,12.7608,17,15
0.293156,0.440735,-0.141833,14,0
8.86332,13.3202,0.279273,22,8
