x, y, z, intensity, ring
-0.360772,-0.870982,0.252607,1,15
-0.244023,-0.584215,-0.033181,28,6
-0.371266,-0.887539,0.257784,1,15
-0.241404,-0.572319,-0.032553,29,6
-0.375865,-0.889797,0.258819,1,15
-0.2526,-0.59451,-0.102308,14,3
-0.249661,-0.586173,-0.0333903,28,6
-0.25457,-0.593669,-0.102308,14,3
-0.240561,-0.559653,-0.0319249,30,6
-0.582798,-1.35519,0.340576,1,14
-0.228478,-0.527477,-0.0910449,16,3
-0.238634,-0.549607,-0.0314016,15,6
-0.579996,-1.33518,0.336077,1,14
-0.305947,-0.704302,-0.0134034,5,7
-0.258811,-0.591833,-0.102308,14,3
-0.248569,-0.567063,-0.0324483,29,6
-0.59248,-1.35099,0.340576,1,14
-0.260773,-0.590971,-0.102308,14,3
-0.250448,-0.566236,-0.0324483,29,6
-0.604054,-1.36506,0.344625,1,14
-0.310856,-0.702149,-0.0134034,5,7
-0.260566,-0.583595,-0.033495,14,6
-0.616764,-1.38073,0.349124,1,14
-0.313305,-0.701059,-0.0134034,5,7
-0.246284,-0.546222,-0.0314016,30,6
-0.622621,-1.38024,0.349574,1,14
-0.315751,-0.699961,-0.0134034,5,7
-0.261426,-0.574444,-0.0330763,28,6
-0.620975,-1.36387,0.345975,1,14
-0.250925,-0.546304,-0.0315063,30,6
-0.320751,-0.697684,-0.0134034,5,7
-0.253671,-0.547237,-0.0316109,30,6
-0.323063,-0.696617,-0.0134034,5,7
-0.261406,-0.559057,-0.0323436,29,6
-0.254833,-0.540079,-0.0312969,31,6
-0.327919,-0.694344,-0.0134034,5,7
-0.249173,-0.524993,-0.112959,16,2
-0.257575,-0.540989,-0.0314016,30,6
-0.33034,-0.693195,-0.0134034,5,7
-0.26984,-0.56169,-0.0326576,29,6
-0.332637,-0.692096,-0.0134034,5,7
-0.252832,-0.52324,-0.112959,16,2
-0.262122,-0.541021,-0.0315063,30,6
-0.335051,-0.690931,-0.0134034,5,7
-0.254565,-0.522399,-0.112959,16,2
-0.262255,-0.536514,-0.0312969,31,6
-0.314612,-0.643055,-0.0124959,6,7
-0.256387,-0.521507,-0.112959,16,2
-0.262359,-0.532012,-0.0310876,31,6
-0.339866,-0.688575,-0.0134034,5,7
-0.265994,-0.53467,-0.0312969,31,6
-0.342268,-0.687384,-0.0134034,5,7
-0.268755,-0.535523,-0.0314016,30,6
-0.344665,-0.686185,-0.0134034,5,7
-0.267014,-0.527454,-0.0309829,15,6
-0.347058,-0.684978,-0.0134034,5,7
-0.755072,-1.47936,0.322849,1,13
-0.274303,-0.537191,-0.0316109,30,6
-0.242931,-0.473302,-0.122823,15,1
-0.753941,-1.46449,0.320178,2,13
-0.267032,-0.518475,-0.0305642,15,6
-0.244499,-0.472494,-0.122823,15,1
-0.768741,-1.48115,0.324375,2,13
-0.265068,-0.510496,-0.0301455,16,6
-0.246065,-0.471681,-0.122823,15,1
-0.789122,-1.50817,0.330863,3,13
-0.277875,-0.530848,-0.0314016,15,6
-0.247628,-0.470862,-0.122823,15,1
-0.790455,-1.4986,0.329336,2,13
-0.281498,-0.533456,-0.0316109,15,6
-0.249434,-0.469908,-0.122823,15,1
-0.811888,-1.52501,0.335824,1,13
-0.264766,-0.497115,-0.0295175,16,6
-0.251072,-0.469034,-0.122823,15,1
-0.292961,-0.545455,-0.0324483,14,6
-0.252708,-0.468155,-0.122823,15,1
-0.232078,-0.423548,-0.12941,15,0
-0.283889,-0.505264,-0.155291,12,0
-0.286688,-0.505484,-0.112959,16,2
-0.239508,-0.419391,-0.12941,15,0
-0.288451,-0.50448,-0.112959,16,2
-0.290122,-0.503521,-0.112959,16,2
-0.940983,-1.63049,0.298164,1,12
-0.291878,-0.502505,-0.112959,16,2
-0.936734,-1.61012,0.295035,2,12
-0.293543,-0.501534,-0.112959,16,2
-0.937352,-1.59832,0.293471,4,12
-0.295292,-0.500507,-0.112959,16,2
-0.942926,-1.59504,0.293471,2,12
-0.297037,-0.499473,-0.112959,16,2
-0.965395,-1.62075,0.29879,1,12
-0.278591,-0.464755,-0.105327,18,2
-0.30043,-0.49744,-0.112959,16,2
-0.302165,-0.496388,-0.112959,16,2
-1.04409,-1.70313,0.0348699,1,8
-0.303895,-0.49533,-0.112959,16,2
-1.03216,-1.67056,0.0342765,5,8
-1.063,-1.71913,0.105928,1,9
-0.305623,-0.494266,-0.112959,16,2
-1.03904,-1.66864,0.0343114,8,8
-1.06869,-1.71559,0.105928,4,9
-0.292809,-0.46987,-0.107616,17,2
-1.06668,-1.71104,0.176403,1,10
-1.0467,-1.66858,0.0343812,5,8
-1.07225,-1.70865,0.105719,5,9
-0.30898,-0.492174,-0.112959,16,2
-1.05752,-1.68387,0.173963,1,10
-1.04367,-1.66053,0.240814,1,11
-1.07578,-1.70171,0.105509,1,9
-0.31061,-0.491147,-0.112959,16,2
-1.06842,-1.68877,0.174834,5,10
-1.06403,-1.68054,0.244226,1,11
-0.297469,-0.466933,-0.107616,17,2
-1.09436,-1.71714,0.178146,1,10
-0.292813,-0.455928,-0.105327,18,2
-0.294482,-0.454852,-0.105327,18,2
-0.296068,-0.453822,-0.105327,18,2
-0.319135,-0.485651,-0.112959,16,2
-1.13102,-1.70879,0.107393,1,9
-0.299072,-0.451848,-0.105327,18,2
-1.13255,-1.69818,0.106975,1,9
-0.29629,-0.444268,-0.1038,18,2
-1.11902,-1.67727,0.176403,1,10
-1.15376,-1.71827,0.0361265,1,8
-1.12733,-1.67764,0.105928,1,9
-0.302297,-0.449696,-0.105327,18,2
-1.12487,-1.67336,0.176403,1,10
-1.04232,-1.54647,0.430556,1,14
-1.16005,-1.71403,0.0361265,1,8
-1.15139,-1.69996,0.107603,1,9
-0.325968,-0.481091,-0.112959,16,2
-1.131,-1.66922,0.176403,1,10
-1.04798,-1.54264,0.430556,1,14
-1.15056,-1.68603,0.106975,1,9
-0.328753,-0.481572,-0.113341,16,2
-1.13711,-1.66507,0.176403,1,10
-1.14262,-1.66129,0.176403,1,10
-1.05846,-1.53547,0.430556,1,14
-1.06381,-1.53177,0.430556,1,14
-0.311145,-0.446016,-0.105708,18,2
-1.06915,-1.52805,0.430556,1,14
-0.3127,-0.444927,-0.105708,18,2
-1.07448,-1.5243,0.430556,1,14
-0.323327,-0.456651,-0.108761,17,2
-1.27525,-1.78982,0.0383604,1,8
-0.297485,-0.417212,-0.0996023,19,2
-1.23098,-1.72069,-0.0369293,1,7
-1.20337,-1.67652,0.0360218,4,8
-1.23744,-1.72272,0.111162,1,9
-0.305811,-0.425739,-0.101892,19,2
-1.22997,-1.70665,-0.0367199,1,7
-1.21273,-1.67717,0.0361265,7,8
-1.21301,-1.67632,0.10844,1,9
-0.30039,-0.415125,-0.0996023,19,2
-1.27351,-1.75413,-0.0378368,1,7
-1.22564,-1.68262,0.0363359,6,8
-0.315715,-0.433112,-0.104182,18,2
-1.24097,-1.69123,0.0366151,1,8
-0.321873,-0.438337,-0.105708,18,2
-1.33096,-1.81056,0.275912,1,11
-0.984459,-1.33626,-0.028971,1,7
-0.346751,-0.468779,-0.113341,16,2
-0.980775,-1.32158,-0.0287267,4,7
-1.32668,-1.78117,0.116395,1,9
-0.348386,-0.467565,-0.113341,16,2
-0.983955,-1.31672,-0.0286918,9,7
-1.3233,-1.76375,0.115558,1,9
-0.326445,-0.434943,-0.105708,18,2
-1.33025,-1.77173,0.193834,1,10
-0.998167,-1.32606,-0.028971,6,7
-1.33154,-1.76254,0.115767,1,9
-0.35156,-0.465183,-0.113341,16,2
-1.33612,-1.76731,0.193834,1,10
-1.3558,-1.79203,0.275912,1,11
-1.00618,-1.32752,-0.0290757,5,7
-1.31592,-1.72927,0.113883,1,9
-0.353182,-0.463953,-0.113341,16,2
-1.34228,-1.76264,0.193834,1,10
-1.33286,-1.74963,0.270062,1,11
-1.01081,-1.324,-0.0290757,5,7
-1.34412,-1.75296,0.115767,1,9
-1.3363,-1.74213,0.192091,1,10
-1.36827,-1.78253,0.275912,1,11
-1.00102,-1.30127,-0.0286569,5,7
-1.34535,-1.74194,0.115348,1,9
-1.33019,-1.72169,0.190348,1,10
-1.34535,-1.74005,0.270062,1,11
-1.34058,-1.73263,0.346972,1,12
-1.00556,-1.29776,-0.0286569,5,7
-1.34109,-1.72332,0.191045,1,10
-1.38068,-1.77293,0.275912,1,11
-1.37545,-1.76557,0.354481,1,12
-1.01109,-1.296,-0.0286918,6,7
-1.43075,-1.82733,0.121629,1,9
-0.359545,-0.45904,-0.113341,16,2
-1.36646,-1.74396,0.193834,1,10
-1.36206,-1.7371,0.271037,1,11
-1.38374,-1.76411,0.355106,1,12
-1.01909,-1.29736,-0.0287965,5,7
-0.361065,-0.457845,-0.113341,16,2
-1.37223,-1.73942,0.193834,1,10
-1.39241,-1.76373,0.275912,1,11
-1.37274,-1.73757,0.350726,1,12
-1.40722,-1.78058,0.44115,1,13
-1.01244,-1.27968,-0.0284823,5,7
-1.3783,-1.73462,0.193834,1,10
-1.39856,-1.75886,0.275912,1,11
-1.38618,-1.74204,0.352603,1,12
-1.38164,-1.73572,0.431228,1,13
-1.01815,-1.2777,-0.0285172,5,7
-1.31016,-1.64356,0.56319,1,15
-1.04763,-1.31046,0.0292851,1,8
-1.44981,-1.81225,0.121629,1,9
-1.40469,-1.75397,0.275912,1,11
-1.38237,-1.72486,0.3501,1,12
-1.39506,-1.74007,0.433518,1,13
-1.02511,-1.27726,-0.028587,6,7
-1.0246,-1.27253,0.0285172,2,8
-1.45612,-1.80718,0.121629,1,9
-1.40575,-1.74154,0.354481,1,12
-1.37799,-1.70593,0.426267,1,13
-1.41739,-1.75346,0.520537,1,14
-1.03082,-1.27523,-0.0286219,6,7
-1.02422,-1.26255,0.0283776,4,8
-1.49547,-1.84214,0.12435,1,9
-1.42459,-1.7517,0.357609,1,12
-1.37898,-1.69502,0.424741,1,13
-1.3989,-1.71828,0.511539,1,14
-1.02791,-1.26214,-0.0284125,7,7
-1.03495,-1.26671,0.0285521,5,8
-1.46902,-1.79671,0.121629,1,9
-1.47836,-1.8075,0.204293,1,10
-1.45072,-1.77117,0.362615,1,12
-1.38986,-1.69627,0.426267,1,13
-1.38265,-1.68626,0.50344,1,14
-1.04118,-1.26936,-0.0286569,9,7
-1.04572,-1.27081,0.0287267,5,8
-1.49052,-1.81007,0.122885,1,9
-1.44413,-1.75311,0.198715,1,10
-1.45689,-1.7661,0.362615,1,12
-1.41327,-1.71261,0.43161,1,13
-1.40342,-1.69946,0.508839,1,14
-1.03542,-1.25339,-0.0283776,9,7
-1.03483,-1.24868,0.0283078,5,8
-1.49683,-1.80486,0.122885,1,9
-1.44006,-1.7358,0.197321,1,10
-1.41422,-1.70162,0.430084,1,13
-1.41931,-1.70653,0.512438,1,14
-1.04107,-1.2513,-0.0284125,10,7
-1.40636,-1.68977,0.589072,1,15
-1.03406,-1.23892,0.0281682,5,8
-1.51336,-1.81189,0.123722,1,9
-1.47422,-1.76439,0.201155,1,10
-1.50508,-1.80006,0.288099,1,11
-1.48693,-1.77709,0.366995,1,12
-1.40503,-1.67861,0.425504,1,13
-1.42275,-1.69858,0.511539,1,14
-1.04928,-1.25226,-0.0285172,12,7
-1.41225,-1.68485,0.589072,1,15
-1.04867,-1.24755,0.0284474,5,8
-1.48111,-1.76074,0.120582,1,9
-1.46497,-1.74094,0.199064,1,10
-1.51136,-1.7948,0.288099,1,11
-1.47531,-1.75074,0.362615,1,12
-1.44125,-1.70972,0.434663,1,13
-1.4136,-1.67573,0.50614,1,14
-1.05365,-1.24859,-0.0285172,12,7
-1.41813,-1.67991,0.589072,1,15
-1.05819,-1.24998,0.028587,5,8
-1.48177,-1.74972,0.120163,1,9
-1.47104,-1.73582,0.199064,1,10
-1.48423,-1.75015,0.281762,1,11
-1.545,-1.82116,0.378259,1,12
-1.46754,-1.72863,0.440769,1,13
-1.41944,-1.67078,0.50614,1,14
-1.05907,-1.24661,-0.0285521,11,7
-1.42369,-1.6752,0.589072,1,15
-1.06233,-1.24647,0.028587,5,8
-1.48269,-1.73846,0.119745,1,9
-0.378452,-0.443581,-0.113341,16,2
-1.47968,-1.73371,0.199412,1,10
-1.50292,-1.76031,0.284199,1,11
-1.55135,-1.81575,0.378259,1,12
-1.42497,-1.66607,0.50614,1,14
-1.05692,-1.23531,-0.0283776,12,7
-1.42953,-1.67022,0.589072,1,15
-1.06667,-1.24275,0.028587,5,8
-1.49625,-1.74263,0.120373,1,9
-1.48023,-1.72274,0.198715,1,10
-1.54011,-1.79118,0.290049,1,11
-1.53675,-1.78664,0.373253,1,12
-1.47927,-1.7186,0.440769,1,13
-1.42569,-1.65518,0.50434,1,14
-1.0584,-1.22877,-0.0283078,27,7
-1.41993,-1.6479,0.582861,1,15
-1.07602,-1.24526,0.0287267,7,8
-1.49187,-1.72531,0.119535,1,9
-1.47319,-1.7025,0.196972,1,10
-1.50187,-1.73503,0.281762,1,11
-1.54556,-1.78425,0.373878,1,12
-1.44138,-1.66222,0.507939,1,14
-1.41807,-1.63418,0.579755,1,15
-1.0843,-1.24602,0.0288314,13,8
-0.349308,-0.401266,-0.122823,15,1
-1.49002,-1.71105,0.118907,1,9
-1.47621,-1.6946,0.196623,1,10
-1.5027,-1.72379,0.280787,1,11
-1.55698,-1.7848,0.37513,1,12
-1.44205,-1.65131,0.50614,1,14
-1.43902,-1.64668,0.585966,1,15
-1.10599,-1.26159,0.0292851,40,8
-0.350776,-0.399983,-0.122823,15,1
-1.48838,-1.69657,0.118279,1,9
-1.50344,-1.71314,0.199412,1,10
-1.50901,-1.71827,0.280787,1,11
-1.54525,-1.75831,0.37075,1,12
-1.44552,-1.64308,0.50524,1,14
-1.08067,-1.22794,-0.0285521,185,7
-1.45271,-1.65009,0.589072,1,15
-1.11061,-1.25753,0.0292851,100,8
-0.326435,-0.369487,-0.113825,16,1
-1.48106,-1.6764,0.117233,1,9
-1.49387,-1.68971,0.197321,1,10
-1.51267,-1.70976,0.2803,1,11
-1.53305,-1.73219,0.36637,1,12
-1.45383,-1.64095,0.50614,1,14
-1.45077,-1.63634,0.585966,1,15
-1.39901,-1.57298,0.110324,1,9
-1.50212,-1.68772,0.197669,1,10
-1.52889,-1.71659,0.282249,1,11
-1.55456,-1.7448,0.370124,1,12
-1.50077,-1.68265,0.520537,1,14
-1.4459,-1.61999,0.581825,1,15
-0.386443,-0.43191,-0.155291,12,0
-1.10292,-1.23225,0.0288663,187,8
-0.328878,-0.367313,-0.113825,16,1
-1.35892,-1.51774,0.106765,2,9
-1.51302,-1.68866,0.198366,1,10
-1.53987,-1.71742,0.283224,1,11
-1.54451,-1.72199,0.36637,1,12
-1.54087,-1.71673,0.448401,1,13
-1.50634,-1.67767,0.520537,1,14
-1.45384,-1.61806,0.582861,1,15
-0.323228,-0.358855,-0.12941,15,0
-1.11771,-1.24047,0.0291455,186,8
-0.330094,-0.366221,-0.113825,16,1
-1.36796,-1.51767,0.107079,2,9
-1.50527,-1.66884,0.196623,1,10
-1.52694,-1.69168,0.279812,1,11
-1.53962,-1.70513,0.363867,1,12
-1.5742,-1.7422,0.456415,1,13
-1.10512,-1.2222,-0.0287616,10,7
-1.46179,-1.6161,0.583896,1,15
-1.133,-1.24821,0.0294248,189,8
-0.339294,-0.373665,-0.116525,16,1
-1.36572,-1.50354,0.106451,4,9
-1.48994,-1.63972,0.193834,1,10
-1.53847,-1.69194,0.280787,1,11
-1.55147,-1.70505,0.365118,1,12
-1.57264,-1.72771,0.454125,1,13
-1.10577,-1.21352,-0.0286569,12,7
-1.46799,-1.61047,0.583896,1,15
-1.1414,-1.24868,0.0295295,191,8
-0.332706,-0.363849,-0.113825,16,1
-1.36152,-1.48845,0.105719,4,9
-1.49594,-1.63425,0.193834,1,10
-1.55241,-1.69535,0.282249,1,11
-1.56275,-1.70544,0.36637,1,12
-1.56835,-1.71035,0.451072,1,13
-0.66789,-0.727853,-0.017243,21,7
-1.48666,-1.61957,0.589072,1,15
-1.14461,-1.24302,0.0294946,197,8
-1.37618,-1.49397,0.106451,4,9
-1.48003,-1.60558,0.191045,1,10
-1.564,-1.69548,0.283224,1,11
-1.56334,-1.69417,0.365118,1,12
-1.56632,-1.69621,0.448783,1,13
-1.47395,-1.59451,0.581825,1,15
-1.14329,-1.23335,0.0293549,203,8
-1.39199,-1.50111,0.107289,4,9
-1.47721,-1.5919,0.19,1,10
-1.55611,-1.67574,0.280787,1,11
-1.58508,-1.70635,0.368872,1,12
-1.57461,-1.69389,0.449546,1,13
-0.63333,-0.68083,-0.0162307,30,7
-1.47133,-1.58113,0.578719,1,15
-0.329442,-0.353159,-0.12941,15,0
-1.14874,-1.23101,0.0293899,192,8
-0.336435,-0.360404,-0.113825,16,1
-1.39859,-1.49771,0.107393,4,9
-1.51241,-1.61902,0.193834,1,10
-1.53454,-1.64157,0.275912,1,11
-1.56944,-1.67772,0.363867,1,12
-1.58022,-1.68866,0.449546,1,13
-0.661678,-0.706343,-0.0168939,2,7
-1.50326,-1.60417,0.589072,1,15
-0.330734,-0.351949,-0.12941,15,0
-1.15577,-1.22991,0.0294597,184,8
-1.38602,-1.4739,0.106033,4,9
-1.51833,-1.61347,0.193834,1,10
-1.51849,-1.61308,0.272012,1,11
-1.57528,-1.67223,0.363867,1,12
-1.59448,-1.69142,0.451836,1,13
-1.50885,-1.59892,0.589072,1,15
-1.38978,-1.4676,0.105928,4,9
-1.49654,-1.57923,0.190348,1,10
-1.50527,-1.58733,0.2686,1,11
-1.57567,-1.66099,0.362615,1,12
-1.59767,-1.683,0.451072,1,13
-1.61969,-1.70561,0.543032,1,14
-1.49845,-1.57684,0.582861,1,15
-0.348259,-0.365324,-0.116525,16,1
-1.40429,-1.4731,0.106661,4,9
-1.51552,-1.58868,0.192091,1,10
-1.52972,-1.60244,0.272012,1,11
-1.57299,-1.64719,0.360738,1,12
-1.59781,-1.67202,0.449546,1,13
-1.61726,-1.69178,0.540332,1,14
-1.50368,-1.57186,0.582861,1,15
-1.16284,-1.21217,0.02932,5,8
-1.40251,-1.46099,0.106137,3,9
-1.52078,-1.58364,0.192091,1,10
-1.55703,-1.62026,0.275912,1,11
-1.54586,-1.60751,0.353229,1,12
-1.60063,-1.66388,0.448783,1,13
-1.63127,-1.69454,0.543032,1,14
-1.49575,-1.55269,0.577684,1,15
-1.16428,-1.20523,0.0292502,5,8
-1.41038,-1.45896,0.106347,4,9
-1.54015,-1.59265,0.193834,1,10
-1.52402,-1.57487,0.269088,1,11
-1.56521,-1.6163,0.356358,1,12
-1.5791,-1.63008,0.44115,1,13
-1.62903,-1.68045,0.540332,1,14
-1.51461,-1.56132,0.582861,1,15
-1.16987,-1.20259,0.0292851,6,8
-1.40571,-1.44401,0.105614,4,9
-1.55682,-1.59868,0.195229,1,10
-1.53505,-1.57523,0.270062,1,11
-1.56532,-1.60517,0.355106,1,12
-1.58478,-1.62456,0.44115,1,13
-1.62128,-1.6608,0.535833,1,14
-1.53625,-1.57261,0.589072,1,15
-1.17826,-1.20278,0.0293899,6,8
-1.41074,-1.43909,0.105614,4,9
-1.55124,-1.58186,0.193834,1,10
-1.57391,-1.60386,0.275912,1,11
-1.57092,-1.59969,0.355106,1,12
-1.59045,-1.61902,0.44115,1,13
-1.6298,-1.65791,0.536733,1,14
-1.54173,-1.56724,0.589072,1,15
-0.339114,-0.343882,-0.12941,15,0
-1.18105,-1.19724,0.0293549,5,8
-1.42558,-1.44411,0.106347,4,9
-1.55675,-1.57643,0.193834,1,10
-1.59345,-1.61248,0.27835,1,11
-1.57649,-1.5942,0.355106,1,12
-1.59609,-1.61345,0.44115,1,13
-1.62461,-1.64114,0.533134,1,14
-1.54719,-1.56185,0.589072,1,15
-1.17677,-1.1846,0.0291455,5,8
-0.375001,-0.377365,-0.122823,15,1
-1.4292,-1.43771,0.106242,4,9
-1.55987,-1.56751,0.271525,1,11
-1.56532,-1.57189,0.351352,1,12
-1.58785,-1.59396,0.437334,1,13
-1.61382,-1.61889,0.527735,1,14
-1.18231,-1.1819,0.0291804,3,8
-0.376316,-0.376054,-0.122823,15,1
-1.42972,-1.42872,0.105928,2,9
-1.19834,-1.19667,0.148165,1,10
-1.56252,-1.55925,0.271037,1,11
-1.60689,-1.60296,0.359486,1,12
-1.59063,-1.58564,0.436571,1,13
-1.61393,-1.60775,0.525936,1,14
-1.18906,-1.18079,0.0292502,2,8
-0.377561,-0.374804,-0.122823,15,1
-1.41485,-1.40403,0.104463,1,9
-1.21383,-1.2037,0.149559,2,10
-1.57332,-1.55965,0.272012,1,11
-1.61247,-1.59735,0.359486,1,12
-1.61262,-1.59693,0.44115,1,13
-1.63034,-1.61335,0.529535,1,14
-1.19745,-1.18084,0.0293549,3,8
-0.359438,-0.354331,-0.116525,16,1
-1.22627,-1.20842,0.0902272,1,9
-1.20646,-1.18849,0.148165,1,10
-1.6124,-1.58617,0.358235,1,12
-1.61818,-1.59129,0.44115,1,13
-1.6304,-1.60219,0.527735,1,14
-1.18299,-1.15847,0.0289012,2,8
-0.352318,-0.344894,-0.113825,16,1
-1.15911,-1.13429,0.0849936,1,9
-1.18497,-1.15919,0.145027,1,10
-1.59815,-1.5612,0.353855,1,12
-1.60125,-1.56369,0.435045,1,13
-1.63319,-1.59377,0.526835,1,14
-1.18272,-1.15015,0.0287965,1,8
-0.381465,-0.37083,-0.122823,15,1
-1.16,-1.12766,0.0847843,2,9
-1.18043,-1.14672,0.143981,1,10
-1.21924,-1.18359,0.20864,1,11
-1.59481,-1.54764,0.351978,2,12
-1.6067,-1.55809,0.435045,1,13
-1.63875,-1.58806,0.526835,1,14
-1.62898,-1.57804,0.607707,1,15
-1.18365,-1.14344,0.0287267,1,8
-0.354657,-0.342488,-0.113825,16,1
-1.16393,-1.1236,0.0847843,2,9
-1.17009,-1.12876,0.142238,2,10
-1.18886,-1.14647,0.202791,1,11
-1.61727,-1.55851,0.355732,1,12
-1.6062,-1.54731,0.433518,1,13
-1.6412,-1.57991,0.525936,1,14
-1.22516,-1.17529,0.0296342,1,8
-0.35585,-0.341248,-0.113825,16,1
-1.17342,-1.12526,0.0852029,2,9
-1.15656,-1.10833,0.140146,2,10
-1.17278,-1.12309,0.199378,1,11
-1.60531,-1.53675,0.351978,1,12
-1.62578,-1.55526,0.437334,1,13
-1.64107,-1.56878,0.524136,1,14
-1.15667,-1.10225,0.0278889,1,8
-0.3852,-0.366949,-0.122823,15,1
-1.16866,-1.1129,0.0845749,3,9
-1.16331,-1.10703,0.140495,3,10
-1.19664,-1.13835,0.202791,1,11
-1.63093,-1.54986,0.437334,1,13
-1.63495,-1.5526,0.520537,1,14
-1.18956,-1.12569,0.028587,1,8
-0.358165,-0.338818,-0.113825,16,1
-1.17234,-1.10902,0.0845749,2,9
-1.14236,-1.0799,0.137532,3,10
-1.17463,-1.10963,0.198403,3,11
-1.62776,-1.53607,0.435045,1,13
-1.66021,-1.5656,0.526835,1,14
-1.66999,-1.57427,0.614954,1,15
-1.12043,-1.05326,0.0268418,1,8
-0.387689,-0.364319,-0.122823,15,1
-1.17621,-1.10492,0.0845749,2,9
-1.16065,-1.08954,0.139275,4,10
-1.16962,-1.09757,0.196941,3,11
-1.62712,-1.5253,0.433518,1,13
-1.65686,-1.55209,0.524136,1,14
-1.65573,-1.54995,0.607707,1,15
-1.15937,-1.08189,0.0276795,1,8
-0.389021,-0.362895,-0.122823,15,1
-1.18006,-1.10081,0.0845749,2,9
-1.15862,-1.08005,0.138578,4,10
-1.16492,-1.08516,0.195478,4,11
-1.65282,-1.53805,0.438861,1,13
-1.65969,-1.54336,0.523236,1,14
-1.70641,-1.58625,0.624272,1,15
-1.13362,-1.05085,0.0269814,2,8
-0.361635,-0.335112,-0.113825,16,1
-1.18389,-1.09668,0.0845749,2,9
-1.16823,-1.08141,0.139275,4,10
-1.16705,-1.07994,0.195235,4,11
-1.65503,-1.52989,0.438097,1,13
-1.65621,-1.52991,0.520537,1,14
-1.72329,-1.59077,0.628413,1,15
-1.16377,-1.07126,0.0276097,2,8
-0.391482,-0.360239,-0.122823,15,1
-1.16419,-1.07091,0.0829002,2,9
-1.18061,-1.08562,0.140321,4,10
-1.16789,-1.07318,0.194747,6,11
-1.67015,-1.53202,0.523236,1,14
-1.69751,-1.55602,0.617025,1,15
-1.14241,-1.04426,0.0270163,2,8
-0.392737,-0.35887,-0.122823,15,1
-1.17972,-1.07761,0.0837375,2,9
-1.16085,-1.06,0.137532,2,10
-1.18043,-1.07712,0.19621,4,11
-1.25385,-1.14331,0.268754,1,12
-1.68413,-1.53406,0.525936,1,14
-1.69721,-1.54489,0.614954,1,15
-1.14012,-1.03489,0.0268767,2,8
-0.393988,-0.357497,-0.122823,15,1
-1.18329,-1.07369,0.0837375,3,9
-1.1424,-1.03587,0.134917,2,10
-1.1783,-1.06766,0.195235,6,11
-1.25763,-1.13915,0.268754,1,12
-1.77576,-1.60734,0.465574,1,13
-1.69237,-1.53078,0.526835,1,14
-1.67367,-1.51334,0.604601,1,15
-1.16583,-1.05119,0.0274003,2,8
-0.374906,-0.337922,-0.116525,16,1
-1.19296,-1.0749,0.0841562,3,9
-1.17562,-1.05854,0.138403,2,10
-1.17593,-1.05844,0.19426,6,11
-1.71483,-1.54079,0.532234,1,14
-1.69906,-1.52555,0.611848,1,15
-1.15459,-1.03377,0.0270512,1,8
-0.396412,-0.354807,-0.122823,15,1
-1.18164,-1.05762,0.0831095,4,9
-1.16131,-1.03869,0.136312,2,10
-1.18406,-1.0583,0.194991,4,11
-1.69258,-1.50962,0.607707,1,15
-1.17893,-1.04855,0.0275399,1,8
-0.397586,-0.35349,-0.122823,15,1
-1.18532,-1.05349,0.0831095,3,9
-1.16641,-1.03596,0.136486,3,10
-1.19053,-1.057,0.195478,6,11
-1.72676,-1.52932,0.61806,1,15
-1.21856,-1.07619,0.0283776,1,8
-0.398818,-0.3521,-0.122823,15,1
-1.20996,-1.06785,0.0845749,2,9
-1.16984,-1.03208,0.136486,2,10
-1.20314,-1.06071,0.196941,6,11
-1.69437,-1.49012,0.604601,1,15
-1.21328,-1.06402,0.0281682,1,8
-0.400045,-0.350706,-0.122823,15,1
-1.21518,-1.06494,0.0846796,2,9
-1.19892,-1.05031,0.139449,4,10
-1.20535,-1.0552,0.196697,6,11
-1.71994,-1.50198,0.611848,1,15
-1.18683,-1.03352,0.0274701,1,8
-0.401266,-0.349308,-0.122823,15,1
-1.2204,-1.062,0.0847843,4,9
-1.19055,-1.03566,0.138055,3,10
-1.19404,-1.03796,0.19426,7,11
-1.72225,-1.49344,0.610813,1,15
-1.23278,-1.06599,0.0284474,1,8
-1.23014,-1.06296,0.0852029,4,9
-1.20924,-1.04452,0.139798,4,10
-1.20066,-1.03638,0.194747,6,11
-1.28808,-1.10597,0.0296342,1,8
-1.2276,-1.05367,0.0847843,4,9
-1.20531,-1.03381,0.138926,3,10
-1.21482,-1.04123,0.196453,6,11
-1.23717,-1.05477,0.0852029,4,9
-1.19963,-1.02205,0.13788,2,10
-1.22431,-1.04234,0.197428,6,11
-1.24694,-1.05561,0.0856216,4,9
-1.21366,-1.02708,0.139101,1,10
-1.23534,-1.04469,0.198647,6,11
-2.55857,-2.16139,0.65104,1,13
-2.32448,-1.96226,0.702297,1,14
-1.46448,-1.2319,0.0334039,1,8
-1.2659,-1.0641,0.0866684,2,9
-1.20656,-1.01386,0.13788,2,10
-1.22226,-1.02632,0.195966,4,11
-2.56158,-2.14866,0.649895,2,13
-2.34625,-1.96665,0.706796,1,14
-2.11038,-1.76768,0.737634,2,15
-1.48412,-1.2396,0.033753,1,8
-1.24201,-1.03664,0.0847843,2,9
-1.22998,-1.02624,0.140146,2,10
-1.22279,-1.01951,0.195478,4,11
-2.92451,-2.43661,0.602898,1,12
-2.57963,-2.1485,0.652567,2,13
-2.34412,-1.95097,0.704097,1,14
-2.12248,-1.76525,0.739705,2,15
-1.50075,-1.24462,0.0340322,1,8
-1.26715,-1.05014,0.0862497,2,9
-1.23987,-1.02681,0.140844,2,10
-1.23092,-1.01903,0.19621,3,11
-2.87364,-2.37728,0.590697,3,12
-2.59051,-2.14154,0.65333,1,13
-2.36477,-1.95353,0.708146,1,14
-2.12863,-1.75783,0.739705,2,15
-1.50839,-1.24166,0.034102,1,8
-1.31245,-1.07998,0.0890758,2,9
-1.23114,-1.01235,0.139449,1,10
-1.25459,-1.0309,0.199378,3,11
-2.88039,-2.36598,0.590384,5,12
-2.66474,-2.18729,0.670121,1,13
-2.3622,-1.93826,0.705446,1,14
-2.12579,-1.74304,0.736599,2,15
-1.54656,-1.26449,0.0348699,1,8
-1.33303,-1.08952,0.0902272,3,9
-1.29004,-1.05363,0.145724,1,10
-1.27953,-1.0443,0.202791,1,11
-2.91118,-2.37515,0.595077,8,12
-2.67198,-2.17844,0.670121,1,13
-2.36861,-1.93042,0.705446,1,14
-2.11957,-1.72622,0.732458,2,15
-1.34923,-1.09493,0.0910646,4,9
-1.29353,-1.04935,0.145724,1,10
-1.28299,-1.04006,0.202791,1,11
-2.91945,-2.36497,0.595077,10,12
-2.392,-1.93562,0.710395,1,14
-2.12859,-1.72124,0.733493,2,15
-1.34838,-1.08645,0.0907506,4,9
-2.93077,-2.35724,0.595703,10,12
-2.62591,-2.11054,0.654857,1,13
-2.36261,-1.89756,0.699598,1,14
-2.14663,-1.72347,0.737634,2,15
-1.35392,-1.08275,0.0908552,1,9
-2.93476,-2.34279,0.594764,11,12
-2.62099,-2.09156,0.651804,2,13
-2.39208,-1.90752,0.706346,1,14
-2.14387,-1.70837,0.734528,2,15
-2.94061,-2.33488,0.196783,0,9
-2.98108,-2.36532,0.332935,1,10
-2.93053,-2.32271,0.592261,11,12
-2.6194,-2.07463,0.649514,2,13
-2.39447,-1.89511,0.704997,1,14
-2.13467,-1.68889,0.729352,2,15
-0.416148,-0.328301,-0.122373,15,1
-2.9452,-2.32264,0.196574,0,9
-2.9885,-2.35594,0.332935,1,10
-3.00956,-2.37084,0.470416,1,11
-2.93977,-2.3142,0.592574,10,12
-2.63979,-2.07731,0.652948,2,13
-2.4096,-1.89481,0.707696,1,14
-2.14937,-1.68896,0.732458,2,15
-2.95329,-2.31235,0.196574,0,9
-2.9967,-2.34549,0.332935,1,10
-2.9525,-2.30758,0.593512,10,12
-2.63465,-2.05842,0.649895,2,13
-2.4162,-1.88639,0.707696,1,14
-2.14155,-1.67075,0.727799,2,15
-2.93256,-2.28047,0.19469,0,9
-3.00487,-2.33502,0.332935,1,10
-3.02603,-2.34977,0.470416,1,11
-2.96638,-2.30262,0.594764,10,12
-2.64648,-2.05282,0.65104,2,13
-2.41045,-1.86839,0.704097,1,14
-2.16693,-1.67903,0.734528,2,15
-0.419507,-0.323998,-0.122373,15,1
-2.94051,-2.27022,0.19469,0,9
-3.013,-2.32452,0.332935,1,10
-3.03381,-2.33972,0.470416,1,11
-2.95875,-2.28019,0.591635,10,12
-2.6486,-2.04044,0.649895,2,13
-2.412,-1.85682,0.702747,1,14
-2.17125,-1.67027,0.734011,2,15
-0.420635,-0.322532,-0.122373,15,1
-2.96427,-2.2721,0.195736,0,9
-2.94162,-2.25392,0.324219,1,10
-3.04196,-2.32912,0.470416,1,11
-2.96669,-2.26985,0.591635,11,12
-2.64323,-2.02164,0.646843,2,13
-2.42311,-1.85194,0.704097,1,14
-2.17706,-1.66269,0.734011,2,15
-0.421759,-0.321061,-0.122373,15,1
-2.97536,-2.26415,0.195946,0,9
-3.02875,-2.30395,0.332935,1,10
-3.05007,-2.31849,0.470416,1,11
-2.97775,-2.26187,0.592261,10,12
-2.66435,-2.02308,0.650277,2,13
-2.44353,-1.85407,0.708146,1,14
-2.16592,-1.64224,0.728317,2,15
-0.422877,-0.319587,-0.122373,15,1
-2.98005,-2.25135,0.195736,0,9
-3.03678,-2.29337,0.332935,1,10
-3.05814,-2.30783,0.470416,1,11
-2.98878,-2.25384,0.592887,10,12
-2.67296,-2.01495,0.650659,2,13
-2.42976,-1.83029,0.702297,1,14
-2.18399,-1.64396,0.732458,2,15
-0.392814,-0.294719,-0.113375,16,1
-2.96553,-2.22415,0.194271,0,9
-3.04477,-2.28275,0.332935,1,10
-3.06618,-2.29714,0.470416,1,11
-2.9903,-2.23866,0.591635,10,12
-2.66897,-1.99737,0.647987,2,13
-2.43457,-1.82063,0.701847,1,14
-2.20519,-1.64789,0.737634,2,15
-0.425098,-0.316627,-0.122373,15,1
-2.97609,-2.21669,0.19448,0,9
-3.05272,-2.27211,0.332935,1,10
-3.07418,-2.28642,0.470416,1,11
-2.99454,-2.22637,0.591009,11,12
-2.68539,-1.99507,0.650277,2,13
-2.44059,-1.81254,0.701847,1,14
-2.20754,-1.63827,0.736599,2,15
-0.404211,-0.298992,-0.116075,16,1
-2.99627,-2.21631,0.195318,0,9
-3.06023,-2.26197,0.332935,1,10
-3.08175,-2.27621,0.470416,1,11
-2.99555,-2.21174,0.589758,11,12
-2.69199,-1.98615,0.650277,2,13
-2.44502,-1.80328,0.701397,1,14
-2.17874,-1.60572,0.725211,2,15
-0.427188,-0.313801,-0.122373,15,1
-2.99433,-2.19875,0.19469,1,9
-3.08928,-2.26598,0.470416,1,11
-3.00325,-2.20127,0.589758,11,12
-2.69064,-1.97142,0.648369,2,13
-2.45916,-1.8005,0.703647,1,14
-2.19681,-1.60723,0.729352,2,15
-3.03427,-2.21181,0.196783,0,9
-3.07595,-2.24056,0.332935,1,10
-3.09717,-2.25518,0.470416,1,11
-3.01251,-2.19193,0.590071,10,12
-2.68991,-1.95577,0.646461,2,13
-2.46102,-1.78803,0.702297,1,14
-2.21178,-1.60637,0.732458,2,15
-3.01608,-2.18247,0.195108,0,9
-3.08375,-2.2298,0.332935,1,10
-3.10541,-2.24382,0.470416,1,11
-3.02015,-2.1814,0.590071,11,12
-2.70149,-1.94981,0.647606,2,13
-2.46566,-1.77829,0.701847,1,14
-2.21111,-1.59412,0.730387,2,15
-3.01719,-2.16727,0.19469,0,9
-3.09152,-2.21903,0.332935,1,10
-3.11284,-2.23351,0.470416,1,11
-3.0165,-2.16279,0.587881,10,12
-2.71433,-1.94542,0.649132,2,13
-2.46046,-1.76216,0.698698,1,14
-2.22609,-1.59313,0.733493,2,15
-0.406144,-0.2897,-0.115175,16,1
-3.01823,-2.15209,0.194271,0,9
-3.09886,-2.20876,0.332935,1,10
-3.12061,-2.22263,0.470416,1,11
-3.03369,-2.15912,0.589758,10,12
-2.7275,-1.94048,0.650659,2,13
-2.4793,-1.7626,0.702297,1,14
-2.21274,-1.57193,0.727282,2,15
-3.04529,-2.15539,0.195527,1,9
-3.04837,-2.15597,0.32666,1,10
-3.12835,-2.21172,0.470416,1,11
-3.0396,-2.14738,0.589445,11,12
-2.71695,-1.91802,0.646461,2,13
-2.47778,-1.74788,0.700048,1,14
-2.22295,-1.56754,0.728835,2,15
-0.401828,-0.282305,-0.113375,16,1
-3.02664,-2.12637,0.193852,1,9
-3.07219,-2.15677,0.328403,1,10
-3.13644,-2.20024,0.470416,1,11
-3.05192,-2.14016,0.590384,11,12
-2.71881,-1.90514,0.645316,2,13
-2.49793,-1.74972,0.704097,1,14
-2.21416,-1.5498,0.724176,2,15
-3.03368,-2.11632,0.193852,0,9
-3.12182,-2.17619,0.332935,1,10
-3.10137,-2.16033,0.464078,1,11
-3.05901,-2.13003,0.590384,10,12
-2.73961,-1.90621,0.648751,2,13
-2.48772,-1.7303,0.699598,1,14
-2.2415,-1.55788,0.731423,2,15
-3.02262,-2.09374,0.192701,1,9
-3.06676,-2.12274,0.326311,1,10
-3.15096,-2.17939,0.470416,1,11
-3.0498,-2.10864,0.587255,11,12
-2.74592,-1.89711,0.648751,2,13
-2.49214,-1.7205,0.699148,1,14
-2.2546,-1.55593,0.734011,2,15
-3.05295,-2.09902,0.194166,1,9
-3.09386,-2.12556,0.328403,1,10
-3.15817,-2.16893,0.470416,1,11
-3.06366,-2.10245,0.588507,10,12
-2.74896,-1.88578,0.647987,2,13
-2.48819,-1.70561,0.696449,1,14
-2.22177,-1.52185,0.721588,2,15
-3.06686,-2.09285,0.194585,1,9
-3.14369,-2.14448,0.332935,1,10
-3.12308,-2.12882,0.464078,1,11
-3.07098,-2.09174,0.588507,11,12
-2.75228,-1.87396,0.647224,2,13
-2.50863,-1.70678,0.700498,1,14
-2.2734,-1.54558,0.736599,2,15
-3.06753,-2.07766,0.194166,1,9
-3.09176,-2.09328,0.32666,1,10
-3.17324,-2.14683,0.470416,1,11
-3.08317,-2.08433,0.589445,10,12
-2.75718,-1.86324,0.646843,2,13
-2.51295,-1.69692,0.700048,1,14
-2.25956,-1.52467,0.730387,2,15
-0.409126,-0.275129,-0.113825,16,1
-3.04659,-2.04799,0.192387,1,9
-3.09905,-2.08247,0.32666,1,10
-3.18071,-2.13574,0.470416,1,11
-3.09043,-2.07355,0.589445,10,12
-2.75388,-1.84705,0.644553,2,13
-2.51239,-1.6838,0.698248,1,14
-2.26166,-1.51462,0.729352,2,15
-3.06535,-2.04511,0.19312,1,9
-3.16597,-2.11144,0.332935,1,10
-3.18815,-2.12462,0.470416,1,11
-3.08614,-2.05509,0.587255,11,12
-2.78319,-1.85265,0.649895,2,13
-2.51013,-1.66962,0.695999,1,14
-2.25567,-1.49923,0.725729,2,15
-3.08412,-2.04211,0.193852,0,9
-3.13013,-2.07178,0.328403,1,10
-3.19554,-2.11348,0.470416,1,11
-3.09659,-2.04648,0.587881,11,12
-2.79292,-1.84509,0.650659,2,13
-2.53872,-1.67588,0.702297,1,14
-2.26411,-1.49348,0.726764,1,15
-3.08456,-2.02695,0.193434,0,9
-3.11902,-2.04881,0.326485,1,10
-3.10372,-2.03566,0.587881,11,12
-2.77307,-1.81811,0.644553,2,13
-2.54292,-1.66594,0.701847,1,14
-2.27093,-1.48662,0.727282,2,15
-3.08457,-2.01234,0.193015,1,9
-3.18624,-2.07708,0.332761,1,10
-3.15034,-2.05212,0.461641,1,11
-3.10714,-2.0232,0.587255,11,12
-2.78928,-1.81484,0.646843,2,13
-2.55035,-1.65812,0.702297,1,14
-2.27585,-1.47908,0.727282,2,15
-3.07816,-1.99288,0.192178,1,9
-3.19347,-2.06595,0.332761,1,10
-3.15713,-2.04166,0.461641,1,11
-3.1175,-2.01449,0.587881,11,12
-2.78703,-1.80025,0.644934,2,13
-2.5411,-1.64014,0.698248,1,14
-2.28911,-1.47636,0.72987,1,15
-3.08846,-1.98428,0.192387,1,9
-3.13995,-2.01659,0.326485,1,10
-3.22438,-2.06922,0.470416,1,11
-3.11454,-1.99719,0.586004,11,12
-2.79991,-1.79475,0.646461,2,13
-2.54353,-1.62916,0.697348,1,14
-2.28937,-1.46524,0.728317,2,15
-0.44854,-0.286082,-0.122823,15,1
-3.10547,-1.97993,0.193015,0,9
-3.12345,-1.99062,0.324045,1,10
-3.23158,-2.05795,0.470416,1,11
-3.13149,-1.99267,0.587881,11,12
-2.80947,-1.78707,0.647224,2,13
-2.5492,-1.62027,0.697348,1,14
-2.28958,-1.45413,0.726764,2,15
-0.416603,-0.263671,-0.113825,16,1
-3.12552,-1.97817,0.193852,0,9
-3.15059,-1.99249,0.326137,1,10
-3.23875,-2.04666,0.470416,1,11
-3.12973,-1.977,0.586316,11,12
-0.468332,-0.295724,-0.0484586,11,5
-2.80573,-1.77097,0.644934,2,13
-0.476337,-0.300546,-0.0295175,16,6
-2.55786,-1.61389,0.698248,1,14
-2.28132,-1.43829,0.722623,1,15
-3.10839,-1.95291,0.192387,1,9
-3.16055,-1.98415,0.326485,1,10
-3.24552,-2.03591,0.470416,1,11
-3.14463,-1.97186,0.587881,10,12
-0.46931,-0.29417,-0.0484586,11,5
-2.81492,-1.76374,0.645698,2,13
-2.5698,-1.60953,0.700048,1,14
-2.30081,-1.43994,0.727282,2,15
-3.11858,-1.94417,0.192596,1,9
-3.16711,-1.97366,0.326485,1,10
-3.15485,-1.96296,0.588507,11,12
-2.82075,-1.7544,0.645698,2,13
-2.56878,-1.59644,0.698248,1,14
-2.31731,-1.43903,0.730905,2,15
-3.10157,-1.91856,0.191131,1,9
-3.2593,-2.01377,0.470416,1,11
-3.13647,-1.93637,0.583813,10,12
-0.471302,-0.290968,-0.0484586,11,5
-2.83688,-1.75073,0.647987,2,13
-2.576,-1.58849,0.698698,1,14
-2.32232,-1.43094,0.730905,1,15
-0.453367,-0.278368,-0.122823,15,1
-3.13378,-1.92339,0.192701,1,9
-3.17742,-1.94941,0.326137,1,10
-3.26631,-2.00238,0.470416,1,11
-3.155,-1.93263,0.586004,11,12
-2.84297,-1.74081,0.647987,2,13
-2.5782,-1.57745,0.697798,1,14
-2.30258,-1.40771,0.72314,2,15
-3.14218,-1.91348,0.192806,1,9
-3.27328,-1.99097,0.470416,1,11
-3.16342,-1.92263,0.586316,11,12
-2.83729,-1.72374,0.645316,2,13
-2.58703,-1.57046,0.698698,1,14
-2.32895,-1.41269,0.72987,2,15
-0.455299,-0.275196,-0.122823,15,1
-3.13516,-1.89424,0.191968,1,9
-3.21142,-1.93954,0.328229,1,10
-3.21902,-1.94261,0.461641,1,11
-3.17857,-1.91668,0.587881,11,12
-0.429962,-0.259267,-0.0439265,12,5
-2.83488,-1.70876,0.643408,2,13
-2.58915,-1.55941,0.697798,1,14
-2.32063,-1.39658,0.725729,2,15
-3.15007,-1.88976,0.0641201,1,8
-3.14861,-1.88739,0.192387,0,9
-3.20108,-1.91808,0.326485,1,10
-3.2871,-1.96807,0.470416,1,11
-3.18185,-1.90354,0.587255,11,12
-2.85094,-1.7049,0.645698,2,13
-2.60127,-1.55436,0.699598,1,14
-2.3371,-1.3954,0.729352,2,15
-3.15665,-1.87876,0.0641201,1,8
-3.16515,-1.88306,0.193015,1,9
-3.20433,-1.90486,0.326137,1,10
-3.20861,-1.90589,0.458229,1,11
-3.18305,-1.88996,0.586316,11,12
-2.85518,-1.69394,0.645316,2,13
-2.58489,-1.53236,0.693749,1,14
-2.33174,-1.38174,0.726246,2,15
-3.18352,-1.88048,0.064539,1,8
-0.424548,-0.250677,-0.113825,16,1
-3.15106,-1.85982,0.191759,0,9
-3.1732,-1.8714,0.322302,1,10
-3.30042,-1.94565,0.470416,1,11
-3.18452,-1.87583,0.585378,11,12
-2.84556,-1.67549,0.641881,2,13
-2.59668,-1.52773,0.695549,1,14
-2.31323,-1.35988,0.718999,2,15
-3.15556,-1.84914,0.0638409,1,8
-0.45905,-0.268893,-0.122823,15,1
-3.17822,-1.86092,0.193015,1,9
-3.23785,-1.89508,0.328229,1,10
-3.30719,-1.93412,0.470416,1,11
-3.19276,-1.8657,0.585691,11,12
-0.443862,-0.259268,-0.0449724,12,5
-2.85817,-1.66951,0.643408,2,13
-2.6407,-1.54125,0.705896,1,14
-2.348,-1.36932,0.728317,2,15
-3.15508,-1.83409,0.0637013,1,8
-0.459986,-0.267289,-0.122823,15,1
-3.18124,-1.84781,0.192806,1,9
-3.23961,-1.8802,0.327706,1,10
-3.25211,-1.8867,0.461641,1,11
-3.20438,-1.85751,0.586629,11,12
-2.86597,-1.66001,0.64379,2,13
-0.487424,-0.282209,-0.0295175,16,6
-2.61935,-1.51594,0.698698,1,14
-2.34274,-1.35531,0.725211,2,15
-3.20336,-1.84648,0.064539,1,8
-0.427193,-0.246143,-0.113825,16,1
-3.19459,-1.84068,0.193224,1,9
-3.23234,-1.86093,0.326311,1,10
-3.23491,-1.86091,0.458229,1,11
-3.21255,-1.8473,0.586942,11,12
-2.89388,-1.66271,0.648751,2,13
-2.60239,-1.49463,0.692849,1,14
-2.35583,-1.35193,0.727799,2,15
-3.22683,-1.84578,0.064888,1,8
-0.434773,-0.248594,-0.115625,16,1
-3.20761,-1.83405,0.193643,1,9
-3.23849,-1.8502,0.326311,1,10
-3.32726,-1.89938,0.470416,1,11
-3.21694,-1.83566,0.586629,10,12
-0.436124,-0.248761,-0.0439265,12,5
-2.88573,-1.64532,0.645698,2,13
-2.61411,-1.48985,0.694649,1,14
-2.35191,-1.33933,0.725211,2,15
-3.18076,-1.80545,0.0638409,1,8
-0.435595,-0.247151,-0.115625,16,1
-3.19315,-1.81101,0.192387,1,9
-3.22381,-1.82766,0.324219,1,10
-3.21646,-1.82052,0.585378,11,12
-0.482029,-0.27283,-0.0484586,11,5
-2.89117,-1.63575,0.645698,2,13
-0.490256,-0.277261,-0.0295175,16,6
-2.61251,-1.47688,0.692849,1,14
-2.33638,-1.31971,0.718999,2,15
-3.18704,-1.79434,0.0638409,1,8
-3.21512,-1.80867,0.193329,1,9
-3.23017,-1.81639,0.324219,1,10
-3.29512,-1.8514,0.464078,1,11
-3.23313,-1.81509,0.587255,11,12
-2.88659,-1.61988,0.643408,2,13
-2.64144,-1.4811,0.699148,1,14
-2.36794,-1.32665,0.727282,2,15
-3.21074,-1.79295,0.06419,1,8
-3.21443,-1.79354,0.19291,1,9
-3.23649,-1.80511,0.324219,1,10
-3.34664,-1.86501,0.470416,1,11
-3.23599,-1.80187,0.586629,11,12
-0.483922,-0.269458,-0.0484586,11,5
-2.89223,-1.60979,0.643408,2,13
-2.6466,-1.47187,0.699148,1,14
-2.37425,-1.31932,0.727799,1,15
-3.20299,-1.77399,0.0639107,1,8
-3.23815,-1.79198,0.193957,1,9
-3.26718,-1.8073,0.32666,1,10
-3.1794,-1.75729,0.446042,1,11
-3.24572,-1.79247,0.587255,10,12
-2.91673,-1.61012,0.647606,2,13
-0.493133,-0.272112,-0.0295175,16,6
-2.63807,-1.45509,0.695549,1,14
-2.37715,-1.31009,0.727282,2,15
-3.22287,-1.77106,0.06419,1,8
-3.21081,-1.76297,0.191968,1,9
-3.2487,-1.78304,0.324219,1,10
-3.27223,-1.79447,0.458229,1,11
-3.24125,-1.776,0.585378,10,12
-0.485745,-0.266158,-0.0484586,11,5
-2.89106,-1.58347,0.640737,2,13
-2.63433,-1.44166,0.693299,1,14
-2.38826,-1.30591,0.729352,2,15
-3.22904,-1.7598,0.06419,1,8
-3.23624,-1.76226,0.19312,1,9
-3.25491,-1.77169,0.324219,1,10
-3.36567,-1.83045,0.470416,1,11
-3.24743,-1.76468,0.585378,11,12
-2.90865,-1.57993,0.643408,2,13
-0.494974,-0.268749,-0.0295175,16,6
-2.64791,-1.4371,0.695549,1,14
-2.35204,-1.27546,0.716929,2,15
-3.22109,-1.74091,0.0639107,1,8
-3.2371,-1.7481,0.192806,1,9
-3.22951,-1.74328,0.321082,1,10
-3.37204,-1.81869,0.470416,1,11
-3.26053,-1.75708,0.586629,10,12
-0.487591,-0.26276,-0.0484586,11,5
-2.90896,-1.56697,0.642263,2,13
-0.495909,-0.267019,-0.0295175,16,6
-2.66492,-1.43431,0.698698,1,14
-3.31776,-1.78493,-0.0657607,2,7
-2.35478,-1.26633,0.716411,1,15
-3.22714,-1.72965,0.0639107,1,8
-3.24494,-1.73774,0.19291,1,9
-3.2672,-1.74892,0.324219,1,10
-3.37837,-1.80691,0.470416,1,11
-3.27187,-1.74848,0.587568,10,12
-2.90749,-1.55311,0.640737,2,13
-0.496838,-0.265287,-0.0295175,16,6
-2.66132,-1.42041,0.696449,1,14
-2.38987,-1.27446,0.725729,2,15
-3.24729,-1.72589,0.06419,1,8
-3.24187,-1.72228,0.192387,1,9
-3.27328,-1.7375,0.324219,1,10
-3.38466,-1.79511,0.470416,1,11
-3.27241,-1.73485,0.586629,10,12
-2.93024,-1.55214,0.644553,2,13
-2.64534,-1.40064,0.69105,1,14
-3.32983,-1.76231,-0.0657607,2,7
-2.38725,-1.26292,0.723658,1,15
-3.27068,-1.72444,0.064539,1,8
-3.25463,-1.71525,0.192806,1,9
-3.30018,-1.73778,0.326311,1,10
-3.39059,-1.78388,0.470416,1,11
-3.27465,-1.72215,0.586004,11,12
-0.490271,-0.257726,-0.0484586,11,5
-2.93189,-1.54059,0.64379,2,13
-0.498632,-0.261899,-0.0295175,16,6
-2.6379,-1.38552,0.6879,1,14
-2.39143,-1.255,0.723658,2,15
-3.25158,-1.7006,0.0640503,1,8
-3.25529,-1.7011,0.192492,1,9
-3.32005,-1.73421,0.327706,1,10
-3.39649,-1.77262,0.470416,1,11
-3.27539,-1.70797,0.585065,10,12
-0.491167,-0.256013,-0.0484586,11,5
-2.93525,-1.52995,0.643408,2,13
-0.499498,-0.260244,-0.0295175,16,6
-2.66346,-1.3871,0.693299,1,14
-3.34175,-1.7396,-0.0657607,2,7
-2.39579,-1.24664,0.723658,2,15
-3.24684,-1.68372,0.0638409,1,8
-3.27185,-1.69524,0.19312,1,9
-3.26269,-1.68905,0.32143,1,10
-3.3145,-1.71514,0.458229,1,11
-3.29361,-1.70287,0.587255,11,12
-0.492058,-0.254296,-0.0484586,11,5
-2.93037,-1.51377,0.641118,2,13
-2.67545,-1.3809,0.695099,1,14
-2.3864,-1.23118,0.719517,2,15
-3.25299,-1.67181,0.0638409,1,8
-3.2813,-1.68563,0.193329,1,9
-3.29693,-1.69221,0.324219,1,10
-3.34549,-1.71566,0.461641,1,11
-3.30129,-1.69227,0.587568,10,12
-2.93389,-1.50264,0.640737,2,13
-2.68175,-1.37291,0.695549,1,14
-3.35381,-1.71623,-0.0657607,2,7
-2.3924,-1.22373,0.720035,2,15
-3.27989,-1.67191,0.0642598,1,8
-3.27263,-1.66749,0.192492,1,9
-3.30252,-1.68127,0.324219,1,10
-3.41486,-1.73696,0.470416,1,11
-3.3016,-1.67862,0.586629,9,12
-0.493778,-0.250941,-0.0484586,11,5
-2.96161,-1.50446,0.645698,2,13
-2.67586,-1.35872,0.692849,1,14
-3.35948,-1.7051,-0.0657607,2,7
-2.42401,-1.22977,0.728317,2,15
-3.26401,-1.6502,0.0638409,1,8
-3.28021,-1.65696,0.192596,1,9
-3.30808,-1.67031,0.324219,1,10
-3.4206,-1.72562,0.470416,1,11
-3.30568,-1.6662,0.586316,10,12
-2.95606,-1.48933,0.643408,2,13
-2.67537,-1.34674,0.6915,1,14
-3.2761,-1.64842,-0.0640154,2,7
-2.42656,-1.22043,0.727799,1,15
-3.25544,-1.63163,0.0635617,1,8
-3.29134,-1.64818,0.19291,1,9
-3.31418,-1.65817,0.324219,1,10
-3.42661,-1.71367,0.470416,1,11
-3.30971,-1.65377,0.586004,10,12
-2.95974,-1.47761,0.643026,2,13
-0.503963,-0.251487,-0.0295175,16,6
-2.69598,-1.34475,0.695549,1,14
-2.4066,-1.19989,0.720552,1,15
-3.2614,-1.61968,0.0635617,1,8
-3.32419,-1.64942,0.19448,1,9
-3.30566,-1.63951,0.322825,1,10
-3.43286,-1.7011,0.470416,1,11
-3.31929,-1.64338,0.586629,9,12
-0.449954,-0.222772,-0.0439265,12,5
-2.96137,-1.46553,0.642263,2,13
-0.504838,-0.249726,-0.0295175,16,6
-2.69542,-1.33274,0.694199,1,14
-3.37745,-1.66924,-0.0657607,2,7
-2.40925,-1.1902,0.720035,2,15
-3.29215,-1.62066,0.0640503,1,8
-3.29946,-1.62282,0.192701,1,9
-3.34355,-1.64378,0.325962,1,10
-3.33032,-1.63439,0.587568,9,12
-2.9647,-1.45432,0.641881,2,13
-0.505707,-0.247962,-0.0295175,16,6
-2.69305,-1.3199,0.692399,1,14
-3.38325,-1.65744,-0.0657607,2,7
-2.4186,-1.18433,0.721588,2,15
-3.30857,-1.61441,0.0642598,1,8
-3.30123,-1.61012,0.192492,1,9
-3.33136,-1.62337,0.324219,1,10
-3.44466,-1.6771,0.470416,1,11
-3.33573,-1.62334,0.587568,10,12
-2.96623,-1.44224,0.641118,2,13
-2.70092,-1.31266,0.693299,1,14
-3.38873,-1.64621,-0.0657607,2,7
-2.42425,-1.17715,0.722105,2,15
-3.31391,-1.60343,0.0642598,1,8
-3.32274,-1.60699,0.193434,1,9
-3.35466,-1.62099,0.325962,1,10
-3.4502,-1.66566,0.470416,1,11
-3.32864,-1.60626,0.585378,9,12
-0.462992,-0.223321,-0.0449724,12,5
-2.9763,-1.43496,0.642263,2,13
-0.507383,-0.244514,-0.0295175,16,6
-3.39417,-1.63496,-0.0657607,2,7
-2.43336,-1.17162,0.723658,2,15
-3.33363,-1.59936,0.064539,1,8
-0.4428,-0.212344,-0.113375,16,1
-3.32292,-1.59279,0.19312,1,9
-3.32768,-1.59436,0.322825,1,10
-3.33601,-1.59548,0.585691,9,12
-2.98636,-1.42762,0.643408,2,13
-0.508191,-0.24283,-0.0295175,16,6
-3.39986,-1.62311,-0.0657607,2,7
-2.44441,-1.16645,0.725729,1,15
-3.31391,-1.57569,0.0640503,1,8
-3.32666,-1.58033,0.193015,1,9
-3.34762,-1.58957,0.324219,1,10
-3.46146,-1.64214,0.470416,1,11
-3.35405,-1.58975,0.587881,9,12
-2.986,-1.41466,0.642263,2,13
-3.4055,-1.61123,-0.0657607,2,7
-3.33024,-1.56923,0.0642598,1,8
-3.35356,-1.5795,0.194271,1,9
-3.34233,-1.57278,0.323173,1,10
-3.46717,-1.63005,0.470416,1,11
-3.36288,-1.5803,0.588507,9,12
-2.99269,-1.40507,0.642645,1,13
-3.41083,-1.59993,-0.0657607,2,7
-2.51526,-1.17931,0.744364,1,15
-3.31369,-1.54802,0.0638409,1,8
-3.3301,-1.55427,0.192596,1,9
-3.37669,-1.57458,0.325962,1,10
-3.36121,-1.56522,0.587255,8,12
-0.510665,-0.237584,-0.0295175,16,6
-3.41639,-1.58801,-0.0657607,2,7
-2.51936,-1.17052,0.744364,1,15
-3.33722,-1.54484,0.06419,1,8
-0.459835,-0.212766,-0.116975,16,1
-3.35001,-1.54934,0.193434,1,9
-3.3819,-1.56337,0.325962,1,10
-3.47818,-1.60641,0.470416,1,11
-3.35589,-1.54851,0.585378,8,12
-0.455889,-0.210361,-0.0439265,12,5
-3.42191,-1.57608,-0.0657607,2,7
-2.46026,-1.13263,0.725729,1,15
-3.32805,-1.52651,0.0639107,1,8
-3.36084,-1.54013,0.193748,1,9
-3.38371,-1.5499,0.325614,1,10
-3.36128,-1.53679,0.585378,8,12
-0.503732,-0.230308,-0.0484586,11,5
-3.42739,-1.56412,-0.0657607,2,7
-2.45365,-1.11923,0.722623,1,15
-3.33336,-1.51489,0.0639107,1,8
-0.45776,-0.207938,-0.116075,16,1
-3.38802,-1.5383,0.195004,1,9
-3.39636,-1.54137,0.326311,1,10
-3.48931,-1.58209,0.470416,1,11
-3.37382,-1.5283,0.586629,9,12
-0.513125,-0.232224,-0.0295175,16,6
-2.75384,-1.24572,0.697798,1,14
-2.8862,-1.30499,-0.0552892,1,7
-2.45754,-1.11066,0.722623,1,15
-3.37145,-1.51802,0.064539,1,8
-0.465591,-0.209538,-0.117874,16,1
-3.39155,-1.52565,0.194899,1,9
-3.41625,-1.53604,0.327706,1,10
-3.38814,-1.52056,0.588194,9,12
-0.458067,-0.205575,-0.0439265,12,5
-0.513932,-0.230431,-0.0295175,16,6
-2.74217,-1.22893,0.693749,1,14
-2.91264,-1.30472,-0.0557081,1,7
-2.4473,-1.09576,0.718482,2,15
-0.448487,-0.200054,-0.113375,16,1
-3.37287,-1.50382,0.193538,1,9
-3.42133,-1.52471,0.327706,1,10
-3.39678,-1.51092,0.588819,9,12
-0.458746,-0.204055,-0.0439265,12,5
-2.73198,-1.2135,0.69015,1,14
-2.84384,-1.26259,-0.0543119,3,7
-2.46858,-1.09547,0.723658,2,15
-0.449182,-0.198488,-0.113375,16,1
-3.37262,-1.48961,0.193224,1,9
-3.41205,-1.50632,0.326311,1,10
-3.39842,-1.49746,0.588194,9,12
-2.74869,-1.20945,0.693299,1,14
-2.84091,-1.24944,-0.0541723,4,7
-2.46178,-1.08218,0.720552,1,15
-0.460584,-0.201607,-0.116075,16,1
-3.39767,-1.48723,0.194376,1,9
-3.40998,-1.4912,0.325614,1,10
-3.51079,-1.53383,0.470416,1,11
-3.39069,-1.48065,0.586004,8,12
-2.74911,-1.19877,0.692399,1,14
-2.8707,-1.2512,-0.0546609,1,7
-2.45827,-1.07093,0.718482,1,15
-2.89651,-1.25704,0.0551147,1,8
-0.464825,-0.20163,-0.116975,16,1
-3.40991,-1.47914,0.194794,1,9
-3.41857,-1.48147,0.325962,1,10
-3.40827,-1.47489,0.588194,9,12
-0.517021,-0.223414,-0.0295175,16,6
-2.75307,-1.18965,0.692399,1,14
-2.87117,-1.24009,-0.0545911,1,7
-2.44762,-1.05664,0.714341,1,15
-2.86392,-1.23162,0.0544166,1,8
-0.461911,-0.198548,-0.116075,16,1
-3.41505,-1.46722,0.194794,1,9
-3.45275,-1.48271,0.328751,1,10
-3.52089,-1.51051,0.470416,1,11
-3.41522,-1.46376,0.588507,8,12
-2.76437,-1.1831,0.694199,1,14
-2.85709,-1.22219,-0.0542421,3,7
-2.48682,-1.06328,0.724693,1,15
-2.87925,-1.22632,0.054626,1,8
-0.462601,-0.196934,-0.116075,16,1
-3.41097,-1.45138,0.194271,1,9
-3.43224,-1.45973,0.326311,1,10
-3.41667,-1.45029,0.587881,8,12
-2.75952,-1.16964,0.691949,1,14
-2.83556,-1.20129,-0.0537534,3,7
-2.4834,-1.05158,0.722623,1,15
-2.88719,-1.21782,0.0546958,1,8
-0.452511,-0.190776,-0.113375,16,1
-3.43416,-1.44782,0.195318,0,9
-3.46302,-1.45856,0.328751,1,10
-3.53135,-1.48589,0.470416,1,11
-3.4251,-1.44048,0.588507,8,12
-0.519294,-0.218078,-0.0295175,16,6
-2.7546,-1.15623,0.6897,1,14
-2.86166,-1.20117,-0.0541723,3,7
-2.50112,-1.04932,0.726764,1,15
-2.92074,-1.22057,0.0552543,1,8
-3.42814,-1.43121,0.19469,0,9
-3.45706,-1.44187,0.327706,1,10
-3.42281,-1.42548,0.587255,9,12
-2.77101,-1.15233,0.692849,1,14
-2.86583,-1.19117,-0.0541723,3,7
-2.48871,-1.03391,0.722105,2,15
-2.91759,-1.20731,0.0551147,1,8
-3.43311,-1.41924,0.19469,1,9
-3.51706,-1.45322,0.332935,1,10
-3.43325,-1.41578,0.588194,8,12
-0.520767,-0.214538,-0.0295175,16,6
-2.7588,-1.13597,0.6888,1,14
-2.88107,-1.18573,-0.0543817,3,7
-2.4798,-1.02007,0.718482,1,15
-3.0069,-1.232,0.0567203,1,8
-0.454452,-0.186106,-0.113375,16,1
-3.44544,-1.41027,0.195108,1,9
-3.52211,-1.44093,0.332935,1,10
-3.44914,-1.40827,0.590071,8,12
-2.96297,-1.20736,-0.0558477,1,7
-2.96301,-1.20195,0.0558128,1,8
-0.491218,-0.199163,-0.122373,15,1
-3.42073,-1.38623,0.193434,1,9
-3.52712,-1.42863,0.332935,1,10
-3.44671,-1.39326,0.588819,8,12
-0.513516,-0.207578,-0.0484586,11,5
-2.96716,-1.197,-0.0558477,1,7
-0.49191,-0.197448,-0.122373,15,1
-3.44037,-1.38023,0.194271,1,9
-3.53208,-1.41631,0.332935,1,10
-3.44055,-1.37682,0.586942,7,12
-0.514238,-0.205784,-0.0484586,11,5
-2.94161,-1.17477,-0.0552892,1,7
-0.492596,-0.195729,-0.122373,15,1
-3.45421,-1.3725,0.194794,1,9
-3.48145,-1.38192,0.327706,1,10
-3.56145,-1.41223,0.470416,1,11
-3.44326,-1.36467,0.586629,5,12
-0.514953,-0.203988,-0.0484586,11,5
-2.97152,-1.17531,-0.0557779,1,7
-3.47199,-1.36555,0.195527,1,9
-3.51593,-1.38142,0.330495,1,10
-3.56611,-1.40042,0.470416,1,11
-3.46639,-1.35986,0.589758,5,12
-3.09625,-1.21403,0.646461,1,13
-0.524396,-0.205509,-0.0295175,16,6
-2.94954,-1.15472,-0.0552892,1,7
-3.49163,-1.35922,0.196365,1,9
-3.45364,-1.34374,0.324219,1,10
-3.46375,-1.34489,0.588507,5,12
-3.0602,-1.18759,0.638065,1,13
-3.44977,-1.33046,0.064539,1,8
-0.469129,-0.180834,-0.116075,16,1
-3.47958,-1.34056,0.195422,1,9
-3.50665,-1.35029,0.328751,1,10
-3.5758,-1.37549,0.470416,1,11
-3.46105,-1.32996,0.587255,5,12
-3.06616,-1.1776,0.638447,2,13
-2.8001,-1.0743,0.692399,1,14
-2.55793,-0.980362,0.734011,1,15
-3.49549,-1.3341,0.0653069,1,8
-0.458833,-0.175028,-0.113375,16,1
-3.49147,-1.33187,0.195841,1,9
-3.55603,-1.35507,0.332935,1,10
-3.45806,-1.31566,0.586004,5,12
-3.08861,-1.17387,0.642263,2,13
-0.526519,-0.200006,-0.0295175,16,6
-2.80547,-1.0657,0.692849,3,14
-2.52505,-0.958166,0.723658,1,15
-3.49242,-1.31967,0.0651673,1,8
-3.50334,-1.3231,0.19626,1,9
-3.50085,-1.32077,0.327357,1,10
-3.58508,-1.35112,0.470416,1,11
-3.45685,-1.3021,0.585065,5,12
-0.518367,-0.195151,-0.0484586,11,5
-3.09799,-1.16569,0.643408,2,13
-2.81263,-1.05776,0.693749,4,14
-2.48842,-0.934841,0.71227,1,15
-3.50801,-1.31229,0.0653767,1,8
-3.49461,-1.30658,0.195527,1,9
-3.56494,-1.33146,0.332935,1,10
-3.58954,-1.33922,0.470416,1,11
-3.47226,-1.29477,0.586942,4,12
-3.07977,-1.14719,0.638829,2,13
-0.527834,-0.196509,-0.0295175,16,6
-2.81631,-1.04794,0.693749,4,14
-3.53091,-1.31384,-0.0657607,2,7
-2.50599,-0.931971,0.716411,1,15
-3.5311,-1.30759,0.0657258,1,8
-3.51788,-1.3013,0.196574,1,9
-3.56956,-1.31901,0.332935,1,10
-3.59396,-1.32731,0.470416,1,11
-3.46934,-1.27991,0.585691,4,12
-3.0725,-1.1329,0.636539,2,13
-0.528483,-0.194758,-0.0295175,16,6
-2.82343,-1.03994,0.694649,5,14
-2.52374,-0.928554,0.720552,1,15
-3.52813,-1.29251,0.0655861,1,8
-3.53741,-1.29451,0.197411,1,9
-3.53649,-1.29347,0.329449,1,10
-3.47008,-1.26644,0.585065,4,12
-0.520315,-0.189894,-0.0484586,11,5
-3.10226,-1.13158,0.641881,2,13
-0.529159,-0.192912,-0.0295175,16,6
-2.82338,-1.02874,0.693749,5,14
-2.49792,-0.909168,0.71227,2,15
-3.52688,-1.27671,0.196574,1,9
-3.57846,-1.29468,0.332935,1,10
-3.60314,-1.30219,0.470416,1,11
-3.45961,-1.24895,0.582562,4,12
-3.1025,-1.11941,0.641118,2,13
-0.52983,-0.191064,-0.0295175,16,6
-2.81595,-1.01492,0.69105,5,14
-2.51562,-0.905678,0.716411,1,15
-0.499002,-0.178767,-0.122373,15,1
-3.552,-1.2718,0.197725,1,9
-3.58296,-1.28218,0.332935,1,10
-3.46767,-1.23819,0.583188,3,12
-3.10638,-1.10858,0.641118,2,13
-0.530493,-0.189213,-0.0295175,16,6
-2.82682,-1.0077,0.692849,5,14
-2.51876,-0.896891,0.716411,1,15
-3.55454,-1.25873,0.197621,1,9
-3.58741,-1.26966,0.332935,1,10
-3.46452,-1.22345,0.581936,2,12
-3.10098,-1.09446,0.63921,2,13
-0.53115,-0.18736,-0.0295175,16,6
-2.84502,-1.00301,0.696449,5,14
-2.52188,-0.888094,0.716411,1,15
-1.76432,-0.618892,0.032636,1,8
-3.54738,-1.24297,0.196993,1,9
-3.5916,-1.25776,0.332935,1,10
-3.4667,-1.2113,0.581623,2,12
