x, y, z, intensity, ring
5.99609,-5.2993,1.55547,19,13
4.25554,-3.76233,-0.297687,33,6
8.20504,-7.2541,2.52845,61,14
5.27566,-4.66586,-0.122935,13,7
7.07665,-6.26089,2.53177,23,15
4.38211,-3.88925,0.102271,27,8
0.397833,-0.353213,-0.122823,15,1
0.459378,-0.408142,-0.119446,15,2
4.38045,-3.89188,0.51265,24,10
4.09875,-3.64288,-0.868524,6,3
9.81947,-8.7304,1.61331,21,11
8.16259,-7.25983,-1.34129,5,4
5.92242,-5.26927,1.25554,43,12
4.15828,-3.70098,-0.487026,37,5
5.9561,-5.30296,1.55013,31,13
4.22979,-3.76728,-0.29685,33,6
8.18858,-7.29319,2.5316,35,14
4.44033,-3.95619,-0.103807,20,7
6.87771,-6.12997,2.46862,32,15
4.27987,-3.82665,0.100212,57,8
0.396536,-0.354669,-0.122823,15,1
4.30309,-3.85011,0.302607,6,9
0.472582,-0.422834,-0.123263,15,2
4.4493,-3.98232,0.522412,65,10
9.73269,-8.71733,1.60429,29,11
5.2145,-4.67214,-0.859666,13,4
5.89571,-5.28435,1.25398,56,12
4.15655,-3.72684,-0.488421,30,5
8.87563,-7.95805,2.31718,35,13
4.20769,-3.77402,-0.296222,27,6
8.62304,-7.73701,2.67467,40,14
4.46151,-4.00449,-0.104645,40,7
6.49583,-5.83247,2.33921,20,15
4.40469,-3.966,0.103458,66,8
0.395295,-0.356051,-0.122823,15,1
0.471029,-0.424563,-0.123263,15,2
4.43171,-3.99594,0.522063,45,10
4.07047,-3.67151,-0.868211,53,3
9.62703,-8.68344,1.59186,29,11
10.5467,-9.51626,-1.74419,15,4
5.85084,-5.28107,1.24835,77,12
4.23816,-3.82678,-0.499577,35,5
8.5929,-7.76155,2.25078,56,13
4.18049,-3.77736,-0.29528,33,6
8.24911,-7.45626,2.56714,20,14
4.63591,-4.19034,-0.109078,26,7
6.29202,-5.68927,2.27295,55,15
4.37531,-3.96868,0.103109,56,8
0.393988,-0.357497,-0.122823,15,1
4.56381,-4.14257,0.323018,14,9
0.472452,-0.428844,-0.124026,14,2
4.45756,-4.04754,0.526769,45,10
4.06056,-3.68835,-0.868837,47,3
4.49566,-4.085,0.74584,27,11
5.1824,-4.71067,-0.85991,23,4
5.82852,-5.29983,1.24772,61,12
8.7226,-7.93418,2.292,34,13
4.12444,-3.75295,-0.292244,20,6
8.49108,-7.729,2.65082,8,14
4.69889,-4.27866,-0.110927,50,7
6.31397,-5.75132,2.28848,21,15
4.30828,-3.93538,0.101852,66,8
0.392737,-0.35887,-0.122823,15,1
6.11343,-5.5882,0.434074,34,9
0.476748,-0.435789,-0.125552,14,2
4.45958,-4.07787,0.528687,58,10
4.02579,-3.6825,-0.864144,35,3
4.47258,-4.09263,0.744378,27,11
4.8555,-4.44458,-0.808238,29,4
5.98626,-5.48156,1.28558,32,12
4.52139,-4.14018,-0.536356,25,5
8.76869,-8.0322,2.31146,31,13
4.14077,-3.79431,-0.294337,15,6
19.5498,-17.9203,6.12272,40,14
4.70898,-4.31801,-0.111521,45,7
6.3266,-5.80336,2.30038,63,15
4.25625,-3.9152,0.100945,46,8
0.391482,-0.360239,-0.122823,15,1
4.57446,-4.21085,0.325844,43,9
0.466557,-0.429472,-0.123263,15,2
4.44092,-4.08936,0.528164,52,10
4.10009,-3.77683,-0.882916,11,3
4.46119,-4.1109,0.744866,27,11
6.31707,-5.82515,1.36098,66,12
4.2081,-3.88041,-0.500797,20,5
8.79543,-8.11335,2.32596,10,13
4.27428,-3.94419,-0.304805,25,6
8.18203,-7.5528,2.57074,1,14
4.6454,-4.28965,-0.110369,60,7
6.50923,-6.01286,2.37441,38,15
4.23669,-3.92459,0.100805,53,8
0.390223,-0.361603,-0.122823,15,1
4.53629,-4.20507,0.324169,75,9
0.456417,-0.42309,-0.120973,15,2
4.46022,-4.136,0.532173,28,10
4.79796,-4.45074,-1.03653,22,3
9.00421,-8.35552,1.50826,31,11
5.09496,-4.72956,-0.853573,56,4
6.30394,-5.85388,1.36254,23,12
9.70921,-9.0192,2.57592,16,13
4.29852,-3.99443,-0.307526,15,6
4.03292,-3.75025,-0.0961279,17,7
6.37221,-5.92764,2.33196,72,15
4.07674,-3.80296,0.0973146,35,8
0.388958,-0.362963,-0.122823,15,1
4.55517,-4.25222,0.326576,50,9
0.449196,-0.419322,-0.119446,15,2
4.24626,-3.96524,0.508292,43,10
5.17214,-4.83155,-1.12101,41,3
9.37094,-8.75691,1.5748,18,11
4.76229,-4.4518,-0.800438,18,4
4.22825,-3.95534,-0.506549,13,5
9.79523,-9.16301,2.60721,30,13
4.02351,-3.76514,-0.28879,17,6
6.56986,-6.15012,2.07765,64,14
3.94245,-3.69186,-0.0942779,21,7
7.01694,-6.57323,2.57628,41,15
4.25437,-3.99652,0.101887,61,8
0.387689,-0.364319,-0.122823,15,1
4.39332,-4.12993,0.316005,57,9
0.467679,-0.439795,-0.124789,14,2
3.92694,-3.6941,0.471687,15,10
5.5385,-5.21192,-1.20455,42,3
4.42223,-4.16148,0.745597,27,11
4.14045,-3.9004,-0.497659,10,5
4.03149,-3.80041,-0.29036,31,6
6.44378,-6.07656,2.04481,56,14
3.96009,-3.73441,-0.0950109,38,7
7.04735,-6.64806,2.59596,12,15
4.23098,-4.00384,0.101678,19,8
0.386351,-0.365737,-0.122823,15,1
4.20848,-3.98533,0.303758,15,9
0.446184,-0.422526,-0.119446,15,2
3.9256,-3.71875,0.473081,15,10
5.3224,-5.04371,-1.16137,81,3
4.40263,-4.17356,0.744866,30,11
3.95537,-3.75088,-0.669306,18,4
8.30389,-7.8801,2.22521,9,13
3.98343,-3.78146,-0.287848,34,6
6.50732,-6.17953,2.0718,31,14
3.92318,-3.72686,-0.0944524,55,7
6.37316,-6.05637,2.35577,4,15
5.99613,-5.71403,0.144576,30,8
0.385072,-0.367083,-0.122823,15,1
4.27693,-4.07856,0.309724,38,9
0.456073,-0.43492,-0.122499,15,2
3.92701,-3.74618,0.474824,11,10
4.87604,-4.65313,-1.06751,16,3
4.39234,-4.19301,0.745597,65,11
3.9279,-3.75096,-0.666869,42,4
6.19342,-5.91649,1.3566,79,12
4.04973,-3.86865,-0.48999,11,5
9.60487,-9.17861,2.58241,9,13
3.99764,-3.82156,-0.289837,46,6
9.47293,-9.05886,3.02604,44,14
3.94627,-3.77509,-0.095325,46,7
9.52728,-9.1172,3.5334,26,15
4.27074,-4.09835,0.103318,13,8
0.383788,-0.368425,-0.122823,15,1
4.13878,-3.97449,0.300722,24,9
0.446056,-0.42835,-0.12021,15,2
3.90098,-3.74744,0.473256,48,10
4.733,-4.54831,-1.03966,16,3
3.89618,-3.74676,-0.6637,44,4
6.52435,-6.27633,1.43388,52,12
10.2829,-9.89547,2.77398,27,13
4.00586,-3.85627,-0.291407,57,6
9.45529,-9.10539,3.03054,48,14
3.97051,-3.82492,-0.0962326,48,7
9.48705,-9.14235,3.53029,6,15
0.3825,-0.369763,-0.122823,15,1
3.79466,-3.66958,0.276648,16,9
0.438913,-0.424446,-0.118683,15,2
4.02534,-3.89402,0.48999,15,10
4.71142,-4.55931,-1.03841,33,3
15.2112,-14.7252,2.59947,6,11
3.8788,-3.75619,-0.662969,43,4
9.95579,-9.64446,2.1954,25,12
3.90814,-3.78593,-0.476045,33,5
6.59958,-6.39543,1.78635,30,13
3.98807,-3.86606,-0.291093,40,6
9.42205,-9.13698,3.03009,44,14
3.89685,-3.78027,-0.0947666,63,7
9.90565,-9.61266,3.69852,30,15
4.26925,-4.15457,0.103981,66,8
0.36445,-0.354784,-0.117424,16,1
3.78612,-3.68699,0.276962,33,9
0.459933,-0.44789,-0.124789,14,2
4.65728,-4.5385,-1.02996,60,3
10.2429,-9.98517,1.75638,15,11
3.9083,-3.81129,-0.670281,46,4
3.90631,-3.81068,-0.477439,31,5
4.00599,-3.91065,-0.293395,30,6
9.39289,-9.17254,3.03099,25,14
3.9666,-3.8749,-0.0967911,48,7
9.35943,-9.14625,3.50648,9,15
4.20474,-4.12046,0.10276,52,8
0.360426,-0.353325,-0.116525,16,1
3.77323,-3.70018,0.276962,33,9
0.438742,-0.430249,-0.119446,15,2
3.9625,-3.88715,0.485632,16,10
4.58783,-4.50216,-1.01808,52,3
4.12655,-4.0509,0.710011,47,11
3.88506,-3.81517,-0.668575,44,4
3.90578,-3.83686,-0.479008,38,5
9.29934,-9.13844,2.53433,18,13
3.91256,-3.8462,-0.287534,40,6
9.55812,-9.39929,3.09488,29,14
3.97871,-3.91396,-0.0974193,63,7
4.18463,-4.12949,0.10262,55,8
0.378607,-0.373748,-0.122823,15,1
3.79724,-3.74982,0.279683,26,9
0.456795,-0.45109,-0.124789,14,2
3.88654,-3.83935,0.477962,26,10
4.57068,-4.51676,-1.01776,23,3
4.11379,-4.06667,0.710255,32,11
4.07356,-4.02831,-0.70343,14,4
6.38694,-6.31819,1.42293,40,12
3.90511,-3.86308,-0.480577,12,5
6.66342,-6.594,1.82223,12,13
3.93033,-3.89075,-0.289837,37,6
9.71357,-9.61909,3.15606,15,14
3.97497,-3.93768,-0.0976637,45,7
6.79381,-6.73243,2.56283,42,15
4.04679,-4.02144,0.0995834,57,8
0.3773,-0.375067,-0.122823,15,1
3.7558,-3.73488,0.27759,44,9
0.452433,-0.449913,-0.124026,14,2
3.86888,-3.84868,0.477439,39,10
4.57169,-4.5494,-1.02152,10,3
4.10942,-4.09081,0.711961,72,11
4.01868,-4.00188,-0.696361,43,4
8.16178,-8.1305,1.82465,65,12
3.94383,-3.92871,-0.487026,15,5
6.65844,-6.63524,1.82719,20,13
3.91248,-3.90021,-0.289523,20,6
9.5378,-9.5112,3.10972,17,14
3.9343,-3.9247,-0.0970005,35,7
6.71968,-6.70562,2.54367,14,15
3.85039,-3.85308,0.0950807,61,8
0.375988,-0.376382,-0.122823,15,1
3.8133,-3.81863,0.282824,27,9
0.431438,-0.432041,-0.118683,15,2
3.84838,-3.85511,0.476568,41,10
4.11755,-4.12762,0.715861,20,11
3.99348,-4.00464,-0.694412,35,4
6.4138,-6.43398,1.43888,29,12
4.39427,-4.4081,-0.544549,6,5
3.89603,-3.91102,-0.289313,11,6
3.94738,-3.96533,-0.0976637,40,7
6.63763,-6.67015,2.52142,44,15
3.82424,-3.85372,0.0947666,75,8
0.374672,-0.377692,-0.122823,15,1
3.75354,-3.78512,0.279369,34,9
0.424398,-0.427968,-0.117157,16,2
6.24469,-6.29943,0.776035,9,10
5.18638,-5.23366,-1.167,11,3
4.1073,-4.1462,0.716592,72,11
3.97249,-4.01151,-0.693193,45,4
3.86865,-3.90801,-0.4811,1,5
3.87673,-3.91891,-0.288895,28,6
8.01185,-8.10185,2.63058,24,14
3.92086,-3.96629,-0.0973495,22,7
3.88655,-3.94396,0.0966514,53,8
0.373351,-0.378998,-0.122823,15,1
3.80617,-3.86508,0.284289,22,9
0.447697,-0.454626,-0.124026,14,2
8.73724,-8.87867,-1.97295,6,3
4.11786,-4.18598,0.720979,45,11
3.96264,-4.02959,-0.693924,55,4
5.22145,-5.31339,-0.651751,13,5
9.30356,-9.46737,2.58012,14,13
3.86303,-3.93242,-0.288895,11,6
9.6261,-9.80244,3.17181,18,14
3.9154,-3.98851,-0.097559,49,7
9.42969,-9.60913,3.60742,8,15
3.9343,-4.02038,0.0981872,35,8
0.372026,-0.380299,-0.122823,15,1
3.78567,-3.87121,0.283766,24,9
0.446028,-0.456264,-0.124026,14,2
3.73471,-3.82176,0.467503,43,10
5.12809,-5.24944,-1.16231,23,3
3.73563,-3.82403,0.656388,52,11
4.32717,-4.43112,-0.760465,11,4
9.91168,-10.1533,2.24734,32,12
3.8378,-3.93274,-0.480751,6,5
3.85138,-3.94941,-0.289104,20,6
7.27488,-7.46266,2.40608,19,14
3.89168,-3.99213,-0.0973146,72,7
9.41766,-9.66412,3.6157,11,15
3.87217,-3.98601,0.0970005,13,8
0.37063,-0.38166,-0.122823,15,1
3.80067,-3.91515,0.285964,21,9
0.438962,-0.452184,-0.122499,15,2
3.75326,-3.86766,0.471513,28,10
5.08772,-5.24463,-1.1573,25,3
3.7133,-3.82915,0.654926,52,11
9.67369,-9.98248,2.20166,9,12
9.42409,-9.7283,2.63278,15,13
3.8209,-3.94562,-0.287848,28,6
7.88177,-8.14188,2.61618,38,14
3.83391,-3.96182,-0.0962326,65,7
6.56416,-6.78553,2.5297,9,15
3.78604,-3.92466,0.0951854,60,8
0.347652,-0.360507,-0.115625,16,1
3.83689,-3.98016,0.289732,20,9
0.420954,-0.436825,-0.11792,16,2
3.74459,-3.88713,0.47221,26,10
4.28333,-4.44793,-0.978028,25,3
3.70128,-3.84352,0.65517,28,11
4.59686,-4.77517,-0.813844,13,4
5.12039,-5.32273,-0.646173,12,5
8.63311,-8.9774,2.42098,28,13
3.83686,-3.99127,-0.290151,23,6
7.88968,-8.21006,2.62878,26,14
3.81868,-3.97374,-0.0961977,48,7
6.86699,-7.14834,2.656,16,15
3.75226,-3.9183,0.0946968,68,8
0.349023,-0.364594,-0.116525,16,1
4.24283,-4.43212,0.321552,34,9
0.427571,-0.446803,-0.12021,15,2
4.25298,-4.44583,0.538274,33,10
3.70363,-3.87428,0.658094,45,11
4.77133,-4.99291,-0.847967,18,4
9.46593,-9.90553,2.17006,37,12
4.20997,-4.40702,-0.533219,21,5
9.89523,-10.362,2.78505,14,13
3.94703,-4.13466,-0.299571,39,6
7.74528,-8.1163,2.59009,22,14
3.85034,-4.03479,-0.0973495,49,7
6.74466,-7.07022,2.61821,11,15
3.74338,-3.93506,0.0948015,67,8
0.366613,-0.38552,-0.122823,15,1
3.78699,-3.98369,0.288057,31,9
0.439533,-0.462524,-0.124026,14,2
3.94104,-4.14863,0.500623,16,10
10.948,-11.5247,-2.51766,11,3
3.65522,-3.84911,0.651757,54,11
4.78891,-5.0447,-0.85406,24,4
9.55367,-10.0675,2.19822,25,12
5.10367,-5.38003,-0.648787,28,5
8.72989,-9.2026,2.46563,20,13
3.96215,-4.17816,-0.301769,27,6
7.77194,-8.19851,2.60808,34,14
3.93664,-4.15416,-0.0998976,50,7
3.74198,-3.96119,0.0951156,17,8
0.365265,-0.386797,-0.122823,15,1
3.76346,-3.98671,0.287324,46,9
0.416434,-0.441137,-0.11792,16,2
10.9172,-11.5729,-2.51985,18,3
4.74949,-5.03827,-0.850161,12,4
8.52408,-9.04554,1.96857,26,12
3.95578,-4.19777,-0.504632,12,5
8.49713,-9.02009,2.40877,4,13
3.94344,-4.1876,-0.301455,33,6
3.93993,-4.18681,-0.100351,38,7
6.7997,-7.2283,2.65911,30,15
3.94977,-4.21049,0.10077,15,8
0.363912,-0.38807,-0.122823,15,1
3.74679,-3.99691,0.287115,44,9
0.447116,-0.476964,-0.127079,14,2
3.75467,-4.00672,0.480402,33,10
4.27696,-4.56567,-0.990856,17,3
19.7831,-21.1259,3.55371,45,11
4.74408,-5.06786,-0.852354,28,4
9.67347,-10.3373,2.24233,6,12
3.94791,-4.21883,-0.505503,26,5
8.36098,-8.93786,2.37901,24,13
3.9288,-4.20134,-0.301455,42,6
5.97652,-6.39336,2.02051,6,14
3.7833,-4.04859,-0.0967212,35,7
6.29045,-6.73389,2.46913,36,15
3.96503,-4.25644,0.101538,15,8
0.335995,-0.360815,-0.113825,16,1
4.0812,-4.38421,0.313911,42,9
0.431991,-0.464227,-0.123263,15,2
3.69316,-3.96875,0.474302,22,10
4.2758,-4.59648,-0.994298,40,3
10.5873,-11.3853,1.90896,4,11
8.67018,-9.32696,-1.56358,6,4
9.65481,-10.3898,2.2464,4,12
3.90394,-4.20261,-0.501843,32,5
9.77764,-10.5294,2.79306,14,13
3.9718,-4.27866,-0.305956,28,6
9.41584,-10.1433,3.1952,13,14
3.66305,-3.94743,-0.0939987,16,7
6.25508,-6.74306,2.46447,45,15
0.361126,-0.390664,-0.122823,15,1
3.72623,-4.03242,0.287743,25,9
0.43295,-0.468691,-0.124026,14,2
7.63702,-8.26747,0.984686,10,10
10.5026,-11.3736,-2.45195,15,3
9.66761,-10.473,1.75004,7,11
8.49593,-9.20695,-1.53823,33,4
8.42328,-9.13142,1.96763,20,12
3.93443,-4.26669,-0.507769,26,5
9.67512,-10.4958,2.77474,11,13
4.36483,-4.73675,-0.337567,35,6
9.59385,-10.4113,3.26854,9,14
3.6472,-3.95936,-0.0939638,4,7
6.23817,-6.77447,2.46758,24,15
3.81473,-4.15576,0.0984665,23,8
0.341246,-0.371883,-0.116525,16,1
3.90989,-4.26241,0.30313,37,9
0.418041,-0.455732,-0.12021,15,2
4.15411,-4.53024,0.537751,30,10
5.38325,-5.87272,-1.2618,18,3
9.65733,-10.5391,1.75516,38,11
4.78551,-5.22429,-0.869903,7,4
8.40443,-9.17826,1.97107,21,12
3.88184,-4.23926,-0.502889,31,5
9.66361,-10.5571,2.782,10,13
3.92221,-4.28634,-0.304491,34,6
8.08381,-8.8374,2.7651,68,14
3.61242,-3.95057,-0.0934402,33,7
6.25762,-6.84577,2.48518,48,15
3.80154,-4.17053,0.0985014,85,8
0.358321,-0.393238,-0.122823,15,1
3.95685,-4.34395,0.307945,27,9
0.419091,-0.460091,-0.120973,15,2
3.94913,-4.337,0.513173,52,10
8.44897,-9.28204,-1.98797,40,3
9.6993,-10.6594,1.76954,19,11
4.26233,-4.68588,-0.77777,7,4
8.18097,-8.99708,1.92602,8,12
4.59351,-5.05174,-0.597365,6,5
7.87567,-8.66435,2.27597,7,13
4.57208,-5.0317,-0.356303,33,6
9.39593,-10.3441,3.22625,11,14
3.71556,-4.09195,-0.0964769,8,7
6.11163,-6.73311,2.43652,18,15
3.74268,-4.13485,0.0973495,75,8
0.330797,-0.365586,-0.113825,16,1
3.7843,-4.1823,0.295594,21,9
0.422751,-0.467375,-0.122499,15,2
3.96871,-4.38918,0.517705,35,10
5.12091,-5.66543,-1.20955,42,3
6.85392,-7.58539,1.25525,11,11
4.70368,-5.20749,-0.861616,9,4
3.92025,-4.34167,-0.511779,6,5
20.4119,-22.6141,5.92157,23,13
4.46083,-4.94383,-0.348976,43,6
8.01278,-8.88349,2.76195,2,14
3.59349,-3.98397,-0.0936496,20,7
6.03364,-6.69164,2.41426,63,15
3.71424,-4.13088,0.0969656,68,8
0.355636,-0.395668,-0.122823,15,1
3.69893,-4.11674,0.290046,19,9
0.407998,-0.454242,-0.118683,15,2
4.00528,-4.46082,0.524503,58,10
4.58476,-5.10621,-1.08691,18,3
9.27381,-10.3322,1.70471,7,11
4.56839,-5.09156,-0.839924,39,4
8.2765,-9.22755,1.96325,20,12
3.9197,-4.37165,-0.513696,25,5
8.37876,-9.34484,2.43968,10,13
4.87899,-5.44345,-0.383099,35,6
21.1201,-23.5718,7.30686,21,14
3.61024,-4.03075,-0.0944524,4,7
9.02182,-10.0762,3.62398,10,15
3.7544,-4.20498,0.0983967,15,8
0.328301,-0.36783,-0.113825,16,1
3.72443,-4.17434,0.293186,12,9
0.414332,-0.464382,-0.120973,15,2
4.05545,-4.54694,0.533045,15,10
4.01215,-4.49997,-0.954876,11,3
9.29317,-10.4268,1.71495,11,11
3.9788,-4.46571,-0.734385,34,4
6.74254,-7.57032,1.60564,9,12
3.91237,-4.39423,-0.514742,13,5
8.27429,-9.29339,2.41869,9,13
4.35802,-4.8965,-0.343533,27,6
6.0933,-6.84859,2.11634,1,14
4.09052,-4.59918,-0.107437,52,7
9.03665,-10.1639,3.64417,13,15
0.33477,-0.377724,-0.116525,16,1
3.70454,-4.18133,0.292767,38,9
0.417833,-0.471777,-0.122499,15,2
4.15498,-4.69305,0.548384,97,10
7.6273,-8.61806,-1.82277,25,3
9.23303,-10.4324,1.71056,27,11
3.92241,-4.43348,-0.726829,21,4
8.00249,-9.04836,1.91319,3,12
4.21769,-4.77058,-0.557099,18,5
13.4615,-15.2315,3.95127,7,13
4.53576,-5.13396,-0.359025,33,6
6.17136,-6.98773,2.15233,12,14
4.10489,-4.6479,-0.10824,26,7
7.99361,-9.05422,3.23627,31,15
3.62778,-4.12215,0.0958486,56,8
0.351404,-0.399432,-0.122823,15,1
3.68992,-4.19424,0.292767,39,9
0.42137,-0.479129,-0.124026,14,2
4.10568,-4.67011,0.544026,43,10
4.33062,-4.92771,-1.03904,5,3
9.27334,-10.5556,1.72518,7,11
7.58172,-8.63313,-1.41076,22,4
20.1859,-22.9852,4.84509,15,12
4.15237,-4.72988,-0.55065,12,5
7.86052,-8.9569,2.31642,30,13
4.15955,-4.74139,-0.330554,35,6
6.11738,-6.97553,2.14198,16,14
3.67463,-4.19012,-0.0972797,36,7
6.99281,-7.97658,2.84235,21,15
3.64699,-4.1718,0.0967212,19,8
3.70285,-4.23868,0.294965,20,9
0.401616,-0.459895,-0.118683,15,2
3.88233,-4.44727,0.516485,15,10
9.19261,-10.534,1.71665,23,11
4.16149,-4.7704,-0.777283,34,4
4.35321,-4.99194,1.04905,6,12
3.94338,-4.52357,-0.525026,13,5
7.90302,-9.06579,2.33779,24,13
4.52695,-5.19483,-0.361118,77,6
6.17614,-7.08982,2.17078,34,14
3.89111,-4.46833,-0.103423,40,7
8.99568,-10.3338,3.67109,9,15
3.6678,-4.22527,0.0976637,41,8
0.348677,-0.401815,-0.122823,15,1
3.72206,-4.2908,0.297687,23,9
0.397436,-0.458327,-0.11792,16,2
3.9002,-4.49775,0.520843,16,10
3.95539,-4.56301,-0.95644,43,3
4.48364,-5.17423,0.840655,9,11
4.2046,-4.85392,-0.788495,12,4
4.33964,-5.01159,1.04999,11,12
7.78881,-9.00116,2.31375,22,13
4.42557,-5.11623,-0.354524,30,6
3.79832,-4.39264,-0.101364,38,7
3.70319,-4.29777,0.099025,77,8
0.347202,-0.40309,-0.122823,15,1
3.80405,-4.41793,0.305537,44,9
0.405999,-0.471684,-0.120973,15,2
3.91878,-4.55279,0.525549,15,10
4.10485,-4.77064,-0.996801,18,3
4.4763,-5.20417,0.842848,26,11
4.06253,-4.7248,-0.765096,29,4
4.31223,-5.01697,1.0478,38,12
3.84988,-4.48065,-0.516834,50,5
7.69564,-8.95965,2.29581,27,13
3.54907,-4.13492,-0.0951156,34,7
0.330526,-0.386586,-0.117424,16,1
3.78913,-4.43336,0.305642,27,9
0.414555,-0.485038,-0.124026,14,2
4.3003,-5.035,-1.04874,11,3
6.73864,-7.89272,1.27427,3,11
4.17019,-4.88612,-0.788738,14,4
3.85232,-4.51528,-0.519274,7,5
7.31652,-8.57866,2.19163,21,13
7.39724,-8.67944,2.63283,100,14
3.55204,-4.16921,-0.0956043,34,7
5.68799,-6.67864,2.35059,7,15
3.88075,-4.56956,0.104645,42,8
0.344308,-0.405564,-0.122823,15,1
3.81369,-4.49377,0.308887,37,9
0.412859,-0.486482,-0.124026,14,2
4.16064,-4.90432,0.562677,56,10
4.71071,-5.55468,-1.15355,13,3
6.73158,-7.94042,1.27817,15,11
4.1929,-4.94759,-0.796294,10,4
3.85714,-4.55302,-0.522063,13,5
3.6727,-4.33837,-0.297896,9,6
3.55297,-4.19991,-0.0960231,21,7
7.60941,-8.99814,3.15759,22,15
3.82482,-4.53568,0.103563,33,8
0.342891,-0.406763,-0.122823,15,1
4.02578,-4.77739,0.327414,34,9
0.393447,-0.466902,-0.118683,15,2
4.14606,-4.92187,0.563026,67,10
7.34549,-8.72305,-1.80619,36,3
4.28896,-5.09511,0.817743,85,11
4.1117,-4.88626,-0.784107,14,4
7.24937,-8.61805,1.78367,48,12
7.11873,-8.46575,2.15004,30,13
3.60356,-4.28695,-0.2935,18,6
3.50484,-4.17247,-0.0951156,34,7
5.64992,-6.72854,2.35422,25,15
3.43025,-4.09671,0.0932657,53,8
0.341469,-0.407958,-0.122823,15,1
4.01805,-4.80213,0.328146,43,9
0.399374,-0.477307,-0.120973,15,2
4.1442,-4.95465,0.565118,75,10
7.32893,-8.76531,-1.80963,16,3
4.16931,-4.9882,0.798244,27,11
4.11371,-4.92343,-0.787763,17,4
7.21038,-8.63269,1.78148,90,12
3.95426,-4.73428,-0.539668,16,5
8.11085,-9.71425,2.45991,12,13
3.34285,-4.0051,-0.273403,11,6
5.97135,-7.15687,2.15188,18,14
3.53125,-4.23382,-0.0962326,48,7
6.84125,-8.20529,2.86254,61,15
3.40442,-4.09482,0.0929515,17,8
4.04977,-4.87451,0.332124,60,9
0.397705,-0.478698,-0.120973,15,2
4.24908,-5.11622,0.581852,15,10
4.23589,-5.10215,-1.0503,13,3
4.15567,-5.00731,0.798975,100,11
4.30816,-5.1929,-0.828468,50,4
4.11468,-4.96144,1.02089,86,12
3.75377,-4.52787,-0.514567,37,5
8.03805,-9.69565,2.44808,12,13
4.11518,-4.96557,-0.337986,19,6
5.79466,-6.99459,2.09699,15,14
3.50241,-4.22918,-0.0958486,52,7
6.58219,-7.95085,2.76574,25,15
3.41047,-4.13136,0.09351,60,8
0.338612,-0.410332,-0.122823,15,1
3.83192,-4.64518,0.315586,48,9
0.395948,-0.480153,-0.120973,15,2
4.20836,-5.10697,-1.04811,11,3
4.14953,-5.03557,0.801169,27,11
4.4036,-5.3458,-0.850404,52,4
4.12873,-5.01389,1.02871,70,12
3.74554,-4.55018,-0.515613,53,5
6.16994,-7.49806,1.88748,13,13
4.02463,-4.89269,-0.332019,16,6
3.45461,-4.20122,-0.0949411,46,7
6.56299,-7.98423,2.76936,36,15
3.48909,-4.25829,0.0960929,57,8
0.337106,-0.41157,-0.122823,15,1
3.75287,-4.58347,0.310457,42,9
0.389295,-0.475456,-0.119446,15,2
3.78456,-4.62383,0.52276,22,10
4.17675,-5.10481,-1.04467,18,3
7.06187,-8.63406,1.36957,94,11
4.32367,-5.28814,-0.838705,38,4
3.73468,-4.56939,-0.516311,50,5
6.84058,-8.37246,2.10157,35,13
4.1086,-5.03046,-0.340393,47,6
3.45815,-4.23709,-0.0954647,21,7
6.54223,-8.0187,2.77299,30,15
0.304855,-0.374589,-0.12941,15,0
3.84523,-4.72649,0.106355,39,8
0.335667,-0.412744,-0.122823,15,1
3.74692,-4.60894,0.311294,33,9
0.402494,-0.495092,-0.124026,14,2
3.49321,-4.2984,0.484586,7,10
3.34805,-4.12125,-0.840992,13,3
7.03544,-8.66328,1.3703,100,11
4.18632,-5.15679,-0.81555,32,4
6.87227,-8.4684,1.72735,9,12
3.73001,-4.59633,-0.517879,31,5
8.05929,-9.93466,2.48662,42,13
5.43761,-6.70771,1.99352,40,14
3.54406,-4.37343,-0.098257,18,7
5.62772,-6.94718,2.39563,18,15
3.98075,-4.92811,0.110578,97,8
0.334225,-0.413913,-0.122823,15,1
3.75214,-4.64842,0.313074,38,9
0.395831,-0.490383,-0.122499,15,2
3.50321,-4.34158,0.488072,84,10
3.33613,-4.13598,-0.841618,6,3
7.00889,-8.69242,1.37103,100,11
4.32277,-5.36301,-0.845773,28,4
3.71894,-4.61552,-0.518577,28,5
8.01348,-9.94897,2.48319,12,13
3.5235,-4.37609,-0.294442,18,6
5.42516,-6.74031,1.99757,16,14
3.57641,-4.44498,-0.0995834,50,7
5.62523,-6.99388,2.40495,30,15
0.31815,-0.396832,-0.117424,16,1
3.70841,-4.6272,0.310771,34,9
0.389206,-0.485634,-0.120973,15,2
6.70824,-8.37325,0.938667,17,10
3.31055,-4.13373,-0.838802,5,3
4.00882,-5.0092,-0.787763,20,4
6.25275,-7.81588,1.58531,21,12
3.65551,-4.56936,-0.511953,38,5
3.53564,-4.42268,-0.296745,72,6
5.39673,-6.75312,1.99577,5,14
3.45104,-4.31995,-0.0965118,48,7
5.66106,-7.08895,2.43083,22,15
3.92133,-4.9245,0.10988,23,8
0.314336,-0.394891,-0.116525,16,1
3.65244,-4.5901,0.307421,26,9
0.387508,-0.48699,-0.120973,15,2
4.02475,-5.0598,0.565641,20,10
3.29488,-4.14371,-0.838489,45,3
6.48236,-8.15529,1.27914,18,11
3.98761,-5.0185,-0.787032,28,4
6.20822,-7.816,1.58093,35,12
3.66104,-4.61081,-0.51509,50,5
6.88172,-8.66703,2.15118,10,13
3.44195,-4.33644,-0.290151,31,6
8.36735,-10.5456,3.10792,10,14
3.38872,-4.27243,-0.0951854,46,7
5.84752,-7.37509,2.52193,16,15
3.89792,-4.93031,0.109706,15,8
0.329872,-0.417391,-0.122823,15,1
3.97441,-5.03067,0.335997,39,9
0.390588,-0.49457,-0.122499,15,2
3.99383,-5.05888,0.563898,13,10
7.05495,-8.93953,-1.80369,6,3
4.02874,-5.10494,0.798488,27,11
3.92492,-4.97874,-0.554659,27,5
5.68335,-7.21188,1.78483,9,13
3.47794,-4.41492,-0.294547,66,6
5.33863,-6.77931,1.99217,5,14
3.46038,-4.39421,-0.0976288,63,7
5.11195,-6.49379,2.21446,16,15
3.6675,-4.67398,0.103702,13,8
0.32834,-0.418597,-0.122823,15,1
3.84465,-4.9015,0.326472,22,9
0.393705,-0.50211,-0.124026,14,2
3.95525,-5.04613,0.560934,15,10
10.9455,-13.9694,-2.81081,3,3
3.9843,-5.08685,0.793369,22,11
3.96628,-5.06566,-0.789957,29,4
6.85374,-8.75348,1.76083,137,12
3.71349,-4.74451,-0.527118,18,5
3.36777,-4.3059,-0.286487,14,6
5.74104,-7.34291,2.15188,30,14
3.44626,-4.40783,-0.0976637,67,7
7.31743,-9.36251,3.18399,8,15
0.32695,-0.419683,-0.122823,15,1
4.02632,-5.17017,0.343429,13,9
0.375065,-0.481793,-0.118683,15,2
3.94373,-5.06777,0.561806,7,10
3.28406,-4.22008,-0.846936,5,3
3.95888,-5.08907,0.791663,32,11
10.4043,-13.3794,-2.08104,13,4
3.61133,-4.64732,-0.514916,15,5
5.66184,-7.28606,1.7936,9,13
3.33509,-4.29338,-0.284917,43,6
5.31148,-6.84012,1.99936,20,14
3.46763,-4.46723,-0.0987108,41,7
5.78773,-7.45881,2.5297,35,15
3.57809,-4.6245,0.102062,17,8
0.325483,-0.420822,-0.122823,15,1
0.387876,-0.501672,-0.123263,15,2
4.91137,-6.35457,0.70265,67,10
4.01568,-5.19756,-1.04029,5,3
11.6655,-15.1043,2.3433,20,11
3.89895,-5.05012,-0.783376,4,4
10.3468,-13.4065,2.68223,10,12
5.08351,-6.58917,-0.728099,22,5
3.33106,-4.31923,-0.285859,60,6
5.29947,-6.87405,2.00386,31,14
3.4569,-4.48564,-0.0988504,32,7
4.97646,-6.45974,2.18495,24,15
3.98097,-5.18248,0.114069,41,8
0.324012,-0.421956,-0.122823,15,1
4.07647,-5.31064,0.35086,36,9
0.369302,-0.481284,-0.11792,16,2
4.87835,-6.35988,0.701255,73,10
0.437523,-0.570603,-0.113884,11,3
3.80125,-4.95747,0.767046,27,11
3.83903,-5.00855,-0.774845,11,4
7.16658,-9.35318,1.86626,13,12
5.07138,-6.62111,-0.729668,6,5
5.62388,-7.34509,1.79818,12,13
3.30793,-4.32189,-0.285231,28,6
5.62475,-7.35155,2.13703,30,14
3.82034,-4.99319,-0.109741,55,7
6.66621,-8.71588,2.94018,24,15
4.00438,-5.2527,0.115291,71,8
0.322463,-0.42314,-0.122823,15,1
4.04609,-5.31125,0.349918,35,9
0.36762,-0.48257,-0.11792,16,2
4.85853,-6.38004,0.701604,52,10
3.86591,-5.07841,-1.01088,2,3
3.80229,-4.99665,0.770946,35,11
3.76777,-4.95307,-0.764121,25,4
7.21954,-9.49417,1.8891,8,12
5.63741,-7.41625,1.81078,9,13
3.79188,-4.99019,-0.328461,13,6
5.26311,-6.92887,2.00881,40,14
3.42834,-4.51504,-0.0989551,50,7
3.98844,-5.26983,0.11536,19,8
0.320984,-0.424263,-0.122823,15,1
0.375408,-0.496378,-0.120973,15,2
11.929,-15.7786,1.73056,17,10
13.8967,-18.3881,-3.65055,2,3
10.25,-13.5677,2.08787,27,11
4.34622,-5.75508,-0.885503,5,4
7.2054,-9.54454,1.89411,5,12
4.61208,-6.10934,-0.669705,25,5
3.89953,-5.16921,-0.339346,13,6
5.25297,-6.96587,2.01421,17,14
3.37525,-4.47748,-0.0978731,40,7
11.9412,-15.8466,5.31666,11,15
3.97963,-5.29651,0.11564,30,8
0.319501,-0.425381,-0.122823,15,1
3.70311,-4.93208,0.323227,7,9
0.359527,-0.478845,-0.116393,16,2
11.8475,-15.7851,1.72673,7,10
11.9475,-15.9242,-3.15309,2,3
10.2634,-13.6844,2.1003,40,11
3.7331,-4.97926,-0.764121,8,4
7.21587,-9.62812,1.90568,4,12
4.60041,-6.14055,-0.671273,15,5
5.72675,-7.64398,1.85657,24,13
3.89702,-5.20358,-0.340707,30,6
5.30337,-7.084,2.04301,8,14
3.22421,-4.30832,-0.0939289,24,7
10.9971,-14.7001,4.91912,6,15
3.90492,-5.23504,0.113999,64,8
0.318015,-0.426494,-0.122823,15,1
0.362462,-0.486457,-0.11792,16,2
10.6387,-14.2833,1.55817,6,10
9.94492,-13.3567,-2.63749,7,3
10.2428,-13.7568,2.1059,4,11
10.1657,-13.6582,-2.09055,15,4
11.5486,-15.5219,3.06424,6,12
3.50526,-4.71295,-0.51387,12,5
5.69167,-7.65546,1.85428,36,13
3.84338,-5.17134,-0.337672,35,6
3.2163,-4.32918,-0.0941383,34,7
3.49904,-4.72696,0.102655,41,8
0.316449,-0.427657,-0.122823,15,1
3.59052,-4.85408,0.316423,51,9
0.377107,-0.509817,-0.123263,15,2
19.1069,-25.8404,2.81164,17,10
3.67749,-4.97529,-0.979906,1,3
10.6406,-14.4009,2.19852,28,11
9.31714,-12.6144,-1.92554,8,4
14.317,-19.3908,3.81763,7,12
3.48796,-4.72577,-0.51387,5,5
3.47431,-4.709,-0.306689,12,6
5.12646,-6.95083,1.99397,32,14
3.20753,-4.35059,-0.0943477,21,7
6.27962,-8.52059,2.83614,140,15
3.49554,-4.75687,0.103039,44,8
0.314955,-0.428759,-0.122823,15,1
3.65631,-4.97928,0.32375,18,9
0.363618,-0.495369,-0.119446,15,2
3.94268,-5.37321,0.583072,7,10
3.68026,-5.01741,-0.985537,6,3
4.0365,-5.50308,0.837974,9,11
9.60759,-13.1031,-1.995,9,4
11.4373,-15.6042,3.06424,6,12
4.1874,-5.71507,-0.619852,11,5
4.10714,-5.60964,-0.364363,6,6
6.64551,-9.07994,2.59773,22,14
3.15808,-4.31497,-0.0933355,41,7
3.46748,-4.7551,0.102725,15,8
0.313381,-0.42991,-0.122823,15,1
3.66038,-5.02331,0.325739,36,9
0.373449,-0.512502,-0.123263,15,2
3.85117,-5.28709,0.572265,28,10
0.439527,-0.603627,-0.118264,10,3
4.02331,-5.52746,0.839436,11,11
9.30255,-12.7851,-1.94138,6,4
18.5398,-25.4898,4.99214,15,12
4.24243,-5.83277,-0.631008,13,5
6.60158,-9.07963,2.18209,129,13
3.57674,-4.92115,-0.318831,13,6
6.67448,-9.18664,2.62158,10,14
3.14694,-4.33298,-0.0934751,61,7
9.88444,-13.6148,4.50811,15,15
0.311878,-0.431002,-0.122823,15,1
3.62058,-5.00531,0.32375,105,9
0.327933,-0.453355,-0.108761,17,2
3.82803,-5.29404,0.571567,20,10
3.66482,-5.07019,-0.990856,5,3
4.01097,-5.55113,0.840899,26,11
9.52869,-13.1924,-1.99817,18,4
10.3135,-14.2842,2.79048,34,12
3.65755,-5.06572,-0.546641,2,5
3.58875,-4.9741,-0.321447,35,6
6.62756,-9.18933,2.61573,28,14
3.13998,-4.3553,-0.0937194,37,7
9.87187,-13.6978,4.52416,9,15
0.310372,-0.432088,-0.122823,15,1
3.75427,-5.22655,0.337253,24,9
0.362991,-0.505528,-0.120973,15,2
3.81417,-5.31385,0.572265,11,10
3.88778,-5.4184,-1.05625,3,3
3.97653,-5.54413,0.83773,66,11
9.47564,-13.2159,-1.99671,11,4
10.273,-14.328,2.79236,16,12
4.79935,-6.69624,-0.720778,22,5
6.54604,-9.13667,2.18476,9,13
3.17016,-4.4264,-0.285336,14,6
6.63061,-9.26153,2.62968,60,14
3.16278,-4.41772,-0.0948364,38,7
10.2604,-14.3368,4.72397,24,15
3.41369,-4.78405,0.102585,24,8
0.308938,-0.433114,-0.122823,15,1
3.59338,-5.0396,0.324378,112,9
0.356667,-0.500397,-0.119446,15,2
3.82103,-5.36283,0.576099,24,10
3.94315,-5.53422,-1.07627,12,3
3.93739,-5.52818,0.833343,47,11
2.95549,-4.1511,-0.625677,2,4
6.52891,-9.1735,1.78335,10,12
3.8554,-5.41907,-0.581852,10,5
17.8081,-25.0306,5.97118,23,13
3.17514,-4.46455,-0.287115,43,6
6.56711,-9.23741,2.61663,28,14
3.07551,-4.32767,-0.0926723,33,7
10.1006,-14.2182,4.67324,9,15
3.82115,-5.39481,0.115395,64,8
0.307424,-0.43419,-0.122823,15,1
3.61705,-5.10854,0.328042,43,9
0.364079,-0.514397,-0.122499,15,2
4.65708,-6.58231,0.705439,48,10
0.4266,-0.603179,-0.117013,10,3
3.9089,-5.52892,0.831393,52,11
3.0418,-4.30404,-0.647126,53,4
9.42047,-13.3297,2.58524,10,12
4.72261,-6.68482,-0.716072,12,5
11.2663,-15.9533,3.79634,1,13
3.01786,-4.27492,-0.27424,13,6
6.54719,-9.27779,2.62158,18,14
3.0254,-4.2872,-0.0915902,4,7
6.51557,-9.2364,3.0287,19,15
3.8067,-5.41236,0.1155,60,8
0.305982,-0.435207,-0.122823,15,1
3.66006,-5.20774,0.333589,36,9
0.353252,-0.502814,-0.119446,15,2
4.6398,-6.60668,0.70631,39,10
11.7253,-16.6957,-3.23131,2,3
3.88256,-5.53048,0.829687,38,11
2.92488,-4.16787,-0.62519,6,4
9.48279,-13.5177,2.61527,21,12
2.99908,-4.27836,-0.273822,35,6
10.2985,-14.6969,4.14315,11,14
3.15498,-4.5041,-0.0959882,8,7
4.90208,-7.00089,2.29003,10,15
3.78131,-5.42038,0.11536,60,8
0.304309,-0.436379,-0.122823,15,1
3.54181,-5.08085,0.324588,78,9
0.342425,-0.49122,-0.116393,16,2
3.25777,-4.67512,0.498531,22,10
3.52045,-5.05396,-0.975525,6,3
3.83407,-5.50625,0.823837,19,11
2.91906,-4.19373,-0.627383,35,4
9.40374,-13.5151,2.60776,20,12
2.82892,-4.06574,-0.433338,60,5
3.01912,-4.34232,-0.277171,13,6
11.2663,-16.2101,4.55751,14,14
3.19699,-4.60158,-0.0978033,4,7
10.9724,-15.799,5.15412,8,15
3.76123,-5.4319,0.115326,44,8
0.302784,-0.437438,-0.122823,15,1
3.37518,-4.87802,0.310876,27,9
0.354113,-0.511786,-0.120973,15,2
3.23917,-4.68319,0.498182,52,10
3.40392,-4.92323,-0.947993,10,3
3.82724,-5.53756,0.826518,19,11
2.90328,-4.20226,-0.62714,43,4
9.48448,-13.7331,2.64343,7,12
2.82037,-4.08378,-0.43421,56,5
5.85243,-8.47725,2.00235,1,13
3.01188,-4.36434,-0.277904,38,6
9.76225,-14.1512,3.96904,22,14
3.69403,-5.3568,-0.11358,57,7
6.43278,-9.33182,3.03698,25,15
3.56102,-5.18132,0.109741,97,8
0.301255,-0.438493,-0.122823,15,1
3.34457,-4.87002,0.30962,30,9
0.343433,-0.500072,-0.11792,16,2
4.60754,-6.71154,0.712237,46,10
0.409089,-0.596119,-0.11451,22,3
3.79105,-5.52633,0.822862,14,11
2.89869,-4.2271,-0.629333,46,4
10.4808,-15.2896,2.93596,4,12
2.81552,-4.10889,-0.435779,48,5
4.70318,-6.86625,-0.436168,32,6
6.90201,-10.0801,2.82044,23,14
3.70919,-5.41917,-0.114627,23,7
9.46444,-13.8328,4.49103,12,15
3.51023,-5.14581,0.108728,24,8
0.299723,-0.439542,-0.122823,15,1
3.31517,-4.86351,0.308468,36,9
0.34602,-0.507818,-0.119446,15,2
3.21903,-4.72601,0.500274,39,10
3.45977,-5.08136,-0.973648,5,3
3.76727,-5.53297,0.821887,9,11
2.90738,-4.27166,-0.634452,16,4
2.80452,-4.12363,-0.436302,46,5
5.77396,-8.49293,1.99624,16,13
4.67349,-6.87684,-0.435749,39,6
6.84421,-10.0747,2.81189,23,14
3.73408,-5.49659,-0.115989,24,7
9.61688,-14.1614,4.58679,9,15
3.79397,-5.60578,0.118153,60,8
0.29811,-0.440637,-0.122823,15,1
3.28614,-4.85908,0.307421,23,9
0.339846,-0.502517,-0.11792,16,2
3.19024,-4.71906,0.498357,52,10
3.88111,-5.74317,-1.09786,6,3
4.56369,-6.75577,1.00103,24,11
2.84393,-4.21154,-0.623971,36,4
7.8822,-11.6771,2.23138,12,12
2.78342,-4.12349,-0.435256,30,5
7.03567,-10.4269,2.44503,11,13
3.45554,-5.12305,-0.323855,16,6
6.75888,-10.0242,2.79119,17,14
3.71502,-5.5119,-0.116024,24,7
9.56815,-14.2014,4.58834,12,15
3.78107,-5.62895,0.118362,34,8
0.29657,-0.441675,-0.122823,15,1
3.26582,-4.86555,0.307107,40,9
0.359973,-0.536302,-0.125552,14,2
4.50475,-6.71389,0.707356,67,10
0.412622,-0.615205,-0.117326,21,3
6.48125,-9.66697,1.42904,20,11
2.82811,-4.2198,-0.623727,40,4
5.47974,-8.17936,1.55934,25,12
2.77788,-4.14642,-0.43665,38,5
9.41351,-14.0564,3.2884,12,13
4.6887,-7.0039,-0.441716,36,6
9.52979,-14.2408,3.95599,22,14
3.09314,-4.62397,-0.0971052,4,7
10.1542,-15.1854,4.89479,1,15
3.19236,-4.78856,0.100456,33,8
0.295026,-0.442708,-0.122823,15,1
3.24328,-4.86861,0.306584,23,9
0.340683,-0.511413,-0.119446,15,2
0.395148,-0.593621,-0.112946,23,3
6.46616,-9.71763,1.43318,27,11
5.41616,-8.1458,1.54933,21,12
4.58493,-6.89826,1.61005,19,13
3.31801,-4.99401,-0.314225,19,6
3.05486,-4.60142,-0.0964071,13,7
10.3971,-15.6666,5.03817,9,15
3.17783,-4.80301,0.100526,56,8
0.293479,-0.443735,-0.122823,15,1
3.80895,-5.76125,0.361956,39,9
0.334565,-0.506048,-0.11792,16,2
6.03194,-9.1271,0.957144,25,10
3.35256,-5.07478,-0.963324,2,3
4.65569,-7.05001,1.03735,9,11
9.43359,-14.2905,-2.10249,18,4
5.36267,-8.12673,1.54213,37,12
3.60261,-5.4595,-0.572265,25,5
4.68037,-7.09815,-0.445588,39,6
6.32001,-9.58843,2.65127,24,14
3.04868,-4.62709,-0.0967212,21,7
6.87185,-10.4336,3.34757,8,15
3.13581,-4.77562,0.099723,39,8
0.291928,-0.444757,-0.122823,15,1
3.75375,-5.72107,0.358606,53,9
0.354337,-0.540043,-0.125552,14,2
0.405074,-0.617841,-0.117013,21,3
4.6452,-7.0878,1.04052,26,11
9.03772,-13.7953,-2.02498,6,4
5.37647,-8.20985,1.55433,21,12
4.61619,-7.05428,-0.44182,14,6
9.33854,-14.2762,3.93844,16,14
3.04893,-4.66281,-0.0972448,27,7
5.52264,-8.44913,2.70466,3,15
3.12457,-4.79492,0.0998976,15,8
0.290374,-0.445773,-0.122823,15,1
3.34796,-5.14164,0.321552,12,9
0.352355,-0.541338,-0.125552,14,2
6.11968,-9.4055,0.981722,44,10
8.77236,-13.4876,-2.54832,5,3
4.5977,-7.06903,1.0354,23,11
2.70075,-4.15402,-0.608372,5,4
5.53508,-8.51677,1.60877,21,12
2.77109,-4.26547,-0.445017,22,5
6.70536,-10.3254,2.39313,15,13
4.62184,-7.11974,-0.444856,29,6
5.94148,-9.15607,2.5199,1,14
3.14693,-4.84955,-0.10091,28,7
6.6874,-10.3095,3.2927,11,15
3.16994,-4.90374,0.101922,72,8
0.288738,-0.446834,-0.122823,15,1
3.33993,-5.17066,0.322599,39,9
0.316376,-0.489792,-0.113341,16,2
5.45997,-8.45601,0.880622,18,10
0.391001,-0.605786,-0.114197,22,3
4.56207,-7.07082,1.03321,100,11
2.67152,-4.14221,-0.605203,4,4
9.98974,-15.4951,2.92001,28,12
2.74215,-4.25335,-0.442751,8,5
6.67885,-10.3635,2.39656,5,13
4.61319,-7.16101,-0.446426,36,6
6.32202,-9.81738,2.69581,17,14
3.22655,-5.01239,-0.104051,55,7
6.65166,-10.3372,3.29373,8,15
3.14309,-4.89963,0.101608,61,8
0.287177,-0.447839,-0.122823,15,1
3.2906,-5.13352,0.319563,25,9
0.314664,-0.490893,-0.113341,16,2
5.71312,-8.91621,0.926466,30,10
0.381426,-0.595504,-0.112007,23,3
3.33976,-5.21823,-0.760709,14,4
4.54995,-7.11183,1.3372,46,12
3.33287,-5.20946,-0.541063,1,5
5.28872,-8.26974,1.90809,6,13
3.50701,-5.48587,-0.34123,16,6
8.86177,-13.8674,3.79942,27,14
3.23272,-5.06069,-0.104819,20,7
9.25531,-14.4944,4.60801,16,15
3.10986,-4.88527,0.101084,16,8
0.285612,-0.448839,-0.122823,15,1
3.24479,-5.10116,0.316842,17,9
0.325593,-0.511867,-0.11792,16,2
3.24668,-5.1061,0.529384,7,10
0.380405,-0.598498,-0.11232,23,3
3.91965,-6.16923,0.897446,4,11
9.56974,-15.0679,-2.1917,26,4
4.03278,-6.3522,1.19172,45,12
5.25877,-8.28649,1.90771,23,13
4.65616,-7.33977,-0.455532,47,6
3.59188,-5.66646,-0.117106,49,7
6.50799,-10.2708,3.25801,9,15
3.08852,-4.88933,0.100945,37,8
0.284043,-0.449833,-0.122823,15,1
3.14382,-4.98072,0.308677,14,9
0.340477,-0.539623,-0.124026,14,2
4.1654,-6.60432,0.683127,37,10
0.379262,-0.60156,-0.112633,23,3
3.01408,-4.78073,0.693924,2,11
9.43347,-14.9685,-2.17244,14,4
4.00427,-6.35621,1.18984,45,12
3.75841,-5.96825,-0.617063,23,5
4.26824,-6.78048,1.55738,7,13
4.42837,-7.0403,1.92018,41,14
4.67831,-7.43766,-0.153372,24,7
6.396,-10.1724,3.21971,11,15
3.09075,-4.93281,0.101608,64,8
0.282393,-0.450871,-0.122823,15,1
3.11494,-4.97528,0.307631,29,9
0.330257,-0.527496,-0.120973,15,2
4.16241,-6.65091,0.686439,41,10
0.37716,-0.60288,-0.112633,23,3
3.00496,-4.80521,0.695874,85,11
2.6411,-4.22501,-0.611784,11,4
3.80299,-6.08605,1.13665,66,12
3.40075,-5.44234,-0.561457,13,5
3.62506,-5.80582,-0.358711,30,6
10.1107,-16.1994,4.40859,26,14
2.91932,-4.67916,-0.0962675,17,7
6.3321,-10.1532,3.20625,11,15
3.06506,-4.92998,0.101329,64,8
0.280817,-0.451854,-0.122823,15,1
2.89203,-4.6553,0.28722,26,9
0.328413,-0.528646,-0.120973,15,2
3.10595,-5.00159,0.51509,16,10
0.376095,-0.605871,-0.112946,23,3
2.99864,-4.83254,0.698311,62,11
2.65145,-4.27469,-0.617634,20,4
3.71406,-5.99017,1.11632,120,12
4.19081,-6.76172,1.54632,73,13
3.62686,-5.85409,-0.360909,43,6
9.3687,-15.1279,4.10806,14,14
2.90508,-4.69272,-0.0963373,17,7
6.13397,-9.91238,3.12343,11,15
3.04469,-4.93555,0.101224,27,8
0.279238,-0.452832,-0.122823,15,1
2.8831,-4.67727,0.287952,33,9
0.326566,-0.529789,-0.120973,15,2
4.27056,-6.93085,0.712237,31,10
3.56367,-5.78587,-1.07627,5,3
4.4388,-7.20953,1.03955,9,11
2.64692,-4.30082,-0.620071,14,4
3.69002,-5.99805,1.11538,124,12
3.73118,-6.06733,-0.623164,25,5
4.28134,-6.96194,1.58868,33,13
2.90019,-4.72158,-0.0967212,21,7
3.02953,-4.94956,0.101294,50,8
0.257315,-0.420558,-0.113825,16,1
2.87301,-4.69752,0.288581,40,9
0.324622,-0.530982,-0.120973,15,2
4.28149,-7.00595,0.718338,35,10
0.37381,-0.611918,-0.113571,23,3
4.40429,-7.20973,1.03735,68,11
3.27331,-5.36044,-0.771189,33,4
3.68141,-6.03112,1.11913,122,12
3.573,-5.85581,-0.600154,32,5
4.28442,-7.02451,1.59936,45,13
3.29792,-5.40923,-0.332019,6,6
2.87537,-4.71801,-0.096442,17,7
6.17718,-10.1397,3.1814,18,15
3.0342,-4.99823,0.102062,35,8
0.275991,-0.454818,-0.122823,15,1
2.85888,-4.71315,0.288895,42,9
0.330912,-0.545541,-0.124026,14,2
3.85724,-6.36153,0.650879,22,10
0.373719,-0.616598,-0.114197,22,3
4.35418,-7.18678,1.03175,95,11
3.22793,-5.32995,-0.765096,38,4
3.67668,-6.0733,1.12445,129,12
4.31984,-7.13852,1.62188,46,13
3.23767,-5.35235,-0.327832,13,6
8.58699,-14.2012,3.83137,21,14
2.85806,-4.72852,-0.096442,35,7
3.00022,-4.98139,0.101503,15,8
0.274401,-0.455779,-0.122823,15,1
2.84447,-4.72652,0.289104,34,9
0.300661,-0.499593,-0.113341,16,2
3.82166,-6.35277,0.648613,16,10
3.52426,-5.86073,-1.08315,2,3
4.31782,-7.18322,1.02906,64,11
4.26978,-7.10892,1.31342,40,12
3.4038,-5.66711,-0.578366,13,5
4.30096,-7.16366,1.62417,46,13
3.44405,-5.73867,-0.350756,30,6
9.30529,-15.5111,4.17599,6,14
2.8477,-4.74876,-0.0966514,83,7
8.53493,-14.2383,4.44806,13,15
2.95204,-4.94033,0.100456,45,8
0.272809,-0.456734,-0.122823,15,1
2.84312,-4.75993,0.290569,27,9
0.298915,-0.500639,-0.113341,16,2
3.17047,-5.31218,0.541237,9,10
0.372442,-0.624281,-0.115136,22,3
3.1876,-5.34724,-0.764365,1,4
4.22595,-7.0891,1.30717,88,12
3.33096,-5.58996,-0.569301,26,5
4.30707,-7.23092,1.636,28,13
2.79764,-4.69868,-0.286592,31,6
8.88431,-14.9273,4.01043,11,14
2.8299,-4.75474,-0.0965816,48,7
5.38418,-9.05,2.82165,7,15
2.93055,-4.94149,0.100282,30,8
0.271293,-0.457636,-0.122823,15,1
2.82954,-4.77498,0.290883,24,9
0.297166,-0.50168,-0.113341,16,2
3.77518,-6.37586,0.648264,15,10
0.363324,-0.613614,-0.112946,23,3
9.35663,-15.8086,2.25556,9,11
3.17995,-5.37487,-0.766802,27,4
3.624,-6.12784,1.12758,106,12
3.27594,-5.54152,-0.5632,21,5
5.92056,-10.0151,2.26147,10,13
2.7729,-4.69246,-0.28565,37,6
9.04191,-15.3073,4.10446,14,14
2.83463,-4.80075,-0.0973146,45,7
6.29326,-10.6625,3.31754,27,15
0.269693,-0.45858,-0.122823,15,1
2.82281,-4.79983,0.291825,48,9
0.315399,-0.536512,-0.120973,15,2
3.76209,-6.40209,0.649659,15,10
0.373186,-0.635318,-0.1167,21,3
3.81645,-6.49978,0.925476,29,11
3.26366,-5.56056,-0.791663,9,4
3.60266,-6.13812,1.12727,122,12
2.75651,-4.70211,-0.28565,28,6
3.79813,-6.48153,1.73437,10,14
3.06336,-5.22764,-0.105762,5,7
6.22369,-10.625,3.29943,9,15
0.268171,-0.459472,-0.122823,15,1
2.77987,-4.7648,0.289104,21,9
0.293744,-0.503691,-0.113341,16,2
3.73872,-6.41346,0.649485,28,10
0.367098,-0.629726,-0.115449,22,3
2.97833,-5.11112,0.726341,12,11
3.09733,-5.31748,-0.75559,30,4
4.94591,-8.49793,-0.860227,50,5
3.76358,-6.46647,1.45435,5,13
2.78609,-4.78891,-0.29036,23,6
4.34454,-7.47366,-0.150894,100,7
5.28877,-9.10162,2.82061,11,15
3.45769,-5.97685,0.120526,9,8
0.266325,-0.460545,-0.122823,15,1
2.76355,-4.7789,0.289313,21,9
0.311458,-0.538809,-0.120973,15,2
3.24856,-5.62214,0.568081,16,10
0.365555,-0.632905,-0.115762,33,3
2.96374,-5.13335,0.727804,70,11
3.07497,-5.32815,-0.755346,12,4
3.53288,-6.1216,1.11945,26,12
4.83758,-8.3857,-0.846979,39,5
2.71199,-4.70489,-0.284603,31,6
3.74565,-6.50076,1.73212,46,14
3.58802,-6.22718,-0.125448,13,7
5.20846,-9.04318,2.79628,14,15
3.4279,-5.97094,0.120177,60,8
0.264796,-0.461426,-0.122823,15,1
2.71505,-4.73308,0.285964,37,9
0.290044,-0.505831,-0.113341,16,2
3.21207,-5.60406,0.565118,43,10
0.357561,-0.623831,-0.113884,34,3
2.94078,-5.13282,0.726341,45,11
3.07406,-5.3676,-0.75949,24,4
3.95018,-6.9002,1.2593,60,12
4.89141,-8.54779,-0.861622,14,5
3.74728,-6.54841,1.46656,10,13
3.73181,-6.52668,1.73572,46,14
3.71907,-6.50703,-0.130823,7,7
3.39918,-5.94973,1.83606,17,15
2.91127,-5.11228,0.10269,11,8
0.263184,-0.462347,-0.122823,15,1
2.67086,-4.69392,0.283033,16,9
0.288365,-0.50679,-0.113341,16,2
3.21317,-5.64932,0.568604,78,10
0.359286,-0.631944,-0.115136,45,3
2.89735,-5.09818,0.720004,22,11
3.06805,-5.40074,-0.762658,26,4
3.93583,-6.93112,1.26243,50,12
4.5832,-8.07446,-0.812292,13,5
2.67596,-4.71629,-0.284184,17,6
3.71862,-6.55661,1.74022,40,14
7.04651,-12.4293,-0.249395,94,7
3.37839,-5.96156,1.83606,53,15
2.90127,-5.13634,0.102969,48,8
0.261568,-0.463263,-0.122823,15,1
0.286505,-0.507843,-0.113341,16,2
3.17874,-5.63676,0.566164,60,10
0.354057,-0.628094,-0.114197,45,3
2.87173,-5.09443,0.718054,72,11
3.03066,-5.37856,-0.758027,21,4
3.91549,-6.9517,1.26368,61,12
4.55401,-8.08867,-0.812117,24,5
3.84668,-6.83512,1.52456,14,13
2.66551,-4.73825,-0.284917,8,6
3.71472,-6.60604,-0.132289,7,7
3.34904,-5.95816,1.8314,101,15
2.82087,-5.03702,0.10077,64,8
0.259868,-0.464219,-0.122823,15,1
0.284731,-0.50884,-0.113341,16,2
3.13084,-5.59739,0.561109,54,10
0.342223,-0.612085,-0.111068,48,3
3.86783,-6.92634,1.25648,48,12
4.71809,-8.44895,-0.846631,16,5
3.68022,-6.59308,1.4677,23,13
3.28832,-5.89342,-0.353686,27,6
3.6251,-6.49966,1.71818,11,14
2.74595,-4.92541,-0.0984316,4,7
3.98358,-7.14828,2.19271,23,15
2.84794,-5.12725,0.102376,63,8
0.239327,-0.431048,-0.113825,16,1
3.32922,-5.99866,0.359548,105,9
0.282953,-0.509831,-0.113341,16,2
3.12385,-5.63094,0.563375,11,10
0.354454,-0.639188,-0.115762,55,3
3.14991,-5.68259,0.797757,2,11
2.81122,-5.07367,-0.712205,17,4
3.67614,-6.63739,1.20173,24,12
4.8044,-8.67451,-0.867548,14,5
3.79126,-6.84807,1.52151,16,13
4.35279,-7.86558,-0.471128,39,6
3.3062,-5.97683,1.57691,11,14
3.28417,-5.93946,-0.118467,25,7
5.50523,-9.96038,3.04941,7,15
2.84063,-5.15643,0.10276,72,8
3.30055,-5.99625,0.358711,120,9
0.281172,-0.510816,-0.113341,16,2
3.0283,-5.50391,0.549604,35,10
0.348413,-0.633498,-0.11451,56,3
3.11284,-5.66223,0.793369,27,11
2.82026,-5.13216,-0.719029,37,4
2.79796,-5.09368,0.920461,51,12
3.22206,-5.86575,-0.585512,10,5
3.70497,-6.74768,1.49632,36,13
2.51196,-4.57681,-0.273612,16,6
3.30219,-6.01909,1.58501,35,14
3.6086,-6.58034,-0.130998,79,7
2.82454,-5.16982,0.10283,72,8
0.254993,-0.466914,-0.122823,15,1
3.29396,-6.03403,0.360281,55,9
0.346199,-0.634711,-0.11451,56,3
2.64834,-4.8574,0.6793,16,11
2.78143,-5.10363,-0.713667,39,4
2.76599,-5.0774,0.915767,100,12
3.38075,-6.20589,-0.618283,7,5
3.65604,-6.71402,1.48602,22,13
4.23188,-7.77473,-0.463906,18,6
3.28861,-6.04427,1.5886,51,14
2.73053,-5.02065,-0.099758,9,7
3.88268,-7.14208,2.17822,49,15
2.81886,-5.20251,0.103283,75,8
0.253362,-0.467802,-0.122823,15,1
3.52771,-6.5162,0.388333,24,9
0.277599,-0.512766,-0.113341,16,2
2.93196,-5.41802,0.538971,65,10
0.342102,-0.63244,-0.113884,57,3
2.76549,-5.1168,-0.714154,46,4
2.75013,-5.0905,0.916393,78,12
4.6351,-8.58317,-0.853429,7,5
3.65497,-6.7682,1.49518,20,13
2.49703,-4.62587,-0.275497,13,6
2.71109,-5.02663,-0.0996881,46,7
3.7963,-7.04165,2.14354,35,15
2.8092,-5.22817,0.103597,45,8
0.251727,-0.468683,-0.122823,15,1
2.87386,-5.353,0.318412,5,9
0.275717,-0.51378,-0.113341,16,2
2.76893,-5.16186,0.512476,52,10
0.337915,-0.630208,-0.113259,58,3
2.60874,-4.86527,0.677837,68,11
2.76824,-5.16491,-0.719517,41,4
2.7454,-5.12445,0.920773,60,12
3.85734,-7.20297,-0.714851,10,5
3.56065,-6.65173,1.46656,7,13
2.48948,-4.6526,-0.276543,33,6
2.78784,-5.21239,-0.103179,48,7
3.75803,-7.02931,2.13577,42,15
2.61799,-4.91544,0.0972099,34,8
0.250008,-0.469603,-0.122823,15,1
2.78854,-5.24007,0.311085,6,9
0.273922,-0.514739,-0.113341,16,2
2.79861,-5.26121,0.521366,50,10
0.331076,-0.622663,-0.111694,60,3
2.59461,-4.88181,0.678812,40,11
2.75488,-5.18554,-0.720979,38,4
3.90044,-7.34493,1.31718,54,12
2.5716,-4.8426,-0.479705,17,5
3.49783,-6.58956,1.45015,22,13
2.46105,-4.63833,-0.275182,11,6
3.24233,-6.11338,1.5976,67,14
2.86238,-5.39926,-0.106669,5,7
2.76611,-5.23753,0.103388,15,8
0.248367,-0.470472,-0.122823,15,1
0.272124,-0.515692,-0.113341,16,2
2.80533,-5.31852,0.526072,67,10
0.336271,-0.637794,-0.114197,56,3
2.60162,-4.9365,0.685149,73,11
2.73769,-5.19689,-0.721223,25,4
3.52135,-6.68732,1.19704,41,12
2.54726,-4.83744,-0.478311,38,5
3.31204,-6.29249,1.38222,26,13
2.47367,-4.70168,-0.278427,13,6
3.23549,-6.15225,1.6048,51,14
2.66859,-5.07645,-0.100107,46,7
2.60309,-4.9708,0.0979429,11,8
0.228648,-0.436806,-0.113825,16,1
2.8093,-5.36913,0.317575,43,9
0.270322,-0.516639,-0.113341,16,2
2.81167,-5.37595,0.530778,61,10
0.329466,-0.630211,-0.112633,47,3
2.59081,-4.95787,0.686856,85,11
2.68185,-5.13427,-0.71123,36,4
3.48976,-6.68381,1.19422,54,12
2.55064,-4.88516,-0.482146,40,5
3.26644,-6.25876,1.3723,135,13
2.57826,-4.94226,-0.292139,77,6
3.21309,-6.16178,1.60435,15,14
2.59262,-4.97402,-0.097908,49,7
3.65442,-7.01409,2.11921,101,15
2.53044,-4.87337,0.0958486,45,8
2.75559,-5.31154,0.313597,26,9
0.268517,-0.517579,-0.113341,16,2
2.8039,-5.40696,0.53287,61,10
0.326355,-0.629603,-0.11232,47,3
2.66846,-5.15019,0.712205,50,11
2.64474,-5.10658,-0.706111,47,4
2.61002,-5.0417,0.899185,97,12
2.5409,-4.90819,-0.48354,35,5
3.20938,-6.20212,1.35742,30,13
2.5977,-5.02219,-0.296326,27,6
3.15755,-6.10718,1.58725,60,14
2.55045,-4.93507,-0.0969656,70,7
3.62105,-7.00964,2.11403,41,15
2.53629,-4.92663,0.0967212,52,8
0.243427,-0.473048,-0.122823,15,1
2.74252,-5.33178,0.314225,37,9
0.266709,-0.518514,-0.113341,16,2
3.3216,-6.46037,0.63554,67,10
0.321447,-0.625468,-0.111381,48,3
2.5779,-5.01821,0.692705,65,11
2.63959,-5.14051,-0.709523,15,4
2.5879,-5.04199,0.897621,56,12
2.55109,-4.97242,-0.488944,32,5
3.27733,-6.38796,1.39558,33,13
2.42066,-4.72022,-0.278009,35,6
3.16999,-6.18406,1.60435,53,14
2.52865,-4.93505,-0.0967911,52,7
3.60096,-7.03084,2.11662,83,15
2.7818,-5.45019,0.106809,56,8
0.241774,-0.473894,-0.122823,15,1
0.264806,-0.519488,-0.113341,16,2
3.0573,-6.00028,0.589173,82,10
0.322738,-0.633683,-0.112633,35,3
2.61623,-5.13685,0.707817,25,11
2.65225,-5.20984,-0.717811,45,4
2.81038,-5.52282,0.98147,112,12
2.52198,-4.95821,-0.486678,41,5
2.692,-5.29705,-0.311399,25,6
3.56124,-7.01049,1.81536,41,14
2.47699,-4.87609,-0.0954647,21,7
3.7347,-7.35514,2.21031,27,15
2.56235,-5.06599,0.0990948,38,8
0.240035,-0.474777,-0.122823,15,1
0.262991,-0.520409,-0.113341,16,2
3.07676,-6.09095,0.597017,18,10
0.310731,-0.615409,-0.109191,25,3
2.60811,-5.16767,0.710742,60,11
2.57592,-5.10609,-0.702211,26,4
2.79634,-5.54543,0.98366,120,12
2.4589,-4.87625,-0.477788,46,5
3.15819,-6.26574,1.3639,22,13
2.62946,-5.21901,-0.30627,25,6
5.03734,-10.0026,2.58559,24,14
2.76301,-5.48886,-0.107262,26,7
3.73551,-7.424,2.22688,103,15
2.53658,-5.05882,0.0987806,74,8
0.238377,-0.475612,-0.122823,15,1
2.74196,-5.47318,0.320819,18,9
0.261173,-0.521324,-0.113341,16,2
2.68615,-5.36411,0.524852,65,10
0.315654,-0.630621,-0.111694,24,3
2.55009,-5.09685,0.699774,50,11
2.58649,-5.17187,-0.710011,40,4
2.53184,-5.0648,-0.495393,26,5
3.18193,-6.36805,1.38375,32,13
2.58356,-5.17277,-0.303025,42,6
2.75901,-5.52889,-0.107856,59,7
3.08441,-6.18367,1.85159,19,15
2.55896,-5.14822,0.100351,24,8
0.236715,-0.476441,-0.122823,15,1
0.259352,-0.522232,-0.113341,16,2
2.61691,-5.27173,0.514916,31,10
0.309939,-0.624641,-0.110443,24,3
2.81806,-5.68192,0.778745,27,11
2.53668,-5.11684,-0.701236,16,4
2.26025,-4.56124,0.806263,13,12
2.5743,-5.195,-0.507246,10,5
3.20413,-6.46884,1.40321,39,13
2.45117,-4.95086,-0.289523,23,6
3.09868,-6.26144,1.6129,31,14
2.75477,-5.56896,-0.108449,59,7
3.07479,-6.21864,1.85884,61,15
2.4738,-5.02079,0.0976986,45,8
0.23505,-0.477265,-0.122823,15,1
2.58636,-5.25386,0.306898,39,9
0.257527,-0.523134,-0.113341,16,2
2.63192,-5.34876,0.52154,15,10
0.310372,-0.631037,-0.111381,24,3
2.82886,-5.75407,0.787276,65,11
2.53807,-5.16486,-0.706599,11,4
3.53469,-7.19613,-0.701429,5,5
3.18845,-6.49408,1.40626,39,13
