x, y, z, intensity, ring
-8.95043,8.64333,-1.52775,27,4
-11.504,11.1209,3.11019,33,13
-10.1408,9.80658,3.25684,60,14
-8.73272,8.44782,-0.212082,22,7
-10.0204,9.69689,3.73631,50,15
-8.62759,8.37241,0.209848,20,8
-0.42507,0.412642,-0.13677,13,1
-13.2358,12.8488,0.96675,28,9
-0.501402,0.486912,-0.135856,25,2
-11.1998,10.8799,1.36608,27,10
-10.2835,9.99324,-2.27112,17,3
-11.2988,10.9837,1.9348,16,11
-9.00285,8.75183,-1.54165,24,4
-11.3987,11.0848,2.51828,41,12
-8.15315,7.93136,-0.995144,4,5
-11.6218,11.3096,3.15216,18,13
-8.05438,7.84075,-0.589094,74,6
-11.8048,11.4917,3.80347,32,14
-8.63303,8.40698,-0.210336,96,7
-9.92038,9.66401,3.71095,29,15
-9.16481,8.95293,0.223635,41,8
-0.3791,0.370465,-0.122373,15,1
-13.1603,12.8606,0.964342,21,9
-0.513824,0.502296,-0.139672,11,2
-12.7804,12.4981,1.56392,26,10
-10.1994,9.97756,-2.25985,29,3
-13.2173,12.9343,2.27067,73,11
-9.27723,9.08176,-1.59405,40,4
-11.465,11.2234,2.54112,52,12
-8.18517,8.01551,-1.00229,40,5
-11.4707,11.2368,3.12125,38,13
-10.0468,9.84546,-0.737204,55,6
-8.57654,8.40757,-0.209638,23,7
-10.4497,10.2474,3.92163,22,15
-9.13079,8.97906,0.22353,35,8
-0.422324,0.415452,-0.13677,13,1
-13.0612,12.8532,0.960365,14,9
-0.495278,0.487559,-0.135093,12,2
-11.2007,11.03,1.37532,33,10
-8.86295,8.72786,-1.97014,13,3
-11.2257,11.0584,1.9348,33,11
-9.49026,9.35213,-1.63597,43,4
-11.4117,11.2495,2.53799,47,12
-7.95286,7.84258,-0.97719,31,5
-11.541,11.3809,3.15064,25,13
-11.8248,11.669,3.83542,39,14
-8.54572,8.43605,-0.209603,26,7
-10.1238,9.99737,3.8124,14,15
-11.5888,11.4761,0.284684,24,8
-0.431947,0.427895,-0.140369,13,1
-11.6586,11.5533,0.860194,9,9
-0.496448,0.491962,-0.135856,25,2
-11.0664,10.9703,1.36329,57,10
-8.80578,8.73232,-1.96419,45,3
-11.2236,11.1339,1.94114,45,11
-8.77417,8.70704,-1.51776,24,4
-11.2714,11.1891,2.51547,63,12
-7.94664,7.89135,-0.979805,51,5
-8.01711,7.96411,-0.592234,13,6
-11.7757,11.702,3.83272,13,14
-8.52898,8.47852,-0.209918,24,7
-9.94226,9.88689,3.75702,12,15
-11.5472,11.515,0.284649,8,8
-0.397339,0.396369,-0.129572,14,1
-13.1719,13.1444,0.975228,34,9
-0.489083,0.488231,-0.13433,25,2
-11.0572,11.0418,1.36712,30,10
-8.7807,8.77151,-1.96576,45,3
-11.422,11.4101,1.98233,34,11
-8.08938,8.08373,-1.40418,11,4
-11.351,11.347,2.54206,45,12
-7.98244,7.98244,-0.987649,29,5
-11.2038,11.2078,3.08042,26,13
-10.0462,10.0533,-0.744845,19,6
-8.49933,8.50824,-0.209918,24,7
-11.646,11.699,0.288139,8,8
-0.395884,0.397823,-0.129572,14,1
-0.50676,0.509421,-0.139672,23,2
-11.0607,11.1227,1.37235,66,10
-8.74028,8.7923,-1.96357,57,3
-11.0527,11.1224,1.92529,53,11
-8.05132,8.10206,-1.40247,60,4
-11.3517,11.4272,2.55113,57,12
-8.09352,8.15022,-1.00491,17,5
-11.2781,11.361,3.11171,27,13
-12.4956,12.5919,-0.929696,14,6
-11.4151,11.5031,3.74139,55,14
-8.46113,8.52934,-0.209708,24,7
-9.83899,9.92176,3.74408,28,15
-0.407584,0.412019,-0.155291,12,0
-13.1511,13.2988,0.326465,36,8
-0.408262,0.412993,-0.134071,14,1
-11.4604,11.5932,0.854332,5,9
-0.491269,0.497134,-0.135856,25,2
-7.9574,8.05802,-1.79368,43,3
-11.1329,11.2776,1.94577,33,11
-7.5377,7.63568,-1.31741,23,4
-11.569,11.7235,2.6087,16,12
-8.04686,8.15716,-1.00247,38,5
-11.3299,11.4892,3.13652,36,13
-8.26137,8.38046,-0.616727,43,6
-11.448,11.613,3.76478,45,14
-8.4721,8.59723,-0.210685,20,7
-9.83586,9.98461,3.75546,27,15
-8.70242,8.85874,0.216759,46,8
-0.398698,0.406002,-0.131371,14,1
-12.9589,13.2009,0.969471,13,9
-0.508872,0.518375,-0.141199,23,2
-11.27,11.4845,1.40774,25,10
-8.08833,8.24512,-1.82934,28,3
-11.0426,11.2606,1.9365,33,11
-7.4846,7.63501,-1.31278,59,4
-8.5929,8.76866,-1.07411,28,5
-11.1255,11.3571,3.09034,31,13
-8.54935,8.73031,-0.640383,32,6
-11.3365,11.5805,3.74139,50,14
-8.51896,8.70535,-0.212605,100,7
-9.81986,10.0382,3.76271,27,15
-10.7032,10.9718,0.267545,12,8
-0.397279,0.407391,-0.131371,14,1
-10.7923,11.0708,0.810265,18,9
-0.493355,0.50609,-0.137382,24,2
-11.3703,11.6678,1.42534,34,10
-7.91339,8.12332,-1.79618,55,3
-10.9257,11.2195,1.92285,45,11
-7.4399,7.6426,-1.30961,56,4
-10.8711,11.1712,2.46885,25,12
-7.28249,7.48352,-0.913566,52,5
-11.1748,11.4873,3.11515,38,13
-8.56895,8.81164,-0.644151,19,6
-11.4672,11.7961,3.79807,30,14
-8.81324,9.06918,-0.220738,30,7
-9.80226,10.0904,3.76944,25,15
-10.8777,11.2288,0.272886,24,8
-0.385009,0.397576,-0.127772,14,1
-10.7319,11.0822,0.808486,10,9
-0.505241,0.521914,-0.141199,23,2
-11.1549,11.5271,1.40338,6,10
-7.92619,8.19349,-1.80557,21,3
-11.1169,11.4959,1.96356,29,11
-7.82574,8.09248,-1.38224,30,4
-10.8381,11.2114,2.46979,45,12
-11.1142,11.505,3.10942,33,13
-11.5905,12.0023,3.85206,44,14
-8.7845,9.0998,-0.220773,75,7
-9.79423,10.1493,3.77928,27,15
-10.8556,11.2807,0.27327,4,8
-0.410709,0.426938,-0.13677,13,1
-10.6701,11.0918,0.806602,27,9
-0.484456,0.503776,-0.135856,25,2
-11.8374,12.3138,1.49437,35,10
-8.13577,8.46613,-1.85969,97,3
-11.0031,11.4539,1.95015,42,11
-7.95839,8.28444,-1.41052,63,4
-10.8501,11.2986,2.48105,49,12
-7.25346,7.55591,-0.916355,33,5
-11.6387,12.1283,3.26741,33,13
-8.00411,8.34369,-0.605946,43,6
-11.4777,11.9647,3.82777,39,14
-8.692,9.06393,-0.219202,100,7
-9.74314,10.1636,3.77255,22,15
-8.92509,9.33631,0.22545,22,8
-0.387749,0.405756,-0.129572,14,1
-0.490919,0.513897,-0.138146,24,2
-11.5626,12.108,1.46474,40,10
-7.90714,8.28303,-1.8137,53,3
-10.8637,11.3841,1.93212,45,11
-7.94586,8.32941,-1.41344,56,4
-10.7384,11.2607,2.46447,48,12
-7.79761,8.17686,-0.98852,51,5
-11.5632,12.1299,3.25749,32,13
-7.94608,8.33838,-0.603643,54,6
-11.0125,11.5602,3.68605,49,14
-8.72788,9.16517,-0.220913,100,7
-9.75822,10.2507,3.79222,24,15
-10.9355,11.5196,0.277249,7,8
-0.38633,0.407107,-0.129572,14,1
-10.7519,11.3341,0.818744,35,9
-0.48642,0.512759,-0.137382,24,2
-11.5051,12.1324,1.46282,84,10
-7.85507,8.28621,-1.80838,58,3
-10.8703,11.4709,1.9404,33,11
-10.828,11.4343,2.49419,41,12
-7.33886,7.74978,-0.933787,50,5
-11.6301,12.2856,3.2884,38,13
-7.73984,8.17893,-0.59014,37,6
-10.9667,11.5929,3.68425,52,14
-9.69318,10.2538,3.78083,28,15
-12.9967,13.7869,0.330723,10,8
-0.430347,0.456673,-0.144868,12,1
-10.7238,11.3798,0.819476,39,9
-0.495397,0.525886,-0.140435,23,2
-7.81662,8.30351,-1.80619,37,3
-11.0397,11.7314,1.97794,8,11
-9.08853,9.66139,-1.62866,19,4
-10.7738,11.4529,2.49044,58,12
-7.42914,7.90017,-0.948777,44,5
-11.4621,12.1931,3.25291,24,13
-7.61413,8.10256,-0.582709,43,6
-10.9849,11.6936,3.70404,26,14
-9.69616,10.3254,3.79532,23,15
-0.396143,0.423031,-0.155291,12,0
-10.7325,11.461,0.274073,12,8
-0.396868,0.423954,-0.134071,14,1
-10.9788,11.7322,0.842086,24,9
-0.504288,0.539082,-0.143488,22,2
-10.9357,11.6943,1.40077,25,10
-7.7796,8.31928,-1.804,25,3
-10.4829,11.214,1.88483,8,11
-7.58724,8.11926,-1.36445,55,4
-10.727,11.4832,2.48887,43,12
-7.41648,7.94207,-0.950695,56,5
-11.4257,12.2354,3.25406,28,13
-7.65809,8.20368,-0.588152,87,6
-12.9085,13.8329,4.3681,21,14
-11.4116,12.2332,-0.292014,15,7
-9.56256,10.2546,3.75702,28,15
-10.6175,11.4178,0.272153,7,8
-0.384771,0.413918,-0.130472,14,1
-10.6461,11.4526,0.819476,24,9
-0.491806,0.529246,-0.140435,23,2
-11.1057,11.9553,1.42761,43,10
-9.09738,9.7968,-2.1175,11,3
-10.414,11.2185,1.87947,45,11
-7.72764,8.32759,-1.39492,42,4
-10.9348,11.7837,2.54613,15,12
-7.48088,8.06449,-0.962374,48,5
-11.4163,12.3112,3.2636,43,13
-7.60904,8.20839,-0.586581,100,6
-12.8045,13.8179,4.3492,34,14
-11.4416,12.3472,-0.293829,31,7
-9.48649,10.2409,3.74045,29,15
-11.3707,12.3093,0.292502,48,8
-0.380752,0.412329,-0.129572,14,1
-10.6576,11.5454,0.823454,13,9
-0.48463,0.525188,-0.138909,24,2
-11.2219,12.1654,1.44801,46,10
-7.07588,7.67074,-1.65289,8,3
-10.4413,11.323,1.89117,57,11
-7.66769,8.31814,-1.38907,74,4
-10.9471,11.8799,2.55864,36,12
-7.52423,8.16822,-0.971612,48,5
-11.3328,12.3028,3.25139,30,13
-7.51819,8.16453,-0.581662,100,6
-12.7823,13.8861,4.3573,34,14
-11.3484,12.3326,-0.292537,32,7
-9.47946,10.3052,3.75184,19,15
-0.392481,0.428018,-0.134071,14,1
-10.9276,11.9212,0.847529,12,9
-0.490845,0.535476,-0.141199,23,2
-10.7306,11.7104,1.38961,30,10
-7.03972,7.6852,-1.6507,21,3
-10.3896,11.3462,1.88898,16,11
-10.8803,11.8904,2.5527,30,12
-7.69213,8.40626,-0.996887,68,5
-11.307,12.3611,3.25635,36,13
-7.47482,8.1745,-0.58051,100,6
-12.7154,13.9105,4.351,37,14
-11.2796,12.3441,-0.291874,100,7
-9.44734,10.3425,3.75339,29,15
-11.1969,12.2923,0.290234,14,8
-0.401481,0.440913,-0.13767,13,1
-11.3497,12.4688,0.88364,9,9
-0.495581,0.544445,-0.143107,22,2
-10.6521,11.7065,1.38473,54,10
-7.01817,7.71557,-1.65195,53,3
-10.6865,11.7526,1.9504,29,11
-9.44003,10.3854,-1.72323,46,4
-10.8334,11.9224,2.55145,17,12
-7.80879,8.59379,-1.01589,67,5
-11.4354,12.5894,3.30596,10,13
-7.70537,8.48592,-0.600712,60,6
-12.6969,13.988,4.36135,28,14
-7.64596,8.4264,-0.198608,22,7
-9.3969,10.3597,3.7477,29,15
-13.3365,14.7442,0.347024,10,8
-0.381642,0.422075,-0.131371,14,1
-10.9279,12.0857,0.853913,5,9
-0.491044,0.543259,-0.142344,34,2
-10.5017,11.6224,1.37044,66,10
-6.93293,7.67552,-1.63818,62,3
-10.386,11.5025,1.90287,45,11
-8.02176,8.8872,-1.46999,13,4
-11.1975,12.4055,2.64687,47,12
-7.57987,8.40059,-0.989915,53,5
-12.5867,13.9544,3.65285,16,13
-7.447,8.25912,-0.582813,100,6
-15.9724,17.7205,5.5077,25,14
-12.6333,14.0159,-0.329362,100,7
-9.39612,10.4281,3.76116,24,15
-13.2862,14.7869,0.346989,14,8
-0.375031,0.417539,-0.129572,14,1
-10.0584,11.2024,0.789017,4,9
-0.493079,0.549353,-0.143488,44,2
-10.2455,11.4188,1.3422,77,10
-6.92195,7.71464,-1.64162,41,3
-10.2961,11.4792,1.89336,53,11
-7.7166,8.60634,-1.41929,44,4
-11.1581,12.449,2.64781,53,12
-7.5505,8.42699,-0.989915,44,5
-11.3586,12.6772,3.30863,13,13
-7.37159,8.23021,-0.579045,100,6
-15.9005,17.7588,5.5032,50,14
-14.378,16.064,-0.376309,38,7
-9.43566,10.5458,3.7917,18,15
-0.385915,0.432382,-0.155291,12,0
-10.7423,12.0399,0.281647,8,8
-0.383948,0.43048,-0.133171,14,1
-0.491255,0.550985,-0.143488,55,2
-9.5633,10.7298,1.25748,60,10
-6.82665,7.66206,-1.62535,76,3
-10.2533,11.5121,1.89287,45,11
-7.52679,8.45382,-1.3898,56,4
-11.0563,12.418,2.63342,52,12
-7.51059,8.43859,-0.988346,70,5
-10.7636,12.0978,3.14759,1,13
-7.38397,8.30216,-0.58229,77,6
-15.8281,17.8026,5.4996,31,14
-11.0228,12.3979,-0.28957,31,7
-9.41475,10.5929,3.79739,10,15
-10.7646,12.1458,0.283287,17,8
-0.387688,0.437585,-0.134971,14,1
-9.96995,11.2571,0.788075,36,9
-0.495835,0.560046,-0.145396,54,2
-9.67632,10.9332,1.27735,33,10
-6.80513,7.6891,-1.62629,31,3
-10.5795,11.9579,1.96039,38,11
-7.48293,8.46089,-1.38687,55,4
-10.9867,12.4269,2.62716,53,12
-7.774,8.79618,-1.02704,65,5
-10.6883,12.0937,3.13728,29,13
-7.52302,8.51519,-0.595479,30,6
-21.2089,24.0145,7.39684,10,14
-7.34261,8.31684,-0.193652,9,7
-9.4557,10.7141,3.82897,13,15
-9.86147,11.2093,0.260599,31,8
-0.404099,0.45949,-0.141269,13,1
-9.97808,11.3458,0.791843,9,9
-0.49647,0.564722,-0.14616,63,2
-9.47894,10.7859,1.25626,33,10
-6.79776,7.73773,-1.6313,60,3
-10.7255,12.2129,1.99573,29,11
-7.45467,8.48845,-1.38712,60,4
-11.0006,12.5305,2.64093,48,12
-7.69988,8.77385,-1.02129,72,5
-10.6297,12.1165,3.13308,6,13
-10.9512,12.4875,-0.870452,29,6
-21.2123,24.188,7.42743,43,14
-7.32408,8.35445,-0.193931,20,7
-9.25781,10.5639,3.76375,31,15
-9.81372,11.2299,0.26032,31,8
-0.382059,0.437346,-0.134071,14,1
-9.97588,11.4195,0.794669,29,9
-0.488138,0.558972,-0.144252,55,2
-9.47589,10.8548,1.26062,22,10
-17.0896,19.5902,3.192,18,11
-7.31947,8.39046,-1.36713,64,4
-11.0667,12.6905,2.66689,37,12
-7.61706,8.73776,-1.01414,33,5
-11.2176,12.8725,3.31893,20,13
-7.46994,8.57504,-0.596002,33,6
-21.2331,24.3743,7.46298,11,14
-11.1073,12.755,-0.295225,100,7
-9.23161,10.6048,3.76737,22,15
-9.75676,11.2397,0.259797,21,8
-0.362726,0.418005,-0.127772,14,1
-9.94774,11.4678,0.795611,35,9
-0.488854,0.563553,-0.145015,54,2
-9.4072,10.8485,1.25626,22,10
-9.71737,11.2141,1.82195,20,11
-7.31093,8.43997,-1.37103,46,4
-12.3362,14.2463,2.98477,16,12
-7.42371,8.57319,-0.992181,57,5
-8.69881,10.0493,2.58355,33,13
-7.42317,8.57862,-0.594537,37,6
-15.0118,17.3546,5.2976,5,14
-7.83862,9.06512,-0.209185,21,7
-9.08715,10.5127,3.72337,31,15
-9.66786,11.2161,0.25847,46,8
-0.379074,0.439937,-0.134071,14,1
-9.93111,11.5297,0.797495,11,9
-0.477915,0.554844,-0.142344,45,2
-9.37838,10.8918,1.25748,33,10
-10.6751,12.4066,2.00963,17,11
-7.29308,8.47898,-1.37322,61,4
-12.2786,14.2803,2.98289,18,12
-7.28073,8.46762,-0.977016,17,5
-8.68671,10.1064,2.59042,27,13
-20.6777,24.074,7.32666,10,14
-7.93459,9.24111,-0.212605,100,7
-9.08311,10.5825,3.73683,14,15
-0.376929,0.440237,-0.155291,12,0
-9.65465,11.2802,0.259168,33,8
-0.387671,0.453103,-0.13767,13,1
-9.93697,11.6142,0.801054,47,9
-0.469595,0.549049,-0.140435,23,2
-9.30016,10.8776,1.25208,13,10
-6.65715,7.78901,-1.62285,65,3
-9.53053,11.1549,1.80147,8,11
-7.46068,8.73534,-1.41052,50,4
-12.2197,14.3074,2.98008,16,12
-7.1748,8.40358,-0.966731,40,5
-8.62334,10.1038,2.58203,20,13
-7.82459,9.17114,-0.6318,61,6
-13.5815,15.9244,4.83195,21,14
-7.9065,9.27042,-0.212675,48,7
-9.06301,10.6302,3.74304,22,15
-10.6003,12.4685,0.285661,9,8
-0.396262,0.466265,-0.141269,13,1
-9.90024,11.6533,0.801368,43,9
-0.467676,0.550685,-0.140435,23,2
-9.21185,10.8507,1.24528,57,10
-6.58653,7.75834,-1.6119,30,3
-9.53844,11.2394,1.81,24,11
-7.15942,8.43912,-1.35884,23,4
-12.0623,14.2234,2.9538,16,12
-7.13125,8.41186,-0.964814,64,5
-8.56313,10.1009,2.57401,19,13
-7.34219,8.66374,-0.595165,13,6
-9.05434,10.6879,3.2339,11,14
-7.97877,9.42157,-0.215502,19,7
-9.00338,10.6352,3.73372,15,15
-9.78533,11.5917,0.264788,7,8
-0.392119,0.464667,-0.140369,13,1
-9.79641,11.613,0.796239,30,9
-0.470911,0.558235,-0.141962,23,2
-9.07178,10.7578,1.23116,31,10
-6.57342,7.79789,-1.61534,13,3
-9.50043,11.2741,1.81025,40,11
-7.12353,8.45646,-1.35762,11,4
-12.0126,14.2654,2.9538,6,12
-8.51138,10.1112,2.56905,40,13
-8.22542,9.77839,2.95001,12,14
-11.5198,13.6996,-0.312433,30,7
-8.94632,10.6429,3.72544,20,15
-0.372376,0.444095,-0.155291,12,0
-12.0917,14.4257,0.328559,10,8
-0.372972,0.445121,-0.134071,14,1
-9.57883,11.4358,0.781795,33,9
-0.476523,0.568905,-0.144252,22,2
-9.04824,10.8062,1.23308,28,10
-9.43809,11.2798,1.80586,40,11
-9.65518,11.5434,-1.84778,22,4
-10.4587,12.5084,2.58242,5,12
-7.54414,9.02269,-1.02896,24,5
-8.44833,10.1077,2.56066,33,13
-7.84499,9.38917,-0.64122,32,6
-8.18374,9.79807,2.94731,74,14
-13.9262,16.6792,-0.379276,31,7
-8.90292,10.6667,3.72285,11,15
-0.370824,0.445392,-0.155291,12,0
-9.58775,11.5198,0.261612,18,8
-0.378894,0.455409,-0.13677,13,1
-9.5383,11.4645,0.781585,37,9
-0.470768,0.566037,-0.143107,22,2
-9.00028,10.8255,1.23168,15,10
-6.49735,7.81777,-1.61002,2,3
-9.25531,11.1402,1.77832,42,11
-7.38139,8.88777,-1.41856,19,4
-7.29497,8.78683,-0.999153,57,5
-8.45563,10.1885,2.57363,32,13
-7.85298,9.46568,-0.64457,71,6
-8.17811,9.86107,2.95766,17,14
-7.92346,9.55402,-0.216654,47,7
-8.90325,10.7393,3.73786,12,15
-9.5495,11.5516,0.261612,43,8
-0.389796,0.471685,-0.141269,13,1
-9.53129,11.5377,0.784307,24,9
-0.471289,0.570705,-0.14387,44,2
-8.92185,10.8077,1.22611,55,10
-7.28755,8.82794,-1.81308,51,3
-9.2398,11.1968,1.78246,38,11
-7.19397,8.72078,-1.38809,45,4
-10.2552,12.4361,2.55301,46,12
-7.26552,8.81378,-0.999328,19,5
-8.47799,10.2846,2.5908,50,13
-8.14908,9.89265,2.95901,36,14
-7.8926,9.58471,-0.216724,100,7
-8.90009,10.812,3.75236,10,15
-0.367783,0.447906,-0.155291,12,0
-9.50785,11.5833,0.261577,48,8
-0.398036,0.485094,-0.144868,12,1
-9.56189,11.6574,0.790168,23,9
-0.463169,0.564674,-0.141962,46,2
-8.8948,10.848,1.22733,36,10
-7.38692,9.01221,-1.84561,70,3
-9.37554,11.4424,1.81634,24,11
-7.05909,8.61838,-1.36786,22,4
-10.1779,12.4305,2.54456,25,12
-9.64329,11.7776,-1.33174,10,5
-8.3724,10.2291,2.56943,37,13
-7.35329,8.98717,-0.608563,43,6
-8.09352,9.89539,2.95136,46,14
-7.87049,9.62613,-0.217038,95,7
-8.72048,10.6695,3.69231,13,15
-9.47999,11.6319,0.261926,16,8
-0.369261,0.453243,-0.134971,14,1
-9.51105,11.6783,0.789331,38,9
-0.468634,0.575421,-0.144252,55,2
-8.86695,10.8913,1.22872,21,10
-7.27562,8.93989,-1.82559,51,3
-9.31425,11.4489,1.8122,32,11
-6.93878,8.53208,-1.35031,34,4
-9.30829,11.4498,2.33713,13,12
-7.35995,9.05319,-1.02077,47,5
-8.23264,10.1303,2.53738,50,13
-7.69591,9.47318,-0.63965,68,6
-8.02453,9.88123,2.93876,44,14
-9.31649,11.4762,-0.258016,17,7
-8.61744,10.6189,3.66436,36,15
-11.7463,14.5159,0.325941,8,8
-0.372579,0.46059,-0.13677,13,1
-9.46521,11.7053,0.788912,21,9
-0.469091,0.580107,-0.145015,54,2
-7.39708,9.15421,-1.86407,38,3
-9.20187,11.3918,1.79806,40,11
-6.87653,8.51609,-1.34398,71,4
-9.26827,11.4822,2.33713,14,12
-7.1969,8.91603,-1.00247,51,5
-8.24654,10.2201,2.55264,30,13
-7.29915,9.04916,-0.609295,60,6
-8.03036,9.95924,2.95361,46,14
-9.2839,11.518,-0.258226,8,7
-8.53063,10.5872,3.64314,29,15
-11.7206,14.588,0.326639,22,8
-0.356326,0.443655,-0.131371,14,1
-9.52557,11.8644,0.797391,45,9
-0.462147,0.575617,-0.143488,55,2
-8.58243,10.6935,1.19961,52,10
-7.36137,9.17535,-1.86313,53,3
-9.1248,11.3774,1.79075,24,11
-6.95852,8.67943,-1.36591,66,4
-9.25778,11.5515,2.34464,29,12
-7.21682,9.00484,-1.00961,65,5
-8.17277,10.2013,2.54081,40,13
-7.31871,9.1385,-0.613587,94,6
-8.01991,10.0176,2.96261,36,14
-9.22739,11.53,-0.257772,42,7
-8.46948,10.5868,3.63278,22,15
-11.7046,14.6726,0.327617,28,8
-0.369354,0.46318,-0.13677,13,1
-0.462582,0.580297,-0.144252,55,2
-8.59347,10.7841,1.20641,28,10
-7.34037,9.2149,-1.86595,23,3
-9.0776,11.3999,1.78929,40,11
-6.786,8.52507,-1.33788,33,4
-9.19851,11.5558,2.33932,20,12
-7.20271,9.05181,-1.01205,54,5
-8.14077,10.2344,2.54196,39,13
-7.24077,9.10615,-0.609714,100,6
-8.00429,10.07,2.9698,48,14
-9.09827,11.4463,-0.255224,85,7
-8.39587,10.5664,3.61622,12,15
-11.7006,14.7677,0.328873,12,8
-0.348458,0.43996,-0.129572,14,1
-9.80537,12.3846,0.82785,19,9
-0.462991,0.584987,-0.145015,43,2
-8.28134,10.4672,1.16771,65,10
-6.23243,7.87748,-1.59094,57,3
-13.7905,17.4368,2.72963,13,11
-6.79217,8.59112,-1.34471,59,4
-9.05646,11.4592,2.31335,10,12
-7.20812,9.1238,-1.01728,29,5
-8.13843,10.3013,2.55188,35,13
-7.25262,9.18341,-0.613273,77,6
-7.99379,10.1255,2.97835,27,14
-9.23293,11.6993,-0.260146,67,7
-8.32305,10.5502,3.60069,12,15
-9.07236,11.5331,0.256132,7,8
-0.368602,0.468746,-0.13767,13,1
-9.57536,12.1768,0.811835,62,9
-0.459835,0.584976,-0.144633,44,2
-8.21088,10.4492,1.16266,50,10
-6.25126,7.95821,-1.60283,18,3
-12.4264,15.8252,2.47054,37,11
-6.68614,8.51797,-1.32959,31,4
-7.25409,9.24483,-1.02809,18,5
-8.11212,10.342,2.55493,37,13
-7.22421,9.21338,-0.613587,100,6
-7.93676,10.1258,2.97025,36,14
-9.16449,11.6921,-0.259308,92,7
-8.2761,10.5625,3.59551,27,15
-9.07716,11.6182,0.257353,39,8
-0.350253,0.448465,-0.131371,14,1
-9.23535,11.8292,0.786505,40,9
-0.456582,0.58503,-0.144252,22,2
-8.18171,10.4872,1.1637,30,10
-12.3982,15.8976,2.47541,16,11
-6.24655,8.0125,-1.24745,50,4
-8.87382,11.3866,2.28645,23,12
-6.08671,7.8131,-0.866502,12,5
-8.0271,10.3038,2.5389,36,13
-7.23167,9.28614,-0.616832,100,6
-7.88877,10.1336,2.96485,23,14
-11.5233,14.8077,-0.327512,81,7
-9.06965,11.6925,0.258296,16,8
-0.365403,0.471245,-0.13767,13,1
-9.67216,12.4738,0.827222,31,9
-0.449829,0.580334,-0.142725,22,2
-8.28723,10.6954,1.18375,62,10
-5.86672,7.57424,-1.51741,20,3
-13.5021,17.4382,2.70794,33,11
-6.8276,8.81797,-1.36932,20,4
-8.84448,11.4269,2.28864,6,12
-7.15442,9.24672,-1.02286,9,5
-7.98868,10.3287,2.53814,30,13
-7.16378,9.2655,-0.613796,100,6
-7.89446,10.2106,2.9797,40,14
-7.3311,9.48532,-0.209254,29,7
-8.53826,11.0512,3.74201,2,15
-9.01373,11.7003,0.257807,36,8
-0.356704,0.46319,-0.134971,14,1
-9.68923,12.5817,0.832246,25,9
-0.455088,0.591157,-0.145015,21,2
-8.2663,10.7418,1.18584,30,10
-5.85482,7.61087,-1.52086,60,3
-9.75338,12.6833,1.96453,4,11
-6.11462,7.95147,-1.23161,4,4
-9.0449,11.7663,2.35058,18,12
-6.96104,9.0587,-0.999502,8,5
-7.952,10.352,2.53738,30,13
-7.15856,9.32247,-0.615994,100,6
-8.22611,10.7127,3.11827,34,14
-7.83946,10.2166,3.45058,4,15
-8.99554,11.7572,0.2584,42,8
-0.371741,0.486041,-0.141269,13,1
-9.46572,12.3806,0.816755,24,9
-0.45074,0.589543,-0.144252,22,2
-8.09755,10.595,1.16667,22,10
-5.88711,7.70559,-1.53587,13,3
-13.0379,17.0714,2.6375,18,11
-6.06032,7.93805,-1.22625,12,4
-8.93787,11.7114,2.33338,36,12
-6.98617,9.15739,-1.00769,22,5
-8.02718,10.5219,2.57249,35,13
-7.10217,9.31281,-0.613796,100,6
-7.95947,10.4407,3.03099,23,14
-7.2603,9.52705,-0.20908,19,7
-7.80726,10.2485,3.45213,5,15
-0.35056,0.461511,-0.155291,12,0
-8.94477,11.7758,0.258121,15,8
-0.358257,0.471815,-0.13677,13,1
-9.60599,12.6554,0.832665,9,9
-0.446203,0.588063,-0.143488,22,2
-7.80099,10.2849,1.12936,54,10
-8.67135,11.4365,1.76223,23,11
-5.97382,7.88164,-1.21431,23,4
-9.20709,12.1519,2.41472,20,12
-6.90244,9.11343,-1.0002,36,5
-7.62,10.0645,2.4538,28,13
-7.03906,9.30056,-0.611284,100,6
-7.86706,10.3983,3.0103,36,14
-11.0468,14.6012,-0.319588,82,7
-7.75163,10.2495,3.44333,11,15
-8.93285,11.85,0.259029,16,8
-0.350662,0.465344,-0.134521,14,1
-13.1755,17.4908,1.14762,12,9
-0.451235,0.599026,-0.145778,21,2
-7.7998,10.3582,1.13442,68,10
-5.89241,7.82801,-1.55183,20,3
-8.48615,11.2779,1.73298,27,11
-5.96518,7.93045,-1.21845,16,4
-9.22779,12.2724,2.43193,18,12
-6.86301,9.1307,-0.999328,55,5
-7.80305,10.3814,2.5244,47,13
-7.00055,9.31709,-0.610761,100,6
-7.90093,10.5192,3.03729,23,14
-8.85245,11.7904,-0.257353,42,7
-7.6943,10.2516,3.43453,15,15
-0.347249,0.464008,-0.155291,12,0
-8.9154,11.9131,0.259727,16,8
-0.349035,0.466565,-0.134521,14,1
-9.50921,12.7158,0.832142,11,9
-0.450211,0.602248,-0.14616,31,2
-7.76536,10.3915,1.13494,33,10
-6.41458,8.58703,-1.69763,28,3
-8.04875,10.7747,1.65133,37,11
-5.93746,7.95122,-1.21845,16,4
-8.72996,11.6951,2.31148,10,12
-6.8442,9.17216,-1.00125,87,5
-7.57948,10.1613,2.46411,38,13
-6.94845,9.31867,-0.609191,100,6
-6.9877,9.37471,2.69941,8,14
-8.82319,11.8372,-0.257702,68,7
-7.59614,10.1947,3.40658,32,15
-8.85167,11.9058,0.258959,24,8
-0.349893,0.470787,-0.135421,13,1
-9.1095,12.2615,0.800531,29,9
-0.439056,0.590974,-0.143107,33,2
-7.77845,10.4737,1.14139,57,10
-7.04023,9.48313,-1.87064,67,3
-8.02787,10.8174,1.65401,41,11
-5.95503,8.02723,-1.22722,72,4
-6.80509,9.17643,-0.999502,34,5
-7.5493,10.1837,2.46411,45,13
-6.8851,9.2911,-0.60605,100,6
-11.5778,15.635,-0.339589,58,7
-7.45144,10.0664,3.35585,25,15
-8.77681,11.8915,0.257981,42,8
-0.355189,0.481414,-0.13812,13,1
-9.06664,12.2932,0.800531,6,9
-0.448644,0.608303,-0.146923,42,2
-7.73239,10.4879,1.14,45,10
-6.40352,8.68871,-1.70952,12,3
-7.99949,10.8582,1.65596,18,11
-5.87283,7.97444,-1.21601,8,4
-8.51518,11.5666,2.27487,11,12
-7.02933,9.5483,-1.03733,56,5
-7.5428,10.2495,2.47365,34,13
-6.90352,9.38425,-0.610551,37,6
-8.86174,12.055,-0.261158,25,7
-7.4174,10.0939,3.35637,31,15
-0.342615,0.467439,-0.155291,12,0
-8.92435,12.1802,0.263566,25,8
-0.344294,0.470074,-0.134521,14,1
-11.6041,15.8491,1.02945,11,9
-0.4326,0.590857,-0.142344,45,2
-7.78986,10.6435,1.15394,50,10
-7.79513,10.6585,1.62135,3,11
-14.0916,19.2749,-2.93169,10,4
-8.55285,11.7031,2.29583,6,12
-9.09792,12.449,-1.349,18,5
-7.60426,10.4089,2.5057,83,13
-8.44986,11.5749,3.30858,24,14
-8.76775,12.0148,-0.259622,50,7
-7.40261,10.1478,3.36568,26,15
-0.340982,0.468632,-0.155291,12,0
-8.81473,12.1191,0.261577,18,8
-0.342651,0.471273,-0.134521,14,1
-9.42094,12.962,0.839783,12,9
-0.429381,0.590775,-0.141962,46,2
-7.73861,10.6513,1.15185,12,10
-7.42783,10.231,1.55237,29,11
-5.84849,8.05863,-1.22259,2,4
-11.7854,16.2451,3.17875,16,12
-7.40241,10.2035,-1.10287,14,5
-7.45032,10.2733,2.46678,25,13
-6.74053,9.29801,-0.601864,50,6
-11.3116,15.6092,4.45043,19,14
-7.28749,10.0599,-0.216829,30,7
-7.62094,10.5241,3.48163,19,15
-0.339344,0.46982,-0.155291,12,0
-8.74311,12.1093,0.260704,43,8
-0.350128,0.485108,-0.13812,13,1
-9.16984,12.705,0.821151,22,9
-0.429614,0.595454,-0.142725,45,2
-7.67108,10.6362,1.14732,45,10
-6.24634,8.66395,-1.69168,37,3
-7.41296,10.2859,1.55676,39,11
-11.4086,15.8359,-2.39644,20,4
-11.6691,16.1975,3.16185,22,12
-6.65068,9.23498,-0.995667,4,5
-7.33985,10.1957,2.44197,23,13
-6.8702,9.54682,-0.616413,100,6
-11.0249,15.3259,4.35865,12,14
-8.58183,11.9297,-0.256515,100,7
-7.58826,10.5524,3.48267,10,15
-0.337702,0.471001,-0.155291,12,0
-11.0543,15.4177,0.331142,16,8
-0.353058,0.492602,-0.13992,13,1
-8.92071,12.4511,0.802729,17,9
-0.426389,0.595354,-0.142344,45,2
-7.64087,10.6726,1.14836,45,10
-6.85923,9.58086,-1.86626,21,3
-7.40539,10.3475,1.56237,54,11
-8.25597,11.5403,-1.74224,58,4
-8.46521,11.8372,2.30491,5,12
-7.07377,9.89512,-1.06417,19,5
-7.35395,10.2871,2.458,33,13
-6.93837,9.7093,-0.625415,43,6
-8.41971,11.7866,3.34412,11,14
-10.1531,14.2184,-0.304963,61,7
-7.59852,10.6449,3.50441,12,15
-8.80078,12.3656,0.264928,25,8
-0.34004,0.477952,-0.135421,13,1
-8.83307,12.4155,0.798542,17,9
-0.424412,0.596765,-0.142344,45,2
-7.6493,10.7596,1.15499,27,10
-6.11399,8.60322,-1.67166,35,3
-7.21517,10.1565,1.5297,38,11
-7.09041,9.98456,-1.50362,31,4
-11.1228,15.6629,3.04265,34,12
-7.0017,9.86329,-1.05824,23,5
-7.076,9.97163,2.37672,24,13
-9.40427,13.2625,3.75353,10,14
-7.09622,10.0075,-0.214141,21,7
-7.69053,10.8497,3.56342,12,15
-0.305499,0.432271,-0.141833,14,0
-8.68471,12.2886,0.262659,16,8
-0.329458,0.466344,-0.131821,14,1
-9.07195,12.846,0.824187,7,9
-0.433649,0.614281,-0.14616,42,2
-7.60136,10.7716,1.15342,40,10
-5.73121,8.1215,-1.57436,57,3
-7.12767,10.1041,1.51825,56,11
-7.19912,10.2092,-1.53385,15,4
-8.37875,11.8864,2.30334,8,12
-6.70557,9.51633,-1.0185,24,5
-7.00557,9.94208,2.36412,32,13
-6.88247,9.77099,-0.626357,47,6
-8.45933,12.0141,3.39226,18,14
-7.67818,10.9128,3.57533,12,15
-0.332916,0.474396,-0.155291,12,0
-10.1347,14.447,0.308035,1,8
-0.336779,0.480256,-0.135421,13,1
-10.2537,14.6275,0.936186,12,9
-0.43161,0.615716,-0.14616,31,2
-7.93375,11.3222,1.20955,21,10
-5.6813,8.11071,-1.56841,38,3
-7.09918,10.1387,1.51971,45,11
-7.20669,10.2961,-1.54311,19,4
-6.66484,9.52545,-1.01711,24,5
-6.96182,9.9536,2.36107,15,13
-6.44776,9.22206,-0.589722,54,6
-7.05138,10.0929,-0.214909,32,7
-7.27281,10.4137,3.40347,8,15
-0.331258,0.475555,-0.155291,12,0
-10.1185,14.5315,0.309082,9,8
-0.346233,0.497423,-0.13992,13,1
-10.2072,14.6698,0.936604,5,9
-0.432822,0.622054,-0.147305,21,2
-5.5819,8.02832,-1.5487,66,3
-7.05469,10.1504,1.51776,42,11
-7.2919,10.4956,-1.56919,8,4
-8.25612,11.8879,2.29239,11,12
-7.0282,10.1198,-1.07794,23,5
-6.95391,10.0165,2.37023,10,13
-6.41212,9.23959,-0.589408,47,6
-6.84127,9.86164,2.77095,38,14
-0.274664,0.397257,-0.12941,15,0
-10.2542,14.8365,0.314806,20,8
-0.337848,0.489008,-0.13722,13,1
-9.14126,13.2312,0.842818,7,9
-0.432879,0.626791,-0.148068,20,2
-9.05777,13.1202,1.39484,34,10
-5.57628,8.08027,-1.55496,28,3
-7.02485,10.1831,1.51898,45,11
-5.8612,8.49946,-1.26769,39,4
-10.7141,15.5367,2.98915,21,12
-5.8462,8.48088,-0.90119,3,5
-6.92336,10.0472,2.37176,27,13
-6.63928,9.63857,-0.613377,27,6
-8.22806,11.9496,3.34952,13,14
-9.30284,13.5104,-0.286324,47,7
-7.23352,10.5091,3.41848,15,15
-0.32793,0.477856,-0.155291,12,0
-10.7231,15.6256,0.330793,20,8
-0.336225,0.490126,-0.13722,13,1
-7.37135,10.7495,0.683089,19,9
-0.446229,0.650969,-0.15341,18,2
-9.05021,13.2076,1.40077,25,10
-5.50368,8.03191,-1.54213,72,3
-7.03367,10.2686,1.52824,38,11
-5.7242,8.35998,-1.24404,61,4
-10.6553,15.5675,2.9879,19,12
-6.81674,9.96306,-1.05615,19,5
-6.8645,10.0329,2.36298,8,13
-9.89536,14.4735,4.04777,14,14
-6.78009,9.92062,-0.209743,77,7
-7.36244,10.7768,3.49716,17,15
-0.326344,0.478941,-0.155291,12,0
-8.75253,12.85,0.271385,10,8
-0.330125,0.484853,-0.135421,13,1
-7.31656,10.7458,0.68131,19,9
-0.43744,0.642707,-0.151121,19,2
-9.05231,13.3051,1.40791,31,10
-5.80999,8.54272,-1.6363,13,3
-7.07814,10.4113,1.54579,43,11
-5.7106,8.40289,-1.24745,24,4
-11.0311,16.2318,3.10835,10,12
-6.79374,10.0004,-1.05772,11,5
-6.85702,10.0974,2.37252,16,13
-6.26503,9.22911,-0.584593,100,6
-7.27006,10.7136,2.98915,4,14
-6.84596,10.0887,-0.212815,28,7
-7.24858,10.686,3.45989,12,15
-0.32467,0.480077,-0.155291,12,0
-8.55303,12.647,0.266498,6,8
-0.32415,0.479488,-0.133621,14,1
-7.29354,10.7928,0.68267,14,9
-0.4286,0.63447,-0.148831,20,2
-9.01473,13.3498,1.40931,15,10
-5.69982,8.4408,-1.61315,68,3
-7.05801,10.4561,1.54896,43,11
-5.69048,8.4333,-1.24916,6,4
-8.183,12.1318,2.31773,11,12
-6.95928,10.3214,-1.0891,9,5
-7.19227,10.667,2.50074,18,13
-6.51346,9.66388,-0.610761,67,6
-7.00365,10.3951,2.89377,23,14
-6.74703,10.018,-0.210825,24,7
-7.2792,10.8122,3.4925,11,15
-11.2404,16.7463,0.35205,6,8
-0.326817,0.487089,-0.135421,13,1
-0.419932,0.626104,-0.146541,21,2
-8.94379,13.3399,1.40512,6,10
-5.90677,8.81344,-1.68042,15,3
-7.05794,10.5351,1.557,43,11
-6.58113,9.82705,-1.4522,48,4
-7.65139,11.4252,2.17788,4,12
-7.98018,11.9206,-1.25504,5,5
-7.27401,10.8699,2.54234,25,13
-6.52633,9.75628,-0.615157,50,6
-8.04875,12.0367,-0.252746,100,7
-7.32383,10.9567,3.53133,22,15
-9.33505,14.0079,0.293829,19,8
-0.333843,0.501145,-0.13902,13,1
-8.87377,13.3258,0.83905,10,9
-0.424271,0.637372,-0.148831,20,2
-8.91703,13.4009,1.40826,15,10
-5.80529,8.72444,-1.65977,58,3
-7.06803,10.6262,1.567,43,11
-6.00554,9.03222,-1.33179,8,4
-7.63333,11.4847,2.18414,13,12
-6.92635,10.425,-1.09502,9,5
-7.02715,10.5767,2.46831,12,13
-6.56577,9.88601,-0.621961,77,6
-7.10626,10.7039,2.9662,40,14
-7.99341,12.0447,-0.252327,21,7
-7.31864,11.0321,3.54737,16,15
-9.79353,14.8076,0.309885,15,8
-0.323494,0.489303,-0.135421,13,1
-9.40121,14.2198,0.893375,15,9
-5.45663,8.25658,-1.92374,4,2
-8.88682,13.452,1.41053,25,10
-5.85753,8.86993,-1.68355,30,3
-7.01778,10.6309,1.56407,50,11
-5.88542,8.91892,-1.31205,4,4
-13.9273,21.1058,4.00504,15,12
-6.89175,10.4479,-1.09502,33,5
-6.96209,10.5586,2.45838,25,13
-6.70928,10.179,-0.638917,65,6
-6.52848,9.90848,2.73945,14,14
-7.95783,12.0778,-0.252466,100,7
-7.2002,10.9321,3.50752,6,15
-8.62923,13.1417,0.274422,6,8
-0.319731,0.487114,-0.134521,14,1
-8.58346,13.082,0.82,7,9
-5.86923,8.94866,-2.0802,9,2
-8.07184,12.3116,1.28799,5,10
-5.73385,8.74558,-1.65633,10,3
-7.02928,10.7255,1.57455,39,11
-5.93413,9.05794,-1.32959,15,4
-7.44568,11.3695,2.15254,3,12
-7.93339,12.1189,-1.26724,7,5
-6.89693,10.5356,2.4477,14,13
-6.72471,10.2764,-0.643628,45,6
-7.85981,12.0202,-0.250686,100,7
-7.125,10.9006,3.4894,11,15
-8.30272,12.7412,0.265451,6,8
-0.32441,0.498025,-0.13722,13,1
-9.5916,14.7303,0.921218,9,9
-5.89844,9.05856,-2.10119,4,2
-8.76788,13.4704,1.40617,81,10
-5.77978,8.8831,-1.67854,53,3
-6.9853,10.74,1.57309,43,11
-5.54973,8.53605,-1.25014,39,4
-7.31337,11.253,2.12563,12,12
-7.63041,11.7408,-1.22506,12,5
-6.73818,10.3719,2.40419,7,13
-9.56598,14.7303,-0.920485,16,6
-6.47786,9.97884,2.74665,65,14
-7.83631,12.0761,-0.25128,100,7
-7.08585,10.9238,3.48888,22,15
-0.3148,0.486606,-0.155291,12,0
-10.4908,16.2225,0.337215,10,8
-0.318438,0.492608,-0.135421,13,1
-8.70763,13.4754,0.840829,27,9
-5.84335,9.04282,-2.09279,4,2
-8.74135,13.5328,1.40948,40,10
-5.79803,8.97956,-1.69293,41,3
-6.95315,10.7726,1.57431,39,11
-5.64797,8.75387,-1.27914,16,4
-7.27405,11.2785,2.12563,32,12
-6.66501,10.3341,-1.07585,26,5
-6.71789,10.4201,2.40992,10,13
-10.8172,16.7849,-1.04651,15,6
-6.4145,9.95716,2.7345,57,14
-7.81359,12.1336,-0.251908,21,7
-7.07382,10.989,3.50182,18,15
-0.313099,0.487702,-0.155291,12,0
-8.23193,12.8275,0.266044,6,8
-0.339866,0.529802,-0.145318,12,1
-8.64456,13.4756,0.83905,8,9
-5.5574,8.66652,-2.0012,4,2
-8.68115,13.5431,1.40739,40,10
-5.49382,8.57396,-1.61284,22,3
-6.90373,10.7785,1.57163,43,11
-5.55039,8.66557,-1.26354,11,4
-7.24619,11.3175,2.12845,39,12
-6.71697,10.495,-1.09014,7,5
-6.69312,10.4617,2.41412,21,13
-9.32518,14.5814,-0.907087,13,6
-6.39719,10.003,2.74125,55,14
-7.77439,12.1611,-0.251943,100,7
-7.07167,11.0662,3.5189,27,15
-0.31148,0.488738,-0.155291,12,0
-10.552,16.5634,0.3428,8,8
-0.338107,0.530926,-0.145318,12,1
-8.58374,13.479,0.83748,18,9
-0.421711,0.662464,-0.152647,9,2
-8.62764,13.5583,1.406,71,10
-7.08006,11.1306,-2.08934,48,3
-6.87114,10.8063,1.57236,43,11
-5.51204,8.66885,-1.26135,44,4
-7.21816,11.3565,2.13126,15,12
-6.66931,10.497,-1.08805,9,5
-12.2088,19.2306,-1.19378,10,6
-6.33892,9.98468,2.73046,53,14
-7.80045,12.2915,-0.254107,100,7
-7.03493,11.0896,3.5189,23,15
-0.309858,0.489768,-0.155291,12,0
-8.22257,13.0018,0.268523,1,8
-0.313435,0.495806,-0.135421,13,1
-8.555,13.5327,0.83905,21,9
-5.48198,8.67497,-1.99472,9,2
-7.61008,12.0473,1.24668,19,10
-5.50117,8.71209,-1.63192,13,3
-6.82256,10.8089,1.56943,39,11
-5.53836,8.77437,-1.27402,52,4
-7.16043,11.3486,2.12532,6,12
-5.511,8.73779,-0.903805,18,5
-6.9377,11.0041,2.5286,25,13
-7.80771,12.3888,-0.767455,26,6
-6.16446,9.78143,2.66927,60,14
-7.77457,12.341,-0.254596,100,7
-6.96312,11.0572,3.5013,22,15
-0.308232,0.490793,-0.155291,12,0
-10.3282,16.4518,0.339065,10,8
-0.334578,0.533157,-0.145318,12,1
-8.45593,13.4747,0.833712,11,9
-5.98524,9.5413,-2.18934,9,2
-7.5955,12.113,1.25086,27,10
-5.34426,8.52609,-1.59375,56,3
-6.80881,10.8668,1.57455,39,11
-7.09971,11.3311,-1.64182,29,4
-8.22583,13.1335,2.45446,5,12
-5.48517,8.76108,-0.904328,9,5
-6.78035,10.834,2.48433,13,13
-7.72104,12.3419,-0.762954,42,6
-6.09169,9.73738,2.65172,58,14
-7.74739,12.3888,-0.255049,51,7
-6.89365,11.0279,3.48474,23,15
-0.306431,0.491919,-0.155291,12,0
-8.40748,13.5019,0.277633,3,8
-0.324384,0.521144,-0.141719,13,1
-7.06622,11.3568,0.700988,4,9
-5.36008,8.61469,-1.9722,9,2
-7.26484,11.6805,1.20345,21,10
-5.32758,8.56911,-1.59813,57,3
-6.7595,10.8765,1.57236,39,11
-5.52257,8.88966,-1.28499,30,4
-7.30293,11.7601,-1.21112,27,5
-6.7613,10.8921,2.49197,25,13
-7.63679,12.3073,-0.759081,65,6
-6.03782,9.73421,2.64452,54,14
-7.70292,12.4235,-0.255154,34,7
-6.86041,11.069,3.4894,12,15
-0.304712,0.492986,-0.155291,12,0
-8.35819,13.5278,0.277563,7,8
-0.31437,0.509009,-0.13812,13,1
-5.40217,8.75028,-1.99892,2,2
-7.27529,11.7889,1.21199,94,10
-5.4812,8.88523,-1.65351,41,3
-6.74754,10.9423,1.57845,39,11
-5.50296,8.92747,-1.28767,5,4
-7.11278,11.5436,2.14753,13,12
-7.22943,11.7329,-1.20571,20,5
-6.5616,10.6532,2.43205,21,13
-7.43985,12.0839,-0.743694,42,6
-5.99257,9.73697,2.63958,72,14
-7.88269,12.8131,-0.262589,67,7
-7.03627,11.4418,3.59914,26,15
-8.26494,13.4819,0.276027,40,8
-0.328883,0.536688,-0.145318,12,1
-6.81866,11.127,0.683926,44,9
-5.22905,8.53638,-1.94587,11,2
-7.20184,11.7615,1.20658,28,10
-5.48316,8.95822,-1.66352,27,3
-6.74764,11.0284,1.58747,39,11
-6.86318,11.2217,2.08339,16,12
-10.4132,17.0328,-1.7466,16,5
-6.52233,10.6727,2.43129,11,13
-7.44032,12.1796,-0.747986,35,6
-6.04791,9.90419,2.67917,76,14
-7.98606,13.0781,-0.267476,41,7
-6.68829,10.9572,3.43971,12,15
-0.301263,0.495101,-0.155291,12,0
-8.28567,13.6168,0.278226,57,8
-0.302797,0.497817,-0.134521,14,1
-6.72166,11.0552,0.678065,39,9
-5.18189,8.52606,-1.93938,11,2
-7.47316,12.3009,1.25923,30,10
-6.744,11.105,1.59527,39,11
-8.50252,14.0062,-2.01182,18,4
-6.784,11.1797,2.07119,49,12
-7.20831,11.8836,-1.216,5,5
-6.47366,10.6725,2.42633,30,13
-7.34397,12.112,-0.742333,48,6
-6.14938,10.1458,2.739,72,14
-8.01911,13.2359,-0.270128,100,7
-6.70904,11.0779,3.47025,30,15
-0.29962,0.496097,-0.155291,12,0
-8.24739,13.6611,0.27854,60,8
-0.311126,0.515556,-0.13902,13,1
-6.6891,11.0843,0.678483,43,9
-5.16474,8.56169,-1.94358,9,2
-6.94363,11.5151,1.17643,47,10
-5.29458,8.78386,-1.62442,56,3
-6.70725,11.1319,1.59576,39,11
-6.82206,11.3269,-1.62354,21,4
-6.72447,11.1649,2.06431,52,12
-13.0182,21.6232,-2.20818,25,5
-6.43434,10.6916,2.42556,42,13
-7.00307,11.6413,-0.711978,39,6
-6.12096,10.1789,2.74215,61,14
-11.9983,19.9528,-0.406397,67,7
-6.66729,11.0918,3.46766,12,15
-0.297886,0.49714,-0.155291,12,0
-8.16915,13.6334,0.277423,31,8
-0.315423,0.526616,-0.141719,13,1
-6.72218,11.2275,0.68581,35,9
-5.39192,9.00924,-2.04089,9,2
-6.91157,11.553,1.17782,35,10
-5.2137,8.71491,-1.60846,67,3
-6.61426,11.0604,1.58235,43,11
-8.33569,13.9445,-1.99476,40,4
-6.72091,11.2476,2.07526,30,12
-12.8221,21.4667,-2.18761,31,5
-6.40086,10.7163,2.42633,41,13
-7.08525,11.8668,-0.72433,35,6
-6.14709,10.2996,2.76915,23,14
-11.9522,20.034,-0.4072,33,7
-6.68592,11.2113,3.49768,22,15
-7.4001,12.4483,0.252781,8,8
-0.29865,0.502584,-0.134971,14,1
-6.69621,11.2732,0.687171,63,9
-5.14846,8.66754,-1.95961,21,2
-6.93426,11.6786,1.18828,22,10
-5.22761,8.8078,-1.62223,40,3
-6.55839,11.0544,1.57821,36,11
-8.30823,14.0094,-1.99988,15,4
-6.73198,11.356,2.0909,26,12
-8.9256,15.0564,-1.53133,6,5
-6.42847,10.8483,2.45113,35,13
-7.21988,12.1887,-0.742438,68,6
-6.46059,10.9112,2.92751,68,14
-7.8549,13.2713,-0.269186,65,7
-6.60051,11.1564,3.47335,20,15
-0.294495,0.499156,-0.155291,12,0
-7.26822,12.3242,0.249744,26,8
-0.310749,0.527126,-0.141269,13,1
-6.6984,11.3671,0.691463,50,9
-5.14309,8.72774,-1.96915,26,2
-6.86917,11.6616,1.1841,25,10
-5.21889,8.86344,-1.62911,56,3
-6.45633,10.9694,1.56285,47,11
-8.41127,14.2966,-2.03668,9,4
-6.6933,11.3811,2.09122,32,12
-6.61459,11.2473,-1.14157,26,5
-6.4831,11.0281,2.48662,43,13
-7.18538,12.2276,-0.743275,48,6
-7.80042,13.2849,-0.268907,56,7
-6.55762,11.1727,3.47128,35,15
-7.14639,12.2149,0.247021,27,8
-0.308907,0.528208,-0.141269,13,1
-6.73729,11.5203,0.699418,31,9
-5.12448,8.76598,-1.97373,26,2
-6.34392,10.8563,1.10008,38,10
-5.30249,9.07776,-1.66509,35,3
-6.39898,10.9593,1.55822,50,11
-8.30929,14.2367,-2.02401,29,4
-6.6595,11.4101,2.09247,48,12
-10.4086,17.8408,-1.80709,34,5
-6.43467,11.0337,2.48281,33,13
-6.98373,11.98,-0.726737,48,6
-6.34501,10.8887,2.90952,27,14
-7.59222,13.029,-0.263217,41,7
-6.57304,11.2845,3.49923,18,15
-7.11288,12.2506,0.247266,39,8
-0.314979,0.542713,-0.144868,12,1
-6.66998,11.4971,0.696592,35,9
-5.09582,8.78721,-1.97449,26,2
-6.29899,10.8663,1.09886,26,10
-5.19608,8.9637,-1.641,62,3
-6.26109,10.8053,1.53336,52,11
-8.26501,14.2694,-2.02474,18,4
-6.60677,11.411,2.0884,24,12
-8.77842,15.168,-1.53324,6,5
-6.58686,11.3812,2.55608,42,13
-6.76294,11.6902,-0.707792,16,6
-7.58196,13.1112,3.49664,11,14
-6.34378,10.9745,-0.221262,28,7
-6.5539,11.3425,3.5101,26,15
-7.08903,12.3083,0.247929,39,8
-0.289748,0.503277,-0.134071,14,1
-6.56804,11.4129,0.690102,32,9
-5.05882,8.79045,-1.97144,26,2
-6.27881,10.9148,1.10165,23,10
-5.22286,9.08282,-1.65946,68,3
-6.19959,10.7858,1.52751,42,11
-5.15635,8.97442,-1.27085,41,4
-6.81088,11.8588,2.16599,40,12
-6.54804,11.4012,-1.15028,4,5
-6.56958,11.4433,2.56485,35,13
-6.27176,10.929,-0.660375,35,6
-7.67675,13.3827,3.56187,2,14
-8.01036,13.9699,-0.281088,30,7
-6.39995,11.1659,3.4485,5,15
-7.06686,12.3694,0.248662,22,8
-0.303452,0.531361,-0.141269,13,1
-6.28755,11.0143,0.664667,48,9
-5.00961,8.77566,-1.96419,26,2
-6.23969,10.9349,1.10147,19,10
-5.14023,9.01177,-1.64319,33,3
-6.16092,10.8056,1.52727,49,11
-6.48635,11.381,-1.60843,19,4
-6.76846,11.8808,2.16568,37,12
-6.54863,11.495,-1.15743,21,5
-6.56554,11.5293,2.57897,40,13
-6.26421,11.0046,-0.66362,16,6
-7.17702,12.6133,3.35042,13,14
-6.03172,10.6048,-0.212954,41,7
-7.00392,12.3592,0.247964,16,8
-0.309279,0.545982,-0.144868,12,1
-6.14376,10.8502,0.653467,16,9
-5.007,8.84264,-1.97525,28,2
-6.16714,10.8959,1.09537,4,10
-5.08247,8.98324,-1.63474,55,3
-6.11535,10.8132,1.52532,42,11
-5.14926,9.1087,-1.28475,35,4
-6.84843,12.1194,2.20479,26,12
-5.37243,9.50735,-0.955401,12,5
-6.63822,11.7522,2.62362,38,13
-6.23557,11.0438,-0.664667,16,6
-7.08027,12.545,3.32568,11,14
-7.52452,13.3375,-0.267301,100,7
-6.55623,11.6259,3.57636,13,15
-6.99013,12.4359,0.249011,27,8
-0.307371,0.547058,-0.144868,12,1
-4.98476,8.87547,-1.97869,26,2
-6.15735,10.9678,1.10043,19,10
-4.97568,8.86656,-1.61034,51,3
-6.17565,11.0094,1.54993,43,11
-5.20287,9.27899,-1.3062,59,4
-6.87079,12.2586,2.22575,10,12
-8.04243,14.349,-1.43912,5,5
-6.55494,11.6999,2.60683,20,13
-6.67811,11.9246,-0.71627,42,6
-7.74751,13.8398,3.66175,7,14
-7.85387,14.0356,-0.280739,86,7
-6.5439,11.6993,3.59189,14,15
-6.95154,12.469,0.249185,27,8
-0.30546,0.548127,-0.144868,12,1
-6.44895,11.5722,0.694289,25,9
-4.97859,8.9374,-1.98861,23,2
-6.25181,11.2277,1.12431,19,10
-4.99754,8.97881,-1.62754,68,3
-6.16518,11.0812,1.557,50,11
-5.04019,9.06289,-1.27329,17,4
-5.32141,9.57249,-0.95819,56,5
-6.49785,11.6935,2.60035,30,13
-6.50842,11.7174,-0.702453,100,6
-6.82508,12.2925,3.24604,38,14
-7.38211,13.2958,-0.265451,99,7
-6.33539,11.4152,3.4982,38,15
-6.95662,12.5759,0.250861,8,8
-0.326272,0.590067,-0.155666,11,1
-6.18726,11.1943,0.670319,60,9
-4.90273,8.87396,-1.97068,30,2
-6.41582,11.6174,1.16109,55,10
-4.96678,8.9936,-1.62723,67,3
-6.29436,11.4022,1.59917,21,11
-6.36526,11.5354,-1.61769,21,4
-6.78051,12.293,2.22356,43,12
-7.84105,14.2216,-1.42081,30,5
-6.47325,11.7408,2.60607,35,13
-6.76924,12.2878,3.23885,13,14
-6.01225,10.9182,-0.217562,44,7
-6.25824,11.3696,3.47749,20,15
-0.301722,0.550194,-0.144868,12,1
-6.14146,11.199,0.669377,21,9
-4.93273,8.99863,-1.99472,28,2
-6.35523,11.5985,1.15708,30,10
-6.35926,11.6202,-1.62647,70,4
-6.73876,12.3137,2.22325,40,12
-5.01231,9.16276,-0.913741,35,5
-6.43223,11.7633,2.60607,23,13
-6.79827,12.4379,-0.742857,35,6
-6.49086,11.8804,3.12547,2,14
-5.96547,10.9188,-0.217178,24,7
-6.18624,11.3275,3.45834,26,15
-5.81829,10.6892,0.212431,15,8
-0.290582,0.534074,-0.140369,13,1
-4.59654,8.45522,-1.87069,16,2
-6.30044,11.5943,1.15446,47,10
-5.37892,9.8985,-1.78429,13,3
-8.02635,14.7765,2.06471,35,11
-4.94441,9.10646,-1.27232,22,4
-6.70139,12.3476,2.22512,40,12
-6.39305,11.7843,-1.17294,27,5
-6.3548,11.7138,2.59042,26,13
-6.15241,11.3455,-0.67639,74,6
-6.44771,11.895,3.12367,31,14
-5.93494,10.9536,-0.217457,66,7
-6.12366,11.3066,3.4454,23,15
-6.04311,11.1952,0.222064,10,8
-0.310925,0.576245,-0.151167,11,1
-5.98064,11.0887,0.66027,42,9
-4.60949,8.54644,-1.88748,26,2
-6.18632,11.4748,1.14052,54,10
-7.31977,13.5829,-2.44382,38,3
-11.7093,21.7374,3.03162,8,11
-4.92012,9.13765,-1.27427,42,4
-6.68634,12.4231,2.23451,24,12
-7.69229,14.2981,-1.42046,22,5
-6.3455,11.7947,2.6034,18,13
-6.13264,11.4038,-0.678588,61,6
-6.41076,11.926,3.12592,14,14
-5.91465,11.0077,-0.21812,100,7
-6.06314,11.2888,3.43349,32,15
-5.93415,11.0857,0.219481,18,8
-0.28133,0.52578,-0.13767,13,1
-6.03798,11.2892,0.670947,62,9
-4.50963,8.43516,-1.85924,23,2
-6.15361,11.515,1.14226,59,10
-7.2113,13.4999,-2.42411,56,3
-6.39283,11.9677,1.66595,30,11
-4.81807,9.02344,-1.25599,41,4
-6.75919,12.6642,2.27362,26,12
-5.09052,9.54171,-0.946163,12,5
-6.65974,12.4883,2.75108,20,13
-6.12744,11.495,-0.68267,74,6
-5.9185,11.1077,-0.219691,100,7
-6.00281,11.2706,3.42159,23,15
-5.97503,11.2611,0.222518,40,8
-0.273923,0.516478,-0.134971,14,1
-5.97327,11.2625,0.668121,44,9
-4.42683,8.35025,-1.83711,23,2
-6.06953,11.4537,1.13407,52,10
-6.64263,12.5405,-2.24765,16,3
-8.46864,15.9945,2.22217,28,11
-4.73081,8.93494,-1.24136,33,4
-6.58466,12.4415,2.2295,18,12
-5.04786,9.54181,-0.94442,8,5
-4.73393,8.95594,-0.530896,100,6
-6.83459,12.9301,3.37652,45,14
-5.90492,11.176,-0.220633,28,7
-5.94178,11.2505,3.40916,29,15
-5.99074,11.3817,0.224508,45,8
-0.29217,0.555325,-0.144868,12,1
-5.9424,11.2946,0.668854,45,9
-4.78748,9.10337,-1.9993,33,2
-6.01391,11.4402,1.13076,73,10
-6.69473,12.7408,-2.27956,14,3
-8.38324,15.961,2.21363,23,11
-4.64115,8.83634,-1.22552,74,4
-6.52409,12.4265,2.22293,33,12
-4.99582,9.51968,-0.940585,8,5
-6.46058,12.316,2.70338,1,13
-4.70698,8.9769,-0.53121,73,6
-6.78353,12.9372,3.37247,13,14
-5.90124,11.2593,-0.22189,84,7
-5.84078,11.1487,3.37241,29,15
-6.08439,11.6532,0.229464,31,8
-0.284918,0.545925,-0.142169,13,1
-5.82174,11.1549,0.659433,70,9
-4.59382,8.80588,-1.93061,26,2
-5.96304,11.4354,1.12832,68,10
-6.57119,12.607,-2.25172,17,3
-7.85606,15.0785,2.08762,9,11
-4.82646,9.26364,-1.28255,37,4
-6.99107,13.424,2.3972,18,12
-5.4739,10.5153,-1.03715,27,5
-6.38255,12.266,2.68774,4,13
-6.62459,12.7366,3.31443,74,14
-5.83067,11.2149,-0.220633,42,7
-5.81714,11.1937,3.38018,26,15
-5.96571,11.5188,0.226428,72,8
-0.29744,0.574556,-0.149367,12,1
-5.98581,11.5626,0.682356,66,9
-4.56279,8.81758,-1.92984,54,2
-5.63126,10.887,1.07236,24,10
-4.89814,9.47374,-1.68918,5,3
-7.26283,14.0534,1.94235,12,11
-4.76837,9.22669,-1.27524,15,4
-6.94742,13.4489,2.39752,32,12
-5.42712,10.5103,-1.03489,27,5
-6.02094,11.6704,-0.688218,35,6
-6.52692,12.6511,3.28653,29,14
-5.77695,11.2022,-0.220005,39,7
-5.79769,11.2473,3.39053,31,15
-6.05973,11.8011,0.231559,60,8
-0.279415,0.544384,-0.141269,13,1
-5.89598,11.4921,0.676913,43,9
-4.65207,9.06752,-1.98098,26,2
-4.84161,9.44507,-1.68104,33,3
-6.4642,12.6159,1.74054,31,11
-4.61416,9.00911,-1.24282,45,4
-7.0016,13.6764,2.43349,30,12
-6.94553,13.5727,2.96365,31,13
-4.58404,8.96185,-0.527547,52,6
-6.70318,13.1104,3.39946,56,14
-5.75587,11.2625,-0.220773,45,7
-5.87508,11.5007,3.46041,35,15
-5.95954,11.7063,0.22929,71,8
-0.279281,0.54883,-0.142169,13,1
-5.85674,11.5144,0.677018,64,9
-4.41594,8.68549,-1.89397,23,2
-5.79241,11.3977,1.11856,26,10
-4.8177,9.48389,-1.6848,37,3
-6.41743,12.633,1.73981,27,11
-4.62493,9.10835,-1.25428,45,4
-7.03428,13.8593,2.46165,11,12
-6.06119,11.9473,-1.17207,22,5
-6.82825,13.465,2.93464,19,13
-5.52189,10.8937,-0.640069,29,6
-6.59079,13.008,3.36662,51,14
-5.69483,11.2397,-0.219935,45,7
-5.88639,11.6228,3.49095,31,15
-5.85714,11.6103,0.226986,50,8
-0.296571,0.58813,-0.152067,11,1
-5.68162,11.2672,0.661317,47,9
-4.38824,8.70612,-1.89512,19,2
-5.73107,11.3752,1.11437,64,10
-4.80944,9.55005,-1.69356,63,3
-6.14259,12.2026,1.67741,3,11
-4.68966,9.3203,-1.28109,24,4
-5.6345,11.203,-1.09712,40,5
-6.83059,13.587,2.95601,4,13
-4.54849,9.05153,-0.530896,24,6
-6.41851,12.7784,3.30138,33,14
-5.6789,11.306,-0.220843,100,7
-5.89346,11.7382,3.51942,23,15
-5.76045,11.5134,0.224717,67,8
-0.264983,0.529851,-0.13677,13,1
-5.70745,11.4174,0.668958,43,9
-4.67637,9.35889,-2.03364,2,2
-11.064,22.1521,2.16634,33,10
-4.69743,9.40513,-1.66509,57,3
-6.06663,12.1518,1.66766,41,11
-6.78746,13.6076,2.40847,19,12
-4.73304,9.493,-0.928034,12,5
-9.90493,19.8662,4.31495,11,13
-6.39435,12.8363,3.31083,29,14
-5.39785,10.8406,-0.211384,38,7
-5.81458,11.6826,3.49665,28,15
-5.74866,11.5908,0.225834,80,8
-0.264863,0.534265,-0.13767,13,1
-5.73077,11.5597,0.676181,7,9
-4.29053,8.65838,-1.87832,26,2
-5.78705,11.6835,1.14069,9,10
-4.60497,9.30109,-1.64381,66,3
-6.03121,12.1872,1.66961,3,11
-4.70181,9.50503,-1.30205,42,4
-6.46816,13.0758,2.31054,5,12
-4.69005,9.48542,-0.925768,13,5
-6.8693,13.899,3.01364,6,13
-5.32627,10.7816,-0.63023,42,6
-6.38487,12.9302,3.32928,20,14
-5.34593,10.8262,-0.210755,100,7
-5.86986,11.8924,3.55359,8,15
-0.255786,0.520056,-0.155291,12,0
-5.73667,11.6636,0.226881,53,8
-0.269968,0.549131,-0.141269,13,1
-5.78991,11.7822,0.688009,10,9
-4.26288,8.67859,-1.87947,21,2
-5.74711,11.7054,1.14087,61,10
-4.66899,9.50958,-1.67792,61,3
-6.96328,14.1887,1.94065,24,11
-4.69999,9.58116,-1.31034,27,4
-4.67182,9.53215,-0.928732,10,5
-7.00116,14.2848,3.09225,9,13
-5.63602,11.5147,-0.223775,40,7
-6.45062,13.1848,3.93301,12,15
-5.49525,11.2719,0.218888,37,8
-0.259513,0.532551,-0.13677,13,1
-5.03704,10.3412,-2.2359,38,2
-6.56385,13.4818,1.31187,23,10
-4.55538,9.36064,-1.64882,20,3
-6.04537,12.4279,1.69691,7,11
-5.17518,10.6437,-1.45317,66,4
-6.32318,13.0105,2.29114,26,12
-6.89463,14.1926,3.06706,5,13
-6.27629,12.9313,3.31848,22,14
-5.7241,11.7988,-0.228906,21,7
-6.28739,12.9656,3.86106,30,15
-5.49589,11.3739,0.220494,65,8
-0.281383,0.582588,-0.149367,12,1
-6.33271,13.1174,0.763372,20,9
-5.07773,10.5178,-2.27025,49,2
-6.47951,13.4274,1.30437,5,10
-5.99937,12.4435,1.69618,30,11
-5.06905,10.5186,-1.43367,52,4
-6.25887,12.9934,2.28426,26,12
-5.19479,10.7843,-1.04726,54,5
-6.84079,14.2078,3.06516,8,13
-6.28518,13.0655,3.34727,22,14
-6.22033,12.9422,3.8476,27,15
-5.53216,11.5517,0.223565,77,8
-0.257471,0.537866,-0.13767,13,1
-5.5053,11.5007,0.668226,14,9
-4.60375,9.62168,-2.07333,30,2
-6.45495,13.4967,1.3089,31,10
-4.6322,9.68984,-1.70107,35,3
-5.94905,12.4501,1.69423,22,11
-5.02644,10.5192,-1.43148,49,4
-6.22766,13.039,2.28864,25,12
-4.58286,9.59953,-0.930649,10,5
-6.87148,14.3999,3.10141,11,13
-5.13928,10.7747,-0.625624,84,6
-9.56827,20.0603,5.13113,10,14
-5.2366,10.9837,-0.212396,29,7
-6.20149,13.0134,3.86262,9,15
-5.26824,11.0949,0.214385,56,8
-0.257357,0.542238,-0.13857,13,1
-5.51851,11.6272,0.674506,14,9
-4.94544,10.4245,-2.24277,49,2
-6.39991,13.4964,1.30681,57,10
-4.56451,9.63018,-1.68793,52,3
-5.90263,12.459,1.69277,37,11
-4.43058,9.35184,-1.27061,57,4
-6.21313,13.1203,2.29927,36,12
-4.52628,9.56245,-0.925594,5,5
-6.85224,14.4829,3.11438,8,13
-5.15133,10.8928,-0.631486,94,6
-6.23921,13.1932,3.36932,11,14
-5.96518,12.6251,3.74149,10,15
-5.95966,12.6592,0.244229,17,8
-0.260536,0.553668,-0.141269,13,1
-5.43369,11.5524,0.669063,21,9
-4.92337,10.4674,-2.24849,35,2
-6.33732,13.4797,1.30315,34,10
-5.86213,12.4803,1.69301,41,11
-4.38357,9.3367,-1.26647,16,4
-6.14464,13.0936,2.29083,25,12
-5.07585,10.821,-1.04569,59,5
-6.68411,14.2496,3.05943,11,13
-5.06092,10.7941,-0.624787,97,6
-6.16335,13.1514,3.35312,24,14
