x, y, z, intensity, ring
5.80627,-5.25927,-0.685393,11,5
8.2068,-7.43625,2.15271,29,13
9.36053,-8.48761,2.91717,51,14
6.8277,-6.19098,-0.160876,100,7
9.54552,-8.65839,3.45316,15,15
15.8582,-14.4299,0.374249,26,8
0.393426,-0.358115,-0.122823,15,1
9.42769,-8.58155,0.668121,21,9
0.477584,-0.434873,-0.125552,14,2
6.39105,-5.82153,0.756338,30,10
6.41577,-5.8461,-1.37475,46,3
4.84133,-4.413,0.804338,27,11
6.77092,-6.17403,-1.1251,52,4
4.58478,-4.18062,0.982721,25,12
5.80554,-5.29562,-0.687485,5,5
9.37144,-8.5513,2.46602,49,13
5.29864,-4.83662,-0.375982,21,6
9.43302,-8.61353,2.94911,63,14
6.7839,-6.19455,-0.160353,8,7
5.40428,-4.95038,0.127926,24,8
0.392236,-0.359418,-0.122823,15,1
5.74344,-5.26473,0.408325,33,9
0.473169,-0.433883,-0.124789,14,2
6.28847,-5.76838,0.746576,41,10
6.42838,-5.89672,-1.38163,48,3
7.72706,-7.09048,1.28767,27,11
6.63634,-6.09175,-1.10609,35,4
7.28229,-6.68703,1.56591,35,12
6.68941,-6.14477,-0.794686,15,5
9.36761,-8.60491,2.4725,31,13
5.26786,-4.84066,-0.374935,14,6
9.17773,-8.4364,2.87802,25,14
6.64889,-6.11397,-0.157665,92,7
9.22323,-8.48417,3.35792,21,15
5.20765,-4.8038,0.123668,53,8
0.390979,-0.360785,-0.122823,15,1
5.78226,-5.33758,0.412407,9,9
0.451459,-0.416886,-0.119446,15,2
5.97216,-5.51481,0.711191,75,10
6.43097,-5.94057,-1.38664,42,3
7.81744,-7.22384,1.30693,15,11
6.69958,-6.19303,-1.12022,26,4
4.56274,-4.21923,0.984286,17,12
6.14432,-5.68373,-0.732283,13,5
8.97432,-8.3045,2.37672,14,13
5.64582,-5.22626,-0.403196,39,6
10.8386,-10.0331,3.40981,20,14
5.31726,-4.92384,-0.126495,55,7
9.33953,-8.65153,3.41124,54,15
5.22663,-4.85688,0.12454,48,8
0.389654,-0.362216,-0.122823,15,1
7.74156,-7.19894,0.554029,16,9
0.455677,-0.423886,-0.120973,15,2
5.87897,-5.46881,0.702475,39,10
6.39325,-5.9493,-1.38319,20,3
4.82391,-4.49051,0.809213,15,11
6.55916,-6.10796,-1.10048,46,4
4.59494,-4.28035,0.99461,14,12
6.05494,-5.64237,-0.72409,32,5
10.8716,-10.1379,3.43185,45,14
5.30503,-4.94875,-0.126635,100,7
9.23573,-8.61849,3.38484,15,15
7.76356,-7.26755,0.185624,31,8
0.388324,-0.363641,-0.122823,15,1
5.33047,-4.99341,0.382785,58,9
0.474254,-0.444265,-0.126316,14,2
5.89814,-5.52711,0.707182,45,10
7.79758,-7.31218,1.31253,24,11
6.85814,-6.43347,-1.15459,15,4
9.48975,-8.90524,2.06118,16,12
5.99307,-5.62393,-0.719035,15,5
5.05502,-4.74698,-0.363421,13,6
10.4381,-9.80542,3.30633,27,14
5.27811,-4.95995,-0.126425,100,7
9.69391,-9.11275,3.56497,9,15
7.78179,-7.33575,0.186671,31,8
0.387052,-0.364995,-0.122823,15,1
5.3566,-5.0531,0.385925,15,9
0.458419,-0.432446,-0.122499,15,2
5.9672,-5.63107,0.717815,86,10
6.70101,-6.32576,-1.45953,37,3
4.80465,-4.53718,0.811406,20,11
12.8257,-12.1159,-2.16635,19,4
8.48087,-8.01435,1.84812,13,12
5.84163,-5.52029,-0.703173,10,5
10.1823,-9.62552,2.72361,15,13
5.02971,-4.75636,-0.362793,33,6
10.4462,-9.88197,3.31983,20,14
5.15474,-4.878,-0.123877,72,7
9.58488,-9.07348,3.5365,11,15
7.72423,-7.33258,0.185903,56,8
0.385776,-0.366344,-0.122823,15,1
0.43698,-0.415113,-0.117157,16,2
5.8493,-5.55854,0.705962,60,10
6.09904,-5.7979,-1.33282,48,3
4.78159,-4.54708,0.810187,17,11
12.3115,-11.7118,-2.0864,18,4
5.80933,-5.52828,-0.701604,38,5
15.8365,-15.0756,4.25008,38,13
6.64023,-6.32341,-0.480549,50,6
5.12755,-4.88631,-0.123633,39,7
9.13366,-8.70699,3.38121,25,15
7.69859,-7.3595,0.185903,63,8
0.384495,-0.367688,-0.122823,15,1
5.98363,-5.72408,0.43397,46,9
0.441203,-0.422065,-0.118683,15,2
5.79531,-5.54586,0.701778,71,10
5.36815,-5.13889,-1.17701,7,3
4.78576,-4.58297,0.8136,9,11
10.1763,-9.74847,-1.7303,24,4
8.56876,-8.21141,1.87972,23,12
5.76986,-5.52923,-0.699163,32,5
15.7866,-15.1335,4.25084,33,13
4.78592,-4.58953,-0.347511,23,6
5.23743,-5.02602,-0.126704,48,7
9.12691,-8.76157,3.39001,22,15
7.67429,-7.38772,0.185938,46,8
0.383209,-0.369028,-0.122823,15,1
0.458108,-0.441309,-0.123644,14,2
5.7587,-5.54947,0.699686,46,10
5.33027,-5.1384,-1.17263,12,3
6.00003,-5.78607,1.02346,23,11
10.1322,-9.77429,-1.72859,9,4
8.63102,-8.32906,1.89974,30,12
5.69318,-5.494,-0.692191,22,5
15.6461,-15.104,4.22718,38,13
4.89917,-4.73108,-0.356931,33,6
5.28312,-5.10542,-0.12824,21,7
9.10182,-8.79874,3.39208,26,15
0.381918,-0.370363,-0.122823,15,1
0.467838,-0.453841,-0.126697,14,2
5.84653,-5.6736,0.71276,13,10
6.06634,-5.88897,-1.33908,13,3
5.92995,-5.75858,1.01493,38,11
10.0937,-9.80545,-1.72786,20,4
8.59481,-8.35225,1.89818,39,12
5.80685,-5.64297,-0.708402,25,5
15.8101,-15.3693,4.28595,28,13
4.88406,-4.74954,-0.357036,37,6
8.68413,-8.44789,2.79704,51,14
6.41606,-6.24371,-0.156269,67,7
5.52766,-5.3961,0.134837,42,8
0.380623,-0.371694,-0.122823,15,1
7.39777,-7.22675,0.541991,51,9
0.449398,-0.439009,-0.122118,15,2
6.2328,-6.09084,0.762438,7,10
6.44127,-6.29675,-1.42668,6,3
5.89846,-5.76814,1.01298,33,11
6.83259,-6.68396,-1.1736,11,4
8.5656,-8.3822,1.89818,42,12
5.76148,-5.63812,-0.705264,10,5
15.6932,-15.3625,4.26878,18,13
4.76756,-4.66874,-0.349709,37,6
8.70331,-8.52588,2.81279,48,14
5.24735,-5.14218,-0.12824,7,7
10.3314,-10.1279,3.87659,11,15
5.52875,-5.43499,0.135326,74,8
0.359871,-0.353891,-0.116525,16,1
7.37962,-7.25953,0.542515,58,9
0.45626,-0.448836,-0.124407,14,2
6.02121,-5.9253,0.739081,18,10
3.0787,-3.03072,-0.684244,51,3
5.91365,-5.82351,1.01907,18,11
6.85588,-6.75374,-1.18165,37,4
8.52644,-8.40235,1.89599,15,12
9.55778,-9.41868,-1.17399,30,5
4.77684,-4.7106,-0.351593,37,6
8.63742,-8.52063,2.80109,57,14
7.39143,-7.29403,-0.181261,45,7
9.07518,-8.95872,3.41693,41,15
5.48701,-5.43175,0.134767,70,8
0.378019,-0.374342,-0.122823,15,1
7.36559,-7.29649,0.543352,72,9
0.435164,-0.431082,-0.119065,15,2
3.0653,-3.03867,-0.683619,47,3
5.8961,-5.84691,1.01956,81,11
5.17211,-5.13076,-0.894521,20,4
15.505,-15.3864,3.45971,24,12
9.58966,-9.51962,-1.18218,17,5
6.25596,-6.21027,1.71346,32,13
4.73627,-4.70332,-0.349814,23,6
8.5938,-8.53699,2.79659,57,14
6.59004,-6.54877,-0.162168,76,7
9.14934,-9.09521,3.45679,45,15
7.53994,-7.51629,0.185833,30,8
0.37671,-0.375659,-0.122823,15,1
7.38956,-7.37153,0.547015,41,9
0.466934,-0.465957,-0.128224,14,2
5.99276,-5.98231,0.740824,37,10
3.03178,-3.02755,-0.678613,25,3
9.07124,-9.05858,1.57406,32,11
6.20608,-6.19958,-1.07708,5,4
15.3856,-15.3748,3.445,20,12
6.0844,-6.08227,-0.752677,5,5
9.14289,-9.14289,2.51334,20,13
4.74159,-4.74325,-0.351488,33,6
8.53077,-8.53673,2.78624,21,14
4.97554,-4.97901,-0.122865,6,7
9.12164,-9.13119,3.45834,30,15
4.8342,-4.85449,0.119584,9,8
0.375331,-0.377038,-0.122823,15,1
6.38167,-6.41069,0.474059,8,9
0.437608,-0.439751,-0.120591,15,2
5.90439,-5.93539,0.732457,15,10
5.76241,-5.79468,-1.29434,72,3
9.09116,-9.14527,1.58333,3,11
6.1959,-6.23496,-1.07927,5,4
12.6402,-12.7243,-1.56915,30,5
9.104,-9.16778,2.51143,18,13
4.70531,-4.73993,-0.350023,16,6
6.00816,-6.05448,1.96922,35,14
5.88777,-5.93316,-0.145902,100,7
9.09379,-9.16709,3.45989,19,15
0.374078,-0.37828,-0.122823,15,1
6.36346,-6.43719,0.474373,25,9
0.43055,-0.43569,-0.119065,15,2
6.05026,-6.12464,0.7532,16,10
9.87118,-9.99601,1.72494,31,11
6.18775,-6.26818,-1.08147,5,4
8.44715,-8.55994,1.90475,19,12
5.78154,-5.86078,-0.720255,5,5
6.09269,-6.1762,1.68637,17,13
5.80306,-5.88465,-0.433132,68,6
8.3425,-8.46276,2.7435,48,14
5.95405,-6.04199,-0.148066,89,7
19.7287,-20.027,7.53267,30,15
4.81366,-4.90013,0.119898,19,8
0.372755,-0.379584,-0.122823,15,1
7.90241,-8.04997,0.591187,31,9
0.434527,-0.442796,-0.120591,15,2
5.89037,-6.00246,0.735769,43,10
2.95894,-3.0163,-0.669227,60,3
9.85707,-10.0517,1.72859,23,11
9.49123,-9.68198,-1.66474,8,4
8.44072,-8.61336,1.91007,25,12
5.75686,-5.87666,-0.719732,38,5
6.08924,-6.21813,1.69171,28,13
5.80241,-5.92729,-0.434703,76,6
8.32518,-8.50436,2.74755,53,14
5.45879,-5.57823,-0.136233,83,7
20.8569,-21.3207,7.99182,11,15
4.75239,-4.87335,0.118816,8,8
0.352318,-0.361412,-0.116525,16,1
8.07079,-8.282,0.60605,43,9
0.441121,-0.452823,-0.122881,15,2
5.86972,-6.02544,0.735943,67,10
2.97681,-3.05685,-0.675797,40,3
6.01229,-6.1761,1.05831,28,11
6.04998,-6.21698,-1.06514,2,4
6.00827,-6.17628,1.36473,76,12
5.76167,-5.92486,-0.723044,26,5
6.3059,-6.48676,1.7585,26,13
5.00673,-5.15213,-0.376505,21,6
8.31161,-8.55299,2.7534,68,14
9.58219,-9.86391,-0.24004,100,7
4.75814,-4.91516,0.119409,2,8
0.369963,-0.382306,-0.122823,15,1
6.10041,-6.30614,0.459824,120,9
0.434077,-0.448716,-0.121355,15,2
5.84067,-6.03975,0.735071,30,10
5.51654,-5.70656,-1.25711,41,3
6.0172,-6.22664,1.06319,26,11
6.0837,-6.29765,-1.07513,5,4
5.95952,-6.17126,1.35879,58,12
5.76033,-5.965,-0.725484,7,5
8.8644,-9.18256,2.4809,35,13
4.6725,-4.8419,-0.35264,50,6
8.34379,-8.64931,2.77455,48,14
4.65985,-4.83217,-0.117175,30,7
21.0245,-21.8096,8.11708,12,15
5.85932,-6.09512,0.147578,13,8
0.368626,-0.383595,-0.122823,15,1
7.38037,-7.68275,0.55832,20,9
0.443389,-0.461555,-0.124407,14,2
6.3067,-6.56738,0.796603,86,10
5.54857,-5.77993,-1.269,36,3
6.05178,-6.30633,1.07318,35,11
6.08779,-6.34607,-1.07976,28,4
6.01587,-6.27329,1.37662,44,12
5.74361,-5.98938,-0.726007,20,5
5.75913,-6.00766,1.61768,62,13
4.98308,-5.19994,-0.377447,14,6
8.33782,-8.70371,2.78264,63,14
4.6637,-4.87007,-0.117699,12,7
5.61708,-5.88411,0.141993,62,8
0.367285,-0.384879,-0.122823,15,1
0.428224,-0.448894,-0.120591,15,2
2.90184,-3.04404,-0.666098,20,3
6.08588,-6.38634,1.08317,60,11
6.68585,-7.01838,-1.19018,22,4
5.97596,-6.27318,1.37224,71,12
5.72542,-6.01228,-0.726356,33,5
5.73948,-6.02915,1.61806,29,13
4.99244,-5.24624,-0.37954,17,6
8.63243,-9.07445,2.89152,48,14
9.48388,-9.9695,-0.24018,44,7
5.60855,-5.91431,0.142272,70,8
0.366007,-0.386095,-0.122823,15,1
8.11922,-8.56784,0.618611,48,9
0.418553,-0.441835,-0.118302,15,2
9.10199,-9.61163,1.15813,10,10
2.91075,-3.07373,-0.670478,42,3
6.13836,-6.48433,1.09634,30,11
8.37175,-8.84978,1.92946,19,12
8.71542,-9.2163,2.46563,38,13
4.96404,-5.25116,-0.378703,7,6
8.26767,-8.74893,2.77905,25,14
6.03936,-6.39314,-0.153511,90,7
18.987,-20.1063,7.40999,9,15
5.63037,-5.97898,0.143354,55,8
0.363321,-0.385952,-0.122373,15,1
8.20424,-8.71831,0.627403,127,9
0.414395,-0.440361,-0.117538,16,2
9.06461,-9.63596,1.15743,7,10
2.94601,-3.1328,-0.681116,33,3
9.65757,-10.2735,1.73128,34,11
5.22007,-5.55493,-0.935957,10,4
5.89415,-6.27444,1.36348,32,12
8.37971,-8.92348,-1.07097,11,5
8.73561,-9.30248,2.48052,30,13
4.91287,-5.2335,-0.376191,3,6
8.6198,-9.18558,2.90817,40,14
8.59318,-9.16041,-0.219237,47,7
5.62995,-6.02051,0.143878,62,8
0.361972,-0.387217,-0.122373,15,1
8.07012,-8.63599,0.619448,53,9
0.436902,-0.467701,-0.124407,14,2
25.7088,-27.5308,3.29553,21,10
2.96686,-3.17823,-0.688625,11,3
6.14171,-6.57927,1.10511,37,11
5.21013,-5.58327,-0.937663,16,4
5.89377,-6.31808,1.36849,71,12
8.5333,-9.15085,-1.09468,9,5
8.68405,-9.31577,2.47556,31,13
5.82636,-6.25238,-0.447891,29,6
8.40941,-9.02746,2.84833,78,14
7.20358,-7.733,-0.184472,36,7
18.7777,-20.1648,7.38307,39,15
5.58336,-6.01472,0.143249,55,8
0.36055,-0.388542,-0.122373,15,1
8.04113,-8.66844,0.619658,43,9
0.439272,-0.473541,-0.125552,14,2
6.35234,-6.8503,0.817347,32,10
5.61606,-6.05842,-1.30842,12,3
6.11486,-6.59882,1.10462,27,11
5.15456,-5.56447,-0.931326,11,4
5.86789,-6.33675,1.36786,76,12
6.14875,-6.64237,-0.791897,30,5
8.5808,-9.26966,2.45533,25,13
5.80043,-6.26828,-0.447577,43,6
8.44534,-9.12972,2.87128,31,14
7.55533,-8.17045,-0.194245,46,7
18.722,-20.2534,7.39032,24,15
5.59892,-6.07387,0.144192,66,8
0.359192,-0.389798,-0.122373,15,1
7.97699,-8.65973,0.617041,39,9
0.440193,-0.478036,-0.126316,14,2
6.32449,-6.87061,0.816998,70,10
6.34955,-6.90025,-1.48519,12,3
9.48178,-10.3041,1.71933,42,11
5.14586,-5.59412,-0.933276,27,4
5.87783,-6.39209,1.37537,76,12
8.65835,-9.42248,2.48739,11,13
5.78147,-6.29391,-0.447891,43,6
8.16666,-8.89363,2.78759,68,14
7.11289,-7.74606,-0.183564,24,7
5.68597,-6.21385,0.147019,28,8
0.35776,-0.391112,-0.122373,15,1
7.91975,-8.65805,0.614948,30,9
0.430573,-0.470877,-0.124026,14,2
6.33676,-6.93235,0.821704,40,10
5.07953,-5.5589,-1.19266,13,3
9.4801,-10.3784,1.72591,42,11
5.1213,-5.60854,-0.932544,13,4
5.88212,-6.44174,1.38163,84,12
5.42928,-5.94791,-0.704567,13,5
8.59232,-9.41639,2.47785,11,13
5.71505,-6.26536,-0.444437,61,6
8.11062,-8.89472,2.77905,51,14
18.8053,-20.6306,7.47987,20,15
5.68013,-6.24895,0.147403,58,8
0.338114,-0.372104,-0.116075,16,1
7.82637,-8.61616,0.610028,108,9
0.434206,-0.478191,-0.125552,14,2
8.35064,-9.19979,1.08701,60,10
5.04779,-5.56108,-1.18953,10,3
9.40828,-10.3686,1.71909,42,11
5.12268,-5.64755,-0.9362,41,4
5.82908,-6.42858,1.37443,33,12
11.1662,-12.3189,-1.45463,20,5
8.49381,-9.37065,2.45838,23,13
5.69558,-6.28576,-0.444542,76,6
8.07585,-8.91579,2.77725,53,14
5.39431,-5.95745,-0.140282,40,7
18.7215,-20.6832,7.47521,10,15
5.59129,-6.19452,0.145658,32,8
0.35509,-0.393538,-0.122373,15,1
7.91931,-8.77987,0.619658,47,9
0.432617,-0.479628,-0.125552,14,2
8.2467,-9.14604,1.07742,58,10
5.01777,-5.56693,-1.18702,5,3
7.97015,-8.84553,1.46194,24,11
5.10294,-5.66539,-0.9362,15,4
5.78017,-6.41953,1.36818,39,12
6.31655,-7.01524,-0.825888,19,5
8.69877,-9.66436,2.52746,37,13
5.66826,-6.29966,-0.444123,54,6
8.13329,-9.04245,2.80784,53,14
9.13318,-10.1577,-0.238435,45,7
0.353714,-0.394775,-0.122373,15,1
7.89128,-8.81043,0.619867,45,9
0.43356,-0.48406,-0.126316,14,2
8.20277,-9.16142,1.07585,56,10
5.00094,-5.58736,-1.18765,37,3
7.9379,-8.87182,1.4617,14,11
5.08313,-5.68317,-0.9362,17,4
5.81697,-6.50593,1.38226,44,12
5.30931,-5.93814,-0.696897,8,5
8.64798,-9.67563,2.5225,23,13
5.65821,-6.33282,-0.445065,68,6
8.17957,-9.15799,2.83483,55,14
9.16959,-10.27,-0.24032,71,7
6.69258,-7.51951,0.175711,52,8
0.352334,-0.396007,-0.122373,15,1
7.63616,-8.58571,0.602178,56,9
0.418821,-0.470901,-0.122499,15,2
8.21045,-9.23466,1.08108,56,10
4.99978,-5.62545,-1.19203,50,3
7.89633,-8.8876,1.45975,31,11
5.54704,-6.24559,-1.02565,23,4
7.9569,-8.96207,1.89818,42,12
5.26739,-5.9328,-0.694108,13,5
9.10546,-10.2593,2.66637,4,13
5.86274,-6.608,-0.462964,36,6
8.14626,-9.18503,2.83438,51,14
5.95513,-6.71687,-0.156688,41,7
5.49433,-6.21677,0.14482,18,8
0.350949,-0.397235,-0.122373,15,1
7.57177,-8.57339,0.599456,56,9
0.422373,-0.478246,-0.124026,14,2
8.12806,-9.20651,1.07446,40,10
4.98011,-5.64287,-1.19203,48,3
7.89416,-8.94786,1.46511,38,11
5.41229,-6.13688,-1.00469,34,4
9.02158,-10.233,2.16067,31,12
6.5985,-7.48452,-0.872952,15,5
7.50542,-8.51622,2.20652,3,13
8.07035,-9.16369,2.81909,46,14
5.61981,-6.3834,-0.14845,89,7
5.44932,-6.21376,0.144262,43,8
0.323729,-0.369272,-0.113375,16,1
7.56249,-8.62944,0.60134,52,9
0.410182,-0.468052,-0.120973,15,2
8.12547,-9.27512,1.07881,51,10
4.96231,-5.66641,-1.19297,26,3
7.87412,-8.99454,1.46779,10,11
5.02133,-5.73784,-0.9362,32,4
7.79994,-8.91608,1.87628,10,12
5.25655,-6.00874,-0.698466,10,5
8.15505,-9.32529,2.40801,11,13
5.67086,-6.4869,-0.451555,68,6
8.10307,-9.27238,2.84293,46,14
5.58999,-6.39891,-0.148311,89,7
5.68499,-6.52832,0.151103,75,8
0.348028,-0.399796,-0.122373,15,1
7.53101,-8.65428,0.601236,51,9
0.4137,-0.475405,-0.122499,15,2
8.16366,-9.3846,1.08823,42,10
4.97102,-5.71649,-1.19985,55,3
8.79469,-10.1171,1.64597,37,11
5.07029,-5.83475,-0.949119,95,4
6.70155,-7.71469,-0.894044,30,5
8.03235,-9.24993,2.3813,25,13
5.38763,-6.20651,-0.430725,50,6
8.09875,-9.33299,2.85283,53,14
5.53486,-6.38062,-0.147438,100,7
5.50652,-6.36812,0.146949,45,8
0.34663,-0.401009,-0.122373,15,1
7.53993,-8.72585,0.604376,30,9
0.412038,-0.476846,-0.122499,15,2
8.2142,-9.50953,1.09938,30,10
4.9123,-5.68895,-1.19047,40,3
8.6776,-10.0531,1.63061,48,11
5.12251,-5.93658,-0.962768,23,4
7.65235,-8.87159,1.85563,49,12
5.37454,-6.23086,-0.719906,11,5
7.99232,-9.26899,2.37901,28,13
5.37246,-6.23284,-0.431248,54,6
9.06597,-10.5216,3.20645,27,14
5.18238,-6.01657,-0.138607,100,7
5.65361,-6.58454,0.151487,25,8
0.345229,-0.402216,-0.122373,15,1
6.94889,-8.09882,0.559262,8,9
0.402701,-0.469342,-0.12021,15,2
8.26268,-9.63342,1.11036,76,10
4.96185,-5.78704,-1.20736,33,3
8.65408,-10.0969,1.63281,45,11
5.187,-6.05392,-0.978855,27,4
7.80124,-9.10829,1.89943,26,12
7.97906,-9.31921,2.38473,22,13
5.38054,-6.28646,-0.433656,36,6
8.11448,-9.48407,2.88162,10,14
5.15875,-6.03158,-0.138537,100,7
5.30236,-6.21924,0.142656,56,8
0.328654,-0.385621,-0.116975,16,1
0.403607,-0.473733,-0.120973,15,2
8.10757,-9.51963,1.09398,47,10
6.94823,-8.16126,-1.69763,62,3
8.86967,-10.4218,1.68033,41,11
5.08994,-5.98278,-0.964474,37,4
7.68237,-9.03314,1.87815,58,12
5.02371,-5.90701,-0.67842,22,5
7.94013,-9.33952,2.38282,26,13
5.29519,-6.23063,-0.428527,39,6
9.08692,-10.696,3.24019,15,14
5.15319,-6.06784,-0.138956,100,7
5.29741,-6.25755,0.14311,66,8
0.324788,-0.383791,-0.116075,16,1
6.85606,-8.10444,0.556331,54,9
0.394343,-0.466146,-0.118683,15,2
8.06528,-9.53722,1.09276,42,10
4.70325,-5.56358,-1.15386,30,3
8.79736,-10.4103,1.67351,41,11
4.91274,-5.81551,-0.934738,28,4
7.78334,-9.21687,1.91069,21,12
4.78453,-5.66573,-0.648787,26,5
7.91381,-9.37468,2.38473,22,13
5.38031,-6.37577,-0.437215,61,6
9.0734,-10.7559,3.24874,33,14
5.1178,-6.06898,-0.138572,100,7
7.76833,-9.2154,3.22954,5,15
5.28326,-6.28519,0.143319,31,8
0.340998,-0.40581,-0.122373,15,1
6.85099,-8.15312,0.558111,48,9
0.392713,-0.46752,-0.118683,15,2
8.01401,-9.54395,1.09032,54,10
2.96802,-3.53589,-0.731175,27,3
8.73417,-10.409,1.66839,48,11
4.82352,-5.75049,-0.921576,61,4
7.75654,-9.24717,1.91163,9,12
4.87353,-5.81217,-0.663604,47,5
7.89239,-9.41579,2.38817,25,13
5.50298,-6.5675,-0.449043,47,6
8.21869,-9.81203,2.95496,23,14
5.09251,-6.07979,-0.138432,100,7
6.01342,-7.20218,0.163773,67,8
0.33965,-0.406938,-0.122373,15,1
6.86215,-8.22453,0.561356,61,9
0.393594,-0.471903,-0.119446,15,2
7.97809,-9.56881,1.08997,36,10
2.95501,-3.5442,-0.730862,40,3
8.739,-10.4852,1.67595,45,11
4.7968,-5.7573,-0.920114,46,4
7.87719,-9.45785,1.94949,3,12
4.88254,-5.86436,-0.667613,22,5
7.87871,-9.46303,2.39351,15,13
5.29974,-6.36772,-0.434179,58,6
8.01162,-9.6295,2.89197,70,14
5.09172,-6.12212,-0.138991,100,7
5.99718,-7.2339,0.164018,58,8
0.338228,-0.408121,-0.122373,15,1
6.8385,-8.25458,0.561774,61,9
0.407056,-0.491348,-0.124026,14,2
7.92344,-9.56759,1.08683,42,10
4.64445,-5.61019,-1.15355,22,3
8.63401,-10.433,1.66279,45,11
4.7539,-5.74648,-0.915726,52,4
7.66536,-9.26912,1.90506,9,12
4.74271,-5.73702,-0.651228,36,5
7.87815,-9.52982,2.40343,30,13
4.89579,-5.92431,-0.402778,39,6
8.03753,-9.72952,2.91357,48,14
5.36827,-6.50067,-0.147159,56,7
7.65704,-9.27553,3.22281,22,15
5.94393,-7.22083,0.16325,77,8
0.336801,-0.409299,-0.122373,15,1
6.8071,-8.27532,0.561565,58,9
0.400265,-0.486771,-0.122499,15,2
7.92375,-9.63966,1.09171,47,10
4.71165,-5.73401,-1.17545,15,3
8.58494,-10.4478,1.66035,63,11
4.73256,-5.76151,-0.915483,53,4
4.81619,-5.86751,-0.664127,36,5
8.22674,-10.0261,2.52097,29,13
7.93385,-9.67603,2.88882,53,14
7.33871,-8.95021,-0.202029,66,7
7.62462,-9.3022,3.22281,40,15
6.15782,-7.53679,0.169882,57,8
0.335299,-0.410531,-0.122373,15,1
6.75146,-8.26927,0.559471,65,9
0.386147,-0.472957,-0.118683,15,2
7.82076,-9.58237,1.08213,54,10
4.68786,-5.74583,-1.17451,15,3
8.59175,-10.5345,1.66912,63,11
4.72144,-5.79112,-0.917432,26,4
8.55353,-10.4951,2.1444,41,12
4.76949,-5.85423,-0.660641,30,5
7.83456,-9.61639,2.41106,17,13
4.84318,-5.9468,-0.40194,18,6
7.86927,-9.66589,2.87757,38,14
7.26421,-8.92587,-0.200877,76,7
6.14281,-7.57222,0.170196,66,8
0.333863,-0.411699,-0.122373,15,1
6.70495,-8.27106,0.558006,63,9
0.389355,-0.480471,-0.12021,15,2
7.77932,-9.60323,1.08125,33,10
6.62845,-8.18545,-1.66822,5,3
8.52869,-10.5321,1.664,82,11
4.68496,-5.78751,-0.914264,25,4
7.17607,-8.86803,1.80682,8,12
4.76782,-5.89407,-0.663255,28,5
7.79432,-9.63894,2.40954,7,13
4.83391,-5.98004,-0.402987,3,6
7.87788,-9.74923,2.89377,23,14
9.22758,-11.4195,-0.256271,100,7
6.14637,-7.63362,0.171068,57,8
0.332352,-0.41292,-0.122373,15,1
6.68586,-8.30959,0.558948,69,9
0.399983,-0.497123,-0.124026,14,2
7.78196,-9.67535,1.08631,24,10
5.17639,-6.43813,-1.30842,1,3
8.45646,-10.5215,1.65742,60,11
4.68983,-5.83714,-0.919382,57,4
4.70876,-5.8649,-0.658026,31,5
8.04258,-10.0244,2.9671,8,14
5.2359,-6.52847,-0.146077,89,7
7.59239,-9.47008,3.25232,20,15
6.1509,-7.69408,0.171941,56,8
6.67676,-8.35784,0.560623,62,9
0.403059,-0.504722,-0.125552,14,2
7.70418,-9.65086,1.08038,18,10
6.35532,-7.96402,-1.61378,16,3
7.28797,-9.13276,1.43465,37,11
4.56668,-5.72467,-0.899152,68,4
7.10257,-8.9068,1.80432,40,12
4.76526,-5.97789,-0.668833,21,5
7.84627,-9.84647,2.44732,12,13
5.71559,-7.1752,-0.480758,65,6
5.44478,-6.83767,-0.152569,66,7
7.62787,-9.58268,3.28183,40,15
0.312435,-0.393912,-0.116075,16,1
6.65477,-8.39322,0.561356,54,9
0.386657,-0.487665,-0.120973,15,2
7.68901,-9.70112,1.083,29,10
6.35078,-8.01557,-1.61972,47,3
7.2335,-9.13295,1.4305,6,11
4.49884,-5.68223,-0.88989,48,4
7.11156,-8.98544,1.81495,43,12
4.79506,-6.05855,-0.67598,27,5
7.73633,-9.77834,2.42366,22,13
5.7252,-7.23897,-0.483689,50,6
7.97064,-10.0817,2.9671,42,14
5.49035,-6.94701,-0.154559,58,7
7.32803,-9.27556,3.16743,30,15
0.327937,-0.416435,-0.122373,15,1
6.60566,-8.39128,0.559681,63,9
0.384953,-0.489012,-0.120973,15,2
7.66619,-9.74199,1.08457,29,10
6.34353,-8.06408,-1.62504,18,3
7.17949,-9.13006,1.42612,33,11
4.48511,-5.7057,-0.891109,45,4
8.38487,-10.6706,2.14941,14,12
4.78127,-6.08465,-0.677026,10,5
6.90416,-8.7894,2.17255,9,13
5.02889,-6.40437,-0.426747,32,6
7.84877,-9.99912,2.93471,53,14
5.17104,-6.59013,-0.146216,40,7
7.31111,-9.32085,3.17416,31,15
6.14995,-7.86308,0.174245,51,8
0.326482,-0.417577,-0.122373,15,1
6.42628,-8.22231,0.546911,63,9
0.380826,-0.487259,-0.12021,15,2
8.36812,-10.7107,1.18915,67,10
6.09526,-7.80439,-1.56841,41,3
8.26045,-10.5805,1.64816,22,11
4.46028,-5.71507,-0.890134,43,4
7.08997,-9.08782,1.82559,10,12
8.90969,-11.4203,-1.26724,10,5
6.87223,-8.8119,2.17217,10,13
5.00527,-6.42031,-0.426643,43,6
7.61976,-9.77745,2.86183,46,14
7.21507,-9.2615,-0.204926,24,7
7.35093,-9.43929,3.20573,28,15
6.11878,-7.87976,0.17414,65,8
0.325022,-0.418714,-0.122373,15,1
6.45509,-8.31885,0.55183,51,9
0.386344,-0.497892,-0.122499,15,2
4.53677,-5.85087,-1.17263,7,3
8.23441,-10.6234,1.65035,22,11
4.48043,-5.78238,-0.898177,43,4
6.982,-9.01413,1.80588,33,12
4.94242,-6.38093,-0.706136,22,5
6.84985,-8.8467,2.17484,21,13
5.01951,-6.48512,-0.429783,39,6
7.58439,-9.80244,2.86138,46,14
6.81078,-8.80577,-0.194315,75,7
7.3463,-9.50157,3.21816,25,15
5.9899,-7.76963,0.171243,51,8
0.299767,-0.388975,-0.113375,16,1
6.30534,-8.1847,0.541468,61,9
0.394189,-0.51168,-0.125552,14,2
7.66465,-9.95275,1.09903,47,10
6.19728,-8.05024,-1.60909,12,3
8.11375,-10.5435,1.63354,18,11
4.50742,-5.85935,-0.907683,51,4
6.93845,-9.02278,1.80275,50,12
4.63972,-6.03569,-0.666044,11,5
6.83687,-8.8939,2.18057,12,13
4.71207,-6.13202,-0.40529,43,6
7.52401,-9.79486,2.85148,46,14
6.80923,-8.86755,-0.195153,20,7
7.34602,-9.57006,3.23265,24,15
6.08428,-7.94928,0.174733,51,8
0.322091,-0.420973,-0.122373,15,1
6.29614,-8.23204,0.543143,63,9
0.370847,-0.485047,-0.118683,15,2
7.62812,-9.98078,1.09903,23,10
4.50797,-5.90045,-1.17607,8,3
6.96334,-9.11426,1.40832,35,11
4.39417,-5.75357,-0.888915,47,4
6.9201,-9.06422,1.80619,50,12
4.55577,-5.96949,-0.65698,38,5
4.62416,-6.06349,-0.399637,39,6
7.49988,-9.83787,2.85598,34,14
7.36292,-9.66172,3.25491,16,15
5.93778,-7.81707,0.171348,45,8
0.320546,-0.422151,-0.122373,15,1
6.2297,-8.20733,0.540002,63,9
0.364403,-0.480084,-0.117157,16,2
7.5824,-9.99306,1.09747,42,10
2.64179,-3.48296,-0.692379,17,3
6.8963,-9.09543,1.4015,35,11
4.49655,-5.93259,-0.91402,38,4
6.76038,-8.92263,1.77303,50,12
4.52167,-5.96789,-0.655063,25,5
6.56562,-8.66872,2.11378,35,13
4.60056,-6.07641,-0.399428,58,6
7.78184,-10.282,2.977,59,14
6.75646,-8.9304,-0.195467,9,7
0.302648,-0.401481,-0.116075,16,1
6.20823,-8.2386,0.540631,65,9
0.374541,-0.497032,-0.120973,15,2
2.61536,-3.47322,-0.688625,12,3
6.85974,-9.1131,1.40052,16,11
4.46746,-5.93714,-0.912314,30,4
6.7755,-9.00774,1.78523,54,12
4.53674,-6.0314,-0.660292,25,5
6.49992,-8.64451,2.10233,50,13
4.55652,-6.0621,-0.397439,39,6
7.69908,-10.2468,2.95901,14,14
6.72525,-8.95393,-0.195467,18,7
7.31099,-9.73733,3.26267,26,15
5.83512,-7.7943,0.169952,52,8
0.317591,-0.424378,-0.122373,15,1
6.20576,-8.2954,0.542933,82,9
0.372803,-0.498336,-0.120973,15,2
7.59001,-10.1495,1.1088,21,10
4.95097,-6.62292,-1.30967,6,3
6.8065,-9.10837,1.39614,45,11
4.44909,-5.95588,-0.912801,47,4
6.72747,-9.00917,1.78085,44,12
4.47274,-5.98973,-0.654017,26,5
6.59772,-8.83863,2.14393,45,13
4.55086,-6.09878,-0.3988,39,6
15.8121,-21.2058,-0.461721,38,7
7.38895,-9.91303,3.31288,13,15
5.7554,-7.744,0.168416,57,8
0.316108,-0.425484,-0.122373,15,1
6.31609,-8.50462,0.55518,39,9
0.361697,-0.487026,-0.11792,16,2
7.53553,-10.1503,1.10601,26,10
2.58987,-3.48981,-0.688312,6,3
6.76874,-9.1241,1.39492,26,11
4.42118,-5.96181,-0.911339,31,4
6.53599,-8.81678,1.7383,21,12
4.4435,-5.9941,-0.652797,13,5
6.44058,-8.69125,2.10272,48,13
4.54737,-6.1387,-0.40037,87,6
4.65904,-6.29404,-0.136687,23,7
7.40946,-10.0133,3.33773,8,15
5.79025,-7.8451,0.170196,66,8
0.314695,-0.42653,-0.122373,15,1
6.28429,-8.52069,0.554866,55,9
0.374064,-0.507183,-0.122499,15,2
20.758,-28.1555,3.06039,38,10
2.56305,-3.47771,-0.684244,12,3
6.75376,-9.16727,1.39809,22,11
4.4108,-5.98922,-0.913289,28,4
6.4224,-8.72387,1.71577,35,12
4.42964,-6.0192,-0.653842,27,5
6.46293,-8.78214,2.11951,40,13
4.469,-6.07491,-0.395241,58,6
7.03092,-9.56094,2.7399,42,14
6.18853,-8.41851,-0.182378,72,7
7.39566,-10.0643,3.34653,21,15
5.90465,-8.05883,0.174384,60,8
0.313204,-0.427626,-0.122373,15,1
6.19552,-8.462,0.549632,63,9
0.344374,-0.470528,-0.113341,16,2
7.89389,-10.7896,1.16963,10,10
2.51064,-3.43287,-0.673607,13,3
6.785,-9.27732,1.41125,16,11
4.47422,-6.11996,-0.930838,30,4
6.42454,-8.79089,1.72453,28,12
4.41095,-6.03785,-0.654191,13,5
6.30333,-8.63136,2.07753,50,13
4.41844,-6.05253,-0.392729,54,6
7.03144,-9.63544,2.75385,27,14
6.16972,-8.4546,-0.182692,54,7
7.37187,-10.1056,3.35171,32,15
5.86449,-8.06586,0.17407,45,8
0.311635,-0.428771,-0.122373,15,1
6.09168,-8.38447,0.543143,60,9
0.370425,-0.509846,-0.122499,15,2
20.4366,-28.1389,3.04261,19,10
2.4998,-3.44321,-0.67392,10,3
7.30128,-10.0604,1.52629,7,11
4.52753,-6.24076,-0.946681,51,4
6.47578,-8.92952,1.74706,30,12
6.13004,-8.45588,-0.913741,26,5
6.30658,-8.69941,2.0886,33,13
4.36916,-6.02911,-0.390217,63,6
7.08922,-9.78618,2.78984,25,14
4.65738,-6.43156,-0.138607,39,7
7.33931,-10.1389,3.35378,11,15
6.12771,-8.49003,0.182762,13,8
0.310136,-0.429856,-0.122373,15,1
6.06004,-8.40244,0.542933,65,9
0.363961,-0.50483,-0.120973,15,2
5.66482,-7.86315,-1.53494,7,3
7.17794,-9.96345,1.50777,3,11
4.51732,-6.27264,-0.949119,32,4
6.29684,-8.74687,1.70701,26,12
4.31992,-6.00295,-0.647044,10,5
6.31134,-8.77346,2.10081,44,13
4.38435,-6.09697,-0.393566,39,6
4.62557,-6.43479,-0.138328,63,7
6.3062,-8.77601,2.89567,35,15
6.03251,-8.42301,0.180842,17,8
0.292677,-0.408807,-0.116075,16,1
6.04547,-8.44734,0.544399,61,9
0.366767,-0.512484,-0.122499,15,2
6.36312,-8.89447,0.956796,59,10
2.46935,-3.45298,-0.672355,2,3
4.49891,-6.29561,-0.950094,22,4
6.26589,-8.77149,1.70733,27,12
4.26767,-5.97422,-0.642338,40,5
6.34229,-8.88172,2.12141,37,13
4.32706,-6.06184,-0.390322,45,6
7.07674,-9.91756,2.81279,21,14
4.54737,-6.37518,-0.136687,38,7
6.24595,-8.75974,2.88273,22,15
6.01698,-8.46358,0.181261,31,8
0.307052,-0.432065,-0.122373,15,1
6.00785,-8.45699,0.543666,48,9
0.337688,-0.475349,-0.113341,16,2
6.42778,-9.05146,0.971264,12,10
2.45386,-3.45674,-0.671417,16,3
7.60733,-10.7204,1.61404,21,11
4.47921,-6.31452,-0.950581,38,4
4.27906,-6.03459,-0.647219,16,5
6.50539,-9.17769,2.18667,38,13
5.8601,-8.2704,-0.53121,35,6
6.87875,-9.71162,2.74755,57,14
4.50314,-6.36001,-0.136024,38,7
6.19748,-8.75626,2.87444,23,15
5.96895,-8.45839,0.180702,52,8
0.305542,-0.433134,-0.122373,15,1
6.05541,-8.58727,0.550679,60,9
0.365443,-0.518241,-0.123263,15,2
6.35138,-9.01033,0.964465,57,10
2.45315,-3.48143,-0.674546,13,3
7.52071,-10.6771,1.60356,14,11
4.46742,-6.34472,-0.952775,25,4
8.08507,-11.4868,2.22481,5,12
4.60085,-6.53664,-0.699338,10,5
6.33774,-9.00767,2.14088,30,13
4.25591,-6.05106,-0.387705,21,6
6.92551,-9.85035,2.77995,46,14
8.11094,-11.5407,-0.246219,17,7
5.89923,-8.42185,0.179481,56,8
0.304028,-0.434198,-0.122373,15,1
6.09641,-8.70981,0.557169,58,9
0.354626,-0.506646,-0.12021,15,2
6.28448,-8.98184,0.959062,42,10
4.47325,-6.39559,-1.23615,23,3
7.42083,-10.6138,1.59015,50,11
5.8599,-8.38437,-1.25599,17,4
4.41597,-6.32074,-0.674585,17,5
6.42205,-9.19552,2.18018,60,13
4.23934,-6.07243,-0.388123,35,6
6.81971,-9.77219,2.75115,42,14
4.43689,-6.36013,-0.135361,30,7
7.30753,-10.479,3.42314,18,15
5.87322,-8.44731,0.179585,38,8
0.302511,-0.435256,-0.122373,15,1
5.98392,-8.61294,0.549632,63,9
0.364057,-0.524004,-0.124026,14,2
6.23718,-8.98081,0.956621,57,10
4.40922,-6.35113,-1.22457,27,3
6.42852,-9.26321,1.38444,26,11
4.42641,-6.38065,-0.953506,16,4
6.69889,-9.66001,1.86188,37,12
4.58574,-6.61525,-0.704218,10,5
6.32392,-9.12269,2.15767,43,13
4.22153,-6.09212,-0.388438,42,6
6.61356,-9.54763,2.68142,58,14
4.36229,-6.29995,-0.133755,37,7
7.23792,-10.4568,3.40761,24,15
5.86074,-8.49245,0.180109,55,8
0.30099,-0.436309,-0.122373,15,1
5.69076,-8.25231,0.525348,61,9
0.359905,-0.522102,-0.123263,15,2
6.15448,-8.93143,0.948952,48,10
3.72477,-5.40744,-1.03998,10,3
6.40177,-9.29377,1.38565,52,11
4.39961,-6.38952,-0.952531,23,4
6.72225,-9.76632,1.87784,49,12
4.80656,-6.98575,-0.74187,23,5
6.32382,-9.19433,2.16912,41,13
4.60879,-6.70333,-0.426329,47,6
6.55313,-9.53487,2.67107,46,14
4.32442,-6.29207,-0.133267,36,7
7.18715,-10.4613,3.40088,33,15
8.31618,-12.1455,0.256934,16,8
0.299389,-0.43741,-0.122373,15,1
5.68304,-8.30608,0.527442,60,9
0.349212,-0.510393,-0.12021,15,2
6.04903,-8.84432,0.937447,57,10
4.37481,-6.39882,-1.2277,21,3
7.30853,-10.6939,1.59039,58,11
6.4657,-9.46416,-1.40735,17,4
7.86617,-11.5184,2.20917,28,12
4.63271,-6.78366,-0.718686,11,5
6.26069,-9.17095,2.15843,49,13
4.53133,-6.64019,-0.421304,76,6
6.03003,-8.83969,2.47041,11,14
6.97699,-10.2317,-0.216166,38,7
7.17923,-10.5323,3.41538,27,15
8.3052,-12.2207,0.257912,24,8
0.29786,-0.438452,-0.122373,15,1
5.73704,-8.44814,0.535188,85,9
0.345222,-0.508361,-0.119446,15,2
5.98567,-8.81757,0.932392,55,10
4.38239,-6.45819,-1.23615,12,3
6.85105,-10.1,1.49851,28,11
6.42037,-9.4686,-1.40467,38,4
7.8769,-11.621,2.22356,19,12
6.97889,-10.2962,-1.08823,26,5
6.22423,-9.18625,2.15691,44,13
4.45996,-6.58486,-0.416804,43,6
5.99695,-8.85746,2.46951,56,14
5.85291,-8.64797,-0.182273,81,7
7.16624,-10.5924,3.42676,13,15
5.97351,-8.85609,0.186462,21,8
0.296328,-0.439489,-0.122373,15,1
5.71681,-8.47871,0.53592,62,9
0.363196,-0.538866,-0.126316,14,2
5.95819,-8.84337,0.932915,53,10
3.65801,-5.4314,-1.03716,12,3
7.21264,-10.7133,1.58576,29,11
6.39504,-9.50248,-1.40637,26,4
6.9418,-10.3188,-1.08805,11,5
6.19651,-9.21443,2.15843,41,13
4.39795,-6.54237,-0.41314,39,6
5.96165,-8.87187,2.46771,38,14
5.80524,-8.63911,-0.18168,100,7
7.17954,-10.6883,3.45006,12,15
5.93187,-8.85757,0.186078,52,8
0.294869,-0.440469,-0.122373,15,1
5.59387,-8.35918,0.527128,69,9
0.35258,-0.527076,-0.123263,15,2
5.95387,-8.90386,0.937099,53,10
3.6872,-5.51411,-1.05061,5,3
6.95313,-10.4022,1.53629,31,11
4.61767,-6.91083,-1.02053,5,4
7.181,-10.7512,2.04773,55,12
6.08262,-9.11017,-0.958364,8,5
6.12559,-9.17452,2.14431,42,13
5.66681,-8.4906,-0.534978,28,6
6.02629,-9.03262,2.50685,45,14
5.77505,-8.65932,-0.18168,100,7
7.20863,-10.813,3.48215,12,15
5.92084,-8.9082,0.186706,17,8
0.294408,-0.443119,-0.122823,15,1
5.55582,-8.36535,0.52629,60,9
0.344223,-0.51849,-0.120973,15,2
5.92431,-8.92356,0.937099,44,10
3.61659,-5.44959,-1.03591,18,3
6.97055,-10.5074,1.54823,7,11
6.09324,-9.18845,-1.35372,15,4
7.1347,-10.763,2.04522,54,12
5.96715,-9.00513,-0.945117,4,5
6.14613,-9.27874,2.16339,33,13
4.55616,-6.88099,-0.432504,47,6
6.03453,-9.11372,2.5235,46,14
5.79997,-8.76281,-0.183425,100,7
5.93548,-9.00163,0.188207,28,8
0.292782,-0.444195,-0.122823,15,1
5.56358,-8.44403,0.529954,75,9
0.320723,-0.486957,-0.113341,16,2
5.89814,-8.9552,0.938144,57,10
3.59768,-5.46446,-1.03622,23,3
7.05422,-10.7186,1.57553,21,11
4.35862,-6.62528,-0.973736,31,4
7.12125,-10.8287,2.05273,44,12
4.19721,-6.38478,-0.668485,25,5
6.04954,-9.20605,2.14126,47,13
5.61429,-8.54694,-0.53592,17,6
6.00216,-9.13741,2.52395,67,14
5.7327,-8.73051,-0.182308,99,7
5.47115,-8.36398,0.174454,42,8
0.291152,-0.445265,-0.122823,15,1
0.319021,-0.488073,-0.113341,16,2
5.84893,-8.95174,0.93553,48,10
5.44421,-8.33549,-1.57686,10,3
6.6763,-10.2258,1.49948,14,11
4.32454,-6.62625,-0.971543,21,4
7.05021,-10.8068,2.04366,10,12
4.1368,-6.34099,-0.662384,26,5
6.11818,-9.38169,2.17713,25,13
4.48281,-6.87661,-0.430202,39,6
5.78882,-8.88342,2.44792,47,14
6.81285,-10.4589,-0.217876,66,7
6.36174,-9.77006,3.12395,28,15
5.44083,-8.38135,0.174419,52,8
0.26838,-0.413585,-0.113825,16,1
0.33441,-0.515537,-0.119446,15,2
5.83499,-8.99884,0.938319,53,10
3.54881,-5.47515,-1.03341,12,3
6.21851,-9.59765,1.40418,13,11
4.32081,-6.6713,-0.97593,39,4
6.65818,-10.2841,1.94041,21,12
4.12438,-6.37045,-0.663952,38,5
6.19526,-9.57275,2.21644,14,13
4.47071,-6.91066,-0.431353,39,6
5.73979,-8.87576,2.44027,31,14
6.7915,-10.5061,-0.218365,66,7
5.65028,-8.74403,2.78955,27,15
5.39205,-8.37003,0.173791,45,8
5.6712,-8.81011,0.549109,52,9
0.336859,-0.523304,-0.120973,15,2
5.84775,-9.08785,0.945466,34,10
3.54998,-5.51907,-1.03935,20,3
6.17209,-9.59926,1.40125,26,11
4.173,-6.49263,-0.947656,45,4
7.08137,-11.0219,2.07495,10,12
4.16889,-6.48873,-0.67476,32,5
6.04617,-9.41426,2.17484,49,13
4.51238,-7.02875,-0.437738,14,6
5.7414,-8.94658,2.45422,52,14
6.79689,-10.5954,-0.219726,100,7
6.26731,-9.77358,3.11101,32,15
5.70316,-8.92121,0.184821,62,8
5.59418,-8.75748,0.544608,52,9
0.33503,-0.524477,-0.120973,15,2
5.75916,-9.01921,0.936227,65,10
3.55621,-5.57139,-1.04686,7,3
6.14281,-9.62744,1.40223,42,11
7.42197,-11.6412,2.18664,24,12
4.09266,-6.41924,-0.666044,30,5
5.99744,-9.41047,2.16912,15,13
5.48904,-8.61607,-0.535397,35,6
5.69862,-8.94849,2.44927,63,14
4.3319,-6.80496,-0.140806,48,7
6.27464,-9.8606,3.13171,19,15
5.37098,-8.46657,0.175013,61,8
0.264034,-0.416372,-0.113825,16,1
5.55609,-8.76514,0.543875,43,9
0.312176,-0.49248,-0.113341,16,2
5.50689,-8.69088,0.900144,34,10
0.38792,-0.612446,-0.114823,22,3
6.1166,-9.66057,1.40393,32,11
5.61383,-8.86992,-1.28889,33,4
5.87525,-9.28655,1.74049,43,12
4.1362,-6.54029,-0.677026,17,5
5.93727,-9.38821,2.15919,22,13
4.35434,-6.88788,-0.427061,47,6
5.66423,-8.96338,2.44792,50,14
6.85518,-10.8522,-0.224054,84,7
5.56562,-8.81416,2.79318,9,15
5.33287,-8.47173,0.174733,47,8
0.283336,-0.450279,-0.122823,15,1
5.53716,-8.80308,0.545027,27,9
0.322909,-0.513565,-0.11792,16,2
5.43896,-8.65365,0.894218,64,10
0.390927,-0.622226,-0.116387,21,3
6.06911,-9.66001,1.40077,48,11
5.55433,-8.84407,-1.28231,38,4
5.80919,-9.25346,1.73048,45,12
4.0032,-6.37917,-0.658897,17,5
5.87361,-9.36334,2.14851,40,13
4.37787,-6.98163,-0.431876,39,6
6.09397,-9.72216,2.64902,46,14
6.82788,-10.893,-0.224403,100,7
5.58918,-8.92029,2.82061,33,15
5.21917,-8.35891,0.172011,55,8
0.281684,-0.451314,-0.122823,15,1
5.46468,-8.75892,0.541049,58,9
0.335663,-0.538008,-0.123263,15,2
5.41293,-8.67935,0.894915,42,10
4.00876,-6.43032,-1.20017,6,3
6.05781,-9.72094,1.40637,45,11
5.52503,-8.86942,-1.28304,39,4
5.75331,-9.23948,1.72391,49,12
3.9819,-6.39719,-0.659246,10,5
4.34503,-6.98331,-0.431039,32,6
5.85621,-9.41572,2.55994,52,14
5.46179,-8.78498,-0.180563,45,7
5.49221,-8.83735,2.788,50,15
5.1689,-8.34308,0.171313,11,8
0.280107,-0.452295,-0.122823,15,1
5.42251,-8.75927,0.539898,47,9
0.339887,-0.549252,-0.125552,14,2
5.36851,-8.6788,0.892823,54,10
4.00594,-6.47858,-1.20642,6,3
6.03011,-9.75215,1.40783,45,11
5.54831,-8.97646,-1.29571,22,4
5.67015,-9.17716,1.70858,58,12
3.96373,-6.41783,-0.659943,13,5
4.20403,-6.81222,-0.419525,90,6
5.83599,-9.46035,2.56624,60,14
5.42899,-8.80059,-0.180493,100,7
5.46538,-8.86304,2.79007,35,15
5.13137,-8.34744,0.171034,41,8
0.278526,-0.45327,-0.122823,15,1
5.42167,-8.82314,0.542724,13,9
0.338064,-0.550376,-0.125552,14,2
5.29591,-8.62524,0.885502,46,10
4.0206,-6.55075,-1.21737,8,3
5.44741,-8.8824,-1.27938,35,4
5.57978,-9.09825,1.69043,63,12
5.64602,-9.20986,-0.945117,22,5
6.03271,-9.8445,2.2443,10,13
4.15221,-6.77844,-0.416594,43,6
5.81374,-9.4946,2.57029,60,14
5.31415,-8.67871,-0.177631,100,7
5.60035,-9.14969,2.87444,26,15
6.9566,-11.4012,0.233129,30,8
0.277022,-0.454191,-0.122823,15,1
6.55322,-10.7485,0.659747,40,9
0.32388,-0.531435,-0.120973,15,2
5.18699,-8.51436,0.872255,64,10
4.01838,-6.5961,-1.22332,10,3
6.03999,-9.91844,1.42587,37,11
5.40657,-8.88176,-1.2767,37,4
5.59317,-9.19192,1.7042,49,12
5.61073,-9.22441,-0.944594,50,5
5.9429,-9.77052,2.22292,30,13
4.09858,-6.74097,-0.413454,39,6
5.7721,-9.49718,2.56579,48,14
5.27656,-8.68524,-0.177386,100,7
5.6496,-9.30293,2.91637,18,15
6.85773,-11.3279,0.23114,47,8
0.275435,-0.455155,-0.122823,15,1
6.5322,-10.7987,0.661422,48,9
0.301793,-0.498909,-0.113341,16,2
5.19069,-8.58437,0.877658,48,10
4.01066,-6.63544,-1.22801,7,3
6.01047,-9.94796,1.42709,37,11
5.41145,-8.96005,-1.28523,16,4
5.54165,-9.17926,1.69825,11,12
5.9118,-9.79625,2.22407,19,13
4.11422,-6.82023,-0.417432,36,6
5.69062,-9.43716,2.5442,65,14
5.25653,-8.72073,-0.177735,100,7
5.55428,-9.21835,2.88376,17,15
6.81506,-11.3466,0.231035,48,8
0.273844,-0.456114,-0.122823,15,1
6.49138,-10.8163,0.661108,41,9
0.316122,-0.526949,-0.119446,15,2
5.0557,-8.43075,0.860053,56,10
4.03608,-6.73312,-1.24334,2,3
5.95835,-9.93993,1.42295,23,11
5.40871,-9.02656,-1.29206,15,4
6.54085,-10.9203,2.01613,6,12
5.47251,-9.14027,-0.932043,26,5
6.09162,-10.1784,2.30574,8,13
4.10253,-6.85754,-0.418792,50,6
5.78701,-9.67706,2.60313,40,14
5.2784,-8.82655,-0.179515,24,7
5.52505,-9.24266,2.88531,42,15
6.32418,-10.6173,0.215712,21,8
0.272171,-0.457114,-0.122823,15,1
6.43944,-10.8194,0.659852,46,9
0.32633,-0.548294,-0.124026,14,2
5.05273,-8.49287,0.864585,44,10
0.366521,-0.616311,-0.113571,23,3
6.04969,-10.1767,1.45366,3,11
5.38269,-9.05827,-1.29377,24,4
6.46648,-10.8865,2.00549,15,12
7.41336,-12.4855,-1.27038,12,5
4.08774,-6.88728,-0.419734,18,6
5.60802,-9.45251,2.53745,54,14
5.20929,-8.78392,-0.178259,100,7
5.49212,-9.26451,2.88583,21,15
6.74488,-11.4141,0.231419,38,8
0.270573,-0.458062,-0.122823,15,1
6.38843,-10.8195,0.658491,48,9
0.316335,-0.53596,-0.120973,15,2
4.96791,-8.42038,0.855346,62,10
0.368274,-0.624457,-0.114823,22,3
5.97783,-10.1362,1.44488,13,11
5.35507,-9.08385,-1.29474,31,4
5.33831,-9.05904,1.6654,33,12
7.39198,-12.5491,-1.27422,10,5
6.01863,-10.2217,2.30574,23,13
7.23849,-12.2983,-0.747881,48,6
5.58915,-9.49987,2.54465,37,14
5.24248,-8.91063,-0.180458,24,7
5.48717,-9.33025,2.90033,30,15
6.70502,-11.4422,0.231489,8,8
0.268893,-0.45905,-0.122823,15,1
6.34558,-10.8331,0.657968,84,9
0.310494,-0.530285,-0.119446,15,2
4.95559,-8.46691,0.85831,56,10
0.347139,-0.593343,-0.108878,25,3
5.85646,-10.0141,1.42441,20,11
5.34478,-9.14283,-1.30035,17,4
5.26578,-9.0077,1.65257,54,12
5.40504,-9.24962,-0.937273,14,5
6.03242,-10.3274,2.32482,7,13
7.07769,-12.1217,-0.735634,65,6
6.942,-11.8941,3.17946,20,14
5.18917,-8.89089,-0.17969,21,7
5.42731,-9.30262,2.88583,32,15
12.8918,-22.168,0.447619,33,8
0.267369,-0.45994,-0.122823,15,1
6.31374,-10.8655,0.658596,45,9
0.292864,-0.504203,-0.113341,16,2
4.99804,-8.60821,0.87086,48,10
0.35608,-0.613283,-0.11232,23,3
7.67661,-13.2269,1.87776,45,11
5.27259,-9.08839,-1.29011,5,4
7.26722,-12.5366,-1.26777,15,5
6.91128,-11.9274,-0.722446,26,6
6.86052,-11.8445,3.16011,18,14
5.19417,-8.97124,-0.180947,100,7
5.40061,-9.33155,2.88894,40,15
16.8402,-29.1917,0.588251,13,8
0.265762,-0.46087,-0.122823,15,1
7.49762,-13.0072,0.786819,22,9
0.29021,-0.50347,-0.112959,16,2
4.91376,-8.52806,0.861099,48,10
8.54477,-14.8358,-2.71164,3,3
7.47588,-12.9852,1.83974,44,11
5.2646,-9.14803,-1.29596,34,4
5.23527,-9.10075,1.6629,7,12
7.2256,-12.5606,-1.26777,25,5
6.8716,-11.9549,-0.722655,39,6
5.60365,-9.75292,2.59683,2,14
5.18474,-9.02747,-0.181714,100,7
6.4164,-11.1765,3.45316,20,15
13.4339,-23.4759,0.472123,6,8
0.264151,-0.461795,-0.122823,15,1
7.37088,-12.8911,0.778236,51,9
0.304043,-0.531749,-0.119065,15,2
5.10938,-8.93956,0.900842,22,10
0.362569,-0.634621,-0.115762,22,3
7.42362,-12.9992,1.83803,40,11
5.20705,-9.12153,-1.28962,15,4
6.25984,-10.9702,2.00048,5,12
8.60265,-15.0759,-1.5186,15,5
18.1137,-31.7824,8.44556,12,14
5.28881,-9.28355,-0.186496,20,7
12.5237,-22.0636,0.442837,5,8
0.262538,-0.462714,-0.122823,15,1
7.33766,-12.9376,0.779492,45,9
0.313711,-0.553355,-0.123644,14,2
4.85607,-8.56563,0.861447,16,10
0.353534,-0.623852,-0.113571,23,3
5.75012,-10.1509,1.43245,6,11
8.38533,-14.809,-2.08957,31,4
8.56696,-15.1421,-1.52209,9,5
5.34256,-9.44679,2.10958,22,13
6.66597,-11.7917,-0.709885,26,6
5.50282,-9.73413,2.58154,8,14
6.72319,-11.8977,-0.238539,23,7
6.50829,-11.5221,3.54582,22,15
19.1657,-34.0554,0.68211,18,8
0.26084,-0.463673,-0.122823,15,1
7.39689,-13.1542,0.790901,38,9
0.284745,-0.506581,-0.112959,16,2
4.82562,-8.5851,0.861622,22,10
0.357051,-0.635477,-0.115449,22,3
7.15932,-12.7473,1.79514,36,11
8.4272,-15.011,-2.1137,49,4
5.01725,-8.94063,1.62379,9,12
8.4305,-15.0291,-1.50762,34,5
5.29254,-9.43891,2.10348,44,13
6.64614,-11.8578,-0.712397,48,6
13.0837,-23.3435,6.17806,8,14
6.68834,-11.938,-0.238854,45,7
6.49905,-11.6049,3.56394,8,15
7.34661,-13.1668,0.263182,15,8
0.259139,-0.464626,-0.122823,15,1
0.282975,-0.507572,-0.112959,16,2
4.82613,-8.66017,0.867374,46,10
0.358564,-0.643684,-0.1167,32,3
7.06523,-12.6885,1.78319,27,11
6.07346,-10.9119,-1.53336,9,4
6.14269,-11.0362,2.00048,42,12
6.00573,-10.7946,-1.08073,11,5
5.24143,-9.42473,2.09623,47,13
6.64546,-11.9543,-0.716793,58,6
13.0728,-23.5259,6.2136,25,14
10.0996,-18.1753,-0.36294,67,7
17.8887,-32.2058,9.87136,9,15
7.28741,-13.1631,0.262624,7,8
0.257597,-0.465483,-0.122823,15,1
0.281202,-0.508557,-0.112959,16,2
4.75635,-8.60546,0.860227,56,10
0.350694,-0.634496,-0.114823,45,3
6.88008,-12.453,1.74688,34,11
8.34044,-15.1024,-2.11833,66,4
4.91557,-8.90454,1.61096,58,12
8.2811,-15.0074,-1.4996,34,5
5.21204,-9.44549,2.09699,36,13
5.39132,-9.77441,-0.585011,37,6
5.99541,-10.8741,2.86678,2,14
9.98687,-18.1211,-0.36116,82,7
6.40856,-11.6331,3.55876,8,15
7.25682,-13.2165,0.263182,27,8
7.10023,-12.942,0.77363,21,9
0.279514,-0.509486,-0.112959,16,2
4.72971,-8.62468,0.860576,18,10
0.346578,-0.632252,-0.114197,45,3
6.07059,-11.079,1.55115,18,11
8.28862,-15.1332,-2.11858,21,4
4.87118,-8.89738,1.60658,61,12
8.19588,-14.9701,-1.49315,24,5
5.15642,-9.4223,2.08783,40,13
6.51601,-11.9116,-0.71156,16,6
5.95741,-10.895,2.86678,2,14
9.84204,-18.0067,-0.358193,100,7
6.40496,-11.7232,3.57947,11,15
7.1963,-13.2154,0.262659,15,8
0.254341,-0.46727,-0.122823,15,1
5.54016,-10.1825,0.607516,4,9
0.277734,-0.510459,-0.112959,16,2
4.72527,-8.6884,0.865282,14,10
0.348143,-0.6404,-0.115449,44,3
6.83373,-12.5757,1.75736,23,11
8.26891,-15.2231,-2.12711,28,4
4.83632,-8.90739,1.60533,45,12
8.14358,-14.9986,-1.49315,33,5
5.13005,-9.45232,2.0905,38,13
8.28585,-15.2734,-0.910646,23,6
6.55104,-12.0806,3.17271,29,14
9.68383,-17.8651,-0.354703,29,7
6.35756,-11.7336,3.57584,19,15
9.66811,-17.9032,0.355156,9,8
0.252708,-0.468155,-0.122823,15,1
0.275861,-0.511473,-0.112959,16,2
9.97055,-18.4864,1.83759,20,10
0.344031,-0.638134,-0.114823,45,3
9.80518,-18.195,2.53781,11,11
9.43768,-17.5203,-2.44348,18,4
6.04794,-11.2322,2.02051,15,12
8.18298,-15.2038,-1.51058,37,5
5.087,-9.4555,2.08707,41,13
5.27087,-9.80135,-0.583232,23,6
6.44699,-11.9884,3.14257,17,14
9.53809,-17.7438,-0.351631,72,7
6.3065,-11.737,3.57015,11,15
9.58072,-17.898,0.354354,11,8
0.250991,-0.469078,-0.122823,15,1
6.1708,-11.5375,0.685706,30,9
0.273984,-0.512481,-0.112959,16,2
5.52155,-10.3279,1.0246,10,10
0.352862,-0.660297,-0.118577,41,3
9.72627,-18.208,2.53464,23,11
9.39771,-17.6003,-2.44982,10,4
4.78641,-8.96791,1.61002,31,12
8.00903,-15.0122,-1.48862,33,5
5.07079,-9.50872,2.0947,43,13
5.22551,-9.80298,-0.582185,13,6
6.46259,-12.1237,3.17181,31,14
5.53014,-10.3788,-0.205275,77,7
6.26707,-11.7668,3.57222,16,15
11.8067,-22.2519,0.439696,5,8
0.24927,-0.469995,-0.122823,15,1
6.08824,-11.4841,0.681205,25,9
0.272194,-0.513434,-0.112959,16,2
9.95325,-18.7826,1.85973,45,10
0.340268,-0.642384,-0.115136,56,3
9.68083,-18.2839,2.54024,23,11
2.55545,-4.82843,-0.670769,11,4
4.74057,-8.96095,1.60564,63,12
7.9249,-14.9802,-1.48269,21,5
5.04399,-9.53851,2.09737,39,13
9.65638,-18.2686,-1.08294,45,6
6.41356,-12.1387,3.16956,20,14
8.12463,-15.3837,-0.303672,53,7
6.45709,-12.2729,0.242065,15,8
0.247628,-0.470862,-0.122823,15,1
5.37807,-10.2307,0.605736,8,9
0.316076,-0.60127,-0.13204,13,2
9.86909,-18.7819,1.85624,45,10
0.333431,-0.634824,-0.113571,46,3
5.77552,-11.0007,1.52556,28,11
2.54319,-4.84611,-0.671988,7,4
4.70101,-8.9617,1.60283,50,12
5.41435,-10.3216,-1.01972,11,5
5.00793,-9.55085,2.09623,52,13
5.13562,-9.79854,-0.579778,16,6
6.36663,-12.1524,3.16731,29,14
9.60899,-18.3491,-0.361544,82,7
5.53049,-10.5654,3.19538,6,15
9.6708,-18.5379,0.364965,24,8
0.245982,-0.471724,-0.122823,15,1
5.31555,-10.198,0.602701,9,9
0.294011,-0.564069,-0.123644,14,2
9.79795,-18.8056,1.8552,16,10
0.330301,-0.634232,-0.113259,58,3
9.54378,-18.3334,2.53781,5,11
5.04976,-9.70464,-1.34324,26,4
4.64691,-8.93424,1.59501,56,12
6.21583,-11.9507,-1.17852,17,5
4.96279,-9.54562,2.09127,39,13
9.14732,-17.6018,-1.0396,18,6
6.27117,-12.0725,3.14077,40,14
9.49789,-18.292,-0.359764,25,7
5.4206,-10.444,3.15293,11,15
4.7534,-9.18987,0.180597,18,8
0.244334,-0.472579,-0.122823,15,1
6.08686,-11.7779,0.694812,20,9
9.64263,-18.6663,1.83811,20,10
0.328085,-0.635381,-0.113259,58,3
9.61266,-18.6242,2.57339,23,11
4.97854,-9.64988,-1.33325,15,4
4.64014,-8.99781,1.60345,58,12
7.91371,-15.3457,-1.51058,34,5
4.91145,-9.52799,2.08363,28,13
5.55194,-10.7751,-0.635254,39,6
6.25843,-12.1515,3.15561,27,14
9.50263,-18.4584,-0.362382,90,7
5.43715,-10.5659,3.18399,2,15
9.48913,-18.5036,0.362975,24,8
0.241794,-0.471695,-0.122373,15,1
6.05755,-11.8222,0.696173,36,9
0.264999,-0.517185,-0.112959,16,2
9.45934,-18.4693,1.81545,58,10
0.329466,-0.643556,-0.11451,56,3
9.55844,-18.6788,2.57632,24,11
4.92494,-9.62832,-1.32789,33,4
7.822,-15.2987,-1.50326,34,5
4.85403,-9.49787,2.07333,20,13
5.60424,-10.9705,-0.645616,48,6
6.21864,-12.1785,3.15696,33,14
9.61995,-18.8477,-0.369363,7,7
6.26061,-12.2713,3.69128,3,15
5.51204,-10.8414,0.212291,43,8
0.240146,-0.472536,-0.122373,15,1
4.86202,-9.57114,0.562612,40,9
0.263192,-0.518107,-0.112959,16,2
9.32445,-18.3636,1.80186,42,10
0.320065,-0.63061,-0.112007,59,3
9.50036,-18.7262,2.57827,12,11
4.89669,-9.65607,-1.32935,11,4
11.7293,-23.1397,4.10891,11,12
7.8199,-15.4272,-1.5132,34,5
9.27435,-18.3045,3.98867,16,13
9.10688,-17.9817,-1.05635,19,6
9.04669,-17.8784,-0.349746,7,7
6.22821,-12.3137,3.69749,2,15
5.48957,-10.8864,0.212815,41,8
0.238578,-0.47333,-0.122373,15,1
4.82037,-9.56759,0.56146,65,9
0.262356,-0.52073,-0.113341,16,2
9.3576,-18.5813,1.82016,42,10
0.317084,-0.629903,-0.111694,48,3
9.42572,-18.7328,2.57486,24,11
4.81915,-9.58181,-1.31692,11,4
9.39083,-18.6797,3.31141,15,12
7.78928,-15.494,-1.51721,12,5
9.22682,-18.3615,3.9944,22,13
5.43262,-10.8157,-0.634312,61,6
6.29823,-12.5445,3.24064,6,14
9.60984,-19.1486,-0.37397,46,7
12.1235,-24.1679,7.24486,4,15
4.65218,-9.3064,0.18161,32,8
0.236924,-0.47416,-0.122373,15,1
4.79141,-9.59329,0.561984,40,9
0.260536,-0.521642,-0.113341,16,2
9.32561,-18.6798,1.82661,44,10
0.318411,-0.638076,-0.112946,47,3
5.11253,-10.2497,1.40637,3,11
4.75556,-9.53818,-1.30863,45,4
9.34583,-18.753,3.3186,19,12
9.16949,-18.3992,-1.79855,8,5
9.21432,-18.4972,4.01691,22,13
5.10284,-10.2481,-0.599979,67,6
6.23965,-12.5367,3.233,18,14
9.52869,-19.1534,-0.373412,54,7
11.5014,-23.1289,6.92134,12,15
4.62677,-9.33692,0.181889,30,8
0.217969,-0.440059,-0.113375,16,1
4.79334,-9.68156,0.56617,120,9
0.258623,-0.522594,-0.113341,16,2
9.16933,-18.5283,1.80866,81,10
0.317934,-0.642725,-0.113571,46,3
5.082,-10.2781,1.40783,9,11
4.72575,-9.56184,-1.30961,8,4
9.34943,-18.9255,3.34332,9,12
5.73572,-11.6156,-1.13337,4,5
9.17948,-18.5978,4.03141,24,13
4.63577,-9.39628,-0.549109,14,6
5.17585,-10.491,2.70076,17,14
5.36503,-10.8792,-0.211733,23,7
11.4445,-23.2174,6.93583,8,15
4.56343,-9.29458,0.180737,10,8
0.233525,-0.475843,-0.122373,15,1
4.7499,-9.68292,0.565228,18,9
0.256705,-0.523538,-0.113341,16,2
9.15048,-18.662,1.81842,46,10
0.312099,-0.636791,-0.11232,35,3
6.16215,-12.5785,1.71982,23,11
4.70726,-9.61297,-1.31424,20,4
6.07985,-12.4215,2.1904,10,12
5.76491,-11.7832,-1.14767,23,5
5.95112,-12.1692,2.63316,8,13
4.60832,-9.42757,-0.549946,45,6
5.13908,-10.5134,2.70166,57,14
6.09939,-12.4835,-0.242519,88,7
5.47918,-11.2191,3.3455,2,15
4.53371,-9.32023,0.180912,13,8
0.23178,-0.476696,-0.122373,15,1
4.7021,-9.6707,0.563554,13,9
