x, y, z, intensity, ring
-0.906618,-22.6715,2.78593,28,11
-0.0420632,-1.04728,-0.128694,58,4
-0.507258,-12.5749,1.99329,16,12
-0.0672961,-1.66827,-0.146073,2,5
-0.305974,-7.55233,1.46923,15,13
-0.357648,-8.75228,2.02231,15,14
-0.345855,-8.42762,-0.147229,8,7
-0.327826,-7.95441,2.13319,3,15
-0.42209,-9.9055,0.173058,7,8
-0.0226586,-0.529573,-0.122373,15,1
-0.343247,-7.98966,0.419106,50,9
-0.0250272,-0.582549,-0.113341,16,2
-0.545756,-12.6519,1.10792,4,10
-0.981695,-22.575,2.77448,56,11
-0.0460651,-1.05506,-0.129669,72,4
-0.407025,-9.28523,1.47205,28,12
-0.0724208,-1.6521,-0.144679,15,5
-0.334751,-7.60614,1.47991,18,13
-0.0759974,-1.71996,-0.0902272,1,6
-0.381893,-8.60886,1.98947,33,14
-0.458692,-9.94791,0.173826,5,8
-0.0245071,-0.529491,-0.122373,15,1
-0.36029,-7.75498,0.40686,22,9
-0.0270605,-0.582458,-0.113341,16,2
-1.06901,-22.9234,2.00772,4,10
-1.06226,-22.6091,2.77911,28,11
-0.048906,-1.03705,-0.127475,57,4
-0.438593,-9.266,1.46923,32,12
-0.0767743,-1.62198,-0.142064,34,5
-0.475709,-10.0131,1.94854,32,13
-0.0791467,-1.65983,-0.087087,11,6
-0.412593,-8.6211,1.99262,15,14
-0.515813,-10.6997,2.8703,24,15
-0.0263552,-0.529402,-0.122373,15,1
-0.387756,-7.76166,0.407278,54,9
-1.15421,-23.023,2.01678,39,10
-1.14308,-22.6429,2.78374,14,11
-0.0527266,-1.04084,-0.127963,41,4
-0.0817276,-1.60777,-0.140844,46,5
-0.394044,-7.72518,1.50357,36,13
-0.0847361,-1.65556,-0.0868777,34,6
-0.42839,-8.34131,1.92828,7,14
-0.0870645,-1.6895,-0.0295295,10,7
-0.403124,-7.7962,2.09178,7,15
-0.0282029,-0.529307,-0.122373,15,1
-0.0311261,-0.582255,-0.113341,16,2
-0.677573,-12.6335,1.10688,4,10
-1.31146,-24.2939,2.98726,8,11
-0.0563595,-1.04065,-0.127963,13,4
-1.2585,-23.1627,3.67402,2,12
-0.0878798,-1.61743,-0.141715,50,5
-0.0884424,-1.61736,-0.0848889,45,6
-0.457611,-8.34171,1.92873,33,14
-0.0914233,-1.66123,-0.0290408,30,7
-0.450036,-8.15159,2.18754,14,15
-0.0932413,-1.64711,0.0287965,3,8
-0.50994,-8.9253,0.782136,15,10
-1.34989,-23.4826,2.88806,15,11
-0.0595345,-1.03252,-0.126988,9,4
-1.33399,-23.0655,3.65932,20,12
-0.0936402,-1.6191,-0.14189,54,5
-0.4524,-7.79868,1.51846,1,13
-0.0937393,-1.61106,-0.0845749,56,6
-0.0958191,-1.63695,-0.0286219,46,7
-0.0994701,-1.65476,0.0289361,16,8
-0.10089,-1.66866,0.0876104,4,9
-1.35644,-22.2413,2.73597,13,11
-0.0626537,-1.02438,-0.126013,9,4
-1.41775,-23.1139,3.66776,24,12
-0.0992068,-1.61278,-0.141367,52,5
-0.6233,-10.1328,1.97335,8,13
-0.0994856,-1.61272,-0.0846796,59,6
-0.590558,-9.54617,2.20812,16,14
-0.100913,-1.62662,-0.0284474,50,7
-0.492299,-7.91302,2.12439,59,15
-0.103849,-1.63245,0.0285521,34,8
-0.106077,-1.65833,0.087087,13,9
-0.111511,-1.73378,0.152,1,10
-0.0416991,-0.64658,-0.102621,14,3
-0.0666133,-1.0301,-0.126744,9,4
-1.52271,-23.4833,3.72721,4,12
-0.103931,-1.59851,-0.140146,52,5
-0.533482,-8.18314,1.59402,1,13
-0.105396,-1.61234,-0.0846796,64,6
-0.10646,-1.62427,-0.0284125,54,7
-0.516876,-7.86499,2.11196,45,15
-0.109429,-1.62607,0.0284474,52,8
-0.111731,-1.65596,0.0869824,33,9
-0.11136,-1.64194,0.143981,6,10
-0.0439559,-0.646431,-0.102621,14,3
-0.0707487,-1.03778,-0.127719,9,4
-1.59471,-23.3321,3.70406,11,12
-0.10951,-1.59813,-0.140146,54,5
-1.66824,-24.2832,4.7313,11,13
-0.111298,-1.61595,-0.0848889,64,6
-0.567072,-8.23341,1.90534,18,14
-0.112405,-1.62788,-0.0284823,54,7
-0.546062,-7.88819,2.11869,39,15
-0.114821,-1.6257,0.0284474,64,8
-0.116516,-1.64562,0.086459,55,9
-0.116805,-1.64156,0.143981,24,10
-0.0460992,-0.646282,-0.102621,14,3
-0.118647,-1.65927,0.204253,1,11
-0.074756,-1.04546,-0.128694,9,4
-0.114381,-1.5918,-0.139624,65,5
-0.653771,-9.07617,1.7688,8,13
-0.11493,-1.59167,-0.0836329,73,6
-0.682511,-9.45211,2.18787,10,14
-0.117369,-1.62151,-0.0283776,56,7
-0.575433,-7.93065,2.1306,59,15
-0.119768,-1.61933,0.0283427,75,8
-0.120496,-1.6253,0.0854123,60,9
-0.0432117,-0.581483,-0.113341,16,2
-0.122396,-1.64315,0.144156,41,10
-0.0482422,-0.646125,-0.102621,14,3
-0.123111,-1.64501,0.202547,13,11
-0.0773336,-1.03333,-0.127232,9,4
-0.731449,-9.75072,1.5487,9,12
-0.120256,-1.59936,-0.140321,87,5
-0.68962,-9.1503,1.78368,7,13
-0.120207,-1.59128,-0.0836329,93,6
-0.712824,-9.4362,2.18472,25,14
-0.121538,-1.60516,-0.0280984,73,7
-0.617517,-8.13674,2.1865,10,15
-0.12483,-1.61494,0.0282729,92,8
-0.125576,-1.62091,0.0852029,60,9
-0.0451396,-0.581337,-0.113341,16,2
-0.127535,-1.63877,0.143807,59,10
-0.0503845,-0.645962,-0.102621,14,3
-0.128257,-1.64064,0.202059,39,11
-0.0810693,-1.03702,-0.127719,9,4
-0.721656,-9.21061,1.46329,3,12
-0.125559,-1.59895,-0.140321,73,5
-0.599505,-7.61743,1.48526,1,13
-0.125326,-1.58888,-0.0835282,100,6
-0.829923,-10.5217,2.43667,8,14
-0.12686,-1.60475,-0.0280984,88,7
-0.131149,-1.61243,0.028238,100,8
-0.132527,-1.62236,0.0853076,76,9
-0.0473131,-0.579194,-0.112959,16,2
-0.133137,-1.62633,0.142761,83,10
-0.0503929,-0.614254,-0.0976151,15,3
-0.135492,-1.64802,0.203034,70,11
-0.0839454,-1.01887,-0.125525,7,4
-0.137352,-1.66353,0.264374,1,12
-0.131813,-1.59645,-0.140146,20,5
-0.672008,-8.12171,1.5841,0,13
-0.132694,-1.6003,-0.0841562,100,6
-0.675341,-8.12747,1.88284,4,14
-0.132917,-1.59623,-0.0279588,100,7
-0.717119,-8.59392,2.31074,43,15
-0.135593,-1.59801,0.0279937,100,8
-0.0450723,-0.530093,-0.122823,15,1
-0.138529,-1.62587,0.085517,89,9
-0.0493345,-0.579025,-0.112959,16,2
-0.137118,-1.606,0.141018,84,10
-0.0585987,-0.684929,-0.108878,12,3
-0.140396,-1.63765,0.201816,89,11
-0.0868217,-1.01066,-0.12455,4,4
-0.141125,-1.63943,0.26062,5,12
-0.135676,-1.57613,-0.138403,24,5
-0.688712,-7.98436,1.55776,7,13
-0.137935,-1.59585,-0.0839469,100,6
-0.139526,-1.60771,-0.0281682,100,7
-0.755148,-8.68374,2.33558,49,15
-0.141347,-1.59952,0.0280286,100,8
-0.143144,-1.61344,0.0848889,96,9
-0.0513554,-0.57885,-0.112959,16,2
-0.143429,-1.61345,0.141715,91,10
-0.057484,-0.645369,-0.102621,14,3
-0.143994,-1.61342,0.198891,100,11
-0.0899955,-1.0064,-0.124063,4,4
-0.147199,-1.64286,0.261246,14,12
-0.139932,-1.56175,-0.137183,45,5
-0.835775,-9.30961,1.81688,6,13
-0.142431,-1.58343,-0.0833189,100,6
-0.836145,-9.27738,2.15053,19,14
-0.145317,-1.60921,-0.0282031,100,7
-0.147295,-1.603,0.0280984,100,8
-0.0487718,-0.529766,-0.122823,15,1
-0.147675,-1.601,0.0842609,96,9
-0.0533757,-0.578667,-0.112959,16,2
-0.149427,-1.61691,0.142064,100,10
-0.0633789,-0.684503,-0.108878,12,3
-0.149992,-1.61686,0.199378,100,11
-0.0914871,-0.984334,-0.121382,7,4
-0.152384,-1.63643,0.260307,35,12
-0.147415,-1.58308,-0.139101,56,5
-2.29641,-24.6144,4.80533,6,13
-0.148329,-1.5869,-0.0835282,100,6
-0.744605,-7.95115,1.8437,46,14
-0.150933,-1.60869,-0.0282031,100,7
-0.153459,-1.60845,0.0282031,100,8
-0.153363,-1.60448,0.0844702,100,9
-0.0553953,-0.578477,-0.112959,16,2
-0.154309,-1.60844,0.141367,100,10
-0.0737054,-0.766863,-0.122019,9,3
-0.155254,-1.61238,0.198891,100,11
-0.0937995,-0.974145,-0.120163,6,4
-0.156481,-1.62216,0.258117,50,12
-0.149682,-1.54884,-0.136137,97,5
-0.78742,-8.13304,1.58829,15,13
-0.156182,-1.61022,-0.0847843,88,6
-0.774543,-7.98549,1.85225,43,14
-0.155493,-1.60022,-0.0280635,100,7
-2.55903,-26.288,7.07715,4,15
-0.158203,-1.60196,0.0280984,100,8
-0.0523768,-0.529422,-0.122823,15,1
-0.159076,-1.60793,0.0846796,100,9
-0.0573133,-0.57829,-0.112959,16,2
-0.158657,-1.59801,0.140495,100,10
-0.0797672,-0.801997,-0.127651,8,3
-0.161978,-1.62568,0.200597,100,11
-0.0952579,-0.956051,-0.11797,8,4
-0.161468,-1.6177,0.257491,60,12
-0.150258,-1.50274,-0.132128,56,5
-0.936485,-9.34935,1.82642,21,13
-0.800435,-7.97706,1.8509,22,14
-0.160399,-1.59571,-0.0279937,100,7
-0.162905,-1.59546,0.0279937,100,8
-0.054132,-0.529245,-0.122823,15,1
-0.164891,-1.60935,0.0847843,100,9
-0.165286,-1.6132,-0.315216,1,2
-0.163346,-1.59153,0.139972,100,10
-0.0800019,-0.778148,-0.123896,9,3
-0.165944,-1.61131,0.198891,100,11
-0.0959465,-0.930043,-0.114801,11,4
-0.168332,-1.62891,0.259368,67,12
-0.115304,-1.11577,-0.0981374,51,5
-0.941406,-9.09428,1.77719,33,13
-0.164179,-1.58333,-0.0834235,19,6
-0.166381,-1.59912,-0.0280635,100,7
-0.824257,-7.90867,2.1306,44,15
-0.168473,-1.59488,0.0279937,100,8
-0.0559791,-0.529053,-0.122823,15,1
-0.170929,-1.61274,0.0849936,100,9
-0.170162,-1.60284,0.141018,100,10
-0.0873131,-0.821078,-0.130779,15,3
-0.170306,-1.59888,0.197428,100,11
-0.0968757,-0.907989,-0.11212,14,4
-0.173177,-1.62046,0.258117,70,12
-0.118139,-1.10546,-0.0972658,63,5
-0.847977,-7.92163,1.54861,30,13
-0.16715,-1.55891,-0.0821675,49,6
-0.908129,-8.45568,1.96337,1,14
-0.17239,-1.60251,-0.0281333,100,7
-0.876073,-8.13047,2.19116,8,15
-0.174039,-1.59428,0.0279937,100,8
-0.0578255,-0.528854,-0.122823,15,1
-0.175036,-1.59824,0.0842609,100,9
-0.173979,-1.58859,-0.310637,1,2
-0.175973,-1.60421,0.141192,100,10
-0.089963,-0.818805,-0.130466,15,3
-0.177624,-1.61406,0.199378,126,11
-0.0989572,-0.89778,-0.110901,15,4
-0.178616,-1.61788,0.257804,75,12
-0.121779,-1.10306,-0.0970915,32,5
-0.879722,-7.9557,1.55586,45,13
-0.17369,-1.56825,-0.0826908,100,6
-0.939573,-8.46989,1.96742,33,14
-0.178204,-1.60388,-0.0281682,100,7
-0.179603,-1.59367,0.0279937,100,8
-0.0596712,-0.528649,-0.122823,15,1
-0.180613,-1.59762,0.0842609,100,9
-0.180846,-1.59968,-0.312927,2,2
-0.181796,-1.60557,0.141367,100,10
-0.0946013,-0.834188,-0.132969,14,3
-0.181688,-1.59962,0.197672,100,11
-0.100969,-0.887567,-0.109682,16,4
-0.183144,-1.60743,0.25624,82,12
-0.125177,-1.09867,-0.0967429,6,5
-0.900141,-7.88821,1.54326,52,13
-0.181431,-1.58747,-0.0837375,100,6
-0.182891,-1.59531,-0.0280286,100,7
-0.93744,-8.16445,2.20203,40,15
-0.185165,-1.59303,0.0279937,100,8
-0.0615162,-0.528438,-0.122823,15,1
-0.187114,-1.60491,0.0846796,100,9
-0.182792,-1.56784,-0.306821,3,2
-0.18532,-1.58711,0.139798,100,10
-0.0954476,-0.816195,-0.130153,15,3
-0.188888,-1.61278,0.199378,100,11
-0.102679,-0.87538,-0.10822,17,4
-0.188062,-1.6009,0.255301,80,12
-0.125525,-1.06854,-0.0941282,5,5
-0.953823,-8.1073,1.58677,13,13
-0.187906,-1.59476,-0.0841562,100,6
-1.00028,-8.47667,1.97057,25,14
-0.188693,-1.59664,-0.0280635,100,7
-1.50544,-12.7194,3.43194,17,15
-0.189298,-1.58046,0.0277842,100,8
-0.0633603,-0.52822,-0.122823,15,1
-0.193192,-1.60821,0.0848889,100,9
-0.192287,-1.59833,0.140844,100,10
-0.0994775,-0.825663,-0.131718,14,3
-0.194278,-1.61014,0.199135,100,11
-0.107162,-0.88684,-0.109682,16,4
-0.194599,-1.60808,0.256553,80,12
-0.127579,-1.05425,-0.092908,7,5
-0.19299,-1.59013,-0.0839469,100,6
-0.194748,-1.59995,-0.0281333,100,7
-0.195303,-1.58376,0.027854,100,8
-0.0652039,-0.527995,-0.122823,15,1
-0.198314,-1.60357,0.0846796,100,9
-0.196624,-1.5899,-0.3114,3,2
-0.197865,-1.59764,0.140844,100,10
-0.0994414,-0.801786,-0.127963,16,3
-0.19794,-1.59369,0.197185,100,11
-0.108297,-0.870702,-0.107733,9,4
-0.200211,-1.60739,0.256553,80,12
-0.130702,-1.04785,-0.0923851,6,5
-0.968602,-7.76536,1.52113,25,13
-0.199282,-1.5954,-0.0842609,72,6
-1.01638,-8.12528,1.89049,7,14
-0.200332,-1.59926,-0.0281333,100,7
-1.11714,-8.90559,2.40495,39,15
-0.20234,-1.59497,0.0280635,100,8
-0.0670465,-0.527764,-0.122823,15,1
-0.20265,-1.59296,0.0841562,100,9
-0.202946,-1.59307,-0.312164,3,2
-0.204979,-1.60679,0.141715,100,10
-0.104883,-0.821011,-0.131092,15,3
-0.202999,-1.58906,0.196697,100,11
-0.104031,-0.813216,-0.100664,12,4
-0.206573,-1.61256,0.257491,85,12
-0.132838,-1.03553,-0.0913392,5,5
-1.21643,-9.4695,1.85581,15,13
-0.206168,-1.60053,-0.0281682,56,7
-1.04665,-8.11417,2.1922,25,15
-0.20922,-1.60215,0.0282031,100,8
-0.0689804,-0.527515,-0.122823,15,1
-0.209005,-1.59617,0.0843656,100,9
-0.207486,-1.58456,-0.310637,3,2
-0.211105,-1.61002,0.142064,100,10
-0.104919,-0.799095,-0.127651,16,3
-0.210115,-1.59814,0.197916,100,11
-0.109861,-0.834478,-0.103345,11,4
-0.211708,-1.60591,0.256553,89,12
-0.133327,-1.01135,-0.0892475,5,5
-1.01284,-7.67259,1.50434,12,13
-0.14814,-1.1207,-0.0592443,4,6
-1.09597,-8.28008,1.92828,42,14
-0.214661,-1.61959,-0.0285172,12,7
-1.08273,-8.15815,2.20514,63,15
-0.214014,-1.59547,0.0280984,68,8
-0.0708213,-0.527271,-0.122823,15,1
-0.214842,-1.59741,0.0844702,96,9
-0.21354,-1.58772,-0.3114,3,2
-0.215128,-1.59742,0.141018,100,10
-0.109292,-0.81047,-0.129528,31,3
-0.216224,-1.60133,0.198403,100,11
-0.109848,-0.812451,-0.100664,12,4
-0.217312,-1.60517,0.256553,89,12
-0.132045,-0.975343,-0.0861099,3,5
-1.03935,-7.66706,1.50396,34,13
-0.14829,-1.09247,-0.0577789,12,6
-1.12645,-8.28779,1.93098,28,14
-0.216807,-1.59307,-0.0280635,6,7
-0.0726615,-0.527021,-0.122823,15,1
-0.223421,-1.61841,0.0856216,55,9
-0.218007,-1.57919,-0.309874,1,2
-0.219339,-1.58679,0.140146,100,10
-0.109141,-0.78856,-0.126086,34,3
-0.223175,-1.6104,0.199622,100,11
-0.118413,-0.853354,-0.105783,5,4
-0.222914,-1.6044,0.256553,89,12
-0.133803,-0.963035,-0.085064,3,5
-0.151552,-1.08799,-0.0575696,17,6
-1.16748,-8.37066,1.95123,16,14
-0.224856,-1.61013,-0.0283776,5,7
-1.76728,-12.6389,3.41952,27,15
-0.224308,-1.58799,0.0279937,6,8
-0.0745006,-0.526764,-0.122823,15,1
-0.227949,-1.60971,0.0852029,10,9
-0.229023,-1.61729,-0.317506,1,2
-0.224317,-1.58207,0.139798,74,10
-0.111893,-0.788174,-0.126086,34,3
-0.225163,-1.58406,0.196453,100,11
-0.116356,-0.81756,-0.101395,6,4
-0.230742,-1.61925,0.259056,89,12
-0.137164,-0.962562,-0.085064,3,5
-1.09729,-7.69071,1.51006,4,13
-0.150829,-1.05582,-0.0558948,10,6
-0.228774,-1.59746,-0.0281682,5,7
-0.228704,-1.57928,0.027854,5,8
-0.0763389,-0.526501,-0.122823,15,1
-0.233567,-1.6089,0.0852029,6,9
-0.113506,-0.779959,-0.124835,36,3
-0.232981,-1.59898,0.198403,100,11
-0.118063,-0.809292,-0.10042,6,4
-0.235537,-1.61258,0.258117,78,12
-0.139948,-0.958135,-0.0847154,2,5
-1.37015,-9.36912,1.84054,27,13
-0.147569,-1.00786,-0.0533827,8,6
-1.21628,-8.29675,1.93593,38,14
-0.223895,-1.52542,-0.0269116,6,7
-1.85238,-12.6052,3.41382,10,15
-0.236856,-1.59628,0.0281682,9,8
-0.0781763,-0.526231,-0.122823,15,1
-0.238594,-1.60413,0.0849936,5,9
-0.237411,-1.59426,0.141018,5,10
-0.11681,-0.783466,-0.12546,35,3
-0.117366,-0.785315,-0.0974955,6,4
-0.239702,-1.60198,0.256553,43,12
-0.140932,-0.941877,-0.0833209,2,5
-1.47934,-9.87492,1.94091,8,13
-0.148716,-0.991533,-0.0525453,8,6
-1.2571,-8.37147,1.95437,55,14
-0.170353,-1.13309,-0.0200005,7,7
-1.89637,-12.5986,3.41382,37,15
-0.242728,-1.59742,0.0282031,10,8
-0.0800127,-0.525955,-0.122823,15,1
-1.65632,-10.8876,0.577161,8,9
-0.241773,-1.58555,0.140321,5,10
-0.116265,-0.761573,-0.122019,19,3
-0.245038,-1.6032,0.199135,7,11
-0.11997,-0.784922,-0.0974955,6,4
-0.141202,-0.921685,-0.0815778,2,5
-1.43761,-9.37291,1.84322,5,13
-0.150358,-0.979164,-0.0519173,7,6
-1.2538,-8.16501,1.90714,48,14
-0.171374,-1.11473,-0.0196863,16,7
-1.84759,-11.8935,0.210092,5,8
-0.0817564,-0.525687,-0.122823,15,1
-0.246109,-1.57883,0.139798,9,10
-0.117267,-0.751425,-0.120455,20,3
-0.251579,-1.61023,0.200109,6,11
-0.119508,-0.764906,-0.0950581,7,4
-0.252154,-1.61206,0.25843,4,12
-0.142408,-0.909401,-0.0805319,3,5
-1.46898,-9.37003,1.8436,16,13
-0.150507,-0.958929,-0.0508706,6,6
-1.27059,-8.09535,1.89184,20,14
-0.176001,-1.12008,-0.019791,28,7
-1.79892,-11.3324,0.200284,1,8
-0.0834992,-0.525413,-0.122823,15,1
-1.71658,-10.8014,0.573183,33,9
-1.86752,-11.7249,1.03872,10,10
-0.116025,-0.727623,-0.1167,21,3
-0.253788,-1.58978,0.197672,7,11
-0.123295,-0.772347,-0.0960331,7,4
-1.61045,-10.0769,1.61628,13,12
-0.15046,-0.940402,-0.0833209,2,5
-1.49539,-9.33603,1.83787,45,13
-0.150524,-0.938703,-0.0498238,7,6
-1.29003,-8.04491,1.88104,41,14
-0.177813,-1.10765,-0.0195816,18,7
-2.0213,-12.5772,3.41331,1,15
-1.76743,-10.8883,0.578103,69,9
-1.90927,-11.7363,1.04029,8,10
-0.120025,-0.736983,-0.118264,21,3
-1.90253,-11.6691,1.45171,37,11
-0.128411,-0.787608,-0.097983,6,4
-1.5414,-9.44376,1.51554,19,12
-0.153577,-0.939898,-0.0833209,2,5
-1.52507,-9.32327,1.83635,18,13
-0.15299,-0.934257,-0.0496145,7,6
-0.174691,-1.06561,-0.0188486,10,7
-2.04517,-12.4618,3.3838,41,15
-0.0871652,-0.524817,-0.122823,15,1
-1.86163,-11.1967,0.594851,13,9
-4.16658,-25.0327,2.22021,46,10
-0.11883,-0.713156,-0.11451,22,3
-1.9675,-11.7952,1.46828,21,11
-0.130127,-0.779277,-0.097008,7,4
-0.157185,-0.939301,-0.0833209,2,5
-2.01029,-12.013,2.36756,59,13
-0.154104,-0.919901,-0.0488818,8,6
-1.51741,-9.04832,2.11814,23,14
-0.172823,-1.02943,-0.0182203,9,7
-2.10677,-12.5358,3.40606,45,15
-0.19449,-1.14746,0.0203146,1,8
-1.83114,-10.7806,0.573079,34,9
-3.91595,-23.006,2.04171,40,10
-0.12277,-0.720505,-0.115762,11,3
-1.99599,-11.7139,1.45902,49,11
-0.130176,-0.763163,-0.0950581,7,4
-1.60227,-9.38353,1.50772,28,12
-0.160463,-0.938747,-0.0833209,2,5
-0.153428,-0.895707,-0.0476257,10,6
-1.43661,-8.37813,1.96247,27,14
-0.173035,-1.00912,-0.0178713,7,7
-2.16064,-12.5874,3.42211,19,15
-0.190501,-1.09945,0.0194769,6,8
-0.0909184,-0.52418,-0.122823,15,1
-1.94308,-11.191,0.595269,11,9
-1.96554,-11.3086,1.00421,48,10
-0.126639,-0.727856,-0.117013,10,3
-2.05321,-11.7887,1.46926,28,11
-0.128881,-0.739214,-0.0921332,8,4
-1.63529,-9.36981,1.50646,42,12
-0.158962,-0.908938,-0.0483584,9,6
-2.05831,-11.7572,2.75565,59,14
-0.173626,-0.990748,-0.0175571,6,7
-2.1577,-12.2997,3.34601,27,15
-0.19573,-1.10665,0.0196165,13,8
-0.0927476,-0.523859,-0.122823,15,1
-1.81797,-10.2579,0.545969,4,9
-2.00952,-11.3272,1.00647,14,10
-0.125034,-0.70407,-0.113259,11,3
-2.10338,-11.8322,1.47559,38,11
-0.136329,-0.766121,-0.0955456,7,4
-1.9569,-10.986,1.7674,52,12
-0.153009,-0.857257,-0.045637,12,6
-1.61743,-9.05275,2.12309,60,14
-0.177435,-0.992104,-0.017592,3,7
-2.20436,-12.313,3.35171,24,15
-0.199947,-1.10793,0.0196514,17,8
-0.0945757,-0.523532,-0.122823,15,1
-1.86689,-10.3343,0.550365,0,9
-4.51685,-24.9536,2.21864,57,10
-0.129604,-0.715292,-0.115136,11,3
-2.14361,-11.819,1.47486,28,11
-0.139712,-0.769547,-0.0960331,7,4
-1.74349,-9.60335,1.54589,30,12
-0.16101,-0.884227,-0.0471024,11,6
-0.173553,-0.952165,-0.0168939,2,7
-2.24137,-12.2847,3.34601,21,15
-0.200003,-1.08759,0.0193024,11,8
-0.0963113,-0.523216,-0.122823,15,1
-4.61152,-24.9789,2.2223,46,10
-0.131975,-0.714858,-0.115136,11,3
-2.1258,-11.5034,1.43635,27,11
-0.139374,-0.753464,-0.0940831,7,4
-2.05825,-11.1161,1.79055,58,12
-0.173554,-0.936415,-0.0833209,2,5
-2.07903,-11.2174,2.21758,42,13
-0.160298,-0.864051,-0.0460556,6,6
-2.16325,-11.6492,2.7354,23,14
-0.182722,-0.98301,-0.0174524,1,7
-2.28,-12.254,3.3398,29,15
-0.197902,-1.05544,0.0187439,7,8
-0.216836,-1.1542,0.0615471,2,9
-2.24388,-11.9325,1.06225,13,10
-0.131546,-0.698863,-0.112633,11,3
-2.29789,-12.1962,1.52385,24,11
-0.14789,-0.784184,-0.097983,6,4
-2.11499,-11.204,1.80588,42,12
-2.11234,-11.1792,2.21148,19,13
-0.164056,-0.867411,-0.046265,6,6
-2.21949,-11.7239,2.75475,48,14
-0.180196,-0.95093,-0.0168939,2,7
-2.29791,-12.115,3.30408,46,15
-0.193326,-1.01153,0.017976,6,8
-0.0995954,-0.520617,-0.122373,15,1
-0.221615,-1.15736,0.0617564,9,9
-2.23564,-11.6643,1.03907,14,10
-0.133985,-0.6984,-0.112633,11,3
-2.27793,-11.8626,1.48315,35,11
-0.143132,-0.744675,-0.0931082,7,4
-2.17573,-11.3091,1.82403,50,12
-2.31915,-12.0432,2.38397,10,13
-0.163302,-0.847221,-0.0452183,6,6
-2.26963,-11.7639,2.766,21,14
-2.40105,-12.4218,3.39001,9,15
-0.193798,-0.995151,0.0176967,6,8
-0.101412,-0.520266,-0.122373,15,1
-0.221446,-1.13501,0.060605,12,9
-0.148877,-0.763061,-0.151121,9,2
-2.34737,-12.0202,1.07149,4,10
-0.134906,-0.690173,-0.111381,24,3
-2.245,-11.4746,1.43562,23,11
-0.144586,-0.738326,-0.092377,24,4
-2.20456,-11.2471,1.81527,56,12
-0.160101,-0.815289,-0.0435435,7,6
-2.31745,-11.7903,2.7741,40,14
-0.194936,-0.9827,0.0174873,5,8
-0.103228,-0.519909,-0.122373,15,1
-0.223071,-1.12248,0.059977,13,9
-0.134229,-0.674199,-0.108878,12,3
-2.30405,-11.5621,1.44756,27,11
-0.146386,-0.733923,-0.0918895,33,4
-2.23259,-11.1832,1.80619,49,12
-5.12525,-25.6494,5.0843,23,13
-0.162946,-0.814725,-0.0435435,7,6
-2.35782,-11.7784,2.7732,42,14
-2.42389,-12.0865,3.30305,12,15
-0.193218,-0.956532,0.0170335,3,8
-0.105042,-0.519545,-0.122373,15,1
-0.224418,-1.10999,0.059349,11,9
-0.143646,-0.708574,-0.11451,11,3
-2.37558,-11.7077,1.46682,21,11
-0.147367,-0.725626,-0.0909145,25,4
-2.27359,-11.1951,1.80932,41,12
-2.42165,-11.9028,2.36107,9,13
-0.166586,-0.818065,-0.0437529,7,6
-2.40515,-11.8006,2.7804,21,14
-2.45817,-12.05,3.29528,15,15
-0.199206,-0.969597,0.0172779,1,8
-0.106764,-0.519194,-0.122373,15,1
-0.220641,-1.07203,0.0573602,9,9
-0.156859,-0.76146,-0.151121,9,2
-0.241397,-1.17081,0.104587,1,10
-0.142006,-0.688747,-0.111381,12,3
-2.3185,-11.2351,1.40857,32,11
-0.145355,-0.703749,-0.0882334,18,4
-2.38624,-11.543,1.86689,42,12
-5.17641,-25.0179,4.966,32,13
-0.173348,-0.837066,-0.0447996,7,6
-2.47789,-11.9548,2.81864,23,14
-0.164103,-0.791034,-0.0141015,4,7
-2.49433,-12.013,3.28752,24,15
-0.200952,-0.961066,0.0171383,1,8
-0.108576,-0.518818,-0.122373,15,1
-0.219468,-1.04779,0.0561041,6,9
-0.144089,-0.687917,-0.136619,12,2
-0.236694,-1.12905,0.100926,5,10
-0.133051,-0.634115,-0.102621,14,3
-2.36831,-11.2775,1.4149,27,11
-0.152302,-0.724607,-0.0909145,25,4
-2.43628,-11.581,1.8744,43,12
-2.59282,-12.3145,2.44617,30,13
-0.169679,-0.805186,-0.0431248,8,6
-2.42268,-11.4865,2.71021,59,14
-0.158603,-0.751325,-0.0134034,16,7
-2.46995,-11.6904,3.20159,35,15
-0.207635,-0.976006,0.0174175,1,8
-0.218961,-1.02749,0.0550574,5,9
-0.149763,-0.702771,-0.139672,11,2
-0.24188,-1.13406,0.101449,13,10
-0.135264,-0.633647,-0.102621,14,3
-2.42011,-11.3274,1.42222,6,11
-0.155661,-0.727953,-0.091402,25,4
-2.35928,-11.0238,1.78554,74,12
-2.64113,-12.3303,2.45113,10,13
-0.169977,-0.792872,-0.0424968,8,6
-2.46153,-11.4723,2.70886,70,14
-0.155347,-0.723395,-0.0129148,5,7
-2.50871,-11.6723,3.199,22,15
-0.21104,-0.975276,0.0174175,1,8
-0.112195,-0.518047,-0.122373,15,1
-0.220008,-1.015,0.0544294,4,9
-0.143898,-0.66387,-0.13204,13,2
-0.245415,-1.13126,0.101275,15,10
-0.158431,-0.729691,-0.118264,10,3
-2.45668,-11.3053,1.42051,3,11
-0.14892,-0.684731,-0.0860398,28,4
-2.37254,-10.8997,1.76677,26,12
-0.171042,-0.784468,-0.0420781,8,6
-2.4837,-11.3817,2.68951,58,14
-0.163844,-0.7502,-0.0134034,5,7
-2.55852,-11.705,3.21039,30,15
-0.114003,-0.517653,-0.122373,15,1
-0.219681,-0.996676,0.0534874,4,9
-0.139453,-0.632688,-0.125934,14,2
-0.243783,-1.10511,0.0990089,11,10
-0.155015,-0.702129,-0.113884,11,3
-0.152595,-0.690021,-0.086771,18,4
-2.60693,-11.7786,1.91069,43,12
-2.73352,-12.3403,2.45686,44,13
-0.176373,-0.795566,-0.0427061,8,6
-2.52046,-11.3597,2.68637,34,14
-0.163861,-0.73791,-0.013194,11,7
-2.62241,-11.7997,3.23886,8,15
-0.220975,-0.986159,0.052964,2,9
-0.148529,-0.662849,-0.13204,13,2
-0.238047,-1.06148,0.0951741,8,10
-0.157465,-0.701583,-0.113884,11,3
-0.155003,-0.689485,-0.086771,18,4
-2.71958,-12.0874,1.96231,42,12
-2.61054,-11.5933,2.30993,38,13
-0.177392,-0.787152,-0.0422875,8,6
-2.55152,-11.3128,2.67737,38,14
-0.166436,-0.737334,-0.013194,11,7
-2.6555,-11.7547,3.22903,25,15
-0.224859,-0.987329,0.0530687,2,9
-0.14561,-0.639356,-0.12746,14,2
-0.235995,-1.03539,0.092908,8,10
-0.144098,-0.631697,-0.102621,14,3
-0.26686,-1.16892,0.147218,2,11
-0.154756,-0.677328,-0.0853086,9,4
-2.70363,-11.8236,1.92102,9,12
-2.70968,-11.8406,2.36107,15,13
-0.184598,-0.805996,-0.0433342,7,6
-2.56095,-11.1727,2.64632,44,14
-0.162749,-0.709461,-0.0127054,6,7
-2.73326,-11.9054,3.27303,37,15
-0.119417,-0.51643,-0.122373,15,1
-0.226953,-0.9807,0.0527546,1,9
-0.147841,-0.638843,-0.12746,28,2
-0.234663,-1.01321,0.0909906,5,10
-0.146302,-0.63119,-0.102621,14,3
-0.267799,-1.15445,0.145512,6,11
-0.163404,-0.703855,-0.0887209,9,4
-2.74086,-11.7968,1.9182,16,12
-2.7541,-11.8444,2.36374,40,13
-0.183789,-0.789785,-0.0424968,8,6
-2.67287,-11.4769,2.72056,57,14
-0.170671,-0.732259,-0.0131242,5,7
-0.23129,-0.983791,0.052964,1,9
-0.150181,-0.638297,-0.12746,14,2
-0.236091,-1.00264,0.090119,5,10
-0.164926,-0.699867,-0.113884,11,3
-0.271827,-1.1535,0.145512,16,11
-0.172239,-0.73033,-0.0921332,8,4
-2.78157,-11.7853,1.91789,7,12
-2.8002,-11.8457,2.36603,31,13
-0.183004,-0.773557,-0.0416594,8,6
-2.79842,-11.8197,2.80424,68,14
-0.176451,-0.74528,-0.0133685,21,7
-2.81897,-11.8973,3.27613,10,15
-0.12311,-0.515563,-0.122373,15,1
-0.232867,-0.975207,0.0525453,1,9
-0.151496,-0.63395,-0.126697,14,2
-0.232175,-0.97081,0.0873301,2,10
-0.150815,-0.630127,-0.102621,14,3
-0.275128,-1.14864,0.145025,18,11
-0.151778,-0.633173,-0.0799463,11,4
-2.84016,-11.8301,2.36489,39,13
-0.185703,-0.772913,-0.0416594,8,6
-2.85561,-11.8762,2.81999,51,14
-0.179987,-0.748548,-0.0134384,26,7
-2.85506,-11.8648,3.26992,18,15
-0.246624,-1.01709,0.0548481,1,9
-0.158338,-0.652496,-0.130513,13,2
-0.23039,-0.948696,0.0854126,3,10
-0.270497,-1.113,0.140637,12,11
-2.88681,-11.8512,2.37099,38,13
-0.186373,-0.764532,-0.0412407,9,6
-2.88436,-11.8231,2.80964,59,14
-0.177856,-0.728489,-0.0130893,22,7
-2.88958,-11.8266,3.26216,12,15
-0.250949,-1.02015,0.0550574,1,9
-0.15393,-0.625279,-0.125171,29,2
-0.229722,-0.932451,0.0840181,4,10
-0.270101,-1.0947,0.138444,10,11
-0.294066,-1.19094,0.194292,1,12
-2.97058,-12.0125,2.40534,20,13
-0.192879,-0.779387,-0.0420781,8,6
-2.93029,-11.8319,2.81414,57,14
-0.183636,-0.741482,-0.0133336,16,7
-2.90927,-11.7382,3.24041,30,15
-0.128322,-0.51429,-0.122373,15,1
-0.271928,-1.08902,0.0588256,1,9
-0.15992,-0.639975,-0.128224,14,2
-0.235876,-0.943241,0.085064,3,10
-0.265537,-1.06106,0.1343,8,11
-0.292939,-1.16883,0.19085,4,12
-2.93207,-11.6903,2.34275,18,13
-0.185738,-0.739999,-0.0399847,10,6
-3.0355,-12.0848,2.87667,12,14
-0.183298,-0.729201,-0.0131242,5,7
-2.97567,-11.8292,3.26837,31,15
-0.258065,-1.01837,0.0550574,1,9
-0.165531,-0.652734,-0.130895,13,2
-0.239167,-0.942411,0.085064,1,10
-0.159488,-0.627988,-0.102621,14,3
-0.261111,-1.02738,0.130156,6,11
-0.298478,-1.17354,0.191789,10,12
-2.96424,-11.6376,2.33436,10,13
-0.186475,-0.731572,-0.039566,10,6
-3.12051,-12.2422,2.91672,31,14
-0.189796,-0.744058,-0.0134034,5,7
-2.97012,-11.6353,3.21764,42,15
-0.131909,-0.513382,-0.122373,15,1
-0.158894,-0.617957,-0.124026,29,2
-0.246263,-0.957049,0.0864585,1,10
-0.16157,-0.627455,-0.102621,14,3
-0.265508,-1.03035,0.130644,4,11
-0.299409,-1.16107,0.189911,11,12
-3.02048,-11.6962,2.3481,3,13
-0.186901,-0.723215,-0.0391473,10,6
-3.15377,-12.2035,2.90997,42,14
-0.169961,-0.652492,-0.155666,11,1
-0.283127,-1.08617,0.0588256,1,9
-0.157971,-0.606028,-0.121736,30,2
-0.257481,-0.987074,0.0892475,1,10
-0.181611,-0.695724,-0.113884,11,3
-0.259892,-0.994893,0.126257,4,11
-0.293461,-1.1218,0.183654,10,12
-0.189299,-0.722591,-0.0391473,10,6
-3.21711,-12.2716,2.92886,25,14
-0.194856,-0.742748,-0.0134034,5,7
-3.13412,-11.9381,3.30719,6,15
-0.153322,-0.580299,-0.13857,13,1
-0.161196,-0.60924,-0.122499,30,2
-0.261097,-0.986123,0.0892475,1,10
-0.165947,-0.626312,-0.102621,14,3
-0.25777,-0.972872,0.123576,4,11
-0.290789,-1.09594,0.179587,8,12
-0.191946,-0.721892,-0.0391473,10,6
-3.1703,-11.9065,3.3015,9,15
-0.155447,-0.579733,-0.13857,13,1
-0.169427,-0.631428,-0.127079,14,2
-0.264538,-0.985206,0.0892475,1,10
-0.168132,-0.625729,-0.102621,14,3
-0.260819,-0.970003,0.123332,2,11
-0.288641,-1.07198,0.175832,6,12
-0.335068,-1.24354,0.250341,1,13
-0.183025,-0.678793,-0.0368445,12,6
-3.19518,-11.8419,2.83168,38,14
-0.200166,-0.741335,-0.0134034,5,7
-3.21442,-11.8967,3.30201,10,15
-0.139065,-0.51149,-0.122373,15,1
-0.294675,-1.08309,0.0588256,1,9
-0.173803,-0.63838,-0.128605,14,2
-0.170424,-0.625108,-0.102621,14,3
-0.262115,-0.961426,0.122357,2,11
-0.288739,-1.05763,0.173642,5,12
-0.328234,-1.20065,0.241946,4,13
-0.189728,-0.69353,-0.0376819,11,6
-3.2432,-11.847,2.83573,8,14
-6.73798,-24.5962,6.83334,33,15
-0.298643,-1.082,0.0588256,1,9
-0.171852,-0.62263,-0.125552,14,2
-0.18313,-0.66259,-0.108878,12,3
-0.261404,-0.945153,0.120407,2,11
-0.287341,-1.03753,0.170514,5,12
-0.332947,-1.20138,0.242327,10,13
-0.18681,-0.673617,-0.0366352,12,6
-3.21731,-11.5934,2.7777,10,14
-6.80998,-24.5061,6.81522,16,15
-0.171908,-0.614463,-0.124026,14,2
-0.174784,-0.623903,-0.102621,14,3
-0.265773,-0.948058,0.120894,2,11
-0.285089,-1.0156,0.167072,4,12
-0.332891,-1.18509,0.239275,12,13
-0.184837,-0.657579,-0.0357978,25,6
-3.21079,-11.4151,2.73765,2,14
-6.9159,-24.5547,6.83541,16,15
-0.306001,-1.07994,0.0588256,1,9
-0.174052,-0.61386,-0.124026,14,2
-0.176961,-0.62329,-0.102621,14,3
-0.279931,-0.985315,0.125769,2,11
-0.287375,-1.01084,0.166446,4,12
-0.330039,-1.15938,0.234313,9,13
-0.179471,-0.630038,-0.0343324,27,6
-6.99093,-24.5094,6.8292,20,15
-0.146192,-0.509498,-0.122373,15,1
-0.309768,-1.07887,0.0588256,1,9
-0.194626,-0.677403,-0.137001,12,2
-0.179027,-0.622699,-0.102621,14,3
-0.291978,-1.0149,0.129669,2,11
-0.28434,-0.987058,0.162692,4,12
-0.323549,-1.12243,0.227063,5,13
-0.182666,-0.633277,-0.0345417,40,6
-0.364239,-1.26194,0.303234,1,14
-7.06196,-24.4347,6.81522,4,15
-0.285638,-0.981894,0.053592,1,9
-0.197968,-0.680525,-0.137764,12,2
-0.181199,-0.622071,-0.102621,14,3
-0.28557,-0.978474,0.16144,2,12
-0.320861,-1.09868,0.222483,5,13
-0.185996,-0.63647,-0.0347511,39,6
-0.356609,-1.21951,0.293336,5,14
-0.317293,-1.07668,0.0588256,1,9
-0.182692,-0.619536,-0.125552,14,2
-0.17229,-0.583512,-0.0963636,15,3
-0.281143,-0.950951,0.15706,2,12
-0.320428,-1.08244,0.21943,5,13
-0.183222,-0.618549,-0.033809,55,6
-0.356092,-1.20138,0.289287,11,14
-0.321049,-1.07557,0.0588256,1,9
-0.175863,-0.588796,-0.119446,15,2
-0.18225,-0.609403,-0.100744,14,3
-0.287294,-0.959425,0.158625,2,12
-0.315183,-1.05123,0.213324,4,13
-0.18825,-0.62747,-0.0343324,40,6
-0.360074,-1.20019,0.289287,11,14
-0.205084,-0.678414,-0.137764,12,2
-0.178547,-0.589888,-0.0976151,15,3
-0.282453,-0.932001,0.154244,2,12
-0.314677,-1.03702,0.210653,4,13
-0.19149,-0.630665,-0.0345417,40,6
-0.35556,-1.17102,0.282539,10,14
-0.193659,-0.63264,-0.128605,14,2
-0.180502,-0.589293,-0.0976151,15,3
-0.289182,-0.94234,0.156122,2,12
-0.310222,-1.00965,0.20531,4,13
-0.190169,-0.618538,-0.0339137,27,6
-0.351627,-1.14369,0.27624,8,14
-0.195976,-0.631926,-0.128605,14,2
-0.186174,-0.599947,-0.0994923,14,3
-0.286769,-0.92241,0.152993,1,12
-0.308669,-0.991632,0.201876,3,13
-0.201938,-0.648348,-0.0355885,25,6
-0.343647,-1.10332,0.266792,8,14
-0.386486,-1.23934,0.347853,1,15
-0.189948,-0.605014,-0.123263,15,2
-0.180078,-0.572878,-0.0951122,15,3
-0.296081,-0.940195,0.156122,1,12
-0.313899,-0.996166,0.203021,2,13
-0.206001,-0.653353,-0.0359025,25,6
-0.341825,-1.08347,0.262293,7,14
-0.391608,-1.23976,0.34837,5,15
-0.176599,-0.5557,-0.113341,16,2
-0.182077,-0.572246,-0.0951122,15,3
-0.31496,-0.988089,0.164256,1,12
-0.312601,-0.980101,0.199968,2,13
-0.21071,-0.660241,-0.0363212,24,6
-0.343827,-1.0767,0.260943,5,14
-0.384167,-1.20158,0.338018,8,15
-0.185284,-0.575368,-0.0957379,15,3
-0.324472,-1.00578,0.167385,1,12
-0.306974,-0.950979,0.194244,2,13
-0.210558,-0.651899,-0.0359025,25,6
-0.337995,-1.04583,0.253745,5,14
-0.383006,-1.18369,0.333359,11,15
-0.188516,-0.578474,-0.0963636,15,3
-0.312041,-0.955821,0.15925,1,12
-0.308463,-0.944303,0.193099,2,13
-0.21097,-0.645465,-0.0355885,12,6
-0.341644,-1.04464,0.253745,5,14
-0.380523,-1.16215,0.327665,10,15
-0.165731,-0.503482,-0.122373,15,1
-0.213117,-0.647056,-0.132421,13,2
-0.193008,-0.585316,-0.0976151,15,3
-0.311758,-0.94322,0.193099,1,13
-0.211968,-0.640932,-0.0353791,12,6
-0.336717,-1.01754,0.247446,4,14
-0.374659,-1.13154,0.319383,7,15
-0.215374,-0.646308,-0.132421,13,2
-0.18745,-0.562186,-0.0938607,16,3
-0.308661,-0.923561,0.189283,2,13
-0.216626,-0.647802,-0.0357978,12,6
-0.334524,-0.999788,0.243397,4,14
-0.373698,-1.11557,0.315242,6,15
-0.186174,-0.552566,-0.113341,16,2
-0.193831,-0.57463,-0.0960508,31,3
-0.320686,-0.948516,0.194625,1,13
-0.220166,-0.650826,-0.0360071,12,6
-0.333014,-0.983847,0.239798,4,14
-0.36748,-1.08505,0.306959,5,15
-0.170819,-0.501778,-0.122373,15,1
-0.208368,-0.611378,-0.125552,14,2
-0.184259,-0.54033,-0.0904191,33,3
-0.306686,-0.897288,0.184321,1,13
-0.22103,-0.646313,-0.0357978,12,6
-0.331227,-0.967987,0.236199,3,14
-0.363752,-1.06183,0.300748,5,15
-0.172745,-0.501119,-0.122373,15,1
-0.202926,-0.588339,-0.120973,15,2
-0.19278,-0.558291,-0.0935478,32,3
-0.310129,-0.896104,0.184321,1,13
-0.216975,-0.626586,-0.0347511,13,6
-0.334942,-0.966708,0.236199,2,14
-0.363212,-1.04771,0.297124,4,15
-0.174406,-0.500543,-0.122373,15,1
-0.203685,-0.58392,-0.12021,15,2
-0.190074,-0.544593,-0.0913577,33,3
-0.336435,-0.961784,0.19806,1,13
-0.216412,-0.618323,-0.0343324,27,6
-0.33106,-0.945361,0.23125,2,14
-0.36495,-1.04097,0.295571,4,15
-0.176152,-0.499931,-0.122373,15,1
-0.206926,-0.586944,-0.120973,15,2
-0.197891,-0.560691,-0.0941736,32,3
-0.217237,-0.613798,-0.034123,27,6
-0.33696,-0.951547,0.233049,1,14
-0.357607,-1.00873,0.286772,4,15
-0.177896,-0.499313,-0.122373,15,1
-0.2037,-0.571424,-0.11792,16,2
-0.199847,-0.559997,-0.0941736,32,3
-0.226107,-0.631841,-0.0351698,13,6
-0.335682,-0.937522,0.2299,1,14
-0.35526,-0.991112,0.282113,4,15
-0.192846,-0.535358,-0.131371,14,1
-0.208356,-0.578097,-0.119446,15,2
-0.193755,-0.536999,-0.0904191,33,3
-0.225593,-0.623535,-0.0347511,13,6
-0.338289,-0.934512,0.22945,1,14
-0.360034,-0.993498,0.283148,3,15
-0.181377,-0.498059,-0.122373,15,1
-0.213163,-0.584708,-0.120973,15,2
-0.195722,-0.536285,-0.0904191,33,3
-0.2217,-0.605824,-0.033809,27,6
-0.333001,-0.909477,0.223601,1,14
-0.355525,-0.970468,0.276936,2,15
-0.183875,-0.49922,-0.122823,15,1
-0.209772,-0.569223,-0.11792,16,2
-0.206481,-0.559691,-0.0944864,16,3
-0.229357,-0.620032,-0.0346464,26,6
-0.331959,-0.897402,0.220902,1,14
-0.354885,-0.958351,0.273831,2,15
-0.185529,-0.498607,-0.122823,15,1
-0.217138,-0.583243,-0.120973,15,2
-0.226272,-0.607129,-0.102621,14,3
-0.228615,-0.611784,-0.0342277,27,6
-0.338344,-0.905423,0.223151,1,14
-0.344524,-0.920981,0.263478,2,15
-0.20638,-0.549065,-0.135421,13,1
-0.204558,-0.54393,-0.112959,16,2
-0.230642,-0.611023,-0.0342277,27,6
-0.345633,-0.915175,0.225851,1,14
-0.353202,-0.934229,0.267619,2,15
-0.188919,-0.497333,-0.122823,15,1
-0.206551,-0.543177,-0.112959,16,2
-0.237153,-0.621369,-0.0348557,26,6
-0.343424,-0.899338,0.222252,1,14
-0.348187,-0.911335,0.261407,2,15
-0.190741,-0.496637,-0.122823,15,1
-0.229259,-0.594449,-0.0333903,28,6
-0.351366,-0.910114,0.261407,2,15
-0.229055,-0.588102,-0.0330763,28,6
-0.394822,-1.01319,0.251045,1,14
-0.348222,-0.892684,0.256748,2,15
-0.234032,-0.594733,-0.033495,14,6
-0.35417,-0.898653,0.258819,1,15
-0.239058,-0.601336,-0.0339137,13,6
-0.348729,-0.875873,0.252607,2,15
-0.240411,-0.598645,-0.033809,27,6
-0.343134,-0.853142,0.246396,1,15
-0.217011,-0.537392,-0.155291,12,0
-0.238848,-0.588506,-0.0332857,28,6
-0.362834,-0.893105,0.258301,2,15
-0.237113,-0.578429,-0.0327623,29,6
-0.352165,-0.857814,0.248466,1,15
-0.239895,-0.579443,-0.032867,29,6
-0.356637,-0.860148,0.249502,1,15
-0.251931,-0.602557,-0.0342277,27,6
-0.379037,-0.905229,0.26296,1,15
-0.247818,-0.586954,-0.0333903,28,6
-0.25358,-0.59624,-0.102621,14,3
-0.2389,-0.560364,-0.0319249,30,6
-0.564017,-1.32296,0.332028,1,14
-0.232182,-0.540939,-0.0932349,16,3
-0.258123,-0.599931,-0.0342277,27,6
-0.576103,-1.33898,0.336527,1,14
-0.237115,-0.547416,-0.0944864,16,3
-0.248975,-0.573423,-0.0327623,29,6
-0.589853,-1.35851,0.341926,1,14
-0.259499,-0.593688,-0.102621,14,3
-0.24847,-0.567106,-0.0324483,14,6
-0.596701,-1.36191,0.343275,1,14
-0.260246,-0.588109,-0.0337044,28,6
-0.603504,-1.36317,0.344175,1,14
-0.252423,-0.565358,-0.0324483,29,6
-0.613584,-1.37361,0.347324,1,14
-0.253575,-0.562653,-0.0323436,29,6
-0.623181,-1.38212,0.350024,1,14
-0.315751,-0.699961,-0.0134034,5,7
-0.263081,-0.57808,-0.0332857,28,6
-0.260929,-0.568083,-0.0327623,29,6
-0.26627,-0.574417,-0.033181,28,6
-0.323185,-0.69656,-0.0134034,5,7
-0.256426,-0.548157,-0.0317156,30,6
-0.325614,-0.695428,-0.0134034,5,7
-0.24743,-0.525816,-0.112959,16,2
-0.260895,-0.552677,-0.0320296,30,6
-0.321206,-0.679823,-0.0131242,5,7
-0.261105,-0.548157,-0.0318203,30,6
-0.320017,-0.671533,-0.0129846,5,7
-0.251095,-0.524076,-0.112959,16,2
-0.262056,-0.545487,-0.0317156,30,6
-0.332758,-0.692038,-0.0134034,5,7
-0.252832,-0.52324,-0.112959,16,2
-0.25699,-0.530191,-0.0308782,31,6
-0.335171,-0.690872,-0.0134034,5,7
-0.254657,-0.522355,-0.112959,16,2
-0.25182,-0.514937,-0.0300408,32,6
-0.337581,-0.689698,-0.0134034,5,7
-0.256478,-0.521463,-0.112959,16,2
-0.25715,-0.52122,-0.0304595,32,6
-0.332903,-0.674171,-0.0131242,5,7
-0.261638,-0.525683,-0.0307735,15,6
-0.342388,-0.687325,-0.0134034,5,7
-0.276017,-0.549755,-0.032239,14,6
-0.753449,-1.48899,0.324375,1,13
-0.26521,-0.52389,-0.0307735,31,6
-0.745254,-1.46012,0.318651,2,13
-0.268854,-0.526519,-0.0309829,15,6
-0.242041,-0.471568,-0.122373,15,1
-0.761129,-1.47846,0.32323,3,13
-0.261545,-0.507821,-0.0299362,16,6
-0.243686,-0.470721,-0.122373,15,1
-0.769905,-1.48276,0.324757,3,13
-0.26884,-0.517539,-0.0305642,15,6
-0.245327,-0.469867,-0.122373,15,1
-0.788737,-1.50615,0.330481,2,13
-0.276206,-0.527213,-0.0311922,15,6
-0.246966,-0.469008,-0.122373,15,1
-0.784822,-1.48603,0.326665,1,13
-0.300438,-0.568628,-0.0337044,14,6
-0.24852,-0.468186,-0.122373,15,1
-0.264766,-0.497115,-0.0295175,16,6
-0.250153,-0.467316,-0.122373,15,1
-0.300521,-0.559531,-0.0332857,14,6
-0.276129,-0.511329,-0.112959,16,2
-0.281291,-0.508508,-0.112959,16,2
-0.235029,-0.421918,-0.12941,15,0
-0.283801,-0.505314,-0.155291,12,0
-0.284834,-0.506531,-0.112959,16,2
-0.285563,-0.50432,-0.155291,12,0
-0.2866,-0.505534,-0.112959,16,2
-0.252843,-0.442922,-0.136656,14,0
-0.288363,-0.50453,-0.112959,16,2
-0.927717,-1.61988,0.295661,1,12
-0.289077,-0.502314,-0.155291,12,0
-0.264639,-0.459293,-0.103037,18,2
-0.921513,-1.59611,0.291907,2,12
-0.290828,-0.501302,-0.155291,12,0
-0.292864,-0.504203,-0.113341,16,2
-0.924098,-1.58776,0.290968,3,12
-0.292576,-0.500284,-0.155291,12,0
-0.294622,-0.503177,-0.113341,16,2
-0.929635,-1.58452,0.290968,3,12
-0.282406,-0.478476,-0.107998,17,2
-0.956277,-1.61698,0.297538,2,12
-0.298128,-0.501108,-0.113341,16,2
-1.02058,-1.71204,0.315685,1,12
-0.297799,-0.497192,-0.155291,12,0
-0.299875,-0.500065,-0.113341,16,2
-0.301619,-0.499015,-0.113341,16,2
-0.303272,-0.498012,-0.113341,16,2
-1.05663,-1.72359,0.0352888,1,8
-0.28447,-0.463486,-0.105708,18,2
-1.03742,-1.67906,0.034451,6,8
-1.05669,-1.70893,0.1053,1,9
-0.298395,-0.482578,-0.110288,17,2
-1.04116,-1.67204,0.0343812,7,8
-1.06054,-1.70184,0.105091,4,9
-0.287618,-0.461538,-0.105708,18,2
-1.05124,-1.67517,0.0345209,4,8
-1.0686,-1.70151,0.1053,5,9
-0.289227,-0.460532,-0.105708,18,2
-1.05887,-1.68537,0.174137,2,10
-1.03762,-1.65026,0.239351,1,11
-1.08094,-1.7079,0.105928,1,9
-0.286633,-0.452884,-0.104182,18,2
-1.07327,-1.69513,0.175532,5,10
-0.292435,-0.458501,-0.105708,18,2
-1.08454,-1.69977,0.176403,1,10
-0.315264,-0.490509,-0.113341,16,2
-0.295629,-0.456449,-0.105708,18,2
-0.31868,-0.488296,-0.113341,16,2
-0.292181,-0.444634,-0.103418,18,2
-0.319709,-0.483395,-0.155291,12,0
-1.12691,-1.70193,0.106975,1,9
-0.321912,-0.486171,-0.113341,16,2
-1.10812,-1.66218,0.0348699,1,8
-1.13728,-1.70463,0.107393,1,9
-0.323607,-0.485045,-0.113341,16,2
-1.11932,-1.67708,0.176403,1,10
-1.11392,-1.65831,0.0348699,1,8
-1.13876,-1.69402,0.106975,1,9
-0.325383,-0.483855,-0.113341,16,2
-1.12546,-1.67296,0.176403,1,10
-1.04395,-1.54772,0.431006,1,14
-1.11999,-1.65421,0.0348699,1,8
-1.13347,-1.6735,0.105928,1,9
-0.32707,-0.482717,-0.113341,16,2
-1.13129,-1.66902,0.176403,1,10
-1.04908,-1.54425,0.431006,1,14
-1.13901,-1.66973,0.105928,1,9
-0.328669,-0.481629,-0.113341,16,2
-1.13682,-1.66526,0.176403,1,10
-1.0542,-1.54077,0.431006,1,14
-0.330264,-0.480537,-0.113341,16,2
-1.14233,-1.66149,0.176403,1,10
-1.05957,-1.53708,0.431006,1,14
-0.331939,-0.479381,-0.113341,16,2
-1.04269,-1.50136,0.422008,1,14
-0.331341,-0.475497,-0.155291,12,0
-0.320131,-0.458898,-0.108761,17,2
-1.07027,-1.52964,0.431006,1,14
-0.335278,-0.477052,-0.113341,16,2
-1.07561,-1.5259,0.431006,1,14
-0.323327,-0.456651,-0.108761,17,2
-1.22914,-1.72446,0.0369642,1,8
-0.338683,-0.474641,-0.113341,16,2
-1.22197,-1.70747,-0.0366501,1,7
-1.20045,-1.67122,0.0359171,5,8
-1.21443,-1.69006,0.109068,1,9
-0.312836,-0.435197,-0.104182,18,2
-1.2107,-1.68054,0.402607,1,13
-1.20922,-1.67724,-0.0360916,1,7
-1.21302,-1.67695,0.0361265,7,8
-1.24375,-1.71817,0.111162,1,9
-0.325868,-0.450003,-0.107998,17,2
-1.23182,-1.69049,0.0365104,6,8
-0.313477,-0.429884,-0.103418,18,2
-0.965623,-1.32032,-0.0285521,1,7
-1.26463,-1.72347,0.0373132,1,8
-0.345195,-0.469926,-0.113341,16,2
-0.986831,-1.33948,-0.0290408,3,7
-0.345584,-0.4672,-0.112959,16,2
-0.985542,-1.328,-0.0288663,6,7
-1.35563,-1.81937,0.118907,1,9
-0.323752,-0.434505,-0.105327,18,2
-0.98658,-1.31975,-0.0287616,6,7
-1.326,-1.76671,0.115767,1,9
-0.348837,-0.464776,-0.112959,16,2
-1.33025,-1.77173,0.193834,1,10
-1.00682,-1.33706,-0.0292153,5,7
-1.32734,-1.7557,0.115348,1,9
-0.350457,-0.463556,-0.112959,16,2
-1.32441,-1.75119,0.192091,1,10
-1.01027,-1.33195,-0.0291804,5,7
-1.32378,-1.73834,0.114511,1,9
-0.352073,-0.46233,-0.112959,16,2
-1.34259,-1.7624,0.193834,1,10
-1.3431,-1.76179,0.272012,1,11
-1.00156,-1.31093,-0.0287965,5,7
-1.3347,-1.74005,0.11493,1,9
-1.3366,-1.7419,0.192091,1,10
-1.33957,-1.7445,0.270062,1,11
-1.00979,-1.31218,-0.0289012,7,7
-1.34565,-1.7417,0.115348,1,9
-1.33537,-1.72776,0.191045,1,10
-1.35051,-1.74609,0.271037,1,11
-1.35297,-1.74801,0.3501,1,12
-1.01069,-1.30391,-0.0287965,5,7
-0.356895,-0.458617,-0.112959,16,2
-1.36097,-1.74825,0.193834,1,10
-1.3566,-1.74137,0.271037,1,11
-1.36635,-1.75263,0.351978,1,12
-1.01646,-1.30195,-0.0288314,5,7
-0.358414,-0.457431,-0.112959,16,2
-1.36676,-1.74372,0.193834,1,10
-1.34521,-1.71499,0.267625,1,11
-1.38923,-1.76984,0.356358,1,12
-1.01336,-1.28914,-0.0286219,4,7
-1.43776,-1.82182,0.121629,1,9
-0.360009,-0.456178,-0.112959,16,2
-1.39303,-1.76325,0.275912,1,11
-1.35865,-1.71849,0.346972,1,12
-1.40663,-1.77855,0.440769,1,13
-1.01661,-1.28403,-0.028587,5,7
-1.30499,-1.64767,0.56319,1,15
-1.0435,-1.31375,0.0292851,1,8
-1.39917,-1.75837,0.275912,1,11
-1.40401,-1.76319,0.356983,1,12
-1.38102,-1.7337,0.430847,1,13
-1.02732,-1.28829,-0.0287616,6,7
-1.31073,-1.6431,0.56319,1,15
-1.0256,-1.28199,0.0286569,3,8
-1.45044,-1.81174,0.121629,1,9
-1.4053,-1.75348,0.275912,1,11
-1.38791,-1.73054,0.351352,1,12
-1.39444,-1.73806,0.433136,1,13
-1.02931,-1.28158,-0.0286918,7,7
-1.02881,-1.27684,0.0286219,4,8
-1.41629,-1.75334,0.356983,1,12
-1.39063,-1.72096,0.430084,1,13
-1.41893,-1.75473,0.520987,1,14
-1.03503,-1.27953,-0.0287267,9,7
-1.02948,-1.26859,0.0285172,4,8
-1.46305,-1.80157,0.121629,1,9
-1.41991,-1.74533,0.356358,1,12
-1.3991,-1.71914,0.430847,1,13
-1.40535,-1.72559,0.513788,1,14
-1.03949,-1.27591,-0.0287267,9,7
-1.03011,-1.26034,0.0284125,4,8
-1.48956,-1.82119,0.123304,1,9
-1.45345,-1.7764,0.200807,1,10
-1.41256,-1.72336,0.433136,1,13
-1.38912,-1.69355,0.50569,1,14
-1.03253,-1.25836,-0.0284125,10,7
-1.04085,-1.26446,0.028587,5,8
-1.49591,-1.81598,0.123304,1,9
-1.44443,-1.75286,0.198715,1,10
-1.4572,-1.76584,0.362615,1,12
-1.42107,-1.72144,0.4339,1,13
-1.41488,-1.71273,0.512888,1,14
-1.03436,-1.25166,-0.0283427,11,7
-1.04016,-1.25466,0.0284474,5,8
-1.50224,-1.81075,0.123304,1,9
-1.46836,-1.76927,0.201155,1,10
-1.44568,-1.73948,0.358235,1,12
-1.41452,-1.70138,0.430084,1,13
-1.41337,-1.6988,0.510189,1,14
-1.05024,-1.26188,-0.0286569,12,7
-1.40666,-1.68952,0.589072,1,15
-1.04325,-1.24948,0.0284125,5,8
-1.48806,-1.78097,0.121629,1,9
-1.46686,-1.75496,0.20011,1,10
-1.49266,-1.78457,0.285662,1,11
-1.48724,-1.77683,0.366995,1,12
-1.41289,-1.6874,0.427794,1,13
-1.42681,-1.70281,0.512888,1,14
-1.05978,-1.26434,-0.0287965,12,7
-1.41255,-1.6846,0.589072,1,15
-1.05661,-1.25655,0.0286569,4,8
-1.47627,-1.75437,0.120163,1,9
-1.47554,-1.75288,0.200458,1,10
-1.51167,-1.79453,0.288099,1,11
-1.53927,-1.826,0.378259,1,12
-1.44661,-1.71547,0.436189,1,13
-1.42771,-1.69186,0.511089,1,14
-1.05773,-1.25299,-0.0286219,13,7
-1.41842,-1.67966,0.589072,1,15
-1.07133,-1.26506,0.0289361,5,8
-1.46947,-1.73397,0.119117,1,9
-1.46877,-1.73252,0.198715,1,10
-1.50508,-1.77411,0.285662,1,11
-1.54564,-1.82062,0.378259,1,12
-1.46784,-1.72837,0.440769,1,13
-1.41847,-1.66905,0.50569,1,14
-1.05303,-1.23862,-0.0283776,32,7
-1.42427,-1.6747,0.589072,1,15
-1.07315,-1.25827,0.0288663,7,8
-1.46744,-1.71997,0.118489,1,9
-0.377255,-0.442021,-0.112959,16,2
-1.46704,-1.71829,0.197669,1,10
-1.51127,-1.76884,0.285662,1,11
-1.55167,-1.81548,0.378259,1,12
-1.47386,-1.72324,0.440769,1,13
-1.42935,-1.67001,0.50749,1,14
-1.05454,-1.23209,-0.0283078,73,7
-1.42982,-1.66997,0.589072,1,15
-1.08122,-1.25926,0.028971,13,8
-1.48905,-1.73301,0.119745,1,9
-1.48862,-1.73129,0.199761,1,10
-1.50936,-1.75479,0.284199,1,11
-1.52707,-1.77412,0.37075,1,12
-1.44252,-1.67412,0.510189,1,14
-1.42302,-1.65033,0.583896,1,15
-1.09215,-1.26304,0.0291455,32,8
-1.4974,-1.73109,0.119954,1,9
-0.380255,-0.439443,-0.112959,16,2
-1.47349,-1.70224,0.196972,1,10
-1.50248,-1.73451,0.281762,1,11
-1.55105,-1.78995,0.37513,1,12
-1.44835,-1.66908,0.510189,1,14
-1.07862,-1.243,-0.0287267,216,7
-1.44115,-1.6602,0.589072,1,15
-1.09764,-1.26092,0.0291804,71,8
-0.349378,-0.401205,-0.122823,15,1
-1.4772,-1.69573,0.117861,1,9
-1.49775,-1.71811,0.199412,1,10
-1.49778,-1.71755,0.279812,1,11
-1.55469,-1.78155,0.374504,1,12
-1.42567,-1.63198,0.500291,1,14
-1.08296,-1.23923,-0.0287267,235,7
-1.45457,-1.66388,0.592178,1,15
-0.381975,-0.435866,-0.155291,12,0
-0.350776,-0.399983,-0.122823,15,1
-1.49364,-1.70258,0.118698,1,9
-1.49818,-1.70715,0.198715,1,10
-1.51163,-1.72126,0.281274,1,11
-1.52961,-1.7405,0.366995,1,12
-1.43651,-1.63284,0.502091,1,14
-1.07406,-1.22043,-0.0283776,182,7
-1.43484,-1.62979,0.581825,1,15
-1.1051,-1.25172,0.0291455,190,8
-0.35217,-0.398757,-0.122823,15,1
-1.45991,-1.65245,0.115558,1,9
-1.48302,-1.67802,0.195926,1,10
-1.52552,-1.72489,0.282737,1,11
-1.54091,-1.74107,0.368247,1,12
-1.46288,-1.65116,0.509289,1,14
-1.44564,-1.63056,0.583896,1,15
-1.1068,-1.24487,0.0290757,189,8
-0.35356,-0.397525,-0.122823,15,1
-1.38308,-1.55507,0.109068,1,9
-1.51007,-1.69665,0.198715,1,10
-1.52361,-1.71066,0.281274,1,11
-1.53616,-1.72415,0.365744,1,12
-1.50236,-1.68385,0.520987,1,14
-1.43818,-1.61134,0.578719,1,15
-1.11893,-1.25013,0.0292851,189,8
-0.336677,-0.376024,-0.116525,16,1
-1.36052,-1.51899,0.10687,2,9
-1.508,-1.68246,0.197669,1,10
-1.52662,-1.70264,0.280787,1,11
-1.55272,-1.73054,0.368247,1,12
-1.56317,-1.74156,0.454889,1,13
-1.50794,-1.67886,0.520987,1,14
-1.10662,-1.23162,-0.0289012,5,7
-1.48512,-1.65229,0.595284,1,15
-1.13265,-1.25662,0.0295295,192,8
-1.36983,-1.51868,0.107184,2,9
-1.51624,-1.68041,0.198018,1,10
-1.52457,-1.68846,0.279325,1,11
-1.54021,-1.70459,0.363867,1,12
-1.54847,-1.71252,0.448783,1,13
-1.10555,-1.22182,-0.0287616,6,7
-1.46754,-1.62131,0.585966,1,15
-1.14263,-1.25838,0.0296691,208,8
-0.331498,-0.364951,-0.113825,16,1
-1.37135,-1.50921,0.10687,4,9
-1.49023,-1.63946,0.193834,1,10
-1.53342,-1.6858,0.279812,1,11
-1.54113,-1.69309,0.362615,2,12
-1.55738,-1.70974,0.449546,1,13
-1.09789,-1.20446,-0.0284474,5,7
-1.47608,-1.61878,0.587002,1,15
-1.14453,-1.25123,0.0295993,208,8
-1.37957,-1.50712,0.107079,4,9
-1.49623,-1.63399,0.193834,1,10
-1.54764,-1.68895,0.281274,1,11
-1.54199,-1.6816,0.361364,2,12
-1.56895,-1.70981,0.451072,1,13
-0.662734,-0.721728,-0.0171034,18,7
-1.47939,-1.61051,0.585966,1,15
-1.14234,-1.23968,0.0294248,203,8
-0.332843,-0.361078,-0.113375,16,1
-1.38238,-1.49912,0.10687,4,9
-1.48869,-1.61385,0.192091,1,10
-1.55113,-1.68035,0.280787,1,11
-1.57495,-1.70496,0.367621,1,12
-1.56987,-1.69828,0.449546,1,13
-1.48528,-1.60508,0.585966,1,15
-0.346652,-0.374088,-0.136656,14,0
-1.14601,-1.23628,0.0294248,190,8
-0.341864,-0.368663,-0.116075,16,1
-1.38954,-1.49794,0.107079,4,9
-1.49077,-1.6065,0.191743,1,10
-1.5453,-1.6641,0.278837,1,11
-1.56924,-1.68871,0.365118,1,12
-1.57995,-1.69964,0.451072,1,13
-0.659332,-0.708533,-0.0168939,6,7
-1.49004,-1.60067,0.585966,1,15
-1.38113,-1.47849,0.106033,4,9
-1.51297,-1.61849,0.193834,1,10
-1.53483,-1.6413,0.275912,1,11
-1.56973,-1.67745,0.363867,1,12
-1.59691,-1.7053,0.454125,1,13
-1.54054,-1.64338,0.603566,1,15
-0.330795,-0.351892,-0.12941,15,0
-0.336481,-0.35769,-0.113375,16,1
-1.3879,-1.47487,0.106137,4,9
-1.51861,-1.6132,0.193834,1,10
-1.51361,-1.60677,0.271037,1,11
-1.584,-1.68031,0.365744,1,12
-1.60555,-1.70257,0.454889,1,13
-1.50941,-1.59839,0.589072,1,15
-0.332021,-0.350735,-0.12941,15,0
-1.39717,-1.47437,0.106451,4,9
-1.5023,-1.58476,0.191045,1,10
-1.50828,-1.58995,0.269088,1,11
-1.57625,-1.66044,0.362615,1,12
-1.61418,-1.69981,0.455652,1,13
-1.62163,-1.70646,0.543482,1,14
-1.499,-1.57631,0.582861,1,15
-0.333244,-0.349574,-0.12941,15,0
-1.15923,-1.21561,0.02932,5,8
-0.365873,-0.383534,-0.122373,15,1
-1.40894,-1.47695,0.106975,4,9
-1.51608,-1.58815,0.192091,1,10
-1.53576,-1.60764,0.272987,1,11
-1.55172,-1.62379,0.355732,1,12
-1.60654,-1.67997,0.451836,1,13
-1.63566,-1.70923,0.546181,1,14
