x, y, z, intensity, ring
0.767711,-0.429323,-0.0264864,20,32765
0.748849,-0.422106,-0.025529,19,32765
0.738757,-0.419666,-0.0248674,19,32765
0.746041,-0.42709,-0.0248197,19,32765
0.735962,-0.424585,-0.0242387,19,32765
0.743197,-0.432056,-0.0242004,19,32765
0.724498,-0.424451,-0.0233351,19,32765
0.731702,-0.431943,-0.0231883,19,32765
0.713077,-0.424175,-0.022289,19,32765
0.728831,-0.436806,-0.0224984,19,32765
0.71885,-0.434023,-0.0218651,19,32765
0.717427,-0.436389,-0.0215047,19,32765
0.716001,-0.438744,-0.0211424,19,32765
0.723045,-0.446391,-0.0210073,19,32765
0.713087,-0.443499,-0.0203956,19,32765
0.694679,-0.435246,-0.019539,18,32765
0.693238,-0.437553,-0.0191814,18,32765
0.700243,-0.445196,-0.0189837,19,32765
0.7072,-0.452895,-0.0188217,19,32765
0.688924,-0.444366,-0.0179425,19,32765
0.704236,-0.457524,-0.0179787,19,32765
0.686005,-0.448891,-0.0171612,19,32765
0.692883,-0.456648,-0.0169038,19,32765
0.666385,-0.442357,-0.0158678,19,32765
0.681548,-0.455678,-0.0158201,19,32765
0.688345,-0.463508,-0.0155516,19,32765
0.686809,-0.465796,-0.0150885,19,32765
0.677039,-0.462394,-0.0144663,18,32765
0.68376,-0.47029,-0.0141494,19,32765
0.698664,-0.483914,-0.0139881,19,32765
0.664301,-0.463291,-0.0128496,18,32765
0.679135,-0.476986,-0.0126395,19,32765
0.628609,-0.444548,-0.0112881,18,32765
0.667889,-0.475598,-0.011465,18,32765
0.666391,-0.477707,-0.0109165,18,32765
0.656732,-0.474024,-0.0102431,18,32765
0.655131,-0.476247,-0.0096125,18,32765
0.661638,-0.484307,-0.00905593,19,32765
1.05042,-0.322235,-0.0527695,15,32765
0.982581,-0.304925,-0.0495585,15,32765
0.991105,-0.311119,-0.0501644,15,32765
0.980563,-0.311306,-0.0498465,16,32765
0.960509,-0.308419,-0.0489978,16,32765
0.968996,-0.314649,-0.0494332,17,32765
0.929993,-0.305381,-0.0474975,18,32765
0.966876,-0.321098,-0.0494751,18,32765
0.946874,-0.317925,-0.0485044,19,32765
0.95529,-0.324226,-0.0489722,19,32765
0.954233,-0.327331,-0.0489249,18,32765
0.962598,-0.333729,-0.0492954,18,32765
0.923748,-0.323796,-0.0473948,18,32765
0.932052,-0.330298,-0.0477839,18,32765
0.912123,-0.326731,-0.0466743,18,32765
0.911024,-0.329799,-0.0465562,18,32765
0.900553,-0.32938,-0.0459668,18,32765
0.936935,-0.346215,-0.0478255,18,32765
0.917084,-0.342307,-0.0467169,17,32765
0.934647,-0.352385,-0.0475364,18,32765
0.896126,-0.341305,-0.0454946,17,32765
0.904315,-0.34787,-0.0458377,18,32765
0.959015,-0.37261,-0.0485052,19,32765
1.06935,-0.419618,-0.0538585,13,32765
1.20724,-0.478431,-0.0606688,13,32765
0.890324,-0.356281,-0.04457,18,32765
0.870606,-0.351786,-0.0434987,19,32765
0.850928,-0.347175,-0.0423232,19,32765
0.849747,-0.350076,-0.0421639,18,32765
0.885461,-0.368302,-0.0437394,19,32765
0.865792,-0.363577,-0.0426057,18,32765
0.827803,-0.350858,-0.0405064,18,32765
0.835797,-0.357598,-0.040832,17,32765
0.78875,-0.340602,-0.0382515,17,32765
0.796749,-0.347284,-0.0385405,18,32765
0.823008,-0.362066,-0.0395752,18,32765
0.803527,-0.356744,-0.0384391,19,32765
0.793196,-0.355408,-0.0377539,19,32765
0.79201,-0.35807,-0.0375035,19,32765
0.818077,-0.373176,-0.0386054,18,32765
0.825924,-0.380066,-0.0387131,19,32765
0.797479,-0.3702,-0.0371401,18,32765
0.769097,-0.360169,-0.0356141,18,32765
0.767902,-0.36274,-0.0353033,17,32765
0.802777,-0.3825,-0.0366446,17,32765
0.738454,-0.354907,-0.033562,16,32765
0.809194,-0.39226,-0.0365661,16,32765
0.771955,-0.377477,-0.034578,17,32765
0.779628,-0.384553,-0.0346163,17,32765
0.787258,-0.391684,-0.0347523,18,32765
0.768071,-0.385406,-0.033596,18,32765
0.740028,-0.374468,-0.0321283,18,32765
0.765451,-0.39063,-0.0330596,18,32765
0.755254,-0.388645,-0.0323341,19,32765
0.762812,-0.39581,-0.0324282,18,32765
0.761494,-0.398368,-0.0321004,18,32765
0.760166,-0.400923,-0.0317591,18,32765
0.732336,-0.389439,-0.0303648,19,32765
0.739846,-0.396617,-0.0303836,18,32765
0.756111,-0.408595,-0.0307525,18,32765
0.728424,-0.396779,-0.0294141,18,32765
0.744628,-0.408831,-0.0297692,19,32765
0.760742,-0.42102,-0.0302216,19,32765
0.715694,-0.399236,-0.0281523,18,32765
0.731782,-0.41144,-0.0285052,19,32765
0.704333,-0.399096,-0.0271438,18,32765
0.720384,-0.411334,-0.0274215,18,32765
0.718996,-0.413769,-0.0271973,19,32765
0.726264,-0.421188,-0.0272237,19,32765
0.716218,-0.418596,-0.0266229,19,32765
0.723434,-0.426071,-0.0265933,19,32765
0.696225,-0.413195,-0.0253166,19,32765
0.720571,-0.430931,-0.0260199,19,32765
0.719135,-0.433342,-0.0256839,20,32765
0.726248,-0.440909,-0.0257569,19,32765
0.71628,-0.438082,-0.0250473,20,32765
0.68932,-0.424693,-0.0239609,19,32765
0.704905,-0.437515,-0.0242821,19,32765
0.703468,-0.439843,-0.0238953,19,32765
0.701984,-0.44222,-0.023659,19,32765
0.692076,-0.439202,-0.023093,19,32765
0.699067,-0.446849,-0.0230526,19,32765
0.697587,-0.449167,-0.0228237,20,32765
0.679354,-0.440562,-0.0220001,19,32765
0.694641,-0.453737,-0.0222686,19,32765
0.69315,-0.456027,-0.0219754,19,32765
0.66664,-0.44176,-0.0209597,19,32765
0.690111,-0.460634,-0.0215311,19,32765
0.663712,-0.446169,-0.02048,18,32765
0.662244,-0.448357,-0.0202153,19,32765
0.660796,-0.450502,-0.0198998,18,32765
0.659365,-0.452603,-0.0197101,19,32765
0.666127,-0.460418,-0.0197674,19,32765
0.664625,-0.462589,-0.0196152,19,32765
0.663086,-0.464804,-0.0193389,19,32765
0.645212,-0.455473,-0.0185958,19,32765
0.651893,-0.463344,-0.0186691,19,32765
0.658534,-0.471255,-0.0187696,18,32765
0.648934,-0.467491,-0.018342,19,32765
0.647442,-0.469559,-0.0182561,19,32765
0.629791,-0.45984,-0.0176099,18,32765
0.973283,-0.299497,-0.0584998,18,32765
0.991357,-0.308602,-0.0597945,18,32765
0.990336,-0.311842,-0.0599183,18,32765
0.989307,-0.315057,-0.0600833,18,32765
0.988257,-0.318315,-0.0602051,19,32765
0.968224,-0.315375,-0.0589968,18,32765
0.976657,-0.321702,-0.0595773,18,32765
0.94715,-0.315526,-0.0578793,18,32765
0.974485,-0.328214,-0.0596142,18,32765
0.973406,-0.331404,-0.0595957,17,32765
0.981763,-0.337825,-0.0601247,16,32765
0.952367,-0.331212,-0.0582768,16,32765
0.941808,-0.331157,-0.057732,14,32765
0.978297,-0.347768,-0.0599411,14,32765
1.02409,-0.367985,-0.0626599,14,32765
1.07915,-0.391884,-0.0659681,13,32765
0.974758,-0.357635,-0.0595386,13,32765
0.908038,-0.336586,-0.0554755,14,32765
0.860183,-0.322074,-0.0524724,14,32765
0.859119,-0.324923,-0.0523484,15,32765
0.904658,-0.345635,-0.0550508,16,32765
0.940766,-0.363027,-0.0571839,15,32765
1.01397,-0.395198,-0.0615348,13,32765
1.24491,-0.490038,-0.0753002,12,32765
0.835021,-0.33196,-0.0504253,18,32765
0.861714,-0.345916,-0.051881,19,32765
0.860552,-0.348817,-0.051739,19,32765
0.859382,-0.351727,-0.0514855,19,32765
0.867411,-0.358478,-0.0518755,18,32765
0.856987,-0.357581,-0.0510732,19,32765
0.855776,-0.360503,-0.0508523,18,32765
0.845398,-0.359445,-0.0500121,18,32765
0.844176,-0.362323,-0.0498854,18,32765
0.824646,-0.357227,-0.0484476,18,32765
0.832578,-0.364048,-0.0488221,19,32765
0.831347,-0.36689,-0.0485238,19,32765
0.839233,-0.373775,-0.0487879,19,32765
0.847068,-0.380749,-0.0490519,19,32765
0.809418,-0.3671,-0.0466851,19,32765
0.835427,-0.382299,-0.0480624,19,32765
0.825101,-0.380892,-0.047218,19,32765
0.814786,-0.379436,-0.0463949,19,32765
0.831596,-0.390674,-0.0471438,19,32765
0.794199,-0.376355,-0.0447716,19,32765
0.810971,-0.387634,-0.0454648,19,32765
0.800672,-0.386035,-0.0447411,18,32765
0.790397,-0.384369,-0.0439734,18,32765
0.807024,-0.395884,-0.0445922,19,32765
0.814625,-0.403098,-0.0447064,20,32765
0.804307,-0.401446,-0.0439464,19,32765
0.794028,-0.399705,-0.0430781,19,32765
0.783778,-0.397875,-0.0422797,19,32765
0.764635,-0.391464,-0.041088,18,32765
0.772197,-0.398639,-0.0412159,17,32765
0.75313,-0.392041,-0.0399846,17,32765
0.751823,-0.394574,-0.0396598,16,32765
0.741679,-0.392432,-0.0388591,16,32765
0.713906,-0.380862,-0.0371909,16,32765
0.730233,-0.392727,-0.0377656,16,32765
0.720145,-0.390416,-0.0369719,16,32765
0.710079,-0.388038,-0.0362609,17,32765
0.726292,-0.400055,-0.0368101,18,32765
0.742415,-0.41221,-0.0374539,18,32765
0.741036,-0.414715,-0.0371085,19,32765
0.730947,-0.412306,-0.0363373,19,32765
0.729581,-0.414748,-0.0359805,18,32765
0.736892,-0.422131,-0.0360061,19,32765
0.744119,-0.429625,-0.0361964,19,32765
0.725415,-0.422071,-0.0350526,19,32765
0.749851,-0.439688,-0.0360135,19,32765
0.73118,-0.432045,-0.0348302,19,32765
0.703981,-0.41917,-0.0332691,19,32765
0.736842,-0.442112,-0.0346511,19,32765
0.726818,-0.439416,-0.0339073,19,32765
0.725365,-0.441828,-0.0336735,19,32765
0.723921,-0.44422,-0.0332613,19,32765
0.71397,-0.441338,-0.03267,19,32765
0.712514,-0.443706,-0.0323953,19,32765
0.702591,-0.440756,-0.0316221,19,32765
0.70955,-0.448476,-0.031763,19,32765
0.691201,-0.440111,-0.0307248,19,32765
0.706589,-0.453168,-0.0311474,20,32765
0.713481,-0.460941,-0.0312828,19,32765
0.678477,-0.441471,-0.0295361,19,32765
0.693738,-0.454673,-0.0299897,19,32765
0.692243,-0.456966,-0.0296955,19,32765
0.690727,-0.459269,-0.0294647,19,32765
0.689194,-0.461581,-0.0292491,19,32765
0.68768,-0.463851,-0.028965,19,32765
0.669618,-0.454893,-0.027998,19,32765
0.6599,-0.451426,-0.027336,18,32765
0.683156,-0.470537,-0.0281633,19,32765
0.665208,-0.46136,-0.0272945,19,32765
0.680089,-0.474979,-0.0278113,19,32765
0.678507,-0.477253,-0.0275271,19,32765
0.660613,-0.467957,-0.0265904,19,32765
0.642828,-0.458484,-0.0257727,19,32765
0.665707,-0.478043,-0.0266158,19,32765
0.664196,-0.480153,-0.0264139,19,32765
0.670741,-0.488156,-0.0266457,19,32765
0.620802,-0.454866,-0.0245311,18,32765
0.992102,-0.303094,-0.0739455,18,32765
0.991132,-0.306413,-0.073269,18,32765
1.02821,-0.321698,-0.0754598,18,32765
0.979609,-0.310091,-0.0714801,18,32765
0.97862,-0.313339,-0.0708672,18,32765
0.977611,-0.31656,-0.0704741,18,32765
0.986088,-0.32286,-0.0706573,18,32765
0.956627,-0.31673,-0.068165,18,32765
0.927205,-0.310427,-0.0657685,18,32765
0.963985,-0.326353,-0.0680196,18,32765
0.953484,-0.326334,-0.0668933,18,32765
0.933571,-0.322937,-0.0652403,18,32765
0.951356,-0.332644,-0.0661113,18,32765
0.931447,-0.329158,-0.0645029,17,32765
0.911559,-0.325607,-0.0627781,17,32765
0.919854,-0.332095,-0.0631054,16,32765
0.881249,-0.321531,-0.0601569,15,32765
0.898897,-0.331436,-0.0611071,13,32765
0.944562,-0.351876,-0.0639154,13,32765
1.11152,-0.418339,-0.0748969,13,32765
1.1008,-0.418528,-0.0739201,13,32765
0.987635,-0.379246,-0.0659494,13,32765
1.07944,-0.418648,-0.0717794,12,32765
1.05016,-0.411346,-0.0696461,12,32765
0.83532,-0.330452,-0.0551478,18,32765
0.880561,-0.351788,-0.0579484,19,32765
0.860878,-0.347293,-0.0563562,19,32765
0.84124,-0.34264,-0.0548967,18,32765
0.840097,-0.345484,-0.0545639,18,32765
0.875807,-0.36366,-0.0566916,18,32765
0.85618,-0.358909,-0.0551431,18,32765
0.864161,-0.365725,-0.0554149,18,32765
0.853758,-0.364712,-0.0546083,19,32765
0.797542,-0.343881,-0.0507187,19,32765
0.832993,-0.362538,-0.0528101,18,32765
0.813482,-0.357354,-0.0514282,18,32765
0.821403,-0.364174,-0.0517091,18,32765
0.801927,-0.358862,-0.0503104,18,32765
0.800719,-0.361592,-0.0500047,18,32765
0.808577,-0.36847,-0.0503235,18,32765
0.807349,-0.371195,-0.0500149,19,32765
0.788007,-0.365494,-0.0485771,18,32765
0.795826,-0.372377,-0.0489501,18,32765
0.776531,-0.366525,-0.0475349,18,32765
0.793303,-0.37779,-0.0484148,18,32765
0.783019,-0.376187,-0.047584,18,32765
0.745798,-0.36146,-0.0450794,18,32765
0.780457,-0.381553,-0.0469553,18,32765
0.797096,-0.393015,-0.0477204,18,32765
0.777886,-0.386828,-0.0464381,18,32765
0.767667,-0.384972,-0.0456612,18,32765
0.784186,-0.396614,-0.0463563,18,32765
0.756144,-0.385702,-0.0445037,19,32765
0.772602,-0.397418,-0.0452238,18,32765
0.753534,-0.390845,-0.0438937,19,32765
0.707993,-0.370217,-0.0410484,17,32765
0.733272,-0.386557,-0.0422642,17,32765
0.793698,-0.421862,-0.0455596,15,32765
0.72186,-0.386808,-0.0412059,16,32765
0.790876,-0.427204,-0.0448632,15,32765
0.780693,-0.425059,-0.0440874,15,32765
0.76181,-0.417999,-0.0426925,15,32765
0.725479,-0.401183,-0.0403976,17,32765
0.732878,-0.408464,-0.0405877,17,32765
0.731492,-0.410972,-0.0402645,19,32765
0.721419,-0.408538,-0.0393929,18,32765
0.746096,-0.425804,-0.0403969,18,32765
0.718687,-0.413388,-0.0387139,18,32765
0.700044,-0.405755,-0.0374299,19,32765
0.724565,-0.423228,-0.0385166,19,32765
0.714548,-0.420601,-0.0376246,19,32765
0.713142,-0.423013,-0.0372623,19,32765
0.694581,-0.41517,-0.0359335,18,32765
0.710333,-0.427781,-0.0364646,19,32765
0.691851,-0.419757,-0.0353062,19,32765
0.681976,-0.4168,-0.034444,18,32765
0.697631,-0.429527,-0.0348897,19,32765
0.704706,-0.437121,-0.0348619,19,32765
0.686322,-0.428868,-0.0336896,19,32765
0.684908,-0.431155,-0.033268,19,32765
0.700395,-0.444089,-0.0336462,19,32765
0.682112,-0.435627,-0.0324358,19,32765
0.689095,-0.443287,-0.0323239,19,32765
0.679276,-0.440105,-0.0314873,19,32765
0.686202,-0.447811,-0.0315017,19,32765
0.668047,-0.439086,-0.0302758,19,32765
0.67495,-0.446803,-0.0301478,19,32765
0.665162,-0.443508,-0.0293233,19,32765
0.67201,-0.451275,-0.0292082,19,32765
0.63742,-0.431102,-0.0273422,19,32765
0.660812,-0.450051,-0.0279679,19,32765
0.659369,-0.452198,-0.0273914,19,32765
0.674335,-0.465735,-0.0276123,20,32765
0.664641,-0.462212,-0.0266977,19,32765
0.646778,-0.452907,-0.0255596,19,32765
0.661645,-0.466547,-0.0256888,20,32765
0.651977,-0.462939,-0.0247748,19,32765
0.626055,-0.447677,-0.0232567,18,32765
0.616472,-0.443916,-0.0223967,18,32765
0.663594,-0.481133,-0.0235222,20,32765
0.645948,-0.471439,-0.0222945,19,32765
0.962516,-0.295058,-0.0812646,18,32765
0.999658,-0.310099,-0.0837997,19,32765
0.989134,-0.310522,-0.0823973,18,32765
1.00713,-0.319881,-0.0834811,19,32765
0.987127,-0.317131,-0.0812868,18,32765
0.967144,-0.314227,-0.0793337,18,32765
0.994565,-0.326732,-0.0811608,19,32765
0.965122,-0.320617,-0.0783828,18,32765
0.964072,-0.323854,-0.0779954,19,32765
0.972447,-0.330322,-0.0783219,19,32765
0.952514,-0.327093,-0.0763411,18,32765
0.951459,-0.330225,-0.0760055,18,32765
0.940972,-0.330113,-0.0748099,18,32765
0.949289,-0.336583,-0.075252,18,32765
0.929396,-0.333085,-0.0733308,19,32765
0.918903,-0.332857,-0.0722696,18,32765
0.908431,-0.332552,-0.0711469,17,32765
0.860547,-0.318351,-0.0671628,17,32765
0.87818,-0.328235,-0.0682738,16,32765
0.961067,-0.362915,-0.0744557,13,32765
1.05305,-0.401702,-0.0813508,12,32765
0.856289,-0.329902,-0.0658384,19,32765
0.901676,-0.350867,-0.0690885,18,32765
0.881942,-0.346601,-0.0674303,17,32765
0.880785,-0.349594,-0.0670892,16,32765
0.842579,-0.337732,-0.0640116,15,32765
0.906185,-0.366784,-0.0685426,15,32765
0.941908,-0.384916,-0.0710619,15,32765
0.922181,-0.380499,-0.0693021,14,32765
0.902477,-0.375979,-0.0676359,16,32765
0.855241,-0.359706,-0.0638295,17,32765
0.835661,-0.354837,-0.0621451,17,32765
0.834473,-0.357657,-0.0619319,18,32765
0.833284,-0.360486,-0.0615479,18,32765
0.841206,-0.367329,-0.0619802,19,32765
0.839958,-0.370212,-0.0617507,19,32765
0.829593,-0.369029,-0.0607784,18,32765
0.810119,-0.363735,-0.0591893,19,32765
0.808895,-0.366501,-0.0588794,18,32765
0.816725,-0.373424,-0.0592878,19,32765
0.824541,-0.380363,-0.0596303,18,32765
0.814236,-0.37892,-0.0586496,19,32765
0.803932,-0.377427,-0.0578096,18,32765
0.811698,-0.384404,-0.0581415,18,32765
0.810378,-0.387212,-0.0579098,19,32765
0.800072,-0.385666,-0.0569785,19,32765
0.771836,-0.375332,-0.0547288,18,32765
0.797444,-0.391164,-0.0563337,19,32765
0.787193,-0.389434,-0.0553891,19,32765
0.803737,-0.401026,-0.0564298,19,32765
0.79348,-0.399254,-0.0555503,19,32765
0.765428,-0.388429,-0.0533186,18,32765
0.781869,-0.400168,-0.0542758,19,32765
0.771648,-0.398265,-0.0533311,19,32765
0.770307,-0.400893,-0.0530329,19,32765
0.77782,-0.408105,-0.0533519,19,32765
0.794116,-0.420048,-0.0542129,19,32765
0.766273,-0.408664,-0.0521448,19,32765
0.756112,-0.406535,-0.0512258,19,32765
0.754762,-0.409079,-0.0508783,20,32765
0.77093,-0.42117,-0.0517864,20,32765
0.760828,-0.41888,-0.050793,19,32765
0.768187,-0.426246,-0.0510239,20,32765
0.72321,-0.40445,-0.0478309,18,32765
0.747928,-0.42164,-0.0492279,18,32765
0.72915,-0.414327,-0.0476853,17,32765
0.701789,-0.401887,-0.0455861,17,32765
0.726379,-0.419244,-0.0469964,16,32765
0.690477,-0.401583,-0.0444109,15,32765
0.723591,-0.42411,-0.0463309,15,32765
0.704986,-0.416399,-0.0447988,15,32765
0.703594,-0.418785,-0.0444401,16,32765
0.68507,-0.410896,-0.0429299,16,32765
0.70936,-0.428669,-0.0441827,18,32765
0.707956,-0.431013,-0.0438952,19,32765
0.723596,-0.443766,-0.0444992,19,32765
0.705157,-0.435663,-0.0430309,19,32765
0.712199,-0.4433,-0.0430899,19,32765
0.719202,-0.450974,-0.0432532,19,32765
0.717715,-0.453379,-0.0428101,19,32765
0.716254,-0.455726,-0.0423553,19,32765
0.689549,-0.441911,-0.0404551,19,32765
0.688109,-0.444197,-0.0399421,19,32765
0.686674,-0.446452,-0.0394934,19,32765
0.693566,-0.454201,-0.0395953,19,32765
0.692092,-0.456484,-0.0391198,19,32765
0.690608,-0.458771,-0.0386002,19,32765
0.67249,-0.449969,-0.0372113,19,32765
0.679306,-0.457778,-0.0371824,19,32765
0.677807,-0.460031,-0.0367305,19,32765
0.684574,-0.467878,-0.0367216,19,32765
0.666616,-0.458782,-0.0352524,19,32765
0.665115,-0.46099,-0.0347934,19,32765
0.671835,-0.468868,-0.0346373,19,32765
0.645802,-0.453825,-0.0328905,19,32765
0.668798,-0.473265,-0.0336145,19,32765
0.659123,-0.469675,-0.0325996,19,32765
0.649454,-0.46606,-0.0315846,19,32765
0.631726,-0.456519,-0.0302217,18,32765
0.662575,-0.482106,-0.0311283,19,32765
0.653015,-0.478295,-0.030086,19,32765
0.97249,-0.29751,-0.078427,18,32765
1.00961,-0.31244,-0.0816964,18,32765
0.989527,-0.309803,-0.0803673,18,32765
0.978996,-0.310042,-0.0796359,18,32765
0.968461,-0.310234,-0.0789861,18,32765
0.967403,-0.313504,-0.0790343,17,32765
0.975832,-0.319804,-0.0798545,18,32765
0.984221,-0.326201,-0.0806313,19,32765
0.954785,-0.319942,-0.0782464,18,32765
0.944289,-0.319877,-0.0774383,18,32765
0.92435,-0.316568,-0.0759097,18,32765
0.951568,-0.32942,-0.0781047,19,32765
0.950445,-0.332662,-0.0780424,19,32765
0.96813,-0.342496,-0.0795065,19,32765
0.938832,-0.335647,-0.0770477,18,32765
0.937708,-0.338781,-0.0770157,18,32765
0.927231,-0.338468,-0.0760392,17,32765
0.926085,-0.341618,-0.0759215,15,32765
0.980997,-0.365659,-0.0802403,13,32765
0,-0,-0,0,32765
1.109,-0.421936,-0.0905219,12,32765
0.874907,-0.336234,-0.071307,18,32765
0.855197,-0.331947,-0.0696347,19,32765
0.909796,-0.35667,-0.0738774,18,32765
0.834433,-0.330356,-0.0677289,18,32765
0.851845,-0.34058,-0.069032,17,32765
0.841467,-0.339699,-0.068106,17,32765
0.85879,-0.350104,-0.0693383,16,32765
0.820718,-0.337853,-0.066157,15,32765
0.957698,-0.398108,-0.0769752,14,32765
0.919582,-0.385923,-0.0737095,15,32765
0.899919,-0.381258,-0.0720242,15,32765
0.816121,-0.349016,-0.0650738,15,32765
0.851587,-0.367575,-0.0677447,17,32765
0.832066,-0.362513,-0.0659548,18,32765
0.812591,-0.357314,-0.0642028,18,32765
0.811406,-0.360055,-0.0638833,18,32765
0.828397,-0.370979,-0.0650533,18,32765
0.818056,-0.3697,-0.0640777,18,32765
0.85314,-0.389008,-0.0665197,18,32765
0.788408,-0.362715,-0.0612424,17,32765
0.805304,-0.373758,-0.0623762,18,32765
0.849219,-0.39765,-0.0655802,19,32765
0.78475,-0.370716,-0.060306,18,32765
0.792503,-0.377693,-0.0607205,18,32765
0.791251,-0.380372,-0.0603274,18,32765
0.781029,-0.378662,-0.0592361,18,32765
0.779767,-0.381298,-0.0589514,18,32765
0.778487,-0.383952,-0.0586429,18,32765
0.78611,-0.391094,-0.058968,17,32765
0.766946,-0.384867,-0.0571978,19,32765
0.765622,-0.387538,-0.0568876,18,32765
0.764314,-0.390168,-0.0565155,19,32765
0.763013,-0.392762,-0.0561209,19,32765
0.770567,-0.399926,-0.0564456,18,32765
0.778075,-0.407162,-0.0567273,19,32765
0.759071,-0.400473,-0.0550733,18,32765
0.740112,-0.393666,-0.0534872,18,32765
0.738802,-0.396171,-0.0531061,18,32765
0.75504,-0.40816,-0.054036,20,32765
0.76245,-0.415488,-0.054217,20,32765
0.769818,-0.422862,-0.0544851,19,32765
0.742215,-0.410953,-0.0522963,19,32765
0.732128,-0.408598,-0.0513415,18,32765
0.748175,-0.420848,-0.0521718,19,32765
0.712033,-0.403688,-0.0494461,18,32765
0.702035,-0.401116,-0.0485011,17,32765
0.709347,-0.40847,-0.0487699,16,32765
0.6821,-0.395806,-0.0466572,15,32765
0.723877,-0.423282,-0.0493413,14,32765
0.739677,-0.435855,-0.0500809,15,32765
0.772561,-0.458728,-0.0521397,15,32765
0.72819,-0.435717,-0.0488814,16,32765
0.675444,-0.407234,-0.04512,17,32765
0.699678,-0.425067,-0.0465729,18,32765
0.698268,-0.427414,-0.0462463,19,32765
0.713867,-0.440208,-0.0470267,19,32765
0.703945,-0.437295,-0.046193,19,32765
0.685597,-0.429014,-0.0447718,18,32765
0.701088,-0.44192,-0.0456286,19,32765
0.691215,-0.438884,-0.0447556,19,32765
0.70662,-0.451911,-0.0454417,19,32765
0.671541,-0.432642,-0.0430551,19,32765
0.695247,-0.451172,-0.044442,19,32765
0.693776,-0.453463,-0.0441155,19,32765
0.692268,-0.455786,-0.043874,19,32765
0.665804,-0.441522,-0.0419828,19,32765
0.656024,-0.438213,-0.0412504,19,32765
0.679452,-0.457098,-0.0425085,20,32765
0.686208,-0.464958,-0.0428144,19,32765
0.676435,-0.461598,-0.0419875,19,32765
0.658474,-0.452496,-0.0407334,19,32765
0.681631,-0.471709,-0.0420796,20,32765
0.67193,-0.468185,-0.0413846,19,32765
0.662261,-0.464608,-0.0406238,20,32765
0.63629,-0.44947,-0.038881,19,32765
0.659252,-0.4689,-0.0402393,20,32765
0.665832,-0.476885,-0.0405946,19,32765
0.639986,-0.461524,-0.0389014,19,32765
0.646582,-0.469456,-0.0392845,19,32765
0.64507,-0.471535,-0.0392359,19,32765
1.01907,-0.312848,-0.0922781,18,32765
0.999008,-0.310239,-0.090744,18,32765
1.01697,-0.319506,-0.0926897,18,32765
1.00641,-0.319837,-0.0918649,17,32765
0.986366,-0.317073,-0.0902562,18,32765
0.985282,-0.320413,-0.0903042,17,32765
0.984211,-0.323677,-0.090349,18,32765
0.973667,-0.323831,-0.0894806,19,32765
0.963153,-0.323874,-0.0885513,18,32765
0.971517,-0.33025,-0.0893841,19,32765
0.932718,-0.32055,-0.0859322,18,32765
0.950479,-0.330192,-0.0875385,18,32765
0.939951,-0.330138,-0.0866091,18,32765
0.938844,-0.333295,-0.0865292,18,32765
0.947116,-0.339791,-0.087249,18,32765
0.917878,-0.332775,-0.084625,18,32765
0.96356,-0.352958,-0.0887271,14,32765
0,-0,-0,0,32765
0,-0,-0,12,32765
0,-0,-0,0,32765
1.07974,-0.41224,-0.0990647,13,32765
0.892445,-0.344171,-0.0817819,18,32765
0.882014,-0.343552,-0.0807688,19,32765
0.890145,-0.350184,-0.0813256,19,32765
0.879713,-0.349498,-0.0803533,18,32765
0.878541,-0.352481,-0.0801438,19,32765
0.858898,-0.347947,-0.0782761,19,32765
0.885392,-0.36221,-0.0805273,19,32765
0.856535,-0.353829,-0.0778019,18,32765
0.85533,-0.356797,-0.0775044,19,32765
0.844951,-0.355841,-0.0763895,19,32765
0.834582,-0.354814,-0.0753622,19,32765
0.824243,-0.353722,-0.0741936,18,32765
0.823065,-0.356506,-0.0739471,18,32765
0.858396,-0.375293,-0.0768889,19,32765
0.829783,-0.36615,-0.074125,18,32765
0.828568,-0.368957,-0.0737975,18,32765
0.800048,-0.359538,-0.0711069,17,32765
0.798834,-0.362277,-0.0708511,16,32765
0.824831,-0.377417,-0.0728728,16,32765
0.796422,-0.367685,-0.0701422,16,32765
0.80424,-0.374572,-0.0706644,16,32765
0.802981,-0.377318,-0.0703792,17,32765
0.810729,-0.384331,-0.0707652,18,32765
0.800436,-0.382812,-0.0696962,18,32765
0.826105,-0.398521,-0.0716338,19,32765
0.806871,-0.392565,-0.069656,19,32765
0.77871,-0.382119,-0.0670486,18,32765
0.795299,-0.393623,-0.0682736,19,32765
0.785034,-0.391933,-0.0671566,18,32765
0.79261,-0.399145,-0.067474,19,32765
0.791237,-0.401914,-0.0671521,19,32765
0.772129,-0.395546,-0.0652658,19,32765
0.779671,-0.402752,-0.0656115,19,32765
0.787179,-0.409989,-0.0660207,19,32765
0.768153,-0.40339,-0.0641733,19,32765
0.766813,-0.405988,-0.0638036,19,32765
0.756659,-0.403892,-0.0627567,19,32765
0.746532,-0.401734,-0.0616406,19,32765
0.78026,-0.423288,-0.0641941,19,32765
0.761355,-0.416362,-0.0623035,19,32765
0.777441,-0.428566,-0.0633757,20,32765
0.776015,-0.431195,-0.0630279,19,32765
0.748466,-0.419203,-0.0605549,19,32765
0.764452,-0.431535,-0.061561,20,32765
0.745666,-0.424264,-0.0598472,19,32765
0.735613,-0.421802,-0.0587916,19,32765
0.734205,-0.424296,-0.0584486,19,32765
0.724187,-0.421732,-0.0574109,19,32765
0.714184,-0.41911,-0.0564608,19,32765
0.729972,-0.431679,-0.0573903,19,32765
0.737103,-0.439246,-0.0578059,19,32765
0.744186,-0.446891,-0.0581069,19,32765
0.708554,-0.428736,-0.0551077,19,32765
0.724155,-0.441525,-0.0561645,19,32765
0.714188,-0.438739,-0.0551683,19,32765
0.687297,-0.425358,-0.0528619,18,32765
0.694372,-0.432912,-0.053243,17,32765
0.659162,-0.41397,-0.0503481,15,32765
0.699974,-0.442824,-0.0533259,15,32765
0.69011,-0.43978,-0.0523592,14,32765
0.671891,-0.431269,-0.0506951,15,32765
0.670455,-0.433523,-0.0504713,16,32765
0.685754,-0.446642,-0.051507,17,32765
0.692641,-0.454384,-0.0518077,18,32765
0.682801,-0.451207,-0.0509437,19,32765
0.697937,-0.464537,-0.0518647,19,32765
0.688091,-0.461332,-0.0510279,19,32765
0.678312,-0.458021,-0.0501037,19,32765
0.660288,-0.449055,-0.0486757,19,32765
0.691756,-0.473808,-0.0507897,19,32765
0.673781,-0.464741,-0.0493435,19,32765
0.672258,-0.466961,-0.0491632,19,32765
0.678944,-0.474844,-0.0495712,19,32765
0.68559,-0.48278,-0.0499017,19,32765
0.667745,-0.473464,-0.048462,19,32765
0.674334,-0.481437,-0.0489111,19,32765
0.67275,-0.483663,-0.0487665,19,32765
0.646923,-0.468296,-0.046792,19,32765
0.661546,-0.482148,-0.0478484,19,32765
0.651941,-0.478376,-0.0472142,19,32765
0.980145,-0.299187,-0.103461,18,32765
0.979223,-0.302414,-0.102798,17,32765
0.98778,-0.30858,-0.103294,18,32765
1.0058,-0.317862,-0.104573,18,32765
0.985826,-0.315166,-0.102065,19,32765
0.984807,-0.318473,-0.101639,18,32765
0.936506,-0.306264,-0.0962197,16,32765
0.992231,-0.328098,-0.101631,16,32765
0.991199,-0.331367,-0.101092,15,32765
1.01844,-0.344205,-0.103435,15,32765
0.951376,-0.325134,-0.0962857,16,32765
0.959739,-0.331576,-0.096738,17,32765
0.911654,-0.318419,-0.0916275,17,32765
0.948154,-0.334797,-0.0949417,18,32765
0.92831,-0.331303,-0.0926214,17,32765
0.945945,-0.341221,-0.094104,18,32765
0.916765,-0.334185,-0.0909011,16,32765
0,-0,-0,0,32765
0,-0,-0,0,32765
0,-0,-0,0,32765
1.18228,-0.449107,-0.11579,12,32765
0.90187,-0.346119,-0.0879353,18,32765
0.891418,-0.345628,-0.0866944,18,32765
0.86244,-0.337779,-0.0836816,18,32765
0.852073,-0.337026,-0.0823752,18,32765
0.869463,-0.347284,-0.0838358,18,32765
0.896032,-0.361401,-0.0861164,18,32765
0.839483,-0.341908,-0.0804181,18,32765
0.847547,-0.348593,-0.080909,18,32765
0.864762,-0.359168,-0.0823745,18,32765
0.85436,-0.358306,-0.0811531,18,32765
0.834829,-0.353427,-0.0790569,18,32765
0.824502,-0.35234,-0.077806,18,32765
0.82332,-0.355162,-0.0774839,18,32765
0.858667,-0.373879,-0.0806531,18,32765
0.839167,-0.368816,-0.0785728,18,32765
0.819712,-0.363623,-0.0764892,18,32765
0.845752,-0.378684,-0.0787563,18,32765
0.780911,-0.352884,-0.0724632,18,32765
0.770667,-0.351413,-0.0712824,16,32765
0.760438,-0.349876,-0.0701419,16,32765
0.786401,-0.365036,-0.0722691,16,32765
0.839334,-0.393051,-0.0770064,16,32765
0.838023,-0.395895,-0.0767124,17,32765
0.78274,-0.372993,-0.0713743,18,32765
0.790465,-0.379986,-0.0719418,18,32765
0.771247,-0.374004,-0.0699973,18,32765
0.761011,-0.372308,-0.0689206,18,32765
0.777628,-0.383756,-0.0701831,18,32765
0.776333,-0.386428,-0.0698614,18,32765
0.75721,-0.380134,-0.0680495,18,32765
0.791525,-0.400728,-0.0707459,18,32765
0.772396,-0.394396,-0.0689617,19,32765
0.788792,-0.406182,-0.0701687,18,32765
0.74319,-0.385898,-0.065968,18,32765
0.768412,-0.402267,-0.0680048,18,32765
0.749457,-0.395526,-0.0661311,18,32765
0.765751,-0.407422,-0.0673291,19,32765
0.729245,-0.391174,-0.0639133,19,32765
0.763004,-0.412652,-0.0666509,19,32765
0.770365,-0.420037,-0.0671247,19,32765
0.751503,-0.413024,-0.0652218,19,32765
0.758863,-0.420381,-0.0656237,19,32765
0.748777,-0.418047,-0.064573,19,32765
0.730024,-0.41077,-0.0627177,19,32765
0.737342,-0.41814,-0.0631327,20,32765
0.718634,-0.410739,-0.0613133,19,32765
0.725905,-0.418153,-0.0617298,19,32765
0.733149,-0.425604,-0.062086,19,32765
0.71453,-0.41799,-0.0602645,19,32765
0.713148,-0.420391,-0.0599269,19,32765
0.703214,-0.417656,-0.0587656,19,32765
0.718953,-0.430256,-0.0598829,20,32765
0.700469,-0.422341,-0.0580641,19,32765
0.724655,-0.440222,-0.059835,19,32765
0.706208,-0.432209,-0.0580163,19,32765
0.704802,-0.434552,-0.0576062,19,32765
0.694898,-0.431649,-0.0565288,19,32765
0.685039,-0.42866,-0.055418,18,32765
0.666759,-0.420302,-0.0536512,16,32765
0.7075,-0.449256,-0.0566904,15,32765
0.706053,-0.451591,-0.0561616,14,32765
0.712963,-0.459346,-0.0564406,15,32765
0.661254,-0.429116,-0.051981,16,32765
0.676565,-0.442227,-0.0528744,17,32765
0.675112,-0.444491,-0.052457,19,32765
0.665361,-0.441207,-0.0513009,19,32765
0.680533,-0.454485,-0.0521428,19,32765
0.67081,-0.451126,-0.0509885,19,32765
0.652828,-0.442138,-0.0492912,19,32765
0.676121,-0.461184,-0.0506982,19,32765
0.658161,-0.452141,-0.0489123,19,32765
0.656695,-0.454316,-0.0484659,19,32765
0.638865,-0.445046,-0.0467448,19,32765
0.653803,-0.458575,-0.047439,19,32765
0.644188,-0.454949,-0.0463043,20,32765
0.667135,-0.474422,-0.0474757,19,32765
0.641241,-0.459204,-0.0451798,19,32765
0.639788,-0.46129,-0.0445245,19,32765
0.622163,-0.45165,-0.0427279,19,32765
0.644921,-0.471345,-0.0437073,20,32765
1.02637,-0.314492,-0.118551,18,32765
0.977935,-0.303164,-0.1124,18,32765
0.995965,-0.312316,-0.114074,18,32765
0.976045,-0.309625,-0.111214,17,32765
0.993994,-0.318975,-0.112833,18,32765
0.97405,-0.316179,-0.110261,18,32765
0.982504,-0.322513,-0.110772,18,32765
0.953168,-0.316362,-0.107172,18,32765
0.961603,-0.322675,-0.107709,18,32765
0.970002,-0.329058,-0.108245,18,32765
0.950111,-0.325911,-0.105697,18,32765
0.95846,-0.332366,-0.106242,18,32765
0.976138,-0.342208,-0.107929,18,32765
0.99376,-0.352202,-0.109517,17,32765
0.936429,-0.335438,-0.102873,15,32765
0.963379,-0.348795,-0.105562,14,32765
0.990265,-0.362311,-0.108195,13,32765
0,-0,-0,0,32765
0,-0,-0,0,32765
0,-0,-0,0,32765
0.855289,-0.326089,-0.0924461,16,32765
0.909922,-0.350493,-0.0979668,19,32765
0.880922,-0.342813,-0.0946362,19,32765
0.861252,-0.338553,-0.0923395,19,32765
0.887892,-0.352482,-0.0948932,18,32765
0.886732,-0.355481,-0.0945553,18,32765
0.885562,-0.358487,-0.0941637,19,32765
0.856737,-0.350213,-0.0908406,19,32765
0.873961,-0.360773,-0.0923879,19,32765
0.872734,-0.363806,-0.0920905,19,32765
0.871503,-0.366833,-0.0917372,19,32765
0.861131,-0.365896,-0.0904082,19,32765
0.859924,-0.368821,-0.0900084,19,32765
0.858687,-0.371773,-0.0896711,19,32765
0.839195,-0.366737,-0.0874936,19,32765
0.828853,-0.365616,-0.0861815,20,32765
0.845815,-0.376574,-0.0876869,19,32765
0.808203,-0.363196,-0.0836441,19,32765
0.825112,-0.374222,-0.0851365,19,32765
0.805757,-0.368757,-0.0829104,18,32765
0.813562,-0.375688,-0.0835178,19,32765
0.812322,-0.378448,-0.0831261,20,32765
0.793035,-0.37273,-0.0810444,19,32765
0.818784,-0.388223,-0.0835186,19,32765
0.790558,-0.378098,-0.0803711,19,32765
0.789282,-0.380808,-0.0801172,19,32765
0.787996,-0.383528,-0.0797997,18,32765
0.786679,-0.386278,-0.0795266,18,32765
0.803222,-0.397843,-0.0809617,19,32765
0.77515,-0.387257,-0.0779404,18,32765
0.782734,-0.394393,-0.078622,18,32765
0.772549,-0.39256,-0.0772334,17,32765
0.788931,-0.404322,-0.0788089,17,32765
0.778718,-0.402473,-0.0775484,18,32765
0.786199,-0.409736,-0.0781545,18,32765
0.776026,-0.407753,-0.0769526,19,32765
0.75708,-0.401026,-0.0748887,18,32765
0.764539,-0.408282,-0.0754006,19,32765
0.771946,-0.415613,-0.0759269,19,32765
0.779298,-0.423026,-0.0764383,20,32765
0.760389,-0.416135,-0.0744306,19,32765
0.776465,-0.428327,-0.0757502,20,32765
0.766343,-0.426102,-0.0745376,20,32765
0.756251,-0.42379,-0.0733897,20,32765
0.746183,-0.421426,-0.0721832,19,32765
0.753452,-0.428868,-0.0726822,19,32765
0.726091,-0.41655,-0.069837,19,32765
0.724701,-0.419019,-0.0695138,18,32765
0.76637,-0.446554,-0.0732541,19,32765
0.730522,-0.428946,-0.0695915,19,32765
0.737681,-0.436484,-0.0700595,19,32765
0.736272,-0.438931,-0.069598,19,32765
0.734822,-0.441405,-0.0692735,19,32765
0.71633,-0.433529,-0.067259,19,32765
0.731924,-0.446313,-0.0685018,19,32765
0.713486,-0.43831,-0.0664922,19,32765
0.703584,-0.435439,-0.0652896,19,32765
0.710611,-0.443078,-0.0656827,18,32765
0.709172,-0.445441,-0.0652448,19,32765
0.716143,-0.453142,-0.0655919,19,32765
0.706254,-0.450167,-0.0644629,19,32765
0.704806,-0.452506,-0.0639333,19,32765
0.703324,-0.45486,-0.0635474,19,32765
0.693497,-0.451753,-0.0622905,19,32765
0.683691,-0.448589,-0.0611113,19,32765
0.698857,-0.461881,-0.0621681,19,32765
0.672462,-0.44762,-0.0594322,19,32765
0.687583,-0.460951,-0.0604528,18,32765
0.677855,-0.457611,-0.059199,16,32765
0.668132,-0.454239,-0.0580269,15,32765
0.666649,-0.45647,-0.0575669,15,32765
0.656949,-0.453043,-0.0563062,15,32765
0.630899,-0.438151,-0.0537642,16,32765
0.662204,-0.463084,-0.0560274,18,32765
0.668899,-0.470974,-0.0562014,19,32765
0.675538,-0.478933,-0.0563169,19,32765
0.649641,-0.463769,-0.0537081,19,32765
0.664337,-0.477587,-0.0544699,19,32765
0.670912,-0.485606,-0.0544452,19,32765
0.629048,-0.45842,-0.0504868,19,32765
0.659788,-0.484083,-0.0523729,19,32765
1.00806,-0.308013,-0.111975,18,32765
1.02602,-0.317238,-0.11418,17,32765
0.977495,-0.305819,-0.108985,17,32765
1.00492,-0.31805,-0.11218,18,32765
0.994381,-0.318377,-0.111095,18,32765
0.993298,-0.32175,-0.111067,18,32765
0.973319,-0.318893,-0.108888,18,32765
0.962819,-0.319015,-0.107744,18,32765
0.952336,-0.319053,-0.106593,18,32765
0.960701,-0.325385,-0.107602,18,32765
0.959634,-0.328559,-0.10748,18,32765
0.986749,-0.341512,-0.110436,18,32765
0.948057,-0.331687,-0.106167,17,32765
0.909457,-0.321623,-0.101715,16,32765
0.936469,-0.334732,-0.10479,15,32765
0.97273,-0.351484,-0.108877,13,32765
1.07432,-0.392329,-0.12007,12,32765
1.11032,-0.409765,-0.124017,11,32765
1.081,-0.403083,-0.120684,13,32765
0,-0,-0,0,32765
0.85523,-0.325418,-0.0953131,16,32765
0.909857,-0.349705,-0.101329,19,32765
0.927234,-0.359991,-0.103171,19,32765
0.907501,-0.355905,-0.100864,18,32765
0.934053,-0.36998,-0.103735,18,32765
0.886617,-0.354743,-0.0983254,18,32765
0.885428,-0.357761,-0.0981058,18,32765
0.87502,-0.357024,-0.0968161,18,32765
0.855438,-0.352409,-0.0945177,18,32765
0.863468,-0.359082,-0.0953038,18,32765
0.862287,-0.361977,-0.0950472,18,32765
0.861099,-0.364854,-0.0948171,18,32765
0.850739,-0.363881,-0.0934518,18,32765
0.84038,-0.36287,-0.0921285,18,32765
0.866516,-0.377704,-0.094818,19,32765
0.828815,-0.364659,-0.0904925,19,32765
0.836703,-0.371492,-0.0912258,19,32765
0.808237,-0.362097,-0.0879731,18,32765
0.834227,-0.377153,-0.090672,19,32765
0.805823,-0.367581,-0.0873674,18,32765
0.78651,-0.362025,-0.0850855,18,32765
0.81237,-0.377302,-0.0877415,19,32765
0.793086,-0.371647,-0.0854014,19,32765
0.791829,-0.374373,-0.0851576,19,32765
0.781614,-0.372765,-0.0838192,18,32765
0.78036,-0.375443,-0.0835568,19,32765
0.779132,-0.378066,-0.0831773,19,32765
0.804704,-0.393835,-0.0857089,18,32765
0.785534,-0.387759,-0.0835428,18,32765
0.757515,-0.377125,-0.0803033,18,32765
0.765136,-0.384207,-0.0809425,18,32765
0.790479,-0.400348,-0.0834521,17,32765
0.771396,-0.394026,-0.0811899,17,32765
0.770059,-0.396694,-0.0808894,17,32765
0.751073,-0.39013,-0.0786634,17,32765
0.732119,-0.383474,-0.0764808,17,32765
0.766067,-0.404551,-0.0798783,19,32765
0.738369,-0.393111,-0.0766484,18,32765
0.737043,-0.395637,-0.0764123,19,32765
0.77078,-0.417071,-0.0796917,20,32765
0.743164,-0.405388,-0.0766009,19,32765
0.75056,-0.41268,-0.0771716,19,32765
0.740493,-0.410366,-0.0759554,19,32765
0.747819,-0.417742,-0.0765371,19,32765
0.737758,-0.415389,-0.0752645,19,32765
0.727697,-0.413003,-0.0740679,18,32765
0.726332,-0.415455,-0.0737517,19,32765
0.733589,-0.422883,-0.0742721,18,32765
0.697733,-0.405349,-0.0704386,18,32765
0.730798,-0.42781,-0.0735781,19,32765
0.695033,-0.410056,-0.0698842,19,32765
0.702239,-0.417501,-0.0703806,18,32765
0.717943,-0.430123,-0.0717805,19,32765
0.699452,-0.42226,-0.0697384,19,32765
0.715083,-0.434976,-0.0710725,19,32765
0.722135,-0.442605,-0.0715644,19,32765
0.68677,-0.424075,-0.0678726,18,32765
0.668447,-0.41585,-0.0659332,18,32765
0.692413,-0.433973,-0.0680637,18,32765
0.716282,-0.452221,-0.0702565,19,32765
0.689558,-0.438593,-0.0674255,19,32765
0.688129,-0.440882,-0.0670948,19,32765
0.68669,-0.443161,-0.0668227,18,32765
0.651806,-0.423728,-0.0632672,18,32765
0.667098,-0.43681,-0.0646371,19,32765
0.673982,-0.444531,-0.0651133,19,32765
0.689122,-0.457821,-0.0664058,19,32765
0.654507,-0.437909,-0.0628981,18,32765
0.636533,-0.428952,-0.0610376,18,32765
0.668128,-0.453448,-0.0639564,18,32765
0.633723,-0.433166,-0.0605184,18,32765
0.632309,-0.435268,-0.0602247,17,32765
0.581722,-0.403291,-0.055283,15,32765
0.65397,-0.456588,-0.062049,15,32765
0.676984,-0.475906,-0.0640723,15,32765
0.675434,-0.478138,-0.0638193,16,32765
0.584573,-0.416682,-0.0552327,16,32765
0.656146,-0.470907,-0.0617984,16,32765
0.622295,-0.449689,-0.05856,18,32765
0.628911,-0.457569,-0.0591725,19,32765
0.611332,-0.447857,-0.0574218,18,32765
1.01618,-0.311698,-0.122998,18,32765
0.996147,-0.309196,-0.120787,18,32765
1.00457,-0.315509,-0.12203,18,32765
0.99405,-0.31583,-0.120898,18,32765
0.992988,-0.319163,-0.12087,19,32765
1.01079,-0.328684,-0.123143,18,32765
0.95307,-0.313467,-0.116174,18,32765
0.989729,-0.329199,-0.120685,18,32765
0.950976,-0.319829,-0.115991,18,32765
0.949918,-0.322974,-0.115944,18,32765
0.948857,-0.326122,-0.115822,18,32765
0.947786,-0.329292,-0.115624,18,32765
0.956052,-0.335774,-0.116705,18,32765
0.936218,-0.332361,-0.114162,18,32765
0.963149,-0.345593,-0.117511,18,32765
0.999316,-0.36248,-0.121967,14,32765
1.11004,-0.406933,-0.13531,13,32765
0.866442,-0.32099,-0.105566,16,32765
0.902591,-0.337851,-0.109933,18,32765
0.882893,-0.33384,-0.107476,17,32765
0.900355,-0.343903,-0.109507,18,32765
0.889943,-0.343363,-0.108181,17,32765
0.907312,-0.353608,-0.110213,16,32765
0.924612,-0.364006,-0.112213,15,32765
0.932625,-0.37083,-0.113117,15,32765
0.885256,-0.355556,-0.107242,14,32765
0.884063,-0.358579,-0.107021,15,32765
0.818487,-0.335237,-0.0989658,15,32765
0.835741,-0.345613,-0.100934,17,32765
0.862121,-0.359895,-0.104031,17,32765
0.83346,-0.351215,-0.100461,18,32765
0.841452,-0.357895,-0.101339,19,32765
0.849397,-0.364698,-0.102083,19,32765
0.839048,-0.363682,-0.100666,19,32765
0.856031,-0.374562,-0.102542,19,32765
0.845679,-0.373503,-0.10111,19,32765
0.826281,-0.36827,-0.0986762,18,32765
0.825069,-0.371053,-0.0983911,19,32765
0.805719,-0.36566,-0.0959699,18,32765
0.804516,-0.36839,-0.0956212,19,32765
0.812306,-0.375331,-0.0963651,18,32765
0.81104,-0.378128,-0.0960862,19,32765
0.818776,-0.385156,-0.0967494,19,32765
0.808489,-0.383716,-0.0954358,19,32765
0.807228,-0.386456,-0.0950515,20,32765
0.796971,-0.384906,-0.0937259,19,32765
0.777832,-0.378884,-0.0912394,19,32765
0.794429,-0.390299,-0.0930031,19,32765
0.802034,-0.397424,-0.0937796,20,32765
0.782925,-0.391273,-0.0912896,19,32765
0.790483,-0.398461,-0.0920098,19,32765
0.780264,-0.396696,-0.0906645,19,32765
0.770076,-0.394865,-0.0892465,19,32765
0.777571,-0.402106,-0.0899673,19,32765
0.776239,-0.404756,-0.0895871,19,32765
0.774877,-0.407435,-0.0892344,19,32765
0.764732,-0.405405,-0.087931,19,32765
0.763403,-0.408008,-0.0874379,19,32765
0.753266,-0.405908,-0.08619,19,32765
0.778163,-0.422695,-0.0888323,19,32765
0.76803,-0.420574,-0.087446,19,32765
0.766648,-0.423159,-0.0871068,19,32765
0.78265,-0.435411,-0.0887479,19,32765
0.772516,-0.433213,-0.087438,18,32765
0.762419,-0.430942,-0.0860584,19,32765
0.743672,-0.423712,-0.0837829,18,32765
0.750902,-0.431182,-0.0844286,19,32765
0.723633,-0.41877,-0.0811629,18,32765
0.739441,-0.431256,-0.0827352,18,32765
0.755194,-0.443818,-0.0843073,19,32765
0.745131,-0.441333,-0.0830995,19,32765
0.718025,-0.428559,-0.0798578,18,32765
0.733659,-0.441263,-0.0814338,19,32765
0.740704,-0.44892,-0.0820263,19,32765
0.722227,-0.44105,-0.0797684,19,32765
0.712282,-0.438286,-0.0784789,18,32765
0.69392,-0.430181,-0.0762813,18,32765
0.709388,-0.443064,-0.0778604,19,32765
0.682649,-0.429546,-0.0747099,18,32765
0.723303,-0.458463,-0.0790197,19,32765
0.688213,-0.439475,-0.074992,19,32765
0.711907,-0.457929,-0.0773917,19,32765
0.693695,-0.449464,-0.0752941,18,32765
0.692215,-0.451792,-0.0749782,19,32765
0.690736,-0.454095,-0.0747152,19,32765
0.680938,-0.450916,-0.0734781,19,32765
0.671164,-0.447678,-0.0722732,19,32765
0.677988,-0.455441,-0.0728453,18,32765
0.668238,-0.45213,-0.0716737,18,32765
0.683224,-0.465563,-0.073184,18,32765
0.673485,-0.462205,-0.0720032,18,32765
0.671975,-0.464446,-0.0716893,19,32765
0.67045,-0.466689,-0.0714007,19,32765
0.668916,-0.468923,-0.0711517,18,32765
0.67556,-0.476839,-0.0717146,19,32765
0.665884,-0.473302,-0.0705993,19,32765
0.672446,-0.481281,-0.0713105,19,32765
0.662823,-0.477651,-0.0701076,19,32765
0.661274,-0.479822,-0.0699075,19,32765
0.651682,-0.476092,-0.0688998,18,32765
0.642102,-0.472343,-0.0678021,19,32765
0.995975,-0.303977,-0.134654,17,32765
1.014,-0.313171,-0.136506,18,32765
1.00355,-0.313601,-0.134706,18,32765
1.00258,-0.316933,-0.134143,18,32765
0.954337,-0.30517,-0.127326,18,32765
1.01943,-0.329803,-0.135622,18,32765
0.999516,-0.327085,-0.132605,18,32765
0.989026,-0.327383,-0.13095,18,32765
0.978568,-0.327602,-0.129157,17,32765
0.958719,-0.324537,-0.126231,18,32765
0.957666,-0.327783,-0.125833,18,32765
0.965974,-0.334269,-0.12672,17,32765
0.936783,-0.327728,-0.122607,17,32765
0.935706,-0.330918,-0.122258,17,32765
0.972022,-0.347448,-0.126703,16,32765
1.11091,-0.401362,-0.144495,13,32765
0.913789,-0.333647,-0.118612,16,32765
0.92202,-0.340148,-0.119489,18,32765
0.939502,-0.350212,-0.1216,18,32765
0.90121,-0.339376,-0.116383,18,32765
0.853692,-0.32483,-0.109983,17,32765
0.908213,-0.349136,-0.116848,18,32765
0.897798,-0.348651,-0.11533,18,32765
0.905887,-0.35536,-0.11614,17,32765
0.877051,-0.347427,-0.11214,17,32765
0.829792,-0.331984,-0.105985,15,32765
0.902374,-0.364526,-0.115072,15,32765
0.855197,-0.34882,-0.10892,13,32765
0.90915,-0.374441,-0.115498,14,32765
0.880373,-0.366171,-0.111638,14,32765
0.824161,-0.346216,-0.104373,16,32765
0.832137,-0.352955,-0.105217,17,32765
0.83095,-0.35583,-0.104913,18,32765
0.82977,-0.358677,-0.104557,17,32765
0.810377,-0.353553,-0.101925,18,32765
0.854659,-0.376349,-0.107329,18,32765
0.817097,-0.363135,-0.102403,18,32765
0.806811,-0.361869,-0.101032,18,32765
0.796573,-0.360516,-0.0994998,17,32765
0.822483,-0.375632,-0.102579,18,32765
0.785119,-0.361843,-0.0977634,19,32765
0.792929,-0.368721,-0.0985328,18,32765
0.791693,-0.371432,-0.0982916,18,32765
0.781485,-0.369875,-0.0968158,18,32765
0.789237,-0.376814,-0.0975526,18,32765
0.805875,-0.388174,-0.0994329,19,32765
0.759883,-0.369213,-0.0935899,19,32765
0.785423,-0.384947,-0.0965738,18,32765
0.793042,-0.39206,-0.0973319,19,32765
0.747266,-0.37259,-0.0914833,18,32765
0.781532,-0.393043,-0.0955223,19,32765
0.753636,-0.382206,-0.0919287,18,32765
0.761201,-0.389349,-0.0926326,18,32765
0.768726,-0.396533,-0.0933931,18,32765
0.749763,-0.389995,-0.0908793,19,32765
0.75726,-0.397192,-0.0916253,19,32765
0.747177,-0.395094,-0.0901466,19,32765
0.75466,-0.402283,-0.0908669,18,32765
0.735822,-0.395413,-0.0883976,18,32765
0.734532,-0.397883,-0.0880462,18,32765
0.724489,-0.395621,-0.0865965,18,32765
0.740605,-0.407684,-0.0883113,19,32765
0.747962,-0.415021,-0.0889365,19,32765
0.746604,-0.417547,-0.0885241,18,32765
0.762583,-0.42982,-0.0901238,19,32765
0.726552,-0.412771,-0.0856893,19,32765
0.707929,-0.405362,-0.0831794,18,32765
0.689344,-0.397834,-0.0808245,18,32765
0.722434,-0.420207,-0.0843547,18,32765
0.721061,-0.422641,-0.083938,18,32765
0.711107,-0.420027,-0.0824843,18,32765
0.709729,-0.422434,-0.0820659,19,32765
0.691282,-0.414586,-0.0796697,18,32765
0.664376,-0.401475,-0.0763024,18,32765
0.705573,-0.429581,-0.0807932,18,32765
0.704177,-0.431955,-0.0803101,19,32765
0.677372,-0.418626,-0.0769392,19,32765
0.709824,-0.441933,-0.0802802,19,32765
0.683086,-0.428449,-0.0769804,19,32765
0.681725,-0.430686,-0.0765548,19,32765
0.688745,-0.438294,-0.0769963,18,32765
0.695722,-0.445944,-0.0774949,19,32765
0.702659,-0.453658,-0.0778763,19,32765
0.692845,-0.450573,-0.0764833,19,32765
0.666405,-0.436519,-0.0731823,19,32765
0.664989,-0.438749,-0.0727277,18,32765
0.696753,-0.46302,-0.0758131,18,32765
0.670418,-0.448746,-0.0725744,18,32765
0.660695,-0.445435,-0.0712003,18,32765
0.675774,-0.4588,-0.0723275,19,32765
0.666066,-0.455435,-0.0709643,19,32765
0.664618,-0.457627,-0.07043,19,32765
0.646798,-0.448446,-0.0681803,19,32765
0.661716,-0.461971,-0.069387,19,32765
0.660269,-0.464134,-0.0687368,19,32765
0.65877,-0.466343,-0.068162,19,32765
0.632949,-0.45116,-0.0650358,19,32765
0.631522,-0.453233,-0.0645003,18,32765
0.605845,-0.437818,-0.0613755,16,32765
0.685029,-0.498486,-0.068905,15,32765
0.643227,-0.471325,-0.0641174,16,32765
1.03225,-0.316371,-0.149897,18,32765
1.03128,-0.319843,-0.149172,18,32765
1.01138,-0.317367,-0.145905,18,32765
0.991513,-0.314739,-0.14262,17,32765
0.97166,-0.311998,-0.139403,18,32765
0.980082,-0.318385,-0.140247,17,32765
0.979065,-0.321715,-0.13975,18,32765
0.987417,-0.328197,-0.14069,17,32765
0.96758,-0.325255,-0.137469,15,32765
1.03223,-0.350853,-0.146334,12,32765
0,-0,-0,12,32765
0,-0,-0,11,32765
0,-0,-0,0,32765
0.896797,-0.318451,-0.126269,16,32765
0.895768,-0.321495,-0.125858,20,32765
0.931995,-0.338089,-0.130695,19,32765
0.93089,-0.34127,-0.130302,19,32765
0.920485,-0.340958,-0.128665,18,32765
0.910074,-0.340616,-0.127071,18,32765
0.8997,-0.340178,-0.125373,18,32765
0.889313,-0.339751,-0.123661,18,32765
0.878927,-0.339242,-0.122074,18,32765
0.859321,-0.335054,-0.119191,18,32765
0.885895,-0.348918,-0.122663,18,32765
0.866345,-0.344567,-0.119668,18,32765
0.883602,-0.354934,-0.121942,18,32765
0.891638,-0.361638,-0.122881,18,32765
0.853728,-0.34962,-0.117532,18,32765
0.85258,-0.352552,-0.11711,18,32765
0.860542,-0.359359,-0.118016,19,32765
0.850156,-0.358569,-0.116461,18,32765
0.830689,-0.353754,-0.113641,19,32765
0.838614,-0.360552,-0.114581,18,32765
0.846521,-0.367384,-0.115462,17,32765
0.827131,-0.362309,-0.112637,16,32765
0.844074,-0.373178,-0.114792,15,32765
0.870026,-0.388207,-0.118111,14,32765
0.841572,-0.378973,-0.114176,14,32765
0.759008,-0.344891,-0.102747,15,32765
0.775899,-0.355776,-0.104897,16,32765
0.774699,-0.358471,-0.104593,18,32765
0.809487,-0.377928,-0.109094,19,32765
0.808218,-0.380705,-0.108846,19,32765
0.815929,-0.387725,-0.10968,19,32765
0.805701,-0.386216,-0.108089,19,32765
0.804398,-0.389016,-0.107751,19,32765
0.803102,-0.391778,-0.107412,19,32765
0.792881,-0.390161,-0.105895,19,32765
0.782677,-0.388488,-0.104369,18,32765
0.772514,-0.386725,-0.102788,18,32765
0.788936,-0.39836,-0.104829,19,32765
0.787621,-0.401047,-0.104475,19,32765
0.777436,-0.399252,-0.102914,19,32765
0.793729,-0.411077,-0.104924,19,32765
0.774751,-0.404615,-0.102212,19,32765
0.799759,-0.421173,-0.105353,19,32765
0.745748,-0.395927,-0.0979925,19,32765
0.770726,-0.412503,-0.101102,19,32765
0.751889,-0.405676,-0.0984386,19,32765
0.750564,-0.408208,-0.0980779,19,32765
0.749216,-0.410776,-0.0976609,19,32765
0.756551,-0.418145,-0.098415,19,32765
0.755177,-0.420719,-0.0979955,19,32765
0.7538,-0.423277,-0.0975774,19,32765
0.735132,-0.416025,-0.0948901,19,32765
0.733743,-0.418547,-0.0945471,19,32765
0.749601,-0.430964,-0.0962726,19,32765
0.739564,-0.42855,-0.0948144,19,32765
0.738152,-0.431093,-0.0942905,20,32765
0.728177,-0.428547,-0.0927714,19,32765
0.718221,-0.425955,-0.0912194,19,32765
0.73389,-0.438593,-0.0929568,19,32765
0.706909,-0.425685,-0.0892841,18,32765
0.705519,-0.428077,-0.0888401,18,32765
0.712608,-0.435636,-0.0895043,18,32765
0.702727,-0.432827,-0.0879548,18,32765
0.684422,-0.424712,-0.0853607,19,32765
0.699919,-0.43755,-0.0869677,18,32765
0.690079,-0.434608,-0.085481,18,32765
0.6803,-0.431548,-0.0840122,18,32765
0.704064,-0.449882,-0.086607,19,32765
0.694256,-0.446834,-0.0851347,19,32765
0.701174,-0.454562,-0.0856075,19,32765
0.683046,-0.446029,-0.0831081,18,32765
0.698236,-0.459254,-0.084571,19,32765
0.671862,-0.445113,-0.0810895,19,32765
0.678705,-0.45289,-0.081552,19,32765
0.677234,-0.455182,-0.0810136,19,32765
0.659268,-0.446312,-0.0785587,19,32765
0.67431,-0.459702,-0.0798693,19,32765
0.664617,-0.456328,-0.0784134,19,32765
0.671354,-0.464185,-0.0788398,19,32765
0.678059,-0.472074,-0.079264,19,32765
0.668413,-0.468588,-0.0777824,19,32765
0.658813,-0.465039,-0.0761832,19,32765
0.665428,-0.473019,-0.0765411,19,32765
0.655835,-0.469423,-0.0749823,19,32765
0.670507,-0.483222,-0.0762632,19,32765
0.644792,-0.467911,-0.0728192,19,32765
0.659371,-0.481823,-0.0740082,19,32765
0.641783,-0.472236,-0.0714685,19,32765
0.99513,-0.304052,-0.140604,18,32765
1.00356,-0.310247,-0.142181,18,32765
1.01199,-0.316486,-0.143583,18,32765
0.982556,-0.310904,-0.139722,18,32765
