x, y, z, intensity, ring
1.68266,-0.428549,-0.11232,15,32765
1.68125,-0.434131,-0.111863,16,32765
1.75709,-0.459846,-0.116503,16,32765
1.73631,-0.460502,-0.114747,15,32765
1.70591,-0.458439,-0.112241,15,32765
1.71405,-0.466685,-0.112418,15,32765
1.71254,-0.472327,-0.111839,16,32765
1.75906,-0.491439,-0.114487,16,32765
1.75745,-0.497292,-0.113841,16,32765
1.78465,-0.511249,-0.115085,16,32765
1.71591,-0.497642,-0.110071,15,32765
1.75262,-0.514534,-0.111701,16,32765
1.77968,-0.528735,-0.113006,16,32765
1.81624,-0.54602,-0.114668,15,32765
1.77632,-0.540229,-0.111516,15,32765
1.78417,-0.548909,-0.111079,15,32765
1.7729,-0.551722,-0.109675,15,32765
1.79969,-0.566546,-0.110571,16,32765
1.75982,-0.560357,-0.107314,15,32765
1.83408,-0.590558,-0.110904,15,32765
1.79427,-0.584038,-0.107616,15,32765
1.79253,-0.589613,-0.106346,15,32765
1.68559,0.0300731,-0.118271,14,32765
1.68563,0.0243891,-0.118994,15,32765
1.6956,0.0188662,-0.120706,15,32765
1.6657,0.0129588,-0.119087,15,32765
1.61582,0.00708902,-0.116049,15,32765
1.57588,0.00156646,-0.114021,14,32765
1.61574,-0.00389971,-0.117342,15,32765
1.67553,-0.00967349,-0.122135,15,32765
1.60564,-0.0145857,-0.117561,15,32765
1.53573,-0.0190816,-0.112993,15,32765
1.55558,-0.0245358,-0.114714,14,32765
1.5754,-0.0301668,-0.116585,15,32765
1.53539,-0.0346451,-0.11395,15,32765
1.56515,-0.0405897,-0.1165,14,32765
1.53508,-0.044954,-0.11449,14,32765
1.56481,-0.0510769,-0.116821,15,32765
1.58453,-0.0570477,-0.118837,15,32765
1.54447,-0.0608208,-0.115838,15,32765
1.55419,-0.0664929,-0.116876,15,32765
1.56391,-0.0722508,-0.117716,15,32765
1.58356,-0.0785863,-0.119459,15,32765
1.53348,-0.0812836,-0.115871,15,32765
1.52323,-0.0858543,-0.115372,15,32765
1.54284,-0.0921553,-0.11689,15,32765
1.5425,-0.0973002,-0.117178,15,32765
1.572,-0.104508,-0.119547,15,32765
1.502,-0.104958,-0.114302,15,32765
1.52154,-0.111537,-0.115675,15,32765
1.54102,-0.118261,-0.11731,15,32765
1.51079,-0.12112,-0.115048,15,32765
1.50043,-0.125463,-0.11429,15,32765
1.51986,-0.13228,-0.115858,16,32765
1.5492,-0.140113,-0.118061,15,32765
1.49909,-0.140643,-0.114211,15,32765
1.49861,-0.145729,-0.114187,15,32765
1.5874,-0.159803,-0.120922,15,32765
1.52734,-0.158975,-0.11641,15,32765
1.53671,-0.165258,-0.117086,15,32765
1.55598,-0.172649,-0.118425,15,32765
1.49595,-0.17111,-0.113846,15,32765
1.54489,-0.181979,-0.117487,15,32765
1.55418,-0.188365,-0.118042,15,32765
1.51396,-0.18872,-0.114951,15,32765
1.53309,-0.196438,-0.116332,16,32765
1.50277,-0.19774,-0.113871,15,32765
1.52187,-0.205496,-0.115315,16,32765
1.52119,-0.210608,-0.115066,15,32765
1.55009,-0.219921,-0.117227,16,32765
1.51975,-0.220888,-0.114808,15,32765
1.52886,-0.227634,-0.115239,15,32765
1.52806,-0.232959,-0.115138,15,32765
1.48785,-0.232145,-0.111908,15,32765
1.53629,-0.245152,-0.115383,15,32765
1.55516,-0.25352,-0.116687,15,32765
1.47561,-0.245702,-0.110523,15,32765
1.55343,-0.264063,-0.116286,15,32765
1.52306,-0.264201,-0.113959,15,32765
1.57128,-0.278093,-0.117261,15,32765
1.54091,-0.278079,-0.114812,14,32765
1.54977,-0.285128,-0.115352,15,32765
1.60763,-0.301392,-0.119584,15,32765
1.53803,-0.293742,-0.114324,14,32765
1.57621,-0.306575,-0.116945,15,32765
1.52627,-0.30222,-0.112971,15,32765
1.57413,-0.317239,-0.116567,14,32765
1.53398,-0.314536,-0.113465,15,32765
1.5622,-0.325876,-0.115535,15,32765
1.60013,-0.339412,-0.118228,14,32765
1.53075,-0.330046,-0.112972,15,32765
1.57836,-0.34589,-0.116395,15,32765
1.58694,-0.35336,-0.116891,15,32765
1.55657,-0.352113,-0.114461,15,32765
1.54564,-0.35521,-0.113692,15,32765
1.5736,-0.367165,-0.115665,15,32765
1.54323,-0.365632,-0.113419,15,32765
1.51291,-0.363794,-0.111166,15,32765
1.56016,-0.380634,-0.114497,15,32765
1.54921,-0.383425,-0.113695,15,32765
1.59634,-0.400609,-0.117051,16,32765
1.58535,-0.40341,-0.116257,15,32765
1.63231,-0.421107,-0.119672,15,32765
1.53442,-0.40127,-0.112467,15,32765
1.55237,-0.411485,-0.113717,15,32765
1.56064,-0.419195,-0.114378,15,32765
1.54961,-0.421782,-0.113653,15,32765
1.50975,-0.416305,-0.110716,15,32765
1.53717,-0.429387,-0.112865,15,32765
1.53575,-0.434465,-0.112714,15,32765
1.54391,-0.44226,-0.113411,14,32765
1.52327,-0.441852,-0.111934,15,32765
1.54094,-0.452467,-0.11341,15,32765
1.5299,-0.454666,-0.112582,15,32765
1.56664,-0.471069,-0.115445,15,32765
1.50787,-0.458621,-0.111299,15,32765
1.52546,-0.469308,-0.11277,15,32765
1.56204,-0.486067,-0.115645,15,32765
1.50337,-0.473127,-0.111546,15,32765
1.54934,-0.493113,-0.115287,15,32765
1.52876,-0.491885,-0.114154,15,32765
1.50821,-0.490536,-0.113005,15,32765
1.57297,-0.517065,-0.118399,14,32765
1.46513,0.0261295,-0.116704,15,32765
1.45519,0.0210316,-0.116534,15,32765
1.44522,0.0160439,-0.116594,15,32765
1.46516,0.0113487,-0.118652,15,32765
1.43525,0.00623484,-0.116699,15,32765
1.39533,0.00131385,-0.114199,15,32765
1.37537,-0.00340418,-0.112937,15,32765
1.41518,-0.00827023,-0.116588,15,32765
1.42507,-0.0130587,-0.117866,15,32765
1.40505,-0.0175822,-0.116714,15,32765
1.395,-0.0221389,-0.116114,15,32765
1.37496,-0.0264751,-0.114804,15,32765
1.36488,-0.0309555,-0.114254,15,32765
1.39462,-0.0363415,-0.11705,15,32765
1.42436,-0.0419021,-0.119758,15,32765
1.4242,-0.0466904,-0.11985,15,32765
1.35429,-0.0489642,-0.114434,15,32765
1.37403,-0.05433,-0.116108,15,32765
1.39373,-0.0598647,-0.118052,15,32765
1.3736,-0.0637047,-0.116445,15,32765
1.39326,-0.069405,-0.118346,16,32765
1.36316,-0.0725245,-0.11596,16,32765
1.32309,-0.0748474,-0.112794,15,32765
1.35267,-0.0810881,-0.115346,15,32765
1.3822,-0.0874994,-0.118149,15,32765
1.33218,-0.0888764,-0.113984,15,32765
1.36169,-0.0954836,-0.116582,16,32765
1.3713,-0.10087,-0.117305,16,32765
1.361,-0.104802,-0.116564,16,32765
1.33084,-0.107053,-0.114019,16,32765
1.3404,-0.112456,-0.114869,16,32765
1.35985,-0.118747,-0.116618,16,32765
1.35945,-0.123357,-0.116558,16,32765
1.34911,-0.126987,-0.115647,16,32765
1.37842,-0.134479,-0.118176,16,32765
1.37796,-0.139168,-0.118113,16,32765
1.36757,-0.142803,-0.117284,16,32765
1.38689,-0.149625,-0.118911,16,32765
1.35668,-0.151016,-0.116213,15,32765
1.34627,-0.154478,-0.115316,15,32765
1.35564,-0.160192,-0.11605,16,32765
1.37489,-0.167161,-0.117568,16,32765
1.3941,-0.174325,-0.119183,16,32765
1.35397,-0.174029,-0.115694,15,32765
1.37314,-0.181245,-0.117191,15,32765
1.36265,-0.184569,-0.116299,16,32765
1.33243,-0.185046,-0.113552,16,32765
1.38113,-0.196554,-0.117685,16,32765
1.40019,-0.204137,-0.119201,16,32765
1.36992,-0.204597,-0.1164,16,32765
1.39876,-0.2139,-0.118819,16,32765
1.3488,-0.211093,-0.1144,16,32765
1.37759,-0.220499,-0.116698,15,32765
1.38669,-0.226745,-0.117375,15,32765
1.3761,-0.22983,-0.116304,16,32765
1.38515,-0.236171,-0.117016,15,32765
1.38435,-0.240866,-0.116907,15,32765
1.3541,-0.240382,-0.114096,15,32765
1.3435,-0.243186,-0.113051,16,32765
1.41128,-0.26043,-0.118652,15,32765
1.38101,-0.259688,-0.116052,15,32765
1.38992,-0.266254,-0.116734,16,32765
1.43794,-0.280522,-0.120577,15,32765
1.38813,-0.275692,-0.116163,15,32765
1.36765,-0.276454,-0.114506,15,32765
1.36672,-0.28108,-0.114321,15,32765
1.38527,-0.289835,-0.115866,15,32765
1.41354,-0.300732,-0.11814,15,32765
1.4028,-0.303363,-0.117133,15,32765
1.44072,-0.316671,-0.120226,15,32765
1.4202,-0.317179,-0.118402,15,32765
1.3511,-0.306547,-0.112483,15,32765
1.39861,-0.32238,-0.116479,15,32765
1.37812,-0.322516,-0.114709,15,32765
1.42551,-0.33875,-0.118651,15,32765
1.37592,-0.331842,-0.114512,15,32765
1.4426,-0.353003,-0.119942,15,32765
1.38338,-0.343405,-0.11503,15,32765
1.42093,-0.357653,-0.118071,15,32765
1.39077,-0.354953,-0.115586,15,32765
1.4089,-0.364555,-0.117079,15,32765
1.37876,-0.361642,-0.114561,15,32765
1.4161,-0.376485,-0.117614,15,32765
1.37635,-0.370798,-0.114372,16,32765
1.3751,-0.375402,-0.114355,16,32765
1.38346,-0.382624,-0.11505,16,32765
1.39177,-0.389935,-0.115878,16,32765
1.43843,-0.408151,-0.119731,16,32765
1.37001,-0.393624,-0.114136,16,32765
1.38784,-0.403775,-0.115669,16,32765
1.41518,-0.416786,-0.118124,16,32765
1.38516,-0.412885,-0.115616,15,32765
1.38382,-0.417345,-0.115658,15,32765
1.38248,-0.421746,-0.115728,16,32765
1.40969,-0.434995,-0.118178,15,32765
1.37973,-0.43063,-0.115831,15,32765
1.33079,-0.420079,-0.111953,15,32765
1.37688,-0.439549,-0.116137,15,32765
1.31855,-0.425531,-0.111574,15,32765
1.38351,-0.451341,-0.117438,15,32765
1.35366,-0.446323,-0.115384,16,32765
1.23417,0.0235351,-0.117721,15,32765
1.23429,0.0193361,-0.117303,15,32765
1.24434,0.0153076,-0.117814,15,32765
1.23446,0.0109738,-0.116609,15,32765
1.26439,0.00696959,-0.119053,15,32765
1.25446,0.00268803,-0.117958,14,32765
1.21468,-0.00152445,-0.113837,14,32765
1.29433,-0.00595179,-0.121116,15,32765
1.2545,-0.00994698,-0.117145,15,32765
1.27441,-0.0143345,-0.118668,15,32765
1.25446,-0.0183914,-0.116595,15,32765
1.26436,-0.0228553,-0.117388,15,32765
1.29416,-0.0278159,-0.11995,15,32765
1.28412,-0.0320079,-0.118834,15,32765
1.26411,-0.0357985,-0.116823,15,32765
1.28389,-0.0407375,-0.118552,15,32765
1.29372,-0.0454628,-0.119307,16,32765
1.32342,-0.0509941,-0.121846,15,32765
1.3133,-0.0550511,-0.120872,15,32765
1.27335,-0.0576701,-0.116903,15,32765
1.2632,-0.0614921,-0.115961,15,32765
1.29283,-0.0674537,-0.118531,15,32765
1.25283,-0.0696741,-0.114701,15,32765
1.27247,-0.0751491,-0.116475,15,32765
1.29211,-0.0806604,-0.118058,15,32765
1.27197,-0.0836879,-0.116181,15,32765
1.31142,-0.0908005,-0.119709,15,32765
1.30119,-0.0944971,-0.118692,16,32765
1.31079,-0.0997734,-0.119436,16,32765
1.31045,-0.104273,-0.119349,16,32765
1.30017,-0.107934,-0.118305,15,32765
1.30973,-0.113255,-0.119106,16,32765
1.30935,-0.117672,-0.11902,15,32765
1.33869,-0.124886,-0.121723,15,32765
1.30854,-0.126562,-0.118722,15,32765
1.27837,-0.128072,-0.116011,15,32765
1.25812,-0.130434,-0.114163,15,32765
1.27747,-0.136884,-0.115849,16,32765
1.2671,-0.14023,-0.114876,16,32765
1.29632,-0.147889,-0.117398,16,32765
1.31559,-0.154638,-0.119153,16,32765
1.29529,-0.156723,-0.117266,16,32765
1.28488,-0.15985,-0.116371,15,32765
1.29421,-0.165446,-0.11725,15,32765
1.33316,-0.174967,-0.120721,16,32765
1.32268,-0.17822,-0.119834,16,32765
1.29247,-0.178669,-0.117035,16,32765
1.29185,-0.183162,-0.116958,16,32765
1.3405,-0.194798,-0.121293,15,32765
1.29057,-0.19203,-0.116796,15,32765
1.28008,-0.194985,-0.115696,15,32765
1.33845,-0.208585,-0.121026,16,32765
1.29839,-0.206916,-0.117357,15,32765
1.31733,-0.214623,-0.119044,15,32765
1.30678,-0.217429,-0.118129,15,32765
1.32569,-0.225214,-0.119726,15,32765
1.2955,-0.224576,-0.116846,15,32765
1.29473,-0.228922,-0.116901,15,32765
1.37237,-0.247486,-0.123893,15,32765
1.29316,-0.237738,-0.11664,15,32765
1.32171,-0.247717,-0.119215,15,32765
1.28174,-0.24476,-0.115487,15,32765
1.28092,-0.249024,-0.115459,15,32765
1.28009,-0.253329,-0.115347,16,32765
1.26948,-0.25565,-0.114267,15,32765
1.31742,-0.26995,-0.118405,15,32765
1.30675,-0.27241,-0.11744,15,32765
1.31557,-0.278925,-0.118172,16,32765
1.3536,-0.291766,-0.121405,15,32765
1.33318,-0.292003,-0.119471,15,32765
1.26413,-0.281364,-0.113198,15,32765
1.3215,-0.29879,-0.118212,15,32765
1.29138,-0.296535,-0.115393,15,32765
1.33891,-0.312159,-0.119538,15,32765
1.28943,-0.305123,-0.114789,15,32765
1.29811,-0.311744,-0.115393,15,32765
1.34547,-0.327916,-0.119504,15,32765
1.28637,-0.318044,-0.114071,15,32765
1.30466,-0.327155,-0.115445,15,32765
1.32292,-0.336378,-0.116781,15,32765
1.31216,-0.338314,-0.115666,15,32765
1.3689,-0.357804,-0.120369,15,32765
1.32922,-0.352117,-0.116601,15,32765
1.32806,-0.35653,-0.11643,15,32765
1.28845,-0.350462,-0.112527,15,32765
1.30652,-0.360054,-0.11391,15,32765
1.30535,-0.364408,-0.113405,15,32765
1.36174,-0.384907,-0.117993,16,32765
1.36051,-0.389351,-0.117507,15,32765
1.37844,-0.399304,-0.118564,15,32765
1.35803,-0.398217,-0.116561,15,32765
1.4236,-0.422632,-0.121789,15,32765
1.3459,-0.404349,-0.114684,15,32765
1.38278,-0.420297,-0.117377,16,32765
1.3815,-0.424644,-0.116762,15,32765
1.38016,-0.429124,-0.116237,15,32765
1.40734,-0.4426,-0.117939,15,32765
1.36796,-0.435092,-0.113944,15,32765
1.3951,-0.44864,-0.115446,15,32765
1.40323,-0.45613,-0.115339,15,32765
1.41132,-0.463676,-0.115288,15,32765
1.14352,0.0217841,-0.119972,15,32765
1.15357,0.0180388,-0.120623,15,32765
1.15367,0.014149,-0.12022,15,32765
1.15373,0.0102025,-0.119975,15,32765
1.14385,0.00624168,-0.118599,15,32765
1.14388,0.00237721,-0.118456,15,32765
1.13397,-0.0015066,-0.117074,15,32765
1.16382,-0.00544772,-0.119988,15,32765
1.14392,-0.00917482,-0.117714,15,32765
1.14392,-0.0129815,-0.117412,15,32765
1.18367,-0.0174831,-0.12129,15,32765
1.15378,-0.0209933,-0.118111,15,32765
1.16367,-0.02516,-0.118939,15,32765
1.23321,-0.0309079,-0.125869,15,32765
1.15356,-0.0328364,-0.117594,15,32765
1.17334,-0.0374118,-0.119521,15,32765
1.16327,-0.0410703,-0.11836,15,32765
1.16315,-0.0450202,-0.118172,15,32765
1.18287,-0.0498001,-0.12014,15,32765
1.17279,-0.0533408,-0.118848,15,32765
1.1726,-0.0573178,-0.118821,16,32765
1.16247,-0.0608973,-0.117661,15,32765
1.18214,-0.0660027,-0.1195,15,32765
1.17198,-0.0694831,-0.118452,15,32765
1.22141,-0.0765381,-0.123248,15,32765
1.23108,-0.0813028,-0.12419,16,32765
1.23081,-0.0855351,-0.124094,16,32765
1.1809,-0.0860762,-0.11899,15,32765
1.20045,-0.0917056,-0.12084,16,32765
1.19022,-0.0950457,-0.119763,16,32765
1.17998,-0.0983044,-0.118638,15,32765
1.22921,-0.106667,-0.123526,16,32765
1.13966,-0.10278,-0.114486,15,32765
1.20866,-0.113146,-0.121452,15,32765
1.20829,-0.117267,-0.121179,15,32765
1.18808,-0.119433,-0.119179,15,32765
1.20746,-0.125607,-0.121118,16,32765
1.21692,-0.130835,-0.122004,15,32765
1.21646,-0.135077,-0.121931,16,32765
1.2259,-0.140322,-0.122761,16,32765
1.20565,-0.142186,-0.120747,16,32765
1.20517,-0.146301,-0.120657,16,32765
1.18492,-0.1479,-0.118679,16,32765
1.2239,-0.156971,-0.122619,16,32765
1.19378,-0.157186,-0.119555,16,32765
1.18336,-0.159968,-0.118572,16,32765
1.20253,-0.166775,-0.120439,16,32765
1.20195,-0.170967,-0.120368,15,32765
1.22105,-0.178013,-0.122223,16,32765
1.19092,-0.177772,-0.119231,16,32765
1.2395,-0.18941,-0.123955,16,32765
1.18968,-0.185994,-0.119026,16,32765
1.19887,-0.191666,-0.119909,16,32765
1.22767,-0.200652,-0.122772,16,32765
1.19754,-0.199886,-0.1198,15,32765
1.21648,-0.207318,-0.121599,15,32765
1.2256,-0.213133,-0.122372,16,32765
1.18568,-0.210303,-0.118506,15,32765
1.18496,-0.214363,-0.118425,15,32765
1.20381,-0.222009,-0.12022,16,32765
1.20304,-0.226185,-0.12015,15,32765
1.22182,-0.234052,-0.121917,15,32765
1.2015,-0.234318,-0.119939,15,32765
1.19095,-0.23643,-0.118859,15,32765
1.19993,-0.2424,-0.119644,15,32765
1.22837,-0.25249,-0.122322,15,32765
1.18854,-0.248541,-0.118358,16,32765
1.22663,-0.26088,-0.122103,16,32765
1.21604,-0.262933,-0.120892,16,32765
1.23462,-0.271259,-0.122652,16,32765
1.19485,-0.266773,-0.118629,15,32765
1.23279,-0.279602,-0.122289,15,32765
1.22216,-0.281515,-0.121126,16,32765
1.22123,-0.285609,-0.120949,16,32765
1.23,-0.291964,-0.12151,16,32765
1.21936,-0.293741,-0.120308,16,32765
1.21838,-0.297863,-0.120131,16,32765
1.2174,-0.301927,-0.11987,15,32765
1.23573,-0.310831,-0.121448,16,32765
1.21544,-0.310007,-0.119206,16,32765
1.27224,-0.329038,-0.124627,16,32765
1.22302,-0.320665,-0.119548,16,32765
1.25085,-0.332384,-0.122016,16,32765
1.24014,-0.333959,-0.120917,16,32765
1.20065,-0.32759,-0.116674,15,32765
1.24756,-0.34487,-0.121058,16,32765
1.23686,-0.346355,-0.119646,16,32765
1.24534,-0.353095,-0.120193,16,32765
1.26336,-0.362666,-0.121591,16,32765
1.26223,-0.36677,-0.121041,16,32765
1.26105,-0.370922,-0.12071,16,32765
1.25029,-0.372327,-0.119339,16,32765
1.24911,-0.376429,-0.118813,16,32765
1.28604,-0.3921,-0.121918,16,32765
1.27533,-0.393219,-0.120447,16,32765
1.26458,-0.394401,-0.119066,16,32765
1.27284,-0.401538,-0.119324,16,32765
1.30006,-0.414772,-0.121226,16,32765
1.2514,-0.403668,-0.116019,16,32765
1.30701,-0.426163,-0.12046,16,32765
1.31518,-0.433423,-0.120558,16,32765
1.15389,0.0218546,-0.116863,15,32765
1.18375,0.0183573,-0.120391,15,32765
1.16386,0.0140742,-0.118876,15,32765
1.17382,0.0102068,-0.12014,15,32765
1.18375,0.00624846,-0.121603,15,32765
1.16384,0.00216957,-0.119847,15,32765
1.20358,-0.00186742,-0.12445,16,32765
1.19359,-0.00588343,-0.123682,16,32765
1.21344,-0.0100365,-0.125943,15,32765
1.16364,-0.0135373,-0.121049,15,32765
1.18345,-0.0177408,-0.123374,15,32765
1.17343,-0.0215296,-0.122439,15,32765
1.1236,-0.0243798,-0.117556,15,32765
1.17321,-0.0294316,-0.122968,15,32765
1.18302,-0.0337551,-0.124173,15,32765
1.12325,-0.0359286,-0.117981,15,32765
1.18273,-0.0418924,-0.124436,15,32765
1.10307,-0.042843,-0.11618,15,32765
1.09297,-0.046114,-0.115239,15,32765
1.1226,-0.0512003,-0.118496,15,32765
1.16214,-0.0568787,-0.122825,15,32765
1.13215,-0.0592354,-0.119714,15,32765
1.12199,-0.0625305,-0.118843,15,32765
1.13171,-0.0669145,-0.119845,15,32765
1.1513,-0.0720738,-0.12211,15,32765
1.14113,-0.07535,-0.121062,15,32765
1.15077,-0.079943,-0.12223,15,32765
1.12074,-0.0817068,-0.119035,15,32765
1.1502,-0.0877304,-0.122259,15,32765
1.18955,-0.094747,-0.126491,15,32765
1.13967,-0.0945875,-0.121294,15,32765
1.12944,-0.0975526,-0.12019,15,32765
1.1291,-0.101397,-0.120253,15,32765
1.17826,-0.109876,-0.125409,15,32765
1.14816,-0.111106,-0.122366,15,32765
1.18737,-0.118969,-0.126532,16,32765
1.12761,-0.116837,-0.120159,15,32765
1.18654,-0.127012,-0.126482,16,32765
1.16635,-0.128798,-0.124256,16,32765
1.13626,-0.1294,-0.12113,15,32765
1.13582,-0.133276,-0.121048,15,32765
1.15511,-0.13955,-0.123049,15,32765
1.18423,-0.147224,-0.126227,15,32765
1.13441,-0.144963,-0.12082,16,32765
1.15364,-0.151421,-0.122872,15,32765
1.14327,-0.153982,-0.12177,15,32765
1.1526,-0.159214,-0.122739,16,32765
1.12251,-0.158939,-0.119628,15,32765
1.14168,-0.165605,-0.121449,15,32765
1.13125,-0.168063,-0.120498,15,32765
1.13068,-0.171968,-0.120357,15,32765
1.13993,-0.177385,-0.121263,15,32765
1.12949,-0.179804,-0.120121,16,32765
1.16814,-0.190062,-0.124173,15,32765
1.1773,-0.195733,-0.125155,15,32765
1.17663,-0.199725,-0.12509,16,32765
1.10737,-0.19186,-0.117571,15,32765
1.14588,-0.202594,-0.121717,15,32765
1.11584,-0.201183,-0.118427,15,32765
1.12493,-0.206811,-0.119399,15,32765
1.10469,-0.206921,-0.117216,15,32765
1.13331,-0.216244,-0.12022,14,32765
1.17163,-0.227692,-0.124266,15,32765
1.15135,-0.22778,-0.122094,15,32765
1.10183,-0.221917,-0.116726,15,32765
1.16928,-0.239653,-0.123879,15,32765
1.12952,-0.235493,-0.119672,15,32765
1.12873,-0.239336,-0.11953,15,32765
1.12793,-0.243148,-0.119374,15,32765
1.15626,-0.253368,-0.122332,15,32765
1.13599,-0.252958,-0.120163,15,32765
1.13513,-0.256822,-0.120112,15,32765
1.10517,-0.254019,-0.11694,15,32765
1.11401,-0.260011,-0.117844,15,32765
1.09376,-0.259242,-0.11569,15,32765
1.07355,-0.25827,-0.113537,15,32765
1.17899,-0.287812,-0.124676,16,32765
1.12974,-0.279853,-0.119447,15,32765
1.10951,-0.278756,-0.117379,16,32765
1.15677,-0.294788,-0.122394,16,32765
1.13654,-0.293644,-0.120202,15,32765
1.14519,-0.299959,-0.121129,16,32765
1.14418,-0.30379,-0.121053,16,32765
1.14319,-0.307566,-0.120949,15,32765
1.19015,-0.324485,-0.125949,16,32765
1.17949,-0.325768,-0.124798,16,32765
1.12092,-0.313622,-0.118699,15,32765
1.14859,-0.325473,-0.121668,15,32765
1.19534,-0.342984,-0.126595,16,32765
1.16554,-0.338586,-0.123552,16,32765
1.15488,-0.339618,-0.122512,15,32765
1.14423,-0.340584,-0.121437,15,32765
1.10499,-0.332911,-0.117341,15,32765
1.15149,-0.351007,-0.122314,15,32765
1.10279,-0.340107,-0.117391,15,32765
1.1397,-0.355486,-0.121292,15,32765
1.15753,-0.365119,-0.123377,15,32765
1.13738,-0.3628,-0.121456,15,32765
1.14569,-0.369489,-0.122343,15,32765
1.14447,-0.373165,-0.122646,15,32765
1.15273,-0.37989,-0.123656,15,32765
1.09311,0.0206779,-0.121137,15,32765
1.09313,0.0169156,-0.121605,15,32765
1.09313,0.013172,-0.122081,15,32765
1.10308,0.0095339,-0.123425,15,32765
1.08318,0.00565043,-0.121607,15,32765
1.06329,0.00190601,-0.119639,15,32765
1.03343,-0.00168745,-0.116719,15,32765
1.08307,-0.005437,-0.122567,16,32765
1.09296,-0.00914949,-0.123871,15,32765
1.08296,-0.0127174,-0.122994,15,32765
1.05308,-0.0159119,-0.119836,15,32765
1.08282,-0.0200061,-0.123321,16,32765
1.06284,-0.0232081,-0.121347,16,32765
1.0528,-0.0265666,-0.120402,15,32765
1.08248,-0.0310567,-0.123958,15,32765
1.04264,-0.0335244,-0.119473,16,32765
1.112,-0.0395835,-0.127617,15,32765
1.07214,-0.0418413,-0.123165,16,32765
1.08191,-0.0458588,-0.12441,16,32765
1.06188,-0.048649,-0.122235,15,32765
1.08154,-0.0531663,-0.124644,15,32765
1.07143,-0.0562991,-0.123537,15,32765
1.0613,-0.0593963,-0.122563,15,32765
1.10076,-0.065353,-0.127095,16,32765
1.05094,-0.0660572,-0.121519,15,32765
1.07053,-0.0709702,-0.123815,15,32765
1.09009,-0.0760251,-0.126217,15,32765
1.07992,-0.079036,-0.125037,15,32765
1.05983,-0.0811473,-0.122801,15,32765
1.10906,-0.088671,-0.128555,15,32765
1.06915,-0.089068,-0.124032,15,32765
1.05895,-0.0918045,-0.122836,16,32765
1.07841,-0.0972027,-0.125192,16,32765
1.0682,-0.0999764,-0.123936,15,32765
1.04805,-0.101786,-0.121749,15,32765
1.07736,-0.108336,-0.125146,15,32765
1.04735,-0.108908,-0.121658,15,32765
1.0766,-0.115653,-0.1251,15,32765
1.11572,-0.123642,-0.129577,15,32765
1.0758,-0.122946,-0.125021,15,32765
1.08525,-0.127787,-0.12609,15,32765
1.10454,-0.133904,-0.128282,15,32765
1.10407,-0.137734,-0.128303,15,32765
1.05434,-0.135195,-0.122438,15,32765
1.07357,-0.141396,-0.12468,16,32765
1.08294,-0.146355,-0.125774,15,32765
1.08245,-0.150032,-0.125698,16,32765
1.07209,-0.152315,-0.124589,16,32765
1.08143,-0.157396,-0.125468,16,32765
1.06122,-0.158189,-0.123277,16,32765
1.09014,-0.166358,-0.126565,16,32765
1.08958,-0.170117,-0.12643,16,32765
1.06936,-0.170801,-0.124059,16,32765
1.06878,-0.174475,-0.123944,15,32765
1.05838,-0.176547,-0.12275,16,32765
1.08716,-0.18515,-0.1261,15,32765
1.07676,-0.187173,-0.124747,16,32765
1.12502,-0.199563,-0.130401,15,32765
1.07547,-0.194544,-0.124568,15,32765
1.08457,-0.200047,-0.125635,15,32765
1.09367,-0.205529,-0.126661,15,32765
1.08322,-0.207365,-0.125427,15,32765
1.09227,-0.212964,-0.126463,15,32765
1.08181,-0.214721,-0.125238,15,32765
1.08108,-0.21845,-0.125047,15,32765
1.07061,-0.220144,-0.123848,15,32765
1.07959,-0.225816,-0.124899,15,32765
1.08854,-0.231567,-0.125887,15,32765
1.06835,-0.231052,-0.123491,15,32765
1.09668,-0.241093,-0.126735,15,32765
1.08617,-0.24265,-0.125505,15,32765
1.08534,-0.246355,-0.125455,15,32765
1.10387,-0.254543,-0.127602,15,32765
1.07399,-0.251483,-0.124126,16,32765
1.04412,-0.248279,-0.12067,15,32765
1.06261,-0.256467,-0.1228,15,32765
1.07141,-0.262395,-0.123814,15,32765
1.06088,-0.263645,-0.122586,15,32765
1.07927,-0.272035,-0.124788,15,32765
1.06872,-0.273231,-0.123591,16,32765
1.08707,-0.281769,-0.125672,16,32765
1.0669,-0.280357,-0.123361,15,32765
1.07557,-0.286495,-0.1244,16,32765
1.07462,-0.290054,-0.124302,16,32765
1.07365,-0.293669,-0.124227,16,32765
1.07269,-0.297226,-0.124103,15,32765
1.09082,-0.306189,-0.126307,15,32765
1.07069,-0.304378,-0.124021,15,32765
1.08879,-0.313422,-0.126105,15,32765
1.07821,-0.314229,-0.124993,15,32765
1.06764,-0.314978,-0.123861,15,32765
1.09517,-0.327036,-0.127117,15,32765
1.09407,-0.33069,-0.127069,15,32765
1.07399,-0.328444,-0.124779,16,32765
1.10138,-0.340773,-0.128222,15,32765
1.08132,-0.338372,-0.125871,15,32765
1.06127,-0.335846,-0.12372,16,32765
1.08857,-0.34836,-0.127129,16,32765
1.05909,-0.342671,-0.123696,15,32765
1.08629,-0.355349,-0.127296,16,32765
1.05685,-0.349426,-0.123971,15,32765
0.972144,0.0195263,-0.122292,15,32765
1.01193,0.016817,-0.126969,15,32765
1.00209,0.0132142,-0.125457,15,32765
0.972384,0.00951088,-0.121569,15,32765
1.01214,0.00644014,-0.126199,15,32765
0.972472,0.00286138,-0.121204,15,32765
0.98243,-0.000511403,-0.122193,15,32765
0.942742,-0.00375267,-0.117148,14,32765
0.992351,-0.0073655,-0.123229,15,32765
1.01218,-0.0109634,-0.125548,15,32765
1.02208,-0.0145411,-0.126689,16,32765
1.02203,-0.0180494,-0.126575,15,32765
1.01207,-0.0213319,-0.125162,15,32765
1.03183,-0.0252988,-0.12759,15,32765
1.04167,-0.0290851,-0.128779,14,32765
1.11102,-0.0348174,-0.137232,14,32765
0.991876,-0.0344684,-0.12245,15,32765
1.00169,-0.038196,-0.12353,15,32765
1.02138,-0.0424158,-0.126002,15,32765
1.0014,-0.0449935,-0.123575,15,32765
1.03101,-0.0498484,-0.12704,16,32765
1.02091,-0.0528823,-0.125854,16,32765
0.991003,-0.0547566,-0.122125,15,32765
1.03044,-0.0604743,-0.127032,16,32765
1.02034,-0.0633303,-0.125688,16,32765
1.03003,-0.0674402,-0.126886,16,32765
1.0397,-0.071587,-0.128047,16,32765
1.01967,-0.0736868,-0.125493,16,32765
1.0392,-0.0786581,-0.127977,16,32765
1.04882,-0.0830827,-0.129151,16,32765
1.03864,-0.0859242,-0.127884,15,32765
1.04823,-0.0904191,-0.12899,15,32765
1.06767,-0.0958171,-0.131506,15,32765
1.02782,-0.0957905,-0.126519,15,32765
1.03738,-0.100232,-0.127681,16,32765
1.01728,-0.101812,-0.125206,15,32765
1.03668,-0.107309,-0.127557,15,32765
1.03632,-0.110853,-0.127511,16,32765
0.996467,-0.11005,-0.122645,15,32765
1.03554,-0.117947,-0.127454,16,32765
1.02528,-0.12035,-0.126155,15,32765
1.01501,-0.122668,-0.124917,15,32765
0.985041,-0.12246,-0.121231,15,32765
1.02403,-0.130865,-0.125873,15,32765
1.02358,-0.134361,-0.125837,16,32765
1.03296,-0.139183,-0.126991,16,32765
1.01282,-0.140009,-0.12451,16,32765
1.04182,-0.147689,-0.128022,16,32765
1.02166,-0.148427,-0.12558,16,32765
1.03099,-0.153368,-0.126602,16,32765
1.04029,-0.158388,-0.127738,16,32765
1.04956,-0.163522,-0.128817,16,32765
1.01958,-0.16244,-0.125202,15,32765
1.03862,-0.169179,-0.12746,16,32765
1.03805,-0.172746,-0.127289,16,32765
1.03747,-0.176301,-0.12719,16,32765
0.987974,-0.171341,-0.121035,15,32765
1.02651,-0.181575,-0.125754,16,32765
1.02589,-0.185059,-0.125672,16,32765
1.00577,-0.184926,-0.123023,16,32765
1.02467,-0.192024,-0.125233,15,32765
1.01427,-0.193678,-0.123906,15,32765
0.994131,-0.19333,-0.121354,15,32765
1.03245,-0.204407,-0.125981,15,32765
1.01232,-0.203962,-0.123357,16,32765
1.02137,-0.209435,-0.124273,15,32765
1.03037,-0.214961,-0.125377,16,32765
1.06852,-0.22676,-0.129818,15,32765
1.01923,-0.219959,-0.123685,16,32765
1.0088,-0.221275,-0.122306,16,32765
1.03715,-0.231194,-0.125609,16,32765
1.01702,-0.230295,-0.123014,16,32765
1.04531,-0.240413,-0.126235,15,32765
1.02517,-0.239447,-0.123649,15,32765
1.01473,-0.240588,-0.122244,15,32765
1.04292,-0.250985,-0.125399,15,32765
1.06139,-0.259223,-0.127459,15,32765
1.06055,-0.262781,-0.127198,16,32765
1.05971,-0.266328,-0.126863,15,32765
1.04924,-0.267368,-0.125333,16,32765
1.03877,-0.268339,-0.12391,15,32765
1.09558,-0.286892,-0.13041,15,32765
1.03704,-0.275241,-0.123231,15,32765
1.03616,-0.278708,-0.122869,15,32765
1.06403,-0.290004,-0.125849,15,32765
1.09183,-0.301487,-0.128853,15,32765
1.05259,-0.294433,-0.123925,15,32765
1.05164,-0.297961,-0.123577,15,32765
1.07934,-0.309715,-0.126532,15,32765
1.05929,-0.307704,-0.123778,15,32765
1.02018,-0.299988,-0.118952,15,32765
1.03828,-0.309018,-0.120746,15,32765
1.03732,-0.312382,-0.120362,15,32765
1.11242,-0.338911,-0.128688,15,32765
1.05439,-0.324948,-0.121547,15,32765
1.10084,-0.343196,-0.126404,15,32765
1.02392,-0.322887,-0.117179,15,32765
1.04188,-0.332188,-0.118892,15,32765
1.09763,-0.3539,-0.12472,15,32765
1.0871,-0.354397,-0.122972,15,32765
1.08603,-0.357899,-0.122298,15,32765
0.92141,0.0184747,-0.124752,15,32765
0.990868,0.0164224,-0.133834,15,32765
0.990954,0.0130132,-0.133569,15,32765
0.931554,0.00905159,-0.1254,15,32765
0.941531,0.00592128,-0.126425,15,32765
0.941552,0.00269165,-0.126381,15,32765
0.892031,-0.000547626,-0.119504,15,32765
0.991152,-0.00404763,-0.132669,15,32765
0.981232,-0.0073938,-0.131259,15,32765
0.971309,-0.0106397,-0.129793,15,32765
0.941545,-0.0135199,-0.125737,15,32765
0.941507,-0.0167609,-0.125632,15,32765
0.951377,-0.020197,-0.126781,15,32765
0.931486,-0.0229889,-0.124116,15,32765
0.931407,-0.0261659,-0.124082,15,32765
0.96105,-0.0302916,-0.127928,15,32765
0.911417,-0.0318462,-0.121261,15,32765
0.970756,-0.0372109,-0.129029,15,32765
0.931003,-0.0388581,-0.123786,15,32765
0.980377,-0.0442645,-0.130389,15,32765
0.930739,-0.0452142,-0.123618,15,32765
0.970172,-0.0504864,-0.128912,16,32765
0.930408,-0.0516406,-0.123591,15,32765
0.989598,-0.0583342,-0.1315,16,32765
0.979517,-0.0610602,-0.130068,15,32765
0.979307,-0.0643927,-0.130046,15,32765
0.988981,-0.0683804,-0.131303,15,32765
0.968982,-0.0703133,-0.128567,16,32765
0.919306,-0.069867,-0.122049,16,32765
0.928942,-0.0738829,-0.123321,15,32765
0.958322,-0.0795955,-0.127212,15,32765
0.938296,-0.0812548,-0.124489,15,32765
0.957747,-0.0862868,-0.127183,15,32765
0.987071,-0.0923477,-0.131004,15,32765
0.947288,-0.0918777,-0.125714,15,32765
1.00616,-0.101081,-0.133528,15,32765
0.976235,-0.101432,-0.129524,15,32765
0.96603,-0.103721,-0.128174,14,32765
0.985376,-0.109229,-0.13078,15,32765
0.975152,-0.111478,-0.129427,15,32765
0.994465,-0.117161,-0.131959,16,32765
0.99406,-0.120575,-0.131934,15,32765
0.993648,-0.123978,-0.131885,15,32765
0.934238,-0.119822,-0.123861,15,32765
0.963316,-0.126905,-0.127737,15,32765
0.982533,-0.132862,-0.130291,16,32765
0.982078,-0.136244,-0.13023,15,32765
0.952166,-0.135458,-0.126218,15,32765
0.981129,-0.143043,-0.130096,16,32765
0.980658,-0.146394,-0.129919,15,32765
0.960556,-0.146762,-0.127255,15,32765
0.979648,-0.153165,-0.129734,16,32765
0.988906,-0.158104,-0.131028,15,32765
0.95901,-0.156755,-0.126997,15,32765
0.968265,-0.161692,-0.128133,16,32765
0.938392,-0.160017,-0.12416,15,32765
1.01602,-0.176813,-0.134347,16,32765
0.97637,-0.173302,-0.129108,16,32765
0.966027,-0.174859,-0.127739,15,32765
0.926454,-0.170927,-0.122342,15,32765
0.98436,-0.185101,-0.129897,16,32765
0.954514,-0.182891,-0.125912,16,32765
0.983109,-0.191838,-0.129598,16,32765
0.963014,-0.19131,-0.126908,16,32765
0.972114,-0.196527,-0.127952,16,32765
0.932606,-0.191882,-0.122586,15,32765
0.961074,-0.201182,-0.126343,16,32765
0.98951,-0.210704,-0.129901,16,32765
0.959724,-0.207817,-0.125862,16,32765
0.978414,-0.215333,-0.128208,16,32765
0.9777,-0.218676,-0.127995,16,32765
0.976988,-0.221974,-0.127757,16,32765
0.985931,-0.227519,-0.128744,16,32765
1.01416,-0.237669,-0.132284,16,32765
0.98443,-0.234187,-0.128273,16,32765
0.964385,-0.232863,-0.125444,15,32765
0.973257,-0.238493,-0.126458,16,32765
0.972481,-0.241764,-0.126218,16,32765
1.00057,-0.252305,-0.12965,16,32765
0.970933,-0.248239,-0.125561,16,32765
0.989352,-0.256426,-0.127785,16,32765
1.01733,-0.267289,-0.13115,16,32765
0.958935,-0.255357,-0.123434,15,32765
0.98686,-0.26633,-0.126792,16,32765
1.00516,-0.27487,-0.128843,16,32765
1.00428,-0.278232,-0.128477,16,32765
0.974723,-0.273556,-0.124429,15,32765
1.00248,-0.284975,-0.127756,16,32765
1.00156,-0.288352,-0.127369,16,32765
1.00067,-0.29164,-0.126883,15,32765
1.02831,-0.303382,-0.130138,16,32765
0.998819,-0.298257,-0.126109,15,32765
0.997891,-0.301503,-0.125739,15,32765
1.02545,-0.313448,-0.128862,15,32765
1.00552,-0.310912,-0.125959,15,32765
1.04247,-0.326074,-0.130125,16,32765
1.02252,-0.323511,-0.127252,16,32765
1.01208,-0.323752,-0.125628,16,32765
1.02998,-0.333185,-0.127358,16,32765
1.00065,-0.32729,-0.123233,17,32765
1.01852,-0.33676,-0.124925,16,32765
0.9218,0.018432,-0.121843,15,32765
0.961437,0.0160001,-0.127602,15,32765
0.91186,0.0120713,-0.121516,15,32765
0.961401,0.00945985,-0.128523,15,32765
0.93163,0.00600324,-0.125015,15,32765
0.92169,0.0028339,-0.124016,15,32765
0.891925,-0.000243845,-0.120287,14,32765
0.971159,-0.00358539,-0.13129,15,32765
0.931465,-0.00656104,-0.126216,15,32765
0.911589,-0.00951635,-0.123755,15,32765
0.931335,-0.0128867,-0.126685,15,32765
0.881725,-0.0152291,-0.12012,14,32765
0.931168,-0.0193475,-0.127087,15,32765
0.92116,-0.0223621,-0.125951,15,32765
0.861622,-0.0239206,-0.118047,15,32765
0.881316,-0.0274925,-0.120939,15,32765
0.94061,-0.0325348,-0.129203,15,32765
0.960264,-0.0364983,-0.132142,15,32765
0.910637,-0.0376969,-0.125373,15,32765
0.920384,-0.0412483,-0.126851,15,32765
0.940007,-0.0453154,-0.12974,15,32765
0.94972,-0.0489766,-0.131279,15,32765
0.929765,-0.0510863,-0.128559,15,32765
0.909802,-0.053052,-0.12588,15,32765
0.949157,-0.0586061,-0.131404,15,32765
0.909396,-0.0592945,-0.126029,15,32765
0.928943,-0.0637787,-0.128834,15,32765
0.908946,-0.0655644,-0.126166,15,32765
0.958101,-0.0724237,-0.133034,15,32765
0.928217,-0.0733834,-0.128952,15,32765
0.93784,-0.0773606,-0.130272,15,32765
0.947443,-0.0814367,-0.131604,15,32765
0.927412,-0.0829146,-0.128968,15,32765
0.936993,-0.0869874,-0.1303,15,32765
0.916955,-0.0883287,-0.127636,16,32765
0.916647,-0.0914968,-0.127617,15,32765
0.9459,-0.0977416,-0.131601,15,32765
0.915998,-0.0978824,-0.127538,15,32765
0.905836,-0.0999504,-0.125983,15,32765
0.94485,-0.107546,-0.131502,15,32765
0.895303,-0.104995,-0.124537,15,32765
0.894939,-0.108034,-0.124548,15,32765
0.953559,-0.11841,-0.132683,15,32765
0.933518,-0.119147,-0.129804,15,32765
0.903645,-0.118521,-0.125611,15,32765
0.913064,-0.122967,-0.126859,15,32765
0.971534,-0.134212,-0.134939,16,32765
0.931854,-0.131994,-0.129331,15,32765
0.921618,-0.133719,-0.127823,15,32765
0.970161,-0.144216,-0.134493,15,32765
0.901104,-0.137173,-0.124878,15,32765
0.949599,-0.147953,-0.13142,15,32765
0.958877,-0.152827,-0.132662,15,32765
0.909471,-0.148113,-0.125795,15,32765
0.928534,-0.154449,-0.128334,15,32765
0.898714,-0.152658,-0.124129,15,32765
0.878676,-0.152392,-0.121267,15,32765
0.926925,-0.164141,-0.127941,15,32765
0.906881,-0.163822,-0.125017,15,32765
0.935568,-0.172318,-0.128914,15,32765
0.915532,-0.171811,-0.126021,16,32765
0.934436,-0.178644,-0.128515,16,32765
0.953295,-0.185607,-0.131069,16,32765
0.933231,-0.18503,-0.128231,15,32765
0.952032,-0.192181,-0.130775,16,32765
0.941683,-0.193463,-0.129251,15,32765
0.950735,-0.198718,-0.130437,15,32765
0.93068,-0.197862,-0.127614,16,32765
0.939707,-0.203132,-0.128795,15,32765
0.919683,-0.202067,-0.125906,15,32765
0.919003,-0.205166,-0.12586,15,32765
0.956987,-0.217027,-0.131055,15,32765
0.91763,-0.211379,-0.125596,16,32765
0.916935,-0.214467,-0.125436,16,32765
0.964445,-0.229055,-0.131835,16,32765
0.934759,-0.225341,-0.127854,16,32765
0.934014,-0.228484,-0.127725,16,32765
0.933262,-0.231653,-0.127515,16,32765
0.942116,-0.237171,-0.128712,16,32765
0.931726,-0.237873,-0.127289,16,32765
0.940537,-0.243455,-0.12853,16,32765
0.939734,-0.246616,-0.12838,16,32765
0.967643,-0.257428,-0.132275,15,32765
0.928494,-0.250367,-0.126948,16,32765
0.956343,-0.261328,-0.130825,16,32765
0.945939,-0.261857,-0.129348,16,32765
0.945077,-0.264995,-0.129255,16,32765
0.915591,-0.259994,-0.125288,16,32765
0.857554,-0.24657,-0.117491,15,32765
0.89482,-0.260528,-0.122565,15,32765
0.941499,-0.277507,-0.12911,16,32765
0.969067,-0.289163,-0.13302,15,32765
0.920665,-0.278064,-0.126314,15,32765
0.900789,-0.275256,-0.123748,16,32765
0.918839,-0.284027,-0.126352,16,32765
0.898987,-0.281059,-0.123805,16,32765
0.935893,-0.295918,-0.128985,16,32765
0.906554,-0.289926,-0.125312,16,32765
0.924477,-0.298974,-0.127891,16,32765
0.923478,-0.301989,-0.128029,16,32765
0.894249,-0.295578,-0.124306,15,32765
0.861216,0.0171866,-0.122114,15,32765
0.910697,0.0151105,-0.129623,15,32765
0.86118,0.0113489,-0.123042,15,32765
0.851264,0.00831664,-0.121984,15,32765
0.861124,0.00547994,-0.123834,15,32765
0.861093,0.00256997,-0.124143,15,32765
0.82147,-0.000306798,-0.118685,15,32765
0.851117,-0.00323606,-0.123247,15,32765
0.880751,-0.00630974,-0.127816,15,32765
0.841112,-0.00889026,-0.122279,14,32765
0.811361,-0.0113406,-0.118171,15,32765
0.831082,-0.0144796,-0.121217,15,32765
0.850783,-0.0178143,-0.124303,15,32765
0.860578,-0.021039,-0.12595,15,32765
0.870357,-0.0243215,-0.127622,15,32765
0.840575,-0.0263832,-0.12344,15,32765
0.889905,-0.030961,-0.130807,15,32765
0.869991,-0.0332522,-0.128098,15,32765
0.850098,-0.03538,-0.125226,15,32765
0.85984,-0.0387351,-0.12679,15,32765
0.839919,-0.0406945,-0.124019,15,32765
0.829875,-0.0430064,-0.122711,15,32765
0.869234,-0.0479892,-0.128568,15,32765
0.839432,-0.0491779,-0.124237,15,32765
0.839252,-0.0520579,-0.124282,15,32765
0.858796,-0.0562477,-0.1273,15,32765
0.848719,-0.058529,-0.125896,15,32765
0.868234,-0.062901,-0.128894,16,32765
0.897601,-0.0681423,-0.133298,16,32765
0.857912,-0.068113,-0.127468,15,32765
0.837964,-0.0694117,-0.124491,15,32765
0.857436,-0.0740055,-0.127384,15,32765
0.867015,-0.0778327,-0.128947,15,32765
0.86675,-0.0807929,-0.12891,15,32765
0.856607,-0.0828474,-0.127519,15,32765
0.86616,-0.0868022,-0.128967,15,32765
0.85603,-0.0888049,-0.127381,15,32765
0.855708,-0.0917987,-0.127426,15,32765
0.855411,-0.0947542,-0.127252,15,32765
0.894388,-0.102196,-0.133142,15,32765
0.864576,-0.101781,-0.12864,15,32765
0.844582,-0.102344,-0.125726,15,32765
0.873687,-0.108904,-0.130042,15,32765
0.853705,-0.109372,-0.126988,15,32765
0.853332,-0.112343,-0.126898,15,32765
0.882366,-0.119277,-0.131161,15,32765
0.852568,-0.118216,-0.126697,15,32765
0.842382,-0.119763,-0.125098,15,32765
0.851782,-0.124043,-0.126417,15,32765
0.861145,-0.128481,-0.127756,15,32765
0.860704,-0.131503,-0.127655,16,32765
0.850494,-0.132995,-0.125984,16,32765
0.859809,-0.137536,-0.12733,16,32765
0.888646,-0.145246,-0.131574,16,32765
0.82961,-0.138492,-0.12275,15,32765
0.877922,-0.149663,-0.129821,15,32765
0.87742,-0.152721,-0.129657,16,32765
0.896367,-0.159298,-0.132477,16,32765
0.90558,-0.164172,-0.133686,16,32765
0.885566,-0.16369,-0.130682,16,32765
0.885038,-0.166678,-0.130481,16,32765
0.855332,-0.164101,-0.126008,16,32765
0.893638,-0.174607,-0.131619,16,32765
0.873639,-0.173826,-0.128604,15,32765
0.882748,-0.178824,-0.129914,16,32765
0.862764,-0.177874,-0.126885,16,32765
0.862167,-0.180839,-0.126752,15,32765
0.890602,-0.190005,-0.130869,16,32765
0.851272,-0.18466,-0.125044,16,32765
0.860337,-0.189689,-0.126246,16,32765
0.859697,-0.192596,-0.126202,16,32765
0.888013,-0.202088,-0.130358,16,32765
0.868052,-0.200656,-0.127369,16,32765
0.867392,-0.203586,-0.127216,16,32765
0.895606,-0.213446,-0.131268,15,32765
0.866014,-0.209494,-0.127009,16,32765
0.855706,-0.210055,-0.125479,16,32765
0.883834,-0.220145,-0.129509,16,32765
0.863914,-0.218239,-0.126585,15,32765
0.872782,-0.223597,-0.127888,16,32765
0.891207,-0.231486,-0.130631,16,32765
0.880868,-0.231968,-0.129084,15,32765
0.851385,-0.227284,-0.124843,15,32765
0.869738,-0.235336,-0.127565,15,32765
0.849848,-0.233032,-0.124717,15,32765
0.877711,-0.243811,-0.128763,15,32765
0.89597,-0.252095,-0.131474,15,32765
0.885614,-0.252352,-0.130026,15,32765
0.894284,-0.258021,-0.131458,15,32765
0.855416,-0.249917,-0.125721,15,32765
0.864072,-0.255567,-0.127142,15,32765
0.882181,-0.264148,-0.129932,15,32765
0.890794,-0.269974,-0.13115,15,32765
0.870971,-0.267067,-0.128395,16,32765
0.860642,-0.266959,-0.126997,15,32765
0.840873,-0.263802,-0.12426,15,32765
0.887211,-0.281499,-0.131209,15,32765
0.848533,-0.272313,-0.125844,15,32765
0.838226,-0.272023,-0.124417,15,32765
0.884353,-0.290202,-0.131538,15,32765
0.845807,-0.28054,-0.126125,15,32765
0,0,-0,0,32765
0.800274,0.0139568,-0.124364,15,32765
0.820074,0.011575,-0.127455,15,32765
0.810222,0.00865814,-0.125958,15,32765
0.7806,0.00562642,-0.121374,15,32765
0.75096,0.00283913,-0.11684,15,32765
0.750972,0.000253047,-0.116795,15,32765
0.721332,-0.00221918,-0.112137,15,32765
0.731199,-0.00474061,-0.113693,15,32765
0.780592,-0.00773968,-0.121307,15,32765
0.760806,-0.0101563,-0.118198,16,32765
0.790408,-0.0132708,-0.122795,15,32765
0.81013,-0.0164038,-0.12578,15,32765
0.790317,-0.0187479,-0.122669,15,32765
0.839651,-0.0228252,-0.13025,15,32765
0.800076,-0.0244782,-0.124015,15,32765
0.799991,-0.0271996,-0.123995,15,32765
0.80978,-0.0303144,-0.12545,15,32765
0.81955,-0.0334948,-0.126948,15,32765
0.809565,-0.0358646,-0.125375,14,32765
0.829194,-0.0396037,-0.128329,15,32765
0.789592,-0.0404465,-0.122103,15,32765
0.848666,-0.0464113,-0.131197,15,32765
0.858379,-0.0498936,-0.132652,15,32765
0.808884,-0.0497955,-0.12501,15,32765
0.818585,-0.0531811,-0.126454,15,32765
0.828284,-0.0566264,-0.127826,15,32765
0.808392,-0.0580312,-0.124636,15,32765
0.818034,-0.0615254,-0.126236,16,32765
0.827684,-0.0651754,-0.127638,15,32765
0.817607,-0.067276,-0.126063,15,32765
0.827231,-0.0710151,-0.127456,15,32765
0.836831,-0.0748291,-0.128897,15,32765
0.846415,-0.078667,-0.130358,15,32765
0.846141,-0.0815868,-0.130344,15,32765
0.826198,-0.082517,-0.127232,15,32765
0.855421,-0.088399,-0.131686,14,32765
0.86495,-0.0923744,-0.133147,15,32765
0.825335,-0.0910247,-0.127028,15,32765
0.854488,-0.0972438,-0.131504,15,32765
0.805062,-0.0944459,-0.123916,15,32765
0.873435,-0.105545,-0.134434,15,32765
0.833835,-0.103708,-0.128309,15,32765
0.833479,-0.106607,-0.12825,15,32765
0.852715,-0.112083,-0.131205,15,32765
0.813133,-0.109723,-0.1252,15,32765
0.842138,-0.11659,-0.129652,15,32765
0.831948,-0.118097,-0.128124,15,32765
0.841332,-0.12236,-0.129571,15,32765
0.850703,-0.126722,-0.130939,16,32765
0.82096,-0.125169,-0.126323,15,32765
0.83029,-0.129539,-0.127821,16,32765
0.8396,-0.134018,-0.12927,16,32765
0.809865,-0.132195,-0.124671,16,32765
0.858168,-0.14316,-0.132111,16,32765
0.818703,-0.139496,-0.125965,15,32765
0.827969,-0.144011,-0.127392,15,32765
0.827481,-0.146846,-0.127326,15,32765
0.807536,-0.146176,-0.124168,16,32765
0.826482,-0.152522,-0.127141,16,32765
0.835689,-0.157137,-0.128573,16,32765
0.825476,-0.158114,-0.126844,16,32765
0.844348,-0.164705,-0.129804,16,32765
0.843793,-0.167592,-0.129715,16,32765
0.843252,-0.170501,-0.129444,16,32765
0.832981,-0.171413,-0.127905,15,32765
0.832401,-0.174271,-0.12782,15,32765
0.860846,-0.183298,-0.132086,15,32765
0.811906,-0.175787,-0.124529,16,32765
0.81133,-0.178543,-0.124364,16,32765
0.820403,-0.18345,-0.125636,15,32765
0.877665,-0.199387,-0.134348,16,32765
0.867377,-0.200125,-0.132692,16,32765
0.885975,-0.207614,-0.135444,16,32765
0.827561,-0.196862,-0.126444,15,32765
0.826915,-0.199668,-0.126273,16,32765
0.816656,-0.200118,-0.124606,16,32765
0.864007,-0.214798,-0.131735,16,32765
0.834546,-0.210469,-0.127028,15,32765
0.891364,-0.22799,-0.135615,16,32765
0.833173,-0.216077,-0.126625,15,32765
0.870769,-0.228908,-0.132144,16,32765
0.84137,-0.224172,-0.127449,15,32765
0.811987,-0.219255,-0.122902,16,32765
0.849466,-0.232397,-0.128449,15,32765
0.867805,-0.240507,-0.131037,16,32765
0.819402,-0.230012,-0.123589,15,32765
0.837721,-0.238157,-0.126113,15,32765
0.884529,-0.254642,-0.132911,15,32765
0.874222,-0.254819,-0.13116,16,32765
0.844954,-0.249313,-0.126474,15,32765
0.853672,-0.254928,-0.127498,16,32765
0.843391,-0.254865,-0.125839,15,32765
0.880484,-0.269207,-0.131058,16,32765
0.860754,-0.266196,-0.12784,15,32765
0.878861,-0.274885,-0.130161,16,32765
0.868593,-0.274751,-0.128287,15,32765
0.877214,-0.280582,-0.129112,16,32765
0.895211,-0.289519,-0.131436,16,32765
0.875517,-0.286265,-0.128151,15,32765
0.884115,-0.29216,-0.128779,16,32765
0,0,-0,0,32765
0.838526,0.0145724,-0.138423,15,32765
0.78924,0.0110834,-0.1303,15,32765
0.789267,0.00836969,-0.130337,15,32765
0.759689,0.00540564,-0.125473,15,32765
0.749824,0.00275792,-0.123918,15,32765
0.759703,0.000170229,-0.125503,15,32765
0.661044,-0.00211508,-0.109161,15,32765
0.759692,-0.00502666,-0.125473,16,32765
0.769547,-0.00774069,-0.127037,15,32765
0.74979,-0.0101247,-0.123742,15,32765
0.759617,-0.0128786,-0.125361,15,32765
0.769446,-0.0157144,-0.126909,16,32765
0.798986,-0.0191014,-0.131747,15,32765
0.729885,-0.019984,-0.120285,15,32765
0.789003,-0.0243017,-0.129935,15,32765
0.749473,-0.0256438,-0.123419,16,32765
0.778973,-0.0293374,-0.128218,16,32765
0.798591,-0.0328271,-0.131432,16,32765
0.75905,-0.0338142,-0.124901,16,32765
0.749087,-0.0359704,-0.123185,15,32765
0.788396,-0.0405963,-0.129553,15,32765
0.768554,-0.042244,-0.126256,16,32765
0.788117,-0.046037,-0.129428,15,32765
0.768259,-0.0475243,-0.126175,16,32765
0.758257,-0.0494963,-0.124483,16,32765
0.787644,-0.0540997,-0.129188,16,32765
0.777635,-0.0560798,-0.127432,16,32765
0.777426,-0.058736,-0.127508,16,32765
0.79691,-0.0630319,-0.130621,16,32765
0.767184,-0.0634047,-0.125731,16,32765
0.786639,-0.0678236,-0.128835,15,32765
0.776575,-0.069739,-0.127153,15,32765
0.786161,-0.0733771,-0.128711,16,32765
0.795728,-0.0770484,-0.130307,16,32765
0.785651,-0.0787941,-0.128621,16,32765
0.805024,-0.0835343,-0.131751,15,32765
0.804741,-0.086296,-0.131701,16,32765
0.814258,-0.0901678,-0.133241,16,32765
0.843369,-0.0963653,-0.137997,15,32765
0.784217,-0.0923689,-0.12834,15,32765
0.7839,-0.0951028,-0.128285,15,32765
0.812959,-0.101512,-0.133015,16,32765
0.793029,-0.101832,-0.129753,16,32765
0.831823,-0.109765,-0.136099,16,32765
0.80209,-0.108654,-0.131322,16,32765
0.801722,-0.111424,-0.131252,16,32765
0.781791,-0.111405,-0.12803,16,32765
0.820485,-0.119786,-0.134373,16,32765
0.781035,-0.116789,-0.127847,16,32765
0.809919,-0.123955,-0.13254,15,32765
0.799731,-0.125245,-0.130937,16,32765
0.818787,-0.13119,-0.134078,16,32765
0.79885,-0.130888,-0.130796,16,32765
0.808133,-0.135319,-0.132325,15,32765
0.836873,-0.143125,-0.136962,16,32765
0.797484,-0.139226,-0.130521,16,32765
0.797011,-0.141965,-0.130457,17,32765
0.806256,-0.146485,-0.131886,16,32765
0.81546,-0.151045,-0.133456,16,32765
0.805253,-0.151973,-0.131805,16,32765
0.804768,-0.154715,-0.131576,17,32765
0.833308,-0.163149,-0.136307,16,32765
0.832758,-0.166007,-0.136219,16,32765
0.803192,-0.162996,-0.131208,16,32765
0.802631,-0.165771,-0.131159,17,32765
0.792406,-0.166503,-0.129496,16,32765
0.811172,-0.17335,-0.132473,16,32765
0.800944,-0.174044,-0.13076,16,32765
0.800373,-0.176772,-0.130597,16,32765
0.819073,-0.183816,-0.133535,16,32765
0.789577,-0.180025,-0.12868,16,32765
0.808234,-0.187153,-0.131651,16,32765
0.798,-0.187673,-0.129906,17,32765
0.78778,-0.188075,-0.128181,16,32765
0.796762,-0.19308,-0.129579,17,32765
0.805724,-0.198149,-0.130943,17,32765
0.795496,-0.198477,-0.129199,16,32765
0.814019,-0.20603,-0.132003,16,32765
0.84205,-0.216149,-0.136498,16,32765
0.793553,-0.206539,-0.128512,15,32765
0.812011,-0.214226,-0.131325,16,32765
0.830432,-0.222048,-0.13408,16,32765
0.801103,-0.217088,-0.129257,16,32765
0.819468,-0.224991,-0.132105,15,32765
0.799717,-0.222428,-0.128757,16,32765
0.808524,-0.227768,-0.130044,16,32765
0.788804,-0.225049,-0.126654,16,32765
0.797594,-0.230432,-0.127848,16,32765
0.806353,-0.235872,-0.129071,15,32765
0.815104,-0.24136,-0.130194,16,32765
0.804893,-0.241215,-0.128305,16,32765
0.794671,-0.240995,-0.126567,15,32765
0.812841,-0.249407,-0.129176,15,32765
0.830975,-0.257898,-0.131793,15,32765
0.801906,-0.251704,-0.126854,16,32765
0.829427,-0.263291,-0.130877,16,32765
0.828651,-0.265987,-0.130338,16,32765
0.827848,-0.26868,-0.129919,16,32765
0.827046,-0.271373,-0.129429,15,32765
0,-0,-0,0,32765
7.66995,2.49039,1.48654,30,32765
7.74355,2.48735,1.4978,30,32765
7.7986,2.47786,1.50478,29,32765
7.84433,2.46431,1.51103,29,32765
7.87174,2.44421,1.51193,29,32765
7.90814,2.42736,1.51568,29,32765
7.95427,2.41285,1.51994,29,32765
8.01917,2.40368,1.52815,29,32765
8.09372,2.39666,1.53758,29,32765
8.14923,2.38387,1.54403,31,32765
8.17622,2.36319,1.54508,27,32765
8.4301,2.40742,1.58928,13,32765
8.50464,2.39925,1.59845,13,32765
8.49388,2.36642,1.59236,12,32765
8.4264,2.31777,1.57422,12,32765
8.39634,2.28015,1.56459,12,32765
8.45181,2.26558,1.57041,13,32765
8.47857,2.24332,1.57143,13,32765
8.4674,2.21081,1.56445,13,32765
8.39881,2.16363,1.5475,13,32765
8.3967,2.13369,1.54363,13,32765
8.35632,2.09429,1.53245,13,32765
8.42103,2.08122,1.53976,13,32765
8.38015,2.04244,1.52943,13,32765
8.38727,2.01508,1.5267,14,32765
8.44212,1.99909,1.5331,13,32765
8.35334,1.94875,1.51265,13,32765
8.36013,1.92099,1.51069,13,32765
8.40505,1.90222,1.51629,13,32765
8.37314,1.86589,1.50767,13,32765
8.37965,1.83843,1.50523,13,32765
8.34752,1.80263,1.49612,13,32765
8.33433,1.77135,1.49122,13,32765
8.29226,1.73417,1.4802,13,32765
8.32714,1.71298,1.48368,13,32765
8.32323,1.68398,1.48071,13,32765
8.2903,1.64896,1.47252,13,32765
8.29616,1.6216,1.4699,13,32765
8.26285,1.58686,1.46247,13,32765
8.21025,1.54874,1.4504,13,32765
8.27357,1.5328,1.45954,13,32765
8.27891,1.50516,1.45801,13,32765
8.28428,1.47732,1.45595,13,32765
8.25056,1.44279,1.44796,13,32765
8.20696,1.40714,1.43817,13,32765
8.21164,1.38068,1.4371,13,32765
8.24543,1.35924,1.44073,13,32765
8.22074,1.32766,1.43501,13,32765
8.22533,1.30045,1.43365,12,32765
8.27853,1.28031,1.44112,13,32765
8.35107,1.26281,1.45251,17,32765
8.34563,1.2331,1.45036,17,32765
8.3694,1.20802,1.45269,17,32765
8.39322,1.18283,1.45419,17,32765
8.3778,1.15209,1.44971,17,32765
8.36196,1.12215,1.44636,17,32765
8.38539,1.09715,1.44839,17,32765
8.37936,1.06826,1.44568,14,32765
0,0,0,0,32765
