x, y, z, intensity, ring
0.964653,-0.587647,0.0318667,19,32765
0.945683,-0.580325,0.0317249,19,32765
0.969268,-0.599189,0.0330522,20,32765
0.950328,-0.59177,0.0329227,19,32765
0.948363,-0.594891,0.0333517,20,32765
0.963301,-0.608657,0.0344588,20,32765
0.935979,-0.595723,0.0340262,19,32765
0.967637,-0.620404,0.0357409,19,32765
0.940392,-0.6073,0.035342,18,32765
0.921596,-0.599524,0.0351043,19,32765
0.944689,-0.618966,0.0366612,19,32765
0.925931,-0.611075,0.0365785,19,32765
0.915589,-0.608561,0.0367426,19,32765
0.946817,-0.633757,0.038601,19,32765
0.919866,-0.620069,0.0382212,19,32765
0.917814,-0.623069,0.0387578,19,32765
0.915743,-0.626073,0.0393256,18,32765
0.91363,-0.629116,0.0399064,19,32765
0.91977,-0.63777,0.0408999,18,32765
0.90948,-0.635023,0.0411353,19,32765
0.899231,-0.632195,0.0413915,18,32765
0.970529,-0.687104,0.0454067,13,32765
1.04147,-0.742479,0.0496379,13,32765
0.941625,-0.675907,0.0457365,13,32765
0,-0,0,0,32765
0.921062,-0.67014,0.0464382,14,32765
0.86241,-0.631804,0.0444021,15,32765
1.13685,-0.351493,0.0109272,20,32765
1.10706,-0.346264,0.0104065,19,32765
1.11546,-0.352904,0.0102963,20,32765
1.10479,-0.353453,0.0099773,20,32765
1.10365,-0.357027,0.00980075,20,32765
1.12149,-0.366813,0.0099812,19,32765
1.10131,-0.364173,0.00973701,19,32765
1.10012,-0.367759,0.00966644,20,32765
1.07992,-0.365078,0.00933666,20,32765
1.10706,-0.378437,0.00968127,19,32765
1.11524,-0.385418,0.00976967,19,32765
1.10454,-0.385741,0.00972906,21,32765
1.09387,-0.385951,0.0095782,19,32765
1.10202,-0.392871,0.00971245,19,32765
1.08191,-0.38972,0.00962815,19,32765
1.08059,-0.393343,0.0097784,20,32765
1.09804,-0.403875,0.00992206,19,32765
1.13419,-0.42143,0.0104222,20,32765
1.06725,-0.400584,0.0100037,21,32765
1.09398,-0.414722,0.0102424,20,32765
1.08326,-0.414776,0.0104049,20,32765
1.07255,-0.414763,0.0104272,20,32765
1.0805,-0.421916,0.0107269,20,32765
1.04188,-0.410811,0.0104906,20,32765
1.07768,-0.429044,0.0110845,20,32765
1.07625,-0.432621,0.0112884,20,32765
1.07479,-0.436219,0.0114764,19,32765
1.06408,-0.435993,0.0115619,19,32765
1.0164,-0.420472,0.0113115,19,32765
1.07035,-0.447004,0.0121206,20,32765
1.07805,-0.454476,0.0124996,20,32765
1.05813,-0.450215,0.0125561,19,32765
1.03826,-0.445816,0.0125352,20,32765
1.05511,-0.457245,0.0129956,20,32765
1.04439,-0.456811,0.0133328,20,32765
1.06113,-0.468408,0.0138325,20,32765
1.04128,-0.463837,0.0136837,20,32765
1.03972,-0.467327,0.0140394,21,32765
1.04724,-0.474953,0.0144156,20,32765
1.01838,-0.465941,0.0143758,21,32765
1.02588,-0.473556,0.0147633,20,32765
1.02429,-0.476969,0.0151081,20,32765
1.03173,-0.484665,0.015473,20,32765
1.03912,-0.492409,0.01603,20,32765
0.992347,-0.474344,0.0156714,21,32765
1.00876,-0.486356,0.0163961,21,32765
1.00714,-0.489697,0.016593,21,32765
1.00547,-0.493103,0.0166504,21,32765
1.02172,-0.505362,0.0173234,22,32765
1.0021,-0.499893,0.0173092,20,32765
1.0004,-0.503279,0.0177532,21,32765
1.0076,-0.511189,0.0182666,21,32765
1.00586,-0.514593,0.018629,21,32765
0.986366,-0.508753,0.0187815,21,32765
1.0024,-0.521265,0.0194724,22,32765
0.982919,-0.515356,0.0194682,21,32765
0.990011,-0.523329,0.0201386,21,32765
1.00584,-0.536131,0.0210506,22,32765
1.02164,-0.548965,0.0219282,21,32765
1.00222,-0.542845,0.0217046,20,32765
0.98286,-0.536578,0.0216969,19,32765
0.972294,-0.535037,0.0219141,19,32765
0.979255,-0.543098,0.0224456,19,32765
0.94253,-0.526831,0.0220458,19,32765
0.984312,-0.554507,0.0234934,19,32765
0.965062,-0.54791,0.0234397,20,32765
0.971873,-0.556137,0.0239657,20,32765
0.961354,-0.554361,0.024112,19,32765
0.968146,-0.562568,0.0247196,19,32765
0.957635,-0.560727,0.0249106,18,32765
0.955756,-0.56391,0.0252108,18,32765
0.962456,-0.572203,0.0257299,19,32765
0.943402,-0.565094,0.0257035,19,32765
0.958631,-0.578555,0.0264566,19,32765
0.956698,-0.58173,0.0268021,19,32765
0.963295,-0.590098,0.0273146,19,32765
0.952809,-0.58805,0.0274135,19,32765
0.950867,-0.59117,0.0277626,19,32765
0.93196,-0.583682,0.0276646,19,32765
0.955383,-0.60276,0.0287099,19,32765
0.96183,-0.611251,0.029262,18,32765
0.900859,-0.576702,0.0277327,19,32765
0.924184,-0.595863,0.0288137,19,32765
0.922258,-0.598823,0.0291614,18,32765
0.937057,-0.612723,0.0299068,19,32765
0.943411,-0.621244,0.0305161,19,32765
0.933033,-0.618806,0.0304654,18,32765
0.922677,-0.616307,0.0305519,19,32765
0.937195,-0.630543,0.0313229,19,32765
0.926824,-0.628023,0.0313647,20,32765
0.908247,-0.619776,0.0310846,19,32765
0.91446,-0.628382,0.0316079,18,32765
0.904207,-0.625635,0.031462,19,32765
0.885776,-0.617113,0.0311728,19,32765
0.932872,-0.654412,0.0330889,18,32765
0.898095,-0.634345,0.0321119,19,32765
0.936756,-0.666217,0.0338064,17,32765
0.958985,-0.686682,0.0348699,12,32765
0.940576,-0.678033,0.0344719,12,32765
0.970778,-0.704495,0.0357315,14,32765
0.960468,-0.701674,0.035412,13,32765
1.13667,-0.352254,-0.000271298,21,32765
1.14505,-0.35898,-0.000526609,21,32765
1.14386,-0.362737,-0.000730907,21,32765
1.14268,-0.366433,-0.000969153,21,32765
1.13198,-0.367054,-0.00114149,21,32765
1.12128,-0.367608,-0.00111977,20,32765
1.12008,-0.371255,-0.00119538,20,32765
1.12834,-0.378088,-0.00127719,20,32765
1.11758,-0.378707,-0.00143454,21,32765
1.11629,-0.382499,-0.00133408,21,32765
1.10554,-0.38298,-0.00131645,21,32765
1.11373,-0.389881,-0.00128444,21,32765
1.10304,-0.390122,-0.00134112,20,32765
1.10176,-0.393722,-0.00128873,20,32765
1.10046,-0.397357,-0.00120486,20,32765
1.08972,-0.397623,-0.00104229,20,32765
1.08838,-0.401291,-0.00106768,21,32765
1.09641,-0.40838,-0.000920557,20,32765
1.08569,-0.408495,-0.00072434,20,32765
1.09369,-0.41562,-0.000754303,20,32765
1.11097,-0.426424,-0.000509907,21,32765
1.07225,-0.41566,-0.00038009,20,32765
1.09882,-0.430119,-0.00017663,21,32765
1.09739,-0.433755,-3.50133e-05,21,32765
1.08666,-0.433678,0.000187099,21,32765
1.07593,-0.433556,0.000390245,20,32765
1.06521,-0.433393,0.000574023,21,32765
1.05451,-0.433135,0.000752592,20,32765
1.06228,-0.440534,0.00102376,20,32765
1.07001,-0.447969,0.0012256,21,32765
1.05929,-0.447672,0.00148568,20,32765
1.05779,-0.451186,0.0017566,20,32765
1.06548,-0.458639,0.00197543,21,32765
1.05476,-0.458231,0.00219771,21,32765
1.07151,-0.469844,0.00269873,21,32765
1.04248,-0.461325,0.0028916,20,32765
1.04092,-0.464836,0.00298215,21,32765
1.03023,-0.464226,0.00330941,20,32765
1.03777,-0.471837,0.00359037,21,32765
1.06346,-0.48779,0.00403696,21,32765
1.04366,-0.482975,0.00423252,20,32765
1.04204,-0.486455,0.00458425,21,32765
1.02229,-0.481447,0.0047346,20,32765
1.0297,-0.489177,0.00519491,20,32765
1.02804,-0.49265,0.0055464,20,32765
1.03538,-0.500457,0.00604743,21,32765
1.00674,-0.490749,0.00608749,20,32765
1.04097,-0.511811,0.00636533,20,32765
1.03922,-0.515332,0.00674848,20,32765
1.01958,-0.509913,0.00692797,20,32765
0.999985,-0.504359,0.00725126,20,32765
1.01609,-0.51682,0.00773972,21,32765
1.02323,-0.524825,0.00817726,21,32765
1.00371,-0.519031,0.0085268,21,32765
1.00197,-0.522384,0.00888017,21,32765
1.00019,-0.525767,0.00922768,21,32765
0.99841,-0.529133,0.009728,21,32765
1.01422,-0.541993,0.0104583,22,32765
1.00358,-0.540657,0.0108677,22,32765
1.01055,-0.54878,0.01112,21,32765
0.991178,-0.542529,0.0113039,20,32765
0.998107,-0.550674,0.0118269,20,32765
0.987533,-0.54912,0.0120611,21,32765
0.985696,-0.552402,0.0124825,20,32765
0.983838,-0.555694,0.0129104,21,32765
0.981973,-0.558975,0.0132801,20,32765
0.980067,-0.562302,0.0135987,21,32765
0.978188,-0.565557,0.0139665,20,32765
0.967657,-0.563771,0.0142342,20,32765
0.965769,-0.566988,0.0146505,21,32765
0.98108,-0.580388,0.0152215,21,32765
0.97054,-0.578545,0.0153836,21,32765
0.951475,-0.571449,0.0155494,20,32765
0.958117,-0.57979,0.0159763,20,32765
0.947641,-0.577767,0.016177,20,32765
0.962765,-0.591358,0.0167427,20,32765
0.952278,-0.589305,0.0169363,19,32765
0.95033,-0.592431,0.0172864,18,32765
0.956831,-0.60088,0.0178504,18,32765
0.921031,-0.582663,0.0175001,18,32765
0.935969,-0.596434,0.0181125,19,32765
0.942394,-0.604937,0.0185567,20,32765
0.948818,-0.613418,0.0190352,20,32765
0.946834,-0.616465,0.0193934,19,32765
0.953201,-0.624993,0.0197853,20,32765
0.942822,-0.622566,0.0199551,20,32765
0.932442,-0.620123,0.019999,20,32765
0.930392,-0.623182,0.0203618,20,32765
0.928297,-0.626292,0.0205816,20,32765
0.934483,-0.634978,0.0210883,20,32765
0.948897,-0.649324,0.0217554,20,32765
0.930307,-0.641063,0.0216233,20,32765
0.936444,-0.649762,0.0219598,20,32765
0.917944,-0.641328,0.021869,19,32765
0.915859,-0.644295,0.0220514,20,32765
0.91377,-0.647248,0.02224,20,32765
0.919797,-0.656018,0.0226706,19,32765
0.917674,-0.658979,0.0228457,19,32765
0.915567,-0.661897,0.023035,20,32765
0.913456,-0.664804,0.0231031,19,32765
0.903273,-0.661797,0.0228796,18,32765
1.14691,-0.352572,-0.016808,20,32765
1.12666,-0.35041,-0.0158711,19,32765
1.15413,-0.363082,-0.0157073,20,32765
1.09577,-0.348669,-0.0143861,21,32765
1.12318,-0.361487,-0.0141468,19,32765
1.13151,-0.368238,-0.0137811,19,32765
1.09231,-0.359425,-0.0129198,20,32765
1.11013,-0.369267,-0.0125402,21,32765
1.11839,-0.376098,-0.012299,20,32765
1.08873,-0.370179,-0.0115322,20,32765
1.08749,-0.373836,-0.0110295,20,32765
1.08623,-0.377494,-0.0105532,20,32765
1.10383,-0.387762,-0.0105173,20,32765
1.08369,-0.384737,-0.00981635,20,32765
1.073,-0.384953,-0.00942974,20,32765
1.09994,-0.398688,-0.00912379,19,32765
1.07984,-0.395442,-0.00867826,20,32765
1.08792,-0.402446,-0.00841498,19,32765
1.09596,-0.409523,-0.00811083,20,32765
1.07589,-0.406089,-0.00757181,20,32765
1.0465,-0.398982,-0.00698633,19,32765
1.08246,-0.41692,-0.00692454,20,32765
1.08104,-0.420614,-0.00642088,20,32765
1.06098,-0.416983,-0.0060383,20,32765
1.08747,-0.431606,-0.00585096,20,32765
1.05818,-0.42407,-0.00532834,20,32765
1.02893,-0.416384,-0.00485618,20,32765
1.08309,-0.442476,-0.00484912,20,32765
1.07237,-0.442278,-0.00451744,21,32765
1.03395,-0.430501,-0.00397141,19,32765
1.03249,-0.433987,-0.00363424,20,32765
1.06784,-0.453101,-0.00353787,20,32765
1.05712,-0.452752,-0.00306968,20,32765
1.02804,-0.444437,-0.00264345,20,32765
1.04488,-0.455876,-0.0023853,19,32765
1.04333,-0.459419,-0.00220975,20,32765
1.03263,-0.458878,-0.0017728,20,32765
1.03111,-0.462298,-0.00145315,20,32765
1.01134,-0.457485,-0.00110817,20,32765
1.02797,-0.469223,-0.000759754,20,32765
1.01728,-0.468546,-0.000509438,19,32765
1.02475,-0.476229,-0.000179832,19,32765
1.01409,-0.475424,0.000107257,20,32765
1.01251,-0.478768,0.000537308,20,32765
1.00188,-0.477854,0.000610987,20,32765
1.0093,-0.485507,0.000945832,21,32765
0.99867,-0.484517,0.00135409,20,32765
1.01498,-0.496693,0.001321,20,32765
1.01332,-0.500084,0.00158432,20,32765
0.993724,-0.494578,0.00207885,20,32765
1.00101,-0.502361,0.00228723,20,32765
0.990414,-0.501172,0.00256551,20,32765
1.00653,-0.513607,0.00297986,19,32765
1.00477,-0.517037,0.00328204,20,32765
1.00299,-0.520478,0.00359779,20,32765
0.983506,-0.514588,0.00398098,21,32765
0.999464,-0.527212,0.00444604,22,32765
0.997693,-0.530553,0.00477836,21,32765
0.978221,-0.524553,0.00530268,21,32765
0.967678,-0.523038,0.00554572,21,32765
0.974694,-0.53107,0.00601085,20,32765
0.990443,-0.54395,0.00645859,20,32765
0.953614,-0.527899,0.00658394,20,32765
0.960587,-0.535933,0.00697675,19,32765
0.976233,-0.54892,0.00747147,20,32765
0.948326,-0.537325,0.00764608,20,32765
0.963888,-0.550412,0.00812272,20,32765
0.953389,-0.548613,0.00851389,20,32765
0.968859,-0.561809,0.00907903,20,32765
0.932456,-0.544833,0.00912571,19,32765
0.973702,-0.573329,0.009936,20,32765
0.937375,-0.556171,0.0100687,20,32765
0.952686,-0.569539,0.0106679,21,32765
0.950786,-0.572697,0.0111106,20,32765
0.940346,-0.57063,0.0114708,20,32765
0.938455,-0.573726,0.0119149,20,32765
0.945077,-0.582043,0.0124708,20,32765
0.926163,-0.574595,0.0127308,20,32765
0.932767,-0.582895,0.0134081,19,32765
0.9647,-0.607245,0.0143939,17,32765
0.971157,-0.615734,0.0150442,18,32765
0.952243,-0.608196,0.0151865,18,32765
0.89979,-0.57884,0.0149404,19,32765
0.923057,-0.598091,0.015892,19,32765
0.95458,-0.622967,0.0170288,19,32765
0.919094,-0.604133,0.0169817,19,32765
0.908742,-0.601652,0.0174245,20,32765
0.915058,-0.610199,0.0180581,20,32765
0.921338,-0.618775,0.0188085,20,32765
0.919304,-0.621775,0.019398,20,32765
0.909023,-0.619099,0.0198324,19,32765
0.890508,-0.610732,0.0200686,19,32765
0.888519,-0.613603,0.0206465,20,32765
0.894725,-0.622177,0.0215165,19,32765
0.87629,-0.613629,0.0218018,20,32765
0.906957,-0.639522,0.0232288,18,32765
0.904831,-0.6425,0.0239674,19,32765
0.902722,-0.645431,0.0247193,20,32765
0.900601,-0.648359,0.0254666,18,32765
0.841839,-0.610164,0.0246284,17,32765
0.928693,-0.677672,0.0281068,15,32765
1.12734,-0.347469,-0.0276231,20,32765
1.15484,-0.36012,-0.0276515,21,32765
1.09646,-0.345846,-0.0257407,20,32765
1.14296,-0.364638,-0.0262934,21,32765
1.12272,-0.362289,-0.0252401,21,32765
1.11204,-0.362852,-0.0245482,20,32765
1.12985,-0.372751,-0.0245553,21,32765
1.10968,-0.370084,-0.0235378,21,32765
1.12741,-0.380123,-0.0235882,21,32765
1.12614,-0.3839,-0.0231177,21,32765
1.08704,-0.37466,-0.0218374,20,32765
1.09522,-0.381615,-0.0215463,20,32765
1.1128,-0.391937,-0.0216957,21,32765
1.10208,-0.392289,-0.020981,21,32765
1.11959,-0.40272,-0.0210245,21,32765
1.10887,-0.402978,-0.0202884,20,32765
1.08877,-0.399755,-0.0196517,21,32765
1.09683,-0.406805,-0.0194788,21,32765
1.09549,-0.41042,-0.0191014,20,32765
1.08477,-0.410516,-0.0185336,20,32765
1.0834,-0.414134,-0.0181311,21,32765
1.07266,-0.414229,-0.0176654,21,32765
1.08988,-0.425166,-0.017464,21,32765
1.06981,-0.421558,-0.0168904,21,32765
1.07769,-0.42885,-0.0166932,20,32765
1.08553,-0.436177,-0.016454,21,32765
1.08406,-0.439847,-0.0161033,21,32765
1.0826,-0.443438,-0.015833,21,32765
1.07187,-0.44324,-0.0154066,21,32765
1.06115,-0.442993,-0.0148723,21,32765
1.06886,-0.450462,-0.0146516,22,32765
1.06733,-0.454083,-0.0144246,21,32765
1.05661,-0.453733,-0.0138618,21,32765
1.07342,-0.465284,-0.0137404,22,32765
1.04437,-0.456863,-0.0130819,21,32765
1.04281,-0.460414,-0.0129054,21,32765
1.04125,-0.46394,-0.0124834,21,32765
1.04883,-0.471497,-0.0122667,21,32765
1.03815,-0.470865,-0.0118313,21,32765
1.03654,-0.474397,-0.0114588,21,32765
1.04399,-0.482134,-0.0113083,22,32765
1.04234,-0.485703,-0.0109673,21,32765
1.0407,-0.48921,-0.0106733,22,32765
1.03005,-0.488367,-0.0101419,21,32765
1.0284,-0.491826,-0.0100603,21,32765
1.03577,-0.499585,-0.00980948,22,32765
1.01611,-0.494308,-0.00921382,22,32765
1.00544,-0.493356,-0.00918814,21,32765
1.03964,-0.514464,-0.009245,22,32765
1.01106,-0.504571,-0.0084731,21,32765
1.01831,-0.512429,-0.00835404,21,32765
1.01659,-0.515822,-0.00804632,21,32765
1.01484,-0.519264,-0.007674,21,32765
1.00418,-0.518145,-0.0073035,21,32765
1.02013,-0.530824,-0.00711042,21,32765
1.00948,-0.529627,-0.00658873,21,32765
1.01654,-0.537691,-0.00624528,22,32765
0.997083,-0.531688,-0.00580336,20,32765
1.01285,-0.544617,-0.00527436,19,32765
1.01104,-0.54798,-0.00496931,18,32765
0.982859,-0.536999,-0.00442028,19,32765
0.998576,-0.549935,-0.00415576,20,32765
0.987978,-0.548439,-0.00375134,21,32765
0.959968,-0.537075,-0.00331835,20,32765
0.993019,-0.559914,-0.00306357,21,32765
0.982482,-0.55823,-0.00264723,21,32765
0.989284,-0.566492,-0.00232417,22,32765
0.978737,-0.564775,-0.00182582,21,32765
0.985496,-0.573058,-0.00142329,22,32765
0.957706,-0.561158,-0.0010036,21,32765
0.973034,-0.574548,-0.000632825,21,32765
0.962509,-0.572693,-0.000128484,21,32765
0.969175,-0.581033,0.000293311,21,32765
0.950118,-0.573913,0.000731823,21,32765
0.965306,-0.587437,0.00121881,21,32765
0.946309,-0.580169,0.00164644,21,32765
0.961412,-0.593787,0.00213271,21,32765
0.959454,-0.596943,0.00263616,21,32765
0.949032,-0.59475,0.00318449,20,32765
0.947078,-0.597855,0.00367502,20,32765
0.919805,-0.584844,0.00407424,20,32765
0.943109,-0.60409,0.00458785,20,32765
0.949529,-0.612592,0.00522142,20,32765
0.939126,-0.610253,0.00571861,20,32765
0.928748,-0.607855,0.00621271,20,32765
0.951782,-0.627425,0.00695204,19,32765
0.924698,-0.613986,0.00737823,19,32765
0.939279,-0.628165,0.00799891,20,32765
0.912318,-0.614496,0.0083685,20,32765
0.92685,-0.628701,0.0091165,20,32765
0.933069,-0.637326,0.00982456,20,32765
0.914509,-0.629021,0.010265,20,32765
0.928902,-0.643365,0.0110556,20,32765
0.910402,-0.63493,0.0115522,20,32765
0.916489,-0.643657,0.0123691,20,32765
0.914375,-0.646644,0.0129876,20,32765
0.912228,-0.649655,0.0137338,20,32765
0.92635,-0.664272,0.0147522,21,32765
0.899849,-0.649726,0.0151122,20,32765
0.922012,-0.670243,0.0163632,20,32765
0.911774,-0.66729,0.0170788,19,32765
1.12757,-0.347057,-0.0232109,20,32765
1.14552,-0.356669,-0.0238346,20,32765
1.11574,-0.351386,-0.0235322,20,32765
1.13365,-0.361065,-0.0239135,20,32765
1.12294,-0.36172,-0.0238766,20,32765
1.11223,-0.362327,-0.0237054,20,32765
1.09204,-0.359735,-0.0234499,20,32765
1.11928,-0.372862,-0.0241287,20,32765
1.10858,-0.373337,-0.0237761,20,32765
1.10735,-0.376985,-0.0238381,19,32765
1.08722,-0.374057,-0.0233057,20,32765
1.11432,-0.387447,-0.0240051,19,32765
1.09417,-0.384504,-0.0232676,20,32765
1.09287,-0.388183,-0.0232294,20,32765
1.08215,-0.388502,-0.0229622,20,32765
1.08084,-0.392135,-0.0228191,20,32765
1.08893,-0.399136,-0.0229009,20,32765
1.07823,-0.399249,-0.0225812,20,32765
1.10502,-0.413292,-0.0230289,19,32765
1.07557,-0.406383,-0.0223146,20,32765
1.06487,-0.40641,-0.021912,19,32765
1.07283,-0.413588,-0.0220009,20,32765
1.05281,-0.40993,-0.0213245,19,32765
1.04214,-0.409765,-0.0209365,19,32765
1.05007,-0.416918,-0.0209666,20,32765
1.08581,-0.435273,-0.0213639,20,32765
1.05654,-0.427652,-0.0206958,20,32765
1.07362,-0.438746,-0.0207774,20,32765
1.03518,-0.427084,-0.019809,20,32765
1.03372,-0.430614,-0.0196441,20,32765
1.0507,-0.441868,-0.019713,20,32765
1.04,-0.441511,-0.0192384,20,32765
1.04771,-0.448923,-0.0191344,21,32765
1.03704,-0.448432,-0.0187591,20,32765
1.02638,-0.4479,-0.0183566,21,32765
1.03403,-0.455373,-0.018094,20,32765
1.0142,-0.450758,-0.0175145,20,32765
1.01268,-0.454198,-0.0171162,20,32765
1.02936,-0.465856,-0.016989,20,32765
1.00959,-0.461034,-0.0164515,20,32765
1.01712,-0.468611,-0.0161578,21,32765
1.01557,-0.471981,-0.0160082,21,32765
1.01399,-0.475377,-0.0156456,21,32765
1.01239,-0.478787,-0.0153753,21,32765
1.01076,-0.482221,-0.0149411,20,32765
1.01815,-0.489952,-0.014767,20,32765
1.00753,-0.488951,-0.0142857,20,32765
1.01487,-0.496721,-0.0143376,20,32765
1.00424,-0.495696,-0.0137249,21,32765
1.00255,-0.499106,-0.0135015,21,32765
1.00084,-0.502536,-0.0131658,20,32765
1.01698,-0.51497,-0.0128596,21,32765
0.988494,-0.504811,-0.0120578,20,32765
0.995683,-0.512712,-0.0119026,21,32765
0.993956,-0.516059,-0.0115878,21,32765
1.00994,-0.528668,-0.0115394,21,32765
0.981656,-0.518011,-0.0108365,21,32765
0.971077,-0.516626,-0.0103441,20,32765
0.969285,-0.519996,-0.00953895,20,32765
0.967563,-0.523201,-0.00903994,19,32765
0.974565,-0.53127,-0.00870779,19,32765
0.98155,-0.539342,-0.00838209,18,32765
0.970994,-0.53778,-0.00790609,20,32765
0.960454,-0.536164,-0.00746803,20,32765
0.967377,-0.544271,-0.00719105,21,32765
0.956868,-0.542547,-0.00671632,20,32765
0.972403,-0.55569,-0.00647655,20,32765
0.95322,-0.54894,-0.00601449,21,32765
0.968691,-0.562144,-0.00571915,21,32765
0.958176,-0.56033,-0.00536505,20,32765
0.947694,-0.558437,-0.00490722,21,32765
0.945827,-0.561596,-0.00448091,21,32765
0.935366,-0.559619,-0.00413767,21,32765
0.942051,-0.567914,-0.0037984,22,32765
0.957225,-0.58147,-0.00348541,21,32765
0.92972,-0.568956,-0.00308167,20,32765
0.944867,-0.582511,-0.00272338,21,32765
0.942934,-0.585636,-0.0024833,20,32765
0.932554,-0.583385,-0.00206705,21,32765
0.930624,-0.586461,-0.00173173,20,32765
0.945587,-0.600219,-0.0013875,20,32765
0.935181,-0.597942,-0.00114563,21,32765
0.924796,-0.595611,-0.000758717,20,32765
0.92284,-0.598638,-0.000423034,20,32765
0.895738,-0.58528,-9.9071e-05,20,32765
0.910523,-0.599206,0.000157105,19,32765
0.933549,-0.618777,0.00051063,19,32765
0.923205,-0.616272,0.000778256,20,32765
0.921182,-0.619293,0.00106528,19,32765
0.910868,-0.616699,0.00130557,19,32765
0.917127,-0.62528,0.00168808,19,32765
0.93983,-0.645225,0.00201238,19,32765
0.913065,-0.631196,0.00212503,20,32765
0.894618,-0.622698,0.00235849,19,32765
0.892588,-0.625604,0.00255382,18,32765
0.89873,-0.634252,0.00286133,19,32765
0.896662,-0.637172,0.00301467,20,32765
0.902763,-0.64584,0.00325813,20,32765
0.90072,-0.648684,0.00345393,19,32765
0.890485,-0.645774,0.0034915,19,32765
0.888382,-0.648664,0.00364758,19,32765
1.1366,-0.350785,-0.0345934,21,32765
1.13544,-0.354491,-0.0348208,21,32765
1.13427,-0.358195,-0.0351183,20,32765
1.12358,-0.358834,-0.0348017,20,32765
1.15092,-0.371748,-0.0358538,21,32765
1.14018,-0.372449,-0.0355885,21,32765
1.12945,-0.373079,-0.0354459,20,32765
1.12819,-0.376862,-0.0355127,20,32765
1.10801,-0.37417,-0.0347669,21,32765
1.10677,-0.377825,-0.034828,21,32765
1.12444,-0.38793,-0.0352934,21,32765
1.09485,-0.381728,-0.0344926,20,32765
1.11244,-0.392002,-0.0347502,21,32765
1.12053,-0.399106,-0.0350046,21,32765
1.10036,-0.396135,-0.0343473,20,32765
1.08024,-0.393004,-0.0336162,20,32765
1.08832,-0.400019,-0.0337911,20,32765
1.09637,-0.407091,-0.0339571,21,32765
1.09503,-0.410695,-0.0338161,20,32765
1.09365,-0.414363,-0.0336842,20,32765
1.08293,-0.414451,-0.0331832,20,32765
1.0722,-0.414498,-0.0327928,20,32765
1.08012,-0.421739,-0.0327757,20,32765
1.06012,-0.417999,-0.0320069,20,32765
1.0773,-0.428926,-0.0324065,21,32765
1.0666,-0.428771,-0.0317874,20,32765
1.06516,-0.432348,-0.031665,20,32765
1.06372,-0.435915,-0.0313852,21,32765
1.07149,-0.443304,-0.0313963,21,32765
1.05153,-0.439261,-0.0306861,20,32765
1.06846,-0.450601,-0.0309368,20,32765
1.05774,-0.450305,-0.0303623,20,32765
1.04704,-0.449901,-0.0298231,20,32765
1.04555,-0.453384,-0.0296129,20,32765
1.02571,-0.448874,-0.0288559,20,32765
1.05164,-0.46444,-0.029194,20,32765
1.04093,-0.463945,-0.028673,21,32765
1.02112,-0.459283,-0.0277672,20,32765
1.04688,-0.475128,-0.0280668,21,32765
1.04527,-0.478682,-0.0278205,20,32765
1.03459,-0.478011,-0.0271279,20,32765
1.02393,-0.477224,-0.0267381,21,32765
1.04043,-0.489164,-0.026838,20,32765
1.02072,-0.484104,-0.0260977,20,32765
1.03711,-0.496204,-0.0261128,21,32765
1.04444,-0.504042,-0.0260232,21,32765
1.00682,-0.490003,-0.0247744,20,32765
1.01414,-0.497789,-0.0249188,20,32765
1.00352,-0.496761,-0.0242116,20,32765
1.01971,-0.509109,-0.0244155,21,32765
1.00904,-0.50811,-0.0238616,21,32765
1.01623,-0.516073,-0.0235306,21,32765
0.996659,-0.510449,-0.0226493,20,32765
1.00382,-0.518397,-0.0225843,21,32765
1.01094,-0.526397,-0.0224627,21,32765
1.00917,-0.529798,-0.0222062,21,32765
1.00741,-0.533147,-0.0217953,21,32765
1.00561,-0.536555,-0.0213851,20,32765
0.994948,-0.535316,-0.0203698,20,32765
0.993176,-0.538616,-0.0198562,21,32765
1.00889,-0.551587,-0.0197774,21,32765
0.963259,-0.530838,-0.0185196,20,32765
0.978961,-0.543779,-0.0184505,21,32765
0.977131,-0.547072,-0.018076,20,32765
0.992717,-0.560168,-0.0180435,21,32765
0.982162,-0.558527,-0.0174631,21,32765
0.971602,-0.556868,-0.0169456,21,32765
0.969746,-0.560105,-0.0165918,20,32765
0.959239,-0.558304,-0.0160415,20,32765
0.974617,-0.571633,-0.0160209,21,32765
0.981321,-0.579968,-0.0157373,21,32765
0.953608,-0.567899,-0.0148919,21,32765
0.960279,-0.576235,-0.0147141,21,32765
0.941229,-0.569113,-0.014073,21,32765
0.956384,-0.582697,-0.0139457,22,32765
0.954462,-0.585847,-0.0136256,22,32765
0.952527,-0.588997,-0.013206,22,32765
0.95057,-0.592156,-0.0129625,22,32765
0.940176,-0.589927,-0.0124482,21,32765
0.955127,-0.603721,-0.0123269,21,32765
0.944712,-0.60148,-0.0118409,22,32765
0.951142,-0.609994,-0.0117117,22,32765
0.940723,-0.607712,-0.0112235,22,32765
0.938725,-0.6108,-0.0108805,21,32765
0.936696,-0.613913,-0.0105523,21,32765
0.951368,-0.628005,-0.0104695,21,32765
0.932637,-0.620072,-0.00993545,20,32765
0.930603,-0.623125,-0.00965954,21,32765
0.920264,-0.620587,-0.009285,20,32765
0.918224,-0.623605,-0.00903154,21,32765
0.932705,-0.637875,-0.00881573,20,32765
0.91416,-0.629556,-0.00838708,20,32765
0.920337,-0.63821,-0.00829414,20,32765
0.91828,-0.641169,-0.00801361,20,32765
0.916186,-0.64416,-0.00781151,20,32765
0.922257,-0.652905,-0.0075881,19,32765
0.903839,-0.6443,-0.00729762,20,32765
0.909904,-0.653011,-0.00714399,20,32765
0.907835,-0.655886,-0.00694504,20,32765
0.889494,-0.647112,-0.00675077,19,32765
0.911583,-0.667735,-0.00677305,20,32765
1.1272,-0.345388,-0.0503124,19,32765
1.09745,-0.340249,-0.0484173,20,32765
1.12498,-0.352716,-0.0491246,20,32765
1.11435,-0.353289,-0.0481067,19,32765
1.07514,-0.344757,-0.0459517,20,32765
1.12152,-0.363777,-0.0474933,20,32765
1.10134,-0.361271,-0.0461477,20,32765
1.10016,-0.364893,-0.0457323,20,32765
1.08005,-0.362102,-0.0444463,19,32765
1.07887,-0.365631,-0.0440792,20,32765
1.08715,-0.372378,-0.044028,20,32765
1.08593,-0.37598,-0.0436493,20,32765
1.0658,-0.373045,-0.0424843,20,32765
1.09281,-0.386681,-0.0429745,21,32765
1.11031,-0.397157,-0.0434538,20,32765
1.07139,-0.387291,-0.0414869,20,32765
1.07949,-0.394315,-0.041409,20,32765
1.07818,-0.397916,-0.041157,19,32765
1.07688,-0.40148,-0.0406432,19,32765
1.07553,-0.405099,-0.0402483,20,32765
1.07418,-0.40871,-0.0399264,20,32765
1.05415,-0.405159,-0.0388461,20,32765
1.07144,-0.415901,-0.0392107,20,32765
1.03285,-0.404879,-0.0374712,20,32765
1.0315,-0.408327,-0.0371206,19,32765
1.06725,-0.426642,-0.038027,20,32765
1.02874,-0.415304,-0.0363343,19,32765
1.04585,-0.426338,-0.0365817,20,32765
1.05366,-0.433659,-0.0366211,20,32765
1.07064,-0.444924,-0.036904,20,32765
1.04151,-0.436924,-0.0355275,19,32765
1.04004,-0.440439,-0.0352142,20,32765
1.02015,-0.436154,-0.0342452,20,32765
1.01867,-0.439609,-0.0338744,19,32765
1.02634,-0.447073,-0.0338256,20,32765
1.0157,-0.446504,-0.0331155,20,32765
1.04161,-0.462081,-0.0336599,20,32765
1.04005,-0.465597,-0.0333319,20,32765
1.04761,-0.473181,-0.0334678,20,32765
1.03691,-0.472584,-0.0327835,20,32765
1.01716,-0.467737,-0.0317365,20,32765
1.00652,-0.466961,-0.0310917,20,32765
1.00493,-0.470389,-0.0307646,19,32765
1.01237,-0.478087,-0.0307099,20,32765
0.992702,-0.472924,-0.029768,20,32765
0.982107,-0.47193,-0.0291032,20,32765
1.0075,-0.488325,-0.0296159,21,32765
1.00585,-0.491741,-0.0292197,21,32765
1.01316,-0.499563,-0.0291923,20,32765
1.02936,-0.511926,-0.0293281,21,32765
0.991894,-0.497458,-0.0279683,20,32765
0.981296,-0.496298,-0.02731,20,32765
0.988521,-0.504166,-0.0272435,20,32765
0.995706,-0.512087,-0.027136,20,32765
0.985094,-0.510865,-0.0265902,20,32765
0.96568,-0.504879,-0.0256696,20,32765
0.963987,-0.508128,-0.0252184,20,32765
0.962293,-0.51134,-0.0249493,20,32765
0.978226,-0.523973,-0.0250157,20,32765
0.958877,-0.517755,-0.0241878,20,32765
0.974712,-0.530517,-0.0242709,20,32765
0.964161,-0.528997,-0.0235785,20,32765
0.94488,-0.522575,-0.0227442,20,32765
0.960571,-0.535521,-0.0228355,20,32765
0.976198,-0.54856,-0.0227889,20,32765
0.956979,-0.541952,-0.0219109,20,32765
0.955183,-0.545127,-0.0214766,20,32765
0.962037,-0.553291,-0.0212912,20,32765
0.951554,-0.551468,-0.0206866,21,32765
0.949705,-0.554661,-0.0202915,20,32765
0.94787,-0.557811,-0.0197431,20,32765
0.946007,-0.56098,-0.0192754,21,32765
0.944162,-0.564094,-0.0188524,20,32765
0.950892,-0.57233,-0.0185376,21,32765
0.940466,-0.570266,-0.0178997,21,32765
0.947134,-0.578556,-0.0175848,22,32765
0.936691,-0.576475,-0.0169268,21,32765
0.943292,-0.584829,-0.0166,22,32765
0.949842,-0.593242,-0.0162439,22,32765
0.939415,-0.591063,-0.0156159,21,32765
0.945925,-0.599495,-0.0151751,22,32765
0.927101,-0.591842,-0.0143935,21,32765
0.916764,-0.589454,-0.0136906,22,32765
0.940012,-0.608764,-0.0135333,22,32765
0.929642,-0.606382,-0.0128864,22,32765
0.919298,-0.60394,-0.0121526,21,32765
0.900624,-0.595943,-0.011359,20,32765
0.923618,-0.615554,-0.0110739,20,32765
0.913294,-0.613015,-0.0103636,21,32765
0.919545,-0.621643,-0.00983954,21,32765
0.90926,-0.619001,-0.0091611,21,32765
0.890732,-0.610678,-0.00835358,21,32765
0.913425,-0.630628,-0.00793077,20,32765
0.88676,-0.616446,-0.00707699,20,32765
0.909298,-0.63658,-0.00656929,20,32765
0.89089,-0.627997,-0.00583232,20,32765
0.905155,-0.64247,-0.00518751,19,32765
0.886857,-0.633692,-0.00436574,20,32765
0.901032,-0.64825,-0.00370643,20,32765
0.89884,-0.65129,-0.00284316,20,32765
0.864386,-0.630661,-0.00186037,18,32765
1.27914,-0.393128,-0.0697103,14,32765
1.23018,-0.382553,-0.0664177,14,32765
1.19087,-0.374501,-0.063769,14,32765
1.15163,-0.366207,-0.0611059,15,32765
1.12192,-0.360838,-0.0590574,20,32765
1.13023,-0.3677,-0.0590615,21,32765
1.11954,-0.36834,-0.0580147,21,32765
1.11834,-0.37203,-0.0575915,21,32765
1.11715,-0.37566,-0.0570759,21,32765
1.10647,-0.376105,-0.0562149,21,32765
1.12416,-0.386203,-0.0567221,21,32765
1.10401,-0.383384,-0.0553828,21,32765
1.13101,-0.397049,-0.0563711,22,32765
1.10143,-0.390893,-0.0543182,21,32765
1.09069,-0.391304,-0.0535958,21,32765
1.09879,-0.398376,-0.0535503,21,32765
1.11622,-0.408945,-0.0540078,22,32765
1.09612,-0.405743,-0.0528429,22,32765
1.08544,-0.405875,-0.0518724,21,32765
1.08408,-0.409533,-0.0514733,22,32765
1.09205,-0.416744,-0.0515888,21,32765
1.08133,-0.41684,-0.0507509,21,32765
1.08925,-0.424073,-0.050859,21,32765
1.07855,-0.424055,-0.050031,22,32765
1.07714,-0.427664,-0.0496637,22,32765
1.08498,-0.435021,-0.0496523,22,32765
1.07425,-0.434969,-0.0488404,22,32765
1.07278,-0.438622,-0.0484216,22,32765
1.06208,-0.438425,-0.0477164,21,32765
1.06981,-0.445902,-0.0477708,22,32765
1.0499,-0.441758,-0.0465206,21,32765
1.03921,-0.441404,-0.0457984,21,32765
1.04688,-0.448922,-0.0458477,21,32765
1.04537,-0.452477,-0.0454659,21,32765
1.04383,-0.45605,-0.0451048,21,32765
1.06059,-0.467634,-0.0454688,22,32765
1.04076,-0.463088,-0.0443333,22,32765
1.04832,-0.470703,-0.0443904,22,32765
1.04674,-0.474209,-0.0442328,21,32765
1.02696,-0.469456,-0.0430728,22,32765
1.05261,-0.485492,-0.0437268,22,32765
1.03286,-0.48062,-0.0426007,22,32765
1.02217,-0.479901,-0.0418931,21,32765
1.0386,-0.491953,-0.0422928,22,32765
1.0189,-0.486871,-0.041152,21,32765
1.02627,-0.494642,-0.0411031,22,32765
1.03359,-0.502485,-0.0411666,23,32765
1.03189,-0.505999,-0.0407588,22,32765
1.03914,-0.513927,-0.0408161,22,32765
1.01056,-0.504103,-0.0393853,22,32765
1.01779,-0.511999,-0.0393839,22,32765
1.02498,-0.519968,-0.0393036,22,32765
1.01432,-0.5189,-0.0386375,22,32765
0.994802,-0.513182,-0.0376056,21,32765
0.993059,-0.516568,-0.0372983,22,32765
1.0002,-0.524523,-0.0371727,22,32765
0.989602,-0.523226,-0.0363792,22,32765
0.996677,-0.531234,-0.0364239,22,32765
0.986113,-0.529818,-0.0357057,21,32765
0.984337,-0.533135,-0.035317,21,32765
0.982557,-0.536433,-0.034952,21,32765
0.989508,-0.544577,-0.0347765,21,32765
1.00515,-0.557625,-0.0349589,22,32765
0.977086,-0.546412,-0.03371,21,32765
0.99266,-0.559536,-0.0338408,21,32765
0.990804,-0.562846,-0.0333516,21,32765
0.962914,-0.551244,-0.0320347,21,32765
0.96108,-0.554458,-0.0316529,21,32765
0.967884,-0.562678,-0.0315168,21,32765
0.983247,-0.576041,-0.031669,21,32765
0.955517,-0.564066,-0.0302812,20,32765
0.970816,-0.577491,-0.0303453,21,32765
0.951767,-0.570418,-0.0293803,20,32765
0.967025,-0.583865,-0.0294137,21,32765
0.96511,-0.587048,-0.0289289,21,32765
0.954668,-0.584992,-0.0281899,21,32765
0.952718,-0.588185,-0.0276802,20,32765
0.942293,-0.586052,-0.0269513,20,32765
0.923415,-0.578558,-0.0259726,18,32765
0.929954,-0.586961,-0.0257312,18,32765
0.953342,-0.606111,-0.0258453,18,32765
0.934514,-0.598468,-0.0248715,19,32765
0.94097,-0.60694,-0.0245068,20,32765
0.930598,-0.604585,-0.0237576,20,32765
0.936982,-0.613119,-0.0234397,21,32765
0.943322,-0.621702,-0.0230136,21,32765
0.916279,-0.608241,-0.0218183,20,32765
0.930894,-0.62239,-0.0216079,20,32765
0.928851,-0.625456,-0.0209853,21,32765
0.943327,-0.639768,-0.0207239,21,32765
0.924737,-0.631563,-0.0197588,20,32765
0.914426,-0.628942,-0.0189227,20,32765
0.920593,-0.637627,-0.0184314,21,32765
0.910338,-0.634881,-0.0176087,20,32765
0.916424,-0.643643,-0.0170557,20,32765
0.906177,-0.640842,-0.0162724,20,32765
0.895948,-0.637997,-0.0153799,19,32765
0.902066,-0.646652,-0.0147772,19,32765
0.875642,-0.632032,-0.0136575,20,32765
0.889684,-0.646755,-0.013054,20,32765
0.9037,-0.661493,-0.0123691,20,32765
1.14591,-0.351529,-0.0575667,19,32765
1.13521,-0.352292,-0.0572569,18,32765
1.16264,-0.364966,-0.0588467,19,32765
1.10432,-0.350597,-0.0561378,18,32765
1.10316,-0.354224,-0.0562747,20,32765
1.1115,-0.36092,-0.0567028,20,32765
1.11979,-0.367704,-0.0571908,20,32765
1.12802,-0.374615,-0.0577209,21,32765
1.09837,-0.368793,-0.0562651,20,32765
1.12554,-0.382009,-0.0576999,20,32765
1.09595,-0.375945,-0.056191,21,32765
1.09472,-0.379535,-0.0560615,21,32765
1.11227,-0.389877,-0.0570672,21,32765
1.10152,-0.390352,-0.0564718,20,32765
1.07198,-0.383993,-0.0548544,21,32765
1.08008,-0.390998,-0.0551955,21,32765
1.06003,-0.387708,-0.0541067,21,32765
1.08685,-0.401609,-0.0554776,20,32765
1.09489,-0.408673,-0.0557743,21,32765
1.08419,-0.408766,-0.0551422,21,32765
1.07348,-0.408855,-0.0544988,20,32765
1.05348,-0.405251,-0.0533986,20,32765
1.06143,-0.412404,-0.0536854,21,32765
1.05076,-0.41232,-0.0529218,20,32765
1.06794,-0.423227,-0.0536685,20,32765
1.04799,-0.419373,-0.0524626,21,32765
1.03732,-0.419149,-0.0518283,21,32765
1.05441,-0.430195,-0.052444,21,32765
1.04371,-0.429984,-0.0517882,21,32765
1.03304,-0.429685,-0.0510293,21,32765
1.05,-0.440934,-0.0516708,21,32765
1.05775,-0.448319,-0.0517582,20,32765
1.02867,-0.44012,-0.0502548,20,32765
1.03638,-0.447535,-0.0502607,20,32765
1.05317,-0.459054,-0.0509443,21,32765
1.04248,-0.458616,-0.0501286,20,32765
1.02267,-0.454038,-0.0489225,21,32765
1.02113,-0.457537,-0.0486027,21,32765
1.03781,-0.469196,-0.0491425,22,32765
1.03623,-0.472689,-0.0489002,21,32765
1.04375,-0.480303,-0.0489232,22,32765
1.02404,-0.475371,-0.0476913,21,32765
1.00435,-0.470338,-0.0465079,21,32765
1.02086,-0.482231,-0.0469326,21,32765
1.01024,-0.481348,-0.0461146,21,32765
1.01763,-0.489079,-0.04625,21,32765
1.007,-0.488146,-0.0455045,21,32765
1.01431,-0.495988,-0.0454338,22,32765
1.00366,-0.495057,-0.0445635,21,32765
0.984073,-0.489605,-0.0434404,22,32765
1.00028,-0.501924,-0.043753,22,32765
0.971844,-0.491771,-0.0421926,21,32765
0.987966,-0.504185,-0.0426699,22,32765
0.977388,-0.502953,-0.0418441,21,32765
0.97569,-0.506268,-0.041478,21,32765
0.991713,-0.518805,-0.0418051,22,32765
0.981144,-0.517471,-0.0409914,22,32765
0.979389,-0.520815,-0.0406083,22,32765
0.968846,-0.519379,-0.0397881,22,32765
0.975911,-0.527372,-0.0396922,22,32765
0.974157,-0.530633,-0.0393369,22,32765
0.963636,-0.529075,-0.0385249,22,32765
0.961858,-0.532324,-0.0382113,21,32765
0.960077,-0.535561,-0.0377653,21,32765
0.940862,-0.528994,-0.0366495,21,32765
0.939111,-0.532128,-0.0361918,20,32765
0.954725,-0.545141,-0.0363418,21,32765
0.952887,-0.548368,-0.0360446,21,32765
0.968352,-0.561583,-0.0362983,22,32765
0.957834,-0.559809,-0.0356042,21,32765
0.955966,-0.563022,-0.0351412,20,32765
0.936895,-0.556027,-0.034068,20,32765
0.935026,-0.559184,-0.033764,20,32765
0.941724,-0.567472,-0.0336337,20,32765
0.93985,-0.570588,-0.0333325,21,32765
0.937985,-0.573679,-0.0328001,20,32765
0.919093,-0.566257,-0.0319479,21,32765
0.934212,-0.579839,-0.032181,20,32765
0.940782,-0.588224,-0.0319563,19,32765
0.955713,-0.602058,-0.0322105,18,32765
0.953714,-0.605241,-0.0318233,16,32765
0.960164,-0.613745,-0.0316626,16,32765
0.916108,-0.589871,-0.0299733,18,32765
0.922579,-0.598294,-0.0298767,19,32765
0.920609,-0.601339,-0.0295126,20,32765
0.90193,-0.593384,-0.0285945,20,32765
0.933296,-0.618464,-0.0293435,21,32765
0.90629,-0.604929,-0.0282758,20,32765
0.887715,-0.596751,-0.0273919,20,32765
0.927142,-0.6277,-0.0283014,20,32765
0.892075,-0.608178,-0.0268647,20,32765
0.898385,-0.616671,-0.026855,20,32765
0.904616,-0.625259,-0.0268446,21,32765
0.886167,-0.616785,-0.0261536,20,32765
0.892301,-0.625477,-0.0260239,20,32765
0.882062,-0.622672,-0.0254221,19,32765
0.871906,-0.619722,-0.0249699,19,32765
0.878045,-0.62834,-0.0250261,19,32765
0.884172,-0.636957,-0.0249909,20,32765
0.890233,-0.645643,-0.0251021,20,32765
0.880092,-0.642598,-0.0246087,20,32765
1.26908,-0.39052,-0.0762792,13,32765
1.22013,-0.379818,-0.0735932,14,32765
1.17126,-0.368813,-0.0708649,13,32765
1.15102,-0.366557,-0.0699046,13,32765
1.10229,-0.355044,-0.0671518,20,32765
1.13909,-0.37103,-0.069408,21,32765
1.12837,-0.371675,-0.068832,21,32765
1.12711,-0.375476,-0.0688763,21,32765
1.1164,-0.376013,-0.0682959,20,32765
1.10571,-0.376449,-0.0676961,21,32765
1.12336,-0.38655,-0.0687965,21,32765
1.08438,-0.377123,-0.0663548,20,32765
1.0925,-0.384142,-0.0669691,20,32765
1.10058,-0.39124,-0.0674337,20,32765
1.10865,-0.398369,-0.0678337,21,32765
1.09792,-0.398699,-0.0671154,21,32765
1.11535,-0.409217,-0.0681259,21,32765
1.0859,-0.402516,-0.0663418,21,32765
1.08458,-0.406093,-0.0661608,21,32765
1.11125,-0.420281,-0.0677115,21,32765
1.09119,-0.416899,-0.0664015,21,32765
1.0898,-0.420536,-0.0662427,21,32765
1.07909,-0.420577,-0.0654865,21,32765
1.07768,-0.424212,-0.0651852,21,32765
1.08553,-0.431547,-0.0655529,22,32765
1.07483,-0.431465,-0.0647118,21,32765
1.06412,-0.431333,-0.0639783,21,32765
1.07192,-0.438713,-0.0642185,21,32765
1.06119,-0.438563,-0.0634647,21,32765
1.0505,-0.438325,-0.0626058,21,32765
1.06742,-0.44966,-0.0634287,21,32765
1.04756,-0.445399,-0.0619715,21,32765
1.05522,-0.452903,-0.0623568,21,32765
1.03539,-0.448518,-0.0608287,21,32765
1.05216,-0.46006,-0.0616982,21,32765
1.03233,-0.455589,-0.0602548,20,32765
1.04904,-0.467219,-0.0609849,21,32765
1.03834,-0.466724,-0.0601281,21,32765
1.04588,-0.474343,-0.0603235,21,32765
1.0352,-0.473718,-0.0595556,20,32765
1.03364,-0.477161,-0.0591522,21,32765
1.04112,-0.484834,-0.0592824,21,32765
1.05757,-0.496836,-0.0599547,21,32765
1.0469,-0.496104,-0.0590171,21,32765
1.04525,-0.499617,-0.058599,21,32765
1.02558,-0.494472,-0.0573088,20,32765
1.02392,-0.497933,-0.0569656,20,32765
1.01326,-0.497055,-0.055988,21,32765
1.03842,-0.513839,-0.0569884,21,32765
1.00985,-0.504037,-0.0551772,21,32765
0.990305,-0.498508,-0.0537267,20,32765
1.00644,-0.510908,-0.054291,21,32765
1.0047,-0.514366,-0.0539877,21,32765
1.01184,-0.522355,-0.054007,20,32765
1.00122,-0.521185,-0.053156,21,32765
1.02602,-0.538478,-0.0541239,21,32765
0.988905,-0.523243,-0.0518122,21,32765
1.01357,-0.54073,-0.0528019,21,32765
0.994172,-0.534676,-0.0514159,20,32765
0.983612,-0.533251,-0.0504981,21,32765
0.981837,-0.536546,-0.0501385,21,32765
0.971307,-0.535014,-0.049228,20,32765
0.978241,-0.543147,-0.049351,21,32765
0.967706,-0.541569,-0.0484594,20,32765
0.957192,-0.539925,-0.0475846,20,32765
0.981461,-0.557935,-0.0484024,20,32765
0.970963,-0.55622,-0.0474434,20,32765
0.960432,-0.554515,-0.0467187,20,32765
0.975856,-0.567786,-0.047154,21,32765
0.973945,-0.571089,-0.0467761,21,32765
0.937631,-0.554034,-0.0446646,20,32765
0.95295,-0.567414,-0.045035,21,32765
0.959608,-0.575774,-0.045127,21,32765
0.96624,-0.584164,-0.0450767,20,32765
0.964309,-0.587371,-0.044766,21,32765
0.970906,-0.595778,-0.0446093,21,32765
0.943461,-0.583197,-0.0431711,21,32765
0.941536,-0.586325,-0.0428081,21,32765
0.93961,-0.589445,-0.0422898,20,32765
0.929172,-0.587289,-0.0415944,20,32765
0.944079,-0.601127,-0.0419656,21,32765
0.958942,-0.615014,-0.0422715,21,32765
0.931722,-0.601935,-0.0408516,20,32765
0.929765,-0.604979,-0.0404753,21,32765
0.927771,-0.608057,-0.0401066,20,32765
0.942451,-0.622135,-0.0404288,21,32765
0.932065,-0.619737,-0.0397596,21,32765
0.9383,-0.628417,-0.0398211,21,32765
0.944524,-0.637096,-0.0397832,21,32765
0.934159,-0.634604,-0.039059,21,32765
0.92386,-0.631996,-0.0382704,21,32765
0.93008,-0.64061,-0.0383427,22,32765
0.928007,-0.643625,-0.0380775,21,32765
0.917711,-0.640936,-0.0375285,21,32765
0.915576,-0.644004,-0.037145,20,32765
0.905285,-0.641274,-0.0364388,20,32765
0.895077,-0.638395,-0.0358861,20,32765
0.90114,-0.647107,-0.0360287,20,32765
0.899094,-0.649963,-0.0357554,20,32765
0.897015,-0.652835,-0.0356346,20,32765
0.88686,-0.649808,-0.0350444,20,32765
1.32598,-0.405096,-0.0988311,12,32765
1.24845,-0.385962,-0.0922908,11,32765
1.09485,-0.342549,-0.0803507,14,32765
1.22689,-0.388366,-0.0895237,13,32765
1.17814,-0.377224,-0.0853159,13,32765
1.06303,-0.34422,-0.076632,15,32765
1.09987,-0.360113,-0.07881,19,32765
1.10817,-0.366905,-0.0789634,19,32765
1.10697,-0.370612,-0.0785196,18,32765
1.06794,-0.361548,-0.0753551,18,32765
1.05733,-0.361876,-0.0741787,20,32765
1.11274,-0.384915,-0.0777612,20,32765
1.07381,-0.37546,-0.0746207,20,32765
1.08198,-0.382356,-0.0749276,20,32765
1.09011,-0.389385,-0.0750748,20,32765
1.07003,-0.386315,-0.0734084,20,32765
1.05937,-0.386521,-0.0723163,19,32765
1.08617,-0.400485,-0.0738377,20,32765
1.07549,-0.400651,-0.0727749,19,32765
1.07416,-0.404277,-0.0723793,20,32765
1.05416,-0.400793,-0.0707879,19,32765
1.07149,-0.411446,-0.0715488,20,32765
1.07013,-0.415039,-0.0711606,20,32765
1.04087,-0.407706,-0.0690297,20,32765
1.05807,-0.418572,-0.0698539,20,32765
1.07521,-0.429552,-0.0707581,20,32765
1.05527,-0.425714,-0.0690819,19,32765
1.04462,-0.425476,-0.0681684,20,32765
1.05243,-0.432804,-0.0683548,20,32765
1.06019,-0.44022,-0.0686266,20,32765
1.05872,-0.443812,-0.0681877,21,32765
1.02045,-0.431866,-0.0654367,20,32765
1.03736,-0.443144,-0.066352,20,32765
1.03589,-0.44665,-0.065876,20,32765
1.02522,-0.4462,-0.064997,20,32765
1.00543,-0.441674,-0.0635629,20,32765
1.03132,-0.457241,-0.0649236,21,32765
1.01152,-0.452656,-0.0634597,20,32765
1.0191,-0.460209,-0.0636423,20,32765
1.02662,-0.467833,-0.0638938,21,32765
1.01599,-0.467121,-0.0629401,20,32765
1.01445,-0.470521,-0.062536,20,32765
0.994782,-0.465472,-0.0611877,20,32765
1.02033,-0.481597,-0.0624587,21,32765
1.00064,-0.476531,-0.0610686,20,32765
1.01702,-0.488611,-0.0618045,20,32765
0.988407,-0.479043,-0.0597437,21,32765
1.00473,-0.491195,-0.0604482,20,32765
0.985175,-0.485748,-0.0589803,20,32765
1.00142,-0.497986,-0.0597824,20,32765
1.00868,-0.505835,-0.0599967,20,32765
0.998055,-0.504782,-0.0589989,21,32765
1.01412,-0.517295,-0.0596874,20,32765
0.994614,-0.511618,-0.0582191,20,32765
0.984027,-0.510397,-0.05732,20,32765
0.964641,-0.504421,-0.0559284,20,32765
0.98064,-0.516962,-0.056522,20,32765
0.961257,-0.510922,-0.0551778,20,32765
0.977152,-0.523606,-0.0557788,20,32765
0.984201,-0.531631,-0.0558298,21,32765
0.964901,-0.525354,-0.0544901,21,32765
0.971964,-0.533309,-0.0544698,20,32765
0.943997,-0.522021,-0.0525656,20,32765
0.950996,-0.530031,-0.0526674,19,32765
0.957906,-0.538178,-0.0527273,20,32765
0.973481,-0.55128,-0.0531566,20,32765
0.945633,-0.539682,-0.0512007,20,32765
0.943818,-0.542884,-0.0508411,20,32765
0.950677,-0.551026,-0.0508307,20,32765
0.94021,-0.549189,-0.0499798,20,32765
0.946991,-0.557424,-0.0498639,20,32765
0.936536,-0.555523,-0.0489349,20,32765
0.934683,-0.558686,-0.0483549,20,32765
0.932847,-0.561785,-0.0478872,20,32765
0.956633,-0.580405,-0.0488184,20,32765
0.946242,-0.57831,-0.0477911,20,32765
0.927339,-0.570956,-0.0463778,20,32765
0.916967,-0.568783,-0.0453625,20,32765
0.940515,-0.587707,-0.0461672,20,32765
0.921666,-0.580196,-0.0447681,20,32765
0.919795,-0.583202,-0.0441859,20,32765
0.917904,-0.586214,-0.0436482,21,32765
0.915992,-0.589247,-0.0429672,21,32765
0.905701,-0.586807,-0.041983,20,32765
0.912146,-0.595261,-0.0418742,21,32765
0.926915,-0.609232,-0.0420077,20,32765
0.908267,-0.601254,-0.0405693,20,32765
0.906283,-0.60428,-0.039953,20,32765
0.929199,-0.623985,-0.0403867,21,32765
0.894043,-0.604662,-0.0383501,21,32765
0.916876,-0.624445,-0.0388055,22,32765
0.914874,-0.627424,-0.0380055,22,32765
0.904596,-0.624767,-0.0370409,21,32765
0.902599,-0.627695,-0.0362561,22,32765
0.89239,-0.624897,-0.0352658,19,32765
0.890361,-0.627823,-0.0345689,20,32765
0.880169,-0.624967,-0.0334459,19,32765
0.869973,-0.622096,-0.0323178,19,32765
0.867927,-0.624986,-0.0315321,20,32765
0.874002,-0.633688,-0.0309805,20,32765
0.888178,-0.648228,-0.0306549,19,32765
1.13405,-0.347642,-0.0957474,20,32765
1.13295,-0.351446,-0.0949731,20,32765
1.11278,-0.349337,-0.0926969,20,32765
1.14015,-0.362129,-0.0945069,21,32765
1.1295,-0.362871,-0.0930109,19,32765
1.09989,-0.357356,-0.0902227,19,32765
1.10823,-0.364072,-0.0904364,20,32765
1.11651,-0.370909,-0.0906782,19,32765
1.10585,-0.371479,-0.0894653,21,32765
1.11407,-0.378427,-0.089728,21,32765
1.12227,-0.385387,-0.0899465,21,32765
1.12103,-0.389077,-0.089551,22,32765
1.11035,-0.389533,-0.0882757,22,32765
1.09967,-0.389903,-0.0871731,21,32765
1.09838,-0.393646,-0.0866637,21,32765
1.11581,-0.404184,-0.0877559,21,32765
1.09574,-0.401119,-0.0858164,21,32765
1.10375,-0.40832,-0.0861436,21,32765
1.08371,-0.405056,-0.0842528,21,32765
1.10103,-0.415767,-0.0852987,21,32765
1.08101,-0.412367,-0.0835106,20,32765
1.06105,-0.408791,-0.0815824,20,32765
1.069,-0.415976,-0.081909,20,32765
1.06761,-0.419569,-0.0816262,20,32765
1.05694,-0.419513,-0.080507,20,32765
1.0648,-0.426804,-0.0808937,20,32765
1.06338,-0.430409,-0.0804327,20,32765
1.05272,-0.4302,-0.0794221,20,32765
1.04206,-0.429964,-0.0783114,20,32765
1.04061,-0.433527,-0.0779884,20,32765
1.06675,-0.448665,-0.0796152,21,32765
1.04687,-0.444521,-0.0778521,20,32765
1.04538,-0.448054,-0.077585,20,32765
1.07136,-0.463481,-0.079133,21,32765
1.05151,-0.459161,-0.0774753,20,32765
1.05908,-0.466789,-0.0778595,20,32765
1.03927,-0.462299,-0.07614,21,32765
1.04678,-0.469995,-0.0764806,21,32765
1.0452,-0.473569,-0.0760801,20,32765
1.02544,-0.468854,-0.0744392,21,32765
1.01482,-0.468139,-0.0733912,20,32765
1.04041,-0.484175,-0.0749411,21,32765
1.02072,-0.479205,-0.0733987,21,32765
1.03717,-0.491183,-0.0742919,21,32765
1.01748,-0.486167,-0.072709,21,32765
1.01582,-0.489666,-0.0723435,20,32765
1.00518,-0.488804,-0.0712747,21,32765
1.01249,-0.496647,-0.0715248,21,32765
1.00188,-0.495643,-0.0704952,21,32765
1.027,-0.512422,-0.0721048,21,32765
0.989621,-0.497946,-0.0692818,21,32765
0.996836,-0.505861,-0.0694382,21,32765
0.995107,-0.509305,-0.0690783,21,32765
1.00226,-0.517287,-0.0692691,21,32765
0.991659,-0.516092,-0.0682723,21,32765
1.00763,-0.528681,-0.069115,21,32765
0.988233,-0.522727,-0.0674649,20,32765
0.995274,-0.530794,-0.0677283,21,32765
0.984704,-0.529441,-0.0667127,20,32765
0.982946,-0.532755,-0.0662601,20,32765
0.989945,-0.540821,-0.0664984,21,32765
0.979457,-0.539248,-0.0653886,21,32765
0.960233,-0.532808,-0.0637799,20,32765
0.967184,-0.540891,-0.0639666,20,32765
0.982742,-0.554016,-0.0646832,21,32765
0.954839,-0.542571,-0.062445,20,32765
0.953047,-0.545773,-0.0619071,21,32765
0.959858,-0.554,-0.0621024,21,32765
0.98393,-0.572255,-0.0632856,21,32765
0.964788,-0.56548,-0.0617746,21,32765
0.95431,-0.563662,-0.0606423,21,32765
0.961006,-0.571999,-0.0606987,21,32765
0.950535,-0.570118,-0.0595652,21,32765
0.940115,-0.568115,-0.0585554,21,32765
0.963843,-0.5868,-0.0597609,21,32765
0.961957,-0.589948,-0.0591578,22,32765
0.951537,-0.587883,-0.0580658,21,32765
0.941121,-0.58579,-0.0569402,21,32765
0.964577,-0.604836,-0.0580102,21,32765
0.945695,-0.597393,-0.0564085,21,32765
0.94377,-0.600486,-0.0558094,21,32765
0.950232,-0.608975,-0.0557491,21,32765
0.939856,-0.606708,-0.054555,21,32765
0.937896,-0.609788,-0.0539422,21,32765
0.944253,-0.618369,-0.0539068,21,32765
0.942246,-0.621478,-0.0532595,21,32765
0.931904,-0.619065,-0.052087,21,32765
0.929863,-0.62218,-0.0514527,20,32765
0.927832,-0.625258,-0.0507858,21,32765
0.917519,-0.622725,-0.0497206,21,32765
0.915515,-0.625716,-0.0491096,20,32765
0.897051,-0.617373,-0.0474384,20,32765
0.911453,-0.631728,-0.0476798,21,32765
0.974981,-0.680431,-0.0502663,17,32765
0.923743,-0.649143,-0.047046,17,32765
0.921636,-0.652182,-0.0463224,18,32765
0.895105,-0.63783,-0.0442711,19,32765
0.893,-0.640832,-0.0434288,20,32765
0.890895,-0.643809,-0.0426203,20,32765
0.8969,-0.652606,-0.0421371,21,32765
0.88681,-0.649537,-0.0408576,20,32765
1.1155,-0.341261,-0.0899604,16,32765
1.1239,-0.34781,-0.090945,15,32765
1.1037,-0.345549,-0.0896404,17,32765
1.09305,-0.346163,-0.0889138,16,32765
1.05391,-0.337608,-0.0859554,16,32765
1.04328,-0.338093,-0.0852331,16,32765
1.08005,-0.353958,-0.0883827,17,32765
1.05993,-0.351294,-0.0868337,16,32765
1.09658,-0.367459,-0.0898671,20,32765
1.09538,-0.371057,-0.0898284,21,32765
1.0847,-0.371483,-0.0890777,21,32765
1.13058,-0.391391,-0.0927977,21,32765
1.12924,-0.395242,-0.0927237,21,32765
1.09972,-0.389048,-0.0903132,21,32765
1.08904,-0.38935,-0.0893754,20,32765
1.1065,-0.399762,-0.0908785,20,32765
1.06772,-0.389751,-0.0875603,20,32765
1.08511,-0.400279,-0.0889585,19,32765
1.06508,-0.397001,-0.0871181,19,32765
1.07308,-0.40411,-0.0876976,20,32765
