x, y, z, intensity, ring
10.3054,-5.15291,-1.58223,14,32765
10.2528,-5.17069,-1.57214,15,32765
10.3062,-5.24221,-1.57836,14,32765
10.2178,-5.24224,-1.56332,15,32765
10.1824,-5.26904,-1.55587,15,32765
10.165,-5.30418,-1.55033,14,32765
10.1297,-5.33019,-1.5429,14,32765
10.103,-5.36066,-1.53762,14,32765
10.0505,-5.37647,-1.52662,14,32765
10.0154,-5.40133,-1.51913,14,32765
10.0588,-5.46834,-1.52294,15,32765
9.99746,-5.47861,-1.51185,15,32765
10.0143,-5.53183,-1.51114,14,32765
9.96167,-5.54627,-1.50131,14,32765
9.90876,-5.56104,-1.49096,14,32765
9.83879,-5.56541,-1.47796,14,32765
9.92373,-5.65817,-1.48837,15,32765
9.88784,-5.68237,-1.48029,14,32765
9.78332,-5.66652,-1.46188,15,32765
9.76494,-5.69957,-1.45633,15,32765
9.83215,-5.78272,-1.46254,14,32765
9.81319,-5.81619,-1.45714,15,32765
9.77689,-5.83938,-1.45067,15,32765
9.75813,-5.87234,-1.44395,14,32765
9.68826,-5.8744,-1.43019,14,32765
9.66933,-5.90716,-1.42334,14,32765
9.63336,-5.92928,-1.41493,14,32765
9.6983,-6.01433,-1.42155,14,32765
9.67879,-6.04698,-1.41595,15,32765
9.65941,-6.07963,-1.40854,15,32765
9.57277,-6.06969,-1.39188,15,32765
9.6203,-6.14426,-1.39564,15,32765
9.60045,-6.17673,-1.389,15,32765
9.54746,-6.18714,-1.37732,15,32765
9.47797,-6.1863,-1.36301,15,32765
9.52469,-6.26147,-1.36557,14,32765
9.52147,-6.30405,-1.36033,15,32765
9.46812,-6.31411,-1.34844,14,32765
9.44782,-6.34596,-1.34131,14,32765
9.49343,-6.42183,-1.34403,15,32765
9.44026,-6.43113,-1.33118,14,32765
9.38702,-6.44029,-1.31839,15,32765
9.47267,-6.54517,-1.32563,15,32765
9.41122,-6.54822,-1.31201,14,32765
9.43175,-6.60724,-1.30944,15,32765
9.44377,-6.66102,-1.30493,15,32765
9.39094,-6.66856,-1.29176,15,32765
9.40214,-6.72303,-1.28744,14,32765
9.45378,-6.80626,-1.28809,15,32765
9.48068,-6.87266,-1.28515,15,32765
9.47548,-6.91562,-1.27655,14,32765
9.47026,-6.9584,-1.26779,14,32765
11.1274,-3.41619,-1.93652,30,32765
11.0974,-3.44742,-1.9319,30,32765
11.1432,-3.50161,-1.93757,30,32765
11.0754,-3.52117,-1.92508,29,32765
11.0547,-3.55557,-1.9194,28,32765
11.015,-3.58406,-1.91113,27,32765
10.9751,-3.61233,-1.90307,24,32765
10.9261,-3.63704,-1.89241,23,32765
10.8771,-3.6613,-1.88169,23,32765
10.8841,-3.70428,-1.88047,23,32765
10.8162,-3.7223,-1.86611,19,32765
10.7481,-3.74017,-1.85186,19,32765
10.7359,-3.77723,-1.84759,20,32765
10.6958,-3.80431,-1.83767,17,32765
10.6464,-3.82727,-1.82716,18,32765
10.6154,-3.85719,-1.8188,18,32765
10.5565,-3.87659,-1.80706,17,32765
10.4329,-3.87148,-1.78303,20,32765
10.3001,-3.86208,-1.75815,33,32765
10.3615,-3.92514,-1.76634,23,32765
10.4684,-4.00715,-1.78272,17,32765
10.4368,-4.03612,-1.77521,18,32765
10.4972,-4.1012,-1.78238,16,32765
10.4104,-4.10837,-1.76464,17,32765
10.3971,-4.14385,-1.75994,17,32765
10.3378,-4.16101,-1.74746,17,32765
10.306,-4.18874,-1.74002,17,32765
10.3108,-4.23143,-1.73802,16,32765
10.2787,-4.2594,-1.73046,17,32765
10.2097,-4.27244,-1.71692,16,32765
10.1588,-4.29333,-1.70616,16,32765
10.2532,-4.37628,-1.71981,16,32765
3.42193,-1.47478,-0.573022,31,32765
3.31729,-1.44337,-0.554873,19,32765
10.1911,-4.47575,-1.70206,28,32765
10.1582,-4.50288,-1.69471,23,32765
10.0531,-4.49762,-1.67517,17,32765
10.0112,-4.52001,-1.66678,16,32765
9.99627,-4.55472,-1.66169,17,32765
9.98111,-4.58933,-1.65758,16,32765
9.92985,-4.60758,-1.64714,16,32765
9.89642,-4.63402,-1.63987,17,32765
9.86303,-4.66013,-1.63239,17,32765
9.84739,-4.69459,-1.62809,17,32765
9.79613,-4.71146,-1.61803,17,32765
9.79827,-4.75412,-1.61624,17,32765
9.76451,-4.7795,-1.6096,16,32765
9.73996,-4.80859,-1.60342,17,32765
9.68847,-4.8246,-1.59389,17,32765
9.70816,-4.87536,-1.59464,17,32765
9.67425,-4.90008,-1.58732,17,32765
9.64021,-4.92477,-1.58007,17,32765
9.60583,-4.94969,-1.57319,18,32765
9.53635,-4.95619,-1.56008,18,32765
9.51997,-4.98921,-1.55486,18,32765
9.48577,-5.01307,-1.54753,18,32765
9.52128,-5.07399,-1.55235,17,32765
9.42622,-5.06446,-1.53419,17,32765
9.40956,-5.09671,-1.52963,18,32765
9.43648,-5.15236,-1.53156,17,32765
9.40223,-5.1749,-1.52449,17,32765
9.37673,-5.20223,-1.51747,17,32765
9.30792,-5.20492,-1.50475,17,32765
9.30797,-5.24669,-1.5027,18,32765
9.29081,-5.27842,-1.49777,17,32765
9.2905,-5.32031,-1.4957,18,32765
9.23861,-5.33252,-1.48501,17,32765
9.24674,-5.37921,-1.48389,17,32765
9.20364,-5.39552,-1.47451,17,32765
9.16928,-5.41653,-1.46563,17,32765
9.12597,-5.43264,-1.45649,16,32765
9.15044,-5.48926,-1.45957,17,32765
9.08193,-5.48947,-1.44516,17,32765
9.08112,-5.53052,-1.44201,17,32765
9.12244,-5.59762,-1.44493,16,32765
9.02006,-5.57629,-1.42599,16,32765
9.09436,-5.66471,-1.43518,17,32765
9.0424,-5.67436,-1.42461,17,32765
9.05773,-5.72615,-1.42294,18,32765
9.02257,-5.74616,-1.41381,17,32765
9.0209,-5.78698,-1.41078,17,32765
8.98555,-5.80676,-1.40194,17,32765
8.9172,-5.80437,-1.38772,18,32765
8.96517,-5.8776,-1.39132,17,32765
8.94649,-5.90753,-1.38471,17,32765
8.92785,-5.93734,-1.37754,17,32765
8.87576,-5.94547,-1.36571,17,32765
8.88954,-5.99763,-1.36404,18,32765
8.89507,-6.04395,-1.36157,18,32765
8.81863,-6.03451,-1.3451,17,32765
8.85662,-6.10359,-1.34611,17,32765
8.83711,-6.13339,-1.33889,17,32765
8.80961,-6.15713,-1.33023,16,32765
8.84749,-6.22577,-1.33105,17,32765
8.86064,-6.27779,-1.32744,17,32765
8.83332,-6.3008,-1.31802,16,32765
8.83756,-6.34777,-1.31336,17,32765
8.83389,-6.38862,-1.30703,16,32765
8.79778,-6.40638,-1.29577,16,32765
8.81804,-6.46483,-1.29162,17,32765
0,-0,-0,0,32765
11.7519,0.078389,2.0524,41,32765
11.7521,0.0403214,2.0523,41,32765
11.7424,0.0023329,2.04974,39,32765
11.7426,-0.0371619,2.04859,39,32765
11.7527,-0.0761727,2.04795,42,32765
11.733,-0.115298,2.04264,41,32765
11.7229,-0.154194,2.03984,39,32765
11.7226,-0.193361,2.03786,39,32765
11.7322,-0.23308,2.03698,41,32765
11.7218,-0.271666,2.03356,39,32765
11.7214,-0.30964,2.03057,38,32765
11.7207,-0.347384,2.02831,39,32765
11.7197,-0.385353,2.0275,40,32765
11.6892,-0.422783,2.01996,39,32765
11.7079,-0.461664,2.02097,38,32765
11.6868,-0.499325,2.01635,39,32765
11.7052,-0.538611,2.01753,38,32765
11.6842,-0.575284,2.01116,39,32765
11.6824,-0.613734,2.01063,38,32765
11.6608,-0.650607,2.00595,39,32765
11.6787,-0.690376,2.00731,38,32765
11.6765,-0.72872,2.00651,39,32765
11.6742,-0.766797,2.00524,39,32765
11.672,-0.804753,2.00348,38,32765
11.6501,-0.841101,1.99783,39,32765
11.667,-0.880905,2.00066,38,32765
11.6346,-0.917181,1.99486,27,32765
11.2779,-0.926361,1.93412,14,32765
11.5895,-0.990914,1.98529,20,32765
11.655,-1.03493,1.99688,38,32765
11.6322,-1.07139,1.99171,39,32765
11.6287,-1.10964,1.99086,38,32765
11.6252,-1.14735,1.99031,39,32765
11.6214,-1.18531,1.99005,39,32765
11.6372,-1.22518,1.99282,38,32765
11.6137,-1.26097,1.98858,39,32765
11.6097,-1.29927,1.98732,40,32765
11.6248,-1.33974,1.99162,38,32765
11.6303,-1.37912,1.99203,40,32765
11.5963,-1.41348,1.98731,39,32765
11.5919,-1.45145,1.98573,39,32765
11.587,-1.49006,1.98585,39,32765
11.5817,-1.52898,1.98723,39,32765
11.5766,-1.56787,1.98664,39,32765
11.5713,-1.60577,1.98703,39,32765
11.5854,-1.64587,1.99161,39,32765
11.5605,-1.68038,1.98828,39,32765
11.5843,-1.72208,1.99329,40,32765
11.5687,-1.7591,1.99193,40,32765
11.5626,-1.79754,1.993,40,32765
11.5566,-1.83663,1.99212,39,32765
11.5309,-1.87261,1.98871,39,32765
11.5436,-1.91458,1.99386,39,32765
11.5466,-1.95525,1.9966,40,32765
11.5304,-1.9916,1.99526,39,32765
11.5238,-2.02954,1.99513,39,32765
11.5363,-2.07107,1.99922,39,32765
11.5292,-2.10892,2.00034,40,32765
11.5223,-2.147,2.00003,39,32765
11.5151,-2.18475,2.00053,38,32765
11.5077,-2.22272,2.00083,39,32765
11.5002,-2.26087,2.00164,39,32765
11.5023,-2.30054,2.00359,39,32765
11.4849,-2.33671,2.00233,39,32765
11.4867,-2.37661,2.00439,39,32765
11.4885,-2.41654,2.00598,42,32765
11.4032,-2.43833,1.99277,31,32765
11.289,-2.45267,1.97511,39,32765
11.281,-2.49013,1.97399,38,32765
11.2916,-2.53196,1.97905,38,32765
11.2832,-2.56925,1.97899,39,32765
11.2745,-2.60648,1.9796,38,32765
11.266,-2.64358,1.9791,39,32765
11.267,-2.68313,1.97961,38,32765
11.2578,-2.72012,1.98099,39,32765
11.2491,-2.75692,1.97987,38,32765
11.2399,-2.79343,1.98065,38,32765
11.25,-2.83449,1.98403,38,32765
11.2409,-2.87116,1.98271,40,32765
11.2317,-2.90732,1.98227,38,32765
11.2793,-2.95904,1.99248,37,32765
11.3934,-3.02888,2.01442,38,32765
11.4029,-3.07056,2.01648,37,32765
11.412,-3.11293,2.01916,39,32765
11.4018,-3.14963,2.01954,39,32765
11.3917,-3.1865,2.0189,37,32765
11.4004,-3.22902,2.02106,38,32765
11.3898,-3.26557,2.02193,38,32765
11.3889,-3.30539,2.02199,36,32765
11.3596,-3.33566,2.01804,37,32765
11.387,-3.38319,2.02319,38,32765
11.3765,-3.4194,2.02141,39,32765
11.3847,-3.46118,2.02351,39,32765
11.3549,-3.49193,2.01873,38,32765
3.47382,-1.08016,0.617989,17,32765
3.54573,-1.11485,0.630723,22,32765
11.4257,-3.63139,2.03292,25,32765
11.3682,-3.6511,2.02151,24,32765
11.3667,-3.68943,2.02012,34,32765
11.3651,-3.72744,2.01931,39,32765
11.3638,-3.76548,2.01637,41,32765
11.8299,0.0805132,1.95122,54,32765
11.8202,0.0420995,1.94949,55,32765
11.8205,0.00383398,1.94864,52,32765
11.8009,-0.0359244,1.94424,52,32765
11.8109,-0.0751886,1.94349,54,32765
11.8011,-0.114668,1.93998,55,32765
11.8008,-0.153981,1.93888,51,32765
11.8005,-0.19347,1.93689,52,32765
11.8002,-0.233317,1.93429,55,32765
11.7997,-0.272418,1.93256,50,32765
11.7992,-0.310704,1.92956,52,32765
11.7788,-0.348176,1.92406,52,32765
11.7876,-0.386715,1.92485,53,32765
11.767,-0.424785,1.91919,53,32765
11.7758,-0.463592,1.91839,52,32765
11.7744,-0.502378,1.91715,52,32765
11.7533,-0.540199,1.91171,52,32765
11.752,-0.578055,1.90872,51,32765
11.7501,-0.616788,1.90819,52,32765
11.7679,-0.656137,1.91009,52,32765
11.7463,-0.693994,1.90485,51,32765
11.7441,-0.732621,1.90404,51,32765
11.7419,-0.770978,1.90277,52,32765
11.7002,-0.806497,1.89462,51,32765
11.7373,-0.847258,1.8987,52,32765
11.705,-0.883696,1.89339,53,32765
11.7218,-0.924033,1.89582,49,32765
11.4727,-0.942403,1.85593,18,32765
11.3322,-0.969019,1.83098,16,32765
11.6535,-1.03497,1.88323,43,32765
11.6897,-1.07692,1.88777,53,32765
11.6862,-1.11542,1.88692,53,32765
11.6728,-1.1524,1.88478,52,32765
11.6788,-1.19158,1.88611,53,32765
11.6652,-1.22859,1.88394,52,32765
11.671,-1.26772,1.88463,53,32765
11.667,-1.30628,1.88337,53,32765
11.6625,-1.34474,1.88431,53,32765
11.6582,-1.38314,1.88305,54,32765
11.6535,-1.42123,1.88336,52,32765
11.6393,-1.45822,1.88019,51,32765
11.6441,-1.49831,1.88189,53,32765
11.6388,-1.53748,1.88328,53,32765
11.6728,-1.58192,1.88902,53,32765
11.599,-1.61069,1.87833,52,32765
11.6131,-1.65095,1.88273,52,32765
11.6077,-1.68844,1.88275,52,32765
11.6119,-1.72746,1.88431,53,32765
11.6061,-1.76611,1.88463,53,32765
11.639,-1.81081,1.89205,53,32765
11.6329,-1.85022,1.89116,53,32765
11.6266,-1.88968,1.89112,53,32765
11.6101,-1.92719,1.89133,52,32765
11.6228,-1.9698,1.89557,52,32765
11.5578,-1.99804,1.88639,52,32765
11.5901,-2.04299,1.89261,52,32765
11.5929,-2.08306,1.89493,53,32765
11.5761,-2.11938,1.89447,52,32765
11.5691,-2.15768,1.89416,52,32765
11.5812,-2.19933,1.89784,52,32765
11.5835,-2.23945,1.89973,53,32765
11.5759,-2.27791,1.90056,53,32765
11.5586,-2.31401,1.89923,52,32765
11.5508,-2.35239,1.89965,52,32765
11.5526,-2.39258,1.90163,53,32765
11.5446,-2.43076,1.90153,53,32765
11.5171,-2.46515,1.89862,50,32765
11.3448,-2.46727,1.87244,43,32765
11.3656,-2.51137,1.87609,45,32765
11.3665,-2.55139,1.87939,44,32765
11.3773,-2.59338,1.88251,45,32765
11.407,-2.63988,1.8895,47,32765
11.4368,-2.68651,1.89536,47,32765
11.4568,-2.73127,1.89895,49,32765
11.4763,-2.7759,1.90513,50,32765
11.4674,-2.81348,1.904,51,32765
11.458,-2.85075,1.90479,51,32765
11.4679,-2.89259,1.90798,52,32765
11.4778,-2.93492,1.90983,53,32765
11.4779,-2.97438,1.91097,54,32765
11.468,-3.01195,1.91107,53,32765
11.4581,-3.04955,1.91112,53,32765
11.4485,-3.08637,1.90981,52,32765
11.4384,-3.12376,1.90913,53,32765
11.4473,-3.16586,1.91269,53,32765
11.4371,-3.20293,1.91204,51,32765
11.4457,-3.24568,1.91402,53,32765
11.4161,-3.27698,1.91172,52,32765
11.4436,-3.32522,1.91645,51,32765
11.4331,-3.36127,1.91586,52,32765
11.4036,-3.39224,1.9111,52,32765
11.4309,-3.43993,1.91567,52,32765
11.4201,-3.47622,1.91441,52,32765
11.3997,-3.51003,1.91139,40,32765
11.3793,-3.54272,1.90918,24,32765
3.4755,-1.09413,0.583016,19,32765
3.46274,-1.10194,0.580998,23,32765
11.3657,-3.65491,1.90571,37,32765
11.4017,-3.70549,1.91053,50,32765
11.4,-3.74368,1.90962,51,32765
11.3892,-3.77878,1.90501,52,32765
11.7641,0.102553,1.79057,43,32765
11.7637,0.0643458,1.79463,42,32765
11.7436,0.0260059,1.79456,40,32765
11.7534,-0.0126095,1.79735,38,32765
11.7626,-0.0517668,1.80244,40,32765
11.7324,-0.0907874,1.79984,39,32765
11.7317,-0.129166,1.80228,39,32765
11.7308,-0.167187,1.80454,38,32765
11.7301,-0.204743,1.8055,39,32765
11.7292,-0.243047,1.80642,38,32765
11.7282,-0.281431,1.80732,37,32765
11.7072,-0.319704,1.80626,38,32765
11.7159,-0.358519,1.80822,41,32765
11.7342,-0.398159,1.81223,40,32765
11.7031,-0.436132,1.80855,40,32765
11.7114,-0.475305,1.81026,41,32765
11.6998,-0.512768,1.80974,39,32765
11.6979,-0.551224,1.81048,40,32765
11.6959,-0.589452,1.81129,39,32765
11.6939,-0.62835,1.81127,39,32765
11.6917,-0.667175,1.81129,38,32765
11.6893,-0.705238,1.8123,39,32765
11.6771,-0.742973,1.81047,40,32765
11.6648,-0.780432,1.80885,38,32765
11.6621,-0.818887,1.80917,38,32765
11.6592,-0.8579,1.80974,39,32765
11.6562,-0.896704,1.8107,39,32765
11.6236,-0.93306,1.80573,25,32765
11.2071,-0.936517,1.74043,13,32765
11.5781,-1.0059,1.79839,21,32765
11.6434,-1.04983,1.81032,40,32765
11.6595,-1.09001,1.81406,39,32765
11.6363,-1.12703,1.80996,39,32765
11.6421,-1.16674,1.81273,40,32765
11.6285,-1.20475,1.81004,39,32765
11.6245,-1.24281,1.80966,39,32765
11.6204,-1.28024,1.81005,40,32765
11.6259,-1.31944,1.81165,40,32765
11.602,-1.35525,1.80809,40,32765
11.6073,-1.39567,1.80881,40,32765
11.6122,-1.43596,1.81121,41,32765
11.5977,-1.47284,1.80941,40,32765
11.6025,-1.5129,1.81094,40,32765
11.5878,-1.54953,1.80827,39,32765
11.5826,-1.58824,1.80806,39,32765
11.5872,-1.62816,1.80903,41,32765
11.5819,-1.666,1.80833,41,32765
11.5763,-1.70403,1.80862,40,32765
11.5708,-1.74141,1.80826,40,32765
11.5555,-1.77814,1.80505,39,32765
11.5689,-1.81953,1.80896,40,32765
11.5431,-1.8553,1.80674,39,32765
11.5464,-1.89596,1.809,40,32765
11.54,-1.93465,1.80866,40,32765
11.5335,-1.97368,1.80785,40,32765
11.5463,-2.01549,1.81141,41,32765
11.53,-2.05157,1.80922,39,32765
11.5327,-2.09077,1.81252,40,32765
11.5162,-2.12643,1.81045,40,32765
11.509,-2.1642,1.81147,39,32765
11.5115,-2.20375,1.81323,40,32765
11.4944,-2.23964,1.81237,39,32765
11.5065,-2.28134,1.81446,40,32765
11.4988,-2.31921,1.81545,39,32765
11.5008,-2.35914,1.8169,40,32765
11.4831,-2.395,1.81631,40,32765
11.4846,-2.4347,1.81957,40,32765
11.4666,-2.47061,1.81919,38,32765
11.468,-2.51015,1.82145,43,32765
11.4597,-2.54833,1.82072,43,32765
11.4701,-2.59042,1.82636,43,32765
11.4713,-2.63,1.82793,43,32765
11.4621,-2.66772,1.83067,43,32765
11.4533,-2.70456,1.83182,42,32765
11.4444,-2.74221,1.83136,41,32765
11.4543,-2.78375,1.83692,42,32765
11.4449,-2.82065,1.83923,41,32765
11.4162,-2.85308,1.83775,41,32765
11.4259,-2.89489,1.84226,40,32765
11.4353,-2.93694,1.84713,40,32765
11.3965,-2.96683,1.84482,39,32765
11.4056,-3.00863,1.85033,39,32765
11.4146,-3.05101,1.8549,39,32765
11.4042,-3.08774,1.85765,39,32765
11.3936,-3.12507,1.86044,39,32765
11.4022,-3.16697,1.86579,39,32765
11.3725,-3.19812,1.86537,38,32765
11.4092,-3.24862,1.87526,41,32765
11.3699,-3.27732,1.87243,38,32765
11.3965,-3.32549,1.88197,39,32765
11.3851,-3.36229,1.88558,40,32765
11.3928,-3.40347,1.8925,40,32765
11.3626,-3.43359,1.89292,39,32765
11.37,-3.4749,1.90013,35,32765
11.3771,-3.51716,1.90641,17,32765
11.2989,-3.53341,1.89976,15,32765
3.39836,-1.07478,0.572823,19,32765
3.42284,-1.09465,0.579211,14,32765
11.3188,-3.65921,1.92261,31,32765
11.3626,-3.71317,1.9379,40,32765
11.3687,-3.75471,1.94723,38,32765
11.8299,0.104576,1.68658,54,32765
11.8098,0.0659858,1.68783,54,32765
11.8293,0.0275259,1.69362,55,32765
11.8193,-0.0114129,1.6935,51,32765
11.8286,-0.0508494,1.69851,54,32765
11.7687,-0.0899282,1.69193,54,32765
11.8075,-0.128918,1.70008,55,32765
11.7968,-0.167105,1.70093,52,32765
11.7664,-0.204416,1.69761,53,32765
11.7952,-0.243513,1.70281,52,32765
11.7942,-0.282175,1.70372,52,32765
11.7534,-0.32019,1.7,52,32765
11.772,-0.359521,1.70329,56,32765
11.7607,-0.398405,1.70282,55,32765
11.7493,-0.437264,1.70229,56,32765
11.7477,-0.476252,1.70248,56,32765
11.7361,-0.513894,1.70205,54,32765
11.7342,-0.552531,1.70279,54,32765
11.7421,-0.591437,1.70504,52,32765
11.7302,-0.630021,1.70359,53,32765
11.728,-0.669029,1.70361,53,32765
11.7158,-0.706676,1.70319,53,32765
11.7233,-0.745816,1.70431,52,32765
11.7109,-0.783487,1.70279,52,32765
11.7082,-0.822155,1.70312,52,32765
11.7053,-0.861386,1.70369,53,32765
11.7023,-0.900406,1.70465,53,32765
11.6993,-0.93935,1.70427,50,32765
11.4103,-0.953775,1.66155,17,32765
11.3381,-0.985386,1.65134,17,32765
11.65,-1.05083,1.69852,43,32765
11.6858,-1.09294,1.70495,53,32765
11.6822,-1.13202,1.70391,52,32765
11.6782,-1.17096,1.70515,54,32765
11.6744,-1.21017,1.70398,53,32765
11.6606,-1.24739,1.70217,52,32765
11.6564,-1.28499,1.70256,52,32765
11.662,-1.32438,1.70407,53,32765
11.6576,-1.36267,1.70357,53,32765
11.6531,-1.40216,1.70276,54,32765
11.6482,-1.44145,1.70363,52,32765
11.6434,-1.47976,1.70336,54,32765
11.6286,-1.51747,1.70193,52,32765
11.6335,-1.55687,1.70222,53,32765
11.6283,-1.5958,1.702,52,32765
11.6229,-1.63456,1.70145,53,32765
11.6176,-1.67258,1.70074,52,32765
11.6218,-1.71223,1.70247,53,32765
11.6065,-1.74835,1.70068,53,32765
11.6009,-1.78676,1.69899,52,32765
11.6045,-1.82683,1.70129,54,32765
11.5884,-1.86434,1.70068,53,32765
11.5917,-1.90523,1.70286,53,32765
11.5853,-1.94413,1.70251,54,32765
11.5983,-1.98673,1.70457,53,32765
11.572,-2.02201,1.70221,53,32765
11.5849,-2.06343,1.70442,53,32765
11.5778,-2.10112,1.7062,52,32765
11.571,-2.13878,1.70566,53,32765
11.5638,-2.17679,1.70668,53,32765
11.5468,-2.21286,1.70548,52,32765
11.5491,-2.25271,1.70759,53,32765
11.5417,-2.29081,1.70662,54,32765
11.5728,-2.3367,1.71336,53,32765
11.565,-2.37495,1.71328,53,32765
11.557,-2.4131,1.71423,54,32765
11.5487,-2.45105,1.71597,53,32765
11.5597,-2.49349,1.72001,53,32765
11.5224,-2.52493,1.71642,52,32765
11.5237,-2.5655,1.71713,53,32765
11.5244,-2.6057,1.72115,52,32765
11.5255,-2.64552,1.72263,53,32765
11.5066,-2.68124,1.72395,52,32765
11.5267,-2.72512,1.72944,53,32765
11.4984,-2.75845,1.72608,53,32765
11.5083,-2.80024,1.73147,53,32765
11.4893,-2.835,1.73234,52,32765
11.4989,-2.87723,1.73686,52,32765
11.4701,-2.90966,1.73539,52,32765
11.4795,-2.95193,1.74009,51,32765
11.479,-2.99198,1.74389,53,32765
11.488,-3.03413,1.74923,54,32765
11.4778,-3.07174,1.75071,54,32765
11.4579,-3.10614,1.75201,52,32765
11.4472,-3.14372,1.75482,53,32765
11.4462,-3.18321,1.75853,53,32765
11.4355,-3.21991,1.76125,52,32765
11.4246,-3.25716,1.76334,53,32765
11.4327,-3.29966,1.76815,52,32765
11.4213,-3.33704,1.77144,52,32765
11.4289,-3.37959,1.77801,53,32765
11.4177,-3.41531,1.78181,52,32765
11.3968,-3.44842,1.78391,50,32765
11.4137,-3.49281,1.79242,52,32765
11.4019,-3.52944,1.79556,52,32765
11.4463,-3.58419,1.80897,51,32765
3.49721,-1.1075,0.554138,21,32765
3.57813,-1.14582,0.569282,27,32765
11.3906,-3.68728,1.81942,52,32765
11.378,-3.72313,1.82514,52,32765
11.3841,-3.7648,1.8343,53,32765
11.7751,0.0966559,1.71696,43,32765
11.7565,0.0583223,1.70772,43,32765
11.7574,0.0197219,1.70235,43,32765
11.7482,-0.0196009,1.69617,39,32765
11.7388,-0.0582336,1.68989,42,32765
11.7394,-0.0971666,1.68453,42,32765
11.7393,-0.135437,1.68213,42,32765
11.7295,-0.173456,1.67694,39,32765
11.7392,-0.211484,1.67538,40,32765
11.709,-0.249602,1.66909,39,32765
11.7285,-0.289087,1.66797,40,32765
11.7278,-0.328349,1.66542,39,32765
11.7172,-0.366341,1.66074,41,32765
11.7164,-0.405408,1.65755,41,32765
11.6956,-0.442804,1.65216,42,32765
11.7142,-0.482114,1.65273,42,32765
11.6931,-0.519548,1.64721,41,32765
11.7114,-0.558792,1.64827,42,32765
11.69,-0.5961,1.6433,40,32765
11.6882,-0.634414,1.64185,40,32765
11.6864,-0.67275,1.63918,41,32765
11.6746,-0.710828,1.63545,39,32765
11.6821,-0.749987,1.63635,41,32765
11.6699,-0.787917,1.6336,39,32765
11.6376,-0.824031,1.62965,40,32765
11.6746,-0.864957,1.63328,40,32765
11.6721,-0.903283,1.63086,40,32765
11.6691,-0.941266,1.63074,41,32765
11.5575,-0.970139,1.61501,25,32765
11.1992,-0.976616,1.56418,18,32765
11.413,-1.03337,1.59367,19,32765
11.6167,-1.09112,1.62205,40,32765
11.6131,-1.13028,1.62086,40,32765
11.6092,-1.16968,1.62067,41,32765
11.6054,-1.20754,1.62028,40,32765
11.6015,-1.24491,1.61978,41,32765
11.5875,-1.28135,1.61878,40,32765
11.5931,-1.31993,1.62038,40,32765
11.5789,-1.35691,1.61858,40,32765
11.6235,-1.40094,1.62624,40,32765
11.5795,-1.4348,1.62001,41,32765
11.5748,-1.47294,1.61984,40,32765
11.56,-1.50974,1.61888,39,32765
11.5646,-1.5498,1.6207,40,32765
11.5498,-1.58625,1.61845,39,32765
11.5542,-1.62587,1.62061,40,32765
11.588,-1.66948,1.62612,40,32765
11.5431,-1.70166,1.62148,40,32765
11.5767,-1.74541,1.62697,40,32765
11.5706,-1.78364,1.62841,41,32765
11.5646,-1.82223,1.62862,42,32765
11.5584,-1.86115,1.62856,41,32765
11.5521,-1.89991,1.62842,40,32765
11.5455,-1.93885,1.62954,41,32765
11.5291,-1.97571,1.62894,39,32765
11.5224,-2.01395,1.62933,39,32765
11.5449,-2.05765,1.63314,40,32765
11.5181,-2.09261,1.63304,41,32765
11.5306,-2.13428,1.63583,42,32765
11.5236,-2.17209,1.63532,41,32765
11.5163,-2.20977,1.63635,41,32765
11.4991,-2.24586,1.63563,39,32765
11.4915,-2.28379,1.63647,39,32765
11.4838,-2.32187,1.63677,40,32765
11.4954,-2.36395,1.64002,39,32765
11.4973,-2.40394,1.64086,40,32765
11.4891,-2.44257,1.64155,40,32765
11.4711,-2.47846,1.6415,39,32765
11.4724,-2.51886,1.64305,41,32765
11.4542,-2.55496,1.642,40,32765
11.4651,-2.59697,1.64416,40,32765
11.4563,-2.63449,1.64577,39,32765
11.4477,-2.67178,1.64561,40,32765
11.4582,-2.7137,1.64822,39,32765
11.459,-2.75313,1.64976,40,32765
11.4401,-2.78895,1.64862,39,32765
11.4309,-2.82685,1.64822,40,32765
11.4023,-2.85974,1.64498,39,32765
11.412,-2.90204,1.64801,38,32765
11.4122,-2.94125,1.64933,39,32765
11.4217,-2.98301,1.65289,38,32765
11.3932,-3.01451,1.64824,39,32765
11.3835,-3.05098,1.64862,37,32765
11.3928,-3.09281,1.65107,25,32765
11.3638,-3.12406,1.64758,24,32765
11.3727,-3.16614,1.65025,38,32765
11.3814,-3.20884,1.65257,38,32765
11.371,-3.24561,1.65215,38,32765
11.3607,-3.28224,1.65073,38,32765
11.3692,-3.32434,1.65271,38,32765
11.3776,-3.36647,1.6547,39,32765
11.3667,-3.40338,1.65428,38,32765
11.3559,-3.43958,1.65348,40,32765
11.3641,-3.48131,1.6544,40,32765
11.3535,-3.51662,1.65238,39,32765
11.3617,-3.5576,1.65416,40,32765
3.46566,-1.09712,0.504429,15,32765
3.49057,-1.11703,0.50812,25,32765
11.3098,-3.65835,1.64489,31,32765
11.3365,-3.70536,1.64811,40,32765
11.3355,-3.74249,1.644,43,32765
11.8304,0.098495,1.61121,55,32765
11.7919,0.0598109,1.59943,56,32765
11.7927,0.0210264,1.59405,56,32765
11.7835,-0.0184842,1.58795,53,32765
11.784,-0.0573499,1.58307,55,32765
11.7845,-0.0965012,1.5777,55,32765
11.7745,-0.13487,1.57396,55,32765
11.7745,-0.173216,1.57018,52,32765
11.7545,-0.210921,1.56455,52,32765
11.7639,-0.249998,1.5638,53,32765
11.7635,-0.289246,1.55985,53,32765
11.7529,-0.328415,1.55598,52,32765
11.7621,-0.367174,1.554,55,32765
11.7513,-0.406115,1.5495,55,32765
11.7503,-0.44444,1.54689,55,32765
11.759,-0.483589,1.54597,55,32765
11.7478,-0.521674,1.54192,55,32765
11.7561,-0.56069,1.54149,56,32765
11.7248,-0.597705,1.53541,55,32765
11.723,-0.636198,1.53395,53,32765
11.7212,-0.674714,1.53127,53,32765
11.7192,-0.713574,1.52892,53,32765
11.7168,-0.752312,1.52843,53,32765
11.7144,-0.791089,1.52706,53,32765
11.7117,-0.829511,1.52726,53,32765
11.7092,-0.867817,1.52536,52,32765
11.7066,-0.906323,1.52292,52,32765
11.6838,-0.942887,1.52023,54,32765
11.6907,-0.981815,1.52096,50,32765
11.4406,-0.998214,1.48761,18,32765
11.2398,-1.01829,1.46111,14,32765
11.6214,-1.09226,1.51063,42,32765
11.6672,-1.13631,1.51585,53,32765
11.6633,-1.17596,1.51566,53,32765
11.6792,-1.21611,1.51783,53,32765
11.6555,-1.25167,1.51477,53,32765
11.6514,-1.28943,1.51515,53,32765
11.6471,-1.32716,1.51538,54,32765
11.6427,-1.36554,1.51494,53,32765
11.638,-1.40392,1.51574,54,32765
11.6334,-1.44277,1.515,54,32765
11.6286,-1.48114,1.51484,54,32765
11.6236,-1.51948,1.51525,54,32765
11.6184,-1.55849,1.5157,53,32765
11.5937,-1.59384,1.51226,49,32765
11.5686,-1.62952,1.51048,39,32765
11.5926,-1.67184,1.51434,51,32765
11.5967,-1.71132,1.51649,54,32765
11.6107,-1.75237,1.51904,54,32765
11.6046,-1.79078,1.52048,54,32765
11.5985,-1.82954,1.5207,54,32765
11.5727,-1.86548,1.51807,54,32765
11.5664,-1.90436,1.51793,54,32765
11.5793,-1.9467,1.52162,53,32765
11.5726,-1.98541,1.5224,54,32765
11.5855,-2.02729,1.52537,53,32765
11.5591,-2.06257,1.52247,54,32765
11.5713,-2.10472,1.52772,54,32765
11.5545,-2.14123,1.52646,52,32765
11.5573,-2.18102,1.52723,53,32765
11.5499,-2.21888,1.52827,53,32765
11.5424,-2.25704,1.52893,54,32765
11.5445,-2.29711,1.53107,53,32765
11.5368,-2.33544,1.53137,53,32765
11.5289,-2.37376,1.53185,54,32765
11.5211,-2.41191,1.53131,54,32765
11.5128,-2.45068,1.53201,53,32765
11.5238,-2.493,1.53593,54,32765
11.5154,-2.53152,1.53609,54,32765
11.5068,-2.56998,1.53643,54,32765
11.537,-2.61663,1.54099,54,32765
11.4895,-2.64555,1.53744,54,32765
11.5195,-2.69204,1.54245,53,32765
11.5106,-2.72969,1.5423,54,32765
11.5017,-2.76705,1.54245,53,32765
11.4924,-2.80542,1.5427,53,32765
11.5023,-2.84832,1.54489,53,32765
11.4929,-2.88633,1.54442,53,32765
11.4833,-2.92411,1.54468,53,32765
11.493,-2.96609,1.5472,53,32765
11.4641,-2.99816,1.5454,53,32765
11.4738,-3.04,1.54611,53,32765
11.4831,-3.08194,1.54907,53,32765
11.4062,-3.10075,1.53972,31,32765
11.3007,-3.11104,1.52608,15,32765
11.4338,-3.18761,1.54535,43,32765
11.4424,-3.23059,1.54749,53,32765
11.451,-3.27307,1.54964,54,32765
11.4311,-3.30727,1.54693,53,32765
11.4204,-3.34409,1.54614,53,32765
11.4287,-3.38647,1.54794,54,32765
11.4082,-3.42076,1.54624,53,32765
11.3974,-3.45716,1.54544,53,32765
11.4056,-3.49909,1.54617,53,32765
11.3949,-3.53459,1.54415,53,32765
11.384,-3.56984,1.54317,52,32765
11.3635,-3.60268,1.53983,55,32765
3.50393,-1.12298,0.47484,25,32765
3.41559,-1.10649,0.462397,23,32765
11.3868,-3.72739,1.54075,50,32765
11.3669,-3.75851,1.53398,53,32765
11.764,0.120339,1.42001,45,32765
11.7738,0.0803809,1.42519,42,32765
11.7537,0.0412414,1.42643,41,32765
11.7534,0.00357429,1.42906,40,32765
11.7432,-0.0334978,1.42979,39,32765
11.7528,-0.0720703,1.43232,41,32765
11.7522,-0.111014,1.43482,40,32765
11.7317,-0.149814,1.4341,40,32765
11.7211,-0.188345,1.43416,39,32765
11.7202,-0.226611,1.43576,39,32765
11.7192,-0.265093,1.43735,39,32765
11.7182,-0.303229,1.43823,39,32765
11.717,-0.341889,1.43878,40,32765
11.686,-0.379925,1.43614,42,32765
11.6845,-0.418805,1.43744,42,32765
11.6631,-0.4574,1.43506,42,32765
11.6813,-0.496911,1.43869,41,32765
11.6596,-0.534086,1.43736,41,32765
11.6576,-0.572189,1.43856,41,32765
11.6556,-0.60988,1.43943,41,32765
11.6733,-0.649325,1.44238,42,32765
11.6711,-0.687677,1.44254,40,32765
11.6687,-0.726011,1.44291,40,32765
11.6465,-0.76298,1.44049,41,32765
11.6537,-0.80177,1.44276,39,32765
11.6311,-0.839264,1.44044,40,32765
11.6382,-0.879001,1.44136,40,32765
11.6153,-0.916706,1.43965,40,32765
11.632,-0.956805,1.44146,40,32765
11.6188,-0.994173,1.44124,29,32765
11.4671,-1.01889,1.4238,14,32765
11.533,-1.06245,1.43153,20,32765
11.6084,-1.10817,1.44182,41,32765
11.6047,-1.14706,1.44129,42,32765
11.6007,-1.18627,1.44197,41,32765
11.5769,-1.22302,1.43977,43,32765
11.5927,-1.26328,1.44111,41,32765
11.5883,-1.30138,1.44193,40,32765
11.5841,-1.33918,1.44178,41,32765
11.5798,-1.37729,1.44008,41,32765
11.5848,-1.41696,1.44286,41,32765
11.58,-1.45567,1.44292,41,32765
11.5653,-1.49283,1.44155,42,32765
11.57,-1.53266,1.44354,41,32765
11.5649,-1.57079,1.44313,36,32765
11.4123,-1.58855,1.42402,13,32765
11.5348,-1.6442,1.43995,27,32765
11.5488,-1.68544,1.44289,42,32765
11.543,-1.72411,1.44339,41,32765
11.5274,-1.76131,1.44228,41,32765
11.5509,-1.80459,1.44551,41,32765
11.5449,-1.84309,1.44485,42,32765
11.5192,-1.87797,1.44185,41,32765
11.5128,-1.91591,1.44315,42,32765
11.5259,-1.95749,1.44573,41,32765
11.5194,-1.99594,1.44536,42,32765
11.5125,-2.03465,1.44609,42,32765
11.5057,-2.07284,1.44585,41,32765
11.4989,-2.11046,1.44554,41,32765
11.4919,-2.14787,1.44646,41,32765
11.4847,-2.1854,1.4469,40,32765
11.5164,-2.23072,1.45235,41,32765
11.5089,-2.26882,1.45228,40,32765
11.4915,-2.30483,1.45229,39,32765
11.5031,-2.34743,1.45536,40,32765
11.495,-2.38606,1.4564,40,32765
11.4965,-2.4262,1.45913,41,32765
11.4886,-2.46356,1.45871,41,32765
11.4804,-2.50082,1.4599,42,32765
11.472,-2.53865,1.46106,40,32765
11.4826,-2.58128,1.46509,41,32765
11.4545,-2.61515,1.46347,42,32765
11.4454,-2.65336,1.46567,40,32765
11.4462,-2.69284,1.46806,40,32765
11.4469,-2.73224,1.47035,41,32765
11.4281,-2.76683,1.4715,39,32765
11.4285,-2.80638,1.47389,41,32765
11.4385,-2.84808,1.47776,41,32765
11.4481,-2.8899,1.48276,41,32765
11.4193,-2.92215,1.48178,40,32765
11.4285,-2.96427,1.4871,41,32765
11.4187,-3.00093,1.48885,40,32765
11.4086,-3.03819,1.49094,39,32765
11.3888,-3.07237,1.49262,36,32765
11.3211,-3.09368,1.48717,13,32765
11.3583,-3.14402,1.49653,23,32765
11.386,-3.19135,1.5038,39,32765
11.3753,-3.22823,1.50611,39,32765
11.3452,-3.25929,1.50762,38,32765
11.3721,-3.30715,1.51684,39,32765
11.3611,-3.34395,1.51923,39,32765
11.3688,-3.38614,1.52543,40,32765
11.3574,-3.42238,1.52896,39,32765
11.3556,-3.46111,1.53385,40,32765
11.3533,-3.50013,1.54015,40,32765
11.3511,-3.53919,1.54478,40,32765
11.3583,-3.58102,1.55081,41,32765
11.2613,-3.5891,1.54509,31,32765
3.50134,-1.12787,0.482339,26,32765
11.3315,-3.68998,1.56901,37,32765
11.3375,-3.73301,1.57725,40,32765
11.7967,0.121886,1.31118,55,32765
11.7966,0.0816813,1.31517,54,32765
11.7964,0.0424698,1.31883,54,32765
11.7962,0.00460149,1.32147,54,32765
11.786,-0.0326702,1.3223,52,32765
11.7956,-0.071449,1.32474,55,32765
11.7752,-0.110415,1.32501,55,32765
11.7745,-0.149612,1.32672,56,32765
11.7639,-0.188352,1.32688,53,32765
11.763,-0.226824,1.32849,54,32765
11.7819,-0.265962,1.33233,54,32765
11.761,-0.303855,1.33096,53,32765
11.7599,-0.342724,1.33152,54,32765
11.7486,-0.381615,1.33141,57,32765
11.7472,-0.420771,1.33271,56,32765
11.7457,-0.460425,1.33277,56,32765
11.7241,-0.498589,1.33172,57,32765
11.7223,-0.536879,1.33283,56,32765
11.7203,-0.575253,1.33404,55,32765
11.7183,-0.613212,1.33492,55,32765
11.7161,-0.651828,1.33542,55,32765
11.7238,-0.690973,1.33671,54,32765
11.7016,-0.728312,1.33482,53,32765
11.6892,-0.766105,1.33372,52,32765
11.6766,-0.803738,1.33364,44,32765
11.6937,-0.844236,1.33604,53,32765
11.6908,-0.883504,1.33572,55,32765
11.6877,-0.923017,1.33647,55,32765
11.6846,-0.961797,1.33582,54,32765
11.6615,-0.998556,1.33458,55,32765
11.658,-1.03665,1.33555,54,32765
11.6745,-1.07635,1.33694,54,32765
11.651,-1.11318,1.33515,55,32765
11.6572,-1.15325,1.33575,55,32765
11.6432,-1.19169,1.33531,54,32765
11.6392,-1.23074,1.33557,54,32765
11.6549,-1.27128,1.33671,54,32765
11.6308,-1.30743,1.33527,54,32765
11.6265,-1.34544,1.33512,55,32765
11.6419,-1.38611,1.33568,54,32765
11.6371,-1.42484,1.33724,55,32765
11.6125,-1.46132,1.33503,54,32765
11.6273,-1.50247,1.33716,54,32765
11.6025,-1.53866,1.33566,54,32765
11.617,-1.57965,1.33752,55,32765
11.5921,-1.61542,1.33453,31,32765
11.5278,-1.6451,1.32773,18,32765
11.591,-1.69357,1.33614,51,32765
11.5753,-1.73098,1.33552,54,32765
11.5891,-1.77286,1.3379,54,32765
11.5831,-1.81183,1.33745,54,32765
11.5771,-1.8505,1.33679,54,32765
11.5906,-1.89195,1.33851,54,32765
11.5645,-1.92693,1.33754,54,32765
11.5776,-1.96876,1.33994,53,32765
11.571,-2.00745,1.33957,54,32765
11.5641,-2.0464,1.34031,54,32765
11.5573,-2.08483,1.34007,53,32765
11.5504,-2.12269,1.33975,54,32765
11.5628,-2.16399,1.34295,54,32765
11.5556,-2.20182,1.34339,54,32765
11.5288,-2.2361,1.34166,54,32765
11.5408,-2.27816,1.34387,54,32765
11.533,-2.31629,1.34511,54,32765
11.5446,-2.35912,1.348,54,32765
11.5364,-2.39795,1.34904,54,32765
11.5282,-2.43625,1.35055,54,32765
11.5203,-2.47378,1.35014,54,32765
11.5121,-2.51121,1.35132,54,32765
11.5133,-2.55136,1.35363,54,32765
11.5045,-2.58984,1.35519,54,32765
11.515,-2.6327,1.35834,53,32765
11.5059,-2.67118,1.36056,53,32765
11.497,-2.70866,1.36171,53,32765
11.4687,-2.74137,1.36047,53,32765
11.4788,-2.78311,1.36517,53,32765
11.4695,-2.82052,1.36633,53,32765
11.4602,-2.85763,1.36772,53,32765
11.4891,-2.90446,1.37484,53,32765
11.4794,-2.94184,1.37636,53,32765
11.4886,-2.98423,1.38152,54,32765
11.4787,-3.02116,1.38328,53,32765
11.4686,-3.05867,1.38538,54,32765
11.4583,-3.09571,1.38833,53,32765
11.4191,-3.12513,1.38695,31,32765
11.351,-3.14671,1.38304,17,32765
11.4457,-3.2129,1.39812,48,32765
11.4253,-3.24733,1.39927,52,32765
11.4334,-3.28959,1.40568,52,32765
11.4222,-3.32672,1.40986,52,32765
11.4301,-3.36937,1.41462,53,32765
11.4187,-3.40619,1.41829,53,32765
11.4073,-3.44266,1.42184,53,32765
11.4054,-3.48161,1.42666,53,32765
11.3936,-3.51794,1.4317,53,32765
11.3819,-3.55424,1.43506,53,32765
11.3891,-3.59625,1.44091,53,32765
11.396,-3.63763,1.44928,53,32765
3.47666,-1.12165,0.444036,24,32765
3.55778,-1.16034,0.456871,27,32765
11.3777,-3.75204,1.46836,53,32765
11.7427,0.115719,1.34438,43,32765
11.7736,0.0760308,1.34136,44,32765
11.7545,0.0358852,1.33389,44,32765
11.7451,-0.00281383,1.32848,41,32765
11.7653,-0.0408944,1.32692,41,32765
11.7459,-0.0788331,1.31889,43,32765
11.7062,-0.117181,1.31108,43,32765
11.7459,-0.156192,1.31242,40,32765
11.7058,-0.193895,1.3054,40,32765
11.7056,-0.232307,1.30118,41,32765
11.7049,-0.270868,1.29994,41,32765
11.7044,-0.309346,1.29613,41,32765
11.7036,-0.348115,1.29325,40,32765
11.6828,-0.386403,1.28814,43,32765
11.6718,-0.425141,1.28523,43,32765
11.6804,-0.464527,1.28436,43,32765
11.669,-0.50303,1.28252,42,32765
11.6676,-0.541122,1.27954,43,32765
11.6659,-0.579081,1.27814,43,32765
11.6643,-0.616637,1.27494,43,32765
11.6524,-0.653885,1.27328,43,32765
11.6405,-0.691314,1.27059,42,32765
11.6384,-0.729366,1.26854,43,32765
11.646,-0.76799,1.26813,39,32765
11.6138,-0.804354,1.26354,16,32765
11.6308,-0.844484,1.26645,24,32765
11.6479,-0.884687,1.26778,41,32765
11.6252,-0.921647,1.26406,42,32765
11.6221,-0.959889,1.26408,40,32765
11.6189,-0.998444,1.26349,41,32765
11.6158,-1.03683,1.26122,42,32765
11.6124,-1.07529,1.2603,43,32765
11.6089,-1.1139,1.2594,42,32765
11.6051,-1.15177,1.25983,42,32765
11.6013,-1.19011,1.25916,41,32765
11.5974,-1.22824,1.25892,41,32765
11.5934,-1.26646,1.25786,42,32765
11.5892,-1.30496,1.25704,41,32765
11.5847,-1.34316,1.25864,42,32765
11.5804,-1.38126,1.25681,43,32765
11.5756,-1.41931,1.25844,41,32765
11.5511,-1.45464,1.25672,42,32765
11.566,-1.49541,1.25914,42,32765
11.561,-1.53365,1.2589,42,32765
11.5753,-1.57503,1.26234,42,32765
11.5405,-1.60934,1.25873,39,32765
11.4759,-1.63946,1.25368,14,32765
11.5294,-1.68663,1.25954,25,32765
11.5333,-1.72694,1.26216,42,32765
11.5372,-1.76709,1.26367,44,32765
11.5214,-1.80413,1.26269,42,32765
11.5349,-1.84621,1.26535,42,32765
11.5285,-1.88435,1.26663,42,32765
11.5025,-1.91928,1.26569,41,32765
11.496,-1.95738,1.26623,42,32765
11.5092,-1.99856,1.26788,42,32765
11.5122,-2.03892,1.26899,42,32765
11.4954,-2.07518,1.26921,41,32765
11.4982,-2.11523,1.27119,41,32765
11.491,-2.15336,1.27156,41,32765
11.5032,-2.19511,1.27504,42,32765
11.4765,-2.22917,1.27201,41,32765
11.4689,-2.26712,1.27335,42,32765
11.4614,-2.30488,1.27368,40,32765
11.4732,-2.34702,1.27514,41,32765
11.4555,-2.38294,1.27534,40,32765
11.4571,-2.42339,1.27686,40,32765
11.4489,-2.46144,1.27806,41,32765
11.4407,-2.49929,1.27786,42,32765
11.471,-2.54601,1.28325,41,32765
11.4625,-2.58418,1.28286,40,32765
11.444,-2.62021,1.28267,39,32765
11.445,-2.66057,1.28287,40,32765
11.4554,-2.7026,1.2865,40,32765
11.4466,-2.73991,1.28638,41,32765
11.4376,-2.77712,1.28593,40,32765
11.4477,-2.8189,1.28978,40,32765
11.4384,-2.85625,1.29008,40,32765
11.429,-2.89351,1.29028,40,32765
11.4197,-2.93054,1.28936,41,32765
11.4101,-2.96773,1.28942,40,32765
11.4003,-3.00474,1.28983,40,32765
11.3906,-3.04153,1.28954,40,32765
11.3999,-3.08356,1.29185,40,32765
11.3801,-3.11833,1.2904,38,32765
11.3411,-3.1479,1.28648,15,32765
11.3404,-3.18776,1.28697,20,32765
11.3684,-3.23495,1.29069,39,32765
11.377,-3.27731,1.2929,40,32765
11.3571,-3.31077,1.2902,38,32765
11.3464,-3.34711,1.29047,39,32765
11.3644,-3.39185,1.29289,40,32765
11.3443,-3.42468,1.29034,39,32765
11.3624,-3.46826,1.29249,40,32765
11.323,-3.49508,1.28838,39,32765
11.3119,-3.53126,1.28779,39,32765
11.3196,-3.57387,1.28733,39,32765
11.3369,-3.61862,1.28862,40,32765
11.3263,-3.65258,1.28615,41,32765
3.48825,-1.13648,0.395748,24,32765
3.50374,-1.15344,0.396869,23,32765
11.8046,0.117483,1.23877,56,32765
11.8056,0.0773149,1.23232,57,32765
11.7865,0.036983,1.22502,56,32765
11.7969,-0.00189777,1.22175,53,32765
11.7972,-0.0401479,1.21793,53,32765
11.7877,-0.0783296,1.2111,57,32765
11.7678,-0.117087,1.20568,55,32765
11.7577,-0.155712,1.20155,53,32765
11.7773,-0.194511,1.20099,53,32765
11.7572,-0.232836,1.19473,53,32765
11.7565,-0.271637,1.19347,53,32765
11.7559,-0.310357,1.18965,53,32765
11.7352,-0.348778,1.18475,53,32765
11.7243,-0.387571,1.18082,57,32765
11.7231,-0.426881,1.179,57,32765
11.7218,-0.466116,1.17702,55,32765
11.7203,-0.505256,1.17627,56,32765
11.7189,-0.543587,1.17329,57,32765
11.7172,-0.581782,1.17187,57,32765
11.7156,-0.619573,1.16866,57,32765
11.7135,-0.657612,1.16808,56,32765
11.7214,-0.696491,1.16746,58,32765
11.7094,-0.734255,1.16441,55,32765
11.707,-0.772527,1.16291,56,32765
11.6847,-0.809847,1.15958,36,32765
11.5628,-0.84019,1.1485,16,32765
11.6691,-0.887028,1.15851,50,32765
11.6861,-0.927275,1.15891,55,32765
11.6731,-0.964968,1.15795,55,32765
11.66,-1.00291,1.15638,54,32765
11.6568,-1.0415,1.1541,54,32765
11.6633,-1.08109,1.15416,55,32765
11.6498,-1.11899,1.15227,54,32765
11.6559,-1.15804,1.15369,56,32765
11.6422,-1.19561,1.15204,55,32765
11.6481,-1.23498,1.15278,56,32765
11.6441,-1.27345,1.15171,56,32765
11.63,-1.31107,1.14991,55,32765
11.6353,-1.35062,1.1525,55,32765
11.631,-1.38896,1.15066,55,32765
11.6163,-1.42603,1.15132,54,32765
11.6115,-1.46405,1.15174,55,32765
11.6165,-1.50382,1.15301,55,32765
11.6114,-1.5423,1.15277,55,32765
11.5863,-1.57855,1.1521,55,32765
11.6008,-1.61984,1.15367,55,32765
11.5557,-1.65303,1.15116,37,32765
11.5009,-1.68469,1.14566,18,32765
11.5836,-1.73679,1.15604,52,32765
11.5777,-1.77567,1.15648,55,32765
11.5913,-1.81754,1.15855,55,32765
11.5556,-1.85206,1.15611,55,32765
11.5689,-1.89355,1.15936,55,32765
11.5624,-1.93196,1.16059,54,32765
11.5559,-1.97033,1.16113,55,32765
11.5494,-2.00837,1.16062,54,32765
11.5621,-2.05069,1.16262,54,32765
11.5552,-2.08894,1.16393,54,32765
11.5285,-2.12386,1.16286,53,32765
11.5409,-2.16583,1.16521,54,32765
11.5433,-2.20596,1.16752,55,32765
11.5262,-2.24211,1.16566,55,32765
11.5186,-2.2803,1.16701,54,32765
11.511,-2.31829,1.16735,54,32765
11.5228,-2.36068,1.16862,54,32765
11.5147,-2.39885,1.16991,55,32765
11.526,-2.44164,1.17233,53,32765
11.5177,-2.47999,1.17354,54,32765
11.5289,-2.5224,1.17532,55,32765
11.5009,-2.55655,1.1744,54,32765
11.4923,-2.59489,1.17401,55,32765
11.5029,-2.63776,1.1769,55,32765
11.4941,-2.67613,1.17601,55,32765
11.4851,-2.71383,1.17747,54,32765
11.4762,-2.7513,1.17735,53,32765
11.4672,-2.78867,1.17691,52,32765
11.4869,-2.83302,1.18157,54,32765
11.4583,-2.86573,1.17989,54,32765
11.4681,-2.90802,1.18208,55,32765
11.4587,-2.94525,1.18115,54,32765
11.449,-2.98264,1.18122,54,32765
11.4392,-3.01984,1.18163,55,32765
11.4679,-3.0671,1.18532,54,32765
11.4579,-3.10427,1.18546,54,32765
11.4572,-3.14455,1.18609,55,32765
11.3989,-3.1691,1.18046,34,32765
11.3215,-3.18766,1.17293,16,32765
11.4261,-3.2567,1.18421,47,32765
11.425,-3.29657,1.18524,54,32765
11.4146,-3.33303,1.18363,54,32765
11.4229,-3.37526,1.18587,53,32765
11.4026,-3.40893,1.18405,52,32765
11.4205,-3.45346,1.18556,53,32765
11.3909,-3.48282,1.18248,53,32765
11.399,-3.52447,1.18358,53,32765
11.3782,-3.55799,1.182,52,32765
11.3669,-3.5949,1.17938,52,32765
11.3841,-3.63988,1.18039,54,32765
11.3734,-3.67405,1.17791,53,32765
11.3531,-3.70522,1.17454,50,32765
3.51599,-1.15947,0.363081,28,32765
11.7218,0.138475,1.05462,45,32765
11.7219,0.0989856,1.05815,45,32765
11.7319,0.060252,1.0614,42,32765
11.7119,0.0210913,1.06212,42,32765
11.7116,-0.017687,1.06546,42,32765
11.7113,-0.0568991,1.06748,42,32765
11.711,-0.0953682,1.06844,42,32765
11.7105,-0.132999,1.06985,43,32765
11.6999,-0.171341,1.07059,41,32765
11.6991,-0.209937,1.07199,40,32765
11.6981,-0.249198,1.0745,40,32765
11.6972,-0.288249,1.07426,41,32765
11.696,-0.32683,1.07616,41,32765
11.6749,-0.364973,1.07503,40,32765
11.6737,-0.402808,1.07498,43,32765
11.6721,-0.441224,1.07764,43,32765
11.6606,-0.47932,1.07668,43,32765
11.649,-0.517951,1.07589,43,32765
11.6471,-0.557248,1.07678,43,32765
11.6551,-0.596846,1.0779,45,32765
11.6628,-0.635963,1.08007,42,32765
11.6408,-0.673119,1.0782,43,32765
11.6286,-0.710198,1.07712,44,32765
11.6362,-0.748529,1.0785,43,32765
11.6337,-0.786154,1.07797,42,32765
11.6309,-0.82524,1.07966,16,32765
11.618,-0.863492,1.08013,23,32765
11.625,-0.902824,1.08114,42,32765
11.6218,-0.941737,1.08182,42,32765
11.6186,-0.98017,1.08191,41,32765
11.5955,-1.0167,1.07972,41,32765
11.612,-1.05721,1.08096,42,32765
11.5884,-1.09349,1.08092,41,32765
11.5848,-1.13185,1.08016,41,32765
11.5809,-1.17001,1.08148,40,32765
11.5967,-1.21084,1.08334,42,32765
11.5927,-1.24977,1.08259,42,32765
11.5687,-1.28669,1.0799,42,32765
11.5643,-1.32549,1.08022,42,32765
11.5795,-1.36622,1.08288,42,32765
11.5552,-1.402,1.08085,42,32765
11.5506,-1.44006,1.07959,41,32765
11.5459,-1.47782,1.07934,42,32765
11.5409,-1.51603,1.07927,42,32765
11.5555,-1.55694,1.08152,42,32765
11.5305,-1.59274,1.08029,42,32765
11.535,-1.63246,1.08121,40,32765
11.4111,-1.65392,1.07079,14,32765
11.5139,-1.70832,1.08019,27,32765
11.5277,-1.7496,1.08355,42,32765
11.5021,-1.78548,1.08206,41,32765
11.5156,-1.82717,1.08491,43,32765
11.5291,-1.8687,1.08613,43,32765
11.5032,-1.90382,1.08407,42,32765
11.5166,-1.94457,1.08606,42,32765
11.5099,-1.98349,1.08643,42,32765
11.5031,-2.02244,1.08684,41,32765
11.4962,-2.06067,1.08769,42,32765
11.4893,-2.09879,1.08835,42,32765
11.4628,-2.13219,1.0872,42,32765
11.4557,-2.16998,1.08735,42,32765
11.4875,-2.21536,1.09211,42,32765
11.4801,-2.25305,1.09246,42,32765
11.4724,-2.29143,1.09328,42,32765
11.4648,-2.32904,1.09428,41,32765
11.4568,-2.36734,1.09578,42,32765
11.4585,-2.40773,1.09656,41,32765
11.4504,-2.4456,1.09821,41,32765
11.4421,-2.48332,1.09944,42,32765
11.4338,-2.52057,1.1007,41,32765
11.4448,-2.56279,1.10323,41,32765
11.4362,-2.60064,1.10432,41,32765
11.4274,-2.63772,1.1068,41,32765
11.4186,-2.67526,1.10783,42,32765
11.4096,-2.71224,1.11007,41,32765
11.4393,-2.75921,1.11467,41,32765
11.43,-2.79682,1.11636,41,32765
11.44,-2.8388,1.11979,40,32765
11.4304,-2.87627,1.12162,41,32765
11.4208,-2.91328,1.12456,40,32765
11.4109,-2.9507,1.1272,41,32765
11.401,-2.9882,1.12867,41,32765
11.4101,-3.03056,1.13393,42,32765
11.3999,-3.06761,1.13605,41,32765
11.3899,-3.10396,1.13804,42,32765
11.389,-3.14352,1.14286,38,32765
11.2732,-3.15085,1.13385,13,32765
11.3391,-3.20885,1.14593,25,32765
11.3856,-3.26263,1.15473,41,32765
11.3747,-3.29902,1.15851,40,32765
11.3637,-3.33577,1.16146,41,32765
11.3524,-3.37289,1.16473,40,32765
11.3412,-3.40923,1.16808,41,32765
11.3584,-3.45401,1.17571,41,32765
11.328,-3.48374,1.17836,40,32765
11.3355,-3.52583,1.18363,42,32765
11.3236,-3.56202,1.18855,40,32765
11.3118,-3.59777,1.19344,41,32765
11.3189,-3.63919,1.20076,41,32765
11.3543,-3.68945,1.21173,39,32765
3.516,-1.1547,0.377899,25,32765
11.7911,0.140287,0.948805,57,32765
11.7912,0.100492,0.952354,57,32765
11.7913,0.0614064,0.954718,55,32765
11.7713,0.0219742,0.955636,55,32765
11.7909,-0.0171004,0.960618,55,32765
11.7707,-0.0565553,0.961021,56,32765
11.7504,-0.0951303,0.960355,56,32765
11.75,-0.132959,0.961773,57,32765
11.7493,-0.171647,0.963427,56,32765
11.7585,-0.210657,0.965659,54,32765
11.7576,-0.25019,0.96818,54,32765
11.7367,-0.289023,0.966292,54,32765
11.7356,-0.327806,0.968205,54,32765
11.7344,-0.366775,0.968906,54,32765
11.7331,-0.404875,0.968861,57,32765
11.7315,-0.443557,0.971535,58,32765
11.73,-0.482332,0.971486,57,32765
11.7084,-0.520826,0.969971,58,32765
11.7264,-0.56135,0.972516,57,32765
11.7144,-0.600269,0.971888,57,32765
11.6924,-0.638028,0.971497,57,32765
11.7002,-0.677078,0.972293,58,32765
11.6979,-0.715029,0.972136,58,32765
11.6657,-0.751095,0.970116,57,32765
11.6831,-0.790232,0.971235,56,32765
11.6703,-0.828851,0.972106,39,32765
11.5779,-0.861393,0.966041,16,32765
11.6445,-0.9053,0.971929,49,32765
11.6612,-0.945963,0.974269,54,32765
11.658,-0.984599,0.974363,54,32765
11.6646,-1.02395,0.974849,55,32765
11.6413,-1.06114,0.972583,56,32765
11.6575,-1.10134,0.976057,55,32765
11.634,-1.13806,0.973638,55,32765
11.6499,-1.17845,0.976623,55,32765
11.6459,-1.21752,0.976634,55,32765
11.622,-1.25456,0.974226,56,32765
11.6375,-1.29605,0.975043,55,32765
11.6331,-1.33516,0.975359,56,32765
11.6087,-1.37152,0.974519,55,32765
11.6239,-1.41227,0.976001,56,32765
11.6193,-1.45063,0.974731,55,32765
11.6145,-1.48868,0.974481,56,32765
11.6095,-1.5272,0.974409,57,32765
11.6043,-1.56575,0.974824,56,32765
11.5792,-1.60178,0.973785,55,32765
11.5837,-1.64174,0.974605,55,32765
11.5781,-1.68057,0.975293,35,32765
11.4936,-1.70782,0.967873,19,32765
11.5665,-1.75809,0.976035,53,32765
11.5703,-1.79876,0.97723,55,32765
11.5543,-1.83608,0.977406,55,32765
11.5481,-1.87461,0.97677,55,32765
11.5713,-1.91802,0.979062,55,32765
11.565,-1.95574,0.979198,55,32765
11.5583,-1.9949,0.979576,55,32765
11.5416,-2.03236,0.979159,55,32765
11.5445,-2.07256,0.980848,56,32765
11.5277,-2.10911,0.980676,54,32765
11.5305,-2.14818,0.982221,55,32765
11.543,-2.18997,0.984038,55,32765
11.5258,-2.22629,0.984258,54,32765
11.5184,-2.26418,0.984614,54,32765
11.5204,-2.30471,0.986272,55,32765
11.5127,-2.34256,0.98728,55,32765
11.5242,-2.38513,0.990471,55,32765
11.5064,-2.42172,0.989483,55,32765
11.4981,-2.45982,0.99114,54,32765
11.5093,-2.50201,0.994055,54,32765
11.4912,-2.5374,0.994483,56,32765
11.5021,-2.57989,0.996835,55,32765
11.4837,-2.61579,0.997084,54,32765
11.4847,-2.65534,1.00043,55,32765
11.4855,-2.69542,1.00232,54,32765
11.4958,-2.73731,1.00626,54,32765
11.4963,-2.77763,1.00795,55,32765
11.4773,-2.81314,1.0088,55,32765
11.4486,-2.84574,1.00865,54,32765
11.468,-2.89061,1.01304,55,32765
11.4486,-2.92535,1.01514,54,32765
11.4387,-2.96294,1.01779,55,32765
11.4384,-3.00314,1.02013,53,32765
11.4475,-3.0457,1.02521,54,32765
11.4373,-3.08295,1.02734,54,32765
11.4272,-3.11949,1.02935,54,32765
11.4167,-3.15659,1.03321,55,32765
11.3871,-3.18818,1.03307,29,32765
11.3284,-3.21136,1.03309,17,32765
11.4228,-3.27896,1.04572,48,32765
11.431,-3.3211,1.05127,53,32765
11.4199,-3.35811,1.05424,54,32765
11.4276,-3.40117,1.0593,53,32765
11.4163,-3.43782,1.06267,53,32765
11.4049,-3.47423,1.06738,53,32765
11.4125,-3.5159,1.07383,53,32765
11.3914,-3.54945,1.07624,52,32765
11.3795,-3.5859,1.08119,52,32765
11.3676,-3.6219,1.0861,52,32765
11.3841,-3.66663,1.09418,54,32765
11.4006,-3.71104,1.10289,54,32765
3.50916,-1.15449,0.342103,17,32765
11.7481,0.133217,0.983845,44,32765
11.7291,0.0934029,0.976379,43,32765
11.7298,0.0543169,0.970699,44,32765
11.7202,0.0159098,0.966251,44,32765
11.7207,-0.0227018,0.96038,43,32765
11.7009,-0.0618144,0.955694,45,32765
11.7209,-0.100785,0.953007,44,32765
11.6809,-0.139176,0.946741,45,32765
11.7205,-0.177713,0.946026,45,32765
11.7102,-0.216285,0.942292,42,32765
11.7096,-0.255046,0.939085,41,32765
11.6889,-0.293581,0.935566,42,32765
11.6881,-0.332318,0.932805,41,32765
11.6772,-0.370203,0.929234,46,32765
11.6762,-0.408438,0.926533,45,32765
11.675,-0.446446,0.924248,44,32765
11.6537,-0.484286,0.920746,45,32765
11.6522,-0.52295,0.918249,45,32765
11.6505,-0.561497,0.917127,44,32765
11.6487,-0.60059,0.915086,44,32765
11.6468,-0.638754,0.913653,44,32765
11.6248,-0.675857,0.911193,44,32765
11.6227,-0.714101,0.908879,43,32765
11.6104,-0.751097,0.907191,42,32765
11.618,-0.789939,0.906405,43,32765
11.6055,-0.827169,0.903948,40,32765
11.553,-0.861966,0.900409,17,32765
11.56,-0.901204,0.90071,20,32765
11.6167,-0.943996,0.903943,42,32765
11.6136,-0.982638,0.903045,42,32765
11.5905,-1.01918,0.900513,42,32765
11.5871,-1.05773,0.899775,42,32765
11.5835,-1.09662,0.899799,42,32765
11.56,-1.13296,0.897653,42,32765
11.576,-1.17365,0.89871,42,32765
11.5721,-1.21203,0.898555,42,32765
11.568,-1.25041,0.898702,42,32765
11.5835,-1.29137,0.900824,42,32765
