x, y, z, intensity, ring
0.856467,0.431197,0.0461895,18,32765
1.16177,0.580033,0.0620061,16,32765
1.18162,0.585025,0.0625843,18,32765
1.17464,0.576644,0.061568,17,32765
1.14967,0.559565,0.0596456,16,32765
1.20555,0.581735,0.0618414,17,32765
1.24356,0.594959,0.0631953,16,32765
1.20043,0.569398,0.060531,16,32765
0,0,0,11,32765
0,0,0,0,32765
1.54165,0.712469,0.07547,11,32765
1.41687,0.649102,0.0688319,13,32765
1.57368,0.714643,0.075654,12,32765
1.51232,0.680682,0.0719066,11,32765
1.50549,0.671575,0.0707186,12,32765
1.5534,0.686818,0.072396,12,32765
1.45506,0.637517,0.066985,13,32765
1.4022,0.608797,0.0640159,13,32765
1.38593,0.59615,0.0625628,13,32765
1.47069,0.626709,0.0656417,13,32765
1.51884,0.641181,0.0671834,13,32765
1.42881,0.597578,0.0623691,13,32765
1.42158,0.589022,0.0614281,14,32765
1.29411,0.531228,0.0553566,13,32765
1.43473,0.583406,0.0606239,14,32765
1.40887,0.567475,0.0588113,13,32765
0,0,0,0,32765
1.45911,0.576505,0.0595651,12,32765
1.46101,0.571716,0.0589985,13,32765
1.3045,0.505542,0.052062,13,32765
1.45545,0.558552,0.0573442,13,32765
1.30783,0.496985,0.0508897,13,32765
1.42172,0.534899,0.0546664,14,32765
1.38603,0.516298,0.0525007,13,32765
1.36897,0.504874,0.0511682,13,32765
1.27674,0.466179,0.047148,13,32765
1.21246,0.43828,0.0441729,13,32765
1.04452,0.373726,0.0375668,13,32765
1.02693,0.363599,0.0363001,13,32765
0.877225,0.307317,0.0305423,14,32765
0.840449,0.291397,0.0288559,13,32765
0.813016,0.279011,0.0275404,15,32765
0.83283,0.282893,0.0276795,15,32765
0.843215,0.283421,0.0275885,17,32765
0.853633,0.283825,0.0274517,18,32765
0.854556,0.281076,0.0270111,17,32765
0.836427,0.272236,0.0260175,17,32765
0.846803,0.272682,0.0258643,17,32765
0.857193,0.273069,0.0255788,17,32765
0.867635,0.273267,0.0251991,18,32765
0.839866,0.261632,0.0239372,17,32765
0,0,0,12,32765
0,0,0,0,32765
0,0,0,0,32765
1.01262,0.728698,0.0781324,12,32765
1.12063,0.800828,0.0852856,12,32765
1.13142,0.802985,0.0848744,12,32765
1.0362,0.730283,0.0766992,13,32765
1.1695,0.818456,0.0853877,14,32765
1.27886,0.888615,0.092148,17,32765
1.33938,0.924066,0.0951384,16,32765
1.42485,0.976084,0.0998744,13,32765
0,0,0,0,32765
1.32388,0.893956,0.090519,13,32765
1.37666,0.922909,0.0929767,14,32765
0,0,0,0,32765
1.6078,1.06241,0.105694,12,32765
1.69482,1.11192,0.110064,11,32765
0,0,0,0,32765
1.50937,0.976039,0.0956054,12,32765
1.30258,0.836143,0.0814719,14,32765
1.24642,0.794304,0.0769462,19,32765
1.24063,0.784867,0.0756374,21,32765
1.24323,0.780797,0.0750207,21,32765
1.23732,0.771496,0.0736588,20,32765
1.20595,0.746361,0.0709297,19,32765
1.20846,0.742358,0.0701848,19,32765
1.2195,0.743517,0.069948,19,32765
1.20492,0.729118,0.0682235,18,32765
1.1988,0.719991,0.0670882,18,32765
1.18404,0.7058,0.0654917,15,32765
1.00585,0.595093,0.054986,13,32765
0.938938,0.551288,0.0507737,14,32765
0.992598,0.578311,0.0529757,14,32765
0.934012,0.539989,0.0493352,13,32765
1.00516,0.576635,0.0524648,14,32765
0.98105,0.55847,0.0505179,13,32765
0.991602,0.560149,0.0505846,14,32765
1.00223,0.561688,0.0504919,13,32765
0,0,0,0,32765
0.927319,0.511472,0.0455565,12,32765
1.09556,0.599515,0.0532513,11,32765
0,0,0,13,32765
0,0,0,13,32765
0,0,0,11,32765
0.962247,0.510084,0.0446758,14,32765
0.849017,0.446379,0.0389449,12,32765
1.51497,0.790061,0.0690416,12,32765
1.37562,0.711587,0.061688,13,32765
0.844596,0.433309,0.0374315,14,32765
0.872766,0.444083,0.0383305,18,32765
0.892119,0.450138,0.0387311,17,32765
1.31365,0.657306,0.0563206,14,32765
1.16368,0.577411,0.0494364,17,32765
1.16564,0.573483,0.0488974,18,32765
1.14963,0.560777,0.0476318,18,32765
1.15155,0.556891,0.0470577,17,32765
1.16243,0.557361,0.0469645,17,32765
1.15528,0.549178,0.046239,17,32765
1.16617,0.549571,0.0460661,17,32765
0,0,0,0,32765
1.37841,0.638408,0.0532065,12,32765
1.38962,0.637996,0.0531407,13,32765
1.42813,0.64995,0.053913,13,32765
1.39388,0.62873,0.0519059,13,32765
1.43249,0.640393,0.0525436,13,32765
1.34324,0.595177,0.0487933,14,32765
1.27204,0.558528,0.0455019,13,32765
1.09977,0.478517,0.0389353,13,32765
0.945377,0.407522,0.0329984,14,32765
0.95596,0.408239,0.0328956,14,32765
1.12304,0.475106,0.0382115,13,32765
1.06932,0.448182,0.0357758,14,32765
0.978506,0.406303,0.0323203,13,32765
0.970606,0.399278,0.0316494,14,32765
0.888629,0.362112,0.028525,15,32765
0.852756,0.34421,0.026949,14,32765
0,0,0,0,32765
0.864334,0.34223,0.0265414,17,32765
0.893383,0.350335,0.0270506,17,32765
0.857267,0.332926,0.0255627,17,32765
0.867698,0.333697,0.025442,18,32765
0.878141,0.334405,0.0253303,18,32765
0.832483,0.313868,0.0236397,17,32765
0.833518,0.311142,0.023202,17,32765
0.881422,0.325752,0.0241039,17,32765
0.863703,0.316032,0.0232418,18,32765
0.855331,0.309836,0.0226018,17,32765
0.846936,0.30367,0.0219943,17,32765
0.819686,0.290832,0.0207899,16,32765
0.830091,0.291416,0.0206222,17,32765
0.831035,0.288739,0.0202531,17,32765
0.803591,0.276356,0.0192235,17,32765
0.795001,0.270611,0.0185183,17,32765
0.824294,0.277644,0.0187829,17,32765
0.825206,0.27495,0.0183505,18,32765
0.816603,0.269157,0.0177181,18,32765
0.836454,0.272817,0.0177365,18,32765
0.875375,0.282475,0.0180783,14,32765
0.838168,0.267571,0.0167285,14,32765
0.858122,0.270842,0.0164518,14,32765
0.811255,0.253253,0.0151209,15,32765
0,0,0,0,32765
0,0,0,0,32765
0,0,0,0,32765
0,0,0,0,32765
0,0,0,0,32765
0,0,0,0,32765
0,0,0,0,32765
1.26841,0.887222,0.0804407,16,32765
1.3616,0.94569,0.0855645,13,32765
1.38946,0.958131,0.0865212,13,32765
1.40912,0.964848,0.0869523,12,32765
0,0,0,0,32765
1.39896,0.944354,0.0848531,12,32765
1.33572,0.89528,0.0801899,14,32765
1.36365,0.907456,0.0811785,13,32765
0,0,0,0,32765
1.60349,1.05187,0.0936344,12,32765
0,0,0,0,32765
1.3253,0.856873,0.0758296,13,32765
1.21051,0.776888,0.0685475,17,32765
1.22997,0.783599,0.0688591,21,32765
1.25794,0.795513,0.0697064,23,32765
1.27751,0.801976,0.0700077,21,32765
1.29716,0.808282,0.070365,21,32765
1.23191,0.761915,0.0662083,18,32765
1.20891,0.742178,0.0641829,17,32765
1.24548,0.759018,0.0653955,17,32765
1.18819,0.718671,0.0617053,17,32765
1.19917,0.71987,0.0615482,18,32765
1.20161,0.715833,0.0609257,16,32765
1.02343,0.605033,0.0512938,12,32765
0.922052,0.540956,0.0456911,13,32765
0.975663,0.568073,0.0477014,13,32765
1.07273,0.619798,0.0518937,12,32765
0.979456,0.561587,0.0467609,13,32765
1.07687,0.61269,0.0507212,13,32765
1.05281,0.594386,0.0490455,13,32765
1.03738,0.58109,0.0476819,14,32765
1.06555,0.592171,0.0483551,13,32765
0,0,0,0,32765
0,0,0,0,32765
0,0,0,11,32765
0,0,0,0,32765
0,0,0,0,32765
0,0,0,0,32765
0.973089,0.511334,0.0404456,13,32765
1.38248,0.720527,0.0565925,12,32765
1.4826,0.766306,0.0597392,12,32765
1.36957,0.702074,0.0545291,12,32765
0.873056,0.44385,0.0342088,16,32765
0.892399,0.449918,0.0346013,18,32765
1.42134,0.71059,0.0542464,12,32765
1.19096,0.59035,0.0446933,15,32765
1.18398,0.581944,0.0439267,17,32765
1.19493,0.582355,0.0436248,16,32765
1.23289,0.595745,0.0444962,17,32765
1.18079,0.565755,0.041973,17,32765
1.17368,0.557487,0.040989,17,32765
1.15747,0.545044,0.0399755,15,32765
1.18649,0.553818,0.0404384,16,32765
1.38792,0.642196,0.0465758,11,32765
1.35371,0.620941,0.0447169,12,32765
1.44676,0.657844,0.0471175,12,32765
1.41251,0.636583,0.0454434,13,32765
1.33249,0.595209,0.0423169,12,32765
0.786054,0.348012,0.0246166,13,32765
0.915363,0.401637,0.0282538,15,32765
0.8342,0.362721,0.0253821,14,32765
0.927206,0.399517,0.0278551,17,32765
0.873383,0.372869,0.0258877,16,32765
0.837825,0.354326,0.0245496,15,32765
0.839015,0.35152,0.0242173,14,32765
0.840195,0.348713,0.0238872,15,32765
0.81361,0.334537,0.0228831,15,32765
0.85175,0.346933,0.0236586,15,32765
0.825057,0.332969,0.0226269,16,32765
0,0,0,0,32765
0.855112,0.338615,0.0228728,15,32765
0.87484,0.343104,0.0231357,18,32765
0.857339,0.332967,0.0224368,17,32765
0.877087,0.337351,0.0226638,18,32765
0.831492,0.316652,0.0212645,16,32765
0.851241,0.320972,0.0215765,17,32765
0.880398,0.328646,0.0221483,17,32765
0.890865,0.329195,0.0221362,18,32765
0.873165,0.319412,0.021417,17,32765
0.874202,0.31657,0.0213107,16,32765
0.865813,0.310375,0.0208806,17,32765
0.847973,0.300882,0.0203128,17,32765
0.830084,0.291499,0.0197268,16,32765
0.849923,0.29535,0.0199789,16,32765
0.850889,0.292558,0.0199331,17,32765
0.86129,0.293043,0.0201316,18,32765
0.833808,0.280696,0.0193249,18,32765
0.863165,0.28749,0.0198727,18,32765
0.826104,0.2722,0.0189475,17,32765
0.836478,0.272647,0.0191708,18,32765
0.884917,0.285335,0.0201529,15,32765
0.857229,0.273447,0.0196212,14,32765
0.924835,0.291777,0.0211332,16,32765
0.839838,0.262101,0.0193805,14,32765
0,0,0,11,32765
0,0,0,12,32765
0,0,0,12,32765
0,0,0,0,32765
0,0,0,0,32765
0,0,0,0,32765
1.33021,0.939436,0.0699642,12,32765
1.25153,0.877683,0.0651056,18,32765
1.27906,0.890658,0.065831,20,32765
1.29029,0.892038,0.0657037,21,32765
1.30972,0.899096,0.0659879,21,32765
1.27969,0.872241,0.0638971,19,32765
1.34052,0.907212,0.0661925,15,32765
1.28547,0.863795,0.0627085,14,32765
1.2551,0.837345,0.0606232,16,32765
1.18292,0.783532,0.0564603,18,32765
1.30239,0.85651,0.0614871,13,32765
1.27176,0.830358,0.0593471,13,32765
1.28293,0.831565,0.0591169,18,32765
1.30255,0.838056,0.0592823,20,32765
1.30537,0.833715,0.0586009,21,32765
1.32505,0.840051,0.0587576,21,32765
1.29402,0.814368,0.0566165,21,32765
1.28829,0.804749,0.0556789,20,32765
1.17208,0.726712,0.0500949,19,32765
1.20003,0.738556,0.0505317,18,32765
1.07455,0.656469,0.0446411,14,32765
0.9913,0.60106,0.0406342,14,32765
1.00188,0.602915,0.0404812,13,32765
0.978181,0.584162,0.0389354,14,32765
0.980157,0.580873,0.0384622,13,32765
0.887342,0.521867,0.0343359,13,32765
0.984034,0.574347,0.0374452,14,32765
0.87353,0.505934,0.0328067,13,32765
0.961872,0.552847,0.0355341,14,32765
0.972404,0.554601,0.035319,14,32765
1.03514,0.585833,0.0370843,14,32765
1.03713,0.582354,0.0365304,13,32765
1.18754,0.66156,0.0411584,18,32765
0.98859,0.54631,0.0336739,17,32765
0.876492,0.480517,0.0294135,17,32765
0,0,0,13,32765
0,0,0,0,32765
0,0,0,0,32765
0,0,0,0,32765
1.40625,0.740717,0.0435524,12,32765
1.15182,0.601744,0.034969,15,32765
1.09175,0.565631,0.0324636,15,32765
0.835797,0.42947,0.0244672,15,32765
0.86397,0.440275,0.0247609,19,32765
0.901143,0.455404,0.0254725,16,32765
0.938438,0.470277,0.0259723,12,32765
0.949001,0.471527,0.0256748,13,32765
0.932655,0.459497,0.0248504,14,32765
0.934205,0.456364,0.0243533,15,32765
0.890752,0.431437,0.0228634,16,32765
0.9012,0.432811,0.0226552,16,32765
0.893642,0.425469,0.0219226,17,32765
0.867946,0.40967,0.0209704,17,32765
0.896502,0.419442,0.0212668,18,32765
0.861631,0.399614,0.0200009,17,32765
0.881126,0.405114,0.0200039,17,32765
0.836981,0.381465,0.0186247,17,32765
0.847371,0.382779,0.0185332,17,32765
0.876019,0.39222,0.0188096,17,32765
0.86818,0.385266,0.0182709,17,32765
0.878613,0.386408,0.0181072,17,32765
0.852405,0.371497,0.0172047,17,32765
0.881174,0.380563,0.0174585,17,32765
0.873257,0.373678,0.0169634,17,32765
0.865323,0.3668,0.0165279,16,32765
0.838899,0.352282,0.0156675,17,32765
0.858544,0.35715,0.015674,17,32765
0.804258,0.331452,0.014448,16,32765
0.842382,0.343906,0.01485,17,32765
0.862029,0.348689,0.0149039,17,32765
0,0,0,0,32765
0.845715,0.33566,0.014071,15,32765
0.865431,0.34019,0.0141479,18,32765
0.801334,0.311926,0.0128893,17,32765
0.849,0.327292,0.0133858,17,32765
0.859427,0.328035,0.013332,17,32765
0.869859,0.328737,0.0133068,18,32765
0.88031,0.329358,0.0133099,18,32765
0.890779,0.329908,0.0132032,18,32765
0.844919,0.309778,0.0122628,18,32765
0.836527,0.303609,0.0120243,17,32765
0.884557,0.317808,0.012494,18,32765
0.819638,0.291482,0.011453,17,32765
0.83945,0.295449,0.0115797,18,32765
0.821529,0.286122,0.0111293,18,32765
0.841374,0.289933,0.0113393,18,32765
0.899089,0.306584,0.0120793,19,32765
0.852704,0.287696,0.0112969,19,32765
0.834659,0.278612,0.010938,19,32765
0.854542,0.282194,0.0111327,19,32765
0.855445,0.279445,0.0111378,20,32765
0.837301,0.270576,0.0107885,18,32765
0.885766,0.283171,0.0115233,13,32765
0.82946,0.26226,0.0107668,15,32765
0.811182,0.25371,0.0107199,17,32765
0,0,0,0,32765
0,0,0,0,32765
0,0,0,0,32765
0,0,0,0,32765
0,0,0,0,32765
0,0,0,12,32765
1.2991,0.914137,0.0692701,13,32765
1.29395,0.904153,0.0678094,19,32765
1.2971,0.899715,0.066701,20,32765
1.31666,0.906648,0.0663725,20,32765
1.28673,0.879711,0.0635866,18,32765
1.28138,0.869879,0.0622299,17,32765
1.41677,0.955133,0.067681,12,32765
1.31197,0.87826,0.0614885,15,32765
1.1984,0.796485,0.0551605,17,32765
1.25113,0.825518,0.0565521,17,32765
0,0,0,0,32765
1.37395,0.893469,0.0598561,16,32765
1.35174,0.872668,0.0577667,17,32765
1.32939,0.852059,0.0558286,19,32765
1.3069,0.831634,0.0538673,19,32765
1.31813,0.832628,0.0534628,20,32765
1.30395,0.817695,0.051808,19,32765
1.26425,0.786976,0.0493152,18,32765
1.19886,0.740766,0.0459415,18,32765
1.26947,0.778628,0.0478179,13,32765
0,0,0,0,32765
1.00947,0.609937,0.0366558,12,32765
0.934378,0.560295,0.0332769,14,32765
0.901892,0.536746,0.0315288,13,32765
1.04999,0.620185,0.0360665,13,32765
0.914088,0.535813,0.0307818,12,32765
0.959064,0.557933,0.0317395,13,32765
0.969582,0.559748,0.0314901,14,32765
1.04955,0.601182,0.0335214,15,32765
1.06895,0.607554,0.0334208,13,32765
1.01875,0.574513,0.0312517,12,32765
1.13409,0.634579,0.0340439,16,32765
1.2411,0.689,0.0366112,18,32765
0.936919,0.516089,0.0271034,15,32765
0.912348,0.498545,0.0259549,16,32765
0,0,0,12,32765
0,0,0,0,32765
0,0,0,0,32765
0,0,0,0,32765
1.09764,0.576181,0.0282979,12,32765
0.966586,0.503219,0.0241286,12,32765
0.888298,0.458755,0.0217075,14,32765
0.800871,0.410166,0.0192303,17,32765
0.900319,0.457254,0.0210846,17,32765
0.919738,0.46318,0.0211075,15,32765
0.903417,0.451137,0.0203319,14,32765
0.851162,0.421508,0.0188088,14,32765
0.879498,0.431881,0.0190202,15,32765
0.853973,0.415815,0.0180983,16,32765
0.87339,0.42162,0.0180509,16,32765
0.901872,0.431611,0.0184137,16,32765
0.849145,0.402812,0.0171586,16,32765
0.832405,0.391454,0.0162833,15,32765
0.860905,0.401336,0.0164673,16,32765
0.925781,0.427824,0.0172295,16,32765
0.854478,0.391438,0.0156051,15,32765
0.837576,0.380323,0.014861,15,32765
0.893559,0.402136,0.0154534,15,32765
0.840118,0.374699,0.0142248,16,32765
0.804795,0.355708,0.0133014,15,32765
0.87011,0.381069,0.0139336,16,32765
0.825525,0.358251,0.0128519,15,32765
0.845095,0.363389,0.0127617,17,32765
0.837105,0.356657,0.012273,16,32765
0.856721,0.361635,0.0121993,17,32765
0.857917,0.358804,0.0118028,17,32765
0.849878,0.352107,0.0112622,18,32765
0.851053,0.349272,0.0108808,16,32765
0.870735,0.353983,0.0107783,17,32765
0.8348,0.33617,0.00993434,17,32765
0.789486,0.314849,0.00902353,15,32765
0,0,0,0,32765
0.84744,0.331463,0.0088246,16,32765
0.867175,0.335906,0.00869172,16,32765
0.877618,0.336624,0.00839517,18,32765
0.841339,0.319516,0.00764717,17,32765
0.861086,0.323845,0.00738003,18,32765
0.843395,0.314066,0.0068643,18,32765
0.891307,0.328671,0.00689077,18,32765
0.882973,0.322362,0.0063656,18,32765
0.855814,0.309271,0.00576493,18,32765
0.847409,0.303102,0.00527928,18,32765
0.876702,0.310273,0.00499422,19,32765
0.849403,0.29748,0.0044991,18,32765
0.859816,0.297995,0.00402119,18,32765
0.841863,0.28871,0.00357757,17,32765
0.842785,0.286014,0.00313488,17,32765
0.83422,0.280124,0.00265331,17,32765
0.882554,0.293245,0.00231239,17,32765
0.826494,0.271671,0.00172299,17,32765
0.83686,0.272145,0.00122759,17,32765
0.85676,0.275612,0.000755747,17,32765
0.857627,0.272903,0.000215468,17,32765
0.86801,0.273238,-0.000274137,15,32765
0.907041,0.282446,-0.000898934,12,32765
0,0,0,0,32765
0,0,0,0,32765
1.26181,0.915444,0.0581808,13,32765
1.39463,1.00473,0.0627089,14,32765
1.30856,0.936196,0.0574696,13,32765
1.31979,0.937738,0.0565762,15,32765
1.20858,0.85274,0.0506536,18,32765
1.32601,0.929053,0.0543927,17,32765
1.28821,0.895959,0.0516112,18,32765
1.26662,0.87454,0.0494948,18,32765
1.2943,0.887269,0.0493238,16,32765
1.19809,0.815521,0.0446648,18,32765
1.20902,0.817261,0.0441411,18,32765
1.24491,0.835598,0.0443551,15,32765
1.33089,0.886901,0.0463333,14,32765
0,0,0,0,32765
0,0,0,0,32765
0,0,0,11,32765
1.34269,0.869127,0.0424463,12,32765
1.31192,0.843096,0.040533,16,32765
1.23042,0.785043,0.0370846,17,32765
1.2246,0.775595,0.0361302,20,32765
1.20177,0.755612,0.0344878,18,32765
1.00923,0.629886,0.0282532,13,32765
0.951838,0.589685,0.0260137,13,32765
0.928242,0.570835,0.0247819,13,32765
0.827747,0.505245,0.0215023,14,32765
0.932054,0.564637,0.0236591,13,32765
0.933956,0.56151,0.0230751,13,32765
0.875732,0.522541,0.0210805,13,32765
0.886071,0.524734,0.0208076,14,32765
0.879208,0.516712,0.020071,14,32765
0.924101,0.538994,0.0205775,14,32765
0.882632,0.510876,0.0191277,14,32765
0.884368,0.507881,0.018706,14,32765
0.912135,0.519769,0.0186965,14,32765
0.844254,0.477339,0.0168245,14,32765
0.889451,0.498981,0.0171572,16,32765
0.882394,0.491126,0.016579,15,32765
0.822753,0.454371,0.0150041,12,32765
0,0,0,0,32765
0.852143,0.463185,0.0145908,14,32765
0.888916,0.479279,0.01485,16,32765
0.872883,0.466876,0.01419,16,32765
0.830272,0.440542,0.013114,15,32765
0.867159,0.456358,0.0131787,16,32765
0.859845,0.448792,0.0123796,16,32765
0.808045,0.418374,0.0112229,19,32765
0.871734,0.447596,0.0117517,19,32765
0.864342,0.4401,0.0111546,16,32765
0.830139,0.419121,0.0103376,16,32765
0.858383,0.429736,0.0103227,17,32765
0.823989,0.409085,0.00958655,16,32765
0.843302,0.415155,0.0094273,16,32765
0.853675,0.41672,0.0091873,16,32765
0.837084,0.405113,0.00858239,17,32765
0.865502,0.415248,0.00867081,17,32765
0.839831,0.399395,0.00825041,16,32765
0.832128,0.392306,0.00765086,16,32765
0.869681,0.406444,0.00763222,17,32765
0.861965,0.399331,0.00713186,17,32765
0.845115,0.388117,0.00671088,16,32765
0.791802,0.360437,0.00588768,17,32765
0.875046,0.394788,0.00612694,18,32765
0.830726,0.371434,0.00552776,17,32765
0.868544,0.38484,0.00544092,18,32765
0.878999,0.385921,0.00506716,17,32765
0.843613,0.367011,0.00449938,18,32765
0.84484,0.364182,0.00412302,18,32765
0.836855,0.357435,0.00372759,17,32765
0.874886,0.370218,0.00354001,19,32765
0.866886,0.363454,0.00310135,18,32765
0.877335,0.364384,0.00270661,18,32765
0.850806,0.350035,0.00223915,18,32765
0.861224,0.350983,0.00192747,18,32765
0.871653,0.351879,0.00154523,18,32765
0.891402,0.356372,0.00117218,17,32765
0,0,0,0,32765
0.828582,0.324888,0.000268176,16,32765
0.857611,0.333022,-4.66489e-05,17,32765
0.868041,0.333773,-0.000433543,18,32765
0.850452,0.323774,-0.000819838,17,32765
0.823421,0.310445,-0.00121134,17,32765
0.824428,0.307761,-0.00155923,16,32765
0.872306,0.322458,-0.00199573,16,32765
0.873343,0.319634,-0.00244402,16,32765
0.799171,0.289514,-0.00260553,14,32765
0.856593,0.307144,-0.00321691,14,32765
0.88589,0.3143,-0.00378943,14,32765
0.971835,0.341199,-0.00453506,13,32765
1.31299,0.456182,-0.00692712,13,32765
1.34284,0.461654,-0.00764413,13,32765
1.33484,0.454123,-0.00829228,14,32765
1.39315,0.468969,-0.00939142,14,32765
1.32822,0.44242,-0.00968497,14,32765
1.41511,0.466304,-0.0110622,14,32765
1.34052,0.437016,-0.0112943,14,32765
1.43707,0.46344,-0.0129344,14,32765
1.4671,0.468003,-0.0141164,14,32765
1.46854,0.463429,-0.0149496,14,32765
1.48905,0.464837,-0.0161505,14,32765
0,0,0,0,32765
1.00909,0.736934,0.0341722,11,32765
1.04391,0.757059,0.0349155,12,32765
1.15998,0.835394,0.0383724,12,32765
1.32544,0.947751,0.0432684,14,32765
1.31227,0.931799,0.0422566,15,32765
1.25812,0.887215,0.039861,16,32765
1.53944,1.07806,0.0480886,11,32765
0,0,0,0,32765
1.36565,0.942818,0.041211,13,32765
1.19565,0.81955,0.0354857,15,32765
1.21492,0.826799,0.0355379,19,32765
1.2674,0.856316,0.0364154,17,32765
1.39477,0.935663,0.0392957,14,32765
1.38128,0.91989,0.0381733,14,32765
0,0,0,0,32765
0,0,0,0,32765
1.20601,0.786226,0.0315816,14,32765
1.1918,0.771415,0.0304816,16,32765
1.17756,0.756616,0.0295946,18,32765
1.18008,0.752718,0.0288567,18,32765
1.20796,0.764785,0.0290736,19,32765
1.19364,0.750033,0.0279856,19,32765
1.10285,0.687815,0.0251606,14,32765
0.841644,0.520948,0.0186871,13,32765
0.911522,0.560032,0.0197845,13,32765
0.887771,0.541396,0.0187997,13,32765
0.906671,0.548815,0.0186766,13,32765
0.891355,0.535506,0.0178638,12,32765
0.893166,0.532495,0.017437,13,32765
0.946569,0.560074,0.0179925,14,32765
0.870855,0.511326,0.016039,13,32765
0.898488,0.523508,0.0160936,14,32765
0.900237,0.520511,0.0155536,14,32765
0.893332,0.512478,0.0149646,14,32765
0.869006,0.494599,0.0141336,14,32765
0.888027,0.501612,0.0138852,16,32765
0.872268,0.488852,0.0131306,16,32765
0.86514,0.481115,0.0127115,15,32765
0.945557,0.521676,0.0132491,13,32765
0,0,0,0,32765
0.887565,0.48187,0.0113942,14,32765
0.827572,0.44567,0.0101776,15,32765
0.873143,0.46649,0.0103565,15,32765
0.93653,0.49639,0.0104278,16,32765
0.885074,0.465353,0.00953018,15,32765
0.877762,0.457771,0.00887795,16,32765
0.852658,0.441035,0.00789646,20,32765
0.871927,0.447307,0.00772748,18,32765
0.873429,0.444375,0.00729978,16,32765
0.874905,0.441471,0.00672682,16,32765
0.885315,0.44303,0.00646311,15,32765
0.859941,0.426693,0.00580775,16,32765
0.861384,0.423779,0.00539893,15,32765
0.871814,0.425223,0.00502002,16,32765
0.873267,0.422235,0.00467899,15,32765
0.874669,0.419329,0.00418414,16,32765
0.821916,0.390564,0.00379468,15,32765
0.859407,0.404854,0.00354362,16,32765
0.833577,0.389282,0.00303593,16,32765
0.88934,0.411663,0.00287158,17,32765
0.854344,0.392035,0.00234966,17,32765
0.828369,0.376698,0.00189295,18,32765
0.875192,0.394508,0.00157614,17,32765
0.876515,0.391561,0.00116536,17,32765
0.914381,0.404853,0.000828633,18,32765
0.851612,0.373708,0.000435966,16,32765
0.852854,0.370863,0.000109089,16,32765
0.890814,0.383862,-0.000168458,17,32765
0.855334,0.365107,-0.000583637,17,32765
0.902606,0.381709,-0.000942941,16,32765
0.8393,0.351673,-0.00114641,16,32765
0.868183,0.360356,-0.00154181,17,32765
0.832377,0.342266,-0.00176941,16,32765
0.83351,0.339495,-0.00203458,16,32765
0.862436,0.347992,-0.00237541,17,32765
0.872858,0.348873,-0.00266338,17,32765
0.846107,0.334956,-0.00280159,14,32765
0,0,-0,0,32765
0.866933,0.336622,-0.00348535,16,32765
0.830698,0.319419,-0.00357451,16,32765
0.869113,0.330948,-0.00389969,15,32765
0.87955,0.331623,-0.00416822,16,32765
0.843152,0.314765,-0.00421404,14,32765
0.919232,0.339687,-0.0049326,15,32765
0.986087,0.360699,-0.00540288,14,32765
1.00607,0.364268,-0.00564275,13,32765
1.07316,0.384573,-0.0063286,13,32765
1.14981,0.40778,-0.0069865,13,32765
1.21719,0.4272,-0.00757881,13,32765
1.21855,0.423284,-0.00781862,13,32765
1.41848,0.487668,-0.00933879,13,32765
1.39164,0.473455,-0.00918255,12,32765
1.35524,0.456226,-0.00911605,13,32765
1.48006,0.492866,-0.0101681,13,32765
1.42466,0.46931,-0.00992842,13,32765
1.44518,0.470896,-0.00997759,13,32765
1.33247,0.429449,-0.00930665,13,32765
1.41957,0.452572,-0.0098073,13,32765
1.49731,0.472068,-0.0104231,13,32765
1.51787,0.473347,-0.0102705,12,32765
0,0,0,0,32765
0,0,0,0,32765
1.01881,0.741035,0.0223519,12,32765
0.940209,0.679113,0.020307,12,32765
0.958766,0.687571,0.020315,12,32765
1.15651,0.823596,0.0240211,15,32765
1.33878,0.946851,0.0271464,15,32765
1.4319,1.00567,0.028432,14,32765
1.39421,0.972332,0.0271818,13,32765
1.16733,0.808237,0.0219981,15,32765
1.17829,0.80998,0.0216467,17,32765
1.15623,0.789118,0.0207746,17,32765
1.16715,0.790849,0.0203934,19,32765
1.16978,0.786975,0.019813,17,32765
1.24727,0.833012,0.0204847,15,32765
0,0,0,0,32765
0,0,0,0,32765
1.2554,0.820747,0.0188838,16,32765
1.21615,0.789407,0.0175777,15,32765
1.25242,0.806989,0.0175739,16,32765
1.17929,0.754338,0.0157733,14,32765
0.827285,0.525247,0.0107652,13,32765
0.879837,0.554407,0.0109207,13,32765
0.881707,0.551438,0.0104064,14,32765
0.875087,0.543164,0.00981257,14,32765
0.851347,0.524523,0.00914016,13,32765
0.861618,0.526913,0.00881295,14,32765
0.846267,0.513678,0.00818499,15,32765
0.85654,0.516021,0.00782402,15,32765
0.858285,0.513119,0.00741269,15,32765
0.868593,0.51536,0.00707229,15,32765
0.83586,0.492136,0.00632904,15,32765
0.828877,0.484282,0.00587362,16,32765
0.839145,0.486525,0.00543037,15,32765
0.849465,0.488655,0.00506732,16,32765
0.842444,0.480799,0.00463149,16,32765
0.861408,0.487912,0.00421078,16,32765
0.819459,0.460515,0.0035439,15,32765
0,0,0,0,32765
0.778767,0.430831,0.00258599,14,32765
0.867898,0.476286,0.00237135,16,32765
0.851937,0.463789,0.00186015,16,32765
0.835911,0.451388,0.00138952,16,32765
0.855033,0.458058,0.00106282,16,32765
0.883034,0.469309,0.000471517,17,32765
0.893439,0.471026,0.000164894,17,32765
0.832981,0.435595,-0.00037602,19,32765
0.887706,0.460409,-0.00114279,18,32765
0.871461,0.448279,-0.00145424,18,32765
0.872965,0.445341,-0.0018827,17,32765
0.901211,0.455975,-0.00253152,18,32765
0.875913,0.439509,-0.00278611,18,32765
0.8774,0.436531,-0.00325592,17,32765
0.860938,0.424702,-0.00359903,17,32765
0.871367,0.42615,-0.0040724,17,32765
0.872823,0.423156,-0.0044142,17,32765
0.865213,0.415912,-0.0048591,16,32765
0.866643,0.412923,-0.0049978,16,32765
0.868023,0.410009,-0.00542074,16,32765
0.86939,0.407095,-0.00583442,16,32765
0.870764,0.404143,-0.00619008,16,32765
0.863013,0.397072,-0.00653528,15,32765
0.800674,0.365076,-0.00642351,17,32765
0.94767,0.428319,-0.00804801,16,32765
0.939979,0.421033,-0.00841206,15,32765
1.0419,0.462545,-0.00975044,16,32765
1.03427,0.455071,-0.0100723,13,32765
1.11828,0.487576,-0.0113042,12,32765
1.1566,0.49972,-0.0120424,12,32765
1.34216,0.574439,-0.0146175,13,32765
1.38091,0.585532,-0.015521,13,32765
1.34596,0.565463,-0.0155426,13,32765
1.35708,0.564776,-0.0162093,13,32765
1.37743,0.567888,-0.0169162,14,32765
1.3608,0.55573,-0.0171233,13,32765
1.36261,0.551265,-0.0175558,14,32765
1.43866,0.576539,-0.018945,13,32765
1.38479,0.549655,-0.0185781,14,32765
0,0,-0,0,32765
1.44427,0.562278,-0.0203651,12,32765
1.39946,0.539538,-0.0201121,13,32765
1.42924,0.545668,-0.020786,14,32765
1.41231,0.533894,-0.0208793,14,32765
0.8709,0.325978,-0.0130907,15,32765
1.34078,0.496766,-0.0206314,14,32765
1.39874,0.512986,-0.0216655,14,32765
1.39102,0.504966,-0.0217105,14,32765
1.41149,0.507142,-0.0224215,15,32765
1.46026,0.519234,-0.0234415,14,32765
1.40535,0.494531,-0.0227562,13,32765
1.38805,0.483422,-0.0227249,14,32765
1.41795,0.488755,-0.0234369,15,32765
1.4479,0.493879,-0.0239385,14,32765
1.38316,0.466837,-0.0230314,15,32765
1.42262,0.474968,-0.023878,14,32765
1.38617,0.457816,-0.0233895,14,32765
1.37814,0.450215,-0.0231509,15,32765
1.36055,0.439634,-0.0229517,14,32765
1.48575,0.474895,-0.024937,14,32765
1.44913,0.458058,-0.024385,14,32765
1.46965,0.45949,-0.0244305,13,32765
1.01512,0.745885,0.0278893,12,32765
0.848002,0.618787,0.0222425,12,32765
1.07673,0.780269,0.0270743,12,32765
0.900805,0.648215,0.0216453,12,32765
1.18767,0.848696,0.0274254,13,32765
1.30469,0.925726,0.028673,17,32765
1.38952,0.978967,0.0293464,15,32765
1.42555,0.997284,0.0286654,12,32765
1.24001,0.861344,0.0237489,14,32765
1.22636,0.845948,0.0225437,16,32765
1.18788,0.813703,0.0208304,16,32765
1.16575,0.792934,0.0194443,18,32765
1.18493,0.800312,0.0186817,18,32765
1.2209,0.818519,0.0182788,17,32765
1.28191,0.853212,0.0181353,13,32765
1.28479,0.848885,0.0172058,12,32765
1.23743,0.811748,0.015594,16,32765
1.20655,0.785897,0.0143336,15,32765
1.20915,0.781904,0.0135058,15,32765
1.23695,0.794157,0.0129529,15,32765
0.96134,0.612648,0.00935472,13,32765
0.887329,0.561323,0.00797049,13,32765
0.956951,0.6009,0.00798545,13,32765
0.93349,0.581846,0.0071793,15,32765
0.841856,0.520907,0.00587127,13,32765
0.886185,0.544284,0.00559701,13,32765
0.785525,0.478885,0.00448079,13,32765
0.889782,0.538394,0.00449964,14,32765
0.848726,0.509657,0.00376234,14,32765
0.867611,0.517049,0.00327401,14,32765
0.852135,0.503944,0.00270029,15,32765
0.888329,0.521313,0.00231153,15,32765
0.820921,0.478107,0.00163913,15,32765
0.900418,0.520428,0.00124296,15,32765
0.824066,0.472668,0.000644098,14,32765
0.843028,0.479795,0.000234657,15,32765
0.862057,0.486784,-0.000280425,15,32765
0,0,-0,0,32765
0.987711,0.548931,-0.00130175,13,32765
0.858167,0.47323,-0.00156332,15,32765
0.89484,0.489548,-0.002097,16,32765
0.914035,0.496118,-0.00258906,16,32765
0.871662,0.469359,-0.00292017,16,32765
0.882055,0.471134,-0.00344302,17,32765
0.865948,0.458825,-0.00369723,16,32765
0.849775,0.446616,-0.00407854,16,32765
0.833508,0.43456,-0.00465992,19,32765
0.87936,0.45475,-0.00527605,16,32765
0.898683,0.460906,-0.00584295,16,32765
0.855663,0.435205,-0.00606642,16,32765
0.830364,0.418755,-0.00628478,16,32765
0.831793,0.415904,-0.0066649,15,32765
0.833201,0.413071,-0.00700391,15,32765
0.87049,0.427887,-0.00776891,16,32765
0.898865,0.438141,-0.00856854,16,32765
0.846303,0.409021,-0.00856473,15,32765
0.847664,0.406186,-0.00888635,15,32765
0.821943,0.390424,-0.00889755,14,32765
0.904696,0.425949,-0.00962694,15,32765
0.897052,0.418686,-0.0100379,15,32765
0.907533,0.419849,-0.0104953,14,32765
0.927122,0.425113,-0.0111081,14,32765
0.837504,0.38063,-0.0104132,16,32765
1.1123,0.500991,-0.0143611,16,32765
1.15048,0.513576,-0.0153711,15,32765
1.18876,0.525915,-0.0163216,16,32765
1.25463,0.549991,-0.0177171,15,32765
1.37567,0.597607,-0.0200606,13,32765
1.45114,0.624592,-0.0218324,14,32765
1.43481,0.611914,-0.0222493,13,32765
1.46447,0.618778,-0.0234278,14,32765
1.45731,0.609974,-0.0238398,13,32765
1.44086,0.597429,-0.0242456,13,32765
1.42436,0.584969,-0.0246316,13,32765
1.46335,0.595268,-0.0259311,14,32765
1.45603,0.586676,-0.0263845,14,32765
1.37438,0.548476,-0.0256299,13,32765
1.50632,0.595458,-0.0286572,13,32765
1.48966,0.583145,-0.0291145,12,32765
0,0,-0,0,32765
0,0,-0,0,32765
1.46725,0.5578,-0.0306825,13,32765
1.3755,0.517724,-0.0293843,13,32765
1.33035,0.495712,-0.0289932,13,32765
0.909852,0.335643,-0.020319,16,32765
1.63407,0.59669,-0.0371995,12,32765
1.40095,0.50633,-0.0326025,12,32765
1.44022,0.515273,-0.0341425,13,32765
1.47959,0.523867,-0.0358152,13,32765
1.48126,0.519078,-0.0365483,13,32765
1.44513,0.501174,-0.0363896,13,32765
1.35216,0.464056,-0.0347394,12,32765
1.45774,0.495127,-0.0381776,13,32765
1.50668,0.50634,-0.0403578,13,32765
1.34701,0.44791,-0.0367166,13,32765
1.44338,0.474792,-0.0401626,13,32765
1.45438,0.473256,-0.0413208,13,32765
1.51291,0.487108,-0.0439095,13,32765
1.36201,0.433823,-0.0403666,13,32765
1.4873,0.468513,-0.0450387,13,32765
1.32653,0.413177,-0.0411035,13,32765
0,0,0,0,32765
0,0,0,0,32765
0.954438,0.693743,0.0130207,12,32765
0.948648,0.684709,0.0119075,12,32765
0.967171,0.693219,0.0112583,12,32765
1.03468,0.736361,0.0109171,12,32765
1.13513,0.802156,0.0110327,13,32765
1.12962,0.792635,0.00986452,17,32765
1.13226,0.788867,0.0088331,16,32765
1.20062,0.830683,0.00847116,14,32765
1.37641,0.945682,0.0085785,13,32765
1.37952,0.941153,0.00744942,13,32765
1.16735,0.790803,0.0052647,15,32765
1.18666,0.797947,0.00443779,17,32765
1.39726,0.932765,0.00410607,12,32765
1.12533,0.745742,0.00248353,13,32765
1.21967,0.80249,0.00175591,17,32765
1.18042,0.771169,0.000873116,16,32765
1.04873,0.680188,5.44036e-05,13,32765
0.807135,0.519743,-0.000503884,15,32765
0.825734,0.52779,-0.00110871,16,32765
0.835939,0.53038,-0.00172966,15,32765
0.846169,0.53291,-0.0022722,16,32765
0.839461,0.524784,-0.00278508,16,32765
0.841178,0.522024,-0.00337598,16,32765
0.83439,0.513983,-0.00388058,15,32765
0.84462,0.516428,-0.00442724,16,32765
0.87198,0.529174,-0.00511699,13,32765
1.03652,0.624252,-0.00670794,11,32765
0.849765,0.5079,-0.00604231,13,32765
0.842871,0.499926,-0.00648587,14,32765
0.827317,0.486929,-0.00681839,15,32765
0.854829,0.49931,-0.0075459,16,32765
0.83052,0.48143,-0.00782705,14,32765
0.780101,0.448755,-0.00780404,11,32765
0,0,-0,0,32765
0,0,-0,0,32765
0.84563,0.475095,-0.0097174,15,32765
0.873434,0.486829,-0.0105046,16,32765
0.831286,0.459735,-0.0104013,18,32765
0.867887,0.476177,-0.0112961,19,32765
0.86946,0.473288,-0.0117262,15,32765
0.853437,0.460872,-0.0119365,15,32765
0.85498,0.45799,-0.0124158,15,32765
0.865332,0.45982,-0.0128677,16,32765
0.840329,0.442923,-0.0129266,17,32765
0.877225,0.458668,-0.0141733,12,32765
1.10065,0.570823,-0.0182147,12,32765
1.32486,0.681429,-0.0225672,13,32765
0.85507,0.436152,-0.0150534,15,32765
1.38299,0.699444,-0.0249861,12,32765
0,0,-0,0,32765
0,0,-0,13,32765
0,0,-0,0,32765
0,0,-0,0,32765
1.2866,0.623594,-0.0264227,14,32765
1.39681,0.67124,-0.0291716,13,32765
1.48935,0.709461,-0.0315896,13,32765
1.39233,0.657398,-0.0292535,14,32765
1.27679,0.597617,-0.0275074,14,32765
1.1881,0.551208,-0.0260238,16,32765
1.17179,0.538823,-0.0261371,17,32765
0.809679,0.369027,-0.0184145,16,32765
1.19359,0.539132,-0.0276984,14,32765
1.17713,0.526961,-0.0278284,14,32765
1.20629,0.535183,-0.0289462,16,32765
1.18063,0.519017,-0.0287758,17,32765
1.219,0.531047,-0.0302562,16,32765
1.39517,0.602201,-0.0352547,13,32765
1.41554,0.605405,-0.036404,14,32765
1.41755,0.600646,-0.037132,14,32765
1.40112,0.588111,-0.0371889,14,32765
1.37538,0.571887,-0.0371317,13,32765
1.41426,0.582461,-0.0388218,13,32765
1.37916,0.562607,-0.03843,14,32765
1.40882,0.569256,-0.0398026,13,32765
1.38284,0.553412,-0.0397808,13,32765
1.36604,0.541528,-0.0397948,13,32765
1.40504,0.551571,-0.041644,14,32765
0,0,-0,0,32765
0,0,-0,0,32765
1.45705,0.555489,-0.045126,14,32765
1.4121,0.533005,-0.0443545,14,32765
1.35767,0.507322,-0.043214,13,32765
1.3593,0.502864,-0.0439827,14,32765
0.854104,0.312765,-0.0279962,15,32765
1.40954,0.510878,-0.0469012,14,32765
1.42057,0.509686,-0.0478707,13,32765
1.38455,0.491609,-0.0473338,14,32765
1.4144,0.497058,-0.0490009,14,32765
1.43486,0.499028,-0.0504223,14,32765
1.44589,0.497636,-0.0515339,14,32765
1.44744,0.493032,-0.0522955,14,32765
1.47741,0.49792,-0.0542444,15,32765
1.23247,0.410995,-0.0458211,16,32765
1.11988,0.369432,-0.0422598,18,32765
1.14004,0.372033,-0.0436776,19,32765
1.13165,0.365403,-0.0440388,18,32765
1.11373,0.355764,-0.0440154,18,32765
1.11483,0.352196,-0.0447676,19,32765
1.1064,0.345608,-0.0451971,19,32765
0,0,0,0,32765
0.936176,0.684962,0.00139239,12,32765
0.914155,0.664243,0.00103275,12,32765
0.794648,0.573527,0.000564243,12,32765
1.14607,0.821358,0.000388665,12,32765
0.936995,0.666739,-8.38609e-05,12,32765
1.11072,0.784799,-0.000535877,12,32765
1.03964,0.729418,-0.00100547,12,32765
1.27173,0.886113,-0.0018121,12,32765
1.48845,1.02986,-0.00264292,12,32765
0,0,-0,0,32765
1.4704,1.00314,-0.00398347,12,32765
1.32474,0.897239,-0.00449949,13,32765
1.25309,0.842525,-0.004809,13,32765
1.3641,0.910383,-0.00579815,13,32765
0,0,-0,0,32765
1.16128,0.763858,-0.00615249,14,32765
1.15543,0.754543,-0.00672785,14,32765
0,0,-0,12,32765
0,0,-0,0,32765
0.867968,0.554519,-0.00641645,15,32765
0.878264,0.55696,-0.00689986,15,32765
0.837791,0.527406,-0.00707157,15,32765
0.915846,0.572329,-0.00804793,15,32765
0.875256,0.542918,-0.00815382,16,32765
0.843005,0.519012,-0.00831118,15,32765
0.878871,0.537033,-0.00904848,16,32765
0.872124,0.528876,-0.0094263,15,32765
0,0,-0,0,32765
0,0,-0,0,32765
0,0,-0,0,32765
0.836042,0.491748,-0.0108068,14,32765
0.889515,0.519155,-0.0119077,15,32765
0.891256,0.516148,-0.0123807,15,32765
0.849645,0.488215,-0.0122494,14,32765
0,0,-0,0,32765
0,0,-0,0,32765
0.854481,0.479663,-0.0136261,14,32765
0.873535,0.486549,-0.0143806,16,32765
0.857653,0.473939,-0.0146115,15,32765
0.894309,0.490272,-0.0156225,18,32765
1.03647,0.563712,-0.0186803,14,32765
0,0,-0,0,32765
1.11962,0.59909,-0.0212148,12,32765
0.92732,0.492192,-0.0180263,13,32765
0.928968,0.489058,-0.0184943,15,32765
1.40918,0.73584,-0.0289514,13,32765
1.3051,0.675918,-0.0274256,12,32765
1.35184,0.694332,-0.028966,13,32765
0.87308,0.444706,-0.0191837,15,32765
1.44574,0.730201,-0.0323546,12,32765
0,0,-0,0,32765
0,0,-0,0,32765
0,0,-0,12,32765
0,0,-0,0,32765
0,0,-0,0,32765
1.40603,0.67485,-0.0354818,13,32765
1.42631,0.678742,-0.0365906,14,32765
1.44663,0.68252,-0.0376876,13,32765
1.39455,0.652273,-0.036983,14,32765
1.24254,0.576062,-0.033698,15,32765
1.22631,0.563497,-0.0335134,17,32765
0.837012,0.381146,-0.0232188,17,32765
1.23919,0.55928,-0.0350168,16,32765
1.2137,0.542792,-0.0347199,13,32765
1.27035,0.562995,-0.0368314,13,32765
1.25388,0.550747,-0.0369151,16,32765
1.23737,0.538575,-0.0368945,17,32765
1.2483,0.538446,-0.0376654,14,32765
1.45233,0.62063,-0.0443469,13,32765
1.32552,0.561187,-0.0409281,13,32765
1.42875,0.59932,-0.0445901,13,32765
1.47687,0.613749,-0.0466305,13,32765
1.50658,0.62034,-0.0480164,13,32765
1.51786,0.619121,-0.0489085,14,32765
1.42719,0.576688,-0.0463917,13,32765
1.45693,0.583083,-0.0477408,13,32765
1.41239,0.559804,-0.0466365,13,32765
1.47934,0.580709,-0.0492241,12,32765
1.42536,0.554024,-0.0478824,13,32765
0,0,-0,0,32765
1.3729,0.52331,-0.0468451,12,32765
1.41201,0.532903,-0.0485156,13,32765
1.46988,0.54933,-0.0508023,13,32765
1.47168,0.544463,-0.0512289,13,32765
0.87281,0.319633,-0.0306247,16,32765
1.35307,0.490442,-0.0476899,13,32765
1.49577,0.536609,-0.0529922,13,32765
1.49752,0.531679,-0.0532725,13,32765
1.45211,0.510162,-0.0520105,13,32765
1.42544,0.495571,-0.0513029,13,32765
1.50264,0.516942,-0.0542549,13,32765
1.43808,0.489521,-0.0520126,13,32765
1.48699,0.50086,-0.0539077,13,32765
1.38431,0.461229,-0.0504664,13,32765
1.18646,0.391081,-0.0433232,16,32765
1.16869,0.381107,-0.0426942,17,32765
1.13184,0.365133,-0.0413591,16,32765
1.16156,0.370649,-0.0423632,17,32765
1.15325,0.363794,-0.0421127,17,32765
1.15441,0.360102,-0.0420661,17,32765
0.820189,0.606322,-0.00802125,12,32765
0.935077,0.686399,-0.00939979,13,32765
0.856529,0.624404,-0.00889439,11,32765
0.963817,0.697889,-0.010389,12,32765
0.974261,0.700498,-0.010838,12,32765
0.870824,0.621662,-0.0100382,12,32765
0.929995,0.659232,-0.0110623,13,32765
0.997595,0.702177,-0.0123252,13,32765
0.95889,0.670283,-0.0122629,13,32765
1.00217,0.695622,-0.0131436,13,32765
1.17733,0.811499,-0.0160544,12,32765
1.24602,0.85278,-0.0174456,13,32765
1.23234,0.83732,-0.0180716,15,32765
1.11912,0.754844,-0.0168781,16,32765
1.07185,0.71761,-0.0165819,17,32765
1.24915,0.830188,-0.0199881,11,32765
1.0182,0.671858,-0.0167714,17,32765
1.10405,0.723268,-0.0187402,16,32765
1.05615,0.686882,-0.0185107,17,32765
1.17604,0.759262,-0.0211913,14,32765
1.18699,0.760712,-0.0219317,13,32765
0.902691,0.574245,-0.0170776,13,32765
0.853862,0.539205,-0.0166345,15,32765
0.864109,0.541685,-0.0171153,16,32765
0.882884,0.549358,-0.017935,17,32765
0.850688,0.525373,-0.017725,16,32765
0.860969,0.52773,-0.018297,17,32765
0.845657,0.514418,-0.0183876,16,32765
0.864492,0.521901,-0.0193015,16,32765
0.849085,0.508702,-0.0194,16,32765
0.867967,0.516065,-0.0202386,17,32765
0.87831,0.518204,-0.0208861,17,32765
0.871427,0.510166,-0.0211063,16,32765
0.916363,0.532322,-0.022639,14,32765
0,0,-0,0,32765
0,0,-0,0,32765
0,0,-0,0,32765
1.26314,0.711233,-0.0337055,13,32765
1.21312,0.67776,-0.0329741,13,32765
1.28532,0.712441,-0.0356509,12,32765
1.31399,0.722544,-0.0369897,13,32765
1.30761,0.713343,-0.0375109,13,32765
0,0,-0,0,32765
1.49738,0.803667,-0.0442862,12,32765
1.37653,0.73284,-0.0413632,14,32765
1.28175,0.676829,-0.0390941,13,32765
1.32827,0.695695,-0.0413354,13,32765
1.36607,0.709642,-0.0431296,13,32765
1.06633,0.549349,-0.0340881,14,32765
1.08597,0.554818,-0.0352899,14,32765
1.46235,0.740825,-0.048091,14,32765
0,0,-0,0,32765
0,0,-0,0,32765
0,0,-0,13,32765
0,0,-0,0,32765
0,0,-0,0,32765
1.36885,0.658987,-0.0487938,13,32765
1.40711,0.67162,-0.0507248,15,32765
1.41835,0.671193,-0.0516731,13,32765
1.43866,0.674931,-0.0530642,13,32765
1.38654,0.644755,-0.0519535,13,32765
0.780582,0.359759,-0.0293992,16,32765
1.20906,0.55222,-0.0460165,18,32765
1.21089,0.548151,-0.0466955,18,32765
1.20363,0.539902,-0.0468174,18,32765
1.23282,0.548004,-0.048412,17,32765
1.26204,0.555997,-0.0501069,13,32765
1.22725,0.535772,-0.04917,14,32765
1.21982,0.527738,-0.0492907,18,32765
1.2767,0.547212,-0.052033,16,32765
1.42568,0.605401,-0.0585733,14,32765
1.40003,0.589031,-0.0579659,13,32765
1.41118,0.588208,-0.058924,14,32765
1.39461,0.575955,-0.0586288,14,32765
1.41499,0.578888,-0.0599638,13,32765
1.40761,0.570474,-0.0600324,14,32765
1.44657,0.58067,-0.0620559,14,32765
1.42063,0.564754,-0.0612825,13,32765
1.45966,0.574695,-0.0633201,13,32765
1.51742,0.591565,-0.0662907,13,32765
0,0,-0,0,32765
1.39991,0.535197,-0.0618634,13,32765
1.48575,0.562406,-0.0659931,14,32765
1.42206,0.533041,-0.0634363,14,32765
1.44253,0.535272,-0.0646905,15,32765
1.40676,0.51671,-0.0634611,14,32765
0.892023,0.324293,-0.0403715,15,32765
1.36312,0.490477,-0.0619259,14,32765
1.44002,0.512785,-0.0656133,15,32765
1.39457,0.491408,-0.0638672,14,32765
1.4622,0.509865,-0.0672028,14,32765
1.41662,0.488801,-0.0652568,14,32765
1.44656,0.493875,-0.0667103,14,32765
1.17365,0.396495,-0.0542122,15,32765
1.12756,0.376801,-0.0523005,18,32765
1.12876,0.37317,-0.0524116,19,32765
1.10146,0.36025,-0.0511516,19,32765
1.09309,0.353678,-0.050763,19,32765
1.12275,0.359329,-0.0520509,19,32765
1.08584,0.343545,-0.0503785,19,32765
1.08693,0.34006,-0.0503355,19,32765
0.805203,0.592988,-0.00362246,12,32765
0,0,-0,0,32765
0,0,-0,0,32765
0.948913,0.684404,-0.00740813,12,32765
0.934891,0.669636,-0.00814385,13,32765
0.977846,0.695504,-0.00954521,12,32765
1.00466,0.709539,-0.0107186,12,32765
1.03977,0.729137,-0.0119786,12,32765
1.04216,0.72569,-0.0129787,13,32765
1.04451,0.722292,-0.0139643,12,32765
1.19522,0.820767,-0.0169087,12,32765
1.18965,0.811176,-0.017803,14,32765
1.16752,0.790355,-0.0183075,13,32765
1.10383,0.741697,-0.0182783,16,32765
1.13127,0.754615,-0.019664,15,32765
1.07542,0.712175,-0.0195295,13,32765
1.036,0.681123,-0.019618,17,32765
1.0717,0.699592,-0.0209818,15,32765
1.07398,0.696061,-0.021803,15,32765
1.06784,0.6871,-0.0224154,14,32765
1.0448,0.667444,-0.0226598,14,32765
1.0048,0.637161,-0.0225324,16,32765
0.930737,0.585892,-0.0214219,16,32765
0.907255,0.566855,-0.0215429,15,32765
0.875133,0.542764,-0.0212031,16,32765
0.893957,0.550309,-0.0223504,17,32765
0.887249,0.542102,-0.0226911,16,32765
0.88049,0.533948,-0.0231844,16,32765
0.865149,0.520647,-0.0233113,16,32765
0.892628,0.533119,-0.0244738,16,32765
0.928804,0.550496,-0.0260222,16,32765
0.878928,0.516965,-0.0251535,17,32765
0.915171,0.534182,-0.0266802,16,32765
1.05535,0.611271,-0.0313484,12,32765
0,0,-0,0,32765
1.20703,0.688329,-0.0371754,12,32765
1.26153,0.713783,-0.0395817,12,32765
1.35978,0.763359,-0.0433349,13,32765
1.20512,0.671236,-0.0391081,13,32765
1.24232,0.686559,-0.0409088,12,32765
0,0,-0,0,32765
0,0,-0,0,32765
0,0,-0,0,32765
0,0,-0,0,32765
0,0,-0,0,32765
1.31756,0.694202,-0.0470736,12,32765
1.38189,0.722137,-0.0500692,13,32765
1.37545,0.712819,-0.0503603,13,32765
0.844497,0.433987,-0.031305,14,32765
1.36244,0.694303,-0.0510676,13,32765
1.33803,0.676089,-0.0507355,13,32765
1.42965,0.716298,-0.0548926,12,32765
0,0,-0,0,32765
0,0,-0,0,32765
0,0,-0,0,32765
0,0,-0,0,32765
0,0,-0,0,32765
1.41666,0.674264,-0.0578152,12,32765
1.45505,0.686533,-0.0600304,13,32765
1.52972,0.715531,-0.063865,12,32765
0.988151,0.458168,-0.041716,11,32765
0.817167,0.375539,-0.0347723,15,32765
1.25487,0.571645,-0.0539854,14,32765
1.22036,0.550934,-0.0529579,15,32765
1.2313,0.550908,-0.0539208,17,32765
1.25139,0.554848,-0.0553326,17,32765
1.1892,0.522495,-0.052969,16,32765
1.24589,0.542418,-0.0559921,12,32765
1.22934,0.530297,-0.0558019,15,32765
1.30458,0.557593,-0.0596751,17,32765
1.34323,0.568735,-0.0622166,14,32765
1.42803,0.598994,-0.0665817,13,32765
1.42079,0.59033,-0.0668813,13,32765
1.4412,0.593166,-0.0684641,13,32765
1.40613,0.573295,-0.0673696,13,32765
1.47283,0.594818,-0.0711082,14,32765
1.42835,0.571447,-0.0696523,14,32765
1.53237,0.607191,-0.0752797,13,32765
1.44137,0.565553,-0.0714051,13,32765
1.41528,0.549886,-0.0707419,12,32765
0,0,-0,0,32765
0,0,-0,0,32765
1.55143,0.585091,-0.0796248,13,32765
1.32873,0.496155,-0.0686565,13,32765
1.4521,0.536806,-0.075715,13,32765
1.43507,0.525137,-0.0755483,13,32765
1.48374,0.537356,-0.0785927,13,32765
0.874354,0.313402,-0.0467373,15,32765
1.44953,0.514148,-0.0782414,13,32765
1.45114,0.509453,-0.0790985,13,32765
1.41502,0.491614,-0.0777585,13,32765
1.43543,0.493577,-0.0795549,14,32765
1.41805,0.482553,-0.0791505,13,32765
1.0978,0.369615,-0.0618752,17,32765
1.09897,0.366003,-0.0625665,18,32765
1.10013,0.362375,-0.0632949,18,32765
1.09176,0.355732,-0.0633324,17,32765
1.10234,0.355357,-0.0644871,18,32765
1.07487,0.342821,-0.0635023,19,32765
1.13302,0.357488,-0.0676258,20,32765
1.07691,0.336071,-0.0649494,19,32765
0.908739,0.671476,-0.0145992,13,32765
0.894846,0.656592,-0.0154381,13,32765
0.872737,0.635983,-0.0159708,12,32765
0.939631,0.679974,-0.0181318,12,32765
0.990567,0.711882,-0.0199855,13,32765
0.911527,0.650496,-0.0193256,12,32765
0.995263,0.705244,-0.0219792,13,32765
0.940366,0.661625,-0.0215444,13,32765
0.934341,0.652773,-0.0222557,13,32765
0.993948,0.689612,-0.0245621,13,32765
1.04558,0.720388,-0.0266265,13,32765
1.04794,0.716915,-0.0275191,14,32765
1.03379,0.702142,-0.0278629,16,32765
1.05277,0.709727,-0.0292738,20,32765
1.07176,0.717281,-0.0306591,19,32765
1.23234,0.81879,-0.0361829,12,32765
1.0598,0.699072,-0.0319158,16,32765
1.07879,0.706545,-0.0331563,18,32765
1.06433,0.69208,-0.033458,17,32765
1.08339,0.699395,-0.0347811,18,32765
1.04358,0.668855,-0.0342079,19,32765
1.0458,0.665337,-0.0350282,19,32765
1.19166,0.752597,-0.0405927,13,32765
0.931619,0.583983,-0.032394,17,32765
0.882619,0.549196,-0.0310982,16,32765
0.977981,0.603999,-0.0351938,12,32765
0.945894,0.579819,-0.0345616,11,32765
0.853878,0.519499,-0.031828,12,32765
0.85562,0.516589,-0.0324003,15,32765
0.883057,0.529117,-0.0338388,17,32765
0.884818,0.526129,-0.0344187,16,32765
0.903776,0.533306,-0.0356819,15,32765
0,0,-0,0,32765
0.864093,0.502113,-0.0350197,14,32765
0.900383,0.519177,-0.0369409,16,32765
0.893446,0.51115,-0.037153,15,32765
1.21671,0.690648,-0.0512744,13,32765
1.28866,0.725767,-0.0549176,13,32765
1.3783,0.770168,-0.059515,13,32765
1.32839,0.73649,-0.0579704,12,32765
0,0,-0,0,32765
0,0,-0,0,32765
0,0,-0,0,32765
0,0,-0,0,32765
0,0,-0,0,32765
1.35153,0.714382,-0.0626192,13,32765
1.31852,0.691229,-0.0617322,13,32765
0.992852,0.516188,-0.046846,14,32765
1.05677,0.544807,-0.0503249,13,32765
1.40553,0.718553,-0.0674906,13,32765
1.39015,0.704665,-0.0673336,14,32765
1.38358,0.695428,-0.0676538,13,32765
0,0,-0,0,32765
0,0,-0,0,32765
0,0,-0,0,32765
0,0,-0,0,32765
0,0,-0,0,32765
1.43331,0.684355,-0.0734098,13,32765
1.41752,0.670951,-0.0732114,14,32765
1.47398,0.691649,-0.0768319,13,32765
0.75172,0.34965,-0.0395234,15,32765
1.35157,0.6231,-0.0714956,13,32765
1.45354,0.664245,-0.0775493,13,32765
1.31928,0.597483,-0.0708617,15,32765
1.22102,0.548042,-0.0660504,17,32765
1.21371,0.539846,-0.0661535,18,32765
1.23378,0.5438,-0.0676309,19,32765
1.24473,0.543629,-0.0687112,17,32765
1.33818,0.579078,-0.0744544,13,32765
1.2483,0.535228,-0.0698747,14,32765
1.24088,0.527064,-0.0701573,17,32765
1.29785,0.546115,-0.0737585,16,32765
1.3734,0.572448,-0.0786498,15,32765
1.45834,0.602125,-0.0841249,14,32765
1.45106,0.59349,-0.0842762,14,32765
1.42522,0.577416,-0.0832829,14,32765
1.39926,0.561584,-0.0824264,14,32765
1.46603,0.582752,-0.0868731,14,32765
1.4122,0.555868,-0.0842496,14,32765
1.46052,0.569268,-0.0877644,14,32765
0,0,-0,0,32765
0,0,-0,0,32765
1.37263,0.519311,-0.084273,15,32765
1.39299,0.521809,-0.085991,15,32765
1.3853,0.513743,-0.0861528,15,32765
1.39631,0.512588,-0.0875247,15,32765
1.39798,0.507919,-0.0880684,15,32765
1.39961,0.503282,-0.0888333,15,32765
0.902807,0.321252,-0.0577643,16,32765
1.35572,0.477481,-0.0874484,14,32765
1.41377,0.492762,-0.0918074,15,32765
1.2549,0.432891,-0.0820678,15,32765
1.06733,0.364376,-0.0702112,18,32765
1.05901,0.357709,-0.0702328,19,32765
1.06014,0.354215,-0.0709006,20,32765
1.06126,0.350707,-0.0716043,19,32765
1.05287,0.344173,-0.0715283,19,32765
1.0634,0.343919,-0.0727562,20,32765
1.06443,0.340597,-0.0734335,20,32765
1.06544,0.337264,-0.0741412,20,32765
1.06645,0.333897,-0.0748683,20,32765
0.956634,0.707185,-0.029018,13,32765
0.886507,0.650669,-0.0271239,12,32765
1.01802,0.741786,-0.0314058,12,32765
0.899018,0.650447,-0.0280262,12,32765
0.8687,0.624109,-0.0273654,12,32765
0.992835,0.708295,-0.031581,12,32765
0.954366,0.676117,-0.0308481,13,32765
0.997479,0.701693,-0.0326205,13,32765
0.983429,0.686886,-0.0324743,13,32765
0.993923,0.689285,-0.0332254,13,32765
0.938567,0.646278,-0.0318787,12,32765
1.05621,0.722157,-0.0362682,13,32765
1.09994,0.746702,-0.0382773,13,32765
1.05267,0.70952,-0.0370735,13,32765
1.06333,0.711543,-0.0379461,17,32765
1.06574,0.707897,-0.0385625,16,32765
0,0,-0,0,32765
0,0,-0,0,32765
1.06439,0.691639,-0.0399966,20,32765
1.04148,0.671817,-0.039664,20,32765
1.06895,0.6845,-0.0411846,21,32765
1.06278,0.675564,-0.041417,20,32765
1.30167,0.821358,-0.0513692,12,32765
1.02484,0.641963,-0.0410504,18,32765
0.976044,0.606856,-0.0395429,20,32765
0.935528,0.577336,-0.0383369,16,32765
