x, y, z, intensity, ring
4.34888,1.43531,-0.528376,16,32765
4.34375,1.41776,-0.530879,15,32765
4.42361,1.42784,-0.543485,17,32765
4.32386,1.37992,-0.533799,16,32765
4.26174,1.34474,-0.528455,16,32765
4.2753,1.33357,-0.5324,16,32765
4.33629,1.33688,-0.542432,17,32765
4.29292,1.30806,-0.538733,17,32765
4.2875,1.29066,-0.54005,16,32765
4.36765,1.29876,-0.552244,17,32765
4.22893,1.24175,-0.53652,16,32765
4.27104,1.23813,-0.543727,16,32765
4.25589,1.21813,-0.54331,16,32765
4.24057,1.19817,-0.543622,16,32765
4.26348,1.18908,-0.548092,16,32765
4.37241,1.20369,-0.563963,17,32765
4.32835,1.17592,-0.559457,17,32765
4.28405,1.14862,-0.555392,16,32765
4.25893,1.12643,-0.553388,17,32765
4.29119,1.11969,-0.559356,17,32765
4.33309,1.11539,-0.56597,17,32765
4.25971,1.08123,-0.557421,15,32765
4.21494,1.05489,-0.55308,16,32765
4.22795,1.0426,-0.55637,16,32765
4.28913,1.04203,-0.565721,17,32765
4.27324,1.02265,-0.564375,16,32765
4.24756,1.00113,-0.562086,17,32765
4.2314,0.982218,-0.561181,17,32765
4.23458,0.967659,-0.562467,17,32765
4.23763,0.953196,-0.564185,16,32765
4.22135,0.934477,-0.562638,16,32765
4.26312,0.928337,-0.569173,18,32765
4.237,0.907504,-0.566749,17,32765
4.16234,0.876272,-0.557821,17,32765
4.30115,0.889972,-0.57706,18,32765
4.18741,0.851456,-0.562805,16,32765
4.23878,0.846705,-0.570455,16,32765
4.22208,0.828342,-0.568724,16,32765
4.1566,0.800747,-0.560664,16,32765
4.13964,0.782906,-0.559374,16,32765
4.15192,0.770671,-0.561455,16,32765
4.2812,0.779527,-0.579481,17,32765
4.1471,0.74036,-0.562104,16,32765
4.19833,0.734582,-0.569575,16,32765
4.27886,0.733491,-0.581148,17,32765
4.25188,0.714105,-0.577977,17,32765
4.29335,0.705998,-0.583814,16,32765
4.22715,0.680236,-0.575191,15,32765
4.21965,0.663763,-0.574546,16,32765
4.22183,0.648965,-0.575374,16,32765
4.11616,0.618196,-0.561287,16,32765
4.24559,0.622929,-0.579467,17,32765
4.21817,0.604302,-0.576092,17,32765
4.17109,0.582929,-0.569825,17,32765
4.19262,0.571061,-0.573349,18,32765
4.16505,0.552536,-0.569785,16,32765
4.24543,0.548284,-0.581492,16,32765
4.28652,0.538771,-0.587407,16,32765
4.15055,0.507403,-0.569101,16,32765
4.2801,0.508485,-0.587084,17,32765
4.20293,0.484932,-0.577172,17,32765
4.18482,0.4683,-0.574903,17,32765
4.17644,0.4529,-0.574322,17,32765
4.16802,0.437447,-0.573705,17,32765
4.17931,0.424079,-0.575464,16,32765
4.24971,0.416603,-0.585213,17,32765
4.20166,0.397438,-0.57942,17,32765
4.20289,0.383293,-0.580014,18,32765
4.19415,0.368178,-0.579717,17,32765
4.21498,0.355623,-0.583418,18,32765
4.21614,0.341472,-0.583507,17,32765
4.2468,0.329427,-0.588387,18,32765
4.17862,0.309904,-0.579621,18,32765
4.21911,0.298506,-0.585585,17,32765
4.18044,0.281495,-0.580985,18,32765
4.19119,0.268112,-0.582798,18,32765
4.18204,0.253482,-0.582368,17,32765
4.18278,0.239534,-0.583012,17,32765
4.18342,0.225532,-0.583997,18,32765
4.1939,0.211854,-0.586421,18,32765
4.18462,0.197249,-0.585613,18,32765
4.2445,0.185647,-0.594852,17,32765
4.1658,0.168146,-0.584786,18,32765
4.21567,0.155956,-0.592825,17,32765
4.18631,0.140752,-0.589863,18,32765
4.1767,0.126547,-0.589508,18,32765
4.1671,0.112348,-0.588888,18,32765
4.19702,0.0992583,-0.593954,18,32765
4.14761,0.0839752,-0.588555,17,32765
4.09826,0.069097,-0.582331,16,32765
4.17752,0.0563781,-0.594579,18,32765
4.18737,0.0425555,-0.597546,17,32765
4.13778,0.0285283,-0.591891,18,32765
4.13769,0.0149157,-0.593009,17,32765
4.11768,0.00128766,-0.591839,17,32765
4.14714,-0.0125054,-0.597634,16,32765
4.16663,-0.0265729,-0.602187,16,32765
4.10686,-0.0399289,-0.595517,16,32765
4.15593,-0.0541244,-0.604439,17,32765
4.08953,1.38374,-0.532471,18,32765
4.20648,1.40815,-0.550953,18,32765
4.12588,1.36635,-0.542804,17,32765
4.18653,1.3711,-0.553762,18,32765
4.06792,1.31752,-0.540655,17,32765
4.11914,1.31907,-0.549874,18,32765
4.13256,1.30844,-0.553885,18,32765
4.17439,1.30655,-0.561666,19,32765
4.11203,1.27209,-0.555551,18,32765
4.16335,1.27293,-0.564124,19,32765
4.15783,1.25592,-0.565277,19,32765
4.15223,1.23894,-0.566476,20,32765
4.11813,1.21337,-0.563558,19,32765
4.14105,1.20458,-0.568467,20,32765
4.12582,1.18496,-0.567806,19,32765
4.11995,1.1681,-0.56917,19,32765
4.07591,1.14069,-0.564518,19,32765
4.15586,1.14803,-0.577335,21,32765
4.13082,1.12614,-0.574946,20,32765
4.10557,1.10458,-0.572993,19,32765
4.05161,1.07531,-0.566622,20,32765
4.10283,1.07426,-0.575455,19,32765
4.02941,1.04082,-0.566198,19,32765
4.06151,1.03451,-0.571667,19,32765
3.98783,1.00153,-0.562704,17,32765
4.05835,1.00427,-0.574145,19,32765
4.0327,0.983159,-0.57171,18,32765
4.0937,0.983117,-0.581047,19,32765
4.03902,0.955311,-0.574305,19,32765
4.0999,0.955037,-0.584131,20,32765
4.02576,0.923178,-0.574362,19,32765
4.04799,0.913748,-0.57876,18,32765
4.02194,0.893477,-0.5756,19,32765
4.05385,0.885887,-0.581061,20,32765
4.06635,0.87404,-0.583848,20,32765
4.01107,0.847424,-0.576906,19,32765
4.04293,0.839521,-0.582062,18,32765
4.00681,0.817639,-0.577799,19,32765
4.06771,0.815438,-0.587272,19,32765
4.05094,0.797612,-0.585322,19,32765
4.03406,0.77993,-0.583598,20,32765
4.02678,0.764304,-0.583494,20,32765
4.05845,0.756041,-0.588473,19,32765
4.00247,0.731415,-0.580843,19,32765
4.01456,0.719303,-0.583326,20,32765
4.05591,0.712248,-0.589822,20,32765
4.04846,0.696531,-0.58933,20,32765
4.01164,0.676226,-0.584415,19,32765
4.02363,0.664079,-0.58633,20,32765
4.03557,0.651803,-0.58841,20,32765
3.99865,0.631329,-0.583365,19,32765
4.03008,0.621793,-0.588437,20,32765
3.99297,0.601934,-0.583305,19,32765
3.9753,0.585459,-0.581204,19,32765
4.02617,0.578968,-0.588975,20,32765
3.94967,0.554074,-0.577921,19,32765
4.0103,0.548307,-0.587334,20,32765
4.06117,0.540817,-0.594969,21,32765
3.96475,0.514006,-0.581493,18,32765
3.96641,0.500466,-0.581986,19,32765
4.01712,0.493004,-0.589729,19,32765
4.02854,0.480475,-0.591597,20,32765
4.05951,0.470234,-0.596782,20,32765
4.01188,0.450733,-0.589976,19,32765
4.0428,0.440165,-0.595063,20,32765
4.02452,0.424093,-0.592882,20,32765
3.97669,0.405164,-0.586018,19,32765
4.00755,0.39448,-0.590606,19,32765
4.02844,0.382637,-0.594465,20,32765
4.06903,0.372644,-0.600855,21,32765
4.02085,0.354465,-0.594603,19,32765
4.09089,0.346639,-0.60575,21,32765
4.01314,0.326447,-0.59416,20,32765
3.98453,0.310449,-0.590514,20,32765
4.01505,0.299108,-0.595681,20,32765
4.01597,0.28543,-0.596141,20,32765
3.96745,0.268394,-0.58966,19,32765
3.97814,0.255687,-0.591545,19,32765
4.02821,0.245338,-0.599795,20,32765
3.98941,0.22959,-0.59453,20,32765
3.94064,0.213521,-0.588101,19,32765
3.97083,0.201631,-0.593512,19,32765
4.01092,0.190078,-0.59997,19,32765
3.99165,0.175561,-0.597893,19,32765
3.99208,0.162068,-0.598877,20,32765
3.99245,0.148593,-0.599914,20,32765
4.00263,0.135435,-0.60256,20,32765
3.99303,0.1218,-0.602066,20,32765
3.96365,0.107636,-0.598335,19,32765
3.99351,0.0951858,-0.60364,18,32765
3.89473,0.0795393,-0.590207,18,32765
3.92452,0.0668183,-0.595467,18,32765
3.97401,0.0542516,-0.603914,18,32765
3.91463,0.0403571,-0.596357,18,32765
3.96396,0.0278732,-0.605236,18,32765
3.97376,0.0148316,-0.60782,19,32765
3.97354,0.00171197,-0.609429,19,32765
3.91399,-0.0113774,-0.601775,17,32765
3.86427,-0.0242623,-0.595754,18,32765
3.93306,-0.0378878,-0.608251,19,32765
3.95242,-0.0511583,-0.61297,19,32765
4.11925,1.39755,-0.592269,15,32765
4.14229,1.39024,-0.597268,16,32765
4.18424,1.38923,-0.603851,16,32765
4.10388,1.34745,-0.593427,16,32765
4.08934,1.32758,-0.591961,15,32765
4.09358,1.31376,-0.5935,16,32765
4.07888,1.29393,-0.592373,16,32765
4.11138,1.28911,-0.597696,17,32765
4.02089,1.24603,-0.585097,16,32765
4.13852,1.26739,-0.602696,17,32765
4.15213,1.25619,-0.605115,17,32765
4.07085,1.21644,-0.593744,16,32765
4.09382,1.20811,-0.597703,17,32765
4.12632,1.20241,-0.602719,17,32765
4.11114,1.18301,-0.601145,17,32765
4.12457,1.17166,-0.603351,18,32765
4.09974,1.14958,-0.600521,17,32765
4.05578,1.12244,-0.594364,17,32765
4.09762,1.1191,-0.601047,18,32765
4.09167,1.10266,-0.600682,18,32765
4.10484,1.09103,-0.603356,16,32765
4.12754,1.08198,-0.607296,16,32765
4.0353,1.04293,-0.59395,16,32765
4.10589,1.04622,-0.604592,15,32765
4.03246,1.01301,-0.594226,16,32765
4.11262,1.01831,-0.606498,17,32765
4.05818,0.990317,-0.599063,17,32765
4.14802,0.997365,-0.612634,18,32765
4.0742,0.964896,-0.602315,17,32765
4.17375,0.973205,-0.617731,16,32765
4.14806,0.951807,-0.614537,17,32765
4.11265,0.928305,-0.609913,16,32765
4.08679,0.907371,-0.606422,17,32765
4.10909,0.89737,-0.610428,16,32765
4.13137,0.88741,-0.614155,17,32765
4.05677,0.856867,-0.603755,16,32765
4.04016,0.838882,-0.601916,16,32765
4.11068,0.838892,-0.613302,17,32765
4.11344,0.8247,-0.614101,17,32765
4.0287,0.793312,-0.602248,17,32765
4.07985,0.788668,-0.610573,17,32765
4.10185,0.778103,-0.614634,17,32765
3.97794,0.740304,-0.596714,16,32765
4.11657,0.75132,-0.618282,17,32765
4.10922,0.735408,-0.617984,17,32765
4.0434,0.709221,-0.608654,17,32765
4.09437,0.703584,-0.617356,17,32765
4.0576,0.683025,-0.612365,18,32765
4.03045,0.664226,-0.609277,18,32765
4.10092,0.661568,-0.620335,17,32765
4.00533,0.631973,-0.6066,17,32765
4.06598,0.627107,-0.616561,17,32765
4.02885,0.606918,-0.611894,17,32765
4.06015,0.597062,-0.617407,16,32765
4.01314,0.576013,-0.610651,16,32765
4.02476,0.563456,-0.613146,17,32765
4.03628,0.550827,-0.615966,17,32765
3.98905,0.530505,-0.609075,17,32765
4.0005,0.518155,-0.611481,17,32765
4.03156,0.508316,-0.616637,16,32765
4.06254,0.498239,-0.622187,17,32765
4.04451,0.48204,-0.619655,17,32765
3.9674,0.459296,-0.608592,17,32765
4.02777,0.452276,-0.618446,16,32765
4.039,0.439635,-0.620706,18,32765
4.04037,0.42572,-0.621531,17,32765
4.05154,0.412813,-0.623729,17,32765
3.98397,0.392125,-0.613761,17,32765
3.95567,0.375829,-0.609795,17,32765
3.95688,0.362478,-0.609987,16,32765
3.96784,0.349839,-0.612186,16,32765
4.00821,0.339646,-0.619531,17,32765
4.03887,0.328495,-0.624228,17,32765
3.97093,0.309449,-0.613892,18,32765
3.9818,0.296713,-0.615489,16,32765
4.06158,0.288883,-0.628112,16,32765
3.92441,0.265677,-0.607286,16,32765
3.94493,0.253684,-0.610909,17,32765
4.0247,0.245135,-0.622988,17,32765
3.9959,0.229803,-0.618466,18,32765
4.04592,0.219133,-0.626493,18,32765
3.96766,0.201415,-0.614438,17,32765
3.99792,0.189533,-0.619063,17,32765
3.96892,0.174887,-0.61439,18,32765
3.98924,0.162423,-0.617422,17,32765
3.97005,0.148378,-0.614096,17,32765
4.05943,0.137949,-0.627788,17,32765
4.00061,0.122411,-0.618569,16,32765
4.05037,0.110414,-0.626335,17,32765
3.96188,0.094707,-0.612095,16,32765
3.90296,0.0801387,-0.602466,16,32765
4.03171,0.0691849,-0.622026,17,32765
4.03198,0.0557347,-0.621638,17,32765
4.03223,0.0425866,-0.621052,16,32765
4.00283,0.029094,-0.61563,16,32765
3.98325,0.0159829,-0.611832,17,32765
4.03281,0.00263573,-0.618717,16,32765
4.03294,-0.0107312,-0.617782,17,32765
3.9243,-0.0235601,-0.600167,17,32765
3.96397,-0.036945,-0.60474,16,32765
4.03326,-0.0508792,-0.613723,16,32765
4.00925,1.36509,-0.617148,20,32765
3.92901,1.32337,-0.606358,18,32765
3.95192,1.31678,-0.610358,18,32765
3.92784,1.29427,-0.607725,18,32765
3.9602,1.29025,-0.613308,18,32765
3.91724,1.26166,-0.607501,20,32765
3.94953,1.25738,-0.613445,19,32765
3.99131,1.25594,-0.62048,19,32765
3.96699,1.23373,-0.617209,19,32765
3.88584,1.19427,-0.605001,18,32765
3.90867,1.18677,-0.608927,20,32765
3.92204,1.17617,-0.61143,18,32765
3.94484,1.16832,-0.615537,20,32765
3.90124,1.14089,-0.608951,19,32765
3.90489,1.1277,-0.610099,19,32765
3.8896,1.10887,-0.607902,18,32765
3.93124,1.10629,-0.615147,19,32765
3.93486,1.09289,-0.615952,19,32765
3.93839,1.07948,-0.617003,18,32765
3.89415,1.05321,-0.610523,19,32765
3.84983,1.02694,-0.604237,19,32765
3.92966,1.03383,-0.617309,20,32765
3.95225,1.02515,-0.621045,20,32765
3.94605,1.00912,-0.620282,20,32765
3.93973,0.993291,-0.619694,20,32765
3.92376,0.975067,-0.617592,20,32765
3.97489,0.973508,-0.626191,21,32765
3.93963,0.950695,-0.620899,20,32765
3.89463,0.92572,-0.614337,19,32765
3.88804,0.909883,-0.61392,18,32765
3.9296,0.904966,-0.621031,20,32765
3.95192,0.895283,-0.625128,20,32765
3.88741,0.866261,-0.615224,19,32765
3.94816,0.865384,-0.625481,20,32765
3.96065,0.853863,-0.627833,20,32765
3.95373,0.838175,-0.627384,20,32765
3.90807,0.814446,-0.620725,19,32765
3.91065,0.801018,-0.621948,20,32765
3.8939,0.783577,-0.619628,20,32765
3.83825,0.758615,-0.61151,20,32765
3.91831,0.760259,-0.624893,20,32765
3.90136,0.742833,-0.6229,19,32765
3.80666,0.71108,-0.608379,19,32765
3.8381,0.703126,-0.614102,19,32765
3.86949,0.695114,-0.619865,19,32765
3.85229,0.678254,-0.61763,18,32765
3.82521,0.659826,-0.614233,18,32765
3.88575,0.656588,-0.624464,19,32765
3.81958,0.631881,-0.61477,18,32765
3.91909,0.634661,-0.631154,19,32765
3.87233,0.613342,-0.624307,19,32765
3.83524,0.593809,-0.619042,18,32765
3.92499,0.593571,-0.63445,20,32765
3.83898,0.566744,-0.621248,20,32765
3.89945,0.561893,-0.631398,20,32765
3.88167,0.545569,-0.629206,20,32765
3.87355,0.53072,-0.628897,20,32765
3.85569,0.514818,-0.626289,19,32765
3.86707,0.502886,-0.62876,18,32765
3.83927,0.486029,-0.624614,18,32765
3.83095,0.471749,-0.624012,20,32765
3.81286,0.456295,-0.621269,19,32765
3.84365,0.446808,-0.627001,19,32765
3.79599,0.428024,-0.619774,19,32765
3.79732,0.415064,-0.620483,19,32765
3.87713,0.410251,-0.634102,20,32765
3.8195,0.390835,-0.625119,20,32765
3.83055,0.378653,-0.627333,19,32765
3.82189,0.364703,-0.626287,18,32765
3.77393,0.347244,-0.618422,17,32765
3.77499,0.334322,-0.619072,17,32765
3.79558,0.323084,-0.623499,18,32765
3.79664,0.31021,-0.623623,18,32765
3.85665,0.301942,-0.633631,18,32765
3.77891,0.282925,-0.620771,18,32765
3.81916,0.272945,-0.627647,19,32765
3.86921,0.263222,-0.636247,19,32765
3.8503,0.248835,-0.633568,18,32765
3.81174,0.233348,-0.626957,20,32765
3.85191,0.222678,-0.633494,18,32765
3.83286,0.208705,-0.630626,19,32765
3.81382,0.194672,-0.627547,19,32765
3.8243,0.182332,-0.629209,18,32765
3.84462,0.170406,-0.632368,19,32765
3.82545,0.156707,-0.629102,18,32765
3.76683,0.141682,-0.61912,18,32765
3.85606,0.131919,-0.633653,20,32765
3.85649,0.118843,-0.633602,21,32765
3.84698,0.10567,-0.632105,21,32765
3.83753,0.0924935,-0.63001,20,32765
3.85763,0.0799311,-0.632784,20,32765
3.78885,0.0656888,-0.621204,19,32765
3.85818,0.0539768,-0.632158,19,32765
3.81896,0.040934,-0.625137,18,32765
3.76986,0.0279548,-0.616255,19,32765
3.81939,0.0158487,-0.623595,18,32765
3.7998,0.00296517,-0.619708,19,32765
3.79993,-0.00966804,-0.618827,18,32765
3.8099,-0.0224679,-0.619503,18,32765
3.81003,-0.0351439,-0.618088,19,32765
0,-0,-0,0,32765
5.11801,3.77567,1.13222,15,32765
5.10672,3.74174,1.12503,16,32765
5.10328,3.71374,1.11927,16,32765
5.1162,3.69667,1.11679,17,32765
5.137,3.68554,1.11551,17,32765
5.13379,3.65703,1.10923,18,32765
5.16245,3.65142,1.11025,18,32765
5.15098,3.61728,1.10221,19,32765
5.1799,3.61127,1.10249,19,32765
5.17612,3.583,1.09633,19,32765
5.18832,3.56632,1.09306,18,32765
5.2166,3.5608,1.09355,19,32765
5.20405,3.52739,1.08617,18,32765
5.21618,3.51037,1.08312,14,32765
5.28552,3.53177,1.09195,11,32765
0,0,0,0,32765
0,0,0,0,32765
11.7155,7.66168,2.38459,14,32765
11.8407,7.6877,2.39985,16,32765
11.7175,7.5532,2.36413,13,32765
0,0,0,0,32765
0,0,0,0,32765
0,0,0,0,32765
0,0,0,12,32765
12.3222,7.65826,2.42846,14,32765
12.3231,7.60231,2.41846,16,32765
12.307,7.53589,2.40494,13,32765
0,0,0,0,32765
0,0,0,0,32765
0,0,0,0,32765
16.8202,9.99436,3.22841,12,32765
0,0,0,0,32765
0,0,0,0,32765
0,0,0,0,32765
5.4547,3.14484,1.02989,17,32765
5.43107,3.10749,1.02109,21,32765
5.48465,3.11397,1.02658,16,32765
0,0,0,0,32765
5.40234,3.02009,1.00331,18,32765
5.38657,2.98813,0.996756,19,32765
5.54383,3.05143,1.02119,19,32765
5.38966,2.94308,0.989042,19,32765
5.33897,2.89208,0.976624,15,32765
5.30555,2.85079,0.966496,18,32765
5.33258,2.84272,0.967975,17,32765
0,0,0,0,32765
5.36009,2.8129,0.966434,17,32765
5.36947,2.79558,0.964572,19,32765
5.44046,2.80946,0.973805,17,32765
5.38849,2.75986,0.961398,20,32765
5.41581,2.75058,0.962175,19,32765
0,0,0,0,32765
5.46129,2.72723,0.963776,19,32765
5.41762,2.68246,0.952972,18,32765
5.36466,2.63413,0.940358,17,32765
5.35587,2.60782,0.935326,19,32765
5.33803,2.57723,0.929144,21,32765
5.4358,2.60236,0.943272,18,32765
5.41795,2.57167,0.936606,20,32765
5.47133,2.57493,0.942665,18,32765
5.37265,2.50673,0.922456,18,32765
5.48882,2.53867,0.939378,18,32765
5.43455,2.4918,0.926884,16,32765
5.39809,2.45331,0.917544,18,32765
5.32536,2.39893,0.902112,18,32765
5.2704,2.35312,0.889567,21,32765
5.27851,2.33552,0.887849,22,32765
5.24112,2.29834,0.878851,20,32765
5.24006,2.27697,0.87501,19,32765
5.33858,2.29859,0.889081,20,32765
5.58287,2.38177,0.926443,17,32765
5.57277,2.35561,0.921808,18,32765
5.57175,2.33339,0.918155,17,32765
0,0,0,0,32765
5.50534,2.26271,0.900966,18,32765
5.51312,2.24466,0.89857,19,32765
5.48395,2.21191,0.891121,17,32765
5.61993,2.24554,0.91011,18,32765
5.48972,2.17257,0.885335,14,32765
0,0,0,0,32765
5.67953,2.20482,0.909539,16,32765
5.70551,2.19326,0.910586,20,32765
5.61125,2.13617,0.891904,16,32765
5.48898,2.06896,0.869168,18,32765
5.5793,2.08237,0.880687,18,32765
5.52141,2.04025,0.868308,18,32765
5.55631,2.03236,0.870259,20,32765
0,0,0,0,32765
5.52343,1.97959,0.858964,18,32765
0,0,0,0,32765
5.68603,1.99684,0.877401,17,32765
5.58062,1.93969,0.857459,19,32765
5.62456,1.93479,0.860783,17,32765
5.71549,1.94535,0.871101,19,32765
5.67498,1.91163,0.861839,17,32765
5.65331,1.88413,0.854717,18,32765
5.74414,1.8944,0.864973,20,32765
5.72217,1.86761,0.857482,18,32765
5.76614,1.86192,0.85982,19,32765
5.71572,1.82602,0.848407,19,32765
5.8069,1.83521,0.856954,18,32765
5.14017,3.79633,1.07559,18,32765
5.14483,3.77392,1.07199,19,32765
5.15742,3.75736,1.06969,19,32765
5.17048,3.74008,1.06718,19,32765
5.17541,3.71724,1.06249,18,32765
5.22849,3.72863,1.06785,13,32765
5.30572,3.7569,1.07846,11,32765
0,0,0,11,32765
0,0,0,11,32765
0,0,0,0,32765
0,0,0,12,32765
0,0,0,0,32765
0,0,0,0,32765
0,0,0,0,32765
0,0,0,12,32765
0,0,0,11,32765
0,0,0,0,32765
11.8705,7.77128,2.27957,13,32765
11.8223,7.68386,2.26041,20,32765
11.8399,7.64015,2.2532,17,32765
11.9827,7.67559,2.26876,11,32765
12.2505,7.78999,2.30909,12,32765
12.1683,7.68156,2.28293,12,32765
12.3533,7.74171,2.30635,15,32765
12.3544,7.68613,2.29477,18,32765
12.4393,7.68187,2.30058,13,32765
12.3814,7.58912,2.27971,16,32765
12.8037,7.78982,2.34787,12,32765
0,0,0,0,32765
16.9338,10.1482,3.07569,11,32765
16.9516,10.0825,3.06385,18,32765
0,0,0,0,32765
0,0,0,0,32765
0,0,0,0,32765
5.45297,3.14692,0.968988,17,32765
5.44645,3.11933,0.963596,21,32765
5.46574,3.10624,0.962556,22,32765
5.51064,3.10766,0.967095,22,32765
5.47814,3.0654,0.956991,20,32765
5.48841,3.04752,0.955203,21,32765
5.41224,2.98183,0.937502,20,32765
5.43982,2.97327,0.938604,22,32765
5.37177,2.91256,0.923834,21,32765
5.34707,2.87577,0.915649,21,32765
5.38292,2.87221,0.918416,22,32765
5.35743,2.83631,0.911175,20,32765
5.37561,2.82361,0.910816,21,32765
5.3938,2.81079,0.910426,22,32765
5.37706,2.77921,0.904223,22,32765
5.41292,2.77484,0.907236,22,32765
5.41386,2.75202,0.903401,22,32765
5.42349,2.73365,0.901426,22,32765
5.42399,2.71096,0.898855,23,32765
5.42451,2.68819,0.895939,22,32765
5.37148,2.63974,0.883974,21,32765
5.42494,2.64369,0.88933,22,32765
5.48736,2.65156,0.896505,24,32765
5.47842,2.62496,0.892225,24,32765
5.45167,2.58983,0.884371,21,32765
5.46041,2.57191,0.882718,21,32765
5.54089,2.58734,0.892514,21,32765
5.52277,2.55645,0.886643,19,32765
5.55841,2.55065,0.889177,21,32765
5.54912,2.52396,0.884572,21,32765
5.45848,2.46084,0.867065,20,32765
5.32232,2.37816,0.842254,27,32765
5.32146,2.35635,0.839092,25,32765
5.35659,2.35078,0.841945,27,32765
5.32845,2.31715,0.833883,25,32765
5.34541,2.30327,0.834234,26,32765
5.5536,2.37105,0.863504,25,32765
5.55255,2.3488,0.860477,20,32765
5.51496,2.31131,0.851286,24,32765
5.57785,2.31576,0.857265,19,32765
5.54901,2.2823,0.850409,22,32765
5.60269,2.28275,0.854991,21,32765
5.5736,2.24966,0.847889,20,32765
5.58114,2.23159,0.846028,21,32765
5.61642,2.22425,0.847683,19,32765
5.55935,2.18077,0.835897,18,32765
5.65908,2.19837,0.847893,24,32765
5.62034,2.16197,0.839099,22,32765
5.67393,2.16146,0.843496,23,32765
5.66278,2.13587,0.83851,24,32765
5.65134,2.11062,0.834071,23,32765
5.6585,2.09225,0.831878,21,32765
5.6936,2.0839,0.833489,22,32765
5.69119,2.06216,0.830663,23,32765
5.65167,2.0268,0.821204,22,32765
5.6957,2.02217,0.824498,22,32765
5.74929,2.02028,0.828607,22,32765
5.68124,1.97585,0.815127,21,32765
5.65038,1.94482,0.807323,23,32765
5.74143,1.95532,0.816787,22,32765
5.6821,1.91513,0.80532,20,32765
5.74501,1.91578,0.810412,22,32765
5.7419,1.89473,0.806563,22,32765
5.71987,1.8679,0.799353,21,32765
5.75443,1.85917,0.800007,20,32765
5.7889,1.85041,0.80092,20,32765
5.7857,1.8295,0.795574,22,32765
5.15042,3.79838,1.01781,16,32765
5.16267,3.78175,1.01765,15,32765
5.175,3.76504,1.01698,15,32765
5.17954,3.74235,1.01394,14,32765
5.18394,3.71945,1.01195,13,32765
0,0,0,0,32765
0,0,0,11,32765
0,0,0,0,32765
0,0,0,0,32765
0,0,0,0,32765
0,0,0,0,32765
0,0,0,0,32765
0,0,0,0,32765
0,0,0,0,32765
0,0,0,0,32765
0,0,0,0,32765
0,0,0,0,32765
11.8306,7.74461,2.19873,14,32765
11.7901,7.66302,2.18277,17,32765
12.0405,7.76861,2.21949,12,32765
0,0,0,0,32765
12.0925,7.68964,2.21134,11,32765
12.294,7.76088,2.23835,12,32765
12.3535,7.74187,2.23967,14,32765
12.3461,7.68039,2.22924,12,32765
12.3051,7.59767,2.21298,13,32765
12.3646,7.57749,2.21532,14,32765
0,0,0,0,32765
0,0,0,0,32765
16.9448,10.1539,2.99559,13,32765
16.9954,10.1089,2.99407,14,32765
0,0,0,0,32765
0,0,0,0,32765
5.51415,3.20555,0.959756,11,32765
5.4739,3.15745,0.948184,16,32765
5.30431,3.03639,0.914877,16,32765
5.47773,3.11217,0.941187,16,32765
5.44514,3.06995,0.931812,18,32765
5.45553,3.05213,0.92955,18,32765
5.33649,2.9617,0.905071,15,32765
5.48533,3.02009,0.926871,19,32765
5.3827,2.94044,0.905717,17,32765
5.40152,2.92717,0.905148,15,32765
5.27205,2.83456,0.879368,17,32765
5.35166,2.85421,0.888889,16,32765
5.36149,2.83641,0.886632,16,32765
5.31852,2.79131,0.875683,16,32765
5.35428,2.78756,0.878177,21,32765
5.346,2.76119,0.873206,18,32765
5.426,2.77962,0.881907,19,32765
5.39133,2.73921,0.873154,20,32765
5.40961,2.72553,0.872941,18,32765
5.3925,2.69395,0.866975,17,32765
5.41071,2.68027,0.866224,18,32765
5.46456,2.68377,0.870893,19,32765
5.47375,2.66556,0.86911,19,32765
5.44715,2.6304,0.861175,19,32765
5.45585,2.61269,0.860042,20,32765
5.55409,2.63743,0.871872,18,32765
5.45546,2.56858,0.853522,17,32765
5.47311,2.55487,0.85306,19,32765
5.50869,2.54936,0.855579,15,32765
5.49944,2.52293,0.850341,17,32765
5.4719,2.4884,0.843259,17,32765
5.38108,2.42555,0.825992,17,32765
5.27173,2.35527,0.806493,23,32765
5.23433,2.3179,0.798467,19,32765
5.27846,2.31647,0.8026,21,32765
5.32258,2.31501,0.806546,21,32765
5.28513,2.27764,0.797416,21,32765
5.59334,2.38857,0.84192,18,32765
5.56492,2.35486,0.834478,18,32765
5.59102,2.34417,0.836511,18,32765
5.50727,2.28814,0.821456,18,32765
5.55175,2.28507,0.824715,18,32765
5.61426,2.28957,0.832096,17,32765
5.47478,2.21204,0.809498,17,32765
5.55572,2.22363,0.819162,15,32765
5.53547,2.19462,0.813824,17,32765
5.60731,2.20192,0.822176,15,32765
5.55922,2.16199,0.813197,18,32765
5.63103,2.16892,0.821841,19,32765
5.5272,2.10807,0.804386,18,32765
5.61749,2.12173,0.815866,18,32765
5.65237,2.11367,0.819244,20,32765
5.67787,2.10231,0.821045,20,32765
5.66609,2.07724,0.8177,19,32765
5.69161,2.06549,0.819399,17,32765
5.69844,2.047,0.818318,20,32765
5.71452,2.03163,0.819236,19,32765
5.72111,2.01309,0.818992,18,32765
5.62446,1.95929,0.804177,17,32765
5.72434,1.97381,0.817348,19,32765
5.74927,1.96222,0.820057,16,32765
5.76501,1.94687,0.820936,18,32765
5.67731,1.89668,0.807718,15,32765
5.61762,1.85657,0.797752,18,32765
5.61404,1.83546,0.797042,17,32765
5.62913,1.82085,0.798946,18,32765
5.76688,1.84534,0.818506,20,32765
5.82916,1.84523,0.827595,18,32765
5.17132,3.81902,0.960489,17,32765
5.18366,3.80229,0.960328,17,32765
5.1641,3.76219,0.953744,17,32765
5.19267,3.75688,0.955225,18,32765
5.19713,3.73389,0.953327,16,32765
5.30634,3.78554,0.969798,11,32765
0,0,0,12,32765
0,0,0,0,32765
0,0,0,0,32765
0,0,0,0,32765
0,0,0,12,32765
0,0,0,11,32765
0,0,0,0,32765
0,0,0,0,32765
10.5393,7.05777,1.86085,12,32765
10.4726,6.96268,1.84096,11,32765
0,0,0,0,32765
11.8264,7.7515,2.06259,13,32765
11.8274,7.69674,2.05458,20,32765
11.7705,7.60378,2.03558,14,32765
0,0,0,12,32765
0,0,0,12,32765
0,0,0,12,32765
0,0,0,12,32765
12.4769,7.77107,2.11211,11,32765
12.4277,7.68253,2.09513,13,32765
12.3778,7.59462,2.07863,14,32765
12.6236,7.6874,2.11022,12,32765
0,0,0,0,32765
0,0,0,0,32765
17.0137,10.1316,2.80767,15,32765
17.0819,10.0958,2.80787,14,32765
17.1083,10.0338,2.79838,20,32765
17.1423,9.97683,2.79373,21,32765
5.43695,3.13973,0.881658,16,32765
5.47332,3.1367,0.883613,20,32765
5.50089,3.12887,0.88456,20,32765
5.41656,3.05728,0.867354,22,32765
5.47876,3.06856,0.873367,24,32765
5.53279,3.07407,0.877747,24,32765
5.52602,3.04587,0.873315,23,32765
5.4755,2.99444,0.861562,22,32765
5.4858,2.97611,0.859498,22,32765
5.33888,2.87364,0.832449,19,32765
5.34004,2.85111,0.828985,21,32765
5.40239,2.86114,0.83485,21,32765
5.38575,2.82965,0.82849,21,32765
5.38652,2.80735,0.825294,23,32765
5.36067,2.77173,0.817809,21,32765
5.37905,2.7585,0.816386,22,32765
5.44142,2.76759,0.822804,24,32765
5.45981,2.75371,0.822481,22,32765
5.47823,2.73963,0.822099,23,32765
5.42556,2.69041,0.810606,21,32765
5.47948,2.69388,0.814799,21,32765
5.46197,2.66255,0.80905,23,32765
5.48887,2.65325,0.809389,23,32765
5.49764,2.63538,0.808246,22,32765
5.43488,2.58342,0.795532,23,32765
5.50634,2.59513,0.80319,22,32765
5.53307,2.58544,0.80392,21,32765
5.48781,2.54221,0.794419,20,32765
5.52356,2.53649,0.795866,20,32765
5.50505,2.50593,0.790446,19,32765
5.38706,2.4306,0.770316,20,32765
5.37717,2.4047,0.766217,25,32765
5.33988,2.36691,0.758635,24,32765
5.32975,2.3412,0.754652,24,32765
5.37398,2.33957,0.758207,24,32765
5.39119,2.32553,0.757196,25,32765
5.54487,2.37007,0.776878,22,32765
5.57113,2.35966,0.777473,22,32765
5.63387,2.36429,0.784411,23,32765
5.55008,2.30801,0.770278,21,32765
5.57631,2.29724,0.77061,22,32765
5.57464,2.27544,0.768563,21,32765
5.57289,2.25367,0.766437,21,32765
5.57118,2.23177,0.763966,20,32765
5.57859,2.21363,0.762685,19,32765
5.59517,2.19904,0.76282,16,32765
5.52852,2.15188,0.751889,19,32765
5.61888,2.16606,0.762393,21,32765
5.65395,2.15821,0.764871,22,32765
5.66099,2.13991,0.764219,22,32765
5.73313,2.14561,0.772316,24,32765
5.71224,2.11673,0.767666,22,32765
5.7098,2.09492,0.765752,23,32765
5.72608,2.07963,0.766008,22,32765
5.68628,2.0442,0.75869,23,32765
5.62757,2.00224,0.749555,22,32765
5.69959,2.00702,0.758025,21,32765
5.74336,2.00218,0.762907,20,32765
5.77783,1.9937,0.766428,21,32765
5.79346,1.97871,0.767706,21,32765
5.74347,1.94096,0.759783,20,32765
5.74976,1.92221,0.759936,20,32765
5.76545,1.90672,0.760558,21,32765
5.73374,1.87584,0.756226,22,32765
5.7773,1.86999,0.761782,22,32765
5.74529,1.83959,0.757623,21,32765
5.82656,1.84555,0.768642,23,32765
5.1828,3.81351,0.987852,15,32765
5.14813,3.7618,0.973726,14,32765
5.20123,3.77404,0.976648,15,32765
5.1985,3.74519,0.969271,15,32765
5.22761,3.73969,0.967854,12,32765
0,0,0,0,32765
0,0,0,0,32765
0,0,0,0,32765
0,0,0,0,32765
0,0,0,0,32765
0,0,0,0,32765
0,0,0,0,32765
0,0,0,0,32765
0,0,0,0,32765
10.4518,6.96352,1.81811,11,32765
0,0,0,0,32765
0,0,0,0,32765
11.7748,7.67731,2.0134,15,32765
11.8009,7.63894,2.00642,15,32765
0,0,0,0,32765
0,0,0,0,32765
0,0,0,0,32765
0,0,0,0,32765
0,0,0,0,32765
0,0,0,0,32765
0,0,0,0,32765
12.521,7.64214,2.03948,14,32765
0,0,0,0,32765
0,0,0,0,32765
17.0885,10.2012,2.74379,12,32765
16.9443,10.0387,2.70715,12,32765
17.1242,10.0673,2.7226,15,32765
17.1166,9.98473,2.70715,16,32765
5.48844,3.17657,0.863978,11,32765
5.35303,3.0748,0.838769,18,32765
0,0,0,0,32765
5.35612,3.03052,0.83192,15,32765
5.46121,3.0666,0.844672,18,32765
5.39369,3.00525,0.830342,17,32765
0,0,0,0,32765
5.44884,2.9886,0.831442,17,32765
5.42414,2.95173,0.823957,18,32765
5.33815,2.88209,0.807532,15,32765
5.383,2.88294,0.810899,19,32765
5.39276,2.86535,0.808421,16,32765
0,0,0,0,32765
5.3418,2.79301,0.794167,18,32765
0,0,0,0,32765
5.17537,2.66272,0.763159,16,32765
5.37862,2.74478,0.790356,19,32765
5.41457,2.74028,0.792249,17,32765
0,0,0,0,32765
5.42461,2.69944,0.786628,16,32765
0,0,0,0,32765
5.44307,2.663,0.783289,19,32765
0,0,0,0,32765
5.45234,2.6224,0.777844,18,32765
5.44327,2.59567,0.774442,22,32765
5.48798,2.59461,0.777459,17,32765
0,0,0,0,32765
5.44244,2.52933,0.764712,16,32765
5.50507,2.53626,0.77052,19,32765
5.4595,2.49335,0.76128,17,32765
0,0,0,0,32765
5.31352,2.38395,0.734953,18,32765
5.31262,2.36234,0.73145,20,32765
5.32985,2.34845,0.730966,21,32765
5.30142,2.31491,0.724583,20,32765
5.34582,2.31294,0.727597,21,32765
0,0,0,0,32765
5.48035,2.32788,0.739454,16,32765
0,0,0,0,32765
5.51423,2.29962,0.738508,18,32765
5.57704,2.30432,0.74373,18,32765
5.51127,2.25611,0.73199,18,32765
5.49144,2.22651,0.726372,18,32765
5.4991,2.20826,0.724123,18,32765
0,0,0,0,32765
5.4125,2.13191,0.706657,14,32765
0,0,0,0,32765
5.63036,2.17563,0.729433,18,32765
5.61915,2.15044,0.724117,19,32765
5.65412,2.14294,0.725838,17,32765
5.63341,2.1142,0.720068,18,32765
5.68702,2.11337,0.723607,19,32765
5.71276,2.10175,0.723847,20,32765
5.69195,2.07273,0.717987,19,32765
0,0,0,0,32765
5.59364,1.99577,0.69894,15,32765
0,0,0,0,32765
5.72889,2.00222,0.709243,17,32765
5.7075,1.97381,0.70348,18,32765
5.77987,1.97806,0.709124,20,32765
0,0,0,0,32765
5.70817,1.91319,0.692891,18,32765
0,0,0,0,32765
5.70181,1.87122,0.685175,15,32765
0,0,0,0,32765
5.77099,1.85349,0.685769,19,32765
0,0,0,0,32765
5.78309,1.81825,0.678102,19,32765
5.17947,3.81653,0.92584,17,32765
5.17669,3.7881,0.91794,18,32765
5.18984,3.77118,0.91332,17,32765
5.17101,3.73072,0.90333,17,32765
5.22421,3.7426,0.905935,16,32765
5.30996,3.777,0.913769,11,32765
0,0,0,12,32765
0,0,0,0,32765
0,0,0,0,32765
11.8217,8.17625,1.98425,11,32765
11.9809,8.22673,1.99701,11,32765
0,0,0,0,32765
0,0,0,0,32765
0,0,0,0,32765
10.494,7.00145,1.70518,12,32765
10.4519,6.92321,1.6882,11,32765
0,0,0,0,32765
11.752,7.67312,1.8757,13,32765
11.853,7.68328,1.88061,18,32765
12.0541,7.75716,1.90198,12,32765
12.3646,7.89916,1.93885,12,32765
12.2495,7.76804,1.90913,11,32765
12.5275,7.88615,1.94273,12,32765
0,0,0,11,32765
12.4375,7.7149,1.90946,11,32765
0,0,0,0,32765
12.4391,7.60243,1.88717,15,32765
12.5493,7.61343,1.89497,14,32765
0,0,0,0,32765
0,0,0,0,32765
12.387,7.34846,1.84172,12,32765
12.6176,7.42767,1.86649,11,32765
12.6777,7.40516,1.86513,13,32765
12.6692,7.34226,1.85475,14,32765
5.5127,3.17067,0.803153,20,32765
5.48014,3.12832,0.79455,19,32765
5.4387,3.08124,0.785146,22,32765
5.53541,3.11229,0.795595,22,32765
5.52862,3.0844,0.790747,22,32765
5.51294,3.05178,0.785262,21,32765
5.47995,3.0095,0.776572,20,32765
5.42042,2.95346,0.76453,20,32765
5.43911,2.94032,0.763844,17,32765
5.353,2.87048,0.748455,20,32765
5.3627,2.85296,0.745989,19,32765
5.38114,2.83981,0.745485,23,32765
5.39952,2.82671,0.744627,21,32765
5.36494,2.78612,0.736908,21,32765
5.38316,2.77305,0.736051,22,32765
5.42785,2.7733,0.739457,22,32765
5.45507,2.76414,0.739848,21,32765
5.42916,2.72792,0.732888,22,32765
5.45636,2.71852,0.73309,20,32765
5.47462,2.70449,0.732671,23,32765
5.41253,2.65123,0.721409,21,32765
5.41263,2.62889,0.718322,21,32765
5.48432,2.64092,0.724349,21,32765
5.48427,2.6183,0.722307,21,32765
5.48421,2.59587,0.719048,21,32765
5.49301,2.57783,0.716732,23,32765
5.48363,2.55144,0.712807,21,32765
5.48325,2.52913,0.709866,19,32765
5.5189,2.52337,0.711676,20,32765
5.53655,2.50911,0.710878,19,32765
5.35483,2.40522,0.684671,22,32765
5.39936,2.40363,0.687016,24,32765
5.33495,2.35334,0.676043,24,32765
5.37021,2.34757,0.678077,23,32765
5.37828,2.32958,0.676106,23,32765
5.4228,2.32724,0.678782,23,32765
5.61359,2.3871,0.699245,21,32765
5.58494,2.35322,0.693373,22,32765
5.62038,2.34644,0.694627,20,32765
5.66502,2.34321,0.696986,22,32765
5.58092,2.28709,0.68371,18,32765
5.56116,2.2572,0.678346,19,32765
5.67034,2.27945,0.688379,23,32765
5.59505,2.22757,0.675994,19,32765
5.61184,2.21276,0.675146,18,32765
5.61922,2.1946,0.673068,18,32765
5.63576,2.17998,0.672499,22,32765
5.65238,2.1654,0.670669,20,32765
5.71529,2.16836,0.675392,23,32765
5.62019,2.1114,0.661121,20,32765
5.70177,2.12102,0.667469,21,32765
5.66225,2.08528,0.659905,24,32765
5.68804,2.07339,0.659762,21,32765
5.69502,2.0549,0.657486,23,32765
5.68323,2.02975,0.652591,20,32765
5.62443,1.98817,0.642659,23,32765
5.74372,2.00938,0.653061,21,32765
5.66594,1.96135,0.641192,23,32765
5.7195,1.9593,0.644077,22,32765
5.74487,1.94747,0.643271,20,32765
5.77955,1.93899,0.643443,23,32765
5.75751,1.91161,0.637826,22,32765
5.79221,1.90271,0.637926,20,32765
5.64713,1.83525,0.618627,19,32765
5.79532,1.86306,0.630645,21,32765
5.68763,1.80897,0.615243,20,32765
5.84538,1.83956,0.627015,21,32765
5.17457,3.80692,0.849495,16,32765
5.17146,3.77773,0.846388,16,32765
5.18397,3.76067,0.845815,15,32765
5.19606,3.74416,0.844847,15,32765
5.27247,3.77403,0.854037,12,32765
0,0,0,0,32765
0,0,0,0,32765
0,0,0,0,32765
0,0,0,0,32765
0,0,0,0,32765
12.1002,8.30475,1.91242,11,32765
0,0,0,0,32765
0,0,0,0,32765
0,0,0,0,32765
10.4699,6.98393,1.62547,11,32765
0,0,0,0,32765
0,0,0,0,32765
11.7944,7.69869,1.80639,14,32765
11.9614,7.75202,1.8243,12,32765
12.454,8.0141,1.89124,11,32765
12.5143,7.99466,1.89163,11,32765
12.2898,7.7943,1.84878,11,32765
12.2656,7.72237,1.83652,11,32765
12.2326,7.64548,1.82269,11,32765
12.6964,7.87759,1.88381,11,32765
0,0,0,0,32765
12.3692,7.55996,1.81693,14,32765
0,0,0,0,32765
0,0,0,0,32765
12.318,7.36036,1.78413,12,32765
12.4107,7.36079,1.79001,11,32765
12.6064,7.42135,1.80858,12,32765
12.5715,7.34466,1.79533,14,32765
5.47834,3.17593,0.778259,12,32765
5.46347,3.14261,0.772637,15,32765
5.42251,3.09483,0.763211,17,32765
5.54531,3.14061,0.776187,17,32765
5.42603,3.04946,0.756241,17,32765
5.40156,3.01244,0.749171,18,32765
5.59425,3.09564,0.77133,18,32765
5.40452,2.96719,0.742307,18,32765
5.38853,2.93491,0.736536,17,32765
5.23255,2.82736,0.711701,17,32765
5.28593,2.8334,0.715836,16,32765
5.37444,2.85795,0.724147,17,32765
5.35785,2.82627,0.718104,17,32765
5.37616,2.81331,0.717126,16,32765
5.43863,2.82288,0.722191,18,32765
5.36,2.75922,0.708538,17,32765
5.28988,2.7006,0.695931,16,32765
5.3258,2.69631,0.697043,17,32765
5.34395,2.68301,0.695743,18,32765
5.45978,2.71851,0.707173,18,32765
5.45109,2.69173,0.703307,21,32765
5.44243,2.66487,0.698883,16,32765
5.41584,2.62934,0.691949,18,32765
5.46964,2.63268,0.695788,16,32765
5.51451,2.63163,0.698029,19,32765
5.5144,2.60933,0.694576,18,32765
5.30719,2.49008,0.665774,17,32765
5.4777,2.54817,0.684143,16,32765
5.37801,2.48019,0.668767,16,32765
5.52203,2.52434,0.683381,16,32765
5.55768,2.5184,0.685129,16,32765
5.29439,2.37755,0.649803,17,32765
5.32072,2.36782,0.650368,19,32765
5.33781,2.35417,0.650052,21,32765
5.3184,2.32484,0.644484,18,32765
5.32611,2.30755,0.642963,18,32765
5.30648,2.2782,0.638108,18,32765
5.55205,2.36161,0.665197,17,32765
5.51432,2.32375,0.65794,19,32765
5.55889,2.32062,0.661152,18,32765
5.60335,2.31769,0.663908,16,32765
5.63864,2.31079,0.665513,17,32765
5.52646,2.24393,0.650414,18,32765
5.5985,2.25186,0.656401,16,32765
5.53205,2.20428,0.646292,17,32765
5.50228,2.17174,0.641049,15,32765
5.64838,2.20811,0.655773,15,32765
5.58148,2.16096,0.64637,18,32765
5.65353,2.1679,0.652594,16,32765
5.5399,2.1035,0.63752,17,32765
5.57467,2.09607,0.640001,17,32765
5.67479,2.11258,0.649531,19,32765
5.6538,2.08358,0.645632,18,32765
5.7447,2.09595,0.654136,18,32765
5.75161,2.07725,0.653081,19,32765
5.67403,2.02857,0.643328,19,32765
5.67125,2.00677,0.642103,16,32765
5.76232,2.0179,0.650648,18,32765
5.71248,1.97975,0.643903,18,32765
5.65299,1.93886,0.636074,17,32765
5.70623,1.93691,0.641005,18,32765
5.75949,1.9345,0.646591,19,32765
5.7657,1.91609,0.646085,17,32765
5.76236,1.89466,0.644586,19,32765
5.7776,1.87979,0.646441,19,32765
5.73604,1.84665,0.641354,18,32765
5.84599,1.86163,0.653935,19,32765
5.86147,1.8455,0.655551,16,32765
5.19366,3.82745,0.791513,18,32765
5.22268,3.82158,0.793454,17,32765
5.18717,3.76931,0.785575,17,32765
5.21541,3.76437,0.787032,17,32765
5.23546,3.75376,0.78698,16,32765
5.32879,3.79423,0.797438,11,32765
11.5664,8.17795,1.72433,12,32765
11.667,8.19099,1.73192,11,32765
11.6292,8.10722,1.71859,11,32765
11.9008,8.23891,1.75134,11,32765
11.8955,8.17746,1.74315,12,32765
11.8569,8.09409,1.72949,12,32765
0,0,0,0,32765
0,0,0,0,32765
10.5843,7.07149,1.52247,12,32765
10.5011,6.96457,1.50254,11,32765
0,0,0,0,32765
11.736,7.67265,1.66439,13,32765
11.8281,7.67763,1.67014,13,32765
0,0,0,12,32765
0,0,0,11,32765
0,0,0,12,32765
0,0,0,11,32765
11.8372,7.40971,1.6312,11,32765
11.9884,7.44966,1.64475,11,32765
12.0815,7.45139,1.64907,12,32765
12.107,7.41093,1.64364,13,32765
11.9372,7.2515,1.61291,12,32765
11.9704,7.21712,1.6084,12,32765
12.0372,7.20333,1.61024,13,32765
11.9842,7.11843,1.59611,14,32765
11.9309,7.03418,1.58014,13,32765
11.7746,6.88932,1.55197,14,32765
11.8327,6.86984,1.55101,15,32765
5.46753,3.14957,0.713279,18,32765
5.51283,3.15099,0.715609,21,32765
5.49759,3.11813,0.709472,22,32765
5.53402,3.11468,0.710969,21,32765
5.47503,3.05785,0.69979,20,32765
5.5376,3.06873,0.703379,21,32765
5.53925,3.04554,0.70076,22,32765
5.49732,2.99846,0.691916,23,32765
5.49879,2.97546,0.688514,20,32765
5.3425,2.8678,0.665889,19,32765
5.37854,2.86419,0.666804,20,32765
5.44984,2.87887,0.671874,20,32765
5.35386,2.80558,0.656721,20,32765
5.43398,2.82443,0.663384,20,32765
5.36412,2.7652,0.651739,20,32765
5.42675,2.77434,0.656024,21,32765
5.45407,2.76508,0.655725,21,32765
5.48133,2.7558,0.655332,19,32765
5.464,2.72437,0.649703,21,32765
5.46423,2.70192,0.647076,21,32765
5.50023,2.69685,0.648093,20,32765
5.47372,2.66107,0.641506,21,32765
5.50974,2.65558,0.642764,20,32765
5.51881,2.63725,0.640446,22,32765
5.55466,2.63192,0.641233,20,32765
5.48239,2.57573,0.630185,20,32765
5.50905,2.56617,0.630299,21,32765
5.55382,2.56468,0.632489,20,32765
5.49923,2.51726,0.62308,19,32765
5.553,2.51961,0.626596,20,32765
5.48003,2.46415,0.615479,19,32765
5.32493,2.3728,0.595473,23,32765
5.40575,2.38723,0.602156,23,32765
5.40464,2.36561,0.598859,22,32765
5.36685,2.32821,0.592275,22,32765
5.37469,2.31045,0.590701,20,32765
5.58394,2.37821,0.611326,21,32765
5.50039,2.32083,0.599528,20,32765
5.60006,2.34077,0.608351,20,32765
5.61704,2.32628,0.607734,21,32765
5.64318,2.31554,0.608061,20,32765
5.64154,2.2935,0.606061,19,32765
5.52918,2.22673,0.591604,20,32765
5.59198,2.2309,0.596054,20,32765
5.60855,2.2164,0.596093,19,32765
5.67151,2.21985,0.600551,19,32765
5.60459,2.17253,0.591893,19,32765
5.72319,2.19725,0.602342,17,32765
5.67467,2.15725,0.595303,19,32765
5.68171,2.13885,0.59456,22,32765
5.70744,2.12724,0.595346,19,32765
5.71449,2.10841,0.594638,22,32765
5.74011,2.0967,0.595496,22,32765
5.69086,2.05768,0.588631,22,32765
5.66001,2.02587,0.584562,19,32765
5.76043,2.04063,0.594073,22,32765
5.73897,2.01199,0.590166,20,32765
5.74548,1.99341,0.589776,23,32765
5.78955,1.98789,0.59321,22,32765
5.78645,1.96629,0.591878,22,32765
5.72664,1.92556,0.585425,20,32765
5.76116,1.91664,0.587811,20,32765
5.79564,1.90763,0.590257,20,32765
5.83934,1.90187,0.594913,22,32765
5.71256,1.84101,0.581616,18,32765
5.79415,1.84702,0.590262,18,32765
5.77164,1.81906,0.58791,20,32765
5.16534,3.7934,0.813027,15,32765
5.17091,3.77014,0.806408,15,32765
5.23258,3.78756,0.809058,14,32765
5.19724,3.7357,0.7973,15,32765
5.25022,3.74782,0.799403,12,32765
0,0,0,0,32765
11.5904,8.1587,1.73659,12,32765
0,0,0,0,32765
0,0,0,0,32765
0,0,0,0,32765
0,0,0,0,32765
0,0,0,0,32765
0,0,0,0,32765
0,0,0,0,32765
0,0,0,0,32765
0,0,0,0,32765
0,0,0,0,32765
11.715,7.62098,1.62587,12,32765
0,0,0,11,32765
0,0,0,0,32765
0,0,0,0,32765
0,0,0,0,32765
0,0,0,0,32765
11.9254,7.42891,1.59268,11,32765
11.9675,7.40016,1.58834,11,32765
11.9756,7.35002,1.58167,12,32765
11.8479,7.21725,1.55553,12,32765
11.8215,7.14732,1.54212,12,32765
11.8455,7.10855,1.53708,12,32765
11.9807,7.13548,1.54566,13,32765
11.8596,7.01003,1.51949,12,32765
11.952,7.01109,1.52217,12,32765
11.8901,6.92143,1.50519,14,32765
5.49173,3.17282,0.691761,12,32765
5.40761,3.10032,0.677214,18,32765
5.51309,3.13667,0.686644,18,32765
5.42849,3.06476,0.671999,18,32765
0,0,0,0,32765
5.52734,3.07235,0.67733,18,32765
0,0,0,0,32765
5.46072,2.98829,0.661992,20,32765
0,0,0,0,32765
5.43695,2.92881,0.652477,15,32765
0,0,0,0,32765
5.36891,2.84605,0.637914,17,32765
0,0,0,0,32765
5.42348,2.82867,0.637985,18,32765
0,0,0,0,32765
5.29239,2.71499,0.616282,16,32765
0,0,0,0,32765
5.28428,2.66609,0.60897,15,32765
0,0,0,0,32765
5.45389,2.70589,0.622619,16,32765
0,0,0,0,32765
5.43635,2.65225,0.61485,18,32765
0,0,0,0,32765
5.54409,2.65911,0.620126,16,32765
5.48115,2.6066,0.610446,18,32765
5.472,2.57986,0.606593,16,32765
0,0,0,0,32765
5.3991,2.5017,0.592936,15,32765
0,0,0,0,32765
5.47936,2.49487,0.595603,16,32765
0,0,0,0,32765
5.31459,2.37723,0.57138,19,32765
0,0,0,0,32765
5.27603,2.31773,0.561939,20,32765
0,0,0,0,32765
5.3374,2.30237,0.562874,18,32765
0,0,0,0,32765
5.68305,2.40645,0.593223,16,32765
0,0,0,0,32765
5.61675,2.33405,0.580005,16,32765
0,0,0,0,32765
5.577,2.27468,0.570462,17,32765
0,0,0,0,32765
5.59207,2.23836,0.56659,17,32765
0,0,0,0,32765
5.64408,2.21631,0.566065,16,32765
0,0,0,0,32765
5.64031,2.17233,0.559311,16,32765
0,0,0,0,32765
5.66404,2.13919,0.555808,15,32765
0,0,0,0,32765
5.67835,2.10212,0.551179,18,32765
0,0,0,0,32765
5.73006,2.07817,0.549604,15,32765
0,0,0,0,32765
5.8283,2.07108,0.552822,17,32765
5.69424,2.00285,0.536487,18,32765
5.68203,1.97799,0.532626,15,32765
0,0,0,0,32765
5.76101,1.96432,0.533253,17,32765
0,0,0,0,32765
5.75474,1.92203,0.526211,14,32765
0,0,0,0,32765
5.62553,1.83837,0.507341,14,32765
0,0,0,0,32765
5.69429,1.8218,0.506113,15,32765
0,0,0,0,32765
5.80103,1.81672,0.507505,15,32765
5.20008,3.82564,0.757433,17,32765
5.21374,3.80806,0.752024,18,32765
5.21121,3.77873,0.744874,18,32765
5.2403,3.77326,0.742832,18,32765
5.24491,3.7506,0.737612,16,32765
5.33866,3.79123,0.743884,11,32765
11.5803,8.16582,1.60106,12,32765
0,0,0,0,32765
11.7579,8.17522,1.6016,11,32765
0,0,0,0,32765
11.6904,8.01378,1.56896,12,32765
11.0604,7.52805,1.47233,12,32765
0,0,0,0,32765
0,0,0,0,32765
10.5005,6.99331,1.36707,12,32765
10.4914,6.93639,1.35627,11,32765
0,0,0,0,32765
11.3798,7.41556,1.45086,12,32765
11.463,7.41643,1.45194,13,32765
11.5464,7.41723,1.45116,17,32765
11.5458,7.36384,1.44249,14,32765
11.5285,7.29963,1.43066,13,32765
11.5784,7.27788,1.42671,14,32765
11.51,7.18225,1.40885,14,32765
11.5005,7.12337,1.39837,14,32765
11.4484,7.03822,1.38488,13,32765
11.345,6.92245,1.36374,13,32765
11.4537,6.93649,1.36743,13,32765
11.5196,6.92447,1.3676,13,32765
0,0,0,11,32765
11.6437,6.89379,1.36377,14,32765
11.6757,6.86029,1.35882,13,32765
11.5702,6.74629,1.33794,13,32765
11.5151,6.6637,1.32457,14,32765
5.47975,3.14682,0.626438,18,32765
5.51627,3.14359,0.626941,21,32765
5.49226,3.10581,0.620168,19,32765
5.52021,3.09731,0.619371,22,32765
5.53925,3.08394,0.618772,20,32765
5.5323,3.05609,0.613614,21,32765
5.50756,3.01876,0.608209,24,32765
5.51763,3.00075,0.606106,24,32765
5.40512,2.91631,0.590507,19,32765
5.36234,2.87023,0.582391,18,32765
5.38969,2.86159,0.5826,20,32765
5.3642,2.82512,0.576351,18,32765
5.44438,2.84404,0.582276,19,32765
5.48954,2.84405,0.583428,21,32765
5.41957,2.78458,0.573386,22,32765
5.44684,2.77542,0.573154,18,32765
5.44745,2.75269,0.569967,19,32765
5.44806,2.72977,0.566951,22,32765
5.44832,2.70729,0.564356,20,32765
5.43065,2.67599,0.559892,19,32765
5.48444,2.67981,0.562466,20,32765
5.48453,2.6574,0.559049,20,32765
5.50265,2.64325,0.55766,20,32765
5.48456,2.61218,0.553275,22,32765
5.4484,2.57261,0.546893,21,32765
5.43909,2.54604,0.543001,18,32765
5.49284,2.54895,0.545856,20,32765
5.58292,2.56828,0.551233,22,32765
5.51001,2.51256,0.541554,19,32765
5.49125,2.48205,0.536791,18,32765
5.34522,2.39447,0.519175,20,32765
5.31687,2.36056,0.51404,21,32765
5.37968,2.36674,0.517286,23,32765
5.34204,2.32889,0.511252,23,32765
5.37739,2.32301,0.511581,23,32765
5.44024,2.32854,0.515048,20,32765
5.55828,2.35703,0.522984,19,32765
5.4561,2.29209,0.510797,18,32765
5.60196,2.33126,0.520974,20,32765
5.4992,2.26726,0.50917,18,32765
5.62671,2.29824,0.517944,17,32765
5.62517,2.27612,0.514634,18,32765
5.60492,2.2467,0.510662,19,32765
5.65876,2.2467,0.512751,20,32765
5.60136,2.20264,0.504734,20,32765
5.64588,2.19886,0.505392,20,32765
5.64395,2.17678,0.50234,20,32765
5.66051,2.16193,0.501112,20,32765
5.65838,2.14003,0.497916,18,32765
5.62816,2.10764,0.49247,19,32765
5.71006,2.11678,0.496539,20,32765
5.73599,2.1047,0.495534,20,32765
5.71501,2.07557,0.490535,17,32765
5.62808,2.02344,0.479999,20,32765
5.69119,2.02512,0.482565,20,32765
5.7167,2.0135,0.481162,19,32765
5.78923,2.01805,0.48457,19,32765
5.7582,1.98645,0.478777,20,32765
5.75526,1.96501,0.475087,22,32765
5.74264,1.94082,0.47085,20,32765
5.77732,1.93217,0.470546,19,32765
5.73638,1.89792,0.464179,19,32765
5.73334,1.87612,0.459899,18,32765
5.8249,1.88555,0.463561,20,32765
5.78334,1.85276,0.456485,18,32765
5.85572,1.85634,0.458425,20,32765
5.86174,1.83818,0.454612,21,32765
5.17655,3.80403,0.68139,15,32765
5.22148,3.81015,0.684753,16,32765
5.21803,3.78132,0.681286,15,32765
5.19033,3.73499,0.674742,15,32765
5.25933,3.75838,0.681195,12,32765
0,0,0,0,32765
0,0,0,0,32765
0,0,0,0,32765
0,0,0,0,32765
11.6245,8.02207,1.46905,11,32765
11.0197,7.55038,1.38669,11,32765
10.9796,7.46904,1.37306,11,32765
0,0,0,0,32765
0,0,0,0,32765
10.5073,6.99724,1.29319,11,32765
0,0,0,0,32765
0,0,0,0,32765
11.2275,7.31674,1.36001,12,32765
11.4697,7.41954,1.38184,14,32765
11.495,7.38121,1.37673,14,32765
11.4778,7.31658,1.36778,12,32765
11.435,7.23646,1.35461,12,32765
11.4588,7.19959,1.34938,13,32765
11.5163,7.18366,1.34872,13,32765
11.3031,6.99985,1.31552,12,32765
11.3693,6.98806,1.31694,12,32765
11.3675,6.93453,1.31022,12,32765
11.4335,6.92269,1.31005,12,32765
11.6021,6.97168,1.32208,11,32765
11.6597,6.95382,1.32085,11,32765
11.6831,6.91552,1.31531,13,32765
11.7239,6.88671,1.31135,11,32765
11.5833,6.75303,1.28983,14,32765
5.52308,3.19538,0.610973,12,32765
5.44741,3.12766,0.599666,16,32765
5.43213,3.09468,0.594387,18,32765
5.46876,3.09118,0.594418,17,32765
5.44471,3.05328,0.587799,18,32765
5.49864,3.05925,0.590179,17,32765
5.53511,3.05546,0.59093,15,32765
5.42314,2.97027,0.575442,20,32765
5.41569,2.94292,0.570626,18,32765
5.36416,2.89216,0.561732,16,32765
5.35638,2.86503,0.557517,15,32765
5.26049,2.79128,0.544433,15,32765
0,0,0,0,32765
5.4118,2.82539,0.553625,16,32765
5.46564,2.83019,0.556057,16,32765
5.40451,2.77544,0.546109,16,32765
5.41386,2.75747,0.544454,18,32765
5.34334,2.69877,0.534222,17,32765
0,0,0,0,32765
5.43307,2.69848,0.536758,17,32765
5.54949,2.73321,0.544823,15,32765
5.3348,2.60584,0.520686,16,32765
5.42448,2.62687,0.526334,16,32765
5.58623,2.6818,0.538861,16,32765
5.50535,2.6204,0.52822,19,32765
5.4241,2.55962,0.51756,19,32765
5.5408,2.59278,0.525895,17,32765
5.54954,2.5745,0.523594,17,32765
5.56725,2.5603,0.522566,17,32765
5.48517,2.50068,0.511908,16,32765
5.49369,2.48231,0.50992,16,32765
5.22915,2.34208,0.48287,18,32765
5.32818,2.365,0.48966,18,32765
5.36365,2.35918,0.489792,19,32765
5.30762,2.31354,0.482451,17,32765
5.31538,2.29602,0.480757,18,32765
5.45125,2.33358,0.49065,16,32765
5.58759,2.36997,0.500138,17,32765
5.61396,2.35916,0.49992,17,32765
5.6309,2.34474,0.499593,15,32765
5.56504,2.29579,0.491215,16,32765
5.62793,2.30034,0.494837,15,32765
5.63567,2.28172,0.492865,19,32765
5.59705,2.24458,0.487282,17,32765
5.70637,2.26679,0.494522,17,32765
5.62116,2.21155,0.485021,18,32765
5.57266,2.17157,0.479312,16,32765
5.65426,2.18195,0.48461,15,32765
5.3729,2.053,0.458334,15,32765
5.70598,2.15884,0.485385,18,32765
5.66642,2.12275,0.480107,19,32765
5.72938,2.12541,0.483507,17,32765
5.66144,2.07927,0.476718,16,32765
5.65891,2.05749,0.474384,16,32765
5.71246,2.05606,0.478097,17,32765
5.57843,1.98699,0.465415,17,32765
5.78226,2.03869,0.481381,17,32765
5.77951,2.01663,0.479683,16,32765
5.63538,1.9456,0.466421,15,32765
5.72657,1.95648,0.472753,17,32765
5.8178,1.96689,0.479725,17,32765
5.83342,1.95173,0.480482,15,32765
5.83025,1.92987,0.478982,17,32765
5.69428,1.86461,0.467397,17,32765
5.82346,1.88647,0.477597,18,32765
5.80085,1.85904,0.475586,16,32765
0,0,0,0,32765
5.65997,1.7751,0.46501,16,32765
5.2259,3.84804,0.626841,18,32765
5.20673,3.80701,0.622137,17,32765
5.21939,3.78986,0.620771,17,32765
5.24823,3.78417,0.621381,17,32765
5.23649,3.74948,0.61762,16,32765
5.37894,3.8243,0.631311,11,32765
11.5884,8.18183,1.3525,13,32765
11.5986,8.1333,1.3468,12,32765
11.3642,7.91327,1.31293,12,32765
11.0957,7.67208,1.27519,13,32765
