x, y, z, intensity, ring
0,0,0,0,32765
0,0,0,0,32765
0,0,0,0,32765
0,0,0,0,32765
0,0,0,0,32765
0,0,0,0,32765
0,0,0,0,32765
0,0,0,0,32765
0,0,0,0,32765
0,0,0,0,32765
0,0,0,0,32765
0,0,0,0,32765
0,0,0,0,32765
0,0,0,0,32765
0,0,0,0,32765
0,0,0,0,32765
0,0,0,0,32765
0,0,0,0,32765
0,0,0,0,32765
0,0,0,0,32765
0,0,0,0,32765
6.95468,3.77478,0.518112,11,32765
6.99401,3.76552,0.515921,11,32765
7.00678,3.74207,0.513406,17,32765
7.01052,3.71412,0.510308,15,32765
7.12026,3.74174,0.514709,11,32765
0,0,0,0,32765
0,0,0,0,32765
0,0,0,0,32765
0,0,0,0,32765
0,0,0,0,32765
0,0,0,0,32765
0,0,0,0,32765
6.9417,3.41399,0.468942,22,32765
6.93531,3.38199,0.465316,24,32765
6.89304,3.33242,0.458123,19,32765
6.9043,3.30936,0.455668,20,32765
6.90632,3.28236,0.452091,20,32765
6.90833,3.25527,0.448014,20,32765
6.88295,3.21565,0.443473,21,32765
6.9029,3.19678,0.4415,19,32765
6.94114,3.18582,0.439985,21,32765
6.95177,3.16295,0.437295,29,32765
6.95336,3.13561,0.433961,23,32765
6.93643,3.10057,0.429497,34,32765
6.91936,3.06561,0.425304,19,32765
7.00281,3.07465,0.427548,12,32765
7.13204,3.10339,0.432547,12,32765
7.1975,3.10336,0.433162,12,32765
7.20776,3.07981,0.430692,12,32765
7.21806,3.05594,0.428238,13,32765
7.20066,3.02037,0.424653,13,32765
7.20158,2.99255,0.421933,37,32765
7.21158,2.96876,0.419176,41,32765
7.18446,2.92984,0.41527,41,32765
7.18485,2.90262,0.412726,40,32765
7.14817,2.86028,0.408173,26,32765
6.7584,2.6787,0.383383,11,32765
6.73012,2.64186,0.379084,11,32765
6.73869,2.62003,0.378264,11,32765
6.59827,2.54034,0.368628,14,32765
6.61597,2.52238,0.366868,19,32765
6.60547,2.49392,0.364691,13,32765
6.7353,2.51785,0.369112,11,32765
6.78091,2.50992,0.370313,11,32765
6.86427,2.51495,0.373202,11,32765
7.09801,2.57384,0.383679,33,32765
7.12515,2.55753,0.384287,37,32765
7.15238,2.54089,0.383836,36,32765
7.21703,2.53793,0.385923,35,32765
7.25348,2.52469,0.386183,34,32765
7.28062,2.50736,0.386999,33,32765
7.31709,2.49353,0.387483,34,32765
7.36296,2.48277,0.388748,34,32765
7.3992,2.46902,0.389726,33,32765
7.47337,2.46757,0.392711,33,32765
7.48122,2.4436,0.393099,33,32765
7.54602,2.43817,0.395619,31,32765
7.5918,2.42619,0.39828,33,32765
7.62799,2.41122,0.399803,35,32765
7.66401,2.39625,0.403165,33,32765
8.25094,6.07246,0.721159,11,32765
8.28689,6.05736,0.721001,11,32765
8.39575,6.09456,0.726449,11,32765
8.34319,6.01436,0.717521,11,32765
8.34718,5.9748,0.714482,11,32765
8.39162,5.96437,0.713701,12,32765
8.33813,5.8849,0.704503,11,32765
8.39009,5.88079,0.703988,12,32765
8.34407,5.80759,0.696086,11,32765
8.3959,5.80326,0.6956,12,32765
8.44843,5.79772,0.695333,12,32765
8.43497,5.74707,0.689444,12,32765
8.48729,5.74154,0.688087,12,32765
8.39868,5.64133,0.676119,12,32765
8.49221,5.66349,0.678431,12,32765
8.54446,5.65736,0.677756,12,32765
8.53023,5.60692,0.671235,12,32765
8.44039,5.50772,0.659397,12,32765
8.61795,5.58286,0.668357,12,32765
8.63649,5.55459,0.664579,12,32765
8.6717,5.53715,0.661591,12,32765
8.71526,5.52481,0.660583,12,32765
8.69129,5.46977,0.653604,12,32765
8.72644,5.45185,0.65021,12,32765
8.72776,5.41232,0.645742,12,32765
8.80546,5.42002,0.645715,12,32765
8.82397,5.3904,0.640875,12,32765
8.84217,5.36092,0.637249,12,32765
8.92905,5.37206,0.637594,12,32765
8.8186,5.26546,0.625501,11,32765
9.15422,5.42426,0.642876,11,32765
9.17254,5.39374,0.638464,11,32765
9.17358,5.35291,0.633463,11,32765
9.39043,5.43713,0.64372,11,32765
9.37401,5.3861,0.637802,11,32765
0,0,0,0,32765
0,0,0,0,32765
0,0,0,0,32765
0,0,0,0,32765
0,0,0,0,32765
7.02125,3.84935,0.452661,11,32765
6.9992,3.80686,0.44656,11,32765
7.04742,3.80218,0.44461,11,32765
7.00749,3.75022,0.438763,16,32765
7.0289,3.73157,0.436849,21,32765
7.09453,3.73592,0.437482,13,32765
7.06297,3.68904,0.431152,11,32765
7.11092,3.68385,0.429578,11,32765
0,0,0,0,32765
0,0,0,0,32765
0,0,0,0,32765
0,0,0,0,32765
0,0,0,0,32765
6.96051,3.43021,0.397235,17,32765
6.99006,3.41562,0.395818,32,32765
6.96587,3.37445,0.390161,25,32765
6.94126,3.3338,0.385674,24,32765
6.94335,3.30663,0.38217,24,32765
6.91833,3.26656,0.376689,24,32765
6.92917,3.24376,0.374471,25,32765
6.9311,3.21628,0.371411,26,32765
6.94217,3.19268,0.368153,18,32765
7.01643,3.19876,0.368802,39,32765
7.00904,3.16703,0.365058,31,32765
7.00132,3.13582,0.36132,43,32765
7.00262,3.10867,0.358315,37,32765
7.03136,3.09332,0.356991,14,32765
7.10573,3.09806,0.357987,13,32765
7.18952,3.10604,0.35896,13,32765
7.18142,3.07461,0.355579,13,32765
7.22848,3.06638,0.354936,14,32765
7.23874,3.0423,0.352973,13,32765
7.22129,3.00661,0.349438,33,32765
7.25904,2.99414,0.347998,49,32765
7.2505,2.96254,0.345334,48,32765
7.23247,2.92754,0.341986,48,32765
7.23296,2.89982,0.339627,42,32765
7.02895,2.79133,0.327502,12,32765
6.75,2.65478,0.311888,11,32765
6.75862,2.63284,0.311062,11,32765
6.63687,2.5601,0.303776,14,32765
6.64529,2.53842,0.301481,23,32765
6.68157,2.52748,0.301594,18,32765
6.65247,2.49163,0.297646,12,32765
6.74485,2.50132,0.300565,11,32765
6.8751,2.52369,0.304785,11,32765
7.08075,2.57243,0.311757,29,32765
7.18312,2.58319,0.315479,47,32765
7.21044,2.56633,0.314824,46,32765
7.25635,2.55653,0.315516,42,32765
7.28343,2.53985,0.315076,42,32765
7.32009,2.52564,0.316108,41,32765
7.34717,2.50843,0.315894,42,32765
7.40257,2.50074,0.317182,42,32765
7.44837,2.49,0.318277,41,32765
7.48469,2.47584,0.318979,41,32765
7.52108,2.46111,0.32058,40,32765
7.58596,2.45553,0.322529,39,32765
7.63182,2.4434,0.324814,39,32765
7.67762,2.43129,0.326458,44,32765
7.72328,2.41911,0.329954,43,32765
0,0,0,0,32765
0,0,0,0,32765
0,0,0,0,32765
0,0,0,0,32765
0,0,0,0,32765
0,0,0,0,32765
8.41346,5.91548,0.719022,11,32765
8.40064,5.86507,0.709243,11,32765
8.3468,5.78604,0.696497,11,32765
8.39108,5.77545,0.69139,11,32765
8.26221,5.6466,0.672828,11,32765
8.26476,5.60799,0.666583,11,32765
8.39143,5.65302,0.668498,11,32765
8.48523,5.67509,0.668668,11,32765
8.33821,5.53654,0.649504,11,32765
8.30685,5.47617,0.639263,11,32765
8.37518,5.48185,0.637656,12,32765
8.43547,5.48137,0.635487,11,32765
8.42856,5.43762,0.627841,12,32765
8.41337,5.38805,0.61983,11,32765
8.43135,5.36053,0.614114,11,32765
8.55898,5.40214,0.616656,11,32765
8.54307,5.35293,0.609995,12,32765
8.62849,5.36758,0.608897,12,32765
8.7315,5.39143,0.609739,12,32765
8.67306,5.31557,0.599065,12,32765
8.68255,5.28145,0.593281,12,32765
8.77729,5.29908,0.593099,12,32765
8.71796,5.22394,0.583173,12,32765
8.84698,5.26154,0.585861,11,32765
8.8301,5.21221,0.57886,11,32765
8.96821,5.25357,0.582437,11,32765
9.13282,5.30886,0.586502,11,32765
9.26317,5.34323,0.589593,12,32765
9.35056,5.35202,0.589124,13,32765
9.23834,5.24706,0.575387,11,32765
0,0,0,0,32765
0,0,0,0,32765
0,0,0,0,32765
0,0,0,0,32765
0,0,0,0,32765
0,0,0,0,32765
7.16933,3.85341,0.417658,11,32765
7.02367,3.74508,0.404144,14,32765
7.04513,3.72627,0.401916,16,32765
6.99594,3.66999,0.39508,11,32765
7.1411,3.71584,0.401027,11,32765
0,0,0,0,32765
0,0,0,0,32765
0,0,0,0,32765
0,0,0,0,32765
0,0,0,0,32765
0,0,0,0,32765
6.91337,3.39384,0.362358,18,32765
6.95188,3.38362,0.360669,25,32765
6.90044,3.32978,0.353973,19,32765
6.92967,3.31539,0.352154,19,32765
6.91373,3.27939,0.348622,19,32765
6.88863,3.2393,0.343652,19,32765
6.89945,3.21651,0.340662,20,32765
6.89209,3.18515,0.337395,20,32765
6.89363,3.15813,0.334894,17,32765
6.97694,3.16839,0.335414,34,32765
6.96941,3.13688,0.331377,25,32765
6.94348,3.09739,0.326163,38,32765
6.89891,3.05028,0.321523,25,32765
7.0648,3.09537,0.325236,13,32765
7.07516,3.07184,0.323008,12,32765
7.04895,3.03208,0.3182,12,32765
7.21557,3.07479,0.322055,12,32765
7.28123,3.07378,0.322073,12,32765
7.19938,3.01102,0.31426,12,32765
7.20942,2.98718,0.311528,32,32765
7.21931,2.9635,0.308811,41,32765
7.2107,2.93208,0.304684,39,32765
7.19265,2.89711,0.300247,39,32765
7.15586,2.85489,0.295548,30,32765
6.78438,2.68057,0.276959,11,32765
6.60713,2.58547,0.266809,11,32765
6.80203,2.63604,0.271466,11,32765
6.57751,2.52422,0.259152,13,32765
6.62322,2.51687,0.25772,19,32765
6.65029,2.50206,0.255709,13,32765
6.72412,2.50474,0.254699,11,32765
6.7886,2.50362,0.253738,11,32765
6.83429,2.49543,0.252381,11,32765
7.10558,2.56852,0.258874,29,32765
7.13283,2.55211,0.256537,37,32765
7.1508,2.53185,0.252769,36,32765
7.21588,2.52793,0.251235,34,32765
7.23353,2.50798,0.248355,33,32765
7.28878,2.50136,0.246903,34,32765
7.32512,2.48817,0.243454,34,32765
7.36155,2.47436,0.240857,32,32765
7.39815,2.45982,0.237915,34,32765
7.46313,2.45473,0.235897,34,32765
7.48982,2.43775,0.232975,32,32765
7.57365,2.43882,0.231326,33,32765
7.60996,2.42425,0.227083,33,32765
7.62756,2.40235,0.221531,36,32765
7.67332,2.39037,0.218699,34,32765
8.12064,5.96958,0.655183,12,32765
8.10856,5.91943,0.644351,12,32765
8.09684,5.86855,0.633757,12,32765
8.09284,5.82375,0.624434,13,32765
8.10423,5.79149,0.616776,13,32765
8.12343,5.76532,0.609386,14,32765
8.11007,5.71576,0.600307,15,32765
8.10474,5.67195,0.591742,18,32765
8.1568,5.66777,0.587739,18,32765
8.16778,5.6351,0.580169,14,32765
8.17021,5.59697,0.57269,19,32765
8.24688,5.6091,0.571829,17,32765
8.18321,5.52577,0.55952,13,32765
8.24338,5.52634,0.55674,15,32765
8.21223,5.46572,0.547371,15,32765
8.2056,5.42214,0.539421,16,32765
8.22363,5.39529,0.534056,15,32765
8.28361,5.3953,0.531507,15,32765
8.33509,5.38991,0.527954,13,32765
8.37856,5.37829,0.524048,13,32765
8.41333,5.36155,0.519387,12,32765
8.43122,5.33389,0.514025,12,32765
8.432,5.29561,0.508814,12,32765
8.46634,5.27893,0.504008,12,32765
8.57753,5.30862,0.5045,12,32765
8.52731,5.23833,0.495248,14,32765
8.55358,5.21502,0.490615,14,32765
8.60535,5.20725,0.487242,14,32765
8.7084,5.23022,0.487348,13,32765
8.81168,5.25258,0.487391,12,32765
8.82916,5.2236,0.482655,12,32765
8.84669,5.19424,0.478391,12,32765
8.91612,5.19474,0.47586,14,32765
8.93365,5.1649,0.471882,15,32765
8.98575,5.15492,0.469017,15,32765
9.15068,5.20909,0.471203,13,32765
9.22886,5.21332,0.470792,12,32765
0,0,0,0,32765
0,0,0,0,32765
0,0,0,0,32765
0,0,0,0,32765
7.17351,3.895,0.344466,11,32765
7.01933,3.78124,0.334118,11,32765
7.04966,3.76736,0.330644,15,32765
7.05353,3.73905,0.327486,22,32765
7.03092,3.69657,0.322513,14,32765
7.06986,3.68695,0.322194,12,32765
7.11774,3.68189,0.319186,11,32765
7.21018,3.69909,0.319547,11,32765
0,0,0,0,32765
0,0,0,40,32765
0,0,0,32,32765
0,0,0,36,32765
6.958,3.42325,0.29188,13,32765
6.99661,3.41286,0.289884,32,32765
6.98125,3.37615,0.285288,26,32765
6.96557,3.33985,0.281423,21,32765
6.92264,3.29078,0.277073,22,32765
6.93373,3.26761,0.273897,22,32765
6.92653,3.23616,0.270176,21,32765
6.92831,3.20884,0.267433,25,32765
6.92084,3.17747,0.264662,18,32765
7.00421,3.18765,0.264414,38,32765
7.04229,3.17653,0.262244,41,32765
6.97086,3.11631,0.25569,43,32765
7.02686,3.11354,0.255252,56,32765
6.98247,3.06588,0.24977,18,32765
7.08438,3.08245,0.250808,13,32765
7.12245,3.07026,0.248609,13,32765
7.18808,3.06964,0.24735,14,32765
7.19849,3.04535,0.24493,13,32765
7.24559,3.03682,0.242412,13,32765
7.21879,2.99744,0.238439,25,32765
7.25643,2.98508,0.236617,51,32765
7.26639,2.96102,0.233251,51,32765
7.24843,2.92578,0.229067,49,32765
7.23029,2.89071,0.22539,45,32765
7.09126,2.80776,0.217753,14,32765
6.77482,2.65671,0.205133,11,32765
6.67177,2.59103,0.198945,12,32765
6.64302,2.55475,0.194782,13,32765
6.65145,2.53294,0.191864,23,32765
6.69728,2.52505,0.19018,20,32765
6.70561,2.50312,0.186659,12,32765
6.75132,2.49512,0.184625,12,32765
6.83452,2.50077,0.183913,11,32765
7.11523,2.57743,0.188018,23,32765
7.17073,2.57107,0.186218,47,32765
7.19816,2.55398,0.182569,45,32765
7.25387,2.54658,0.18021,41,32765
7.281,2.52975,0.177445,41,32765
7.33631,2.52296,0.175499,42,32765
7.35376,2.50315,0.171294,43,32765
7.39022,2.48922,0.168398,42,32765
7.44583,2.48087,0.165577,44,32765
7.49186,2.46936,0.162554,43,32765
7.52809,2.45536,0.159628,43,32765
7.58341,2.4471,0.156613,42,32765
7.62924,2.4355,0.152267,42,32765
7.68496,2.42554,0.147335,43,32765
7.71169,2.40739,0.143737,43,32765
7.93545,5.82823,0.529193,114,32765
7.91419,5.7729,0.524743,96,32765
7.97367,5.77615,0.525682,16,32765
8.04149,5.78475,0.526829,14,32765
8.10171,5.78678,0.525821,55,32765
8.1534,5.78317,0.526438,19,32765
8.13972,5.73362,0.521096,25,32765
8.10147,5.66677,0.513783,17,32765
8.17779,5.67984,0.513902,49,32765
8.13944,5.61272,0.50684,19,32765
8.17452,5.59725,0.504425,16,32765
8.14359,5.53651,0.498644,19,32765
8.18683,5.52643,0.496566,15,32765
8.19683,5.49402,0.492097,13,32765
8.1902,5.45027,0.487566,15,32765
8.13335,5.37369,0.479343,14,32765
8.17615,5.36346,0.477438,14,32765
8.27766,5.39104,0.478658,13,32765
8.28731,5.35817,0.474175,12,32765
8.27185,5.30874,0.468408,12,32765
8.39919,5.35101,0.470223,11,32765
8.41719,5.32299,0.466425,11,32765
8.54494,5.36421,0.468263,12,32765
8.45275,5.26704,0.458522,12,32765
8.51292,5.2651,0.457522,13,32765
8.53045,5.23706,0.452896,13,32765
8.56479,5.21955,0.449706,13,32765
8.62509,5.21683,0.447918,13,32765
8.72822,5.23962,0.447983,12,32765
8.73743,5.20513,0.443017,12,32765
8.84104,5.22667,0.44311,12,32765
8.80689,5.16689,0.436414,12,32765
8.87594,5.16795,0.433957,13,32765
8.91061,5.14832,0.431052,13,32765
8.94512,5.12883,0.427055,13,32765
9.04046,5.14363,0.425813,12,32765
0,0,0,0,32765
0,0,0,0,32765
0,0,0,0,32765
0,0,0,0,32765
0,0,0,0,32765
6.99133,3.79335,0.305685,11,32765
7.05684,3.79847,0.304937,11,32765
7.02528,3.75187,0.299742,15,32765
7.00253,3.70978,0.295021,17,32765
7.04162,3.7002,0.292679,11,32765
7.14279,3.72272,0.292395,11,32765
0,0,0,0,32765
0,0,0,0,32765
0,0,0,0,32765
0,0,0,0,32765
0,0,0,0,32765
0,0,0,0,32765
6.93347,3.4079,0.257237,18,32765
6.95396,3.38905,0.253876,24,32765
6.92936,3.34835,0.250088,17,32765
6.90445,3.30815,0.24543,18,32765
6.90666,3.28059,0.241205,18,32765
6.91767,3.25749,0.238916,16,32765
6.91966,3.2299,0.235839,18,32765
6.91237,3.19839,0.231966,20,32765
6.923,3.17555,0.228687,19,32765
6.96994,3.16923,0.226994,35,32765
6.97144,3.14185,0.224285,25,32765
6.96364,3.11058,0.221149,44,32765
6.90997,3.05927,0.216397,34,32765
6.98422,3.06449,0.215576,13,32765
7.15945,3.11302,0.21784,12,32765
7.12388,3.06956,0.214016,12,32765
7.18013,3.06538,0.212824,12,32765
7.26422,3.07212,0.212853,12,32765
7.27454,3.0478,0.209972,12,32765
7.22014,2.99664,0.205273,33,32765
7.23004,2.97282,0.203347,42,32765
7.19358,2.93008,0.199813,41,32765
7.20303,2.90694,0.197541,39,32765
7.15683,2.86115,0.194011,29,32765
6.72936,2.66475,0.179999,11,32765
6.73813,2.64263,0.178194,11,32765
6.58846,2.55878,0.172422,11,32765
6.58748,2.53372,0.17022,14,32765
6.64259,2.52966,0.169877,19,32765
6.62284,2.49723,0.16787,13,32765
6.83714,2.55225,0.172003,11,32765
6.69555,2.47416,0.166371,11,32765
6.79754,2.48661,0.16673,11,32765
7.11582,2.57681,0.173465,32,32765
7.13354,2.55722,0.172038,38,32765
7.15123,2.53744,0.171305,36,32765
7.21607,2.53405,0.171489,34,32765
7.24323,2.51704,0.170265,33,32765
7.28928,2.50625,0.17076,34,32765
7.33516,2.49569,0.17145,35,32765
7.37162,2.48161,0.17085,33,32765
7.39856,2.4642,0.170337,34,32765
7.46342,2.45919,0.171181,34,32765
7.49028,2.44143,0.171666,33,32765
7.56461,2.43915,0.172275,33,32765
7.61029,2.4276,0.174192,34,32765
7.63704,2.40942,0.174512,34,32765
7.66352,2.39167,0.176847,33,32765
7.98802,5.88239,0.440229,43,32765
7.97505,5.83266,0.436665,30,32765
7.93774,5.76526,0.431835,17,32765
7.95691,5.73892,0.429794,18,32765
7.96823,5.70632,0.425741,20,32765
7.97897,5.67419,0.423836,23,32765
7.98944,5.64238,0.420214,26,32765
8.00817,5.61602,0.416591,31,32765
8.02692,5.58945,0.413131,40,32765
8.07048,5.5795,0.410962,46,32765
8.06427,5.53594,0.406303,40,32765
8.09921,5.52044,0.404407,39,32765
8.10102,5.48247,0.400015,34,32765
8.10259,5.44469,0.395266,29,32765
8.12075,5.41779,0.392244,25,32765
8.13046,5.3854,0.388065,23,32765
8.18166,5.38064,0.386265,23,32765
8.19116,5.34816,0.382242,19,32765
8.23422,5.33724,0.37943,18,32765
8.2355,5.29868,0.374817,29,32765
8.27856,5.28737,0.371643,19,32765
8.4567,5.36134,0.375001,14,32765
8.44922,5.31735,0.369672,13,32765
8.46709,5.28911,0.365942,12,32765
8.48487,5.26077,0.362644,12,32765
8.74918,5.38465,0.368416,13,32765
8.72431,5.32991,0.362444,12,32765
8.74224,5.30073,0.358352,12,32765
8.87131,5.33864,0.358449,12,32765
8.81221,5.26258,0.35076,11,32765
8.79562,5.21257,0.345147,11,32765
8.81312,5.1832,0.341025,11,32765
8.75272,5.10867,0.333066,11,32765
8.89963,5.15452,0.334239,12,32765
8.88215,5.10512,0.32813,18,32765
9.02947,5.14987,0.327962,12,32765
9.11623,5.15927,0.326591,12,32765
0,0,0,0,32765
0,0,0,0,32765
0,0,0,0,32765
7.10835,3.89699,0.238543,11,32765
7.00727,3.81115,0.231647,11,32765
7.02005,3.78774,0.228604,12,32765
7.04133,3.76946,0.225582,14,32765
7.01865,3.72722,0.221222,22,32765
7.09317,3.73619,0.219679,15,32765
7.07038,3.69378,0.214656,12,32765
7.08303,3.66971,0.210618,11,32765
7.13095,3.6642,0.208752,11,32765
0,0,0,0,32765
0,0,0,0,32765
0,0,0,0,32765
0,0,0,0,32765
7.01285,3.45507,0.186856,13,32765
6.99755,3.41834,0.182416,31,32765
6.96406,3.37305,0.17875,24,32765
6.93023,3.32832,0.174218,21,32765
6.95055,3.3092,0.170509,23,32765
6.93453,3.2731,0.167545,22,32765
6.91846,3.23691,0.164119,22,32765
6.92933,3.21374,0.160849,25,32765
6.94,3.19079,0.157557,20,32765
6.99607,3.18855,0.155678,41,32765
7.02498,3.17336,0.153646,41,32765
6.97165,3.12141,0.149693,45,32765
7.02769,3.11863,0.147898,59,32765
6.96484,3.06309,0.143538,19,32765
7.08504,3.08782,0.143003,14,32765
7.12282,3.07621,0.141123,14,32765
7.20667,3.08382,0.139992,13,32765
7.21716,3.05927,0.13785,13,32765
7.26431,3.05053,0.135671,14,32765
7.22839,3.00697,0.131965,24,32765
7.26605,2.9945,0.13053,48,32765
7.25745,2.96288,0.127938,49,32765
7.24846,2.93198,0.125321,48,32765
7.23948,2.90082,0.122968,46,32765
7.06312,2.80332,0.117516,15,32765
6.73733,2.64836,0.110141,11,32765
6.76475,2.63324,0.10881,12,32765
6.64272,2.56079,0.104733,13,32765
6.6699,2.54584,0.103468,23,32765
6.67827,2.52385,0.102162,19,32765
6.70534,2.50872,0.101382,12,32765
6.75116,2.50036,0.100066,12,32765
6.81568,2.49887,0.09892,11,32765
7.08698,2.57215,0.101869,25,32765
7.18938,2.58304,0.101547,47,32765
7.19774,2.55968,0.100576,42,32765
7.25322,2.55281,0.100054,41,32765
7.26156,2.52906,0.0983729,41,32765
7.32657,2.5247,0.0987415,41,32765
7.36306,2.51076,0.0989231,41,32765
7.3901,2.49336,0.0979061,41,32765
7.45502,2.48851,0.097696,41,32765
7.48199,2.47077,0.0974729,41,32765
7.53742,2.46222,0.0981363,41,32765
7.59279,2.45363,0.0978318,40,32765
7.63854,2.44197,0.099373,40,32765
7.65582,2.42063,0.0993762,39,32765
7.72054,2.41473,0.102028,39,32765
7.90778,5.80295,0.474512,79,32765
7.97613,5.8117,0.468911,29,32765
7.97152,5.7677,0.459332,14,32765
7.94231,5.70639,0.448351,15,32765
7.94503,5.66885,0.439986,15,32765
7.95557,5.63736,0.432011,15,32765
7.9825,5.61706,0.425641,17,32765
7.99301,5.58515,0.418873,20,32765
8.02887,5.56912,0.412871,27,32765
8.02337,5.52489,0.404457,24,32765
8.02555,5.48691,0.396601,25,32765
8.04377,5.46059,0.390643,24,32765
8.06151,5.43476,0.385109,23,32765
8.08774,5.41409,0.379049,22,32765
8.10586,5.38734,0.3731,21,32765
8.14902,5.37687,0.368343,19,32765
8.13379,5.32767,0.361037,17,32765
8.20179,5.33357,0.357312,13,32765
8.20282,5.29563,0.350547,17,32765
8.23717,5.27953,0.345925,22,32765
8.2714,5.26344,0.340928,14,32765
0,0,0,0,32765
0,0,0,0,32765
0,0,0,0,32765
0,0,0,0,32765
0,0,0,0,32765
0,0,0,0,32765
0,0,0,0,32765
0,0,0,0,32765
0,0,0,0,32765
8.76136,5.17498,0.300948,11,32765
0,0,0,0,32765
0,0,0,0,32765
8.81281,5.08771,0.286223,12,32765
8.88215,5.08769,0.283685,13,32765
0,0,0,0,32765
9.04688,5.10187,0.277526,12,32765
9.26461,5.18402,0.278112,11,32765
0,0,0,0,32765
0,0,0,0,32765
0,0,0,0,32765
0,0,0,0,32765
7.02609,3.77857,0.192109,11,32765
7.08281,3.77868,0.190351,13,32765
7.04236,3.72714,0.185889,17,32765
7.04614,3.69871,0.181654,12,32765
7.11194,3.70258,0.177534,11,32765
7.08861,3.66086,0.173226,11,32765
0,0,0,0,32765
0,0,0,0,32765
0,0,0,0,32765
0,0,0,0,32765
0,0,0,0,32765
6.96419,3.4198,0.150609,13,32765
6.93966,3.37904,0.147073,26,32765
6.92409,3.34254,0.143104,18,32765
6.9354,3.31909,0.141601,18,32765
6.92866,3.28678,0.140007,19,32765
6.93068,3.25928,0.135576,18,32765
6.90537,3.21914,0.132085,18,32765
6.8889,3.18351,0.128208,20,32765
6.93582,3.17731,0.126667,16,32765
6.97373,3.16661,0.123734,37,32765
6.97523,3.13912,0.120631,30,32765
6.95837,3.10349,0.117818,41,32765
6.92307,3.0599,0.114422,44,32765
6.99752,3.0646,0.112055,14,32765
7.11786,3.08892,0.110812,13,32765
7.12819,3.0651,0.107643,13,32765
7.16599,3.05314,0.105062,12,32765
7.26831,3.06806,0.103497,12,32765
7.24155,3.02861,0.0996255,12,32765
7.21473,2.98909,0.0956062,22,32765
7.2247,2.96501,0.0923684,40,32765
7.21599,2.93354,0.0893221,40,32765
7.18856,2.8948,0.0855457,39,32765
7.17968,2.86327,0.0820611,35,32765
7.01236,2.76995,0.0762349,11,32765
6.68639,2.61528,0.0696271,11,32765
6.66699,2.5825,0.0668234,11,32765
6.58214,2.52468,0.0629638,13,32765
6.61853,2.51353,0.0601577,19,32765
6.62662,2.4922,0.0567942,14,32765
6.70031,2.49508,0.054533,11,32765
6.66135,2.45638,0.0514994,11,32765
6.80077,2.48288,0.0490286,11,32765
7.07222,2.55573,0.0476399,25,32765
7.12765,2.54943,0.0444046,39,32765
7.13616,2.52556,0.0406519,31,32765
7.21049,2.52527,0.0381924,33,32765
7.24702,2.51167,0.0338929,33,32765
7.29299,2.50107,0.0309922,33,32765
7.31992,2.48414,0.0272277,31,32765
7.35631,2.47019,0.0233973,33,32765
7.38309,2.45317,0.0193445,30,32765
7.47644,2.45753,0.0155861,31,32765
7.50322,2.44003,0.0110065,29,32765
7.54901,2.42844,0.00665897,26,32765
7.59476,2.41671,0.00190809,26,32765
7.62132,2.39909,-0.00240699,26,32765
7.75281,2.41417,-0.00768352,26,32765
7.94374,5.84516,0.384786,20,32765
7.93148,5.79484,0.37476,19,32765
7.93487,5.75674,0.365867,21,32765
7.97858,5.74797,0.358753,22,32765
7.94077,5.68114,0.348744,25,32765
7.97577,5.66695,0.341902,30,32765
8.00277,5.64652,0.335409,37,32765
8.02154,5.62019,0.329042,48,32765
8.04928,5.59831,0.322488,59,32765
8.04387,5.5539,0.314324,68,32765
8.07085,5.53271,0.307567,73,32765
8.09747,5.5118,0.301872,68,32765
8.0988,5.47453,0.295685,62,32765
8.15003,5.47038,0.290378,56,32765
8.16,5.43781,0.284081,49,32765
8.1366,5.38301,0.276725,25,32765
8.15481,5.35568,0.2709,13,32765
8.20612,5.35059,0.266045,12,32765
8.22398,5.3234,0.259983,11,32765
8.24158,5.29638,0.25463,17,32765
8.28426,5.2856,0.249686,31,32765
8.30195,5.258,0.244938,20,32765
8.56476,5.38507,0.245786,16,32765
8.65902,5.40432,0.242408,16,32765
8.49005,5.25978,0.232033,13,32765
8.66927,5.33129,0.231449,13,32765
8.73828,5.33372,0.226993,14,32765
8.75618,5.30448,0.222265,14,32765
8.90257,5.35237,0.219954,18,32765
8.93762,5.33299,0.215145,19,32765
8.92953,5.28809,0.209693,17,32765
8.92137,5.2431,0.203662,14,32765
8.9301,5.20859,0.198852,12,32765
8.86093,5.1288,0.192027,15,32765
8.91304,5.11864,0.188527,15,32765
9.04317,5.15313,0.185362,13,32765
9.12142,5.15723,0.181774,13,32765
9.28692,5.20995,0.179141,13,32765
0,0,0,31,32765
0,0,0,0,32765
0,0,0,0,32765
7.12462,3.87261,0.121991,11,32765
7.05852,3.80576,0.117918,11,32765
7.00952,3.74916,0.11395,13,32765
7.03964,3.73523,0.11119,21,32765
7.07,3.72071,0.107447,18,32765
7.07377,3.69212,0.101845,12,32765
7.12145,3.68721,0.0989098,11,32765
7.26741,3.73149,0.0979711,12,32765
0,0,0,0,32765
0,0,0,0,32765
0,0,0,0,32765
0,0,0,0,32765
6.99761,3.4449,0.0782265,11,32765
6.98216,3.40833,0.0751424,28,32765
6.9847,3.3803,0.0716122,27,32765
6.97811,3.34794,0.0699084,22,32765
6.93538,3.29823,0.0681324,24,32765
6.94646,3.2749,0.0638681,24,32765
6.93933,3.24308,0.0608988,24,32765
6.95016,3.21987,0.0575053,25,32765
6.93358,3.18423,0.0550581,24,32765
6.9715,3.17351,0.0518387,31,32765
7.05506,3.18298,0.0493985,50,32765
7.01096,3.13474,0.0466519,38,32765
7.02149,3.11113,0.0439856,54,32765
6.9679,3.05922,0.0401678,27,32765
7.03316,3.05976,0.0375111,15,32765
7.09849,3.05992,0.0346424,14,32765
7.10867,3.03624,0.031664,14,32765
7.16486,3.03189,0.0289908,14,32765
7.2302,3.03136,0.0258666,14,32765
7.2588,3.0148,0.0223936,17,32765
7.25034,2.98291,0.0190815,46,32765
7.26021,2.95883,0.0162488,50,32765
7.26068,2.93108,0.0128715,50,32765
7.26121,2.90295,0.0095484,49,32765
7.14054,2.82756,0.00549333,20,32765
6.77761,2.65751,0.00219362,12,32765
6.65581,2.58454,-0.000362036,12,32765
6.64565,2.55534,-0.00331917,13,32765
6.68213,2.54394,-0.00644158,24,32765
6.67158,2.51531,-0.00981462,22,32765
6.69847,2.50056,-0.0126687,14,32765
6.75333,2.49645,-0.0154508,12,32765
6.71441,2.4574,-0.0187901,13,32765
6.92928,2.51026,-0.0225915,19,32765
7.1069,2.54828,-0.0266897,39,32765
7.11539,2.52443,-0.0304364,32,32765
7.12364,2.50102,-0.0332425,31,32765
7.07505,2.45813,-0.0373267,29,32765
7.03572,2.41881,-0.0400509,26,32765
6.95822,2.36724,-0.0432257,22,32765
6.80466,2.29061,-0.045871,20,32765
6.58418,2.19314,-0.0480098,18,32765
6.40124,2.10932,-0.0500395,17,32765
6.09413,1.98672,-0.0513449,17,32765
5.91005,1.90593,-0.0531936,17,32765
5.68738,1.81427,-0.054724,18,32765
5.53087,1.74538,-0.0563037,20,32765
5.35485,1.67162,-0.0580797,20,32765
7.90815,5.81553,0.270462,17,32765
7.88704,5.75988,0.26709,19,32765
7.91428,5.73956,0.264708,18,32765
7.94948,5.72508,0.262972,17,32765
7.92012,5.66325,0.258549,20,32765
7.93071,5.63131,0.255377,23,32765
7.96536,5.61711,0.252367,30,32765
7.98378,5.59102,0.249396,38,32765
7.99404,5.55896,0.246642,47,32765
7.98,5.50924,0.240811,75,32765
8.03972,5.51076,0.238611,72,32765
8.04991,5.47825,0.235469,54,32765
8.07655,5.45692,0.232059,49,32765
8.11957,5.4469,0.228757,35,32765
8.1296,5.41405,0.224671,14,32765
8.09736,5.35432,0.219301,12,32765
8.17329,5.36638,0.218243,12,32765
8.14892,5.31249,0.213395,12,32765
8.16635,5.28582,0.208863,12,32765
8.23454,5.29091,0.206951,14,32765
8.26054,5.26903,0.201997,23,32765
8.4557,5.35349,0.203515,18,32765
8.61788,5.41513,0.202052,16,32765
8.65313,5.3967,0.197414,16,32765
8.62047,5.33577,0.191401,12,32765
8.75743,5.3805,0.190079,14,32765
8.60455,5.24738,0.182212,12,32765
8.86998,5.36907,0.182714,16,32765
8.8707,5.32931,0.177779,17,32765
8.93166,5.32495,0.17437,16,32765
8.94938,5.29525,0.17011,16,32765
8.85513,5.19933,0.163089,12,32765
8.7257,5.08407,0.156294,12,32765
8.84656,5.11502,0.152844,14,32765
9.01138,5.16956,0.150953,12,32765
8.96815,5.10426,0.145859,12,32765
9.09793,5.13907,0.142255,12,32765
0,0,0,0,32765
0,0,0,0,32765
0,0,0,0,32765
0,0,0,0,32765
0,0,0,0,32765
0,0,0,0,32765
6.98515,3.73192,0.0828516,14,32765
7.01514,3.71825,0.0781104,18,32765
7.00094,3.68094,0.0753838,12,32765
7.05756,3.68066,0.0713823,12,32765
7.12325,3.68448,0.0659683,11,32765
0,0,0,0,32765
0,0,0,0,32765
0,0,0,0,32765
0,0,0,0,32765
0,0,0,0,32765
6.96285,3.42555,0.0436413,13,32765
6.93856,3.38425,0.0399531,26,32765
6.91411,3.34306,0.037046,20,32765
6.91619,3.31573,0.0330849,19,32765
6.90951,3.28332,0.0319003,20,32765
6.92049,3.26014,0.0285355,20,32765
6.93137,3.23697,0.0252444,21,32765
6.88785,3.18829,0.0222401,22,32765
6.91655,3.17382,0.0190223,17,32765
6.98197,3.17502,0.0159549,38,32765
6.99242,3.15195,0.0125927,30,32765
6.94821,3.10394,0.00923789,33,32765
6.93101,3.06879,0.00628104,31,32765
6.96856,3.05797,0.00356742,14,32765
7.07961,3.07856,0.000905557,13,32765
7.12651,3.0709,-0.00134766,13,32765
7.13698,3.04649,-0.00486992,12,32765
7.14717,3.02251,-0.00746655,13,32765
7.20323,3.0182,-0.009839,13,32765
7.19483,2.98635,-0.0127773,23,32765
7.24168,2.97771,-0.0153939,40,32765
7.21449,2.93852,-0.0176104,40,32765
7.20551,2.90742,-0.0198461,40,32765
7.17786,2.86892,-0.0219021,34,32765
6.85254,2.71277,-0.0226898,12,32765
0,0,-0,0,32765
6.58124,2.55543,-0.0264587,14,32765
0,0,-0,0,32765
6.64451,2.53015,-0.0298137,23,32765
0,0,-0,0,32765
0,0,-0,0,32765
0,0,-0,0,32765
6.45182,2.36,-0.0353503,16,32765
6.85444,2.48179,-0.0384445,18,32765
7.05082,2.52671,-0.04158,22,32765
6.93657,2.46005,-0.0421481,23,32765
6.96344,2.44398,-0.0433579,22,32765
0,0,-0,0,32765
6.98839,2.40258,-0.0460091,19,32765
0,0,-0,0,32765
6.59613,2.22051,-0.044369,16,32765
6.61284,2.2021,-0.0454303,18,32765
6.69589,2.20576,-0.0466636,17,32765
0,0,-0,0,32765
6.44346,2.0767,-0.0450043,16,32765
0,0,-0,0,32765
0,0,-0,18,32765
0,0,-0,18,32765
7.8855,5.8161,0.178534,23,32765
7.92092,5.80174,0.17688,24,32765
7.91597,5.75773,0.173671,21,32765
7.90262,5.70806,0.170684,23,32765
7.93014,5.68703,0.168029,22,32765
7.95711,5.66657,0.165272,26,32765
8.01636,5.66956,0.162547,27,32765
8.00225,5.62025,0.158894,28,32765
8.02903,5.59949,0.156535,37,32765
8.06447,5.58366,0.151973,54,32765
8.06674,5.54525,0.148196,65,32765
8.09359,5.52383,0.145422,67,32765
8.12867,5.5079,0.142031,56,32765
8.10547,5.45301,0.137286,34,32765
8.12386,5.42568,0.133424,29,32765
8.14169,5.39898,0.1294,25,32765
8.18434,5.38892,0.127143,23,32765
8.17681,5.3458,0.122997,20,32765
8.21113,5.32986,0.11868,19,32765
8.20378,5.28605,0.115115,18,32765
8.26345,5.28576,0.110526,20,32765
8.31506,5.27927,0.108201,20,32765
8.43459,5.31485,0.104692,18,32765
8.55426,5.35001,0.100962,19,32765
8.52147,5.28926,0.0955534,16,32765
8.52199,5.25047,0.091493,17,32765
8.55646,5.23261,0.0875187,16,32765
8.65073,5.25094,0.0836688,17,32765
8.68532,5.23245,0.0793356,18,32765
8.72018,5.21329,0.075313,16,32765
8.76333,5.19953,0.0713531,16,32765
8.78945,5.17504,0.0665528,15,32765
8.84135,5.16567,0.062652,14,32765
8.8586,5.1361,0.0573268,15,32765
8.87604,5.10595,0.0529483,14,32765
9.04107,5.15991,0.049705,13,32765
9.12744,5.1699,0.0446173,12,32765
0,0,0,0,32765
0,0,0,0,32765
0,0,0,0,32765
0,0,0,0,32765
7.12289,3.87766,0.0155524,11,32765
7.10084,3.83442,0.0118036,11,32765
6.97249,3.73529,0.00866689,13,32765
7.03778,3.74039,0.00375799,22,32765
7.05906,3.72158,0.00130283,20,32765
7.11578,3.72109,-0.00321217,13,32765
7.08389,3.67407,-0.00911949,12,32765
7.09618,3.65027,-0.0118416,12,32765
13.4686,6.87098,-0.0290473,12,32765
13.0185,6.5868,-0.0365691,13,32765
12.6203,6.33252,-0.0401428,18,32765
12.5343,6.23616,-0.0465131,22,32765
12.2953,6.06528,-0.0513986,24,32765
6.9889,3.41798,-0.0326632,27,32765
6.99158,3.38961,-0.0353591,31,32765
6.97578,3.35329,-0.0391765,26,32765
6.9512,3.31199,-0.0400865,26,32765
6.94418,3.28007,-0.0433659,26,32765
6.92795,3.24404,-0.046493,27,32765
6.89355,3.19946,-0.0490048,25,32765
6.87685,3.16404,-0.0520759,23,32765
6.87851,3.13633,-0.0551838,28,32765
6.92528,3.13003,-0.0588123,35,32765
6.86276,3.07395,-0.0614162,27,32765
6.80891,3.02277,-0.06372,31,32765
6.59002,2.89957,-0.0641777,19,32765
6.40717,2.79357,-0.0647676,17,32765
6.32461,2.7326,-0.0658507,17,32765
6.19602,2.65186,-0.0674809,18,32765
6.02997,2.55682,-0.0677749,16,32765
5.86323,2.46325,-0.0677061,17,32765
5.83452,2.42815,-0.0696888,17,32765
5.70386,2.35159,-0.0700491,17,32765
5.57279,2.27585,-0.0701238,17,32765
5.49678,2.22381,-0.0708202,17,32765
5.40194,2.16481,-0.0711353,18,32765
5.43691,2.15804,-0.0729409,19,32765
5.27644,2.07433,-0.072189,19,32765
5.19939,2.0242,-0.0733145,19,32765
5.23399,2.01787,-0.0752191,19,32765
5.14712,1.96512,-0.0748569,20,32765
5.14418,1.94465,-0.0760504,22,32765
5.13176,1.92082,-0.0771363,20,32765
5.07247,1.87937,-0.0780531,21,32765
4.98477,1.82816,-0.0772106,20,32765
4.90617,1.78103,-0.0765736,20,32765
4.94022,1.775,-0.0784753,20,32765
4.70108,1.6716,-0.0754665,17,32765
4.68766,1.64954,-0.0759048,18,32765
4.65517,1.62127,-0.0762134,17,32765
4.69813,1.61941,-0.0776544,17,32765
4.61813,1.57525,-0.0763528,17,32765
4.51896,1.52521,-0.0752463,16,32765
4.62824,1.54523,-0.0776829,18,32765
4.40535,1.45498,-0.0743338,18,32765
4.65716,1.52142,-0.0782341,18,32765
4.62397,1.49414,-0.0780038,19,32765
4.60963,1.47339,-0.0773688,18,32765
4.43321,1.4013,-0.0745988,19,32765
4.5521,1.42322,-0.075671,18,32765
7.87124,5.78357,0.216253,18,32765
7.89046,5.75766,0.206962,18,32765
7.90142,5.72588,0.19868,15,32765
7.89624,5.6821,0.189737,19,32765
7.90696,5.65022,0.182585,15,32765
7.98305,5.66429,0.175443,32,32765
7.9693,5.61467,0.16831,17,32765
7.97163,5.57676,0.160296,19,32765
7.98205,5.54455,0.152874,27,32765
8.01662,5.52989,0.147366,45,32765
8.04292,5.50945,0.141039,49,32765
8.05278,5.47743,0.134317,47,32765
8.06248,5.44548,0.127114,29,32765
8.06457,5.40668,0.12074,23,32765
8.10768,5.39629,0.1147,22,32765
8.12591,5.36892,0.108821,21,32765
8.16032,5.35315,0.102836,20,32765
8.1861,5.33209,0.0972494,18,32765
8.18695,5.29414,0.0914457,16,32765
8.21268,5.27277,0.0860002,15,32765
8.23885,5.25051,0.0801716,14,32765
8.22259,5.20159,0.0738599,13,32765
8.37544,5.25921,0.0698904,14,32765
8.41838,5.24719,0.0647443,15,32765
8.41006,5.20381,0.0586534,14,32765
8.46988,5.2021,0.0534945,14,32765
8.55539,5.21568,0.0488016,13,32765
8.52993,5.16133,0.043136,12,32765
8.65872,5.19953,0.0383835,12,32765
8.88228,5.29336,0.0335181,12,32765
9.02918,5.33977,0.0286122,12,32765
9.12477,5.35484,0.0237437,12,32765
9.14247,5.3246,0.0182547,12,32765
9.22929,5.33439,0.0127403,12,32765
9.32496,5.34861,0.00728848,11,32765
0,0,0,0,32765
0,0,-0,0,32765
0,0,-0,0,32765
0,0,-0,0,32765
0,0,-0,0,32765
0,0,-0,0,32765
0,0,-0,0,32765
6.96449,3.75013,-0.0233319,11,32765
7.0388,3.75965,-0.0274753,12,32765
7.02478,3.7221,-0.0299928,20,32765
7.0549,3.70784,-0.0338604,15,32765
7.05822,3.67989,-0.0394606,12,32765
7.08818,3.66556,-0.0425282,12,32765
0,0,-0,0,32765
0,0,-0,0,32765
12.5448,6.32635,-0.0949475,27,32765
12.2622,6.13123,-0.0982535,30,32765
12.3009,6.09835,-0.103402,26,32765
12.2766,6.03453,-0.109566,26,32765
6.91227,3.36931,-0.0658921,26,32765
6.7164,3.24606,-0.0679712,22,32765
6.87149,3.2927,-0.0720361,19,32765
6.77425,3.21778,-0.0733314,22,32765
6.75808,3.18184,-0.0719132,18,32765
0,0,-0,0,32765
0,0,-0,16,32765
0,0,-0,0,32765
0,0,-0,17,32765
0,0,-0,0,32765
0,0,-0,17,32765
0,0,-0,0,32765
5.40315,2.36857,-0.0762999,16,32765
5.31008,2.30676,-0.077434,18,32765
5.33615,2.29676,-0.0802823,17,32765
5.12299,2.18485,-0.0794415,19,32765
5.30524,2.24161,-0.0848706,17,32765
5.05448,2.11561,-0.0826848,19,32765
4.73823,1.96462,-0.0797308,16,32765
4.78178,1.96382,-0.0826918,18,32765
4.84386,1.97041,-0.0858353,18,32765
4.6834,1.88708,-0.0848674,18,32765
4.59674,1.83443,-0.0857215,18,32765
4.37949,1.73124,-0.0833181,15,32765
4.48761,1.75672,-0.0877075,16,32765
4.45597,1.72766,-0.0890267,15,32765
4.39622,1.68796,-0.0901499,16,32765
4.22418,1.6059,-0.0883342,15,32765
4.16393,1.56726,-0.0889526,16,32765
3.97231,1.48016,-0.0865712,15,32765
4.08964,1.50866,-0.0913306,15,32765
4.10395,1.49858,-0.0934263,16,32765
3.9584,1.43064,-0.0921185,16,32765
3.91589,1.401,-0.0928319,17,32765
3.74138,1.32468,-0.0905646,15,32765
3.78334,1.3258,-0.0933496,16,32765
3.712,1.28733,-0.0934713,16,32765
3.65935,1.25587,-0.0940151,16,32765
3.56861,1.2121,-0.0934608,16,32765
3.60088,1.21012,-0.0964525,17,32765
3.42443,1.1387,-0.0933429,16,32765
3.49451,1.1495,-0.0972358,16,32765
3.40306,1.10736,-0.0966852,16,32765
3.36837,1.0845,-0.0977608,17,32765
3.28597,1.04664,-0.097388,16,32765
3.17482,1.00009,-0.0961403,16,32765
3.13024,0.97498,-0.0969925,16,32765
7.89635,5.81961,0.125702,25,32765
7.92371,5.79945,0.116485,27,32765
7.94286,5.77335,0.108358,28,32765
7.94594,5.73517,0.0997382,29,32765
7.95681,5.70304,0.0926208,30,32765
7.97596,5.67636,0.0841561,31,32765
7.98676,5.64394,0.0776257,30,32765
7.98917,5.60588,0.0697665,32,32765
7.99966,5.57352,0.0624078,34,32765
8.00963,5.54168,0.0565131,32,32765
8.01946,5.50987,0.0499813,29,32765
8.04583,5.48912,0.0434475,25,32765
8.05553,5.4571,0.0363302,22,32765
8.08256,5.43497,0.0302266,20,32765
8.10077,5.40782,0.0238054,18,32765
8.11069,5.37487,0.0178998,16,32765
8.19521,5.39207,0.0117982,14,32765
8.36342,5.46381,0.00618612,13,32765
8.33115,5.40341,0.000432182,12,32765
8.4581,5.44647,-0.00528029,12,32765
8.54382,5.46101,-0.0114718,12,32765
8.78158,5.57167,-0.0181702,12,32765
8.96939,5.64884,-0.0240854,12,32765
9.19167,5.74612,-0.0304952,13,32765
9.24446,5.73699,-0.0371017,14,32765
9.306,5.73248,-0.0432803,14,32765
9.40173,5.74852,-0.049281,16,32765
9.34386,5.67046,-0.0548321,17,32765
9.3886,5.65438,-0.0607596,16,32765
9.36459,5.59716,-0.0665874,17,32765
9.40059,5.57571,-0.0723373,18,32765
9.46244,5.56925,-0.0779853,16,32765
9.51537,5.55798,-0.0839958,16,32765
9.47312,5.49131,-0.0892773,12,32765
0,0,-0,0,32765
0,0,-0,0,32765
0,0,-0,0,32765
0,0,-0,0,32765
5.93935,3.31043,-0.0714314,11,32765
5.819,3.21814,-0.0728089,12,32765
5.83851,3.20337,-0.0759919,13,32765
6.01596,3.27477,-0.0811357,14,32765
5.88607,3.17859,-0.0823247,15,32765
5.75569,3.08317,-0.0835826,16,32765
5.81009,3.08736,-0.0863976,16,32765
5.65232,2.97924,-0.0869483,16,32765
5.47601,2.8632,-0.0884755,18,32765
5.38786,2.79427,-0.0891637,18,32765
5.29054,2.72114,-0.0901175,20,32765
5.26403,2.68506,-0.0926725,19,32765
5.03229,2.54507,-0.0909172,21,32765
5.04097,2.52775,-0.0932271,19,32765
5.00476,2.48828,-0.0944431,18,32765
4.88759,2.40935,-0.0946875,19,32765
4.81467,2.35356,-0.0961256,18,32765
4.4626,2.16296,-0.0916481,16,32765
4.32561,2.07868,-0.0903379,16,32765
4.40487,2.09828,-0.0934285,16,32765
4.34876,2.0533,-0.0913696,18,32765
4.26503,1.99629,-0.0918863,17,32765
4.20825,1.95237,-0.0921761,17,32765
4.13305,1.9005,-0.0921889,17,32765
4.0211,1.8327,-0.0914516,17,32765
4.10925,1.8561,-0.0953586,16,32765
4.02415,1.80147,-0.0951345,17,32765
3.95701,1.75556,-0.0949524,18,32765
3.76155,1.65361,-0.091681,17,32765
3.82199,1.66501,-0.0948634,17,32765
3.7633,1.62436,-0.095095,19,32765
3.78703,1.61965,-0.0973926,18,32765
3.68195,1.56012,-0.0964468,18,32765
3.67794,1.54379,-0.097621,18,32765
3.65537,1.51991,-0.0986857,18,32765
3.60498,1.4847,-0.0989576,19,32765
3.55436,1.44994,-0.099041,18,32765
3.51277,1.41939,-0.0992446,19,32765
3.52671,1.41139,-0.101454,20,32765
3.54055,1.40355,-0.103142,20,32765
3.43351,1.34788,-0.101766,18,32765
3.43784,1.33668,-0.103348,19,32765
3.36752,1.29664,-0.10297,19,32765
3.3811,1.28902,-0.104715,18,32765
3.30114,1.24603,-0.10369,19,32765
3.30521,1.23507,-0.105204,19,32765
3.28107,1.21381,-0.106165,19,32765
3.10669,1.13764,-0.101833,18,32765
3.12918,1.13415,-0.104121,19,32765
3.0293,1.08688,-0.102082,18,32765
3.00457,1.06683,-0.102717,18,32765
3.01739,1.06039,-0.104535,19,32765
2.94524,1.02432,-0.103498,19,32765
2.90123,0.998524,-0.103405,19,32765
2.89488,0.986063,-0.104591,18,32765
2.82223,0.951154,-0.103621,19,32765
2.80624,0.935804,-0.104331,20,32765
2.74276,0.904795,-0.103501,18,32765
2.75509,0.899079,-0.105554,19,32765
2.75781,0.890478,-0.107321,20,32765
2.69389,0.860523,-0.106465,18,32765
2.63939,0.833831,-0.105988,19,32765
2.57523,0.804432,-0.1052,18,32765
7.81715,5.75987,0.0139656,13,32765
7.94136,5.81036,0.0118113,12,32765
7.87144,5.71954,0.00889265,12,32765
7.94648,5.73527,0.00564243,12,32765
7.92494,5.6796,0.00268758,12,32765
7.98483,5.68177,-0.000714641,12,32765
8.03636,5.67825,-0.00387723,12,32765
8.16157,5.72622,-0.0078933,11,32765
0,0,-0,0,32765
8.23172,5.6955,-0.0146164,11,32765
8.26679,5.67985,-0.0191834,12,32765
8.23591,5.61874,-0.0223119,12,32765
8.32104,5.63578,-0.0282624,12,32765
8.55585,5.7526,-0.032835,11,32765
8.54226,5.701,-0.0363092,11,32765
8.59486,5.6941,-0.0412979,11,32765
0,0,-0,0,32765
0,0,-0,0,32765
0,0,-0,0,32765
8.93021,5.74734,-0.0617321,11,32765
9.3454,5.9705,-0.0690859,12,32765
9.44978,5.99268,-0.0742399,13,32765
9.35956,5.89202,-0.0790016,15,32765
9.35351,5.84518,-0.0821932,18,32765
9.45786,5.86668,-0.0881088,18,32765
9.47742,5.83495,-0.0934378,18,32765
9.386,5.7353,-0.0966343,17,32765
0,0,-0,0,32765
9.47571,5.70289,-0.108141,15,32765
0,0,-0,0,32765
0,0,-0,0,32765
9.79118,5.75903,-0.126562,13,32765
0,0,-0,0,32765
0,0,-0,0,32765
0,0,-0,0,32765
0,0,-0,15,32765
0,0,-0,0,32765
5.62388,3.15697,-0.0896821,14,32765
0,0,-0,0,32765
5.48723,3.03224,-0.0934838,18,32765
5.52367,3.02815,-0.0964922,18,32765
5.40197,2.93799,-0.0973591,19,32765
0,0,-0,0,32765
5.28071,2.82563,-0.10006,17,32765
0,0,-0,0,32765
4.67138,2.45926,-0.0929999,15,32765
4.76818,2.48982,-0.0979613,17,32765
4.65219,2.40939,-0.0977621,16,32765
4.51798,2.32053,-0.0968074,18,32765
4.49903,2.2916,-0.0988547,18,32765
4.2569,2.15003,-0.0952662,14,32765
4.3356,2.17146,-0.0994456,16,32765
4.33388,2.15239,-0.101543,16,32765
4.12582,2.03172,-0.0983558,15,32765
4.17754,2.03968,-0.101726,16,32765
4.11234,1.99075,-0.102162,16,32765
3.96572,1.90342,-0.100077,15,32765
3.69217,1.757,-0.0947188,14,32765
3.90591,1.8428,-0.101757,16,32765
3.78521,1.77046,-0.100382,17,32765
3.70949,1.71978,-0.100602,17,32765
3.7062,1.70301,-0.101285,16,32765
3.67557,1.67373,-0.101961,17,32765
3.64466,1.64494,-0.10299,16,32765
3.54072,1.58348,-0.101288,15,32765
3.50031,1.55127,-0.101485,16,32765
3.53283,1.55174,-0.104009,16,32765
3.3913,1.47609,-0.101118,16,32765
3.40529,1.46885,-0.102749,15,32765
3.37344,1.44159,-0.103008,17,32765
3.35982,1.42245,-0.103741,17,32765
3.29995,1.38424,-0.102989,16,32765
3.32295,1.38094,-0.104919,16,32765
3.20725,1.3206,-0.102219,15,32765
3.46146,1.4119,-0.111535,17,32765
3.29922,1.33312,-0.107243,16,32765
3.31288,1.32586,-0.108557,17,32765
3.10354,1.2301,-0.102478,15,32765
3.13546,1.23081,-0.10433,16,32765
3.07432,1.19495,-0.103276,16,32765
3.03154,1.16693,-0.102779,16,32765
3.02598,1.15342,-0.10325,15,32765
3.01103,1.13639,-0.103457,16,32765
2.87423,1.07417,-0.0993395,16,32765
2.9996,1.10973,-0.104416,16,32765
2.95629,1.08263,-0.103729,16,32765
2.93165,1.06262,-0.103328,16,32765
2.89748,1.03947,-0.102651,17,32765
2.95738,1.04998,-0.105205,18,32765
2.92308,1.02695,-0.104696,17,32765
2.84144,0.98786,-0.102266,17,32765
2.82572,0.972111,-0.102027,16,32765
2.80046,0.953278,-0.101288,16,32765
2.84138,0.957058,-0.103008,17,32765
2.82551,0.941413,-0.103007,17,32765
2.88546,0.951109,-0.105362,18,32765
2.83146,0.923333,-0.103438,18,32765
2.88192,0.929709,-0.105309,17,32765
2.82774,0.902317,-0.10313,16,32765
2.85929,0.901969,-0.104412,16,32765
2.84309,0.886863,-0.103601,17,32765
8.06519,5.96216,-0.0788757,16,32765
7.98039,5.85806,-0.0802223,14,32765
7.99157,5.8258,-0.0829863,13,32765
8.0588,5.83529,-0.0868664,12,32765
8.16756,5.87251,-0.0908585,12,32765
8.25249,5.89127,-0.0951281,12,32765
8.37811,5.93887,-0.099658,12,32765
8.43867,5.93973,-0.104259,12,32765
0,0,-0,13,32765
8.64985,6.00401,-0.113444,12,32765
8.77648,6.04936,-0.119679,11,32765
0,0,-0,14,32765
0,0,-0,0,32765
0,0,-0,0,32765
0,0,-0,11,32765
0,0,-0,12,32765
0,0,-0,12,32765
0,0,-0,13,32765
0,0,-0,13,32765
0,0,-0,12,32765
0,0,-0,12,32765
4.96902,3.16103,-0.0940067,12,32765
4.92028,3.1071,-0.0958545,13,32765
4.93898,3.0961,-0.0978258,14,32765
4.95773,3.08486,-0.100712,15,32765
4.92548,3.04191,-0.102628,16,32765
4.83336,2.9626,-0.102717,16,32765
4.73226,2.87866,-0.102896,17,32765
4.72475,2.85237,-0.105489,17,32765
4.69999,2.81585,-0.107386,18,32765
4.57187,2.71828,-0.106604,19,32765
4.50349,2.65707,-0.107093,17,32765
4.15869,2.43465,-0.100725,15,32765
4.04583,2.35025,-0.0999533,15,32765
4.15768,2.39639,-0.104821,16,32765
4.14832,2.37242,-0.106893,16,32765
4.16486,2.36351,-0.109175,16,32765
4.00719,2.25633,-0.106928,17,32765
3.93609,2.19906,-0.106988,17,32765
3.78602,2.09855,-0.105013,16,32765
3.69668,2.03276,-0.104064,17,32765
3.67709,2.00598,-0.105484,17,32765
3.72786,2.01715,-0.108564,18,32765
3.59372,1.9288,-0.106287,18,32765
3.53839,1.88378,-0.106325,16,32765
3.58005,1.89045,-0.109194,18,32765
3.58633,1.87838,-0.111606,18,32765
3.34421,1.73724,-0.105584,17,32765
3.43891,1.77165,-0.109934,19,32765
3.34692,1.70993,-0.108762,18,32765
3.37054,1.70751,-0.110844,18,32765
3.34051,1.67813,-0.111665,18,32765
3.12243,1.55542,-0.105863,17,32765
3.17244,1.56696,-0.108805,18,32765
3.10587,1.52101,-0.108061,17,32765
3.12891,1.51925,-0.110353,18,32765
3.13395,1.50873,-0.111712,19,32765
3.05775,1.45948,-0.110229,17,32765
2.97222,1.40651,-0.108283,17,32765
2.94066,1.37958,-0.108465,18,32765
2.95433,1.37379,-0.110698,19,32765
2.97711,1.3721,-0.112127,18,32765
2.91812,1.3328,-0.111062,19,32765
2.877,1.30237,-0.110946,18,32765
2.80846,1.25977,-0.109241,18,32765
2.75787,1.2259,-0.108299,18,32765
2.78016,1.2248,-0.11038,18,32765
2.75672,1.20349,-0.110449,18,32765
2.71479,1.17452,-0.1097,19,32765
2.71872,1.16529,-0.110804,19,32765
2.71339,1.15222,-0.111478,17,32765
2.6619,1.11993,-0.110212,18,32765
2.69324,1.12259,-0.112456,18,32765
2.65068,1.0947,-0.111434,19,32765
2.59877,1.06319,-0.11013,17,32765
2.66704,1.0809,-0.113746,19,32765
2.55932,1.02734,-0.109791,17,32765
2.59057,1.02985,-0.11175,19,32765
2.54744,1.00297,-0.110508,20,32765
2.56937,1.00167,-0.112247,19,32765
2.56328,0.989628,-0.112745,19,32765
2.56649,0.981194,-0.113416,19,32765
2.551,0.965641,-0.113309,20,32765
2.4886,0.932822,-0.111014,19,32765
2.47291,0.917609,-0.110898,19,32765
2.48528,0.912854,-0.112115,19,32765
2.4601,0.894365,-0.11134,19,32765
2.49122,0.896389,-0.113175,20,32765
2.47532,0.881454,-0.112786,20,32765
2.44993,0.863284,-0.112199,19,32765
2.45272,0.855258,-0.112727,19,32765
2.52159,0.870065,-0.116157,20,32765
2.39202,0.816669,-0.110312,19,32765
2.46088,0.83136,-0.113671,19,32765
2.43515,0.813763,-0.112952,20,32765
2.40928,0.796513,-0.11187,19,32765
2.37383,0.776401,-0.110241,19,32765
2.44281,0.790393,-0.113444,20,32765
2.44532,0.782605,-0.113365,20,32765
2.42884,0.768457,-0.112689,18,32765
2.4027,0.751711,-0.111268,19,32765
7.96346,5.86465,-0.0358261,13,32765
7.91034,5.78485,-0.0451822,12,32765
8.06673,5.85882,-0.0547285,12,32765
8.01304,5.77942,-0.0625576,12,32765
8.17014,5.85203,-0.0711702,12,32765
8.2628,5.87701,-0.0806571,11,32765
0,0,-0,0,32765
0,0,-0,0,32765
0,0,-0,0,32765
0,0,-0,0,32765
0,0,-0,0,32765
0,0,-0,0,32765
0,0,-0,0,32765
0,0,-0,0,32765
0,0,-0,0,32765
0,0,-0,0,32765
0,0,-0,0,32765
0,0,-0,0,32765
0,0,-0,0,32765
0,0,-0,14,32765
0,0,-0,0,32765
4.80445,3.04659,-0.107739,15,32765
4.67907,2.94544,-0.107694,18,32765
4.65498,2.90844,-0.110533,16,32765
4.66454,2.89299,-0.113015,18,32765
4.40168,2.70962,-0.110049,16,32765
0,0,-0,0,32765
0,0,-0,14,32765
0,0,-0,15,32765
0,0,-0,15,32765
0,0,-0,14,32765
3.86039,2.27059,-0.110478,15,32765
3.9715,2.31815,-0.115782,16,32765
3.73698,2.1645,-0.111004,15,32765
3.77881,2.1719,-0.11421,16,32765
3.51689,2.00556,-0.108317,15,32765
3.56707,2.01828,-0.111921,14,32765
3.55635,1.99648,-0.113338,16,32765
3.44944,1.92129,-0.11194,15,32765
3.4645,1.91463,-0.114084,15,32765
3.43577,1.88381,-0.114696,16,32765
3.30146,1.79594,-0.111993,15,32765
3.26334,1.76128,-0.112216,16,32765
3.28679,1.75977,-0.114422,16,32765
3.19545,1.6973,-0.112625,15,32765
3.11263,1.63999,-0.111208,16,32765
3.0561,1.59703,-0.11073,15,32765
3.12359,1.61879,-0.114367,16,32765
3.04019,1.56235,-0.112698,15,32765
3.04545,1.55197,-0.114151,16,32765
2.95259,1.4919,-0.111956,15,32765
2.89504,1.4505,-0.111158,16,32765
2.87304,1.42732,-0.11172,16,32765
2.86884,1.41318,-0.112748,16,32765
2.80167,1.36846,-0.111335,16,32765
2.85121,1.38073,-0.114488,17,32765
2.81977,1.35377,-0.114422,17,32765
2.77016,1.31847,-0.113053,16,32765
2.72935,1.28778,-0.112604,17,32765
2.67022,1.249,-0.11148,15,32765
2.70155,1.25261,-0.114049,17,32765
2.67849,1.23093,-0.113976,16,32765
2.71889,1.23856,-0.116968,18,32765
2.58642,1.16765,-0.112239,15,32765
2.5538,1.14262,-0.111836,15,32765
2.50278,1.1097,-0.110665,17,32765
2.58879,1.13743,-0.115309,16,32765
2.49178,1.08484,-0.111984,16,32765
2.52289,1.0883,-0.114519,16,32765
2.42542,1.03665,-0.110945,16,32765
2.46566,1.04398,-0.114206,17,32765
2.34934,0.985442,-0.109538,17,32765
2.39873,0.996661,-0.112917,16,32765
2.39277,0.984807,-0.113668,17,32765
2.33121,0.950463,-0.111692,15,32765
2.31577,0.935249,-0.111805,17,32765
2.24456,0.897987,-0.109454,16,32765
2.31248,0.916307,-0.113604,17,32765
2.30619,0.904885,-0.114248,17,32765
2.2719,0.882711,-0.113559,17,32765
2.22819,0.857116,-0.112353,17,32765
2.25896,0.86041,-0.114796,18,32765
2.10284,0.793045,-0.107925,17,32765
2.19895,0.821102,-0.113622,16,32765
2.136,0.789624,-0.111374,15,32765
2.23233,0.81688,-0.11752,18,32765
2.14109,0.775426,-0.113412,18,32765
2.06836,0.741382,-0.110561,16,32765
2.07075,0.734497,-0.111773,16,32765
2.07305,0.72779,-0.112998,16,32765
2.02819,0.704647,-0.111454,16,32765
2.07759,0.714388,-0.115145,17,32765
2.01364,0.685225,-0.112394,17,32765
2.02524,0.681876,-0.114149,17,32765
2.07477,0.690988,-0.118121,18,32765
1.95367,0.643528,-0.112403,16,32765
2.05061,0.668157,-0.118955,19,32765
2.02413,0.652509,-0.118412,17,32765
1.96901,0.627999,-0.116327,16,32765
2.00896,0.633865,-0.119908,18,32765
1.91557,0.59779,-0.115529,17,32765
8.06607,5.96009,-0.129584,14,32765
0,0,-0,0,32765
0,0,-0,11,32765
0,0,-0,12,32765
0,0,-0,13,32765
0,0,-0,14,32765
0,0,-0,14,32765
0,0,-0,12,32765
0,0,-0,14,32765
0,0,-0,15,32765
4.54456,3.13113,-0.115731,16,32765
0,0,-0,17,32765
0,0,-0,18,32765
4.06188,2.73832,-0.112946,15,32765
4.06271,2.719,-0.11622,16,32765
3.94683,2.62234,-0.115883,15,32765
3.93879,2.59812,-0.118616,16,32765
3.78832,2.48112,-0.116432,16,32765
3.80478,2.47405,-0.119606,17,32765
3.66169,2.36385,-0.117555,16,32765
