x, y, z, intensity, ring
13.4159,-6.11765,1.27569,14,32765
13.314,-6.12478,1.26872,14,32765
13.1576,-6.10599,1.26059,14,32765
13.1192,-6.14064,1.26116,15,32765
12.9816,-6.12821,1.25304,14,32765
12.9069,-6.14581,1.25026,13,32765
12.8053,-6.1497,1.24672,14,32765
12.65,-6.12724,1.23557,15,32765
12.5573,-6.13476,1.23322,15,32765
12.4917,-6.15462,1.23183,14,32765
12.3545,-6.13913,1.22426,14,32765
12.2178,-6.1228,1.21479,14,32765
12.1612,-6.14582,1.2152,14,32765
12.0603,-6.14603,1.21027,13,32765
11.8799,-6.10402,1.19878,14,32765
11.8767,-6.15309,1.20305,14,32765
11.7323,-6.12794,1.1944,14,32765
11.6325,-6.12472,1.18869,14,32765
11.5149,-6.11212,1.18158,14,32765
11.3274,-6.0608,1.1686,14,32765
11.3419,-6.11759,1.17515,15,32765
11.2862,-6.13596,1.17535,14,32765
11.1695,-6.12073,1.16721,14,32765
11.0442,-6.10003,1.15893,13,32765
10.8934,-6.06341,1.149,13,32765
10.8902,-6.10929,1.15425,14,32765
10.6964,-6.04707,1.1387,13,32765
10.7018,-6.09738,1.14468,14,32765
10.6553,-6.11793,1.14485,13,32765
10.4537,-6.04847,1.128,13,32765
10.3988,-6.06342,1.12588,14,32765
10.1982,-5.99174,1.10937,13,32765
10.1265,-5.99512,1.10696,14,32765
10.0292,-5.98292,1.10155,14,32765
9.88105,-5.93917,1.08971,14,32765
9.80976,-5.94126,1.08647,15,32765
9.71338,-5.92681,1.08078,15,32765
9.65134,-5.9322,1.07932,16,32765
9.58097,-5.93211,1.07588,18,32765
9.58685,-5.97872,1.08152,20,32765
9.50802,-5.97294,1.07697,21,32765
9.42103,-5.9613,1.07106,21,32765
9.39281,-5.98663,1.07312,22,32765
9.32269,-5.98506,1.06925,22,32765
9.29477,-6.00958,1.07084,22,32765
9.24155,-6.01817,1.06857,22,32765
9.20492,-6.0375,1.06848,22,32765
9.12661,-6.02935,1.06396,22,32765
9.07325,-6.03743,1.06216,23,32765
8.99543,-6.02823,1.05689,23,32765
8.94259,-6.0351,1.05517,23,32765
8.85674,-6.01941,1.05002,23,32765
8.81248,-6.03113,1.04811,23,32765
8.75989,-6.03703,1.04628,23,32765
8.67505,-6.01949,1.03984,23,32765
8.61485,-6.0187,1.03592,24,32765
8.5307,-5.99996,1.02861,23,32765
8.51148,-6.02679,1.03099,23,32765
8.41866,-6.00274,1.02245,23,32765
8.3828,-6.01844,1.02179,23,32765
8.29877,-5.9988,1.0143,24,32765
8.21584,-5.9775,1.00678,22,32765
8.18129,-5.99108,1.00479,22,32765
8.11408,-5.98177,0.998509,21,32765
0,-0,0,0,32765
0,-0,0,0,32765
0,-0,0,11,32765
9.53638,-3.08578,0.733381,11,32765
0,-0,0,0,32765
10.0266,-3.31755,0.780543,11,32765
9.8264,-3.28648,0.77003,15,32765
9.84392,-3.32737,0.776085,13,32765
9.81407,-3.35279,0.776414,11,32765
0,-0,0,0,32765
0,-0,0,0,32765
0,-0,0,0,32765
12.285,-4.37936,0.992886,14,32765
12.3641,-4.45329,1.00464,15,32765
12.5085,-4.55181,1.02048,14,32765
12.7271,-4.67863,1.04452,12,32765
0,-0,0,0,32765
0,-0,0,0,32765
15.5225,-5.88296,1.29012,11,32765
15.7816,-6.0419,1.31902,12,32765
14.9612,-5.78556,1.25575,13,32765
14.6449,-5.71789,1.23548,14,32765
14.6908,-5.79126,1.24353,15,32765
14.6531,-5.83146,1.24619,14,32765
14.7725,-5.93499,1.26096,12,32765
14.5676,-5.9092,1.24888,12,32765
14.6489,-5.99929,1.26224,12,32765
14.352,-5.93412,1.24187,12,32765
14.2767,-5.9589,1.24025,12,32765
14.1554,-5.96373,1.23592,12,32765
13.8601,-5.8939,1.21368,12,32765
13.6388,-5.85292,1.1998,12,32765
13.4909,-5.84288,1.19134,12,32765
13.5259,-5.91138,1.20021,12,32765
13.424,-5.91983,1.19574,12,32765
13.3673,-5.94867,1.19616,12,32765
13.1833,-5.91999,1.18523,12,32765
13.0175,-5.89913,1.17454,13,32765
12.9249,-5.90965,1.17039,12,32765
12.8507,-5.92743,1.16886,12,32765
12.6678,-5.89454,1.15816,13,32765
12.5853,-5.90609,1.1539,13,32765
12.4663,-5.90097,1.14682,13,32765
12.3476,-5.89481,1.14001,12,32765
12.3098,-5.92707,1.14153,12,32765
12.0744,-5.86386,1.12463,13,32765
12.0188,-5.88632,1.12477,13,32765
11.9363,-5.89555,1.12159,12,32765
11.8626,-5.90884,1.12049,12,32765
11.878,-5.96652,1.1263,12,32765
11.6709,-5.91176,1.11232,13,32765
11.5708,-5.91012,1.10885,12,32765
11.4003,-5.8711,1.09595,13,32765
11.2835,-5.85783,1.08908,13,32765
11.2106,-5.86764,1.08728,13,32765
11.1114,-5.86314,1.08292,13,32765
11.0211,-5.86287,1.07886,13,32765
10.8079,-5.79631,1.06175,12,32765
10.8673,-5.87443,1.0734,13,32765
10.769,-5.86695,1.06918,12,32765
10.6186,-5.83015,1.05869,13,32765
10.547,-5.83576,1.05585,13,32765
10.4142,-5.80758,1.04766,13,32765
10.4294,-5.86143,1.05413,13,32765
10.2275,-5.79286,1.03941,12,32765
10.0436,-5.73292,1.02525,12,32765
9.96376,-5.73129,1.02345,13,32765
9.94432,-5.76433,1.02698,13,32765
9.74449,-5.69124,1.01172,13,32765
9.87133,-5.80928,1.02915,14,32765
9.64625,-5.71972,1.01114,15,32765
9.62737,-5.75085,1.01446,15,32765
9.59094,-5.77232,1.0158,15,32765
9.58024,-5.80854,1.021,17,32765
9.48434,-5.79312,1.01619,16,32765
9.44789,-5.81391,1.01754,18,32765
9.43693,-5.84984,1.02281,19,32765
9.392,-5.86483,1.02394,18,32765
9.32194,-5.86343,1.02237,19,32765
9.26862,-5.87258,1.02273,19,32765
9.26559,-5.9137,1.02883,19,32765
9.20402,-5.91684,1.02815,19,32765
9.18408,-5.94695,1.03275,18,32765
9.11429,-5.9441,1.03067,18,32765
9.07776,-5.96281,1.03307,19,32765
8.99985,-5.95359,1.03104,19,32765
8.96354,-5.97144,1.03405,18,32765
8.86083,-5.94511,1.02947,18,32765
8.85739,-5.98519,1.03522,18,32765
8.82072,-6.00289,1.03852,19,32765
8.75937,-6.00356,1.03899,18,32765
8.7393,-6.03186,1.04411,19,32765
8.68651,-6.03745,1.04433,19,32765
8.66626,-6.06541,1.05059,19,32765
8.59739,-6.05879,1.04918,18,32765
8.57704,-6.08656,1.05508,19,32765
8.5406,-6.10226,1.05977,20,32765
8.52015,-6.1299,1.06482,19,32765
8.49981,-6.15696,1.07127,20,32765
8.39093,-6.11954,1.06634,18,32765
8.43442,-6.19356,1.082,19,32765
0,-0,0,0,32765
0,-0,0,0,32765
0,-0,0,0,32765
0,-0,0,0,32765
0,-0,0,11,32765
0,-0,0,0,32765
9.90705,-3.31846,0.677542,11,32765
9.80162,-3.31808,0.674889,13,32765
9.92285,-3.3951,0.685843,11,32765
9.81705,-3.39521,0.682847,11,32765
9.70172,-3.39176,0.680117,11,32765
12.1742,-4.30116,0.856193,12,32765
12.2912,-4.38829,0.869973,16,32765
12.314,-4.44207,0.876786,15,32765
12.4397,-4.53378,0.889679,16,32765
12.5462,-4.61927,0.903262,15,32765
14.3543,-5.33853,1.03705,13,32765
14.2987,-5.37251,1.03902,12,32765
14.7373,-5.59413,1.07583,12,32765
14.6622,-5.62217,1.07701,11,32765
14.6429,-5.67141,1.08059,11,32765
0,-0,0,0,32765
0,-0,0,0,32765
0,-0,0,0,32765
0,-0,0,0,32765
0,-0,0,0,32765
0,-0,0,0,32765
0,-0,0,0,32765
0,-0,0,0,32765
0,-0,0,0,32765
12.9396,-5.51149,1.00018,11,32765
12.802,-5.50285,0.99452,12,32765
12.4722,-5.4106,0.972928,13,32765
12.2529,-5.36387,0.960881,13,32765
12.1072,-5.34797,0.953402,13,32765
11.9886,-5.34402,0.948796,13,32765
11.9521,-5.37611,0.950749,14,32765
11.7519,-5.3345,0.938434,13,32765
11.8153,-5.41139,0.947163,13,32765
11.6431,-5.3795,0.937894,14,32765
11.5615,-5.38886,0.936544,14,32765
11.4354,-5.37561,0.92915,14,32765
11.2731,-5.34529,0.919245,13,32765
11.2012,-5.35669,0.916935,14,32765
11.2191,-5.4112,0.922791,13,32765
11.0661,-5.38345,0.914534,14,32765
10.9583,-5.37626,0.910304,14,32765
10.8954,-5.3908,0.909041,14,32765
10.7431,-5.36055,0.901429,14,32765
10.6001,-5.33391,0.893132,14,32765
10.5196,-5.33792,0.891258,14,32765
10.4036,-5.32331,0.886712,15,32765
10.2881,-5.30774,0.879804,16,32765
10.1644,-5.2862,0.872962,16,32765
10.0493,-5.26916,0.867592,17,32765
9.97845,-5.27474,0.866023,18,32765
9.96048,-5.30818,0.868571,19,32765
9.90726,-5.32284,0.867193,20,32765
9.79292,-5.30322,0.862245,20,32765
9.70524,-5.29699,0.859289,21,32765
9.65271,-5.30948,0.858504,22,32765
9.60026,-5.32162,0.857574,22,32765
9.59969,-5.36318,0.862049,24,32765
9.51217,-5.35576,0.858504,23,32765
9.43332,-5.35288,0.856451,23,32765
9.39796,-5.37429,0.85729,24,32765
9.31065,-5.36555,0.855075,23,32765
9.24934,-5.37146,0.854397,24,32765
9.21423,-5.39159,0.856058,23,32765
9.16179,-5.40181,0.854956,23,32765
9.09225,-5.40136,0.853422,24,32765
9.03166,-5.40518,0.852526,24,32765
9.01345,-5.43502,0.85548,23,32765
8.91018,-5.41253,0.851381,23,32765
8.89209,-5.4417,0.854539,24,32765
8.83136,-5.44489,0.853428,24,32765
8.81318,-5.47364,0.857495,24,32765
8.77795,-5.49191,0.859487,24,32765
8.66696,-5.46194,0.854076,24,32765
8.65704,-5.49567,0.858698,26,32765
8.59653,-5.4973,0.858472,25,32765
8.56147,-5.51445,0.860507,24,32765
8.47602,-5.49914,0.858019,24,32765
8.45775,-5.52668,0.861328,23,32765
8.39764,-5.52687,0.861053,24,32765
8.37931,-5.55396,0.865341,24,32765
8.34433,-5.56985,0.868204,25,32765
8.34217,-5.60815,0.874626,23,32765
8.25738,-5.59077,0.871264,23,32765
8.18913,-5.5841,0.870906,22,32765
8.18668,-5.62219,0.877631,22,32765
8.12693,-5.62037,0.877998,23,32765
8.11638,-5.65244,0.88275,23,32765
8.01589,-5.62144,0.879655,22,32765
7.99731,-5.64719,0.883868,22,32765
7.96212,-5.66154,0.887561,24,32765
7.92712,-5.67533,0.891957,23,32765
7.86772,-5.67192,0.892072,22,32765
7.85699,-5.70282,0.898963,21,32765
7.82198,-5.71614,0.902943,20,32765
7.81876,-5.7531,0.911746,20,32765
0,-0,0,0,32765
0,-0,0,0,32765
0,-0,0,0,32765
0,-0,0,0,32765
0,-0,0,0,32765
0,-0,0,0,32765
0,-0,0,0,32765
9.76439,-3.3037,0.671661,12,32765
9.83862,-3.36441,0.677236,12,32765
9.98796,-3.45182,0.688313,11,32765
0,-0,0,0,32765
0,-0,0,0,32765
12.0117,-4.28465,0.830185,12,32765
12.2887,-4.42864,0.850527,14,32765
12.2742,-4.46847,0.851362,14,32765
12.4562,-4.58123,0.863356,13,32765
12.5626,-4.66713,0.873796,13,32765
0,-0,0,0,32765
0,-0,0,0,32765
0,-0,0,0,32765
0,-0,0,0,32765
0,-0,0,0,32765
0,-0,0,0,32765
0,-0,0,0,32765
0,-0,0,0,32765
0,-0,0,0,32765
0,-0,0,0,32765
0,-0,0,0,32765
0,-0,0,0,32765
0,-0,0,0,32765
0,-0,0,0,32765
0,-0,0,0,32765
0,-0,0,0,32765
0,-0,0,0,32765
11.5943,-5.11222,0.853422,12,32765
11.4947,-5.11477,0.850686,12,32765
11.4411,-5.13657,0.850103,12,32765
11.3875,-5.15787,0.849946,12,32765
11.37,-5.19589,0.852905,12,32765
11.0172,-5.07899,0.830873,12,32765
11.1356,-5.17901,0.843449,12,32765
10.9828,-5.15209,0.836562,13,32765
10.9292,-5.17166,0.837806,13,32765
10.8128,-5.16072,0.831512,12,32765
10.7594,-5.17916,0.831767,13,32765
10.6251,-5.15853,0.825742,13,32765
10.4199,-5.10131,0.812438,13,32765
10.2863,-5.07852,0.80615,14,32765
10.1888,-5.07258,0.803733,15,32765
10.136,-5.08846,0.804321,15,32765
10.065,-5.09585,0.802499,15,32765
10.0029,-5.10738,0.802259,16,32765
9.93219,-5.11372,0.800861,16,32765
9.83476,-5.10597,0.799104,16,32765
9.82641,-5.14316,0.802538,17,32765
9.83546,-5.18991,0.806934,18,32765
9.72108,-5.17083,0.802935,18,32765
9.68624,-5.19326,0.804522,19,32765
9.64247,-5.21094,0.805577,19,32765
9.5725,-5.21415,0.802983,19,32765
9.48482,-5.20765,0.800654,19,32765
9.42356,-5.21502,0.799993,19,32765
9.35387,-5.21678,0.798711,19,32765
9.3188,-5.23806,0.800754,20,32765
9.2578,-5.24423,0.800122,20,32765
9.18812,-5.24534,0.798072,20,32765
9.11848,-5.24624,0.795503,19,32765
9.00568,-5.22172,0.790517,19,32765
8.98785,-5.25198,0.793011,19,32765
8.93589,-5.2613,0.79286,19,32765
8.87537,-5.2653,0.791791,19,32765
8.84084,-5.28406,0.791976,19,32765
8.75507,-5.27146,0.789261,19,32765
8.66082,-5.25352,0.785108,19,32765
8.66048,-5.29202,0.789297,19,32765
8.5919,-5.28926,0.785758,18,32765
8.55724,-5.30704,0.786686,19,32765
8.46341,-5.28761,0.782269,19,32765
8.46242,-5.32631,0.78659,19,32765
8.39435,-5.3218,0.78378,19,32765
8.33472,-5.32232,0.782183,18,32765
8.28358,-5.32787,0.781268,18,32765
8.19914,-5.31127,0.777491,18,32765
8.16514,-5.32668,0.778059,17,32765
8.13107,-5.34203,0.778433,17,32765
8.06342,-5.33563,0.776077,16,32765
7.98771,-5.32337,0.771464,16,32765
7.95349,-5.33835,0.772081,16,32765
7.90293,-5.34186,0.77013,15,32765
7.78663,-5.29988,0.763022,14,32765
7.79408,-5.34177,0.766942,15,32765
7.73574,-5.33841,0.764555,15,32765
7.61204,-5.28932,0.754955,15,32765
7.58662,-5.308,0.75664,16,32765
7.55321,-5.32071,0.756229,17,32765
7.48733,-5.31023,0.751936,16,32765
7.48643,-5.34566,0.755137,16,32765
7.42896,-5.34025,0.751477,16,32765
7.39569,-5.35217,0.750749,17,32765
7.37032,-5.37014,0.749973,21,32765
7.32895,-5.376,0.748022,22,32765
0,-0,0,0,32765
0,-0,0,0,32765
0,-0,0,0,32765
0,-0,0,0,32765
0,-0,0,0,32765
0,-0,0,0,32765
0,-0,0,0,32765
0,-0,0,0,32765
0,-0,0,0,32765
0,-0,0,0,32765
0,-0,0,11,32765
0,-0,0,11,32765
12.3547,-4.41442,0.730035,13,32765
12.3215,-4.44794,0.729135,16,32765
12.3163,-4.49138,0.730533,18,32765
12.3764,-4.55965,0.733336,16,32765
12.4736,-4.64199,0.741991,14,32765
3.64492,-1.37018,0.217179,14,32765
3.42563,-1.30079,0.204768,11,32765
0,-0,0,0,32765
0,-0,0,0,32765
0,-0,0,0,32765
0,-0,0,0,32765
0,-0,0,0,32765
0,-0,0,0,32765
0,-0,0,0,32765
0,-0,0,0,32765
0,-0,0,0,32765
0,-0,0,0,32765
0,-0,0,0,32765
0,-0,0,0,32765
0,-0,0,0,32765
0,-0,0,0,32765
0,-0,0,0,32765
10.5657,-4.66724,0.668834,11,32765
10.4038,-4.63787,0.662589,19,32765
10.3154,-4.6397,0.659856,21,32765
10.2816,-4.66558,0.660998,22,32765
10.2295,-4.68336,0.661328,23,32765
10.1412,-4.68381,0.659543,25,32765
10.0981,-4.70521,0.65989,25,32765
10.001,-4.70029,0.657662,26,32765
9.9579,-4.72089,0.659526,26,32765
9.90601,-4.73684,0.658343,26,32765
9.80015,-4.7263,0.655119,26,32765
9.73916,-4.73734,0.654878,26,32765
9.66965,-4.74301,0.652507,25,32765
9.61783,-4.75751,0.652707,26,32765
9.57492,-4.77608,0.654549,27,32765
9.50526,-4.78098,0.654085,26,32765
9.43536,-4.78623,0.65268,26,32765
9.34768,-4.78201,0.650853,25,32765
9.28691,-4.79073,0.650455,26,32765
9.24372,-4.80841,0.652996,26,32765
9.17449,-4.81127,0.651784,25,32765
9.10525,-4.81396,0.650088,25,32765
9.06258,-4.82998,0.651898,24,32765
9.0025,-4.83613,0.651563,25,32765
8.9336,-4.83733,0.650758,25,32765
8.8736,-4.84299,0.649241,24,32765
8.82215,-4.85338,0.649985,25,32765
8.81444,-4.8876,0.653468,26,32765
8.75454,-4.89223,0.653199,24,32765
8.67709,-4.88708,0.651944,25,32765
8.60858,-4.88621,0.650916,24,32765
8.55742,-4.89508,0.650579,23,32765
8.51487,-4.90882,0.650426,22,32765
8.47223,-4.92232,0.651564,22,32765
8.42097,-4.93068,0.651254,22,32765
8.3271,-4.91281,0.647958,21,32765
8.26773,-4.91481,0.647177,21,32765
8.18298,-4.90086,0.6434,20,32765
8.14972,-4.91704,0.645243,19,32765
8.09073,-4.91781,0.644462,20,32765
8.07448,-4.94412,0.646933,20,32765
7.97306,-4.91846,0.641155,20,32765
7.92269,-4.92371,0.640728,19,32765
7.88931,-4.93921,0.641782,19,32765
7.80511,-4.92286,0.638829,19,32765
7.79729,-4.95365,0.641289,19,32765
7.75567,-4.96298,0.641389,18,32765
7.71409,-4.97207,0.641397,18,32765
7.67264,-4.98074,0.641698,17,32765
7.64805,-4.99995,0.643022,18,32765
7.59836,-5.0027,0.642058,18,32765
7.54014,-5.00005,0.640817,17,32765
7.4821,-4.99713,0.638217,18,32765
7.43239,-4.99936,0.637468,17,32765
7.39944,-5.01237,0.637237,17,32765
7.33364,-5.00241,0.635378,17,32765
7.30915,-5.02035,0.636075,17,32765
7.27644,-5.03245,0.636211,17,32765
7.25192,-5.05017,0.636396,20,32765
7.1946,-5.04483,0.63518,24,32765
7.17017,-5.06208,0.635622,22,32765
7.10509,-5.05035,0.631867,22,32765
7.05634,-5.04981,0.630461,21,32765
7.04024,-5.07218,0.630875,21,32765
6.96744,-5.05362,0.626663,20,32765
6.93494,-5.06436,0.62526,20,32765
6.88648,-5.06293,0.62284,22,32765
0,-0,0,0,32765
0,-0,0,0,32765
0,-0,0,0,32765
0,-0,0,0,32765
0,-0,0,0,32765
0,-0,0,0,32765
0,-0,0,0,32765
0,-0,0,0,32765
0,-0,0,0,32765
0,-0,0,0,32765
0,-0,0,0,32765
0,-0,0,0,32765
0,-0,0,0,32765
0,-0,0,0,32765
0,-0,0,0,32765
0,-0,0,0,32765
0,-0,0,0,32765
3.40624,-1.27084,0.179029,15,32765
3.54219,-1.33488,0.187434,14,32765
3.54707,-1.34999,0.189371,15,32765
3.44001,-1.32228,0.184468,12,32765
0,-0,0,0,32765
0,-0,0,0,32765
0,-0,0,28,32765
0,-0,0,0,32765
0,-0,0,0,32765
0,-0,0,0,32765
0,-0,0,0,32765
0,-0,0,0,32765
0,-0,0,0,32765
0,-0,0,0,32765
0,-0,0,0,32765
0,-0,0,0,32765
0,-0,0,0,32765
0,-0,0,0,32765
0,-0,0,0,32765
10.1365,-4.53263,0.601044,18,32765
10.0939,-4.55409,0.60175,22,32765
10.024,-4.56271,0.601067,21,32765
9.94526,-4.56651,0.60039,21,32765
9.89345,-4.58324,0.600024,22,32765
9.81467,-4.58659,0.598305,21,32765
9.68155,-4.56436,0.593841,20,32765
9.64804,-4.58806,0.595811,21,32765
9.51549,-4.56415,0.590728,21,32765
9.45491,-4.57444,0.591222,20,32765
9.42147,-4.59731,0.592171,20,32765
9.35218,-4.60223,0.591397,20,32765
9.27384,-4.60267,0.590149,21,32765
9.25841,-4.63327,0.592858,20,32765
9.13574,-4.61021,0.588905,20,32765
9.0937,-4.62664,0.589188,20,32765
9.00696,-4.62057,0.586988,19,32765
8.99131,-4.65071,0.588862,19,32765
8.93112,-4.65794,0.588829,20,32765
8.86219,-4.66022,0.587231,19,32765
8.77593,-4.6522,0.585381,19,32765
8.76034,-4.68117,0.587799,19,32765
8.71856,-4.69543,0.5882,19,32765
8.63264,-4.68596,0.587291,19,32765
8.59917,-4.70541,0.588129,18,32765
8.57449,-4.72925,0.590294,18,32765
8.55853,-4.75783,0.592306,17,32765
8.44681,-4.73231,0.588822,17,32765
8.35281,-4.71572,0.587101,17,32765
8.33702,-4.74337,0.588815,17,32765
8.28656,-4.75078,0.58981,16,32765
8.20153,-4.73809,0.587798,17,32765
8.15978,-4.75,0.589205,16,32765
8.12683,-4.76645,0.590946,16,32765
8.04195,-4.75284,0.589146,16,32765
8.00883,-4.7691,0.591562,15,32765
7.99284,-4.79543,0.59498,15,32765
7.8827,-4.76525,0.59023,15,32765
7.89254,-4.80623,0.596328,15,32765
7.8509,-4.81666,0.596678,16,32765
7.80935,-4.82651,0.599108,15,32765
7.7595,-4.8308,0.599347,16,32765
7.78563,-4.88266,0.606446,16,32765
7.71031,-4.87074,0.605414,16,32765
7.71089,-4.90664,0.610385,16,32765
7.63584,-4.89392,0.609571,15,32765
7.61971,-4.91858,0.612961,15,32765
7.56994,-4.92157,0.613772,14,32765
7.55371,-4.94588,0.618228,15,32765
7.49526,-4.94354,0.618398,15,32765
7.42874,-4.93521,0.617347,14,32765
7.42874,-4.97048,0.624301,15,32765
7.41232,-4.99451,0.627696,15,32765
7.39581,-5.01833,0.63249,14,32765
7.32969,-5.00855,0.632487,15,32765
7.3622,-5.06638,0.641397,15,32765
7.23866,-5.01656,0.636296,15,32765
7.27928,-5.07982,0.646154,19,32765
7.2546,-5.09711,0.649922,19,32765
7.19724,-5.09129,0.65124,18,32765
7.16413,-5.10298,0.653608,17,32765
7.1632,-5.13774,0.661674,17,32765
7.14606,-5.16087,0.666981,17,32765
7.1449,-5.19561,0.674998,17,32765
7.1034,-5.20099,0.678384,21,32765
0,-0,0,0,32765
0,-0,0,0,32765
0,-0,0,0,32765
0,-0,0,0,32765
0,-0,0,0,32765
0,-0,0,0,32765
0,-0,0,0,32765
0,-0,0,0,32765
0,-0,0,0,32765
0,-0,0,0,32765
0,-0,0,0,32765
0,-0,0,0,32765
0,-0,0,0,32765
0,-0,0,11,32765
0,-0,0,0,32765
0,-0,0,0,32765
0,-0,0,0,32765
3.42559,-1.28051,0.145597,14,32765
3.15022,-1.18944,0.134975,11,32765
3.36099,-1.28163,0.145556,13,32765
3.54319,-1.36457,0.15424,18,32765
0,-0,0,14,32765
0,-0,0,0,32765
0,-0,0,0,32765
0,-0,0,0,32765
0,-0,0,0,32765
0,-0,0,0,32765
3.24227,-1.33628,0.148869,11,32765
3.25613,-1.35491,0.150821,13,32765
3.15944,-1.32709,0.147278,15,32765
3.25607,-1.38067,0.15287,15,32765
3.12279,-1.33655,0.147729,15,32765
3.14575,-1.35894,0.149754,13,32765
3.15029,-1.3735,0.150957,13,32765
3.07247,-1.35182,0.148605,12,32765
9.34968,-4.15139,0.454884,20,32765
9.44494,-4.23186,0.462658,27,32765
9.36692,-4.23459,0.461699,27,32765
9.30723,-4.24497,0.46185,28,32765
9.28396,-4.27146,0.464334,27,32765
9.18783,-4.26497,0.46195,26,32765
9.15534,-4.28716,0.463029,26,32765
9.09549,-4.29678,0.463288,24,32765
8.99976,-4.2885,0.462025,23,32765
8.96723,-4.30997,0.463137,23,32765
8.90753,-4.31843,0.463917,22,32765
8.83904,-4.32198,0.463059,21,32765
8.75275,-4.31613,0.461747,20,32765
8.70221,-4.32789,0.462412,21,32765
8.60734,-4.31637,0.46066,20,32765
8.59269,-4.34517,0.463402,19,32765
8.48924,-4.3281,0.460474,19,32765
8.45679,-4.34739,0.46178,19,32765
8.37998,-4.34358,0.460138,19,32765
8.35624,-4.36727,0.462343,18,32765
8.27061,-4.3583,0.460207,19,32765
8.22946,-4.37173,0.461397,19,32765
8.17959,-4.3801,0.461683,18,32765
8.11242,-4.37827,0.460729,18,32765
8.09775,-4.40497,0.464333,19,32765
8.03895,-4.40825,0.463724,18,32765
8.00653,-4.42544,0.4653,18,32765
7.9654,-4.43761,0.465656,17,32765
7.88959,-4.42964,0.465042,20,32765
7.86613,-4.45054,0.46806,18,32765
7.79917,-4.44696,0.466567,18,32765
7.76702,-4.46258,0.468765,18,32765
7.71752,-4.46816,0.469428,19,32765
7.68529,-4.48354,0.471459,18,32765
7.66183,-4.50354,0.473752,19,32765
7.61221,-4.50872,0.474667,18,32765
7.57991,-4.5236,0.47708,19,32765
7.49628,-4.50741,0.475976,18,32765
7.49813,-4.54278,0.479216,19,32765
7.45757,-4.5514,0.481535,19,32765
7.42529,-4.56564,0.4826,18,32765
7.37609,-4.56887,0.484523,19,32765
7.34403,-4.58233,0.486106,18,32765
7.29492,-4.58513,0.487457,19,32765
7.27965,-4.60898,0.490842,18,32765
7.2306,-4.61134,0.491993,18,32765
7.19853,-4.62402,0.494485,18,32765
7.18329,-4.64732,0.497688,18,32765
7.15115,-4.6598,0.499848,17,32765
7.13579,-4.68283,0.504065,18,32765
7.10323,-4.69561,0.506292,17,32765
7.03754,-4.68596,0.505648,17,32765
7.02182,-4.70892,0.510923,17,32765
7.00626,-4.73169,0.514139,17,32765
6.95762,-4.73181,0.516228,17,32765
6.95011,-4.76007,0.520862,17,32765
6.91773,-4.77146,0.524001,17,32765
6.90176,-4.7941,0.528018,18,32765
6.86952,-4.80493,0.531315,18,32765
6.80495,-4.79224,0.531743,18,32765
6.82187,-4.83694,0.539015,18,32765
6.77337,-4.83584,0.540082,19,32765
6.76526,-4.8636,0.546956,19,32765
6.74097,-4.87965,0.551315,19,32765
6.70853,-4.88966,0.556111,19,32765
6.67612,-4.89956,0.560113,19,32765
0,-0,0,0,32765
0,-0,0,0,32765
0,-0,0,0,32765
0,-0,0,0,32765
0,-0,0,0,32765
0,-0,0,0,32765
0,-0,0,0,32765
0,-0,0,0,32765
0,-0,0,0,32765
0,-0,0,0,32765
0,-0,0,0,32765
0,-0,0,0,32765
0,-0,0,0,32765
3.01982,-1.08202,0.11837,12,32765
0,-0,0,0,32765
0,-0,0,0,32765
3.14017,-1.16037,0.123944,11,32765
3.37038,-1.25805,0.133608,13,32765
3.25401,-1.22683,0.129307,12,32765
3.28727,-1.25181,0.131288,12,32765
3.55356,-1.36678,0.14235,13,32765
0,-0,0,0,32765
0,-0,0,0,32765
0,-0,0,0,32765
0,-0,0,0,32765
3.5861,-1.44751,0.146642,12,32765
2.99822,-1.22191,0.123303,12,32765
3.21589,-1.32316,0.133071,12,32765
2.98075,-1.23801,0.123898,12,32765
3.14251,-1.31736,0.131474,13,32765
3.15649,-1.3356,0.13285,13,32765
3.20713,-1.36965,0.135816,13,32765
0,-0,0,0,32765
9.2452,-4.02196,0.397596,16,32765
9.24083,-4.05674,0.399914,18,32765
9.19973,-4.07546,0.400722,19,32765
9.18594,-4.10627,0.402536,19,32765
9.17206,-4.13695,0.404728,20,32765
9.12155,-4.15135,0.405649,18,32765
9.03466,-4.14889,0.405071,18,32765
8.94807,-4.14552,0.404477,17,32765
8.93429,-4.17487,0.407303,17,32765
8.82098,-4.15745,0.404421,16,32765
8.77094,-4.16946,0.405704,16,32765
8.68472,-4.16434,0.404261,16,32765
8.59857,-4.15875,0.403751,15,32765
8.51258,-4.15246,0.40442,15,32765
8.49853,-4.18102,0.405632,15,32765
8.47552,-4.20479,0.407805,15,32765
8.41673,-4.21049,0.408495,15,32765
8.33993,-4.20725,0.40883,15,32765
8.31683,-4.23047,0.411176,15,32765
8.24004,-4.2268,0.410993,15,32765
8.18134,-4.23143,0.411122,15,32765
8.14922,-4.24965,0.413056,15,32765
8.13483,-4.27693,0.415292,15,32765
8.09396,-4.28988,0.416593,15,32765
8.04414,-4.29818,0.417578,14,32765
8.02964,-4.32488,0.421002,15,32765
7.98011,-4.3323,0.420869,15,32765
7.88673,-4.3155,0.419434,15,32765
7.80222,-4.30307,0.418756,15,32765
7.77041,-4.31892,0.42151,14,32765
7.73835,-4.33522,0.422259,14,32765
7.69794,-4.3458,0.42226,15,32765
7.68333,-4.37124,0.425688,15,32765
7.63402,-4.3767,0.42696,15,32765
7.56744,-4.37201,0.426475,15,32765
7.55247,-4.39762,0.428579,15,32765
7.4946,-4.39742,0.428469,15,32765
7.47947,-4.42286,0.431204,16,32765
7.39602,-4.40665,0.429824,16,32765
7.36426,-4.42056,0.431721,15,32765
7.34964,-4.44465,0.43344,15,32765
7.2923,-4.44264,0.433367,15,32765
7.26037,-4.45631,0.435006,15,32765
7.26245,-4.4908,0.438191,16,32765
7.19674,-4.4828,0.437577,15,32765
7.10567,-4.45869,0.435322,15,32765
7.10798,-4.49229,0.438634,15,32765
7.07613,-4.50502,0.439404,15,32765
7.02747,-4.50677,0.439614,15,32765
7.01273,-4.5295,0.441402,15,32765
6.9977,-4.55248,0.443517,15,32765
6.93272,-4.54221,0.442385,15,32765
6.87612,-4.53724,0.441478,15,32765
6.86143,-4.55925,0.443387,15,32765
6.84647,-4.58147,0.44547,15,32765
6.73168,-4.53734,0.440255,15,32765
6.76618,-4.59311,0.445289,15,32765
6.70989,-4.58689,0.444307,14,32765
6.66228,-4.58555,0.443551,14,32765
6.64779,-4.60639,0.444986,15,32765
6.60004,-4.60495,0.444393,15,32765
6.58493,-4.62641,0.445708,15,32765
6.53703,-4.62491,0.444798,15,32765
6.52237,-4.64546,0.4458,15,32765
6.46727,-4.63662,0.443865,15,32765
6.45232,-4.65736,0.444406,15,32765
6.37211,-4.63183,0.440954,16,32765
6.37329,-4.66414,0.441653,16,32765
0,-0,0,0,32765
0,-0,0,0,32765
0,-0,0,0,32765
0,-0,0,0,32765
0,-0,0,0,32765
0,-0,0,0,32765
0,-0,0,0,32765
0,-0,0,0,32765
0,-0,0,0,32765
0,-0,0,0,32765
0,-0,0,0,32765
0,-0,0,0,32765
0,-0,0,0,32765
3.07648,-1.10457,0.0898238,11,32765
3.1104,-1.1284,0.0907984,13,32765
3.20987,-1.17657,0.0940775,13,32765
3.13097,-1.15936,0.0921617,15,32765
3.08968,-1.15566,0.09144,13,32765
3.02974,-1.14464,0.0899213,11,32765
3.20336,-1.2224,0.0956786,12,32765
3.27387,-1.26183,0.0981387,12,32765
3.34421,-1.30163,0.100654,13,32765
3.22831,-1.26861,0.0977744,12,32765
0,-0,0,0,32765
0,-0,0,0,32765
3.40082,-1.37563,0.104566,15,32765
3.43319,-1.40214,0.106319,16,32765
3.50239,-1.4441,0.109304,17,32765
3.49755,-1.45575,0.10976,15,32765
3.64015,-1.52923,0.115174,15,32765
3.5982,-1.52575,0.1147,14,32765
3.74009,-1.60068,0.120145,15,32765
0,-0,0,0,32765
3.75666,-1.63779,0.123041,14,32765
8.75573,-3.85208,0.289025,14,32765
8.61482,-3.82461,0.286673,16,32765
8.53801,-3.82492,0.286236,17,32765
8.49776,-3.84115,0.287356,17,32765
8.43006,-3.84501,0.287851,17,32765
8.40779,-3.86945,0.290021,17,32765
8.3312,-3.86819,0.290314,17,32765
8.30024,-3.8871,0.292313,17,32765
8.25114,-3.89743,0.292595,17,32765
8.22002,-3.91618,0.294716,17,32765
8.14367,-3.91353,0.294235,16,32765
8.13931,-3.94534,0.29726,18,32765
8.06304,-3.94189,0.298802,17,32765
7.97797,-3.93365,0.297283,17,32765
7.95579,-3.95574,0.299397,17,32765
7.92464,-3.97318,0.301407,17,32765
7.87542,-3.9818,0.303238,17,32765
7.84417,-3.99899,0.305183,17,32765
7.77706,-3.99828,0.305846,18,32765
7.75464,-4.01977,0.307727,17,32765
7.6878,-4.01809,0.308287,18,32765
7.63882,-4.02524,0.308972,17,32765
7.60763,-4.04127,0.31076,17,32765
7.57627,-4.05739,0.312684,18,32765
7.5362,-4.06835,0.314814,17,32765
7.52263,-4.09327,0.316434,17,32765
7.47387,-4.09895,0.317553,18,32765
7.44256,-4.11414,0.319725,18,32765
7.35029,-4.0948,0.319844,18,32765
7.3364,-4.11951,0.321459,18,32765
7.29669,-4.1288,0.321674,19,32765
7.23941,-4.12822,0.322994,18,32765
7.23424,-4.15713,0.326417,19,32765
7.17704,-4.15611,0.326768,18,32765
7.1369,-4.16536,0.327582,17,32765
7.10566,-4.17897,0.329014,18,32765
7.07408,-4.19296,0.330811,18,32765
7.06861,-4.22149,0.33369,19,32765
6.99466,-4.2086,0.333612,19,32765
6.97218,-4.22636,0.334841,19,32765
6.90704,-4.21791,0.334705,19,32765
6.87586,-4.23034,0.336397,18,32765
6.84471,-4.24258,0.337613,19,32765
6.81373,-4.25438,0.339112,18,32765
6.78263,-4.26619,0.340551,18,32765
6.75179,-4.27744,0.341871,18,32765
6.70381,-4.27828,0.341886,17,32765
6.68111,-4.29501,0.343653,18,32765
6.68382,-4.32753,0.346228,18,32765
6.61924,-4.31675,0.34563,18,32765
6.59678,-4.33266,0.347153,18,32765
6.51587,-4.31005,0.345311,19,32765
6.52684,-4.34758,0.348458,18,32765
6.47938,-4.34651,0.348661,18,32765
6.43161,-4.34581,0.348092,17,32765
6.38412,-4.34451,0.347992,17,32765
6.40281,-4.38787,0.351457,17,32765
6.31472,-4.35719,0.348747,16,32765
6.29273,-4.37129,0.349659,16,32765
6.29485,-4.40306,0.352108,17,32765
6.23955,-4.39481,0.351072,18,32765
6.22499,-4.4153,0.352321,17,32765
6.17846,-4.4117,0.351432,17,32765
6.11597,-4.39595,0.349464,18,32765
6.09367,-4.40975,0.349519,18,32765
6.06273,-4.41828,0.349559,18,32765
5.97596,-4.38467,0.344985,17,32765
0,-0,0,0,32765
0,-0,0,0,32765
0,-0,0,0,32765
0,-0,0,0,32765
0,-0,0,0,32765
0,-0,0,0,32765
0,-0,0,0,32765
0,-0,0,0,32765
0,-0,0,0,32765
0,-0,0,0,32765
0,-0,0,0,32765
0,-0,0,0,32765
0,-0,0,0,32765
0,-0,0,0,32765
0,-0,0,0,32765
2.9972,-1.09027,0.065064,12,32765
2.93723,-1.0795,0.0651641,12,32765
3.03672,-1.12748,0.0685182,14,32765
3.10782,-1.16566,0.0711867,17,32765
3.1787,-1.20433,0.0738339,15,32765
3.03455,-1.16144,0.0713519,16,32765
3.329,-1.28698,0.0795939,12,32765
3.18498,-1.24352,0.0772271,12,32765
3.27379,-1.29082,0.0802993,12,32765
3.04657,-1.21287,0.0759451,12,32765
3.37642,-1.35726,0.085084,12,32765
0,-0,0,0,32765
3.36727,-1.37967,0.087131,13,32765
3.27946,-1.35656,0.0861235,14,32765
3.45015,-1.44073,0.0916771,19,32765
3.40837,-1.43689,0.0913445,14,32765
3.55067,-1.51097,0.0964618,15,32765
3.6558,-1.57016,0.100503,14,32765
3.62303,-1.57036,0.100681,15,32765
3.6727,-1.60645,0.103564,14,32765
3.63986,-1.60658,0.103424,13,32765
3.73492,-1.66343,0.107316,13,32765
0,-0,0,0,32765
8.29366,-3.76133,0.244266,15,32765
8.30817,-3.80172,0.246794,16,32765
8.21338,-3.79231,0.247491,15,32765
8.11907,-3.78169,0.247077,15,32765
8.0702,-3.79159,0.249255,14,32765
8.01249,-3.79668,0.249318,15,32765
7.9997,-3.82338,0.251905,15,32765
7.96865,-3.8417,0.253967,14,32765
7.91954,-3.85121,0.255403,14,32765
7.80765,-3.82972,0.252694,15,32765
7.82155,-3.86916,0.256724,15,32765
7.78182,-3.88158,0.258203,14,32765
7.71508,-3.88076,0.258495,15,32765
7.68391,-3.89794,0.260712,15,32765
7.6083,-3.89218,0.259325,15,32765
7.63952,-3.94058,0.263764,16,32765
7.54639,-3.92463,0.263418,15,32765
7.53329,-3.94952,0.266331,15,32765
7.46695,-3.94667,0.266379,15,32765
7.43589,-3.96242,0.267634,15,32765
7.36096,-3.95403,0.267429,14,32765
7.34753,-3.97863,0.271911,14,32765
7.29914,-3.98382,0.272204,15,32765
7.24197,-3.98401,0.272851,15,32765
7.21121,-3.99821,0.274303,15,32765
7.19788,-4.02199,0.276762,15,32765
7.13216,-4.01637,0.277637,15,32765
7.11888,-4.03963,0.281259,16,32765
7.10528,-4.06334,0.283602,16,32765
7.01384,-4.0418,0.282768,15,32765
7.02632,-4.07989,0.286706,16,32765
6.98678,-4.088,0.288428,15,32765
6.97292,-4.11133,0.292252,15,32765
6.92446,-4.11456,0.292934,15,32765
6.87634,-4.11699,0.294546,15,32765
6.87962,-4.15003,0.299402,16,32765
6.78924,-4.12547,0.298622,16,32765
6.77569,-4.14747,0.30164,15,32765
6.80448,-4.19582,0.306828,16,32765
6.74825,-4.19151,0.3081,15,32765
6.71739,-4.20301,0.310356,15,32765
6.66971,-4.20351,0.312324,15,32765
6.67259,-4.2361,0.316488,15,32765
6.64154,-4.24739,0.319033,16,32765
6.57706,-4.23657,0.32033,15,32765
6.53768,-4.24206,0.321885,15,32765
6.56543,-4.29068,0.328106,16,32765
6.50932,-4.28484,0.329988,16,32765
6.49516,-4.306,0.333482,15,32765
6.44781,-4.30475,0.33532,15,32765
6.41703,-4.31445,0.338884,15,32765
6.3862,-4.32413,0.341734,15,32765
6.4296,-4.38437,0.34881,14,32765
6.41479,-4.40568,0.35288,14,32765
6.3674,-4.40367,0.355448,14,32765
6.30373,-4.38996,0.35685,14,32765
6.28938,-4.41014,0.361225,15,32765
6.29102,-4.44219,0.366231,15,32765
6.27622,-4.46268,0.371025,14,32765
6.22907,-4.45955,0.374067,14,32765
6.23889,-4.49684,0.380328,15,32765
6.20806,-4.50494,0.384581,16,32765
6.19303,-4.52508,0.390427,15,32765
0,-0,0,0,32765
0,-0,0,0,32765
0,-0,0,0,32765
0,-0,0,0,32765
0,-0,0,0,32765
0,-0,0,0,32765
0,-0,0,0,32765
0,-0,0,0,32765
0,-0,0,0,32765
0,-0,0,0,32765
0,-0,0,0,32765
0,-0,0,0,32765
0,-0,0,0,32765
0,-0,0,0,32765
0,-0,0,0,32765
2.89351,-1.05493,0.0338552,17,32765
2.88059,-1.06108,0.0350453,17,32765
3.01762,-1.12292,0.0378169,16,32765
2.92961,-1.10131,0.0376824,16,32765
3.05678,-1.16077,0.040266,17,32765
3.04349,-1.16751,0.0409226,16,32765
3.07682,-1.1922,0.0425511,17,32765
3.02626,-1.18424,0.0428372,15,32765
2.98507,-1.17967,0.0430544,13,32765
3.10187,-1.23771,0.0459412,19,32765
3.1348,-1.26302,0.0472396,16,32765
3.07498,-1.25086,0.0472432,14,32765
3.23728,-1.32945,0.0508892,16,32765
3.14041,-1.30203,0.0505357,15,32765
3.22824,-1.35117,0.0529078,15,32765
3.36177,-1.42052,0.0558169,17,32765
3.35695,-1.43184,0.056923,17,32765
3.46233,-1.49051,0.0597841,16,32765
3.56738,-1.54983,0.0626111,15,32765
3.56217,-1.56172,0.0639266,15,32765
3.63921,-1.61003,0.0660433,16,32765
3.67945,-1.64255,0.0678937,15,32765
3.78324,-1.70428,0.0708348,16,32765
3.82291,-1.73782,0.073176,13,32765
7.76125,-3.55978,0.150408,16,32765
7.74898,-3.58628,0.153365,17,32765
7.66443,-3.57833,0.153867,16,32765
7.61625,-3.58674,0.156243,17,32765
7.58631,-3.60322,0.15726,18,32765
7.51105,-3.59833,0.158385,17,32765
7.50777,-3.6281,0.16106,17,32765
7.48636,-3.64921,0.163316,17,32765
7.42002,-3.64826,0.162602,18,32765
7.3987,-3.66872,0.165401,17,32765
7.34175,-3.67083,0.166633,18,32765
7.3293,-3.69554,0.168609,19,32765
7.23639,-3.67973,0.169419,19,32765
7.22378,-3.70438,0.170119,18,32765
7.19346,-3.71945,0.172459,19,32765
7.12769,-3.71584,0.173468,19,32765
7.09759,-3.73011,0.175788,18,32765
7.0585,-3.73984,0.176958,18,32765
7.02814,-3.75425,0.178304,18,32765
6.98912,-3.76345,0.179555,18,32765
6.95878,-3.77733,0.183355,17,32765
6.95491,-3.80524,0.185112,19,32765
6.92461,-3.81877,0.186836,19,32765
6.85944,-3.81253,0.187434,18,32765
6.82929,-3.82543,0.189297,18,32765
6.79036,-3.83333,0.191328,19,32765
6.75161,-3.8407,0.194035,18,32765
6.72133,-3.8533,0.195758,18,32765
6.6912,-3.86546,0.197438,18,32765
6.66106,-3.87743,0.199675,18,32765
6.63082,-3.88942,0.201803,18,32765
6.60043,-3.90144,0.204905,19,32765
6.56129,-3.90853,0.206125,18,32765
6.53958,-3.9252,0.208778,19,32765
6.5264,-3.94686,0.212696,19,32765
6.48793,-3.95232,0.214324,18,32765
6.44087,-3.95248,0.216072,18,32765
6.41077,-3.96305,0.218608,18,32765
6.39775,-3.98388,0.22164,17,32765
6.37605,-3.99958,0.224231,18,32765
6.36286,-4.02034,0.22761,18,32765
6.29045,-4.00369,0.22868,17,32765
6.28543,-4.02993,0.23216,18,32765
6.28887,-4.06132,0.23635,18,32765
6.21658,-4.04406,0.236795,17,32765
6.22826,-4.08079,0.241704,18,32765
6.18956,-4.08485,0.244515,17,32765
6.15942,-4.09396,0.247178,17,32765
6.16261,-4.12498,0.251245,17,32765
6.11587,-4.12262,0.254119,17,32765
6.09395,-4.13696,0.257338,17,32765
6.07196,-4.15126,0.260753,18,32765
6.04971,-4.16577,0.264245,17,32765
6.03599,-4.18536,0.268405,16,32765
6.03862,-4.21632,0.273124,16,32765
5.99215,-4.21272,0.275818,17,32765
5.97813,-4.23233,0.27969,17,32765
5.94777,-4.24025,0.283479,17,32765
5.9501,-4.27104,0.289007,17,32765
5.96053,-4.30753,0.294783,18,32765
5.92227,-4.30889,0.29859,17,32765
5.89179,-4.31635,0.303345,16,32765
0,-0,0,0,32765
0,-0,0,0,32765
0,-0,0,0,32765
0,-0,0,0,32765
0,-0,0,0,32765
0,-0,0,0,32765
0,-0,0,0,32765
0,-0,0,0,32765
0,-0,0,0,32765
0,-0,0,0,32765
0,-0,0,0,32765
2.87936,-1.00556,0.0253621,12,32765
0,-0,0,0,32765
2.78803,-0.993929,0.0245717,12,32765
2.91645,-1.05055,0.0259541,13,32765
2.79075,-1.01585,0.0252538,15,32765
2.89994,-1.06665,0.0262044,16,32765
2.95265,-1.09711,0.0271322,16,32765
2.93963,-1.10336,0.0275539,16,32765
2.96404,-1.12365,0.0277508,16,32765
2.9883,-1.14421,0.0287033,15,32765
2.9192,-1.12888,0.02838,15,32765
3.0552,-1.193,0.0303311,15,32765
3.06984,-1.21043,0.0309099,15,32765
3.06582,-1.22056,0.0315334,15,32765
2.9968,-1.20463,0.0314325,13,32765
2.92789,-1.18832,0.0312633,12,32765
3.01645,-1.23595,0.0327754,14,32765
3.07693,-1.27288,0.034243,14,32765
3.21104,-1.34101,0.0363618,14,32765
3.2618,-1.37508,0.0378194,14,32765
3.27562,-1.39371,0.0388694,15,32765
3.27099,-1.40452,0.0394916,15,32765
3.52315,-1.5268,0.043394,16,32765
3.48129,-1.5227,0.0444426,13,32765
3.55845,-1.57078,0.0463866,14,32765
3.55315,-1.58274,0.0466926,15,32765
3.5478,-1.59465,0.0479065,15,32765
3.68811,-1.67266,0.050768,13,32765
3.72799,-1.70568,0.0526258,13,32765
3.79484,-1.75174,0.0546111,12,32765
7.54168,-3.51184,0.111238,14,32765
7.46644,-3.50744,0.111976,15,32765
7.40036,-3.50681,0.114162,15,32765
7.38847,-3.53171,0.116681,15,32765
7.37653,-3.55648,0.119896,14,32765
7.32871,-3.56342,0.120744,15,32765
7.29864,-3.5794,0.120864,15,32765
7.22373,-3.57299,0.122479,15,32765
7.21155,-3.59745,0.124565,15,32765
7.16356,-3.60383,0.127126,16,32765
7.15126,-3.62809,0.129645,16,32765
7.0588,-3.61126,0.130733,16,32765
7.04674,-3.63461,0.134178,17,32765
7.03453,-3.65808,0.136651,16,32765
7.0044,-3.67249,0.138733,16,32765
6.97427,-3.68666,0.141869,16,32765
6.90855,-3.68237,0.144584,15,32765
6.86967,-3.69132,0.147448,15,32765
6.85731,-3.7142,0.148505,15,32765
6.80981,-3.71772,0.150328,15,32765
6.7973,-3.74044,0.153201,15,32765
6.78484,-3.76289,0.155516,15,32765
6.73734,-3.76587,0.157586,16,32765
6.68984,-3.76868,0.159672,15,32765
6.65111,-3.77613,0.161544,16,32765
6.63824,-3.79861,0.163694,15,32765
6.60823,-3.81061,0.165743,15,32765
6.57821,-3.82245,0.167961,15,32765
6.51364,-3.81395,0.169437,15,32765
6.56975,-3.87624,0.173296,15,32765
6.4708,-3.84704,0.172988,15,32765
6.45802,-3.86833,0.175952,15,32765
6.40229,-3.86392,0.176692,15,32765
6.36375,-3.86954,0.178282,15,32765
6.32536,-3.8748,0.179358,15,32765
6.32938,-3.90633,0.182104,16,32765
6.27402,-3.90066,0.183183,15,32765
6.24413,-3.91067,0.185353,15,32765
6.26494,-3.95261,0.188266,15,32765
6.19283,-3.9356,0.188406,15,32765
6.16288,-3.94529,0.189723,14,32765
6.18363,-3.98687,0.19279,15,32765
6.12044,-3.97401,0.193526,14,32765
6.09087,-3.9827,0.194394,15,32765
6.1113,-4.02434,0.19768,15,32765
6.09804,-4.04434,0.199113,15,32765
6.00156,-4.00877,0.198725,14,32765
5.9881,-4.02878,0.200134,14,32765
5.9747,-4.04851,0.20219,15,32765
5.9036,-4.02854,0.20205,14,32765
5.89044,-4.04768,0.2036,15,32765
5.82803,-4.0325,0.202787,15,32765
5.83136,-4.06266,0.205221,15,32765
5.81818,-4.08146,0.20637,14,32765
5.80496,-4.10018,0.20756,14,32765
5.75087,-4.08999,0.207542,15,32765
5.73766,-4.10845,0.208628,14,32765
5.69211,-4.10327,0.208615,15,32765
5.67096,-4.11543,0.208732,16,32765
5.65788,-4.13339,0.208604,16,32765
0,-0,-0,11,32765
0,-0,-0,0,32765
0,-0,-0,11,32765
0,-0,-0,12,32765
0,-0,-0,0,32765
0,-0,-0,0,32765
0,-0,-0,0,32765
0,-0,-0,0,32765
0,-0,-0,0,32765
0,-0,-0,0,32765
2.81583,-0.975452,-0.003353,12,32765
2.79376,-0.978006,-0.003222,13,32765
2.80003,-0.990309,-0.00340439,15,32765
2.78737,-0.996083,-0.00326037,16,32765
2.8499,-1.02905,-0.00312027,17,32765
2.82764,-1.03176,-0.00270456,17,32765
2.83353,-1.04474,-0.00277965,18,32765
2.83943,-1.0576,-0.00238401,17,32765
2.85463,-1.07406,-0.00190452,16,32765
2.86042,-1.08701,-0.00197279,16,32765
2.85679,-1.09652,-0.00131119,16,32765
2.79718,-1.08433,-0.000991539,16,32765
2.89603,-1.13362,-0.000465524,16,32765
2.92016,-1.15423,-9.31709e-05,16,32765
2.97205,-1.18613,0.000511723,16,32765
2.97736,-1.19975,0.0010799,16,32765
3.01037,-1.22481,0.00162224,15,32765
3.03403,-1.24621,0.00216535,15,32765
3.10369,-1.28713,0.00299115,16,32765
3.15469,-1.32074,0.0036134,18,32765
3.17786,-1.34302,0.00445703,16,32765
3.21017,-1.36925,0.0053309,15,32765
3.17807,-1.36801,0.00589222,15,32765
3.39358,-1.47431,0.0070709,15,32765
3.46181,-1.51796,0.00871896,19,32765
3.50238,-1.54989,0.00971476,18,32765
3.54279,-1.58207,0.0101498,17,32765
3.62861,-1.63506,0.0116561,17,32765
3.73231,-1.69696,0.0129127,17,32765
3.73574,-1.71352,0.0141811,15,32765
4.04757,-1.8731,0.0164148,15,32765
3.95068,-1.8443,0.0173803,14,32765
7.06559,-3.32752,0.0327232,18,32765
7.01821,-3.33413,0.0354074,18,32765
7.0069,-3.3578,0.0378031,18,32765
6.93253,-3.35089,0.0404915,19,32765
6.91236,-3.36952,0.0417971,18,32765
6.9278,-3.40619,0.0423624,19,32765
6.87142,-3.40741,0.0446214,19,32765
6.84191,-3.42178,0.0464903,19,32765
6.79454,-3.42694,0.0492697,19,32765
6.78284,-3.45,0.051666,19,32765
6.7355,-3.45472,0.0538277,19,32765
6.7062,-3.46786,0.0569711,19,32765
6.65909,-3.47177,0.0590178,19,32765
6.64729,-3.49426,0.0613273,19,32765
6.61778,-3.50726,0.0644803,18,32765
6.57036,-3.51117,0.0677514,18,32765
6.54088,-3.52375,0.0708309,18,32765
6.52905,-3.5456,0.0718447,18,32765
6.48213,-3.54804,0.0739254,17,32765
6.47019,-3.56972,0.0766672,18,32765
6.43207,-3.57657,0.0785574,18,32765
6.40266,-3.58817,0.081081,18,32765
6.40801,-3.61939,0.084089,18,32765
6.36979,-3.62592,0.0861441,20,32765
6.33141,-3.63257,0.0878499,18,32765
6.28464,-3.63358,0.0897315,18,32765
6.25521,-3.64437,0.0920136,19,32765
6.26025,-3.6753,0.0949669,18,32765
6.2049,-3.6707,0.0962696,18,32765
6.17538,-3.68119,0.0978835,18,32765
6.16316,-3.70155,0.100721,18,32765
6.1251,-3.70652,0.102134,17,32765
6.06149,-3.69563,0.103475,17,32765
6.04923,-3.71561,0.105198,17,32765
6.01125,-3.71999,0.10691,17,32765
5.99896,-3.73972,0.10912,17,32765
5.98654,-3.75949,0.111683,17,32765
5.95713,-3.7686,0.113188,17,32765
5.91094,-3.76667,0.114386,17,32765
5.89838,-3.78626,0.116145,18,32765
5.88603,-3.80536,0.118086,18,32765
5.85697,-3.81335,0.119965,17,32765
5.81118,-3.81026,0.120621,18,32765
5.77374,-3.81253,0.122203,17,32765
5.74451,-3.8204,0.123208,18,32765
5.70696,-3.82255,0.124898,17,32765
5.70239,-3.84722,0.12643,17,32765
5.65652,-3.84358,0.12765,17,32765
5.62737,-3.85077,0.129019,17,32765
5.59831,-3.85772,0.130123,18,32765
5.5858,-3.87578,0.130989,18,32765
5.55684,-3.88232,0.132386,17,32765
5.51969,-3.88303,0.132899,18,32765
5.50709,-3.90083,0.134035,18,32765
5.49436,-3.91869,0.135422,18,32765
5.4492,-3.91305,0.135659,17,32765
5.43668,-3.93038,0.136783,18,32765
5.40798,-3.93588,0.136778,18,32765
5.33899,-3.91169,0.135235,18,32765
0,-0,-0,0,32765
0,-0,-0,0,32765
0,-0,-0,0,32765
0,-0,-0,0,32765
0,-0,-0,0,32765
0,-0,-0,0,32765
0,-0,-0,0,32765
0,-0,-0,0,32765
0,-0,-0,0,32765
2.55615,-0.869116,-0.0270755,12,32765
2.63833,-0.906958,-0.0267585,15,32765
2.64472,-0.919115,-0.0256948,16,32765
2.50955,-0.881579,-0.0239112,16,32765
2.67624,-0.950133,-0.0242421,16,32765
2.73897,-0.982643,-0.0240707,16,32765
2.70754,-0.981387,-0.0224586,16,32765
2.73246,-1.00064,-0.0219598,15,32765
2.72917,-1.00958,-0.02111,14,32765
2.71648,-1.01506,-0.0201038,16,32765
2.74117,-1.03464,-0.0192917,18,32765
2.7751,-1.05801,-0.0185262,16,32765
2.77148,-1.06746,-0.0177292,15,32765
2.77715,-1.08054,-0.016495,15,32765
2.81999,-1.1083,-0.0160492,15,32765
2.84414,-1.12882,-0.0153025,15,32765
2.8218,-1.13085,-0.0142089,14,32765
2.82725,-1.14412,-0.0133436,15,32765
2.90676,-1.1875,-0.0130139,15,32765
2.97674,-1.2277,-0.0125398,15,32765
3.00953,-1.25307,-0.0115596,14,32765
3.01451,-1.26709,-0.0106107,16,32765
3.1575,-1.33977,-0.0104611,18,32765
3.11621,-1.33463,-0.00904887,14,32765
3.25852,-1.40871,-0.0083788,13,32765
3.32711,-1.45161,-0.0075953,14,32765
3.34047,-1.47095,-0.00707508,13,32765
3.43601,-1.52689,-0.00589886,16,32765
3.49481,-1.5669,-0.00492529,15,32765
3.54424,-1.60326,-0.0038836,15,32765
3.65704,-1.66927,-0.00270284,15,32765
3.59682,-1.65664,-0.00180123,15,32765
3.99923,-1.85856,-0.000701821,14,32765
3.9658,-1.85925,0.000419453,15,32765
4.00485,-1.8937,0.00212524,14,32765
6.89579,-3.28901,0.00420535,17,32765
6.87584,-3.30752,0.00644348,17,32765
6.82874,-3.31305,0.00925907,16,32765
6.81746,-3.3362,0.0088729,16,32765
6.7435,-3.32799,0.0105435,16,32765
6.71435,-3.34175,0.0140463,16,32765
6.66747,-3.34608,0.0152346,16,32765
6.63845,-3.35921,0.0171958,16,32765
6.60924,-3.37254,0.0195668,16,32765
6.59769,-3.39506,0.0215511,16,32765
6.56826,-3.40844,0.0235607,16,32765
6.5124,-3.4074,0.0263605,16,32765
6.51863,-3.43854,0.0289976,15,32765
6.50708,-3.46033,0.031165,16,32765
6.47741,-3.47339,0.0351123,15,32765
6.44826,-3.48533,0.0369547,16,32765
6.39259,-3.48305,0.0394225,14,32765
6.34584,-3.48513,0.0413807,15,32765
6.3341,-3.50641,0.0437318,14,32765
6.30494,-3.51767,0.0457929,15,32765
6.31065,-3.54838,0.0482977,14,32765
6.28158,-3.55916,0.0506465,15,32765
6.24357,-3.56528,0.0526147,15,32765
6.19703,-3.56598,0.0553403,15,32765
6.15053,-3.56648,0.0576356,15,32765
6.1214,-3.57673,0.0599086,15,32765
6.08348,-3.58204,0.062078,15,32765
6.09724,-3.61766,0.0654929,15,32765
6.05943,-3.62248,0.0678518,15,32765
6.03021,-3.63224,0.0704674,15,32765
6.00111,-3.64166,0.0732044,15,32765
5.98905,-3.66141,0.076039,15,32765
5.97697,-3.68103,0.0788693,15,32765
5.96483,-3.7006,0.0819907,15,32765
5.95275,-3.71993,0.0855679,15,32765
5.90667,-3.71804,0.0881312,15,32765
5.84383,-3.70511,0.090527,15,32765
5.84829,-3.73529,0.0932695,15,32765
5.86966,-3.77598,0.0974617,15,32765
5.78169,-3.74622,0.0995418,15,32765
5.76935,-3.76512,0.10292,15,32765
5.75687,-3.78407,0.106367,15,32765
5.74425,-3.8031,0.110142,15,32765
5.69832,-3.79987,0.112453,15,32765
5.66913,-3.80742,0.115732,15,32765
5.68974,-3.84829,0.120058,15,32765
5.61115,-3.82153,0.12242,15,32765
5.61515,-3.851,0.126543,14,32765
5.6026,-3.86911,0.130188,15,32765
5.57356,-3.87576,0.134034,15,32765
5.57714,-3.90543,0.138757,15,32765
5.54796,-3.91203,0.142094,15,32765
5.55126,-3.94182,0.147043,16,32765
5.53832,-3.95981,0.151656,15,32765
5.49285,-3.95441,0.155323,15,32765
5.49624,-3.98367,0.160795,15,32765
5.46717,-3.98943,0.165463,16,32765
0,-0,-0,0,32765
0,-0,-0,0,32765
0,-0,-0,0,32765
0,-0,-0,0,32765
0,-0,-0,0,32765
0,-0,-0,0,32765
0,-0,-0,0,32765
2.4375,-0.812919,-0.0517028,16,32765
2.51062,-0.846493,-0.0525285,17,32765
2.5551,-0.871034,-0.0524519,18,32765
2.58053,-0.889411,-0.0518401,19,32765
2.5681,-0.894821,-0.0505223,18,32765
2.58395,-0.910091,-0.0503781,18,32765
2.64686,-0.942163,-0.0503903,19,32765
2.57787,-0.92727,-0.0484093,15,32765
2.66881,-0.96988,-0.0488297,13,32765
2.71253,-0.995942,-0.0489599,11,32765
2.79363,-1.03614,-0.0496126,11,32765
2.69658,-1.01026,-0.0470188,12,32765
2.64647,-1.00152,-0.0452156,12,32765
2.67115,-1.02105,-0.0447025,11,32765
0,-0,-0,0,32765
0,-0,-0,0,32765
2.69779,-1.06306,-0.0425931,12,32765
2.75925,-1.098,-0.0427404,16,32765
2.79269,-1.12213,-0.0423303,15,32765
2.80743,-1.13909,-0.0417035,15,32765
2.84066,-1.16355,-0.0415446,16,32765
2.99384,-1.23801,-0.0430322,16,32765
2.92508,-1.22112,-0.0409958,17,32765
3.01309,-1.26984,-0.0413024,16,32765
3.02718,-1.28787,-0.0409111,15,32765
3.07796,-1.32174,-0.0403799,15,32765
3.2019,-1.3879,-0.0409863,15,32765
3.20639,-1.40265,-0.0401637,15,32765
3.30223,-1.45798,-0.0408672,15,32765
3.4343,-1.53019,-0.0411732,15,32765
3.50217,-1.57439,-0.0409602,17,32765
3.51512,-1.59433,-0.0400605,16,32765
3.60971,-1.65207,-0.0399049,17,32765
3.61312,-1.6686,-0.0391365,15,32765
3.88838,-1.81188,-0.0409129,14,32765
3.97276,-1.86751,-0.0407441,13,32765
4.02983,-1.91063,-0.039678,20,32765
6.58537,-3.14941,-0.0644212,18,32765
6.53886,-3.1539,-0.0619277,19,32765
6.48331,-3.15394,-0.0587891,18,32765
6.45459,-3.16717,-0.0589846,18,32765
6.42602,-3.17992,-0.0571437,19,32765
6.3974,-3.19264,-0.053613,19,32765
6.38674,-3.21392,-0.052396,19,32765
6.35817,-3.22615,-0.0503248,19,32765
6.33832,-3.24312,-0.0479288,19,32765
6.30055,-3.25102,-0.0458246,19,32765
6.28048,-3.26803,-0.0437755,18,32765
6.2517,-3.27997,-0.0408039,18,32765
6.21414,-3.28693,-0.0381777,17,32765
6.18544,-3.29835,-0.0360014,17,32765
6.15636,-3.31033,-0.032059,17,32765
6.14534,-3.33077,-0.0302048,18,32765
6.07267,-3.31789,-0.027311,17,32765
6.03525,-3.32373,-0.0251168,16,32765
6.05027,-3.35858,-0.0229728,17,32765
6.02162,-3.36893,-0.0208151,17,32765
5.99296,-3.37913,-0.0184889,17,32765
5.94706,-3.37902,-0.016024,18,32765
5.90099,-3.37907,-0.0138635,18,32765
5.90707,-3.40864,-0.0110195,18,32765
5.86111,-3.40818,-0.00846482,17,32765
5.84977,-3.42761,-0.00613009,18,32765
5.81237,-3.43203,-0.00378015,18,32765
5.80083,-3.4515,-0.000774345,18,32765
5.77217,-3.46049,0.00174689,18,32765
5.7435,-3.46933,0.0044239,18,32765
5.73204,-3.48823,0.00723734,18,32765
5.72048,-3.50715,0.00995278,18,32765
5.6919,-3.51543,0.0126264,18,32765
5.64634,-3.51299,0.0155137,18,32765
5.63488,-3.53133,0.0189079,18,32765
5.60636,-3.53909,0.0217548,18,32765
5.59477,-3.55736,0.0247818,18,32765
5.55761,-3.55981,0.0270355,18,32765
5.52911,-3.56713,0.0304044,18,32765
5.53414,-3.59614,0.0336989,18,32765
5.50555,-3.60332,0.0368285,18,32765
5.47692,-3.61045,0.0400047,18,32765
5.46488,-3.6286,0.0436047,18,32765
5.45281,-3.64669,0.0464361,18,32765
5.42415,-3.65346,0.0497545,19,32765
5.42869,-3.68239,0.0533966,19,32765
5.38373,-3.67732,0.0566868,18,32765
5.40467,-3.71746,0.0606652,18,32765
5.35968,-3.71216,0.0637901,18,32765
5.33118,-3.71806,0.0676478,18,32765
5.31891,-3.73551,0.071785,18,32765
5.29032,-3.7413,0.0751428,18,32765
5.26975,-3.75292,0.0793373,18,32765
5.25744,-3.77004,0.0837255,18,32765
5.26939,-3.8047,0.0884948,18,32765
5.24091,-3.8098,0.0930117,18,32765
5.26086,-3.8502,0.0985431,18,32765
0,-0,-0,0,32765
0,-0,-0,0,32765
0,-0,-0,0,32765
2.54357,-0.810121,-0.0536546,11,32765
0,-0,-0,0,32765
0,-0,-0,0,32765
2.48794,-0.819569,-0.053425,12,32765
2.57055,-0.856318,-0.0554143,13,32765
2.49194,-0.83921,-0.0534454,16,32765
2.55541,-0.869965,-0.055011,16,32765
2.49587,-0.858705,-0.0535018,17,32765
2.52138,-0.876681,-0.0543167,17,32765
2.49962,-0.878392,-0.0531544,17,32765
2.55318,-0.906876,-0.0542686,16,32765
2.47482,-0.888488,-0.0525136,15,32765
2.6786,-0.971814,-0.0565516,12,32765
0,-0,-0,0,32765
0,-0,-0,0,32765
2.74381,-1.02623,-0.0571819,12,32765
0,-0,-0,0,32765
0,-0,-0,0,32765
0,-0,-0,0,32765
0,-0,-0,0,32765
0,-0,-0,0,32765
0,-0,-0,0,32765
2.77484,-1.11237,-0.0545967,14,32765
2.7155,-1.09914,-0.0531917,15,32765
2.81364,-1.14982,-0.0544511,14,32765
2.84676,-1.17448,-0.0544748,15,32765
2.92581,-1.21879,-0.0555997,15,32765
3.01384,-1.26746,-0.0565451,17,32765
2.94513,-1.2503,-0.0544805,14,32765
3.04204,-1.30345,-0.0555569,15,32765
3.14784,-1.36117,-0.0569414,14,32765
3.17993,-1.38769,-0.0568726,13,32765
3.22103,-1.41851,-0.0563637,14,32765
