x, y, z, intensity, ring
1.36993,0.0727644,-0.149651,20,32765
1.37014,0.0681963,-0.149909,19,32765
1.37032,0.0636375,-0.150278,19,32765
1.35063,0.0581769,-0.1484,19,32765
1.32097,0.0524929,-0.145509,20,32765
1.35092,0.0491315,-0.149045,19,32765
1.33117,0.0439253,-0.14715,20,32765
1.34121,0.0398317,-0.148515,20,32765
1.33137,0.0350682,-0.147758,21,32765
1.33143,0.0306451,-0.148149,20,32765
1.34143,0.0263898,-0.149575,20,32765
1.34148,0.0219146,-0.149865,20,32765
1.33157,0.0172952,-0.149093,20,32765
1.34151,0.0129435,-0.150621,19,32765
1.33157,0.00851159,-0.149797,20,32765
1.32161,0.0040644,-0.149079,20,32765
1.32155,-0.000277004,-0.149665,19,32765
1.34139,-0.0046741,-0.152134,19,32765
1.33138,-0.00901606,-0.151501,19,32765
1.34121,-0.0134543,-0.153204,19,32765
1.36098,-0.0181721,-0.155885,19,32765
1.57619,0.529525,-0.155305,20,32765
1.54948,0.51488,-0.153636,19,32765
1.56053,0.512827,-0.155714,20,32765
1.53371,0.498452,-0.153876,20,32765
1.55422,0.499428,-0.156717,20,32765
1.55581,0.494167,-0.157672,20,32765
1.53837,0.48299,-0.156624,19,32765
1.51137,0.469014,-0.154539,19,32765
1.54138,0.472759,-0.158264,20,32765
1.52379,0.46191,-0.157188,19,32765
1.51569,0.454027,-0.156955,19,32765
1.4885,0.440515,-0.154613,19,32765
1.49943,0.438318,-0.156458,20,32765
1.48173,0.427746,-0.154995,19,32765
1.4735,0.420027,-0.154822,19,32765
1.46528,0.412249,-0.154616,19,32765
1.44745,0.401931,-0.153082,19,32765
1.43915,0.394371,-0.152693,20,32765
1.4404,0.389522,-0.153332,20,32765
1.46085,0.389854,-0.15598,20,32765
1.44285,0.379887,-0.154468,20,32765
1.46331,0.380036,-0.157132,19,32765
1.42599,0.365201,-0.15356,19,32765
1.44646,0.365184,-0.15618,20,32765
1.41868,0.35306,-0.153636,20,32765
1.41984,0.348137,-0.154123,20,32765
1.42096,0.343302,-0.154683,20,32765
1.42207,0.338451,-0.155162,20,32765
1.43284,0.335901,-0.156697,20,32765
1.39514,0.322169,-0.152969,20,32765
1.41555,0.321898,-0.155569,19,32765
1.40686,0.314998,-0.155015,19,32765
1.39818,0.30805,-0.15426,19,32765
1.40891,0.305329,-0.155715,20,32765
1.40019,0.298377,-0.155049,20,32765
1.39144,0.291509,-0.15432,20,32765
1.4021,0.288815,-0.155859,20,32765
1.38353,0.280151,-0.1541,19,32765
1.38443,0.275422,-0.154556,20,32765
1.39508,0.272642,-0.155937,20,32765
1.38621,0.265969,-0.15519,20,32765
1.3773,0.25936,-0.154527,20,32765
1.37816,0.254617,-0.15475,20,32765
1.36919,0.248095,-0.15413,20,32765
1.37,0.243455,-0.154364,21,32765
1.38057,0.240454,-0.155907,20,32765
1.36176,0.232455,-0.153908,20,32765
1.3723,0.229464,-0.155333,20,32765
1.38284,0.226389,-0.156884,20,32765
1.37377,0.22009,-0.15596,20,32765
1.37448,0.215333,-0.156324,19,32765
1.37518,0.210562,-0.156693,20,32765
1.35622,0.202846,-0.15468,20,32765
1.35687,0.198138,-0.155056,20,32765
1.35751,0.193511,-0.155285,20,32765
1.36798,0.19019,-0.156701,21,32765
1.36858,0.185543,-0.157083,21,32765
1.35935,0.179578,-0.155975,20,32765
1.35005,0.173639,-0.155308,20,32765
1.3506,0.169084,-0.155561,20,32765
1.361,0.165662,-0.156916,20,32765
1.35166,0.159908,-0.156068,20,32765
1.34228,0.154225,-0.155229,20,32765
1.34276,0.149637,-0.155562,20,32765
1.34324,0.145064,-0.155759,20,32765
1.35357,0.141464,-0.157236,21,32765
1.33424,0.134881,-0.155242,20,32765
1.34455,0.131315,-0.156632,20,32765
1.32518,0.124876,-0.154571,20,32765
1.31567,0.119529,-0.153674,21,32765
1.29623,0.11328,-0.151803,20,32765
1.31639,0.110526,-0.154319,20,32765
1.30682,0.105238,-0.153461,20,32765
1.32694,0.102303,-0.15605,20,32765
1.30745,0.0963371,-0.15393,20,32765
1.31765,0.0925761,-0.155341,20,32765
1.2981,0.0868201,-0.153259,21,32765
1.30826,0.0830675,-0.154787,20,32765
1.30851,0.0786425,-0.154966,20,32765
1.2889,0.073164,-0.152936,21,32765
1.29903,0.0693095,-0.154335,21,32765
1.29922,0.0649658,-0.15458,20,32765
1.29939,0.060631,-0.15493,21,32765
1.28963,0.0558228,-0.154034,20,32765
1.28977,0.0515142,-0.154407,20,32765
1.27006,0.0464364,-0.152271,20,32765
1.27018,0.0421463,-0.152555,20,32765
1.30998,0.0391329,-0.157582,20,32765
1.30013,0.0344608,-0.156724,20,32765
1.3002,0.0301296,-0.157107,20,32765
1.30025,0.0257712,-0.157416,20,32765
1.3003,0.0214213,-0.157698,19,32765
1.28047,0.0167964,-0.155616,19,32765
1.31025,0.0127987,-0.15964,19,32765
1.28047,0.00832664,-0.156293,20,32765
1.29037,0.00409938,-0.157895,20,32765
1.2506,-0.000146232,-0.153591,19,32765
1.27042,-0.00432062,-0.156237,19,32765
1.30012,-0.00870737,-0.16038,20,32765
1.29009,-0.0128567,-0.159707,19,32765
1.28999,-0.0171512,-0.160097,20,32765
1.54516,0.520778,-0.17571,20,32765
1.59406,0.531342,-0.180936,19,32765
1.60524,0.529155,-0.182177,19,32765
1.56916,0.511527,-0.177985,18,32765
1.57083,0.506318,-0.178164,19,32765
1.55357,0.494947,-0.176211,17,32765
1.54572,0.486722,-0.175342,18,32765
1.54733,0.481464,-0.175716,18,32765
1.52043,0.467451,-0.172608,18,32765
1.55049,0.471018,-0.176119,19,32765
1.53299,0.460075,-0.174307,18,32765
1.49635,0.443606,-0.170406,18,32765
1.50736,0.441322,-0.171789,18,32765
1.5088,0.43621,-0.172207,18,32765
1.51023,0.431123,-0.172487,18,32765
1.51165,0.42598,-0.172814,19,32765
1.50347,0.418191,-0.172064,19,32765
1.49522,0.410533,-0.171388,18,32765
1.49654,0.405476,-0.171881,18,32765
1.47866,0.395327,-0.169968,18,32765
1.48959,0.392777,-0.171352,18,32765
1.48125,0.385178,-0.170722,19,32765
1.47288,0.377654,-0.170048,19,32765
1.46448,0.370174,-0.169288,19,32765
1.46569,0.365275,-0.169485,19,32765
1.49582,0.367385,-0.173359,19,32765
1.45836,0.353024,-0.169289,19,32765
1.45949,0.348111,-0.16976,19,32765
1.46064,0.343125,-0.17,19,32765
1.4521,0.3358,-0.169257,18,32765
1.43385,0.326244,-0.167483,19,32765
1.43492,0.321277,-0.167903,18,32765
1.44567,0.318465,-0.169475,19,32765
1.44671,0.313519,-0.169812,19,32765
1.43801,0.306536,-0.169027,19,32765
1.439,0.301614,-0.16944,19,32765
1.44971,0.2987,-0.17091,19,32765
1.44093,0.291766,-0.17031,19,32765
1.4224,0.282993,-0.168238,19,32765
1.42331,0.278119,-0.168647,19,32765
1.43397,0.275066,-0.170209,19,32765
1.43486,0.27016,-0.170525,19,32765
1.43572,0.265256,-0.171047,19,32765
1.43658,0.260371,-0.171343,19,32765
1.42764,0.253751,-0.170446,19,32765
1.39911,0.243693,-0.167308,19,32765
1.41948,0.242246,-0.170005,19,32765
1.41046,0.235732,-0.16921,19,32765
1.43082,0.234076,-0.171918,19,32765
1.41197,0.226047,-0.169792,19,32765
1.40289,0.21962,-0.169,19,32765
1.40359,0.214855,-0.169312,19,32765
1.39448,0.208512,-0.168392,19,32765
1.39514,0.203697,-0.168769,19,32765
1.40563,0.200305,-0.170226,19,32765
1.37677,0.191364,-0.167005,19,32765
1.41674,0.192057,-0.171942,19,32765
1.39765,0.184688,-0.169857,19,32765
1.38839,0.178701,-0.168921,19,32765
1.3988,0.175267,-0.170386,19,32765
1.38952,0.169288,-0.169363,19,32765
1.3802,0.163375,-0.16841,19,32765
1.361,0.156419,-0.166177,19,32765
1.34177,0.149613,-0.163937,19,32765
1.37186,0.148303,-0.167655,20,32765
1.35258,0.141535,-0.165542,20,32765
1.36292,0.137911,-0.166786,19,32765
1.36335,0.133243,-0.16708,20,32765
1.38357,0.13042,-0.169487,20,32765
1.34444,0.122152,-0.164786,19,32765
1.35473,0.118441,-0.166068,19,32765
1.365,0.114672,-0.167415,19,32765
1.34558,0.108468,-0.165097,19,32765
1.34593,0.103916,-0.165181,19,32765
1.33635,0.0986574,-0.164124,20,32765
1.33667,0.0941441,-0.164132,20,32765
1.32708,0.0889658,-0.162919,20,32765
1.33728,0.0851459,-0.164105,20,32765
1.33755,0.080636,-0.164185,20,32765
1.34771,0.0768017,-0.165472,20,32765
1.32814,0.0712449,-0.162985,20,32765
1.32836,0.0668345,-0.163054,20,32765
1.34842,0.0633274,-0.165368,20,32765
1.32879,0.0579455,-0.162966,20,32765
1.32899,0.0534831,-0.16283,20,32765
1.33908,0.0493782,-0.164068,20,32765
1.34918,0.0452115,-0.165169,19,32765
1.32949,0.0400474,-0.162633,19,32765
1.37923,0.0368746,-0.168682,19,32765
1.31985,0.0309131,-0.16106,19,32765
1.34972,0.0270772,-0.164673,19,32765
1.32997,0.0222749,-0.162117,18,32765
1.32013,0.0177696,-0.160786,19,32765
1.32019,0.0134199,-0.160676,19,32765
1.32027,0.00907673,-0.160315,19,32765
1.31039,0.00459608,-0.158914,19,32765
1.31044,0.000251588,-0.158609,19,32765
1.31045,-0.00406834,-0.158428,19,32765
1.31048,-0.00845149,-0.157996,19,32765
1.33034,-0.0130522,-0.160093,19,32765
1.34028,-0.0176775,-0.16076,19,32765
1.51478,0.512249,-0.187502,18,32765
1.54475,0.51663,-0.190871,19,32765
1.51816,0.502123,-0.187541,21,32765
1.54812,0.506356,-0.191131,20,32765
1.52142,0.492034,-0.18781,20,32765
1.52307,0.486851,-0.188001,19,32765
1.50574,0.475716,-0.185868,20,32765
1.51679,0.473538,-0.187404,20,32765
1.4899,0.459596,-0.184016,20,32765
1.48191,0.451687,-0.183108,19,32765
1.49289,0.449538,-0.184623,20,32765
1.47531,0.43883,-0.182696,20,32765
1.46723,0.431011,-0.181809,20,32765
1.44003,0.41772,-0.178667,20,32765
1.45095,0.415585,-0.180121,19,32765
1.45232,0.410629,-0.180436,19,32765
1.43454,0.400352,-0.178392,20,32765
1.45496,0.400817,-0.181181,20,32765
1.46584,0.398486,-0.182856,19,32765
1.44795,0.388414,-0.180752,20,32765
1.42045,0.375804,-0.17743,20,32765
1.42168,0.370928,-0.177887,20,32765
1.42289,0.366061,-0.178309,20,32765
1.41447,0.358733,-0.177444,20,32765
1.42527,0.356396,-0.178844,19,32765
1.42642,0.351519,-0.17935,20,32765
1.41789,0.344385,-0.178531,20,32765
1.40934,0.337284,-0.177773,20,32765
1.41046,0.332455,-0.178006,20,32765
1.39222,0.323042,-0.175936,20,32765
1.40298,0.320302,-0.177631,21,32765
1.39435,0.313252,-0.176815,20,32765
1.38568,0.306287,-0.176008,20,32765
1.39638,0.303641,-0.177565,20,32765
1.38766,0.296811,-0.176675,20,32765
1.38862,0.292047,-0.177075,21,32765
1.37985,0.285278,-0.176147,20,32765
1.39048,0.282516,-0.177916,20,32765
1.37194,0.273893,-0.17565,21,32765
1.3923,0.272996,-0.178542,21,32765
1.3737,0.264414,-0.176436,21,32765
1.36481,0.257859,-0.175487,21,32765
1.38513,0.256798,-0.178498,22,32765
1.36644,0.24852,-0.176266,20,32765
1.37702,0.245605,-0.177786,20,32765
1.36804,0.239113,-0.176882,20,32765
1.36881,0.234418,-0.177226,20,32765
1.35978,0.228061,-0.176326,20,32765
1.3703,0.224966,-0.177937,20,32765
1.36124,0.218697,-0.176889,20,32765
1.35215,0.212429,-0.17599,20,32765
1.37243,0.210835,-0.178846,20,32765
1.3437,0.201639,-0.175269,20,32765
1.35415,0.198423,-0.176915,21,32765
1.35479,0.193758,-0.177174,20,32765
1.33577,0.186339,-0.174947,20,32765
1.33637,0.181822,-0.175103,20,32765
1.32711,0.176009,-0.174104,21,32765
1.32766,0.171514,-0.174354,21,32765
1.31836,0.1658,-0.173315,21,32765
1.3189,0.161283,-0.173483,21,32765
1.30956,0.155596,-0.172425,20,32765
1.32977,0.153406,-0.175187,21,32765
1.3204,0.14779,-0.174056,21,32765
1.29131,0.140129,-0.170255,20,32765
1.30161,0.136727,-0.171843,21,32765
1.32179,0.134269,-0.174482,21,32765
1.30247,0.127793,-0.172159,21,32765
1.29303,0.122368,-0.170842,20,32765
1.29342,0.117987,-0.170978,20,32765
1.30369,0.114439,-0.172351,20,32765
1.28429,0.108333,-0.169868,20,32765
1.3044,0.105584,-0.172587,21,32765
1.30474,0.101158,-0.172669,21,32765
1.28528,0.0952906,-0.170204,21,32765
1.30537,0.0923363,-0.172831,20,32765
1.2859,0.0865829,-0.170216,20,32765
1.30597,0.0835234,-0.172806,20,32765
1.33592,0.0809043,-0.176813,20,32765
1.32628,0.0759314,-0.175573,20,32765
1.30673,0.0704296,-0.1729,20,32765
1.29705,0.0655772,-0.171659,20,32765
1.30718,0.0616983,-0.172853,20,32765
1.29747,0.0568728,-0.171573,20,32765
1.30758,0.0529037,-0.17275,20,32765
1.29784,0.0481252,-0.171463,20,32765
1.27819,0.0430841,-0.168737,20,32765
1.28825,0.0390457,-0.169942,20,32765
1.27847,0.0344069,-0.168617,20,32765
1.27862,0.0301613,-0.168287,20,32765
1.2688,0.0256538,-0.166963,20,32765
1.27881,0.0216074,-0.168139,20,32765
1.27889,0.0173917,-0.168022,20,32765
1.27896,0.0131657,-0.167915,20,32765
1.26912,0.00887655,-0.166267,20,32765
1.27909,0.00462646,-0.167375,20,32765
1.2593,0.000367614,-0.164487,20,32765
1.25932,-0.00379573,-0.164313,19,32765
1.25935,-0.00802022,-0.163898,20,32765
1.26927,-0.0123631,-0.164906,20,32765
1.25937,-0.0165337,-0.163122,20,32765
1.56288,0.527029,-0.187737,20,32765
1.57385,0.52507,-0.190285,19,32765
1.55654,0.513724,-0.189115,19,32765
1.56753,0.511625,-0.191578,18,32765
1.59741,0.51561,-0.196259,18,32765
1.53275,0.489161,-0.189224,18,32765
1.57211,0.49606,-0.194941,18,32765
1.56414,0.487893,-0.194781,19,32765
1.52766,0.470981,-0.191097,18,32765
1.53861,0.468818,-0.193086,18,32765
1.53057,0.460745,-0.19279,18,32765
1.50346,0.447067,-0.190097,18,32765
1.49536,0.439086,-0.189716,19,32765
1.49677,0.433899,-0.190547,19,32765
1.50769,0.431533,-0.192473,18,32765
1.48038,0.418279,-0.189778,18,32765
1.49126,0.415911,-0.191709,19,32765
1.50212,0.413521,-0.193747,19,32765
1.49386,0.405848,-0.193087,18,32765
1.47594,0.39572,-0.191343,19,32765
1.48679,0.393235,-0.193187,19,32765
1.4784,0.385753,-0.192709,19,32765
1.46998,0.378392,-0.192003,18,32765
1.49042,0.378309,-0.195034,19,32765
1.48196,0.370898,-0.194462,19,32765
1.46389,0.360992,-0.192638,19,32765
1.47469,0.358272,-0.194506,19,32765
1.45657,0.348579,-0.192372,19,32765
1.45769,0.343568,-0.192898,19,32765
1.44911,0.336376,-0.192185,19,32765
1.45987,0.333599,-0.19391,19,32765
1.43189,0.322085,-0.190638,19,32765
1.42325,0.315065,-0.189697,19,32765
1.43396,0.312259,-0.191449,19,32765
1.44465,0.309423,-0.193239,19,32765
1.39715,0.294133,-0.187241,19,32765
1.41753,0.293309,-0.190182,19,32765
1.40876,0.286453,-0.189343,19,32765
1.40969,0.281588,-0.189716,19,32765
1.43006,0.280567,-0.192632,20,32765
1.4407,0.277542,-0.194329,19,32765
1.41235,0.267109,-0.190845,20,32765
1.39372,0.258699,-0.18847,18,32765
1.40431,0.255699,-0.19008,19,32765
1.41489,0.252593,-0.191777,19,32765
1.41572,0.247708,-0.192066,19,32765
1.40675,0.241148,-0.191063,19,32765
1.41729,0.238035,-0.192659,19,32765
1.41808,0.233188,-0.192831,19,32765
1.39927,0.225171,-0.190399,19,32765
1.40981,0.221768,-0.19196,19,32765
1.38116,0.212306,-0.188231,19,32765
1.38185,0.207537,-0.188432,19,32765
1.34329,0.197093,-0.183342,19,32765
1.38317,0.198155,-0.188905,20,32765
1.33475,0.186537,-0.182344,20,32765
1.37463,0.187233,-0.187983,20,32765
1.36543,0.181138,-0.186793,20,32765
1.37583,0.177685,-0.188447,19,32765
1.36658,0.171764,-0.18727,19,32765
1.35729,0.165928,-0.186104,19,32765
1.35783,0.161312,-0.186247,20,32765
1.33864,0.154452,-0.18383,20,32765
1.35883,0.15206,-0.186674,20,32765
1.32976,0.144202,-0.182862,20,32765
1.33022,0.139611,-0.183097,20,32765
1.36025,0.138026,-0.187297,19,32765
1.3114,0.128557,-0.180588,20,32765
1.34137,0.126882,-0.184979,19,32765
1.32204,0.120566,-0.182446,20,32765
1.352,0.118683,-0.186874,19,32765
1.34248,0.113266,-0.185819,19,32765
1.34284,0.108759,-0.185848,19,32765
1.36293,0.105723,-0.188831,19,32765
1.3336,0.0989054,-0.184985,19,32765
1.35367,0.0957737,-0.187881,19,32765
1.33418,0.089839,-0.185421,18,32765
1.31469,0.0841011,-0.182812,19,32765
1.32481,0.0802994,-0.184485,19,32765
1.33493,0.0764469,-0.186068,19,32765
1.32524,0.0714452,-0.185001,19,32765
1.32543,0.0669537,-0.185331,19,32765
1.31573,0.062019,-0.184129,19,32765
1.306,0.0571222,-0.183031,19,32765
1.30614,0.0527203,-0.183353,19,32765
1.32605,0.0490566,-0.186475,19,32765
1.31626,0.0442555,-0.185465,20,32765
1.32625,0.0401832,-0.18719,20,32765
1.31645,0.0354924,-0.186038,19,32765
1.30662,0.0309012,-0.18491,20,32765
1.31654,0.0266556,-0.186821,19,32765
1.32649,0.0223647,-0.188484,19,32765
1.33641,0.0180357,-0.190209,19,32765
1.31659,0.0133803,-0.187881,19,32765
1.32647,0.00914543,-0.189745,19,32765
1.33634,0.00481726,-0.191522,18,32765
1.34617,0.000420965,-0.193486,18,32765
1.35599,-0.00408886,-0.195408,17,32765
1.37568,-0.00877347,-0.198822,17,32765
1.40524,-0.0136624,-0.203767,16,32765
1.48426,-0.0193301,-0.215871,14,32765
1.72042,0.582126,-0.224005,12,32765
1.62801,0.544989,-0.213233,14,32765
1.51659,0.502243,-0.199524,19,32765
1.52752,0.500267,-0.202048,20,32765
1.51957,0.492158,-0.201962,18,32765
1.52106,0.487089,-0.20305,17,32765
1.4847,0.470081,-0.198993,20,32765
1.49559,0.468108,-0.201232,21,32765
1.48753,0.460179,-0.200971,20,32765
1.48894,0.45524,-0.201748,19,32765
1.46188,0.441579,-0.19875,19,32765
1.44425,0.430937,-0.197035,20,32765
1.43612,0.42314,-0.19653,21,32765
1.43747,0.418143,-0.19733,21,32765
1.46738,0.421442,-0.201945,20,32765
1.45915,0.413702,-0.201581,20,32765
1.42227,0.398039,-0.196986,21,32765
1.45216,0.401151,-0.201735,20,32765
1.42475,0.388413,-0.198303,19,32765
1.42594,0.38364,-0.199011,17,32765
1.62831,0.432158,-0.22772,14,32765
1.47625,0.386532,-0.207056,17,32765
1.41989,0.366767,-0.199517,20,32765
1.43065,0.364403,-0.201367,20,32765
1.41256,0.354759,-0.199319,20,32765
1.42331,0.352209,-0.201359,20,32765
1.40519,0.34258,-0.199211,20,32765
1.42557,0.342356,-0.202341,20,32765
1.43631,0.339717,-0.204228,20,32765
1.41808,0.33033,-0.202041,19,32765
1.39985,0.321009,-0.199718,20,32765
1.39119,0.314033,-0.198906,20,32765
1.38254,0.307133,-0.197863,20,32765
1.39321,0.304458,-0.199696,20,32765
1.37481,0.295509,-0.197396,20,32765
1.39515,0.294756,-0.200663,20,32765
1.39612,0.289907,-0.201,20,32765
1.37764,0.281125,-0.198662,20,32765
1.36885,0.274408,-0.197626,17,32765
1.36974,0.269696,-0.197915,20,32765
1.38033,0.266868,-0.199689,21,32765
1.37144,0.260307,-0.198726,21,32765
1.35282,0.252014,-0.196158,20,32765
1.37311,0.250923,-0.199267,20,32765
1.37392,0.246169,-0.199633,21,32765
1.36497,0.239699,-0.198498,20,32765
1.35599,0.233296,-0.19739,21,32765
1.35674,0.228699,-0.197649,21,32765
1.31842,0.217599,-0.192123,22,32765
1.3289,0.214637,-0.193762,21,32765
1.3394,0.211472,-0.195406,21,32765
1.3401,0.206761,-0.195669,22,32765
1.33099,0.200645,-0.194435,21,32765
1.32184,0.194672,-0.193257,21,32765
1.32246,0.190172,-0.193459,21,32765
1.33289,0.186983,-0.19503,22,32765
1.31389,0.179641,-0.192427,21,32765
1.31449,0.175047,-0.192575,22,32765
1.29541,0.167943,-0.189993,21,32765
1.29596,0.163519,-0.190154,21,32765
1.3063,0.160317,-0.19177,21,32765
1.31665,0.157033,-0.193351,21,32765
1.31713,0.15257,-0.193629,21,32765
1.30779,0.14693,-0.192321,20,32765
1.30825,0.142438,-0.192563,20,32765
1.31855,0.138945,-0.194245,20,32765
1.30916,0.133383,-0.192922,20,32765
1.30959,0.128909,-0.192999,20,32765
1.30013,0.123492,-0.191857,20,32765
1.29066,0.1182,-0.190586,20,32765
1.28115,0.112942,-0.189457,20,32765
1.32091,0.111927,-0.195592,20,32765
1.2917,0.105073,-0.191241,20,32765
1.29201,0.100666,-0.191479,20,32765
1.27258,0.0948033,-0.188803,20,32765
1.27288,0.0904681,-0.188949,20,32765
1.27314,0.0861264,-0.189219,20,32765
1.29314,0.0831142,-0.192289,20,32765
1.2835,0.0781714,-0.191111,21,32765
1.28372,0.0738779,-0.191309,20,32765
1.27404,0.0690331,-0.190138,20,32765
1.27422,0.0647026,-0.190455,20,32765
1.31392,0.0622669,-0.196542,20,32765
1.29432,0.0569269,-0.193871,20,32765
1.28458,0.0521505,-0.192708,19,32765
1.30446,0.0485501,-0.196012,20,32765
1.2848,0.043473,-0.193414,20,32765
1.30465,0.0397959,-0.196715,20,32765
1.27509,0.034626,-0.192482,20,32765
1.28504,0.0306291,-0.194241,20,32765
1.30483,0.0266477,-0.197734,20,32765
1.29499,0.0220484,-0.196489,18,32765
1.33456,0.0182188,-0.202807,17,32765
1.32465,0.0136562,-0.201798,15,32765
1.35427,0.00952277,-0.206776,14,32765
1.3147,0.00490696,-0.201095,13,32765
1.3937,0.000600468,-0.213755,12,32765
0,-0,-0,12,32765
1.42316,-0.00893548,-0.219408,12,32765
1.42302,-0.0137081,-0.220071,12,32765
1.39323,-0.0180333,-0.216072,15,32765
0,0,-0,0,32765
0,0,-0,0,32765
0,0,-0,0,32765
0,0,-0,0,32765
0,0,-0,0,32765
0,0,-0,0,32765
1.53902,0.48822,-0.223511,16,32765
1.50278,0.471192,-0.218468,20,32765
1.52321,0.472025,-0.221648,19,32765
1.57207,0.481436,-0.228942,17,32765
1.6874,0.510506,-0.245914,12,32765
1.47082,0.439506,-0.214523,19,32765
1.49125,0.440077,-0.217725,18,32765
1.54024,0.448825,-0.224978,15,32765
0,0,-0,0,32765
0,0,-0,0,32765
0,0,-0,0,32765
0,0,-0,0,32765
0,0,-0,0,32765
0,0,-0,0,32765
0,0,-0,0,32765
0,0,-0,0,32765
0,0,-0,0,32765
1.47735,0.376442,-0.21754,20,32765
1.46897,0.369024,-0.216468,20,32765
1.47977,0.366402,-0.218226,19,32765
1.47133,0.359048,-0.217196,21,32765
1.4725,0.354053,-0.217478,22,32765
1.45438,0.344443,-0.215011,21,32765
1.44587,0.337138,-0.213995,21,32765
1.47594,0.338666,-0.218661,20,32765
1.44811,0.326868,-0.214758,19,32765
1.44922,0.321763,-0.215043,19,32765
1.4406,0.314607,-0.214009,19,32765
1.4126,0.303424,-0.209992,19,32765
1.44262,0.304709,-0.214701,19,32765
1.45329,0.301756,-0.216516,17,32765
1.54151,0.314585,-0.229988,14,32765
0,0,-0,0,32765
0,0,-0,0,32765
1.41823,0.274156,-0.212247,20,32765
1.41912,0.269202,-0.212646,20,32765
1.39082,0.258835,-0.208631,20,32765
1.40139,0.255768,-0.210479,20,32765
1.38272,0.247459,-0.207947,21,32765
1.37378,0.240964,-0.206796,21,32765
1.35504,0.232853,-0.204315,21,32765
1.38504,0.233148,-0.209028,21,32765
1.33698,0.220337,-0.202109,20,32765
1.36697,0.220523,-0.206778,20,32765
1.33837,0.211171,-0.202693,20,32765
1.35858,0.209538,-0.206014,20,32765
1.37881,0.207707,-0.20941,20,32765
1.35012,0.198541,-0.205306,20,32765
1.36055,0.195282,-0.207026,20,32765
1.33179,0.186448,-0.20289,20,32765
1.35196,0.1845,-0.206319,20,32765
1.34275,0.178573,-0.20502,19,32765
1.36292,0.176528,-0.208323,20,32765
1.34385,0.169439,-0.205546,19,32765
1.34437,0.164876,-0.205893,19,32765
1.35471,0.16146,-0.207554,19,32765
1.3552,0.156888,-0.207885,19,32765
1.36551,0.153333,-0.209668,19,32765
1.35616,0.147615,-0.208412,19,32765
1.32713,0.139835,-0.204152,19,32765
1.31773,0.134264,-0.202863,19,32765
1.33783,0.131677,-0.206102,19,32765
1.34808,0.128081,-0.207816,19,32765
1.34849,0.123531,-0.207881,19,32765
1.33902,0.11806,-0.206594,19,32765
1.30981,0.11099,-0.202451,19,32765
1.32002,0.107362,-0.204016,19,32765
1.33021,0.103662,-0.205646,19,32765
1.36998,0.102087,-0.211765,20,32765
1.33086,0.0946581,-0.205813,18,32765
1.33115,0.0901165,-0.205989,19,32765
1.33141,0.0856183,-0.206182,19,32765
1.32184,0.0805102,-0.204609,19,32765
1.31223,0.075466,-0.203101,19,32765
1.32233,0.0716191,-0.204756,19,32765
1.31268,0.0666372,-0.203284,20,32765
1.34251,0.0636456,-0.207883,19,32765
1.32297,0.0582956,-0.204797,20,32765
1.33304,0.0542752,-0.206317,19,32765
1.31347,0.0490901,-0.203171,20,32765
1.32351,0.044976,-0.20468,20,32765
1.33354,0.0408037,-0.20619,19,32765
1.33366,0.036356,-0.206232,18,32765
1.36344,0.0325924,-0.210646,17,32765
1.38333,0.0284036,-0.213532,16,32765
1.42296,0.0244182,-0.219538,14,32765
1.46258,0.0202175,-0.225496,13,32765
1.46267,0.0154481,-0.225284,12,32765
1.55171,0.0112784,-0.238652,12,32765
1.55179,0.00622657,-0.238357,11,32765
0,0,-0,0,32765
0,-0,-0,0,32765
0,-0,-0,0,32765
0,-0,-0,0,32765
1.43339,-0.0180821,-0.218112,13,32765
0,0,-0,0,32765
0,0,-0,0,32765
0,0,-0,0,32765
0,0,-0,0,32765
0,0,-0,0,32765
0,0,-0,0,32765
0,0,-0,0,32765
0,0,-0,0,32765
1.6718,0.519927,-0.260109,11,32765
1.84365,0.566627,-0.287044,11,32765
0,0,-0,0,32765
0,0,-0,0,32765
0,0,-0,0,32765
0,0,-0,0,32765
0,0,-0,0,32765
0,0,-0,0,32765
0,0,-0,0,32765
0,0,-0,0,32765
0,0,-0,0,32765
0,0,-0,0,32765
0,0,-0,0,32765
0,0,-0,0,32765
0,0,-0,0,32765
1.49414,0.382094,-0.234864,14,32765
1.5433,0.389099,-0.242751,12,32765
0,0,-0,0,32765
1.56499,0.383289,-0.246544,12,32765
1.39328,0.336221,-0.219586,15,32765
1.40399,0.333716,-0.221465,17,32765
1.39546,0.326567,-0.220343,19,32765
1.39655,0.321618,-0.220709,21,32765
1.38799,0.314441,-0.219557,22,32765
1.38905,0.309532,-0.219832,21,32765
1.42867,0.313146,-0.226335,18,32765
1.55528,0.335297,-0.246539,17,32765
1.60469,0.340188,-0.254635,12,32765
1.69285,0.352792,-0.268878,12,32765
1.65525,0.339045,-0.26325,12,32765
0,0,-0,0,32765
0,0,-0,0,32765
1.36753,0.265338,-0.218094,15,32765
1.37809,0.262394,-0.220029,16,32765
1.32068,0.246701,-0.21107,16,32765
1.36034,0.249209,-0.217657,19,32765
1.34168,0.24102,-0.214928,22,32765
1.35219,0.238074,-0.216794,22,32765
1.3432,0.231695,-0.215685,22,32765
1.34394,0.22709,-0.21598,22,32765
1.31542,0.217612,-0.211719,21,32765
1.31611,0.213132,-0.211955,21,32765
1.32654,0.210112,-0.213869,22,32765
1.33697,0.207002,-0.215798,22,32765
1.33762,0.202287,-0.216218,22,32765
1.31873,0.194683,-0.213406,21,32765
1.31936,0.190114,-0.213631,21,32765
1.31996,0.185521,-0.213962,21,32765
1.31075,0.179587,-0.212809,21,32765
1.31133,0.17509,-0.213002,21,32765
1.29229,0.168053,-0.210117,21,32765
1.3222,0.167382,-0.21511,21,32765
1.32271,0.16288,-0.215452,21,32765
1.33303,0.159527,-0.217204,21,32765
1.29429,0.150456,-0.211133,20,32765
1.31438,0.148205,-0.214599,20,32765
1.31483,0.143717,-0.214844,21,32765
1.31528,0.139174,-0.215113,20,32765
1.29608,0.132623,-0.212123,21,32765
1.28667,0.127188,-0.210719,20,32765
1.29689,0.123755,-0.212519,20,32765
1.30712,0.120269,-0.214193,20,32765
1.27799,0.113182,-0.209582,19,32765
1.29797,0.110485,-0.213217,20,32765
1.2885,0.105279,-0.211644,20,32765
1.27899,0.100134,-0.210133,20,32765
1.299,0.0972553,-0.21339,20,32765
1.28946,0.0921541,-0.211912,21,32765
1.28974,0.0877405,-0.212082,21,32765
1.26045,0.0814599,-0.207408,20,32765
1.27058,0.0777828,-0.208986,20,32765
1.29054,0.0746057,-0.212245,18,32765
1.31047,0.0713568,-0.215612,17,32765
1.30084,0.0663997,-0.214047,15,32765
1.35033,0.0643802,-0.222169,15,32765
1.48856,0.0659777,-0.24484,14,32765
1.50849,0.0617944,-0.248074,13,32765
1.47912,0.0556343,-0.24311,14,32765
1.42013,0.0485838,-0.233366,15,32765
1.41043,0.0434642,-0.231727,15,32765
1.44015,0.0395587,-0.236634,14,32765
1.50936,0.0363792,-0.247793,13,32765
1.47991,0.0306641,-0.242756,13,32765
1.48002,0.0256597,-0.242658,12,32765
1.47025,0.0205692,-0.240899,13,32765
1.30259,0.013962,-0.213225,18,32765
1.37176,0.010172,-0.224239,14,32765
1.38169,0.00573339,-0.22559,14,32765
1.3324,0.00103973,-0.2173,16,32765
0,-0,-0,0,32765
0,-0,-0,0,32765
0,-0,-0,0,32765
0,-0,-0,0,32765
6.18756,4.56471,1.36883,13,32765
6.21861,4.55642,1.36999,20,32765
6.24177,4.54223,1.36897,19,32765
6.26555,4.52713,1.36767,21,32765
6.25722,4.48924,1.35877,20,32765
6.28087,4.47414,1.35707,20,32765
6.34451,4.48749,1.36446,20,32765
6.36012,4.4664,1.36094,20,32765
6.37588,4.44507,1.35704,20,32765
6.40738,4.4353,1.35712,20,32765
6.42248,4.41464,1.35307,21,32765
6.42106,4.38295,1.34604,20,32765
6.48467,4.39542,1.35345,20,32765
6.48343,4.36321,1.34626,20,32765
6.48193,4.33121,1.33913,20,32765
6.50491,4.31543,1.33773,20,32765
6.54443,4.31043,1.33911,20,32765
6.55902,4.28946,1.33503,20,32765
6.59012,4.2787,1.33567,20,32765
6.60456,4.25736,1.33254,20,32765
6.63589,4.2462,1.33226,19,32765
6.63366,4.21391,1.32604,21,32765
6.66462,4.20287,1.32622,18,32765
6.612,4.1394,1.30955,12,32765
7.00299,4.35235,1.38014,11,32765
7.1353,4.40188,1.40034,12,32765
7.16719,4.38864,1.40056,12,32765
7.16518,4.3549,1.39462,12,32765
7.09601,4.28007,1.37391,12,32765
7.16123,4.28732,1.38103,12,32765
7.20987,4.28402,1.38384,12,32765
7.11398,4.1952,1.35959,12,32765
7.12805,4.17218,1.35672,12,32765
7.05678,4.09937,1.33785,12,32765
7.12188,4.10603,1.34467,12,32765
7.17004,4.10247,1.34804,12,32765
7.18412,4.07886,1.34468,12,32765
7.16345,4.03586,1.33628,12,32765
7.17727,4.01234,1.33295,12,32765
7.19073,3.98896,1.33061,12,32765
7.16979,3.94639,1.3207,12,32765
7.14,3.89888,1.31024,12,32765
7.15335,3.87491,1.30852,12,32765
0,0,0,0,32765
0,0,0,0,32765
0,0,0,0,32765
0,0,0,0,32765
6.49943,3.38388,1.16756,12,32765
6.48468,3.34869,1.16071,15,32765
6.52244,3.34065,1.16372,12,32765
0,0,0,0,32765
0,0,0,0,32765
0,0,0,0,32765
7.06415,3.49772,1.2426,12,32765
7.27111,3.57023,1.27453,13,32765
7.16781,3.49006,1.25176,13,32765
7.14407,3.44919,1.24351,18,32765
7.17348,3.43426,1.24481,18,32765
7.19418,3.41477,1.24366,20,32765
7.19677,3.38696,1.23994,23,32765
7.14562,3.33395,1.22687,15,32765
7.20183,3.33097,1.23255,34,32765
7.22211,3.31142,1.23176,37,32765
7.24244,3.29153,1.23104,38,32765
7.22663,3.2554,1.22419,37,32765
7.21973,3.22345,1.21858,37,32765
7.23084,3.19934,1.21623,37,32765
7.24162,3.1756,1.2143,37,32765
7.26174,3.15545,1.2126,38,32765
7.25429,3.12343,1.20812,38,32765
7.24682,3.09165,1.20256,38,32765
7.26646,3.07152,1.20197,40,32765
7.24054,3.03227,1.19315,40,32765
7.25108,3.00825,1.18993,42,32765
7.2612,2.98437,1.18832,41,32765
7.27146,2.96056,1.18516,40,32765
7.26303,2.92949,1.18021,40,32765
7.26367,2.90232,1.1763,39,32765
7.26445,2.87492,1.17155,40,32765
7.26492,2.84786,1.16738,40,32765
7.2746,2.82403,1.16498,42,32765
7.28422,2.80013,1.16254,41,32765
7.29371,2.77667,1.15933,40,32765
7.30321,2.75279,1.15645,40,32765
7.25679,2.70846,1.14548,41,32765
7.28455,2.69175,1.14558,41,32765
7.29382,2.6679,1.1424,40,32765
7.27475,2.6343,1.13616,40,32765
7.29317,2.61385,1.13418,40,32765
7.28316,2.58419,1.12856,40,32765
7.2826,2.55753,1.12376,40,32765
7.28191,2.53102,1.11886,40,32765
7.31848,2.51749,1.12002,42,32765
7.28959,2.48112,1.11101,38,32765
7.19456,2.4235,1.09261,14,32765
0,0,0,12,32765
0,0,0,12,32765
0,0,0,12,32765
0,0,0,12,32765
0,0,0,12,32765
0,0,0,12,32765
6.25863,4.62239,1.30963,12,32765
6.24218,4.57886,1.30063,15,32765
6.24151,4.54716,1.29455,24,32765
6.30527,4.56093,1.3014,27,32765
6.32906,4.54585,1.29933,26,32765
6.3529,4.53048,1.2975,27,32765
6.36848,4.50942,1.29448,26,32765
6.39223,4.49389,1.29257,26,32765
6.40807,4.47241,1.28865,26,32765
6.44777,4.46814,1.29014,26,32765
6.45484,4.44172,1.28445,25,32765
6.45347,4.40986,1.27758,25,32765
6.49273,4.40563,1.27959,26,32765
6.52423,4.39539,1.279,26,32765
6.5228,4.3632,1.27202,26,32765
6.55412,4.35272,1.27211,26,32765
6.57729,4.33668,1.27,26,32765
6.58368,4.31017,1.26431,26,32765
6.60659,4.29392,1.26317,27,32765
6.60448,4.26178,1.25687,26,32765
6.64414,4.25593,1.25797,26,32765
6.67526,4.24475,1.25822,24,32765
6.69798,4.22829,1.25663,27,32765
6.69556,4.19605,1.25005,23,32765
6.73493,4.19006,1.25098,13,32765
6.96769,4.30288,1.28863,12,32765
7.1256,4.36762,1.312,13,32765
7.14037,4.34422,1.30936,13,32765
7.18945,4.34081,1.31118,13,32765
7.18713,4.30715,1.3054,13,32765
7.1849,4.27345,1.2986,13,32765
7.16542,4.22974,1.28936,13,32765
7.19665,4.2165,1.28953,13,32765
7.14251,4.15326,1.2746,13,32765
7.20785,4.15967,1.28083,13,32765
7.18759,4.11653,1.27164,13,32765
7.15875,4.06839,1.26071,14,32765
7.17244,4.04482,1.25873,14,32765
7.18628,4.02123,1.25539,13,32765
7.19976,3.99777,1.25305,14,32765
7.21343,3.97418,1.2495,14,32765
7.19236,3.93116,1.24099,13,32765
7.20582,3.90698,1.23925,14,32765
7.16716,3.85465,1.22733,13,32765
7.11034,3.79392,1.21314,12,32765
0,0,0,0,32765
6.5663,3.44904,1.11256,11,32765
6.54273,3.40951,1.10435,11,32765
6.52803,3.3741,1.09777,14,32765
6.53071,3.34786,1.09458,20,32765
6.55129,3.33022,1.0932,15,32765
6.58945,3.32134,1.09522,11,32765
0,0,0,0,32765
6.79836,3.36903,1.12285,11,32765
7.24485,3.56038,1.19227,13,32765
7.26586,3.54082,1.19112,16,32765
7.25115,3.50385,1.18467,17,32765
7.19155,3.44579,1.17123,23,32765
7.26591,3.45169,1.17868,22,32765
7.25071,3.41516,1.17213,20,32765
7.2175,3.37024,1.16258,17,32765
7.22899,3.34624,1.16057,20,32765
7.2763,3.33895,1.16399,43,32765
7.29674,3.31884,1.16315,50,32765
7.30804,3.29468,1.16086,50,32765
7.31028,3.26643,1.15685,49,32765
7.30343,3.23397,1.15161,48,32765
7.30526,3.20597,1.14824,48,32765
7.30733,3.17769,1.14357,49,32765
7.31812,3.15329,1.14211,50,32765
7.32893,3.12901,1.13954,50,32765
7.32135,3.09702,1.13459,49,32765
7.33197,3.07281,1.13176,49,32765
7.34264,3.04845,1.1285,49,32765
7.33458,3.0167,1.12406,49,32765
7.34493,2.99261,1.12086,48,32765
7.35495,2.96866,1.11888,49,32765
7.32812,2.93012,1.11085,50,32765
7.33817,2.90611,1.10755,49,32765
7.3295,2.87515,1.10205,49,32765
7.33003,2.84748,1.09825,49,32765
7.33972,2.82336,1.0958,49,32765
7.34927,2.79968,1.09255,49,32765
7.35883,2.77558,1.08965,49,32765
7.34953,2.74485,1.0847,49,32765
7.36812,2.72439,1.08322,50,32765
7.36819,2.69681,1.07863,50,32765
7.3678,2.66967,1.07538,50,32765
7.34903,2.63551,1.06784,50,32765
7.35773,2.61225,1.06509,48,32765
7.36657,2.58859,1.06169,50,32765
7.3566,2.55851,1.0555,49,32765
7.3558,2.53182,1.05099,50,32765
7.36441,2.50805,1.04768,50,32765
7.36325,2.48175,1.04359,49,32765
7.40927,2.47076,1.04518,32,32765
7.32328,2.41656,1.0287,23,32765
7.26527,2.37257,1.01532,21,32765
7.32982,2.36815,1.01903,22,32765
7.36598,2.35452,1.01911,23,32765
7.37394,2.33172,1.01397,28,32765
0,0,0,0,32765
6.25416,4.58129,1.2328,11,32765
6.29305,4.57848,1.23669,14,32765
6.31632,4.5637,1.23647,20,32765
6.29937,4.51976,1.2297,21,32765
6.34677,4.52178,1.23452,20,32765
6.36165,4.50113,1.23341,21,32765
6.37634,4.48063,1.23222,20,32765
6.40713,4.47163,1.23344,21,32765
6.40574,4.43956,1.22835,21,32765
6.4368,4.4299,1.22948,20,32765
6.45161,4.4087,1.22809,21,32765
6.48277,4.39867,1.22892,20,32765
6.49766,4.37721,1.22692,20,32765
6.51251,4.35567,1.22488,21,32765
6.52728,4.33418,1.22244,21,32765
6.54155,4.31315,1.22054,20,32765
6.57255,4.30256,1.22151,20,32765
6.58688,4.28117,1.21947,21,32765
6.60149,4.25934,1.21689,20,32765
6.616,4.2375,1.21434,20,32765
6.64673,4.22665,1.21548,18,32765
6.66935,4.21018,1.21428,20,32765
6.68347,4.18849,1.2117,20,32765
6.706,4.17174,1.21085,13,32765
0,0,0,0,32765
7.0125,4.29753,1.25641,12,32765
7.17923,4.36677,1.2806,12,32765
7.05015,4.25648,1.25168,12,32765
7.09848,4.25366,1.25491,12,32765
7.15508,4.25586,1.26051,12,32765
7.12683,4.20723,1.25076,12,32765
7.14139,4.18348,1.24739,12,32765
7.23251,4.20449,1.25884,12,32765
7.21286,4.16053,1.24941,12,32765
7.14966,4.09274,1.23316,12,32765
7.19758,4.0893,1.23669,12,32765
7.12521,4.01717,1.21932,12,32765
7.13881,3.99385,1.21636,12,32765
7.23929,4.01773,1.22779,12,32765
7.18379,3.95522,1.21386,12,32765
7.17983,3.92217,1.20811,13,32765
7.21073,3.90761,1.20832,12,32765
7.20658,3.87468,1.20204,12,32765
7.22867,3.85527,1.20065,12,32765
0,0,0,0,32765
0,0,0,0,32765
6.61824,3.44561,1.08548,11,32765
6.51544,3.3652,1.06422,12,32765
6.54468,3.3527,1.06373,16,32765
6.58254,3.34444,1.06608,13,32765
0,0,0,0,32765
0,0,0,0,32765
0,0,0,0,32765
7.12614,3.49981,1.1357,11,32765
7.20933,3.51074,1.14468,13,32765
7.22127,3.48711,1.14166,14,32765
7.15243,3.42515,1.12749,18,32765
7.19975,3.41889,1.1302,18,32765
7.24707,3.41211,1.13383,17,32765
7.19579,3.35903,1.12156,15,32765
7.18915,3.32706,1.11658,16,32765
7.24558,3.32399,1.12033,31,32765
7.2568,3.30011,1.11832,37,32765
7.25002,3.26798,1.11287,39,32765
7.26107,3.24405,1.11083,39,32765
7.29002,3.22822,1.11205,42,32765
7.27376,3.19211,1.10599,40,32765
7.2754,3.16437,1.10246,39,32765
7.28638,3.14009,1.09936,39,32765
7.29686,3.11603,1.09833,40,32765
7.28913,3.08448,1.09303,38,32765
7.29025,3.05661,1.09075,40,32765
7.29119,3.02931,1.08754,38,32765
7.30156,3.00528,1.08465,39,32765
7.27468,2.96671,1.07819,39,32765
7.28439,2.9432,1.07707,39,32765
7.27579,2.91207,1.07278,39,32765
7.29466,2.89208,1.07246,41,32765
7.30426,2.86829,1.07099,40,32765
7.30455,2.84076,1.0685,40,32765
7.29537,2.80998,1.06475,41,32765
7.30479,2.78604,1.06308,40,32765
7.29533,2.75544,1.05955,41,32765
7.30446,2.73146,1.05869,41,32765
7.3134,2.70789,1.05755,41,32765
7.30358,2.67756,1.05401,41,32765
7.29383,2.64694,1.05007,42,32765
7.30259,2.62324,1.04868,41,32765
7.31122,2.59929,1.04814,40,32765
7.31966,2.57557,1.04783,40,32765
7.29028,2.53958,1.04235,40,32765
7.2983,2.51653,1.04208,39,32765
7.30617,2.49358,1.04213,41,32765
7.28607,2.46054,1.03754,38,32765
7.27522,2.43051,1.03506,21,32765
7.27373,2.4039,1.03294,14,32765
7.21536,2.359,1.02439,12,32765
7.31693,2.3668,1.0385,11,32765
7.46579,2.38897,1.05964,12,32765
7.53917,2.38654,1.07037,11,32765
0,0,0,0,32765
0,0,0,0,32765
6.19532,4.51346,1.1442,12,32765
6.30653,4.56275,1.16013,15,32765
6.3217,4.54184,1.15961,24,32765
6.35312,4.53231,1.16111,27,32765
6.37611,4.51732,1.16147,26,32765
6.39896,4.50242,1.16174,27,32765
6.42173,4.48767,1.1613,26,32765
6.44477,4.4724,1.16078,27,32765
6.44338,4.44015,1.15586,27,32765
6.49089,4.44124,1.1603,26,32765
6.48945,4.40882,1.1551,27,32765
6.52078,4.39836,1.15601,27,32765
6.5357,4.3767,1.15396,27,32765
6.56703,4.36606,1.1544,27,32765
6.56489,4.33395,1.14959,26,32765
6.59598,4.32327,1.15037,27,32765
6.61868,4.30715,1.14976,27,32765
6.65,4.29592,1.15004,27,32765
6.63963,4.25786,1.14317,26,32765
6.67045,4.24691,1.14411,25,32765
6.69315,4.23034,1.1428,24,32765
6.74925,4.23482,1.14734,26,32765
6.75515,4.20737,1.14353,26,32765
6.74428,4.16918,1.13699,17,32765
6.91031,4.23994,1.16046,12,32765
7.17001,4.36632,1.19857,13,32765
7.16785,4.33264,1.19237,13,32765
7.14855,4.28869,1.18394,13,32765
7.21382,4.29581,1.19045,13,32765
7.24533,4.28214,1.19096,13,32765
7.22597,4.23792,1.18194,13,32765
7.22322,4.20391,1.17719,13,32765
7.22068,4.1698,1.17091,13,32765
7.1832,4.11661,1.15966,13,32765
7.214,4.10328,1.16003,13,32765
7.18471,4.05528,1.15049,13,32765
7.20707,4.03656,1.14888,14,32765
7.23851,4.02179,1.14835,14,32765
7.25236,3.99741,1.14614,13,32765
7.24851,3.96406,1.14054,14,32765
7.18379,3.89729,1.12553,14,32765
7.27553,3.91603,1.13442,14,32765
7.21037,3.8497,1.11933,14,32765
7.18859,3.80712,1.11088,12,32765
0,0,0,0,32765
6.64308,3.46225,1.01782,11,32765
6.549,3.38615,0.999097,11,32765
6.5695,3.36899,0.997061,13,32765
6.58094,3.34716,0.995112,19,32765
6.60132,3.32945,0.994442,15,32765
6.59515,3.2982,0.989712,11,32765
6.71313,3.32889,1.00298,11,32765
0,0,0,0,32765
7.18165,3.50085,1.06378,13,32765
7.30956,3.53335,1.07787,15,32765
7.31231,3.50526,1.07503,17,32765
7.22562,3.43463,1.05765,24,32765
7.27303,3.42777,1.06089,22,32765
7.30257,3.41227,1.06102,27,32765
7.28709,3.37573,1.05488,23,32765
7.28065,3.34337,1.04904,23,32765
7.30998,3.32754,1.04961,43,32765
7.33038,3.30741,1.0482,48,32765
7.3144,3.27103,1.04226,47,32765
7.32534,3.24697,1.04071,47,32765
7.33635,3.22264,1.03877,47,32765
7.34717,3.1986,1.0366,47,32765
7.34004,3.16618,1.03091,48,32765
7.34149,3.138,1.0286,48,32765
7.35207,3.11398,1.02601,49,32765
7.35329,3.08586,1.02381,48,32765
7.34515,3.0545,1.01941,48,32765
7.3556,3.03024,1.0165,48,32765
7.35632,3.00268,1.0142,49,32765
7.36615,2.97886,1.01306,50,32765
7.37606,2.95478,1.01147,48,32765
7.34898,2.91614,1.00473,50,32765
7.35867,2.89213,1.00325,49,32765
7.36827,2.86797,1.0021,48,32765
7.35916,2.83693,0.998522,49,32765
7.36867,2.81274,0.99684,49,32765
7.36856,2.78539,0.994737,49,32765
7.35922,2.75417,0.991369,50,32765
7.36824,2.73038,0.990214,49,32765
7.36779,2.70323,0.988107,50,32765
7.36743,2.67574,0.985581,49,32765
7.37628,2.65176,0.984179,49,32765
7.39437,2.63086,0.98488,50,32765
7.37484,2.59694,0.980828,49,32765
7.38298,2.57377,0.980703,48,32765
7.38174,2.54715,0.979187,50,32765
7.38972,2.5239,0.979229,50,32765
7.3791,2.49371,0.976153,50,32765
7.38717,2.46961,0.97635,50,32765
7.37638,2.43948,0.973067,50,32765
7.38407,2.41576,0.97389,50,32765
7.38211,2.38944,0.973388,49,32765
7.39894,2.36908,0.97569,50,32765
7.37778,2.33689,0.973281,49,32765
0,0,0,0,32765
0,0,0,0,32765
6.3855,4.63337,1.19902,11,32765
6.26548,4.51388,1.16821,17,32765
6.29726,4.50489,1.16589,20,32765
6.32922,4.49559,1.16324,21,32765
6.34446,4.47508,1.15932,21,32765
6.39213,4.47727,1.16051,21,32765
6.42346,4.46806,1.15918,21,32765
6.38992,4.41323,1.14662,21,32765
6.438,4.41445,1.14757,20,32765
6.46974,4.40414,1.14635,21,32765
6.48479,4.38312,1.14186,21,32765
6.50007,4.3616,1.13737,20,32765
6.53134,4.35151,1.13614,20,32765
6.54623,4.33011,1.13222,21,32765
6.561,4.3088,1.12801,21,32765
6.59221,4.29821,1.12722,21,32765
6.60683,4.27673,1.12331,21,32765
6.62134,4.25516,1.11983,21,32765
6.65259,4.24418,1.11843,21,32765
6.65048,4.21165,1.11158,21,32765
6.67316,4.19505,1.11003,19,32765
6.7379,4.20453,1.1149,20,32765
6.73516,4.17211,1.10957,20,32765
6.77462,4.16575,1.10994,14,32765
6.89033,4.2055,1.12234,11,32765
7.26019,4.39871,1.17726,12,32765
7.18155,4.31899,1.15899,12,32765
7.24707,4.32624,1.16362,12,32765
7.06583,4.18615,1.12889,12,32765
7.25965,4.26793,1.15422,12,32765
7.16328,4.17861,1.13294,12,32765
7.14354,4.1345,1.12452,12,32765
7.21757,4.1458,1.13092,12,32765
7.13663,4.06861,1.11307,12,32765
7.31399,4.13829,1.13602,13,32765
7.23265,4.06131,1.11866,12,32765
7.21179,4.01826,1.11023,12,32765
7.25999,4.01374,1.11324,12,32765
7.18691,3.94191,1.09665,12,32765
7.2525,3.94669,1.1017,12,32765
7.23093,3.90401,1.09386,12,32765
7.22686,3.87044,1.08866,12,32765
7.19618,3.82357,1.07877,12,32765
7.14773,3.7674,1.0673,12,32765
0,0,0,0,32765
0,0,0,0,32765
0,0,0,0,32765
6.50911,3.32168,0.956473,11,32765
6.57358,3.32684,0.961832,15,32765
6.54079,3.28248,0.952764,14,32765
0,0,0,0,32765
0,0,0,0,32765
0,0,0,0,32765
0,0,0,0,32765
7.32937,3.5252,1.04563,13,32765
7.30544,3.48366,1.03938,14,32765
7.21867,3.41285,1.02264,19,32765
7.21229,3.38073,1.01706,18,32765
7.28658,3.38638,1.02383,20,32765
7.25299,3.34156,1.01517,18,32765
7.25527,3.31347,1.01168,17,32765
7.27562,3.29348,1.01037,33,32765
7.29591,3.27337,1.00915,39,32765
7.28899,3.24116,1.00356,37,32765
7.2911,3.21262,0.999941,39,32765
7.30196,3.18846,0.998011,39,32765
7.32204,3.16799,0.996573,40,32765
7.31469,3.13569,0.991522,40,32765
7.298,3.09996,0.984707,39,32765
7.32664,3.08371,0.985445,40,32765
7.32788,3.05597,0.981407,40,32765
7.33821,3.032,0.978593,41,32765
7.32999,3.00063,0.973547,40,32765
7.33112,2.97241,0.969713,39,32765
7.35056,2.95175,0.967923,41,32765
7.32378,2.91275,0.960048,40,32765
7.33367,2.88863,0.957484,41,32765
7.32481,2.85772,0.952365,40,32765
7.32503,2.83046,0.948983,41,32765
7.34384,2.81048,0.94637,40,32765
7.34386,2.78336,0.942755,40,32765
7.33458,2.75265,0.937514,41,32765
7.32517,2.72214,0.932044,41,32765
7.35296,2.70519,0.931673,41,32765
7.34355,2.67416,0.926321,41,32765
7.35255,2.65033,0.923385,41,32765
7.34282,2.61986,0.917505,42,32765
7.34227,2.59283,0.913196,43,32765
7.3416,2.56586,0.9089,42,32765
7.35029,2.54193,0.905962,42,32765
7.33997,2.51197,0.900529,40,32765
7.34837,2.48863,0.89679,40,32765
7.35657,2.46568,0.892983,41,32765
7.3457,2.43659,0.887549,39,32765
7.35383,2.41338,0.883695,40,32765
7.3618,2.39023,0.880243,40,32765
7.3793,2.37003,0.876885,43,32765
7.37757,2.34426,0.871823,43,32765
7.38529,2.32199,0.86597,45,32765
0,0,0,0,32765
0,0,0,0,32765
0,0,0,0,32765
6.33529,4.57071,1.10672,12,32765
6.33505,4.53841,1.09857,19,32765
6.36711,4.52896,1.09569,26,32765
6.39862,4.51971,1.09451,27,32765
6.41402,4.49899,1.08977,27,32765
6.42916,4.47836,1.0855,27,32765
6.44448,4.45721,1.0817,27,32765
6.47638,4.44703,1.0795,27,32765
6.49186,4.42542,1.07536,26,32765
6.50696,4.40428,1.07085,26,32765
6.52229,4.38264,1.06634,26,32765
6.57011,4.38347,1.06758,27,32765
6.56857,4.35095,1.06097,27,32765
6.59996,4.34041,1.0594,27,32765
6.61468,4.31884,1.05575,27,32765
6.63767,4.30263,1.05314,27,32765
6.65225,4.28092,1.04964,27,32765
6.66687,4.25914,1.04541,26,32765
6.69828,4.24773,1.04395,27,32765
6.71268,4.22566,1.04098,27,32765
6.75234,4.21928,1.04138,25,32765
6.77491,4.20243,1.04011,26,32765
6.78915,4.18033,1.03631,27,32765
6.78651,4.14772,1.0296,19,32765
6.91059,4.19253,1.04351,12,32765
7.20502,4.3389,1.08259,13,32765
7.21956,4.31557,1.07901,13,32765
7.21724,4.28154,1.07307,13,32765
7.24913,4.26739,1.07235,13,32765
7.24686,4.23295,1.06615,13,32765
7.27878,4.21832,1.0656,13,32765
7.24134,4.1649,1.055,13,32765
7.25515,4.14158,1.0519,13,32765
7.3034,4.13767,1.05434,13,32765
7.28252,4.0946,1.0467,14,32765
7.24439,4.04163,1.03615,13,32765
7.28403,4.03219,1.03754,14,32765
7.33269,4.027,1.03913,14,32765
7.25918,3.95535,1.02388,14,32765
7.27252,3.93144,1.02132,14,32765
7.22479,3.87421,1.01017,14,32765
7.30799,3.88786,1.01659,14,32765
7.27726,3.84047,1.00817,14,32765
7.25506,3.7981,1.00052,13,32765
6.97706,3.62333,0.958344,11,32765
6.73337,3.46858,0.920667,11,32765
6.72736,3.43727,0.916493,11,32765
6.61515,3.35197,0.897186,12,32765
6.61789,3.32521,0.893357,17,32765
6.61161,3.2941,0.888305,17,32765
6.64076,3.28056,0.888737,12,32765
6.72331,3.29329,0.896116,11,32765
0,0,0,0,32765
7.08578,3.41208,0.935863,12,32765
7.33924,3.5039,0.966616,15,32765
7.32424,3.46683,0.9603,17,32765
7.2461,3.40055,0.945476,23,32765
7.28449,3.38935,0.946898,24,32765
7.37713,3.40268,0.95505,26,32765
7.32541,3.34935,0.94463,25,32765
7.30969,3.31269,0.938545,23,32765
7.33911,3.2965,0.938382,43,32765
7.35946,3.27621,0.93642,49,32765
7.35259,3.24336,0.931718,48,32765
7.37266,3.22294,0.930919,50,32765
7.36551,3.19034,0.925921,48,32765
7.36734,3.16176,0.922184,49,32765
7.37812,3.13744,0.919041,49,32765
7.38861,3.11319,0.917298,49,32765
7.39909,3.08903,0.91446,50,32765
7.39116,3.05718,0.909358,49,32765
7.40139,3.03312,0.906732,50,32765
7.3934,3.00088,0.901841,49,32765
7.41293,2.97997,0.899929,51,32765
7.39544,2.94436,0.893517,50,32765
7.41466,2.92361,0.892038,51,32765
7.42441,2.89962,0.889292,50,32765
7.42475,2.87199,0.885973,50,32765
7.40656,2.83742,0.878808,50,32765
7.41594,2.81357,0.876362,50,32765
7.40674,2.78258,0.871279,50,32765
7.41603,2.75871,0.868145,50,32765
7.41596,2.73113,0.86429,50,32765
7.41594,2.70324,0.860182,50,32765
7.43438,2.68251,0.858295,51,32765
7.42472,2.65172,0.852561,51,32765
7.43362,2.62769,0.849381,51,32765
7.43305,2.60038,0.845137,50,32765
7.43243,2.57286,0.841099,51,32765
7.43159,2.5458,0.836876,52,32765
7.43066,2.51894,0.832034,51,32765
7.43893,2.49569,0.828184,51,32765
7.42813,2.4663,0.8229,50,32765
7.43633,2.44279,0.819001,50,32765
7.44437,2.41934,0.81551,50,32765
7.43354,2.38971,0.808915,51,32765
7.44131,2.36674,0.804943,51,32765
7.45855,2.34723,0.800055,52,32765
0,0,0,0,32765
0,0,0,0,32765
0,0,0,0,32765
0,0,0,0,32765
6.32858,4.52999,1.02511,11,32765
6.35978,4.52084,1.02573,17,32765
6.34243,4.47702,1.01918,21,32765
6.3737,4.46745,1.02,21,32765
6.42118,4.4692,1.02317,21,32765
6.43592,4.44835,1.02136,21,32765
6.45069,4.42733,1.01952,21,32765
6.48171,4.41762,1.01989,21,32765
6.48012,4.38522,1.01487,21,32765
6.49494,4.36376,1.01267,21,32765
6.54265,4.36426,1.01576,21,32765
6.55767,4.34232,1.01296,20,32765
6.57228,4.32068,1.01087,21,32765
6.60318,4.31018,1.01132,21,32765
6.60083,4.27791,1.00673,21,32765
6.61489,4.25665,1.00452,21,32765
6.64588,4.24566,1.00457,20,32765
6.68526,4.23985,1.00568,21,32765
6.69108,4.21268,1.00185,21,32765
6.71362,4.19608,1.00035,21,32765
6.72757,4.17418,0.998193,20,32765
6.74182,4.15179,0.99544,21,32765
6.78149,4.14478,0.99614,18,32765
6.86361,4.16314,1.00364,11,32765
7.19234,4.32983,1.04614,12,32765
7.20681,4.30627,1.04383,12,32765
7.25524,4.30308,1.04643,12,32765
7.18408,4.22926,1.03067,12,32765
7.30122,4.26561,1.04269,12,32765
7.1871,4.16654,1.02101,12,32765
7.24448,4.16705,1.0245,12,32765
7.21565,4.11824,1.01559,12,32765
7.25555,4.10921,1.01557,12,32765
7.35586,4.13404,1.02521,12,32765
7.18763,4.00853,0.996891,12,32765
7.23604,4.00415,0.997699,12,32765
7.32787,4.02315,1.00648,12,32765
7.29806,3.97494,0.997541,12,32765
7.24172,3.91299,0.984975,12,32765
7.19376,3.85605,0.974201,12,32765
7.30328,3.88364,0.984037,13,32765
7.35167,3.87802,0.985333,12,32765
7.23274,3.78484,0.964775,13,32765
0,0,0,0,32765
0,0,0,0,32765
0,0,0,0,32765
6.64617,3.36478,0.869854,11,32765
6.5956,3.31142,0.8587,14,32765
6.60687,3.28967,0.855749,14,32765
6.71588,3.31628,0.866493,11,32765
0,0,0,0,32765
0,0,0,0,32765
0,0,0,0,32765
7.31681,3.49172,0.926165,13,32765
7.32858,3.46777,0.923084,14,32765
7.24116,3.39748,0.908386,18,32765
7.28858,3.39057,0.910315,19,32765
7.31807,3.37489,0.910016,22,32765
7.32053,3.34651,0.905955,26,32765
7.25938,3.28951,0.894908,17,32765
7.29792,3.27728,0.895705,33,32765
7.31826,3.25677,0.894533,39,32765
7.32017,3.22846,0.891468,40,32765
7.33101,3.20462,0.888372,40,32765
7.33252,3.17684,0.885175,40,32765
7.34322,3.15262,0.883027,40,32765
7.32651,3.11639,0.877797,39,32765
7.34632,3.09576,0.876524,40,32765
7.35681,3.07118,0.87499,40,32765
7.35784,3.0434,0.871787,40,32765
7.35875,3.01571,0.868533,40,32765
7.3594,2.98816,0.866134,40,32765
7.36014,2.96043,0.862945,41,32765
7.36991,2.93658,0.861003,41,32765
7.34254,2.89809,0.85545,42,32765
7.35215,2.87416,0.853581,42,32765
7.34307,2.84299,0.850374,41,32765
7.35238,2.81934,0.848693,41,32765
7.35245,2.79173,0.846104,41,32765
7.36155,2.76794,0.845144,41,32765
7.35206,2.73699,0.841511,42,32765
7.37046,2.71622,0.841665,43,32765
7.35135,2.68213,0.837082,41,32765
7.36019,2.65821,0.835731,41,32765
7.37812,2.63781,0.836539,43,32765
7.36794,2.60714,0.834203,42,32765
7.36713,2.57989,0.831855,40,32765
7.38488,2.55934,0.832414,42,32765
7.36488,2.526,0.828696,42,32765
7.3729,2.50264,0.828229,41,32765
7.37139,2.47591,0.827552,42,32765
7.39821,2.45861,0.829019,42,32765
7.37771,2.42579,0.825282,41,32765
7.37565,2.39973,0.825243,42,32765
7.37356,2.37383,0.824446,41,32765
7.39039,2.35344,0.826693,42,32765
7.42642,2.33823,0.830576,45,32765
0,0,0,12,32765
0,0,0,0,32765
0,0,0,0,32765
0,0,0,0,32765
0,0,0,0,32765
6.36382,4.5312,0.952327,13,32765
6.37893,4.51019,0.95098,19,32765
6.41845,4.50618,0.952798,26,32765
6.44165,4.49077,0.951965,27,32765
6.48097,4.48676,0.95375,28,32765
6.47133,4.44868,0.948304,27,32765
6.51064,4.44447,0.949666,28,32765
6.52556,4.42306,0.947204,28,32765
6.55699,4.41248,0.947365,28,32765
