x, y, z, intensity, ring
0,-0,-0,0,32765
0,-0,-0,11,32765
0,-0,-0,0,32765
2.43821,-0.121459,-0.207106,11,32765
0,-0,-0,0,32765
2.43728,-0.137877,-0.207778,11,32765
2.41691,-0.144885,-0.206097,12,32765
2.6948,-0.170592,-0.230348,16,32765
2.73396,-0.182396,-0.233923,17,32765
2.72337,-0.190967,-0.233165,18,32765
2.75254,-0.202471,-0.235461,19,32765
2.72201,-0.209603,-0.233128,18,32765
2.69148,-0.216503,-0.23059,18,32765
2.69072,-0.225745,-0.230588,18,32765
2.69985,-0.23576,-0.231534,18,32765
2.68913,-0.244012,-0.230563,18,32765
2.65854,-0.250239,-0.227893,17,32765
2.52876,-0.246706,-0.216797,15,32765
2.34948,-0.237286,-0.201387,14,32765
2.25947,-0.235936,-0.193774,13,32765
2.33791,-0.252225,-0.20045,12,32765
2.37667,-0.264554,-0.203585,12,32765
2.67274,-0.306685,-0.228936,11,32765
2.4837,-0.293491,-0.212617,12,32765
0,-0,-0,0,32765
2.56079,-0.320213,-0.218925,12,32765
0,-0,-0,0,32765
2.33138,-0.307726,-0.198972,12,32765
2.39945,-0.325001,-0.204788,12,32765
2.44772,-0.339937,-0.208599,12,32765
2.19994,-0.313083,-0.187455,12,32765
2.17916,-0.317707,-0.185517,16,32765
2.23721,-0.334126,-0.190093,17,32765
2.25575,-0.344951,-0.191617,16,32765
2.31363,-0.362095,-0.196234,14,32765
2.33207,-0.373273,-0.197553,13,32765
2.4095,-0.39399,-0.20395,12,32765
0,-0,-0,0,32765
2.27911,-0.388594,-0.192537,12,32765
2.39561,-0.416819,-0.202308,13,32765
2.31571,-0.411088,-0.195121,14,32765
2.30454,-0.417144,-0.19392,14,32765
2.25412,-0.415965,-0.189514,14,32765
2.31148,-0.434654,-0.194243,15,32765
2.46662,-0.472507,-0.207161,11,32765
0,-0,-0,0,32765
2.28748,-0.454309,-0.191424,11,32765
2.41292,-0.487744,-0.202021,11,32765
2.23556,-0.459767,-0.186996,14,32765
2.30228,-0.481697,-0.192566,16,32765
2.23242,-0.474949,-0.18658,15,32765
2.32826,-0.503499,-0.194408,16,32765
2.27789,-0.500683,-0.190087,16,32765
2.27622,-0.508356,-0.189767,15,32765
0,-0,-0,0,32765
2.60296,-0.599985,-0.21678,11,32765
2.33893,-0.547368,-0.194683,12,32765
2.37585,-0.564583,-0.197752,13,32765
2.39333,-0.577219,-0.199186,14,32765
2.26556,-0.554381,-0.188365,15,32765
2.23469,-0.55473,-0.185818,16,32765
2.24256,-0.564459,-0.186344,17,32765
2.24069,-0.571869,-0.186222,19,32765
2.2195,-0.5743,-0.184439,20,32765
2.22723,-0.584191,-0.18506,20,32765
2.18676,-0.581375,-0.181621,17,32765
2.2522,-0.60676,-0.187155,15,32765
2.35594,-0.643171,-0.195922,14,32765
2.44027,-0.674906,-0.202935,12,32765
2.49559,-0.699194,-0.207781,12,32765
2.51246,-0.712904,-0.209131,12,32765
2.49093,-0.715679,-0.20752,12,32765
0,-0,-0,0,32765
2.35226,-0.692766,-0.196341,12,32765
2.34999,-0.700481,-0.196149,12,32765
2.3668,-0.713805,-0.197814,13,32765
2.43125,-0.741692,-0.203521,13,32765
2.45742,-0.758303,-0.206013,14,32765
2.33126,-0.727615,-0.195714,16,32765
2.33839,-0.738138,-0.196717,16,32765
2.31696,-0.739655,-0.19543,16,32765
2.31458,-0.746975,-0.195856,16,32765
2.30269,-0.751204,-0.195462,17,32765
2.3476,-0.774042,-0.200106,17,32765
0,0,-0,0,32765
0,0,-0,0,32765
0,0,-0,0,32765
0,0,-0,0,32765
0,0,-0,0,32765
0,0,-0,0,32765
0,-0,-0,0,32765
0,-0,-0,0,32765
0,-0,-0,0,32765
0,-0,-0,0,32765
0,-0,-0,0,32765
0,-0,-0,0,32765
0,-0,-0,0,32765
0,-0,-0,0,32765
0,-0,-0,0,32765
0,-0,-0,0,32765
0,-0,-0,0,32765
0,-0,-0,0,32765
2.43757,-0.102178,-0.224346,11,32765
0,-0,-0,0,32765
0,-0,-0,0,32765
2.3967,-0.125049,-0.219738,11,32765
0,-0,-0,0,32765
0,-0,-0,0,32765
0,-0,-0,0,32765
2.36506,-0.155607,-0.216024,12,32765
2.43408,-0.168531,-0.222188,15,32765
2.6123,-0.189716,-0.23829,16,32765
2.63152,-0.200303,-0.239776,17,32765
2.59112,-0.206176,-0.235986,16,32765
2.6202,-0.217517,-0.238416,17,32765
2.55992,-0.221363,-0.232798,16,32765
2.59885,-0.233561,-0.236238,17,32765
2.57822,-0.240521,-0.23443,17,32765
2.57744,-0.249288,-0.233847,17,32765
2.56666,-0.257138,-0.232922,16,32765
2.55586,-0.264977,-0.231922,17,32765
2.53514,-0.271645,-0.229903,16,32765
2.25702,-0.249784,-0.204622,14,32765
2.16713,-0.247235,-0.19626,13,32765
2.35422,-0.27672,-0.213222,12,32765
2.38295,-0.288323,-0.215734,12,32765
2.44126,-0.303716,-0.221105,12,32765
0,-0,-0,0,32765
2.43919,-0.320124,-0.220875,11,32765
2.52691,-0.34048,-0.228937,11,32765
2.49615,-0.345063,-0.226029,12,32765
0,-0,-0,0,32765
2.31631,-0.336599,-0.209587,11,32765
2.44323,-0.363538,-0.221111,12,32765
2.26475,-0.344973,-0.204694,12,32765
2.26355,-0.352755,-0.204676,13,32765
2.25251,-0.358969,-0.203596,15,32765
2.24143,-0.36518,-0.202552,15,32765
2.12229,-0.353118,-0.191848,15,32765
2.1211,-0.360343,-0.191561,16,32765
2.16898,-0.375995,-0.195629,17,32765
2.1775,-0.385005,-0.196607,15,32765
2.25461,-0.406583,-0.203539,15,32765
2.18466,-0.401634,-0.197051,14,32765
2.17348,-0.407357,-0.196043,14,32765
2.26995,-0.433468,-0.204527,13,32765
2.32717,-0.452425,-0.209765,12,32765
2.37451,-0.469917,-0.213965,12,32765
2.23624,-0.450336,-0.201285,13,32765
2.22498,-0.455916,-0.199974,15,32765
2.24293,-0.46757,-0.201576,15,32765
2.22186,-0.471073,-0.19958,15,32765
2.26898,-0.489075,-0.203507,15,32765
2.23818,-0.490224,-0.200572,14,32765
2.23653,-0.497798,-0.200273,15,32765
2.25432,-0.509701,-0.201656,14,32765
2.24292,-0.515035,-0.20042,14,32765
2.27032,-0.529313,-0.202695,14,32765
2.20075,-0.520774,-0.195919,16,32765
2.16029,-0.518798,-0.192035,16,32765
2.15856,-0.526081,-0.191722,16,32765
2.2052,-0.545218,-0.19555,16,32765
2.24209,-0.562221,-0.198394,17,32765
2.26924,-0.576999,-0.200317,15,32765
2.23839,-0.577123,-0.197313,16,32765
2.19795,-0.574503,-0.193269,13,32765
2.35021,-0.622584,-0.206164,12,32765
2.42514,-0.651055,-0.212611,12,32765
2.45191,-0.666923,-0.214137,12,32765
2.47854,-0.683043,-0.216095,12,32765
2.45713,-0.685945,-0.213467,11,32765
2.48373,-0.702048,-0.215212,11,32765
0,-0,-0,0,32765
2.38355,-0.690462,-0.205017,11,32765
2.53435,-0.743151,-0.217526,12,32765
2.41726,-0.717624,-0.206795,12,32765
2.32908,-0.699724,-0.198461,13,32765
2.35549,-0.715955,-0.199945,13,32765
2.47717,-0.76143,-0.209367,13,32765
2.30344,-0.716192,-0.193996,15,32765
2.40578,-0.756607,-0.201612,15,32765
2.30843,-0.734217,-0.192281,16,32765
2.30618,-0.741629,-0.190839,16,32765
2.31343,-0.751998,-0.190153,15,32765
2.32062,-0.76242,-0.189567,15,32765
0,0,-0,0,32765
0,0,-0,0,32765
0,0,-0,0,32765
0,0,-0,0,32765
0,0,-0,0,32765
0,0,-0,0,32765
0,-0,-0,0,32765
0,-0,-0,0,32765
0,-0,-0,0,32765
0,-0,-0,0,32765
0,-0,-0,0,32765
0,-0,-0,11,32765
0,-0,-0,0,32765
0,-0,-0,11,32765
0,-0,-0,0,32765
0,-0,-0,0,32765
0,-0,-0,0,32765
2.61459,-0.101199,-0.265634,11,32765
0,-0,-0,0,32765
2.69343,-0.122503,-0.272948,11,32765
2.45451,-0.119979,-0.248718,11,32765
2.45411,-0.128561,-0.248396,11,32765
2.6027,-0.145317,-0.2631,11,32765
0,-0,-0,0,32765
0,-0,-0,0,32765
2.43238,-0.160639,-0.245376,11,32765
2.41198,-0.167621,-0.243184,13,32765
2.59005,-0.188789,-0.260978,17,32765
2.57949,-0.197053,-0.259657,16,32765
2.63832,-0.210685,-0.265475,17,32765
2.61778,-0.218087,-0.263196,17,32765
2.58729,-0.224517,-0.260002,17,32765
2.58654,-0.233265,-0.259833,18,32765
2.66499,-0.249477,-0.267792,18,32765
2.53543,-0.246068,-0.254276,18,32765
2.58407,-0.259766,-0.259215,17,32765
2.62276,-0.272835,-0.263084,18,32765
2.54267,-0.273371,-0.254919,18,32765
2.62084,-0.291021,-0.262697,18,32765
2.56056,-0.293092,-0.256411,17,32765
2.50025,-0.29486,-0.250401,17,32765
2.48937,-0.302195,-0.249227,17,32765
2.38959,-0.298266,-0.239336,15,32765
2.34909,-0.301282,-0.23535,14,32765
2.32835,-0.306577,-0.233181,13,32765
2.33714,-0.315936,-0.234181,12,32765
2.47406,-0.343119,-0.247789,12,32765
2.6502,-0.376968,-0.265401,12,32765
2.51104,-0.366074,-0.251345,12,32765
2.53931,-0.379051,-0.254228,11,32765
0,-0,-0,0,32765
2.51701,-0.393509,-0.251825,12,32765
2.39774,-0.383333,-0.239817,12,32765
2.39641,-0.391673,-0.23965,12,32765
2.35581,-0.393219,-0.235673,12,32765
2.51145,-0.428012,-0.251043,12,32765
2.63749,-0.458662,-0.263344,12,32765
2.30276,-0.408439,-0.230156,13,32765
2.30136,-0.416325,-0.229998,12,32765
2.2706,-0.418748,-0.226756,13,32765
2.25937,-0.424786,-0.225648,13,32765
2.31658,-0.443763,-0.231154,12,32765
2.3737,-0.462921,-0.236952,13,32765
2.38191,-0.47286,-0.237718,13,32765
2.27303,-0.45918,-0.226642,13,32765
2.33,-0.478929,-0.232024,14,32765
2.30888,-0.482822,-0.229924,14,32765
2.27804,-0.484492,-0.226763,14,32765
2.34452,-0.506934,-0.23308,14,32765
2.32341,-0.510479,-0.230817,13,32765
2.24398,-0.501012,-0.222791,13,32765
2.29085,-0.519575,-0.227247,12,32765
2.32793,-0.536219,-0.230716,12,32765
2.36492,-0.553084,-0.234218,12,32765
2.54716,-0.604619,-0.25163,12,32765
2.51614,-0.606132,-0.248255,12,32765
2.36907,-0.579178,-0.233588,13,32765
2.36717,-0.587081,-0.23308,12,32765
2.4425,-0.614377,-0.240051,13,32765
2.44052,-0.622474,-0.239358,13,32765
2.35172,-0.608222,-0.230372,12,32765
2.40752,-0.631229,-0.235331,12,32765
2.39586,-0.636643,-0.233708,12,32765
2.4226,-0.652386,-0.236209,12,32765
2.45894,-0.670905,-0.238949,12,32765
2.41835,-0.668518,-0.234665,12,32765
2.39702,-0.671231,-0.231872,14,32765
2.34699,-0.665449,-0.226518,15,32765
2.38316,-0.68412,-0.229364,15,32765
2.3619,-0.686304,-0.226494,14,32765
2.31192,-0.680024,-0.221301,15,32765
2.3097,-0.68781,-0.220458,16,32765
2.32659,-0.701136,-0.2213,17,32765
2.31487,-0.70578,-0.219452,17,32765
2.29369,-0.707208,-0.216624,17,32765
2.3295,-0.726529,-0.219331,17,32765
2.29872,-0.725165,-0.215495,17,32765
2.27749,-0.726608,-0.212367,17,32765
2.31319,-0.746174,-0.214458,17,32765
2.28253,-0.744241,-0.210369,17,32765
2.28028,-0.751474,-0.209025,17,32765
0,0,-0,0,32765
0,0,-0,0,32765
0,0,-0,0,32765
0,0,-0,0,32765
0,0,-0,0,32765
0,0,-0,0,32765
0,-0,-0,11,32765
0,-0,-0,0,32765
0,-0,-0,0,32765
0,-0,-0,0,32765
0,-0,-0,0,32765
0,-0,-0,0,32765
0,-0,-0,0,32765
0,-0,-0,0,32765
0,-0,-0,0,32765
2.31608,-0.0740829,-0.24327,11,32765
0,-0,-0,0,32765
0,-0,-0,0,32765
2.40454,-0.101451,-0.253526,11,32765
0,-0,-0,0,32765
0,-0,-0,0,32765
0,-0,-0,0,32765
2.34328,-0.130595,-0.248204,12,32765
2.72999,-0.161417,-0.289099,11,32765
2.45148,-0.153467,-0.260011,12,32765
2.57001,-0.169701,-0.272652,13,32765
2.50987,-0.174358,-0.266587,14,32765
2.46959,-0.180044,-0.262299,15,32765
2.53837,-0.193612,-0.269812,16,32765
2.52779,-0.201337,-0.268794,16,32765
2.57664,-0.21385,-0.27423,17,32765
2.51647,-0.217354,-0.267791,17,32765
2.54542,-0.228588,-0.271096,16,32765
2.48524,-0.231756,-0.264518,16,32765
2.46459,-0.238494,-0.262665,16,32765
2.47368,-0.247853,-0.263609,17,32765
2.5124,-0.260321,-0.267723,16,32765
2.45218,-0.262491,-0.261397,17,32765
2.51062,-0.277243,-0.267465,16,32765
2.47013,-0.281305,-0.263325,15,32765
2.43954,-0.286254,-0.25999,16,32765
2.4287,-0.293412,-0.258718,17,32765
2.42766,-0.30181,-0.258766,16,32765
2.44638,-0.312616,-0.260552,16,32765
2.48475,-0.326137,-0.264647,17,32765
2.37524,-0.319911,-0.252988,16,32765
2.37416,-0.327954,-0.252822,15,32765
2.31395,-0.327637,-0.246601,15,32765
2.23414,-0.324072,-0.237663,14,32765
2.26251,-0.336126,-0.240996,13,32765
2.26136,-0.343935,-0.240714,12,32765
2.27002,-0.35324,-0.241481,12,32765
0,-0,-0,0,32765
2.39518,-0.389707,-0.254607,12,32765
0,-0,-0,0,32765
0,-0,-0,0,32765
0,-0,-0,0,32765
2.53661,-0.448478,-0.269442,11,32765
0,-0,-0,0,32765
0,-0,-0,0,32765
0,-0,-0,0,32765
0,-0,-0,11,32765
0,-0,-0,0,32765
2.39052,-0.472932,-0.253499,11,32765
0,-0,-0,0,32765
0,-0,-0,0,32765
2.38563,-0.497378,-0.252755,12,32765
2.45207,-0.519938,-0.259669,12,32765
2.46006,-0.530314,-0.26036,12,32765
2.4194,-0.530156,-0.255972,11,32765
0,-0,-0,0,32765
2.36728,-0.535595,-0.25049,12,32765
2.33637,-0.537006,-0.247215,12,32765
2.40238,-0.560719,-0.254133,12,32765
2.39078,-0.566662,-0.252879,11,32765
2.53396,-0.609611,-0.267988,11,32765
2.37731,-0.580342,-0.251396,12,32765
2.49122,-0.617113,-0.263397,12,32765
2.24797,-0.564784,-0.23782,12,32765
2.34246,-0.596946,-0.247847,13,32765
2.26345,-0.584799,-0.239385,15,32765
2.24226,-0.587314,-0.237169,15,32765
2.28837,-0.60758,-0.242105,15,32765
2.22873,-0.599625,-0.2358,15,32765
2.27471,-0.620184,-0.240725,14,32765
2.24391,-0.619754,-0.237421,15,32765
2.21309,-0.619203,-0.234355,16,32765
2.22061,-0.629247,-0.235225,16,32765
2.24724,-0.64481,-0.237999,16,32765
2.19734,-0.638319,-0.232926,16,32765
2.27158,-0.668008,-0.240975,16,32765
2.20264,-0.655623,-0.233766,16,32765
2.15282,-0.648602,-0.228613,15,32765
2.21733,-0.675907,-0.235531,16,32765
2.14854,-0.662621,-0.22871,16,32765
2.21292,-0.690235,-0.235509,16,32765
2.17273,-0.685347,-0.231585,16,32765
2.23684,-0.713507,-0.238863,16,32765
2.17776,-0.702335,-0.232553,16,32765
2.20381,-0.718575,-0.236169,16,32765
2.17318,-0.716185,-0.233122,16,32765
0,0,-0,0,32765
0,0,-0,0,32765
0,0,-0,0,32765
0,0,-0,0,32765
0,0,-0,0,32765
0,0,-0,0,32765
0,-0,-0,0,32765
0,-0,-0,0,32765
0,-0,-0,0,32765
0,-0,-0,0,32765
0,-0,-0,0,32765
0,-0,-0,0,32765
0,-0,-0,0,32765
0,-0,-0,0,32765
0,-0,-0,0,32765
2.55199,-0.0820549,-0.292424,13,32765
2.66086,-0.0947176,-0.305369,14,32765
2.591,-0.101116,-0.29765,14,32765
2.55091,-0.108126,-0.293333,15,32765
2.61004,-0.119577,-0.300446,16,32765
2.55006,-0.125355,-0.293886,16,32765
2.61906,-0.13762,-0.301979,17,32765
2.51934,-0.140997,-0.290943,17,32765
2.54861,-0.151313,-0.294266,17,32765
2.53811,-0.159534,-0.29348,16,32765
2.55738,-0.16954,-0.295781,17,32765
2.5072,-0.174858,-0.290299,16,32765
2.50659,-0.183451,-0.290224,17,32765
2.52576,-0.193388,-0.292656,17,32765
2.51519,-0.201093,-0.291543,17,32765
2.49468,-0.207825,-0.289408,17,32765
2.50388,-0.21707,-0.290445,17,32765
2.50311,-0.225617,-0.290584,17,32765
2.53202,-0.236981,-0.293775,17,32765
2.53115,-0.245822,-0.294036,17,32765
2.46112,-0.247482,-0.285885,17,32765
2.48004,-0.257887,-0.288077,17,32765
2.46927,-0.26526,-0.286927,18,32765
2.47827,-0.274638,-0.287821,17,32765
2.45757,-0.280857,-0.285598,17,32765
2.48621,-0.292749,-0.28886,17,32765
2.43591,-0.295306,-0.282907,17,32765
2.48415,-0.309901,-0.288682,17,32765
2.4437,-0.313348,-0.283781,16,32765
2.48203,-0.326896,-0.28825,17,32765
2.48092,-0.335286,-0.288137,18,32765
2.45027,-0.339619,-0.284534,17,32765
2.40974,-0.342359,-0.280039,17,32765
2.46762,-0.359148,-0.286296,18,32765
2.41721,-0.36032,-0.280797,17,32765
2.40617,-0.367188,-0.279355,17,32765
2.44418,-0.381615,-0.283613,18,32765
2.40361,-0.38391,-0.278849,18,32765
2.41212,-0.393769,-0.279726,17,32765
2.41075,-0.402134,-0.279598,17,32765
2.37021,-0.403661,-0.27492,16,32765
2.37865,-0.413482,-0.275577,16,32765
2.37722,-0.421686,-0.275543,16,32765
2.36603,-0.427996,-0.27405,15,32765
2.37433,-0.437941,-0.27504,15,32765
2.3924,-0.449595,-0.277072,16,32765
2.33234,-0.446489,-0.270063,15,32765
2.36008,-0.460155,-0.27325,15,32765
2.39752,-0.475869,-0.277555,14,32765
2.32774,-0.470356,-0.269246,14,32765
2.33587,-0.480315,-0.270215,15,32765
2.32452,-0.486215,-0.268927,14,32765
2.34231,-0.498282,-0.270882,15,32765
2.39892,-0.518817,-0.277293,16,32765
2.36806,-0.52059,-0.273657,16,32765
2.33721,-0.52213,-0.27006,16,32765
2.31605,-0.525704,-0.267712,16,32765
2.30457,-0.531414,-0.266398,16,32765
2.29311,-0.536949,-0.265026,16,32765
2.32028,-0.551731,-0.268156,17,32765
2.27013,-0.547906,-0.262346,17,32765
2.31656,-0.567341,-0.267705,17,32765
2.32429,-0.577622,-0.268574,16,32765
2.31272,-0.582931,-0.267403,15,32765
2.33001,-0.595692,-0.269451,15,32765
2.27033,-0.588473,-0.262465,16,32765
2.29721,-0.603651,-0.265616,16,32765
2.23756,-0.596011,-0.258796,17,32765
2.29317,-0.618955,-0.265251,18,32765
2.25275,-0.61618,-0.260654,17,32765
2.23157,-0.618337,-0.258179,16,32765
2.18165,-0.612378,-0.252615,16,32765
2.28477,-0.649521,-0.264651,17,32765
2.23489,-0.643339,-0.258847,17,32765
2.19459,-0.639582,-0.254411,16,32765
2.2306,-0.658078,-0.258781,17,32765
2.19033,-0.654071,-0.254235,17,32765
2.20718,-0.667131,-0.256349,16,32765
2.22401,-0.68014,-0.258392,16,32765
2.20276,-0.681545,-0.256444,18,32765
2.16265,-0.676744,-0.251742,17,32765
2.16045,-0.683686,-0.251858,16,32765
2.1866,-0.69975,-0.255364,16,32765
2.17492,-0.7037,-0.25402,16,32765
2.15369,-0.704518,-0.252379,16,32765
2.17975,-0.720691,-0.255691,16,32765
0,0,-0,0,32765
0,0,-0,0,32765
0,0,-0,0,32765
2.58972,0.02533,-0.323769,13,32765
2.47082,0.0157215,-0.308073,13,32765
2.58003,0.00759141,-0.32156,14,32765
2.54043,-0.00132242,-0.315973,15,32765
2.56029,-0.0101914,-0.318148,15,32765
2.50072,-0.018561,-0.310538,15,32765
2.51061,-0.0271934,-0.311408,16,32765
2.59984,-0.0369881,-0.322257,16,32765
2.53028,-0.0446853,-0.313366,16,32765
2.51032,-0.0529115,-0.310452,16,32765
2.5399,-0.0622739,-0.314067,16,32765
2.47024,-0.0689732,-0.305391,16,32765
2.47003,-0.0774065,-0.305097,16,32765
2.56896,-0.0892732,-0.317146,16,32765
2.50918,-0.0956792,-0.309436,16,32765
2.52867,-0.10501,-0.311948,16,32765
2.45889,-0.110479,-0.303431,16,32765
2.47838,-0.119828,-0.305384,17,32765
2.48786,-0.128869,-0.306693,16,32765
2.45769,-0.135796,-0.302871,16,32765
2.48693,-0.145952,-0.306586,16,32765
2.52608,-0.156789,-0.31117,16,32765
2.43641,-0.159522,-0.300134,16,32765
2.44577,-0.1684,-0.301216,16,32765
2.46502,-0.178136,-0.303376,17,32765
2.49408,-0.188779,-0.307145,16,32765
2.40436,-0.190463,-0.296072,16,32765
2.46305,-0.203763,-0.303267,16,32765
2.54146,-0.219224,-0.312741,16,32765
2.43192,-0.21825,-0.299542,16,32765
2.51026,-0.23395,-0.308997,16,32765
2.45019,-0.236738,-0.30157,16,32765
2.44937,-0.245139,-0.301468,17,32765
2.41893,-0.250387,-0.297632,16,32765
2.42794,-0.259714,-0.298741,16,32765
2.37771,-0.262594,-0.292647,15,32765
2.42612,-0.276332,-0.298607,16,32765
2.34632,-0.275415,-0.288702,15,32765
2.40449,-0.290593,-0.295921,16,32765
2.41335,-0.300026,-0.297016,17,32765
2.34345,-0.299479,-0.288055,16,32765
2.38179,-0.312647,-0.292812,16,32765
2.41023,-0.32476,-0.296311,17,32765
2.35012,-0.324875,-0.288911,16,32765
2.3785,-0.337177,-0.292276,17,32765
2.34786,-0.341097,-0.288592,16,32765
2.35656,-0.350555,-0.289376,17,32765
2.33574,-0.355625,-0.286807,16,32765
2.32472,-0.362194,-0.285323,16,32765
2.35287,-0.374862,-0.288927,16,32765
2.3222,-0.378258,-0.284982,17,32765
2.3601,-0.392754,-0.289401,16,32765
2.37835,-0.404162,-0.291577,16,32765
2.30853,-0.400362,-0.282815,16,32765
2.31697,-0.409841,-0.283845,16,32765
2.31559,-0.417705,-0.283659,16,32765
2.34354,-0.430894,-0.286655,16,32765
2.26403,-0.424281,-0.276706,16,32765
2.35037,-0.448811,-0.287129,17,32765
2.27091,-0.441626,-0.277212,16,32765
2.3084,-0.457024,-0.281675,16,32765
2.28744,-0.460875,-0.27874,16,32765
2.29565,-0.470729,-0.279319,16,32765
2.29404,-0.478592,-0.279142,16,32765
2.31188,-0.490627,-0.280879,16,32765
2.31024,-0.498573,-0.280354,15,32765
2.3183,-0.508506,-0.281069,16,32765
2.25846,-0.50344,-0.273521,16,32765
2.27619,-0.515422,-0.275317,17,32765
2.25515,-0.518669,-0.272341,17,32765
2.26311,-0.52859,-0.272961,16,32765
2.24207,-0.531586,-0.270101,17,32765
2.25,-0.541478,-0.270536,17,32765
2.25787,-0.551439,-0.27114,15,32765
2.30429,-0.57095,-0.276367,13,32765
2.19648,-0.552025,-0.262953,15,32765
2.19474,-0.559265,-0.262165,16,32765
2.23143,-0.576433,-0.266177,16,32765
2.18154,-0.571268,-0.259676,15,32765
2.23732,-0.593806,-0.265859,16,32765
2.16826,-0.583221,-0.257116,16,32765
2.2335,-0.608748,-0.26417,17,32765
2.2124,-0.610908,-0.261096,16,32765
2.13389,-0.596895,-0.251231,15,32765
2.21801,-0.628427,-0.260635,16,32765
2.13957,-0.613949,-0.250825,16,32765
2.1663,-0.629268,-0.253133,16,32765
2.1643,-0.636424,-0.252357,16,32765
2.18134,-0.64922,-0.253677,16,32765
2.12222,-0.639094,-0.246246,16,32765
2.18681,-0.666235,-0.252975,16,32765
2.20377,-0.679171,-0.254045,16,32765
2.12575,-0.662724,-0.24409,16,32765
2.19005,-0.69062,-0.250634,16,32765
2.10271,-0.670416,-0.239946,15,32765
2.1858,-0.70475,-0.248364,15,32765
2.14584,-0.699548,-0.242735,16,32765
2.16261,-0.712686,-0.243532,16,32765
2.57598,0.0516496,-0.348769,16,32765
2.57626,0.0426982,-0.347967,16,32765
2.4972,0.0327931,-0.336595,17,32765
2.58655,0.0251326,-0.348185,17,32765
2.56691,0.0161433,-0.344675,16,32765
2.55706,0.00730996,-0.343223,16,32765
2.57698,-0.00158203,-0.345233,16,32765
2.56708,-0.0104834,-0.343612,16,32765
2.54724,-0.019194,-0.340742,17,32765
2.56703,-0.0281192,-0.343024,17,32765
2.50748,-0.0360057,-0.334856,17,32765
2.50738,-0.044637,-0.334577,17,32765
2.46763,-0.0523859,-0.328838,16,32765
2.55663,-0.0630971,-0.340658,17,32765
2.51678,-0.0707037,-0.335285,16,32765
2.51656,-0.0793203,-0.334986,17,32765
2.5163,-0.0879232,-0.334785,16,32765
2.50613,-0.0960649,-0.333104,17,32765
2.50579,-0.104586,-0.333169,17,32765
2.44599,-0.110438,-0.325313,17,32765
2.49517,-0.121213,-0.3314,16,32765
2.42543,-0.126216,-0.32228,17,32765
2.51408,-0.13954,-0.333957,18,32765
2.4542,-0.144669,-0.326119,18,32765
2.47353,-0.154193,-0.328453,17,32765
2.42354,-0.159356,-0.32183,17,32765
2.44278,-0.1689,-0.324318,17,32765
2.46201,-0.178653,-0.326665,17,32765
2.4416,-0.185561,-0.324152,18,32765
2.46071,-0.195711,-0.32667,17,32765
2.45014,-0.203502,-0.325243,18,32765
2.42969,-0.210407,-0.322361,18,32765
2.45855,-0.221499,-0.32648,17,32765
2.40845,-0.225328,-0.319649,17,32765
2.40769,-0.233523,-0.319523,17,32765
2.43648,-0.244774,-0.323348,17,32765
2.40607,-0.249994,-0.319232,17,32765
2.47422,-0.265653,-0.328281,17,32765
2.40432,-0.266519,-0.319103,16,32765
2.4231,-0.277007,-0.321606,16,32765
2.41232,-0.284202,-0.320098,17,32765
2.36212,-0.286514,-0.313506,17,32765
2.35131,-0.293374,-0.312085,16,32765
2.39952,-0.307753,-0.318126,16,32765
2.3788,-0.313378,-0.315433,17,32765
2.36791,-0.320198,-0.314,17,32765
2.34717,-0.325622,-0.31125,16,32765
2.35587,-0.335154,-0.312291,17,32765
2.35471,-0.343302,-0.31223,17,32765
2.34377,-0.349881,-0.310506,16,32765
2.38179,-0.363909,-0.315541,17,32765
2.34136,-0.366064,-0.310065,17,32765
2.33029,-0.372561,-0.308758,17,32765
2.31924,-0.37909,-0.307127,16,32765
2.30819,-0.385447,-0.305448,16,32765
2.26778,-0.386707,-0.300054,16,32765
2.32511,-0.404629,-0.307448,16,32765
2.30423,-0.408992,-0.304694,16,32765
2.29309,-0.415069,-0.303218,17,32765
2.32101,-0.428216,-0.306499,17,32765
2.25136,-0.42335,-0.29709,16,32765
2.30837,-0.442297,-0.3045,17,32765
2.3069,-0.450154,-0.304106,17,32765
2.32485,-0.461849,-0.306373,18,32765
2.34279,-0.47363,-0.308364,16,32765
2.3218,-0.477707,-0.305189,16,32765
2.26192,-0.473489,-0.297352,16,32765
2.23125,-0.475116,-0.292914,17,32765
2.22966,-0.482807,-0.292406,18,32765
2.24745,-0.494627,-0.294498,18,32765
2.27485,-0.508801,-0.29781,18,32765
2.30221,-0.523068,-0.301052,18,32765
2.20385,-0.508572,-0.287782,17,32765
2.21183,-0.518345,-0.288506,17,32765
2.26805,-0.539549,-0.29553,14,32765
2.28559,-0.551884,-0.297303,15,32765
2.17778,-0.533657,-0.282964,16,32765
2.22419,-0.552946,-0.288677,17,32765
2.19355,-0.553129,-0.284232,17,32765
2.21104,-0.565297,-0.28593,17,32765
2.20923,-0.572602,-0.285346,17,32765
2.2266,-0.585011,-0.287045,16,32765
2.30144,-0.612858,-0.296241,17,32765
2.24199,-0.605061,-0.288051,16,32765
2.18263,-0.59686,-0.279774,16,32765
2.18072,-0.604162,-0.278978,17,32765
2.18835,-0.61416,-0.279355,16,32765
2.21501,-0.629659,-0.282279,16,32765
2.20344,-0.634374,-0.280212,17,32765
2.17289,-0.633275,-0.275517,18,32765
2.1804,-0.643283,-0.275942,17,32765
2.13081,-0.636281,-0.269033,18,32765
2.12883,-0.643207,-0.268243,17,32765
2.15534,-0.658821,-0.270848,17,32765
2.13436,-0.659955,-0.267365,17,32765
2.13232,-0.66697,-0.266164,17,32765
2.13025,-0.673981,-0.265108,16,32765
2.13766,-0.683812,-0.265345,17,32765
2.11667,-0.68471,-0.261727,17,32765
2.1429,-0.700894,-0.263904,16,32765
2.15964,-0.714056,-0.264887,16,32765
2.56716,0.0513322,-0.339327,16,32765
2.5374,0.042227,-0.336765,16,32765
2.57699,0.0341145,-0.343415,17,32765
2.49766,0.0245761,-0.333895,16,32765
2.55703,0.016477,-0.343127,16,32765
2.44793,0.00752659,-0.329375,16,32765
2.45775,-0.000671929,-0.331458,15,32765
2.47745,-0.0091464,-0.334923,15,32765
2.51694,-0.0177288,-0.341053,16,32765
2.47714,-0.0258596,-0.336291,16,32765
2.50668,-0.0346844,-0.34097,16,32765
2.44703,-0.042265,-0.333367,16,32765
2.48642,-0.0516618,-0.339349,15,32765
2.51586,-0.061075,-0.343995,16,32765
2.46602,-0.0684623,-0.33786,15,32765
2.48551,-0.0775352,-0.341074,16,32765
2.43569,-0.0842479,-0.334568,16,32765
2.42541,-0.0921866,-0.333761,16,32765
2.42507,-0.100388,-0.333873,16,32765
2.39498,-0.107334,-0.330085,16,32765
2.42423,-0.116866,-0.334593,16,32765
2.42376,-0.124992,-0.335034,17,32765
2.40354,-0.132064,-0.332338,16,32765
2.38329,-0.138973,-0.329751,17,32765
2.38278,-0.147126,-0.32988,17,32765
2.40199,-0.156615,-0.332881,17,32765
2.37177,-0.162839,-0.328938,17,32765
2.38104,-0.17175,-0.3305,16,32765
2.36068,-0.178446,-0.327785,16,32765
2.36004,-0.186581,-0.327866,17,32765
2.34954,-0.193809,-0.326366,16,32765
2.39822,-0.206137,-0.333122,17,32765
2.36786,-0.211697,-0.329279,16,32765
2.33755,-0.217011,-0.325063,16,32765
2.33676,-0.225096,-0.325267,16,32765
2.34583,-0.234153,-0.326591,16,32765
2.28593,-0.236209,-0.318036,17,32765
2.30477,-0.246285,-0.320902,16,32765
2.3532,-0.259654,-0.327282,17,32765
2.32276,-0.264384,-0.323275,16,32765
2.30221,-0.269986,-0.320238,16,32765
2.30127,-0.2778,-0.320265,16,32765
2.32,-0.28809,-0.322818,16,32765
2.31905,-0.295987,-0.32246,17,32765
2.31805,-0.304033,-0.322219,17,32765
2.27775,-0.306756,-0.316466,17,32765
2.28654,-0.315873,-0.317584,16,32765
2.28549,-0.323732,-0.3172,17,32765
2.27463,-0.330031,-0.315477,17,32765
2.27351,-0.337961,-0.315176,16,32765
2.29194,-0.348898,-0.317625,16,32765
2.32994,-0.363019,-0.322454,17,32765
2.23086,-0.355557,-0.308641,17,32765
2.27857,-0.371078,-0.315164,17,32765
2.22848,-0.370677,-0.308,16,32765
2.27609,-0.386624,-0.31437,16,32765
2.27479,-0.394526,-0.313946,16,32765
2.22462,-0.393937,-0.307057,15,32765
2.24282,-0.405152,-0.309183,15,32765
2.23172,-0.411051,-0.307514,15,32765
2.26935,-0.425871,-0.312372,16,32765
2.19982,-0.420557,-0.302546,16,32765
2.23732,-0.435608,-0.307611,15,32765
2.17754,-0.431736,-0.299206,15,32765
2.1955,-0.443194,-0.301584,16,32765
2.20373,-0.452744,-0.302475,17,32765
2.17311,-0.454212,-0.298143,17,32765
2.16189,-0.459616,-0.296437,18,32765
2.21848,-0.479558,-0.304063,17,32765
2.12979,-0.467945,-0.291572,17,32765
2.14756,-0.47944,-0.294115,17,32765
2.1653,-0.491051,-0.296528,17,32765
2.16367,-0.49841,-0.296142,15,32765
2.12343,-0.49666,-0.290482,13,32765
2.07356,-0.492468,-0.283445,17,32765
2.19717,-0.529667,-0.300524,17,32765
2.14727,-0.525278,-0.293636,15,32765
2.13592,-0.530174,-0.291839,16,32765
2.1438,-0.539685,-0.292886,16,32765
2.1228,-0.541957,-0.290009,16,32765
2.1402,-0.553985,-0.292472,16,32765
2.07125,-0.543561,-0.28296,16,32765
2.13648,-0.568382,-0.292052,17,32765
2.10586,-0.567842,-0.287923,17,32765
2.08483,-0.569696,-0.285198,16,32765
2.15942,-0.597775,-0.295278,18,32765
2.11926,-0.594231,-0.289845,16,32765
2.1173,-0.601235,-0.289728,17,32765
2.09624,-0.602727,-0.287201,17,32765
2.09426,-0.609745,-0.286853,17,32765
2.00663,-0.591454,-0.275175,17,32765
2.04264,-0.609509,-0.280384,17,32765
2.04065,-0.616328,-0.279975,16,32765
2.15241,-0.657717,-0.295692,16,32765
2.01766,-0.623687,-0.277453,16,32765
1.98724,-0.621288,-0.273675,16,32765
2.08922,-0.660585,-0.287936,17,32765
2.05863,-0.658373,-0.284562,17,32765
2.06592,-0.668116,-0.285798,17,32765
2.07311,-0.677935,-0.287411,17,32765
2.04265,-0.675162,-0.28394,17,32765
2.51435,0.0501769,-0.356516,16,32765
2.54401,0.0422109,-0.362098,16,32765
2.56374,0.0337859,-0.366297,17,32765
2.55379,0.0249499,-0.365952,17,32765
2.51409,0.0159989,-0.361539,17,32765
2.52389,0.00753268,-0.363867,16,32765
2.52379,-0.000942571,-0.364636,16,32765
2.50387,-0.00952003,-0.362577,17,32765
2.5235,-0.0180785,-0.366216,17,32765
2.52334,-0.0266708,-0.366836,17,32765
2.48356,-0.0347133,-0.361719,16,32765
2.46356,-0.0429217,-0.359323,16,32765
2.4831,-0.0519929,-0.362791,17,32765
2.48282,-0.0606988,-0.363373,17,32765
2.44293,-0.068266,-0.358212,17,32765
2.43272,-0.0763562,-0.357251,17,32765
2.39286,-0.0832506,-0.351725,17,32765
2.40236,-0.0918214,-0.353725,17,32765
2.42179,-0.100792,-0.356748,17,32765
2.40162,-0.108191,-0.354136,17,32765
2.46047,-0.119211,-0.363302,17,32765
2.45999,-0.127483,-0.363749,17,32765
2.4299,-0.134152,-0.359405,17,32765
2.40966,-0.14117,-0.356633,17,32765
2.39927,-0.148824,-0.3553,17,32765
2.37896,-0.155813,-0.352636,17,32765
2.36852,-0.163337,-0.351338,17,32765
2.40738,-0.174407,-0.357387,18,32765
2.30812,-0.175223,-0.342766,16,32765
2.4061,-0.19103,-0.357496,18,32765
2.41531,-0.200069,-0.358828,18,32765
2.35548,-0.203302,-0.349941,17,32765
2.32518,-0.208733,-0.345813,17,32765
2.37371,-0.221262,-0.353037,17,32765
2.30398,-0.222831,-0.342983,16,32765
2.28351,-0.228842,-0.340003,16,32765
2.33194,-0.241917,-0.347002,16,32765
2.38024,-0.255348,-0.35445,18,32765
2.34009,-0.259213,-0.348116,17,32765
2.31951,-0.265037,-0.34529,17,32765
2.27934,-0.268332,-0.339143,17,32765
2.32751,-0.282042,-0.346478,17,32765
2.27748,-0.283884,-0.338986,17,32765
2.27655,-0.291659,-0.338633,18,32765
2.32459,-0.306038,-0.345689,18,32765
2.28435,-0.308795,-0.339561,17,32765
2.29311,-0.317961,-0.340771,17,32765
2.27247,-0.323081,-0.337475,17,32765
2.26163,-0.329355,-0.33566,17,32765
2.28008,-0.340183,-0.338262,17,32765
2.25935,-0.345196,-0.335093,17,32765
2.27776,-0.356183,-0.337406,17,32765
2.23746,-0.357905,-0.331347,17,32765
2.2265,-0.363912,-0.329659,16,32765
2.24483,-0.374744,-0.332146,17,32765
2.30211,-0.392451,-0.34042,17,32765
2.2033,-0.383499,-0.325583,16,32765
2.20195,-0.391319,-0.325432,16,32765
2.24934,-0.407781,-0.33206,17,32765
2.21878,-0.410124,-0.327424,16,32765
2.19801,-0.413949,-0.324053,15,32765
2.22581,-0.427034,-0.327906,16,32765
2.22438,-0.43462,-0.327616,16,32765
2.20351,-0.438429,-0.324368,18,32765
2.18262,-0.442147,-0.321217,19,32765
2.19084,-0.451679,-0.322202,18,32765
2.2087,-0.463273,-0.324712,17,32765
2.20714,-0.470883,-0.324327,17,32765
2.18622,-0.47424,-0.321136,17,32765
2.24268,-0.494471,-0.32909,15,32765
2.15407,-0.482573,-0.316214,15,32765
2.16212,-0.49204,-0.317394,17,32765
2.17977,-0.503869,-0.319838,18,32765
2.1492,-0.50444,-0.315214,18,32765
2.14753,-0.511811,-0.314761,17,32765
2.18428,-0.528391,-0.320346,16,32765
2.1633,-0.531038,-0.317222,17,32765
2.15194,-0.536006,-0.315326,17,32765
2.14059,-0.540747,-0.313649,16,32765
2.11961,-0.543021,-0.310584,17,32765
2.10823,-0.547601,-0.309019,16,32765
2.116,-0.557228,-0.310083,16,32765
2.11411,-0.564379,-0.310004,16,32765
2.10266,-0.568943,-0.308399,17,32765
2.0912,-0.573415,-0.306887,17,32765
2.10841,-0.585676,-0.309311,17,32765
2.04929,-0.576601,-0.300711,17,32765
2.07596,-0.591534,-0.304791,17,32765
2.11203,-0.609369,-0.310465,17,32765
2.09102,-0.610908,-0.307319,17,32765
2.08897,-0.617854,-0.307375,17,32765
2.09637,-0.627707,-0.308763,18,32765
2.07536,-0.628983,-0.305551,17,32765
2.03542,-0.624123,-0.300053,16,32765
2.08067,-0.645396,-0.307026,17,32765
2.05967,-0.646167,-0.304367,18,32765
2.07645,-0.658828,-0.307084,17,32765
2.05534,-0.659603,-0.304823,16,32765
2.0626,-0.669361,-0.30615,17,32765
2.05095,-0.673021,-0.305055,18,32765
2.02994,-0.673296,-0.3027,18,32765
0,0,-0,0,32765
2.46998,0.0430766,-0.38384,16,32765
2.50962,0.0354222,-0.390044,17,32765
2.38126,0.0254465,-0.370192,16,32765
2.49002,0.0179476,-0.387166,16,32765
2.40109,0.00907773,-0.37358,15,32765
2.44066,0.000822402,-0.379583,15,32765
2.39127,-0.00735674,-0.371743,15,32765
2.42086,-0.0156952,-0.376415,15,32765
2.37142,-0.0235129,-0.368529,15,32765
2.36146,-0.0315241,-0.366875,15,32765
2.36134,-0.0396464,-0.366849,16,32765
2.38099,-0.0482111,-0.369672,16,32765
2.38083,-0.0564781,-0.369542,16,32765
2.38066,-0.0647162,-0.369296,16,32765
2.35084,-0.0719235,-0.36439,16,32765
2.35059,-0.0799198,-0.364332,15,32765
2.35034,-0.0879857,-0.364112,17,32765
2.35991,-0.0964487,-0.365548,17,32765
2.33984,-0.103658,-0.362365,16,32765
2.31977,-0.110796,-0.359016,16,32765
2.28982,-0.117295,-0.354098,16,32765
2.28942,-0.125203,-0.353926,16,32765
2.33834,-0.135917,-0.361362,17,32765
2.32801,-0.143314,-0.359786,17,32765
2.31768,-0.150573,-0.358032,17,32765
2.28764,-0.156397,-0.353042,16,32765
2.26744,-0.162771,-0.349588,16,32765
2.33583,-0.175681,-0.360458,16,32765
2.29584,-0.180784,-0.354043,16,32765
2.29521,-0.188859,-0.353889,17,32765
2.30443,-0.197828,-0.355055,17,32765
2.30375,-0.206,-0.354845,16,32765
2.28335,-0.212218,-0.351663,17,32765
2.26293,-0.218197,-0.348595,16,32765
2.27204,-0.226922,-0.349888,16,32765
2.28112,-0.235731,-0.351163,17,32765
2.25084,-0.240383,-0.346484,16,32765
2.23037,-0.245983,-0.343277,16,32765
2.24917,-0.255964,-0.346142,17,32765
2.27774,-0.267213,-0.350592,16,32765
2.25719,-0.272757,-0.347413,16,32765
2.20721,-0.274522,-0.339642,16,32765
2.21607,-0.283449,-0.340995,17,32765
2.2347,-0.293736,-0.343848,16,32765
2.19448,-0.29612,-0.33789,17,32765
2.13472,-0.295542,-0.328653,16,32765
2.26094,-0.320946,-0.348195,17,32765
2.22073,-0.322972,-0.342008,17,32765
2.20987,-0.329187,-0.340141,17,32765
2.17945,-0.332294,-0.335357,17,32765
2.14899,-0.335278,-0.33083,16,32765
2.23568,-0.356862,-0.34422,17,32765
2.14663,-0.350396,-0.330454,16,32765
2.16492,-0.361154,-0.333281,15,32765
2.14422,-0.365346,-0.329907,15,32765
2.1722,-0.377818,-0.334216,16,32765
2.20013,-0.390437,-0.338536,16,32765
2.15019,-0.389215,-0.330615,15,32765
2.14885,-0.396557,-0.330566,15,32765
2.15724,-0.405633,-0.331898,15,32765
2.13653,-0.409235,-0.328303,16,32765
2.15454,-0.420282,-0.331224,15,32765
2.18222,-0.433428,-0.33547,16,32765
2.14205,-0.433112,-0.328818,16,32765
2.15025,-0.442485,-0.330175,16,32765
2.16811,-0.453915,-0.332926,15,32765
2.38909,-0.508704,-0.366576,12,32765
2.0201,-0.437375,-0.309839,14,32765
2.06696,-0.454861,-0.316832,15,32765
2.15235,-0.481287,-0.329611,16,32765
2.06396,-0.468888,-0.315938,17,32765
2.12025,-0.489195,-0.324358,16,32765
2.11864,-0.496468,-0.323889,17,32765
2.09777,-0.499023,-0.320521,16,32765
2.16344,-0.522386,-0.330365,15,32765
2.09448,-0.513243,-0.319577,16,32765
2.08322,-0.517902,-0.317628,16,32765
2.10075,-0.529803,-0.31976,16,32765
2.07026,-0.529525,-0.314978,16,32765
2.1356,-0.553852,-0.324567,15,32765
2.06688,-0.543342,-0.31366,16,32765
2.07474,-0.552787,-0.314278,16,32765
2.0634,-0.557165,-0.312316,16,32765
2.09026,-0.571854,-0.316071,16,32765
2.09799,-0.581446,-0.316793,17,32765
2.07709,-0.583054,-0.313284,15,32765
2.04671,-0.58186,-0.308117,17,32765
2.02586,-0.583212,-0.30441,16,32765
2.03352,-0.592731,-0.305089,17,32765
2.04118,-0.602273,-0.305526,16,32765
2.07727,-0.620325,-0.310244,17,32765
2.0374,-0.615686,-0.303994,17,32765
2.00712,-0.613675,-0.298756,16,32765
2.04311,-0.63185,-0.303444,16,32765
2.03177,-0.635487,-0.300909,16,32765
2.00154,-0.633122,-0.295618,17,32765
1.99967,-0.639605,-0.29432,16,32765
2.00716,-0.649133,-0.294694,15,32765
1.9958,-0.652561,-0.292129,16,32765
2.01277,-0.66513,-0.293177,17,32765
0,0,-0,0,32765
2.35774,0.0409743,-0.389213,16,32765
2.45651,0.0344971,-0.405559,16,32765
2.427,0.0257368,-0.400786,16,32765
2.44679,0.0174104,-0.40412,16,32765
2.37773,0.00874551,-0.392952,16,32765
2.3975,0.000537217,-0.396069,16,32765
2.39752,-0.00767111,-0.395912,16,32765
2.39747,-0.0158633,-0.395974,16,32765
2.38757,-0.024016,-0.394139,17,32765
2.38749,-0.0322391,-0.394019,17,32765
2.34791,-0.0398066,-0.38748,16,32765
2.38726,-0.0487548,-0.393744,17,32765
2.38709,-0.0570685,-0.393613,17,32765
2.40665,-0.0658931,-0.396617,16,32765
2.34729,-0.0722974,-0.386556,16,32765
2.28787,-0.0782812,-0.376754,16,32765
2.35664,-0.0887549,-0.387899,16,32765
2.35634,-0.0968603,-0.387806,16,32765
2.32644,-0.103638,-0.382814,17,32765
2.37539,-0.114064,-0.390626,18,32765
2.31591,-0.119252,-0.380561,17,32765
2.34507,-0.128898,-0.385242,16,32765
2.28554,-0.133507,-0.375343,16,32765
2.32447,-0.143792,-0.381762,17,32765
2.3437,-0.152989,-0.384764,17,32765
2.27432,-0.156213,-0.37303,16,32765
2.28369,-0.16469,-0.374231,16,32765
2.32244,-0.175464,-0.380911,16,32765
2.37105,-0.187539,-0.388638,17,32765
2.29172,-0.189401,-0.375582,16,32765
2.25176,-0.194145,-0.368789,17,32765
2.25108,-0.202155,-0.368583,16,32765
2.25039,-0.210042,-0.368435,17,32765
2.24965,-0.217828,-0.368398,17,32765
2.26857,-0.227518,-0.371392,17,32765
2.24818,-0.233285,-0.36794,17,32765
2.24739,-0.240997,-0.3678,17,32765
2.26619,-0.250949,-0.370828,17,32765
2.2261,-0.25436,-0.364247,17,32765
2.21541,-0.260942,-0.36256,18,32765
2.26351,-0.274609,-0.370422,17,32765
2.24298,-0.280074,-0.366993,18,32765
2.20286,-0.282866,-0.360425,17,32765
2.22146,-0.293136,-0.363463,17,32765
2.2302,-0.302111,-0.365139,18,32765
2.2194,-0.308455,-0.363343,17,32765
2.18901,-0.311934,-0.358485,17,32765
2.21726,-0.323706,-0.363127,17,32765
2.20642,-0.329929,-0.361167,18,32765
2.20532,-0.337517,-0.360893,17,32765
2.21389,-0.346714,-0.362473,17,32765
2.19318,-0.351401,-0.359137,17,32765
2.19197,-0.359143,-0.358892,17,32765
2.16151,-0.361938,-0.353928,17,32765
2.15057,-0.367798,-0.351961,17,32765
2.18822,-0.382023,-0.358138,17,32765
2.1772,-0.387806,-0.356371,18,32765
2.13706,-0.388275,-0.349577,17,32765
2.17456,-0.402786,-0.355881,17,32765
2.1247,-0.400989,-0.347775,17,32765
2.14281,-0.411952,-0.350342,17,32765
2.10265,-0.411667,-0.343938,15,32765
2.25619,-0.449763,-0.369058,13,32765
2.09991,-0.426145,-0.343038,14,32765
2.1468,-0.443388,-0.35081,16,32765
2.14529,-0.450776,-0.350588,18,32765
2.06656,-0.441631,-0.33749,16,32765
2.14228,-0.465515,-0.349743,17,32765
2.10218,-0.464292,-0.343013,17,32765
2.14886,-0.482247,-0.350333,17,32765
2.12801,-0.485188,-0.346808,18,32765
2.13605,-0.49462,-0.347934,17,32765
2.11518,-0.497447,-0.344329,17,32765
2.10395,-0.502297,-0.342338,17,32765
2.0831,-0.504799,-0.338778,17,32765
2.08145,-0.511885,-0.338269,17,32765
2.09896,-0.523692,-0.340898,16,32765
2.11645,-0.535677,-0.343208,17,32765
2.09556,-0.537916,-0.339693,17,32765
2.10339,-0.547453,-0.340633,16,32765
2.07302,-0.546905,-0.335265,17,32765
2.07131,-0.553844,-0.33443,17,32765
2.05044,-0.555643,-0.330836,17,32765
2.08678,-0.572941,-0.336407,16,32765
2.05642,-0.571957,-0.33109,16,32765
2.08314,-0.586837,-0.335055,17,32765
2.05279,-0.585669,-0.329604,17,32765
2.06995,-0.598026,-0.331795,17,32765
2.02063,-0.591068,-0.323438,17,32765
2.04724,-0.606208,-0.327,17,32765
2.04538,-0.612971,-0.326046,18,32765
2.02452,-0.613965,-0.322445,18,32765
2.0132,-0.617717,-0.319936,17,32765
2.03022,-0.630092,-0.321995,17,32765
2.00005,-0.62778,-0.316388,17,32765
2.04529,-0.649253,-0.322731,17,32765
2.01513,-0.646831,-0.316959,17,32765
2.02258,-0.656435,-0.317416,17,32765
2.02062,-0.663013,-0.316218,17,32765
0,-0,-0,0,32765
0,0,0,0,32765
0,0,0,0,32765
0,0,0,0,32765
0,0,0,0,32765
3.09046,0.9596,0.593584,12,32765
0,0,0,0,32765
0,0,0,0,32765
0,0,0,0,32765
3.2073,0.949726,0.609297,11,32765
0,0,0,0,32765
3.03418,0.876977,0.573376,12,32765
0,0,0,0,32765
0,0,0,0,32765
0,0,0,0,32765
0,0,0,0,32765
0,0,0,0,32765
0,0,0,0,32765
0,0,0,0,32765
0,0,0,0,32765
0,0,0,0,32765
0,0,0,0,32765
0,0,0,0,32765
0,0,0,0,32765
0,0,0,0,32765
2.09682,0.503769,0.381676,13,32765
2.08897,0.494667,0.379359,15,32765
2.05237,0.478796,0.371651,17,32765
2.01564,0.463155,0.36423,18,32765
2.04603,0.463054,0.369108,19,32765
2.05724,0.458438,0.370426,19,32765
2.06846,0.453803,0.371556,19,32765
2.07003,0.447018,0.371011,19,32765
2.0619,0.43823,0.368926,19,32765
2.05378,0.429511,0.366608,19,32765
2.0649,0.424771,0.367912,19,32765
2.06632,0.418065,0.367602,19,32765
2.08707,0.415124,0.370703,18,32765
2.0692,0.404456,0.366618,17,32765
2.06087,0.395787,0.364762,18,32765
2.01383,0.379881,0.355759,18,32765
2.04417,0.378712,0.360611,19,32765
2.05519,0.373645,0.361942,19,32765
2.03712,0.363275,0.35802,19,32765
2.05779,0.359849,0.361139,19,32765
2.05902,0.353034,0.360819,18,32765
2.02133,0.339859,0.353748,18,32765
2.07108,0.341414,0.361881,19,32765
2.01384,0.325238,0.351535,19,32765
2.0539,0.324728,0.357988,18,32765
2.06476,0.319323,0.359433,18,32765
2.01712,0.305019,0.35084,18,32765
2.05716,0.303953,0.357507,18,32765
2.0387,0.294262,0.35386,18,32765
2.03975,0.287455,0.353403,18,32765
2.05051,0.281979,0.354823,18,32765
2.01234,0.27005,0.348072,18,32765
2.03282,0.265976,0.351126,18,32765
2.04351,0.260521,0.352563,17,32765
2.09332,0.259909,0.360631,15,32765
0,0,0,0,32765
0,0,0,0,32765
2.00778,0.229118,0.344715,12,32765
2.08695,0.231208,0.357864,12,32765
2.03872,0.219035,0.349321,14,32765
1.99048,0.207174,0.340565,16,32765
2.01077,0.202664,0.343859,17,32765
2.03111,0.197867,0.346913,19,32765
2.00236,0.188381,0.341592,20,32765
2.04232,0.185337,0.347794,20,32765
2.04297,0.178551,0.347525,20,32765
2.03378,0.171042,0.345538,20,32765
2.02456,0.163511,0.343526,19,32765
2.06442,0.15991,0.350147,20,32765
2.05519,0.152345,0.347992,20,32765
2.03608,0.144128,0.344261,19,32765
2.01688,0.136185,0.340823,20,32765
2.02723,0.130269,0.341989,21,32765
2.00801,0.122482,0.338374,21,32765
2.01829,0.116555,0.339712,21,32765
2.01872,0.109942,0.339401,20,32765
2.00929,0.102861,0.337303,21,32765
2.03922,0.0976828,0.341952,21,32765
2.0002,0.0892943,0.334882,20,32765
2.03011,0.084023,0.3394,20,32765
2.02057,0.0770478,0.337421,20,32765
2.02089,0.070467,0.336969,20,32765
2.02119,0.0638326,0.336487,20,32765
2.02146,0.0572671,0.336036,20,32765
2.02171,0.0506912,0.335563,20,32765
2.02194,0.0441308,0.335122,20,32765
2.0024,0.0373398,0.331517,20,32765
2.0125,0.031028,0.332385,21,32765
2.03238,0.0247713,0.335296,21,32765
2.04244,0.018257,0.336186,20,32765
2.04259,0.0117094,0.335551,21,32765
2.0131,0.00512158,0.33014,20,32765
2.0231,-0.00126319,0.331034,20,32765
2.05282,-0.00777374,0.335069,20,32765
2.03314,-0.0141388,0.331247,20,32765
2.04312,-0.0207239,0.331868,20,32765
2.0333,-0.0270579,0.32949,21,32765
0,0,0,0,32765
0,0,0,0,32765
0,0,0,0,32765
0,0,0,0,32765
3.18945,0.991426,0.580161,11,32765
3.07975,0.946344,0.55898,11,32765
2.98877,0.907599,0.540777,11,32765
2.96359,0.889274,0.534703,11,32765
0,0,0,0,32765
2.97923,0.872441,0.534331,12,32765
2.93485,0.849171,0.524942,12,32765
3.02297,0.864196,0.539378,11,32765
3.06386,0.86526,0.544946,11,32765
0,0,0,0,32765
0,0,0,0,32765
0,0,0,0,32765
0,0,0,0,32765
0,0,0,0,32765
0,0,0,0,32765
2.02424,0.521994,0.352685,16,32765
2.02603,0.515352,0.352174,18,32765
1.99911,0.501525,0.346615,20,32765
1.99129,0.492626,0.3442,20,32765
1.99294,0.486204,0.343822,21,32765
2.01381,0.484298,0.346473,20,32765
1.97708,0.468626,0.33933,20,32765
1.99796,0.46655,0.341896,20,32765
1.98035,0.45548,0.338142,19,32765
1.99152,0.451142,0.339468,20,32765
1.99306,0.444553,0.339065,19,32765
1.97534,0.433775,0.335215,19,32765
1.98649,0.429369,0.336327,19,32765
1.98793,0.422891,0.33598,19,32765
1.96042,0.410354,0.33052,19,32765
1.96183,0.403925,0.330124,20,32765
2.01153,0.407336,0.337952,20,32765
1.99356,0.396867,0.334384,19,32765
1.96591,0.384593,0.328894,19,32765
1.98657,0.381838,0.331996,19,32765
1.9782,0.373467,0.329943,19,32765
1.97945,0.367019,0.329674,19,32765
1.96131,0.356862,0.326081,20,32765
1.96258,0.350257,0.325591,18,32765
1.97351,0.345377,0.326925,19,32765
1.95524,0.335492,0.3234,20,32765
1.98555,0.334091,0.327967,19,32765
1.94772,0.32131,0.321188,19,32765
1.94878,0.314953,0.32104,19,32765
1.92062,0.303865,0.315907,19,32765
1.94118,0.300411,0.318877,20,32765
1.95196,0.295357,0.320368,19,32765
1.95296,0.288739,0.320261,20,32765
1.92465,0.277968,0.315213,20,32765
1.92564,0.271533,0.314781,20,32765
1.93636,0.266431,0.316124,21,32765
1.92743,0.258794,0.314534,21,32765
1.93811,0.253713,0.31582,22,32765
1.92919,0.246065,0.313988,22,32765
1.93983,0.240962,0.315242,21,32765
1.93085,0.233335,0.313503,22,32765
1.93162,0.227039,0.313371,21,32765
1.93244,0.2206,0.312929,22,32765
1.94301,0.215331,0.314235,22,32765
1.94374,0.20889,0.314099,22,32765
1.94447,0.202437,0.313749,22,32765
1.91566,0.193118,0.308937,21,32765
1.936,0.188632,0.311819,22,32765
1.93666,0.182222,0.311535,22,32765
1.93732,0.17582,0.311064,22,32765
1.9281,0.168513,0.309232,22,32765
1.94837,0.163851,0.312084,22,32765
1.94896,0.157387,0.311754,23,32765
1.91994,0.148691,0.306984,22,32765
1.93034,0.143053,0.308101,23,32765
1.94072,0.137331,0.30929,22,32765
1.92146,0.129686,0.306044,22,32765
1.93181,0.124072,0.307141,22,32765
1.93224,0.117785,0.306857,22,32765
1.93266,0.111525,0.306549,22,32765
1.94293,0.105719,0.307815,22,32765
1.9532,0.099885,0.308947,22,32765
1.94369,0.0929929,0.307091,22,32765
1.94406,0.0866649,0.306641,21,32765
1.93452,0.0799347,0.304674,22,32765
1.93482,0.0736365,0.304356,22,32765
1.93512,0.0673253,0.303924,22,32765
1.94528,0.0612739,0.305011,22,32765
1.95541,0.0552243,0.306123,22,32765
1.9359,0.0483601,0.302578,22,32765
1.93611,0.0420686,0.302155,21,32765
1.94617,0.036092,0.303371,22,32765
1.95627,0.0299516,0.304167,22,32765
1.94653,0.0235069,0.302299,22,32765
1.96646,0.0173483,0.304657,22,32765
1.94684,0.0109239,0.30099,21,32765
1.95683,0.00473126,0.301986,22,32765
1.95694,-0.00147821,0.301285,22,32765
1.95705,-0.0076765,0.300514,21,32765
1.94722,-0.0138146,0.298421,22,32765
1.92754,-0.0198311,0.294461,22,32765
1.96712,-0.0264717,0.299751,21,32765
0,0,0,0,32765
0,0,0,0,32765
0,0,0,0,32765
0,0,0,0,32765
0,0,0,0,32765
0,0,0,0,32765
2.91755,0.888698,0.496202,11,32765
0,0,0,0,32765
0,0,0,0,32765
0,0,0,0,32765
0,0,0,0,32765
0,0,0,0,32765
2.13662,0.605915,0.360853,11,32765
2.09112,0.585541,0.352666,13,32765
2.00745,0.555027,0.33794,14,32765
2.00927,0.54847,0.337803,16,32765
2.03013,0.547117,0.340807,17,32765
2.03195,0.540488,0.340502,18,32765
2.03376,0.533834,0.340234,19,32765
2.07378,0.537005,0.346362,18,32765
2.04688,0.52291,0.341246,19,32765
2.06775,0.521046,0.344241,19,32765
2.06951,0.514235,0.343943,18,32765
2.04245,0.500454,0.338878,19,32765
2.05373,0.496051,0.340213,18,32765
2.07462,0.493789,0.343085,19,32765
2.02821,0.475666,0.334955,19,32765
2.06832,0.477751,0.341026,19,32765
2.01219,0.457806,0.331036,18,32765
2.05227,0.459886,0.337042,18,32765
2.03454,0.448977,0.333398,19,32765
2.02645,0.440122,0.331361,18,32765
2.06655,0.441628,0.337544,19,32765
2.06806,0.434721,0.337253,18,32765
2.04061,0.421791,0.33182,18,32765
2.04199,0.415184,0.331684,19,32765
2.08211,0.416306,0.337628,19,32765
2.08356,0.409464,0.337093,18,32765
2.03644,0.393223,0.329087,19,32765
2.06693,0.391919,0.333295,19,32765
2.02948,0.377753,0.326512,18,32765
2.04048,0.372779,0.327838,18,32765
2.03202,0.364294,0.325983,18,32765
2.0333,0.357539,0.325525,19,32765
2.01508,0.347416,0.321931,18,32765
2.02601,0.342402,0.323181,19,32765
2.02722,0.335727,0.322595,19,32765
2.0186,0.327509,0.320735,18,32765
2.02949,0.322476,0.321834,19,32765
1.99154,0.309726,0.315313,19,32765
2.0024,0.304577,0.316424,19,32765
2.00346,0.297888,0.316087,20,32765
2.01425,0.292548,0.317495,20,32765
2.01532,0.285768,0.316926,20,32765
2.01628,0.278972,0.316853,21,32765
2.00748,0.270986,0.31479,20,32765
2.00843,0.264356,0.314383,20,32765
1.99949,0.256633,0.312711,21,32765
2.02975,0.253791,0.317213,21,32765
2.02086,0.245956,0.314985,20,32765
2.02166,0.239446,0.314913,20,32765
2.01269,0.231575,0.312964,21,32765
2.02326,0.226107,0.314453,20,32765
2.00438,0.217313,0.311189,20,32765
2.02483,0.212735,0.313709,21,32765
2.00585,0.204135,0.310613,21,32765
2.02625,0.199454,0.313275,21,32765
2.01706,0.191854,0.311685,21,32765
2.02755,0.186093,0.31308,21,32765
2.02821,0.179386,0.312679,21,32765
1.99925,0.170266,0.308102,21,32765
2.01952,0.165317,0.310979,21,32765
2.02008,0.158674,0.310782,21,32765
2.0206,0.152176,0.310651,21,32765
2.02109,0.145553,0.31069,21,32765
2.01171,0.138405,0.308952,21,32765
2.03187,0.133134,0.312061,20,32765
2.03231,0.126564,0.311929,21,32765
2.02283,0.119366,0.310471,20,32765
2.03315,0.113234,0.311598,21,32765
2.03347,0.106688,0.311769,21,32765
2.03382,0.0999876,0.311754,21,32765
2.0341,0.0933959,0.311922,21,32765
2.02453,0.0863034,0.310383,21,32765
2.03466,0.0800715,0.311996,21,32765
2.02502,0.073169,0.310544,21,32765
2.03509,0.0668791,0.312278,21,32765
2.03528,0.0602684,0.312413,21,32765
2.02557,0.0533068,0.310996,20,32765
2.0356,0.0468604,0.312644,21,32765
2.04559,0.0404662,0.314378,21,32765
2.04568,0.0339345,0.314519,21,32765
2.01609,0.0270738,0.310244,20,32765
2.03588,0.02084,0.313652,20,32765
2.026,0.0141535,0.312474,20,32765
2.02597,0.00748347,0.312895,20,32765
2.02589,0.000780748,0.3135,21,32765
2.0555,-0.00590633,0.31825,21,32765
2.04548,-0.0124554,0.317448,21,32765
2.03549,-0.0190234,0.31624,20,32765
2.04516,-0.0256688,0.318719,21,32765
0,0,0,0,32765
0,0,0,0,32765
0,0,0,0,32765
0,0,0,0,32765
0,0,0,0,32765
0,0,0,11,32765
2.01391,0.61421,0.322208,13,32765
2.06318,0.622067,0.329725,14,32765
2.0178,0.601373,0.322076,18,32765
2.00078,0.589273,0.31894,19,32765
1.99317,0.580054,0.317488,20,32765
1.99508,0.57353,0.317374,20,32765
1.99697,0.566993,0.317239,21,32765
1.9703,0.552372,0.312548,20,32765
