x, y, z, intensity, ring
7.54154,2.95833,1.13394,13,32765
7.57005,2.94072,1.13421,13,32765
7.58931,2.91936,1.13306,13,32765
7.58067,2.88783,1.12695,14,32765
7.59053,2.86297,1.12396,14,32765
7.60008,2.83843,1.12168,14,32765
7.58183,2.8034,1.11464,14,32765
7.59146,2.77853,1.11132,14,32765
7.58204,2.74729,1.10664,14,32765
7.53555,2.7024,1.09494,14,32765
7.58182,2.69181,1.09753,13,32765
7.59094,2.66743,1.09403,14,32765
7.54379,2.62361,1.08236,14,32765
7.55258,2.59955,1.07911,14,32765
7.56142,2.57515,1.0757,14,32765
7.58865,2.55772,1.07553,14,32765
7.5127,2.50525,1.05977,14,32765
7.53037,2.48489,1.05779,15,32765
7.57623,2.47412,1.05878,15,32765
7.53736,2.43521,1.04788,14,32765
7.51708,2.40282,1.04002,15,32765
7.5252,2.37955,1.03477,15,32765
7.84485,5.78549,1.55027,34,32765
7.82368,5.73098,1.54218,32,32765
7.83437,5.69985,1.53959,31,32765
7.84537,5.66847,1.5358,33,32765
7.84011,5.62523,1.53046,31,32765
7.80275,5.5591,1.51772,32,32765
7.82104,5.53371,1.51636,34,32765
7.81485,5.49147,1.51022,33,32765
7.80033,5.44397,1.50165,34,32765
7.78594,5.39612,1.49302,34,32765
7.78764,5.35956,1.4875,33,32765
7.78924,5.32277,1.48271,34,32765
7.79077,5.28617,1.47687,35,32765
7.80867,5.26038,1.47447,35,32765
7.79366,5.21252,1.46584,36,32765
7.78664,5.17041,1.45829,34,32765
7.80367,5.14532,1.45602,34,32765
7.80438,5.10895,1.45045,34,32765
7.77998,5.05662,1.44035,35,32765
7.78893,5.02549,1.43578,35,32765
7.78108,4.98373,1.42819,35,32765
7.78092,4.94788,1.42289,33,32765
7.78927,4.91716,1.41818,36,32765
7.77226,4.87082,1.4091,35,32765
7.77192,4.83484,1.40331,37,32765
7.77163,4.79853,1.39767,36,32765
7.76263,4.75724,1.39081,35,32765
7.76202,4.72124,1.38456,36,32765
7.76955,4.69081,1.3794,34,32765
7.77695,4.66023,1.37485,36,32765
7.74142,4.60462,1.3638,36,32765
7.73989,4.56914,1.35836,37,32765
7.74717,4.53835,1.3532,37,32765
7.72835,4.49274,1.34515,36,32765
7.69258,4.43724,1.3325,36,32765
7.70756,4.4121,1.32938,25,32765
7.45555,4.23587,1.28102,12,32765
7.40091,4.17261,1.2665,12,32765
7.41504,4.14838,1.26342,11,32765
7.52471,4.17614,1.27619,11,32765
7.64307,4.20809,1.29147,12,32765
7.66601,4.18776,1.28992,14,32765
7.68043,4.16215,1.28703,14,32765
7.63358,4.10426,1.27327,12,32765
7.59534,4.05083,1.26156,12,32765
7.66177,4.05333,1.26703,12,32765
7.64044,4.00992,1.25798,12,32765
7.6891,4.00312,1.26112,12,32765
7.62333,3.93742,1.24518,12,32765
7.56646,3.87613,1.2298,12,32765
7.65021,3.88691,1.23899,12,32765
7.62825,3.84336,1.23096,12,32765
7.58847,3.79099,1.22003,12,32765
7.53952,3.7348,1.20703,12,32765
7.48156,3.67436,1.19234,12,32765
7.56535,3.68411,1.20121,11,32765
7.64028,3.68945,1.2079,12,32765
7.58997,3.63468,1.19646,12,32765
7.71849,3.66522,1.21163,12,32765
7.57852,3.56817,1.18568,12,32765
7.64441,3.56845,1.19149,12,32765
7.60253,3.51837,1.18078,12,32765
7.65061,3.50981,1.18296,12,32765
7.6264,3.46819,1.17528,12,32765
7.67436,3.45925,1.17801,12,32765
7.53234,3.36525,1.15233,12,32765
7.43492,3.29239,1.13416,12,32765
7.46422,3.2757,1.13495,12,32765
7.45706,3.24338,1.12999,11,32765
7.46831,3.21849,1.12681,11,32765
7.49727,3.20162,1.1285,11,32765
7.47159,3.16168,1.12039,11,32765
7.56432,3.17152,1.13175,11,32765
7.57479,3.14714,1.12984,11,32765
7.50311,3.08823,1.11459,12,32765
7.5132,3.06398,1.11354,12,32765
7.55078,3.05084,1.11646,12,32765
7.56093,3.0262,1.11482,12,32765
7.57097,3.00163,1.11308,12,32765
7.58094,2.97694,1.11156,12,32765
7.57236,2.94491,1.10768,13,32765
7.6005,2.92751,1.10928,13,32765
7.59179,2.89551,1.10485,13,32765
7.58269,2.86398,1.10128,13,32765
7.5365,2.81823,1.09232,12,32765
7.48996,2.77327,1.08308,12,32765
7.5827,2.77988,1.09429,12,32765
7.55466,2.7416,1.08762,12,32765
7.52642,2.70364,1.08082,12,32765
7.56333,2.68893,1.08428,13,32765
7.49727,2.63807,1.07325,12,32765
7.51488,2.61782,1.07447,13,32765
7.51379,2.59083,1.07285,12,32765
7.48437,2.5544,1.06755,12,32765
7.49264,2.5303,1.06695,13,32765
7.50081,2.50588,1.06715,12,32765
7.51839,2.48476,1.06768,13,32765
7.51678,2.45754,1.06718,13,32765
7.51493,2.43085,1.0666,13,32765
7.47523,2.39199,1.06098,13,32765
7.47304,2.3656,1.06098,12,32765
7.88427,5.82254,1.46438,43,32765
7.88714,5.78534,1.46118,41,32765
7.87405,5.73647,1.45424,41,32765
7.87715,5.69909,1.44905,41,32765
7.85594,5.64412,1.44104,41,32765
7.87496,5.618,1.43925,42,32765
7.86925,5.57517,1.43346,43,32765
7.85511,5.52699,1.42611,44,32765
7.84878,5.48493,1.41937,44,32765
7.84263,5.44246,1.41255,46,32765
7.84447,5.40565,1.4072,46,32765
7.84622,5.36859,1.40258,46,32765
7.83971,5.32617,1.39544,44,32765
7.82494,5.27803,1.38721,44,32765
7.85106,5.25754,1.3862,46,32765
7.84418,5.21516,1.37891,46,32765
7.84484,5.17893,1.37373,46,32765
7.84565,5.14236,1.36832,46,32765
7.81302,5.08438,1.35724,46,32765
7.83037,5.05845,1.35418,46,32765
7.83094,5.02181,1.34828,46,32765
7.83924,4.99104,1.34458,45,32765
7.81425,4.93892,1.33422,47,32765
7.81404,4.90292,1.32835,47,32765
7.81379,4.86673,1.32274,47,32765
7.8136,4.83021,1.31726,48,32765
7.80468,4.7887,1.31066,47,32765
7.82106,4.76279,1.30741,47,32765
7.81177,4.72186,1.29949,45,32765
7.81077,4.68598,1.29361,43,32765
7.79229,4.64029,1.28591,39,32765
7.79086,4.60456,1.28064,34,32765
7.7897,4.56854,1.27415,29,32765
7.73672,4.50277,1.26087,25,32765
7.69234,4.44217,1.24739,21,32765
7.69014,4.40714,1.2415,16,32765
7.5067,4.26976,1.2071,13,32765
7.49521,4.23054,1.20021,13,32765
7.42311,4.15756,1.18332,13,32765
7.47229,4.15168,1.18544,13,32765
7.52996,4.15042,1.19001,13,32765
7.62224,4.16845,1.19935,13,32765
7.61917,4.13349,1.19375,14,32765
7.56341,4.07098,1.1793,14,32765
7.66484,4.09235,1.18989,14,32765
7.68768,4.07144,1.188,13,32765
7.6839,4.03708,1.18201,13,32765
7.68875,4.00723,1.17803,13,32765
7.67571,3.96871,1.17098,13,32765
7.66294,3.92973,1.16302,13,32765
7.62329,3.87732,1.15273,13,32765
7.6632,3.86502,1.15441,13,32765
7.65888,3.83016,1.14934,14,32765
7.67215,3.80444,1.14626,13,32765
7.52539,3.69971,1.11903,13,32765
7.52024,3.6659,1.11393,13,32765
7.55054,3.64984,1.1134,12,32765
7.56261,3.62525,1.11183,13,32765
7.61063,3.61764,1.11401,13,32765
7.51517,3.54189,1.09621,12,32765
7.52713,3.5172,1.09364,12,32765
7.521,3.48408,1.08874,12,32765
7.58701,3.48406,1.09318,12,32765
7.59877,3.459,1.09107,12,32765
7.57442,3.41752,1.08309,12,32765
7.62218,3.40868,1.08612,13,32765
7.59732,3.36752,1.07935,13,32765
7.59057,3.33431,1.07477,13,32765
7.65633,3.33319,1.08022,13,32765
7.61324,3.28403,1.06928,13,32765
7.6242,3.25884,1.06821,13,32765
7.63519,3.2339,1.06552,13,32765
7.61852,3.19716,1.06074,14,32765
7.62907,3.17256,1.05881,14,32765
7.64909,3.15115,1.05705,14,32765
7.62265,3.11139,1.05092,14,32765
7.59606,3.07183,1.04468,14,32765
7.59707,3.04332,1.04177,14,32765
7.57028,3.00396,1.03498,14,32765
7.59872,2.98648,1.03598,14,32765
7.59015,2.95433,1.03228,14,32765
7.57207,2.919,1.02741,14,32765
7.59112,2.89766,1.02693,15,32765
7.55417,2.85555,1.01979,14,32765
7.60081,2.84458,1.02391,14,32765
7.61012,2.82001,1.02272,14,32765
7.60065,2.78867,1.01934,14,32765
7.62856,2.77058,1.02051,14,32765
7.5817,2.7256,1.01159,14,32765
7.59068,2.7007,1.01103,14,32765
7.59946,2.67603,1.0107,14,32765
7.57036,2.63909,1.00559,14,32765
7.53182,2.59893,0.999094,14,32765
7.53995,2.57521,0.999137,14,32765
7.5483,2.55089,0.998536,14,32765
7.51891,2.51366,0.993763,14,32765
7.57421,2.50491,0.999165,14,32765
7.57268,2.47746,0.998766,14,32765
7.58035,2.4536,0.999528,14,32765
7.55014,2.41749,0.995627,14,32765
7.56696,2.39681,0.998237,15,32765
7.84983,5.77591,1.49619,32,32765
7.83792,5.72727,1.48248,32,32765
7.84985,5.6959,1.47399,32,32765
7.84589,5.65247,1.46288,33,32765
7.84946,5.61529,1.45327,34,32765
7.82082,5.55506,1.43738,34,32765
7.82349,5.51831,1.42958,34,32765
7.81801,5.476,1.41938,34,32765
7.82022,5.43962,1.41124,34,32765
7.81443,5.39708,1.40224,36,32765
7.79251,5.34321,1.38901,34,32765
7.79477,5.30613,1.38113,35,32765
7.8129,5.2808,1.37572,35,32765
7.80666,5.23833,1.366,34,32765
7.83267,5.21852,1.36251,35,32765
7.83401,5.18194,1.35495,36,32765
7.7855,5.11296,1.33854,35,32765
7.79457,5.08216,1.33281,35,32765
7.80354,5.05138,1.32678,35,32765
7.80401,5.0152,1.31985,35,32765
7.79614,4.97373,1.31068,35,32765
7.78818,4.93213,1.30174,35,32765
7.77976,4.89071,1.2941,36,32765
7.79648,4.86509,1.29005,35,32765
7.77069,4.81357,1.28017,36,32765
7.78702,4.78828,1.27581,36,32765
7.79495,4.75763,1.26969,34,32765
7.76848,4.70667,1.25968,31,32765
7.78426,4.68145,1.25626,24,32765
7.73191,4.61567,1.24147,18,32765
7.69655,4.55982,1.22966,13,32765
7.68669,4.51899,1.22211,12,32765
7.64254,4.45818,1.20874,12,32765
7.63236,4.41742,1.20147,13,32765
7.5269,4.32348,1.17939,12,32765
7.50681,4.27965,1.17081,12,32765
7.44336,4.21149,1.15611,12,32765
7.40548,4.15835,1.14539,12,32765
7.50615,4.18227,1.15555,12,32765
7.52021,4.1576,1.15314,12,32765
7.61273,4.17546,1.16163,12,32765
7.57464,4.12199,1.15063,12,32765
7.47515,4.03587,1.13081,13,32765
7.50649,4.0202,1.13078,13,32765
7.55511,4.01428,1.13258,12,32765
7.68272,4.04938,1.14718,12,32765
7.61733,3.9828,1.13247,12,32765
7.65707,3.97155,1.13403,12,32765
7.67047,3.94645,1.13109,12,32765
7.65725,3.9076,1.12519,12,32765
7.75027,3.92236,1.134,12,32765
7.64865,3.83845,1.11414,12,32765
7.62641,3.79512,1.10591,13,32765
7.55944,3.72991,1.0921,12,32765
7.45638,3.648,1.07302,12,32765
7.50451,3.64056,1.07552,11,32765
7.43663,3.57678,1.06093,12,32765
7.44868,3.55197,1.05976,11,32765
7.58633,3.58667,1.07472,11,32765
7.51767,3.52388,1.06012,12,32765
7.70938,3.58287,1.08324,12,32765
7.67646,3.53665,1.07444,12,32765
7.63428,3.48657,1.06453,12,32765
7.56484,3.4244,1.05053,12,32765
7.65799,3.43582,1.05923,12,32765
7.5519,3.35807,1.03976,12,32765
7.68153,3.38465,1.05349,12,32765
7.61113,3.32347,1.04027,12,32765
7.58615,3.28225,1.03252,12,32765
7.59743,3.25689,1.02985,12,32765
7.60855,3.23187,1.02661,13,32765
7.61934,3.20691,1.02481,12,32765
7.54772,3.14765,1.01085,12,32765
7.64091,3.15707,1.01896,12,32765
7.55045,3.09088,1.00283,12,32765
7.60707,3.0843,1.00621,12,32765
7.61768,3.05902,1.0031,12,32765
7.58205,3.01546,0.993904,12,32765
7.53687,2.96866,0.984014,12,32765
7.58377,2.95875,0.986034,13,32765
7.6121,2.94139,0.986175,12,32765
7.56638,2.89564,0.975048,13,32765
7.6131,2.8854,0.977319,13,32765
7.58558,2.84684,0.969596,12,32765
7.5951,2.82244,0.966389,13,32765
7.64186,2.81148,0.968279,13,32765
7.61415,2.7727,0.960455,13,32765
7.56743,2.72778,0.950371,12,32765
7.50184,2.6766,0.937374,12,32765
7.5483,2.66559,0.938821,12,32765
7.51975,2.62812,0.930955,12,32765
7.4911,2.59063,0.923318,12,32765
7.53733,2.57951,0.924743,12,32765
7.55537,2.55873,0.922051,13,32765
7.60147,2.54777,0.922711,13,32765
7.52487,2.49602,0.909197,13,32765
7.54263,2.47535,0.906382,13,32765
7.513,2.43932,0.898322,13,32765
7.54013,2.42169,0.895996,13,32765
7.60486,2.41648,0.898683,13,32765
7.5275,2.3667,0.882645,13,32765
7.88076,5.807,1.4087,42,32765
7.87687,5.76399,1.39674,43,32765
7.87286,5.72079,1.38548,42,32765
7.88498,5.68877,1.37744,41,32765
7.88058,5.64562,1.36658,43,32765
7.87617,5.60237,1.35538,42,32765
7.90323,5.5825,1.35188,43,32765
7.87359,5.52278,1.33776,45,32765
7.87592,5.48613,1.32977,45,32765
7.8621,5.43768,1.31964,46,32765
7.86476,5.40037,1.31092,46,32765
7.86718,5.36296,1.30317,47,32765
7.85266,5.31513,1.29231,46,32765
7.85471,5.27796,1.28418,45,32765
7.86435,5.24696,1.27788,45,32765
7.86576,5.21019,1.27049,45,32765
7.86695,5.17364,1.26277,47,32765
7.8679,5.13709,1.25577,46,32765
7.86871,5.10062,1.24846,45,32765
7.83598,5.04269,1.23642,41,32765
7.81144,4.99035,1.22488,34,32765
7.78675,4.93799,1.2136,28,32765
7.78671,4.90177,1.20754,23,32765
7.753,4.84455,1.1957,18,32765
7.71868,4.78784,1.185,15,32765
7.7349,4.76266,1.18067,13,32765
7.75118,4.7373,1.17595,13,32765
7.70764,4.67609,1.16387,13,32765
7.70631,4.64078,1.15792,13,32765
7.72186,4.61583,1.15408,13,32765
7.70351,4.57001,1.14537,13,32765
7.6851,4.52404,1.13684,13,32765
7.76939,4.53817,1.14302,13,32765
7.71654,4.47201,1.12969,13,32765
7.71435,4.43696,1.12391,13,32765
7.72906,4.41211,1.12062,14,32765
7.60555,4.30885,1.09796,13,32765
7.46415,4.19672,1.07281,13,32765
7.47836,4.17216,1.06962,13,32765
7.51844,4.16195,1.07092,12,32765
7.69802,4.22764,1.0909,12,32765
7.66877,4.17852,1.08165,13,32765
7.69159,4.15798,1.08017,15,32765
7.67088,4.11342,1.07254,14,32765
7.66726,4.07898,1.06657,14,32765
7.54061,3.97944,1.04465,13,32765
7.6332,3.99607,1.05266,13,32765
7.70825,4.00305,1.05878,14,32765
7.69527,3.96409,1.05219,13,32765
7.66441,3.91605,1.04415,14,32765
7.69554,3.89942,1.04371,14,32765
7.65582,3.84672,1.03347,13,32765
7.70466,3.83869,1.03516,13,32765
7.68227,3.79508,1.02812,13,32765
7.66849,3.75627,1.0221,14,32765
7.67236,3.72643,1.01822,13,32765
7.65837,3.6878,1.01149,13,32765
7.65288,3.65364,1.00792,14,32765
7.62942,3.61128,1.00031,14,32765
7.65066,3.5904,0.998263,13,32765
7.70769,3.58625,1.00191,14,32765
7.64769,3.52747,0.990076,13,32765
7.64155,3.4939,0.985398,13,32765
7.66251,3.47258,0.983846,14,32765
7.64717,3.43487,0.977771,14,32765
7.65892,3.40952,0.974524,14,32765
7.61616,3.35963,0.965117,14,32765
7.66392,3.35026,0.967696,14,32765
7.63899,3.30879,0.9603,14,32765
7.60471,3.26362,0.951895,13,32765
7.57926,3.22298,0.944095,13,32765
7.55341,3.18263,0.937758,14,32765
7.64664,3.19238,0.945056,14,32765
7.61151,3.14833,0.936469,14,32765
7.58527,3.10848,0.929259,14,32765
7.59596,3.08309,0.926549,14,32765
7.59733,3.05409,0.922316,14,32765
7.60779,3.02891,0.919174,14,32765
7.61805,3.00381,0.916508,14,32765
7.57252,2.95746,0.907034,14,32765
7.61013,2.9437,0.908095,14,32765
7.64788,2.92987,0.907441,14,32765
7.62968,2.89467,0.901621,15,32765
7.59284,2.85249,0.89317,14,32765
7.62099,2.83495,0.892139,14,32765
7.59319,2.7964,0.884946,14,32765
7.61208,2.77474,0.882932,14,32765
7.63076,2.75336,0.880967,14,32765
7.60261,2.71526,0.872988,14,32765
7.63047,2.69728,0.871874,14,32765
7.53628,2.6365,0.856876,14,32765
7.62975,2.64116,0.863429,14,32765
7.60092,2.60381,0.855944,14,32765
7.6096,2.5796,0.852071,14,32765
7.57093,2.53998,0.842879,14,32765
7.58859,2.51957,0.840676,15,32765
7.58751,2.49245,0.835652,14,32765
7.52004,2.44393,0.8238,14,32765
7.61346,2.44755,0.828494,15,32765
7.5835,2.41196,0.820324,15,32765
7.55345,2.37709,0.810234,15,32765
7.86566,5.78675,1.29129,35,32765
7.84525,5.73092,1.28399,34,32765
7.86423,5.70504,1.28312,32,32765
7.8504,5.65681,1.27643,33,32765
7.81196,5.59179,1.26539,32,32765
7.83861,5.57207,1.26424,33,32765
7.83286,5.52909,1.25868,35,32765
7.8433,5.49752,1.25518,36,32765
7.82911,5.44914,1.24751,36,32765
7.80631,5.39553,1.23883,35,32765
7.8324,5.37564,1.2379,35,32765
7.85016,5.35029,1.23521,35,32765
7.82706,5.29673,1.22582,35,32765
7.82027,5.25421,1.21931,35,32765
7.83798,5.22831,1.21686,32,32765
7.83117,5.1856,1.20968,29,32765
7.81545,5.13795,1.20208,24,32765
7.79923,5.0909,1.1945,18,32765
7.76617,5.03315,1.18446,14,32765
7.741,4.9813,1.17553,12,32765
7.75771,4.95594,1.17264,12,32765
7.74083,4.9093,1.16447,12,32765
7.70691,4.85225,1.15395,12,32765
7.69794,4.81129,1.14701,12,32765
7.67179,4.76003,1.13829,12,32765
7.73029,4.76051,1.14139,12,32765
7.67892,4.69328,1.12796,12,32765
7.73747,4.69318,1.13142,12,32765
7.66843,4.61644,1.11539,12,32765
7.71793,4.61168,1.11786,12,32765
7.73323,4.58657,1.11537,12,32765
7.67158,4.51625,1.10061,12,32765
7.80682,4.561,1.11489,12,32765
7.7023,4.46521,1.0942,12,32765
7.69188,4.4244,1.08778,12,32765
7.55186,4.31013,1.06291,12,32765
7.41966,4.20215,1.03854,12,32765
7.41644,4.16808,1.03365,12,32765
7.51709,4.19228,1.04259,12,32765
7.64432,4.23007,1.05399,11,32765
7.67599,4.21427,1.05429,11,32765
7.69914,4.1934,1.05236,13,32765
7.65228,4.13483,1.04082,12,32765
7.66635,4.10937,1.0382,12,32765
7.71535,4.10276,1.03956,12,32765
7.58003,3.99848,1.01594,12,32765
7.6287,3.99204,1.01759,12,32765
7.72162,4.00785,1.02535,12,32765
7.70003,3.96382,1.01787,12,32765
7.74905,3.95607,1.01946,12,32765
7.68298,3.88968,1.00555,12,32765
7.62534,3.82842,0.992763,12,32765
7.63836,3.80326,0.989351,12,32765
7.60659,3.7561,0.981412,12,32765
7.66401,3.75265,0.984165,12,32765
7.65904,3.71839,0.978548,12,32765
7.64497,3.67972,0.972509,12,32765
7.63961,3.64577,0.967025,12,32765
7.6519,3.62076,0.963809,12,32765
7.66394,3.59584,0.961422,12,32765
7.65797,3.5624,0.95645,12,32765
7.66998,3.53718,0.953778,12,32765
7.60973,3.47872,0.941746,13,32765
7.57619,3.43307,0.933963,12,32765
7.63336,3.42791,0.936874,12,32765
7.56341,3.36587,0.924499,12,32765
7.61116,3.35679,0.926905,12,32765
7.66796,3.35191,0.929204,13,32765
7.54228,3.26772,0.910497,12,32765
7.57155,3.25065,0.910484,12,32765
7.58261,3.22532,0.908482,12,32765
7.59364,3.19998,0.906033,12,32765
7.64117,3.18989,0.908811,12,32765
7.61504,3.14978,0.902261,12,32765
7.6255,3.12503,0.900017,13,32765
7.55283,3.0667,0.888899,12,32765
7.58149,3.04946,0.888899,13,32765
7.59156,3.0249,0.886898,13,32765
7.54598,2.97839,0.879152,13,32765
7.59291,2.96828,0.881532,13,32765
7.56559,2.92914,0.876143,13,32765
7.57518,2.90477,0.874411,13,32765
7.622,2.89408,0.877124,13,32765
7.63144,2.86942,0.876129,12,32765
7.56638,2.81677,0.866041,13,32765
7.65035,2.81937,0.873627,13,32765
7.62224,2.78097,0.867927,12,32765
7.54723,2.72576,0.856969,13,32765
7.5092,2.68467,0.851401,12,32765
7.56479,2.67679,0.856491,12,32765
7.5736,2.6522,0.855168,13,32765
7.5446,2.6147,0.850418,13,32765
7.58122,2.6002,0.853038,12,32765
7.56123,2.56657,0.849384,13,32765
7.60705,2.55506,0.854009,13,32765
7.57751,2.51819,0.84911,13,32765
7.62332,2.50654,0.852756,13,32765
7.55532,2.45818,0.845345,13,32765
7.51554,2.41954,0.840321,13,32765
7.48514,2.38361,0.837291,13,32765
7.54024,2.37406,0.843306,13,32765
7.91034,5.82951,1.20553,44,32765
7.89009,5.7734,1.1987,42,32765
7.88515,5.72982,1.19417,42,32765
7.89555,5.69884,1.19148,43,32765
7.89756,5.66245,1.18714,43,32765
7.90019,5.62514,1.18224,43,32765
7.89463,5.58187,1.17694,41,32765
7.84026,5.50439,1.16386,35,32765
7.82608,5.45591,1.15656,30,32765
7.82777,5.41915,1.15195,25,32765
7.81305,5.37103,1.14492,21,32765
7.8062,5.32889,1.13864,17,32765
7.78301,5.27536,1.12973,14,32765
7.75965,5.22181,1.12113,13,32765
7.73599,5.16848,1.11276,13,32765
7.77032,5.15345,1.11181,13,32765
7.77107,5.11683,1.10696,13,32765
7.75476,5.06982,1.09977,13,32765
7.73826,5.0229,1.09265,13,32765
7.75477,4.99793,1.09006,13,32765
7.80499,4.99388,1.09183,13,32765
7.7463,4.92036,1.07818,13,32765
7.72919,4.87377,1.07055,13,32765
7.80446,4.88535,1.07548,13,32765
7.72791,4.80218,1.06024,13,32765
7.7443,4.7764,1.05707,13,32765
7.74377,4.74009,1.05128,13,32765
7.70063,4.67789,1.04048,13,32765
7.75908,4.67805,1.04255,13,32765
7.77472,4.65258,1.04004,13,32765
7.73037,4.59172,1.02957,13,32765
7.76281,4.57676,1.02811,13,32765
7.77828,4.55106,1.02523,13,32765
7.75957,4.50506,1.01711,13,32765
7.6976,4.4342,1.00421,14,32765
7.73866,4.42322,1.00454,14,32765
7.5808,4.29969,0.978313,13,32765
7.43932,4.18703,0.955748,13,32765
7.48804,4.18213,0.957082,13,32765
7.52836,4.17193,0.956242,13,32765
7.62953,4.1948,0.965197,12,32765
7.67879,4.18832,0.966486,12,32765
7.7018,4.16754,0.964357,15,32765
7.69846,4.13245,0.959535,14,32765
7.69491,4.0977,0.953975,14,32765
7.72646,4.08149,0.952543,13,32765
7.68737,4.02841,0.942956,13,32765
7.71872,4.01197,0.942308,13,32765
7.66177,3.94964,0.930903,13,32765
7.69306,3.93295,0.929991,13,32765
7.6623,3.8846,0.921213,14,32765
7.63123,3.83668,0.912367,13,32765
7.71545,3.84695,0.917415,13,32765
7.72836,3.82148,0.915196,14,32765
7.6789,3.76509,0.904805,14,32765
7.64711,3.71767,0.896221,13,32765
7.65093,3.68758,0.892554,14,32765
7.6366,3.64926,0.886211,13,32765
7.64889,3.62422,0.882992,13,32765
7.69695,3.61618,0.884743,13,32765
7.66397,3.56996,0.876849,13,32765
7.63989,3.52799,0.870058,14,32765
7.65189,3.50263,0.866983,14,32765
7.68181,3.48553,0.866809,13,32765
7.70289,3.46368,0.865136,14,32765
7.66026,3.41343,0.856628,14,32765
7.6627,3.38392,0.853562,14,32765
7.68316,3.36291,0.851328,14,32765
7.68518,3.33393,0.848122,14,32765
7.64157,3.28493,0.83984,13,32765
7.62528,3.24762,0.83481,14,32765
7.66388,3.23369,0.835343,14,32765
7.6473,3.19649,0.830748,14,32765
7.60277,3.14867,0.822579,14,32765
7.60402,3.12013,0.819344,14,32765
7.64188,3.10672,0.820955,14,32765
7.62454,3.07058,0.815801,15,32765
7.63468,3.04583,0.813787,14,32765
7.62615,3.01372,0.810529,15,32765
7.65468,2.99607,0.810548,14,32765
7.5996,2.94586,0.802583,14,32765
7.61853,2.92491,0.801819,14,32765
7.61894,2.89638,0.799267,16,32765
7.60976,2.86466,0.79632,15,32765
7.59126,2.82937,0.791849,14,32765
7.62866,2.81466,0.793822,14,32765
7.62854,2.7865,0.791409,14,32765
7.56285,2.73456,0.78226,14,32765
7.64664,2.73693,0.78974,14,32765
7.63679,2.70533,0.787582,14,32765
7.54237,2.64423,0.77562,14,32765
7.57915,2.6296,0.778002,14,32765
7.55936,2.59557,0.774549,14,32765
7.59589,2.58116,0.77696,14,32765
7.66068,2.57587,0.783138,14,32765
7.62173,2.53561,0.777645,15,32765
7.55419,2.48646,0.769356,14,32765
7.60912,2.47829,0.775219,15,32765
7.57885,2.44246,0.771629,15,32765
7.53904,2.40324,0.768017,14,32765
7.55629,2.38153,0.769698,15,32765
7.83596,5.75469,1.23338,32,32765
7.85657,5.72827,1.22524,33,32765
7.86092,5.69007,1.21545,33,32765
7.86436,5.65278,1.20646,33,32765
7.86725,5.61597,1.19787,34,32765
7.85399,5.56772,1.18547,35,32765
7.85683,5.53054,1.17718,34,32765
7.85127,5.48781,1.1679,28,32765
7.80456,5.41704,1.153,22,32765
7.80676,5.38031,1.14422,15,32765
7.67747,5.25381,1.11843,12,32765
7.7283,5.25103,1.11719,12,32765
7.74632,5.22556,1.11178,12,32765
7.73133,5.17782,1.10163,12,32765
7.74918,5.15207,1.09693,12,32765
7.80008,5.14819,1.0968,12,32765
7.81766,5.12231,1.09283,12,32765
7.72676,5.02649,1.07236,12,32765
7.85205,5.07153,1.08303,12,32765
7.76031,4.97664,1.06258,12,32765
7.77682,4.95159,1.05886,12,32765
7.79346,4.92632,1.05441,12,32765
7.77642,4.87981,1.04512,12,32765
7.75907,4.83352,1.03626,12,32765
7.76703,4.80279,1.03085,12,32765
7.79176,4.78219,1.0291,12,32765
7.69776,4.68914,1.01065,12,32765
7.71374,4.66376,1.00626,12,32765
7.75497,4.6538,1.00629,12,32765
7.73663,4.6078,0.998127,12,32765
7.67537,4.53679,0.983391,12,32765
7.6908,4.51144,0.979473,12,32765
7.78353,4.53094,0.985335,12,32765
7.72113,4.46085,0.972586,12,32765
7.67588,4.40078,0.961277,13,32765
7.66476,4.36086,0.954628,12,32765
7.54967,4.26232,0.934582,12,32765
7.43409,4.16441,0.914802,12,32765
7.53491,4.18825,0.923341,12,32765
7.57527,4.17791,0.922138,12,32765
7.67641,4.20079,0.930595,12,32765
7.62051,4.13778,0.919235,13,32765
7.71329,4.15504,0.925656,13,32765
7.68352,4.10612,0.917006,12,32765
7.64476,4.05248,0.908322,12,32765
7.71138,4.05488,0.911072,12,32765
7.57523,3.95094,0.891104,12,32765
7.68604,3.97579,0.898848,12,32765
7.67309,3.93628,0.893506,12,32765
7.6511,3.89253,0.88643,12,32765
7.66443,3.86695,0.883263,12,32765
7.74006,3.8722,0.887466,12,32765
7.63723,3.78912,0.87187,12,32765
7.70357,3.79016,0.875577,12,32765
7.68063,3.74718,0.868678,12,32765
7.64852,3.70026,0.86014,12,32765
7.66125,3.67457,0.856938,12,32765
7.70056,3.66207,0.857627,12,32765
7.65,3.60671,0.848032,12,32765
7.62619,3.56446,0.841123,12,32765
7.67431,3.55593,0.842802,12,32765
7.61404,3.49742,0.831186,12,32765
7.66205,3.48869,0.832859,12,32765
7.67382,3.46343,0.829941,12,32765
7.68571,3.43783,0.826303,12,32765
7.64271,3.38817,0.81814,12,32765
7.67257,3.37051,0.81719,13,32765
7.63836,3.32511,0.80998,12,32765
7.64967,3.2998,0.806722,13,32765
7.62428,3.25861,0.800413,13,32765
7.58046,3.20989,0.791282,13,32765
7.57305,3.17683,0.786831,12,32765
7.65753,3.18211,0.790743,12,32765
7.61292,3.13423,0.78292,13,32765
7.59578,3.09808,0.776959,12,32765
7.58771,3.06586,0.771758,13,32765
7.62555,3.05231,0.772623,12,32765
7.5895,3.00901,0.765093,13,32765
7.56251,2.96964,0.758471,12,32765
7.6096,2.95949,0.758573,13,32765
7.63811,2.94177,0.75742,13,32765
7.6293,2.90981,0.752809,13,32765
7.639,2.88509,0.74961,13,32765
7.57399,2.83238,0.739385,13,32765
7.53689,2.79015,0.731582,13,32765
7.56513,2.77203,0.729928,12,32765
7.64007,2.77089,0.732806,12,32765
7.61177,2.73287,0.725842,13,32765
7.57398,2.6914,0.718402,13,32765
7.61111,2.67708,0.717087,13,32765
7.59172,2.64278,0.711637,13,32765
7.60047,2.61844,0.708152,13,32765
7.52419,2.56551,0.696457,13,32765
7.5796,2.55819,0.697287,13,32765
7.55014,2.52168,0.690382,13,32765
7.59634,2.50993,0.690508,13,32765
7.55753,2.46973,0.681579,13,32765
7.55621,2.44272,0.676602,13,32765
7.56391,2.41996,0.672287,13,32765
7.57157,2.39709,0.668012,14,32765
7.57938,2.37365,0.663084,13,32765
7.91212,5.82085,1.15246,41,32765
7.8928,5.76482,1.13845,33,32765
7.8892,5.72058,1.12766,26,32765
7.85238,5.65409,1.1131,20,32765
7.85524,5.61722,1.10471,16,32765
7.80142,5.54014,1.08704,13,32765
7.78788,5.4916,1.07673,13,32765
7.79029,5.4547,1.06888,13,32765
7.85765,5.46339,1.07033,13,32765
7.77,5.36429,1.04954,13,32765
7.82092,5.36126,1.04964,13,32765
7.80637,5.31326,1.03916,13,32765
7.77516,5.25408,1.02717,13,32765
7.76848,5.21167,1.01844,12,32765
7.81126,5.20228,1.01695,12,32765
7.80428,5.1598,1.00889,12,32765
7.80526,5.12294,1.00278,13,32765
7.82258,5.09752,0.997335,13,32765
7.78953,5.03972,0.98664,13,32765
7.80636,5.01469,0.981112,13,32765
7.77268,4.95735,0.971085,13,32765
7.76411,4.91608,0.963503,13,32765
7.82279,4.9172,0.963935,13,32765
7.87304,4.91278,0.963677,14,32765
7.89816,4.89208,0.960353,14,32765
7.88083,4.84496,0.953325,15,32765
7.89736,4.81877,0.949311,16,32765
7.87122,4.7669,0.939727,16,32765
7.77638,4.6744,0.923204,14,32765
7.76663,4.63333,0.916411,13,32765
7.76532,4.59755,0.909513,13,32765
7.78095,4.57184,0.905545,13,32765
7.77936,4.53596,0.89958,13,32765
7.79444,4.51058,0.896586,13,32765
7.74068,4.44519,0.884905,14,32765
7.70375,4.39019,0.875556,16,32765
7.61467,4.306,0.859823,14,32765
7.49047,4.20279,0.840436,13,32765
7.51321,4.18293,0.839277,13,32765
7.49256,4.13895,0.831037,13,32765
7.57617,4.15259,0.836649,13,32765
7.65997,4.16586,0.841441,12,32765
7.72661,4.16885,0.844128,15,32765
7.73195,4.13858,0.839749,15,32765
7.75482,4.11733,0.83826,14,32765
7.74241,4.07763,0.831877,13,32765
7.65037,3.99641,0.818206,14,32765
7.68182,3.97984,0.816424,13,32765
7.6423,3.92662,0.808549,13,32765
7.68236,3.91452,0.80839,13,32765
7.75796,3.92022,0.811715,13,32765
7.71808,3.86718,0.80318,13,32765
7.70433,3.82831,0.798041,14,32765
7.71725,3.80272,0.795636,14,32765
7.65854,3.74212,0.785433,14,32765
7.65325,3.7082,0.780111,14,32765
7.71986,3.70832,0.782362,14,32765
7.69637,3.66562,0.776398,14,32765
7.66378,3.61867,0.769266,13,32765
7.67606,3.59317,0.766325,14,32765
7.6701,3.55931,0.762223,14,32765
7.68217,3.53399,0.758504,14,32765
7.65782,3.49196,0.752653,14,32765
7.66052,3.46256,0.748846,14,32765
7.69966,3.44918,0.747859,14,32765
7.68397,3.41149,0.742893,14,32765
7.68656,3.38162,0.739106,14,32765
7.69802,3.35599,0.736727,14,32765
7.70942,3.33043,0.73344,14,32765
7.62916,3.26544,0.722281,14,32765
7.60366,3.22439,0.715435,14,32765
7.63302,3.20661,0.7146,14,32765
7.68084,3.19639,0.714308,14,32765
7.59939,3.13315,0.703627,14,32765
7.61911,3.11205,0.701347,14,32765
7.6203,3.08342,0.697165,14,32765
7.64896,3.06604,0.696894,14,32765
7.63145,3.02992,0.691501,14,32765
7.62304,2.99764,0.686907,14,32765
7.65166,2.98003,0.684939,14,32765
7.63375,2.94422,0.679441,14,32765
7.61562,2.90865,0.674193,14,32765
7.63461,2.88746,0.671818,15,32765
7.61622,2.85213,0.666427,14,32765
7.6726,2.84432,0.667199,15,32765
7.63551,2.80168,0.659634,14,32765
7.6169,2.76629,0.653779,14,32765
7.62605,2.74175,0.650398,14,32765
7.65399,2.72355,0.648994,14,32765
7.6066,2.67914,0.640231,14,32765
7.61542,2.65464,0.637426,15,32765
7.6619,2.64318,0.637063,14,32765
7.63279,2.60606,0.630074,15,32765
7.62222,2.57605,0.624961,15,32765
7.62114,2.54882,0.62072,15,32765
7.60117,2.5149,0.615076,14,32765
7.61918,2.49322,0.611172,15,32765
7.57995,2.45367,0.603233,14,32765
7.61615,2.43993,0.601151,15,32765
7.60483,2.41083,0.595357,15,32765
7.57459,2.37531,0.587453,15,32765
7.83695,5.75904,1.03158,12,32765
7.81616,5.7035,1.02502,12,32765
7.8351,5.67781,1.02298,12,32765
7.83796,5.64023,1.01893,12,32765
7.87281,5.62601,1.0197,12,32765
7.7701,5.51349,1.0017,12,32765
7.78842,5.48812,0.998752,12,32765
7.77362,5.44043,0.992043,12,32765
7.79164,5.41503,0.98959,12,32765
7.67051,5.29344,0.969369,12,32765
7.72117,5.29033,0.97161,12,32765
7.84607,5.33742,0.9812,12,32765
7.81434,5.27827,0.972763,12,32765
7.77424,5.21372,0.962478,12,32765
7.70863,5.13352,0.948749,12,32765
7.77538,5.14119,0.95316,12,32765
7.8259,5.1375,0.953624,12,32765
7.86008,5.12226,0.952108,12,32765
7.79405,5.04183,0.939006,13,32765
7.84474,5.03728,0.939548,12,32765
7.8616,5.01143,0.936853,13,32765
7.84473,4.96443,0.929302,14,32765
7.8611,4.93913,0.925713,14,32765
7.91958,4.94008,0.927491,14,32765
7.85975,4.86741,0.914757,15,32765
7.9017,4.85673,0.915279,15,32765
7.89268,4.81478,0.90971,15,32765
7.77274,4.70619,0.890603,13,32765
7.6949,4.62386,0.876848,12,32765
7.7874,4.64438,0.882182,12,32765
7.72593,4.57316,0.869802,12,32765
7.78445,4.57265,0.870712,12,32765
7.71363,4.49701,0.858927,12,32765
7.76333,4.49147,0.858793,12,32765
7.71788,4.43127,0.849606,14,32765
7.5773,4.31679,0.829113,12,32765
7.47947,4.22771,0.812968,12,32765
7.45934,4.18304,0.805294,12,32765
7.43013,4.13386,0.797489,12,32765
7.58354,4.18622,0.809621,12,32765
7.65003,4.18995,0.811735,12,32765
7.67295,4.16954,0.808464,13,32765
7.70441,4.15394,0.806802,14,32765
7.63942,4.08619,0.795147,12,32765
7.706,4.0889,0.79753,12,32765
7.71987,4.06324,0.794547,12,32765
7.69835,4.01916,0.787538,12,32765
7.63244,3.95219,0.776501,12,32765
7.70807,3.95841,0.778877,13,32765
7.69479,3.91922,0.773839,12,32765
7.61938,3.84833,0.761778,12,32765
7.72156,3.86739,0.767945,12,32765
7.66339,3.80623,0.757102,12,32765
7.6406,3.76311,0.750119,12,32765
7.64416,3.73387,0.746084,12,32765
7.63911,3.69933,0.741218,12,32765
7.67882,3.6864,0.740717,12,32765
7.6823,3.65658,0.737092,12,32765
7.62258,3.59707,0.727336,12,32765
7.68854,3.5978,0.729744,12,32765
7.66451,3.55566,0.72314,12,32765
7.67647,3.5303,0.720546,13,32765
7.6883,3.50508,0.717517,13,32765
7.64576,3.45472,0.709673,13,32765
7.69367,3.44591,0.710449,12,32765
7.65072,3.3959,0.703101,12,32765
7.71709,3.39433,0.7047,13,32765
7.64627,3.33293,0.695028,13,32765
7.62085,3.29188,0.689278,13,32765
7.63175,3.26701,0.68691,12,32765
7.6428,3.24168,0.684096,13,32765
7.58022,3.18545,0.675015,13,32765
7.62747,3.17613,0.676736,12,32765
7.59204,3.132,0.670135,13,32765
7.60232,3.10734,0.668436,13,32765
7.5943,3.07471,0.664155,12,32765
7.60458,3.04966,0.662059,12,32765
7.59615,3.01748,0.658292,13,32765
7.62474,2.99982,0.6579,13,32765
7.61597,2.96781,0.65506,13,32765
7.64441,2.94994,0.655181,13,32765
7.63566,2.9176,0.651359,13,32765
7.57068,2.86434,0.644008,13,32765
7.61746,2.85365,0.645415,12,32765
7.58932,2.81539,0.640469,13,32765
7.63592,2.80444,0.642979,13,32765
7.56083,2.749,0.63382,13,32765
7.56971,2.72453,0.633537,13,32765
7.6633,2.7296,0.639358,13,32765
7.61566,2.6851,0.634014,13,32765
7.59619,2.65052,0.630463,13,32765
7.60493,2.62559,0.629435,13,32765
7.57568,2.58822,0.625405,13,32765
7.54614,2.55121,0.622241,13,32765
7.59196,2.5401,0.625327,13,32765
7.56229,2.50319,0.621277,13,32765
7.5229,2.46339,0.617493,13,32765
7.57809,2.45487,0.621499,13,32765
7.58573,2.43106,0.621921,13,32765
7.54564,2.39247,0.618872,13,32765
7.58151,2.37774,0.622879,13,32765
7.8068,5.74845,0.936416,12,32765
7.82616,5.72227,0.935126,12,32765
7.8613,5.70818,0.934989,12,32765
7.84005,5.65297,0.928247,13,32765
7.8426,5.61552,0.924998,13,32765
7.81286,5.55476,0.916973,13,32765
7.83132,5.52919,0.914003,13,32765
7.80035,5.46983,0.905754,12,32765
7.79398,5.42722,0.900454,13,32765
7.88576,5.45256,0.906282,14,32765
7.96161,5.46562,0.910907,14,32765
7.96372,5.42791,0.905131,14,32765
7.94879,5.37941,0.89908,15,32765
7.91728,5.31982,0.890318,16,32765
7.98451,5.32739,0.892262,16,32765
7.96062,5.27369,0.885883,17,32765
7.97,5.24202,0.881281,17,32765
7.97119,5.20449,0.875843,17,32765
7.95555,5.15599,0.869103,18,32765
8.00664,5.1509,0.869193,17,32765
8.00711,5.11373,0.864623,17,32765
7.99056,5.06615,0.857375,17,32765
7.97355,5.0191,0.850118,17,32765
8.00697,5.00385,0.848691,17,32765
7.98963,4.957,0.841207,17,32765
7.98101,4.91452,0.836071,18,32765
7.99769,4.88779,0.833407,18,32765
7.97162,4.83545,0.825446,17,32765
7.8003,4.69576,0.802972,14,32765
7.77335,4.64444,0.795166,13,32765
7.75469,4.59852,0.787982,14,32765
7.70168,4.53223,0.777141,13,32765
7.78555,4.54713,0.781861,13,32765
7.7837,4.51137,0.776154,13,32765
7.72103,4.44103,0.765897,14,32765
7.71022,4.40037,0.759876,16,32765
7.68197,4.34993,0.751661,14,32765
7.46243,4.19223,0.724842,13,32765
7.48546,4.17204,0.722541,14,32765
7.55185,4.1761,0.724779,13,32765
7.65327,4.19912,0.729672,12,32765
7.64995,4.16436,0.723816,13,32765
7.734,4.17722,0.726918,17,32765
7.73054,4.14218,0.72183,15,32765
7.73572,4.11185,0.717893,14,32765
7.7673,4.09533,0.71652,13,32765
7.76353,4.06023,0.711479,13,32765
7.72427,4.00667,0.703674,13,32765
7.7026,3.96245,0.696525,15,32765
7.71596,3.93678,0.694163,15,32765
7.76509,3.92867,0.694157,14,32765
7.69829,3.86234,0.684283,13,32765
7.67576,3.81889,0.677348,14,32765
7.72451,3.81093,0.676999,14,32765
7.70135,3.7682,0.670679,14,32765
7.66052,3.716,0.662868,14,32765
7.67334,3.69,0.659755,14,32765
7.66783,3.65584,0.655452,14,32765
7.70722,3.64313,0.654873,13,32765
7.6921,3.6055,0.64982,14,32765
7.6952,3.57587,0.645863,14,32765
7.66194,3.5295,0.639476,14,32765
7.6919,3.51256,0.637953,13,32765
7.67661,3.47442,0.632914,15,32765
7.7064,3.45732,0.631808,14,32765
7.68169,3.41527,0.626502,14,32765
7.65688,3.37338,0.620129,14,32765
7.61336,3.32403,0.613525,13,32765
7.65197,3.31072,0.613292,14,32765
7.7271,3.31321,0.616027,14,32765
7.6465,3.24851,0.6059,14,32765
7.62987,3.2115,0.601187,14,32765
7.6312,3.1828,0.598907,14,32765
7.64185,3.15762,0.596367,14,32765
7.63375,3.12519,0.593219,14,32765
7.64427,3.09989,0.590541,14,32765
7.67314,3.08205,0.589851,14,32765
7.637,3.03852,0.584122,14,32765
7.66567,3.02069,0.583528,14,32765
7.65697,2.98848,0.580867,14,32765
7.63897,2.95245,0.577272,14,32765
7.6768,2.9379,0.577139,14,32765
7.63984,2.895,0.572629,14,32765
7.66806,2.87705,0.572247,14,32765
7.63998,2.83855,0.567663,14,32765
7.64924,2.81364,0.567013,14,32765
7.6585,2.78877,0.564917,14,32765
7.62059,2.74701,0.561172,14,32765
7.62974,2.72176,0.55993,14,32765
7.66672,2.70717,0.561348,14,32765
7.65674,2.67565,0.558756,14,32765
7.59957,2.62764,0.552915,14,32765
7.63638,2.61283,0.554053,15,32765
7.62581,2.58195,0.552632,15,32765
7.60554,2.54837,0.550546,15,32765
7.61377,2.5239,0.549603,14,32765
7.6408,2.50562,0.551073,15,32765
7.59178,2.46284,0.547085,15,32765
7.59946,2.43894,0.547506,15,32765
7.5689,2.40324,0.545612,15,32765
7.61437,2.39141,0.550028,15,32765
7.78999,5.71437,0.972652,12,32765
7.81005,5.68827,0.964732,12,32765
7.84589,5.6741,0.958904,12,32765
7.81653,5.61377,0.946727,12,32765
7.83578,5.5882,0.938847,12,32765
7.94436,5.62542,0.943496,12,32765
7.80078,5.48475,0.917441,12,32765
7.78683,5.43625,0.907766,12,32765
7.80506,5.41112,0.901354,12,32765
7.93005,5.45886,0.907782,12,32765
7.84178,5.35972,0.889598,13,32765
7.89302,5.35609,0.888194,13,32765
7.91951,5.33565,0.883406,14,32765
7.90431,5.28775,0.874063,14,32765
7.92209,5.26201,0.868446,15,32765
7.97291,5.25828,0.866754,15,32765
7.92408,5.18836,0.854423,15,32765
7.92504,5.15134,0.84712,16,32765
7.95916,5.13604,0.844366,15,32765
7.97681,5.10945,0.83912,14,32765
7.99391,5.08343,0.83439,15,32765
7.99409,5.04664,0.82828,14,32765
7.99423,5.00987,0.821176,14,32765
8.00232,4.97882,0.816004,14,32765
7.98515,4.93167,0.807748,14,32765
8.00163,4.90569,0.802879,14,32765
7.94153,4.83261,0.791738,14,32765
7.84703,4.73929,0.77671,13,32765
7.8031,4.67775,0.766238,13,32765
7.76759,4.6213,0.756972,12,32765
7.74023,4.57043,0.748559,12,32765
7.76433,4.5498,0.745281,12,32765
7.72816,4.49374,0.73673,12,32765
7.74329,4.46826,0.732757,12,32765
7.73258,4.42755,0.726381,13,32765
7.66951,4.35766,0.715435,13,32765
7.55396,4.25884,0.699934,12,32765
7.47274,4.18006,0.687999,13,32765
7.48673,4.1555,0.684657,12,32765
7.57065,4.16915,0.687313,12,32765
7.66343,4.18706,0.691355,11,32765
7.67744,4.16185,0.688148,13,32765
7.73558,4.1597,0.68836,14,32765
7.65272,4.0827,0.676372,13,32765
7.71944,4.08515,0.677738,12,32765
7.76847,4.07823,0.677387,12,32765
7.66722,3.99282,0.663346,12,32765
7.68077,3.96722,0.660218,12,32765
7.66733,3.92829,0.655813,14,32765
7.70735,3.91614,0.655391,13,32765
7.68516,3.8723,0.648412,12,32765
7.6985,3.84615,0.645795,12,32765
7.71191,3.81968,0.642994,12,32765
7.68902,3.77632,0.637528,12,32765
7.63915,3.71996,0.629044,12,32765
7.66967,3.70328,0.627255,12,32765
7.64603,3.66084,0.621654,12,32765
7.67643,3.64381,0.620877,12,32765
7.63446,3.59317,0.613,12,32765
7.68283,3.58449,0.612832,12,32765
7.73104,3.57576,0.613573,13,32765
7.67059,3.51685,0.604522,12,32765
7.60087,3.45394,0.594995,12,32765
7.69423,3.46584,0.598694,12,32765
7.65143,3.41557,0.591135,12,32765
7.63561,3.37801,0.585994,12,32765
7.72936,3.38837,0.589475,13,32765
7.68616,3.33829,0.582065,13,32765
7.63329,3.28509,0.574384,13,32765
7.64453,3.25939,0.571324,12,32765
7.65534,3.23447,0.568144,13,32765
7.56482,3.16705,0.55831,12,32765
7.62158,3.16121,0.557839,13,32765
7.68738,3.15908,0.559699,13,32765
7.64259,3.1111,0.552114,13,32765
7.58816,3.06001,0.544262,13,32765
7.66331,3.06076,0.546197,13,32765
7.62731,3.01686,0.539512,13,32765
7.66529,3.00262,0.538685,13,32765
7.59165,2.94495,0.528966,13,32765
7.65739,2.94148,0.529554,13,32765
7.6484,2.90964,0.525289,13,32765
7.65813,2.88456,0.521837,13,32765
7.59269,2.83216,0.514193,13,32765
7.59279,2.80385,0.509916,12,32765
7.64897,2.79622,0.509883,13,32765
7.62075,2.75767,0.503816,13,32765
7.58307,2.71576,0.496536,13,32765
7.59193,2.69136,0.49406,13,32765
7.60086,2.66673,0.490344,13,32765
7.69433,2.6721,0.492665,13,32765
7.58032,2.60544,0.480975,13,32765
7.5889,2.58109,0.477017,13,32765
7.59729,2.55697,0.473291,13,32765
7.56774,2.52004,0.467774,13,32765
7.61388,2.50857,0.465573,13,32765
7.58397,2.47232,0.459486,13,32765
7.57301,2.44226,0.453739,13,32765
7.59983,2.42481,0.450484,14,32765
7.58877,2.39453,0.444729,13,32765
7.56776,2.36228,0.438371,13,32765
7.86355,5.78033,0.890147,12,32765
7.8838,5.75392,0.882143,13,32765
7.79884,5.65179,0.862665,13,32765
7.85831,5.65547,0.86082,13,32765
7.9506,5.68183,0.860786,15,32765
7.97011,5.65534,0.854728,16,32765
7.97317,5.61754,0.846068,15,32765
7.98413,5.58549,0.839202,17,32765
8.00283,5.55966,0.83262,16,32765
7.98068,5.50501,0.822464,17,32765
7.9583,5.45053,0.812161,16,32765
8.00159,5.4409,0.809466,18,32765
8.00357,5.40331,0.802014,19,32765
8.00513,5.36613,0.794621,19,32765
7.97337,5.30686,0.78403,19,32765
7.98274,5.27548,0.777871,20,32765
8.00061,5.24911,0.772713,20,32765
7.9934,5.20631,0.764738,24,32765
8.0277,5.19075,0.761751,26,32765
8.00357,5.13695,0.752508,17,32765
8.01234,5.10542,0.746972,16,32765
7.97045,5.04184,0.737136,14,32765
8.05499,5.05808,0.737963,13,32765
8.00399,4.98984,0.727462,12,32765
8.01227,4.95832,0.721865,11,32765
0,0,0,15,32765
7.98582,4.86924,0.708166,11,32765
8.03644,4.86333,0.707086,16,32765
7.83903,4.70861,0.683731,15,32765
7.76934,4.63148,0.672037,14,32765
7.80208,4.61604,0.669239,13,32765
7.80051,4.58001,0.663633,13,32765
7.78166,4.53375,0.657076,13,32765
7.79692,4.50804,0.653069,13,32765
7.77768,4.46209,0.646222,13,32765
7.75804,4.41657,0.639666,16,32765
7.7295,4.3663,0.632632,14,32765
7.59641,4.25749,0.617407,13,32765
7.52348,4.18399,0.606971,13,32765
7.53763,4.15899,0.603261,13,32765
7.59539,4.15789,0.603686,12,32765
7.6619,4.16141,0.604652,12,32765
7.70247,4.14985,0.603022,15,32765
7.74273,4.13863,0.601647,16,32765
7.74795,4.10807,0.597647,14,32765
7.72641,4.06388,0.591494,14,32765
7.77544,4.05689,0.590102,13,32765
7.75376,4.01253,0.584254,14,32765
7.74935,3.97783,0.58077,14,32765
7.70951,3.92464,0.574074,17,32765
7.77641,3.92566,0.574039,14,32765
7.7364,3.87234,0.567459,14,32765
7.72307,3.83238,0.562685,14,32765
7.70022,3.78889,0.557586,14,32765
7.74902,3.7805,0.556838,14,32765
7.68991,3.71996,0.548403,14,32765
7.66631,3.67736,0.543166,14,32765
7.69678,3.66023,0.542191,13,32765
7.709,3.63494,0.538648,14,32765
7.69423,3.59641,0.53368,14,32765
7.68816,3.56246,0.53029,14,32765
7.70018,3.53689,0.52697,14,32765
7.71225,3.51096,0.523824,14,32765
7.73304,3.48968,0.521724,13,32765
7.69942,3.44324,0.515318,14,32765
7.71105,3.41758,0.512253,14,32765
7.74098,3.39961,0.510637,14,32765
7.67033,3.33743,0.501984,14,32765
7.67243,3.30789,0.498536,14,32765
7.7021,3.28985,0.49664,14,32765
7.65785,3.24134,0.489904,14,32765
7.7054,3.23168,0.489878,14,32765
7.68862,3.19472,0.484217,14,32765
7.66224,3.15436,0.47971,14,32765
7.67286,3.12898,0.476139,14,32765
7.62771,3.08142,0.469499,14,32765
7.63807,3.05608,0.466792,14,32765
7.63915,3.02689,0.462834,14,32765
7.65857,3.00528,0.460599,15,32765
7.64073,2.96922,0.455051,15,32765
7.65997,2.94765,0.4523,14,32765
7.66032,2.91929,0.448765,15,32765
7.6794,2.89765,0.445847,15,32765
7.64203,2.85555,0.440562,15,32765
7.67029,2.83742,0.437956,14,32765
7.64219,2.79862,0.43264,14,32765
7.67027,2.78043,0.430108,15,32765
7.66083,2.74839,0.424831,14,32765
7.70744,2.73705,0.4244,15,32765
7.60343,2.67226,0.414461,15,32765
7.66864,2.66779,0.414402,15,32765
7.62065,2.62384,0.40748,15,32765
7.64818,2.60574,0.404497,15,32765
7.65663,2.58139,0.400739,14,32765
7.61765,2.54103,0.39508,15,32765
7.62591,2.51686,0.390527,14,32765
7.66245,2.50221,0.388175,15,32765
7.64204,2.46876,0.38209,15,32765
7.61184,2.43282,0.375786,15,32765
7.61981,2.40846,0.371137,16,32765
7.62742,2.385,0.366414,16,32765
7.93852,5.82892,0.786068,12,32765
7.83673,5.71503,0.772666,12,32765
7.91215,5.73023,0.776104,11,32765
8.00402,5.75658,0.780707,13,32765
7.99089,5.70666,0.775982,15,32765
7.9775,5.65707,0.770117,14,32765
7.99633,5.63081,0.767274,16,32765
8.01477,5.60497,0.76416,15,32765
7.99238,5.55022,0.757958,14,32765
7.9777,5.50177,0.751802,15,32765
7.97984,5.46384,0.747442,16,32765
7.957,5.40927,0.740597,17,32765
7.95034,5.36628,0.734507,15,32765
7.96815,5.34022,0.731425,16,32765
7.96105,5.29746,0.725693,15,32765
7.94552,5.24914,0.71958,14,32765
7.96326,5.22268,0.715966,16,32765
8.01419,5.21809,0.715831,14,32765
8.02327,5.18621,0.711886,11,32765
0,0,0,0,32765
0,0,0,0,32765
0,0,0,0,32765
0,0,0,0,32765
0,0,0,16,32765
0,0,0,0,32765
0,0,0,0,32765
7.99746,4.87498,0.668799,13,32765
7.94564,4.80702,0.65985,14,32765
7.72274,4.63634,0.636055,13,32765
7.68693,4.57995,0.629279,12,32765
7.77978,4.60002,0.631252,12,32765
7.68347,4.50851,0.618506,12,32765
7.69875,4.4828,0.615321,12,32765
7.71395,4.45698,0.612505,12,32765
7.73752,4.43643,0.610268,13,32765
7.7179,4.39087,0.603553,14,32765
7.61117,4.29646,0.589972,12,32765
7.54735,4.22727,0.580229,12,32765
7.49188,4.16329,0.571769,12,32765
7.57552,4.17745,0.57394,12,32765
7.66838,4.19537,0.576553,11,32765
7.68259,4.16987,0.57234,13,32765
7.72329,4.15816,0.569717,14,32765
7.8166,4.17457,0.572744,13,32765
7.7248,4.09254,0.562302,12,32765
7.65913,4.02493,0.553664,12,32765
7.71707,4.02238,0.552923,12,32765
7.71296,3.98753,0.547609,12,32765
7.67345,3.93389,0.540592,14,32765
7.71323,3.92221,0.539696,12,32765
7.65507,3.86078,0.531333,12,32765
7.66815,3.83529,0.527332,12,32765
7.75258,3.84544,0.528175,12,32765
7.63139,3.75319,0.515533,13,32765
7.7069,3.75826,0.517085,13,32765
7.65694,3.70172,0.508893,13,32765
7.66945,3.67611,0.506166,12,32765
7.68171,3.65088,0.502848,13,32765
7.6398,3.59995,0.49545,12,32765
7.68792,3.59173,0.495338,13,32765
7.71821,3.57435,0.493646,12,32765
7.67609,3.52314,0.486571,12,32765
7.72418,3.51439,0.485883,13,32765
7.66326,3.45574,0.478266,12,32765
7.72943,3.45504,0.478599,13,32765
7.64051,3.38511,0.46963,12,32765
7.67932,3.37168,0.468852,13,32765
7.66305,3.33445,0.464752,13,32765
7.67428,3.30893,0.461856,13,32765
7.64849,3.26813,0.457027,12,32765
7.65941,3.2428,0.454423,12,32765
7.67027,3.21735,0.452347,13,32765
7.62574,3.1688,0.446784,13,32765
7.6548,3.15121,0.444938,13,32765
7.66527,3.12592,0.443062,13,32765
7.59224,3.0672,0.436128,13,32765
7.621,3.04948,0.435173,13,32765
7.64962,3.03193,0.433939,13,32765
7.6411,2.99946,0.430396,13,32765
7.63222,2.96744,0.42842,13,32765
7.64207,2.9422,0.426943,13,32765
7.61443,2.90305,0.422234,13,32765
7.62385,2.87842,0.420917,13,32765
7.67075,2.86755,0.420377,13,32765
7.68004,2.84273,0.419415,13,32765
7.61446,2.7898,0.41399,13,32765
7.68012,2.78492,0.415144,13,32765
7.67035,2.75322,0.413692,13,32765
7.5947,2.69802,0.407573,13,32765
7.63159,2.68371,0.408091,13,32765
7.61191,2.64945,0.405266,13,32765
7.57336,2.60817,0.402559,12,32765
7.59124,2.58696,0.402001,13,32765
7.59956,2.56255,0.40124,13,32765
7.60763,2.53857,0.400704,13,32765
7.55873,2.49575,0.397196,13,32765
7.58566,2.47771,0.398587,13,32765
7.54602,2.43817,0.395619,13,32765
7.60131,2.42923,0.398779,13,32765
7.57085,2.39316,0.396809,13,32765
7.59728,2.37538,0.399655,13,32765
7.90548,5.81821,0.690964,13,32765
7.89228,5.76892,0.686668,13,32765
7.87909,5.71951,0.681744,13,32765
7.89811,5.69351,0.679244,12,32765
7.96592,5.7019,0.681848,16,32765
7.99318,5.68118,0.679814,19,32765
8.02026,5.66055,0.677645,17,32765
8.05514,5.64602,0.675883,22,32765
8.07385,5.61951,0.673544,17,32765
8.02658,5.54799,0.665002,17,32765
8.03711,5.51545,0.66148,19,32765
8.10516,5.52236,0.662486,49,32765
8.09888,5.47878,0.656597,18,32765
0,0,0,0,32765
0,0,0,20,32765
0,0,0,0,32765
40.0579,26.33,3.15212,14,32765
40.0542,26.1372,3.1292,15,32765
40.393,26.1673,3.13264,14,32765
40.4967,26.0456,3.11623,14,32765
40.8352,26.0745,3.11544,14,32765
0,0,0,0,32765
0,0,0,16,32765
0,0,0,0,32765
0,0,0,16,32765
0,0,0,0,32765
0,0,0,16,32765
7.97161,4.83311,0.574508,16,32765
7.92838,4.77002,0.566139,16,32765
7.79877,4.65653,0.553164,15,32765
7.82316,4.63555,0.549399,14,32765
7.76999,4.56899,0.540838,14,32765
7.78548,4.54293,0.53761,14,32765
7.80088,4.51677,0.534756,13,32765
7.7381,4.44615,0.526496,13,32765
7.76186,4.4252,0.523071,15,32765
7.77688,4.39925,0.518888,15,32765
7.56539,4.24628,0.500118,13,32765
7.53614,4.19667,0.49411,14,32765
7.54999,4.17208,0.49096,14,32765
7.58155,4.15653,0.488784,13,32765
7.70087,4.1885,0.491327,12,32765
7.74162,4.17671,0.488406,14,32765
7.74697,4.14598,0.485064,17,32765
7.76972,4.12485,0.482891,15,32765
7.74832,4.08021,0.477798,14,32765
7.74448,4.045,0.472755,14,32765
7.75817,4.01916,0.468679,14,32765
7.701,3.95612,0.461136,14,32765
7.69636,3.92166,0.4573,17,32765
7.72732,3.90519,0.454936,15,32765
7.74053,3.8794,0.450892,13,32765
7.75356,3.85377,0.446818,14,32765
7.70404,3.79663,0.439668,14,32765
7.71689,3.77077,0.436975,14,32765
7.69392,3.72714,0.430939,14,32765
7.74252,3.71864,0.430194,14,32765
7.70081,3.66735,0.423862,14,32765
7.68603,3.62904,0.418488,14,32765
7.70712,3.60794,0.416514,14,32765
7.71028,3.57785,0.413165,14,32765
7.70445,3.54325,0.408578,14,32765
7.66173,3.49294,0.402721,14,32765
7.72815,3.49196,0.402512,14,32765
7.68504,3.44205,0.396605,14,32765
7.69649,3.4167,0.39382,14,32765
7.65312,3.36685,0.388559,14,32765
7.68262,3.34958,0.38705,14,32765
7.69389,3.32394,0.384142,14,32765
7.6865,3.29085,0.380587,14,32765
7.6975,3.26534,0.377966,14,32765
7.6808,3.22809,0.374528,14,32765
7.69164,3.20245,0.372199,14,32765
7.64693,3.15413,0.366593,14,32765
7.67591,3.13636,0.365596,15,32765
7.64919,3.09622,0.36169,14,32765
7.65952,3.07084,0.359656,14,32765
7.65106,3.03838,0.356488,14,32765
7.63326,3.00217,0.352699,14,32765
7.64301,2.97736,0.351765,14,32765
7.66222,2.95563,0.350708,15,32765
7.69062,2.93772,0.348905,15,32765
7.65344,2.89511,0.345462,15,32765
7.66297,2.8701,0.342858,16,32765
7.6348,2.83136,0.340223,15,32765
7.66297,2.8129,0.339712,15,32765
7.69116,2.7942,0.338633,15,32765
7.68142,2.76239,0.337364,15,32765
7.65286,2.72379,0.334141,15,32765
7.66157,2.6993,0.333136,15,32765
7.61363,2.655,0.32936,16,32765
7.62234,2.62992,0.32916,15,32765
7.63084,2.60528,0.328091,15,32765
7.63923,2.58069,0.327322,15,32765
7.61894,2.54702,0.325566,15,32765
7.62698,2.52291,0.325044,15,32765
7.58755,2.48286,0.323413,14,32765
7.64299,2.474,0.324954,15,32765
7.61279,2.4373,0.324004,15,32765
7.58237,2.40112,0.322407,15,32765
7.62793,2.38924,0.32588,15,32765
7.94524,5.82666,0.733207,12,32765
7.84403,5.71263,0.714117,12,32765
8.0256,5.80302,0.720845,11,32765
7.89986,5.67132,0.700541,13,32765
7.96763,5.6803,0.697947,15,32765
7.95393,5.63158,0.687876,14,32765
8.01359,5.63434,0.684849,17,32765
8.05709,5.62522,0.680238,16,32765
8.00243,5.54732,0.667761,15,32765
8.06234,5.54919,0.664303,15,32765
8.04803,5.50023,0.655387,30,32765
8.07486,5.47914,0.651267,29,32765
0,0,0,0,32765
0,0,0,0,32765
0,0,0,0,32765
0,0,0,0,32765
