x, y, z, intensity, ring
0.957203,-0.0674323,-0.0285635,17,32765
0.947002,-0.0699448,-0.0282097,17,32765
0.956725,-0.0739104,-0.0285397,16,32765
0.98636,-0.0795577,-0.0294061,16,32765
0.996049,-0.0837151,-0.029631,17,32765
0.965889,-0.0844789,-0.0286637,16,32765
0.985508,-0.0895742,-0.029153,17,32765
0.955346,-0.0901001,-0.0282155,16,32765
0.974931,-0.0952958,-0.0287682,16,32765
0.994493,-0.1006,-0.0293741,16,32765
0.96433,-0.100803,-0.028413,17,32765
1.03355,-0.111547,-0.0304017,16,32765
1.01331,-0.112785,-0.0297877,17,32765
0.99306,-0.113922,-0.0292283,17,32765
1.04231,-0.123142,-0.0305692,17,32765
1.01212,-0.123023,-0.0297062,17,32765
1.03153,-0.128972,-0.0301866,17,32765
1.01126,-0.129937,-0.0295284,17,32765
1.00091,-0.132041,-0.0291878,17,32765
1.06979,-0.144815,-0.0311327,17,32765
1.01979,-0.141547,-0.0297908,17,32765
1.049,-0.149208,-0.0305872,17,32765
1.07817,-0.157092,-0.031316,17,32765
1.04797,-0.156326,-0.0304611,16,32765
1.08696,-0.16594,-0.0314647,17,32765
1.03701,-0.161908,-0.0300586,16,32765
1.0562,-0.168555,-0.0305902,17,32765
1.07536,-0.175348,-0.0310288,17,32765
1.10434,-0.183919,-0.0318604,17,32765
1.084,-0.184288,-0.0312526,17,32765
1.07353,-0.186214,-0.0308264,17,32765
1.09259,-0.193285,-0.0312786,17,32765
1.08211,-0.19515,-0.0308648,17,32765
1.10112,-0.202378,-0.0313689,17,32765
1.11025,-0.207949,-0.0317333,17,32765
1.08991,-0.207967,-0.0308216,17,32765
1.11863,-0.217424,-0.0315205,16,32765
1.09828,-0.217295,-0.030968,17,32765
1.09754,-0.221052,-0.030769,16,32765
1.12617,-0.230775,-0.0314415,17,32765
1.13519,-0.236538,-0.0316452,16,32765
1.12462,-0.238257,-0.0312166,16,32765
1.11406,-0.239863,-0.0307761,16,32765
1.1523,-0.252182,-0.0316724,16,32765
1.13194,-0.251709,-0.0309383,17,32765
1.15061,-0.259863,-0.0312677,16,32765
1.17897,-0.270384,-0.0318928,17,32765
1.2073,-0.281028,-0.0324372,16,32765
1.18691,-0.280423,-0.0317291,16,32765
1.16655,-0.279651,-0.0309525,16,32765
1.1462,-0.278795,-0.030153,16,32765
1.2035,-0.296981,-0.0313725,16,32765
1.14434,-0.28638,-0.0295672,16,32765
1.18214,-0.300041,-0.0303421,17,32765
1.2102,-0.311375,-0.0308592,17,32765
1.22853,-0.320379,-0.0310027,17,32765
1.22748,-0.324414,-0.0306758,17,32765
1.26507,-0.338712,-0.0312711,17,32765
1.22536,-0.332416,-0.0299997,17,32765
1.2339,-0.339102,-0.0299567,17,32765
1.21352,-0.337808,-0.0290626,17,32765
1.26053,-0.355352,-0.0298082,17,32765
1.24014,-0.354001,-0.0289046,16,32765
1.23897,-0.358086,-0.0285807,17,32765
1.22822,-0.359309,-0.0279564,16,32765
1.2654,-0.374641,-0.0283403,17,32765
1.25462,-0.37586,-0.0275711,17,32765
1.27256,-0.385663,-0.0274678,16,32765
1.26174,-0.386889,-0.0268833,17,32765
1.26051,-0.390921,-0.0263284,16,32765
1.2402,-0.38893,-0.025334,16,32765
1.25804,-0.39888,-0.0251132,17,32765
1.28535,-0.412014,-0.0249483,17,32765
1.26497,-0.410082,-0.0239833,17,32765
1.31118,-0.429676,-0.0241201,17,32765
0.949011,0.0159613,-0.0403021,17,32765
0.929091,0.0124728,-0.0391625,17,32765
0.929137,0.00938218,-0.0389352,17,32765
0.949151,0.00651123,-0.0396128,17,32765
0.919203,0.00320595,-0.038145,17,32765
0.959182,6.91901e-05,-0.0396244,17,32765
0.919219,-0.00302457,-0.0377811,17,32765
0.939191,-0.00623955,-0.0384913,17,32765
0.93917,-0.0093175,-0.0383704,17,32765
0.959125,-0.0127057,-0.0389594,17,32765
0.96907,-0.0160418,-0.0393202,17,32765
0.939049,-0.0186732,-0.0379183,17,32765
0.948966,-0.0221047,-0.0383948,16,32765
0.95888,-0.0256198,-0.0386465,16,32765
0.948805,-0.02864,-0.0380623,17,32765
0.938717,-0.0315501,-0.0376185,16,32765
0.95858,-0.0354092,-0.0383358,16,32765
0.938491,-0.0378054,-0.0374842,17,32765
0.93836,-0.0409464,-0.0374773,17,32765
0.9482,-0.0445804,-0.037812,17,32765
0.958027,-0.048278,-0.0381152,17,32765
0.957863,-0.0515169,-0.0380054,17,32765
0.957685,-0.054722,-0.0380151,17,32765
0.96748,-0.0585136,-0.0382021,17,32765
0.947335,-0.0604897,-0.037374,17,32765
0.977036,-0.0656998,-0.0385254,17,32765
0.936943,-0.0661893,-0.0368287,16,32765
1.00647,-0.0745435,-0.0395113,16,32765
0.966361,-0.074861,-0.0379797,16,32765
0.976062,-0.0789437,-0.0383459,16,32765
1.00566,-0.0847547,-0.0394467,16,32765
1.00537,-0.0881721,-0.0393649,16,32765
0.99512,-0.0906936,-0.0388722,16,32765
1.02465,-0.0968981,-0.0399802,16,32765
0.984538,-0.0964947,-0.0383918,16,32765
1.00409,-0.101844,-0.0391862,16,32765
1.01368,-0.106247,-0.03949,16,32765
1.02326,-0.110732,-0.0398158,17,32765
1.01295,-0.113047,-0.0393997,16,32765
1.03242,-0.118753,-0.0401975,16,32765
1.03201,-0.122251,-0.040078,16,32765
1.05143,-0.128141,-0.0408592,17,32765
1.03116,-0.129268,-0.0399859,17,32765
1.02081,-0.131511,-0.0395228,16,32765
1.05008,-0.138895,-0.04062,16,32765
1.0694,-0.145145,-0.041308,17,32765
1.0788,-0.150134,-0.0417954,17,32765
1.08818,-0.15519,-0.0421045,17,32765
1.08765,-0.158892,-0.041966,17,32765
1.08711,-0.162592,-0.0419729,17,32765
1.09643,-0.167826,-0.042207,17,32765
1.09585,-0.171546,-0.0422321,17,32765
1.0854,-0.173671,-0.0418092,17,32765
1.09467,-0.178967,-0.0420532,17,32765
1.12363,-0.187623,-0.0431666,17,32765
1.11314,-0.189739,-0.0427477,17,32765
1.09281,-0.190055,-0.0418459,17,32765
1.10201,-0.195462,-0.0421081,17,32765
1.11119,-0.20092,-0.042348,17,32765
1.12034,-0.206451,-0.0426644,17,32765
1.11963,-0.210257,-0.0427489,17,32765
1.15818,-0.221574,-0.0438764,17,32765
1.14761,-0.223641,-0.0433664,17,32765
1.14685,-0.227499,-0.0433664,16,32765
1.13627,-0.229454,-0.0427892,17,32765
1.15508,-0.237319,-0.0433709,17,32765
1.15428,-0.241149,-0.0432995,17,32765
1.1437,-0.242937,-0.0427736,17,32765
1.15267,-0.248827,-0.0429636,16,32765
1.16158,-0.25488,-0.0431421,16,32765
1.17048,-0.260962,-0.0433001,17,32765
1.16961,-0.264849,-0.0430921,17,32765
1.17847,-0.270978,-0.0432808,16,32765
1.18732,-0.277103,-0.0433957,17,32765
1.20585,-0.285646,-0.0439186,16,32765
1.20492,-0.289607,-0.043653,16,32765
1.19425,-0.291245,-0.0430048,17,32765
1.23209,-0.304832,-0.0440815,17,32765
1.2117,-0.304032,-0.0430825,16,32765
1.22036,-0.310556,-0.0431917,17,32765
1.2387,-0.319546,-0.0436421,17,32765
1.20865,-0.316023,-0.042274,17,32765
1.2366,-0.327682,-0.0429585,17,32765
1.23555,-0.331677,-0.0425956,17,32765
1.2441,-0.338387,-0.0426063,17,32765
1.25262,-0.345151,-0.0426523,16,32765
1.27074,-0.354666,-0.0428616,16,32765
1.28881,-0.364282,-0.0430934,17,32765
1.27801,-0.365772,-0.0423087,17,32765
1.27681,-0.369992,-0.0419742,17,32765
1.27561,-0.374157,-0.041555,17,32765
1.28399,-0.381145,-0.0413697,17,32765
1.31148,-0.393929,-0.0417153,17,32765
1.2911,-0.392314,-0.0405736,17,32765
1.28027,-0.393604,-0.0398887,17,32765
1.27902,-0.397706,-0.0393248,17,32765
1.30637,-0.410762,-0.0395771,17,32765
1.30509,-0.414888,-0.0389427,17,32765
1.33234,-0.428201,-0.039032,17,32765
1.31192,-0.426422,-0.037856,17,32765
1.32007,-0.433729,-0.0373593,17,32765
0.909188,0.0150364,-0.0353726,17,32765
0.889231,0.0117031,-0.0350924,17,32765
0.889249,0.00876544,-0.0354868,16,32765
0.909243,0.00592281,-0.0366413,16,32765
0.86928,0.00278012,-0.0352817,17,32765
0.919227,-0.000141336,-0.0376997,17,32765
0.869253,-0.00306265,-0.0359022,17,32765
0.909194,-0.00627211,-0.0377696,16,32765
0.889174,-0.00910184,-0.0372288,17,32765
0.949069,-0.0128308,-0.0400433,17,32765
0.889076,-0.0149451,-0.037684,16,32765
0.91898,-0.0185115,-0.039161,16,32765
0.938883,-0.0220944,-0.0401256,16,32765
0.928803,-0.0250962,-0.0399428,16,32765
0.918717,-0.0279476,-0.0397223,17,32765
0.928595,-0.0313849,-0.0403305,16,32765
0.93846,-0.034871,-0.0409469,17,32765
0.90839,-0.0367495,-0.0397104,17,32765
0.9382,-0.0410691,-0.0411647,17,32765
0.918094,-0.0432458,-0.0404023,17,32765
0.957852,-0.0482892,-0.0422888,16,32765
0.907797,-0.0488408,-0.0402349,17,32765
0.917602,-0.0524351,-0.040707,17,32765
0.917412,-0.0555488,-0.0408522,17,32765
0.957104,-0.0611558,-0.0425625,17,32765
0.956884,-0.0643815,-0.0427623,17,32765
0.946696,-0.0668958,-0.0423332,17,32765
0.976345,-0.07229,-0.0438637,17,32765
0.966131,-0.0748479,-0.0434673,17,32765
0.975834,-0.0789108,-0.0438404,16,32765
0.965604,-0.0813757,-0.0434376,16,32765
0.975274,-0.0855035,-0.0439365,16,32765
1.00483,-0.0914952,-0.0452723,17,32765
0.974676,-0.0920659,-0.0439332,17,32765
0.994247,-0.0972877,-0.0448081,17,32765
1.01379,-0.102685,-0.0457323,17,32765
1.0035,-0.105082,-0.045317,17,32765
1.01307,-0.109546,-0.0457186,17,32765
0.992836,-0.110744,-0.0448665,17,32765
1.00239,-0.1152,-0.045262,17,32765
1.02184,-0.12091,-0.0460788,17,32765
1.02143,-0.124322,-0.0460895,17,32765
1.04084,-0.130188,-0.0469233,17,32765
1.05031,-0.134956,-0.0472623,17,32765
1.02015,-0.134527,-0.0458337,17,32765
1.04939,-0.14197,-0.0471222,18,32765
1.03901,-0.14416,-0.0466495,17,32765
1.04841,-0.149119,-0.0469338,18,32765
1.04789,-0.152732,-0.046848,17,32765
1.05725,-0.157788,-0.0471643,17,32765
1.03695,-0.158414,-0.0461789,17,32765
1.05615,-0.165034,-0.0470045,18,32765
1.07532,-0.17178,-0.0478434,17,32765
1.06487,-0.173812,-0.0472892,17,32765
1.06429,-0.177387,-0.0472033,17,32765
1.06368,-0.181,-0.0470883,17,32765
1.10244,-0.191441,-0.0487252,17,32765
1.09196,-0.193424,-0.0479746,17,32765
1.09131,-0.197113,-0.0478951,17,32765
1.11029,-0.204384,-0.0487362,17,32765
1.08996,-0.204444,-0.0478201,17,32765
1.09908,-0.21001,-0.0480495,17,32765
1.10819,-0.215582,-0.0484339,17,32765
1.12706,-0.223227,-0.0491289,17,32765
1.09692,-0.221094,-0.0477194,16,32765
1.09617,-0.224796,-0.047622,16,32765
1.11498,-0.232566,-0.0482617,17,32765
1.13375,-0.240463,-0.0489812,16,32765
1.13293,-0.244285,-0.0489125,16,32765
1.16139,-0.254489,-0.0499941,16,32765
1.15077,-0.256262,-0.0496483,16,32765
1.11093,-0.25131,-0.0477373,16,32765
1.12955,-0.259535,-0.0485054,16,32765
1.15787,-0.270128,-0.0496736,16,32765
1.17642,-0.278567,-0.0503979,16,32765
1.1755,-0.282459,-0.0502423,17,32765
1.19398,-0.291027,-0.0510658,17,32765
1.19302,-0.294974,-0.0509015,17,32765
1.21141,-0.303834,-0.0516178,17,32765
1.20071,-0.305406,-0.0511376,17,32765
1.19968,-0.309444,-0.0510577,17,32765
1.20833,-0.315928,-0.0513461,17,32765
1.23626,-0.327575,-0.0525966,17,32765
1.20624,-0.323836,-0.0511884,16,32765
1.23409,-0.335658,-0.0523926,17,32765
1.24261,-0.34238,-0.0528158,17,32765
1.2511,-0.349195,-0.053003,17,32765
1.25956,-0.356036,-0.0534007,17,32765
1.25837,-0.360212,-0.0534392,16,32765
1.22841,-0.355929,-0.0522795,17,32765
1.23683,-0.362727,-0.0526375,17,32765
1.25483,-0.372356,-0.053447,18,32765
1.27278,-0.382097,-0.0541558,17,32765
1.27153,-0.386209,-0.0542434,17,32765
1.27981,-0.393309,-0.0547604,17,32765
1.26896,-0.394547,-0.0545024,16,32765
1.27722,-0.401619,-0.0549082,16,32765
1.28547,-0.408649,-0.0553505,18,32765
1.27468,-0.409577,-0.0550986,18,32765
1.32091,-0.428969,-0.0573559,16,32765
1.28157,-0.420648,-0.0559184,16,32765
0.928788,0.0153694,-0.0449148,18,32765
0.908835,0.0119618,-0.0444571,17,32765
0.918837,0.0090501,-0.0453531,17,32765
0.928832,0.00603543,-0.0462109,17,32765
0.898871,0.00285272,-0.0449797,17,32765
0.918831,-0.000171698,-0.0463693,17,32765
0.898837,-0.00320433,-0.0456213,17,32765
0.928771,-0.00645379,-0.0473633,17,32765
0.918742,-0.00945846,-0.0471529,18,32765
0.918691,-0.0124817,-0.0474478,18,32765
0.918636,-0.0155113,-0.0476231,18,32765
0.938537,-0.0189842,-0.0488695,18,32765
0.938461,-0.0221712,-0.0489827,18,32765
0.95833,-0.0259912,-0.0502766,19,32765
0.938262,-0.0286454,-0.0494426,18,32765
0.92817,-0.0314806,-0.0490928,17,32765
0.91807,-0.0342301,-0.0487436,17,32765
0.927926,-0.0376656,-0.0493452,16,32765
0.94774,-0.0416232,-0.0505529,17,32765
0.94759,-0.0447796,-0.0506698,17,32765
0.937457,-0.0474119,-0.0502634,17,32765
0.947254,-0.0511243,-0.0509531,17,32765
0.967015,-0.055431,-0.0520572,18,32765
0.966812,-0.0587206,-0.0522101,18,32765
0.986544,-0.0632295,-0.0532185,17,32765
0.986314,-0.0665628,-0.0534242,17,32765
0.976122,-0.0691826,-0.0529012,17,32765
0.975873,-0.0724711,-0.0530946,17,32765
0.975617,-0.0758073,-0.0531461,17,32765
1.02512,-0.0831412,-0.0557787,16,32765
0.994982,-0.0840978,-0.0541997,16,32765
0.984743,-0.0865859,-0.0537091,17,32765
1.00433,-0.0917162,-0.0547847,16,32765
0.984136,-0.0932287,-0.0537053,17,32765
1.00369,-0.0984953,-0.0547681,17,32765
1.01328,-0.102929,-0.0553382,17,32765
1.01293,-0.106373,-0.0553713,17,32765
1.02249,-0.11088,-0.0558663,17,32765
1.05188,-0.117663,-0.0575402,17,32765
1.03164,-0.118899,-0.0563995,17,32765
1.03124,-0.122368,-0.0563189,17,32765
1.04073,-0.12703,-0.0568711,17,32765
1.05022,-0.131731,-0.0573507,17,32765
1.03987,-0.133991,-0.0567025,17,32765
1.04932,-0.138763,-0.0571487,17,32765
1.08843,-0.147664,-0.0592566,17,32765
1.08792,-0.151369,-0.0592267,17,32765
1.07752,-0.153688,-0.0585235,17,32765
1.07699,-0.157411,-0.058435,16,32765
1.07645,-0.1611,-0.0583066,16,32765
1.10551,-0.169356,-0.0598003,17,32765
1.09506,-0.171589,-0.05921,17,32765
1.11419,-0.178483,-0.0602352,18,32765
1.09387,-0.17904,-0.0590503,17,32765
1.10312,-0.184368,-0.0594928,17,32765
1.09265,-0.186442,-0.058843,17,32765
1.12153,-0.195293,-0.0603239,17,32765
1.11104,-0.197346,-0.0594732,17,32765
1.13003,-0.204669,-0.060443,17,32765
1.09987,-0.203024,-0.058844,17,32765
1.12862,-0.212279,-0.0603643,17,32765
1.14752,-0.219869,-0.0612033,17,32765
1.13698,-0.221793,-0.0606339,17,32765
1.13623,-0.225663,-0.0604697,17,32765
1.13547,-0.229493,-0.0603368,17,32765
1.15426,-0.237357,-0.061274,17,32765
1.16323,-0.243297,-0.0615729,17,32765
1.15265,-0.245144,-0.0609256,16,32765
1.16158,-0.251149,-0.0613708,17,32765
1.17049,-0.257187,-0.0617011,17,32765
1.15986,-0.258997,-0.0612612,17,32765
1.19795,-0.271739,-0.0630739,16,32765
1.18729,-0.273552,-0.0624875,17,32765
1.17665,-0.275263,-0.0618869,17,32765
1.20488,-0.286091,-0.0633075,17,32765
1.20394,-0.290088,-0.0631474,17,32765
1.18358,-0.289284,-0.0621213,16,32765
1.23109,-0.305224,-0.064497,17,32765
1.21069,-0.304489,-0.0633693,17,32765
1.21935,-0.311,-0.0638071,17,32765
1.25697,-0.325114,-0.0657483,16,32765
1.23657,-0.324205,-0.0646097,17,32765
1.27411,-0.338537,-0.0666468,17,32765
1.24407,-0.334915,-0.0649503,17,32765
1.24296,-0.339004,-0.0649251,17,32765
1.26109,-0.348432,-0.0659448,17,32765
1.2407,-0.347249,-0.0647169,17,32765
1.25876,-0.356796,-0.0657094,17,32765
1.26717,-0.363736,-0.0662489,17,32765
1.27557,-0.37062,-0.0668165,18,32765
1.3031,-0.383224,-0.0682695,17,32765
1.25401,-0.373147,-0.0657522,16,32765
1.27194,-0.382908,-0.066648,17,32765
1.28025,-0.389938,-0.0672364,17,32765
1.29804,-0.400025,-0.0683498,17,32765
1.28717,-0.401327,-0.0679991,18,32765
1.30492,-0.411478,-0.0690015,17,32765
1.31314,-0.418611,-0.0695374,17,32765
1.32133,-0.425756,-0.0702042,17,32765
1.32948,-0.432965,-0.070911,16,32765
1.3281,-0.437145,-0.0711308,16,32765
0.89804,0.0162562,-0.0570989,16,32765
0.898109,0.0131542,-0.0568142,17,32765
0.898168,0.0100137,-0.0565165,17,32765
0.878251,0.00680115,-0.0550428,17,32765
0.888262,0.00388642,-0.0554571,17,32765
0.908246,0.000920986,-0.0564725,18,32765
0.888285,-0.00205807,-0.0551857,17,32765
0.918225,-0.00521023,-0.0568791,17,32765
0.888274,-0.0080505,-0.0548082,16,32765
0.888251,-0.0110488,-0.0546699,17,32765
0.88821,-0.0140378,-0.0546445,18,32765
0.888168,-0.0169962,-0.0544866,18,32765
0.89809,-0.0202038,-0.0550122,18,32765
0.878068,-0.0226954,-0.0536726,17,32765
0.897946,-0.0262452,-0.0548113,17,32765
0.877902,-0.028689,-0.0535311,17,32765
0.937654,-0.0338381,-0.0570882,17,32765
0.89764,-0.0354745,-0.054631,17,32765
0.897524,-0.038478,-0.0545029,17,32765
0.917333,-0.0424241,-0.0556748,17,32765
0.9471,-0.0469943,-0.0573938,17,32765
0.927006,-0.0491195,-0.0560921,18,32765
0.956737,-0.0539102,-0.057855,17,32765
0.946586,-0.0565005,-0.0573003,17,32765
0.97628,-0.0615812,-0.0590275,17,32765
0.956152,-0.0635495,-0.057751,17,32765
0.97585,-0.0681858,-0.058884,17,32765
0.925841,-0.0678228,-0.0558473,16,32765
0.965424,-0.073979,-0.0581691,17,32765
0.975118,-0.0780483,-0.0587727,16,32765
0.974853,-0.0813705,-0.0586498,16,32765
1.01435,-0.088139,-0.0610721,17,32765
0.984222,-0.0888727,-0.0592351,18,32765
0.97398,-0.0912524,-0.0586097,17,32765
0.993534,-0.0964957,-0.0598188,17,32765
1.00314,-0.100865,-0.0603634,17,32765
1.00278,-0.10429,-0.0604076,17,32765
1.02227,-0.109869,-0.0615625,17,32765
1.03181,-0.11447,-0.0621036,17,32765
1.01159,-0.115686,-0.0608718,17,32765
1.01119,-0.119086,-0.060873,17,32765
1.00088,-0.121292,-0.0602934,17,32765
1.03018,-0.128363,-0.0620217,17,32765
1.01985,-0.130575,-0.061359,17,32765
1.03919,-0.13663,-0.0625868,17,32765
1.04861,-0.14156,-0.063147,17,32765
1.04812,-0.145174,-0.0630715,17,32765
1.04761,-0.148774,-0.0630266,16,32765
1.04711,-0.152304,-0.0630356,17,32765
1.05646,-0.157313,-0.0635193,17,32765
1.06579,-0.1624,-0.0641241,17,32765
1.08496,-0.16913,-0.0652589,17,32765
1.06466,-0.169729,-0.0639489,17,32765
1.09364,-0.178177,-0.0656072,17,32765
1.07334,-0.178581,-0.0643786,17,32765
1.08258,-0.183873,-0.0648695,17,32765
1.10163,-0.190939,-0.0660409,17,32765
1.08131,-0.191182,-0.0648708,17,32765
1.10032,-0.198396,-0.0658821,17,32765
1.09966,-0.202096,-0.0656895,17,32765
1.09898,-0.205763,-0.0655965,16,32765
1.10811,-0.211259,-0.0660834,16,32765
1.10741,-0.214918,-0.0659128,17,32765
1.0969,-0.216706,-0.0652039,17,32765
1.09616,-0.220452,-0.0649923,17,32765
1.15409,-0.236226,-0.0683978,16,32765
1.13374,-0.236063,-0.0670897,17,32765
1.12318,-0.237833,-0.0663192,16,32765
1.14191,-0.245772,-0.0672935,16,32765
1.1411,-0.249594,-0.0670628,16,32765
1.15974,-0.257818,-0.0680262,16,32765
1.11991,-0.252957,-0.06561,17,32765
1.14827,-0.263431,-0.0668865,16,32765
1.16684,-0.271784,-0.0679087,16,32765
1.20482,-0.284793,-0.0699505,16,32765
1.17476,-0.281792,-0.0679752,17,32765
1.20294,-0.292762,-0.0694026,17,32765
1.21168,-0.299149,-0.0696528,17,32765
1.201,-0.300764,-0.0688129,17,32765
1.23873,-0.314587,-0.0706045,17,32765
1.17968,-0.303747,-0.0669752,16,32765
1.20769,-0.315161,-0.0682768,17,32765
1.20667,-0.319118,-0.0679474,17,32765
1.19599,-0.320489,-0.0669882,16,32765
1.22386,-0.33227,-0.0682837,17,32765
1.25167,-0.344232,-0.0694742,17,32765
1.24092,-0.345696,-0.068592,17,32765
1.21096,-0.341679,-0.0665532,17,32765
1.23868,-0.353832,-0.0677064,17,32765
1.24713,-0.360658,-0.0677359,18,32765
1.23639,-0.361945,-0.0666304,17,32765
1.26396,-0.374446,-0.0678074,17,32765
1.27233,-0.381414,-0.0677842,17,32765
1.26157,-0.382587,-0.0667511,17,32765
1.26037,-0.386656,-0.0660202,17,32765
1.25915,-0.390727,-0.0654459,18,32765
1.26742,-0.397849,-0.0653278,18,32765
1.27566,-0.405033,-0.0651557,18,32765
1.27437,-0.40917,-0.0644266,17,32765
1.31111,-0.425551,-0.0656273,16,32765
1.30034,-0.4265,-0.0642317,15,32765
0.917405,0.0166048,-0.0670264,18,32765
0.937423,0.0137199,-0.0681863,19,32765
0.907568,0.0101007,-0.0657094,18,32765
0.927561,0.00715683,-0.0669234,18,32765
0.927596,0.00402446,-0.0667028,17,32765
0.917647,0.000889055,-0.0657524,17,32765
0.917648,-0.00217539,-0.0657052,17,32765
0.907673,-0.00520682,-0.0648261,17,32765
0.907666,-0.00829046,-0.0646051,17,32765
0.917617,-0.0114869,-0.0651722,17,32765
0.927548,-0.0147411,-0.065854,17,32765
0.917533,-0.0176466,-0.0649827,17,32765
0.927447,-0.0209615,-0.0655995,18,32765
0.947323,-0.0245929,-0.0668838,17,32765
0.947241,-0.0278017,-0.0667981,18,32765
0.937174,-0.0307487,-0.0660285,18,32765
0.917132,-0.0332256,-0.0645328,18,32765
0.93695,-0.0371671,-0.0659065,18,32765
0.946796,-0.040739,-0.0664723,18,32765
0.95662,-0.0443996,-0.0671309,18,32765
0.946509,-0.0471301,-0.0663351,17,32765
0.966274,-0.051377,-0.067634,17,32765
0.976059,-0.0551861,-0.0682837,17,32765
0.955951,-0.0572511,-0.0669384,17,32765
0.965713,-0.0611166,-0.0675541,16,32765
0.955552,-0.0637179,-0.0667856,17,32765
0.99514,-0.0697593,-0.0694967,17,32765
0.984953,-0.072385,-0.068767,16,32765
0.994656,-0.076462,-0.0693787,17,32765
0.984446,-0.0790442,-0.0686887,17,32765
1.02394,-0.0857363,-0.0713346,17,32765
1.01371,-0.0883579,-0.0706703,17,32765
0.993533,-0.0899916,-0.0692432,16,32765
1.02302,-0.0961426,-0.0712918,17,32765
0.9929,-0.09673,-0.0692281,16,32765
1.00249,-0.101108,-0.0698664,17,32765
1.04183,-0.10868,-0.0726791,17,32765
1.04145,-0.11227,-0.0726367,17,32765
1.03115,-0.114741,-0.0718881,17,32765
1.04067,-0.119369,-0.0725404,17,32765
1.03035,-0.121706,-0.0718504,17,32765
1.03984,-0.126389,-0.0725588,17,32765
1.05921,-0.132373,-0.0738762,17,32765
1.07855,-0.138501,-0.0751865,17,32765
1.05829,-0.139553,-0.0738436,17,32765
1.0578,-0.143223,-0.073807,17,32765
1.08695,-0.150996,-0.0757977,17,32765
1.06667,-0.151926,-0.0743734,17,32765
1.06615,-0.15553,-0.0743822,17,32765
1.07549,-0.160616,-0.0749574,17,32765
1.0848,-0.16578,-0.0756561,17,32765
1.09408,-0.171051,-0.0762903,17,32765
1.10335,-0.176409,-0.0768491,17,32765
1.0929,-0.178574,-0.0760445,17,32765
1.11197,-0.185546,-0.077366,17,32765
1.10151,-0.187632,-0.0765794,17,32765
1.13036,-0.196488,-0.0786219,17,32765
1.11986,-0.198572,-0.0779473,17,32765
1.12901,-0.204159,-0.0784579,17,32765
1.14795,-0.211582,-0.0796207,17,32765
1.12763,-0.211737,-0.0781638,17,32765
1.14653,-0.219215,-0.0794204,17,32765
1.13602,-0.221105,-0.078566,17,32765
1.14506,-0.226873,-0.0791116,16,32765
1.15408,-0.232767,-0.0795644,17,32765
1.17282,-0.240751,-0.0808347,17,32765
1.16224,-0.242693,-0.080008,17,32765
1.15166,-0.244565,-0.079138,17,32765
1.18011,-0.254723,-0.0809642,17,32765
1.17927,-0.258683,-0.0807252,17,32765
1.19786,-0.267057,-0.0818698,17,32765
1.18723,-0.26893,-0.081066,17,32765
1.18634,-0.272945,-0.0806158,17,32765
1.19515,-0.279174,-0.0811617,17,32765
1.20395,-0.285401,-0.0815992,16,32765
1.21271,-0.291729,-0.0819644,16,32765
1.18267,-0.288654,-0.0797429,16,32765
1.22047,-0.302183,-0.082045,16,32765
1.2098,-0.303834,-0.0811083,17,32765
1.21847,-0.310329,-0.0813351,17,32765
1.21746,-0.314371,-0.0810044,17,32765
1.23576,-0.323408,-0.081936,17,32765
1.21542,-0.322352,-0.0803232,17,32765
1.21438,-0.326346,-0.0799003,16,32765
1.26146,-0.343459,-0.0827349,17,32765
1.25073,-0.344958,-0.0816802,18,32765
1.23038,-0.343739,-0.080078,18,32765
1.25807,-0.355985,-0.081493,17,32765
1.24734,-0.357325,-0.0804356,17,32765
1.25578,-0.364196,-0.0805545,17,32765
1.28334,-0.376763,-0.0817917,17,32765
1.28214,-0.380917,-0.0814129,17,32765
1.28092,-0.385088,-0.0808713,18,32765
1.30837,-0.397911,-0.0821381,18,32765
1.29758,-0.399207,-0.080785,18,32765
1.31538,-0.409342,-0.081372,17,32765
1.30454,-0.410671,-0.0801494,17,32765
1.31273,-0.417996,-0.0800508,17,32765
1.32092,-0.425324,-0.0798741,17,32765
1.32909,-0.43262,-0.0797152,16,32765
1.3278,-0.43675,-0.0787747,17,32765
0.887677,0.0158373,-0.0622849,17,32765
0.86775,0.0125553,-0.0612574,18,32765
0.86775,0.00965504,-0.061773,18,32765
0.867759,0.00675099,-0.0620393,17,32765
0.887705,0.00389458,-0.0637553,17,32765
0.877705,0.000872457,-0.0635056,17,32765
0.88766,-0.00214243,-0.0644654,17,32765
0.88763,-0.00512465,-0.0647026,18,32765
0.877615,-0.00797229,-0.0642568,17,32765
0.887533,-0.0110277,-0.0653009,18,32765
0.88748,-0.013998,-0.0654458,18,32765
0.887411,-0.0169927,-0.065671,17,32765
0.897304,-0.0202471,-0.0665942,17,32765
0.877279,-0.0227509,-0.0652992,17,32765
0.897125,-0.0262718,-0.0669096,18,32765
0.877093,-0.0286291,-0.0654792,18,32765
0.926798,-0.0333675,-0.0695083,18,32765
0.926681,-0.0364925,-0.0695028,19,32765
0.96639,-0.041345,-0.0726729,18,32765
0.886549,-0.0409575,-0.066731,16,32765
0.95611,-0.0474483,-0.0721261,17,32765
0.975852,-0.0517259,-0.0737363,17,32765
0.925883,-0.0521859,-0.070128,16,32765
0.955563,-0.0570768,-0.0723961,17,32765
0.965306,-0.0608911,-0.073331,17,32765
0.915342,-0.0608529,-0.0696097,16,32765
0.94497,-0.0660331,-0.0719119,16,32765
0.97458,-0.0714423,-0.0740922,17,32765
0.964382,-0.0740084,-0.0734132,17,32765
0.993942,-0.079684,-0.0756896,17,32765
0.97379,-0.081426,-0.0741751,17,32765
0.98344,-0.0855928,-0.0749671,16,32765
1.00301,-0.0907142,-0.0764372,17,32765
0.97292,-0.0912781,-0.0741238,16,32765
0.962682,-0.0936142,-0.0733521,17,32765
1.01197,-0.101874,-0.0770875,17,32765
1.01162,-0.105295,-0.077103,17,32765
1.00134,-0.107684,-0.0762947,17,32765
1.0208,-0.113267,-0.0776931,17,32765
1.02041,-0.116717,-0.0776567,17,32765
1.02002,-0.120153,-0.0775713,17,32765
1.02952,-0.124777,-0.0781931,17,32765
1.03899,-0.129514,-0.078888,17,32765
1.03855,-0.133071,-0.0788057,17,32765
1.05787,-0.139198,-0.0801591,17,32765
1.03764,-0.140111,-0.0786241,17,32765
1.05693,-0.146332,-0.0799482,16,32765
1.05643,-0.149882,-0.0798934,17,32765
1.05593,-0.153474,-0.079769,17,32765
1.085,-0.161547,-0.0817826,18,32765
1.05486,-0.160817,-0.0794824,17,32765
1.0543,-0.1645,-0.0792988,17,32765
1.06359,-0.169721,-0.0798804,17,32765
1.07286,-0.174897,-0.0804996,17,32765
1.06244,-0.176906,-0.0795768,17,32765
1.09133,-0.185513,-0.0816946,17,32765
1.09071,-0.189202,-0.0816096,17,32765
1.08025,-0.191189,-0.0806167,17,32765
1.09924,-0.198375,-0.0819044,17,32765
1.11819,-0.205725,-0.0832286,17,32765
1.08809,-0.203991,-0.080938,17,32765
1.0972,-0.209549,-0.081556,17,32765
1.11607,-0.217078,-0.0828055,17,32765
1.13492,-0.224728,-0.0840038,17,32765
1.12438,-0.226599,-0.0832624,16,32765
1.1627,-0.238406,-0.0860018,16,32765
1.11306,-0.232187,-0.0823184,17,32765
1.15131,-0.244211,-0.0850661,17,32765
1.17,-0.252265,-0.0863479,16,32765
1.13018,-0.247674,-0.0833444,16,32765
1.15856,-0.257975,-0.0853377,16,32765
1.19661,-0.270687,-0.0879923,17,32765
1.1568,-0.265849,-0.0850902,16,32765
1.18506,-0.276507,-0.0871057,16,32765
1.1647,-0.275949,-0.0855989,16,32765
1.20257,-0.289169,-0.0883624,17,32765
1.20162,-0.293159,-0.0881841,17,32765
1.20064,-0.297154,-0.088114,17,32765
1.19,-0.298636,-0.0872565,17,32765
1.19868,-0.305017,-0.0879018,17,32765
1.22665,-0.316453,-0.0899311,17,32765
1.23525,-0.323035,-0.0905397,17,32765
1.22454,-0.324588,-0.089702,17,32765
1.22346,-0.328628,-0.0896665,18,32765
1.25124,-0.340569,-0.0917693,18,32765
1.23088,-0.339408,-0.0902652,17,32765
1.25856,-0.35156,-0.0924085,17,32765
1.267,-0.358434,-0.0929893,17,32765
1.25622,-0.359851,-0.0922788,17,32765
1.22628,-0.355704,-0.0901108,17,32765
1.24424,-0.365346,-0.0915734,18,32765
1.22392,-0.363733,-0.0900657,18,32765
1.29917,-0.390642,-0.0957347,17,32765
1.27883,-0.388957,-0.0943925,18,32765
1.28711,-0.395979,-0.0951493,18,32765
1.28582,-0.400116,-0.0951954,17,32765
1.30355,-0.410243,-0.0967207,16,32765
1.3022,-0.414457,-0.0968973,16,32765
1.27239,-0.409395,-0.0950106,15,32765
1.29004,-0.419578,-0.0966585,15,32765
1.4024,-0.460997,-0.10556,13,32765
0.897017,0.0159977,-0.0714512,18,32765
0.907002,0.0131087,-0.072634,18,32765
0.906997,0.0100689,-0.0731729,18,32765
0.907004,0.00702539,-0.0734512,17,32765
0.897031,0.00389678,-0.0729369,18,32765
0.897,0.000844618,-0.0734138,18,32765
0.906945,-0.00224478,-0.0744728,18,32765
0.906912,-0.00529994,-0.074715,18,32765
0.916831,-0.00840138,-0.0758298,18,32765
0.916771,-0.0114721,-0.076154,18,32765
0.896786,-0.0142321,-0.0746448,18,32765
0.906678,-0.0174582,-0.0757042,18,32765
0.916559,-0.0207876,-0.0767253,17,32765
0.926429,-0.0241411,-0.0777544,18,32765
0.926332,-0.027251,-0.0778847,17,32765
0.956109,-0.0313446,-0.0804585,16,32765
0.936055,-0.0338429,-0.079094,17,32765
0.925979,-0.0366137,-0.078247,18,32765
0.9557,-0.04105,-0.0809496,19,32765
0.935642,-0.0433931,-0.0793176,18,32765
0.975283,-0.0485835,-0.0828422,17,32765
0.965154,-0.0513494,-0.0821031,17,32765
0.955015,-0.0540252,-0.0814151,18,32765
0.984665,-0.0590274,-0.0839652,17,32765
0.974503,-0.0616902,-0.0832994,16,32765
0.964341,-0.0643359,-0.082511,17,32765
0.964114,-0.0676052,-0.0825437,17,32765
0.983759,-0.0723632,-0.084154,17,32765
0.983499,-0.0757325,-0.0842322,17,32765
0.993165,-0.0798905,-0.0850887,17,32765
1.00281,-0.0841337,-0.0859387,17,32765
1.00252,-0.0875433,-0.0859742,17,32765
1.02207,-0.0927427,-0.0876311,17,32765
1.04159,-0.0980413,-0.0892864,17,32765
1.00159,-0.097715,-0.0858687,17,32765
1.01117,-0.102123,-0.086673,17,32765
1.02072,-0.106585,-0.0875381,17,32765
1.04017,-0.112219,-0.089183,17,32765
1.02989,-0.11464,-0.08822,16,32765
1.0493,-0.120402,-0.0898787,17,32765
1.0291,-0.121606,-0.0880964,17,32765
1.05837,-0.128678,-0.0905023,17,32765
1.06782,-0.133525,-0.0912891,17,32765
1.0476,-0.13465,-0.0895152,17,32765
1.07678,-0.142128,-0.091898,17,32765
1.07629,-0.145783,-0.0918594,17,32765
1.06594,-0.148037,-0.0908413,17,32765
1.05558,-0.150224,-0.089945,17,32765
1.10437,-0.16101,-0.0940175,18,32765
1.09397,-0.163383,-0.0929528,17,32765
1.10325,-0.16871,-0.0937168,17,32765
1.11251,-0.174114,-0.0943592,17,32765
1.10207,-0.176399,-0.0933584,17,32765
1.11132,-0.181718,-0.0940667,17,32765
1.10088,-0.183864,-0.0930428,17,32765
1.09043,-0.185922,-0.0921189,17,32765
1.10944,-0.193035,-0.0936917,17,32765
1.11861,-0.198576,-0.0942535,17,32765
1.13756,-0.205909,-0.0957223,17,32765
1.14666,-0.2116,-0.0964049,17,32765
1.12636,-0.211802,-0.0946525,17,32765
1.14522,-0.219378,-0.0961819,17,32765
1.1347,-0.221364,-0.0951489,17,32765
1.15352,-0.229096,-0.0965302,17,32765
1.17227,-0.23696,-0.0981477,18,32765
1.16171,-0.238918,-0.0971726,16,32765
1.15114,-0.240849,-0.0962831,17,32765
1.16983,-0.248881,-0.0977714,17,32765
1.17874,-0.25491,-0.0984242,17,32765
1.18762,-0.26104,-0.0991053,17,32765
1.18675,-0.26504,-0.0989385,17,32765
1.16642,-0.264645,-0.0971072,17,32765
1.19464,-0.275366,-0.0994923,16,32765
1.21314,-0.283905,-0.100977,16,32765
1.18307,-0.281139,-0.0984723,17,32765
1.22089,-0.294452,-0.101609,17,32765
1.19087,-0.291405,-0.0990121,16,32765
1.23827,-0.307383,-0.102964,17,32765
1.19861,-0.301694,-0.0995975,17,32765
1.20727,-0.308119,-0.100335,17,32765
1.2352,-0.31961,-0.102644,17,32765
1.21486,-0.31865,-0.100942,18,32765
1.22343,-0.325263,-0.101612,17,32765
1.26085,-0.339682,-0.104775,17,32765
1.23086,-0.336024,-0.102359,17,32765
1.22974,-0.34011,-0.102266,17,32765
1.24779,-0.349597,-0.103891,17,32765
1.25623,-0.356452,-0.104565,18,32765
1.27421,-0.366097,-0.106155,18,32765
1.27298,-0.370359,-0.106097,17,32765
1.29087,-0.380177,-0.107748,17,32765
1.29918,-0.387258,-0.10844,18,32765
1.29792,-0.391441,-0.108479,18,32765
1.28713,-0.39266,-0.107746,18,32765
1.29539,-0.399725,-0.108596,17,32765
1.3036,-0.406871,-0.10944,17,32765
1.32128,-0.417078,-0.111153,16,32765
1.31991,-0.421361,-0.111331,17,32765
1.32804,-0.428592,-0.112377,15,32765
1.35508,-0.442067,-0.115025,15,32765
1.47671,-0.486897,-0.125873,12,32765
0.846007,0.0161329,-0.0806962,17,32765
0.865992,0.0135665,-0.0823009,17,32765
0.856107,0.0105317,-0.081056,18,32765
0.905931,0.00805333,-0.085576,17,32765
0.8562,0.00471956,-0.0806185,18,32765
0.856221,0.00183469,-0.0805111,18,32765
0.866204,-0.00108711,-0.0811787,18,32765
0.896076,-0.00412047,-0.0838493,18,32765
0.896074,-0.00710499,-0.0836749,18,32765
0.866198,-0.00974299,-0.0806574,17,32765
0.886086,-0.0129907,-0.0823571,17,32765
0.905956,-0.0163766,-0.0841129,17,32765
0.915864,-0.0196851,-0.0848877,16,32765
0.895895,-0.0223311,-0.0829071,16,32765
0.895825,-0.025369,-0.0827877,17,32765
0.895741,-0.0284215,-0.0827107,17,32765
0.915552,-0.0321736,-0.0844326,18,32765
0.925402,-0.0356575,-0.0852007,18,32765
0.945179,-0.0396201,-0.0869913,17,32765
0.955009,-0.0432526,-0.0876775,17,32765
0.92502,-0.0450297,-0.0849163,17,32765
0.954703,-0.049812,-0.0875303,17,32765
0.954539,-0.053085,-0.087391,17,32765
0.924531,-0.0546005,-0.0846261,17,32765
0.964115,-0.0601851,-0.0880895,17,32765
0.963912,-0.0634197,-0.0880434,17,32765
0.953761,-0.0660367,-0.0870613,17,32765
0.933675,-0.0678071,-0.0851683,17,32765
0.923514,-0.0702949,-0.0841478,17,32765
0.972911,-0.0774149,-0.0886077,17,32765
0.982575,-0.0815688,-0.0894061,17,32765
0.992218,-0.0857996,-0.0902317,17,32765
1.00185,-0.090037,-0.0910687,17,32765
0.991621,-0.0925082,-0.0901655,17,32765
1.00123,-0.0968389,-0.0908407,17,32765
0.990987,-0.099281,-0.0899311,17,32765
1.02036,-0.105785,-0.092589,17,32765
1.0299,-0.110356,-0.093398,17,32765
1.00972,-0.111746,-0.0915416,17,32765
1.02914,-0.117408,-0.0932011,17,32765
1.03863,-0.122082,-0.0940685,17,32765
1.01844,-0.123225,-0.0922016,17,32765
1.0279,-0.12788,-0.093097,17,32765
1.03734,-0.132609,-0.093979,17,32765
1.05665,-0.138677,-0.0956829,17,32765
1.0463,-0.14098,-0.0947942,17,32765
1.03595,-0.143208,-0.0938063,17,32765
1.05517,-0.149605,-0.0955307,17,32765
1.07437,-0.156125,-0.0972125,17,32765
1.06399,-0.158315,-0.0962902,17,32765
1.07329,-0.163487,-0.097007,17,32765
1.07273,-0.167175,-0.0969984,18,32765
1.07215,-0.170863,-0.0969081,17,32765
1.0519,-0.171378,-0.0950572,17,32765
1.08079,-0.179828,-0.0977005,17,32765
1.09983,-0.186844,-0.0993282,18,32765
1.10902,-0.192251,-0.100028,17,32765
1.08875,-0.192502,-0.0983034,17,32765
1.1175,-0.201524,-0.100884,17,32765
1.07764,-0.198115,-0.0972001,16,32765
1.11611,-0.209183,-0.100671,16,32765
1.10562,-0.211129,-0.0996189,17,32765
1.14403,-0.222411,-0.10312,17,32765
1.11397,-0.220455,-0.100379,17,32765
1.123,-0.226152,-0.101082,17,32765
1.13201,-0.231957,-0.101741,16,32765
1.13122,-0.235818,-0.101664,17,32765
1.12067,-0.237603,-0.100665,16,32765
1.1491,-0.247686,-0.103063,16,32765
1.18721,-0.260032,-0.10639,17,32765
1.13772,-0.253228,-0.101878,16,32765
1.17574,-0.265835,-0.105174,16,32765
1.14573,-0.263092,-0.102379,16,32765
1.14486,-0.266919,-0.102214,16,32765
1.18278,-0.279888,-0.105296,16,32765
1.18186,-0.283827,-0.105059,17,32765
1.20028,-0.292529,-0.106608,17,32765
1.20899,-0.298913,-0.107209,17,32765
1.18869,-0.298074,-0.105183,17,32765
1.18773,-0.302004,-0.104847,17,32765
1.16744,-0.301,-0.102909,18,32765
1.20502,-0.314969,-0.105959,17,32765
1.21363,-0.321498,-0.106462,17,32765
1.24144,-0.333278,-0.108836,18,32765
1.21153,-0.329538,-0.105809,17,32765
1.24888,-0.344169,-0.108885,17,32765
1.22857,-0.342973,-0.106734,17,32765
1.22748,-0.346958,-0.10636,18,32765
1.23596,-0.353706,-0.10675,18,32765
1.254,-0.363255,-0.10786,18,32765
1.26239,-0.370173,-0.108353,17,32765
1.27073,-0.377249,-0.108711,18,32765
1.25045,-0.375671,-0.106551,17,32765
1.26834,-0.385514,-0.107663,17,32765
1.26717,-0.389501,-0.107099,18,32765
1.28498,-0.399529,-0.108221,17,32765
1.28372,-0.403723,-0.10758,16,32765
1.25396,-0.398834,-0.104449,16,32765
1.30968,-0.421172,-0.108378,15,32765
1.3653,-0.443802,-0.112222,15,32765
1.3829,-0.45434,-0.112967,12,32765
0.894927,0.0170484,-0.0938909,18,32765
0.885067,0.0138401,-0.0925472,18,32765
0.885141,0.0108557,-0.0922381,18,32765
0.885192,0.00782778,-0.0920499,17,32765
0.905134,0.00493907,-0.0938483,18,32765
0.885264,0.00183976,-0.0916745,17,32765
0.885293,-0.00117621,-0.0914,17,32765
0.885298,-0.00414399,-0.0912728,17,32765
0.915138,-0.00733985,-0.0941712,18,32765
0.895239,-0.0101594,-0.091888,18,32765
0.925056,-0.0136633,-0.0947895,18,32765
0.915067,-0.0166499,-0.0936743,18,32765
0.934912,-0.020214,-0.0955579,17,32765
0.89507,-0.0224332,-0.0913565,17,32765
0.934779,-0.0266088,-0.095292,17,32765
0.914804,-0.0291685,-0.0931858,17,32765
0.95448,-0.0336987,-0.0971161,17,32765
0.944435,-0.0365549,-0.0959516,18,32765
0.95425,-0.0401749,-0.0969194,18,32765
0.97401,-0.0443,-0.0987043,19,32765
0.973856,-0.0476029,-0.0986817,17,32765
0.94389,-0.0494466,-0.0955369,17,32765
0.983464,-0.0549098,-0.0994158,17,32765
0.973341,-0.0577063,-0.0983756,17,32765
0.943368,-0.0591148,-0.0951913,17,32765
0.982881,-0.0649111,-0.0991521,17,32765
0.972734,-0.0676004,-0.0980744,17,32765
0.972509,-0.0708862,-0.0979916,17,32765
1.00203,-0.0765476,-0.100867,17,32765
0.972013,-0.0776206,-0.0978064,17,32765
0.961835,-0.0801305,-0.0967047,17,32765
1.01113,-0.0877422,-0.10161,17,32765
1.00092,-0.0902673,-0.100548,16,32765
1.01052,-0.0945972,-0.101542,17,32765
1.03992,-0.100926,-0.104293,17,32765
1.01977,-0.102513,-0.102296,17,32765
1.02931,-0.107075,-0.103248,17,32765
1.03884,-0.111688,-0.10415,17,32765
1.05823,-0.117506,-0.10607,17,32765
1.04795,-0.119953,-0.10494,17,32765
1.05742,-0.124704,-0.105901,17,32765
1.03724,-0.125915,-0.103844,17,32765
1.05656,-0.131878,-0.105822,17,32765
1.08572,-0.139248,-0.108775,17,32765
1.07538,-0.141597,-0.107698,17,32765
1.05517,-0.142638,-0.105727,17,32765
1.06454,-0.147637,-0.106619,17,32765
1.08372,-0.15415,-0.108528,17,32765
1.10289,-0.160786,-0.110395,17,32765
1.09249,-0.16308,-0.109377,17,32765
1.0821,-0.165358,-0.108215,17,32765
1.09136,-0.170623,-0.10919,18,32765
1.1006,-0.175956,-0.11008,18,32765
1.10981,-0.181389,-0.110986,17,32765
1.12883,-0.188417,-0.112926,17,32765
1.10857,-0.188927,-0.110812,17,32765
1.14716,-0.199492,-0.11454,17,32765
1.12688,-0.199874,-0.112629,17,32765
1.11641,-0.201962,-0.111574,17,32765
1.14509,-0.211179,-0.114356,17,32765
1.13457,-0.213313,-0.113312,17,32765
1.12408,-0.215328,-0.112164,17,32765
1.14289,-0.222888,-0.114088,16,32765
1.15191,-0.228678,-0.114962,17,32765
1.16091,-0.234517,-0.115753,17,32765
1.16987,-0.240466,-0.116497,17,32765
1.17879,-0.246504,-0.117387,17,32765
1.15849,-0.246387,-0.11532,17,32765
1.15767,-0.250312,-0.115089,17,32765
1.16657,-0.256307,-0.115892,17,32765
1.14628,-0.255928,-0.113806,17,32765
1.20367,-0.272997,-0.119401,17,32765
1.19306,-0.274812,-0.118242,16,32765
1.20184,-0.281075,-0.119029,17,32765
1.19126,-0.282769,-0.117682,17,32765
1.20001,-0.289078,-0.118399,17,32765
1.20871,-0.295499,-0.119178,17,32765
1.19808,-0.297135,-0.117967,18,32765
1.19712,-0.301118,-0.117653,18,32765
1.21544,-0.310007,-0.119206,17,32765
1.23369,-0.319067,-0.120851,17,32765
1.25191,-0.328239,-0.122372,17,32765
1.21237,-0.322157,-0.118262,17,32765
1.24014,-0.333959,-0.120917,17,32765
1.23908,-0.338073,-0.120408,17,32765
1.23796,-0.342217,-0.120126,18,32765
1.27521,-0.357095,-0.123356,18,32765
1.25492,-0.355811,-0.121118,17,32765
1.25379,-0.359918,-0.120669,17,32765
1.29092,-0.375106,-0.123792,17,32765
1.28016,-0.376542,-0.122539,17,32765
1.28847,-0.383696,-0.122983,18,32765
1.27772,-0.38505,-0.121534,18,32765
1.31462,-0.400813,-0.124627,18,32765
1.30388,-0.402023,-0.123143,17,32765
1.34065,-0.418125,-0.126227,16,32765
1.31084,-0.413524,-0.122886,17,32765
1.32853,-0.423855,-0.123881,16,32765
1.3462,-0.434249,-0.124808,17,32765
1.38278,-0.450868,-0.127443,14,32765
1.51388,-0.498904,-0.138772,12,32765
0.845524,0.0160142,-0.0856324,17,32765
0.83559,0.0129581,-0.0849821,17,32765
0.855487,0.0103452,-0.0873787,17,32765
0.835603,0.00726586,-0.0855234,17,32765
0.835591,0.00441068,-0.0858373,17,32765
0.87537,0.00163182,-0.0901414,18,32765
0.855438,-0.00132726,-0.0884523,17,32765
0.885249,-0.00436355,-0.0917309,18,32765
0.875268,-0.00723943,-0.0908444,18,32765
0.89511,-0.0104133,-0.0931146,18,32765
0.885105,-0.0132683,-0.092271,18,32765
0.904936,-0.0166033,-0.094423,17,32765
0.894906,-0.0194175,-0.093629,17,32765
0.904761,-0.0226973,-0.0948316,17,32765
0.904664,-0.0258127,-0.0949562,17,32765
0.894624,-0.0286157,-0.0939671,17,32765
0.914383,-0.0323874,-0.0962027,17,32765
0.90432,-0.0351235,-0.095247,18,32765
0.904188,-0.0381489,-0.095334,18,32765
0.953716,-0.0434976,-0.100669,18,32765
0.913823,-0.0447251,-0.0965802,17,32765
0.933526,-0.0488432,-0.0987115,17,32765
0.943268,-0.0525699,-0.0999125,17,32765
0.953016,-0.0563491,-0.100922,17,32765
0.942876,-0.0590259,-0.100004,17,32765
0.962514,-0.0635561,-0.102113,17,32765
0.95236,-0.0661597,-0.101156,17,32765
0.952132,-0.0694147,-0.101127,17,32765
0.941973,-0.0718482,-0.100126,17,32765
1.0012,-0.0797454,-0.106463,17,32765
0.991015,-0.08225,-0.105473,17,32765
0.970923,-0.083861,-0.103321,17,32765
1.00034,-0.0898344,-0.10654,17,32765
1.00004,-0.0932564,-0.10644,17,32765
0.970001,-0.0938651,-0.103378,17,32765
0.999366,-0.100132,-0.106498,17,32765
0.999026,-0.103514,-0.106457,17,32765
0.998669,-0.106901,-0.106456,17,32765
1.02797,-0.113517,-0.109513,17,32765
1.01769,-0.115897,-0.10849,17,32765
1.00742,-0.11821,-0.107364,17,32765
1.04651,-0.12643,-0.11148,17,32765
1.04607,-0.130048,-0.111501,17,32765
1.0259,-0.131097,-0.109264,17,32765
1.04517,-0.137185,-0.11132,17,32765
1.06442,-0.143363,-0.113372,17,32765
1.05409,-0.145606,-0.112249,17,32765
1.06343,-0.150574,-0.113332,17,32765
1.06294,-0.154184,-0.113073,17,32765
1.08207,-0.160756,-0.115259,17,32765
1.06186,-0.1615,-0.113031,18,32765
1.05148,-0.163622,-0.111855,17,32765
1.05091,-0.167296,-0.111765,17,32765
1.0798,-0.175688,-0.114782,17,32765
1.06938,-0.177791,-0.113682,17,32765
1.08838,-0.184746,-0.115708,17,32765
1.08777,-0.188464,-0.11549,17,32765
1.07732,-0.190473,-0.114435,17,32765
1.13542,-0.204713,-0.120505,16,32765
1.0858,-0.199618,-0.115246,17,32765
1.13402,-0.212414,-0.120328,17,32765
1.08446,-0.206923,-0.115039,17,32765
1.10328,-0.21441,-0.117017,17,32765
1.11232,-0.220058,-0.117955,16,32765
1.14083,-0.229773,-0.120858,16,32765
1.13031,-0.231665,-0.11975,16,32765
1.16847,-0.243614,-0.123799,16,32765
1.15792,-0.245526,-0.122622,16,32765
1.13765,-0.245244,-0.120404,16,32765
1.16598,-0.255497,-0.12336,16,32765
1.18454,-0.263768,-0.125299,17,32765
1.18364,-0.267798,-0.125245,17,32765
1.21181,-0.27853,-0.128223,17,32765
1.15275,-0.269055,-0.121943,16,32765
1.16151,-0.275301,-0.122856,17,32765
1.16059,-0.279211,-0.122743,17,32765
1.17899,-0.287812,-0.124676,17,32765
1.20699,-0.298989,-0.127615,17,32765
1.19634,-0.300572,-0.126565,17,32765
1.20497,-0.307071,-0.127494,17,32765
1.25212,-0.323506,-0.132426,18,32765
1.22217,-0.320124,-0.129272,17,32765
1.2211,-0.324213,-0.129191,18,32765
1.22004,-0.328243,-0.12908,18,32765
1.23814,-0.337569,-0.131027,17,32765
1.20826,-0.333714,-0.127842,17,32765
1.23588,-0.345789,-0.130874,17,32765
1.24431,-0.352595,-0.131807,18,32765
1.26228,-0.362191,-0.133685,18,32765
1.24197,-0.360789,-0.131654,18,32765
1.26941,-0.373299,-0.134662,17,32765
1.25865,-0.374642,-0.133581,17,32765
1.27645,-0.384569,-0.13555,16,32765
1.27521,-0.388719,-0.135455,16,32765
1.29293,-0.398746,-0.137631,17,32765
1.28216,-0.399922,-0.136454,17,32765
1.31882,-0.415997,-0.140569,15,32765
1.38381,-0.441407,-0.147771,12,32765
1.44868,-0.467206,-0.154698,13,32765
0,-0,-0,0,32765
0,-0,-0,0,32765
0.884429,0.0167303,-0.0980112,19,32765
0.904314,0.0139939,-0.1006,19,32765
0.884438,0.0106574,-0.0987749,18,32765
0.864573,0.00747252,-0.0967381,17,32765
0.874494,0.00456181,-0.0981785,17,32765
0.894355,0.00160319,-0.100631,18,32765
0.884376,-0.00144407,-0.0998846,18,32765
0.904217,-0.00453915,-0.102326,18,32765
0.884308,-0.00740277,-0.100223,18,32765
0.904126,-0.0106173,-0.102683,18,32765
0.904063,-0.0136602,-0.102878,18,32765
0.894069,-0.0165188,-0.101825,17,32765
0.903914,-0.0197377,-0.103202,17,32765
0.903823,-0.0228071,-0.103364,17,32765
0.903724,-0.025928,-0.103488,17,32765
0.903623,-0.0290544,-0.103543,17,32765
0.933287,-0.0332218,-0.107107,18,32765
0.933157,-0.0364174,-0.1072,18,32765
0.952871,-0.0403894,-0.109572,18,32765
0.96264,-0.0441024,-0.110811,18,32765
0.962475,-0.0473131,-0.110922,17,32765
0.942464,-0.0495223,-0.108667,17,32765
0.96211,-0.0538452,-0.111108,17,32765
0.932176,-0.055344,-0.10763,17,32765
0.961707,-0.0604486,-0.111201,17,32765
0.981319,-0.0650561,-0.113497,17,32765
0.941439,-0.065658,-0.109006,17,32765
1.00066,-0.0732352,-0.11586,17,32765
0.960778,-0.0735635,-0.111324,17,32765
1.01004,-0.0807539,-0.117076,17,32765
0.999854,-0.0832951,-0.115993,17,32765
1.00947,-0.0875145,-0.117096,17,32765
1.00916,-0.0909604,-0.117152,17,32765
0.998962,-0.0934965,-0.115903,17,32765
1.01839,-0.098905,-0.118304,17,32765
0.998286,-0.100384,-0.115961,17,32765
1.02759,-0.106854,-0.119363,17,32765
1.02722,-0.110348,-0.119362,17,32765
1.05647,-0.117077,-0.122697,17,32765
1.04619,-0.119562,-0.12158,17,32765
1.06552,-0.125464,-0.123797,17,32765
1.04537,-0.12673,-0.121409,17,32765
1.0745,-0.134045,-0.124866,17,32765
1.06419,-0.136458,-0.123582,17,32765
1.05388,-0.138801,-0.122392,17,32765
1.08294,-0.146355,-0.125774,17,32765
1.06277,-0.147305,-0.123412,17,32765
1.1016,-0.156507,-0.128018,18,32765
1.10109,-0.160257,-0.12775,17,32765
1.08087,-0.161119,-0.12556,17,32765
1.10978,-0.169356,-0.128845,17,32765
1.09939,-0.17165,-0.127569,17,32765
1.11842,-0.178636,-0.12975,17,32765
1.108,-0.180878,-0.128492,17,32765
1.10738,-0.18472,-0.128433,18,32765
1.14593,-0.195158,-0.132916,17,32765
1.11591,-0.193979,-0.129283,17,32765
1.10545,-0.196092,-0.128133,17,32765
1.13413,-0.205155,-0.131363,17,32765
1.13343,-0.209058,-0.131295,17,32765
1.15226,-0.21654,-0.133447,17,32765
1.14177,-0.218574,-0.132207,17,32765
1.17029,-0.228176,-0.135496,17,32765
1.15003,-0.228262,-0.133136,17,32765
1.159,-0.234194,-0.13406,17,32765
1.1582,-0.238156,-0.133981,17,32765
1.16712,-0.244125,-0.135026,17,32765
1.18574,-0.252242,-0.137127,17,32765
1.16547,-0.252057,-0.134717,17,32765
1.16462,-0.256028,-0.134586,17,32765
1.17345,-0.262148,-0.13559,17,32765
1.20163,-0.27275,-0.138896,17,32765
1.2007,-0.276871,-0.138795,18,32765
1.19977,-0.280936,-0.138663,18,32765
1.19881,-0.285061,-0.138547,18,32765
1.19785,-0.289108,-0.138429,17,32765
1.18724,-0.290762,-0.137199,17,32765
1.21519,-0.301993,-0.140416,17,32765
1.21418,-0.306039,-0.140386,17,32765
1.21315,-0.310154,-0.140292,17,32765
1.22175,-0.316678,-0.141242,18,32765
1.24953,-0.328346,-0.144477,17,32765
1.24843,-0.332538,-0.144393,17,32765
1.22814,-0.331491,-0.142059,17,32765
1.23662,-0.338244,-0.143082,17,32765
1.27381,-0.352956,-0.147372,17,32765
1.27263,-0.357221,-0.147359,18,32765
1.281,-0.364166,-0.148382,18,32765
1.27026,-0.365659,-0.147122,18,32765
1.26904,-0.369845,-0.147116,17,32765
1.29642,-0.382473,-0.150403,18,32765
1.28563,-0.383912,-0.149225,18,32765
1.30337,-0.393952,-0.151378,17,32765
1.29259,-0.395295,-0.150177,17,32765
1.32925,-0.411277,-0.15475,16,32765
1.34691,-0.421481,-0.156787,16,32765
1.35502,-0.428803,-0.157964,15,32765
1.44827,-0.46347,-0.169137,12,32765
1.43734,-0.465054,-0.167874,12,32765
0,-0,-0,0,32765
0,-0,-0,0,32765
0.833266,0.0167368,-0.104822,18,32765
0.843272,0.0140142,-0.105807,18,32765
0.833422,0.0109901,-0.10434,17,32765
0.843394,0.00824924,-0.105442,17,32765
0.823606,0.0052405,-0.102691,17,32765
0.84347,0.00248181,-0.105126,17,32765
0.823653,-0.000428752,-0.102444,16,32765
0.823659,-0.00327864,-0.10235,17,32765
0.863345,-0.00640798,-0.107209,17,32765
0.883181,-0.00956606,-0.109547,17,32765
0.883153,-0.0125647,-0.109469,17,32765
0.873194,-0.0154208,-0.108142,16,32765
0.883078,-0.0186131,-0.10921,16,32765
0.87309,-0.0214067,-0.107961,17,32765
0.882937,-0.0246531,-0.109156,16,32765
0.89278,-0.0279783,-0.110276,18,32765
0.892688,-0.0310216,-0.110205,18,32765
0.91243,-0.0347924,-0.112522,17,32765
0.892471,-0.0370624,-0.110099,17,32765
0.922083,-0.0414297,-0.113787,17,32765
0.961613,-0.0464932,-0.118489,17,32765
0.951531,-0.0492884,-0.117301,17,32765
0.961273,-0.0531139,-0.118461,17,32765
0.961083,-0.0564039,-0.118482,17,32765
0.960902,-0.0596412,-0.118367,17,32765
0.980505,-0.0641979,-0.120786,17,32765
0.950584,-0.065451,-0.117072,17,32765
0.95037,-0.068679,-0.116964,17,32765
0.969919,-0.0734142,-0.119445,17,32765
0.949872,-0.0752447,-0.116967,16,32765
0.979284,-0.0810143,-0.120576,17,32765
0.979007,-0.084448,-0.120472,17,32765
0.998472,-0.0896067,-0.122983,17,32765
1.01794,-0.0948695,-0.125302,18,32765
1.00774,-0.0973682,-0.124033,18,32765
0.98765,-0.0988462,-0.12156,17,32765
1.00706,-0.104243,-0.123912,17,32765
1.03632,-0.110853,-0.127511,17,32765
1.0162,-0.112229,-0.125073,17,32765
0.996091,-0.113453,-0.122599,17,32765
1.045,-0.122664,-0.128581,17,32765
1.04457,-0.126241,-0.128556,17,32765
1.04414,-0.129807,-0.128505,17,32765
1.05357,-0.13464,-0.129504,17,32765
1.02358,-0.134361,-0.125837,17,32765
1.06247,-0.143159,-0.130619,17,32765
1.04231,-0.144087,-0.128136,17,32765
1.06148,-0.150475,-0.130437,17,32765
1.08061,-0.15699,-0.132825,18,32765
1.05063,-0.156289,-0.129013,17,32765
1.06973,-0.16287,-0.131353,17,32765
1.07898,-0.168107,-0.132429,17,32765
1.10781,-0.176497,-0.136036,17,32765
1.06802,-0.173967,-0.131068,17,32765
1.06743,-0.177635,-0.130891,16,32765
1.07662,-0.182954,-0.13199,17,32765
1.07601,-0.186609,-0.131821,17,32765
1.08516,-0.191951,-0.13294,17,32765
1.10406,-0.199159,-0.135247,17,32765
1.09365,-0.201084,-0.133772,16,32765
1.1125,-0.208483,-0.135968,16,32765
1.09229,-0.208576,-0.133438,16,32765
1.11109,-0.216074,-0.135631,16,32765
1.13959,-0.225619,-0.139055,16,32765
1.11939,-0.225534,-0.136405,17,32765
1.1381,-0.23337,-0.138476,17,32765
1.1373,-0.237268,-0.138388,17,32765
1.14623,-0.243252,-0.139259,17,32765
1.16483,-0.251381,-0.141355,16,32765
1.1737,-0.257444,-0.142298,17,32765
1.14377,-0.254961,-0.138522,17,32765
1.19137,-0.269774,-0.144102,17,32765
1.15177,-0.2649,-0.139092,18,32765
1.17991,-0.27559,-0.142313,17,32765
1.18868,-0.281832,-0.1432,17,32765
1.18777,-0.285844,-0.142815,17,32765
1.20613,-0.294572,-0.14484,17,32765
1.16661,-0.289059,-0.139918,17,32765
1.20421,-0.302645,-0.144163,17,32765
