x, y, z, intensity, ring
1.98452,-1.00475,0.158229,15,32765
1.98104,-1.0115,0.158884,14,32765
2.12833,-1.0958,0.171613,13,32765
2.08911,-1.08462,0.169747,13,32765
2.05011,-1.07303,0.167436,14,32765
2.07294,-1.09384,0.170071,14,32765
2.11328,-1.12409,0.174551,14,32765
2.15347,-1.15458,0.178864,13,32765
2.15837,-1.16642,0.18032,14,32765
2.15447,-1.17354,0.180726,13,32765
2.15048,-1.18072,0.181531,13,32765
2.23373,-1.23615,0.189628,13,32765
5.06015,-2.82211,0.432077,17,32765
0,-0,0,0,32765
5.09309,-2.88506,0.44018,16,32765
0,-0,0,0,32765
5.0735,-2.919,0.442616,16,32765
0,-0,0,0,32765
5.07073,-2.96304,0.447398,16,32765
0,-0,0,0,32765
5.09369,-3.02183,0.454419,17,32765
0,-0,0,0,32765
5.08221,-3.06002,0.458156,16,32765
0,-0,0,0,32765
5.14694,-3.14506,0.469081,17,32765
0,-0,0,0,32765
5.00726,-3.10541,0.460328,15,32765
0,-0,0,0,32765
4.96102,-3.1225,0.461131,17,32765
0,-0,0,0,32765
5.04956,-3.22451,0.473883,17,32765
0,-0,0,0,32765
5.01152,-3.24638,0.475222,18,32765
0,-0,0,0,32765
5.13191,-3.37161,0.491306,17,32765
0,-0,0,0,32765
5.04312,-3.36096,0.487072,15,32765
0,-0,0,0,32765
4.8392,-3.27098,0.471574,15,32765
0,-0,0,0,32765
5.08917,-3.48793,0.500777,19,32765
0,-0,0,0,32765
4.61633,-3.20772,0.457844,15,32765
3.95255,-2.76542,0.394202,27,32765
4.88066,-3.43809,0.488652,17,32765
0,-0,0,0,32765
5.07747,-3.62555,0.512152,18,32765
0,-0,0,0,32765
5.00582,-3.62265,0.508149,17,32765
0,-0,0,0,32765
4.93418,-3.61937,0.503603,18,32765
1.81952,-0.570693,0.108461,17,32765
1.80814,-0.573659,0.107431,17,32765
1.80631,-0.579526,0.106791,17,32765
1.74746,-0.566856,0.103235,17,32765
1.78358,-0.584943,0.105272,18,32765
1.78165,-0.590818,0.105076,18,32765
1.77972,-0.596668,0.104817,17,32765
1.77777,-0.602481,0.10456,17,32765
1.81359,-0.621197,0.106735,18,32765
1.79269,-0.620575,0.105628,16,32765
1.76235,-0.616646,0.103839,17,32765
1.77913,-0.629109,0.104987,17,32765
1.81466,-0.648389,0.107227,17,32765
1.78436,-0.644138,0.105591,17,32765
1.75411,-0.639671,0.104044,17,32765
1.78948,-0.659268,0.106031,16,32765
1.806,-0.672096,0.10743,16,32765
1.83181,-0.688601,0.109146,17,32765
1.82949,-0.694701,0.109359,17,32765
1.84582,-0.707912,0.110449,17,32765
1.77827,-0.688821,0.106746,16,32765
1.82248,-0.712824,0.109786,17,32765
1.83871,-0.726097,0.11101,16,32765
1.78993,-0.713644,0.108382,16,32765
1.81536,-0.730671,0.110347,16,32765
1.84066,-0.747994,0.112099,16,32765
1.83817,-0.754027,0.112561,17,32765
1.81719,-0.752489,0.111761,16,32765
1.87914,-0.785488,0.115861,17,32765
1.8765,-0.791707,0.116362,17,32765
1.86465,-0.794075,0.115887,17,32765
1.81611,-0.780562,0.113369,16,32765
1.8776,-0.814417,0.117665,16,32765
1.87481,-0.820733,0.118273,16,32765
1.87206,-0.826952,0.118506,16,32765
1.85098,-0.825143,0.117884,17,32765
1.87552,-0.843582,0.119974,16,32765
1.89087,-0.858038,0.121563,16,32765
1.87888,-0.860209,0.121468,16,32765
1.88504,-0.870628,0.122596,16,32765
1.84588,-0.860093,0.120625,16,32765
1.8701,-0.878916,0.122977,16,32765
1.88515,-0.89372,0.124856,16,32765
1.92717,-0.92153,0.128078,17,32765
1.91508,-0.923579,0.128019,17,32765
1.93886,-0.943101,0.130372,16,32765
1.93572,-0.949482,0.130622,17,32765
1.89673,-0.938225,0.12872,16,32765
1.94714,-0.971254,0.133108,15,32765
1.9171,-0.964269,0.131921,16,32765
2.01169,-1.02046,0.139156,16,32765
1.92818,-0.986402,0.134254,16,32765
1.94253,-1.00207,0.136055,15,32765
2.0276,-1.05472,0.143234,15,32765
2.00637,-1.05218,0.142538,15,32765
2.04692,-1.08221,0.146144,16,32765
1.99923,-1.06551,0.14381,15,32765
2.05721,-1.10513,0.148892,15,32765
2.0886,-1.13093,0.152142,15,32765
2.09357,-1.14262,0.153177,15,32765
2.04597,-1.12556,0.15074,14,32765
2.16434,-1.20012,0.160456,13,32765
2.13419,-1.19263,0.159238,14,32765
2.1997,-1.23891,0.165272,14,32765
4.84233,-2.74849,0.36614,19,32765
4.83303,-2.76463,0.367432,18,32765
4.82365,-2.78083,0.368465,18,32765
0,-0,0,0,32765
4.89931,-2.86867,0.378899,19,32765
0,-0,0,0,32765
4.76853,-2.83469,0.373268,18,32765
4.84474,-2.90156,0.380925,19,32765
4.82662,-2.91208,0.382141,18,32765
4.8425,-2.94343,0.385726,18,32765
4.76471,-2.9175,0.381752,21,32765
4.84837,-2.99089,0.389883,19,32765
4.8553,-3.01742,0.39266,17,32765
4.85366,-3.0387,0.394837,17,32765
4.77589,-3.01226,0.390895,19,32765
4.79121,-3.04387,0.394053,19,32765
4.78952,-3.06489,0.396091,20,32765
4.90515,-3.16159,0.407845,19,32765
4.83619,-3.13944,0.404473,18,32765
4.8176,-3.14953,0.405048,18,32765
4.83229,-3.18154,0.408326,20,32765
4.71363,-3.12572,0.400599,17,32765
4.84428,-3.23539,0.413213,18,32765
4.85837,-3.26795,0.416697,17,32765
4.85588,-3.28937,0.418187,18,32765
4.82042,-3.2881,0.417636,17,32765
4.78507,-3.28666,0.416418,18,32765
4.79901,-3.31903,0.419598,18,32765
4.63272,-3.22618,0.406547,16,32765
3.96887,-2.78296,0.350394,27,32765
3.91915,-2.76689,0.347425,21,32765
4.73944,-3.36883,0.421486,18,32765
4.78533,-3.42459,0.427554,16,32765
4.69349,-3.38146,0.420583,18,32765
4.76337,-3.45496,0.428425,16,32765
4.70384,-3.43506,0.424102,18,32765
4.69277,-3.45012,0.424432,18,32765
1.7364,-0.53958,0.0785833,17,32765
1.68696,-0.530159,0.0773718,16,32765
1.69474,-0.538594,0.0785552,17,32765
1.75953,-0.565468,0.082562,17,32765
1.72913,-0.561974,0.0819158,16,32765
1.71773,-0.564592,0.082182,17,32765
1.77271,-0.589148,0.0854069,16,32765
1.74237,-0.58527,0.0848078,17,32765
1.72152,-0.584495,0.0844742,17,32765
1.75738,-0.603026,0.0870583,16,32765
1.71759,-0.595767,0.0856177,16,32765
1.73442,-0.6081,0.0871008,17,32765
1.78887,-0.633835,0.0904463,17,32765
1.77736,-0.636297,0.0907125,17,32765
1.79399,-0.64896,0.092395,16,32765
1.78241,-0.651492,0.0925187,16,32765
1.73336,-0.640127,0.0904771,17,32765
1.82477,-0.680809,0.0959084,17,32765
1.75707,-0.662155,0.092975,16,32765
1.78287,-0.678546,0.0951837,16,32765
1.71534,-0.65935,0.0919839,16,32765
1.80625,-0.701105,0.097503,15,32765
1.77603,-0.696067,0.0965147,17,32765
1.72727,-0.683523,0.0945015,16,32765
1.78989,-0.71517,0.0985961,17,32765
1.77818,-0.717452,0.0986037,16,32765
1.72949,-0.704616,0.0963731,16,32765
1.79173,-0.73701,0.100513,16,32765
1.77998,-0.739218,0.100597,17,32765
1.77748,-0.745151,0.101006,17,32765
1.79333,-0.758925,0.102531,16,32765
1.82748,-0.780616,0.105162,16,32765
1.82482,-0.786749,0.10558,16,32765
1.77636,-0.772946,0.103358,16,32765
1.8286,-0.802944,0.107243,16,32765
1.73457,-0.76864,0.102249,15,32765
1.90515,-0.851907,0.112966,17,32765
1.82036,-0.821296,0.108521,16,32765
1.81759,-0.827328,0.108988,16,32765
1.87835,-0.86247,0.113395,17,32765
1.87541,-0.868801,0.113741,16,32765
1.85438,-0.866591,0.113044,16,32765
1.80626,-0.851559,0.110791,17,32765
1.81239,-0.861869,0.111923,16,32765
1.79147,-0.859286,0.111216,17,32765
1.88739,-0.913148,0.11802,16,32765
1.86635,-0.910706,0.117306,17,32765
1.8991,-0.934553,0.120092,15,32765
1.85119,-0.918759,0.117802,16,32765
1.85704,-0.929335,0.118915,15,32765
1.91628,-0.967019,0.123527,15,32765
1.89526,-0.964261,0.122796,15,32765
1.96306,-1.00705,0.127933,16,32765
1.99511,-1.03196,0.130665,15,32765
1.92077,-1.00176,0.126636,14,32765
1.95269,-1.02683,0.12939,14,32765
2.02861,-1.07538,0.135314,15,32765
1.93696,-1.03503,0.129966,14,32765
2.03023,-1.09339,0.13697,15,32765
2.05288,-1.11434,0.139661,14,32765
2.07536,-1.13562,0.141942,15,32765
2.11522,-1.16664,0.145618,13,32765
2.11128,-1.17369,0.146114,15,32765
2.14218,-1.20015,0.14933,15,32765
2.07734,-1.1728,0.146012,15,32765
4.7888,-2.7246,0.338216,16,32765
4.77105,-2.7353,0.339588,18,32765
0,-0,0,0,32765
4.73543,-2.75661,0.341938,17,32765
0,-0,0,0,32765
4.75987,-2.81311,0.348704,18,32765
4.75042,-2.82878,0.350884,19,32765
4.76661,-2.8598,0.354822,16,32765
0,-0,0,0,32765
4.81564,-2.93253,0.36385,17,32765
0,-0,0,0,32765
4.81293,-2.9746,0.369233,18,32765
0,-0,0,0,32765
4.80156,-3.01124,0.374008,16,32765
0,-0,0,0,32765
4.64674,-2.95684,0.367831,17,32765
0,-0,0,0,32765
4.85348,-3.13296,0.390434,17,32765
0,-0,0,0,32765
4.63239,-3.03311,0.379135,16,32765
0,-0,0,0,32765
4.95249,-3.29014,0.411565,17,32765
0,-0,0,0,32765
4.74852,-3.19961,0.402117,16,32765
0,-0,0,0,32765
4.85077,-3.31465,0.418579,16,32765
0,-0,0,0,32765
4.8367,-3.35195,0.425158,15,32765
0,-0,0,0,32765
3.92515,-2.75783,0.351645,27,32765
0,-0,0,0,32765
4.7436,-3.37884,0.432775,17,32765
0,-0,0,0,32765
4.85835,-3.50869,0.453456,17,32765
0,-0,0,0,32765
4.85895,-3.55764,0.464036,16,32765
1.66994,-0.5199,0.0590905,17,32765
1.70637,-0.537259,0.0614001,17,32765
1.72365,-0.548806,0.0628458,17,32765
1.63621,-0.526822,0.0605748,17,32765
1.69146,-0.550763,0.063366,18,32765
1.68959,-0.556388,0.0640714,17,32765
1.74462,-0.580902,0.0667246,18,32765
1.68589,-0.567363,0.0652955,17,32765
1.69348,-0.576058,0.0662417,17,32765
1.71993,-0.591288,0.0680647,18,32765
1.67074,-0.580609,0.0666154,17,32765
1.71591,-0.602747,0.0690345,17,32765
1.7233,-0.611759,0.0699012,17,32765
1.65542,-0.593771,0.0679196,17,32765
1.75676,-0.6367,0.072873,18,32765
1.76399,-0.645985,0.0738646,17,32765
1.73369,-0.64147,0.0730799,18,32765
1.70344,-0.636757,0.0724005,17,32765
1.72935,-0.652959,0.0740962,18,32765
1.73651,-0.662173,0.0752038,17,32765
1.74362,-0.671511,0.0759023,18,32765
1.73207,-0.67361,0.075996,17,32765
1.75774,-0.690232,0.0777368,17,32765
1.79258,-0.710745,0.0799158,18,32765
1.77164,-0.709255,0.0796212,18,32765
1.76922,-0.715225,0.080138,18,32765
1.74827,-0.71366,0.0796408,18,32765
1.75507,-0.723343,0.0805841,17,32765
1.76181,-0.733109,0.0816057,18,32765
1.71328,-0.719649,0.0798648,17,32765
1.74761,-0.741036,0.0820491,17,32765
1.77264,-0.758689,0.0838581,18,32765
1.80674,-0.780499,0.0860105,18,32765
1.70335,-0.74265,0.0816219,18,32765
1.80142,-0.792584,0.0871287,16,32765
1.74394,-0.774332,0.0848465,17,32765
1.796,-0.804707,0.0879766,17,32765
1.78418,-0.806588,0.0879426,17,32765
1.79964,-0.820804,0.089303,17,32765
1.80597,-0.83091,0.090325,16,32765
1.78501,-0.828599,0.0897476,16,32765
1.79126,-0.838792,0.0905927,17,32765
1.82452,-0.861916,0.0929337,17,32765
1.80356,-0.859419,0.0925903,16,32765
1.84567,-0.887093,0.0953245,17,32765
1.83364,-0.888961,0.0954985,17,32765
1.85754,-0.908273,0.0973128,17,32765
1.81864,-0.896801,0.0959413,16,32765
1.86923,-0.92963,0.099326,17,32765
1.84826,-0.926856,0.0989177,16,32765
1.88968,-0.955577,0.10191,17,32765
1.8865,-0.9618,0.102328,17,32765
1.91877,-0.986383,0.104774,17,32765
1.90656,-0.988222,0.104687,17,32765
1.90317,-0.994665,0.105301,16,32765
1.92627,-1.01507,0.107185,16,32765
1.94931,-1.03553,0.109291,16,32765
1.93704,-1.03727,0.109333,15,32765
2.01272,-1.08627,0.114309,15,32765
2.01786,-1.09766,0.115706,15,32765
2.02287,-1.10927,0.116689,15,32765
2.05408,-1.13535,0.119373,16,32765
1.98917,-1.10819,0.116286,16,32765
2.029,-1.13919,0.119597,16,32765
2.10343,-1.19009,0.125161,16,32765
4.55457,-2.59694,0.272467,13,32765
4.58921,-2.63675,0.276974,19,32765
4.57174,-2.64687,0.278082,21,32765
4.51974,-2.63678,0.277266,18,32765
4.54545,-2.67176,0.281058,19,32765
4.50203,-2.66656,0.280729,18,32765
4.63884,-2.7684,0.291969,21,32765
4.56965,-2.74767,0.29015,19,32765
4.54329,-2.75257,0.290368,19,32765
4.51716,-2.75685,0.291673,18,32765
4.63549,-2.85026,0.301279,19,32765
4.55807,-2.82334,0.299412,20,32765
4.6419,-2.89633,0.30725,20,32765
4.57306,-2.87434,0.305578,19,32765
4.57192,-2.89463,0.308269,22,32765
4.59593,-2.93107,0.312722,19,32765
4.56943,-2.9352,0.313885,18,32765
4.50946,-2.91746,0.312434,18,32765
4.51651,-2.94303,0.315693,20,32765
4.57359,-3.00139,0.323073,18,32765
4.55506,-3.01113,0.324668,19,32765
4.5449,-3.02624,0.326552,18,32765
4.53475,-3.04106,0.329958,17,32765
4.56606,-3.0837,0.335071,18,32765
4.56413,-3.10402,0.338641,18,32765
4.59498,-3.14706,0.344362,19,32765
4.53514,-3.12808,0.343526,18,32765
4.55745,-3.1657,0.348668,17,32765
4.51426,-3.15753,0.34915,20,32765
3.86756,-2.72365,0.302213,19,32765
4.0052,-2.83982,0.316462,29,32765
4.54807,-3.24709,0.362645,18,32765
4.602,-3.30842,0.372061,18,32765
4.63947,-3.35842,0.379442,18,32765
4.59599,-3.34988,0.38099,19,32765
4.56872,-3.35295,0.383306,18,32765
1.6985,-0.528191,0.0670938,17,32765
1.69681,-0.533673,0.0666551,17,32765
1.73314,-0.551383,0.0678277,17,32765
1.69326,-0.544892,0.0659605,17,32765
1.68201,-0.547219,0.0655481,17,32765
1.71822,-0.565124,0.0667281,18,32765
1.71638,-0.570709,0.0665505,17,32765
1.71452,-0.576266,0.0665512,17,32765
1.72207,-0.585146,0.0668361,17,32765
1.68235,-0.577769,0.0654135,17,32765
1.70874,-0.59318,0.0665634,17,32765
1.69734,-0.595521,0.0661464,17,32765
1.70479,-0.604438,0.0666958,18,32765
1.7498,-0.626964,0.0685881,18,32765
1.70074,-0.615739,0.0666755,17,32765
1.72684,-0.631671,0.0679205,17,32765
1.68726,-0.623482,0.0665965,17,32765
1.74136,-0.649992,0.0690307,17,32765
1.77661,-0.66982,0.0705986,17,32765
1.72768,-0.657913,0.0690009,16,32765
1.73481,-0.667246,0.0694939,17,32765
1.75123,-0.680188,0.070386,17,32765
1.72109,-0.674911,0.0695203,17,32765
1.73744,-0.687919,0.0704473,16,32765
1.70733,-0.682494,0.0694562,17,32765
1.71428,-0.691964,0.0700999,17,32765
1.74896,-0.712781,0.0719268,17,32765
1.72808,-0.711009,0.0715064,17,32765
1.7257,-0.716744,0.0717303,17,32765
1.7141,-0.718562,0.071713,17,32765
1.73929,-0.735942,0.0732033,17,32765
1.73681,-0.741731,0.0735506,17,32765
1.76184,-0.759374,0.0752038,16,32765
1.75925,-0.765329,0.0756576,17,32765
1.73837,-0.763148,0.0752313,17,32765
1.81802,-0.805379,0.0791894,16,32765
1.76056,-0.787001,0.0771493,17,32765
1.77612,-0.801097,0.0783733,16,32765
1.79157,-0.815369,0.0796738,16,32765
1.77061,-0.813098,0.0793858,16,32765
1.74972,-0.810624,0.0790923,17,32765
1.80134,-0.841742,0.0821209,16,32765
1.74431,-0.822119,0.0799727,16,32765
1.78667,-0.849335,0.0826434,16,32765
1.82884,-0.876931,0.0851296,16,32765
1.80786,-0.874381,0.084889,16,32765
1.80488,-0.880426,0.0857473,16,32765
1.8288,-0.899712,0.0872878,16,32765
1.80787,-0.896903,0.0869868,17,32765
1.80486,-0.902887,0.0875966,15,32765
1.87314,-0.944943,0.0918229,17,32765
1.82543,-0.92853,0.0902475,16,32765
1.87556,-0.962086,0.0935486,17,32765
1.86343,-0.963774,0.0936395,16,32765
1.84243,-0.960792,0.0933865,16,32765
1.85686,-0.976255,0.0947949,16,32765
1.88889,-1.00113,0.0972202,16,32765
1.9824,-1.05924,0.102908,15,32765
1.94365,-1.04688,0.101907,16,32765
1.90504,-1.03422,0.100471,15,32765
1.9191,-1.05011,0.102062,15,32765
1.9768,-1.09024,0.106097,16,32765
2.05174,-1.14039,0.111298,17,32765
2.02173,-1.13262,0.11032,17,32765
2.03539,-1.14906,0.111648,15,32765
0,-0,0,0,32765
4.41058,-2.52865,0.246677,11,32765
4.47993,-2.58823,0.252473,17,32765
0,-0,0,0,32765
4.53122,-2.65867,0.259051,18,32765
0,-0,0,0,32765
4.35867,-2.59696,0.253307,17,32765
4.23017,-2.53925,0.247989,14,32765
4.58925,-2.77532,0.270648,16,32765
0,-0,0,0,32765
4.51113,-2.76887,0.270285,15,32765
0,-0,0,0,32765
4.42485,-2.75621,0.26904,17,32765
0,-0,0,0,32765
4.42349,-2.79568,0.272974,18,32765
0,-0,0,0,32765
4.56449,-2.92724,0.285539,16,32765
0,-0,0,0,32765
4.51168,-2.93515,0.285951,17,32765
0,-0,0,0,32765
4.4674,-2.94783,0.286827,17,32765
0,-0,0,0,32765
4.43983,-2.97102,0.28888,16,32765
0,-0,0,0,32765
4.38686,-2.97795,0.288704,16,32765
0,-0,0,0,32765
4.50732,-3.10232,0.300081,17,32765
0,-0,0,0,32765
4.47918,-3.1252,0.301592,18,32765
4.63233,-3.25456,0.313544,19,32765
4.36074,-3.0852,0.296717,17,32765
3.90367,-2.78033,0.266813,18,32765
3.968,-2.8448,0.272334,27,32765
0,-0,0,0,32765
4.42575,-3.21704,0.306265,17,32765
0,-0,0,0,32765
1.67965,-0.523344,0.0497744,18,32765
1.67796,-0.528778,0.0493413,18,32765
1.65717,-0.528248,0.0484704,17,32765
1.67444,-0.539897,0.048656,18,32765
1.6727,-0.545268,0.0486152,17,32765
1.64246,-0.541279,0.0474993,18,32765
1.70707,-0.568748,0.0492454,18,32765
1.66732,-0.561526,0.0481525,17,32765
1.68438,-0.57349,0.0486196,18,32765
1.6636,-0.572481,0.0481199,17,32765
1.69001,-0.587862,0.0489879,17,32765
1.72577,-0.606724,0.0500335,18,32765
1.72376,-0.612407,0.0502183,18,32765
1.65584,-0.59451,0.0483455,17,32765
1.69145,-0.613633,0.0493768,17,32765
1.6894,-0.619247,0.0495145,18,32765
1.64985,-0.610918,0.0485643,17,32765
1.704,-0.637362,0.0504305,18,32765
1.69254,-0.639445,0.0502338,18,32765
1.67172,-0.637926,0.0499314,17,32765
1.68824,-0.650689,0.0506072,18,32765
1.65813,-0.645377,0.0499065,17,32765
1.70254,-0.669035,0.051564,18,32765
1.70032,-0.674637,0.0517368,18,32765
1.69809,-0.68023,0.0518761,18,32765
1.74211,-0.704683,0.0535652,18,32765
1.72122,-0.702962,0.0533027,18,32765
1.70961,-0.704905,0.0533543,18,32765
1.7257,-0.718273,0.0541562,18,32765
1.73253,-0.727838,0.054817,19,32765
1.75769,-0.745318,0.0560301,18,32765
1.70923,-0.731517,0.0549063,17,32765
1.70676,-0.737215,0.055378,17,32765
1.70424,-0.742998,0.0558188,17,32765
1.76579,-0.776856,0.0582883,19,32765
1.74489,-0.774656,0.0580641,18,32765
1.74227,-0.780513,0.0584093,17,32765
1.73963,-0.786345,0.0588263,17,32765
1.76422,-0.804672,0.0602407,18,32765
1.7433,-0.802305,0.0601338,17,32765
1.77684,-0.824989,0.0619167,18,32765
1.73789,-0.813875,0.0612041,17,32765
1.72614,-0.815345,0.061211,18,32765
1.78657,-0.851157,0.0640545,17,32765
1.74765,-0.839851,0.0631434,17,32765
1.74478,-0.845741,0.0637221,17,32765
1.77782,-0.869148,0.0658828,17,32765
1.78384,-0.879546,0.0664712,17,32765
1.79878,-0.89438,0.0676927,17,32765
1.78684,-0.895869,0.0679611,16,32765
1.81946,-0.919918,0.0700572,16,32765
1.87868,-0.957761,0.0730914,17,32765
1.88427,-0.968725,0.0741022,16,32765
1.86324,-0.965848,0.0739389,16,32765
1.88652,-0.986005,0.075651,16,32765
1.89202,-0.996992,0.0765279,15,32765
1.87102,-0.993908,0.0764282,15,32765
1.90288,-1.01906,0.0785347,15,32765
1.9522,-1.05388,0.0815504,16,32765
1.9048,-1.03645,0.080124,15,32765
1.98894,-1.09081,0.0845071,15,32765
1.99401,-1.10226,0.0856609,13,32765
2.04272,-1.13798,0.0888878,14,32765
2.18698,-1.22803,0.0958269,12,32765
0,-0,0,11,32765
0,-0,0,0,32765
0,-0,0,0,32765
4.29758,-2.48866,0.195667,17,32765
4.34946,-2.5385,0.199639,18,32765
4.2634,-2.50738,0.197408,19,32765
4.27195,-2.53208,0.199773,18,32765
4.34068,-2.59232,0.204912,19,32765
4.24645,-2.55504,0.202536,20,32765
4.23799,-2.56896,0.203531,18,32765
4.22097,-2.57761,0.204542,18,32765
4.27188,-2.62826,0.208999,19,32765
4.22912,-2.62135,0.208599,16,32765
4.27977,-2.67221,0.213,19,32765
4.21166,-2.64908,0.211465,18,32765
4.21143,-2.66805,0.213242,17,32765
4.18567,-2.67124,0.213464,19,32765
4.27759,-2.74989,0.220024,20,32765
4.27698,-2.76919,0.221551,19,32765
4.26778,-2.78324,0.222846,19,32765
4.27538,-2.808,0.22499,23,32765
4.30781,-2.84949,0.228294,18,32765
4.27363,-2.84669,0.228163,19,32765
4.2145,-2.82718,0.226786,17,32765
4.21325,-2.84687,0.22803,18,32765
4.15422,-2.82702,0.226443,19,32765
4.3015,-2.94783,0.236114,18,32765
4.28381,-2.95585,0.236585,17,32765
0,-0,0,0,32765
4.2566,-2.97736,0.238097,19,32765
4.26315,-3.00274,0.239869,19,32765
4.2532,-3.01674,0.240722,20,32765
4.28428,-3.05917,0.243691,18,32765
3.9989,-2.87428,0.228496,19,32765
4.02199,-2.91055,0.230692,30,32765
3.97993,-2.90041,0.229471,23,32765
4.21216,-3.09054,0.243163,20,32765
1.64318,-0.507651,0.0253351,18,32765
1.63198,-0.509969,0.0262282,17,32765
1.66845,-0.527261,0.0276715,18,32765
1.59052,-0.508352,0.0270638,17,32765
1.65541,-0.535129,0.0290076,17,32765
1.60612,-0.52502,0.0287155,17,32765
1.66134,-0.549103,0.0304308,18,32765
1.66902,-0.55766,0.0313235,18,32765
1.67662,-0.566393,0.0322505,18,32765
1.66528,-0.568663,0.0327067,17,32765
1.62556,-0.561163,0.0324205,17,32765
1.67089,-0.582985,0.0338982,18,32765
1.67837,-0.591829,0.0347743,18,32765
1.64816,-0.587239,0.0348314,17,32765
1.65562,-0.596034,0.0355484,18,32765
1.63483,-0.594691,0.0354894,17,32765
1.64222,-0.603555,0.0364336,18,32765
1.63083,-0.605498,0.0367968,17,32765
1.6756,-0.628474,0.0383808,18,32765
1.68284,-0.637585,0.0390885,18,32765
1.61531,-0.618241,0.0379812,17,32765
1.63186,-0.630873,0.0390166,18,32765
1.62043,-0.632667,0.039291,17,32765
1.6834,-0.663747,0.0412903,18,32765
1.63474,-0.650808,0.040751,17,32765
1.70676,-0.686088,0.0430095,18,32765
1.67667,-0.680485,0.0427663,18,32765
1.68364,-0.689835,0.0435655,17,32765
1.67206,-0.691653,0.0439109,18,32765
1.6974,-0.708806,0.0451032,18,32765
1.69497,-0.714562,0.0454254,18,32765
1.72934,-0.735914,0.0469814,18,32765
1.70849,-0.733795,0.0469686,19,32765
1.69686,-0.735487,0.0471544,18,32765
1.72186,-0.753147,0.0485536,18,32765
1.70104,-0.750813,0.0483338,18,32765
1.69852,-0.756473,0.0488036,18,32765
1.72329,-0.774503,0.0500082,18,32765
1.72064,-0.780342,0.0506765,18,32765
1.7089,-0.781973,0.0507628,17,32765
1.78789,-0.825508,0.0538737,17,32765
1.76699,-0.823024,0.0537723,17,32765
1.72804,-0.811876,0.0533719,17,32765
1.72535,-0.817548,0.0536863,18,32765
1.74063,-0.831919,0.0548114,17,32765
1.72879,-0.833454,0.055098,17,32765
1.76189,-0.856796,0.0568207,17,32765
1.78589,-0.875994,0.0578002,17,32765
1.74708,-0.864245,0.057344,17,32765
1.77103,-0.883394,0.0587635,17,32765
1.73232,-0.871374,0.0580417,17,32765
1.74715,-0.886306,0.0592802,16,32765
1.81531,-0.928662,0.061874,16,32765
1.85658,-0.957653,0.0641008,17,32765
1.82674,-0.950028,0.063765,15,32765
1.83242,-0.960694,0.0647832,15,32765
1.785,-0.943465,0.0636788,15,32765
1.92292,-1.02468,0.0692102,15,32765
1.85785,-0.997968,0.067497,15,32765
1.92477,-1.04225,0.0712303,14,32765
1.86865,-1.0199,0.0696868,14,32765
1.89149,-1.04056,0.0712647,14,32765
0,-0,0,0,32765
0,-0,0,0,32765
0,-0,0,0,32765
0,-0,0,12,32765
0,-0,0,0,32765
0,-0,0,0,32765
4.16567,-2.41883,0.169978,14,32765
4.18344,-2.44775,0.172701,16,32765
4.15792,-2.45157,0.174269,15,32765
4.20107,-2.4963,0.177723,15,32765
4.24413,-2.54103,0.181796,15,32765
4.20992,-2.53957,0.183216,16,32765
4.20164,-2.55312,0.184808,17,32765
4.15917,-2.54587,0.185158,15,32765
4.01464,-2.47553,0.181028,15,32765
4.13383,-2.56763,0.188736,15,32765
4.14225,-2.59177,0.19138,15,32765
4.19287,-2.64251,0.196341,16,32765
4.1672,-2.64555,0.197655,16,32765
4.16674,-2.66471,0.200154,17,32765
4.23351,-2.72699,0.206189,16,32765
0,-0,0,0,32765
4.14835,-2.71105,0.207313,15,32765
4.32286,-2.84557,0.219146,19,32765
4.27182,-2.83202,0.219328,16,32765
4.09636,-2.73485,0.213032,17,32765
4.14537,-2.78711,0.218918,16,32765
0,-0,0,0,32765
4.32492,-2.94918,0.23463,18,32765
0,-0,0,0,32765
4.17373,-2.88654,0.23299,17,32765
0,-0,0,0,32765
4.26107,-2.98788,0.244731,18,32765
0,-0,0,0,32765
4.26555,-3.033,0.252162,17,32765
0,-0,0,0,32765
3.98641,-2.87331,0.243015,30,32765
3.98512,-2.89184,0.246873,16,32765
4.2819,-3.12867,0.269944,17,32765
1.61436,-0.499869,0.00898761,20,32765
1.61273,-0.505087,0.0100165,20,32765
1.60155,-0.507258,0.0107545,20,32765
1.59988,-0.512494,0.0114165,19,32765
1.6172,-0.523949,0.012344,20,32765
1.62496,-0.532373,0.0129653,20,32765
1.60422,-0.531415,0.0134864,19,32765
1.60248,-0.536629,0.0141774,20,32765
1.61015,-0.54516,0.0149816,20,32765
1.62726,-0.556931,0.0157826,20,32765
1.59704,-0.552558,0.0159573,19,32765
1.60464,-0.56113,0.0165667,19,32765
1.63105,-0.576438,0.0175253,20,32765
1.61031,-0.575047,0.017952,19,32765
1.61781,-0.583738,0.0185641,19,32765
1.64404,-0.599392,0.0192359,20,32765
1.63265,-0.601393,0.0198628,20,32765
1.62127,-0.603309,0.0203178,19,32765
1.63796,-0.615748,0.0210685,18,32765
1.60785,-0.610555,0.0211797,20,32765
1.63378,-0.62673,0.0219676,19,32765
1.63165,-0.632227,0.022565,19,32765
1.67608,-0.655887,0.0237252,19,32765
1.65527,-0.654146,0.0238744,19,32765
1.63452,-0.652205,0.0242085,18,32765
1.65087,-0.66514,0.0248776,19,32765
1.6579,-0.67441,0.0254715,19,32765
1.68338,-0.691316,0.0264624,19,32765
1.65333,-0.685479,0.0266056,18,32765
1.69713,-0.710328,0.0278144,19,32765
1.68549,-0.712204,0.0279849,19,32765
1.68307,-0.71788,0.0285395,19,32765
1.7082,-0.735371,0.0294956,20,32765
1.65989,-0.72113,0.0291327,19,32765
1.70325,-0.746735,0.0305664,19,32765
1.68245,-0.744335,0.0305326,19,32765
1.68908,-0.754022,0.0311671,19,32765
1.66827,-0.751527,0.0312356,18,32765
1.71121,-0.77788,0.032755,19,32765
1.72674,-0.791989,0.0334631,19,32765
1.71494,-0.793686,0.0339414,19,32765
1.69415,-0.790955,0.0340108,19,32765
1.71863,-0.809361,0.0352567,18,32765
1.70692,-0.810725,0.0353835,19,32765
1.69517,-0.812108,0.0357461,17,32765
1.7194,-0.830895,0.0368854,18,32765
1.73453,-0.845494,0.0378391,19,32765
1.72266,-0.846996,0.0377505,18,32765
1.72875,-0.857219,0.0386469,17,32765
1.75272,-0.87635,0.0397809,18,32765
1.73189,-0.873246,0.0398418,17,32765
1.77345,-0.901805,0.0415202,16,32765
1.83263,-0.939781,0.0431582,16,32765
1.80281,-0.932159,0.0432211,17,32765
1.79965,-0.938204,0.0437985,16,32765
1.78767,-0.939504,0.0442758,17,32765
1.88168,-0.996979,0.0471741,17,32765
1.82538,-0.975068,0.0463098,17,32765
1.8309,-0.985892,0.0470371,15,32765
1.88028,-1.02064,0.049543,15,32765
1.91194,-1.04608,0.0508883,15,32765
1.90843,-1.05245,0.051492,16,32765
0,-0,0,0,32765
0,-0,0,0,32765
0,-0,0,0,32765
0,-0,0,0,32765
0,-0,0,0,32765
0,-0,0,0,32765
4.08649,-2.37876,0.122498,15,32765
4.10439,-2.40749,0.124913,19,32765
4.19089,-2.47719,0.130103,20,32765
4.06216,-2.41981,0.127614,18,32765
4.07974,-2.44875,0.130247,18,32765
4.0373,-2.44157,0.131576,18,32765
4.08057,-2.4858,0.134799,19,32765
4.05536,-2.4886,0.136046,18,32765
4.00461,-2.47559,0.136558,19,32765
4.08981,-2.54673,0.141685,18,32765
4.04748,-2.53891,0.14234,17,32765
4.04756,-2.55743,0.144787,17,32765
4.0812,-2.59757,0.148366,17,32765
4.07249,-2.61109,0.150423,17,32765
4.02186,-2.59729,0.15115,17,32765
4.03826,-2.62701,0.153821,17,32765
3.97104,-2.60185,0.154107,17,32765
4.05408,-2.67552,0.160154,16,32765
4.04524,-2.68873,0.162336,16,32765
4.08626,-2.73516,0.166594,16,32765
4.05238,-2.73165,0.16838,17,32765
4.02681,-2.73365,0.170046,17,32765
4.06722,-2.78067,0.174662,18,32765
4.04137,-2.78285,0.176523,18,32765
4.03221,-2.79594,0.179302,17,32765
4.0394,-2.82042,0.1827,17,32765
4.04654,-2.84488,0.186262,17,32765
4.0697,-2.88122,0.190403,16,32765
4.06011,-2.89451,0.19351,17,32765
4.05873,-2.91339,0.19714,18,32765
4.08167,-2.94972,0.201862,18,32765
3.93471,-2.86279,0.198381,26,32765
3.97354,-2.91102,0.204582,24,32765
1.57631,-0.487364,0.0151512,18,32765
1.59379,-0.498501,0.0149817,18,32765
1.64936,-0.521816,0.0152244,19,32765
1.63814,-0.524085,0.0147939,18,32765
1.61741,-0.523229,0.0143632,19,32765
1.63472,-0.534677,0.0145489,19,32765
1.60449,-0.530563,0.0141858,18,32765
1.61224,-0.538957,0.0141663,19,32765
1.59146,-0.538009,0.0137593,19,32765
1.59909,-0.546632,0.0139841,19,32765
1.61615,-0.558529,0.0141577,18,32765
1.59545,-0.557181,0.0140531,19,32765
1.66909,-0.588908,0.014615,20,32765
1.61065,-0.574196,0.0141951,18,32765
1.58993,-0.572719,0.0141492,19,32765
1.62559,-0.591725,0.0147101,19,32765
1.61421,-0.593731,0.0145863,18,32765
1.60286,-0.595574,0.0147289,18,32765
1.66641,-0.625474,0.0156197,19,32765
1.66435,-0.630945,0.0155824,19,32765
1.65291,-0.632891,0.0158765,19,32765
1.63214,-0.631161,0.0158674,18,32765
1.64869,-0.643786,0.0163677,19,32765
1.64655,-0.649228,0.0165789,19,32765
1.67227,-0.665758,0.0172,19,32765
1.66076,-0.667579,0.0174192,18,32765
1.68631,-0.684413,0.0180061,18,32765
1.66552,-0.682424,0.0180968,18,32765
1.68168,-0.695691,0.0187154,18,32765
1.65165,-0.689773,0.0187034,18,32765
1.6309,-0.687541,0.0189097,18,32765
1.64701,-0.700769,0.0195439,18,32765
1.67225,-0.718039,0.0201895,19,32765
1.66065,-0.719664,0.020454,18,32765
1.66736,-0.729295,0.0212857,18,32765
1.68318,-0.742992,0.0219412,18,32765
1.69893,-0.756786,0.022326,18,32765
1.72374,-0.774779,0.0232759,18,32765
1.67558,-0.759925,0.023065,17,32765
1.70033,-0.777955,0.0240025,17,32765
1.69769,-0.783672,0.0244313,18,32765
1.70413,-0.793541,0.0251356,17,32765
1.70144,-0.799272,0.0255169,18,32765
1.69874,-0.804981,0.0262056,18,32765
1.72307,-0.823634,0.0272112,17,32765
1.68426,-0.812041,0.0273756,17,32765
1.7445,-0.848225,0.0287415,17,32765
1.7506,-0.858528,0.0289895,17,32765
1.71183,-0.846702,0.0290243,16,32765
1.72684,-0.861423,0.0298275,16,32765
1.78642,-0.898712,0.0317022,17,32765
1.78336,-0.90476,0.0323304,17,32765
1.74467,-0.892569,0.0323122,16,32765
1.75058,-0.902922,0.0333329,16,32765
1.81851,-0.945658,0.035326,16,32765
1.77988,-0.933212,0.0352532,16,32765
1.80323,-0.953206,0.036681,17,32765
1.81758,-0.968798,0.0380388,16,32765
1.84072,-0.989084,0.0395085,15,32765
1.85499,-1.00474,0.0401726,15,32765
1.91307,-1.04441,0.0422314,15,32765
1.90955,-1.05079,0.0430385,15,32765
1.90605,-1.0571,0.0436887,15,32765
2.05088,-1.14635,0.0479699,12,32765
0,-0,0,0,32765
0,-0,0,0,32765
0,-0,0,0,32765
0,-0,0,0,32765
0,-0,0,0,32765
3.96858,-2.32373,0.103233,17,32765
3.97801,-2.34708,0.104931,17,32765
4.0131,-2.38588,0.107284,15,32765
3.97087,-2.37853,0.108189,16,32765
3.98859,-2.4072,0.110078,17,32765
3.97201,-2.41522,0.111277,16,32765
4.02368,-2.46483,0.114093,16,32765
3.97287,-2.45196,0.114305,16,32765
3.97326,-2.47024,0.116008,16,32765
3.93965,-2.46738,0.116946,17,32765
3.90608,-2.46438,0.11738,16,32765
3.957,-2.51471,0.120385,17,32765
3.97388,-2.54396,0.122335,15,32765
4.0076,-2.58388,0.124947,15,32765
4.03278,-2.61849,0.127515,16,32765
3.94903,-2.58219,0.126036,16,32765
3.85713,-2.53995,0.124765,15,32765
3.9404,-2.61335,0.128662,15,32765
3.94008,-2.6318,0.130465,15,32765
3.88977,-2.61703,0.130004,16,32765
3.95555,-2.68031,0.13386,16,32765
3.86418,-2.63686,0.132251,15,32765
3.93795,-2.706,0.136113,16,32765
3.86343,-2.67317,0.134428,14,32765
3.97779,-2.77129,0.139989,17,32765
3.9197,-2.74968,0.139032,16,32765
3.84548,-2.71615,0.137497,17,32765
3.90994,-2.78073,0.141105,16,32765
3.86032,-2.76418,0.140366,16,32765
3.81095,-2.7472,0.139671,16,32765
3.86693,-2.80624,0.142331,16,32765
3.92258,-2.86566,0.144624,18,32765
1.59516,-0.494339,-0.000380729,20,32765
1.61261,-0.505564,-0.000741642,20,32765
1.61094,-0.510855,-0.00102936,20,32765
1.60928,-0.51606,-0.00136489,20,32765
1.6076,-0.521278,-0.00162111,20,32765
1.58689,-0.520259,-0.00158475,20,32765
1.58519,-0.52542,-0.00169177,19,32765
1.61191,-0.540126,-0.00182456,19,32765
1.59113,-0.539175,-0.0020424,18,32765
1.57983,-0.541333,-0.00188806,19,32765
1.61579,-0.55974,-0.00192404,19,32765
1.60452,-0.561692,-0.00185047,19,32765
1.62157,-0.573512,-0.00197156,19,32765
1.6291,-0.58217,-0.00190555,19,32765
1.61777,-0.584148,-0.00177124,19,32765
1.59701,-0.582723,-0.00152749,19,32765
1.59504,-0.588098,-0.0015647,19,32765
1.58371,-0.589883,-0.00132969,19,32765
1.60982,-0.605699,-0.00107402,19,32765
1.63586,-0.621654,-0.00112823,18,32765
1.59644,-0.61276,-0.000732723,18,32765
1.62237,-0.628912,-0.000575093,19,32765
1.64822,-0.645178,-0.000264945,18,32765
1.62748,-0.64328,-5.19265e-05,18,32765
1.61605,-0.644957,0.000278249,18,32765
1.62317,-0.654071,0.000588732,19,32765
1.61171,-0.655742,0.000868522,18,32765
1.63727,-0.6725,0.0011685,18,32765
1.62574,-0.674209,0.00156679,19,32765
1.69726,-0.710571,0.00194405,19,32765
1.63959,-0.692918,0.00229957,18,32765
1.66488,-0.710128,0.00276473,18,32765
1.66252,-0.715635,0.00308235,18,32765
1.6601,-0.721216,0.00345901,19,32765
1.64848,-0.722836,0.00415189,18,32765
1.66432,-0.736501,0.00461641,19,32765
1.65269,-0.738029,0.00473481,19,32765
1.69578,-0.764123,0.00544735,19,32765
1.63858,-0.745007,0.00566901,18,32765
1.66336,-0.762954,0.00631422,18,32765
1.67892,-0.77696,0.00680883,18,32765
1.69444,-0.791019,0.00745439,19,32765
1.67367,-0.78821,0.00775133,19,32765
1.68003,-0.798131,0.0084759,19,32765
1.70438,-0.816762,0.00919535,19,32765
1.69262,-0.818139,0.00988624,18,32765
1.70786,-0.832521,0.010327,19,32765
1.68708,-0.829488,0.0103162,19,32765
1.7201,-0.852964,0.0111699,18,32765
1.70824,-0.854327,0.0116074,19,32765
1.6964,-0.85561,0.0123012,18,32765
1.72913,-0.879501,0.0131711,19,32765
1.72614,-0.885357,0.0137947,17,32765
1.74095,-0.900266,0.0147898,16,32765
1.76452,-0.91995,0.0156385,17,32765
1.77025,-0.930561,0.0163322,16,32765
1.82895,-0.969297,0.0178203,16,32765
1.84323,-0.985014,0.0190068,16,32765
1.87511,-1.01017,0.0203055,16,32765
1.88929,-1.02598,0.0207895,15,32765
2.01744,-1.10426,0.0230079,12,32765
0,-0,0,0,32765
0,-0,0,0,32765
2.04118,-1.14391,0.0258487,11,32765
0,-0,0,0,32765
0,-0,0,0,32765
0,-0,0,0,32765
0,-0,0,0,32765
2.26363,-1.31882,0.0332978,12,32765
3.83721,-2.25276,0.0582098,15,32765
3.83826,-2.27064,0.059551,18,32765
3.84781,-2.2937,0.06099,18,32765
3.9259,-2.35787,0.0641587,18,32765
3.85813,-2.33469,0.064333,18,32765
3.85033,-2.3475,0.0657284,18,32765
3.87662,-2.38113,0.0674155,17,32765
3.89414,-2.40984,0.0692573,18,32765
3.78435,-2.35914,0.0688368,17,32765
3.9374,-2.47265,0.0734551,18,32765
3.71792,-2.35203,0.0706425,15,32765
3.84506,-2.45021,0.074408,17,32765
3.87055,-2.48456,0.0762152,17,32765
3.80367,-2.4591,0.0763093,16,32765
3.84599,-2.50405,0.0787751,16,32765
3.8797,-2.54383,0.0805295,18,32765
3.79632,-2.50679,0.08035,17,32765
3.77139,-2.50818,0.0808886,16,32765
3.74649,-2.50942,0.0819927,17,32765
3.8458,-2.59464,0.0852667,17,32765
3.76274,-2.55677,0.0849132,15,32765
3.8781,-2.65376,0.0889136,16,32765
3.81179,-2.62666,0.0885983,16,32765
3.72113,-2.58195,0.0872615,16,32765
3.83569,-2.67983,0.0913814,18,32765
3.76974,-2.65197,0.0907651,30,32765
3.79378,-2.68724,0.0923355,33,32765
3.77687,-2.69374,0.0930898,33,32765
3.78439,-2.71756,0.0942132,33,32765
3.74329,-2.70616,0.0941784,32,32765
3.66999,-2.67098,0.0928212,29,32765
3.70181,-2.71218,0.0937653,29,32765
1.55789,-0.47891,-0.0228308,19,32765
1.56587,-0.487011,-0.0220582,18,32765
1.55474,-0.489111,-0.0211595,18,32765
1.59126,-0.506329,-0.0208912,19,32765
1.57054,-0.505469,-0.0197815,19,32765
1.58791,-0.516771,-0.0193398,18,32765
1.59573,-0.525073,-0.0188741,19,32765
1.57505,-0.523917,-0.0177921,19,32765
1.56385,-0.5259,-0.0171978,19,32765
1.57156,-0.534345,-0.0166464,18,32765
1.58867,-0.546125,-0.0161127,18,32765
1.5585,-0.541621,-0.0151416,19,32765
1.57555,-0.553472,-0.0150119,18,32765
1.56428,-0.55536,-0.0141697,18,32765
1.59067,-0.570676,-0.0139792,18,32765
1.5606,-0.56566,-0.0129449,18,32765
1.56811,-0.574251,-0.0126023,18,32765
1.59436,-0.589792,-0.0123323,18,32765
1.58305,-0.591534,-0.0117156,18,32765
1.57173,-0.593243,-0.0110614,18,32765
1.58844,-0.605597,-0.0106042,18,32765
1.64236,-0.632568,-0.0105062,19,32765
1.62156,-0.630921,-0.00963131,18,32765
1.60078,-0.629132,-0.00911042,18,32765
1.63585,-0.649254,-0.00880145,18,32765
1.63368,-0.654704,-0.00822621,19,32765
1.58511,-0.641457,-0.00748114,17,32765
1.62001,-0.661823,-0.00725296,18,32765
1.64553,-0.678669,-0.00693193,17,32765
1.60632,-0.668814,-0.00616986,18,32765
1.65015,-0.693604,-0.0058083,18,32765
1.63859,-0.695275,-0.0054288,18,32765
1.63624,-0.700781,-0.00475132,18,32765
1.67975,-0.726178,-0.00431921,19,32765
1.67731,-0.731801,-0.00382903,20,32765
1.66566,-0.733459,-0.00352785,19,32765
1.67231,-0.743139,-0.00287099,19,32765
1.68809,-0.756859,-0.00237905,18,32765
1.67645,-0.758354,-0.00183697,18,32765
1.66477,-0.759891,-0.0012304,17,32765
1.67125,-0.769754,-0.000836933,19,32765
1.69582,-0.788095,-0.000297598,19,32765
1.68411,-0.789543,0.000178124,18,32765
1.68149,-0.795096,0.000892315,19,32765
1.68784,-0.805034,0.00102932,18,32765
1.7122,-0.823628,0.00160454,18,32765
1.69144,-0.820623,0.00229342,19,32765
1.67068,-0.817566,0.00217439,19,32765
1.68587,-0.831998,0.00263586,19,32765
1.70097,-0.846576,0.00355839,17,32765
1.68027,-0.843249,0.00383929,17,32765
1.75776,-0.889468,0.0045532,17,32765
1.71021,-0.872678,0.00506312,17,32765
1.71611,-0.883082,0.00560561,17,32765
1.71307,-0.888957,0.00614489,17,32765
1.72778,-0.904005,0.0069936,17,32765
1.77781,-0.937784,0.00790844,18,32765
1.76583,-0.939032,0.00845727,16,32765
1.83306,-0.982946,0.00993655,16,32765
1.87378,-1.01279,0.0107385,15,32765
0,-0,0,0,32765
0,-0,0,0,32765
0,-0,0,0,32765
0,-0,0,0,32765
0,-0,0,0,32765
0,-0,0,0,32765
0,-0,0,0,32765
0,-0,0,0,32765
0,-0,0,0,32765
2.20163,-1.28641,0.0215468,12,32765
2.09389,-1.23291,0.0213668,14,32765
3.7495,-2.22468,0.0402749,17,32765
3.86224,-2.30894,0.0432483,16,32765
3.72605,-2.24435,0.0435416,15,32765
3.72719,-2.26177,0.045466,16,32765
3.78794,-2.31577,0.048093,16,32765
3.83139,-2.35963,0.0505572,17,32765
3.79812,-2.35637,0.0522078,15,32765
3.89218,-2.43226,0.0559483,17,32765
3.89265,-2.45029,0.0580807,17,32765
3.85085,-2.44152,0.0596536,17,32765
3.75841,-2.40049,0.0599398,15,32765
3.82621,-2.46142,0.0635316,17,32765
3.8181,-2.47392,0.0657351,16,32765
3.83507,-2.5028,0.0684139,17,32765
3.81006,-2.50441,0.0703967,16,32765
3.76836,-2.49492,0.0722557,16,32765
3.72678,-2.48517,0.0735457,15,32765
3.82646,-2.56987,0.0781146,15,32765
3.76832,-2.54872,0.0795145,17,32765
3.71873,-2.53268,0.0811324,15,32765
3.74343,-2.56734,0.0843622,16,32765
3.80088,-2.62486,0.0883211,15,32765
3.78411,-2.63141,0.0910008,15,32765
3.84094,-2.68964,0.0955612,17,32765
3.74222,-2.63875,0.0958451,29,32765
3.7579,-2.6684,0.0995403,30,32765
3.68408,-2.63406,0.100882,28,32765
3.65108,-2.62848,0.103243,23,32765
3.62638,-2.6284,0.106091,23,32765
3.68247,-2.68712,0.111449,19,32765
1.58592,-0.488813,-0.0388596,19,32765
1.56523,-0.488096,-0.037478,19,32765
1.55411,-0.4902,-0.0364846,18,32765
1.54299,-0.492261,-0.0354961,19,32765
1.57943,-0.509661,-0.0355072,19,32765
1.57777,-0.514816,-0.034829,20,32765
1.5571,-0.513707,-0.033841,19,32765
1.57441,-0.525076,-0.0333956,19,32765
1.59164,-0.536645,-0.0333011,19,32765
1.60877,-0.548429,-0.0330253,19,32765
1.55966,-0.537556,-0.0313319,18,32765
1.60506,-0.559263,-0.0315764,19,32765
1.58432,-0.558012,-0.0308888,19,32765
1.58247,-0.563286,-0.0301266,19,32765
1.58059,-0.568545,-0.0296816,18,32765
1.58813,-0.577147,-0.0290571,19,32765
1.5956,-0.585848,-0.0287999,18,32765
1.61243,-0.598038,-0.0286355,19,32765
1.59173,-0.596336,-0.0277542,18,32765
1.61781,-0.612235,-0.0276406,19,32765
1.56907,-0.59978,-0.0262588,18,32765
1.61366,-0.623144,-0.0265749,18,32765
1.63016,-0.635932,-0.0261213,18,32765
1.57216,-0.619507,-0.0248215,17,32765
1.57008,-0.62479,-0.0243203,17,32765
1.59582,-0.641217,-0.0241887,16,32765
1.65851,-0.672928,-0.0246367,16,32765
1.61001,-0.659472,-0.0235464,16,32765
1.59856,-0.661039,-0.0229771,15,32765
1.57788,-0.658711,-0.0221145,15,32765
1.57565,-0.664043,-0.0215985,14,32765
1.5734,-0.669382,-0.0212638,13,32765
1.61708,-0.694409,-0.0212145,13,32765
1.61471,-0.699914,-0.0206693,13,32765
1.61236,-0.705333,-0.0201966,13,32765
1.56422,-0.69062,-0.0193581,12,32765
1.64408,-0.732537,-0.0197106,14,32765
1.65988,-0.746195,-0.0194134,15,32765
1.61186,-0.73108,-0.0183697,13,32765
1.59118,-0.728241,-0.0175903,13,32765
1.63407,-0.754645,-0.0176999,14,32765
1.68587,-0.785571,-0.0177385,15,32765
1.61082,-0.757213,-0.0165204,14,32765
1.63542,-0.775389,-0.0161025,15,32765
1.63281,-0.780881,-0.0159729,15,32765
1.63021,-0.786303,-0.0154393,14,32765
1.64556,-0.800516,-0.0149215,16,32765
1.66078,-0.814918,-0.0151768,16,32765
1.64908,-0.816046,-0.0146645,16,32765
1.67317,-0.834998,-0.0140219,17,32765
1.70611,-0.858543,-0.0139967,18,32765
1.69432,-0.859703,-0.0134105,18,32765
1.69141,-0.865439,-0.01279,17,32765
1.72399,-0.889559,-0.0125388,18,32765
1.77415,-0.923172,-0.0123659,18,32765
1.76216,-0.924524,-0.0115014,18,32765
1.75021,-0.925764,-0.0107527,19,32765
1.80004,-0.959861,-0.0104769,17,32765
1.77028,-0.951897,-0.00921867,16,32765
1.81986,-0.986364,-0.00894476,17,32765
0,-0,-0,0,32765
0,-0,-0,0,32765
0,-0,-0,0,32765
0,-0,-0,0,32765
0,-0,-0,0,32765
0,-0,-0,0,32765
0,-0,-0,0,32765
0,-0,-0,0,32765
0,-0,-0,0,32765
2.13111,-1.2487,-0.00223323,15,32765
2.14412,-1.26604,-0.00139446,14,32765
3.60941,-2.1476,-0.000481815,16,32765
3.72232,-2.23158,0.00112652,19,32765
3.74055,-2.25946,0.00288114,19,32765
3.73309,-2.27177,0.00471344,20,32765
3.72556,-2.28409,0.00648191,20,32765
3.72653,-2.30158,0.00826662,19,32765
3.70196,-2.30325,0.0101714,19,32765
3.72834,-2.33652,0.0125105,19,32765
3.68684,-2.32736,0.0143063,18,32765
3.68766,-2.34474,0.0163343,18,32765
3.74717,-2.40018,0.0182285,18,32765
3.70568,-2.39073,0.0203774,19,32765
3.71458,-2.41377,0.0226191,18,32765
3.68152,-2.40952,0.024627,18,32765
3.72364,-2.45466,0.0271983,18,32765
3.69046,-2.45041,0.0294465,17,32765
3.71556,-2.48486,0.0316417,18,32765
3.76539,-2.53619,0.0345391,18,32765
3.72395,-2.52603,0.0366288,18,32765
3.74879,-2.56059,0.0394721,19,32765
3.70747,-2.55009,0.0416149,18,32765
3.72383,-2.57915,0.0443204,16,32765
3.6334,-2.534,0.0461046,18,32765
3.7396,-2.62635,0.0504704,21,32765
3.73098,-2.63854,0.0529942,27,32765
3.77923,-2.69143,0.0568973,31,32765
3.74603,-2.68622,0.059656,31,32765
3.73721,-2.69841,0.0627632,32,32765
3.75275,-2.72801,0.0666009,34,32765
3.68744,-2.69868,0.0690708,31,32765
1.56713,-0.482351,-0.0322593,19,32765
1.58464,-0.493392,-0.0329712,20,32765
1.60209,-0.504554,-0.0337898,19,32765
1.56234,-0.497602,-0.0329564,19,32765
1.55118,-0.499664,-0.0329821,19,32765
1.55902,-0.507877,-0.0332281,19,32765
1.59532,-0.525525,-0.0342572,19,32765
1.60304,-0.534014,-0.0345573,19,32765
1.59181,-0.536073,-0.03414,19,32765
1.58057,-0.538089,-0.0340253,19,32765
1.57883,-0.543196,-0.0338439,19,32765
1.58649,-0.55162,-0.0341768,18,32765
1.61296,-0.566812,-0.0342996,17,32765
1.56394,-0.555503,-0.033242,17,32765
1.64674,-0.591199,-0.0349425,17,32765
1.61656,-0.586498,-0.0341294,15,32765
1.66156,-0.609026,-0.0349436,15,32765
1.60329,-0.593666,-0.0335773,14,32765
0,-0,-0,0,32765
0,-0,-0,0,32765
1.5506,-0.59179,-0.0319069,12,32765
1.40867,-0.543059,-0.0288881,11,32765
0,-0,-0,0,32765
0,-0,-0,0,32765
0,-0,-0,0,32765
0,-0,-0,0,32765
0,-0,-0,0,32765
0,-0,-0,0,32765
0,-0,-0,0,32765
0,-0,-0,0,32765
1.58526,-0.666677,-0.0297424,12,32765
0,-0,-0,0,32765
0,-0,-0,0,32765
0,-0,-0,0,32765
0,-0,-0,0,32765
0,-0,-0,0,32765
0,-0,-0,0,32765
0,-0,-0,0,32765
0,-0,-0,0,32765
0,-0,-0,0,32765
0,-0,-0,0,32765
0,-0,-0,0,32765
0,-0,-0,0,32765
0,-0,-0,0,32765
0,-0,-0,0,32765
0,-0,-0,0,32765
0,-0,-0,0,32765
0,-0,-0,0,32765
0,-0,-0,0,32765
0,-0,-0,0,32765
1.80509,-0.906359,-0.0237454,13,32765
1.9269,-0.975732,-0.0243656,13,32765
1.93246,-0.986882,-0.0235724,12,32765
0,-0,-0,0,32765
0,-0,-0,0,32765
1.80726,-0.946038,-0.0206494,15,32765
1.68916,-0.891352,-0.0186465,18,32765
1.74794,-0.929928,-0.0186193,17,32765
1.80639,-0.969083,-0.0177771,16,32765
1.78559,-0.965544,-0.0166828,15,32765
0,-0,-0,0,32765
0,-0,-0,0,32765
0,-0,-0,0,32765
0,-0,-0,0,32765
0,-0,-0,0,32765
0,-0,-0,0,32765
0,-0,-0,0,32765
0,-0,-0,0,32765
2.23145,-1.29494,-0.0131745,12,32765
2.04584,-1.19638,-0.0114551,16,32765
2.05908,-1.21333,-0.010662,14,32765
2.1754,-1.29167,-0.0103061,14,32765
3.62991,-2.17173,-0.0160572,17,32765
3.63974,-2.19421,-0.0146756,17,32765
3.60669,-2.1909,-0.0131325,17,32765
3.64212,-2.22884,-0.0120722,16,32765
3.61773,-2.23034,-0.0104273,17,32765
3.57635,-2.2212,-0.00941865,16,32765
3.59457,-2.24868,-0.00796753,16,32765
3.59559,-2.26587,-0.00669079,16,32765
3.62194,-2.29906,-0.00531463,16,32765
3.58065,-2.28942,-0.00438642,17,32765
3.6067,-2.32288,-0.002959,17,32765
3.63263,-2.35646,-0.00166522,17,32765
3.63318,-2.37394,-0.000401839,17,32765
3.61703,-2.38033,0.000624095,17,32765
3.6175,-2.39776,0.00197869,16,32765
3.57638,-2.38736,0.00301487,17,32765
3.58514,-2.41022,0.00414597,17,32765
3.55238,-2.40513,0.00509172,16,32765
3.61067,-2.46169,0.00664588,17,32765
3.6439,-2.50166,0.00780238,17,32765
3.52065,-2.4338,0.00819379,16,32765
3.55385,-2.47365,0.00936906,17,32765
3.5376,-2.47946,0.0101216,16,32765
3.58675,-2.53124,0.0114193,16,32765
3.5785,-2.54289,0.0120313,17,32765
3.51345,-2.51354,0.0126803,17,32765
3.48928,-2.51292,0.0133801,15,32765
3.56194,-2.58309,0.013966,15,32765
3.50507,-2.55927,0.0143913,15,32765
0,-0,-0,0,32765
0,-0,-0,0,32765
0,-0,-0,0,32765
0,-0,-0,0,32765
0,-0,-0,0,32765
0,-0,-0,0,32765
0,-0,-0,0,32765
0,-0,-0,0,32765
1.55311,-0.524477,-0.0487331,11,32765
0,-0,-0,0,32765
0,-0,-0,0,32765
1.58564,-0.552847,-0.0499548,13,32765
1.57439,-0.554783,-0.0491804,13,32765
1.62901,-0.580213,-0.050889,12,32765
1.43894,-0.518023,-0.0449157,12,32765
0,-0,-0,0,32765
1.57619,-0.579338,-0.0489388,13,32765
1.60238,-0.594979,-0.0496296,11,32765
0,-0,-0,0,32765
0,-0,-0,0,32765
1.6804,-0.643114,-0.0514911,11,32765
0,-0,-0,0,32765
0,-0,-0,0,32765
0,-0,-0,0,32765
0,-0,-0,0,32765
0,-0,-0,0,32765
0,-0,-0,0,32765
0,-0,-0,0,32765
0,-0,-0,0,32765
0,-0,-0,0,32765
0,-0,-0,13,32765
0,-0,-0,0,32765
0,-0,-0,0,32765
0,-0,-0,0,32765
0,-0,-0,0,32765
0,-0,-0,0,32765
0,-0,-0,0,32765
0,-0,-0,0,32765
0,-0,-0,0,32765
0,-0,-0,0,32765
0,-0,-0,0,32765
0,-0,-0,0,32765
0,-0,-0,0,32765
0,-0,-0,0,32765
0,-0,-0,0,32765
0,-0,-0,0,32765
0,-0,-0,0,32765
0,-0,-0,0,32765
0,-0,-0,0,32765
0,-0,-0,0,32765
0,-0,-0,0,32765
1.65805,-0.842015,-0.0383921,12,32765
1.83314,-0.938862,-0.0416585,12,32765
0,-0,-0,0,32765
0,-0,-0,0,32765
1.77047,-0.92947,-0.0389583,15,32765
1.74972,-0.925992,-0.0378549,19,32765
1.78187,-0.950738,-0.0378929,18,32765
1.86663,-1.00431,-0.0382158,16,32765
1.84573,-1.00097,-0.036901,14,32765
0,-0,-0,0,32765
0,-0,-0,0,32765
0,-0,-0,0,32765
0,-0,-0,0,32765
0,-0,-0,0,32765
0,-0,-0,0,32765
0,-0,-0,0,32765
2.08669,-1.20523,-0.035702,13,32765
1.96169,-1.14176,-0.0328057,17,32765
2.02686,-1.18879,-0.0333179,16,32765
2.06594,-1.22098,-0.0331311,16,32765
2.19931,-1.30975,-0.0343453,12,32765
3.52388,-2.11458,-0.0539954,17,32765
3.53389,-2.13676,-0.0528377,18,32765
3.5779,-2.17991,-0.0521719,18,32765
3.56219,-2.18646,-0.0508528,18,32765
3.54646,-2.19296,-0.0491687,18,32765
3.50523,-2.18357,-0.0477992,17,32765
3.56589,-2.23747,-0.0472135,19,32765
3.52467,-2.22789,-0.0454894,18,32765
3.49206,-2.22333,-0.0437691,18,32765
3.54363,-2.27263,-0.043634,19,32765
3.52771,-2.27892,-0.0420881,19,32765
3.50346,-2.27959,-0.0406077,19,32765
3.48752,-2.28573,-0.0392884,18,32765
3.55511,-2.34675,-0.0391231,19,32765
3.50572,-2.33081,-0.0373467,19,32765
3.45653,-2.31446,-0.0358783,18,32765
3.53182,-2.38171,-0.0356343,20,32765
3.49918,-2.37644,-0.0344175,18,32765
3.47494,-2.37651,-0.0328444,18,32765
3.47546,-2.39345,-0.031886,18,32765
3.41839,-2.37049,-0.0308068,18,32765
3.44355,-2.40438,-0.030051,19,32765
3.44388,-2.42135,-0.0293629,18,32765
3.42786,-2.42673,-0.0282036,17,32765
3.4525,-2.46111,-0.0278756,17,32765
3.42026,-2.45462,-0.0268537,16,32765
3.46112,-2.50057,-0.026478,18,32765
3.45286,-2.51197,-0.0262053,18,32765
3.40432,-2.49366,-0.025294,17,32765
0,-0,-0,0,32765
0,-0,-0,0,32765
0,-0,-0,0,32765
0,-0,-0,0,32765
0,-0,-0,0,32765
0,-0,-0,0,32765
0,-0,-0,0,32765
0,-0,-0,0,32765
0,-0,-0,0,32765
0,-0,-0,0,32765
1.46529,-0.5019,-0.0593421,14,32765
0,-0,-0,0,32765
0,-0,-0,0,32765
0,-0,-0,0,32765
0,-0,-0,0,32765
0,-0,-0,0,32765
0,-0,-0,0,32765
0,-0,-0,0,32765
0,-0,-0,0,32765
0,-0,-0,0,32765
0,-0,-0,0,32765
0,-0,-0,0,32765
0,-0,-0,13,32765
0,-0,-0,12,32765
0,-0,-0,0,32765
0,-0,-0,0,32765
0,-0,-0,13,32765
0,-0,-0,15,32765
0,-0,-0,49,32765
0,-0,-0,0,32765
0,-0,-0,14,32765
0,-0,-0,20,32765
0,-0,-0,0,32765
0,-0,-0,0,32765
0,-0,-0,0,32765
0,-0,-0,0,32765
0,-0,-0,0,32765
0,-0,-0,0,32765
0,-0,-0,0,32765
0,-0,-0,0,32765
0,-0,-0,0,32765
0,-0,-0,0,32765
0,-0,-0,0,32765
0,-0,-0,0,32765
0,-0,-0,0,32765
0,-0,-0,0,32765
0,-0,-0,0,32765
0,-0,-0,0,32765
0,-0,-0,0,32765
0,-0,-0,0,32765
1.62635,-0.815653,-0.045858,15,32765
0,-0,-0,0,32765
1.71878,-0.876613,-0.0473694,14,32765
0,-0,-0,0,32765
0,-0,-0,0,32765
0,-0,-0,0,32765
1.70688,-0.899713,-0.0446528,17,32765
1.74802,-0.928857,-0.0453208,17,32765
1.76257,-0.944095,-0.0450734,17,32765
1.82978,-0.988009,-0.0461566,14,32765
0,-0,-0,0,32765
0,-0,-0,0,32765
0,-0,-0,0,32765
0,-0,-0,0,32765
0,-0,-0,0,32765
0,-0,-0,0,32765
0,-0,-0,0,32765
1.90674,-1.09661,-0.0421987,13,32765
1.89446,-1.09792,-0.0411852,15,32765
1.99438,-1.16479,-0.0426122,15,32765
1.87851,-1.10548,-0.0391272,14,32765
2.02102,-1.19846,-0.0411793,15,32765
3.15007,-1.88202,-0.0628985,12,32765
3.45234,-2.07792,-0.0673032,15,32765
3.40278,-2.06333,-0.0647642,16,32765
3.56669,-2.17871,-0.0662201,17,32765
3.39763,-2.09103,-0.061398,16,32765
3.41625,-2.11803,-0.0601189,16,32765
3.46862,-2.16639,-0.0593192,17,32765
3.4953,-2.19918,-0.0581025,18,32765
3.53877,-2.24275,-0.0567713,16,32765
3.50613,-2.23824,-0.0544335,18,32765
3.38951,-2.17936,-0.0506175,16,32765
3.42433,-2.21764,-0.0492997,18,32765
3.48406,-2.27257,-0.0482948,16,32765
3.48497,-2.28948,-0.0460696,16,32765
3.46907,-2.29548,-0.0437532,16,32765
3.41988,-2.27921,-0.0410033,16,32765
3.4207,-2.29602,-0.0388165,17,32765
3.44622,-2.32976,-0.0368761,16,32765
3.43866,-2.34095,-0.0346456,18,32765
3.38148,-2.31831,-0.0317127,17,32765
3.40683,-2.35207,-0.0295796,16,32765
3.5142,-2.44295,-0.0280459,16,32765
3.49793,-2.44882,-0.025271,18,32765
3.52269,-2.48318,-0.0230618,17,32765
3.46568,-2.45991,-0.0198621,16,32765
3.44979,-2.465,-0.0169823,17,32765
3.51484,-2.52876,-0.0144584,16,32765
3.49819,-2.53475,-0.0110653,16,32765
3.45754,-2.52264,-0.00744147,15,32765
0,-0,-0,0,32765
0,-0,-0,0,32765
0,-0,-0,0,32765
0,-0,-0,0,32765
