x, y, z, intensity, ring
0.757204,-0.0989845,0.0987091,15,32765
0.766693,-0.102845,0.100021,15,32765
0.776185,-0.106706,0.101244,15,32765
0.785641,-0.110663,0.102579,15,32765
0.795088,-0.114665,0.103862,14,32765
0.784888,-0.115825,0.102639,13,32765
0.833535,-0.125804,0.109053,12,32765
0,-0,0,0,32765
0,-0,0,0,32765
0,-0,0,0,32765
0,-0,0,0,32765
0.782386,-0.131534,0.102812,12,32765
0.742838,-0.127442,0.0977219,13,32765
0.752176,-0.13162,0.0990331,15,32765
0.761497,-0.135879,0.100298,15,32765
0.780529,-0.141971,0.10305,15,32765
0.750802,-0.139135,0.0991874,15,32765
0.779579,-0.147118,0.103017,15,32765
0.779084,-0.149671,0.103087,15,32765
0.778579,-0.152246,0.103132,15,32765
0.778064,-0.154818,0.103189,15,32765
0.806701,-0.163304,0.10708,15,32765
0.796436,-0.163984,0.105823,15,32765
0.795894,-0.166619,0.105786,15,32765
0.785623,-0.167233,0.104543,15,32765
0.785053,-0.169835,0.104634,14,32765
0.794164,-0.174587,0.105938,15,32765
0.812929,-0.181563,0.108545,15,32765
0.831673,-0.188626,0.111085,15,32765
0.811708,-0.186902,0.108616,15,32765
0.772472,-0.180523,0.103433,14,32765
0.800825,-0.189911,0.107301,15,32765
0.809843,-0.19483,0.108605,15,32765
0.818819,-0.199883,0.109916,15,32765
0.798904,-0.197833,0.107302,14,32765
0.79825,-0.200473,0.107269,14,32765
0.816803,-0.207991,0.109872,14,32765
0.806527,-0.208147,0.108575,15,32765
0.815437,-0.213258,0.109924,14,32765
0.78601,-0.208254,0.105916,14,32765
0.804489,-0.215916,0.108526,15,32765
0.81336,-0.221111,0.109795,14,32765
0.841335,-0.231617,0.113617,13,32765
0.974309,-0.271626,0.131684,12,32765
1.24063,-0.350272,0.167784,11,32765
1.43018,-0.408794,0.193544,11,32765
1.50509,-0.435457,0.203679,12,32765
0,-0,0,0,32765
0,-0,0,0,32765
1.39634,-0.418694,0.189256,12,32765
1.50889,-0.457692,0.2046,12,32765
1.4411,-0.442113,0.195359,11,32765
0,-0,0,0,32765
0,-0,0,11,32765
0,-0,0,0,32765
0,-0,0,0,32765
0,-0,0,0,32765
0,-0,0,11,32765
0,-0,0,0,32765
0.774339,0.00792107,0.0934691,15,32765
0.784257,0.00535421,0.0949323,15,32765
0.774314,0.00271692,0.0939711,15,32765
0.814005,0.000247544,0.0989724,15,32765
0.794132,-0.00226528,0.0966894,15,32765
0.823889,-0.00505222,0.100408,15,32765
0.784143,-0.00740718,0.0957352,14,32765
0.794025,-0.0101397,0.0970628,14,32765
0.8436,-0.0135558,0.103221,14,32765
0.82369,-0.0159261,0.100905,14,32765
0.813696,-0.0184061,0.0997992,14,32765
0.843391,-0.0218243,0.103514,15,32765
0,-0,0,0,32765
0,-0,0,0,32765
0.823269,-0.0295083,0.101279,13,32765
0.872752,-0.0342272,0.107385,14,32765
0.892456,-0.0379643,0.109917,14,32765
0.842743,-0.0386032,0.103891,14,32765
0.852515,-0.0418438,0.105201,14,32765
0.802811,-0.042007,0.0991445,14,32765
0.862121,-0.0479552,0.106526,14,32765
0.842142,-0.0496202,0.104088,14,32765
0.782538,-0.0486883,0.0967655,14,32765
0.703146,-0.0460643,0.0869684,14,32765
0.693083,-0.0476839,0.0858057,14,32765
0.603829,-0.0435703,0.0747805,14,32765
0.692749,-0.0523215,0.0857952,15,32765
0.712351,-0.0562205,0.0882922,15,32765
0.712166,-0.0585799,0.0882524,15,32765
0.731738,-0.0626118,0.0907678,15,32765
0.751293,-0.0667548,0.0932835,15,32765
0.721432,-0.0664598,0.0895473,15,32765
0.731084,-0.0697913,0.0908038,15,32765
0.740727,-0.0732165,0.0919971,15,32765
0.760215,-0.0777384,0.0944951,15,32765
0.720471,-0.0761127,0.0896022,15,32765
0.739957,-0.0806347,0.0919857,15,32765
0.729819,-0.0819591,0.0908112,15,32765
0.680255,-0.0786413,0.0846662,14,32765
0.729281,-0.0867401,0.0906944,15,32765
0.748679,-0.0915722,0.0932462,15,32765
0.699133,-0.0878848,0.0871148,13,32765
0.856323,-0.110533,0.106736,12,32765
0,-0,0,0,32765
0,-0,0,0,32765
0,-0,0,0,32765
0,-0,0,0,32765
0.71689,-0.104623,0.0895672,11,32765
0.706716,-0.105558,0.0883711,13,32765
0.716168,-0.109426,0.0896057,14,32765
0.755022,-0.117957,0.0944856,15,32765
0.735029,-0.117344,0.0919898,15,32765
0.744438,-0.121366,0.0931809,15,32765
0.724444,-0.120559,0.0908103,15,32765
0.733822,-0.124628,0.0920454,16,32765
0.743184,-0.12877,0.0932488,16,32765
0.742741,-0.131267,0.0932961,16,32765
0.693468,-0.124934,0.087144,16,32765
0.732103,-0.134367,0.0920333,16,32765
0.74141,-0.138573,0.0933201,16,32765
0.750699,-0.142849,0.0945764,16,32765
0.740478,-0.143431,0.0933826,16,32765
0.720526,-0.142041,0.0909212,16,32765
0.749235,-0.150273,0.0946876,16,32765
0.729273,-0.148823,0.092267,16,32765
0.738477,-0.153289,0.093564,15,32765
0.757372,-0.159834,0.0961252,15,32765
0.718039,-0.153972,0.0911696,15,32765
0.756312,-0.16475,0.0961755,15,32765
0.746066,-0.165098,0.0950183,14,32765
0.745498,-0.167587,0.0951193,15,32765
0.764276,-0.17449,0.0976472,14,32765
0.744337,-0.172558,0.0953181,14,32765
0.753422,-0.17725,0.0966317,15,32765
0.752834,-0.179692,0.0967006,15,32765
0.723299,-0.175116,0.0931326,14,32765
0.76126,-0.186934,0.0981766,14,32765
0.770269,-0.19179,0.0995126,15,32765
0.760003,-0.19185,0.0984354,14,32765
0.730526,-0.186939,0.094794,15,32765
0.749098,-0.194297,0.0974738,14,32765
0.777242,-0.204265,0.101342,14,32765
0.78614,-0.209354,0.102737,15,32765
0.785434,-0.211888,0.102939,14,32765
0.746444,-0.203979,0.098055,14,32765
0.755305,-0.209072,0.0995166,14,32765
0.792815,-0.222216,0.104711,14,32765
0.801612,-0.227493,0.106135,13,32765
1.14406,-0.328668,0.152028,12,32765
1.26675,-0.368385,0.168961,12,32765
1.34163,-0.394889,0.179407,11,32765
1.44486,-0.430346,0.193867,11,32765
1.35795,-0.409198,0.18281,12,32765
1.41352,-0.430832,0.19093,12,32765
1.47839,-0.455777,0.200554,11,32765
0,-0,0,0,32765
0,-0,0,0,32765
0,-0,0,0,32765
0,-0,0,0,32765
0,-0,0,0,32765
0,-0,0,0,32765
0.814938,0.0084201,0.0905788,16,32765
0.844746,0.00584912,0.094178,16,32765
0.824856,0.00296967,0.0922181,15,32765
0.82484,0.000321756,0.0924028,15,32765
0.824822,-0.00228636,0.0925388,15,32765
0.844674,-0.0051164,0.0948633,15,32765
0.854569,-0.00801322,0.0961607,15,32765
0.854524,-0.0108579,0.0962853,15,32765
0.844537,-0.0135219,0.0952573,15,32765
0.874281,-0.0168585,0.0987388,15,32765
0.874207,-0.0197341,0.0988572,14,32765
0.864197,-0.0223271,0.0977986,15,32765
0.953505,-0.0277884,0.107961,12,32765
0,-0,0,0,32765
0.844048,-0.0302329,0.0957569,13,32765
0.863798,-0.0338605,0.0980146,15,32765
0.833889,-0.0354627,0.0947198,14,32765
0.853611,-0.0390953,0.0970566,15,32765
0.853468,-0.0418897,0.0971442,15,32765
0.863243,-0.0451731,0.0983385,15,32765
0.853165,-0.0474659,0.0972449,15,32765
0.892677,-0.0526122,0.10178,15,32765
0.76358,-0.0475255,0.0871025,13,32765
0.76342,-0.050034,0.0871047,15,32765
0.713682,-0.0491249,0.0815126,15,32765
0.723423,-0.0522281,0.0826531,15,32765
0.653893,-0.0494163,0.07471,14,32765
0.703242,-0.0555375,0.080415,15,32765
0.703058,-0.0578709,0.0803757,15,32765
0.742454,-0.0635753,0.0849688,15,32765
0.732339,-0.0651208,0.0838969,15,32765
0.712343,-0.0656754,0.0815762,15,32765
0.76157,-0.0727628,0.0872723,15,32765
0.751438,-0.0743401,0.0861046,14,32765
0.711642,-0.072837,0.0816147,13,32765
0.829957,-0.0877608,0.0952356,12,32765
0,-0,0,0,32765
0,-0,0,0,32765
0,-0,0,0,32765
0,-0,0,0,32765
0.719921,-0.0881471,0.0827278,12,32765
0.749195,-0.0942784,0.086131,13,32765
0.729171,-0.0942227,0.0838559,14,32765
0.758395,-0.100574,0.0873055,15,32765
0.767906,-0.104417,0.0884124,15,32765
0.767561,-0.106963,0.0883647,15,32765
0.747534,-0.106679,0.0860985,15,32765
0.727508,-0.106297,0.0838632,15,32765
0.746796,-0.111676,0.0861625,15,32765
0.726773,-0.111179,0.0839025,15,32765
0.746031,-0.116694,0.0861405,15,32765
0.765264,-0.122321,0.0883642,15,32765
0.725636,-0.118447,0.0837982,15,32765
0.725232,-0.120841,0.0838799,15,32765
0.773799,-0.131584,0.0895559,16,32765
0.753779,-0.130773,0.0872646,16,32765
0.743546,-0.131579,0.0861788,16,32765
0.703995,-0.126995,0.0816287,16,32765
0.771981,-0.141872,0.0895436,16,32765
0.742209,-0.138905,0.0862031,16,32765
0.761267,-0.145052,0.0885005,16,32765
0.770534,-0.149452,0.0896711,16,32765
0.750541,-0.148157,0.0873969,16,32765
0.759778,-0.152594,0.0886137,16,32765
0.730053,-0.149185,0.0852444,15,32765
0.758721,-0.157707,0.0887229,16,32765
0.73874,-0.156117,0.0865446,16,32765
0.757658,-0.162694,0.0887948,16,32765
0.766823,-0.167273,0.0900122,16,32765
0.775957,-0.171953,0.0912305,15,32765
0.755981,-0.170184,0.0890524,15,32765
0.765086,-0.174923,0.0902515,15,32765
0.76448,-0.17748,0.0903986,15,32765
0.763888,-0.17997,0.0904755,15,32765
0.743967,-0.177831,0.0882532,14,32765
0.772333,-0.187257,0.0918533,15,32765
0.771709,-0.189775,0.0919314,15,32765
0.790356,-0.197078,0.0943255,15,32765
0.789693,-0.199636,0.094499,15,32765
0.769782,-0.197273,0.0922961,15,32765
0.807568,-0.20977,0.0971108,15,32765
0.778057,-0.204781,0.0937621,15,32765
0.786964,-0.209884,0.0950639,15,32765
0.776668,-0.209835,0.0941046,15,32765
0.785544,-0.214984,0.095411,15,32765
0.794378,-0.220217,0.0967897,15,32765
0.812767,-0.228151,0.0992814,15,32765
0.802449,-0.228073,0.0982765,15,32765
0.811219,-0.233402,0.0997353,14,32765
0.791351,-0.230483,0.0976778,15,32765
0.790579,-0.233048,0.0978449,14,32765
0.818339,-0.24411,0.101644,15,32765
0.798511,-0.240986,0.0995291,14,32765
0.835699,-0.255106,0.104535,12,32765
0,-0,0,0,32765
0,-0,0,0,32765
0,-0,0,0,32765
0,-0,0,0,32765
0,-0,0,0,32765
0,-0,0,0,32765
0,-0,0,11,32765
0.774901,0.00763631,0.0887157,16,32765
0.804777,0.00519704,0.091688,16,32765
0.775022,0.00236606,0.0879486,15,32765
0.794931,-0.000190446,0.0899142,16,32765
0.785018,-0.00272859,0.088536,15,32765
0.785049,-0.00526888,0.0881493,15,32765
0.834739,-0.00835586,0.0934893,16,32765
0.824795,-0.0109678,0.0921583,14,32765
0.794964,-0.0131677,0.0886519,14,32765
0.785011,-0.0155792,0.0872611,14,32765
0.804838,-0.018625,0.0893845,14,32765
0.85448,-0.0225838,0.0946244,14,32765
0,-0,0,0,32765
0,-0,0,0,32765
0.81454,-0.0296694,0.0896927,15,32765
0.794586,-0.0316005,0.0873712,15,32765
0.844137,-0.0363894,0.0927778,15,32765
0.824178,-0.038224,0.0903848,14,32765
0.82406,-0.0409053,0.0902855,15,32765
0.814022,-0.0430334,0.0889747,15,32765
0.823808,-0.0462286,0.0900191,15,32765
0.803818,-0.0477378,0.087739,13,32765
0.704454,-0.0441475,0.0767829,14,32765
0.714236,-0.0470999,0.077773,15,32765
0.684332,-0.0473957,0.0744531,15,32765
0.703996,-0.0511154,0.0766566,15,32765
0.634436,-0.0481872,0.0690534,14,32765
0.703658,-0.055786,0.0765114,14,32765
0.584574,-0.0482809,0.0635812,13,32765
0.762709,-0.0655415,0.08294,11,32765
0,-0,0,0,32765
0,-0,0,0,32765
0,-0,0,11,32765
0.633187,-0.0628417,0.0687376,11,32765
0.573638,-0.0588461,0.0622605,13,32765
0.672312,-0.071202,0.0729809,14,32765
0.731382,-0.0798962,0.0793534,15,32765
0.721238,-0.0812122,0.07823,15,32765
0.661699,-0.0767193,0.0718916,15,32765
0.700944,-0.0836057,0.0760731,15,32765
0.720392,-0.0883285,0.0783171,15,32765
0.680639,-0.0857134,0.0740507,14,32765
0.70007,-0.0905149,0.0762142,15,32765
0.689913,-0.0915223,0.0751265,15,32765
0.709297,-0.0965123,0.0773519,15,32765
0.689281,-0.0961211,0.0751799,15,32765
0.698789,-0.0998302,0.0763391,15,32765
0.708291,-0.103615,0.0773776,15,32765
0.688263,-0.103057,0.0753206,14,32765
0.72722,-0.111384,0.0796519,15,32765
0.717021,-0.112277,0.0785818,15,32765
0.716634,-0.114701,0.0786131,15,32765
0.696618,-0.113863,0.0765367,15,32765
0.706035,-0.117807,0.0776896,15,32765
0.715438,-0.121815,0.0788018,15,32765
0.705242,-0.122465,0.0776916,15,32765
0.66567,-0.117897,0.0733771,15,32765
0.704402,-0.12716,0.077773,16,32765
0.703968,-0.129504,0.0778281,16,32765
0.713304,-0.13367,0.0789317,15,32765
0.712848,-0.13603,0.0790135,16,32765
0.702644,-0.13648,0.0778781,16,32765
0.711932,-0.140731,0.0790427,16,32765
0.721208,-0.145035,0.0801466,16,32765
0.681768,-0.139467,0.0757725,16,32765
0.691027,-0.143746,0.0769319,15,32765
0.690538,-0.146062,0.0769583,16,32765
0.748355,-0.160892,0.0835403,15,32765
0.718684,-0.157001,0.0802728,15,32765
0.747264,-0.165857,0.0835958,15,32765
0.737013,-0.166157,0.0824849,14,32765
0.726758,-0.166398,0.0814567,15,32765
0.745571,-0.17332,0.083571,15,32765
0.696613,-0.164348,0.0782331,15,32765
0.71541,-0.171244,0.0803986,15,32765
0.753493,-0.182952,0.0847152,15,32765
0.733579,-0.180638,0.0826505,15,32765
0.732984,-0.183031,0.0826696,15,32765
0.742019,-0.187858,0.0837706,14,32765
0.731784,-0.187792,0.0826232,15,32765
0.721547,-0.187673,0.0815403,15,32765
0.720931,-0.190013,0.0815659,14,32765
0.739525,-0.197468,0.0837224,15,32765
0.738881,-0.199861,0.0837309,15,32765
0.757398,-0.207538,0.0858815,15,32765
0.727978,-0.202061,0.082578,14,32765
0.736886,-0.207137,0.0836261,15,32765
0.726662,-0.206776,0.0825001,15,32765
0.716435,-0.20638,0.081417,15,32765
0.706241,-0.20588,0.0802311,15,32765
0.753251,-0.222203,0.0856696,14,32765
0.733492,-0.218921,0.0834469,15,32765
0.742328,-0.224098,0.0844352,14,32765
0.741643,-0.22638,0.0843634,13,32765
0,-0,0,0,32765
0,-0,0,0,32765
0,-0,0,0,32765
0,-0,0,0,32765
0,-0,0,0,32765
0,-0,0,0,32765
0,-0,0,0,32765
0.855262,0.0085118,0.0897508,16,32765
0.875226,0.00573186,0.0913596,15,32765
0.825549,0.00259037,0.0858027,15,32765
0.865371,-0.000139213,0.0896225,15,32765
0.81566,-0.00277583,0.0842076,14,32765
0.815688,-0.00542028,0.0838058,14,32765
0.845532,-0.00841287,0.0866297,14,32765
0.845523,-0.0111976,0.0864061,14,32765
0.845501,-0.0139641,0.0862196,15,32765
0.835534,-0.0165467,0.0849044,15,32765
0.84543,-0.019534,0.0858251,15,32765
0.835443,-0.0220558,0.0845438,15,32765
0,-0,0,0,32765
0,-0,0,0,32765
0.845179,-0.030776,0.0849998,15,32765
0.845086,-0.0336046,0.0848574,15,32765
0.825093,-0.0355693,0.0828078,15,32765
0.854812,-0.0396509,0.0855831,15,32765
0.824874,-0.0409566,0.0824982,15,32765
0.874444,-0.0462447,0.0872285,15,32765
0.874294,-0.0490839,0.0871853,14,32765
0.824474,-0.0489905,0.0821178,11,32765
0,-0,0,11,32765
0,-0,0,0,32765
0,-0,0,0,32765
0,-0,0,0,32765
0,-0,0,0,32765
0.575378,-0.0456553,0.0570602,13,32765
0.604977,-0.0500111,0.0600129,13,32765
0.694045,-0.059697,0.0688319,15,32765
0.683945,-0.0611084,0.0677149,15,32765
0.663925,-0.0615404,0.0656998,15,32765
0.703346,-0.067558,0.0695674,15,32765
0.693216,-0.0688726,0.0686136,15,32765
0.712788,-0.0732004,0.0705331,15,32765
0.682855,-0.0723992,0.0675799,15,32765
0.662833,-0.0724902,0.0655604,15,32765
0.682371,-0.0769249,0.0674692,15,32765
0.711761,-0.0826209,0.0705011,15,32765
0.721378,-0.0861462,0.0713666,15,32765
0.681569,-0.08367,0.0675518,14,32765
0.720784,-0.0908809,0.0714943,15,32765
0.720477,-0.0932698,0.0715119,15,32765
0.680704,-0.090415,0.0675795,15,32765
0.69025,-0.094041,0.0686358,15,32765
0.729361,-0.101842,0.0725333,15,32765
0.689601,-0.0986465,0.0686967,15,32765
0.679422,-0.0995235,0.0676802,15,32765
0.708598,-0.106244,0.0707181,15,32765
0.708235,-0.108622,0.0707447,15,32765
0.698035,-0.109453,0.0697683,15,32765
0.727135,-0.116541,0.0727481,15,32765
0.716916,-0.117342,0.0718448,15,32765
0.745961,-0.124642,0.0748766,15,32765
0.71611,-0.1221,0.0719543,15,32765
0.735316,-0.127867,0.0738936,15,32765
0.705486,-0.125127,0.0709398,15,32765
0.70506,-0.127461,0.0710196,15,32765
0.724199,-0.133417,0.0730492,15,32765
0.75309,-0.14133,0.0760346,15,32765
0.742834,-0.141958,0.0751325,15,32765
0.7326,-0.142507,0.0740888,15,32765
0.693069,-0.137204,0.0702183,14,32765
0.731631,-0.147349,0.0741959,15,32765
0.692145,-0.1418,0.0701964,15,32765
0.701405,-0.146123,0.0712633,15,32765
0.720378,-0.152602,0.0732705,15,32765
0.690675,-0.148716,0.0703727,15,32765
0.709621,-0.155257,0.0723426,15,32765
0.75766,-0.168421,0.0773674,15,32765
0.74739,-0.168755,0.0763501,15,32765
0.737117,-0.16903,0.0754166,15,32765
0.765629,-0.178258,0.0783343,15,32765
0.76503,-0.180769,0.078432,15,32765
0.774113,-0.185585,0.0794167,15,32765
0.783176,-0.190458,0.0803792,15,32765
0.724576,-0.178702,0.0745315,15,32765
0.752946,-0.188313,0.0775326,15,32765
0.74268,-0.188324,0.076552,15,32765
0.742071,-0.190735,0.0764919,15,32765
0.751073,-0.195665,0.0774899,15,32765
0.731188,-0.193026,0.0755291,15,32765
0.749787,-0.200532,0.0774981,15,32765
0.739528,-0.200359,0.0765132,15,32765
0.738868,-0.20279,0.0764898,15,32765
0.747785,-0.207897,0.0774401,15,32765
0.737523,-0.207656,0.076409,14,32765
0.765566,-0.218204,0.0793441,15,32765
0.755292,-0.217932,0.078355,15,32765
0.7355,-0.214764,0.0762671,15,32765
0.801606,-0.23686,0.0832193,14,32765
0.943859,-0.282177,0.0980109,12,32765
0.952503,-0.288028,0.0988787,12,32765
0.961137,-0.293872,0.0997747,12,32765
0,-0,0,0,32765
0,-0,0,0,32765
0,-0,0,0,32765
0,-0,0,0,32765
0,-0,0,0,32765
0,-0,0,0,32765
0,-0,0,0,32765
0.75689,0.00894148,0.0680978,15,32765
0.766855,0.00647569,0.0692246,15,32765
0.776817,0.00398952,0.0702795,15,32765
0.746934,0.00134511,0.0677371,15,32765
0.796709,-0.0012032,0.0724802,15,32765
0.786729,-0.0038223,0.0717097,15,32765
0.796665,-0.00648763,0.0726827,15,32765
0.786673,-0.00893449,0.0718691,15,32765
0.776672,-0.0113741,0.0710687,15,32765
0.786579,-0.0141149,0.0720745,14,32765
0.756644,-0.0161183,0.0694998,13,32765
0,-0,0,0,32765
0,-0,0,0,32765
0,-0,0,0,32765
0,-0,0,0,32765
0,-0,0,0,32765
0,-0,0,0,32765
0,-0,0,0,32765
0,-0,0,0,32765
0,-0,0,0,32765
0.785477,-0.0428313,0.0727416,11,32765
0.725687,-0.0419622,0.067215,14,32765
0.735487,-0.0449185,0.0681258,15,32765
0.705524,-0.0453848,0.0653917,15,32765
0.725246,-0.0490087,0.0672005,15,32765
0.725068,-0.0514454,0.0673059,15,32765
0.724883,-0.053876,0.0673927,15,32765
0.714772,-0.0555109,0.0664747,15,32765
0.764202,-0.0619246,0.0711356,14,32765
0.724305,-0.0611037,0.067446,13,32765
0.664586,-0.0582713,0.0618828,13,32765
0.713973,-0.0650035,0.0664638,14,32765
0.733571,-0.0692202,0.0684242,14,32765
0.723432,-0.0706804,0.0674523,15,32765
0.703375,-0.0710611,0.0656843,15,32765
0.683326,-0.0713475,0.0638346,15,32765
0.653387,-0.0704398,0.0610172,15,32765
0.712528,-0.0792484,0.0665124,16,32765
0.692471,-0.0793709,0.0646836,16,32765
0.682311,-0.0805032,0.0638077,15,32765
0.652388,-0.0791547,0.0610233,15,32765
0.711415,-0.0886948,0.0664931,16,32765
0.671616,-0.0859637,0.0627845,16,32765
0.661456,-0.0868898,0.061857,15,32765
0.631558,-0.0850932,0.0591098,15,32765
0.670722,-0.0926485,0.06284,15,32765
0.660551,-0.0934827,0.0619152,15,32765
0.660231,-0.0956931,0.0619543,15,32765
0.630361,-0.0935265,0.0591377,15,32765
0.649728,-0.0986111,0.0610711,15,32765
0.619871,-0.0962235,0.0583146,15,32765
0.688378,-0.109225,0.0648539,15,32765
0.678185,-0.109923,0.0638899,15,32765
0.677816,-0.112181,0.0638779,15,32765
0.638175,-0.107755,0.0601822,15,32765
0.647617,-0.111603,0.0611292,14,32765
0.68646,-0.120691,0.0648585,15,32765
0.68605,-0.122973,0.0649093,15,32765
0.617071,-0.112723,0.0584537,14,32765
0.685223,-0.127458,0.0649906,15,32765
0.684798,-0.129717,0.0649993,15,32765
0.694137,-0.133865,0.0659912,15,32765
0.66438,-0.13039,0.0632233,15,32765
0.683464,-0.136511,0.0651314,15,32765
0.673249,-0.136769,0.0642597,15,32765
0.682531,-0.141033,0.0652807,15,32765
0.691799,-0.145365,0.0662042,15,32765
0.710779,-0.15181,0.0681713,15,32765
0.690808,-0.149929,0.0663776,15,32765
0.661141,-0.145747,0.0636458,15,32765
0.709228,-0.158815,0.0683666,15,32765
0.689276,-0.156745,0.0665589,15,32765
0.679048,-0.156741,0.0657692,15,32765
0.69791,-0.163513,0.0677114,15,32765
0.72642,-0.172681,0.070675,15,32765
0.696808,-0.168073,0.0678987,15,32765
0.715581,-0.175097,0.0698907,15,32765
0.705336,-0.175028,0.0690412,15,32765
0.695094,-0.174908,0.0682065,14,32765
0.713798,-0.18208,0.0702851,15,32765
0.703543,-0.181927,0.0694978,14,32765
0.72219,-0.189287,0.0714953,15,32765
0.711926,-0.189091,0.070751,15,32765
0.730519,-0.196575,0.0727991,15,32765
0.720272,-0.196288,0.0719674,15,32765
0.700418,-0.193325,0.0702854,14,32765
0.74771,-0.208985,0.075204,15,32765
0.718272,-0.203263,0.0725884,15,32765
0.71758,-0.205628,0.0727774,15,32765
0.707336,-0.205149,0.0720421,14,32765
0.821242,-0.241072,0.0839375,13,32765
0.982603,-0.291939,0.100813,12,32765
0.981633,-0.295084,0.101102,11,32765
0.961605,-0.292418,0.099536,12,32765
0,-0,0,0,32765
1.50126,-0.466958,0.156759,11,32765
0,-0,0,0,32765
0,-0,0,0,32765
0,-0,0,0,32765
0,-0,0,0,32765
0,-0,0,0,32765
0,0,0,0,32765
0,0,0,0,32765
0,0,0,0,32765
0,0,0,0,32765
0,-0,0,0,32765
0,-0,0,0,32765
0,-0,0,0,32765
0.767385,-0.00868347,0.062813,12,32765
0.757378,-0.0110646,0.0621039,12,32765
0.827083,-0.0148174,0.0679234,12,32765
0.896762,-0.0190823,0.0738442,12,32765
1.15574,-0.0284607,0.0951527,11,32765
0,-0,0,0,32765
0,-0,0,0,32765
0,-0,0,0,32765
0,-0,0,0,32765
0,-0,0,0,32765
0,-0,0,0,32765
0.875993,-0.0419345,0.0726498,13,32765
0.915657,-0.0469199,0.0759674,16,32765
0.756273,-0.0412682,0.0628373,13,32765
0.795929,-0.0460598,0.0661424,15,32765
0.795777,-0.0486414,0.0661317,15,32765
0.775722,-0.049945,0.064509,15,32765
0.765616,-0.0517854,0.0636469,15,32765
0,-0,0,0,32765
0,-0,0,0,32765
0,-0,0,0,32765
0,-0,0,0,32765
0,-0,0,11,32765
0.684987,-0.0601296,0.0572464,14,32765
0.754256,-0.0687525,0.0630148,16,32765
0.833386,-0.078734,0.0697777,13,32765
0.80337,-0.0785874,0.0672333,16,32765
0.72378,-0.0732146,0.0606753,15,32765
0.713619,-0.0746057,0.0598448,15,32765
0.70346,-0.0759365,0.0589685,15,32765
0.703204,-0.0783146,0.0589175,15,32765
0.712835,-0.0818144,0.0597667,16,32765
0.712555,-0.0841855,0.059817,16,32765
0.722167,-0.087741,0.0606367,15,32765
0.72188,-0.0901242,0.0605578,15,32765
0.701813,-0.0899545,0.0588835,16,32765
0.731152,-0.0961811,0.0613671,15,32765
0.67157,-0.0906136,0.0564154,15,32765
0.691004,-0.0955877,0.0581116,15,32765
0.690681,-0.0978889,0.058111,15,32765
0.700208,-0.101636,0.0589828,16,32765
0.709723,-0.105457,0.0597657,16,32765
0.669951,-0.101832,0.0565335,16,32765
0.669601,-0.104099,0.0565546,15,32765
0.669242,-0.106349,0.056613,15,32765
0.678723,-0.110178,0.0574081,15,32765
0.688184,-0.114071,0.058228,15,32765
0.697634,-0.117976,0.059068,15,32765
0.697228,-0.120338,0.0590908,15,32765
0.667371,-0.117518,0.056618,15,32765
0.696397,-0.125023,0.0591675,15,32765
0.686172,-0.125542,0.0583736,15,32765
0.734742,-0.136885,0.0625884,15,32765
0.704913,-0.133739,0.0600939,15,32765
0.665324,-0.128513,0.0568163,15,32765
0.674674,-0.132622,0.0576727,15,32765
0.693765,-0.138791,0.0593938,15,32765
0.683535,-0.139083,0.0586171,15,32765
0.702574,-0.14541,0.0603843,15,32765
0.702083,-0.147766,0.0603753,15,32765
0.721069,-0.15426,0.0621562,15,32765
0.6816,-0.148173,0.0588696,15,32765
0.710297,-0.156842,0.061471,15,32765
0.700046,-0.157018,0.0606696,15,32765
0.718947,-0.163764,0.0624232,15,32765
0.747522,-0.172833,0.0651167,15,32765
0.737242,-0.173017,0.0643378,15,32765
0.746357,-0.177717,0.0653308,15,32765
0.70702,-0.170823,0.0619886,15,32765
0.716121,-0.175525,0.062944,15,32765
0.725206,-0.180262,0.0638924,15,32765
0.685955,-0.172901,0.0605946,15,32765
0.723987,-0.184993,0.0641952,15,32765
0.713715,-0.184872,0.0635043,15,32765
0.703458,-0.184692,0.0627374,15,32765
0.66432,-0.176748,0.0594949,14,32765
0.731065,-0.19706,0.0656669,15,32765
0.720809,-0.196772,0.0649293,15,32765
0.729745,-0.201767,0.0660423,15,32765
0.767451,-0.214873,0.0696258,13,32765
0.805063,-0.228219,0.0734176,12,32765
0.919184,-0.263856,0.0841482,12,32765
0.937437,-0.272358,0.0862131,12,32765
0.993866,-0.292254,0.0917495,12,32765
0.992877,-0.295506,0.0920358,11,32765
1.01097,-0.304435,0.0941044,12,32765
1.21004,-0.368611,0.113247,12,32765
1.31353,-0.404666,0.123593,12,32765
1.28367,-0.39998,0.121279,12,32765
0,-0,0,0,32765
0,-0,0,0,32765
0,-0,0,0,32765
0,-0,0,0,32765
0,-0,0,0,32765
0.737372,0.00836135,0.0617511,13,32765
0,0,0,0,32765
0,0,0,0,32765
0,0,0,0,32765
0,-0,0,0,32765
0,-0,0,0,32765
0.707639,-0.0060848,0.057537,12,32765
0.737529,-0.00878757,0.0597772,13,32765
0.75745,-0.0114849,0.0611377,13,32765
0.847118,-0.0156462,0.0681658,12,32765
0,-0,0,0,32765
0,-0,0,0,32765
0,-0,0,0,32765
0,-0,0,0,32765
0,-0,0,11,32765
0.936388,-0.0358071,0.0741291,12,32765
0.856594,-0.0355971,0.0676788,14,32765
0.886363,-0.0397799,0.0698497,16,32765
0.916106,-0.0441519,0.072116,17,32765
0.935877,-0.0482526,0.0735197,14,32765
0.726679,-0.0398539,0.0570057,15,32765
0.736501,-0.0428197,0.0577297,15,32765
0.726417,-0.0446313,0.0568049,15,32765
0.736222,-0.0476274,0.0575254,15,32765
0.895219,-0.0608686,0.0698429,12,32765
0,-0,0,0,32765
0,-0,0,0,32765
0,-0,0,0,32765
0,-0,0,0,32765
0,-0,0,0,32765
0,-0,0,0,32765
0.724813,-0.0661645,0.0562841,12,32765
0.923104,-0.0873911,0.0717063,12,32765
0.734282,-0.0719647,0.0570183,16,32765
0.674523,-0.0683877,0.052367,15,32765
0.704041,-0.0737393,0.0546679,15,32765
0.664142,-0.0717889,0.0515964,15,32765
0.673804,-0.0751185,0.0524004,15,32765
0.663647,-0.0761995,0.0516354,15,32765
0.673293,-0.0795734,0.0523839,15,32765
0.663125,-0.0806064,0.0516491,15,32765
0.692534,-0.0864982,0.0539862,15,32765
0.652684,-0.0837484,0.050889,14,32765
0.68206,-0.0897968,0.0532072,14,32765
0.701515,-0.0947429,0.0547706,14,32765
0.632066,-0.087489,0.0493758,14,32765
0.671265,-0.0951666,0.0524105,14,32765
0.680807,-0.0988416,0.0532145,16,32765
0.650883,-0.0966889,0.0510133,15,32765
0.620979,-0.0943771,0.0487607,16,32765
0.650217,-0.101057,0.0510448,15,32765
0.640016,-0.101705,0.0503499,16,32765
0.610135,-0.0991096,0.0480892,16,32765
0.629465,-0.104411,0.0497223,15,32765
0.61928,-0.104858,0.0489598,16,32765
0.628752,-0.108609,0.049751,15,32765
0.648024,-0.114133,0.0513679,15,32765
0.637818,-0.114538,0.0506921,15,32765
0.60802,-0.111244,0.0483411,15,32765
0.637044,-0.118758,0.0507125,15,32765
0.656227,-0.124586,0.0523845,15,32765
0.606869,-0.117302,0.0484836,15,32765
0.674942,-0.132811,0.0539865,15,32765
0.654947,-0.131112,0.0524804,14,32765
0.67404,-0.13729,0.0540578,14,32765
0.615005,-0.127395,0.0493863,14,32765
0.65359,-0.13768,0.0525775,15,32765
0.662866,-0.141982,0.0533834,16,32765
0.633164,-0.137823,0.0510745,15,32765
0.652162,-0.144256,0.0526771,14,32765
0.700322,-0.157301,0.0566202,14,32765
0.641481,-0.146287,0.0519843,15,32765
0.68956,-0.159639,0.0558719,15,32765
0.669619,-0.157324,0.0543995,15,32765
0.669098,-0.159531,0.0543797,15,32765
0.687953,-0.166398,0.0559645,15,32765
0.677713,-0.166296,0.0552344,15,32765
0.657809,-0.163733,0.0536532,15,32765
0.647598,-0.163456,0.0529106,15,32765
0.608432,-0.155691,0.0497048,15,32765
0.646517,-0.167694,0.0528609,15,32765
0.732744,-0.192581,0.0599883,14,32765
0.722479,-0.192409,0.0591833,12,32765
0.962476,-0.259616,0.0789944,12,32765
0.990477,-0.270636,0.0813111,11,32765
0.893515,-0.247264,0.0734276,11,32765
0.950303,-0.266308,0.0781238,12,32765
0.968615,-0.274866,0.0795797,12,32765
0.967722,-0.277969,0.0796755,12,32765
1.02426,-0.297793,0.0843385,12,32765
0.975495,-0.286958,0.0804022,12,32765
1.25168,-0.372511,0.103141,12,32765
1.32686,-0.399506,0.109296,12,32765
1.26838,-0.386275,0.104477,11,32765
1.24808,-0.384444,0.102905,12,32765
1.19929,-0.373554,0.0987444,12,32765
1.24568,-0.392265,0.102546,12,32765
1.27296,-0.405248,0.104631,12,32765
1.25274,-0.403072,0.102838,12,32765
1.24199,-0.403968,0.101804,12,32765
1.21236,-0.398425,0.0991912,12,32765
0.817696,0.00933691,0.0607157,13,32765
0.76789,0.00617054,0.056634,14,32765
0.887611,0.00416847,0.0650302,12,32765
0,0,0,0,32765
0,-0,0,0,32765
0,-0,0,0,32765
0,-0,0,0,32765
0,-0,0,0,32765
0,-0,0,11,32765
0,-0,0,0,32765
1.00725,-0.0219259,0.0712206,12,32765
0.907459,-0.0227863,0.0640199,15,32765
0,-0,0,0,32765
0,-0,0,0,32765
0.907235,-0.0317479,0.06338,17,32765
0.927076,-0.0354697,0.0645915,18,32765
0.936931,-0.0389608,0.0651314,17,32765
0.926844,-0.0416278,0.0642399,17,32765
0.926707,-0.0447,0.0641506,17,32765
0.836896,-0.0431883,0.0577959,13,32765
0.806872,-0.044295,0.0556325,15,32765
0.796767,-0.0463712,0.0548842,15,32765
0.776705,-0.0477727,0.0533574,15,32765
0.746683,-0.0483586,0.0512467,15,32765
0.776387,-0.0528506,0.0531922,15,32765
0.72646,-0.0518403,0.0496773,15,32765
0.736232,-0.0549986,0.0503791,13,32765
0,-0,0,0,32765
0,-0,0,0,32765
0,-0,0,0,32765
0.745392,-0.0656333,0.0508176,12,32765
0.745173,-0.068117,0.0507702,15,32765
0.98332,-0.0932225,0.0670188,11,32765
0.992939,-0.0974535,0.067644,11,32765
0.744457,-0.0755871,0.0507019,15,32765
0.73428,-0.0770188,0.0500161,15,32765
0.734019,-0.0794594,0.0500256,15,32765
0.694083,-0.0774949,0.0473564,15,32765
0.723559,-0.0832039,0.0493922,15,32765
0.693556,-0.082093,0.0473396,15,32765
0.713084,-0.0868124,0.0487305,13,32765
0,-0,0,0,32765
0,-0,0,0,32765
0.633052,-0.0834757,0.0433315,13,32765
0.761298,-0.10298,0.0521562,14,32765
0.780718,-0.108237,0.0535173,14,32765
0.701337,-0.0995897,0.0480444,15,32765
0.661505,-0.0961943,0.0453701,15,32765
0.69078,-0.102782,0.047521,15,32765
0.680563,-0.103602,0.0469148,16,32765
0.690071,-0.107427,0.0475547,16,32765
0.669989,-0.106644,0.0462783,16,32765
0.689307,-0.112156,0.0477109,15,32765
0.669238,-0.111193,0.0464349,15,32765
0.708204,-0.120115,0.0491829,15,32765
0.668478,-0.115665,0.0464656,15,32765
0.658264,-0.116133,0.0458456,16,32765
0.677501,-0.121871,0.0473231,16,32765
0.657473,-0.120497,0.0459393,16,32765
0.647256,-0.120868,0.0452867,16,32765
0.656644,-0.124879,0.0460846,16,32765
0.666019,-0.128957,0.0467819,16,32765
0.675368,-0.133125,0.0474989,15,32765
0.665141,-0.133383,0.0468704,15,32765
0.654912,-0.133626,0.0461918,15,32765
0.654462,-0.135805,0.046223,15,32765
0.624714,-0.131828,0.0442065,15,32765
0.663277,-0.14232,0.0469907,15,32765
0.653049,-0.142402,0.0463477,15,32765
0.681783,-0.151075,0.0484556,14,32765
0.691019,-0.155487,0.0491598,15,32765
0.661324,-0.151081,0.0471678,14,32765
0.680262,-0.157768,0.0485054,15,32765
0.670026,-0.157702,0.0479141,15,32765
0.679205,-0.162232,0.0485886,15,32765
0.678671,-0.164449,0.0485973,15,32765
0.678119,-0.166697,0.0486557,15,32765
0.67756,-0.168955,0.0486526,15,32765
0.715681,-0.180969,0.0514843,13,32765
0.811721,-0.20809,0.0583793,12,32765
0.888275,-0.230824,0.0639398,12,32765
0.926111,-0.243849,0.0667538,12,32765
0.886754,-0.236594,0.0639535,12,32765
0.895619,-0.242028,0.0647265,12,32765
0.991044,-0.271292,0.0716335,12,32765
0.980542,-0.271852,0.0709501,12,32765
0.960445,-0.269652,0.0695178,12,32765
0.911585,-0.259166,0.0659271,12,32765
1.0162,-0.29244,0.0736617,12,32765
1.1206,-0.326417,0.0812294,11,32765
1.27267,-0.375082,0.0923444,12,32765
1.2428,-0.370568,0.0901421,12,32765
1.22251,-0.368787,0.0886237,12,32765
1.26906,-0.387217,0.0919841,12,32765
1.32501,-0.408917,0.0961337,11,32765
1.2285,-0.383381,0.0889794,12,32765
1.2939,-0.408232,0.0936871,12,32765
1.22609,-0.39108,0.0886112,12,32765
1.25338,-0.404057,0.0904416,12,32765
1.2521,-0.408046,0.0901848,12,32765
1.26982,-0.41812,0.091257,12,32765
0.848444,0.0110965,0.0502019,17,32765
0.858442,0.00841838,0.0510488,17,32765
0.848472,0.00551623,0.050647,17,32765
0.848476,0.00270468,0.050801,17,32765
0.838483,-0.00014709,0.0504555,16,32765
0.858434,-0.00301803,0.051794,17,32765
0.878375,-0.00599843,0.0531217,17,32765
0.838421,-0.00845297,0.0507902,17,32765
0.858339,-0.0114889,0.0521717,16,32765
0.848312,-0.0141123,0.0516524,17,32765
0.868211,-0.0173629,0.0529948,17,32765
0.87812,-0.0205002,0.05371,16,32765
0.90798,-0.0242115,0.0555588,12,32765
0,-0,0,0,32765
0.808034,-0.0268842,0.0495816,14,32765
0.847833,-0.0310315,0.0521171,16,32765
0.857696,-0.0342668,0.0527659,17,32765
0.867543,-0.0375508,0.0534649,17,32765
0.877379,-0.0408945,0.0541578,15,32765
0.767583,-0.0383071,0.0474245,14,32765
0.767454,-0.0408167,0.0474166,15,32765
0.747379,-0.0422066,0.0462913,15,32765
0.757198,-0.0452464,0.0469421,15,32765
0.727164,-0.0458493,0.0450524,15,32765
0.756879,-0.0502533,0.0469927,15,32765
0.756709,-0.0527652,0.0469808,15,32765
0.796347,-0.0582248,0.0494097,14,32765
0.726481,-0.0555601,0.0451415,14,32765
0.746188,-0.059619,0.0463654,14,32765
0.87528,-0.0728818,0.0545339,13,32765
0.80543,-0.0697786,0.0501379,12,32765
0.656083,-0.0590458,0.0408546,14,32765
0.755253,-0.0705269,0.0470972,15,32765
0.715269,-0.0692199,0.0447025,15,32765
0.734894,-0.07358,0.0460161,15,32765
0.734645,-0.0760387,0.0459903,16,32765
0.724465,-0.0774339,0.0453278,15,32765
0.724203,-0.079848,0.0453204,16,32765
0.743763,-0.0845251,0.0466092,15,32765
0.753394,-0.0881097,0.0472676,12,32765
0,-0,0,0,32765
0.65374,-0.0808725,0.0410252,13,32765
0.643567,-0.0818205,0.0403312,13,32765
0.702664,-0.0917331,0.0441367,15,32765
0.79138,-0.105995,0.0498278,14,32765
0,-0,0,0,32765
0.672052,-0.0945966,0.0423965,13,32765
0.691492,-0.0996834,0.0436062,16,32765
0.661525,-0.0976709,0.0417767,16,32765
0.651327,-0.0983579,0.0412213,15,32765
0.660861,-0.102033,0.0418611,16,32765
0.680237,-0.107345,0.043074,15,32765
0.679881,-0.109592,0.0430324,15,32765
0.689354,-0.113509,0.043666,16,32765
0.688965,-0.115817,0.04375,14,32765
0.678734,-0.116463,0.0430938,14,32765
0.688166,-0.120453,0.043796,15,32765
0.668115,-0.11921,0.0425629,15,32765
0.6579,-0.119631,0.0419076,15,32765
0.628057,-0.116339,0.0401193,16,32765
0.637467,-0.120293,0.0408079,16,32765
0.646856,-0.12434,0.0414376,16,32765
0.617056,-0.12072,0.039598,16,32765
0.636224,-0.126677,0.0408975,16,32765
0.635803,-0.128761,0.0409337,16,32765
0.615822,-0.126824,0.039733,16,32765
0.605623,-0.126828,0.0391886,16,32765
0.595436,-0.12674,0.0386401,16,32765
0.604762,-0.130829,0.0393236,15,32765
0.633569,-0.139229,0.0412959,15,32765
0.642841,-0.143497,0.0420069,15,32765
0.613155,-0.139009,0.0402142,15,32765
0.641859,-0.147763,0.0422308,15,32765
0.670518,-0.15669,0.0441984,15,32765
0.631149,-0.149688,0.0417708,15,32765
0.659757,-0.158748,0.043812,15,32765
0.67861,-0.16566,0.0452313,14,32765
0.726492,-0.179861,0.0485712,12,32765
0.793642,-0.199253,0.0532045,12,32765
0.938032,-0.238737,0.0632473,12,32765
0.908237,-0.234348,0.0615318,12,32765
0.907465,-0.237299,0.0616231,13,32765
0.897032,-0.237668,0.0612149,13,32765
0.905886,-0.243168,0.0619688,12,32765
0.991733,-0.269649,0.0682241,13,32765
0.971579,-0.267621,0.0671748,13,32765
1.02834,-0.286926,0.07138,12,32765
1.00817,-0.284826,0.0704466,12,32765
0.988036,-0.282624,0.0693478,12,32765
1.13086,-0.327381,0.0798002,11,32765
1.27341,-0.373055,0.0902866,11,32765
1.1765,-0.348856,0.08401,12,32765
1.16579,-0.349766,0.0836846,12,32765
1.22191,-0.37088,0.0882237,12,32765
1.23024,-0.377643,0.0893673,12,32765
1.23854,-0.384465,0.0905209,12,32765
1.21823,-0.382439,0.089744,12,32765
1.2455,-0.395356,0.0923225,12,32765
1.23469,-0.396269,0.0922874,12,32765
1.20493,-0.390914,0.0906966,12,32765
1.24155,-0.407099,0.0944198,12,32765
0.888826,0.0116832,0.0441812,17,32765
0.868872,0.00857235,0.0434477,17,32765
0.88886,0.00582589,0.0446474,17,32765
0.888867,0.00287466,0.0448087,17,32765
0.898845,-0.000121901,0.0455824,17,32765
0.888845,-0.00309546,0.0452179,17,32765
0.878837,-0.00597822,0.0448331,16,32765
0.868822,-0.00874203,0.0444099,17,32765
0.878765,-0.0117504,0.0450966,17,32765
0.898688,-0.0149439,0.046214,17,32765
1.1782,-0.0235617,0.0607642,12,32765
0,-0,0,0,32765
0,-0,0,0,32765
0,-0,0,0,32765
0,-0,0,0,32765
0,-0,0,0,32765
0.898067,-0.0359153,0.0467437,13,32765
0.907915,-0.0393403,0.0473525,17,32765
0.927726,-0.0432902,0.0484761,14,32765
0.807889,-0.0403667,0.0422595,15,32765
0.827697,-0.0440755,0.0432945,15,32765
0.807601,-0.0456662,0.0423661,15,32765
0.827382,-0.0495059,0.043449,15,32765
0.787351,-0.049712,0.0413154,15,32765
0.79714,-0.0530005,0.0419319,15,32765
0.806922,-0.056347,0.0424434,13,32765
0.846568,-0.061987,0.0444929,14,32765
0.816481,-0.0625357,0.0429846,14,32765
0.826219,-0.0661129,0.0434947,15,32765
0.835938,-0.0697123,0.0441446,17,32765
0.785958,-0.0681971,0.0414604,12,32765
0.765834,-0.0690312,0.0404126,15,32765
0.755652,-0.0706759,0.0399404,15,32765
0.775284,-0.0751478,0.0410827,15,32765
0.784962,-0.0787199,0.0416862,16,32765
0.764829,-0.0792919,0.0406041,15,32765
0.774491,-0.082917,0.0410877,16,32765
0.77421,-0.0855031,0.0410799,15,32765
0.754073,-0.0858397,0.0400745,15,32765
0.73395,-0.0859799,0.039056,14,32765
0.803057,-0.096793,0.0427814,17,32765
0.941477,-0.116666,0.0501066,12,32765
0.762772,-0.097142,0.040527,14,32765
0.703025,-0.0919384,0.0374518,14,32765
0.762094,-0.102249,0.0407096,15,32765
0,-0,0,0,32765
0.771277,-0.108753,0.0412878,12,32765
0.721494,-0.104191,0.0386024,15,32765
0.711253,-0.105198,0.0381161,15,32765
0.691151,-0.104557,0.0371297,15,32765
0.680931,-0.105318,0.0366151,15,32765
0.690441,-0.10915,0.0371087,15,32765
0.709795,-0.11462,0.0381256,15,32765
0.709402,-0.117021,0.038136,16,32765
0.699154,-0.117743,0.0376917,15,32765
0.669227,-0.115041,0.0360685,15,32765
0.727848,-0.127631,0.0393333,14,32765
0.727423,-0.130029,0.0393533,14,32765
0.697517,-0.127068,0.037727,14,32765
0.706908,-0.131186,0.0383576,14,32765
0.686836,-0.129848,0.0373589,15,32765
0.666779,-0.128407,0.0362936,14,32765
0.65655,-0.128685,0.0358068,15,32765
0.646321,-0.128927,0.0353156,15,32765
0.655678,-0.133034,0.0358882,16,32765
0.665013,-0.137211,0.0364875,16,32765
0.674319,-0.141479,0.0371203,16,32765
0.68361,-0.145782,0.0377544,16,32765
0.673358,-0.145944,0.037271,16,32765
0.643618,-0.141705,0.0357214,16,32765
0.66263,-0.148195,0.036882,16,32765
0.662126,-0.150396,0.0370082,16,32765
0.671346,-0.154845,0.037659,16,32765
0.690272,-0.161614,0.0388003,14,32765
0.767442,-0.18236,0.043336,12,32765
0.815368,-0.196567,0.0462191,12,32765
0.931091,-0.22773,0.0530015,12,32765
0.833424,-0.206731,0.0476059,12,32765
0.958612,-0.241135,0.0549234,12,32765
0.948133,-0.241773,0.0546825,13,32765
0.956981,-0.247403,0.0554943,13,32765
0.985139,-0.25811,0.0572754,12,32765
0.984284,-0.261291,0.0575472,13,32765
0.973781,-0.261902,0.0570862,13,32765
1.05961,-0.288664,0.0625177,13,32765
1.03938,-0.286855,0.061676,13,32765
0.990335,-0.276862,0.0590277,13,32765
1.02783,-0.290948,0.0617291,13,32765
1.00767,-0.288804,0.0608235,12,32765
0.987547,-0.286452,0.0599738,13,32765
1.02493,-0.300849,0.0625788,13,32765
1.17701,-0.349696,0.072449,12,32765
1.28102,-0.385096,0.0793217,12,32765
1.2893,-0.392107,0.0803609,12,32765
1.27849,-0.393228,0.0802383,12,32765
1.22956,-0.38243,0.0777023,12,32765
1.26637,-0.398339,0.0807524,12,32765
1.26507,-0.402363,0.0812355,12,32765
1.25424,-0.40334,0.0813056,12,32765
1.26241,-0.410375,0.0824867,12,32765
1.27055,-0.417432,0.0839943,12,32765
0.858729,0.0109625,0.0454429,17,32765
0.83881,0.00794491,0.0439893,17,32765
0.838851,0.00509095,0.0436239,17,32765
0.838879,0.00224889,0.0433148,17,32765
0.838897,-0.000506153,0.0430315,17,32765
0.838907,-0.00322722,0.0427088,17,32765
0.848892,-0.00605241,0.0429686,17,32765
0.838893,-0.00874763,0.0422063,17,32765
0.83887,-0.0115495,0.0419935,17,32765
0.858813,-0.0146778,0.0427143,15,32765
0,-0,0,0,32765
0,-0,0,0,32765
0,-0,0,0,32765
0,-0,0,0,32765
0,-0,0,0,32765
0,-0,0,0,32765
0.798417,-0.0322127,0.0386399,16,32765
0.848204,-0.0370425,0.0409507,16,32765
0.768266,-0.0360745,0.0369604,14,32765
0.788098,-0.0396462,0.0378086,15,32765
0.758047,-0.0406315,0.0362416,15,32765
0.797804,-0.0453982,0.0380445,15,32765
0.737827,-0.0444188,0.0351932,15,32765
0.777561,-0.0493366,0.0369461,14,32765
1.07639,-0.0718941,0.0510659,11,32765
0.81708,-0.0573025,0.0386815,11,32765
1.00617,-0.0739483,0.0475516,11,32765
0.737011,-0.0566348,0.0347552,15,32765
0.776649,-0.0622678,0.0365995,14,32765
0.885938,-0.07398,0.0417245,12,32765
0.756321,-0.0656641,0.0355983,15,32765
0.775995,-0.0699739,0.0365474,16,32765
0.745922,-0.0697865,0.0350718,16,32765
0.715855,-0.0693922,0.0337074,15,32765
0.735498,-0.0737794,0.0346267,15,32765
0.705445,-0.0731321,0.0331485,15,32765
0.754858,-0.0807713,0.0355623,16,32765
0.724797,-0.0800281,0.0341338,15,32765
0.684823,-0.077953,0.0322606,15,32765
0.754004,-0.0884195,0.0354917,15,32765
0.714035,-0.0861397,0.0336672,15,32765
0.684011,-0.0847872,0.0322528,15,32765
0.713449,-0.0908326,0.0337645,16,32765
0.693338,-0.0906091,0.0327413,15,32765
0.683127,-0.0916025,0.0323437,15,32765
0.791667,-0.108883,0.0375175,11,32765
0.702269,-0.0989772,0.0334874,15,32765
0.701943,-0.1013,0.0333712,15,32765
0.701599,-0.103648,0.0334009,15,32765
0.651861,-0.0985227,0.0311549,15,32765
0.671266,-0.103772,0.0321418,15,32765
0.670915,-0.106018,0.032155,15,32765
0.670552,-0.108253,0.0322668,15,32765
0,-0,0,0,32765
0,-0,0,0,32765
0,-0,0,0,32765
0,-0,0,0,32765
0,-0,0,0,32765
0.737014,-0.134259,0.0358407,11,32765
0.68746,-0.127582,0.0334808,14,32765
0.736101,-0.139145,0.0359724,13,32765
0.676779,-0.130257,0.0332165,16,32765
0.646937,-0.126731,0.0318001,15,32765
0.626919,-0.124984,0.0308519,15,32765
0.646079,-0.131039,0.0317991,15,32765
0.626074,-0.129128,0.0309444,15,32765
0.62564,-0.131219,0.03093,15,32765
0.625195,-0.133298,0.031032,16,32765
0.614978,-0.133296,0.0305705,16,32765
0.604768,-0.133225,0.0301096,17,32765
0.623806,-0.139623,0.0311724,16,32765
0.65256,-0.148334,0.0326011,15,32765
0.690992,-0.159473,0.0346115,13,32765
0.690463,-0.161738,0.0346744,12,32765
0.806532,-0.191736,0.0405389,12,32765
0.815606,-0.19673,0.0410374,12,32765
0.873163,-0.213653,0.0440396,13,32765
0.901529,-0.223763,0.0455493,13,32765
0.929847,-0.234026,0.0470904,13,32765
0.938753,-0.239531,0.0476206,14,32765
0.976644,-0.252603,0.0495865,14,32765
0.937166,-0.245661,0.0476443,13,32765
0.96531,-0.256435,0.0491694,13,32765
0.945184,-0.254386,0.0481208,14,32765
0.925082,-0.252194,0.0471395,14,32765
0.962775,-0.265798,0.0491521,13,32765
1.01963,-0.285023,0.0521002,14,32765
0.826492,-0.233928,0.0422978,15,32765
0.88333,-0.253162,0.0451453,15,32765
0.882489,-0.256081,0.0451219,15,32765
0.95833,-0.281422,0.0490514,16,32765
0.909567,-0.270212,0.0466171,15,32765
0.851334,-0.255803,0.0435252,15,32765
0.840963,-0.2556,0.0430042,16,32765
0.840132,-0.258328,0.0429434,16,32765
0.858378,-0.266952,0.0438589,16,32765
0.857551,-0.269602,0.0438247,15,32765
0.866231,-0.275297,0.0442254,15,32765
0.90342,-0.29021,0.0459429,14,32765
0.902485,-0.29315,0.0456469,13,32765
0.930043,-0.305304,0.047012,13,32765
0.869108,0.0111481,0.0377738,17,32765
0.839187,0.00799379,0.0360743,17,32765
0.879188,0.0053768,0.0374091,17,32765
0.859233,0.00233736,0.0362423,17,32765
0.879231,-0.000501963,0.0367882,17,32765
0.869247,-0.00332179,0.0360358,17,32765
0.839268,-0.00596829,0.0345473,17,32765
0.869228,-0.00905401,0.0355151,17,32765
0.879192,-0.0121009,0.0357003,17,32765
0.829206,-0.0141742,0.0334024,15,32765
0,-0,0,0,32765
0,-0,0,0,32765
0,-0,0,0,32765
0,-0,0,0,32765
0,-0,0,0,32765
0,-0,0,0,32765
0.808728,-0.032671,0.0314891,14,32765
0.818602,-0.0357983,0.0317774,15,32765
0.828467,-0.0389563,0.0320181,16,32765
0.828336,-0.0417313,0.0319007,16,32765
0.798265,-0.0428514,0.0306095,16,32765
0.77817,-0.0443491,0.0297423,14,32765
0.797969,-0.0481149,0.0305072,13,32765
0,-0,0,0,32765
1.04691,-0.0700384,0.0397519,11,32765
1.02674,-0.0721248,0.0388808,12,32765
0.857071,-0.063096,0.0323847,12,32765
0.797078,-0.0613545,0.0300339,13,32765
0.806832,-0.0647986,0.0303737,14,32765
0,-0,0,0,32765
0.776523,-0.0675357,0.0291844,13,32765
0.786245,-0.0710229,0.0295712,15,32765
0.766106,-0.071802,0.0287508,15,32765
0.73602,-0.0714743,0.0276703,15,32765
0.775549,-0.0779368,0.0291481,15,32765
0.765349,-0.0794858,0.0286938,15,32765
0.755143,-0.0809487,0.0284007,15,32765
0.784663,-0.0867967,0.0294951,16,32765
0.774437,-0.0883158,0.0291187,15,32765
0.793983,-0.0932799,0.0298215,15,32765
0.793666,-0.095924,0.02987,15,32765
0.793348,-0.0985236,0.0298566,14,32765
0.753362,-0.0960937,0.0284795,14,32765
0.713409,-0.0934073,0.0268929,14,32765
0.861648,-0.115759,0.0325842,12,32765
0.712759,-0.0982164,0.0269822,15,32765
0.751998,-0.106187,0.0286854,16,32765
0.751647,-0.10868,0.0285612,16,32765
0.731507,-0.108273,0.0278407,15,32765
0.711376,-0.107724,0.0272042,16,32765
0.691256,-0.107068,0.0264928,14,32765
0.720502,-0.114073,0.0276426,15,32765
0.710248,-0.114883,0.0273825,15,32765
0,-0,0,0,32765
0,-0,0,0,32765
0,-0,0,0,32765
0,-0,0,0,32765
0,-0,0,0,32765
0,-0,0,0,32765
0,-0,0,0,32765
0,-0,0,0,32765
0.667197,-0.128667,0.0263313,15,32765
0.676571,-0.132799,0.0267477,16,32765
0.676123,-0.135061,0.0267645,16,32765
0.665877,-0.135324,0.0263594,15,32765
0.655637,-0.135496,0.026086,15,32765
0.684517,-0.143855,0.0272385,16,32765
0.674258,-0.144047,0.0269596,16,32765
0.683529,-0.148452,0.0273766,16,32765
0.673264,-0.148613,0.0270127,16,32765
0.672755,-0.150883,0.0271117,15,32765
0.730708,-0.166433,0.029433,13,32765
0.827503,-0.191365,0.0334344,12,32765
0.807411,-0.189516,0.0327216,12,32765
0.835941,-0.199132,0.0339088,13,32765
0.883842,-0.213624,0.0358915,12,32765
0.999587,-0.245088,0.040706,13,32765
0.950282,-0.236347,0.0387743,12,32765
0.949499,-0.239462,0.0388479,13,32765
0.977751,-0.249995,0.0400788,13,32765
1.01562,-0.263225,0.0416688,14,32765
0.879449,-0.231008,0.0361336,14,32765
0.946271,-0.251897,0.038964,13,32765
0.964742,-0.260188,0.039693,13,32765
1.02173,-0.279119,0.0420758,13,32765
1.03045,-0.285074,0.0425251,15,32765
1.04877,-0.29378,0.0433193,15,32765
0.894,-0.253565,0.0369909,20,32765
0.931578,-0.267549,0.0384732,20,32765
0.921092,-0.267845,0.0380525,18,32765
0.929813,-0.273623,0.038455,17,32765
0.909792,-0.270849,0.0376808,15,32765
0.889811,-0.26793,0.0367336,16,32765
0.898515,-0.273671,0.0370948,15,32765
0.878524,-0.270707,0.0362423,16,32765
0.877652,-0.273528,0.0361809,16,32765
0.914925,-0.288254,0.037718,15,32765
0.894982,-0.285044,0.0368435,15,32765
0.884586,-0.284771,0.0362302,15,32765
0.893166,-0.290748,0.0363272,16,32765
0.873273,-0.287288,0.035483,17,32765
0.789597,0.0113479,0.0225506,17,32765
0.799618,0.0088626,0.0230754,17,32765
0.799636,0.00621287,0.0233214,17,32765
0.769659,0.00341514,0.0226577,17,32765
0.829638,0.000876945,0.0245009,17,32765
0.809637,-0.00183163,0.0241846,17,32765
0.809623,-0.0044854,0.0242874,17,32765
0.799607,-0.00707777,0.024052,17,32765
0.799577,-0.00974094,0.0241344,17,32765
0.809531,-0.012595,0.0245282,17,32765
0.809482,-0.015272,0.0246138,16,32765
0.619557,-0.013752,0.0189579,12,32765
0.569547,-0.0145314,0.0174789,13,32765
0.779309,-0.0224553,0.0239503,16,32765
0.819186,-0.0263352,0.0253043,16,32765
0.789126,-0.0279898,0.0244272,16,32765
0.799015,-0.0309776,0.0248208,15,32765
0.689056,-0.0289994,0.0214627,16,32765
0.718909,-0.0326557,0.0224264,17,32765
0.728777,-0.0355706,0.0227855,19,32765
0.698709,-0.0364424,0.0218525,18,32765
0.75846,-0.0421078,0.023781,17,32765
0.758315,-0.0446262,0.0237989,15,32765
0.738208,-0.0459236,0.0232335,15,32765
0.777941,-0.0510141,0.0245924,16,32765
0.757826,-0.0522122,0.0239423,16,32765
0.75765,-0.0547007,0.023967,16,32765
0.757461,-0.0572373,0.0240066,16,32765
0.797122,-0.0629047,0.0252823,15,32765
0.806866,-0.0664166,0.0256025,16,32765
0.766803,-0.0657172,0.0243673,15,32765
0.806401,-0.0718261,0.0256722,14,32765
0.855922,-0.0790965,0.027211,13,32765
0.766106,-0.0733839,0.0244347,15,32765
0.765859,-0.0759212,0.0244111,16,32765
0.765603,-0.0784672,0.0243817,15,32765
0.795155,-0.0841654,0.0253967,14,32765
0,-0,0,0,32765
0,-0,0,0,32765
0,-0,0,0,32765
0,-0,0,0,32765
0.704339,-0.0865685,0.022633,15,32765
0.753625,-0.0951808,0.0242827,16,32765
0.802869,-0.104071,0.0259024,14,32765
0.713348,-0.0948857,0.0230567,15,32765
0.713024,-0.0972848,0.0230692,15,32765
0.682998,-0.0955296,0.0220765,15,32765
0.692565,-0.0992698,0.0223576,15,32765
0.721892,-0.105945,0.0233856,16,32765
0.71165,-0.106884,0.0230242,15,32765
0.691525,-0.106238,0.0224973,15,32765
0.701038,-0.110119,0.0227936,15,32765
0.710529,-0.114087,0.0230696,16,32765
0.710139,-0.116472,0.0231691,16,32765
0.719603,-0.120502,0.0234693,15,32765
0.699488,-0.119545,0.0229275,14,32765
0.689242,-0.120142,0.0226095,13,32765
0.777399,-0.138209,0.0254668,12,32765
0,-0,0,0,32765
0,-0,0,0,32765
0,-0,0,0,32765
0,-0,0,0,32765
0.71612,-0.139661,0.0238125,13,32765
0.745056,-0.147888,0.0249034,13,32765
0.695575,-0.140463,0.0233527,13,32765
0.655945,-0.134712,0.0220992,14,32765
0.645711,-0.134839,0.0218247,15,32765
0.615927,-0.130755,0.0208925,15,32765
0.635028,-0.137004,0.0216502,16,32765
0.65409,-0.143403,0.0224054,16,32765
0.68286,-0.152141,0.0235504,14,32765
0.711589,-0.161041,0.0246286,12,32765
0.740266,-0.170131,0.0257143,12,32765
0.934353,-0.217979,0.0326888,13,32765
0.923899,-0.218755,0.0325115,13,32765
0.855163,-0.205382,0.0302514,13,32765
0.941873,-0.229455,0.0335355,13,32765
0.950817,-0.234924,0.0340296,14,32765
0.950034,-0.238039,0.0342358,13,32765
0.949234,-0.241177,0.0344716,14,32765
0.919405,-0.236782,0.0335833,14,32765
0.918609,-0.239821,0.0338191,13,32765
0.908147,-0.240274,0.033728,14,32765
0.936297,-0.251029,0.0351154,14,32765
0.945099,-0.256738,0.0356738,14,32765
0.973157,-0.26777,0.0369498,15,32765
0.866379,-0.241418,0.0332395,17,32765
0.855973,-0.241489,0.0330774,20,32765
0.855177,-0.244251,0.0333737,19,32765
0.87357,-0.252571,0.0344021,19,32765
0.882325,-0.258219,0.0349994,19,32765
0.881461,-0.261103,0.0353844,17,32765
0.90932,-0.272529,0.0369518,16,32765
0.860617,-0.260949,0.0352681,15,32765
0.831105,-0.254915,0.0343815,16,32765
0.839815,-0.260532,0.0351264,15,32765
