x, y, z, intensity, ring
1.08163,-0.35743,-0.157548,19,32765
0,0,-0,0,32765
1.59813,0.0277734,-0.263818,19,32765
1.54888,0.0217512,-0.255714,18,32765
1.5588,0.0165301,-0.257415,18,32765
1.54898,0.0110219,-0.255834,18,32765
1.53911,0.00566099,-0.254359,18,32765
1.56874,0.000351513,-0.259156,17,32765
1.50955,-0.00482996,-0.249278,17,32765
1.47005,-0.00972691,-0.242799,17,32765
1.53909,-0.0154814,-0.254073,18,32765
1.53904,-0.0207822,-0.253996,17,32765
1.5587,-0.0264262,-0.257235,17,32765
1.48957,-0.0304214,-0.245683,17,32765
1.49933,-0.0358447,-0.247228,18,32765
1.45977,-0.039968,-0.240571,17,32765
1.46952,-0.0452618,-0.242003,17,32765
1.44964,-0.0496006,-0.238719,17,32765
1.45934,-0.0549612,-0.240205,17,32765
1.4493,-0.0595752,-0.238525,17,32765
1.46881,-0.0654327,-0.241692,18,32765
1.43904,-0.069101,-0.236645,18,32765
1.41911,-0.0730734,-0.233195,18,32765
1.40902,-0.0774474,-0.231469,17,32765
1.41861,-0.0828667,-0.232971,18,32765
1.43802,-0.0889558,-0.236175,18,32765
1.41804,-0.0925646,-0.232799,18,32765
1.43745,-0.098732,-0.235768,18,32765
1.40762,-0.101512,-0.230668,18,32765
1.37772,-0.104089,-0.225964,18,32765
1.37737,-0.108944,-0.225765,18,32765
1.39667,-0.115429,-0.228896,19,32765
1.40612,-0.121235,-0.230292,19,32765
1.36638,-0.122705,-0.223725,18,32765
1.37578,-0.12841,-0.225244,18,32765
1.38516,-0.134121,-0.22683,19,32765
1.37489,-0.13789,-0.225086,19,32765
1.36461,-0.141601,-0.223335,19,32765
1.38376,-0.148387,-0.226462,17,32765
1.33421,-0.147745,-0.218323,18,32765
1.34351,-0.153512,-0.219832,19,32765
1.35277,-0.159336,-0.221386,19,32765
1.34243,-0.162864,-0.219688,19,32765
1.35167,-0.168778,-0.221157,19,32765
1.35109,-0.173491,-0.22106,18,32765
1.31134,-0.173041,-0.214555,18,32765
1.32051,-0.178882,-0.216201,19,32765
1.30035,-0.180725,-0.212884,19,32765
1.31927,-0.187996,-0.216051,20,32765
1.2991,-0.189661,-0.212757,19,32765
1.29847,-0.194161,-0.212545,19,32765
1.29782,-0.198627,-0.212384,16,32765
1.26787,-0.198559,-0.207584,19,32765
1.31591,-0.210841,-0.215482,19,32765
1.28595,-0.210697,-0.21055,19,32765
1.3047,-0.218467,-0.213633,19,32765
1.29423,-0.221344,-0.211813,19,32765
1.27403,-0.222422,-0.208516,18,32765
1.25383,-0.223335,-0.205231,19,32765
1.28224,-0.232965,-0.209746,19,32765
1.2329,-0.228365,-0.201772,19,32765
1.26124,-0.23803,-0.206442,20,32765
1.27018,-0.244189,-0.207669,19,32765
1.24027,-0.242827,-0.202876,19,32765
1.29755,-0.258662,-0.212248,16,32765
1.22898,-0.249403,-0.200764,19,32765
1.23779,-0.255647,-0.202269,19,32765
1.22726,-0.257876,-0.200561,19,32765
1.23607,-0.264153,-0.201863,19,32765
1.23519,-0.268405,-0.201654,19,32765
1.20538,-0.266222,-0.196682,19,32765
1.21415,-0.272481,-0.197946,19,32765
1.194,-0.272232,-0.194589,19,32765
1.19311,-0.276274,-0.194342,19,32765
1.19219,-0.280379,-0.194076,19,32765
1.19128,-0.284406,-0.193835,19,32765
1.19034,-0.288456,-0.193588,18,32765
1.1894,-0.292506,-0.193297,19,32765
1.18845,-0.296519,-0.19302,19,32765
1.22582,-0.310256,-0.198781,16,32765
1.14825,-0.294749,-0.186133,19,32765
1.16643,-0.303587,-0.188897,19,32765
1.16547,-0.307477,-0.18849,20,32765
1.17406,-0.31393,-0.189562,19,32765
1.14443,-0.310126,-0.184653,19,32765
1.14344,-0.31394,-0.184333,20,32765
1.16149,-0.32305,-0.187004,20,32765
1.14145,-0.321554,-0.183592,19,32765
1.12143,-0.319949,-0.180062,20,32765
1.15841,-0.334675,-0.185683,21,32765
1.15735,-0.338546,-0.185255,21,32765
1.15631,-0.342395,-0.184694,21,32765
1.14579,-0.343377,-0.182646,20,32765
1.13524,-0.344279,-0.18081,20,32765
1.11529,-0.342209,-0.177242,19,32765
1.1237,-0.348748,-0.178221,19,32765
1.12267,-0.352386,-0.177595,19,32765
1.12161,-0.356042,-0.176981,19,32765
1.12056,-0.359686,-0.176253,19,32765
1.11007,-0.360276,-0.17421,19,32765
1.0996,-0.360802,-0.172081,19,32765
0,-0,-0,0,32765
4.28395,1.39097,0.830286,27,32765
4.26972,1.3715,0.825871,27,32765
4.3211,1.37295,0.833778,28,32765
4.34441,1.3648,0.836852,28,32765
4.321,1.34169,0.829935,27,32765
4.35371,1.33634,0.834437,28,32765
4.38662,1.33064,0.838217,28,32765
4.39123,1.31623,0.836802,28,32765
4.37702,1.2961,0.831511,28,32765
4.39095,1.28447,0.831949,28,32765
4.40476,1.27312,0.832377,27,32765
4.44686,1.26991,0.83834,29,32765
4.41332,1.24504,0.829484,28,32765
4.41758,1.23075,0.828169,27,32765
4.42196,1.21631,0.826111,27,32765
4.45462,1.20972,0.830083,28,32765
4.44932,1.19268,0.826716,28,32765
4.50097,1.1909,0.834218,29,32765
4.4861,1.1713,0.828861,28,32765
4.51877,1.16409,0.832592,29,32765
4.51323,1.14686,0.829699,28,32765
4.54584,1.1393,0.833653,28,32765
4.53073,1.11975,0.82843,28,32765
4.5249,1.10283,0.825823,27,32765
4.54789,1.09265,0.827836,28,32765
4.5804,1.08464,0.831806,28,32765
4.5555,1.06275,0.824926,28,32765
4.57839,1.05202,0.827321,29,32765
4.63959,1.05002,0.836992,29,32765
4.60475,1.02613,0.829132,28,32765
4.64681,1.01947,0.834704,28,32765
4.65035,1.00423,0.83348,29,32765
4.66337,0.991136,0.834393,29,32765
4.6186,0.965895,0.824438,27,32765
4.65085,0.956728,0.828662,27,32765
4.71199,0.953345,0.838269,29,32765
4.70556,0.93595,0.835798,29,32765
4.72823,0.9242,0.837739,29,32765
4.77,0.916071,0.844262,30,32765
4.72476,0.891259,0.834664,27,32765
4.74713,0.879473,0.837439,29,32765
4.81805,0.875951,0.848516,30,32765
4.76298,0.849371,0.837085,29,32765
4.83386,0.845307,0.848337,29,32765
4.80762,0.8243,0.842479,29,32765
4.81037,0.808799,0.841851,29,32765
4.84225,0.798235,0.846089,29,32765
4.82543,0.779315,0.842324,30,32765
4.81839,0.761803,0.83983,33,32765
4.81128,0.744083,0.837546,29,32765
4.80406,0.726446,0.835575,33,32765
4.82604,0.713066,0.838702,33,32765
4.83825,0.698344,0.839783,32,32765
4.82122,0.67944,0.835316,32,32765
4.84311,0.666008,0.838059,32,32765
4.84525,0.650218,0.838076,14,32765
4.81818,0.630414,0.832236,13,32765
4.85944,0.619517,0.838391,13,32765
4.85181,0.602405,0.835854,13,32765
4.84406,0.585136,0.833801,14,32765
4.7383,0.556713,0.814949,15,32765
4.78929,0.54653,0.822272,17,32765
4.85976,0.538399,0.833336,15,32765
4.84197,0.520208,0.829637,13,32765
4.83401,0.503136,0.827087,12,32765
0,0,0,0,32765
0,0,0,0,32765
4.947,0.465413,0.843934,12,32765
5.02726,0.456215,0.856107,13,32765
4.98957,0.436076,0.848763,12,32765
5.12865,0.431322,0.871358,13,32765
5.0221,0.405603,0.852144,12,32765
4.84647,0.375407,0.822011,12,32765
0,0,0,0,32765
5.1738,0.366238,0.874788,14,32765
5.08647,0.343451,0.859538,21,32765
5.10745,0.328203,0.861614,14,32765
0,0,0,0,32765
5.17865,0.299063,0.87165,13,32765
5.16004,0.281022,0.867542,12,32765
5.21036,0.266734,0.874673,12,32765
5.17194,0.247746,0.867271,12,32765
5.16306,0.230494,0.864425,12,32765
5.23295,0.216584,0.874862,12,32765
5.2732,0.201076,0.880587,12,32765
5.17544,0.180464,0.862969,14,32765
5.27481,0.166588,0.87815,13,32765
5.37412,0.152247,0.893365,13,32765
0,0,0,0,32765
5.27677,0.115171,0.874586,13,32765
5.35617,0.0998795,0.886768,13,32765
5.23842,0.0807641,0.865178,13,32765
0,0,0,0,32765
5.27876,0.047186,0.868886,12,32765
5.40743,0.0309988,0.888319,12,32765
5.42748,0.0138082,0.890084,12,32765
5.46729,-0.00341371,0.894598,12,32765
5.48734,-0.0207798,0.895666,12,32765
5.47765,-0.0380924,0.892436,12,32765
5.52728,-0.0560646,0.897808,12,32765
5.4978,-0.0731614,0.890902,13,32765
4.33759,1.40997,0.796386,33,32765
4.32339,1.39029,0.792145,32,32765
4.31857,1.37367,0.789279,32,32765
4.33252,1.36257,0.790452,32,32765
4.37491,1.35992,0.795797,33,32765
4.35121,1.33704,0.789751,32,32765
4.38415,1.33134,0.793253,33,32765
4.40764,1.32258,0.795244,34,32765
4.37452,1.29675,0.786733,32,32765
4.43575,1.29897,0.79556,33,32765
4.40228,1.27376,0.787413,32,32765
4.39704,1.25701,0.78455,32,32765
4.4298,1.25101,0.787895,33,32765
4.44356,1.23929,0.788258,33,32765
4.47647,1.23259,0.791228,33,32765
4.48069,1.21806,0.789872,33,32765
4.523,1.21368,0.794956,34,32765
4.49854,1.19147,0.788605,31,32765
4.52179,1.18183,0.790102,35,32765
4.51634,1.16464,0.786887,33,32765
4.51078,1.14739,0.784086,32,32765
4.56256,1.14463,0.791079,34,32765
4.557,1.12736,0.78769,33,32765
4.57992,1.11733,0.790129,35,32765
4.60298,1.10697,0.791937,34,32765
4.5588,1.08057,0.782435,32,32765
4.61067,1.07665,0.788991,34,32765
4.57596,1.05247,0.781338,32,32765
4.63725,1.05048,0.790452,34,32765
4.63123,1.033,0.787877,33,32765
4.64446,1.0199,0.788163,33,32765
4.65763,1.00673,0.788572,32,32765
4.69963,0.999747,0.794283,33,32765
4.70309,0.984445,0.792923,33,32765
4.70645,0.969023,0.791972,33,32765
4.70002,0.951756,0.789639,33,32765
4.771,0.949783,0.800248,34,32765
4.70657,0.92075,0.7874,32,32765
4.72902,0.90896,0.790313,33,32765
4.76125,0.898883,0.794128,33,32765
4.73515,0.877966,0.788631,32,32765
4.79646,0.872722,0.797445,34,32765
4.78986,0.854835,0.794636,34,32765
4.84141,0.84728,0.802012,35,32765
4.81514,0.826212,0.796432,33,32765
4.85682,0.817213,0.802233,35,32765
4.78164,0.788815,0.788518,37,32765
4.78425,0.773211,0.788154,37,32765
4.80642,0.760434,0.79057,37,32765
4.85782,0.751783,0.797995,34,32765
4.81157,0.728054,0.789706,36,32765
4.80429,0.710298,0.787843,36,32765
4.8849,0.705504,0.800034,38,32765
4.84831,0.683656,0.792546,36,32765
4.86045,0.668768,0.793503,36,32765
4.7452,0.637133,0.77436,17,32765
4.69846,0.615063,0.765625,17,32765
4.73973,0.604547,0.771423,15,32765
4.82999,0.59997,0.784921,17,32765
4.79281,0.579192,0.778188,15,32765
4.84375,0.569327,0.785815,19,32765
4.86542,0.555419,0.787883,23,32765
4.78883,0.530715,0.774479,15,32765
5.01641,0.539105,0.81063,14,32765
4.7728,0.49689,0.770111,14,32765
4.81372,0.485272,0.776303,13,32765
5.06111,0.493125,0.81516,14,32765
4.98419,0.468966,0.801768,14,32765
5.01541,0.455169,0.805292,13,32765
4.97765,0.435038,0.798322,13,32765
4.93981,0.41542,0.791244,14,32765
5.02004,0.405392,0.803002,13,32765
4.90322,0.379733,0.783991,13,32765
4.87509,0.361282,0.778112,13,32765
5.24092,0.370862,0.835241,13,32765
5.10419,0.344499,0.812978,24,32765
5.10548,0.327903,0.811729,14,32765
0,0,0,0,32765
5.09789,0.294176,0.808602,14,32765
5.12854,0.279056,0.812506,14,32765
5.16906,0.264342,0.817617,13,32765
5.1503,0.246408,0.813712,13,32765
5.171,0.23052,0.815634,13,32765
5.21137,0.215334,0.820755,13,32765
5.17269,0.196865,0.813688,13,32765
5.25247,0.18274,0.824935,14,32765
5.25324,0.165471,0.823684,13,32765
5.31319,0.150054,0.831789,14,32765
0,0,0,0,32765
5.38358,0.116976,0.840176,15,32765
5.34455,0.0991155,0.833116,14,32765
5.30564,0.0812323,0.824938,15,32765
0,0,0,0,32765
5.37566,0.0474245,0.832831,15,32765
5.40569,0.0303319,0.835744,13,32765
5.40599,0.0130707,0.834274,13,32765
5.43595,-0.00410615,0.836902,13,32765
5.42636,-0.0212848,0.833242,13,32765
5.43639,-0.0385687,0.833154,13,32765
5.42676,-0.0558321,0.82902,13,32765
5.43676,-0.0731631,0.828457,13,32765
4.23289,1.37874,0.722399,28,32765
4.23701,1.36548,0.723404,28,32765
4.27893,1.364,0.729893,28,32765
4.27377,1.34741,0.728699,28,32765
4.25923,1.32755,0.725933,28,32765
4.28239,1.31947,0.729216,27,32765
4.30551,1.31148,0.732259,27,32765
4.32857,1.30349,0.735374,27,32765
4.34219,1.29253,0.736794,28,32765
4.32743,1.27296,0.733344,27,32765
4.38836,1.27555,0.743103,27,32765
4.38305,1.25848,0.741248,28,32765
4.3777,1.24145,0.739349,27,32765
4.36283,1.22165,0.73579,26,32765
4.37642,1.21001,0.736742,27,32765
4.41849,1.20611,0.742846,26,32765
4.38431,1.18157,0.736016,26,32765
4.40733,1.17233,0.738554,27,32765
4.48763,1.17794,0.75075,27,32765
4.48204,1.16062,0.748589,27,32765
4.49548,1.14845,0.749466,27,32765
4.53757,1.14341,0.755418,29,32765
4.5031,1.11894,0.748394,27,32765
4.51641,1.10664,0.74935,27,32765
4.52971,1.09409,0.750376,27,32765
4.55265,1.08359,0.752881,29,32765
4.57549,1.07307,0.755633,29,32765
4.55993,1.05328,0.751843,28,32765
4.61168,1.04923,0.758691,29,32765
4.59593,1.02988,0.754784,27,32765
4.60906,1.01711,0.755282,29,32765
4.62223,1.0039,0.755818,28,32765
4.63525,0.990567,0.757107,29,32765
4.63864,0.975076,0.756455,29,32765
4.65182,0.961524,0.756423,29,32765
4.65495,0.946463,0.756114,29,32765
4.67749,0.935236,0.758485,29,32765
4.66135,0.916056,0.754147,29,32765
4.6935,0.906285,0.758468,30,32765
4.73551,0.897919,0.763605,30,32765
4.70956,0.876605,0.757695,28,32765
4.71254,0.860941,0.75715,28,32765
4.7738,0.85583,0.765827,30,32765
4.75733,0.836538,0.761636,29,32765
4.80894,0.829099,0.76828,30,32765
4.76307,0.804973,0.759786,30,32765
4.82439,0.798965,0.767715,31,32765
4.78809,0.776846,0.760778,29,32765
4.81028,0.764331,0.762808,30,32765
4.83242,0.751541,0.765098,30,32765
4.78623,0.728012,0.756331,33,32765
4.86694,0.723651,0.76786,30,32765
4.82052,0.700127,0.75983,34,32765
4.83284,0.685288,0.760006,33,32765
4.82537,0.667636,0.758295,35,32765
4.84733,0.654331,0.760103,33,32765
4.8986,0.644771,0.766787,32,32765
4.80269,0.616423,0.75112,14,32765
4.79491,0.599536,0.749358,13,32765
4.7971,0.583848,0.747707,13,32765
4.88731,0.578854,0.761295,15,32765
4.83046,0.555779,0.751113,13,32765
4.87155,0.544412,0.757128,18,32765
4.82427,0.523042,0.748988,19,32765
0,0,0,0,32765
0,0,0,0,32765
4.99676,0.491857,0.772543,13,32765
0,0,0,0,32765
4.76375,0.437229,0.735587,12,32765
5.11976,0.452818,0.789288,13,32765
5.01289,0.426923,0.772532,13,32765
5.01432,0.410469,0.772138,13,32765
4.99601,0.392427,0.768616,12,32765
0,0,0,0,32765
5.0675,0.364947,0.779,13,32765
5.14762,0.354153,0.790554,13,32765
5.03036,0.329603,0.772578,16,32765
5.05118,0.314567,0.775279,22,32765
0,0,0,0,32765
5.22104,0.29078,0.800172,13,32765
0,0,0,0,32765
0,0,0,0,32765
0,0,0,0,32765
5.15514,0.219758,0.790342,13,32765
5.24469,0.206398,0.804222,12,32765
5.22554,0.188812,0.801356,12,32765
5.28532,0.173691,0.811012,12,32765
5.24628,0.155352,0.805297,12,32765
5.28625,0.139118,0.811623,13,32765
5.32615,0.122611,0.818035,12,32765
5.32643,0.105369,0.818599,12,32765
5.32669,0.0883609,0.818965,12,32765
0,0,0,0,32765
0,0,0,0,32765
0,0,0,0,32765
5.41575,0.0200046,0.836421,12,32765
5.46495,0.00210612,0.845687,13,32765
5.46486,-0.0157029,0.846118,13,32765
5.4546,-0.0332143,0.846529,12,32765
5.49385,-0.0513447,0.853541,12,32765
0,-0,0,0,32765
4.26684,1.39159,0.684931,31,32765
4.28984,1.38428,0.688965,32,32765
4.30363,1.37362,0.690549,32,32765
4.29849,1.35692,0.689449,32,32765
4.34059,1.35461,0.695949,31,32765
4.33553,1.33752,0.694506,33,32765
4.32092,1.31781,0.691309,32,32765
4.34404,1.30976,0.694237,33,32765
4.36716,1.30156,0.697074,32,32765
4.39034,1.29305,0.699854,33,32765
4.43244,1.28993,0.706032,32,32765
4.38917,1.26177,0.698222,33,32765
4.41235,1.25278,0.700946,33,32765
4.41653,1.23817,0.70059,33,32765
4.43972,1.22897,0.702949,33,32765
4.46283,1.21966,0.705659,34,32765
4.48591,1.21037,0.708238,35,32765
4.4804,1.19315,0.706057,34,32765
4.48438,1.17846,0.705465,34,32765
4.48835,1.1636,0.704899,34,32765
4.47308,1.14403,0.701177,33,32765
4.51521,1.13907,0.706757,33,32765
4.50945,1.12178,0.704606,34,32765
4.56119,1.11886,0.711459,33,32765
4.56494,1.10383,0.710889,35,32765
4.5687,1.08862,0.710211,35,32765
4.56271,1.07124,0.708292,33,32765
4.60492,1.06482,0.713647,34,32765
4.60857,1.04965,0.712565,35,32765
4.62173,1.03678,0.713311,32,32765
4.66386,1.0303,0.71817,35,32765
4.62877,1.00638,0.711177,34,32765
4.62248,0.988867,0.709403,34,32765
4.63554,0.975429,0.710235,32,32765
4.66809,0.965875,0.713069,34,32765
4.66155,0.948763,0.711279,33,32765
4.67442,0.935558,0.711985,35,32765
4.66795,0.918263,0.709309,33,32765
4.70015,0.908458,0.713349,34,32765
4.70334,0.892684,0.712225,34,32765
4.72595,0.880497,0.713948,33,32765
4.75813,0.870091,0.717804,34,32765
4.82924,0.866576,0.727381,35,32765
4.77381,0.840207,0.717506,34,32765
4.79625,0.827659,0.719294,34,32765
4.78932,0.81013,0.71711,34,32765
4.81169,0.797561,0.71864,34,32765
4.83392,0.784957,0.720815,35,32765
4.85616,0.772274,0.722648,35,32765
4.82947,0.751706,0.717481,34,32765
4.88101,0.743035,0.723684,34,32765
4.8053,0.715054,0.711273,38,32765
4.80773,0.698812,0.710953,37,32765
4.84945,0.688164,0.715374,38,32765
4.83217,0.669069,0.712311,37,32765
4.87377,0.658371,0.716815,38,32765
4.86625,0.640957,0.714385,32,32765
4.77019,0.612662,0.699653,15,32765
4.68383,0.586024,0.686472,15,32765
4.64666,0.565889,0.679116,17,32765
4.7959,0.568365,0.700482,20,32765
4.73893,0.545555,0.690879,16,32765
4.79971,0.53667,0.699389,19,32765
4.85073,0.526172,0.706044,23,32765
4.69514,0.493516,0.681901,14,32765
0,0,0,0,32765
4.76738,0.469459,0.690886,13,32765
0,0,0,0,32765
5.03656,0.462405,0.728943,14,32765
5.03821,0.445717,0.727947,14,32765
5.07909,0.432647,0.733585,14,32765
5.05095,0.413526,0.728915,13,32765
5.03262,0.395334,0.725576,13,32765
5.06352,0.381351,0.729517,14,32765
5.10423,0.367569,0.735304,13,32765
5.12521,0.352562,0.737581,16,32765
5.01766,0.328696,0.722146,19,32765
5.02862,0.313061,0.72324,18,32765
0,0,0,0,32765
5.17894,0.288277,0.743712,13,32765
0,0,0,0,32765
5.26963,0.25885,0.756888,14,32765
0,0,0,0,32765
5.30083,0.225692,0.761523,15,32765
5.22237,0.20522,0.75041,13,32765
5.22298,0.188392,0.750573,14,32765
5.22349,0.171303,0.751134,13,32765
5.26355,0.155477,0.757174,13,32765
5.26399,0.138117,0.757432,13,32765
5.30395,0.121653,0.763471,14,32765
5.31413,0.104649,0.765457,14,32765
5.30449,0.0874898,0.764397,14,32765
5.37391,0.0716278,0.775135,15,32765
5.36408,0.0543435,0.774672,15,32765
0,0,0,0,32765
5.37392,0.0192251,0.778134,14,32765
5.37372,0.00141587,0.779741,14,32765
5.42312,-0.0162729,0.787349,14,32765
5.41286,-0.0336786,0.787839,13,32765
5.43239,-0.0515205,0.791588,13,32765
5.43183,-0.0689553,0.794096,15,32765
4.27543,1.38912,0.702504,28,32765
4.29901,1.38178,0.70293,27,32765
4.27565,1.35892,0.69553,27,32765
4.32756,1.36006,0.700392,28,32765
4.33252,1.34581,0.697228,28,32765
4.36545,1.34062,0.699995,28,32765
4.32274,1.31226,0.690491,27,32765
4.35573,1.30693,0.692519,28,32765
4.36016,1.29302,0.690753,28,32765
4.37416,1.28165,0.690104,28,32765
4.41665,1.27837,0.693877,29,32765
4.42113,1.2639,0.691824,29,32765
4.3684,1.23321,0.681421,28,32765
4.40126,1.22693,0.684041,28,32765
4.4437,1.22299,0.688034,29,32765
4.45749,1.21118,0.687564,29,32765
4.47113,1.19928,0.68787,30,32765
4.48486,1.18722,0.687493,29,32765
4.4793,1.17014,0.684882,29,32765
4.49298,1.15794,0.684435,29,32765
4.48735,1.14086,0.681537,29,32765
4.51047,1.13104,0.68297,29,32765
4.53369,1.12079,0.684043,30,32765
4.54709,1.1083,0.684482,29,32765
4.54132,1.09098,0.681628,28,32765
4.55463,1.07846,0.682023,30,32765
4.54865,1.06149,0.679293,29,32765
4.53306,1.04207,0.674897,29,32765
4.62339,1.04711,0.686967,30,32765
4.59796,1.02549,0.681684,28,32765
4.60153,1.01032,0.680259,29,32765
4.61469,0.997098,0.680683,30,32765
4.61827,0.981311,0.679322,28,32765
4.67009,0.975984,0.685647,29,32765
4.64433,0.954658,0.680362,28,32765
4.63779,0.937802,0.678084,28,32765
4.67984,0.930554,0.682333,28,32765
4.68293,0.915322,0.681749,29,32765
4.69582,0.901828,0.681803,29,32765
4.66969,0.880698,0.677004,28,32765
4.75048,0.879676,0.68815,30,32765
4.75356,0.863964,0.686787,28,32765
4.78577,0.853364,0.690098,30,32765
4.77894,0.835831,0.687804,29,32765
4.79157,0.821652,0.688355,30,32765
4.765,0.800932,0.683896,29,32765
4.78724,0.788593,0.685892,29,32765
4.81926,0.777465,0.689334,31,32765
4.83169,0.763242,0.689828,29,32765
4.82449,0.745795,0.687737,30,32765
4.85644,0.734064,0.691172,29,32765
4.86872,0.719308,0.692144,30,32765
4.8712,0.702811,0.69161,29,32765
4.80501,0.676933,0.680899,33,32765
4.83675,0.664862,0.684637,33,32765
4.82921,0.64743,0.682612,34,32765
4.90013,0.640447,0.691839,29,32765
4.88268,0.621664,0.688408,33,32765
4.84548,0.600666,0.68224,16,32765
4.83767,0.583593,0.680279,13,32765
4.73147,0.555023,0.664296,13,32765
4.84158,0.551962,0.678879,21,32765
4.88287,0.540215,0.683599,13,32765
4.82559,0.517805,0.674915,15,32765
4.83724,0.502748,0.67559,20,32765
4.85872,0.488738,0.677438,17,32765
0,0,0,0,32765
4.90156,0.460045,0.681179,13,32765
4.87352,0.441098,0.676629,13,32765
5.05272,0.440375,0.700381,13,32765
0,0,0,0,32765
4.97665,0.400991,0.688293,12,32765
4.93858,0.381643,0.681754,12,32765
4.97936,0.368555,0.686855,12,32765
0,0,0,0,32765
0,0,0,0,32765
5.02269,0.321723,0.689524,12,32765
0,0,0,0,32765
5.06456,0.290931,0.69285,13,32765
0,0,0,0,32765
5.08632,0.25913,0.694147,13,32765
0,0,0,0,32765
5.12772,0.22819,0.697702,13,32765
5.23743,0.216087,0.71186,12,32765
5.20862,0.197808,0.706186,12,32765
5.23908,0.181914,0.709253,13,32765
0,0,0,0,32765
5.26034,0.148059,0.709248,13,32765
0,0,0,0,32765
5.17235,0.111956,0.694771,13,32765
5.34132,0.0981622,0.716085,13,32765
5.34171,0.0809438,0.715347,12,32765
0,0,0,0,32765
5.26323,0.0457227,0.701725,13,32765
0,0,0,0,32765
5.3432,0.0124871,0.708611,13,32765
5.3633,-0.00447515,0.709254,14,32765
0,-0,0,0,32765
0,-0,0,0,32765
0,-0,0,0,32765
0,-0,0,0,32765
4.2904,1.39585,0.661552,32,32765
4.27633,1.37632,0.656001,31,32765
4.26232,1.35649,0.650334,31,32765
4.31427,1.35768,0.654738,32,32765
4.30975,1.34051,0.650156,31,32765
4.34268,1.33539,0.652652,32,32765
4.36618,1.3272,0.653547,33,32765
4.38027,1.31603,0.652445,33,32765
4.34676,1.29074,0.645034,32,32765
4.37975,1.28497,0.647105,32,32765
4.38425,1.27066,0.644906,32,32765
4.41725,1.26444,0.64705,33,32765
4.41209,1.24716,0.644164,33,32765
4.48318,1.25139,0.652034,35,32765
4.4589,1.22876,0.645935,33,32765
4.47271,1.21688,0.645365,34,32765
4.47681,1.20234,0.644195,34,32765
4.46183,1.18263,0.639604,32,32765
4.48498,1.17311,0.641202,33,32765
4.52745,1.1683,0.644756,33,32765
4.52184,1.15108,0.64194,34,32765
4.51618,1.13389,0.639095,33,32765
4.5298,1.12123,0.638622,34,32765
4.52397,1.10403,0.63626,33,32765
4.57596,1.10066,0.641611,34,32765
4.55075,1.07886,0.636509,33,32765
4.58334,1.0709,0.639256,33,32765
4.58706,1.05577,0.63772,34,32765
4.60024,1.04312,0.638212,33,32765
4.60377,1.02802,0.63723,34,32765
4.6267,1.01706,0.638474,33,32765
4.6302,1.00163,0.637464,34,32765
4.59502,0.977518,0.630775,34,32765
4.67598,0.978356,0.640623,35,32765
4.66961,0.960965,0.638271,34,32765
4.66308,0.943997,0.636081,33,32765
4.70518,0.93666,0.639948,34,32765
4.67911,0.915609,0.635397,33,32765
4.6628,0.896491,0.631403,32,32765
4.75351,0.8975,0.642693,33,32765
4.73698,0.87814,0.639921,33,32765
4.7693,0.867769,0.642503,33,32765
4.74301,0.84665,0.637658,32,32765
4.77521,0.836067,0.640706,33,32765
4.84647,0.83194,0.649014,35,32765
4.81989,0.811001,0.644832,34,32765
4.84219,0.798463,0.646632,35,32765
4.8547,0.783975,0.647175,35,32765
4.85737,0.768064,0.646265,36,32765
4.85017,0.750501,0.644263,34,32765
4.86257,0.7357,0.644814,34,32765
4.89448,0.7238,0.648289,36,32765
4.81847,0.69585,0.637368,37,32765
4.81107,0.678406,0.635098,38,32765
4.8232,0.663593,0.635964,37,32765
4.86479,0.652769,0.640503,37,32765
4.85715,0.635371,0.638729,36,32765
4.85933,0.619205,0.638073,36,32765
4.7827,0.593364,0.62712,18,32765
4.76501,0.575279,0.623971,17,32765
4.73743,0.556145,0.619329,18,32765
4.77871,0.545195,0.623878,17,32765
4.73131,0.523816,0.616672,14,32765
4.87112,0.523043,0.634239,19,32765
4.82361,0.501653,0.627119,25,32765
4.67734,0.47078,0.607012,17,32765
4.80725,0.467788,0.623225,14,32765
4.75959,0.44696,0.615551,13,32765
4.88952,0.442764,0.631713,13,32765
4.83179,0.421309,0.623194,15,32765
4.77394,0.400454,0.614831,14,32765
4.99278,0.402431,0.642436,14,32765
5.0041,0.38682,0.642618,13,32765
4.98559,0.369102,0.639724,13,32765
4.92757,0.348495,0.630895,15,32765
0,0,0,0,32765
4.93987,0.316423,0.630641,14,32765
4.93114,0.299364,0.628206,13,32765
5.13028,0.294656,0.652523,17,32765
0,0,0,0,32765
5.15208,0.262374,0.653615,14,32765
0,0,0,0,32765
5.12417,0.227872,0.647999,14,32765
5.1547,0.212485,0.651111,13,32765
5.15557,0.195577,0.64949,13,32765
5.23563,0.181547,0.658523,13,32765
0,0,0,0,32765
5.17753,0.145428,0.648395,13,32765
0,0,0,0,32765
5.39693,0.116447,0.673161,14,32765
5.30816,0.0971605,0.66072,13,32765
5.25892,0.0792725,0.653818,14,32765
0,0,0,0,32765
5.17038,0.0444519,0.639765,14,32765
0,0,0,0,32765
5.30002,0.011856,0.652072,12,32765
5.34991,-0.00502654,0.656196,12,32765
1.79659,-0.00750679,0.219785,14,32765
1.7867,-0.0131927,0.217973,15,32765
1.78675,-0.0189456,0.21714,15,32765
1.69744,-0.0232572,0.20556,16,32765
4.17578,1.3612,0.578688,12,32765
4.16126,1.34146,0.576616,16,32765
4.20325,1.34015,0.582379,27,32765
4.23573,1.33599,0.586604,28,32765
4.28728,1.33749,0.59269,27,32765
4.26311,1.31503,0.588704,28,32765
4.31467,1.31574,0.595818,28,32765
4.35696,1.31303,0.600792,29,32765
4.31379,1.28472,0.593588,27,32765
4.29896,1.26507,0.590715,27,32765
4.36973,1.27062,0.599266,28,32765
4.31656,1.24017,0.591754,27,32765
4.42555,1.2559,0.605692,29,32765
4.41071,1.23593,0.602064,29,32765
4.40525,1.21863,0.600712,29,32765
4.40938,1.20396,0.599947,29,32765
4.42288,1.19216,0.601081,28,32765
4.42681,1.17771,0.60065,28,32765
4.4307,1.1634,0.599824,29,32765
4.49208,1.16395,0.607342,30,32765
4.47675,1.14434,0.604011,29,32765
4.48053,1.12973,0.603471,29,32765
4.48433,1.1151,0.602474,29,32765
4.488,1.10051,0.601961,29,32765
4.51098,1.09028,0.603914,29,32765
4.5243,1.07761,0.604611,29,32765
4.52795,1.06252,0.603978,29,32765
4.55097,1.05176,0.605489,30,32765
4.57376,1.04111,0.608028,29,32765
4.59664,1.03038,0.609684,29,32765
4.57109,1.00892,0.604697,29,32765
4.59377,0.998393,0.606735,29,32765
4.60696,0.985177,0.606512,31,32765
4.59091,0.965675,0.603222,29,32765
4.60402,0.952086,0.603396,28,32765
4.61697,0.938662,0.604118,29,32765
4.65898,0.93131,0.608788,28,32765
4.6622,0.915986,0.607426,29,32765
4.65551,0.89887,0.605512,29,32765
4.66831,0.885314,0.605946,29,32765
4.68113,0.87157,0.606093,29,32765
4.70359,0.859756,0.607805,30,32765
4.66753,0.836892,0.601819,28,32765
4.68996,0.824845,0.603231,29,32765
4.7123,0.812625,0.605195,29,32765
4.73466,0.800328,0.606725,28,32765
4.71778,0.781631,0.603298,28,32765
4.80861,0.780213,0.613709,29,32765
4.74272,0.753244,0.604013,27,32765
4.84338,0.752419,0.615708,30,32765
4.80675,0.730212,0.609906,29,32765
4.8583,0.72162,0.615375,30,32765
4.87064,0.706878,0.615443,30,32765
4.8534,0.688147,0.612047,30,32765
4.89506,0.677318,0.616454,30,32765
4.90721,0.662384,0.61697,30,32765
4.8505,0.638317,0.608333,33,32765
4.833,0.619624,0.605188,33,32765
4.89415,0.611295,0.611953,30,32765
4.87659,0.592815,0.60825,31,32765
4.80958,0.568802,0.598984,14,32765
4.77199,0.548622,0.593913,14,32765
4.83303,0.539453,0.600706,15,32765
4.80534,0.520236,0.595757,15,32765
4.80712,0.504066,0.595289,13,32765
4.90764,0.498022,0.606579,21,32765
4.87961,0.478971,0.602967,22,32765
4.75277,0.450859,0.586521,12,32765
4.85311,0.444503,0.598177,14,32765
0,0,0,0,32765
4.87582,0.414069,0.599866,13,32765
4.9267,0.401847,0.605437,13,32765
0,0,0,0,32765
0,0,0,0,32765
0,0,0,0,32765
0,0,0,0,32765
0,0,0,0,32765
0,0,0,0,32765
5.0934,0.298612,0.622629,13,32765
0,0,0,0,32765
5.00605,0.260898,0.611503,13,32765
0,0,0,0,32765
0,0,0,0,32765
5.19676,0.219976,0.634704,13,32765
5.2173,0.203591,0.637154,12,32765
5.21788,0.186573,0.63758,12,32765
0,0,0,0,32765
5.199,0.152108,0.636293,12,32765
5.2491,0.136387,0.64222,13,32765
5.26934,0.119452,0.644894,13,32765
5.26963,0.102386,0.645498,12,32765
0,0,0,0,32765
0,0,0,0,32765
5.38922,0.0523431,0.662182,13,32765
0,0,0,0,32765
0,0,0,0,32765
0,0,0,12,32765
0,-0,0,11,32765
1.84584,-0.0116369,0.228765,13,32765
1.76635,-0.0169732,0.219324,13,32765
1.75626,-0.0226544,0.218931,14,32765
4.13299,1.3493,0.531212,15,32765
4.1751,1.34796,0.536606,17,32765
4.24553,1.35567,0.545641,29,32765
4.24024,1.33942,0.544723,31,32765
4.25395,1.32908,0.545481,30,32765
4.28664,1.32426,0.549063,32,32765
4.30031,1.31331,0.550848,31,32765
4.33314,1.30779,0.554232,32,32765
4.33746,1.29367,0.553568,32,32765
4.31313,1.2711,0.549666,31,32765
4.3554,1.2683,0.553923,32,32765
4.37849,1.25979,0.556672,32,32765
4.38262,1.24552,0.556245,32,32765
4.3964,1.23369,0.556441,32,32765
4.42919,1.22701,0.56002,33,32765
4.36633,1.19391,0.550795,31,32765
4.43731,1.19775,0.55908,33,32765
4.42208,1.17811,0.556234,32,32765
4.43557,1.16632,0.556612,32,32765
4.42976,1.14942,0.555139,32,32765
4.45283,1.13981,0.556815,33,32765
4.50472,1.13741,0.562284,34,32765
4.47964,1.11547,0.557682,33,32765
4.54117,1.11508,0.564359,34,32765
4.54492,1.09999,0.563723,34,32765
4.53897,1.08257,0.561929,34,32765
4.51364,1.0606,0.55771,33,32765
4.57536,1.05882,0.563805,34,32765
4.55948,1.03925,0.561388,33,32765
4.58238,1.02855,0.562859,34,32765
4.60525,1.01781,0.564093,33,32765
4.60858,1.00293,0.563567,34,32765
4.61208,0.987565,0.562061,33,32765
4.66404,0.982334,0.567229,34,32765
4.6286,0.958406,0.561394,33,32765
4.65131,0.946858,0.563197,33,32765
4.65444,0.93159,0.562779,33,32765
4.66739,0.91817,0.562593,33,32765
4.68995,0.90666,0.56429,33,32765
4.70279,0.892967,0.564623,34,32765
4.68635,0.873623,0.561161,33,32765
4.72837,0.86535,0.565019,33,32765
4.72161,0.847622,0.562898,32,32765
4.73431,0.833654,0.562946,33,32765
4.71755,0.814506,0.560069,32,32765
4.73014,0.800514,0.56025,31,32765
4.76223,0.789924,0.562801,33,32765
4.81397,0.781991,0.567736,33,32765
4.81667,0.76587,0.566773,34,32765
4.85859,0.755641,0.570603,35,32765
4.8612,0.739314,0.569777,34,32765
4.84406,0.720303,0.566722,34,32765
4.88589,0.709869,0.570141,35,32765
4.85879,0.689656,0.565784,34,32765
4.88082,0.676066,0.567527,34,32765
4.88313,0.659824,0.566808,34,32765
4.89529,0.644875,0.566721,35,32765
4.84822,0.622203,0.560339,38,32765
4.86015,0.60765,0.560852,37,32765
4.90172,0.596449,0.564156,34,32765
4.71625,0.558294,0.541936,13,32765
4.76741,0.548604,0.547443,20,32765
4.92726,0.550467,0.564997,28,32765
4.80079,0.520199,0.549008,17,32765
4.85198,0.509201,0.554183,15,32765
4.87353,0.494966,0.555513,26,32765
4.88502,0.479879,0.55669,27,32765
4.81739,0.457333,0.548214,14,32765
4.8288,0.442594,0.548805,14,32765
4.78081,0.422206,0.542652,13,32765
4.79211,0.407219,0.543572,13,32765
4.81331,0.39283,0.545316,13,32765
5.03258,0.393788,0.569611,14,32765
4.88524,0.3662,0.552443,13,32765
5.164,0.370047,0.583352,14,32765
0,0,0,0,32765
5.20598,0.339329,0.587465,15,32765
4.90957,0.303864,0.553425,14,32765
4.90063,0.287349,0.552118,14,32765
5.10001,0.282315,0.57426,17,32765
5.17037,0.269444,0.582063,14,32765
0,0,0,0,32765
4.92382,0.224463,0.55425,14,32765
5.13302,0.217171,0.577786,14,32765
5.1635,0.201354,0.581166,13,32765
5.2038,0.185901,0.586062,13,32765
5.15468,0.167394,0.580817,14,32765
5.19484,0.151758,0.586079,13,32765
5.26486,0.136534,0.593779,12,32765
5.31493,0.12019,0.599629,11,32765
0,0,0,0,32765
0,0,0,0,32765
1.81825,0.0233697,0.205687,14,32765
1.83815,0.0177081,0.208274,15,32765
1.82824,0.0116415,0.207398,15,32765
1.78848,0.00563558,0.20327,15,32765
1.74871,-0.000122844,0.199052,16,32765
1.77844,-0.00574928,0.202989,16,32765
1.74857,-0.0112122,0.199981,16,32765
1.70874,-0.016614,0.195821,16,32765
1.70858,-0.0222443,0.196638,16,32765
4.13254,1.34449,0.546677,13,32765
4.18448,1.34628,0.550082,15,32765
4.30279,1.36848,0.561933,28,32765
4.3359,1.36361,0.56294,29,32765
4.31202,1.34106,0.557258,29,32765
4.32614,1.33022,0.555565,28,32765
4.33066,1.31635,0.553355,28,32765
4.30668,1.29373,0.547438,27,32765
4.30151,1.27704,0.544586,28,32765
4.35353,1.27711,0.548371,28,32765
4.34826,1.2603,0.545757,28,32765
4.34308,1.24343,0.542297,27,32765
4.38559,1.23992,0.545232,28,32765
4.33251,1.20944,0.536194,27,32765
4.39418,1.21082,0.5415,28,32765
4.40792,1.19889,0.541224,29,32765
4.44084,1.19216,0.542744,29,32765
4.4449,1.17764,0.541194,28,32765
4.47767,1.17088,0.543222,29,32765
4.44317,1.14654,0.536749,29,32765
4.40853,1.12233,0.530718,26,32765
4.47973,1.12507,0.537324,29,32765
4.51247,1.11764,0.539375,29,32765
4.49702,1.09822,0.535123,29,32765
4.52974,1.09031,0.537402,29,32765
4.51413,1.0707,0.534014,28,32765
4.49839,1.05138,0.530674,28,32765
4.52138,1.04081,0.531694,29,32765
4.53463,1.02811,0.531551,29,32765
4.59629,1.02604,0.537547,30,32765
4.58047,1.00655,0.533464,29,32765
4.60327,0.995703,0.534842,30,32765
4.60676,0.980362,0.533188,30,32765
4.61977,0.967316,0.533416,30,32765
4.62303,0.952127,0.532468,29,32765
4.61652,0.934847,0.530453,29,32765
4.61967,0.919669,0.529588,30,32765
4.69106,0.917685,0.536539,30,32765
4.69427,0.902128,0.534866,31,32765
4.66795,0.881083,0.531318,29,32765
4.72956,0.876695,0.536886,30,32765
4.69337,0.854159,0.531678,29,32765
4.69631,0.83854,0.53061,30,32765
4.72846,0.828175,0.533561,30,32765
4.73133,0.812443,0.532324,29,32765
4.76346,0.80152,0.535392,28,32765
4.80542,0.792127,0.538945,30,32765
4.77868,0.771193,0.535125,29,32765
4.81085,0.759738,0.537178,30,32765
4.81342,0.743619,0.536711,30,32765
4.82581,0.728927,0.536988,30,32765
4.86754,0.718774,0.541185,31,32765
4.86021,0.701015,0.539049,30,32765
4.87239,0.686287,0.539706,30,32765
4.84519,0.666228,0.535415,30,32765
4.90659,0.658017,0.541063,30,32765
4.89891,0.640564,0.539723,31,32765
4.90111,0.624182,0.538906,31,32765
4.83413,0.599459,0.530922,33,32765
4.91518,0.592959,0.538348,30,32765
4.86785,0.570852,0.532059,33,32765
4.85984,0.553841,0.530634,16,32765
4.84195,0.535529,0.527938,13,32765
4.86354,0.521727,0.529342,13,32765
4.75653,0.494262,0.516904,13,32765
4.84725,0.487457,0.525851,15,32765
4.80935,0.467555,0.520721,16,32765
4.93972,0.463504,0.533287,23,32765
4.86207,0.44005,0.524116,18,32765
4.90319,0.427361,0.527823,13,32765
5.01365,0.420152,0.538894,14,32765
4.93583,0.397152,0.529379,12,32765
4.96698,0.382915,0.531629,13,32765
0,0,0,0,32765
4.97941,0.351148,0.531558,13,32765
4.93102,0.331604,0.52533,12,32765
5.05122,0.323334,0.537354,13,32765
5.07221,0.308013,0.538433,13,32765
5.08325,0.292037,0.538258,13,32765
0,0,0,0,32765
0,0,0,0,32765
5.05631,0.240988,0.532643,13,32765
0,0,0,0,32765
0,0,0,0,32765
1.91817,0.0724827,0.200664,13,32765
1.96814,0.0678397,0.205449,14,32765
1.94853,0.0607778,0.202864,14,32765
1.93881,0.0541659,0.201461,15,32765
1.91912,0.0473492,0.199129,15,32765
1.89943,0.0407038,0.196474,15,32765
1.91948,0.0348997,0.198155,16,32765
1.81023,0.0271313,0.186384,15,32765
1.83026,0.0215582,0.187865,15,32765
1.7707,0.0152689,0.181117,15,32765
1.78071,0.00972757,0.18187,16,32765
1.8405,0.00398265,0.187236,15,32765
1.76096,-0.00192895,0.178648,16,32765
0,-0,0,0,32765
0,-0,0,0,32765
5.19366,-0.0546636,0.520863,11,32765
5.2534,-0.0721578,0.524406,11,32765
4.0233,1.31101,0.491851,14,32765
4.16024,1.34058,0.505195,18,32765
4.25969,1.3569,0.513655,31,32765
4.2833,1.34918,0.513272,33,32765
4.32574,1.34742,0.515812,33,32765
4.32087,1.33067,0.511765,32,32765
4.30637,1.311,0.507317,31,32765
4.32991,1.30273,0.507266,32,32765
4.31522,1.2831,0.503387,32,32765
4.35776,1.28033,0.505589,33,32765
4.35249,1.26348,0.503066,32,32765
4.37595,1.25477,0.502992,32,32765
4.39941,1.24574,0.503348,33,32765
4.39414,1.22853,0.500315,32,32765
4.39843,1.21385,0.498516,32,32765
4.44096,1.20972,0.501392,33,32765
4.48353,1.20545,0.503694,34,32765
4.42997,1.17547,0.495676,32,32765
4.46276,1.16875,0.497427,33,32765
4.4667,1.15436,0.495607,33,32765
4.47058,1.13984,0.494202,33,32765
4.51298,1.13512,0.496945,34,32765
4.52646,1.12279,0.496585,34,32765
4.53032,1.108,0.494623,34,32765
4.5631,1.09997,0.496611,35,32765
4.52814,1.07562,0.491302,34,32765
4.58018,1.07208,0.495478,34,32765
4.58388,1.05675,0.494197,35,32765
4.56808,1.03721,0.490816,33,32765
4.60071,1.02853,0.493122,34,32765
4.62372,1.01754,0.493368,34,32765
4.63686,1.00442,0.493516,35,32765
4.61118,0.982719,0.488755,33,32765
4.63394,0.971676,0.489917,34,32765
4.63722,0.956412,0.488966,34,32765
4.63071,0.939053,0.48704,34,32765
4.66313,0.929633,0.489243,35,32765
4.67605,0.916034,0.489398,34,32765
4.64994,0.894858,0.484675,33,32765
4.70177,0.888699,0.489551,35,32765
4.71455,0.875119,0.489471,34,32765
4.73704,0.863289,0.490723,35,32765
4.72041,0.843994,0.487621,34,32765
4.75261,0.833533,0.490288,34,32765
4.74569,0.816005,0.488035,33,32765
4.74843,0.800057,0.487797,34,32765
4.77079,0.787458,0.488965,33,32765
4.77347,0.771362,0.488444,32,32765
4.80566,0.759906,0.490217,34,32765
4.78856,0.740732,0.487747,33,32765
4.8403,0.732049,0.491933,34,32765
4.84272,0.71601,0.491756,34,32765
4.83535,0.698302,0.489718,34,32765
4.86725,0.686408,0.492277,34,32765
4.89916,0.674471,0.494233,36,32765
4.82257,0.647529,0.485412,38,32765
4.80497,0.629028,0.483177,38,32765
4.92558,0.628035,0.494261,35,32765
4.90792,0.609313,0.49188,35,32765
4.84089,0.584661,0.483728,38,32765
4.85277,0.569721,0.483834,37,32765
4.75577,0.542576,0.473641,17,32765
4.7576,0.526765,0.473112,13,32765
4.7396,0.508967,0.470412,14,32765
4.76112,0.495247,0.471772,17,32765
4.85192,0.488416,0.479874,16,32765
4.88332,0.475209,0.481962,24,32765
4.90484,0.460667,0.482563,34,32765
4.93613,0.447161,0.484856,22,32765
4.79883,0.418634,0.470675,13,32765
4.86969,0.408432,0.476842,14,32765
4.85128,0.390663,0.473922,14,32765
5.09082,0.392762,0.49622,13,32765
4.8837,0.360589,0.475218,14,32765
5.00403,0.353118,0.486376,13,32765
4.97546,0.334796,0.482539,13,32765
5.10571,0.327002,0.494392,13,32765
5.09692,0.309663,0.492393,12,32765
5.17752,0.297576,0.49882,11,32765
1.9581,0.106115,0.188398,15,32765
1.93859,0.0986735,0.186046,15,32765
1.93893,0.0924229,0.185754,16,32765
1.8796,0.0834197,0.179558,15,32765
1.87991,0.077235,0.179122,16,32765
1.87024,0.0706501,0.177818,16,32765
1.86055,0.0640989,0.176482,16,32765
1.81104,0.0564476,0.171289,16,32765
1.81125,0.0505499,0.170945,16,32765
1.78157,0.0438937,0.16788,16,32765
1.80166,0.0385358,0.169196,17,32765
1.76199,0.0319548,0.165111,16,32765
1.75217,0.0261702,0.163716,16,32765
1.73239,0.0203057,0.16132,16,32765
1.68271,0.0144042,0.156092,14,32765
0,0,0,12,32765
0,0,0,0,32765
0,-0,0,0,32765
5.20817,-0.0230142,0.476784,12,32765
5.23812,-0.0393713,0.477609,11,32765
0,-0,0,0,32765
0,-0,0,0,32765
4.1989,1.37153,0.449154,26,32765
4.21275,1.36106,0.450303,18,32765
4.14125,1.32328,0.442575,13,32765
4.15499,1.31289,0.443616,13,32765
4.22571,1.32007,0.450856,13,32765
4.27756,1.32094,0.455591,28,32765
4.31029,1.31598,0.458775,28,32765
4.33349,1.30806,0.460775,28,32765
4.31872,1.2884,0.457774,29,32765
4.30386,1.26862,0.455531,28,32765
4.28892,1.24877,0.453727,27,32765
4.36003,1.25401,0.459602,28,32765
4.35456,1.23699,0.458401,28,32765
4.34902,1.22013,0.457077,28,32765
4.38183,1.21388,0.459285,28,32765
4.41455,1.20751,0.462211,29,32765
4.43779,1.19832,0.463094,29,32765
4.39372,1.17074,0.457668,28,32765
4.43619,1.16615,0.460849,29,32765
4.39194,1.13884,0.455574,28,32765
4.4922,1.14881,0.464749,30,32765
4.45732,1.1246,0.460372,29,32765
4.45141,1.10769,0.458296,28,32765
4.52267,1.10991,0.464703,30,32765
4.51668,1.09286,0.462732,29,32765
4.55908,1.0871,0.465923,31,32765
4.54334,1.06739,0.463465,31,32765
4.53728,1.04995,0.461632,29,32765
4.51173,1.02823,0.457752,29,32765
4.554,1.02199,0.461196,29,32765
4.55751,1.00683,0.459839,29,32765
4.59003,0.998238,0.462127,30,32765
4.58369,0.980892,0.460145,30,32765
4.60643,0.969876,0.461522,31,32765
4.59021,0.950652,0.458587,30,32765
4.63246,0.943203,0.461755,30,32765
4.65517,0.931595,0.463012,31,32765
4.66821,0.91765,0.462781,30,32765
4.67137,0.901998,0.461624,31,32765
4.64507,0.880964,0.457969,30,32765
4.65781,0.867324,0.458441,29,32765
4.67053,0.853975,0.458001,30,32765
4.70286,0.843743,0.459616,32,32765
4.68611,0.824798,0.456571,29,32765
4.70852,0.812658,0.457673,30,32765
4.77019,0.806832,0.462529,29,32765
4.75326,0.78777,0.459952,30,32765
4.73631,0.768706,0.457055,30,32765
4.7684,0.757529,0.459399,31,32765
4.79069,0.744578,0.460178,30,32765
4.80306,0.730009,0.460556,30,32765
4.78582,0.710956,0.458281,29,32765
4.80801,0.697859,0.458728,29,32765
4.84979,0.687728,0.461479,30,32765
4.86198,0.672937,0.461731,31,32765
4.8544,0.655384,0.460121,30,32765
4.81716,0.633924,0.455484,29,32765
4.8984,0.627837,0.461616,30,32765
4.88072,0.609254,0.459373,29,32765
4.86296,0.590915,0.45702,29,32765
4.92428,0.582034,0.461642,30,32765
4.92625,0.565975,0.46063,31,32765
4.87868,0.544116,0.455334,31,32765
4.82112,0.521566,0.449042,13,32765
4.79315,0.502449,0.445892,12,32765
4.76516,0.483511,0.44224,13,32765
4.8262,0.473575,0.447729,15,32765
4.85752,0.46034,0.450043,14,32765
4.93837,0.451718,0.456962,31,32765
4.94986,0.436238,0.456818,28,32765
4.84216,0.4107,0.44634,13,32765
0,0,0,0,32765
4.94412,0.386748,0.45444,13,32765
0,0,0,0,32765
0,0,0,0,32765
2.06654,0.141213,0.189398,12,32765
2.0173,0.131238,0.184871,12,32765
2.01773,0.124621,0.1848,14,32765
1.9883,0.116315,0.182026,14,32765
1.98867,0.109785,0.181997,15,32765
1.95919,0.101678,0.179273,15,32765
1.93962,0.0943226,0.17742,15,32765
1.94986,0.0883947,0.178413,15,32765
1.95015,0.0820379,0.178298,15,32765
1.9106,0.0741157,0.174691,15,32765
1.89091,0.0672229,0.17298,15,32765
1.91101,0.0617612,0.174978,15,32765
1.84151,0.0534895,0.168784,15,32765
1.87154,0.0482071,0.171471,15,32765
1.80198,0.0404959,0.165314,16,32765
1.82199,0.0349543,0.167391,16,32765
1.78225,0.0283943,0.163949,16,32765
1.79229,0.0227096,0.164892,16,32765
1.7724,0.0167116,0.163503,16,32765
0,0,0,0,32765
0,0,0,0,32765
5.22752,-0.0013408,0.485319,12,32765
5.20751,-0.0183175,0.484104,12,32765
5.23716,-0.0351866,0.488376,12,32765
5.13733,-0.0510061,0.480472,11,32765
5.40574,-0.0711652,0.507768,11,32765
4.22095,1.38115,0.409363,30,32765
4.15906,1.34607,0.403072,21,32765
4.04005,1.29319,0.391493,15,32765
4.12016,1.30414,0.398871,15,32765
4.10539,1.2847,0.397177,16,32765
4.27132,1.32128,0.412476,30,32765
4.25647,1.30178,0.410782,32,32765
4.29871,1.29978,0.414431,32,32765
4.2839,1.28019,0.411624,32,32765
4.3263,1.2774,0.415067,32,32765
4.34962,1.26859,0.417117,32,32765
4.373,1.25987,0.417746,32,32765
4.3484,1.23732,0.41481,31,32765
4.3812,1.23122,0.417231,32,32765
4.38528,1.21688,0.416417,33,32765
4.40844,1.20785,0.418149,32,32765
4.41246,1.19347,0.417028,33,32765
4.44532,1.18646,0.419333,33,32765
4.44935,1.17154,0.418505,33,32765
4.45327,1.15665,0.418223,33,32765
4.44755,1.13927,0.416509,32,32765
4.47055,1.12978,0.417925,33,32765
4.48397,1.11762,0.41774,34,32765
4.53598,1.11499,0.421686,35,32765
4.51064,1.09317,0.418011,33,32765
4.51432,1.07816,0.417245,32,32765
4.51793,1.06313,0.416767,34,32765
4.56035,1.05698,0.419494,34,32765
4.55422,1.03957,0.417671,34,32765
4.56741,1.02663,0.418065,35,32765
4.60011,1.01786,0.419364,35,32765
4.57429,0.996388,0.416051,34,32765
4.63611,0.993672,0.420347,36,32765
4.62967,0.976297,0.418883,35,32765
4.62321,0.958981,0.41701,35,32765
4.60695,0.939468,0.414527,34,32765
4.6199,0.925967,0.414722,33,32765
4.71111,0.92751,0.421399,37,32765
4.68496,0.90601,0.417615,36,32765
4.69779,0.892324,0.41772,36,32765
4.69099,0.87483,0.416353,34,32765
4.70374,0.861348,0.415808,36,32765
4.70669,0.845703,0.41454,35,32765
4.71937,0.831896,0.414266,34,32765
4.76144,0.823017,0.416892,37,32765
4.76426,0.807022,0.416028,34,32765
4.7768,0.792836,0.416208,34,32765
4.79918,0.78005,0.41691,34,32765
4.80181,0.763946,0.416405,34,32765
4.84383,0.753924,0.41869,35,32765
4.85624,0.739149,0.418967,35,32765
4.86858,0.724278,0.419422,35,32765
4.8218,0.700848,0.413733,33,32765
4.86362,0.690654,0.416105,35,32765
4.86595,0.674421,0.415417,34,32765
4.88799,0.660826,0.416424,35,32765
4.91989,0.648324,0.418032,36,32765
4.92216,0.631733,0.41669,35,32765
4.91436,0.614272,0.415469,35,32765
4.85703,0.590973,0.409959,39,32765
4.93819,0.584438,0.415685,34,32765
4.94016,0.568304,0.414669,35,32765
4.92227,0.549674,0.412329,31,32765
4.78542,0.51835,0.399969,14,32765
4.87635,0.511798,0.407031,24,32765
4.98716,0.506648,0.415202,33,32765
4.81029,0.472572,0.400316,17,32765
4.6829,0.444305,0.389158,16,32765
4.93248,0.451689,0.409341,30,32765
4.72555,0.416929,0.391031,21,32765
2.10527,0.178756,0.173979,13,32765
2.10586,0.171922,0.173786,14,32765
2.01701,0.157937,0.166166,15,32765
2.00758,0.150622,0.165358,15,32765
1.95837,0.140457,0.161087,15,32765
1.92901,0.13193,0.158417,15,32765
1.92943,0.125625,0.158443,16,32765
1.90995,0.118055,0.156742,16,32765
1.89043,0.110667,0.155069,16,32765
1.86093,0.102797,0.152593,16,32765
1.87121,0.097165,0.153414,16,32765
1.85161,0.0900839,0.15175,16,32765
1.85189,0.0839828,0.15183,15,32765
1.82229,0.076677,0.149273,17,32765
1.80261,0.0699329,0.147672,16,32765
1.80282,0.0640863,0.147775,16,32765
1.76316,0.056967,0.144673,16,32765
1.75336,0.0509024,0.144032,16,32765
1.73359,0.0446167,0.142349,16,32765
1.7636,0.0395845,0.145026,15,32765
1.6242,0.0311044,0.133779,12,32765
0,0,0,12,32765
0,0,0,0,32765
0,0,0,0,32765
5.21206,0.0320125,0.431598,12,32765
5.24194,0.0151091,0.435201,11,32765
0,-0,0,0,32765
0,-0,0,0,32765
0,-0,0,0,32765
0,-0,0,0,32765
0,-0,0,0,32765
4.23999,1.38221,0.427024,27,32765
4.17846,1.34699,0.417412,17,32765
4.14516,1.32144,0.410304,14,32765
4.24454,1.33813,0.417417,13,32765
4.14447,1.29193,0.404867,13,32765
4.28211,1.31942,0.415505,27,32765
4.29616,1.30836,0.413903,29,32765
4.28155,1.28868,0.409566,28,32765
4.34314,1.2919,0.413041,29,32765
4.37614,1.28626,0.413884,29,32765
4.32319,1.25513,0.40624,28,32765
4.31787,1.23823,0.403544,28,32765
4.36998,1.23771,0.406155,28,32765
4.35495,1.21817,0.402561,27,32765
4.39741,1.21472,0.404518,29,32765
4.38238,1.19505,0.400219,28,32765
4.43446,1.19372,0.403404,29,32765
4.40001,1.16892,0.398081,28,32765
4.39435,1.15181,0.395784,28,32765
4.42723,1.14482,0.396367,28,32765
4.44079,1.13259,0.395773,29,32765
4.47356,1.12542,0.39702,29,32765
4.43865,1.10132,0.391914,29,32765
4.5101,1.10339,0.396363,30,32765
4.52346,1.09107,0.395956,30,32765
4.50783,1.07146,0.392408,30,32765
4.52107,1.05902,0.392432,29,32765
4.51494,1.04184,0.390424,29,32765
4.53794,1.03129,0.390398,29,32765
4.54138,1.01633,0.389619,29,32765
4.5741,1.00762,0.390307,31,32765
4.55803,0.988249,0.387474,29,32765
4.59063,0.979368,0.388622,30,32765
4.59394,0.963977,0.388058,30,32765
4.63626,0.956845,0.389872,31,32765
4.63952,0.941241,0.389125,31,32765
4.65249,0.92781,0.388737,31,32765
4.65561,0.912462,0.387721,31,32765
4.66849,0.898811,0.387663,32,32765
4.68129,0.885217,0.387739,31,32765
4.64512,0.86226,0.383374,30,32765
4.6872,0.854132,0.385987,29,32765
4.69006,0.838498,0.3856,29,32765
4.73221,0.829796,0.38728,32,32765
4.70552,0.809081,0.384095,31,32765
4.72793,0.796641,0.384902,30,32765
4.76015,0.78598,0.385803,31,32765
4.79232,0.77493,0.387341,31,32765
4.7752,0.755925,0.385431,30,32765
4.76787,0.738554,0.384094,29,32765
4.80001,0.726827,0.385418,31,32765
4.79264,0.709036,0.383996,29,32765
4.80494,0.694277,0.383971,29,32765
4.83687,0.68217,0.3864,30,32765
4.79967,0.660694,0.382403,29,32765
4.83158,0.648635,0.38366,29,32765
4.90291,0.641726,0.388931,31,32765
4.89515,0.624368,0.387485,30,32765
4.90712,0.609442,0.387699,31,32765
4.88942,0.590814,0.384847,30,32765
4.94091,0.580301,0.388319,31,32765
4.93296,0.562714,0.386866,31,32765
4.87537,0.539912,0.381643,35,32765
4.94656,0.531136,0.386671,31,32765
4.81942,0.50136,0.376009,16,32765
4.93026,0.496274,0.383565,12,32765
2.28241,0.222008,0.176937,12,32765
2.19382,0.205962,0.169795,12,32765
2.09523,0.189583,0.161715,14,32765
2.09587,0.182667,0.161429,14,32765
2.02694,0.169907,0.155767,14,32765
2.01758,0.162463,0.154479,15,32765
2.02805,0.156691,0.155107,15,32765
1.9888,0.147098,0.15179,15,32765
2.00918,0.142024,0.153004,15,32765
1.95,0.131341,0.147816,16,32765
1.97035,0.126165,0.148981,16,32765
1.96083,0.119059,0.147918,16,32765
1.95128,0.111953,0.146885,15,32765
1.91184,0.103422,0.143442,15,32765
1.89227,0.0961511,0.141603,16,32765
1.90257,0.0904337,0.141982,16,32765
1.90287,0.0842576,0.141696,16,32765
1.87327,0.0768929,0.139108,16,32765
1.85361,0.0700718,0.137225,16,32765
1.88375,0.0650059,0.139122,16,32765
1.8541,0.0578607,0.136284,16,32765
0,0,0,0,32765
5.14475,0.126801,0.375542,11,32765
5.12524,0.109788,0.37338,13,32765
5.12567,0.0932395,0.372008,13,32765
5.11606,0.0765759,0.370024,12,32765
5.20617,0.0610898,0.374772,11,32765
0,0,0,0,32765
0,0,0,0,32765
0,0,0,0,32765
0,-0,0,0,32765
0,-0,0,0,32765
0,-0,0,0,32765
0,-0,0,0,32765
0,-0,0,0,32765
4.21448,1.37636,0.382424,30,32765
4.17182,1.34727,0.37519,22,32765
4.09102,1.30652,0.364235,16,32765
4.10488,1.29642,0.362877,14,32765
4.10922,1.28324,0.360618,15,32765
4.22786,1.30504,0.368301,29,32765
4.30858,1.31449,0.372402,32,32765
4.29396,1.29473,0.368245,33,32765
4.30784,1.28369,0.367079,33,32765
4.33126,1.27534,0.366845,32,32765
4.33565,1.26099,0.364615,32,32765
4.33033,1.24402,0.362006,32,32765
4.35371,1.2353,0.36175,32,32765
4.40584,1.2346,0.363898,33,32765
4.42916,1.22566,0.363882,33,32765
4.42376,1.20847,0.360534,33,32765
4.37965,1.18104,0.355426,31,32765
4.42219,1.17688,0.356717,32,32765
4.44548,1.16727,0.356827,33,32765
4.42051,1.14509,0.352486,32,32765
4.45339,1.13779,0.353332,33,32765
4.48619,1.13057,0.354292,34,32765
4.49965,1.1184,0.353355,34,32765
4.5034,1.10367,0.351828,34,32765
4.48768,1.08432,0.349066,33,32765
4.53021,1.07865,0.350219,34,32765
4.5629,1.07067,0.35164,34,32765
4.56651,1.05556,0.35046,35,32765
4.58956,1.04482,0.350225,35,32765
4.59305,1.02966,0.349436,35,32765
