x, y, z, intensity, ring
1.0237,0.107015,0.0385918,13,32765
0.894801,0.090538,0.0336791,14,32765
0.875207,0.0856259,0.0328663,15,32765
0.855596,0.080832,0.0319716,16,32765
0.855873,0.0779202,0.0317793,17,32765
0.866089,0.075936,0.0319901,18,32765
0.866348,0.0729801,0.0318665,18,32765
0.856629,0.0692973,0.0313753,18,32765
0.866819,0.0672527,0.0316539,18,32765
0.867044,0.0643994,0.0314327,18,32765
0.857287,0.0608472,0.030938,18,32765
0.867459,0.0586672,0.0311808,19,32765
0.867656,0.0557827,0.0310075,18,32765
0.857864,0.0523261,0.0305206,18,32765
0.868014,0.0500627,0.030734,18,32765
0.868178,0.0472422,0.0305867,19,32765
0.848376,0.0433366,0.0296772,17,32765
1.03819,0.0495797,0.03613,12,32765
0,0,0,0,32765
1.13836,0.0468817,0.03911,11,32765
0.868869,0.0329556,0.0296759,15,32765
0.918921,0.0318406,0.0311607,16,32765
0.909036,0.0285623,0.0306291,15,32765
0.879159,0.0247505,0.0294487,15,32765
0.889238,0.0220408,0.0294985,15,32765
0.859336,0.0184516,0.0282967,15,32765
0.82942,0.0150935,0.0271096,17,32765
0.829471,0.0124376,0.0268825,17,32765
0.819519,0.00970193,0.0263406,17,32765
0.839542,0.0072105,0.0267687,18,32765
0.83957,0.00445718,0.0265155,17,32765
0.829593,0.00166175,0.0259453,17,32765
0.839598,-0.000981553,0.02598,18,32765
0.819609,-0.0035266,0.0250766,18,32765
0.819603,-0.0061789,0.0247425,17,32765
0.829582,-0.00903701,0.0247485,18,32765
0.829561,-0.0117342,0.0242905,18,32765
0.588548,0.193235,0.0259106,14,32765
0.570155,0.185174,0.025183,14,32765
0.580254,0.186409,0.0256284,13,32765
0.609424,0.193601,0.0268571,14,32765
0.610055,0.191599,0.0268703,14,32765
0.601138,0.186647,0.0263696,13,32765
0.592193,0.181758,0.0259223,14,32765
0.592777,0.179846,0.0259034,13,32765
0.555086,0.166413,0.0242178,14,32765
0.584368,0.173113,0.0254193,14,32765
0.546587,0.159949,0.023642,13,32765
0.614301,0.17758,0.0264499,13,32765
0.547631,0.156357,0.0235207,13,32765
0.586603,0.165424,0.025125,13,32765
0.539018,0.150104,0.0229781,12,32765
0.558786,0.15362,0.0236459,13,32765
0.607505,0.16486,0.0256694,13,32765
0.656305,0.175786,0.0276231,13,32765
0.647228,0.171058,0.0271079,12,32765
0.589785,0.153788,0.024568,13,32765
0.629012,0.161761,0.0260303,12,32765
0.658609,0.167024,0.0271517,13,32765
0.659164,0.164839,0.0270345,12,32765
0.63061,0.155469,0.0256906,12,32765
0.640831,0.155754,0.0260144,12,32765
0.563612,0.135002,0.0227199,13,32765
0.573786,0.135428,0.022989,13,32765
0.525571,0.122213,0.020962,12,32765
0.584421,0.13384,0.0232094,13,32765
0.565374,0.127492,0.0223128,13,32765
0.643852,0.142899,0.025191,13,32765
0.615044,0.134342,0.023945,13,32765
0.586183,0.125993,0.0226841,13,32765
0.615933,0.130254,0.0236764,14,32765
0.587014,0.122104,0.0224784,13,32765
0.616795,0.126157,0.0234057,14,32765
0.617216,0.124107,0.0232731,14,32765
0.578422,0.114277,0.0216465,14,32765
0.588618,0.114222,0.0219476,14,32765
0.569372,0.108501,0.0210498,14,32765
0.628679,0.117586,0.0231497,14,32765
0.638902,0.117296,0.0233564,14,32765
0.550772,0.0992321,0.0200756,13,32765
0.600306,0.106123,0.0216841,14,32765
0.640048,0.11095,0.0229955,14,32765
0.620717,0.105442,0.0221805,13,32765
0.630933,0.104979,0.0224196,13,32765
0.621433,0.101225,0.0217916,14,32765
0.62177,0.0991436,0.0217311,13,32765
0.592475,0.0924676,0.0205832,13,32765
0.553268,0.084445,0.0190811,13,32765
0.622749,0.0928829,0.0213763,13,32765
0.54395,0.0792386,0.0184367,13,32765
0.613478,0.0872669,0.020708,13,32765
0.63357,0.0879608,0.021259,13,32765
0.643763,0.0872095,0.021519,13,32765
0.673783,0.0889803,0.0223459,13,32765
0.565042,0.0726812,0.0185866,13,32765
0.694209,0.0869459,0.0226661,13,32765
0.724258,0.0882477,0.0237089,13,32765
0.873435,0.103482,0.0283326,14,32765
0.943286,0.108571,0.0304062,15,32765
0.913846,0.102121,0.029254,16,32765
0.924121,0.100178,0.029422,17,32765
0.934391,0.0981566,0.0296423,17,32765
0.934707,0.0951009,0.0296474,18,32765
0.944972,0.0929573,0.0297916,17,32765
0.945278,0.0898395,0.0296216,16,32765
0.965479,0.0885505,0.0301525,16,32765
0.985684,0.0871045,0.0306622,15,32765
1.00589,0.0854943,0.0313093,15,32765
1.04603,0.0853202,0.032323,14,32765
1.03634,0.0810593,0.031942,14,32765
1.10638,0.0828462,0.0341794,13,32765
1.14652,0.0821269,0.0352707,13,32765
1.14678,0.0783961,0.0351995,13,32765
1.09717,0.0713903,0.0336364,13,32765
1.15725,0.0715178,0.0354279,13,32765
1.0577,0.0618723,0.0323056,13,32765
1.08784,0.0600747,0.033236,13,32765
1.03812,0.053898,0.0316962,13,32765
0,0,0,0,32765
0,0,0,0,32765
1.44806,0.0607689,0.0440823,11,32765
0.928872,0.0359345,0.0283733,15,32765
0.948962,0.0335638,0.0290581,17,32765
0.969047,0.0311017,0.0296846,16,32765
0.969142,0.0279596,0.029714,15,32765
0.959231,0.0245499,0.0295618,15,32765
0.969297,0.0216323,0.0299233,14,32765
0.919393,0.0174968,0.0284599,16,32765
0.919444,0.0144294,0.0285447,17,32765
0.919482,0.0114387,0.0286868,17,32765
0.899521,0.00826892,0.0281776,17,32765
0.889543,0.00530871,0.0280106,17,32765
0.899548,0.00241063,0.0284215,18,32765
0.90954,-0.000547007,0.0289354,18,32765
0.869547,-0.00333356,0.0278858,17,32765
0.899509,-0.00632542,0.0290572,18,32765
0.889481,-0.00910485,0.0290029,18,32765
0.889435,-0.0120151,0.0293443,17,32765
0.512675,0.168696,0.017489,14,32765
0.494203,0.160861,0.0169348,14,32765
0.504229,0.162341,0.0172825,13,32765
0.504755,0.160701,0.017256,14,32765
0.486213,0.153039,0.0166151,13,32765
0.534429,0.166297,0.0181719,14,32765
0.53497,0.164553,0.0181457,13,32765
0.525938,0.159914,0.0178046,14,32765
0.497748,0.149547,0.0168203,13,32765
0.498236,0.147917,0.0167765,14,32765
0.489137,0.143447,0.0163548,14,32765
0.528009,0.152964,0.0175551,14,32765
0.509293,0.145725,0.0168828,14,32765
0.538621,0.15222,0.0177957,14,32765
0.481357,0.134335,0.0158107,14,32765
0.501075,0.13805,0.0163058,14,32765
0.491884,0.13377,0.01598,13,32765
0.521285,0.139921,0.0168533,13,32765
0.541074,0.143308,0.0173862,13,32765
0.502867,0.131403,0.0160484,13,32765
0.532348,0.137193,0.0168482,13,32765
0.532807,0.135408,0.0167832,13,32765
0.562344,0.140925,0.0175985,13,32765
0.543407,0.134254,0.0168611,13,32765
0.524426,0.127732,0.0162003,13,32765
0.515133,0.123651,0.0157709,13,32765
0.554453,0.131141,0.0168425,14,32765
0.525683,0.122497,0.015877,13,32765
0.526092,0.120736,0.0158033,14,32765
0.506997,0.114568,0.0151076,13,32765
0.53666,0.119359,0.0158128,14,32765
0.527295,0.115417,0.0154385,14,32765
0.527681,0.113656,0.0153297,14,32765
0.547616,0.116049,0.0157711,14,32765
0.538216,0.112187,0.0154246,14,32765
0.548384,0.112398,0.0155301,14,32765
0.52916,0.106623,0.0148616,14,32765
0.539328,0.106774,0.0149978,14,32765
0.520063,0.101128,0.014394,14,32765
0.510586,0.0975005,0.0139733,14,32765
0.510918,0.0957582,0.01391,14,32765
0.491575,0.0904351,0.0132556,13,32765
0.491873,0.0888032,0.0132137,13,32765
0.53154,0.0941603,0.0141077,14,32765
0.561401,0.0975173,0.0147944,13,32765
0.58144,0.0989727,0.0152127,13,32765
0.571915,0.0953543,0.0148522,12,32765
0.483447,0.0789103,0.0123314,12,32765
0.503454,0.0804419,0.0127857,12,32765
0.513596,0.0803208,0.0129382,13,32765
0.484221,0.0740571,0.0120779,13,32765
0.63278,0.0945712,0.0156838,13,32765
0.553967,0.080862,0.0134938,13,32765
0.54434,0.0775892,0.0131861,13,32765
0.584207,0.0812719,0.014037,13,32765
0.495317,0.0672354,0.0118401,13,32765
0.782958,0.103607,0.018514,15,32765
0.822969,0.106072,0.0192408,18,32765
0.843162,0.105814,0.0195106,17,32765
0.863358,0.105407,0.0200545,15,32765
0.933204,0.110784,0.021403,14,32765
1.11234,0.128285,0.0252888,12,32765
1.19225,0.133497,0.0268444,12,32765
1.13305,0.123071,0.0253182,12,32765
1.34226,0.141281,0.0298438,12,32765
1.30293,0.132826,0.0289665,12,32765
1.11433,0.109833,0.0245632,12,32765
0.885782,0.0843498,0.0193595,14,32765
0.846235,0.0777651,0.0184081,16,32765
0.866409,0.0767128,0.0187426,17,32765
0.866661,0.073803,0.0187663,16,32765
0.856947,0.0700319,0.0183652,16,32765
0.84721,0.0663925,0.0180917,17,32765
0.847425,0.0635761,0.0181586,17,32765
0.847628,0.0608312,0.0180547,16,32765
0.867772,0.0594334,0.0184256,15,32765
0.947776,0.0617842,0.0200916,14,32765
1.31718,0.0815513,0.0278673,11,32765
0,0,0,0,32765
0,0,0,0,32765
0,0,0,0,32765
1.32813,0.0646444,0.0279646,11,32765
0,0,0,0,32765
1.1787,0.0495482,0.0247464,12,32765
0.939086,0.036389,0.0198141,15,32765
0.929209,0.0329171,0.0196763,16,32765
0.879349,0.0282657,0.0186318,16,32765
0.859448,0.0248308,0.0182344,16,32765
0.799555,0.0204908,0.0170907,17,32765
0.829602,0.0185374,0.0177774,17,32765
0.819662,0.0156153,0.0176337,17,32765
0.819708,0.0128747,0.0177092,17,32765
0.839736,0.0104514,0.018271,17,32765
0.789778,0.00725895,0.0172838,17,32765
0.809789,0.00482581,0.0178544,17,32765
0.819796,0.002184,0.0181625,18,32765
0.819795,-0.000511891,0.0183411,18,32765
0.819784,-0.00316752,0.0185506,17,32765
0.809768,-0.00572452,0.0185134,17,32765
0.819737,-0.00842732,0.0189894,17,32765
0.819697,-0.0111154,0.0193041,17,32765
0.598235,0.19622,0.0226431,14,32765
0.608393,0.197354,0.0225587,13,32765
0.570982,0.183163,0.020758,14,32765
0.581107,0.184355,0.0206924,13,32765
0.572174,0.179493,0.0199764,14,32765
0.620488,0.192457,0.0213432,14,32765
0.582895,0.178733,0.019701,14,32765
0.602612,0.182643,0.0200085,14,32765
0.564936,0.169145,0.0183583,14,32765
0.60385,0.17858,0.0193484,14,32765
0.585264,0.170958,0.0184385,15,32765
0.576217,0.166295,0.0178745,14,32765
0.586367,0.167198,0.0178487,14,32765
0.577292,0.162587,0.0172979,14,32765
0.568199,0.158016,0.0167692,14,32765
0.616926,0.169351,0.0179643,14,32765
0.559608,0.151604,0.0159796,14,32765
0.598737,0.160092,0.0168682,14,32765
0.599267,0.158118,0.0166726,14,32765
0.590115,0.153639,0.0160942,15,32765
0.580942,0.1492,0.0156743,14,32765
0.591129,0.149733,0.0156994,14,32765
0.581921,0.145378,0.0152663,14,32765
0.572695,0.141072,0.0147984,14,32765
0.582875,0.141546,0.0148767,14,32765
0.593068,0.141943,0.0149387,14,32765
0.603273,0.142259,0.014983,15,32765
0.584269,0.135738,0.0143066,15,32765
0.584727,0.13377,0.0141526,14,32765
0.585176,0.131812,0.013959,14,32765
0.585617,0.129853,0.0138102,15,32765
0.595814,0.13005,0.0138929,16,32765
0.576694,0.123888,0.0132572,15,32765
0.577109,0.121959,0.0130932,15,32765
0.616673,0.128143,0.0139302,14,32765
0.558332,0.11406,0.0124563,14,32765
0.637134,0.127931,0.0139313,14,32765
0.598326,0.118056,0.0129729,14,32765
0.618353,0.119851,0.0132296,13,32765
0.667856,0.127154,0.014162,13,32765
0.6388,0.119398,0.0133694,14,32765
0.59986,0.110057,0.0124429,13,32765
0.580551,0.104498,0.0118652,13,32765
0.630128,0.111241,0.0128016,13,32765
0.650204,0.112531,0.0130871,12,32765
0.591435,0.100319,0.0118502,12,32765
0.611494,0.101638,0.0120526,12,32765
0.621708,0.101175,0.0119579,12,32765
0.661543,0.105367,0.0126154,12,32765
0.622382,0.0969695,0.0117163,13,32765
0.573286,0.0873362,0.0107406,13,32765
0.642806,0.0956996,0.0119257,13,32765
0.623339,0.0906478,0.0114561,13,32765
0.613737,0.0871778,0.0112581,13,32765
0,0,0,0,32765
0,0,0,0,32765
1.12014,0.147617,0.020103,12,32765
1.1008,0.141222,0.0197591,13,32765
1.25009,0.156113,0.0223938,11,32765
0,0,0,0,32765
1.34048,0.158351,0.0233168,12,32765
1.47014,0.168686,0.0254112,11,32765
1.38126,0.153856,0.0236194,11,32765
1.25253,0.135306,0.0212885,12,32765
1.27287,0.133203,0.0215075,12,32765
0.96493,0.0977247,0.016153,13,32765
0.905552,0.0886115,0.0149636,15,32765
0.925752,0.0874845,0.015153,17,32765
0.955912,0.0871316,0.0155235,16,32765
0.946237,0.0830763,0.0152679,16,32765
0.956476,0.0807614,0.015224,15,32765
0.926846,0.0751392,0.0145382,16,32765
0.956996,0.0744044,0.0149408,16,32765
0.94727,0.0704753,0.0145663,15,32765
0.967449,0.0687426,0.0147086,16,32765
0.957699,0.064872,0.0143251,16,32765
0.908021,0.0584622,0.0134181,12,32765
0,0,0,0,32765
0,0,0,0,32765
0.858641,0.0467473,0.0122564,14,32765
0.958652,0.0490287,0.0134718,15,32765
0,0,0,0,32765
0,0,0,0,32765
0,0,0,0,32765
1.44882,0.0552035,0.019091,11,32765
1.08925,0.0379649,0.0141713,12,32765
0.859503,0.0271254,0.010927,16,32765
0.889575,0.0251441,0.0111748,17,32765
0.889657,0.0221604,0.0109018,17,32765
0.889728,0.0192108,0.0107254,17,32765
0.879791,0.0161094,0.0104047,17,32765
0.88984,0.0133888,0.0102839,17,32765
0.889882,0.0105083,0.00995526,17,32765
0.879915,0.00754333,0.00965589,17,32765
0.869938,0.0046335,0.00925836,17,32765
0.869952,0.00181616,0.0089768,16,32765
0.889955,-0.00104198,0.00892993,17,32765
0.87995,-0.00387557,0.00853095,17,32765
0.879936,-0.00668683,0.00825011,17,32765
0.949907,-0.0102502,0.00848489,16,32765
0.919878,-0.0128625,0.0077253,16,32765
0.503315,0.165459,0.0140641,13,32765
0.551397,0.179268,0.0149884,14,32765
0.551988,0.177469,0.0146103,13,32765
0.523985,0.166608,0.0134832,13,32765
0.476844,0.149925,0.0119431,14,32765
0.544156,0.169161,0.0133537,14,32765
0.525595,0.161527,0.0125884,14,32765
0.516558,0.156914,0.0120691,14,32765
0.507517,0.152296,0.0115041,14,32765
0.53679,0.159105,0.0119287,14,32765
0.54692,0.160117,0.0118652,14,32765
0.537837,0.155567,0.0114125,13,32765
0.490272,0.140112,0.0101226,14,32765
0.500351,0.141234,0.010097,14,32765
0.548972,0.153012,0.0108353,14,32765
0.510924,0.140567,0.00988754,14,32765
0.511397,0.138854,0.00961266,14,32765
0.482882,0.129405,0.00889613,13,32765
0.531641,0.14059,0.00961201,14,32765
0.532104,0.138846,0.0093327,14,32765
0.522881,0.13459,0.00902229,14,32765
0.503945,0.127936,0.00848664,14,32765
0.523762,0.131142,0.00865466,14,32765
0.524195,0.129413,0.00845897,14,32765
0.505191,0.122955,0.00799596,14,32765
0.505599,0.121279,0.00783727,14,32765
0.544927,0.128787,0.00825869,14,32765
0.5064,0.11791,0.00750118,14,32765
0.497051,0.113965,0.00722585,14,32765
0.497433,0.112297,0.00706108,14,32765
0.507569,0.112798,0.00707033,14,32765
0.527478,0.115391,0.00721158,14,32765
0.498533,0.107335,0.00665492,14,32765
0.459763,0.0973768,0.00600215,13,32765
0.518826,0.10805,0.00672553,14,32765
0.528985,0.108305,0.00671284,14,32765
0.56856,0.114416,0.00696599,13,32765
0.510086,0.100869,0.00615903,13,32765
0.530056,0.102964,0.00625112,13,32765
0.520573,0.0993318,0.00604356,13,32765
0.540563,0.10126,0.00612945,12,32765
0.550733,0.101267,0.00614544,13,32765
0.521551,0.0940857,0.00566355,12,32765
0.512019,0.0905898,0.00550043,13,32765
0.492618,0.0854453,0.00520188,13,32765
0.532334,0.0904929,0.00557541,13,32765
0.503043,0.0837963,0.00510711,12,32765
0.562541,0.091748,0.00544621,13,32765
0.582598,0.0929971,0.00554754,13,32765
0.563152,0.087934,0.00522724,12,32765
0,0,0,0,32765
0,0,0,0,32765
0,0,0,0,32765
0,0,0,0,32765
0,0,0,0,32765
1.51609,0.205433,0.0128327,11,32765
1.39781,0.184612,0.0117902,11,32765
1.24967,0.160669,0.0105492,11,32765
1.4288,0.178818,0.0120154,11,32765
1.21102,0.147449,0.00973748,11,32765
1.30088,0.154006,0.0102735,11,32765
1.25171,0.143935,0.00975263,12,32765
1.2025,0.134234,0.00915077,12,32765
1.04387,0.113009,0.00783897,13,32765
0.984573,0.103256,0.00729888,13,32765
0.895377,0.0908761,0.00650006,15,32765
0.845921,0.0829547,0.00596106,16,32765
0.826283,0.0782526,0.00569619,16,32765
0.82654,0.0755012,0.00559376,16,32765
0.836749,0.0736211,0.00557802,16,32765
0.846956,0.0716671,0.00546306,16,32765
0.847192,0.0688287,0.005271,16,32765
0.877325,0.0683557,0.00539602,15,32765
0.897493,0.0669143,0.00531123,13,32765
0,0,0,0,32765
0,0,0,0,32765
0,0,0,0,32765
0.978156,0.0598746,0.00504929,12,32765
1.22793,0.0710859,0.00620679,12,32765
1.30804,0.0713639,0.00631325,12,32765
1.23836,0.0634669,0.0057048,12,32765
0,0,0,0,32765
0,0,0,0,32765
0.969161,0.0401416,0.0039013,12,32765
0.799412,0.0305225,0.00298672,17,32765
0.789514,0.0275745,0.00281896,18,32765
0.789601,0.0249703,0.00258559,18,32765
0.799675,0.0226489,0.00249834,18,32765
0.789751,0.0197113,0.00222473,18,32765
0.79981,0.0173034,0.00209435,17,32765
0.799863,0.0146743,0.00191227,18,32765
0.789908,0.0119076,0.00167618,18,32765
0.799943,0.00946334,0.00140195,17,32765
0.809969,0.00695528,0.00124686,18,32765
0.799988,0.00426673,0.000966795,18,32765
0.799998,0.00167031,0.000707871,17,32765
0.809999,-0.000953945,0.000486237,18,32765
0.809992,-0.00357872,0.000211345,18,32765
0.809977,-0.0061721,-4.71528e-05,18,32765
0.819952,-0.00887064,-0.000411548,17,32765
0.859915,-0.0120538,-0.000891196,14,32765
0.579292,0.190965,0.00723944,13,32765
0.598928,0.195266,0.00753112,14,32765
0.599557,0.193325,0.00753115,13,32765
0.590656,0.188335,0.00741208,14,32765
0.600809,0.189396,0.00756155,14,32765
0.582327,0.181498,0.00728321,13,32765
0.621138,0.191387,0.00767723,13,32765
0.593053,0.180648,0.00735743,13,32765
0.612791,0.184475,0.00747605,14,32765
0.603818,0.179586,0.00730308,13,32765
0.604415,0.177566,0.00727351,14,32765
0.547387,0.158824,0.00653988,14,32765
0.595978,0.170769,0.00692129,13,32765
0.577297,0.163352,0.00668375,13,32765
0.606726,0.169518,0.00687712,13,32765
0.597636,0.16488,0.00677134,14,32765
0.588529,0.160286,0.00651894,13,32765
0.569736,0.153174,0.00619441,13,32765
0.608896,0.161566,0.00651473,13,32765
0.6191,0.162089,0.0065326,14,32765
0.619635,0.160036,0.0064442,13,32765
0.610485,0.155465,0.00619648,13,32765
0.620709,0.155822,0.00625825,13,32765
0.58241,0.144106,0.00570729,14,32765
0.592604,0.144528,0.00568268,14,32765
0.612527,0.147233,0.00576815,14,32765
0.574098,0.135955,0.00528613,14,32765
0.584282,0.136334,0.00521971,14,32765
0.584734,0.134388,0.00507328,13,32765
0.614441,0.139051,0.00523823,14,32765
0.566104,0.126112,0.00470962,14,32765
0.576295,0.126343,0.00460745,13,32765
0.586491,0.126519,0.00462127,13,32765
0.596699,0.126605,0.00458228,13,32765
0.606909,0.126653,0.00451631,13,32765
0.558357,0.11455,0.0039479,13,32765
0.588148,0.118598,0.00408272,14,32765
0.598347,0.118596,0.00402492,14,32765
0.608554,0.118519,0.00396456,13,32765
0.579487,0.11082,0.00367098,13,32765
0.599519,0.112534,0.00361621,13,32765
0.639237,0.117736,0.00371786,13,32765
0.560906,0.101364,0.00312063,13,32765
0.649854,0.115228,0.00355089,13,32765
0.66009,0.114764,0.0033057,13,32765
0.591463,0.100816,0.00284278,13,32765
0.621387,0.10378,0.00291457,13,32765
0.641474,0.1049,0.00262502,13,32765
0.602325,0.0964329,0.00229968,12,32765
0,0,0,0,32765
0,0,0,0,32765
1.33509,0.200068,0.00431677,12,32765
1.29618,0.18976,0.00396236,12,32765
0,0,0,0,32765
0,0,0,0,32765
1.37732,0.18729,0.00342319,12,32765
1.40768,0.186614,0.00329219,11,32765
1.34879,0.174214,0.00287636,12,32765
1.27001,0.159567,0.00278502,11,32765
1.34002,0.163849,0.0026244,12,32765
1.24126,0.147538,0.00228313,12,32765
1.22188,0.141092,0.00200527,12,32765
1.13291,0.126963,0.0016628,12,32765
1.20291,0.130762,0.0015336,12,32765
1.05417,0.111047,0.00117163,13,32765
0.984887,0.100484,0.00095775,13,32765
0.99517,0.0981651,0.000772383,13,32765
1.07513,0.102452,0.00077356,13,32765
0.965926,0.088803,0.000578053,14,32765
0.926372,0.0820689,0.000419967,15,32765
0.906715,0.0772533,0.000272214,16,32765
0.906969,0.0742139,0.000239266,17,32765
0.887272,0.0696322,0.000134194,15,32765
1.12682,0.084661,7.59589e-05,11,32765
0,0,0,0,32765
0,0,-0,0,32765
0,0,-0,0,32765
0,0,-0,0,32765
1.41757,0.0831058,-0.000151626,12,32765
1.42782,0.079011,-0.000198008,11,32765
0,0,-0,0,32765
1.44828,0.0705532,-0.000404086,11,32765
1.4585,0.0662645,-0.000307788,11,32765
0.909193,0.038316,-0.000172045,14,32765
0.879337,0.0341631,-0.000141348,17,32765
0.869451,0.0309034,-0.000107038,18,32765
0.879544,0.0283348,-3.011e-05,18,32765
0.849645,0.0245478,-6.69395e-05,17,32765
0.839725,0.0214873,-6.85153e-06,17,32765
0.869784,0.0194051,6.10375e-05,17,32765
0.87984,0.0167846,0.000160144,17,32765
0.87989,0.0139182,0.00025406,18,32765
0.839934,0.0105595,0.000317273,17,32765
0.869962,0.00811082,0.000493907,18,32765
0.869984,0.00525015,0.000666989,17,32765
0.869996,0.00240237,0.000757922,17,32765
0.829999,-0.00045336,0.000915024,17,32765
0.889993,-0.00339106,0.00120629,18,32765
0.839978,-0.00594659,0.00134674,17,32765
0.859953,-0.00885411,0.00166496,17,32765
0.939912,-0.0127027,0.00215631,15,32765
0.493738,0.163159,0.00128053,13,32765
0.522787,0.170857,0.00140151,14,32765
0.523339,0.169159,0.00140121,13,32765
0.533413,0.170495,0.0014268,13,32765
0.524437,0.165721,0.00142712,14,32765
0.505883,0.158053,0.00134167,13,32765
0.525503,0.16231,0.00132128,13,32765
0.487767,0.148935,0.00125332,13,32765
0.53612,0.161782,0.00127202,14,32765
0.536657,0.159994,0.0012218,13,32765
0.527597,0.15537,0.00117387,13,32765
0.499309,0.145221,0.00107224,13,32765
0.499792,0.143551,0.000910721,13,32765
0.490645,0.139165,0.000880818,13,32765
0.519991,0.145631,0.000811656,13,32765
0.520464,0.143931,0.000814337,13,32765
0.520936,0.142215,0.000687319,13,32765
0.502087,0.135308,0.000563976,13,32765
0.541185,0.14394,0.00051852,13,32765
0.522313,0.137074,0.000427578,13,32765
0.522765,0.135337,0.000352741,13,32765
0.532912,0.136032,0.000230655,12,32765
0.533373,0.134214,0.000198952,13,32765
0.57265,0.142026,5.60036e-05,13,32765
0.505125,0.123484,-5.29326e-05,14,32765
0.573586,0.138198,-0.000154758,13,32765
0.486482,0.115478,-0.0002295,13,32765
0.52581,0.12298,-0.000388495,13,32765
0.526217,0.121224,-0.000520498,13,32765
0.536373,0.12167,-0.000607819,13,32765
0.54654,0.12204,-0.000728079,13,32765
0.537182,0.118046,-0.000886235,13,32765
0.54735,0.118353,-0.000962555,13,32765
0.489061,0.104011,-0.000954709,13,32765
0.538347,0.112609,-0.00117555,14,32765
0.509341,0.104739,-0.0012979,13,32765
0.5587,0.112924,-0.00149223,14,32765
0.51003,0.101329,-0.0014688,13,32765
0.510364,0.0996291,-0.00157494,13,32765
0.628553,0.120485,-0.00204899,13,32765
0.560168,0.105394,-0.00199253,12,32765
0.599859,0.110742,-0.0022597,13,32765
0.580548,0.10516,-0.00233036,13,32765
0.590738,0.104991,-0.00242684,13,32765
0.305394,0.0532208,-0.0013923,11,32765
0,0,-0,0,32765
1.50898,0.252611,-0.00734321,11,32765
1.40128,0.229689,-0.00765036,11,32765
1.09596,0.175876,-0.00627859,13,32765
1.02739,0.161323,-0.00589337,14,32765
1.13665,0.174606,-0.00690298,12,32765
1.32511,0.199038,-0.00834764,12,32765
1.35546,0.198904,-0.00877178,12,32765
0,0,-0,0,32765
0,0,-0,0,32765
1.29797,0.176914,-0.00912483,12,32765
1.22916,0.16333,-0.00881646,12,32765
1.06112,0.137379,-0.00782572,12,32765
1.04174,0.131194,-0.00761585,13,32765
1.0521,0.128946,-0.00793431,12,32765
0.992949,0.1183,-0.00760292,13,32765
0.874138,0.101175,-0.00686341,14,32765
0.854598,0.095998,-0.00685527,14,32765
0.974201,0.106149,-0.00799934,13,32765
0.875105,0.0924015,-0.00732593,13,32765
0.835612,0.0854549,-0.00710891,15,32765
0.845844,0.0836318,-0.00735948,15,32765
0.826208,0.078917,-0.00723305,17,32765
0.846381,0.0779958,-0.00750976,15,32765
0.816753,0.0725282,-0.00736321,16,32765
0.876772,0.0748784,-0.00803627,14,32765
1.29559,0.106264,-0.011919,11,32765
0,0,-0,0,32765
0,0,-0,11,32765
0,0,-0,0,32765
0,0,-0,0,32765
0,0,-0,0,32765
1.68668,0.10464,-0.0162125,11,32765
1.20786,0.07098,-0.0115423,11,32765
1.25801,0.0697801,-0.0120593,11,32765
0,0,-0,0,32765
1.17854,0.0575499,-0.0114594,11,32765
0.799134,0.0363944,-0.00771483,17,32765
0.819231,0.0346076,-0.00788994,19,32765
0.809349,0.0315197,-0.00777075,19,32765
0.799456,0.0284841,-0.0076448,19,32765
0.809542,0.0261428,-0.00766848,18,32765
0.789633,0.0228695,-0.00751436,18,32765
0.799701,0.0205133,-0.00755305,18,32765
0.809762,0.0181106,-0.00758407,19,32765
0.799819,0.0152961,-0.00740102,18,32765
0.789868,0.0125257,-0.00722422,18,32765
0.789905,0.00995613,-0.00715394,19,32765
0.789934,0.00738424,-0.00700386,18,32765
0.789956,0.00478063,-0.00684671,17,32765
0.809967,0.00224423,-0.0069354,16,32765
0.769973,-0.000419317,-0.00641485,17,32765
0.769969,-0.0029384,-0.00622009,18,32765
0.779957,-0.00553238,-0.00610752,18,32765
0.769937,-0.00794375,-0.005773,18,32765
0.809905,-0.0109692,-0.00578295,17,32765
0.607879,0.200172,0.00376362,14,32765
0.599017,0.195109,0.00326452,14,32765
0.580611,0.187039,0.00269602,13,32765
0.628851,0.200348,0.00260132,13,32765
0.619965,0.195291,0.00213884,13,32765
0.620603,0.193257,0.00179053,14,32765
0.621234,0.191223,0.00137111,13,32765
0.6123,0.186248,0.00098139,14,32765
0.62248,0.187131,0.000754425,14,32765
0.613504,0.182244,0.000380768,13,32765
0.594896,0.174638,0.0001295,13,32765
0.633876,0.183852,-0.000250031,13,32765
0.634478,0.181764,-0.000389895,13,32765
0.635082,0.179639,-0.000712217,13,32765
0.597157,0.166741,-0.000957675,13,32765
0.568789,0.156773,-0.00114234,13,32765
0.588598,0.160157,-0.00142967,13,32765
0.598777,0.16082,-0.00170216,13,32765
0.637963,0.169113,-0.0020666,13,32765
0.609498,0.159398,-0.00222738,13,32765
0.590658,0.152373,-0.00235716,13,32765
0.591164,0.150393,-0.00262101,14,32765
0.552865,0.138684,-0.00259122,13,32765
0.650394,0.160864,-0.00326823,12,32765
0.612061,0.149233,-0.00330945,13,32765
0.631995,0.151886,-0.00354817,13,32765
0.603305,0.142864,-0.00364185,13,32765
0.623253,0.145397,-0.00393041,14,32765
0.58475,0.13436,-0.00385719,13,32765
0.643722,0.145606,-0.00449504,13,32765
0.614927,0.136911,-0.00446127,14,32765
0.615384,0.134836,-0.00461781,13,32765
0.625604,0.134892,-0.0048646,13,32765
0.635828,0.134894,-0.00515493,13,32765
0.636273,0.132771,-0.00535264,13,32765
0.607327,0.124609,-0.00518357,13,32765
0.637151,0.128482,-0.00562156,14,32765
0.608154,0.120493,-0.0054564,13,32765
0.647817,0.126087,-0.00588734,14,32765
0.65806,0.125772,-0.00618418,13,32765
0.609338,0.11434,-0.0057899,13,32765
0.717885,0.132251,-0.00709895,13,32765
0.688802,0.124515,-0.00693558,13,32765
0.708906,0.12569,-0.00733319,13,32765
0,0,-0,11,32765
0,0,-0,0,32765
1.42026,0.237114,-0.015464,11,32765
1.28288,0.209766,-0.0145685,12,32765
1.33295,0.213368,-0.0152162,12,32765
1.40281,0.219667,-0.0164741,11,32765
1.36401,0.208812,-0.0163192,11,32765
1.41416,0.211573,-0.0169492,11,32765
1.44456,0.211059,-0.0174436,11,32765
1.49475,0.213258,-0.0184729,11,32765
1.40632,0.195817,-0.0177066,11,32765
1.15926,0.157449,-0.0149383,12,32765
1.21925,0.161484,-0.0158775,12,32765
1.13053,0.145848,-0.0148894,12,32765
1.09135,0.136939,-0.0140953,12,32765
1.00247,0.122414,-0.012978,13,32765
0.97309,0.115471,-0.0127289,14,32765
1.00327,0.115648,-0.0132645,14,32765
1.00365,0.112284,-0.0134108,14,32765
0.934434,0.10136,-0.0126485,14,32765
0.885043,0.0930099,-0.0121538,16,32765
0.885346,0.0900661,-0.0122677,17,32765
0.875691,0.0861004,-0.0122984,16,32765
0.89588,0.0850725,-0.0127525,16,32765
0.876241,0.0802638,-0.0125939,16,32765
0.896423,0.079086,-0.0131,15,32765
1.18561,0.100617,-0.017476,11,32765
0,0,-0,0,32765
0,0,-0,0,32765
0,0,-0,0,32765
0,0,-0,0,32765
0,0,-0,0,32765
0,0,-0,0,32765
0,0,-0,0,32765
0,0,-0,0,32765
0,0,-0,0,32765
0,0,-0,0,32765
0,0,-0,0,32765
0.918942,0.0412307,-0.0156539,13,32765
0.86912,0.0361307,-0.014978,16,32765
0.899206,0.0343866,-0.0156943,17,32765
0.869333,0.0303803,-0.0154145,16,32765
0.869426,0.0275026,-0.0155863,17,32765
0.869507,0.0246485,-0.0158207,17,32765
0.859584,0.0215366,-0.0158588,18,32765
0.839654,0.0182729,-0.0157354,18,32765
0.82971,0.0153535,-0.0156843,18,32765
0.829751,0.0126535,-0.0159057,18,32765
0.829782,0.00996133,-0.0162172,18,32765
0.849801,0.00745872,-0.0168269,16,32765
0.819821,0.00451463,-0.0165168,16,32765
0.819827,0.00184846,-0.0167236,17,32765
0.819822,-0.000832937,-0.017046,17,32765
0.849803,-0.00358382,-0.01794,18,32765
0.809792,-0.00598517,-0.0173672,19,32765
0.809759,-0.00866599,-0.0177649,19,32765
0.819716,-0.0114538,-0.0183064,18,32765
0.531771,0.175544,-0.00197342,13,32765
0.522829,0.170717,-0.00232283,13,32765
0.532894,0.172094,-0.00279209,13,32765
0.552496,0.176459,-0.00316951,14,32765
0.514926,0.162606,-0.00330266,14,32765
0.544092,0.169852,-0.00379186,13,32765
0.544644,0.168064,-0.00415993,13,32765
0.506939,0.154583,-0.00417352,13,32765
0.545736,0.164468,-0.00470127,13,32765
0.565438,0.168384,-0.00520026,13,32765
0.537197,0.158091,-0.00515232,14,32765
0.537704,0.156346,-0.00548168,13,32765
0.567049,0.162851,-0.00590067,13,32765
0.519489,0.147307,-0.00566458,13,32765
0.52961,0.148248,-0.00602577,14,32765
0.501186,0.138483,-0.00590093,14,32765
0.549871,0.149991,-0.00670089,13,32765
0.531047,0.142984,-0.00668695,13,32765
0.53151,0.141244,-0.00689937,13,32765
0.493286,0.129326,-0.00660402,13,32765
0.532435,0.137694,-0.007303,13,32765
0.494135,0.126021,-0.00699269,13,32765
0.50425,0.126803,-0.00725965,13,32765
0.572601,0.141975,-0.00843301,13,32765
0.543927,0.13295,-0.00821452,13,32765
0.5152,0.124124,-0.00788367,13,32765
0.515609,0.122401,-0.00810395,13,32765
0.545221,0.127509,-0.00871258,14,32765
0.555385,0.127929,-0.00903221,13,32765
0.536312,0.121612,-0.00892561,13,32765
0.507443,0.11326,-0.00857973,13,32765
0.527352,0.115835,-0.00904412,13,32765
0.527734,0.114071,-0.00919071,13,32765
0.537887,0.114399,-0.00954245,13,32765
0.51869,0.108504,-0.00935685,13,32765
0.548431,0.112805,-0.00995713,13,32765
0.568408,0.114905,-0.01048,14,32765
0.529566,0.105182,-0.00983954,13,32765
0.588796,0.114883,-0.0110048,13,32765
0.579359,0.111005,-0.0110044,13,32765
0.530599,0.0998123,-0.0101306,12,32765
0.61941,0.114393,-0.0120624,13,32765
0.698491,0.12658,-0.0137246,13,32765
0.600471,0.106729,-0.0119607,13,32765
1.22136,0.212808,-0.0244645,11,32765
1.26148,0.215428,-0.0255651,12,32765
1.28191,0.214549,-0.0262114,11,32765
1.23327,0.202157,-0.0257881,11,32765
1.33266,0.213854,-0.0279389,11,32765
1.26423,0.198461,-0.0269133,12,32765
1.14632,0.175924,-0.0246504,12,32765
1.1568,0.1735,-0.0248949,12,32765
0.979325,0.143443,-0.0211593,13,32765
0.940209,0.134476,-0.0205764,13,32765
0.970357,0.135451,-0.0214574,13,32765
0.960895,0.130835,-0.0215281,13,32765
0.862216,0.114483,-0.0194314,13,32765
0.862596,0.111561,-0.0195641,14,32765
0.872903,0.109803,-0.019572,14,32765
0.932803,0.114193,-0.0209401,14,32765
0.853764,0.101566,-0.0192778,15,32765
0.834234,0.0964054,-0.0189511,16,32765
0.804745,0.0902586,-0.0183917,17,32765
0.814981,0.0886259,-0.0187647,18,32765
0.805327,0.0848467,-0.0186982,18,32765
0.815549,0.083176,-0.0190342,17,32765
0.815821,0.0804177,-0.0191913,16,32765
0.955413,0.090957,-0.0226543,12,32765
0,0,-0,0,32765
0.776743,0.068703,-0.018708,11,32765
0,0,-0,0,32765
0,0,-0,0,32765
0,0,-0,0,32765
0,0,-0,0,32765
0,0,-0,0,32765
0,0,-0,0,32765
0,0,-0,0,32765
0,0,-0,0,32765
0,0,-0,0,32765
0,0,-0,0,32765
0,0,-0,0,32765
0,0,-0,0,32765
0,0,-0,12,32765
0.958826,0.0399717,-0.0255807,13,32765
0.879036,0.0337109,-0.0236445,14,32765
0.809205,0.0283609,-0.0219902,14,32765
0.829272,0.02631,-0.0226971,15,32765
0.809364,0.0230131,-0.0223684,16,32765
0.799437,0.0200922,-0.0222968,16,32765
0.809486,0.0176735,-0.0228122,17,32765
0.789547,0.01466,-0.0223786,17,32765
0.77959,0.0119318,-0.0223034,17,32765
0.779616,0.00939652,-0.0225961,17,32765
0.799627,0.00705073,-0.0233815,18,32765
0.799638,0.00442985,-0.0236584,17,32765
0.789647,0.00180046,-0.0235618,18,32765
0.779643,-0.000778175,-0.0235702,18,32765
0.79962,-0.00336381,-0.024429,17,32765
0.769612,-0.0056858,-0.0237708,16,32765
0.59967,-0.00642029,-0.0188173,15,32765
0.519687,-0.00726777,-0.0165125,15,32765
0.569509,0.18853,-0.0107824,14,32765
0.608136,0.199095,-0.0114811,14,32765
0.608764,0.197167,-0.0114911,14,32765
0.599865,0.192182,-0.0112931,14,32765
0.600491,0.190215,-0.0113263,14,32765
0.601121,0.188211,-0.0113883,14,32765
0.592188,0.183269,-0.0112329,13,32765
0.640587,0.195955,-0.012239,13,32765
0.602933,0.182315,-0.0115452,13,32765
0.584361,0.174628,-0.0112911,13,32765
0.623277,0.184063,-0.0121093,13,32765
0.623878,0.182007,-0.0122289,13,32765
0.614877,0.17714,-0.0121449,14,32765
0.615475,0.175051,-0.012123,13,32765
0.616065,0.17295,-0.0123256,13,32765
0.549193,0.152201,-0.0110231,13,32765
0.617204,0.168831,-0.0124615,13,32765
0.62741,0.169385,-0.0128547,13,32765
0.608642,0.16217,-0.0124955,13,32765
0.570501,0.149964,-0.0118065,13,32765
0.580674,0.150564,-0.0121532,13,32765
0.619919,0.158521,-0.0130789,13,32765
0.591356,0.149129,-0.0126117,13,32765
0.601547,0.149578,-0.0129286,13,32765
0.553488,0.135674,-0.0120019,13,32765
0.553938,0.133814,-0.0120844,12,32765
0.573839,0.136565,-0.0126232,13,32765
0.642432,0.150595,-0.0142293,13,32765
0.633188,0.146191,-0.0141953,13,32765
0.555687,0.126308,-0.0125748,12,32765
0.556106,0.124443,-0.0126579,12,32765
0.595572,0.131171,-0.0136998,13,32765
0.547162,0.118544,-0.0127029,13,32765
0.625779,0.133364,-0.014641,13,32765
0.567517,0.118931,-0.0133938,13,32765
0.607078,0.125094,-0.0144123,13,32765
0.568299,0.115115,-0.0136092,13,32765
0.637314,0.12686,-0.0154089,13,32765
0.627915,0.122818,-0.0154283,14,32765
0.598872,0.115035,-0.0148162,13,32765
0.638551,0.120422,-0.0158513,13,32765
0.5898,0.109172,-0.0147526,12,32765
0.619673,0.112522,-0.0156418,13,32765
0.669259,0.11917,-0.0170463,13,32765
0.600721,0.104865,-0.0153952,13,32765
0.876968,0.150055,-0.0226044,13,32765
0.985913,0.165275,-0.0256755,15,32765
0.927276,0.152215,-0.0242986,14,32765
1.00674,0.161766,-0.0266534,13,32765
0.928277,0.145908,-0.0247543,13,32765
1.01768,0.156458,-0.0273533,12,32765
0.889688,0.133704,-0.024041,14,32765
0.87035,0.127782,-0.0237289,16,32765
0.870773,0.12483,-0.0239203,16,32765
0.881085,0.123255,-0.0244281,15,32765
0.950819,0.129783,-0.0264533,14,32765
0.921521,0.122623,-0.0257239,14,32765
0.931831,0.120833,-0.0262683,14,32765
0.902471,0.113979,-0.0255801,15,32765
0.853238,0.10485,-0.0243285,16,32765
0.803952,0.0960637,-0.0230762,16,32765
0.853917,0.099107,-0.0245764,16,32765
0.854243,0.0962172,-0.0247054,17,32765
0.85456,0.0933091,-0.0249101,16,32765
0.834988,0.0883135,-0.0244226,16,32765
0.944657,0.0967299,-0.0276993,13,32765
0,0,-0,11,32765
0,0,-0,0,32765
0,0,-0,0,32765
0,0,-0,0,32765
0,0,-0,0,32765
0,0,-0,0,32765
0,0,-0,0,32765
0,0,-0,0,32765
0,0,-0,0,32765
0,0,-0,0,32765
0,0,-0,0,32765
0,0,-0,0,32765
0,0,-0,0,32765
0,0,-0,0,32765
0,0,-0,0,32765
0,0,-0,0,32765
0,0,-0,0,32765
0,0,-0,0,32765
1.25845,0.0492167,-0.0383711,12,32765
1.24862,0.0447098,-0.0379698,12,32765
1.1089,0.0360163,-0.0336758,12,32765
0.979134,0.028546,-0.0296823,13,32765
0.929265,0.0240193,-0.0281031,15,32765
0.899363,0.0202447,-0.0271363,17,32765
0.859451,0.0165369,-0.0258829,17,32765
0.869498,0.0138559,-0.0260839,17,32765
0.859548,0.0108736,-0.0256855,17,32765
0.859582,0.00808705,-0.0255781,17,32765
0.849612,0.00516739,-0.0251448,17,32765
0.849627,0.00240039,-0.0250642,17,32765
0.829644,-0.000372762,-0.0242925,17,32765
0.829644,-0.00300434,-0.0241042,17,32765
0.839631,-0.00578544,-0.0242196,17,32765
0.839614,-0.00864151,-0.0239545,17,32765
0.729644,-0.00992136,-0.0205363,16,32765
0.502826,0.166899,-0.0145051,14,32765
0.531869,0.17459,-0.015309,14,32765
0.541928,0.175986,-0.0155916,14,32765
0.542486,0.17426,-0.0155754,14,32765
0.524,0.166425,-0.0150581,14,32765
0.505477,0.158684,-0.0145631,14,32765
0.563282,0.174784,-0.0162363,13,32765
0.554293,0.170005,-0.0160481,13,32765
0.497441,0.150813,-0.0144188,13,32765
0.517078,0.154929,-0.0150732,14,32765
0.536746,0.158927,-0.0156988,13,32765
0.518077,0.151538,-0.0152378,13,32765
0.537789,0.155339,-0.0158936,13,32765
0.538315,0.153508,-0.0158747,13,32765
0.519588,0.146249,-0.015479,13,32765
0.49118,0.136481,-0.0146601,14,32765
0.510912,0.140122,-0.0153055,13,32765
0.540317,0.146254,-0.0163431,13,32765
0.56011,0.14963,-0.0169605,13,32765
0.473615,0.124822,-0.0144156,13,32765
0.493376,0.128263,-0.0151289,13,32765
0.571261,0.146461,-0.0176088,13,32765
0.494217,0.124958,-0.0153433,12,32765
0.581914,0.145074,-0.0181579,13,32765
0.524152,0.128819,-0.0164521,13,32765
0.573152,0.138817,-0.0180612,13,32765
0.54445,0.129909,-0.0172521,12,32765
0.544885,0.128062,-0.0173443,13,32765
0.506356,0.117213,-0.0162509,12,32765
0.555476,0.126589,-0.0179404,13,32765
0.575401,0.129097,-0.0186561,12,32765
0.566068,0.124999,-0.0184862,13,32765
0.517655,0.112444,-0.0170121,13,32765
0.654868,0.139928,-0.0216353,13,32765
0.528182,0.110977,-0.0175543,13,32765
0.538338,0.11122,-0.0179637,13,32765
0.538705,0.109406,-0.0180841,13,32765
0.539067,0.107584,-0.0182173,13,32765
0.578646,0.113477,-0.0197788,13,32765
0.529955,0.102063,-0.0182012,13,32765
0.569576,0.107696,-0.0196063,13,32765
0.55028,0.102123,-0.019043,13,32765
0.609616,0.110986,-0.0212327,13,32765
0.590309,0.105388,-0.0206919,13,32765
0.541439,0.0947646,-0.0190612,13,32765
0.531902,0.0912512,-0.0188013,13,32765
0.73917,0.124237,-0.0263211,13,32765
0.867778,0.142823,-0.031037,15,32765
0.897847,0.14465,-0.0323512,15,32765
0.868715,0.136907,-0.031464,15,32765
0.859288,0.132456,-0.0313001,15,32765
0.869609,0.131032,-0.0317971,15,32765
0.840381,0.123709,-0.0309279,15,32765
0.830898,0.119429,-0.030747,15,32765
0.841188,0.117986,-0.0313385,16,32765
0.851475,0.116532,-0.0318005,15,32765
0.812239,0.108369,-0.0304074,16,32765
0.822497,0.10694,-0.0310149,16,32765
0.803016,0.10169,-0.0304013,16,32765
0.793431,0.0977619,-0.0301694,17,32765
0.793748,0.0950995,-0.0303297,16,32765
0.794063,0.0924087,-0.0304003,16,32765
0.784438,0.0885934,-0.030139,15,32765
0.744995,0.0815662,-0.0287917,17,32765
0.705517,0.0748228,-0.0273338,18,32765
0.735582,0.0755266,-0.0285501,15,32765
0,0,-0,11,32765
0,0,-0,0,32765
0,0,-0,0,32765
0,0,-0,0,32765
0,0,-0,0,32765
0,0,-0,0,32765
0,0,-0,0,32765
0,0,-0,0,32765
0,0,-0,0,32765
0,0,-0,0,32765
0,0,-0,0,32765
0,0,-0,0,32765
0,0,-0,0,32765
0,0,-0,0,32765
0,0,-0,0,32765
0,0,-0,0,32765
0,0,-0,0,32765
0,0,-0,0,32765
1.28798,0.0505307,-0.0514453,11,32765
1.16832,0.0419692,-0.0465693,11,32765
1.21839,0.0397029,-0.0485141,12,32765
1.17856,0.034477,-0.046864,11,32765
1.30853,0.0339414,-0.0519358,12,32765
1.33861,0.0302428,-0.0530356,11,32765
1.28875,0.0248933,-0.0509858,11,32765
1.25886,0.0201443,-0.0496554,12,32765
1.0491,0.0133327,-0.0412592,12,32765
0.79935,0.00756062,-0.0313357,16,32765
0.799376,0.0048955,-0.0312079,18,32765
0.789398,0.00225715,-0.030743,17,32765
0.699476,-0.000296121,-0.0270872,15,32765
0.569574,-0.00205227,-0.0219275,15,32765
0.529599,-0.0036439,-0.0202783,15,32765
0.479629,-0.00493575,-0.0182139,15,32765
0.519585,-0.00706863,-0.0195313,15,32765
0.578971,0.191535,-0.0143989,14,32765
0.636583,0.208321,-0.0162676,14,32765
0.627732,0.203179,-0.0164564,14,32765
0.609329,0.195062,-0.0164013,14,32765
0.600421,0.190055,-0.0165595,14,32765
0.572407,0.179142,-0.0160598,14,32765
0.592082,0.183172,-0.0169304,13,32765
0.621359,0.189959,-0.0181322,14,32765
0.621968,0.187922,-0.0184817,14,32765
0.565097,0.168741,-0.0170802,13,32765
0.613566,0.181058,-0.0188368,14,32765
0.623741,0.181854,-0.0194036,14,32765
0.595527,0.17144,-0.0188772,14,32765
0.615328,0.174873,-0.019782,14,32765
0.625532,0.175488,-0.0203525,14,32765
0.597209,0.16539,-0.0196767,13,32765
0.607383,0.166058,-0.0202615,13,32765
0.598268,0.161447,-0.0202423,13,32765
0.637417,0.169778,-0.0217979,13,32765
0.618631,0.162598,-0.0213961,13,32765
0.677209,0.175575,-0.0236829,13,32765
0.639047,0.163426,-0.0225987,13,32765
0.610509,0.153957,-0.0218131,13,32765
0.698303,0.173613,-0.0251319,13,32765
0.601807,0.147476,-0.0218801,13,32765
0.641146,0.154856,-0.0234886,13,32765
0.622207,0.148081,-0.0230312,12,32765
0.642154,0.150549,-0.02393,13,32765
0.613442,0.141621,-0.0230842,13,32765
0.594421,0.135116,-0.0225211,12,32765
0.604621,0.13528,-0.0230855,13,32765
0.585543,0.128977,-0.022469,12,32765
0.605498,0.131226,-0.02348,13,32765
0.635251,0.135447,-0.0247075,13,32765
0.596579,0.125081,-0.023419,13,32765
0.606782,0.12507,-0.0239389,13,32765
0.636576,0.12897,-0.0252626,13,32765
0.646806,0.128745,-0.0258279,14,32765
0.608001,0.118905,-0.0244202,14,32765
0.628014,0.12063,-0.0254245,14,32765
0.638225,0.1204,-0.0259368,14,32765
0.599318,0.110994,-0.0244612,13,32765
0.629174,0.114341,-0.0258156,13,32765
0.718078,0.128021,-0.0295686,13,32765
0.61023,0.10669,-0.0252218,12,32765
0.630274,0.10801,-0.0262308,13,32765
0.670042,0.112506,-0.0280364,14,32765
0.798589,0.131277,-0.0334945,13,32765
0.947,0.152331,-0.0398198,15,32765
0.967248,0.152179,-0.0409042,15,32765
0.938131,0.144321,-0.0397602,14,32765
0.958367,0.144118,-0.0407775,15,32765
0.929188,0.136476,-0.039791,15,32765
0.919749,0.131913,-0.0394947,15,32765
0.939972,0.131559,-0.0405478,15,32765
0.950302,0.129754,-0.0411228,15,32765
0.930919,0.123924,-0.0403953,15,32765
0.961052,0.124598,-0.0418826,15,32765
0.931724,0.117615,-0.0406995,15,32765
0.85278,0.104748,-0.0373381,15,32765
0.872957,0.104263,-0.0384007,15,32765
0.80383,0.0932806,-0.0354382,16,32765
0.774348,0.0872105,-0.0343328,18,32765
0.774634,0.0845985,-0.0344345,21,32765
0.784844,0.0830373,-0.0349859,21,32765
0.844743,0.0865233,-0.0377315,13,32765
0.715784,0.0709207,-0.0319924,12,32765
0.825402,0.0789584,-0.0371168,12,32765
0.746074,0.068846,-0.0336741,16,32765
0.905505,0.0804676,-0.0410525,12,32765
0,0,-0,11,32765
0,0,-0,11,32765
0,0,-0,11,32765
0,0,-0,11,32765
0,0,-0,11,32765
0,0,-0,0,32765
0,0,-0,0,32765
0,0,-0,0,32765
0,0,-0,0,32765
0,0,-0,0,32765
0,0,-0,0,32765
0,0,-0,0,32765
0,0,-0,0,32765
0,0,-0,0,32765
0,0,-0,0,32765
0,0,-0,0,32765
1.34773,0.0431805,-0.065303,11,32765
0,0,-0,0,32765
0,0,-0,0,32765
0,0,-0,0,32765
0.629126,0.011826,-0.0309948,14,32765
0.609178,0.00950248,-0.0301912,14,32765
0.519315,0.00641134,-0.0258979,13,32765
0.539298,0.00488918,-0.0270926,13,32765
0.609216,0.0034787,-0.0307296,15,32765
0.619205,0.00146695,-0.0313625,15,32765
0.599221,-0.000524176,-0.0305582,15,32765
0.629165,-0.00258452,-0.0323312,16,32765
0.609171,-0.00444077,-0.0314796,16,32765
0.619125,-0.00650014,-0.0322756,17,32765
0.599121,-0.00822279,-0.0314128,17,32765
0.521744,0.173071,-0.0181499,14,32765
0.560273,0.183845,-0.0198685,13,32765
0.560854,0.182024,-0.0202546,13,32765
0.561423,0.180213,-0.0206638,14,32765
0.561996,0.178374,-0.0210521,13,32765
0.505354,0.158586,-0.0191666,14,32765
0.534496,0.165805,-0.0205546,13,32765
0.506373,0.155227,-0.0197656,14,32765
0.554687,0.168049,-0.0219424,13,32765
0.526501,0.157643,-0.0210915,13,32765
0.555745,0.164441,-0.0225223,13,32765
0.527497,0.154211,-0.0215882,13,32765
0.508805,0.146873,-0.0211189,14,32765
0.538122,0.153347,-0.0225735,15,32765
0.548248,0.154225,-0.023206,14,32765
0.568007,0.15773,-0.0242713,13,32765
0.529971,0.145288,-0.0228595,12,32765
0.501504,0.135703,-0.0218665,13,32765
0.511591,0.136635,-0.0224876,13,32765
0.512029,0.134946,-0.0227021,12,32765
0.541478,0.140767,-0.0242122,12,32765
0.55161,0.14145,-0.0248771,12,32765
0.523014,0.132252,-0.0237751,12,32765
0.533142,0.132912,-0.0243704,12,32765
0.562682,0.138265,-0.0259233,13,32765
0.514587,0.124627,-0.0238468,13,32765
0.621877,0.148406,-0.0290508,13,32765
0.593193,0.13945,-0.0278548,12,32765
0.535262,0.12391,-0.0253264,13,32765
0.525932,0.119875,-0.0250164,12,32765
0.516581,0.115899,-0.0247202,13,32765
0.516958,0.114182,-0.0248336,13,32765
0.527093,0.114547,-0.0255306,13,32765
0.537239,0.114863,-0.0260809,13,32765
0.576718,0.121249,-0.0282023,13,32765
0.567339,0.117261,-0.0278516,13,32765
0.616668,0.125281,-0.0304132,13,32765
0.617086,0.123167,-0.030582,13,32765
0.55868,0.10956,-0.0278145,13,32765
0.539421,0.103898,-0.0270249,13,32765
0.559386,0.105818,-0.0281087,14,32765
0.55973,0.103949,-0.0282215,13,32765
0.56007,0.102064,-0.0283565,14,32765
0.540741,0.0966714,-0.0274542,13,32765
0.619756,0.108655,-0.0315582,13,32765
0.600424,0.10318,-0.0307428,12,32765
0.650004,0.109445,-0.0334241,13,32765
0.541977,0.0893416,-0.0279204,13,32765
0.808487,0.130412,-0.0417317,14,32765
0.82865,0.130737,-0.0429681,14,32765
0.789607,0.121812,-0.0410134,16,32765
0.819633,0.123601,-0.0427059,16,32765
0.810161,0.119328,-0.0424311,15,32765
0.840209,0.120844,-0.0440999,15,32765
0.850496,0.119371,-0.0448033,14,32765
0.801416,0.109734,-0.0423237,15,32765
0.772079,0.10307,-0.0408636,16,32765
0.772419,0.100427,-0.0410231,17,32765
0.743027,0.0940622,-0.039535,17,32765
0.723512,0.0891232,-0.0385678,18,32765
0.733713,0.0878827,-0.0392597,19,32765
0.694324,0.0808042,-0.0372173,20,32765
0.704506,0.0795732,-0.0379376,20,32765
0.704766,0.0771908,-0.0380303,17,32765
0.913544,0.0969345,-0.049407,12,32765
0.67546,0.0693861,-0.0365891,11,32765
0.804861,0.0799799,-0.0436198,13,32765
0.765356,0.0734299,-0.0416854,15,32765
0.745706,0.0690157,-0.0407376,16,32765
0.71609,0.0638246,-0.0392622,16,32765
0.756091,0.0648201,-0.0415318,15,32765
0.7563,0.0622675,-0.041632,16,32765
0.746541,0.0589186,-0.0412903,16,32765
0.806468,0.0609166,-0.0447026,14,32765
0,0,-0,12,32765
0,0,-0,0,32765
0,0,-0,0,32765
0,0,-0,0,32765
0,0,-0,0,32765
0,0,-0,0,32765
0,0,-0,0,32765
0,0,-0,0,32765
0,0,-0,0,32765
0,0,-0,0,32765
0,0,-0,0,32765
0,0,-0,0,32765
0.349234,0.0112323,-0.0202272,11,32765
0.528886,0.0152299,-0.0307875,14,32765
0.498988,0.0127155,-0.0291418,15,32765
0.538943,0.011941,-0.0315857,16,32765
0.528994,0.00999155,-0.0310672,16,32765
0.519033,0.00813914,-0.0306348,16,32765
0.529029,0.0065707,-0.0313881,16,32765
0.519054,0.0047402,-0.030987,16,32765
0.529043,0.00305171,-0.0316916,15,32765
0.529043,0.00127978,-0.0318019,16,32765
0.529034,-0.000440546,-0.031985,17,32765
0.538999,-0.00219573,-0.0327985,17,32765
0.538979,-0.0039149,-0.0329532,16,32765
0.499027,-0.00522999,-0.0307378,16,32765
0.508978,-0.00698022,-0.0315041,15,32765
0.625497,0.208248,-0.0314135,13,32765
0.62619,0.206166,-0.0313353,12,32765
0.607888,0.197864,-0.0303624,12,32765
0.68461,0.220317,-0.0342075,12,32765
0.609186,0.19383,-0.0303641,13,32765
0.657454,0.206822,-0.0328422,13,32765
0.658122,0.204683,-0.0328728,13,32765
0.601506,0.184896,-0.0300693,13,32765
0.602113,0.182894,-0.0301732,14,32765
0.602719,0.180871,-0.0302499,15,32765
0.641619,0.190229,-0.0322259,15,32765
0.632644,0.185326,-0.0318797,13,32765
0.556495,0.161012,-0.0280719,13,32765
0.672264,0.1921,-0.0340502,13,32765
0.663292,0.187115,-0.0336427,12,32765
0.673536,0.187547,-0.0342918,13,32765
0.645267,0.177332,-0.0329254,13,32765
0.655497,0.177757,-0.0335619,13,32765
0.607841,0.162653,-0.0312055,13,32765
0.656661,0.173357,-0.0338231,13,32765
0.686224,0.178708,-0.035499,12,32765
0.590074,0.151588,-0.0305654,13,32765
0.638978,0.161879,-0.0332102,12,32765
0.649194,0.162163,-0.0339215,13,32765
0.640033,0.157584,-0.0335438,13,32765
0.621139,0.150718,-0.0327072,13,32765
0.641065,0.15327,-0.0338274,12,32765
0.670724,0.158002,-0.0355587,12,32765
0.554508,0.128654,-0.0294811,12,32765
0.632819,0.14456,-0.0338,12,32765
0.565097,0.127082,-0.0302592,12,32765
0.614272,0.135945,-0.0330058,13,32765
0.643986,0.140256,-0.0347939,13,32765
0.605393,0.129714,-0.032764,13,32765
0.547193,0.115298,-0.0297629,13,32765
0.61602,0.127609,-0.0336856,13,32765
0.606658,0.123519,-0.0332946,13,32765
0.636446,0.127296,-0.0350951,13,32765
0.685858,0.134757,-0.0379435,13,32765
0.617673,0.119172,-0.0343308,14,32765
0.618063,0.117092,-0.0344614,13,32765
0.588995,0.109548,-0.0329333,13,32765
0.608993,0.111152,-0.0342518,14,32765
0.619183,0.110869,-0.0349302,14,32765
0.580214,0.101829,-0.0329021,13,32765
0.65927,0.113376,-0.0375279,12,32765
0.639958,0.107793,-0.0365262,13,32765
0.709272,0.116976,-0.0406212,13,32765
0.660372,0.106628,-0.0379356,14,32765
0.926977,0.14645,-0.0535333,11,32765
0.996515,0.154,-0.0578025,12,32765
0.947671,0.14313,-0.0550774,13,32765
0.967898,0.142777,-0.0564723,14,32765
0.859674,0.123816,-0.0502947,14,32765
0.889737,0.125063,-0.0522275,14,32765
0.870356,0.119381,-0.0512636,14,32765
0.841059,0.112495,-0.0496509,16,32765
0.821625,0.107052,-0.0487064,16,32765
0.802167,0.101756,-0.047684,17,32765
0.79259,0.0978374,-0.0472123,18,32765
0.802811,0.0963848,-0.0479996,18,32765
0.773374,0.0902859,-0.0462701,19,32765
0.763744,0.0865991,-0.0457855,18,32765
0.833476,0.0916879,-0.0501147,13,32765
0.625332,0.0666215,-0.0376989,13,32765
0.992941,0.102364,-0.0599168,12,32765
0.764822,0.0762563,-0.0461742,14,32765
0.784938,0.0755724,-0.0475589,15,32765
0.805058,0.0748063,-0.0488493,14,32765
0.745644,0.066747,-0.0453821,14,32765
0.845313,0.0727903,-0.0514464,14,32765
0.815706,0.0674599,-0.0497237,14,32765
0.855731,0.0678511,-0.0521544,14,32765
0.776324,0.0589562,-0.0473896,18,32765
0.76655,0.0556659,-0.0469376,19,32765
0.806558,0.0559216,-0.0493623,14,32765
0,0,-0,11,32765
0,0,-0,11,32765
0,0,-0,0,32765
0,0,-0,0,32765
0,0,-0,0,32765
0,0,-0,0,32765
0,0,-0,0,32765
0,0,-0,11,32765
0,0,-0,0,32765
0,0,-0,0,32765
0.518757,0.0170095,-0.0316459,13,32765
0.578676,0.0170331,-0.0352729,14,32765
0.58871,0.0153725,-0.035833,16,32765
0.618696,0.0140969,-0.0376364,17,32765
0.598781,0.0116839,-0.0363987,16,32765
0.588844,0.00956375,-0.0356525,16,32765
0.608836,0.00786409,-0.0368312,15,32765
0.598886,0.00578351,-0.0360885,16,32765
0.618869,0.00395082,-0.0372259,16,32765
0.59892,0.00184573,-0.0359415,16,32765
0.598932,-0.000140128,-0.0357851,16,32765
0.60892,-0.00219308,-0.0362146,17,32765
0.598936,-0.00416202,-0.0354753,17,32765
0.618894,-0.00633713,-0.036465,17,32765
0.608903,-0.00816876,-0.03565,16,32765
0.587129,0.196039,-0.0353258,13,32765
