x, y, z, intensity, ring
6.927,3.37591,0.252892,24,32765
6.92936,3.34835,0.250088,17,32765
6.91347,3.31247,0.24575,18,32765
6.91569,3.28488,0.24152,19,32765
6.89959,3.24897,0.238292,17,32765
6.88343,3.21299,0.234604,18,32765
6.9033,3.19419,0.231661,20,32765
6.94117,3.18388,0.229287,18,32765
6.96994,3.16923,0.226994,36,32765
6.97144,3.14185,0.224285,25,32765
6.94539,3.10243,0.220569,44,32765
6.91911,3.06332,0.216684,35,32765
6.98422,3.06449,0.215576,13,32765
7.07695,3.07715,0.21533,12,32765
7.12388,3.06956,0.214016,12,32765
7.16174,3.05753,0.212279,12,32765
7.1077,3.00593,0.208267,12,32765
7.23766,3.03235,0.208907,12,32765
7.23861,3.0043,0.205798,33,32765
7.2023,2.96141,0.202567,40,32765
7.2121,2.93762,0.200327,40,32765
7.19376,2.90319,0.197286,39,32765
7.15683,2.86115,0.194011,28,32765
6.78513,2.68684,0.18149,11,32765
6.60783,2.59153,0.174748,11,32765
6.57914,2.55516,0.172178,11,32765
6.60614,2.5409,0.170702,13,32765
6.60522,2.51543,0.168922,20,32765
6.69768,2.52545,0.169766,13,32765
6.59362,2.46135,0.165877,11,32765
6.78933,2.50882,0.168701,11,32765
6.8351,2.50035,0.167652,11,32765
7.09702,2.57,0.173006,32,32765
7.10531,2.5471,0.171357,37,32765
7.16066,2.54078,0.17153,36,32765
7.21607,2.53405,0.171489,34,32765
7.25268,2.52032,0.170487,33,32765
7.28928,2.50625,0.17076,34,32765
7.3257,2.49247,0.171229,35,32765
7.35267,2.47523,0.170411,34,32765
7.40805,2.46736,0.170556,36,32765
7.46342,2.45919,0.171181,35,32765
7.49979,2.44453,0.171883,33,32765
7.58364,2.44529,0.172708,33,32765
7.58171,2.41849,0.173538,33,32765
7.61797,2.4034,0.174076,34,32765
7.66352,2.39167,0.176847,32,32765
7.97194,5.87055,0.439343,43,32765
7.97505,5.83266,0.436665,30,32765
7.93774,5.76526,0.431835,17,32765
7.94071,5.72723,0.428919,19,32765
7.95199,5.69469,0.424874,20,32765
7.97897,5.67419,0.423836,22,32765
7.98944,5.64238,0.420214,25,32765
7.99999,5.61029,0.416165,31,32765
8.01872,5.58374,0.412709,41,32765
8.07048,5.5795,0.410962,47,32765
8.08898,5.55291,0.407548,41,32765
8.09921,5.52044,0.404407,39,32765
8.10102,5.48247,0.400015,33,32765
8.11088,5.45027,0.395671,28,32765
8.11244,5.41224,0.391843,26,32765
8.16379,5.40747,0.389656,24,32765
8.18166,5.38064,0.386265,23,32765
8.2079,5.35908,0.383023,19,32765
8.23422,5.33724,0.37943,18,32765
8.2355,5.29868,0.374817,28,32765
8.2954,5.29813,0.3724,20,32765
8.46514,5.3667,0.375375,14,32765
8.51688,5.35993,0.372633,13,32765
8.45014,5.27852,0.36521,12,32765
8.57829,5.31869,0.366637,12,32765
8.6811,5.34275,0.365549,13,32765
8.73284,5.33512,0.362798,13,32765
8.77642,5.32145,0.359753,12,32765
8.82849,5.31287,0.356719,12,32765
8.77789,5.24208,0.349394,11,32765
8.79562,5.21257,0.345147,11,32765
8.70112,5.11733,0.336691,11,32765
8.83041,5.15401,0.336022,11,32765
8.96017,5.18958,0.336513,11,32765
8.89948,5.11508,0.32877,18,32765
8.97737,5.12016,0.32607,12,32765
9.09014,5.1445,0.325656,13,32765
0,0,0,0,32765
0,0,0,0,32765
0,0,0,0,32765
7.10835,3.89699,0.238543,11,32765
7.15655,3.89234,0.236582,11,32765
7.02005,3.78774,0.228604,12,32765
7.04133,3.76946,0.225582,14,32765
7.01865,3.72722,0.221222,22,32765
7.07548,3.72688,0.219131,15,32765
7.10582,3.7123,0.215732,12,32765
7.11853,3.6881,0.211673,11,32765
7.09539,3.64592,0.207711,11,32765
0,0,0,0,32765
0,0,0,0,32765
0,0,0,0,32765
0,0,0,31,32765
6.97697,3.43739,0.1859,13,32765
6.97959,3.40957,0.181948,32,32765
7.00005,3.39048,0.179674,23,32765
6.94825,3.33698,0.174671,22,32765
6.93249,3.30061,0.170066,23,32765
6.95261,3.28163,0.167982,22,32765
6.91846,3.23691,0.164119,21,32765
6.92933,3.21374,0.160849,25,32765
6.93092,3.18662,0.15735,20,32765
6.99607,3.18855,0.155678,41,32765
7.02498,3.17336,0.153646,41,32765
6.97165,3.12141,0.149693,46,32765
7.02769,3.11863,0.147898,59,32765
6.97399,3.06711,0.143726,18,32765
7.08504,3.08782,0.143003,14,32765
7.12282,3.07621,0.141123,13,32765
7.15151,3.06022,0.138921,14,32765
7.21716,3.05927,0.13785,14,32765
7.24588,3.04279,0.135326,14,32765
7.20992,2.99929,0.131628,24,32765
7.26605,2.9945,0.13053,49,32765
7.25745,2.96288,0.127938,49,32765
7.24846,2.93198,0.125321,49,32765
7.23948,2.90082,0.122968,46,32765
7.091,2.81438,0.11798,15,32765
6.70011,2.63373,0.109532,11,32765
6.70884,2.61147,0.107911,12,32765
6.66138,2.56798,0.105027,13,32765
6.6699,2.54584,0.103468,23,32765
6.69698,2.53092,0.102448,19,32765
6.70534,2.50872,0.101382,12,32765
6.78867,2.51425,0.100622,11,32765
6.86262,2.51608,0.0996012,11,32765
7.06818,2.56533,0.101599,25,32765
7.17997,2.57966,0.101414,46,32765
7.19774,2.55968,0.100576,42,32765
7.25322,2.55281,0.100054,40,32765
7.28045,2.53563,0.0986287,41,32765
7.30766,2.51818,0.0984867,40,32765
7.36306,2.51076,0.0989231,40,32765
7.3901,2.49336,0.0979061,41,32765
7.44554,2.48535,0.0975718,41,32765
7.50098,2.47704,0.0977203,41,32765
7.53742,2.46222,0.0981363,42,32765
7.58328,2.45056,0.0977092,41,32765
7.63854,2.44197,0.099373,40,32765
7.66535,2.42365,0.0995,39,32765
7.70146,2.40876,0.101776,40,32765
7.89973,5.79704,0.474029,78,32765
7.91962,5.77052,0.465588,28,32765
7.93915,5.74427,0.457467,14,32765
7.92608,5.69473,0.447435,14,32765
7.9369,5.66304,0.439536,15,32765
7.93927,5.62581,0.431126,15,32765
7.96616,5.60556,0.424769,17,32765
7.99301,5.58515,0.418873,20,32765
8.02887,5.56912,0.412871,26,32765
8.02337,5.52489,0.404457,24,32765
8.04204,5.49819,0.397416,25,32765
8.0603,5.47182,0.391446,25,32765
8.07808,5.44593,0.3859,24,32765
8.08774,5.41409,0.379049,22,32765
8.08922,5.37628,0.372333,21,32765
8.11565,5.35486,0.366835,19,32765
8.1505,5.33862,0.361779,18,32765
8.18504,5.32268,0.356582,13,32765
8.22801,5.3119,0.351623,16,32765
8.23717,5.27953,0.345925,23,32765
8.21238,5.22588,0.338495,15,32765
0,0,0,0,32765
0,0,0,0,32765
0,0,0,0,32765
0,0,0,0,32765
0,0,0,0,32765
0,0,0,0,32765
0,0,0,0,32765
0,0,0,0,32765
0,0,0,0,32765
0,0,0,0,32765
8.64934,5.07001,0.291265,11,32765
0,0,0,0,32765
8.93401,5.15768,0.290159,12,32765
8.83878,5.06285,0.2823,13,32765
0,0,0,0,32765
9.06429,5.1117,0.27806,12,32765
0,0,0,0,32765
0,0,0,0,32765
0,0,0,0,32765
0,0,0,0,32765
7.04837,3.82133,0.195785,11,32765
6.98206,3.7549,0.190906,11,32765
7.00343,3.73633,0.188218,13,32765
7.00701,3.70843,0.184956,17,32765
7.06385,3.708,0.182111,12,32765
7.14742,3.72105,0.178419,11,32765
6.97314,3.60123,0.170404,11,32765
0,0,0,0,32765
0,0,0,0,32765
0,0,0,0,32765
0,0,0,0,32765
0,0,0,0,32765
6.93726,3.40658,0.150026,14,32765
6.94865,3.38342,0.147263,26,32765
6.96011,3.35992,0.143849,19,32765
6.92638,3.31477,0.141417,18,32765
6.90156,3.27392,0.139459,19,32765
6.92163,3.25502,0.135399,18,32765
6.90537,3.21914,0.132085,19,32765
6.90705,3.1919,0.128546,20,32765
6.89037,3.15649,0.125837,16,32765
6.97373,3.16661,0.123734,36,32765
6.97523,3.13912,0.120631,30,32765
6.95837,3.10349,0.117818,42,32765
6.92307,3.0599,0.114422,43,32765
6.95172,3.04454,0.111322,13,32765
7.11786,3.08892,0.110812,12,32765
7.09145,3.0493,0.107088,12,32765
7.1016,3.0257,0.104118,12,32765
7.19462,3.03695,0.102448,12,32765
7.27845,3.04404,0.100133,12,32765
7.21473,2.98909,0.0956062,23,32765
7.2062,2.95742,0.0921318,40,32765
7.21599,2.93354,0.0893221,40,32765
7.20711,2.90227,0.0857665,40,32765
7.18897,2.86698,0.0821672,35,32765
7.04956,2.78464,0.0766393,12,32765
0,0,0,0,32765
6.75091,2.61501,0.0676646,11,32765
6.68484,2.56407,0.0639462,13,32765
6.61853,2.51353,0.0601577,19,32765
6.6079,2.48516,0.0566337,14,32765
6.78465,2.52649,0.0552195,11,32765
6.66135,2.45638,0.0514994,11,32765
0,0,0,0,32765
7.07222,2.55573,0.0476399,25,32765
7.12765,2.54943,0.0444046,39,32765
7.13616,2.52556,0.0406519,31,32765
7.21993,2.52858,0.0382423,33,32765
7.24702,2.51167,0.0338929,33,32765
7.28354,2.49783,0.030952,31,32765
7.31992,2.48414,0.0272277,31,32765
7.36578,2.47337,0.0234275,31,32765
7.41156,2.46263,0.0194191,31,32765
7.47644,2.45753,0.0155861,32,32765
7.50322,2.44003,0.0110065,29,32765
7.55853,2.43151,0.00666737,27,32765
7.59476,2.41671,0.00190809,26,32765
7.64039,2.40509,-0.00241301,27,32765
7.74327,2.41119,-0.00767406,24,32765
7.91154,5.82147,0.383226,20,32765
7.91534,5.78304,0.373998,19,32765
7.9187,5.745,0.365122,20,32765
7.94614,5.72461,0.357295,22,32765
7.97329,5.7044,0.350172,25,32765
7.97577,5.66695,0.341902,31,32765
8.01093,5.65228,0.335751,38,32765
8.02154,5.62019,0.329042,48,32765
8.04928,5.59831,0.322488,59,32765
8.04387,5.5539,0.314324,68,32765
8.07909,5.53836,0.307881,74,32765
8.09747,5.5118,0.301872,69,32765
8.13192,5.49692,0.296894,63,32765
8.15003,5.47038,0.290378,56,32765
8.16,5.43781,0.284081,48,32765
8.1366,5.38301,0.276725,25,32765
8.09632,5.31727,0.268957,13,32765
8.23961,5.37243,0.267131,12,32765
8.22398,5.3234,0.259983,12,32765
8.2584,5.30718,0.25515,17,32765
8.26741,5.27484,0.249178,30,32765
8.31884,5.26869,0.245436,20,32765
8.59015,5.40103,0.246515,15,32765
8.70991,5.43608,0.243833,16,32765
8.55804,5.3019,0.233891,13,32765
8.60114,5.28939,0.22963,13,32765
8.73828,5.33372,0.226993,13,32765
8.72198,5.28376,0.221397,14,32765
8.85973,5.32661,0.218896,18,32765
8.91186,5.31762,0.214525,18,32765
8.96394,5.30847,0.210501,16,32765
8.90413,5.23297,0.203268,14,32765
8.88691,5.18341,0.197891,12,32765
8.89555,5.14883,0.192777,15,32765
8.90437,5.11366,0.188344,16,32765
9.00842,5.13333,0.18465,13,32765
9.17364,5.18676,0.182814,13,32765
9.26948,5.20016,0.178805,13,32765
0,0,0,30,32765
0,0,0,0,32765
0,0,0,0,32765
7.12462,3.87261,0.121991,11,32765
7.10253,3.82948,0.118653,11,32765
7.03597,3.7633,0.11438,13,32765
7.05731,3.74461,0.111469,21,32765
7.04345,3.70674,0.107043,18,32765
7.10923,3.71063,0.102355,12,32765
7.12145,3.68721,0.0989098,12,32765
7.21404,3.70408,0.0972517,12,32765
0,0,0,0,32765
0,0,0,0,32765
0,0,0,0,32765
0,0,0,0,32765
0,0,0,0,32765
6.97317,3.40394,0.0750457,27,32765
6.9937,3.38466,0.0717044,28,32765
6.9691,3.34361,0.0698181,22,32765
6.95344,3.30682,0.0683099,24,32765
6.94646,3.2749,0.0638681,23,32765
6.93933,3.24308,0.0608988,24,32765
6.93201,3.21146,0.0573551,24,32765
6.94267,3.18841,0.0551302,24,32765
6.9715,3.17351,0.0518387,31,32765
7.05506,3.18298,0.0493985,50,32765
7.00184,3.13066,0.0465912,38,32765
7.03063,3.11518,0.0440428,54,32765
6.9679,3.05922,0.0401678,28,32765
7.0515,3.06774,0.0376089,14,32765
7.09849,3.05992,0.0346424,14,32765
7.10867,3.03624,0.031664,14,32765
7.20169,3.04748,0.0291399,14,32765
7.21176,3.02363,0.0258006,14,32765
7.24033,3.00712,0.0223366,17,32765
7.26884,2.99052,0.0191301,46,32765
7.27873,2.96637,0.0162903,49,32765
7.26068,2.93108,0.0128715,50,32765
7.24264,2.89552,0.00952398,49,32765
7.14054,2.82756,0.00549333,20,32765
6.74037,2.64291,0.00218157,12,32765
6.67445,2.59178,-0.00036305,13,32765
6.64565,2.55534,-0.00331917,14,32765
6.67278,2.54038,-0.00643257,23,32765
6.68094,2.51884,-0.00982838,23,32765
6.69847,2.50056,-0.0126687,13,32765
6.71581,2.48258,-0.015365,12,32765
6.80832,2.49177,-0.0190529,13,32765
6.93869,2.51367,-0.0226222,19,32765
7.11631,2.55166,-0.0267251,38,32765
7.12482,2.52777,-0.0304767,33,32765
7.13308,2.50433,-0.0332865,31,32765
7.09394,2.4647,-0.0374264,29,32765
7.03572,2.41881,-0.0400509,26,32765
6.93929,2.3608,-0.0431081,23,32765
6.83309,2.30018,-0.0460627,21,32765
6.68854,2.2279,-0.0487707,18,32765
6.41074,2.11245,-0.0501138,18,32765
6.15117,2.00531,-0.0518255,17,32765
5.92908,1.91207,-0.0533649,17,32765
5.70644,1.82035,-0.0549073,19,32765
5.53087,1.74538,-0.0563037,20,32765
5.36439,1.6746,-0.0581832,20,32765
7.86788,5.78592,0.269085,18,32765
7.89511,5.76577,0.267363,18,32765
7.89,5.72196,0.263896,18,32765
7.90893,5.69587,0.26163,18,32765
7.95265,5.68651,0.259611,20,32765
7.94701,5.64288,0.255902,24,32765
7.97353,5.62287,0.252626,29,32765
7.98378,5.59102,0.249396,38,32765
7.99404,5.55896,0.246642,47,32765
7.98,5.50924,0.240811,75,32765
8.03972,5.51076,0.238611,71,32765
8.04991,5.47825,0.235469,53,32765
8.07655,5.45692,0.232059,49,32765
8.11127,5.44133,0.228523,36,32765
8.15457,5.43068,0.225361,13,32765
8.11404,5.36535,0.219753,12,32765
8.08136,5.30602,0.215789,12,32765
8.20754,5.35071,0.214931,12,32765
8.20832,5.31299,0.209937,12,32765
8.25136,5.30172,0.207373,14,32765
8.26054,5.26903,0.201997,24,32765
8.4388,5.3428,0.203109,18,32765
8.63481,5.42577,0.202449,17,32765
8.61919,5.37554,0.19664,16,32765
8.47595,5.24631,0.188192,12,32765
8.72335,5.35956,0.189339,14,32765
8.68991,5.29944,0.18402,12,32765
8.86998,5.36907,0.182714,16,32765
8.88784,5.33961,0.178123,17,32765
8.88013,5.29423,0.173364,14,32765
8.93217,5.28507,0.169783,15,32765
8.86375,5.20439,0.163248,12,32765
8.84665,5.15454,0.15846,12,32765
8.82059,5.1,0.152395,14,32765
8.96801,5.14469,0.150227,13,32765
9.04636,5.14878,0.147131,12,32765
9.13275,5.15874,0.1428,11,32765
0,0,0,0,32765
0,0,0,0,32765
0,0,0,0,32765
0,0,0,0,32765
0,0,0,0,32765
7.02555,3.78346,0.086401,11,32765
7.02925,3.75548,0.0833747,14,32765
7.03281,3.72761,0.0783071,18,32765
7.02749,3.6949,0.0756697,13,32765
7.05756,3.68066,0.0713823,11,32765
7.02555,3.63394,0.0650635,11,32765
7.13557,3.66061,0.0632392,11,32765
0,0,0,0,32765
0,0,0,0,32765
0,0,0,0,32765
0,0,0,0,32765
6.96285,3.42555,0.0436413,12,32765
6.93856,3.38425,0.0399531,26,32765
6.93212,3.35177,0.0371425,21,32765
6.93423,3.32437,0.0331712,20,32765
6.94564,3.30048,0.0320671,20,32765
6.92049,3.26014,0.0285355,21,32765
6.93137,3.23697,0.0252444,20,32765
6.88785,3.18829,0.0222401,22,32765
6.91655,3.17382,0.0190223,17,32765
7.00017,3.1833,0.0159965,38,32765
6.99242,3.15195,0.0125927,30,32765
6.93908,3.09986,0.00922575,32,32765
6.92187,3.06474,0.00627275,31,32765
6.99604,3.07003,0.00358148,13,32765
6.99707,3.04267,0.000895,13,32765
7.05304,3.03924,-0.00133377,12,32765
7.10019,3.03078,-0.00484482,13,32765
7.11033,3.00693,-0.00742806,13,32765
7.18478,3.01047,-0.0098138,13,32765
7.1856,2.98252,-0.0127609,21,32765
7.22318,2.97011,-0.0153546,40,32765
7.19597,2.93097,-0.0175652,40,32765
7.20551,2.90742,-0.0198461,40,32765
7.17786,2.86892,-0.0219021,34,32765
6.78745,2.68701,-0.0224743,12,32765
0,0,-0,0,32765
0,0,-0,0,32765
0,0,-0,0,32765
6.61648,2.51947,-0.0296879,21,32765
6.60598,2.4907,-0.031306,19,32765
6.82016,2.5461,-0.0340869,15,32765
0,0,-0,0,32765
6.5833,2.4081,-0.0360707,15,32765
6.88265,2.492,-0.0386028,19,32765
6.9661,2.49635,-0.0410804,24,32765
7.05909,2.5035,-0.0428925,24,32765
6.80303,2.38769,-0.0423591,20,32765
6.83901,2.37564,-0.0438812,20,32765
6.95056,2.38957,-0.0457601,22,32765
0,0,-0,0,32765
6.95627,2.34175,-0.0467915,19,32765
0,0,-0,0,32765
6.62941,2.18386,-0.0462003,16,32765
0,0,-0,0,32765
6.50057,2.0951,-0.0454032,16,32765
0,0,-0,0,32765
0,0,-0,17,32765
0,0,-0,0,32765
7.91769,5.83984,0.179262,23,32765
7.92898,5.80765,0.17706,24,32765
7.93214,5.76949,0.174026,21,32765
7.90262,5.70806,0.170684,23,32765
7.92201,5.6812,0.167857,23,32765
7.95711,5.66657,0.165272,26,32765
8.00004,5.65801,0.162216,27,32765
7.99407,5.6145,0.158732,29,32765
8.04543,5.61093,0.156855,39,32765
8.06447,5.58366,0.151973,54,32765
8.06674,5.54525,0.148196,66,32765
8.08533,5.51819,0.145274,66,32765
8.12039,5.50229,0.141886,55,32765
8.10547,5.45301,0.137286,34,32765
8.12386,5.42568,0.133424,29,32765
8.14169,5.39898,0.1294,25,32765
8.16763,5.37792,0.126883,23,32765
8.17681,5.3458,0.122997,21,32765
8.19435,5.31897,0.118437,19,32765
8.25422,5.31854,0.115823,17,32765
8.26345,5.28576,0.110526,21,32765
8.28129,5.25783,0.107762,20,32765
8.45151,5.32551,0.104902,17,32765
8.5373,5.3394,0.100762,20,32765
8.52997,5.29453,0.0956487,16,32765
8.52199,5.25047,0.091493,17,32765
8.51381,5.20652,0.0870824,15,32765
8.68492,5.27169,0.0839995,17,32765
8.66819,5.22213,0.0791791,17,32765
8.79742,5.25947,0.0759801,17,32765
8.76333,5.19953,0.0713531,17,32765
8.74637,5.14968,0.0662266,14,32765
8.85862,5.17576,0.0627743,14,32765
8.8586,5.1361,0.0573268,15,32765
8.91071,5.12589,0.0531551,14,32765
9.07581,5.17974,0.049896,13,32765
9.04913,5.12555,0.0442345,12,32765
0,0,0,0,32765
0,0,0,0,32765
0,0,0,0,32765
0,0,0,0,32765
7.00872,3.8155,0.0153031,11,32765
7.02165,3.79166,0.011672,11,32765
7.04301,3.77307,0.00875454,13,32765
7.04661,3.74509,0.0037627,23,32765
7.05906,3.72158,0.00130283,19,32765
7.08034,3.70256,-0.00319617,13,32765
7.1194,3.69248,-0.0091652,12,32765
7.21178,3.70974,-0.0120345,12,32765
0,0,-0,12,32765
12.4117,6.27981,-0.0348647,12,32765
12.6203,6.33252,-0.0401428,18,32765
12.5701,6.25397,-0.046646,23,32765
12.2863,6.06085,-0.0513612,22,32765
6.96195,3.4048,-0.0325372,28,32765
7.00958,3.39834,-0.0354502,32,32765
6.96677,3.34895,-0.0391259,25,32765
6.9512,3.31199,-0.0400865,26,32765
6.93514,3.2758,-0.0433094,26,32765
6.94607,3.25252,-0.0466146,26,32765
6.91169,3.20788,-0.0491338,25,32765
6.89502,3.1724,-0.0522134,23,32765
6.87851,3.13633,-0.0551838,28,32765
6.96173,3.1465,-0.0591219,36,32765
6.82626,3.0576,-0.0610895,26,32765
6.81805,3.02683,-0.0638055,30,32765
6.57172,2.89151,-0.0639994,19,32765
6.35218,2.76959,-0.0642116,17,32765
6.29707,2.7207,-0.065564,17,32765
6.16844,2.64006,-0.0671805,17,32765
6.04838,2.56463,-0.0679818,17,32765
5.95542,2.50198,-0.0687707,17,32765
5.83452,2.42815,-0.0696888,16,32765
5.70386,2.35159,-0.0700491,16,32765
5.59131,2.28341,-0.0703568,17,32765
5.48751,2.22006,-0.0707008,18,32765
5.39266,2.16109,-0.071013,18,32765
5.38115,2.13591,-0.0721927,19,32765
5.38811,2.11823,-0.0737168,21,32765
5.21802,2.03145,-0.0735772,19,32765
5.30863,2.04665,-0.0762918,20,32765
5.30592,2.02575,-0.0771664,20,32765
5.20965,1.9694,-0.0770184,22,32765
5.0662,1.89628,-0.076151,23,32765
4.99746,1.85158,-0.0768989,22,32765
4.90029,1.79717,-0.0759019,19,32765
0,0,-0,16,32765
0,0,-0,17,32765
0,0,-0,16,32765
0,0,-0,21,32765
4.59851,1.60154,-0.0752858,18,32765
4.63195,1.5966,-0.0765607,18,32765
4.64652,1.58493,-0.0768222,18,32765
4.54738,1.53481,-0.0757195,17,32765
4.59979,1.53573,-0.0772054,18,32765
4.4908,1.4832,-0.0757756,17,32765
4.53361,1.48105,-0.0761585,18,32765
4.50028,1.45417,-0.0759173,18,32765
4.59059,1.4673,-0.077049,18,32765
4.42367,1.39828,-0.0744383,16,32765
0,0,-0,19,32765
7.87124,5.78357,0.216253,18,32765
7.85816,5.73409,0.206114,17,32765
7.90142,5.72588,0.19868,15,32765
7.89624,5.6821,0.189737,19,32765
7.92323,5.66185,0.182961,15,32765
7.98305,5.66429,0.175443,32,32765
8.01017,5.64346,0.169173,18,32765
7.98802,5.58823,0.160625,19,32765
8.01489,5.56736,0.153503,27,32765
8.00839,5.52421,0.147215,44,32765
8.04292,5.50945,0.141039,50,32765
8.05278,5.47743,0.134317,48,32765
8.07076,5.45107,0.127245,28,32765
8.09779,5.42896,0.121237,23,32765
8.10768,5.39629,0.1147,22,32765
8.12591,5.36892,0.108821,21,32765
8.16032,5.35315,0.102836,20,32765
8.16934,5.32117,0.0970503,18,32765
8.22894,5.32129,0.0919146,17,32765
8.21268,5.27277,0.0860002,15,32765
8.27258,5.272,0.0804998,14,32765
8.3578,5.28712,0.0750744,13,32765
8.37544,5.25921,0.0698904,15,32765
8.4693,5.27893,0.0651359,14,32765
8.43557,5.21959,0.0588313,14,32765
8.50397,5.22303,0.0537098,13,32765
8.56393,5.22088,0.0488503,12,32765
8.6326,5.22346,0.0436552,12,32765
8.65872,5.19953,0.0383835,12,32765
8.82215,5.25752,0.0332912,12,32765
8.99475,5.31941,0.0285031,12,32765
9.01266,5.28904,0.0234519,12,32765
9.17703,5.34473,0.0183238,12,32765
9.21197,5.32438,0.0127164,12,32765
9.29026,5.32871,0.00726136,12,32765
0,0,0,0,32765
0,0,-0,0,32765
0,0,-0,0,32765
0,0,-0,0,32765
0,0,-0,0,32765
0,0,-0,0,32765
0,0,-0,0,32765
6.94688,3.74065,-0.0232729,11,32765
7.0388,3.75965,-0.0274753,12,32765
7.03362,3.72678,-0.0300306,19,32765
7.04605,3.70319,-0.0338179,15,32765
7.03162,3.66602,-0.0393119,12,32765
7.12371,3.68393,-0.0427413,12,32765
0,0,-0,0,32765
0,0,-0,0,32765
12.4465,6.27682,-0.0942042,26,32765
12.2891,6.14465,-0.0984685,30,32765
12.5159,6.20495,-0.105209,29,32765
12.0612,5.92866,-0.107643,31,32765
6.94823,3.38683,-0.0662348,27,32765
6.87846,3.32439,-0.0696112,22,32765
6.86247,3.28838,-0.0719416,20,32765
0,0,-0,0,32765
6.66761,3.13925,-0.0709505,19,32765
0,0,-0,0,32765
6.44349,2.98093,-0.0745163,18,32765
0,0,-0,0,32765
0,0,-0,16,32765
0,0,-0,0,32765
0,0,-0,16,32765
0,0,-0,0,32765
0,0,-0,17,32765
0,0,-0,0,32765
0,0,-0,18,32765
0,0,-0,18,32765
0,0,-0,17,32765
0,0,-0,18,32765
0,0,-0,17,32765
4.58755,1.88406,-0.0793329,15,32765
4.64011,1.88753,-0.0822246,17,32765
4.59993,1.85345,-0.0833549,19,32765
4.6246,1.84555,-0.086241,16,32765
4.46318,1.76432,-0.0849102,16,32765
4.25485,1.66561,-0.0831583,15,32765
4.39071,1.70236,-0.087723,16,32765
4.32155,1.65929,-0.0886187,16,32765
4.27091,1.62366,-0.0893114,15,32765
4.22007,1.58839,-0.090152,17,32765
4.22526,1.57441,-0.092084,17,32765
4.0615,1.49828,-0.0907022,15,32765
3.89735,1.42314,-0.0887229,16,32765
3.9866,1.44083,-0.0927749,16,32765
3.88765,1.3909,-0.0921625,16,32765
3.81677,1.35138,-0.0923896,16,32765
3.72673,1.30596,-0.0919528,17,32765
3.85368,1.33646,-0.0970389,17,32765
3.75391,1.28832,-0.0964444,15,32765
3.56861,1.2121,-0.0934608,16,32765
3.5535,1.1942,-0.0951834,16,32765
3.43392,1.14185,-0.0936015,16,32765
3.55149,1.16824,-0.0988212,16,32765
3.34602,1.0888,-0.0950647,16,32765
3.28273,1.05693,-0.0952754,16,32765
3.31454,1.05574,-0.0982348,17,32765
3.15575,0.994088,-0.0955629,16,32765
3.1207,0.972008,-0.0966967,16,32765
7.91245,5.83148,0.125958,25,32765
7.92371,5.79945,0.116485,27,32765
7.91051,5.74983,0.107917,28,32765
7.94594,5.73517,0.0997382,29,32765
7.97307,5.71469,0.09281,30,32765
7.97596,5.67636,0.0841561,31,32765
7.97042,5.6324,0.0774669,32,32765
7.99735,5.61163,0.069838,33,32765
7.99966,5.57352,0.0624078,33,32765
8.00963,5.54168,0.0565131,30,32765
8.01946,5.50987,0.0499813,28,32765
8.06235,5.50039,0.0435367,26,32765
8.07209,5.46832,0.0364048,22,32765
8.10746,5.45171,0.0303197,20,32765
8.10077,5.40782,0.0238054,18,32765
8.10236,5.36935,0.0178814,16,32765
8.19521,5.39207,0.0117982,14,32765
8.31319,5.431,0.00614897,13,32765
8.36471,5.42518,0.000433923,12,32765
8.4581,5.44647,-0.00528029,12,32765
8.61965,5.50948,-0.0115736,12,32765
8.79002,5.57703,-0.0181877,12,32765
8.96939,5.64884,-0.0240854,13,32765
9.19167,5.74612,-0.0304952,13,32765
9.18498,5.70008,-0.036863,15,32765
9.31452,5.73773,-0.0433199,15,32765
9.40173,5.74852,-0.049281,16,32765
9.36951,5.68603,-0.0549826,17,32765
9.37147,5.64406,-0.0606487,17,32765
9.39034,5.61255,-0.0667705,16,32765
9.40919,5.58081,-0.0724035,18,32765
9.42797,5.54896,-0.0777012,16,32765
9.54991,5.57815,-0.0843006,16,32765
9.55963,5.54146,-0.0900927,12,32765
0,0,-0,0,32765
0,0,-0,0,32765
0,0,-0,0,32765
0,0,-0,0,32765
5.90442,3.29096,-0.0710113,11,32765
5.8015,3.20846,-0.0725899,12,32765
5.80345,3.18413,-0.0755355,13,32765
5.98962,3.26043,-0.0807803,14,32765
5.96526,3.22135,-0.0834322,15,32765
5.75569,3.08317,-0.0835826,16,32765
5.76594,3.0639,-0.0857411,16,32765
5.62578,2.96525,-0.0865401,16,32765
5.45829,2.85393,-0.0881892,18,32765
5.40561,2.80348,-0.0894575,18,32765
5.22829,2.68913,-0.0890573,18,32765
5.2284,2.66689,-0.0920453,20,32765
5.24643,2.65337,-0.0947861,21,32765
5.04097,2.52775,-0.0932271,18,32765
5.08534,2.52834,-0.0959636,20,32765
4.88759,2.40935,-0.0946875,19,32765
4.77874,2.336,-0.0954082,19,32765
4.68753,2.27198,-0.0962674,18,32765
4.4698,2.14797,-0.0933491,16,32765
4.46805,2.12838,-0.0947687,18,32765
4.30355,2.03196,-0.0904198,16,32765
4.36464,2.04292,-0.0940322,17,32765
4.17197,1.93554,-0.0913815,17,32765
4.23297,1.94645,-0.0944176,17,32765
4.18486,1.90733,-0.0951759,19,32765
3.96346,1.79025,-0.0919756,17,32765
3.99677,1.78922,-0.0944873,17,32765
3.91131,1.73529,-0.093856,17,32765
3.88053,1.70591,-0.0945809,17,32765
3.75783,1.63706,-0.093271,18,32765
3.72658,1.60851,-0.0941672,17,32765
3.75946,1.60786,-0.0966834,18,32765
3.72797,1.57962,-0.0976524,18,32765
3.72403,1.56314,-0.0988443,19,32765
3.62768,1.5084,-0.0979381,19,32765
3.61422,1.48851,-0.0992113,19,32765
3.5451,1.44617,-0.0987831,18,32765
3.56838,1.44187,-0.100816,19,32765
3.54527,1.41882,-0.101988,19,32765
3.49409,1.38513,-0.101788,19,32765
3.36837,1.32231,-0.0998352,18,32765
3.43784,1.33668,-0.103348,19,32765
3.41417,1.3146,-0.104396,21,32765
3.241,1.23561,-0.100376,18,32765
3.26374,1.23191,-0.102515,19,32765
3.2584,1.21757,-0.103714,19,32765
3.26232,1.20687,-0.105559,18,32765
3.04099,1.11358,-0.0996789,18,32765
3.15737,1.14437,-0.105059,19,32765
3.09516,1.11051,-0.104301,19,32765
2.92922,1.04007,-0.100141,19,32765
2.97024,1.04382,-0.102902,18,32765
2.90748,1.01119,-0.102172,18,32765
2.92013,1.00503,-0.104078,19,32765
2.84758,0.969951,-0.102882,18,32765
2.82223,0.951154,-0.103621,19,32765
2.7778,0.92632,-0.103274,18,32765
2.81868,0.929841,-0.106366,19,32765
2.70759,0.883578,-0.103734,18,32765
2.7483,0.887407,-0.106951,19,32765
2.68438,0.857482,-0.106088,19,32765
2.70609,0.854902,-0.108667,19,32765
2.60385,0.81337,-0.106369,20,32765
7.92181,5.83698,0.0141526,13,32765
7.89293,5.77494,0.0117393,12,32765
7.99279,5.80772,0.00902974,12,32765
7.94648,5.73527,0.00564243,12,32765
7.90868,5.66795,0.00268207,12,32765
8.01742,5.70497,-0.000717557,12,32765
8.03636,5.67825,-0.00387723,12,32765
7.94873,5.57689,-0.00768745,12,32765
8.07344,5.62539,-0.0115039,11,32765
8.09192,5.59877,-0.0143681,12,32765
8.25031,5.66852,-0.0191452,12,32765
8.28547,5.65255,-0.0224462,12,32765
8.39555,5.68625,-0.0285155,12,32765
8.44797,5.68007,-0.032421,11,32765
8.54226,5.701,-0.0363092,11,32765
8.6032,5.69962,-0.041338,12,32765
8.6971,5.7207,-0.0460773,12,32765
0,0,-0,0,32765
0,0,-0,0,32765
0,0,-0,0,32765
9.20214,5.87897,-0.0680269,12,32765
9.37378,5.94448,-0.0736428,13,32765
9.35956,5.89202,-0.0790016,15,32765
9.38742,5.86637,-0.0824913,18,32765
9.42387,5.8456,-0.0877921,18,32765
9.46039,5.82447,-0.0932699,18,32765
0,0,-0,0,32765
9.45656,5.73468,-0.102211,15,32765
0,0,-0,0,32765
0,0,-0,0,32765
0,0,-0,0,32765
0,0,-0,0,32765
0,0,-0,0,32765
0,0,-0,0,32765
0,0,-0,0,32765
0,0,-0,0,32765
0,0,-0,0,32765
0,0,-0,0,32765
5.60809,3.12364,-0.0923233,17,32765
0,0,-0,0,32765
5.2168,2.85992,-0.0911315,15,32765
5.36683,2.91888,-0.0967259,20,32765
5.25353,2.83405,-0.0970692,18,32765
0,0,-0,0,32765
0,0,-0,16,32765
0,0,-0,0,32765
4.53775,2.3695,-0.0932271,15,32765
4.75873,2.46457,-0.100001,18,32765
4.50909,2.31596,-0.0966168,18,32765
4.32085,2.20084,-0.0949397,14,32765
4.32829,2.18609,-0.096864,15,32765
4.31772,2.1625,-0.0990355,16,32765
4.25329,2.11237,-0.0996544,15,32765
4.24242,2.08914,-0.101135,16,32765
4.15958,2.0309,-0.101289,17,32765
4.12134,1.99511,-0.102386,15,32765
3.92066,1.88179,-0.0989396,15,32765
3.89077,1.8515,-0.0998137,15,32765
3.92399,1.85133,-0.102228,16,32765
3.78521,1.77046,-0.100382,16,32765
3.69135,1.71137,-0.10011,17,32765
3.7062,1.70301,-0.101285,17,32765
3.64828,1.6613,-0.101204,16,32765
3.68111,1.66139,-0.10402,16,32765
3.62285,1.62021,-0.103638,17,32765
3.546,1.57152,-0.10281,17,32765
3.49622,1.53566,-0.102931,16,32765
3.53795,1.53992,-0.105491,17,32765
3.41447,1.47281,-0.103026,16,32765
3.61243,1.54372,-0.110306,16,32765
3.36902,1.42635,-0.104026,16,32765
3.40135,1.42677,-0.106153,16,32765
3.3691,1.40012,-0.106376,15,32765
3.33665,1.37388,-0.106343,18,32765
3.24859,1.32507,-0.104676,16,32765
3.14168,1.26946,-0.102122,16,32765
3.21081,1.28501,-0.105212,17,32765
3.05708,1.21168,-0.100943,16,32765
3.03312,1.19064,-0.100925,17,32765
3.09295,1.20219,-0.103902,18,32765
3.0875,1.18847,-0.104676,16,32765
3.02598,1.15342,-0.10325,17,32765
3.02038,1.13992,-0.103778,16,32765
3.04275,1.13715,-0.105164,15,32765
2.98085,1.1028,-0.103763,17,32765
2.98445,1.09294,-0.104717,16,32765
2.99742,1.08647,-0.105646,17,32765
2.87866,1.03272,-0.101985,16,32765
2.93854,1.0433,-0.104535,17,32765
2.89479,1.01701,-0.103683,18,32765
2.86976,0.997706,-0.103285,18,32765
2.90132,0.99812,-0.104756,16,32765
2.90454,0.988704,-0.105052,18,32765
2.87926,0.969819,-0.104382,16,32765
2.89189,0.963527,-0.105426,17,32765
2.8475,0.938595,-0.103976,17,32765
2.80295,0.914038,-0.102397,17,32765
2.8629,0.923573,-0.104614,17,32765
2.82774,0.902317,-0.10313,17,32765
2.85929,0.901969,-0.104412,17,32765
2.90033,0.904719,-0.105687,16,32765
8.04911,5.95027,-0.0787184,16,32765
8.04488,5.9054,-0.0808706,14,32765
8.04006,5.86115,-0.0834898,13,32765
8.0426,5.82356,-0.0866918,12,32765
8.16756,5.87251,-0.0908585,13,32765
8.32573,5.94356,-0.0959724,12,32765
8.37811,5.93887,-0.099658,12,32765
8.53679,6.00879,-0.105471,11,32765
8.55625,5.98099,-0.109423,11,32765
8.54306,5.92989,-0.112043,12,32765
8.59535,5.92451,-0.117209,11,32765
20.3984,13.9607,-0.285599,13,32765
20.1972,13.7231,-0.29618,12,32765
21.0974,14.2302,-0.318184,12,32765
0,0,-0,12,32765
0,0,-0,12,32765
0,0,-0,13,32765
0,0,-0,13,32765
0,0,-0,13,32765
0,0,-0,12,32765
0,0,-0,12,32765
5.07869,3.2308,-0.0960816,12,32765
5.03018,3.17651,-0.0979956,13,32765
4.97286,3.11734,-0.098497,15,32765
4.92378,3.06373,-0.100022,15,32765
4.92548,3.04191,-0.102628,16,32765
4.87598,2.98873,-0.103622,17,32765
4.79206,2.91503,-0.104196,17,32765
4.7761,2.88338,-0.106636,19,32765
4.61422,2.76446,-0.105426,17,32765
4.58906,2.7285,-0.107004,18,32765
4.27961,2.52498,-0.101769,16,32765
4.27948,2.50537,-0.103651,15,32765
4.13228,2.40047,-0.102089,15,32765
4.0624,2.34148,-0.102419,15,32765
4.07022,2.32775,-0.104881,16,32765
3.98226,2.25989,-0.104389,16,32765
4.07688,2.29557,-0.108787,17,32765
3.82263,2.13568,-0.103904,17,32765
3.89969,2.16155,-0.108165,17,32765
3.73172,2.05203,-0.105051,17,32765
3.72097,2.02991,-0.106742,17,32765
3.64873,1.97433,-0.10626,17,32765
3.61134,1.93825,-0.106808,17,32765
3.56486,1.89787,-0.10712,18,32765
3.55353,1.87645,-0.108385,17,32765
3.5332,1.85055,-0.109952,18,32765
3.47727,1.80636,-0.109784,17,32765
3.43891,1.77165,-0.109934,17,32765
3.35583,1.71448,-0.109052,18,32765
3.31704,1.68041,-0.109085,18,32765
3.35837,1.68711,-0.112262,17,32765
3.24768,1.61782,-0.11011,18,32765
3.2531,1.6068,-0.111571,19,32765
3.15973,1.54739,-0.109935,18,32765
3.12891,1.51925,-0.110353,18,32765
3.07992,1.48272,-0.109786,18,32765
3.00363,1.43365,-0.108278,17,32765
2.93608,1.38941,-0.106967,17,32765
2.97686,1.39656,-0.1098,19,32765
2.89995,1.34851,-0.108661,18,32765
2.93172,1.35119,-0.110418,19,32765
2.87266,1.31204,-0.109332,18,32765
2.82237,1.27764,-0.108839,18,32765
2.86317,1.28431,-0.111369,18,32765
2.77613,1.23402,-0.109017,18,32765
2.79845,1.23286,-0.111107,19,32765
2.74756,1.19949,-0.110082,19,32765
2.81568,1.21816,-0.113776,18,32765
2.74627,1.1771,-0.111927,18,32765
2.6766,1.13659,-0.109967,18,32765
2.67111,1.12381,-0.110593,18,32765
2.70246,1.12644,-0.112841,19,32765
2.65068,1.0947,-0.111434,18,32765
2.66351,1.08967,-0.112873,19,32765
2.6763,1.08465,-0.114141,19,32765
2.57787,1.03478,-0.110587,19,32765
2.59057,1.02985,-0.11175,20,32765
2.54744,1.00297,-0.110508,19,32765
2.56937,1.00167,-0.112247,19,32765
2.5726,0.993227,-0.113155,20,32765
2.52916,0.966923,-0.111767,20,32765
2.551,0.965641,-0.113309,19,32765
2.46053,0.922302,-0.109762,18,32765
2.53848,0.941939,-0.113839,20,32765
2.51342,0.923189,-0.113384,20,32765
2.42255,0.880711,-0.109641,18,32765
2.48182,0.893006,-0.112748,20,32765
2.48473,0.884806,-0.113215,19,32765
2.45935,0.866604,-0.112631,19,32765
2.44328,0.851968,-0.112294,19,32765
2.40826,0.830961,-0.110936,19,32765
2.42984,0.82958,-0.112056,19,32765
2.45141,0.828163,-0.113234,20,32765
2.39724,0.801097,-0.111194,19,32765
2.43774,0.805921,-0.113191,19,32765
2.4213,0.791929,-0.112445,20,32765
2.39528,0.775016,-0.111237,20,32765
2.40726,0.770425,-0.111601,20,32765
2.40027,0.759416,-0.111363,19,32765
2.39316,0.748729,-0.110826,20,32765
8.00372,5.8943,-0.0360072,13,32765
7.8942,5.77304,-0.04509,12,32765
7.96155,5.78243,-0.0540149,12,32765
8.11848,5.85546,-0.0633807,12,32765
8.16201,5.84621,-0.0710993,13,32765
8.2302,5.85383,-0.0803389,12,32765
8.42117,5.94744,-0.0898445,12,32765
8.4082,5.89625,-0.0968663,11,32765
0,0,-0,0,32765
0,0,-0,0,32765
20.7392,14.2417,-0.293395,23,32765
20.4307,13.9308,-0.305742,13,32765
0,0,-0,0,32765
0,0,-0,0,32765
0,0,-0,0,32765
0,0,-0,0,32765
0,0,-0,0,32765
0,0,-0,0,32765
0,0,-0,0,32765
0,0,-0,0,32765
4.90381,3.13268,-0.106355,15,32765
0,0,-0,0,32765
4.78907,3.01468,-0.110225,17,32765
0,0,-0,0,32765
4.48612,2.78233,-0.108692,18,32765
0,0,-0,0,32765
4.37652,2.67402,-0.111928,17,32765
0,0,-0,0,32765
4.12873,2.48467,-0.111248,14,32765
4.07691,2.43492,-0.111779,16,32765
4.12802,2.44665,-0.115654,15,32765
4.03273,2.37196,-0.11541,15,32765
3.85063,2.24759,-0.112258,15,32765
3.84943,2.22964,-0.114345,16,32765
3.71814,2.13703,-0.112376,15,32765
3.60372,2.05508,-0.110991,15,32765
3.56707,2.01828,-0.111921,16,32765
3.45175,1.93776,-0.110004,16,32765
3.48437,1.94075,-0.113073,16,32765
3.40326,1.88079,-0.112067,14,32765
3.39194,1.85978,-0.113233,15,32765
3.30146,1.79594,-0.111993,15,32765
3.28973,1.77552,-0.113123,16,32765
3.33085,1.78336,-0.115956,15,32765
3.15131,1.67385,-0.11107,15,32765
3.13031,1.64931,-0.111839,17,32765
3.01181,1.57389,-0.109125,15,32765
3.0881,1.60039,-0.113067,16,32765
3.06686,1.57606,-0.113687,15,32765
2.9653,1.51113,-0.111147,16,32765
2.98827,1.50993,-0.113309,16,32765
2.89504,1.4505,-0.111158,14,32765
2.83724,1.40953,-0.110328,16,32765
2.9047,1.43084,-0.114158,17,32765
2.79269,1.36407,-0.110978,15,32765
2.80624,1.35895,-0.112682,16,32765
2.77473,1.33214,-0.112594,17,32765
2.75211,1.30988,-0.112316,16,32765
2.66608,1.25793,-0.109994,16,32765
2.65211,1.24054,-0.110724,15,32765
2.67435,1.24,-0.112901,17,32765
2.60585,1.19755,-0.110885,16,32765
2.62796,1.19714,-0.113056,16,32765
2.62285,1.1841,-0.11382,16,32765
2.59941,1.16303,-0.113833,16,32765
2.53932,1.1259,-0.112281,16,32765
2.49732,1.09724,-0.111235,16,32765
2.45514,1.06888,-0.110337,16,32765
2.4862,1.07247,-0.112853,17,32765
2.49891,1.06806,-0.114307,17,32765
2.46566,1.04398,-0.114206,17,32765
2.42305,1.01636,-0.112974,17,32765
2.42641,1.00816,-0.114219,18,32765
2.3281,0.958191,-0.110596,17,32765
2.36821,0.96555,-0.113465,17,32765
2.34356,0.946472,-0.113147,17,32765
2.28166,0.91283,-0.111263,17,32765
2.29391,0.908947,-0.112691,17,32765
2.2225,0.872046,-0.110102,15,32765
2.2719,0.882711,-0.113559,17,32765
2.3121,0.889393,-0.116584,18,32765
2.24963,0.856854,-0.114322,17,32765
2.27107,0.856489,-0.116559,18,32765
2.13345,0.796643,-0.110237,17,32765
2.19221,0.810404,-0.114305,17,32765
2.16667,0.792854,-0.114063,17,32765
2.15048,0.778827,-0.11391,16,32765
2.09657,0.751492,-0.112069,16,32765
2.13664,0.757867,-0.11533,17,32765
2.08248,0.731098,-0.113511,16,32765
2.03762,0.707924,-0.111972,17,32765
2.07759,0.714388,-0.115145,16,32765
2.02309,0.688442,-0.112921,16,32765
2.02524,0.681876,-0.114149,16,32765
2.01793,0.672057,-0.114885,17,32765
2.04851,0.674767,-0.117859,17,32765
2.00315,0.65269,-0.116201,16,32765
1.96711,0.634128,-0.115076,17,32765
1.95949,0.624965,-0.115765,18,32765
1.95184,0.61584,-0.116498,17,32765
1.88698,0.588868,-0.113805,17,32765
8.05803,5.95415,-0.129455,15,32765
0,0,-0,12,32765
0,0,-0,11,32765
0,0,-0,12,32765
0,0,-0,13,32765
0,0,-0,14,32765
0,0,-0,14,32765
0,0,-0,14,32765
0,0,-0,14,32765
4.54259,3.1517,-0.112255,15,32765
0,0,-0,17,32765
4.46405,3.05395,-0.117227,16,32765
0,0,-0,17,32765
0,0,-0,15,32765
0,0,-0,18,32765
0,0,-0,17,32765
3.71348,2.4495,-0.111831,15,32765
3.79668,2.4866,-0.116689,16,32765
3.86345,2.5122,-0.12145,16,32765
3.75408,2.42349,-0.120521,17,32765
3.55154,2.27627,-0.116417,16,32765
3.60127,2.29112,-0.120621,17,32765
3.37214,2.12969,-0.114869,17,32765
3.39618,2.12888,-0.118091,17,32765
3.36923,2.09645,-0.118711,17,32765
3.21458,1.98532,-0.115681,17,32765
3.18707,1.95362,-0.116451,17,32765
3.17643,1.93254,-0.1184,17,32765
3.12301,1.88555,-0.118261,17,32765
3.06927,1.83907,-0.117615,17,32765
3.02384,1.79803,-0.117625,17,32765
3.0212,1.78277,-0.11928,17,32765
2.95809,1.73222,-0.118312,18,32765
2.8083,1.63187,-0.113814,17,32765
2.84833,1.6424,-0.116861,18,32765
2.78443,1.593,-0.115788,17,32765
2.80712,1.59342,-0.118297,18,32765
2.76888,1.55942,-0.117999,18,32765
2.69553,1.50622,-0.116393,18,32765
2.683,1.48752,-0.117085,18,32765
2.74044,1.50741,-0.120785,18,32765
2.63136,1.43602,-0.11735,18,32765
2.6009,1.40826,-0.117153,19,32765
2.61436,1.40424,-0.118827,18,32765
2.61014,1.39085,-0.119719,19,32765
2.58823,1.36806,-0.119918,18,32765
2.5574,1.34071,-0.119736,19,32765
2.47327,1.28586,-0.116697,17,32765
2.45987,1.26816,-0.117143,18,32765
2.44634,1.25065,-0.117468,19,32765
2.43276,1.23316,-0.117834,19,32765
2.45474,1.23382,-0.120031,19,32765
2.33369,1.16307,-0.115217,18,32765
2.36443,1.16842,-0.117679,19,32765
2.26961,1.11211,-0.113917,18,32765
2.36318,1.14804,-0.119557,20,32765
2.349,1.13134,-0.1198,19,32765
2.26264,1.08033,-0.115886,19,32765
2.22108,1.0513,-0.114713,18,32765
2.19741,1.03111,-0.114541,18,32765
2.28233,1.06159,-0.119999,18,32765
2.18609,1.00783,-0.115641,17,32765
2.22573,1.01712,-0.118747,19,32765
2.23822,1.01366,-0.12022,19,32765
2.22335,0.997927,-0.120271,20,32765
2.14452,0.953863,-0.116888,19,32765
2.12027,0.934531,-0.116225,18,32765
2.12336,0.927366,-0.117213,18,32765
2.10809,0.912246,-0.117291,18,32765
2.10191,0.901229,-0.117657,18,32765
2.09571,0.890153,-0.118488,18,32765
2.05263,0.863715,-0.116653,19,32765
2.03705,0.849068,-0.116655,19,32765
2.07676,0.857456,-0.119798,19,32765
2.01484,0.824082,-0.11702,18,32765
2.04528,0.82863,-0.119516,19,32765
2.03866,0.818202,-0.120091,20,32765
1.94853,0.774543,-0.115464,18,32765
1.99752,0.786261,-0.119169,19,32765
2.01869,0.786823,-0.121305,19,32765
1.98401,0.765618,-0.120069,20,32765
1.99581,0.762599,-0.121547,20,32765
1.97024,0.745405,-0.120963,21,32765
1.97262,0.738938,-0.121772,20,32765
1.9001,0.704661,-0.118169,19,32765
1.89299,0.694918,-0.118658,19,32765
1.9234,0.698815,-0.121168,19,32765
1.87868,0.675546,-0.119239,19,32765
1.91846,0.682661,-0.122749,19,32765
1.88294,0.663168,-0.121456,19,32765
1.84733,0.643875,-0.119962,20,32765
1.83045,0.631435,-0.119708,19,32765
1.82297,0.622341,-0.119918,19,32765
1.82491,0.61641,-0.121026,19,32765
1.79846,0.600901,-0.120278,20,32765
1.80036,0.594949,-0.121472,20,32765
1.77375,0.579823,-0.120503,20,32765
1.79449,0.580364,-0.122776,19,32765
1.77721,0.568676,-0.122608,20,32765
1.73134,0.548054,-0.120479,19,32765
1.70441,0.533638,-0.119656,18,32765
0,0,-0,0,32765
0,0,-0,17,32765
0,0,-0,0,32765
4.09013,2.95924,-0.127506,15,32765
4.05123,2.91057,-0.12762,13,32765
3.84113,2.74029,-0.122182,15,32765
3.89088,2.75648,-0.125765,15,32765
3.88363,2.732,-0.127006,14,32765
3.7862,2.64451,-0.125026,14,32765
3.75391,2.60333,-0.125488,14,32765
3.7378,2.57377,-0.126956,14,32765
3.63071,2.48241,-0.124672,14,32765
3.64717,2.47591,-0.126919,13,32765
3.38179,2.2794,-0.119102,14,32765
3.38936,2.26804,-0.120953,15,32765
3.48862,2.31726,-0.126232,14,32765
3.18762,2.10186,-0.116806,15,32765
3.3285,2.17858,-0.123739,15,32765
3.36081,2.18384,-0.126288,14,32765
3.20004,2.06421,-0.121871,15,32765
3.03011,1.94031,-0.116744,15,32765
3.10399,1.97308,-0.120964,15,32765
3.12738,1.97339,-0.12342,14,32765
2.96442,1.85692,-0.118741,16,32765
3.04695,1.89445,-0.123443,16,32765
2.90014,1.78974,-0.118844,15,32765
2.88905,1.7695,-0.119751,16,32765
2.87781,1.74944,-0.120732,15,32765
2.798,1.68819,-0.118644,16,32765
2.80361,1.67874,-0.120407,15,32765
2.67177,1.58755,-0.115847,14,32765
2.64262,1.5582,-0.116082,16,32765
2.6564,1.55435,-0.117994,14,32765
2.64424,1.5354,-0.118782,15,32765
2.7013,1.55636,-0.122827,15,32765
2.62841,1.50259,-0.12077,16,32765
2.61604,1.48379,-0.121718,17,32765
2.54266,1.43072,-0.119565,17,32765
2.59981,1.45126,-0.123496,17,32765
2.5172,1.39409,-0.1208,16,32765
2.43423,1.33753,-0.118092,16,32765
2.45617,1.33891,-0.120481,17,32765
2.42544,1.31165,-0.120087,15,32765
2.40336,1.28931,-0.12009,16,32765
2.37235,1.26241,-0.119861,17,32765
2.34128,1.23557,-0.119457,18,32765
2.2835,1.19509,-0.117551,15,32765
2.27864,1.18265,-0.118403,17,32765
2.23813,1.15212,-0.117471,16,32765
2.25974,1.15365,-0.119534,16,32765
2.22791,1.12794,-0.119026,17,32765
2.18706,1.0979,-0.11788,16,32765
2.19077,1.09036,-0.118975,17,32765
2.14963,1.06079,-0.117623,16,32765
2.09929,1.02722,-0.115849,15,32765
2.13862,1.03758,-0.118916,17,32765
2.06104,0.991389,-0.11564,15,32765
2.10937,1.00593,-0.119446,17,32765
2.08563,0.985957,-0.118854,16,32765
2.03463,0.953515,-0.116625,16,32765
2.11019,0.980388,-0.121839,16,32765
2.01358,0.927466,-0.117083,16,32765
2.062,0.941551,-0.120608,16,32765
1.99231,0.901676,-0.117312,17,32765
2.02267,0.907123,-0.119751,17,32765
2.02571,0.900172,-0.120841,17,32765
1.96472,0.865138,-0.117946,17,32765
2.0042,0.874449,-0.120994,18,32765
1.96122,0.847957,-0.119074,17,32765
1.94565,0.83352,-0.118717,16,32765
1.95762,0.830775,-0.120142,17,32765
1.88675,0.793163,-0.116534,16,32765
1.96312,0.817491,-0.121513,17,32765
1.96578,0.810941,-0.12247,17,32765
1.89445,0.774272,-0.118611,16,32765
1.87846,0.760498,-0.118095,16,32765
1.89945,0.761698,-0.119955,17,32765
1.84627,0.733268,-0.117051,17,32765
1.87654,0.738054,-0.119473,17,32765
1.85105,0.720931,-0.118145,17,32765
1.92791,0.743523,-0.123494,17,32765
1.86502,0.712282,-0.119855,17,32765
1.82063,0.688498,-0.117409,17,32765
1.84155,0.68951,-0.119038,17,32765
1.84378,0.683434,-0.119611,18,32765
1.80851,0.663606,-0.117618,17,32765
1.80128,0.654189,-0.117549,18,32765
1.841,0.661692,-0.1204,18,32765
1.75848,0.625593,-0.115263,17,32765
1.85465,0.652963,-0.121762,17,32765
1.78137,0.620583,-0.117014,16,32765
1.76447,0.608302,-0.116253,17,32765
1.79476,0.612219,-0.118391,18,32765
1.78725,0.603258,-0.118037,18,32765
1.79866,0.600628,-0.118659,18,32765
1.79111,0.591659,-0.118243,18,32765
1.78355,0.582655,-0.117793,18,32765
1.76646,0.570632,-0.116654,18,32765
1.78732,0.570948,-0.117924,17,32765
1.8272,0.577268,-0.120464,18,32765
1.7909,0.559668,-0.117696,18,32765
2.9939,2.22119,-0.125539,15,32765
2.93709,2.16348,-0.123849,16,32765
3.00103,2.19455,-0.127224,17,32765
2.95178,2.14327,-0.126016,16,32765
2.97511,2.14506,-0.127909,17,32765
2.94159,2.10601,-0.127297,17,32765
2.8263,2.00939,-0.123691,16,32765
2.85743,2.01722,-0.126068,17,32765
2.80689,1.96742,-0.124662,17,32765
2.78061,1.93514,-0.124558,16,32765
2.73767,1.89173,-0.124038,17,32765
2.78508,1.91091,-0.127158,17,32765
2.65925,1.81157,-0.122576,16,32765
2.68177,1.81389,-0.124676,17,32765
2.61313,1.75472,-0.122645,17,32765
2.56918,1.71248,-0.121801,17,32765
2.63324,1.74235,-0.125987,17,32765
2.50547,1.64558,-0.121149,17,32765
2.5611,1.66996,-0.12481,16,32765
2.49114,1.61249,-0.122608,17,32765
2.49647,1.60412,-0.123923,18,32765
2.45122,1.56351,-0.122709,17,32765
2.45636,1.55531,-0.124126,18,32765
2.42759,1.52588,-0.124056,17,32765
2.37332,1.48068,-0.122319,17,32765
2.32726,1.44113,-0.120979,17,32765
2.31503,1.42278,-0.121386,18,32765
2.28561,1.39419,-0.120945,18,32765
2.2902,1.38653,-0.122173,18,32765
2.26055,1.35819,-0.121776,17,32765
2.2651,1.35049,-0.122908,18,32765
2.2352,1.32245,-0.122509,18,32765
2.23958,1.3149,-0.123807,19,32765
2.1576,1.25709,-0.120317,17,32765
2.18773,1.26474,-0.123155,18,32765
2.15728,1.23744,-0.122431,18,32765
2.10064,1.19549,-0.120394,19,32765
2.11336,1.19318,-0.122131,19,32765
2.08251,1.16642,-0.121305,18,32765
2.10382,1.16909,-0.123534,19,32765
2.08143,1.14754,-0.12327,18,32765
2.10273,1.15011,-0.125628,18,32765
2.02752,1.10016,-0.12203,18,32765
1.99599,1.07438,-0.121007,18,32765
2.03477,1.08642,-0.124455,18,32765
1.95903,1.03732,-0.120763,18,32765
1.97137,1.0352,-0.122389,18,32765
1.93942,1.00997,-0.121309,19,32765
1.94274,1.00342,-0.122503,18,32765
1.93718,0.992293,-0.122916,19,32765
1.94046,0.985708,-0.124116,20,32765
1.94376,0.97904,-0.125216,18,32765
1.88455,0.941099,-0.12214,19,32765
1.8698,0.925794,-0.121921,18,32765
1.90868,0.937083,-0.125319,19,32765
1.84895,0.900043,-0.122143,18,32765
1.86989,0.902457,-0.124439,18,32765
1.80983,0.865968,-0.121352,18,32765
1.8578,0.881193,-0.125211,18,32765
1.79748,0.845196,-0.121717,18,32765
1.81832,0.847616,-0.123862,18,32765
1.79388,0.829035,-0.122903,18,32765
1.76934,0.810619,-0.121806,18,32765
1.79926,0.817029,-0.124545,19,32765
1.7474,0.786289,-0.121492,19,32765
1.76826,0.788395,-0.123711,19,32765
1.76174,0.778351,-0.123896,19,32765
1.76432,0.772362,-0.12465,19,32765
1.75768,0.762494,-0.124762,19,32765
1.74185,0.748705,-0.12414,20,32765
1.75352,0.746648,-0.125571,19,32765
1.73761,0.732911,-0.125092,19,32765
1.74006,0.727022,-0.125476,19,32765
1.74242,0.721201,-0.126327,20,32765
1.71703,0.704108,-0.124995,19,32765
1.72857,0.702153,-0.126259,19,32765
1.72159,0.69268,-0.126218,19,32765
1.72385,0.686934,-0.126786,19,32765
1.69825,0.670167,-0.125338,19,32765
1.70974,0.668121,-0.126438,19,32765
1.72122,0.666032,-0.127661,19,32765
1.6861,0.646103,-0.125389,19,32765
1.63222,0.619312,-0.121728,19,32765
1.70893,0.641994,-0.127689,20,32765
1.6923,0.629386,-0.126821,20,32765
1.69434,0.623795,-0.127231,19,32765
1.64014,0.597658,-0.123507,19,32765
1.6421,0.592179,-0.123868,18,32765
1.61581,0.576762,-0.122106,18,32765
1.63649,0.578085,-0.123823,19,32765
1.63837,0.572677,-0.124005,19,32765
1.63076,0.564091,-0.123736,18,32765
1.63258,0.558761,-0.123985,19,32765
1.61546,0.547101,-0.122797,19,32765
1.58885,0.532345,-0.120642,20,32765
1.6095,0.53345,-0.122268,20,32765
1.61124,0.528129,-0.122427,20,32765
1.60348,0.519721,-0.121813,20,32765
1.56718,0.502302,-0.118945,19,32765
1.63533,0.518382,-0.12402,20,32765
1.63696,0.513273,-0.123786,20,32765
0,0,-0,14,32765
0,0,-0,13,32765
3.23084,2.35485,-0.127838,13,32765
3.10087,2.2445,-0.125454,14,32765
3.09204,2.22239,-0.127928,15,32765
2.92851,2.09006,-0.124469,15,32765
2.96805,2.10326,-0.128673,14,32765
2.86867,2.0186,-0.126771,15,32765
2.85059,1.992,-0.128491,15,32765
2.70105,1.8743,-0.124239,15,32765
2.72361,1.87665,-0.127237,16,32765
2.68028,1.83367,-0.127403,15,32765
2.60371,1.76844,-0.125772,14,32765
2.51009,1.69269,-0.123172,16,32765
2.48239,1.6621,-0.12352,16,32765
2.44622,1.62617,-0.123205,15,32765
2.41815,1.59599,-0.123934,14,32765
2.36491,1.54955,-0.122466,16,32765
2.3114,1.50343,-0.121396,15,32765
2.29961,1.48475,-0.122162,17,32765
2.28772,1.46615,-0.123134,15,32765
2.22509,1.41558,-0.121202,16,32765
2.25503,1.42417,-0.12441,16,32765
2.26815,1.42194,-0.126344,16,32765
2.17947,1.35636,-0.122965,16,32765
2.17544,1.34376,-0.124033,16,32765
2.12025,1.29989,-0.122079,16,32765
2.07339,1.26154,-0.120282,16,32765
2.09468,1.26481,-0.1228,17,32765
2.08174,1.24743,-0.123152,16,32765
2.04298,1.21481,-0.121939,16,32765
2.04699,1.20791,-0.123323,16,32765
2.0165,1.18082,-0.122444,17,32765
2.01172,1.16907,-0.123097,16,32765
2.00693,1.15728,-0.123815,17,32765
2.01942,1.15545,-0.125541,16,32765
1.98849,1.12892,-0.124676,16,32765
1.93135,1.08785,-0.121996,17,32765
1.95237,1.09108,-0.124109,17,32765
1.90357,1.05545,-0.121915,15,32765
1.90703,1.04905,-0.122949,17,32765
1.90171,1.03788,-0.123327,17,32765
1.88759,1.02191,-0.123278,17,32765
1.891,1.01546,-0.124327,17,32765
1.82388,0.971508,-0.120591,16,32765
1.86238,0.983997,-0.12402,16,32765
1.84793,0.968482,-0.123686,15,32765
1.84224,0.957678,-0.124139,17,32765
1.78331,0.919403,-0.120867,16,32765
1.85753,0.949563,-0.126481,16,32765
1.83404,0.929561,-0.125717,17,32765
1.76587,0.88731,-0.121658,16,32765
1.78673,0.890103,-0.123751,16,32765
1.78069,0.879686,-0.124026,17,32765
1.77465,0.869245,-0.124198,15,32765
1.72365,0.837085,-0.121352,16,32765
1.76237,0.848577,-0.124828,18,32765
1.72918,0.825362,-0.122946,17,32765
1.7319,0.819529,-0.123729,17,32765
1.72558,0.809396,-0.123938,17,32765
1.683,0.782526,-0.12157,17,32765
1.67651,0.772644,-0.121777,17,32765
1.67907,0.766954,-0.122499,16,32765
1.67252,0.757155,-0.122489,17,32765
1.63858,0.735152,-0.120802,17,32765
1.65923,0.737725,-0.122932,17,32765
1.66167,0.732061,-0.123849,17,32765
1.67321,0.730453,-0.125341,17,32765
1.66643,0.72089,-0.125433,17,32765
1.60461,0.687745,-0.121407,17,32765
1.67113,0.709639,-0.12704,17,32765
1.58151,0.66531,-0.120739,17,32765
1.62975,0.679066,-0.125191,17,32765
1.61351,0.666007,-0.124566,17,32765
1.59724,0.652945,-0.124009,17,32765
1.6086,0.651337,-0.125568,17,32765
1.58293,0.634851,-0.124111,17,32765
1.5757,0.625892,-0.124229,17,32765
1.57767,0.620748,-0.124954,18,32765
1.55177,0.604673,-0.123577,17,32765
1.56301,0.60312,-0.125114,17,32765
1.53699,0.587257,-0.123663,17,32765
1.52023,0.575073,-0.122905,18,32765
1.52205,0.570041,-0.123752,17,32765
1.55192,0.575344,-0.126928,17,32765
1.52568,0.559884,-0.125418,17,32765
1.54621,0.56159,-0.127901,18,32765
1.50109,0.5396,-0.12476,18,32765
1.50279,0.534647,-0.125626,19,32765
1.4951,0.526305,-0.125657,17,32765
1.43085,0.498429,-0.121013,17,32765
1.49838,0.516467,-0.127335,19,32765
1.51883,0.518071,-0.129841,19,32765
1.44484,0.487731,-0.124268,17,32765
1.43687,0.479934,-0.12432,17,32765
1.41942,0.46904,-0.123536,17,32765
1.42084,0.464452,-0.12446,17,32765
1.42226,0.459837,-0.125452,17,32765
1.37616,0.440156,-0.122274,17,32765
1.42496,0.450822,-0.127522,18,32765
1.38823,0.434434,-0.125235,18,32765
2.59224,1.92279,-0.126877,16,32765
2.54221,1.8726,-0.126982,17,32765
