x, y, z, intensity, ring
6.78413,2.45902,-0.239112,18,32765
6.75451,2.42318,-0.239298,18,32765
6.68706,2.37417,-0.237883,18,32765
6.68537,2.34873,-0.239451,18,32765
6.63632,2.3072,-0.238847,17,32765
6.54924,2.25309,-0.23647,15,32765
0,0,-0,0,32765
0,0,-0,0,32765
0,0,-0,0,32765
0,0,-0,0,32765
0,0,-0,0,32765
0,0,-0,0,32765
0,0,-0,0,32765
0,0,-0,0,32765
0,0,-0,0,32765
9.26331,6.84787,-0.090593,45,32765
9.31046,6.8344,-0.0935927,56,32765
9.34101,6.80953,-0.0969992,57,32765
9.35469,6.77363,-0.100835,47,32765
9.40162,6.7598,-0.104587,50,32765
9.44071,6.73952,-0.108825,50,32765
9.46311,6.70797,-0.112564,49,32765
9.47715,6.67068,-0.117089,35,32765
9.51514,6.65127,-0.121686,54,32765
9.56166,6.63691,-0.125403,61,32765
9.58332,6.60549,-0.130681,63,32765
9.61332,6.5794,-0.134597,57,32765
9.61889,6.53559,-0.141055,44,32765
9.56639,6.45252,-0.144277,25,32765
9.34752,6.25823,-0.14461,16,32765
9.36866,6.22641,-0.149911,16,32765
9.42249,6.21744,-0.155204,14,32765
9.69392,6.35051,-0.164544,13,32765
9.85739,6.4109,-0.172766,14,32765
9.91234,6.39949,-0.178612,14,32765
9.9589,6.38243,-0.184009,14,32765
9.96334,6.33817,-0.188492,15,32765
9.97582,6.29963,-0.194344,15,32765
10.022,6.28248,-0.198504,15,32765
10.0258,6.23838,-0.203666,18,32765
10.0806,6.22567,-0.210041,40,32765
10.1441,6.2178,-0.215578,68,32765
10.1991,6.20419,-0.221765,73,32765
10.2198,6.1698,-0.228178,75,32765
10.2576,6.14553,-0.234367,76,32765
10.2867,6.11613,-0.239858,76,32765
10.3072,6.08128,-0.245105,75,32765
10.3363,6.05128,-0.25035,70,32765
10.3912,6.03632,-0.256718,65,32765
10.4289,6.01095,-0.262926,65,32765
10.4576,5.98069,-0.26947,68,32765
10.5034,5.96057,-0.275332,67,32765
10.5232,5.92531,-0.280802,66,32765
10.5253,5.88042,-0.286092,58,32765
10.5886,5.86915,-0.293696,42,32765
10.5995,5.82853,-0.298383,28,32765
10.4872,5.7211,-0.300843,22,32765
10.3483,5.59949,-0.301368,19,32765
10.147,5.44602,-0.300104,18,32765
10.0328,5.34128,-0.301474,17,32765
9.88271,5.21859,-0.301429,17,32765
9.67866,5.0693,-0.301197,17,32765
9.59797,4.98593,-0.303028,17,32765
9.437,4.86174,-0.30168,18,32765
9.28415,4.74324,-0.3017,17,32765
9.18427,4.65274,-0.302035,18,32765
9.09262,4.56775,-0.303943,17,32765
8.99152,4.47908,-0.304849,17,32765
8.89001,4.39103,-0.3049,17,32765
8.7521,4.28609,-0.304508,16,32765
8.64946,4.19977,-0.305056,17,32765
8.54632,4.11433,-0.304641,17,32765
8.44265,4.02972,-0.304349,18,32765
8.33848,3.94593,-0.303785,18,32765
8.23386,3.86281,-0.303701,19,32765
8.17424,3.80111,-0.306288,19,32765
8.06904,3.71891,-0.303906,19,32765
7.99982,3.65379,-0.30447,20,32765
7.89353,3.57328,-0.304398,20,32765
7.81445,3.50527,-0.303959,19,32765
7.77134,3.45445,-0.305175,20,32765
7.7003,3.39239,-0.305725,19,32765
7.61075,3.32258,-0.304927,19,32765
7.52987,3.25769,-0.304268,20,32765
7.48566,3.20847,-0.305086,20,32765
7.41353,3.14809,-0.304581,20,32765
7.33173,3.08466,-0.303558,21,32765
7.27728,3.03331,-0.303863,21,32765
7.2686,3.00183,-0.305569,21,32765
7.21367,2.95119,-0.305698,22,32765
7.11212,2.8824,-0.303322,22,32765
7.05668,2.83263,-0.302721,22,32765
7.04745,2.80162,-0.304009,22,32765
7.0008,2.75634,-0.303695,22,32765
6.92613,2.70015,-0.302578,21,32765
6.86028,2.64861,-0.301748,21,32765
6.79421,2.59749,-0.300244,21,32765
6.75594,2.55736,-0.300082,22,32765
6.69863,2.51091,-0.298818,21,32765
6.66937,2.47476,-0.299089,21,32765
6.60241,2.42509,-0.297844,21,32765
6.56341,2.38611,-0.297049,22,32765
6.55238,2.35767,-0.297671,22,32765
6.48478,2.30921,-0.295474,22,32765
6.40751,2.25782,-0.293444,22,32765
6.42424,2.24012,-0.295259,23,32765
6.34646,2.18983,-0.29235,22,32765
6.32516,2.15949,-0.291694,21,32765
6.23738,2.10718,-0.288112,16,32765
6.32001,2.11198,-0.293147,11,32765
0,0,-0,0,32765
0,0,-0,0,32765
0,0,-0,0,32765
0,0,-0,0,32765
0,0,-0,0,32765
0,0,-0,0,32765
9.24374,6.8075,-0.0415858,19,32765
9.29062,6.79424,-0.053066,35,32765
9.32893,6.77555,-0.0632919,33,32765
9.3107,6.71535,-0.0726883,24,32765
9.42208,6.74876,-0.0820758,30,32765
9.44436,6.71741,-0.0921908,39,32765
9.483,6.69736,-0.101173,38,32765
9.50528,6.66557,-0.109505,30,32765
9.56001,6.65692,-0.119057,48,32765
9.58152,6.62575,-0.128098,50,32765
9.60299,6.59444,-0.135853,47,32765
9.63289,6.56827,-0.144155,43,32765
9.61341,6.50782,-0.150744,23,32765
9.35355,6.28491,-0.154885,14,32765
9.34129,6.23113,-0.162373,15,32765
9.42867,6.24395,-0.171223,14,32765
9.40751,6.18503,-0.178144,12,32765
9.82946,6.41657,-0.192443,12,32765
9.92589,6.43312,-0.201508,12,32765
9.87125,6.35162,-0.20721,13,32765
10.0014,6.38916,-0.216913,12,32765
9.91288,6.28594,-0.222294,13,32765
10.0097,6.301,-0.230383,12,32765
9.9798,6.2354,-0.236972,13,32765
10.0003,6.20227,-0.242292,13,32765
10.0719,6.20015,-0.251814,33,32765
10.1436,6.19769,-0.25942,57,32765
10.1983,6.18447,-0.268533,60,32765
10.2447,6.16529,-0.276043,63,32765
10.2652,6.13087,-0.281448,63,32765
10.3028,6.10642,-0.288653,64,32765
10.3231,6.07181,-0.295431,62,32765
10.3432,6.03726,-0.301536,55,32765
10.3891,6.01751,-0.308602,54,32765
10.4264,5.99265,-0.315125,55,32765
10.4551,5.96222,-0.322009,53,32765
10.4837,5.93178,-0.328938,48,32765
10.4947,5.89157,-0.334457,34,32765
10.5317,5.86602,-0.341771,23,32765
10.4373,5.76807,-0.343692,18,32765
10.2547,5.6226,-0.342333,16,32765
10.0888,5.48812,-0.342234,15,32765
9.94836,5.36928,-0.342093,15,32765
9.84275,5.26988,-0.342652,15,32765
9.7982,5.20441,-0.345343,15,32765
9.55011,5.0318,-0.341205,15,32765
9.43404,4.92997,-0.341818,15,32765
9.31754,4.82878,-0.34115,15,32765
9.13835,4.69619,-0.338754,15,32765
9.06511,4.61961,-0.339783,15,32765
8.97373,4.5343,-0.340266,15,32765
8.80129,4.40971,-0.337933,14,32765
8.75339,4.34865,-0.340381,15,32765
8.6334,4.25278,-0.339302,15,32765
8.53071,4.16678,-0.339,15,32765
8.35575,4.04636,-0.335517,15,32765
8.31518,3.99209,-0.337418,16,32765
8.22926,3.91674,-0.335844,16,32765
8.12478,3.8335,-0.335201,16,32765
8.0016,3.74278,-0.334063,16,32765
7.9596,3.69056,-0.336025,16,32765
7.8448,3.60517,-0.333814,16,32765
7.76567,3.53757,-0.334084,17,32765
7.70463,3.47829,-0.334346,17,32765
7.65228,3.42379,-0.335108,17,32765
7.60883,3.37364,-0.336438,17,32765
7.52854,3.3078,-0.335335,16,32765
7.44787,3.24254,-0.334718,17,32765
7.36685,3.17783,-0.334395,18,32765
7.313,3.12566,-0.334517,18,32765
7.28657,3.08519,-0.337504,18,32765
7.21386,3.02589,-0.336345,18,32765
7.11316,2.95548,-0.334841,18,32765
7.10439,2.924,-0.337493,18,32765
6.98438,2.84762,-0.334632,17,32765
6.94732,2.80575,-0.335416,18,32765
6.88207,2.75333,-0.335598,18,32765
6.84458,2.71212,-0.336249,18,32765
6.81629,2.67452,-0.337677,17,32765
6.68534,2.59749,-0.334163,17,32765
6.6566,2.56059,-0.335648,18,32765
6.6182,2.52079,-0.336325,18,32765
6.5702,2.47783,-0.337206,18,32765
6.52199,2.43535,-0.336997,18,32765
6.46421,2.38965,-0.337054,18,32765
6.45312,2.3614,-0.33972,19,32765
6.31057,2.28547,-0.334268,18,32765
6.28031,2.25111,-0.335704,20,32765
0,0,-0,0,32765
6.19089,2.17344,-0.337453,20,32765
6.1789,2.14672,-0.339546,17,32765
0,0,-0,0,32765
6.13545,2.08784,-0.342458,13,32765
0,0,-0,0,32765
0,0,-0,0,32765
0,0,-0,0,32765
0,0,-0,0,32765
0,0,-0,0,32765
0,0,-0,0,32765
0,0,-0,0,32765
0,0,-0,0,32765
9.2804,6.85737,-0.149093,59,32765
9.30317,6.82619,-0.160501,60,32765
9.3496,6.81327,-0.171094,60,32765
9.36391,6.77629,-0.180693,60,32765
9.40227,6.75705,-0.189699,60,32765
9.42454,6.72567,-0.199813,58,32765
9.47947,6.71716,-0.209343,58,32765
9.47725,6.66803,-0.21713,48,32765
9.47454,6.61935,-0.22568,43,32765
9.47947,6.57696,-0.234254,30,32765
9.31964,6.42109,-0.237333,19,32765
9.25817,6.33369,-0.243122,21,32765
9.25448,6.28558,-0.249429,20,32765
9.29258,6.2646,-0.258393,18,32765
9.30519,6.22756,-0.266188,17,32765
9.38414,6.23497,-0.275528,16,32765
9.4047,6.20357,-0.283222,15,32765
9.50844,6.22745,-0.292238,13,32765
9.82204,6.38676,-0.308762,14,32765
9.8429,6.3542,-0.315996,14,32765
9.93086,6.36491,-0.325527,14,32765
9.96041,6.3368,-0.333616,14,32765
10.015,6.32502,-0.341152,15,32765
10.0022,6.26985,-0.347794,14,32765
10.0398,6.24711,-0.353742,14,32765
10.0775,6.22382,-0.36265,15,32765
10.0895,6.18474,-0.368657,18,32765
10.1099,6.15087,-0.376844,39,32765
10.199,6.15774,-0.386212,67,32765
10.2366,6.13365,-0.392268,73,32765
10.2742,6.10923,-0.399658,74,32765
10.3031,6.07969,-0.406774,73,32765
10.3231,6.04511,-0.412885,67,32765
10.3518,6.01532,-0.419536,55,32765
10.3804,5.98551,-0.425886,36,32765
10.3744,5.93529,-0.431408,24,32765
10.2899,5.84091,-0.433635,19,32765
10.1003,5.68845,-0.430436,17,32765
9.997,5.58616,-0.431672,16,32765
9.81436,5.44131,-0.428294,17,32765
9.65722,5.31204,-0.425643,16,32765
9.54308,5.20797,-0.425588,17,32765
9.39312,5.0859,-0.423098,17,32765
9.2779,4.9834,-0.421695,16,32765
9.17957,4.89146,-0.42104,16,32765
9.02788,4.77188,-0.41828,16,32765
8.89337,4.66231,-0.416381,16,32765
8.79384,4.57195,-0.414922,17,32765
8.71165,4.49122,-0.414863,16,32765
8.59333,4.39318,-0.412632,17,32765
8.49238,4.30478,-0.411339,17,32765
8.33721,4.19051,-0.407669,18,32765
8.29756,4.13534,-0.409659,17,32765
8.15909,4.03194,-0.40608,18,32765
8.12754,3.98249,-0.407939,18,32765
7.98809,3.88062,-0.40413,18,32765
7.88402,3.79713,-0.402088,18,32765
7.80657,3.72737,-0.399829,19,32765
7.71962,3.6539,-0.398699,19,32765
7.69544,3.611,-0.401128,20,32765
7.62588,3.54706,-0.400948,20,32765
7.55608,3.48351,-0.399704,20,32765
7.46754,3.41256,-0.39841,21,32765
7.41525,3.35826,-0.398291,20,32765
7.317,3.28416,-0.39581,20,32765
7.28225,3.23908,-0.396921,21,32765
7.22902,3.18627,-0.396267,21,32765
7.16634,3.12986,-0.395595,22,32765
7.10335,3.07387,-0.39522,22,32765
7.03086,3.01459,-0.393559,21,32765
6.99488,2.97108,-0.395479,21,32765
6.94949,2.92424,-0.394948,21,32765
6.84855,2.85456,-0.392194,20,32765
6.82099,2.81627,-0.39347,21,32765
6.74695,2.75954,-0.391857,20,32765
6.70039,2.71461,-0.391538,20,32765
6.65344,2.67031,-0.391935,20,32765
6.58787,2.61869,-0.390379,21,32765
6.52214,2.56723,-0.3891,22,32765
6.50259,2.53451,-0.390747,22,32765
6.45503,2.49095,-0.390646,22,32765
6.38847,2.44103,-0.389065,23,32765
6.34025,2.39872,-0.389261,23,32765
6.27313,2.34989,-0.387248,22,32765
6.25255,2.31879,-0.388852,23,32765
6.1569,2.2602,-0.385931,23,32765
6.18303,2.24643,-0.389511,25,32765
6.13387,2.20566,-0.389317,23,32765
6.03752,2.14837,-0.386299,22,32765
6.03482,2.12545,-0.389267,22,32765
5.9944,2.08931,-0.389263,23,32765
0,0,-0,15,32765
0,0,-0,14,32765
0,0,-0,0,32765
0,0,-0,0,32765
0,0,-0,0,32765
0,0,-0,0,32765
0,0,-0,0,32765
0,0,-0,0,32765
0,0,-0,0,32765
0,0,-0,0,32765
9.26086,6.84602,-0.280914,50,32765
9.28415,6.81427,-0.284061,49,32765
9.33186,6.79971,-0.287887,47,32765
9.36274,6.77403,-0.291876,45,32765
9.37708,6.73688,-0.295393,38,32765
9.40752,6.71139,-0.299242,26,32765
9.07871,6.43178,-0.293453,26,32765
9.10812,6.40726,-0.297863,17,32765
9.1295,6.3766,-0.30147,16,32765
9.19995,6.38016,-0.307541,18,32765
9.17161,6.31538,-0.311517,16,32765
9.28307,6.34708,-0.318764,16,32765
9.32055,6.32732,-0.324349,16,32765
9.3248,6.28512,-0.328407,15,32765
9.32904,6.24268,-0.332918,14,32765
9.38348,6.23282,-0.33953,14,32765
9.46273,6.23956,-0.346747,13,32765
9.8935,6.47552,-0.367797,12,32765
9.83937,6.39357,-0.369732,13,32765
9.93609,6.40935,-0.378408,12,32765
9.88152,6.32758,-0.380714,13,32765
9.90239,6.29454,-0.385901,13,32765
10.0499,6.34152,-0.39661,12,32765
10.1298,6.34535,-0.405754,12,32765
10.0405,6.2427,-0.406776,13,32765
10.1377,6.25622,-0.415433,14,32765
10.1415,6.21152,-0.420364,26,32765
10.1791,6.18791,-0.427039,55,32765
10.2251,6.16939,-0.433576,60,32765
10.2542,6.13998,-0.440389,62,32765
10.2833,6.11027,-0.44588,57,32765
10.3122,6.08053,-0.452984,44,32765
10.3151,6.03571,-0.458185,30,32765
10.335,6.00112,-0.464259,21,32765
10.2857,5.92616,-0.467689,16,32765
10.0799,5.76242,-0.46315,16,32765
9.94269,5.63937,-0.462609,15,32765
9.84847,5.54159,-0.46311,15,32765
9.63151,5.37646,-0.457515,14,32765
9.5007,5.26173,-0.455936,15,32765
9.36039,5.14325,-0.4541,14,32765
9.23697,5.03528,-0.453095,14,32765
9.12175,4.93296,-0.451633,14,32765
9.00602,4.83136,-0.450008,14,32765
8.80151,4.6836,-0.44469,14,32765
8.68483,4.58326,-0.443117,14,32765
8.54983,4.47462,-0.440134,15,32765
8.5028,4.41308,-0.441823,15,32765
8.33081,4.28844,-0.437254,14,32765
8.30053,4.23761,-0.439075,15,32765
8.18089,4.1418,-0.437065,15,32765
8.08765,4.05999,-0.435914,16,32765
8.02983,3.99651,-0.436079,15,32765
7.89987,3.8984,-0.432264,16,32765
7.82298,3.82793,-0.431711,16,32765
7.72779,3.74922,-0.429697,16,32765
7.66814,3.68849,-0.430243,16,32765
7.59013,3.61961,-0.429801,16,32765
7.52092,3.55542,-0.428594,17,32765
7.44221,3.48775,-0.426589,16,32765
7.36302,3.42084,-0.42513,18,32765
7.30149,3.36311,-0.424557,18,32765
7.26695,3.31824,-0.42505,18,32765
7.20508,3.26085,-0.424253,18,32765
7.1249,3.19536,-0.421827,17,32765
7.03522,3.12627,-0.419679,19,32765
7.03644,3.0984,-0.422412,19,32765
6.9918,3.05059,-0.422099,18,32765
6.89177,2.97974,-0.41843,18,32765
6.82813,2.92518,-0.416628,17,32765
6.80112,2.88626,-0.417393,19,32765
6.72786,2.8283,-0.415545,17,32765
6.64512,2.76719,-0.411319,17,32765
6.66333,2.74882,-0.415133,17,32765
6.5705,2.6854,-0.411378,17,32765
6.51445,2.63739,-0.409552,17,32765
6.49521,2.60464,-0.410188,18,32765
6.40164,2.54249,-0.405855,18,32765
6.42854,2.52838,-0.409283,18,32765
6.34381,2.47073,-0.404901,18,32765
6.34253,2.44608,-0.406276,17,32765
6.32241,2.41464,-0.406307,20,32765
6.22748,2.35502,-0.401599,19,32765
6.10422,2.28553,-0.394578,16,32765
6.13968,2.2758,-0.398299,19,32765
6.10019,2.23838,-0.396731,17,32765
6.09809,2.2147,-0.397952,19,32765
6.0302,2.16738,-0.394373,18,32765
5.93369,2.11096,-0.388936,21,32765
6.05349,2.13124,-0.397426,20,32765
5.95676,2.07518,-0.391284,19,32765
0,0,-0,18,32765
0,0,-0,0,32765
0,0,-0,0,32765
0,0,-0,0,32765
0,0,-0,0,32765
0,0,-0,0,32765
0,0,-0,0,32765
0,0,-0,0,32765
0,0,-0,0,32765
0,0,-0,0,32765
9.2225,6.84223,-0.386713,27,32765
9.23776,6.80459,-0.38953,22,32765
9.30158,6.80192,-0.394325,15,32765
9.28396,6.74102,-0.396345,13,32765
9.18474,6.6222,-0.39488,14,32765
9.12542,6.53327,-0.394901,15,32765
9.10606,6.47404,-0.398521,16,32765
9.15195,6.46087,-0.403777,17,32765
9.1408,6.40702,-0.405968,17,32765
9.20309,6.40482,-0.412254,17,32765
9.19957,6.35691,-0.416813,18,32765
9.24513,6.34332,-0.422105,17,32765
9.27433,6.31799,-0.427495,17,32765
9.31169,6.29822,-0.432902,16,32765
9.42385,6.32812,-0.442302,15,32765
9.58662,6.38993,-0.454486,14,32765
9.76632,6.46212,-0.467268,14,32765
9.83815,6.46165,-0.475713,14,32765
9.85942,6.4288,-0.480477,14,32765
9.89744,6.40651,-0.487131,14,32765
9.885,6.35167,-0.490687,14,32765
9.90596,6.31852,-0.495895,14,32765
9.96893,6.31211,-0.503755,14,32765
9.9895,6.27897,-0.510489,14,32765
10.0273,6.25587,-0.516799,14,32765
10.0989,6.25365,-0.52498,14,32765
10.0857,6.19849,-0.528831,15,32765
10.1147,6.16979,-0.535227,16,32765
10.1521,6.14624,-0.541572,35,32765
10.1725,6.11185,-0.54799,34,32765
10.15,6.05163,-0.550759,22,32765
10.0326,5.93578,-0.549877,19,32765
9.91443,5.82098,-0.548082,17,32765
9.77826,5.69712,-0.545276,17,32765
9.57239,5.53388,-0.538862,18,32765
9.44351,5.41691,-0.535941,17,32765
9.27928,5.28093,-0.531823,16,32765
9.20139,5.19501,-0.531746,16,32765
9.0184,5.05124,-0.525315,17,32765
8.91288,4.95286,-0.523353,15,32765
8.76299,4.83126,-0.518978,15,32765
8.72632,4.77296,-0.521357,16,32765
8.51384,4.61973,-0.51242,16,32765
8.49395,4.57201,-0.514944,16,32765
8.39454,4.48208,-0.513445,17,32765
8.25968,4.37356,-0.509161,18,32765
8.15951,4.28471,-0.506569,17,32765
8.04106,4.18745,-0.502963,19,32765
7.93951,4.10074,-0.50064,19,32765
7.89976,4.04655,-0.501249,18,32765
7.81524,3.96996,-0.499881,18,32765
7.69479,3.87574,-0.495695,18,32765
7.65429,3.82238,-0.496086,18,32765
7.56865,3.74747,-0.493519,19,32765
7.46447,3.66474,-0.490096,19,32765
7.37784,3.59143,-0.487385,21,32765
7.38067,3.5621,-0.491175,22,32765
7.32034,3.50265,-0.490843,21,32765
7.21476,3.42211,-0.486255,21,32765
7.16282,3.36804,-0.485032,20,32765
7.11951,3.31878,-0.484974,21,32765
7.03055,3.24915,-0.481682,20,32765
6.98662,3.20091,-0.480976,21,32765
6.89718,3.13194,-0.477421,21,32765
6.88037,3.09601,-0.478373,21,32765
6.8087,3.03573,-0.476352,21,32765
6.75485,2.98435,-0.475043,21,32765
6.7099,2.93738,-0.474059,21,32765
6.62792,2.87524,-0.470456,21,32765
6.56401,2.82143,-0.467813,20,32765
6.54588,2.78723,-0.468754,20,32765
6.44479,2.71836,-0.463966,20,32765
6.44465,2.69268,-0.464727,21,32765
6.41651,2.65585,-0.465203,21,32765
6.38811,2.61959,-0.465036,21,32765
6.31342,2.56455,-0.46115,20,32765
6.25695,2.51748,-0.458726,21,32765
6.24663,2.48921,-0.459429,22,32765
6.18981,2.44263,-0.456833,21,32765
6.16995,2.41105,-0.456275,23,32765
6.12197,2.36891,-0.454061,23,32765
6.083,2.33097,-0.452369,23,32765
6.01589,2.28261,-0.448654,23,32765
6.0046,2.25575,-0.448654,23,32765
5.96514,2.2185,-0.447026,20,32765
6.0004,2.20913,-0.450579,24,32765
5.91387,2.15498,-0.445331,24,32765
5.84586,2.10816,-0.44097,23,32765
5.78685,2.06561,-0.437309,25,32765
5.73711,2.02662,-0.434092,21,32765
5.7343,2.00437,-0.434019,12,32765
0,0,-0,13,32765
0,0,-0,0,32765
0,0,-0,0,32765
0,0,-0,0,32765
0,0,-0,0,32765
0,0,-0,0,32765
0,0,-0,0,32765
0,0,-0,0,32765
0,0,-0,0,32765
0,0,-0,0,32765
9.24428,6.83185,-0.345193,42,32765
9.24249,6.78319,-0.354646,27,32765
9.26443,6.75254,-0.366575,15,32765
9.18116,6.64559,-0.37145,13,32765
9.10569,6.54468,-0.376732,13,32765
9.08651,6.48499,-0.386198,15,32765
9.15693,6.48891,-0.396978,14,32765
9.14543,6.43536,-0.40415,15,32765
9.16611,6.4053,-0.413165,15,32765
9.2197,6.39767,-0.424074,15,32765
9.257,6.37836,-0.432452,15,32765
9.27791,6.34732,-0.441009,15,32765
9.28244,6.30462,-0.448385,14,32765
9.39419,6.33501,-0.46098,13,32765
9.60578,6.43159,-0.47797,12,32765
9.80985,6.52126,-0.494078,13,32765
9.81437,6.4775,-0.503,12,32765
9.81062,6.42816,-0.508037,13,32765
9.90719,6.44404,-0.52033,12,32765
9.76913,6.30749,-0.518965,12,32765
9.94989,6.37667,-0.535542,12,32765
9.97078,6.3433,-0.543115,12,32765
9.9576,6.28875,-0.54936,13,32765
10.0459,6.29793,-0.559593,13,32765
10.0662,6.26458,-0.567935,13,32765
10.0529,6.20964,-0.573168,14,32765
10.0733,6.17579,-0.579998,13,32765
10.1024,6.14677,-0.586067,17,32765
10.0716,6.08142,-0.590442,18,32765
9.97179,5.97537,-0.589915,16,32765
9.84579,5.85457,-0.587664,15,32765
9.72749,5.74009,-0.586044,15,32765
9.59991,5.62152,-0.582918,15,32765
9.35924,5.43895,-0.572693,15,32765
9.26475,5.34244,-0.571578,15,32765
9.23908,5.28631,-0.574365,14,32765
8.97859,5.09741,-0.562946,14,32765
8.83027,4.97371,-0.557773,14,32765
8.76823,4.90011,-0.557382,13,32765
8.63591,4.78824,-0.553093,14,32765
8.53791,4.69667,-0.550452,14,32765
8.43938,4.60589,-0.547301,14,32765
8.34929,4.52019,-0.545292,14,32765
8.23244,4.42081,-0.541258,15,32765
8.18542,4.36005,-0.541204,15,32765
8.06738,4.26243,-0.537225,16,32765
7.94875,4.16586,-0.532028,16,32765
7.86494,4.08855,-0.529978,16,32765
7.7809,4.01152,-0.527364,15,32765
7.66122,3.91638,-0.52166,15,32765
7.59436,3.84911,-0.520565,16,32765
7.55398,3.79572,-0.520425,16,32765
7.45066,3.71173,-0.516043,16,32765
7.39122,3.65136,-0.514803,17,32765
7.30475,3.57795,-0.51122,17,32765
7.26266,3.52709,-0.51132,18,32765
7.21132,3.47224,-0.510775,17,32765
7.1869,3.43041,-0.510994,17,32765
7.08093,3.35068,-0.505871,17,32765
7.02879,3.29691,-0.504837,17,32765
6.96724,3.23949,-0.503276,17,32765
6.89635,3.17828,-0.50093,17,32765
6.87057,3.13829,-0.501254,17,32765
6.79914,3.078,-0.497946,16,32765
6.7364,3.02229,-0.496628,17,32765
6.70074,2.97927,-0.496457,17,32765
6.63755,2.92422,-0.494715,17,32765
6.6014,2.8819,-0.494515,17,32765
6.51006,2.81622,-0.490016,16,32765
6.50095,2.78635,-0.49187,17,32765
6.44578,2.73718,-0.490012,17,32765
6.38122,2.68445,-0.487169,18,32765
6.36248,2.65104,-0.488741,17,32765
6.27886,2.59172,-0.48474,17,32765
6.25048,2.55516,-0.485285,18,32765
6.12007,2.47808,-0.477736,19,32765
6.12806,2.45773,-0.480476,19,32765
6.05254,2.40416,-0.477184,21,32765
6.05085,2.38075,-0.479235,19,32765
0,0,-0,0,32765
5.95431,2.2976,-0.476627,17,32765
0,0,-0,0,32765
5.92235,2.24031,-0.478801,16,32765
5.74271,2.15077,-0.466917,19,32765
5.78699,2.14541,-0.473305,18,32765
5.8032,2.12962,-0.477051,20,32765
5.73503,2.08299,-0.474396,19,32765
5.7229,2.05722,-0.475649,12,32765
0,0,-0,0,32765
0,0,-0,0,32765
0,0,-0,0,32765
0,0,-0,0,32765
0,0,-0,0,32765
0,0,-0,0,32765
0,0,-0,0,32765
0,0,-0,0,32765
0,0,-0,15,32765
0,0,-0,16,32765
0,0,-0,0,32765
0,0,-0,0,32765
0,0,-0,0,32765
9.23736,6.85178,-0.452122,15,32765
9.30803,6.85634,-0.46493,14,32765
9.31402,6.81357,-0.476144,14,32765
9.33617,6.78254,-0.485349,14,32765
9.31799,6.72178,-0.492699,14,32765
9.30752,6.66702,-0.502425,14,32765
9.22376,6.56016,-0.505518,14,32765
9.17988,6.48318,-0.510589,14,32765
9.18432,6.44144,-0.518736,15,32765
9.22154,6.42228,-0.529116,15,32765
9.33282,6.45402,-0.541997,14,32765
9.47746,6.50743,-0.557917,15,32765
9.49903,6.47518,-0.56629,16,32765
9.39612,6.35932,-0.567137,17,32765
9.46656,6.36137,-0.577683,17,32765
9.45411,6.30754,-0.582446,16,32765
9.72434,6.44132,-0.607493,14,32765
9.81228,6.4525,-0.617996,13,32765
9.83354,6.41925,-0.626354,14,32765
9.85485,6.38579,-0.633429,14,32765
9.89283,6.36297,-0.642587,14,32765
9.89684,6.31894,-0.649035,15,32765
9.95107,6.30725,-0.65934,15,32765
9.921,6.242,-0.662433,15,32765
9.94962,6.21425,-0.671263,18,32765
9.85977,6.11222,-0.670866,18,32765
9.79486,6.0266,-0.671755,18,32765
9.63602,5.88398,-0.664851,17,32765
9.44211,5.72175,-0.65706,16,32765
9.33277,5.61244,-0.654241,16,32765
9.19719,5.48843,-0.649412,16,32765
9.10363,5.39113,-0.647718,16,32765
8.97511,5.27439,-0.64266,16,32765
8.863,5.16892,-0.638618,16,32765
8.70731,5.03887,-0.631617,16,32765
8.63742,4.95963,-0.630468,17,32765
8.52364,4.85632,-0.626536,17,32765
8.40949,4.75353,-0.621917,17,32765
8.29462,4.65188,-0.616604,17,32765
8.22272,4.57531,-0.615033,17,32765
8.08924,4.46562,-0.608346,17,32765
7.99011,4.37613,-0.603778,17,32765
7.90817,4.29651,-0.601075,19,32765
7.82588,4.21734,-0.5981,19,32765
7.74308,4.139,-0.594509,17,32765
7.695,4.08003,-0.594333,17,32765
7.57595,3.98449,-0.587584,17,32765
7.49167,3.90823,-0.584312,18,32765
7.45147,3.85521,-0.583969,18,32765
7.32256,3.75643,-0.576041,18,32765
7.29972,3.71279,-0.577444,19,32765
7.23222,3.64682,-0.574498,20,32765
7.1464,3.57267,-0.570186,20,32765
7.0866,3.51317,-0.568059,19,32765
7.05351,3.46702,-0.567649,19,32765
7.01112,3.41688,-0.567068,19,32765
6.89662,3.33237,-0.560637,18,32765
6.8628,3.2872,-0.55964,19,32765
6.81056,3.23404,-0.557595,20,32765
6.78518,3.1938,-0.558012,20,32765
6.71434,3.13284,-0.554842,19,32765
6.63415,3.06816,-0.550788,19,32765
6.59898,3.0248,-0.54988,20,32765
6.55452,2.97765,-0.547914,20,32765
6.47335,2.91445,-0.544186,19,32765
6.42828,2.86815,-0.542665,19,32765
6.38304,2.82195,-0.541583,20,32765
6.35575,2.78438,-0.541581,20,32765
6.29164,2.73128,-0.538299,20,32765
6.23649,2.68237,-0.535931,20,32765
6.20856,2.6457,-0.53568,20,32765
6.17134,2.60527,-0.534383,23,32765
6.11558,2.55711,-0.53236,22,32765
6.05018,2.5061,-0.528924,22,32765
6.03077,2.47402,-0.52979,21,32765
5.95566,2.41999,-0.525624,21,32765
5.9727,2.40385,-0.529118,22,32765
5.89709,2.35067,-0.524911,22,32765
5.92305,2.33869,-0.529289,22,32765
5.7727,2.25736,-0.518297,22,32765
5.76132,2.23098,-0.519576,21,32765
5.71261,2.19041,-0.517465,22,32765
5.71034,2.16776,-0.519411,24,32765
5.65192,2.12427,-0.516633,24,32765
5.56533,2.07055,-0.511337,20,32765
5.62803,2.07267,-0.519383,13,32765
0,0,-0,0,32765
0,0,-0,0,32765
0,0,-0,0,32765
0,0,-0,0,32765
0,0,-0,0,32765
0,0,-0,0,32765
0,0,-0,0,32765
0,0,-0,0,32765
0,0,-0,0,32765
0,0,-0,0,32765
0,0,-0,16,32765
0,0,-0,14,32765
0,0,-0,0,32765
0,0,-0,0,32765
0,0,-0,0,32765
9.21545,6.83741,-0.587745,13,32765
9.23826,6.80629,-0.590893,13,32765
9.22041,6.74596,-0.591282,12,32765
9.40448,6.83213,-0.606077,13,32765
9.37039,6.7597,-0.605946,13,32765
9.39259,6.72835,-0.611152,13,32765
9.38244,6.6735,-0.612458,13,32765
9.46945,6.68843,-0.621699,13,32765
9.53208,6.68577,-0.628852,13,32765
9.58658,6.67717,-0.634783,13,32765
9.52669,6.58787,-0.634165,16,32765
9.51567,6.53293,-0.637465,17,32765
9.40544,6.41065,-0.633479,14,32765
9.37727,6.345,-0.635106,15,32765
9.38166,6.30226,-0.639034,14,32765
9.61021,6.40895,-0.658812,13,32765
9.66479,6.39842,-0.666364,13,32765
9.79438,6.43715,-0.678762,13,32765
9.78208,6.38239,-0.682552,13,32765
9.8031,6.34963,-0.686635,13,32765
9.9331,6.38683,-0.700653,13,32765
9.9043,6.32014,-0.702557,14,32765
9.94228,6.29702,-0.708951,15,32765
9.81116,6.16743,-0.70436,16,32765
9.76361,6.09237,-0.704082,16,32765
9.59679,5.94413,-0.696466,15,32765
9.40403,5.7807,-0.686606,15,32765
9.20144,5.61399,-0.675699,14,32765
9.1692,5.55114,-0.676972,15,32765
9.00805,5.41185,-0.669126,14,32765
8.91464,5.31469,-0.665795,14,32765
8.86365,5.24355,-0.665848,14,32765
8.67428,5.09251,-0.655433,14,32765
8.60477,5.01297,-0.654538,14,32765
8.44865,4.88392,-0.645006,14,32765
8.41294,4.82524,-0.646504,15,32765
8.26432,4.7025,-0.639011,15,32765
8.18445,4.6202,-0.636302,15,32765
8.05204,4.50895,-0.629684,15,32765
7.9709,4.42856,-0.626266,15,32765
7.81079,4.30512,-0.617423,15,32765
7.78998,4.25944,-0.619127,16,32765
7.68107,4.1667,-0.6143,16,32765
7.57168,4.07467,-0.609231,14,32765
7.52332,4.01646,-0.608445,14,32765
7.42206,3.92996,-0.604063,15,32765
7.34683,3.85815,-0.600991,15,32765
7.29789,3.8004,-0.600291,15,32765
7.23975,3.73854,-0.598497,16,32765
7.22541,3.70029,-0.600722,16,32765
7.10445,3.60765,-0.593108,16,32765
7.00952,3.52944,-0.588666,16,32765
6.97666,3.48309,-0.588839,16,32765
6.91685,3.42352,-0.586833,16,32765
6.83846,3.35628,-0.583425,16,32765
6.82265,3.31992,-0.584559,17,32765
6.71678,3.24062,-0.577671,16,32765
6.72721,3.21809,-0.582159,17,32765
6.65675,3.15667,-0.57894,16,32765
6.53181,3.07044,-0.57045,16,32765
6.51495,3.03521,-0.571903,16,32765
6.4526,2.9795,-0.56868,16,32765
6.39869,2.92898,-0.5669,16,32765
6.39004,2.89922,-0.568725,16,32765
6.28128,2.82467,-0.561141,16,32765
6.29057,2.80336,-0.56388,17,32765
6.21773,2.74565,-0.560035,18,32765
6.17197,2.70049,-0.558321,17,32765
6.08939,2.63997,-0.552669,17,32765
6.06126,2.60396,-0.552224,19,32765
6.00559,2.5561,-0.549338,20,32765
0,0,-0,0,32765
6.06809,2.5349,-0.559093,19,32765
5.975,2.47268,-0.552592,19,32765
5.80785,2.38104,-0.53811,17,32765
5.86169,2.3804,-0.544813,19,32765
5.78624,2.32713,-0.539842,16,32765
5.7845,2.30415,-0.541293,20,32765
5.68072,2.24106,-0.532896,19,32765
5.67866,2.2186,-0.533892,19,32765
5.63009,2.178,-0.530997,21,32765
5.61856,2.15206,-0.531064,18,32765
5.60685,2.12639,-0.531133,20,32765
5.55769,2.08671,-0.528495,17,32765
0,0,-0,0,32765
0,0,-0,0,32765
0,0,-0,0,32765
0,0,-0,0,32765
0,0,-0,0,32765
0,0,-0,0,32765
0,0,-0,0,32765
0,0,-0,0,32765
0,0,-0,0,32765
0,0,-0,0,32765
0,0,-0,14,32765
0,0,-0,15,32765
0,0,-0,0,32765
0,0,-0,0,32765
0,0,-0,0,32765
0,0,-0,0,32765
0,0,-0,0,32765
9.21385,6.86309,-0.695013,14,32765
9.22875,6.82594,-0.69758,14,32765
9.29153,6.82458,-0.703621,14,32765
9.28204,6.76948,-0.705609,14,32765
9.32064,6.74997,-0.710355,14,32765
9.39143,6.75364,-0.719282,14,32765
9.44644,6.74505,-0.725232,14,32765
9.46845,6.71358,-0.730246,15,32765
9.45767,6.65917,-0.7322,14,32765
9.51204,6.65075,-0.738495,14,32765
9.55881,6.63547,-0.745248,14,32765
9.55623,6.58593,-0.748865,15,32765
9.61937,6.58156,-0.757056,14,32765
9.51759,6.46455,-0.752393,14,32765
9.46451,6.38215,-0.751636,16,32765
9.41934,6.30557,-0.751955,20,32765
9.55663,6.35086,-0.766461,15,32765
9.79416,6.46142,-0.78875,14,32765
9.75696,6.39011,-0.790165,18,32765
9.72783,6.3247,-0.790183,21,32765
9.648,6.22694,-0.788258,20,32765
9.55155,6.11802,-0.783956,17,32765
9.40363,5.97828,-0.775107,17,32765
9.2717,5.85023,-0.768528,16,32765
9.09643,5.69737,-0.756727,16,32765
9.00486,5.59841,-0.753064,17,32765
8.87072,5.47329,-0.745553,16,32765
8.76106,5.3653,-0.739854,16,32765
8.65988,5.26237,-0.734565,16,32765
8.54077,5.15026,-0.728127,16,32765
8.41243,5.03398,-0.720418,16,32765
8.31774,4.93892,-0.715765,16,32765
8.2308,4.85013,-0.711738,17,32765
8.1262,4.75175,-0.706649,17,32765
8.04712,4.66907,-0.701846,17,32765
7.96756,4.58674,-0.698754,17,32765
7.87035,4.49492,-0.693818,17,32765
7.73789,4.38428,-0.68527,17,32765
7.66575,4.30851,-0.682235,16,32765
7.5841,4.22923,-0.677614,16,32765
7.48465,4.1406,-0.672173,16,32765
7.41966,4.07193,-0.669392,17,32765
7.36285,4.00882,-0.667806,17,32765
7.24435,3.9129,-0.660453,18,32765
7.20434,3.86035,-0.659654,19,32765
7.16434,3.80748,-0.659541,19,32765
7.08002,3.73173,-0.654594,20,32765
6.9954,3.65629,-0.649817,18,32765
6.96343,3.60909,-0.649601,18,32765
6.92211,3.55801,-0.648898,18,32765
6.81863,3.47524,-0.641426,18,32765
6.78567,3.42929,-0.641586,19,32765
6.73471,3.37466,-0.639489,19,32765
6.65679,3.30691,-0.634909,20,32765
6.58709,3.24479,-0.631281,20,32765
6.54408,3.19607,-0.629438,20,32765
6.49178,3.14357,-0.626416,20,32765
6.48393,3.11311,-0.629022,20,32765
6.37725,3.03524,-0.621334,20,32765
6.3512,2.99651,-0.62101,20,32765
6.29803,2.94493,-0.618544,21,32765
6.21741,2.88146,-0.612702,20,32765
6.18137,2.83991,-0.611933,20,32765
6.1362,2.79429,-0.609862,20,32765
6.09988,2.75318,-0.608201,21,32765
6.08166,2.72023,-0.608143,21,32765
6.02686,2.67116,-0.605182,20,32765
6.00828,2.63855,-0.605576,21,32765
5.96215,2.59432,-0.602625,23,32765
5.89734,2.54287,-0.598047,21,32765
5.85987,2.50327,-0.596301,23,32765
5.87716,2.48739,-0.599952,22,32765
5.7567,2.41368,-0.589482,22,32765
5.65416,2.34853,-0.580875,21,32765
5.65256,2.32592,-0.581589,22,32765
5.68772,2.31827,-0.586798,21,32765
5.61218,2.26547,-0.580915,21,32765
5.59176,2.23561,-0.580293,24,32765
5.58046,2.20965,-0.580343,26,32765
5.49492,2.15476,-0.572532,26,32765
5.48333,2.12908,-0.572886,22,32765
5.46238,2.09999,-0.571754,22,32765
0,0,-0,12,32765
0,0,-0,0,32765
0,0,-0,0,32765
0,0,-0,0,32765
0,0,-0,0,32765
0,0,-0,0,32765
0,0,-0,0,32765
0,0,-0,0,32765
0,0,-0,0,32765
0,0,-0,0,32765
0,0,-0,0,32765
0,0,-0,0,32765
0,0,-0,15,32765
0,0,-0,14,32765
0,0,-0,0,32765
0,0,-0,0,32765
0,0,-0,0,32765
0,0,-0,0,32765
0,0,-0,0,32765
9.27661,6.88386,-0.649541,12,32765
9.21882,6.79306,-0.654674,13,32765
9.2571,6.77362,-0.666645,13,32765
9.37614,6.81282,-0.682302,13,32765
9.33364,6.7343,-0.687894,13,32765
9.4044,6.73754,-0.700556,12,32765
9.42636,6.70565,-0.711362,13,32765
9.50517,6.71435,-0.724445,13,32765
9.55943,6.70573,-0.735149,13,32765
9.5483,6.65099,-0.741519,13,32765
9.49585,6.56806,-0.744469,12,32765
9.62403,6.60984,-0.760311,12,32765
9.67818,6.60031,-0.772277,13,32765
9.55918,6.47263,-0.769481,13,32765
9.37358,6.30076,-0.760768,15,32765
9.46093,6.31291,-0.773374,15,32765
9.62309,6.37431,-0.793211,13,32765
9.71905,6.39096,-0.807104,15,32765
9.67278,6.31499,-0.809074,18,32765
9.62651,6.23878,-0.81112,18,32765
9.45351,6.08278,-0.802366,15,32765
9.29674,5.93833,-0.794044,14,32765
9.17288,5.81609,-0.789615,14,32765
9.02309,5.67894,-0.780824,14,32765
8.90659,5.56332,-0.776608,14,32765
8.74691,5.42269,-0.767123,15,32765
8.6543,5.32496,-0.764258,14,32765
8.56122,5.22794,-0.760079,14,32765
8.39899,5.09083,-0.750284,14,32765
8.33853,5.01651,-0.749106,14,32765
8.24325,4.92245,-0.745105,15,32765
8.13053,4.81866,-0.738531,14,32765
8.00878,4.71022,-0.731915,14,32765
7.91243,4.61759,-0.726245,14,32765
7.8588,4.55017,-0.726145,14,32765
7.76133,4.45901,-0.720617,15,32765
7.62866,4.34891,-0.711728,15,32765
7.53006,4.25932,-0.706234,14,32765
7.49168,4.20493,-0.705493,15,32765
7.35742,4.09701,-0.696707,14,32765
7.30983,4.03824,-0.695281,15,32765
7.25325,3.97496,-0.692826,15,32765
7.18764,3.9071,-0.690301,16,32765
7.12159,3.84006,-0.686535,16,32765
7.02875,3.75942,-0.680743,15,32765
7.01453,3.72175,-0.682461,16,32765
6.92087,3.64236,-0.676243,16,32765
6.8267,3.56361,-0.670603,15,32765
6.82077,3.5313,-0.671687,15,32765
6.73484,3.45786,-0.667138,15,32765
6.67534,3.39849,-0.663728,16,32765
6.61547,3.33965,-0.660234,17,32765
6.58216,3.29426,-0.659657,18,32765
6.55734,3.25401,-0.659699,18,32765
6.45196,3.1742,-0.651973,17,32765
6.41753,3.13049,-0.651278,17,32765
6.3472,3.06956,-0.645989,17,32765
6.31239,3.02621,-0.64549,17,32765
6.3043,2.99627,-0.646788,17,32765
6.23308,2.93644,-0.642197,18,32765
6.15233,2.8734,-0.636262,18,32765
6.10743,2.82752,-0.634017,18,32765
6.11666,2.80672,-0.637457,17,32765
6.15292,2.79846,-0.643692,19,32765
5.99883,2.70367,-0.629502,17,32765
6.01674,2.68726,-0.633944,19,32765
5.96173,2.63866,-0.630659,18,32765
5.8792,2.57838,-0.624091,18,32765
5.75977,2.50297,-0.613439,18,32765
5.72221,2.4637,-0.611617,20,32765
5.7485,2.45211,-0.616684,19,32765
5.71978,2.41703,-0.616166,19,32765
5.70932,2.38975,-0.6174,20,32765
0,0,-0,0,32765
5.48549,2.25254,-0.597506,19,32765
5.55725,2.26028,-0.607506,21,32765
5.56446,2.24165,-0.610481,21,32765
5.34996,2.13425,-0.589039,18,32765
5.40293,2.13473,-0.597357,19,32765
5.39127,2.10918,-0.59832,16,32765
0,0,-0,0,32765
0,0,-0,0,32765
0,0,-0,0,32765
0,0,-0,0,32765
0,0,-0,0,32765
0,0,-0,0,32765
0,0,-0,0,32765
0,0,-0,0,32765
0,0,-0,0,32765
0,0,-0,0,32765
0,0,-0,0,32765
0,0,-0,0,32765
1.59862,0.547486,-0.186177,13,32765
0,0,-0,0,32765
0,0,-0,0,32765
0,0,-0,0,32765
0,0,-0,0,32765
0,0,-0,0,32765
0,0,-0,0,32765
0,0,-0,0,32765
0,0,-0,0,32765
9.22624,6.87382,-0.753628,15,32765
9.29688,6.87791,-0.768416,14,32765
9.28711,6.82267,-0.776656,14,32765
9.27715,6.76773,-0.782596,14,32765
9.36386,6.78298,-0.79839,14,32765
9.38607,6.75113,-0.807481,14,32765
9.37556,6.696,-0.815469,14,32765
9.38098,6.65291,-0.822756,14,32765
9.45127,6.65613,-0.835188,14,32765
9.5054,6.64733,-0.846941,14,32765
9.52678,6.61552,-0.855668,14,32765
9.5728,6.60064,-0.865338,14,32765
9.56923,6.55178,-0.872399,14,32765
9.5905,6.51946,-0.880838,14,32765
9.57073,6.45863,-0.885157,19,32765
9.4928,6.35911,-0.883264,21,32765
9.41408,6.26038,-0.882163,20,32765
9.33479,6.1624,-0.88027,18,32765
9.19619,6.02741,-0.872524,17,32765
9.07389,5.90369,-0.866296,15,32765
8.88342,5.73836,-0.853394,16,32765
8.75101,5.61163,-0.845177,16,32765
8.66837,5.5177,-0.842823,16,32765
8.50106,5.37129,-0.830239,16,32765
8.42598,5.28367,-0.828277,16,32765
8.31646,5.17595,-0.821555,16,32765
8.18932,5.0585,-0.8138,17,32765
8.08706,4.95763,-0.807288,16,32765
7.97534,4.85287,-0.800352,16,32765
7.90572,4.77462,-0.79721,15,32765
7.80985,4.68177,-0.791711,16,32765
7.73082,4.59957,-0.786985,16,32765
7.61717,4.49729,-0.779492,16,32765
7.52031,4.40577,-0.772412,16,32765
7.44886,4.32953,-0.769498,16,32765
7.36812,4.2495,-0.764319,17,32765
7.30417,4.18004,-0.760831,16,32765
7.23118,4.10609,-0.756652,16,32765
7.14902,4.02811,-0.750651,17,32765
7.08396,3.95998,-0.747404,18,32765
7.0099,3.8875,-0.742415,18,32765
6.94422,3.82029,-0.738134,18,32765
6.89569,3.76287,-0.736442,18,32765
6.85557,3.71087,-0.734515,18,32765
6.76248,3.63094,-0.727462,19,32765
6.73031,3.58471,-0.726855,18,32765
6.66278,3.52004,-0.722234,18,32765
6.6301,3.47431,-0.72204,20,32765
6.57091,3.41504,-0.717087,21,32765
6.50245,3.3514,-0.713286,20,32765
6.46929,3.30626,-0.711948,20,32765
6.41811,3.25248,-0.708593,21,32765
6.34901,3.1898,-0.703509,21,32765
6.27936,3.12806,-0.698113,21,32765
6.25405,3.08866,-0.697984,21,32765
6.21047,3.04114,-0.695719,21,32765
6.14892,2.9851,-0.690518,21,32765
6.09597,2.9337,-0.687417,21,32765
6.05169,2.88727,-0.684372,21,32765
6.01621,2.84517,-0.682889,22,32765
5.9353,2.78271,-0.675919,22,32765
5.91725,2.75002,-0.6761,22,32765
5.88105,2.709,-0.674266,22,32765
5.83552,2.66432,-0.671292,21,32765
5.81716,2.63189,-0.670966,23,32765
5.78036,2.59164,-0.669104,22,32765
5.77058,2.56391,-0.670321,25,32765
5.64243,2.48409,-0.657433,21,32765
5.63226,2.45701,-0.658152,21,32765
5.57637,2.41018,-0.653668,24,32765
5.58417,2.39121,-0.656701,24,32765
5.52784,2.34495,-0.652482,24,32765
5.47134,2.29901,-0.648004,26,32765
5.38699,2.24225,-0.640003,23,32765
5.38513,2.2199,-0.641887,25,32765
5.38306,2.19793,-0.643689,23,32765
5.30714,2.14629,-0.636631,23,32765
0,0,-0,0,32765
5.48704,2.1764,-0.662749,11,32765
0,0,-0,0,32765
0,0,-0,0,32765
0,0,-0,0,32765
0,0,-0,0,32765
0,0,-0,0,32765
0,0,-0,0,32765
0,0,-0,0,32765
0,0,-0,0,32765
0,0,-0,0,32765
0,0,-0,0,32765
0,0,-0,0,32765
0,0,-0,0,32765
0,0,-0,0,32765
1.51173,0.51979,-0.191284,16,32765
0,0,-0,0,32765
0,0,-0,0,32765
0,0,-0,0,32765
0,0,-0,15,32765
0,0,-0,0,32765
0,0,-0,0,32765
0,0,-0,0,32765
0,0,-0,0,32765
9.2492,6.89446,-0.885195,13,32765
9.28849,6.87451,-0.890609,13,32765
9.32748,6.85469,-0.896405,13,32765
9.33396,6.81141,-0.900043,13,32765
9.39701,6.80898,-0.907553,13,32765
9.46798,6.812,-0.918676,13,32765
9.40166,6.7157,-0.914484,13,32765
9.42409,6.68339,-0.920285,13,32765
9.44627,6.65117,-0.926344,13,32765
9.46818,6.61918,-0.931749,13,32765
9.48985,6.58723,-0.937681,13,32765
9.53628,6.57183,-0.945901,16,32765
9.49221,6.49442,-0.944408,19,32765
9.39001,6.37798,-0.938658,18,32765
9.31172,6.27937,-0.935056,16,32765
9.05086,6.05928,-0.912188,14,32765
8.96286,5.95689,-0.906974,14,32765
8.78268,5.79508,-0.891679,14,32765
8.65148,5.66719,-0.88281,14,32765
8.58638,5.58364,-0.880524,15,32765
8.47927,5.47344,-0.87192,14,32765
8.4218,5.39604,-0.87047,14,32765
8.24632,5.24421,-0.855849,14,32765
8.15399,5.14699,-0.850431,15,32765
8.15382,5.10907,-0.853321,14,32765
8.01819,4.98685,-0.842822,14,32765
7.8309,4.83442,-0.826429,14,32765
7.78727,4.77151,-0.824675,14,32765
7.75172,4.71404,-0.825033,14,32765
7.56292,4.56351,-0.808367,14,32765
7.49275,4.48606,-0.804219,14,32765
7.43083,4.41411,-0.800456,14,32765
7.33385,4.32279,-0.794185,14,32765
7.27933,4.25753,-0.790962,15,32765
7.17263,4.16295,-0.782429,14,32765
7.16041,4.12353,-0.784264,15,32765
7.06147,4.03508,-0.776254,15,32765
6.94479,3.93736,-0.766476,15,32765
6.9143,3.88921,-0.766402,15,32765
6.90963,3.85595,-0.768894,15,32765
6.80914,3.76958,-0.760444,15,32765
6.72551,3.69363,-0.754188,15,32765
6.66765,3.63263,-0.750586,16,32765
6.65339,3.59565,-0.750825,15,32765
6.59494,3.53537,-0.747173,17,32765
6.5362,3.47551,-0.743312,17,32765
6.48599,3.42063,-0.740344,17,32765
6.44442,3.37058,-0.738027,18,32765
6.40251,3.3209,-0.736181,17,32765
6.31609,3.24907,-0.728135,17,32765
6.28239,3.20489,-0.72686,17,32765
6.23978,3.15619,-0.724234,18,32765
6.16117,3.0902,-0.718081,17,32765
6.07351,3.02007,-0.709976,18,32765
6.03887,2.97723,-0.707858,18,32765
6.09328,2.97839,-0.71661,18,32765
6.00454,2.91001,-0.708117,19,32765
5.82564,2.79941,-0.689365,16,32765
5.85265,2.7882,-0.69491,19,32765
5.85273,2.76423,-0.696233,17,32765
5.82578,2.72734,-0.694844,20,32765
5.78963,2.68642,-0.692593,18,32765
5.79837,2.66676,-0.695454,18,32765
5.59895,2.5523,-0.67352,18,32765
5.62535,2.54162,-0.678028,18,32765
5.65192,2.5304,-0.682513,20,32765
5.63289,2.49893,-0.68254,21,32765
5.46833,2.4035,-0.663817,21,32765
5.44893,2.37278,-0.662914,20,32765
5.52049,2.38191,-0.673199,24,32765
5.40035,2.30839,-0.660025,25,32765
5.39867,2.28633,-0.661131,22,32765
5.39696,2.26419,-0.662048,19,32765
5.33095,2.21532,-0.655282,20,32765
5.30132,2.18231,-0.652969,19,32765
5.26245,2.14563,-0.649064,16,32765
5.45366,2.2022,-0.673984,11,32765
0,0,-0,0,32765
0,0,-0,0,32765
0,0,-0,0,32765
0,0,-0,0,32765
0,0,-0,0,32765
0,0,-0,0,32765
0,0,-0,0,32765
0,0,-0,0,32765
0,0,-0,0,32765
0,0,-0,0,32765
0,0,-0,0,32765
0,0,-0,0,32765
0,0,-0,0,32765
0,0,-0,0,32765
0,0,-0,0,32765
1.55904,0.535278,-0.196131,14,32765
0,0,-0,0,32765
0,0,-0,0,32765
0,0,-0,0,32765
0,0,-0,0,32765
0,0,-0,0,32765
0,0,-0,0,32765
0,0,-0,0,32765
0,0,-0,0,32765
9.1804,6.87223,-0.986304,14,32765
9.21961,6.85244,-0.991902,14,32765
9.24248,6.82093,-0.996151,14,32765
9.24891,6.7778,-0.999586,14,32765
9.27152,6.74631,-1.00319,14,32765
9.30989,6.72638,-1.0113,15,32765
9.3811,6.72909,-1.02103,14,32765
9.4117,6.70251,-1.02773,17,32765
9.37702,6.62997,-1.02757,21,32765
9.34997,6.56377,-1.02759,20,32765
9.28158,6.46948,-1.02356,19,32765
9.08191,6.2847,-1.00478,18,32765
8.94676,6.14661,-0.992322,16,32765
8.81076,6.00931,-0.981174,16,32765
8.70673,5.89568,-0.973335,17,32765
8.60221,5.7827,-0.96461,17,32765
8.48041,5.65948,-0.954213,16,32765
8.33289,5.52092,-0.94021,15,32765
8.26763,5.43801,-0.936917,16,32765
8.12695,5.30658,-0.924916,17,32765
8.06931,5.23017,-0.920439,17,32765
7.96932,5.12705,-0.91308,16,32765
7.88563,5.03535,-0.906678,16,32765
7.7508,4.91249,-0.894968,16,32765
7.68251,4.83341,-0.889659,16,32765
7.57161,4.72831,-0.880147,16,32765
7.49385,4.64519,-0.874104,17,32765
7.43277,4.57283,-0.869545,17,32765
7.32024,4.46975,-0.860125,16,32765
7.25015,4.39256,-0.855025,17,32765
7.20516,4.33139,-0.852792,17,32765
7.0916,4.22969,-0.841957,17,32765
7.0199,4.15451,-0.837303,17,32765
6.97354,4.0952,-0.834204,17,32765
6.89232,4.01645,-0.827296,18,32765
6.83662,3.95299,-0.823503,18,32765
6.7891,3.89513,-0.820368,18,32765
6.71541,3.8227,-0.814286,18,32765
6.64999,3.75564,-0.809394,18,32765
6.60154,3.69889,-0.806251,19,32765
6.57027,3.65202,-0.804946,19,32765
6.49513,3.58149,-0.798602,19,32765
6.43704,3.52112,-0.794131,19,32765
6.42246,3.48484,-0.793995,19,32765
6.36378,3.42519,-0.78947,21,32765
6.29603,3.36129,-0.783648,20,32765
6.26313,3.31639,-0.782092,20,32765
6.20371,3.25774,-0.776902,21,32765
6.1527,3.20417,-0.773249,21,32765
6.11023,3.15581,-0.769637,20,32765
6.0763,3.11222,-0.767787,21,32765
6.01576,3.05512,-0.762257,20,32765
5.94584,2.99419,-0.75617,21,32765
5.92916,2.96015,-0.756011,22,32765
5.87659,2.90887,-0.751093,23,32765
5.84151,2.86681,-0.748793,23,32765
5.83298,2.83823,-0.749496,23,32765
5.75259,2.77543,-0.741397,23,32765
5.74364,2.74727,-0.742462,20,32765
5.77053,2.73637,-0.747144,23,32765
5.69861,2.67854,-0.739524,23,32765
5.56336,2.59181,-0.723868,24,32765
5.50867,2.54372,-0.718398,24,32765
5.54398,2.53741,-0.724887,24,32765
5.49796,2.49406,-0.720093,25,32765
5.52434,2.48324,-0.724721,25,32765
5.36009,2.38748,-0.705311,25,32765
5.3862,2.37694,-0.709868,25,32765
5.35766,2.34244,-0.707459,25,32765
5.29238,2.29269,-0.700281,27,32765
5.29987,2.27458,-0.702649,24,32765
5.25242,2.23337,-0.697564,22,32765
5.25057,2.21167,-0.698343,24,32765
5.24863,2.18992,-0.699327,18,32765
0,0,-0,12,32765
0,0,-0,0,32765
0,0,-0,0,32765
0,0,-0,0,32765
0,0,-0,0,32765
0,0,-0,0,32765
0,0,-0,0,32765
0,0,-0,0,32765
0,0,-0,0,32765
0,0,-0,0,32765
0,0,-0,0,32765
0,0,-0,0,32765
0,0,-0,0,32765
0,0,-0,0,32765
0,0,-0,0,32765
0,0,-0,0,32765
0,0,-0,0,32765
0,0,-0,0,32765
1.53781,0.530152,-0.208987,14,32765
0,0,-0,0,32765
0,0,-0,0,32765
0,0,-0,0,32765
0,0,-0,0,32765
0,0,-0,0,32765
0,0,-0,0,32765
0,0,-0,0,32765
0,0,-0,0,32765
9.2437,6.89363,-0.946991,13,32765
9.29734,6.88661,-0.962368,13,32765
9.28714,6.83159,-0.971225,13,32765
9.27676,6.77676,-0.978823,13,32765
9.38698,6.80985,-1.00004,12,32765
9.35198,6.73769,-1.00439,13,32765
9.34084,6.68342,-1.01068,13,32765
9.41108,6.68633,-1.02606,14,32765
9.42404,6.64926,-1.03501,17,32765
9.30669,6.52033,-1.02902,18,32765
9.18043,6.38656,-1.02196,16,32765
8.97176,6.19678,-1.00495,14,32765
8.86086,6.07545,-0.999088,13,32765
8.67513,5.90461,-0.984552,15,32765
8.60375,5.81327,-0.982992,14,32765
8.39109,5.62867,-0.964497,14,32765
8.30147,5.52865,-0.95916,14,32765
8.21131,5.42911,-0.954619,14,32765
8.10397,5.31956,-0.946347,14,32765
7.99608,5.21055,-0.938596,14,32765
7.88738,5.10256,-0.930961,14,32765
7.73605,4.96871,-0.918171,14,32765
7.67646,4.89465,-0.914808,14,32765
7.62478,4.82645,-0.912688,15,32765
7.49724,4.71051,-0.901392,15,32765
7.38595,4.60586,-0.89237,14,32765
7.34174,4.54392,-0.891055,14,32765
7.26337,4.46139,-0.88562,15,32765
7.15056,4.35885,-0.875345,14,32765
7.05419,4.26739,-0.867152,14,32765
7.03395,4.22296,-0.86757,15,32765
6.96236,4.14795,-0.861742,16,32765
6.88158,4.06854,-0.855803,15,32765
6.83474,4.00997,-0.852881,16,32765
6.79627,3.9564,-0.851932,16,32765
6.72316,3.88326,-0.845825,15,32765
6.6326,3.80062,-0.836652,15,32765
6.59326,3.74809,-0.835225,16,32765
6.53641,3.68638,-0.829759,16,32765
6.50501,3.6397,-0.829149,17,32765
6.42127,3.56454,-0.820641,17,32765
6.37178,3.50924,-0.817377,16,32765
6.33956,3.46374,-0.815709,17,32765
6.27222,3.39959,-0.809002,17,32765
6.20469,3.33553,-0.802606,17,32765
6.17185,3.29075,-0.800503,17,32765
6.15619,3.25582,-0.800697,17,32765
6.07012,3.18393,-0.79135,18,32765
6.09802,3.17262,-0.796856,18,32765
5.99381,3.09219,-0.785325,18,32765
5.96873,3.05315,-0.784229,18,32765
0,0,-0,0,32765
5.79387,2.91328,-0.76467,17,32765
5.82103,2.90253,-0.770362,20,32765
5.77703,2.8564,-0.766217,19,32765
5.67939,2.78413,-0.755015,19,32765
5.69756,2.76876,-0.759119,21,32765
5.67998,2.73567,-0.759194,20,32765
5.55468,2.65188,-0.743714,20,32765
5.54538,2.62433,-0.744322,18,32765
5.56283,2.60989,-0.748023,23,32765
5.47229,2.54494,-0.737356,21,32765
5.45346,2.51388,-0.736713,20,32765
5.47071,2.49924,-0.740733,21,32765
5.44275,2.46393,-0.738872,20,32765
5.38745,2.41675,-0.732897,21,32765
5.33184,2.37006,-0.727093,21,32765
5.18521,2.28374,-0.708718,20,32765
5.21079,2.27396,-0.713915,21,32765
5.29103,2.28776,-0.726119,18,32765
5.1706,2.21521,-0.711808,19,32765
5.19589,2.20554,-0.717214,15,32765
0,0,-0,0,32765
0,0,-0,0,32765
0,0,-0,0,32765
0,0,-0,0,32765
0,0,-0,0,32765
0,0,-0,0,32765
0,0,-0,0,32765
0,0,-0,0,32765
0,0,-0,0,32765
0,0,-0,0,32765
0,0,-0,0,32765
0,0,-0,0,32765
0,0,-0,0,32765
0,0,-0,0,32765
0,0,-0,0,32765
0,0,-0,0,32765
1.54808,0.555942,-0.223523,14,32765
1.54983,0.550742,-0.224285,13,32765
1.5515,0.545591,-0.225325,13,32765
1.55318,0.54038,-0.22633,13,32765
1.48931,0.512608,-0.217467,13,32765
0,0,-0,0,32765
0,0,-0,0,32765
0,0,-0,0,32765
0,0,-0,0,32765
0,0,-0,0,32765
0,0,-0,0,32765
0,0,-0,0,32765
0,0,-0,0,32765
9.16629,6.86538,-1.04674,14,32765
9.22771,6.86449,-1.06334,15,32765
9.19343,6.7918,-1.06897,15,32765
9.33547,6.84901,-1.094,14,32765
9.27671,6.75882,-1.09637,16,32765
9.2497,6.69267,-1.10094,20,32765
9.18997,6.60373,-1.10098,20,32765
9.08967,6.48571,-1.09625,18,32765
8.92336,6.32302,-1.08313,17,32765
8.71574,6.1325,-1.06418,16,32765
8.62933,6.0289,-1.05991,17,32765
8.49357,5.89162,-1.04892,16,32765
8.37374,5.76602,-1.04012,17,32765
8.20385,5.60772,-1.02488,16,32765
8.10699,5.50103,-1.01876,15,32765
7.9928,5.38439,-1.00975,16,32765
7.87783,5.26889,-0.99976,17,32765
7.8119,5.18705,-0.996811,17,32765
7.74556,5.10595,-0.992195,16,32765
7.58733,4.96523,-0.976359,16,32765
7.47811,4.85837,-0.967002,17,32765
7.41825,4.78484,-0.96397,16,32765
7.34149,4.70094,-0.957386,17,32765
7.21384,4.5857,-0.944409,17,32765
7.17828,4.52923,-0.943403,17,32765
7.0835,4.43598,-0.93498,17,32765
6.98822,4.34345,-0.92609,16,32765
6.90939,4.26192,-0.919378,17,32765
6.87246,4.20705,-0.917666,17,32765
6.80978,4.13695,-0.912639,18,32765
6.75516,4.07272,-0.907972,18,32765
6.69178,4.00357,-0.902204,18,32765
6.61927,3.92997,-0.896203,18,32765
6.55498,3.86206,-0.890157,18,32765
6.5247,3.81432,-0.889616,19,32765
6.47707,3.75689,-0.885943,19,32765
6.41213,3.68976,-0.87908,19,32765
6.33803,3.61816,-0.872199,20,32765
6.28953,3.56207,-0.867076,20,32765
6.26647,3.52097,-0.867033,19,32765
6.19988,3.45611,-0.859796,20,32765
6.14147,3.39661,-0.854538,20,32765
6.10028,3.347,-0.851068,20,32765
6.06759,3.30248,-0.848292,19,32765
6.00863,3.24368,-0.842183,19,32765
5.96683,3.19478,-0.838291,19,32765
5.89832,3.13252,-0.830696,20,32765
5.86472,3.08909,-0.827647,20,32765
5.84831,3.05546,-0.827023,22,32765
5.8056,3.00764,-0.822906,22,32765
5.71854,2.93742,-0.812566,22,32765
5.71959,2.91286,-0.813901,23,32765
5.66727,2.86155,-0.808429,23,32765
5.70309,2.85563,-0.815513,24,32765
5.59685,2.7789,-0.801858,23,32765
5.56146,2.73773,-0.798411,23,32765
5.50815,2.68792,-0.792302,22,32765
5.52607,2.67269,-0.797142,20,32765
5.47235,2.62352,-0.790556,24,32765
5.41821,2.57489,-0.784463,24,32765
5.43548,2.56083,-0.78821,23,32765
5.336,2.49195,-0.775174,22,32765
5.30804,2.4571,-0.772879,24,32765
5.20796,2.38918,-0.759838,23,32765
5.24287,2.3834,-0.766709,24,32765
5.18743,2.33679,-0.760002,23,32765
5.19503,2.31894,-0.762757,23,32765
5.13915,2.27296,-0.756089,23,32765
5.16466,2.2633,-0.761456,22,32765
0,0,-0,0,32765
5.28833,2.27519,-0.783026,11,32765
0,0,-0,0,32765
0,0,-0,0,32765
0,0,-0,0,32765
0,0,-0,0,32765
0,0,-0,0,32765
0,0,-0,0,32765
0,0,-0,0,32765
0,0,-0,0,32765
0,0,-0,0,32765
0,0,-0,0,32765
0,0,-0,0,32765
0,0,-0,0,32765
0,0,-0,0,32765
0,0,-0,0,32765
0,0,-0,0,32765
0,0,-0,0,32765
0,0,-0,0,32765
1.51736,0.54726,-0.234551,14,32765
1.60296,0.572082,-0.248293,14,32765
1.58603,0.560149,-0.246472,14,32765
1.63444,0.571123,-0.254781,14,32765
1.51469,0.523612,-0.236549,14,32765
0,0,-0,0,32765
0,0,-0,0,32765
0,0,-0,0,32765
0,0,-0,0,32765
0,0,-0,0,32765
0,0,-0,0,32765
0,0,-0,0,32765
0,0,-0,0,32765
9.18085,6.87757,-1.16272,14,32765
9.21101,6.85237,-1.17219,16,32765
9.18463,6.7865,-1.1732,19,32765
9.07836,6.6611,-1.16428,17,32765
