x, y, z, intensity, ring
2.55437,-0.981858,0.136976,14,32765
2.45799,-0.95408,0.132684,14,32765
2.48272,-0.973036,0.134918,13,32765
2.49804,-0.988537,0.136672,13,32765
2.43907,-0.974559,0.134356,12,32765
0,-0,0,0,32765
2.33065,-0.949537,0.129872,12,32765
2.34588,-0.964951,0.131599,14,32765
2.26879,-0.942216,0.128222,18,32765
2.27481,-0.953639,0.129267,16,32765
2.28994,-0.969089,0.130924,17,32765
2.23154,-0.953215,0.128414,17,32765
2.17328,-0.936983,0.125741,17,32765
2.14263,-0.932317,0.124669,16,32765
2.15775,-0.947474,0.126547,16,32765
2.18191,-0.966868,0.128619,17,32765
2.14215,-0.957886,0.127019,17,32765
2.13892,-0.965023,0.127512,18,32765
2.18111,-0.992794,0.130785,18,32765
2.13242,-0.979133,0.128733,16,32765
2.13814,-0.990518,0.129676,17,32765
2.09862,-0.980728,0.127932,17,32765
2.14945,-1.01336,0.131841,17,32765
2.09191,-0.994794,0.129185,16,32765
2.07054,-0.993145,0.128541,16,32765
2.13904,-1.0349,0.133756,16,32765
2.12656,-1.03768,0.133661,16,32765
2.08722,-1.02713,0.131988,17,32765
2.12842,-1.05635,0.135444,16,32765
2.11595,-1.05891,0.135494,16,32765
2.03214,-1.02549,0.130996,16,32765
2.07322,-1.0548,0.134326,17,32765
2.01635,-1.03439,0.131407,16,32765
2.05718,-1.06407,0.13473,16,32765
2.01813,-1.05254,0.133055,16,32765
2.05871,-1.08258,0.136415,16,32765
2.06389,-1.09409,0.137668,16,32765
2.06022,-1.1009,0.138236,16,32765
2.09175,-1.12653,0.14112,16,32765
2.01779,-1.0953,0.137273,16,32765
2.0053,-1.09729,0.13715,16,32765
2.00159,-1.10397,0.137795,16,32765
1.99786,-1.11065,0.138265,16,32765
1.96802,-1.10258,0.137189,16,32765
2.05126,-1.15808,0.144179,16,32765
1.98666,-1.13031,0.140311,16,32765
2.07813,-1.19142,0.147915,16,32765
1.98773,-1.14832,0.142459,16,32765
2.02701,-1.17997,0.146367,15,32765
2.03171,-1.19161,0.147736,15,32765
2.02767,-1.19837,0.148545,15,32765
2.01507,-1.19993,0.148841,15,32765
1.99393,-1.19629,0.148427,15,32765
1.94719,-1.17711,0.145799,15,32765
2.02001,-1.2301,0.152624,15,32765
1.96485,-1.20547,0.149331,15,32765
2.03722,-1.25909,0.156289,15,32765
1.99917,-1.24462,0.154417,14,32765
2.00347,-1.25645,0.156056,16,32765
2.02459,-1.27897,0.158971,15,32765
1.96981,-1.25344,0.155928,16,32765
1.99926,-1.28136,0.159602,14,32765
1.96989,-1.27158,0.158466,14,32765
1.94894,-1.2671,0.158021,15,32765
1.92807,-1.26243,0.157802,15,32765
1.94877,-1.28532,0.160784,15,32765
1.95274,-1.29729,0.162278,15,32765
1.95668,-1.30919,0.164436,14,32765
1.95235,-1.31552,0.165331,15,32765
1.98927,-1.3498,0.170123,14,32765
1.99302,-1.36188,0.17198,16,32765
1.89807,-1.30618,0.16536,15,32765
1.97567,-1.36919,0.173666,14,32765
1.98749,-1.38696,0.176422,14,32765
2.0401,-1.43338,0.182768,14,32765
1.94586,-1.37649,0.176071,15,32765
2.03065,-1.44642,0.185263,15,32765
2.00148,-1.43555,0.18488,14,32765
1.90777,-1.37779,0.178063,14,32765
2.04025,-1.48362,0.192748,15,32765
2.01116,-1.47253,0.192068,15,32765
6.22173,-1.937,0.220154,22,32765
6.27256,-1.97495,0.225705,22,32765
6.30417,-2.00724,0.229856,21,32765
6.31654,-2.03378,0.233847,21,32765
6.38575,-2.07929,0.239225,21,32765
6.3692,-2.09739,0.241528,20,32765
6.41907,-2.13734,0.245503,20,32765
6.43102,-2.16427,0.249076,20,32765
6.49009,-2.20769,0.253865,21,32765
6.5017,-2.2352,0.2573,22,32765
6.53191,-2.26995,0.26044,21,32765
6.56192,-2.30501,0.264,17,32765
2.76858,-0.982827,0.1123,13,32765
2.73709,-0.981746,0.112299,13,32765
2.74318,-0.994205,0.113791,14,32765
2.6366,-0.965542,0.110404,15,32765
2.61459,-0.967407,0.110212,17,32765
2.57388,-0.962133,0.109396,16,32765
2.56131,-0.967085,0.109742,16,32765
2.50207,-0.954099,0.108358,16,32765
2.45226,-0.944425,0.10675,16,32765
2.43049,-0.945227,0.106639,15,32765
2.46455,-0.967785,0.108996,15,32765
2.37773,-0.94275,0.106002,14,32765
2.49514,-0.998899,0.112137,17,32765
2.37131,-0.958626,0.10741,15,32765
2.43278,-0.993083,0.110823,16,32765
2.4571,-1.01268,0.112818,16,32765
2.35216,-0.978758,0.10895,14,32765
2.23832,-0.940186,0.104339,12,32765
2.2167,-0.939946,0.104073,15,32765
2.23188,-0.955241,0.105583,17,32765
2.21028,-0.954824,0.105221,18,32765
2.19787,-0.958258,0.105319,18,32765
2.13976,-0.941445,0.103493,17,32765
2.15481,-0.956767,0.104836,18,32765
2.09685,-0.939505,0.102714,17,32765
2.14829,-0.971198,0.10589,18,32765
2.10867,-0.961751,0.104638,18,32765
2.0873,-0.960348,0.104396,18,32765
2.08402,-0.9674,0.104782,18,32765
2.03553,-0.953172,0.102946,19,32765
2.09549,-0.989924,0.106736,18,32765
2.10115,-1.00122,0.107868,19,32765
2.02573,-0.973638,0.104624,17,32765
2.04037,-0.989187,0.106265,18,32765
2.02804,-0.991641,0.106245,18,32765
2.07844,-1.02492,0.109647,18,32765
2.03022,-1.00969,0.10788,18,32765
2.03576,-1.02088,0.108953,17,32765
2.02338,-1.02319,0.109121,17,32765
2.08227,-1.06161,0.112947,17,32765
2.06978,-1.06402,0.11302,18,32765
2.01297,-1.04338,0.11053,18,32765
2.00054,-1.04555,0.110688,17,32765
2.01464,-1.06164,0.112102,17,32765
2.04634,-1.08707,0.114731,17,32765
2.01628,-1.0797,0.113805,17,32765
1.98636,-1.07204,0.112811,17,32765
1.98276,-1.07857,0.113694,16,32765
1.98784,-1.09006,0.114668,17,32765
1.95793,-1.0822,0.113785,17,32765
1.98917,-1.10819,0.116286,16,32765
1.95933,-1.10008,0.115491,16,32765
1.99044,-1.12616,0.118437,16,32765
1.92593,-1.09814,0.115214,16,32765
1.99154,-1.14425,0.120196,16,32765
1.93586,-1.12079,0.117751,16,32765
1.88898,-1.10201,0.11588,16,32765
1.97141,-1.15878,0.121898,16,32765
1.93312,-1.14499,0.120542,16,32765
1.97215,-1.17695,0.124127,17,32765
1.93397,-1.16287,0.122797,16,32765
1.97274,-1.1952,0.126081,16,32765
1.92618,-1.17556,0.124374,15,32765
1.95626,-1.20286,0.127145,16,32765
1.93527,-1.19874,0.127125,16,32765
1.92283,-1.19976,0.127273,16,32765
1.91883,-1.20605,0.128219,16,32765
1.92324,-1.21767,0.129678,15,32765
1.91918,-1.22397,0.130587,16,32765
1.88153,-1.20861,0.129247,15,32765
1.95298,-1.26351,0.135311,15,32765
1.84843,-1.20446,0.1292,14,32765
1.89453,-1.24328,0.133828,15,32765
1.90696,-1.2606,0.135921,15,32765
1.90271,-1.26693,0.13671,16,32765
1.8653,-1.25089,0.135723,15,32765
1.86117,-1.25694,0.136578,15,32765
1.86527,-1.26855,0.138396,15,32765
1.92693,-1.31974,0.14441,15,32765
1.9225,-1.32604,0.145625,15,32765
1.92626,-1.33802,0.147369,16,32765
1.90547,-1.3328,0.147377,15,32765
1.93378,-1.36182,0.151107,15,32765
1.88863,-1.3391,0.149226,14,32765
1.82735,-1.30463,0.145706,14,32765
1.83108,-1.31638,0.148038,14,32765
1.95601,-1.41592,0.159974,15,32765
1.91903,-1.39872,0.15908,15,32765
1.89023,-1.38722,0.158586,15,32765
6.46958,-2.01187,0.255559,21,32765
6.37732,-2.00577,0.250518,17,32765
6.25645,-1.99043,0.244851,19,32765
6.4306,-2.06937,0.250502,17,32765
6.40494,-2.08376,0.249601,17,32765
6.43621,-2.11687,0.249954,17,32765
6.44828,-2.1441,0.250024,17,32765
6.42236,-2.15861,0.249291,17,32765
6.50035,-2.20877,0.252288,18,32765
6.50257,-2.23317,0.252834,20,32765
6.48568,-2.25146,0.252647,18,32765
6.59135,-2.31261,0.256868,19,32765
2.83504,-1.00517,0.110914,13,32765
0,-0,0,0,32765
2.67796,-0.969534,0.104986,13,32765
2.70288,-0.988702,0.10631,13,32765
2.56838,-0.949078,0.101375,14,32765
2.56523,-0.957515,0.10169,16,32765
2.55271,-0.962425,0.101439,15,32765
2.51215,-0.956641,0.100331,14,32765
2.48096,-0.954234,0.0993838,14,32765
2.42191,-0.940686,0.0973424,14,32765
2.41883,-0.948524,0.0977042,14,32765
2.39711,-0.949107,0.0971947,14,32765
2.41253,-0.964394,0.0981446,13,32765
2.29807,-0.927606,0.0939718,15,32765
2.3412,-0.954146,0.096283,15,32765
2.38419,-0.980965,0.0986559,15,32765
2.35322,-0.977379,0.0978141,15,32765
2.21174,-0.927176,0.0925329,15,32765
2.25464,-0.953999,0.0948931,12,32765
2.15034,-0.918334,0.0910627,12,32765
2.19313,-0.945262,0.0936131,15,32765
2.18073,-0.948689,0.0937839,16,32765
2.17754,-0.955943,0.0942371,17,32765
2.13777,-0.947029,0.0931172,16,32765
2.11632,-0.946032,0.0927391,17,32765
2.14045,-0.965425,0.0944499,17,32765
2.11896,-0.96437,0.0942335,17,32765
2.07933,-0.954869,0.0932275,17,32765
2.0761,-0.961829,0.0938453,17,32765
2.0729,-0.968638,0.0945009,17,32765
2.06968,-0.975468,0.0948899,18,32765
2.03031,-0.965153,0.093913,18,32765
2.07208,-0.993567,0.0964523,18,32765
2.03272,-0.983134,0.0954474,16,32765
2.07427,-1.01183,0.0985454,18,32765
2.00809,-0.987919,0.0958454,17,32765
2.02267,-1.00347,0.0973219,17,32765
2.01036,-1.00569,0.0975705,17,32765
1.99802,-1.00794,0.0979444,17,32765
1.98571,-1.01006,0.0981716,16,32765
2.02668,-1.0396,0.101086,17,32765
1.98766,-1.02803,0.0998821,17,32765
2.01073,-1.04856,0.101917,17,32765
1.9895,-1.04599,0.101566,17,32765
1.96832,-1.04323,0.101309,16,32765
2.00002,-1.06866,0.103823,17,32765
1.97883,-1.06582,0.103752,17,32765
1.99283,-1.08188,0.105101,16,32765
1.90158,-1.04052,0.10113,16,32765
2.01178,-1.10954,0.107975,17,32765
2.01681,-1.12098,0.109403,17,32765
2.01302,-1.12774,0.109844,16,32765
1.9919,-1.12451,0.109263,16,32765
1.97075,-1.12121,0.109188,15,32765
1.88901,-1.083,0.10565,16,32765
1.98916,-1.14921,0.112102,17,32765
1.96796,-1.1459,0.111676,16,32765
2.00718,-1.1777,0.114751,16,32765
1.94294,-1.14893,0.112014,15,32765
1.93909,-1.15534,0.112692,16,32765
1.89244,-1.13598,0.110942,16,32765
1.93142,-1.16801,0.113904,16,32765
1.92756,-1.17431,0.114551,15,32765
1.9151,-1.17546,0.114744,15,32765
1.92816,-1.19229,0.116338,14,32765
1.89879,-1.18274,0.11545,15,32765
1.86947,-1.17306,0.114531,15,32765
1.84031,-1.16309,0.113566,16,32765
1.88697,-1.20134,0.117174,15,32765
1.81571,-1.16443,0.113585,14,32765
1.90417,-1.2299,0.119854,15,32765
1.8415,-1.19802,0.116715,15,32765
1.89606,-1.24227,0.12099,15,32765
1.81696,-1.19893,0.116657,15,32765
1.8214,-1.21027,0.117699,15,32765
1.83402,-1.22728,0.119332,15,32765
1.81333,-1.22224,0.118593,15,32765
1.88362,-1.27867,0.123963,16,32765
1.92064,-1.31296,0.127179,16,32765
1.87531,-1.29075,0.124851,16,32765
1.86302,-1.29093,0.124706,15,32765
1.78512,-1.24551,0.120196,14,32765
1.8709,-1.31445,0.126634,16,32765
1.8095,-1.28021,0.123124,16,32765
1.82984,-1.30328,0.125068,16,32765
1.842,-1.32059,0.126421,16,32765
1.82155,-1.31481,0.12546,15,32765
1.80907,-1.31499,0.125189,16,32765
1.81288,-1.32672,0.125628,16,32765
6.06011,-1.8882,0.179584,22,32765
6.10168,-1.92283,0.179423,21,32765
6.04771,-1.9278,0.176889,22,32765
6.07935,-1.9602,0.176654,20,32765
6.07304,-1.97969,0.176506,20,32765
6.10462,-2.01181,0.176544,20,32765
6.09805,-2.03169,0.175915,20,32765
6.11036,-2.05786,0.176468,20,32765
6.11298,-2.08132,0.176451,20,32765
6.10615,-2.10126,0.176622,20,32765
6.15577,-2.14126,0.178436,19,32765
2.56508,-0.901798,0.0743667,12,32765
2.62802,-0.93367,0.0765623,12,32765
2.73779,-0.982968,0.0799349,15,32765
2.68753,-0.974994,0.0784542,16,32765
2.62796,-0.963273,0.0770226,16,32765
2.55915,-0.947617,0.0753298,17,32765
2.556,-0.956043,0.0756458,17,32765
2.48738,-0.939737,0.0738243,15,32765
2.54027,-0.969363,0.0758734,16,32765
2.49971,-0.963451,0.0749321,17,32765
2.44993,-0.953562,0.0737383,15,32765
2.42821,-0.954197,0.0735422,15,32765
2.37859,-0.943754,0.0723749,13,32765
2.31051,-0.925559,0.0705855,13,32765
2.4371,-0.985806,0.0749343,12,32765
2.27645,-0.929724,0.0704971,14,32765
2.22711,-0.918281,0.0695048,14,32765
2.31632,-0.9641,0.0726909,15,32765
2.23938,-0.94077,0.0708539,14,32765
2.28223,-0.967742,0.0727511,15,32765
2.28816,-0.979289,0.0735037,16,32765
2.21145,-0.955209,0.0717533,15,32765
2.1807,-0.950717,0.071424,15,32765
2.1409,-0.941887,0.0706708,14,32765
2.07377,-0.920665,0.0690081,14,32765
2.1345,-0.95623,0.071559,18,32765
2.09484,-0.946907,0.070838,19,32765
2.08251,-0.949845,0.0711088,18,32765
2.07017,-0.952737,0.0714089,19,32765
2.00348,-0.930218,0.0698142,18,32765
2.04564,-0.957998,0.0720423,19,32765
2.01534,-0.951947,0.0714662,19,32765
2.02117,-0.962925,0.0724657,18,32765
2.04492,-0.982712,0.0738843,19,32765
2.05956,-0.998324,0.0752183,19,32765
1.98433,-0.970109,0.0735358,20,32765
1.99898,-0.985622,0.0744878,20,32765
1.97776,-0.983373,0.0744283,19,32765
2.00126,-1.00337,0.0761164,19,32765
1.98,-1.00109,0.0762387,19,32765
1.96772,-1.00315,0.0765555,19,32765
1.97315,-1.01442,0.0775976,19,32765
1.97859,-1.02564,0.0785161,18,32765
1.92195,-1.00452,0.0770717,17,32765
1.97159,-1.03892,0.0797463,18,32765
1.9681,-1.04548,0.0803938,18,32765
1.98216,-1.06153,0.081807,18,32765
1.96099,-1.05863,0.0819178,18,32765
1.93991,-1.05556,0.0816009,18,32765
1.8838,-1.03315,0.0800397,18,32765
1.93279,-1.06842,0.0830309,19,32765
1.91177,-1.06504,0.0831899,18,32765
1.91687,-1.07636,0.0839917,18,32765
1.9481,-1.10233,0.085882,18,32765
1.91836,-1.09393,0.0855896,18,32765
1.91469,-1.10027,0.086393,17,32765
1.88505,-1.09161,0.0858257,17,32765
1.92446,-1.12319,0.0883322,17,32765
1.89484,-1.11439,0.0877371,17,32765
1.89101,-1.12084,0.0884306,17,32765
1.92156,-1.14759,0.0907119,18,32765
1.87495,-1.12813,0.089426,17,32765
1.84558,-1.11874,0.0886344,17,32765
1.84188,-1.12478,0.0892546,17,32765
1.87214,-1.15183,0.0915933,17,32765
1.87678,-1.16329,0.0925712,16,32765
1.83055,-1.14297,0.0911047,17,32765
1.84366,-1.15964,0.0925689,16,32765
1.83142,-1.16025,0.0927326,15,32765
1.94545,-1.24156,0.0992155,15,32765
1.79844,-1.15614,0.0925052,16,32765
1.84497,-1.19455,0.0955711,17,32765
1.85774,-1.21153,0.0970036,16,32765
1.81203,-1.19011,0.0953571,16,32765
1.84977,-1.22357,0.0980293,15,32765
1.86244,-1.24058,0.0994327,16,32765
1.82518,-1.22437,0.0982145,16,32765
1.84588,-1.24725,0.099903,16,32765
1.8087,-1.23085,0.0985903,16,32765
1.75521,-1.20285,0.0963454,15,32765
1.76779,-1.21979,0.0976309,16,32765
1.85418,-1.28802,0.103028,15,32765
1.81724,-1.27111,0.101649,16,32765
1.78039,-1.25402,0.100175,16,32765
1.79254,-1.27142,0.101454,16,32765
1.85354,-1.32351,0.10543,16,32765
1.76017,-1.26515,0.100575,15,32765
1.79654,-1.30009,0.103046,15,32765
1.73567,-1.26489,0.100074,16,32765
1.80406,-1.32367,0.104146,16,32765
5.78935,-1.78859,0.0892622,19,32765
0,-0,0,0,32765
5.72994,-1.81077,0.0950318,18,32765
5.74301,-1.83555,0.0977214,20,32765
5.83201,-1.88525,0.102193,20,32765
0,-0,0,0,32765
5.61059,-1.8544,0.102769,16,32765
0,-0,0,0,32765
5.8066,-1.96157,0.111693,18,32765
0,-0,0,0,32765
5.92573,-2.04564,0.118184,18,32765
0,-0,0,0,32765
0,-0,0,18,32765
2.63706,-0.939583,0.0557302,12,32765
0,-0,0,0,32765
2.565,-0.93305,0.0556817,14,32765
2.65571,-0.976034,0.0589183,14,32765
2.55872,-0.950005,0.057733,13,32765
2.46192,-0.923401,0.0563919,14,32765
2.49622,-0.945752,0.0579813,15,32765
2.59571,-0.993474,0.0610333,15,32765
2.49908,-0.966137,0.0597511,14,32765
2.43064,-0.949,0.0589365,14,32765
2.42744,-0.957115,0.0595401,15,32765
2.41496,-0.961421,0.0602004,14,32765
2.40245,-0.965744,0.0605405,15,32765
0,-0,0,0,32765
2.35894,-0.966527,0.0610396,13,32765
2.18938,-0.905645,0.0574965,12,32765
2.26935,-0.947643,0.060301,15,32765
2.34901,-0.990289,0.0629536,15,32765
2.28126,-0.970781,0.0619754,14,32765
2.12183,-0.911326,0.058332,14,32765
2.23802,-0.970048,0.0621928,13,32765
2.20728,-0.965471,0.0622415,15,32765
2.20404,-0.972828,0.062626,15,32765
2.14598,-0.955759,0.0616605,14,32765
2.10625,-0.946615,0.0611212,13,32765
2.13942,-0.970266,0.0630104,17,32765
2.0725,-0.94835,0.0615634,17,32765
2.06923,-0.95541,0.0623513,17,32765
2.04789,-0.953864,0.0623208,18,32765
1.99041,-0.935145,0.0614755,18,32765
1.96925,-0.933118,0.0612754,17,32765
2.0112,-0.961233,0.0633314,18,32765
1.9629,-0.946318,0.0625591,17,32765
1.97764,-0.961709,0.0637783,17,32765
1.9923,-0.97724,0.0644806,18,32765
1.92627,-0.952886,0.0632254,18,32765
1.95887,-0.977087,0.064996,19,32765
1.94663,-0.979172,0.0652221,18,32765
1.96109,-0.994833,0.066539,17,32765
1.95769,-1.0015,0.0667268,18,32765
1.90988,-0.985145,0.065941,18,32765
1.98636,-1.03304,0.0693367,17,32765
1.9298,-1.01175,0.0682258,18,32765
1.90871,-1.00885,0.0680922,18,32765
1.96703,-1.04818,0.0707976,17,32765
1.92829,-1.03581,0.0700561,17,32765
1.86325,-1.00894,0.0689536,17,32765
1.90374,-1.03905,0.0709954,17,32765
1.91777,-1.05501,0.0722545,17,32765
1.92299,-1.06619,0.0731474,17,32765
1.88454,-1.05303,0.0724614,18,32765
1.89843,-1.06907,0.0739008,18,32765
1.86012,-1.05553,0.0734915,17,32765
1.87392,-1.07165,0.0747961,17,32765
1.85304,-1.06783,0.0747065,17,32765
1.84949,-1.07392,0.0754674,18,32765
1.88902,-1.10527,0.0779824,17,32765
1.92831,-1.13696,0.0808203,16,32765
1.90723,-1.13329,0.0806841,17,32765
1.82626,-1.09341,0.0782272,17,32765
1.83114,-1.10461,0.0796917,17,32765
1.85316,-1.12607,0.0815108,16,32765
1.88356,-1.15294,0.0838521,15,32765
1.8287,-1.12763,0.0824599,16,32765
1.83349,-1.13882,0.0837102,16,32765
1.8297,-1.14483,0.0845358,16,32765
1.91046,-1.20405,0.0894616,17,32765
1.83897,-1.16747,0.0872243,16,32765
1.89397,-1.21123,0.0909789,15,32765
1.88156,-1.212,0.0916397,15,32765
1.89425,-1.22911,0.0932641,16,32765
1.83163,-1.19702,0.0915354,17,32765
1.77755,-1.17009,0.0901121,15,32765
1.75702,-1.16483,0.0902111,15,32765
1.88615,-1.25925,0.0980899,16,32765
1.82396,-1.22633,0.0963237,16,32765
1.83645,-1.24347,0.0982707,16,32765
1.7993,-1.22695,0.0976132,15,32765
1.77868,-1.2216,0.097846,15,32765
1.7993,-1.24439,0.100443,15,32765
1.86079,-1.29587,0.105338,15,32765
1.79112,-1.25594,0.102872,15,32765
1.82774,-1.2906,0.106402,16,32765
1.7746,-1.26182,0.104907,16,32765
1.83542,-1.31403,0.11022,16,32765
1.78254,-1.28481,0.108665,16,32765
1.7541,-1.27288,0.108664,16,32765
1.81436,-1.32571,0.114383,16,32765
5.39711,-1.67116,0.0300473,20,32765
5.41075,-1.69458,0.0336055,20,32765
5.42431,-1.71803,0.0364245,22,32765
5.41865,-1.73577,0.0386666,20,32765
5.55555,-1.79992,0.0424051,21,32765
5.44506,-1.78392,0.0434451,21,32765
5.54357,-1.83637,0.046604,21,32765
5.48066,-1.83534,0.0484883,20,32765
5.56922,-1.88561,0.0518186,20,32765
5.60081,-1.91688,0.0543214,20,32765
5.55655,-1.92251,0.05552,20,32765
0,-0,0,0,32765
2.73412,-0.966283,0.0293776,19,32765
2.64618,-0.944961,0.0295001,14,32765
2.67127,-0.963846,0.0306524,16,32765
2.63046,-0.959027,0.0307774,17,32765
2.65539,-0.978128,0.0323056,17,32765
2.50219,-0.931119,0.0313575,15,32765
2.54586,-0.957049,0.0327464,18,32765
2.58938,-0.983278,0.0341091,18,32765
2.51135,-0.963373,0.0337674,16,32765
2.43349,-0.942921,0.0336541,17,32765
2.43032,-0.951036,0.0344016,17,32765
2.40851,-0.951819,0.0347386,14,32765
2.24746,-0.896782,0.0332867,16,32765
2.26299,-0.911765,0.0341019,30,32765
2.36181,-0.960752,0.0362862,14,32765
2.28459,-0.938214,0.0359132,19,32765
2.3276,-0.965032,0.0374559,17,32765
2.25977,-0.945817,0.0370355,15,32765
2.20127,-0.930146,0.0365486,14,32765
2.26249,-0.965019,0.0383646,15,32765
2.1674,-0.933051,0.0374245,16,32765
2.22847,-0.968146,0.0391118,14,32765
2.15195,-0.943456,0.0386189,15,32765
2.22193,-0.983008,0.0403229,15,32765
2.15471,-0.961888,0.0397591,15,32765
2.16967,-0.977395,0.0406233,14,32765
2.15721,-0.980625,0.0412922,15,32765
2.09027,-0.958724,0.0405079,14,32765
2.07789,-0.961661,0.0411247,14,32765
2.00217,-0.934765,0.0401946,17,32765
2.0714,-0.975492,0.0424936,20,32765
2.02302,-0.96086,0.041936,19,32765
1.98371,-0.950339,0.0418305,20,32765
2.00747,-0.970102,0.0430651,19,32765
1.95023,-0.950633,0.0425445,20,32765
1.96491,-0.966105,0.0430591,20,32765
1.95268,-0.968258,0.0436529,19,32765
1.94051,-0.970244,0.0440432,19,32765
1.94615,-0.981276,0.0447707,20,32765
1.92495,-0.978844,0.0450671,20,32765
1.93939,-0.994525,0.0456723,19,32765
1.93602,-1.00104,0.0464148,20,32765
1.93263,-1.00753,0.0470349,20,32765
1.92042,-1.00927,0.0475636,20,32765
1.89051,-1.00166,0.0473956,20,32765
1.92238,-1.02688,0.0487708,20,32765
1.92773,-1.03803,0.0495246,19,32765
1.89785,-1.03018,0.050006,19,32765
1.8944,-1.03648,0.0504215,19,32765
1.89967,-1.04763,0.0512558,17,32765
1.86996,-1.03934,0.0510966,18,32765
1.85778,-1.04063,0.0514946,19,32765
1.83688,-1.03697,0.0517566,18,32765
1.82476,-1.03803,0.0524418,18,32765
1.82994,-1.04909,0.0532968,18,32765
1.8351,-1.06013,0.0541485,19,32765
1.82294,-1.06114,0.054645,19,32765
1.828,-1.07224,0.0556335,19,32765
1.78995,-1.05802,0.0555675,19,32765
1.83785,-1.0948,0.0577366,19,32765
1.84274,-1.10605,0.0588299,18,32765
1.85613,-1.1225,0.0604915,18,32765
1.80979,-1.10249,0.0597852,18,32765
1.84025,-1.12928,0.0617349,19,32765
1.811,-1.11954,0.0617554,19,32765
1.81581,-1.1307,0.0629059,18,32765
1.82899,-1.14729,0.0643212,18,32765
1.8252,-1.15324,0.0652904,17,32765
1.7792,-1.13241,0.0646804,18,32765
1.75857,-1.12752,0.0649552,17,32765
1.78003,-1.14953,0.0668974,17,32765
1.80968,-1.17725,0.0689321,17,32765
1.78906,-1.1722,0.0694292,16,32765
1.77679,-1.1726,0.0701911,16,32765
1.78124,-1.18393,0.0714811,18,32765
1.80227,-1.20636,0.0734774,18,32765
1.75686,-1.18428,0.0729991,17,32765
1.79428,-1.21807,0.0757698,17,32765
1.79024,-1.22394,0.0768797,17,32765
1.72026,-1.18455,0.0751391,16,32765
1.74099,-1.20721,0.0774176,17,32765
1.72064,-1.20139,0.0778235,16,32765
1.75759,-1.23565,0.0809016,16,32765
1.76979,-1.25296,0.0828004,17,32765
1.75748,-1.25293,0.083764,17,32765
1.72902,-1.24111,0.0839816,16,32765
1.73309,-1.25246,0.0857114,17,32765
1.78557,-1.29913,0.090025,16,32765
1.78124,-1.30494,0.091709,15,32765
0,-0,0,0,32765
5.61167,-1.7552,0.05275,18,32765
0,-0,0,0,32765
5.58112,-1.78555,0.0504026,20,32765
5.55629,-1.79744,0.0493417,20,32765
5.57896,-1.82474,0.0496522,19,32765
0,-0,0,0,32765
5.62388,-1.88001,0.0494155,18,32765
0,-0,0,0,32765
5.60156,-1.91483,0.0489856,20,32765
0,-0,0,0,32765
5.67375,-1.98145,0.0499758,18,32765
2.70638,-0.954896,0.0236978,16,32765
2.7221,-0.970424,0.0239906,16,32765
2.69066,-0.969217,0.0239448,14,32765
2.60282,-0.947444,0.0235532,15,32765
2.64655,-0.973443,0.0239147,16,32765
2.55896,-0.950829,0.0235145,14,32765
2.45281,-0.920642,0.0229908,15,32765
2.56198,-0.97123,0.0239865,17,32765
2.45601,-0.940398,0.0235905,17,32765
2.4249,-0.937725,0.0235744,16,32765
2.4218,-0.945674,0.0240429,17,32765
2.39075,-0.942665,0.0240722,16,32765
2.36904,-0.943157,0.0243667,12,32765
2.1525,-0.865242,0.0225769,17,32765
2.22371,-0.902522,0.0237443,24,32765
2.36875,-0.970558,0.0257377,13,32765
2.22685,-0.921217,0.0247825,18,32765
2.26987,-0.947956,0.0257041,16,32765
2.32196,-0.978872,0.0269223,15,32765
2.20828,-0.939578,0.0262041,14,32765
2.28786,-0.982372,0.0276219,13,32765
2.1928,-0.950274,0.0270083,15,32765
2.31781,-1.0138,0.0295894,14,32765
2.17715,-0.961045,0.0283805,15,32765
2.19217,-0.976498,0.0288078,13,32765
2.07031,-0.930554,0.0279557,13,32765
2.09448,-0.949907,0.0288312,14,32765
2.13677,-0.977644,0.0301636,13,32765
2.15162,-0.99321,0.0309637,13,32765
2.04858,-0.953938,0.0302162,14,32765
2.10871,-0.990587,0.0316247,16,32765
2.03307,-0.963409,0.0313631,18,32765
2.02078,-0.965937,0.0319127,19,32765
2.00851,-0.96837,0.0326458,18,32765
1.96931,-0.957532,0.0324453,17,32765
1.99299,-0.977401,0.0330035,18,32765
1.92693,-0.953094,0.0326713,20,32765
1.91473,-0.955153,0.033073,17,32765
1.90254,-0.957128,0.0337628,18,32765
1.93494,-0.981664,0.0350784,18,32765
1.9494,-0.997309,0.0361039,20,32765
1.91053,-0.985423,0.0363786,19,32765
1.87174,-0.973336,0.0363599,18,32765
1.88614,-0.988927,0.0373578,18,32765
1.90931,-1.00928,0.0388387,20,32765
1.88816,-1.00642,0.039516,19,32765
1.84953,-0.993816,0.0396975,19,32765
1.86378,-1.0095,0.040363,18,32765
1.86041,-1.01567,0.0410691,19,32765
1.83947,-1.01223,0.0414591,17,32765
1.89731,-1.05225,0.0434883,18,32765
1.89379,-1.05854,0.0442956,18,32765
1.88152,-1.05994,0.0449077,18,32765
1.82579,-1.03659,0.0443454,18,32765
1.83962,-1.05269,0.0453636,19,32765
1.82744,-1.05379,0.0458346,18,32765
1.83256,-1.06486,0.0467906,18,32765
1.85488,-1.08609,0.0482502,19,32765
1.84263,-1.08718,0.0486046,19,32765
1.80461,-1.07288,0.0482435,18,32765
1.83535,-1.09936,0.0500051,19,32765
1.84023,-1.11062,0.0507873,19,32765
1.83652,-1.11671,0.0514505,17,32765
1.82429,-1.11753,0.0517285,17,32765
1.81204,-1.11834,0.0521346,18,32765
1.82532,-1.13483,0.0532942,17,32765
1.83003,-1.14614,0.0543232,17,32765
1.77549,-1.12017,0.0533547,18,32765
1.80554,-1.14744,0.0549305,17,32765
1.78488,-1.14262,0.0549471,17,32765
1.74755,-1.12672,0.0544841,17,32765
1.78583,-1.15954,0.0564671,17,32765
1.77371,-1.1598,0.0566094,18,32765
1.79499,-1.18201,0.0580616,18,32765
1.71611,-1.13816,0.0560346,16,32765
1.78717,-1.19375,0.0591771,15,32765
1.7334,-1.16623,0.0579336,16,32765
1.7709,-1.19997,0.059929,17,32765
1.74218,-1.18884,0.0596259,17,32765
1.75477,-1.20581,0.060653,17,32765
1.75087,-1.21146,0.0609218,17,32765
1.73875,-1.21137,0.061191,16,32765
1.75118,-1.22846,0.0621143,16,32765
1.71455,-1.21102,0.0613046,17,32765
1.69431,-1.20498,0.0611456,17,32765
1.73918,-1.24534,0.0632386,17,32765
1.7352,-1.25085,0.0635948,17,32765
1.73931,-1.26222,0.064019,16,32765
1.70302,-1.24415,0.0627894,17,32765
5.27262,-1.63398,-0.00125846,18,32765
5.30539,-1.66327,-0.00243996,21,32765
5.22364,-1.6565,-0.00333781,18,32765
5.33252,-1.71002,-0.00452272,19,32765
5.29841,-1.71806,-0.00534295,20,32765
5.29281,-1.73523,-0.00528567,20,32765
5.31561,-1.76189,-0.00567299,19,32765
5.25294,-1.76017,-0.00594592,19,32765
5.23746,-1.77479,-0.00672289,19,32765
5.2787,-1.80877,-0.0063086,19,32765
5.31039,-1.83961,-0.00632344,18,32765
2.72769,-0.954877,-0.0031458,22,32765
2.76232,-0.976972,-0.00335854,20,32765
2.68378,-0.959066,-0.0031392,18,32765
2.65238,-0.957732,-0.00290402,17,32765
2.55521,-0.932357,-0.00244398,18,32765
2.53329,-0.934039,-0.00248512,18,32765
2.57704,-0.959868,-0.0021637,18,32765
2.55512,-0.961371,-0.0017047,19,32765
2.46782,-0.937809,-0.00170202,19,32765
2.43667,-0.935266,-0.00111837,18,32765
2.48017,-0.961441,-0.000879165,17,32765
2.30007,-0.900333,-0.000369725,12,32765
2.33427,-0.922648,-7.44774e-05,11,32765
2.48909,-0.993382,0.000428568,11,32765
2.37447,-0.956813,0.000861231,12,32765
2.27862,-0.927084,0.00122791,15,32765
2.32177,-0.953658,0.00165702,19,32765
2.30006,-0.953852,0.00221665,15,32765
2.29683,-0.961588,0.00263081,16,32765
2.2199,-0.938164,0.00311346,15,32765
2.19837,-0.937682,0.00365067,14,32765
2.18607,-0.941,0.00405303,17,32765
2.23793,-0.972247,0.00466298,16,32765
2.19797,-0.963782,0.00553585,15,32765
2.1947,-0.97121,0.00608758,14,32765
2.17315,-0.970448,0.00622588,14,32765
2.06959,-0.932559,0.0066481,16,32765
2.03912,-0.927119,0.00705477,15,32765
2.1451,-0.983918,0.00814292,16,32765
2.07824,-0.96175,0.00842823,13,32765
1.96628,-0.91792,0.00865028,14,32765
2.07173,-0.975676,0.00959489,14,32765
2.06843,-0.982645,0.0104354,15,32765
1.99295,-0.95505,0.0107522,15,32765
1.98972,-0.961748,0.0116216,20,32765
1.96854,-0.95959,0.0119032,20,32765
1.93835,-0.953028,0.0118527,19,32765
1.92615,-0.955142,0.012508,19,32765
1.94078,-0.970623,0.0131874,20,32765
1.93747,-0.977196,0.0140493,20,32765
1.89848,-0.965637,0.014461,20,32765
1.90409,-0.976631,0.0152168,20,32765
1.90971,-0.987537,0.0162235,20,32765
1.87093,-0.975424,0.0165816,19,32765
1.86762,-0.981742,0.0172304,20,32765
1.88196,-0.997393,0.0183368,20,32765
1.86969,-0.999153,0.0192796,20,32765
1.88391,-1.01492,0.0204008,20,32765
1.84536,-1.00212,0.020306,19,32765
1.80693,-0.989035,0.0206071,20,32765
1.82986,-1.00957,0.0216826,20,32765
1.84398,-1.02535,0.0225212,20,32765
1.83182,-1.02659,0.0231976,19,32765
1.84579,-1.04254,0.0242213,19,32765
1.80752,-1.02891,0.0244447,17,32765
1.83004,-1.04996,0.0253922,18,32765
1.80056,-1.04102,0.0257082,18,32765
1.81436,-1.05707,0.026689,19,32765
1.82806,-1.07323,0.0277314,19,32765
1.7384,-1.02841,0.0269715,17,32765
1.80366,-1.07517,0.0285891,19,32765
1.7658,-1.06053,0.0288574,19,32765
1.78791,-1.08193,0.0298128,18,32765
1.79283,-1.09307,0.0306052,19,32765
1.77217,-1.08852,0.0308185,19,32765
1.78552,-1.10495,0.0317555,19,32765
1.73944,-1.08436,0.0316402,18,32765
1.74431,-1.09541,0.0325414,17,32765
1.78291,-1.12791,0.0338763,19,32765
1.72016,-1.09615,0.0332878,18,32765
1.78382,-1.14506,0.0351253,19,32765
1.69612,-1.09655,0.0340276,17,32765
1.70933,-1.11291,0.0350112,17,32765
1.74754,-1.14582,0.036273,18,32765
1.70209,-1.12392,0.0360251,18,32765
1.7733,-1.17934,0.0380337,19,32765
1.72787,-1.15734,0.0378148,18,32765
1.72398,-1.16311,0.038223,17,32765
1.75319,-1.19129,0.039564,18,32765
1.74927,-1.19702,0.0401057,16,32765
1.71242,-1.18001,0.0398023,17,32765
1.72503,-1.19693,0.0404523,18,32765
1.70475,-1.19104,0.040614,17,32765
1.70088,-1.19655,0.0409526,17,32765
1.68884,-1.19625,0.0411042,17,32765
1.6768,-1.19593,0.0413287,17,32765
1.69729,-1.21882,0.0422544,17,32765
1.67719,-1.2125,0.0421968,18,32765
1.70566,-1.24136,0.0431394,18,32765
1.7017,-1.24678,0.0431034,18,32765
5.07509,-1.56013,-0.0743753,17,32765
0,-0,-0,0,32765
4.96945,-1.56335,-0.0676324,18,32765
4.98339,-1.58569,-0.0654256,18,32765
5.04478,-1.62363,-0.0635407,18,32765
0,-0,-0,0,32765
5.04363,-1.65961,-0.0596558,17,32765
0,-0,-0,0,32765
5.09911,-1.71475,-0.0560751,18,32765
5.06496,-1.72214,-0.0536496,19,32765
5.21047,-1.79116,-0.0528457,18,32765
0,-0,-0,0,32765
0,-0,-0,16,32765
2.65739,-0.943442,-0.0240714,20,32765
2.74838,-0.98602,-0.0241534,21,32765
2.67934,-0.971164,-0.0222246,19,32765
2.63856,-0.966254,-0.0212051,17,32765
2.64477,-0.97836,-0.0204571,16,32765
2.5666,-0.959054,-0.0189946,17,32765
2.53535,-0.956957,-0.0178431,17,32765
2.45741,-0.936894,-0.0164054,17,32765
2.41688,-0.930882,-0.0154608,17,32765
2.44165,-0.950007,-0.0145023,16,32765
2.4291,-0.954672,-0.0138245,15,32765
0,-0,-0,0,32765
0,-0,-0,0,32765
2.34522,-0.949056,-0.0110686,12,32765
2.23099,-0.911424,-0.00998837,12,32765
2.30189,-0.949374,-0.00969692,13,32765
2.15099,-0.895596,-0.00826195,15,32765
2.32311,-0.976471,-0.00817705,15,32765
2.18171,-0.925731,-0.00722824,13,32765
2.21536,-0.94881,-0.00643297,13,32765
2.2672,-0.980142,-0.00582976,14,32765
2.12642,-0.927748,-0.00485429,18,32765
2.14156,-0.943019,-0.00453581,15,32765
2.16578,-0.962426,-0.00371817,14,32765
2.29033,-1.02687,-0.0032278,13,32765
2.10468,-0.952064,-0.0023062,12,32765
2.00136,-0.913531,-0.00147917,16,32765
2.09815,-0.966376,-0.00105072,13,32765
2.04949,-0.952458,-0.000359664,14,32765
2.17304,-1.01877,0.000229837,13,32765
2.02502,-0.957535,0.00107462,14,32765
2.06693,-0.985843,0.0012605,14,32765
2.02761,-0.975349,0.00190011,13,32765
1.95235,-0.947208,0.00264719,14,32765
1.99404,-0.975804,0.00259524,19,32765
1.91006,-0.942636,0.00298638,19,32765
1.91583,-0.953512,0.00400788,18,32765
1.93053,-0.968839,0.00441109,18,32765
1.8916,-0.957194,0.00489989,19,32765
1.87945,-0.959037,0.00556415,19,32765
1.91173,-0.983744,0.00624459,20,32765
1.88172,-0.976471,0.00674983,19,32765
1.87841,-0.982816,0.0076033,19,32765
1.86626,-0.98444,0.00830189,18,32765
1.88944,-1.00476,0.00904928,20,32765
1.84188,-0.987672,0.00998432,19,32765
1.82979,-0.989016,0.0104865,19,32765
1.8528,-1.00951,0.011426,19,32765
1.83188,-1.00607,0.0119455,20,32765
1.81099,-1.00252,0.0125034,19,32765
1.86005,-1.03776,0.0135095,20,32765
1.82172,-1.02432,0.0139423,19,32765
1.80965,-1.02535,0.0145907,19,32765
1.79752,-1.02644,0.0151478,18,32765
1.82011,-1.04735,0.0162538,18,32765
1.76471,-1.02329,0.0165368,16,32765
1.79584,-1.04931,0.0175754,19,32765
1.7923,-1.05533,0.0182893,18,32765
1.75435,-1.04091,0.0188442,18,32765
1.75947,-1.05185,0.019702,18,32765
1.73883,-1.04736,0.0203194,18,32765
1.76956,-1.07382,0.0215859,19,32765
1.75747,-1.07443,0.0223134,18,32765
1.75393,-1.08019,0.023144,18,32765
1.75886,-1.0912,0.0241767,18,32765
1.72138,-1.07571,0.024744,18,32765
1.72631,-1.08665,0.0257575,18,32765
1.78186,-1.12974,0.0276029,18,32765
1.76966,-1.13028,0.0282228,18,32765
1.75753,-1.13063,0.0291827,17,32765
1.71185,-1.10919,0.0294725,18,32765
1.72494,-1.12571,0.0307713,18,32765
1.72121,-1.13138,0.031802,18,32765
1.74245,-1.15363,0.0334103,18,32765
1.73861,-1.15938,0.0343104,18,32765
1.71817,-1.15393,0.0350753,17,32765
1.73922,-1.17633,0.036699,17,32765
1.71062,-1.16503,0.0373209,16,32765
1.69032,-1.15926,0.0380931,14,32765
1.71945,-1.18744,0.0399548,18,32765
1.73199,-1.2044,0.0416511,18,32765
1.69525,-1.18711,0.0421773,17,32765
1.65867,-1.16958,0.0424816,17,32765
1.68739,-1.19818,0.044696,17,32765
1.74038,-1.24434,0.0476571,16,32765
1.71195,-1.23247,0.0484094,17,32765
1.67558,-1.21446,0.0490199,17,32765
1.70395,-1.24338,0.0515698,17,32765
4.70045,-1.44877,-0.115174,17,32765
4.73388,-1.47619,-0.113348,17,32765
4.75769,-1.50067,-0.111692,17,32765
4.74327,-1.51325,-0.109118,18,32765
4.78585,-1.54433,-0.107591,19,32765
4.79984,-1.56616,-0.105956,19,32765
4.79473,-1.58184,-0.104205,19,32765
4.82757,-1.61002,-0.1024,19,32765
4.92649,-1.66104,-0.103075,19,32765
4.85469,-1.65496,-0.0996587,22,32765
4.87749,-1.68108,-0.0979834,19,32765
0,-0,-0,0,32765
2.61224,-0.920055,-0.0509297,15,32765
2.74106,-0.975692,-0.0521835,13,32765
0,-0,-0,0,32765
0,-0,-0,0,32765
2.53419,-0.930465,-0.0457411,13,32765
2.51239,-0.931826,-0.044618,18,32765
2.53741,-0.95063,-0.0442434,20,32765
2.44074,-0.923661,-0.0417006,19,32765
2.42832,-0.928231,-0.0406387,20,32765
2.36918,-0.914905,-0.0390175,19,32765
2.37537,-0.926643,-0.0380625,18,32765
2.3629,-0.931093,-0.0373057,12,32765
0,-0,-0,0,32765
2.4494,-0.984194,-0.0371269,12,32765
2.23297,-0.906009,-0.0331701,14,32765
2.24847,-0.920987,-0.0328838,19,32765
2.21766,-0.917048,-0.0318757,20,32765
2.2238,-0.928358,-0.0311672,15,32765
2.21144,-0.93199,-0.0303137,17,32765
2.18067,-0.92774,-0.0294709,16,32765
2.18673,-0.93903,-0.0286878,16,32765
2.15601,-0.934544,-0.0275982,19,32765
2.13454,-0.933764,-0.0267376,15,32765
2.17709,-0.961214,-0.0269429,15,32765
2.07337,-0.923811,-0.0248572,16,32765
2.14326,-0.963494,-0.0250668,14,32765
2.14914,-0.974773,-0.0244929,18,32765
2.20038,-1.00705,-0.0243249,13,32765
2.02444,-0.934921,-0.0219283,15,32765
2.17532,-1.01364,-0.0228883,13,32765
1.99091,-0.935881,-0.0204184,17,32765
2.02395,-0.959598,-0.019928,13,32765
1.98463,-0.949137,-0.0194146,15,32765
2.20664,-1.06433,-0.0208985,13,32765
1.95129,-0.949246,-0.0176938,13,32765
1.98395,-0.973497,-0.0181302,14,32765
1.91795,-0.949097,-0.0170554,14,32765
1.91475,-0.955559,-0.0160464,17,32765
1.85796,-0.934958,-0.0152425,19,32765
1.89051,-0.959247,-0.0149633,19,32765
1.86055,-0.951983,-0.014069,19,32765
1.8484,-0.953754,-0.0134436,19,32765
1.85398,-0.964715,-0.0129224,21,32765
1.85072,-0.970982,-0.0120793,21,32765
1.84745,-0.977195,-0.0113501,20,32765
1.88828,-1.00691,-0.0109904,20,32765
1.84955,-0.994519,-0.00963145,20,32765
1.80228,-0.976834,-0.00885834,20,32765
1.82531,-0.997283,-0.00820909,20,32765
1.79568,-0.988919,-0.00747308,20,32765
1.81858,-1.00952,-0.00690513,20,32765
1.80649,-1.01068,-0.00624454,20,32765
1.76827,-0.997039,-0.00545531,22,32765
1.78238,-1.01272,-0.0048025,22,32765
1.76162,-1.00875,-0.00413865,20,32765
1.78425,-1.02959,-0.00332848,20,32765
1.74623,-1.01542,-0.00252197,19,32765
1.7256,-1.0111,-0.00180829,19,32765
1.77385,-1.04741,-0.00115365,18,32765
1.73595,-1.03289,-0.00023173,20,32765
1.75824,-1.05409,0.000532114,19,32765
1.76328,-1.0651,0.00135816,20,32765
1.74268,-1.06051,0.00220032,20,32765
1.72211,-1.0558,0.00299622,20,32765
1.71012,-1.0562,0.00379359,21,32765
1.72362,-1.07239,0.00473575,19,32765
1.74554,-1.09392,0.00585718,19,32765
1.70812,-1.07827,0.00662816,19,32765
1.71303,-1.08921,0.0075878,19,32765
1.70096,-1.08952,0.00827451,21,32765
1.70579,-1.1005,0.00938007,19,32765
1.6854,-1.09519,0.0102629,19,32765
1.72362,-1.12809,0.0115299,20,32765
1.66979,-1.10075,0.0121966,19,32765
1.68278,-1.11734,0.0134271,18,32765
1.68738,-1.12847,0.0143697,19,32765
1.69194,-1.13961,0.0155198,19,32765
1.69647,-1.15075,0.0166865,18,32765
1.63494,-1.11673,0.0172147,18,32765
1.67248,-1.15037,0.0187729,18,32765
1.61941,-1.12162,0.019274,18,32765
1.71418,-1.1955,0.0217514,15,32765
1.66932,-1.17238,0.0225295,17,32765
1.67363,-1.18359,0.023772,19,32765
1.71857,-1.2239,0.0258735,20,32765
1.62518,-1.16539,0.0258811,18,32765
1.6781,-1.21165,0.0281822,19,32765
1.66609,-1.21114,0.0295685,17,32765
1.71059,-1.25191,0.0320416,19,32765
4.74917,-1.46176,-0.0977613,14,32765
4.68709,-1.45937,-0.0975232,15,32765
4.94931,-1.55871,-0.104386,18,32765
4.82992,-1.53832,-0.101884,19,32765
4.84386,-1.5603,-0.102993,17,32765
4.7151,-1.53602,-0.100495,16,32765
4.97588,-1.63914,-0.10685,16,32765
0,-0,-0,0,32765
4.87966,-1.64332,-0.104655,15,32765
4.71332,-1.6046,-0.101465,15,32765
4.92556,-1.69464,-0.105585,16,32765
4.90112,-1.70411,-0.105582,16,32765
2.79203,-0.981148,-0.0593725,14,32765
2.79814,-0.993882,-0.0594752,13,32765
0,-0,-0,0,32765
0,-0,-0,0,32765
0,-0,-0,0,32765
2.7284,-1.01027,-0.0571403,13,32765
2.56588,-0.959679,-0.0534739,18,32765
2.47849,-0.936448,-0.0514207,18,32765
2.40997,-0.91977,-0.0495903,19,32765
2.36955,-0.91349,-0.0485932,19,32765
2.4317,-0.94683,-0.0492539,20,32765
2.40064,-0.943924,-0.0482287,14,32765
0,-0,-0,0,32765
0,-0,-0,0,32765
2.31698,-0.937833,-0.0453855,12,32765
2.34161,-0.956919,-0.0453162,16,32765
2.31068,-0.953312,-0.0442166,15,32765
2.15052,-0.895832,-0.0408667,19,32765
2.17513,-0.914743,-0.0408093,16,32765
2.25487,-0.957258,-0.0417117,16,32765
2.16895,-0.929349,-0.0396115,14,32765
2.20257,-0.952421,-0.0398424,14,32765
2.15356,-0.93979,-0.038516,19,32765
2.10465,-0.926866,-0.0368285,16,32765
2.12892,-0.946185,-0.0367647,15,32765
2.14395,-0.96159,-0.036237,13,32765
0,-0,-0,0,32765
1.96461,-0.897147,-0.0320137,17,32765
2.1069,-0.970695,-0.0334696,13,32765
1.93139,-0.897607,-0.0304442,13,32765
0,-0,-0,0,32765
1.97054,-0.931925,-0.029927,15,32765
0,-0,-0,0,32765
1.91917,-0.923537,-0.0278351,16,32765
0,-0,-0,0,32765
0,-0,-0,0,32765
0,-0,-0,0,32765
0,-0,-0,0,32765
1.92126,-0.964689,-0.0252735,14,32765
1.9269,-0.975732,-0.0243656,17,32765
1.93246,-0.986882,-0.0235724,21,32765
1.88469,-0.970491,-0.0225298,18,32765
1.89917,-0.98604,-0.022141,18,32765
1.86041,-0.973862,-0.0212567,21,32765
1.81297,-0.956686,-0.0200133,20,32765
1.85387,-0.986287,-0.0197477,21,32765
1.84164,-0.987992,-0.018124,19,32765
1.81198,-0.979813,-0.0169294,19,32765
1.85255,-1.00989,-0.0165527,20,32765
1.83164,-1.00645,-0.0156416,20,32765
1.83702,-1.01742,-0.0149575,20,32765
1.82486,-1.01871,-0.0141893,20,32765
1.7866,-1.00518,-0.0132808,19,32765
1.78325,-1.01111,-0.0125168,20,32765
1.77116,-1.01215,-0.0117966,20,32765
1.79379,-1.03301,-0.0113182,20,32765
1.79035,-1.03896,-0.0105702,19,32765
1.77824,-1.03989,-0.00995676,19,32765
1.78339,-1.05088,-0.00923449,19,32765
1.77128,-1.05172,-0.00839152,18,32765
1.78492,-1.0679,-0.00789573,18,32765
1.74708,-1.05322,-0.00704431,19,32765
1.75206,-1.0643,-0.00637955,20,32765
1.79973,-1.10137,-0.00596544,21,32765
1.76205,-1.08631,-0.00507873,19,32765
1.73296,-1.0763,-0.00456391,19,32765
1.72099,-1.07661,-0.00381464,20,32765
1.73434,-1.09295,-0.00322732,19,32765
1.69699,-1.07718,-0.00249007,19,32765
1.69344,-1.08276,-0.00207452,18,32765
1.71508,-1.10459,-0.00140707,18,32765
1.69467,-1.09932,-0.000776844,19,32765
1.70776,-1.11586,-0.000188883,20,32765
1.66233,-1.09396,0.000286824,19,32765
1.66705,-1.10496,0.00091184,19,32765
1.63016,-1.08819,0.00137422,18,32765
1.70958,-1.14932,0.00197701,19,32765
1.69753,-1.1493,0.00243311,19,32765
1.66901,-1.1379,0.00307201,19,32765
1.6818,-1.15461,0.0036011,19,32765
1.65339,-1.14298,0.00384802,18,32765
1.62509,-1.13114,0.00428423,18,32765
1.61321,-1.13068,0.00461562,18,32765
1.64222,-1.15895,0.00522842,18,32765
1.6466,-1.17008,0.00553603,17,32765
1.651,-1.18113,0.00595856,15,32765
1.63915,-1.18049,0.00628552,18,32765
1.65954,-1.20349,0.00650689,19,32765
1.61524,-1.17939,0.00663196,18,32765
4.54639,-1.40314,-0.138374,18,32765
4.57038,-1.4269,-0.140161,17,32765
4.56567,-1.44181,-0.141359,17,32765
4.65618,-1.48703,-0.14422,18,32765
4.61319,-1.49006,-0.143711,18,32765
4.59873,-1.50221,-0.14354,16,32765
4.60322,-1.52053,-0.144464,16,32765
4.62653,-1.54545,-0.145632,16,32765
4.53622,-1.53186,-0.142336,17,32765
4.6541,-1.5888,-0.146456,18,32765
4.67729,-1.61366,-0.146808,17,32765
4.7003,-1.6388,-0.14808,13,32765
2.68683,-0.946785,-0.0839306,15,32765
2.64596,-0.942427,-0.0826579,14,32765
0,-0,-0,0,32765
0,-0,-0,0,32765
0,-0,-0,0,32765
0,-0,-0,0,32765
0,-0,-0,0,32765
2.39294,-0.906639,-0.0737021,13,32765
2.43658,-0.932515,-0.0746621,17,32765
2.38681,-0.92271,-0.0729997,21,32765
2.33716,-0.912556,-0.0709198,16,32765
2.41782,-0.953331,-0.0729981,12,32765
2.37749,-0.946595,-0.0715178,12,32765
2.29088,-0.920925,-0.0682738,16,32765
2.38967,-0.969964,-0.0710398,17,32765
2.21993,-0.909736,-0.0654995,19,32765
2.19841,-0.909537,-0.0644166,19,32765
2.24141,-0.93632,-0.0654099,17,32765
2.25666,-0.9517,-0.0653406,19,32765
2.17066,-0.924104,-0.0623086,17,32765
2.21349,-0.951106,-0.063047,16,32765
2.13695,-0.926654,-0.0605246,21,32765
2.18879,-0.957865,-0.0615764,16,32765
2.16729,-0.95715,-0.0601651,17,32765
2.0636,-0.919751,-0.0568429,15,32765
2.13341,-0.959574,-0.0580136,15,32765
0,-0,-0,0,32765
2.11781,-0.969851,-0.0563667,15,32765
1.9875,-0.918284,-0.0521141,16,32765
2.13848,-0.99668,-0.0558423,13,32765
0,-0,-0,0,32765
2.07756,-0.985345,-0.0531191,13,32765
0,-0,-0,0,32765
2.1249,-1.02547,-0.0529437,15,32765
0,-0,-0,0,32765
0,-0,-0,0,32765
0,-0,-0,0,32765
0,-0,-0,0,32765
2.12523,-1.07018,-0.0502571,12,32765
0,-0,-0,0,32765
1.86873,-0.957093,-0.0424674,15,32765
1.89216,-0.977156,-0.0425703,19,32765
1.85339,-0.965061,-0.0411816,20,32765
1.83244,-0.962001,-0.0403218,22,32765
1.82041,-0.963406,-0.0393844,22,32765
1.81715,-0.969565,-0.0386433,22,32765
1.8226,-0.980624,-0.0373145,22,32765
1.81936,-0.986667,-0.0363738,21,32765
1.79846,-0.983264,-0.0352553,20,32765
1.78641,-0.984462,-0.0343454,20,32765
1.80933,-1.00502,-0.0341005,21,32765
1.7885,-1.00134,-0.0330855,21,32765
1.81127,-1.02206,-0.0329215,20,32765
1.7818,-1.01326,-0.0316808,21,32765
1.7697,-1.0143,-0.0308652,20,32765
1.76632,-1.02019,-0.0302208,21,32765
1.74564,-1.01601,-0.0291927,22,32765
1.77674,-1.04209,-0.0292063,21,32765
1.77326,-1.04801,-0.0284375,20,32765
1.7354,-1.03347,-0.0271006,20,32765
1.74908,-1.04957,-0.0268006,20,32765
1.74555,-1.05545,-0.026099,20,32765
1.69929,-1.03533,-0.0247785,18,32765
1.76405,-1.08277,-0.0251831,20,32765
1.71795,-1.0623,-0.0238179,20,32765
1.70593,-1.06271,-0.023263,20,32765
1.71095,-1.07356,-0.0226535,20,32765
1.69049,-1.06853,-0.0218175,21,32765
1.70386,-1.08481,-0.021356,22,32765
1.70869,-1.09583,-0.0210397,21,32765
1.72186,-1.11233,-0.020543,20,32765
1.68468,-1.09617,-0.0195267,20,32765
1.68103,-1.10176,-0.0189376,20,32765
1.67741,-1.10727,-0.0184595,21,32765
1.67375,-1.11281,-0.0178306,21,32765
1.65348,-1.10716,-0.0171629,20,32765
1.65813,-1.11817,-0.0167297,19,32765
1.671,-1.13485,-0.0164358,21,32765
1.69207,-1.15721,-0.0159931,20,32765
1.68831,-1.16269,-0.0154896,20,32765
1.68455,-1.16815,-0.0151812,20,32765
1.65618,-1.15639,-0.0144531,19,32765
1.65241,-1.16179,-0.0140886,19,32765
1.64047,-1.16136,-0.0134974,20,32765
1.62854,-1.1609,-0.0131489,20,32765
1.62483,-1.16609,-0.0127571,19,32765
1.62924,-1.17708,-0.0124639,18,32765
1.61726,-1.17657,-0.0122741,17,32765
1.62149,-1.18774,-0.0120476,20,32765
4.42282,-1.35521,-0.197412,17,32765
4.38024,-1.35804,-0.193248,16,32765
4.45225,-1.39592,-0.194417,17,32765
4.49549,-1.42523,-0.194072,17,32765
4.39571,-1.40954,-0.187873,16,32765
4.57163,-1.48285,-0.193596,17,32765
4.45284,-1.46066,-0.18658,16,32765
4.42911,-1.46901,-0.184112,16,32765
4.35809,-1.46111,-0.179345,16,32765
4.39121,-1.48818,-0.17941,15,32765
4.66057,-1.59637,-0.188746,15,32765
4.46646,-1.54642,-0.179531,15,32765
4.34809,-1.52189,-0.173321,15,32765
2.56245,-0.9067,-0.100768,13,32765
2.67226,-0.95587,-0.104584,13,32765
2.52811,-0.913872,-0.0978944,15,32765
2.41243,-0.881208,-0.09254,13,32765
0,-0,-0,0,32765
0,-0,-0,0,32765
0,-0,-0,0,32765
0,-0,-0,0,32765
0,-0,-0,0,32765
2.41307,-0.936681,-0.0883094,16,32765
2.38206,-0.933775,-0.0864201,19,32765
2.37895,-0.941727,-0.0856114,15,32765
2.3758,-0.949742,-0.0846514,13,32765
2.2243,-0.897954,-0.0785606,13,32765
2.33233,-0.950772,-0.0815805,20,32765
2.3199,-0.95481,-0.0806306,15,32765
2.26128,-0.939711,-0.0779438,17,32765
2.1291,-0.893182,-0.072627,22,32765
2.26415,-0.958831,-0.076661,16,32765
2.20572,-0.943035,-0.0740437,16,32765
2.12912,-0.918822,-0.0708005,16,32765
0,-0,-0,0,32765
2.1778,-0.957368,-0.0710045,18,32765
2.05581,-0.912002,-0.0664341,15,32765
2.19871,-0.984289,-0.0704648,15,32765
2.05877,-0.929903,-0.0657715,15,32765
0,-0,-0,0,32765
2.02524,-0.931298,-0.0631896,22,32765
2.07651,-0.96337,-0.0641441,13,32765
2.05513,-0.961968,-0.062915,14,32765
0,-0,-0,0,32765
1.99443,-0.950148,-0.0598065,17,32765
0,-0,-0,0,32765
0,-0,-0,0,32765
0,-0,-0,0,32765
0,-0,-0,0,32765
0,-0,-0,0,32765
0,-0,-0,0,32765
1.98936,-1.00613,-0.0553647,13,32765
0,-0,-0,0,32765
0,-0,-0,0,32765
1.88144,-0.975706,-0.0507849,15,32765
1.82505,-0.954174,-0.0485132,18,32765
1.85722,-0.978962,-0.0485859,22,32765
1.84513,-0.98046,-0.0478387,22,32765
1.79782,-0.962977,-0.0459749,21,32765
1.7946,-0.969009,-0.045269,22,32765
1.76502,-0.960666,-0.0439501,21,32765
1.83191,-1.00509,-0.0447992,20,32765
1.81102,-1.0016,-0.043593,20,32765
1.75522,-0.978542,-0.0417267,18,32765
1.75193,-0.984469,-0.0408979,19,32765
1.77476,-1.00507,-0.0406347,21,32765
1.74538,-0.996096,-0.0392436,20,32765
1.77674,-1.02184,-0.0393215,20,32765
1.77335,-1.02774,-0.0385524,19,32765
1.70947,-0.99839,-0.0365248,21,32765
1.74925,-1.02941,-0.0364349,21,32765
1.72861,-1.02506,-0.0352214,20,32765
1.75099,-1.04614,-0.0349626,18,32765
1.77328,-1.06732,-0.0345701,19,32765
1.70994,-1.03685,-0.0325448,18,32765
1.73215,-1.05808,-0.0321595,18,32765
1.74565,-1.07434,-0.0315453,19,32765
1.75911,-1.09063,-0.0309568,20,32765
1.6707,-1.04347,-0.0285718,19,32765
1.7011,-1.0703,-0.0282775,19,32765
1.70604,-1.08123,-0.0273695,20,32765
1.70249,-1.08684,-0.0264317,20,32765
1.6569,-1.06534,-0.0247435,20,32765
1.66181,-1.07621,-0.0239249,19,32765
1.71691,-1.1199,-0.0237991,20,32765
1.67981,-1.10356,-0.0222062,20,32765
1.67616,-1.10912,-0.0211404,19,32765
1.64754,-1.09801,-0.0197534,21,32765
1.66053,-1.11457,-0.018843,20,32765
1.64855,-1.11448,-0.0176403,18,32765
1.678,-1.14234,-0.0169064,19,32765
1.64126,-1.12523,-0.0153922,19,32765
1.62112,-1.11922,-0.0140753,19,32765
1.60931,-1.11874,-0.0128434,19,32765
1.66295,-1.1642,-0.0120141,19,32765
1.66735,-1.17533,-0.0109155,20,32765
1.63906,-1.16339,-0.0093936,18,32765
1.6354,-1.16855,-0.00805058,18,32765
1.62348,-1.16802,-0.00667826,17,32765
1.60334,-1.16176,-0.00507158,18,32765
1.59952,-1.16702,-0.00344255,18,32765
4.1906,-1.28794,-0.228379,19,32765
4.18643,-1.30187,-0.226026,18,32765
4.18235,-1.31525,-0.223957,16,32765
4.19727,-1.33469,-0.222708,18,32765
4.16442,-1.33938,-0.219213,17,32765
4.32145,-1.40591,-0.225823,17,32765
4.32634,-1.42341,-0.224192,18,32765
4.30275,-1.43137,-0.221581,19,32765
4.40232,-1.48036,-0.224918,19,32765
4.36915,-1.48513,-0.221977,18,32765
4.38327,-1.50587,-0.221169,17,32765
4.35944,-1.51388,-0.218691,18,32765
4.33552,-1.52202,-0.216089,15,32765
2.64532,-0.938811,-0.130456,15,32765
2.6045,-0.934407,-0.127983,16,32765
2.53566,-0.919328,-0.123578,16,32765
2.45756,-0.900366,-0.118908,16,32765
2.4733,-0.915522,-0.119235,17,32765
2.47966,-0.927216,-0.118502,14,32765
0,-0,-0,0,32765
0,-0,-0,0,32765
0,-0,-0,0,32765
0,-0,-0,0,32765
2.41744,-0.950467,-0.112138,13,32765
2.34929,-0.932751,-0.108318,14,32765
2.32762,-0.93325,-0.106519,18,32765
2.29668,-0.929933,-0.104417,20,32765
2.29354,-0.937743,-0.103522,20,32765
2.26268,-0.934037,-0.101657,17,32765
2.26873,-0.94562,-0.101307,17,32765
2.28399,-0.961018,-0.101203,17,32765
2.19798,-0.933589,-0.0968656,19,32765
2.17642,-0.933285,-0.0953149,16,32765
2.12742,-0.920831,-0.0925272,16,32765
0,-0,-0,0,32765
2.08461,-0.919143,-0.0893697,16,32765
2.18195,-0.970859,-0.0929445,18,32765
2.06929,-0.929128,-0.0876227,15,32765
2.02977,-0.919553,-0.0857732,15,32765
0,-0,-0,0,32765
2.11429,-0.975169,-0.0878305,15,32765
2.06571,-0.96124,-0.0852014,16,32765
2.13481,-1.00227,-0.0874935,13,32765
0,-0,-0,0,32765
2.03781,-0.973741,-0.0823041,13,32765
0,-0,-0,0,32765
0,-0,-0,0,32765
0,-0,-0,0,32765
0,-0,-0,0,32765
0,-0,-0,0,32765
0,-0,-0,0,32765
1.9341,-0.981158,-0.0741641,13,32765
1.88628,-0.964971,-0.0718522,19,32765
1.85637,-0.957634,-0.0701748,20,32765
1.84425,-0.95934,-0.0692683,20,32765
1.82337,-0.956209,-0.0677662,21,32765
1.84667,-0.976376,-0.0678861,22,32765
1.80813,-0.963742,-0.0660788,23,32765
1.80494,-0.969756,-0.0653541,23,32765
1.7929,-0.971068,-0.0643275,23,32765
1.79843,-0.981864,-0.0639747,23,32765
1.78637,-0.98313,-0.0627823,23,32765
1.80053,-0.998876,-0.0626221,22,32765
1.77097,-0.990371,-0.0610993,22,32765
1.77634,-1.00128,-0.0605573,21,32765
1.75563,-0.997324,-0.0590967,20,32765
1.74366,-0.998199,-0.0580088,18,32765
1.74033,-1.00402,-0.0573174,21,32765
1.72836,-1.00478,-0.05628,20,32765
1.75949,-1.03081,-0.0566708,23,32765
1.74748,-1.03158,-0.0553791,21,32765
1.71826,-1.02211,-0.0537085,21,32765
1.72347,-1.03292,-0.0532022,21,32765
1.72866,-1.04372,-0.0525803,21,32765
1.73378,-1.05461,-0.0519696,21,32765
