x, y, z, intensity, ring
8.3966,1.81133,0.0661612,14,32765
8.36357,1.77455,0.0642271,14,32765
8.40863,1.75476,0.0625728,14,32765
8.31658,1.70619,0.0588029,14,32765
8.32229,1.67816,0.0577705,14,32765
8.34743,1.65452,0.0561509,14,32765
8.33326,1.62294,0.0542889,14,32765
8.30926,1.58905,0.0526381,14,32765
8.31464,1.56072,0.0501527,14,32765
8.26091,1.52151,0.0480462,15,32765
8.28566,1.49735,0.0460978,14,32765
8.29056,1.47003,0.0453008,14,32765
8.20679,1.42685,0.0410993,14,32765
8.22133,1.40134,0.0395146,14,32765
8.22597,1.37385,0.0385834,14,32765
8.23061,1.34595,0.033681,14,32765
8.1462,1.30422,0.0311022,15,32765
8.23945,1.29075,0.031358,17,32765
8.2437,1.26339,0.0285589,15,32765
8.32698,1.24783,0.0269239,23,32765
8.30147,1.21533,0.0253773,21,32765
8.32537,1.18984,0.0233985,21,32765
8.37893,1.1682,0.0215747,23,32765
8.36301,1.13722,0.0207854,22,32765
8.31721,1.1026,0.0194517,20,32765
8.32086,1.07475,0.0177446,20,32765
8.20547,1.03095,0.0179938,18,32765
8.24855,1.00858,0.0161546,19,32765
8.29162,0.985556,0.0152513,18,32765
8.2154,0.948646,0.0134826,18,32765
8.08935,0.906557,0.011873,20,32765
8.13209,0.883992,0.0103677,18,32765
8.07531,0.850665,0.00897511,19,32765
8.01837,0.818085,0.00779744,19,32765
7.86184,0.775505,0.00610183,17,32765
8.10329,0.772185,0.00583035,20,32765
7.73737,0.711339,0.00463038,17,32765
7.79945,0.690967,0.00353585,17,32765
0,0,0,0,32765
7.83382,0.641012,0.00206663,15,32765
0,0,0,0,32765
7.57864,0.569402,0.000510874,18,32765
7.64032,0.548725,8.41365e-05,18,32765
7.73188,0.529618,-0.000491221,18,32765
0,0,-0,0,32765
0,0,-0,16,32765
0,0,-0,0,32765
7.47856,0.413841,-0.00103712,17,32765
7.46988,0.388901,-0.00109782,19,32765
7.46115,0.36347,-0.00208174,18,32765
7.34243,0.333592,-0.00154948,17,32765
7.14366,0.301054,-0.00135178,18,32765
7.39442,0.287281,-0.00118861,18,32765
7.34536,0.26108,-0.000904287,17,32765
7.17628,0.231186,-0.00024567,17,32765
7.16701,0.207068,-0.000564654,15,32765
7.17765,0.183665,-5.85643e-05,17,32765
7.26819,0.162156,0.000510049,18,32765
6.97873,0.133133,0.00127023,17,32765
7.28909,0.115299,0.00210466,16,32765
7.21943,0.0907615,0.00272703,17,32765
6.99969,0.0652594,0.00397396,16,32765
0,0,0,0,32765
7.15997,0.0197712,0.00623761,17,32765
7.44999,-0.00406932,0.00821317,19,32765
7.20994,-0.0274714,0.00977228,16,32765
0,-0,0,0,32765
7.16961,-0.0738185,0.0138811,15,32765
0,-0,0,0,32765
7.57698,2.50386,0.0196513,36,32765
7.60417,2.48519,0.0203855,33,32765
7.65026,2.47279,0.0204832,32,32765
7.69639,2.45999,0.0205866,34,32765
7.75214,2.44965,0.0210954,33,32765
7.79823,2.4364,0.0206819,33,32765
7.83477,2.4199,0.0196991,34,32765
7.91904,2.418,0.020348,37,32765
7.95564,2.40073,0.0188759,36,32765
7.98277,2.37992,0.0181743,36,32765
8.04825,2.3701,0.0179068,38,32765
8.10417,2.35705,0.0174032,40,32765
8.14085,2.33822,0.0148342,39,32765
8.23514,2.33578,0.0147839,34,32765
8.36801,2.34358,0.0130616,17,32765
8.472,2.34288,0.0132556,19,32765
8.43145,2.30178,0.0111244,19,32765
8.38099,2.2586,0.00941406,17,32765
8.35937,2.22336,0.00800928,18,32765
8.34733,2.19064,0.00683333,18,32765
8.31584,2.15286,0.00561119,18,32765
8.30374,2.11963,0.00359403,20,32765
8.31092,2.09131,0.00310004,19,32765
8.26946,2.05095,0.00080873,19,32765
8.25686,2.01849,-0.000865245,19,32765
8.17604,1.96991,-0.00220596,19,32765
8.10479,1.92386,-0.00382347,18,32765
8.09163,1.89252,-0.0059785,19,32765
8.02968,1.84979,-0.00794241,19,32765
7.97733,1.80956,-0.00903992,19,32765
7.94434,1.77394,-0.0105831,19,32765
7.88192,1.73205,-0.0130035,18,32765
7.78018,1.6823,-0.013682,19,32765
7.71738,1.64129,-0.0150653,18,32765
7.65432,1.6011,-0.0167141,19,32765
7.58134,1.559,-0.0193188,18,32765
7.52775,1.52151,-0.0201058,18,32765
7.45428,1.48096,-0.021467,18,32765
7.30213,1.42546,-0.0225338,17,32765
7.1989,1.37993,-0.0234673,18,32765
7.18391,1.35163,-0.0255534,18,32765
7.04097,1.29986,-0.0265237,18,32765
6.9469,1.25835,-0.0278853,18,32765
6.92148,1.23015,-0.0284345,18,32765
6.75808,1.17772,-0.0308103,18,32765
6.7028,1.14518,-0.0318751,18,32765
6.63756,1.11116,-0.0323005,18,32765
6.52286,1.06919,-0.0356119,18,32765
6.43753,1.03307,-0.0368797,18,32765
6.3817,1.00207,-0.0366069,18,32765
6.29603,0.967163,-0.0382365,18,32765
6.22999,0.935777,-0.0392464,18,32765
6.11439,0.897245,-0.0395691,18,32765
6.02833,0.863573,-0.0404711,19,32765
5.97183,0.834555,-0.041473,19,32765
5.88544,0.802189,-0.0413752,18,32765
5.76914,0.766599,-0.0413805,18,32765
5.89068,0.762644,-0.0434437,19,32765
5.62542,0.708445,-0.0411256,18,32765
5.59796,0.686087,-0.0422165,19,32765
5.57044,0.663665,-0.0426524,20,32765
5.46336,0.632344,-0.0428963,18,32765
5.36608,0.602778,-0.0430447,18,32765
5.44758,0.593566,-0.044731,18,32765
5.35007,0.564909,-0.0447881,19,32765
5.38174,0.550371,-0.0457848,19,32765
5.27408,0.521469,-0.0458885,19,32765
5.25588,0.502026,-0.0460126,19,32765
5.20773,0.479904,-0.0462071,20,32765
5.17941,0.459935,-0.0466936,19,32765
5.18092,0.442463,-0.0474871,20,32765
4.92326,0.403803,-0.0452924,18,32765
5.22364,0.410915,-0.0486313,20,32765
4.89592,0.368713,-0.0459797,18,32765
5.07664,0.365465,-0.0479522,20,32765
4.90822,0.337,-0.0467172,17,32765
4.9592,0.324078,-0.0475521,17,32765
4.88039,0.302775,-0.0469108,17,32765
4.89134,0.28744,-0.0467417,20,32765
4.83235,0.268044,-0.0463232,18,32765
4.77329,0.249102,-0.0457891,17,32765
4.90392,0.239466,-0.0476826,18,32765
4.8048,0.218821,-0.0463854,18,32765
4.83546,0.204269,-0.0465699,17,32765
4.91605,0.191453,-0.0472001,18,32765
4.8467,0.172685,-0.0463466,18,32765
4.9372,0.159439,-0.0467683,19,32765
4.68782,0.13577,-0.0446106,17,32765
4.87818,0.125131,-0.0460736,18,32765
4.78859,0.107099,-0.044849,18,32765
4.80891,0.0919677,-0.0444986,18,32765
4.81919,0.0764227,-0.0440769,17,32765
4.83942,0.060997,-0.0438292,18,32765
4.8096,0.0449598,-0.0426438,18,32765
4.83973,0.0292889,-0.041947,19,32765
4.9398,0.013687,-0.0422974,19,32765
4.89983,-0.00266838,-0.0408217,17,32765
4.85981,-0.0185463,-0.0392593,17,32765
4.96972,-0.0352512,-0.0389158,19,32765
4.9196,-0.0507575,-0.0368873,17,32765
5.1094,-0.0692005,-0.0364826,20,32765
7.5605,2.48964,0.04681,30,32765
7.62558,2.48377,0.0415579,29,32765
7.69072,2.4775,0.0357112,28,32765
7.70819,2.45578,0.0318859,29,32765
7.7448,2.43963,0.0267191,26,32765
7.8196,2.43504,0.0225607,29,32765
7.85622,2.41823,0.0173392,29,32765
7.90249,2.40376,0.0126661,29,32765
7.96775,2.39527,0.00965664,29,32765
8.02348,2.38341,0.00497973,29,32765
8.06948,2.36887,0.00175661,31,32765
8.10593,2.35108,-0.00319737,31,32765
8.14246,2.33263,-0.00500365,30,32765
8.19833,2.31898,-0.00919408,22,32765
0,0,-0,0,32765
8.13658,2.24265,-0.0163412,19,32765
0,0,-0,0,32765
7.98691,2.14514,-0.0227047,15,32765
0,0,-0,0,32765
7.71063,2.01651,-0.0281781,15,32765
7.56236,1.95088,-0.0301794,17,32765
7.54946,1.92059,-0.0334716,17,32765
0,0,-0,0,32765
0,0,-0,16,32765
0,0,-0,0,32765
0,0,-0,14,32765
0,0,-0,0,32765
0,0,-0,15,32765
0,0,-0,0,32765
0,0,-0,16,32765
0,0,-0,16,32765
0,0,-0,17,32765
0,0,-0,16,32765
0,0,-0,16,32765
0,0,-0,0,32765
6.03408,1.23805,-0.0515013,17,32765
6.07744,1.22552,-0.053621,17,32765
5.85594,1.16023,-0.0525398,15,32765
5.96777,1.16153,-0.0542349,17,32765
5.77521,1.10379,-0.0542731,16,32765
5.6806,1.06595,-0.0539768,17,32765
5.66441,1.04351,-0.0560136,16,32765
5.52025,0.997898,-0.0555837,17,32765
5.49402,0.974098,-0.0568322,16,32765
5.51699,0.958891,-0.0577155,18,32765
5.40188,0.920208,-0.0578103,18,32765
5.28652,0.882593,-0.0575606,17,32765
5.21047,0.851974,-0.0591705,18,32765
5.19355,0.831343,-0.0592869,18,32765
5.21608,0.816789,-0.0612558,19,32765
5.11999,0.783802,-0.0612562,17,32765
5.09296,0.761957,-0.061041,19,32765
4.95701,0.72425,-0.0598579,17,32765
4.94951,0.706151,-0.0611685,17,32765
4.97165,0.692254,-0.0625966,18,32765
4.93429,0.670169,-0.0635835,16,32765
4.76796,0.631493,-0.0620902,16,32765
4.80973,0.620495,-0.0633452,16,32765
4.80195,0.60253,-0.0620194,16,32765
4.80392,0.586619,-0.0621916,16,32765
4.7463,0.563217,-0.0620856,16,32765
4.69848,0.5416,-0.0621201,15,32765
4.6307,0.518063,-0.0618754,16,32765
4.68211,0.507878,-0.0633769,15,32765
4.56444,0.479681,-0.062681,15,32765
4.53616,0.461462,-0.062855,16,32765
4.57748,0.45007,-0.0642872,17,32765
4.48935,0.426308,-0.0639044,15,32765
4.46087,0.408616,-0.0641145,16,32765
4.46219,0.393673,-0.0652089,16,32765
4.40369,0.373721,-0.0649109,17,32765
4.29529,0.350055,-0.0637903,15,32765
4.29642,0.335667,-0.0648235,16,32765
4.21774,0.31526,-0.0643315,16,32765
4.22875,0.301708,-0.0652195,17,32765
4.27958,0.291153,-0.0669484,16,32765
4.2406,0.274423,-0.0668526,17,32765
4.16163,0.255438,-0.0668685,15,32765
4.11252,0.239003,-0.0666167,16,32765
4.26303,0.233583,-0.0699142,16,32765
4.02412,0.207244,-0.0666479,16,32765
4.11464,0.198276,-0.0694341,17,32765
4.06532,0.182401,-0.0692516,16,32765
4.03592,0.167779,-0.0695529,16,32765
3.97649,0.152065,-0.0694039,16,32765
3.95696,0.138283,-0.0701627,16,32765
3.91741,0.12392,-0.0702279,16,32765
3.97774,0.11276,-0.072375,17,32765
3.89811,0.097666,-0.0719177,17,32765
3.91838,0.0852735,-0.0734318,18,32765
3.81866,0.0706629,-0.0721854,16,32765
3.80886,0.0580843,-0.0730129,17,32765
3.809,0.0457261,-0.0744429,17,32765
3.67914,0.0322919,-0.0728507,16,32765
3.69919,0.0203709,-0.0745271,16,32765
3.66923,0.00827298,-0.0748484,16,32765
3.71919,-0.00377869,-0.0773308,16,32765
3.57917,-0.0150942,-0.0755592,16,32765
3.65906,-0.0270441,-0.0784739,16,32765
3.54894,-0.0379806,-0.0778587,16,32765
3.43881,-0.0480502,-0.0767974,16,32765
7.53975,2.48897,-0.0279803,30,32765
7.49072,2.4459,-0.0332798,26,32765
7.46051,2.40932,-0.0390892,24,32765
7.35392,2.34873,-0.0421873,21,32765
7.15174,2.25842,-0.0458702,20,32765
7.02547,2.19318,-0.0489616,19,32765
6.8606,2.11702,-0.0524005,17,32765
6.59977,2.01249,-0.0543346,17,32765
6.45309,1.94476,-0.0555905,17,32765
6.2869,1.8722,-0.0578199,16,32765
6.09143,1.79264,-0.0584236,16,32765
5.95316,1.73097,-0.06069,16,32765
5.78582,1.66163,-0.0602069,17,32765
5.90678,1.67494,-0.0644084,20,32765
5.49831,1.53908,-0.0625585,19,32765
5.46486,1.50999,-0.0643428,20,32765
5.38294,1.46834,-0.0655982,21,32765
5.39737,1.45323,-0.0679638,21,32765
5.30543,1.40987,-0.0688683,19,32765
5.16499,1.35412,-0.069148,19,32765
5.13074,1.32687,-0.0703744,19,32765
5.08669,1.29727,-0.0719835,19,32765
5.0619,1.27291,-0.0728757,19,32765
4.97872,1.23446,-0.0733243,21,32765
4.92448,1.20367,-0.0743707,20,32765
4.78261,1.15225,-0.0731842,18,32765
4.71831,1.12008,-0.0741588,16,32765
4.67332,1.09294,-0.0746793,18,32765
4.62821,1.06608,-0.0752684,16,32765
4.53428,1.02817,-0.075462,17,32765
4.47916,0.99974,-0.0757326,17,32765
4.43367,0.973868,-0.0760376,18,32765
4.37824,0.946371,-0.0762488,17,32765
4.24441,0.902709,-0.0752986,16,32765
4.27675,0.894643,-0.0771499,17,32765
4.26992,0.878264,-0.0775234,18,32765
4.24346,0.857822,-0.0782384,18,32765
4.11884,0.818086,-0.0765298,18,32765
4.11176,0.80227,-0.0768502,19,32765
4.03587,0.773272,-0.0766579,18,32765
3.99914,0.752289,-0.0763546,17,32765
4.09007,0.755357,-0.0796502,18,32765
3.96467,0.718476,-0.0779015,18,32765
3.90799,0.694614,-0.0778427,17,32765
3.93986,0.686478,-0.0789177,18,32765
3.90271,0.666479,-0.0790919,18,32765
3.93446,0.658499,-0.0804488,19,32765
3.83795,0.629114,-0.0802525,17,32765
3.81042,0.611463,-0.0798847,18,32765
3.82233,0.600035,-0.0813706,19,32765
3.77494,0.579335,-0.0811762,19,32765
3.79666,0.569437,-0.0817064,19,32765
3.70956,0.543344,-0.080149,18,32765
3.69156,0.527995,-0.0807893,18,32765
3.6933,0.515544,-0.0816696,18,32765
3.68508,0.501757,-0.0825613,19,32765
3.59752,0.477669,-0.0810758,18,32765
3.63877,0.47061,-0.082529,19,32765
3.57097,0.449196,-0.0800671,19,32765
3.60221,0.44098,-0.0808644,19,32765
3.58382,0.426342,-0.0809219,19,32765
3.52563,0.407427,-0.080091,18,32765
3.55678,0.398921,-0.0812868,18,32765
3.49845,0.380443,-0.0805511,18,32765
3.51958,0.370812,-0.0817181,19,32765
3.44122,0.350962,-0.0803149,18,32765
3.50206,0.345208,-0.0823823,19,32765
3.36385,0.320244,-0.079762,18,32765
3.41466,0.313583,-0.0814289,19,32765
3.43559,0.303879,-0.0827469,19,32765
3.4565,0.294091,-0.0836788,19,32765
3.45746,0.2825,-0.0840778,20,32765
3.45837,0.270892,-0.08491,20,32765
3.31968,0.248778,-0.0820446,19,32765
3.31052,0.236811,-0.0823749,19,32765
3.29132,0.224505,-0.0826173,19,32765
3.31198,0.214894,-0.0835311,20,32765
3.2927,0.20264,-0.0840367,21,32765
3.28335,0.191325,-0.0842215,20,32765
3.25401,0.178775,-0.0841196,19,32765
3.30448,0.170644,-0.0859549,20,32765
3.28503,0.158733,-0.086472,18,32765
3.28553,0.147822,-0.0870059,19,32765
3.24603,0.135321,-0.0866013,18,32765
3.23645,0.124117,-0.0870546,19,32765
3.20685,0.112393,-0.0871464,19,32765
3.19719,0.101436,-0.0875068,19,32765
3.1775,0.0903478,-0.0878166,19,32765
3.08782,0.0776061,-0.0861215,18,32765
3.08804,0.0674213,-0.0870243,18,32765
3.07823,0.0571554,-0.0872481,18,32765
3.10836,0.0475742,-0.0889277,18,32765
3.06849,0.0369838,-0.0889361,18,32765
3.02859,0.0267046,-0.0885576,19,32765
2.98865,0.0165565,-0.0884231,18,32765
3.00865,0.00685998,-0.0897736,19,32765
3.00862,-0.00300296,-0.0909569,19,32765
2.96859,-0.0124882,-0.0906927,18,32765
2.89854,-0.021414,-0.0895264,18,32765
2.9084,-0.0311384,-0.0912639,18,32765
2.87827,-0.0402523,-0.091454,18,32765
4.62251,1.53024,-0.0875171,15,32765
4.60853,1.50877,-0.087005,15,32765
4.64182,1.50339,-0.0876196,15,32765
4.75132,1.5222,-0.0894489,15,32765
4.5847,1.45228,-0.0864752,15,32765
4.56089,1.42802,-0.0864066,14,32765
4.50827,1.39521,-0.0855151,15,32765
4.67533,1.43018,-0.0893264,16,32765
4.62249,1.39775,-0.0885134,17,32765
4.48329,1.33977,-0.086627,14,32765
4.60266,1.35923,-0.0894228,15,32765
4.45353,1.29925,-0.0872959,15,32765
4.54433,1.30918,-0.0897587,15,32765
4.37565,1.24451,-0.0861868,15,32765
4.31246,1.21065,-0.0862795,15,32765
4.2972,1.19091,-0.0862507,15,32765
4.50366,1.23194,-0.0909302,16,32765
4.23743,1.144,-0.0868189,15,32765
4.28947,1.14291,-0.0880634,17,32765
4.27392,1.12346,-0.0884487,15,32765
4.2486,1.10163,-0.0889208,16,32765
4.10697,1.0502,-0.086648,16,32765
4.01346,1.01212,-0.0855942,15,32765
4.05559,1.00845,-0.0871639,15,32765
4.02978,0.987802,-0.0873819,15,32765
4.0525,0.978955,-0.088407,16,32765
4.00714,0.953639,-0.0881487,16,32765
3.91299,0.917263,-0.0866697,15,32765
3.85757,0.890641,-0.0864818,15,32765
3.87031,0.879723,-0.0875827,15,32765
3.82445,0.855819,-0.0870509,16,32765
3.80776,0.838636,-0.0875889,16,32765
3.75197,0.812873,-0.0871059,15,32765
3.73512,0.796017,-0.0873886,16,32765
3.7965,0.795607,-0.0895996,16,32765
3.76976,0.776795,-0.0894959,15,32765
3.64495,0.738324,-0.0872863,16,32765
3.60818,0.718225,-0.0872381,16,32765
3.59089,0.702364,-0.0882306,15,32765
3.59323,0.690208,-0.0888973,15,32765
3.63483,0.68548,-0.0902303,16,32765
3.50931,0.649571,-0.0877778,16,32765
3.52131,0.639408,-0.0888849,16,32765
3.53329,0.629149,-0.0899945,17,32765
3.45661,0.603404,-0.0885855,16,32765
3.48816,0.596849,-0.0899096,17,32765
3.50985,0.588377,-0.0914047,17,32765
3.42303,0.5619,-0.0896982,17,32765
3.43475,0.551908,-0.0909351,17,32765
3.44648,0.541724,-0.0919069,17,32765
3.39885,0.522539,-0.0913548,17,32765
3.3215,0.499161,-0.0897531,17,32765
3.33304,0.489345,-0.0908709,17,32765
3.33466,0.47804,-0.091604,18,32765
3.28675,0.459782,-0.0911251,17,32765
3.27834,0.44748,-0.0912087,17,32765
3.33928,0.444344,-0.0932147,18,32765
3.23167,0.419058,-0.0911008,16,32765
3.29253,0.415837,-0.0933252,18,32765
3.29389,0.404768,-0.0939193,17,32765
3.28529,0.392556,-0.094299,17,32765
3.26673,0.379142,-0.0940191,17,32765
3.23818,0.36473,-0.0936506,17,32765
3.17976,0.347196,-0.0926889,17,32765
3.16102,0.33433,-0.0924568,16,32765
3.16211,0.323791,-0.0927199,17,32765
3.22284,0.31918,-0.0948551,17,32765
3.08457,0.295095,-0.0913113,17,32765
3.1552,0.291265,-0.0938203,16,32765
3.15614,0.280643,-0.0943459,17,32765
3.08734,0.264174,-0.0922699,16,32765
3.08821,0.253816,-0.0925475,16,32765
3.09898,0.244399,-0.0932397,16,32765
3.09976,0.234253,-0.09343,17,32765
3.10051,0.224039,-0.0936659,17,32765
3.11119,0.214539,-0.0941908,17,32765
3.11189,0.204116,-0.0943642,16,32765
3.10256,0.193202,-0.0942865,16,32765
3.04331,0.179377,-0.0926291,16,32765
3.0339,0.168696,-0.0925476,16,32765
3.12428,0.163399,-0.0951991,16,32765
3.04493,0.149172,-0.0928732,16,32765
3.03542,0.138749,-0.0924507,15,32765
3.05584,0.129597,-0.0931175,16,32765
3.06623,0.119917,-0.0934914,16,32765
3.0866,0.110523,-0.0938614,16,32765
3.04699,0.0989637,-0.0925326,17,32765
3.01733,0.0879684,-0.09147,16,32765
3.05758,0.0790314,-0.0924683,16,32765
3.08781,0.0695068,-0.0931679,16,32765
3.07803,0.059225,-0.0926969,16,32765
3.10821,0.049531,-0.0932425,17,32765
3.09837,0.0391954,-0.0925872,16,32765
2.98854,0.0281166,-0.0889283,16,32765
3.02862,0.0184202,-0.0896337,17,32765
3.03867,0.00858492,-0.0896412,16,32765
3.10867,-0.00139673,-0.0910237,17,32765
3.08868,-0.0111848,-0.0897373,17,32765
3.01867,-0.0208,-0.0870752,16,32765
3.09858,-0.0318913,-0.0884035,18,32765
3.13847,-0.0426755,-0.0883341,18,32765
3.58619,1.19034,-0.103452,17,32765
3.59011,1.17848,-0.103335,16,32765
3.56532,1.1578,-0.102576,18,32765
3.48333,1.11893,-0.10001,17,32765
3.50604,1.11353,-0.100753,16,32765
3.5288,1.10779,-0.101667,17,32765
3.45607,1.07241,-0.099619,18,32765
3.47867,1.06693,-0.100716,17,32765
3.43426,1.04119,-0.099545,17,32765
3.42804,1.02712,-0.0999294,17,32765
3.40258,1.00748,-0.0995191,17,32765
3.39628,0.993419,-0.099892,17,32765
3.31316,0.957001,-0.0979157,17,32765
3.40292,0.970389,-0.100351,18,32765
3.32921,0.937076,-0.0991804,18,32765
3.28417,0.912546,-0.0980215,17,32765
3.26791,0.896252,-0.0978973,17,32765
3.2612,0.882749,-0.0986423,17,32765
3.26409,0.871981,-0.0988388,17,32765
3.17032,0.835546,-0.0964965,17,32765
3.22145,0.837483,-0.0987826,17,32765
3.18551,0.816704,-0.0981916,17,32765
3.15911,0.798754,-0.098077,17,32765
3.18113,0.793072,-0.0992631,18,32765
3.18374,0.782455,-0.0999313,18,32765
3.09891,0.750553,-0.0976529,18,32765
3.10142,0.740019,-0.0982751,17,32765
3.16228,0.743219,-0.100659,18,32765
3.04788,0.705535,-0.0978176,17,32765
3.05999,0.697352,-0.0988295,18,32765
3.07205,0.689246,-0.0996046,18,32765
3.0841,0.681028,-0.100718,18,32765
3.03756,0.659814,-0.0998256,18,32765
3.02021,0.645339,-0.0997806,17,32765
2.96369,0.622703,-0.0984991,17,32765
2.98533,0.616763,-0.0996171,19,32765
2.9286,0.594769,-0.0983115,17,32765
2.95017,0.58878,-0.0996984,18,32765
2.92266,0.573156,-0.0998997,17,32765
2.94419,0.567017,-0.101118,17,32765
2.92644,0.553333,-0.100736,17,32765
2.92828,0.543442,-0.101336,17,32765
2.90059,0.528077,-0.101027,18,32765
2.85316,0.509376,-0.100011,17,32765
2.80564,0.491053,-0.0987719,16,32765
2.84666,0.488363,-0.100622,17,32765
2.82856,0.475415,-0.100722,18,32765
2.87944,0.473913,-0.102986,18,32765
2.79221,0.449845,-0.100609,17,32765
2.74435,0.432501,-0.0993978,17,32765
2.84454,0.438475,-0.103614,17,32765
2.77682,0.418409,-0.101534,17,32765
2.73865,0.403144,-0.100788,18,32765
2.71031,0.389567,-0.100294,16,32765
2.71159,0.380333,-0.101021,17,32765
2.77224,0.379407,-0.103536,17,32765
2.72397,0.363434,-0.101976,17,32765
2.71523,0.353031,-0.102386,17,32765
2.7362,0.346499,-0.10359,17,32765
2.66791,0.328724,-0.101444,18,32765
2.74835,0.329282,-0.105016,17,32765
2.67004,0.310724,-0.102221,17,32765
2.61148,0.294938,-0.100336,17,32765
2.65218,0.290376,-0.102498,16,32765
2.63327,0.279268,-0.10202,17,32765
2.60436,0.267405,-0.101083,17,32765
2.68477,0.266618,-0.104491,17,32765
2.59611,0.249047,-0.101476,17,32765
2.61681,0.242231,-0.102625,17,32765
2.67731,0.238724,-0.105413,18,32765
2.59845,0.222959,-0.102284,17,32765
2.64897,0.218323,-0.104482,17,32765
2.59985,0.205611,-0.102849,17,32765
2.57062,0.194813,-0.101825,17,32765
2.54134,0.184155,-0.100835,16,32765
2.56186,0.177164,-0.101811,17,32765
2.61229,0.17184,-0.103937,17,32765
2.63279,0.164423,-0.104922,18,32765
2.50364,0.148,-0.0998888,16,32765
2.54402,0.141874,-0.101667,17,32765
2.52452,0.132426,-0.100799,16,32765
2.5449,0.125052,-0.101686,17,32765
2.53532,0.116244,-0.101189,17,32765
2.55565,0.108721,-0.102035,17,32765
2.54601,0.0998863,-0.101694,17,32765
2.54634,0.0914712,-0.101497,17,32765
2.4967,0.0813583,-0.099414,17,32765
2.5469,0.0745054,-0.101274,17,32765
2.53715,0.06581,-0.1007,17,32765
2.5973,0.0586801,-0.102905,17,32765
2.52755,0.0488217,-0.0999954,17,32765
2.52771,0.0404484,-0.099705,17,32765
2.53783,0.0322525,-0.099808,17,32765
2.55792,0.024194,-0.100274,17,32765
2.50804,0.0153596,-0.0979149,16,32765
2.618,0.00748572,-0.101958,17,32765
2.54809,-0.00107873,-0.0986749,17,32765
2.52811,-0.0091092,-0.0973273,16,32765
2.57805,-0.0177382,-0.0987134,16,32765
2.56801,-0.0264268,-0.09752,17,32765
2.57794,-0.0350713,-0.0969054,17,32765
3.98636,1.31877,-0.0991396,16,32765
3.8575,1.26236,-0.0985766,15,32765
3.70933,1.2006,-0.0972422,15,32765
3.6655,1.17342,-0.098664,15,32765
3.66924,1.16145,-0.101197,14,32765
3.61571,1.13158,-0.101445,15,32765
3.58114,1.10789,-0.102401,15,32765
3.61344,1.10469,-0.105446,16,32765
3.3969,1.02634,-0.100938,15,32765
3.40974,1.01817,-0.10306,16,32765
3.3842,0.998646,-0.103897,15,32765
3.31062,0.965224,-0.102988,16,32765
3.33303,0.959512,-0.105651,16,32765
3.24009,0.920814,-0.104164,16,32765
3.24314,0.909838,-0.10552,16,32765
3.1498,0.872296,-0.103779,16,32765
3.22009,0.88037,-0.107418,16,32765
3.09749,0.83588,-0.104803,15,32765
3.12914,0.833455,-0.107008,15,32765
3.01583,0.792666,-0.104306,15,32765
2.97005,0.77002,-0.103867,15,32765
2.97254,0.760179,-0.105118,15,32765
2.98471,0.752676,-0.106642,15,32765
2.91929,0.725799,-0.105065,15,32765
2.94109,0.72073,-0.10693,16,32765
2.86573,0.692158,-0.104987,15,32765
2.94576,0.701069,-0.109038,15,32765
2.89942,0.679751,-0.108048,16,32765
2.83352,0.654154,-0.106627,16,32765
2.7967,0.635709,-0.10596,16,32765
2.81831,0.630581,-0.107608,15,32765
2.82036,0.62124,-0.108226,15,32765
2.76381,0.598983,-0.107175,16,32765
2.75601,0.587631,-0.107193,15,32765
2.73839,0.574144,-0.107497,15,32765
2.72073,0.560798,-0.107339,16,32765
2.75197,0.557549,-0.109212,16,32765
2.73422,0.544241,-0.109182,15,32765
2.71639,0.531237,-0.109103,15,32765
2.68869,0.516446,-0.108849,16,32765
2.62163,0.494566,-0.106541,15,32765
2.62324,0.485826,-0.107068,14,32765
2.70348,0.491307,-0.110926,16,32765
2.64607,0.471748,-0.108958,15,32765
2.62793,0.459455,-0.108616,14,32765
2.61958,0.448916,-0.109022,15,32765
2.64075,0.443408,-0.110496,16,32765
2.62253,0.431109,-0.109994,15,32765
2.54506,0.409388,-0.107016,15,32765
2.56617,0.403741,-0.108521,15,32765
2.49839,0.38435,-0.105888,15,32765
2.55894,0.384811,-0.10888,16,32765
2.57998,0.378939,-0.110483,15,32765
2.50211,0.358859,-0.107443,16,32765
2.52308,0.353131,-0.108839,16,32765
2.44505,0.333845,-0.105805,15,32765
2.54517,0.338813,-0.110442,16,32765
2.50666,0.324984,-0.10924,16,32765
2.4879,0.314058,-0.108676,15,32765
2.53851,0.311807,-0.111146,16,32765
2.51967,0.30094,-0.110838,16,32765
2.5008,0.290206,-0.110252,15,32765
2.53152,0.285111,-0.112242,16,32765
2.49273,0.272234,-0.110808,15,32765
2.47375,0.261725,-0.110272,16,32765
2.48454,0.25448,-0.110975,16,32765
2.41577,0.239357,-0.107974,16,32765
2.42648,0.232119,-0.109114,15,32765
2.43717,0.224897,-0.110002,16,32765
2.4777,0.22018,-0.112331,16,32765
2.50828,0.214394,-0.113977,16,32765
2.37954,0.195323,-0.108411,15,32765
2.41003,0.189629,-0.110437,15,32765
2.44052,0.183782,-0.112136,16,32765
2.43113,0.174958,-0.112339,15,32765
2.43169,0.16693,-0.112411,16,32765
2.43219,0.158953,-0.113157,15,32765
2.41274,0.14964,-0.112743,15,32765
2.39327,0.140463,-0.111938,15,32765
2.41365,0.133444,-0.113529,16,32765
2.39411,0.124331,-0.113067,16,32765
2.25481,0.109669,-0.106779,16,32765
2.37488,0.107578,-0.113097,15,32765
2.30534,0.0968671,-0.110213,15,32765
2.32558,0.0899904,-0.11165,15,32765
2.39572,0.0847567,-0.115439,15,32765
2.37599,0.0761256,-0.115127,16,32765
2.32628,0.0667209,-0.113402,16,32765
2.25657,0.0572624,-0.110433,15,32765
2.22677,0.0491177,-0.109432,16,32765
2.28682,0.0429865,-0.112664,16,32765
2.26694,0.0353617,-0.112351,16,32765
2.20709,0.0272482,-0.110066,15,32765
2.25706,0.0204621,-0.113387,15,32765
2.21714,0.0126602,-0.111836,15,32765
2.22714,0.00527629,-0.112804,16,32765
2.20713,-0.00193071,-0.112556,16,32765
2.19708,-0.00902532,-0.112903,16,32765
2.15706,-0.0157247,-0.111469,16,32765
2.18691,-0.0229602,-0.114006,15,32765
2.23672,-0.0306984,-0.117274,15,32765
3.04509,1.0101,-0.105929,17,32765
2.99129,0.981545,-0.106078,18,32765
3.02291,0.98108,-0.109169,17,32765
2.94985,0.946883,-0.108572,17,32765
2.91476,0.925128,-0.109186,17,32765
2.82236,0.885687,-0.107044,17,32765
2.82519,0.876397,-0.108646,18,32765
2.75161,0.843495,-0.107406,17,32765
2.783,0.843143,-0.11009,18,32765
2.73781,0.819745,-0.109676,17,32765
2.72123,0.805192,-0.110282,17,32765
2.70462,0.790684,-0.110689,18,32765
2.60162,0.750992,-0.107985,17,32765
2.62334,0.747568,-0.110046,17,32765
2.58735,0.727834,-0.109516,16,32765
2.61861,0.727163,-0.111895,18,32765
2.55349,0.700023,-0.110141,16,32765
2.5461,0.688955,-0.111014,17,32765
2.55795,0.683174,-0.112438,17,32765
2.56015,0.674731,-0.113511,16,32765
2.52367,0.656076,-0.112846,16,32765
2.4774,0.635284,-0.111729,17,32765
2.50853,0.63432,-0.114032,17,32765
2.48153,0.618645,-0.113433,16,32765
2.43505,0.598352,-0.112185,16,32765
2.33991,0.566701,-0.108436,16,32765
2.41949,0.577394,-0.113026,17,32765
2.37277,0.557801,-0.111419,17,32765
2.41354,0.558721,-0.114199,17,32765
2.29852,0.523898,-0.109331,16,32765
2.38797,0.535757,-0.114273,17,32765
2.3702,0.523514,-0.11386,17,32765
2.36216,0.513339,-0.114415,16,32765
2.31501,0.494956,-0.112385,16,32765
2.30687,0.484996,-0.112809,17,32765
2.30848,0.477132,-0.113327,17,32765
2.30027,0.467316,-0.113446,17,32765
2.31162,0.461389,-0.114561,17,32765
2.32293,0.45554,-0.11565,16,32765
2.29499,0.442039,-0.114979,17,32765
2.25717,0.426986,-0.113421,16,32765
2.2291,0.413971,-0.112391,17,32765
2.2108,0.402883,-0.111934,16,32765
2.23179,0.398989,-0.113311,17,32765
2.20358,0.38633,-0.112207,17,32765
2.23436,0.383964,-0.114404,17,32765
2.21592,0.373108,-0.113946,17,32765
2.22703,0.367113,-0.114727,16,32765
2.16911,0.349886,-0.111963,17,32765
2.20973,0.348633,-0.114582,17,32765
2.17142,0.334983,-0.112787,18,32765
2.13302,0.32166,-0.111138,17,32765
2.16372,0.318692,-0.113322,17,32765
2.16478,0.31135,-0.113622,17,32765
2.15591,0.302591,-0.113571,17,32765
2.1569,0.295333,-0.113908,17,32765
2.16776,0.289388,-0.114732,18,32765
2.14891,0.279392,-0.114128,17,32765
2.1102,0.267137,-0.112279,17,32765
2.11107,0.260044,-0.112533,17,32765
2.10199,0.251772,-0.112474,17,32765
2.08297,0.242413,-0.111652,17,32765
2.08375,0.235357,-0.11221,18,32765
2.13415,0.233747,-0.115162,17,32765
2.10512,0.223371,-0.113851,18,32765
2.09591,0.215301,-0.113534,17,32765
2.07674,0.206368,-0.11255,17,32765
2.0774,0.19931,-0.113146,17,32765
2.03826,0.188643,-0.111349,16,32765
2.01898,0.17995,-0.110698,16,32765
2.11904,0.181667,-0.116398,17,32765
2.03007,0.167139,-0.111749,16,32765
2.06045,0.162615,-0.113961,16,32765
2.02115,0.152668,-0.112032,17,32765
2.01166,0.145218,-0.112028,17,32765
2.04201,0.140616,-0.113752,17,32765
2.01253,0.131941,-0.112705,16,32765
2.01294,0.125242,-0.113134,17,32765
2.04324,0.120306,-0.114923,17,32765
2.00373,0.111142,-0.113228,17,32765
2.01404,0.104941,-0.114191,17,32765
1.98444,0.0968443,-0.112767,17,32765
2.03459,0.0924808,-0.116156,17,32765
1.98499,0.0836998,-0.11369,17,32765
1.99521,0.0774846,-0.114676,16,32765
1.97548,0.0701485,-0.113888,17,32765
2.02556,0.0651472,-0.117318,18,32765
1.93592,0.0557473,-0.112694,17,32765
1.97599,0.0503532,-0.115402,17,32765
1.95616,0.0433413,-0.114644,17,32765
1.96626,0.0371384,-0.115476,17,32765
1.94637,0.0305218,-0.11488,17,32765
1.93645,0.0240513,-0.114892,17,32765
1.93647,0.0176846,-0.115605,18,32765
1.94648,0.011228,-0.116601,17,32765
1.91653,0.00463618,-0.115207,17,32765
1.89654,-0.00157932,-0.114663,17,32765
1.88649,-0.00768505,-0.114795,17,32765
1.91637,-0.0139197,-0.117167,17,32765
1.92624,-0.0201878,-0.118648,17,32765
1.87623,-0.025731,-0.116133,17,32765
2.3314,0.776195,-0.117087,15,32765
2.38142,0.784055,-0.119169,16,32765
2.40306,0.782182,-0.120026,16,32765
2.38662,0.76805,-0.119251,16,32765
2.40819,0.766233,-0.120033,15,32765
2.38208,0.749355,-0.118993,16,32765
2.3082,0.717874,-0.115293,15,32765
2.36783,0.727846,-0.118368,15,32765
2.35111,0.714156,-0.117819,15,32765
2.37261,0.712002,-0.119079,15,32765
2.36537,0.701291,-0.118803,16,32765
2.34845,0.687952,-0.118341,15,32765
2.35071,0.680135,-0.11858,15,32765
2.35292,0.672349,-0.119176,16,32765
2.3071,0.650834,-0.117018,15,32765
2.35737,0.656415,-0.120021,16,32765
2.32103,0.637867,-0.118433,15,32765
2.31352,0.627378,-0.118454,15,32765
2.31558,0.61963,-0.118878,16,32765
2.30797,0.609299,-0.118878,15,32765
2.29063,0.596533,-0.118497,15,32765
2.29258,0.588958,-0.118754,15,32765
2.31387,0.586199,-0.120261,15,32765
2.2964,0.573623,-0.119991,15,32765
2.20133,0.541994,-0.11537,15,32765
2.24193,0.543999,-0.118052,16,32765
2.24373,0.536446,-0.118396,15,32765
2.26491,0.533544,-0.120075,15,32765
2.25694,0.523645,-0.119993,15,32765
2.21973,0.507071,-0.11856,16,32765
2.25064,0.506138,-0.120515,15,32765
2.24258,0.496305,-0.120497,15,32765
2.19541,0.478145,-0.118616,16,32765
2.19699,0.470736,-0.118902,15,32765
2.22786,0.469428,-0.121177,16,32765
2.18052,0.451696,-0.119236,15,32765
2.18201,0.444271,-0.119753,16,32765
2.14433,0.42889,-0.118244,15,32765
2.18495,0.429296,-0.120877,16,32765
2.09813,0.404807,-0.116616,15,32765
2.11907,0.40146,-0.118154,15,32765
2.14001,0.398024,-0.119658,15,32765
2.05289,0.374691,-0.115462,14,32765
2.14257,0.383641,-0.12087,15,32765
2.09467,0.367619,-0.118782,15,32765
2.09589,0.360436,-0.119305,15,32765
2.10694,0.354887,-0.120255,15,32765
2.13767,0.352553,-0.122428,15,32765
2.09939,0.338981,-0.120601,15,32765
2.05118,0.324059,-0.118457,16,32765
2.04236,0.315623,-0.118466,15,32765
2.06316,0.311606,-0.119908,15,32765
2.01481,0.297209,-0.117555,15,32765
2.10472,0.303136,-0.123135,15,32765
2.03651,0.286255,-0.119543,16,32765
2.02753,0.278104,-0.119421,16,32765
2.01854,0.269988,-0.119162,15,32765
2.02931,0.264404,-0.120299,16,32765
2.04998,0.260044,-0.121859,16,32765
2.00129,0.24704,-0.119211,16,32765
1.99216,0.239177,-0.11911,16,32765
2.00284,0.233817,-0.119828,16,32765
2.00359,0.227182,-0.120113,16,32765
2.01423,0.221579,-0.121111,16,32765
1.98518,0.211497,-0.119679,16,32765
1.98588,0.204727,-0.119834,16,32765
2.00642,0.200049,-0.121132,15,32765
1.98718,0.191323,-0.120402,16,32765
1.94804,0.181013,-0.118203,16,32765
1.99833,0.178882,-0.121624,16,32765
1.98897,0.171271,-0.12105,16,32765
1.94974,0.161246,-0.118852,16,32765
1.99007,0.157793,-0.121289,16,32765
1.97067,0.149658,-0.120297,16,32765
1.96117,0.142418,-0.120087,16,32765
1.98154,0.137388,-0.121273,16,32765
1.96207,0.129507,-0.120095,16,32765
1.93261,0.121061,-0.118231,16,32765
1.94295,0.115217,-0.119099,17,32765
1.99315,0.111499,-0.122175,16,32765
1.94367,0.102345,-0.119085,16,32765
1.95396,0.0964419,-0.119756,16,32765
1.94431,0.0894934,-0.118923,16,32765
1.97452,0.084386,-0.120691,16,32765
1.99472,0.0786133,-0.122066,16,32765
1.95508,0.07059,-0.11951,16,32765
1.95532,0.0641127,-0.119281,16,32765
1.90564,0.0560918,-0.116157,16,32765
1.98565,0.0518496,-0.12086,16,32765
1.98581,0.0452466,-0.120801,16,32765
1.97598,0.038557,-0.120116,16,32765
1.97612,0.0320953,-0.119647,16,32765
1.94628,0.0251393,-0.117739,16,32765
1.97632,0.0190856,-0.119092,16,32765
1.95642,0.0124897,-0.117682,15,32765
1.96645,0.00606014,-0.118008,16,32765
1.97648,-0.000462423,-0.118091,15,32765
2.03639,-0.00733424,-0.121111,16,32765
2.00644,-0.0139428,-0.118842,16,32765
2.00642,-0.0205446,-0.118217,16,32765
1.9964,-0.0267828,-0.116885,16,32765
2.05495,0.686136,-0.12364,17,32765
2.03828,0.673019,-0.122248,17,32765
2.05954,0.672302,-0.123308,17,32765
1.99526,0.643952,-0.119477,17,32765
2.02592,0.646456,-0.121044,17,32765
2.03753,0.642808,-0.121942,18,32765
2.05867,0.642108,-0.123179,17,32765
2.02261,0.623514,-0.121084,17,32765
2.03421,0.619671,-0.122008,18,32765
2.04583,0.615698,-0.122843,17,32765
2.00958,0.597511,-0.120722,17,32765
2.0115,0.590932,-0.121152,17,32765
2.04221,0.592565,-0.123091,17,32765
1.99615,0.572032,-0.120709,17,32765
2.00767,0.567982,-0.121529,17,32765
2.00955,0.561163,-0.122013,17,32765
1.94405,0.535792,-0.118239,16,32765
2.00364,0.544897,-0.122195,17,32765
2.01507,0.540756,-0.123154,17,32765
1.93966,0.513528,-0.118858,17,32765
1.98963,0.519625,-0.122348,17,32765
1.93333,0.498085,-0.119003,17,32765
1.94463,0.494062,-0.120024,17,32765
1.97529,0.494821,-0.122449,17,32765
1.90909,0.471385,-0.118633,17,32765
1.93003,0.469658,-0.120397,17,32765
1.91218,0.458484,-0.119481,17,32765
1.90395,0.449796,-0.119426,17,32765
1.92488,0.447879,-0.121015,17,32765
1.87771,0.430169,-0.118498,17,32765
1.87914,0.423803,-0.118829,17,32765
1.8903,0.419541,-0.119871,17,32765
1.87216,0.408913,-0.119265,17,32765
1.87351,0.402578,-0.11951,17,32765
1.90413,0.402369,-0.121968,17,32765
1.84683,0.383673,-0.118823,17,32765
1.87743,0.383357,-0.121155,17,32765
1.83958,0.368996,-0.11918,17,32765
1.82121,0.358863,-0.118308,17,32765
1.87139,0.362103,-0.122039,18,32765
1.86277,0.353923,-0.121795,18,32765
1.85411,0.345847,-0.121511,17,32765
1.83559,0.336001,-0.120891,17,32765
1.83668,0.329825,-0.121265,17,32765
1.79846,0.316553,-0.11926,17,32765
1.81918,0.313761,-0.121018,17,32765
1.79071,0.302503,-0.119388,17,32765
1.82124,0.301246,-0.121772,17,32765
1.80252,0.291901,-0.120825,18,32765
1.79361,0.2842,-0.120766,17,32765
1.81425,0.281197,-0.122609,17,32765
1.77572,0.268986,-0.1202,17,32765
1.77661,0.262848,-0.120654,17,32765
1.77748,0.256765,-0.120988,17,32765
1.7388,0.245136,-0.118688,16,32765
1.77912,0.244758,-0.121789,17,32765
1.74036,0.233477,-0.119362,17,32765
1.74111,0.227535,-0.119837,17,32765
1.75175,0.222883,-0.120849,17,32765
1.70297,0.21085,-0.117687,18,32765
1.73335,0.208736,-0.120166,17,32765
1.74392,0.204211,-0.120962,17,32765
1.66527,0.1894,-0.115701,17,32765
1.72537,0.190386,-0.120179,17,32765
1.69624,0.181272,-0.118414,17,32765
1.73653,0.179577,-0.121319,17,32765
1.72719,0.172746,-0.120713,17,32765
1.67809,0.162071,-0.117641,17,32765
1.68854,0.157396,-0.118519,17,32765
1.70891,0.153462,-0.12026,17,32765
1.70942,0.147671,-0.120288,17,32765
1.7099,0.141867,-0.120483,17,32765
1.71037,0.136057,-0.120494,17,32765
1.72075,0.131108,-0.121387,16,32765
1.7112,0.124677,-0.121033,17,32765
1.72155,0.119761,-0.121708,17,32765
1.71199,0.113383,-0.12104,16,32765
1.7024,0.107006,-0.120307,17,32765
1.6629,0.0989528,-0.117714,17,32765
1.70306,0.0956072,-0.120552,17,32765
1.72329,0.0910665,-0.121931,17,32765
1.68373,0.0834073,-0.119164,17,32765
1.68401,0.0778007,-0.118972,17,32765
1.72413,0.0739655,-0.121735,17,32765
1.72435,0.0682237,-0.121869,16,32765
1.69467,0.0614343,-0.119657,17,32765
1.67494,0.0551485,-0.118053,16,32765
1.715,0.0507002,-0.120792,17,32765
1.67529,0.0439454,-0.117846,16,32765
1.70534,0.039045,-0.119899,16,32765
1.66557,0.0326705,-0.117029,16,32765
1.7056,0.0278612,-0.119428,16,32765
1.74559,0.0226954,-0.122136,17,32765
1.70578,0.0166032,-0.118949,16,32765
1.70583,0.0110057,-0.118768,17,32765
1.73581,0.00545224,-0.12061,17,32765
1.73585,-0.00031838,-0.120157,17,32765
1.74584,-0.00621505,-0.120369,16,32765
1.73587,-0.0120055,-0.119259,17,32765
1.73585,-0.0177321,-0.118718,17,32765
1.72586,-0.023126,-0.117393,16,32765
2.21708,0.737806,-0.125675,15,32765
2.13398,0.702586,-0.122511,16,32765
2.11717,0.689423,-0.123152,16,32765
2.06231,0.664146,-0.121148,16,32765
2.1405,0.681605,-0.127174,16,32765
2.07603,0.653433,-0.124588,15,32765
2.08762,0.649577,-0.126503,17,32765
2.04198,0.627964,-0.124848,16,32765
2.04396,0.621264,-0.12593,16,32765
2.00767,0.6031,-0.124691,15,32765
1.98087,0.58791,-0.124147,15,32765
1.96359,0.575747,-0.123847,15,32765
1.98464,0.574638,-0.126141,15,32765
1.94809,0.557042,-0.124711,15,32765
1.94987,0.550587,-0.125574,16,32765
1.95162,0.544103,-0.126683,16,32765
1.92449,0.529717,-0.125519,15,32765
1.88768,0.512739,-0.123919,16,32765
1.89901,0.508931,-0.125153,15,32765
1.87171,0.49489,-0.124057,16,32765
1.9216,0.501147,-0.128031,17,32765
1.88456,0.484775,-0.126163,16,32765
1.83775,0.466214,-0.123699,16,32765
1.84896,0.46245,-0.124855,16,32765
1.86012,0.458657,-0.126369,16,32765
1.84222,0.447672,-0.125733,16,32765
1.82425,0.436873,-0.125126,15,32765
1.78684,0.421491,-0.123007,15,32765
1.78823,0.415399,-0.123672,16,32765
1.84797,0.422578,-0.128209,16,32765
1.82989,0.411934,-0.127367,15,32765
1.82148,0.403586,-0.127374,15,32765
1.77407,0.386794,-0.124317,15,32765
1.78508,0.38292,-0.125551,16,32765
1.76682,0.372719,-0.124556,16,32765
1.76805,0.366716,-0.124981,15,32765
1.77902,0.362752,-0.126052,15,32765
1.75087,0.350804,-0.124493,15,32765
1.77159,0.348685,-0.126413,15,32765
1.79233,0.346512,-0.128046,15,32765
1.75426,0.333001,-0.125602,15,32765
1.73572,0.323467,-0.124663,16,32765
1.71715,0.313973,-0.123708,16,32765
1.73783,0.311646,-0.12533,15,32765
1.73886,0.305701,-0.1258,16,32765
1.71038,0.294741,-0.123869,15,32765
1.7015,0.287367,-0.123308,16,32765
1.73195,0.286507,-0.125879,16,32765
1.73289,0.280611,-0.126269,16,32765
1.72398,0.273043,-0.125877,16,32765
1.68548,0.260962,-0.123124,15,32765
1.74552,0.264037,-0.12785,15,32765
1.70693,0.252206,-0.125205,15,32765
1.71764,0.247831,-0.126112,16,32765
1.71844,0.242045,-0.126443,15,32765
1.70935,0.234861,-0.125976,16,32765
1.68046,0.225115,-0.12403,16,32765
1.65152,0.215553,-0.12219,16,32765
1.6918,0.214983,-0.125303,16,32765
1.71229,0.211704,-0.127081,15,32765
1.67338,0.201144,-0.124212,16,32765
1.67403,0.195494,-0.124487,16,32765
1.68457,0.190961,-0.125527,16,32765
1.66536,0.183073,-0.124326,15,32765
1.6957,0.180628,-0.126723,16,32765
1.66652,0.171805,-0.124851,16,32765
1.65715,0.16523,-0.124338,16,32765
1.68746,0.16248,-0.126855,17,32765
1.67804,0.155912,-0.126351,16,32765
1.68846,0.151174,-0.127529,16,32765
1.64921,0.142049,-0.124607,16,32765
1.66952,0.138134,-0.126576,16,32765
1.64014,0.130087,-0.124553,16,32765
1.68032,0.127577,-0.127866,16,32765
1.67076,0.121159,-0.127551,16,32765
1.65125,0.114157,-0.126312,16,32765
1.6516,0.108666,-0.126549,16,32765
1.64197,0.10257,-0.126176,15,32765
1.66218,0.098334,-0.127998,16,32765
1.61269,0.0900556,-0.124603,16,32765
1.63287,0.0857503,-0.126411,16,32765
1.62318,0.0798784,-0.125737,16,32765
1.65328,0.0757934,-0.128556,16,32765
1.58376,0.0673316,-0.123616,15,32765
1.61384,0.0632556,-0.126216,16,32765
1.62397,0.0581824,-0.12747,16,32765
1.6042,0.052125,-0.126199,15,32765
1.61429,0.0469936,-0.127513,16,32765
1.55462,0.0401012,-0.12308,15,32765
1.5547,0.034905,-0.123593,16,32765
1.53486,0.0293514,-0.122293,16,32765
1.53491,0.0243048,-0.122729,16,32765
1.53494,0.0192331,-0.123293,16,32765
1.54492,0.0143724,-0.124621,16,32765
1.53496,0.00931633,-0.124188,15,32765
1.52498,0.00427354,-0.12378,15,32765
1.51497,-0.000699863,-0.123606,15,32765
1.50494,-0.00568164,-0.123432,15,32765
1.54473,-0.0108897,-0.127185,16,32765
1.5247,-0.0157011,-0.126239,16,32765
1.48472,-0.0200995,-0.123745,15,32765
1.83654,0.612966,-0.122382,17,32765
1.86684,0.616441,-0.125737,17,32765
1.84029,0.601024,-0.125328,18,32765
1.84217,0.594997,-0.1265,17,32765
1.74897,0.55857,-0.121254,16,32765
1.80785,0.5707,-0.126404,18,32765
1.73344,0.540964,-0.122199,17,32765
1.69703,0.523422,-0.120539,16,32765
1.75593,0.535294,-0.125534,17,32765
1.7385,0.523787,-0.125135,17,32765
1.75928,0.523687,-0.127611,17,32765
1.70352,0.500971,-0.124232,17,32765
1.69557,0.492394,-0.124462,17,32765
1.71632,0.492223,-0.126758,17,32765
1.6603,0.470212,-0.123246,17,32765
1.6714,0.467361,-0.124908,17,32765
1.66327,0.459176,-0.124804,17,32765
1.69363,0.461396,-0.127787,17,32765
1.64699,0.442701,-0.124679,17,32765
1.65806,0.439702,-0.126127,17,32765
1.63054,0.426504,-0.124587,17,32765
1.62226,0.418543,-0.124459,17,32765
1.64293,0.41803,-0.126631,17,32765
1.63462,0.41006,-0.126334,17,32765
1.63593,0.404579,-0.127091,17,32765
1.59849,0.389603,-0.124675,17,32765
1.59973,0.38425,-0.125304,17,32765
1.5913,0.376486,-0.12503,17,32765
1.58282,0.368784,-0.124857,17,32765
1.55489,0.356625,-0.122984,17,32765
1.57551,0.355733,-0.124959,17,32765
1.58639,0.352552,-0.126328,17,32765
1.5486,0.338648,-0.123533,17,32765
1.56919,0.33762,-0.125572,17,32765
1.58006,0.334322,-0.126691,17,32765
1.58116,0.32894,-0.127072,17,32765
1.58223,0.323598,-0.127411,17,32765
1.55397,0.312294,-0.125513,17,32765
1.58433,0.312772,-0.128355,17,32765
1.556,0.301734,-0.126184,17,32765
1.5374,0.292722,-0.124909,17,32765
1.57754,0.294882,-0.128514,17,32765
1.5687,0.287701,-0.12813,17,32765
1.5206,0.273521,-0.12431,16,32765
1.5215,0.268306,-0.124722,17,32765
1.50274,0.259752,-0.12329,17,32765
1.50359,0.254719,-0.123424,17,32765
1.51425,0.251262,-0.12461,17,32765
1.51507,0.246093,-0.124951,17,32765
1.48636,0.236135,-0.122799,16,32765
1.49701,0.232499,-0.123722,16,32765
1.51749,0.230256,-0.125704,17,32765
1.48868,0.220643,-0.123469,16,32765
1.50914,0.218427,-0.125266,16,32765
1.4605,0.206358,-0.121455,17,32765
1.47105,0.202753,-0.122499,17,32765
1.53097,0.205736,-0.12765,17,32765
1.46246,0.191482,-0.122194,17,32765
1.49275,0.190291,-0.124837,16,32765
1.47359,0.182772,-0.123452,16,32765
1.4643,0.176575,-0.122685,17,32765
1.45497,0.170458,-0.122096,17,32765
1.47532,0.167781,-0.124023,17,32765
1.46596,0.161676,-0.123434,17,32765
1.45657,0.155662,-0.122752,17,32765
1.46698,0.151731,-0.123897,16,32765
1.47738,0.147793,-0.12494,17,32765
1.45801,0.140855,-0.123508,16,32765
1.45846,0.135964,-0.123719,16,32765
1.47873,0.132844,-0.125779,16,32765
1.43945,0.124404,-0.122472,17,32765
1.45969,0.121189,-0.124571,16,32765
1.45014,0.115417,-0.123933,16,32765
1.4207,0.108244,-0.121635,16,32765
1.4409,0.104861,-0.123718,17,32765
1.43129,0.0993066,-0.123107,17,32765
1.44153,0.0951903,-0.124169,17,32765
1.42193,0.0891532,-0.122794,17,32765
1.42219,0.0844525,-0.123045,17,32765
1.41248,0.0791777,-0.122567,17,32765
1.42267,0.075003,-0.123666,17,32765
1.4229,0.0703015,-0.123751,17,32765
1.42309,0.0655073,-0.124185,17,32765
1.3934,0.0594882,-0.122004,17,32765
1.38362,0.0544674,-0.121362,18,32765
1.40367,0.0505163,-0.123519,18,32765
1.3839,0.0451779,-0.12202,17,32765
1.39396,0.0407801,-0.123356,17,32765
1.36419,0.0353735,-0.120967,17,32765
1.39414,0.0314765,-0.124076,16,32765
1.37429,0.0264429,-0.122558,17,32765
1.37434,0.0219124,-0.122949,17,32765
1.3644,0.0172337,-0.12256,17,32765
1.3644,0.0128192,-0.123025,17,32765
1.36441,0.00839585,-0.123355,16,32765
1.34448,0.00386924,-0.121906,16,32765
1.34443,-0.000530825,-0.122469,16,32765
1.36429,-0.00507068,-0.124864,16,32765
1.34431,-0.00940947,-0.123461,16,32765
1.34422,-0.0137863,-0.124074,16,32765
1.3441,-0.0181508,-0.124804,17,32765
1.59765,0.534948,-0.132137,16,32765
1.5994,0.529714,-0.131984,16,32765
1.61058,0.52762,-0.132886,16,32765
1.59336,0.516148,-0.131134,16,32765
1.59506,0.510843,-0.131222,16,32765
1.63475,0.517555,-0.134629,16,32765
1.62693,0.509193,-0.133882,16,32765
1.58095,0.489125,-0.130238,16,32765
1.62067,0.495601,-0.13345,16,32765
1.58411,0.478731,-0.1304,15,32765
1.60481,0.479072,-0.132205,16,32765
1.62551,0.479351,-0.133909,16,32765
1.61752,0.47107,-0.133463,16,32765
1.6191,0.465558,-0.133669,16,32765
1.58228,0.449227,-0.130719,16,32765
1.58377,0.443859,-0.131048,16,32765
1.61405,0.446504,-0.1337,16,32765
1.57707,0.430549,-0.130715,16,32765
1.59771,0.430478,-0.132712,16,32765
1.59914,0.425085,-0.132853,16,32765
1.59089,0.417144,-0.132518,16,32765
1.5923,0.411699,-0.132619,15,32765
1.58401,0.403763,-0.132219,16,32765
1.58534,0.398363,-0.132652,16,32765
1.56731,0.388236,-0.131248,15,32765
1.57825,0.385335,-0.132431,16,32765
1.55045,0.373019,-0.130268,16,32765
1.58078,0.374647,-0.132994,16,32765
1.55292,0.36241,-0.130806,16,32765
1.53469,0.352585,-0.129626,16,32765
1.51643,0.342891,-0.128335,15,32765
1.55646,0.346433,-0.131937,16,32765
1.5576,0.341171,-0.132183,16,32765
1.5295,0.329551,-0.13007,16,32765
1.51108,0.320212,-0.12888,16,32765
1.51214,0.315018,-0.129183,16,32765
1.50343,0.307822,-0.128614,16,32765
1.49468,0.300644,-0.128239,16,32765
1.51524,0.299345,-0.130174,16,32765
1.51622,0.294182,-0.130465,16,32765
1.53676,0.292743,-0.13251,16,32765
1.49855,0.280222,-0.129352,16,32765
1.48964,0.273363,-0.129004,16,32765
1.51994,0.273614,-0.131975,17,32765
1.47178,0.259836,-0.127907,16,32765
1.49225,0.258204,-0.130086,16,32765
1.4931,0.253076,-0.130443,16,32765
1.45461,0.241356,-0.127453,16,32765
1.50458,0.244319,-0.132035,16,32765
1.46603,0.232895,-0.128919,16,32765
1.50614,0.234004,-0.132933,15,32765
1.50693,0.228861,-0.132936,15,32765
1.46825,0.217804,-0.130043,16,32765
1.47883,0.214174,-0.131164,16,32765
1.46965,0.207739,-0.13072,16,32765
1.47031,0.202793,-0.131042,16,32765
1.47095,0.197877,-0.13136,15,32765
1.46171,0.19161,-0.130729,16,32765
1.45245,0.185371,-0.130144,16,32765
1.45305,0.180371,-0.130439,16,32765
1.45362,0.175388,-0.130831,16,32765
1.4443,0.169328,-0.130142,16,32765
1.44484,0.164466,-0.130388,16,32765
1.43545,0.15855,-0.129838,16,32765
1.45575,0.15586,-0.131855,16,32765
1.44634,0.149934,-0.131237,16,32765
1.44682,0.145025,-0.131504,16,32765
1.41753,0.137228,-0.129095,16,32765
1.41797,0.132442,-0.129282,16,32765
1.42831,0.128566,-0.13039,16,32765
1.43863,0.12461,-0.131547,16,32765
1.42911,0.11901,-0.130667,16,32765
1.3997,0.111828,-0.128236,16,32765
1.45963,0.111726,-0.133816,15,32765
1.38052,0.101011,-0.126758,15,32765
1.43051,0.0998855,-0.131413,16,32765
1.38114,0.0918173,-0.126944,16,32765
1.41125,0.0890536,-0.129831,16,32765
1.42147,0.0849501,-0.130799,16,32765
1.39191,0.0785121,-0.128136,16,32765
1.39215,0.0738725,-0.128342,16,32765
1.40234,0.0697496,-0.129132,16,32765
1.38266,0.0641359,-0.127454,16,32765
1.42267,0.0612478,-0.131041,17,32765
1.41291,0.0561134,-0.130174,16,32765
1.41308,0.051361,-0.130243,16,32765
1.4033,0.0463373,-0.129189,16,32765
1.42336,0.0422775,-0.131041,16,32765
1.40359,0.0371015,-0.129048,16,32765
1.37384,0.0317695,-0.126291,16,32765
1.39385,0.0275626,-0.128101,15,32765
1.40392,0.0230381,-0.128804,16,32765
1.36416,0.0178476,-0.125137,16,32765
1.41401,0.0138576,-0.129523,16,32765
1.43398,0.00938997,-0.131193,16,32765
1.42407,0.00464876,-0.130045,16,32765
1.43406,-6.40412e-05,-0.130672,16,32765
1.42412,-0.00483572,-0.129508,15,32765
1.43409,-0.00956846,-0.129931,16,32765
1.4341,-0.0142911,-0.129385,16,32765
1.40422,-0.0185866,-0.126168,16,32765
1.43536,0.482112,-0.133064,16,32765
1.39913,0.464834,-0.129429,17,32765
1.44795,0.475825,-0.133912,17,32765
1.40216,0.455628,-0.129372,17,32765
1.39419,0.4479,-0.128576,16,32765
1.40515,0.446249,-0.129694,16,32765
1.45413,0.456527,-0.134109,17,32765
1.40803,0.436982,-0.129969,17,32765
1.43802,0.441115,-0.13267,16,32765
1.42993,0.433479,-0.131874,16,32765
1.43138,0.428624,-0.132084,16,32765
1.42324,0.421004,-0.131319,16,32765
1.41507,0.413388,-0.130737,17,32765
1.38774,0.400271,-0.128266,16,32765
1.40823,0.401051,-0.130226,17,32765
1.40955,0.39626,-0.130519,16,32765
1.40126,0.388841,-0.129867,16,32765
1.40256,0.384093,-0.130044,17,32765
1.41341,0.382004,-0.131293,17,32765
1.38581,0.369521,-0.128736,17,32765
1.38702,0.364817,-0.129143,17,32765
1.38826,0.360056,-0.129233,17,32765
1.37981,0.352803,-0.128687,17,32765
1.37131,0.345652,-0.128163,17,32765
1.37245,0.341025,-0.128352,17,32765
1.36389,0.334033,-0.127771,17,32765
1.39403,0.33643,-0.130737,17,32765
1.36608,0.324772,-0.128259,17,32765
1.36717,0.320055,-0.128489,18,32765
1.37794,0.317558,-0.12981,18,32765
1.35957,0.308382,-0.128296,17,32765
1.36058,0.303781,-0.12857,18,32765
1.35186,0.297032,-0.127865,17,32765
1.36257,0.294502,-0.129111,17,32765
1.34405,0.285709,-0.127684,18,32765
1.36449,0.28515,-0.129808,17,32765
1.33618,0.274439,-0.127263,17,32765
1.37613,0.27767,-0.131403,17,32765
1.33799,0.265162,-0.127904,17,32765
1.36819,0.266298,-0.130968,17,32765
1.32994,0.254146,-0.12754,16,32765
1.36992,0.25698,-0.131492,17,32765
1.37073,0.252341,-0.13195,16,32765
1.35195,0.244148,-0.130443,17,32765
1.33315,0.236112,-0.128726,17,32765
1.34372,0.233246,-0.130099,16,32765
1.36411,0.231954,-0.132325,17,32765
1.32559,0.220655,-0.128922,17,32765
1.34597,0.219266,-0.131079,17,32765
1.34669,0.214628,-0.131388,17,32765
1.29819,0.202349,-0.127071,16,32765
1.3284,0.202402,-0.129962,16,32765
1.32904,0.197797,-0.130489,17,32765
1.31984,0.191774,-0.129745,17,32765
1.32045,0.187263,-0.130133,16,32765
1.29147,0.178715,-0.127502,16,32765
1.31176,0.177047,-0.129733,17,32765
1.33207,0.175196,-0.131913,17,32765
1.33263,0.170647,-0.132187,17,32765
