x, y, z, intensity, ring
7.64737,0.53022,-0.468028,18,32765
7.67895,0.506851,-0.470015,19,32765
7.66069,0.479876,-0.46866,20,32765
7.68211,0.455549,-0.470901,19,32765
7.64372,0.427598,-0.46854,19,32765
7.66503,0.403608,-0.469623,20,32765
7.64636,0.377403,-0.468637,19,32765
7.66757,0.352925,-0.468984,20,32765
7.64876,0.326889,-0.467525,20,32765
7.64976,0.301482,-0.468122,19,32765
7.67069,0.276958,-0.468895,20,32765
7.65167,0.25089,-0.466777,19,32765
7.65249,0.225248,-0.466454,20,32765
7.66321,0.200103,-0.466436,20,32765
7.62393,0.17371,-0.463778,21,32765
7.6145,0.148581,-0.462871,20,32765
7.60507,0.123518,-0.460461,21,32765
7.60546,0.0982366,-0.460088,21,32765
7.60585,0.0734506,-0.458324,21,32765
7.6061,0.0485568,-0.457518,21,32765
7.55637,0.0232869,-0.453462,14,32765
7.56651,-0.00177028,-0.452085,11,32765
7.6664,-0.0276113,-0.455947,11,32765
0,-0,-0,0,32765
0,-0,-0,0,32765
8.0455,-0.107935,-0.471048,11,32765
7.91678,2.64336,-0.476329,20,32765
7.93509,2.62008,-0.475914,22,32765
8.01038,2.61485,-0.479593,24,32765
7.94302,2.56354,-0.475631,16,32765
7.961,2.5403,-0.47565,15,32765
7.93113,2.50215,-0.474661,15,32765
7.89157,2.46141,-0.472185,16,32765
7.95689,2.45288,-0.47634,16,32765
7.90764,2.40886,-0.474285,16,32765
7.88697,2.3736,-0.473576,16,32765
7.91391,2.35306,-0.475413,14,32765
7.96936,2.34122,-0.479991,13,32765
7.99625,2.32019,-0.481962,17,32765
8.04217,2.30463,-0.486317,24,32765
8.03067,2.27193,-0.486118,20,32765
8.07668,2.25539,-0.490386,25,32765
8.11306,2.236,-0.493442,22,32765
8.07234,2.19531,-0.492307,21,32765
8.07957,2.1682,-0.493794,21,32765
8.06742,2.13587,-0.494353,21,32765
14.4007,3.76097,-0.885539,33,32765
14.3936,3.70824,-0.885977,67,32765
14.4251,3.66491,-0.890325,44,32765
14.4564,3.62141,-0.896162,32,32765
14.4587,3.57008,-0.898476,13,32765
0,0,-0,0,32765
0,0,-0,0,32765
0,0,-0,0,32765
0,0,-0,0,32765
0,0,-0,0,32765
14.4781,3.26526,-0.915536,12,32765
14.528,3.22441,-0.921273,17,32765
14.5092,3.16907,-0.924303,15,32765
14.4904,3.11369,-0.924334,15,32765
14.5007,3.0642,-0.928836,15,32765
14.5303,3.01863,-0.934869,16,32765
14.5306,2.96702,-0.93769,16,32765
14.5698,2.92252,-0.94393,17,32765
14.883,2.93264,-0.966816,11,32765
15.6275,3.02385,-1.01912,14,32765
15.7257,2.98786,-1.02821,16,32765
7.96581,1.48586,-0.522045,18,32765
7.9804,1.46079,-0.525584,23,32765
7.99498,1.43571,-0.527861,22,32765
7.9899,1.40632,-0.529828,23,32765
7.95522,1.37207,-0.52921,23,32765
7.7827,1.31472,-0.51888,18,32765
7.78704,1.28803,-0.520656,20,32765
7.76169,1.25693,-0.520276,19,32765
7.76575,1.23049,-0.522878,19,32765
7.73027,1.19814,-0.522419,19,32765
7.73427,1.17158,-0.523536,19,32765
7.7184,1.14193,-0.524177,20,32765
7.72216,1.1155,-0.525628,20,32765
7.70604,1.0864,-0.526006,20,32765
7.75893,1.06742,-0.531133,20,32765
7.73272,1.03738,-0.530348,21,32765
7.71629,1.00839,-0.531095,20,32765
7.70967,0.980935,-0.531871,20,32765
7.69305,0.952504,-0.531643,18,32765
7.65644,0.922018,-0.530789,18,32765
7.50085,0.87834,-0.520272,18,32765
7.464,0.848917,-0.518588,17,32765
7.4667,0.823913,-0.520085,17,32765
7.48923,0.800352,-0.522821,21,32765
7.64073,0.79014,-0.533805,20,32765
7.66317,0.766438,-0.535577,20,32765
7.6656,0.74035,-0.537389,21,32765
7.64811,0.712911,-0.536819,21,32765
7.65037,0.687009,-0.538373,21,32765
7.63277,0.659367,-0.537098,21,32765
7.65478,0.635104,-0.539372,21,32765
7.65689,0.609093,-0.53942,21,32765
7.63893,0.582027,-0.538874,20,32765
7.63076,0.555974,-0.539723,19,32765
7.6425,0.531657,-0.540299,21,32765
7.65417,0.506925,-0.541163,22,32765
7.65584,0.481215,-0.541028,23,32765
7.6175,0.453287,-0.539229,21,32765
7.62893,0.428276,-0.540017,22,32765
7.65023,0.404272,-0.54129,23,32765
7.6515,0.379034,-0.541527,22,32765
7.63285,0.352635,-0.539247,22,32765
7.65392,0.328356,-0.540417,22,32765
7.61506,0.301288,-0.538197,22,32765
7.62602,0.276455,-0.538458,21,32765
7.60702,0.250466,-0.536158,21,32765
7.62778,0.225498,-0.537242,21,32765
7.60859,0.199585,-0.535217,21,32765
7.60923,0.174218,-0.534989,21,32765
7.60978,0.149267,-0.53469,21,32765
7.5904,0.123991,-0.531489,21,32765
7.62073,0.0990816,-0.533211,22,32765
7.60118,0.0739863,-0.530053,22,32765
7.62139,0.0491719,-0.530638,23,32765
7.60163,0.0238771,-0.528188,22,32765
7.61179,-0.00139611,-0.526895,24,32765
7.58195,-0.0269911,-0.522744,23,32765
7.62185,-0.0527137,-0.523643,23,32765
7.61182,-0.0777564,-0.520587,23,32765
7.59178,-0.101728,-0.516394,21,32765
7.88295,2.62331,-0.446844,17,32765
7.91943,2.60737,-0.454651,17,32765
7.94653,2.58766,-0.462235,21,32765
7.91662,2.54946,-0.465053,16,32765
7.94363,2.52951,-0.471955,14,32765
7.93272,2.49683,-0.476063,14,32765
7.98823,2.4856,-0.484062,14,32765
7.95799,2.4473,-0.486557,14,32765
7.93706,2.41248,-0.48901,14,32765
7.93506,2.38368,-0.492825,14,32765
7.95219,2.36016,-0.498389,14,32765
7.93098,2.32546,-0.500221,14,32765
7.97689,2.30966,-0.507,13,32765
8.04187,2.29951,-0.514817,14,32765
8.05881,2.27558,-0.518999,20,32765
8.0372,2.24074,-0.521707,19,32765
8.06359,2.21951,-0.525924,19,32765
8.0997,2.20007,-0.531716,21,32765
8.07801,2.16489,-0.532377,19,32765
8.08501,2.13772,-0.535875,18,32765
8.07267,2.10532,-0.537858,18,32765
8.11812,2.08826,-0.543471,18,32765
8.12481,2.06115,-0.546879,14,32765
0,0,-0,0,32765
14.5904,3.59759,-0.991209,11,32765
0,0,-0,0,32765
0,0,-0,0,32765
0,0,-0,0,32765
0,0,-0,0,32765
0,0,-0,0,32765
0,0,-0,0,32765
0,0,-0,0,32765
0,0,-0,11,32765
14.544,3.11985,-1.02293,14,32765
14.5934,3.07853,-1.02879,13,32765
14.623,3.03301,-1.03368,14,32765
14.633,2.98374,-1.03681,14,32765
14.6232,2.9299,-1.03976,14,32765
14.5936,2.87232,-1.04134,15,32765
14.6226,2.82701,-1.04466,14,32765
14.6515,2.78121,-1.04902,12,32765
15.6901,2.924,-1.1269,12,32765
15.8371,2.89573,-1.14094,15,32765
15.7583,2.82595,-1.13647,22,32765
7.98695,1.40415,-0.577827,18,32765
8.00141,1.37884,-0.579481,19,32765
7.98625,1.3488,-0.578762,20,32765
8.01029,1.3251,-0.58219,19,32765
7.95555,1.28826,-0.579688,19,32765
7.79238,1.23415,-0.568966,16,32765
7.72758,1.19646,-0.564497,16,32765
7.73157,1.16952,-0.566297,16,32765
7.75519,1.14586,-0.568851,16,32765
7.78859,1.12379,-0.571853,15,32765
7.7626,1.09338,-0.571175,16,32765
7.74641,1.06434,-0.570898,16,32765
7.73011,1.03553,-0.570537,16,32765
7.74334,1.01065,-0.572901,17,32765
7.72687,0.981882,-0.572292,17,32765
7.73004,0.955728,-0.5737,18,32765
7.73321,0.929546,-0.574022,18,32765
7.73621,0.903437,-0.575293,17,32765
7.70939,0.873928,-0.574471,15,32765
7.73203,0.849982,-0.577229,16,32765
7.50672,0.799622,-0.560989,15,32765
7.44975,0.76801,-0.558115,15,32765
7.4522,0.743041,-0.559148,15,32765
7.52407,0.724471,-0.565622,16,32765
7.6058,0.706679,-0.572692,18,32765
7.68744,0.688287,-0.58063,17,32765
7.69963,0.663179,-0.581752,17,32765
7.67184,0.63476,-0.581647,18,32765
7.67387,0.608648,-0.582755,17,32765
7.67578,0.582777,-0.584096,17,32765
7.67756,0.556755,-0.586128,18,32765
7.67929,0.530901,-0.587425,17,32765
7.66103,0.504052,-0.587004,18,32765
7.66252,0.478661,-0.58882,18,32765
7.654,0.452807,-0.589406,20,32765
7.6752,0.428598,-0.593019,19,32765
7.67648,0.403131,-0.594285,20,32765
7.65782,0.376849,-0.593199,19,32765
7.66882,0.351572,-0.596313,18,32765
7.67973,0.326495,-0.599421,19,32765
7.66074,0.300269,-0.599135,19,32765
7.66153,0.274492,-0.601377,19,32765
7.64237,0.248322,-0.601209,19,32765
7.64297,0.222495,-0.603719,19,32765
7.66348,0.197678,-0.606721,19,32765
7.6041,0.170721,-0.604497,20,32765
7.58458,0.145042,-0.604319,20,32765
7.60478,0.120419,-0.608068,20,32765
7.58498,0.0950414,-0.609262,20,32765
7.65481,0.0712127,-0.617476,21,32765
7.61498,0.0462187,-0.616103,21,32765
7.64483,0.0214235,-0.62052,20,32765
7.60473,-0.00351313,-0.620469,19,32765
7.60441,-0.0287092,-0.623701,19,32765
7.61405,-0.0536759,-0.6269,21,32765
7.58365,-0.0780948,-0.627895,21,32765
7.57305,-0.102521,-0.631183,20,32765
7.89525,2.63512,-0.526118,27,32765
7.8938,2.60657,-0.53167,22,32765
7.91135,2.58378,-0.538781,23,32765
7.97639,2.57628,-0.54773,25,32765
7.94641,2.53785,-0.550916,17,32765
7.97357,2.51709,-0.557506,16,32765
7.94336,2.47892,-0.559965,16,32765
7.9131,2.44068,-0.562064,16,32765
7.9017,2.40882,-0.564901,16,32765
7.91878,2.38582,-0.569984,15,32765
7.91676,2.35659,-0.574251,16,32765
7.88598,2.3191,-0.575094,16,32765
7.92224,2.30062,-0.581527,15,32765
7.93917,2.27687,-0.586345,13,32765
8.01361,2.26952,-0.594855,19,32765
8.04,2.24817,-0.600852,26,32765
8.01833,2.2136,-0.601656,20,32765
8.10248,2.20736,-0.611344,25,32765
8.129,2.18503,-0.615376,24,32765
8.06857,2.13971,-0.61377,21,32765
8.08518,2.11485,-0.617776,21,32765
8.10165,2.09022,-0.621553,22,32765
8.06968,2.05326,-0.62198,19,32765
8.08606,2.02846,-0.624941,12,32765
0,0,-0,0,32765
14.493,3.5324,-1.13038,13,32765
0,0,-0,0,32765
0,0,-0,0,32765
0,0,-0,15,32765
0,0,-0,14,32765
0,0,-0,11,32765
0,0,-0,16,32765
0,0,-0,0,32765
14.493,3.11827,-1.15979,14,32765
14.5814,3.08526,-1.16915,17,32765
14.5232,3.02137,-1.16718,16,32765
14.5721,2.9803,-1.17344,15,32765
14.5135,2.91671,-1.17224,15,32765
14.5817,2.87866,-1.18134,16,32765
14.6205,2.83516,-1.18565,16,32765
14.5515,2.7706,-1.18226,17,32765
14.8935,2.78398,-1.2133,12,32765
15.736,2.886,-1.28531,14,32765
15.7946,2.84109,-1.29122,12,32765
7.97069,1.40557,-0.65338,16,32765
7.96551,1.37686,-0.653518,22,32765
7.98967,1.35351,-0.655839,23,32765
7.99404,1.32647,-0.657841,23,32765
7.97869,1.29598,-0.658021,23,32765
7.84521,1.24635,-0.64815,20,32765
7.79036,1.20991,-0.643845,21,32765
7.78453,1.18118,-0.644847,20,32765
7.78847,1.15436,-0.645965,18,32765
7.7331,1.11926,-0.641886,19,32765
7.73671,1.09314,-0.643382,18,32765
7.74028,1.06684,-0.64456,20,32765
7.73388,1.0393,-0.644837,21,32765
7.72735,1.01175,-0.645647,20,32765
7.72078,0.984223,-0.645678,20,32765
7.71407,0.956793,-0.646259,21,32765
7.71725,0.930596,-0.646584,20,32765
7.72025,0.904471,-0.647855,20,32765
7.71325,0.877191,-0.648416,19,32765
7.71608,0.850983,-0.649697,18,32765
7.58012,0.810077,-0.638812,18,32765
7.5034,0.776083,-0.633717,18,32765
7.46622,0.746899,-0.631406,18,32765
7.50828,0.725357,-0.636022,17,32765
7.54034,0.702945,-0.639636,22,32765
7.66159,0.688291,-0.651688,21,32765
7.6837,0.664061,-0.653749,21,32765
7.65593,0.635621,-0.65336,22,32765
7.66789,0.610286,-0.655317,21,32765
7.66979,0.584366,-0.656659,20,32765
7.67156,0.558296,-0.65869,20,32765
7.67329,0.532394,-0.659989,20,32765
7.65504,0.505493,-0.65938,20,32765
7.65652,0.480056,-0.661196,21,32765
7.61817,0.452382,-0.659108,23,32765
7.66919,0.429901,-0.66549,23,32765
7.65057,0.403338,-0.665027,24,32765
7.65182,0.378055,-0.665484,23,32765
7.62299,0.350899,-0.665217,22,32765
7.62391,0.325485,-0.667536,22,32765
7.64475,0.300942,-0.670545,23,32765
7.62561,0.274436,-0.671032,22,32765
7.63632,0.249291,-0.673304,24,32765
7.6369,0.223417,-0.675813,23,32765
7.63748,0.19804,-0.677237,23,32765
7.63787,0.172446,-0.679759,23,32765
7.63828,0.146969,-0.681176,23,32765
7.63853,0.121788,-0.683348,23,32765
7.62868,0.0963579,-0.685261,25,32765
7.61876,0.0715818,-0.686965,25,32765
7.60882,0.0468207,-0.687909,25,32765
7.60876,0.021897,-0.689897,25,32765
7.59854,-0.00300014,-0.692178,24,32765
7.59819,-0.0282403,-0.695408,24,32765
7.61775,-0.0533203,-0.699614,24,32765
7.60726,-0.0780202,-0.702166,26,32765
7.58668,-0.102451,-0.70445,25,32765
8.00713,2.68107,-0.662248,16,32765
7.96861,2.63917,-0.657575,15,32765
7.94867,2.60396,-0.655829,16,32765
7.95731,2.57767,-0.654892,17,32765
7.92783,2.53901,-0.652207,18,32765
7.95516,2.51857,-0.655141,29,32765
7.92533,2.48045,-0.652185,27,32765
7.99045,2.47214,-0.658252,25,32765
7.96988,2.43719,-0.656259,18,32765
7.95873,2.40519,-0.655144,14,32765
7.94763,2.37254,-0.654727,14,32765
7.94589,2.34318,-0.65458,14,32765
7.98233,2.32469,-0.658628,14,32765
7.96138,2.28922,-0.657274,14,32765
7.92099,2.24886,-0.654389,14,32765
7.95723,2.23005,-0.658415,14,32765
7.95496,2.20063,-0.658949,14,32765
8.01035,2.18687,-0.663937,13,32765
8.05592,2.17054,-0.669155,20,32765
8.06314,2.14335,-0.669865,21,32765
8.07979,2.11859,-0.67303,18,32765
8.12555,2.10091,-0.67676,22,32765
8.11323,2.06805,-0.677217,19,32765
8.12005,2.04039,-0.679437,18,32765
8.12677,2.01307,-0.680548,19,32765
8.09459,1.97632,-0.679219,18,32765
8.04295,1.93503,-0.675763,14,32765
0,0,-0,0,32765
0,0,-0,12,32765
0,0,-0,0,32765
0,0,-0,0,32765
0,0,-0,0,32765
0,0,-0,0,32765
0,0,-0,0,32765
0,0,-0,0,32765
0,0,-0,0,32765
14.5755,2.98428,-1.24689,14,32765
14.5853,2.93373,-1.25138,14,32765
14.5952,2.88337,-1.25387,14,32765
14.6242,2.83744,-1.25836,14,32765
14.5748,2.7764,-1.25673,14,32765
14.6231,2.73445,-1.26224,14,32765
14.6122,2.68148,-1.26543,16,32765
14.6405,2.63552,-1.27121,16,32765
15.6205,2.75773,-1.35752,12,32765
15.7373,2.72303,-1.37189,15,32765
15.7659,2.67229,-1.37738,12,32765
8.03969,1.33398,-0.704439,18,32765
7.98512,1.29664,-0.700736,19,32765
7.98936,1.2692,-0.702563,20,32765
7.95402,1.23579,-0.702027,19,32765
7.92864,1.20414,-0.699435,18,32765
7.77481,1.15334,-0.688616,18,32765
7.76876,1.12513,-0.68905,16,32765
7.76249,1.09725,-0.690449,17,32765
7.74625,1.06841,-0.690387,17,32765
7.76937,1.04516,-0.693829,17,32765
7.71348,1.01113,-0.689861,17,32765
7.72662,0.986122,-0.692329,16,32765
7.7496,0.961979,-0.695672,17,32765
7.78233,0.938984,-0.700435,17,32765
7.726,0.905788,-0.69617,17,32765
7.71898,0.878652,-0.696596,16,32765
7.70191,0.850704,-0.696649,16,32765
7.70461,0.824891,-0.697846,16,32765
7.7072,0.798965,-0.699331,17,32765
7.58092,0.75989,-0.689045,16,32765
7.48418,0.724527,-0.681583,15,32765
7.46667,0.697402,-0.680766,15,32765
7.48871,0.674078,-0.68364,15,32765
7.54043,0.653127,-0.689489,20,32765
7.68148,0.639679,-0.702333,18,32765
7.66359,0.612276,-0.702113,18,32765
7.69531,0.589032,-0.705495,17,32765
7.69713,0.56319,-0.706746,17,32765
7.66911,0.535497,-0.704521,17,32765
7.67081,0.509949,-0.705042,17,32765
7.68234,0.484778,-0.706757,16,32765
7.66401,0.458018,-0.705216,19,32765
7.66545,0.432378,-0.705666,20,32765
7.66675,0.406826,-0.706799,20,32765
7.66812,0.381397,-0.706107,19,32765
7.66927,0.355747,-0.706958,20,32765
7.65056,0.329367,-0.704687,19,32765
7.64164,0.303486,-0.704041,18,32765
7.65253,0.278145,-0.705331,19,32765
7.67339,0.253376,-0.706416,19,32765
7.67418,0.227944,-0.70652,19,32765
7.65505,0.202348,-0.703815,19,32765
7.63577,0.176574,-0.701919,19,32765
7.63633,0.151004,-0.701808,19,32765
7.6369,0.125321,-0.700659,20,32765
7.6572,0.100181,-0.702414,20,32765
7.59783,0.0744604,-0.695961,20,32765
7.58815,0.0496886,-0.694229,22,32765
7.64814,0.0249668,-0.698422,21,32765
7.59852,-0.000339329,-0.692378,20,32765
7.57868,-0.0257341,-0.6892,20,32765
7.56883,-0.0505002,-0.685746,20,32765
7.5888,-0.0756237,-0.684662,21,32765
7.56885,-0.100183,-0.680055,19,32765
7.95115,2.67065,-0.737103,44,32765
7.95049,2.64139,-0.735473,45,32765
7.9306,2.60615,-0.733453,46,32765
7.94876,2.58292,-0.733399,47,32765
7.94781,2.55334,-0.732971,49,32765
7.90871,2.51166,-0.729969,53,32765
7.90743,2.48255,-0.729274,56,32765
7.94397,2.46541,-0.733272,44,32765
7.97104,2.44512,-0.735397,30,32765
7.95995,2.41303,-0.734101,18,32765
7.93936,2.37744,-0.732624,16,32765
7.96632,2.35649,-0.735033,16,32765
7.95498,2.32391,-0.734956,16,32765
7.92449,2.28569,-0.732441,16,32765
7.90331,2.2508,-0.730861,16,32765
7.91076,2.22391,-0.732507,16,32765
7.91809,2.19722,-0.733836,15,32765
7.9254,2.17039,-0.73484,15,32765
7.99972,2.16209,-0.743098,17,32765
8.05505,2.14784,-0.748279,30,32765
8.0428,2.11543,-0.748851,22,32765
8.08853,2.09783,-0.752959,25,32765
8.11481,2.07488,-0.756826,26,32765
8.12165,2.04714,-0.759052,22,32765
8.08008,2.00773,-0.75565,21,32765
8.08661,1.98051,-0.757566,21,32765
8.07376,1.94849,-0.757184,20,32765
8.09959,1.9256,-0.760459,13,32765
0,0,-0,12,32765
0,0,-0,14,32765
0,0,-0,0,32765
0,0,-0,0,32765
0,0,-0,0,32765
0,0,-0,0,32765
0,0,-0,0,32765
0,0,-0,0,32765
14.737,3.02684,-1.4036,12,32765
14.5128,2.92833,-1.38579,15,32765
14.5519,2.88388,-1.39108,14,32765
14.5321,2.82846,-1.39107,14,32765
14.5022,2.77132,-1.39075,14,32765
14.5309,2.72582,-1.39475,14,32765
14.5885,2.68563,-1.40433,15,32765
14.5874,2.63432,-1.40746,22,32765
14.8313,2.62675,-1.43207,13,32765
15.6636,2.71893,-1.51655,25,32765
15.7216,2.67331,-1.52507,15,32765
7.983,1.32883,-0.776395,16,32765
7.98741,1.30119,-0.777864,23,32765
8.0015,1.27523,-0.780655,24,32765
7.97603,1.24322,-0.780715,23,32765
7.98023,1.21591,-0.780734,22,32765
7.83642,1.16627,-0.769404,18,32765
7.77132,1.12918,-0.763948,21,32765
7.72564,1.09563,-0.761373,19,32765
7.76856,1.07502,-0.76696,20,32765
7.74236,1.04498,-0.76572,20,32765
7.73586,1.01743,-0.766074,20,32765
7.73913,0.991018,-0.767664,19,32765
7.74235,0.964306,-0.769238,20,32765
7.71577,0.934096,-0.768381,19,32765
7.72866,0.909174,-0.770442,20,32765
7.71178,0.880826,-0.769791,20,32765
7.73428,0.857211,-0.773615,20,32765
7.70732,0.828031,-0.771847,19,32765
7.70002,0.800995,-0.772343,17,32765
7.67286,0.771799,-0.770784,18,32765
7.49702,0.72833,-0.754432,18,32765
7.49934,0.702946,-0.755427,18,32765
7.49165,0.676762,-0.755497,17,32765
7.48385,0.650574,-0.755812,21,32765
7.65452,0.639764,-0.772975,21,32765
7.64655,0.613172,-0.773567,22,32765
7.65841,0.588397,-0.775223,20,32765
7.68006,0.564067,-0.778482,20,32765
7.64215,0.53566,-0.774969,20,32765
7.61406,0.508144,-0.77247,19,32765
7.63551,0.483725,-0.775283,20,32765
7.64699,0.458835,-0.776579,21,32765
7.6385,0.43262,-0.776021,22,32765
7.62986,0.40656,-0.776141,22,32765
7.64117,0.38168,-0.776463,23,32765
7.64232,0.356051,-0.777313,23,32765
7.64351,0.330548,-0.776878,22,32765
7.64455,0.305016,-0.77715,22,32765
7.64549,0.279234,-0.777524,22,32765
7.61663,0.252771,-0.773748,23,32765
7.6373,0.228052,-0.775873,22,32765
7.61821,0.202506,-0.772986,23,32765
7.63874,0.177708,-0.77494,23,32765
7.6393,0.152058,-0.77483,23,32765
7.6001,0.125636,-0.769651,23,32765
7.62038,0.100552,-0.771595,23,32765
7.61082,0.0753707,-0.769614,24,32765
7.6111,0.050554,-0.768793,25,32765
7.60141,0.0254595,-0.766523,23,32765
7.61155,0.00023665,-0.766028,24,32765
7.59175,-0.0252735,-0.762659,25,32765
7.59188,-0.0502184,-0.760104,25,32765
7.61186,-0.0754869,-0.759199,25,32765
7.6019,-0.100324,-0.755385,25,32765
7.92785,2.65496,-0.701811,21,32765
7.93607,2.62875,-0.707543,25,32765
7.94423,2.6024,-0.713345,29,32765
7.94279,2.57322,-0.717628,32,32765
7.95087,2.5468,-0.722434,39,32765
7.97796,2.52599,-0.72905,44,32765
7.95742,2.4904,-0.730961,46,32765
7.9367,2.45513,-0.732614,41,32765
7.97296,2.43764,-0.73943,27,32765
7.98049,2.41146,-0.74402,17,32765
7.99755,2.38806,-0.748857,14,32765
7.95735,2.34745,-0.747691,14,32765
7.96472,2.32085,-0.752217,14,32765
7.9722,2.2941,-0.755066,14,32765
7.96027,2.26187,-0.757714,14,32765
7.93882,2.22642,-0.759302,14,32765
7.95568,2.2021,-0.762889,14,32765
7.94357,2.16982,-0.764489,14,32765
7.9697,2.14832,-0.769867,14,32765
7.98609,2.12441,-0.774087,13,32765
8.05064,2.11285,-0.782691,21,32765
8.10554,2.09834,-0.790714,24,32765
8.08334,2.06353,-0.791077,18,32765
8.10935,2.04077,-0.796013,23,32765
8.1159,2.01327,-0.799322,20,32765
8.1032,1.98047,-0.800194,18,32765
8.10956,1.95295,-0.803384,18,32765
8.09652,1.92075,-0.804189,18,32765
8.13177,1.90018,-0.809788,27,32765
8.13775,1.87312,-0.812739,26,32765
0,0,-0,0,32765
0,0,-0,13,32765
0,0,-0,0,32765
0,0,-0,0,32765
0,0,-0,0,32765
0,0,-0,19,32765
0,0,-0,0,32765
8.02757,1.62018,-0.816086,11,32765
7.94494,1.5754,-0.809771,11,32765
14.5913,2.84223,-1.48929,18,32765
14.5811,2.78843,-1.4909,17,32765
14.5608,2.73289,-1.49244,14,32765
8.00411,1.47388,-0.821179,13,32765
8.03821,1.45168,-0.826987,14,32765
8.02333,1.42105,-0.826339,15,32765
8.04749,1.39696,-0.83092,16,32765
8.01278,1.36323,-0.828118,17,32765
8.03679,1.33934,-0.832,18,32765
8.0214,1.3088,-0.832526,18,32765
8.01587,1.27989,-0.832606,19,32765
8.00037,1.24914,-0.832676,19,32765
8.00442,1.22145,-0.834822,19,32765
7.96911,1.18786,-0.832038,19,32765
7.99263,1.16314,-0.836303,19,32765
7.9767,1.13316,-0.835587,19,32765
7.86215,1.0893,-0.824877,16,32765
7.77685,1.05068,-0.817738,18,32765
7.75078,1.02036,-0.814753,16,32765
7.78355,0.997596,-0.820528,16,32765
7.7571,0.967711,-0.818861,16,32765
7.78984,0.944834,-0.823238,17,32765
7.73354,0.911665,-0.81863,17,32765
7.73637,0.885711,-0.820356,17,32765
7.72926,0.858245,-0.82122,16,32765
7.73201,0.831994,-0.82235,16,32765
7.73462,0.805401,-0.824243,17,32765
7.69753,0.775293,-0.821767,16,32765
7.73956,0.753075,-0.827368,16,32765
7.72212,0.724949,-0.826662,16,32765
7.70453,0.697308,-0.826045,16,32765
7.59763,0.661428,-0.81694,16,32765
7.4709,0.624846,-0.804217,16,32765
7.45298,0.597842,-0.803804,16,32765
7.48455,0.574748,-0.808494,15,32765
7.55573,0.554495,-0.817199,18,32765
7.66652,0.536443,-0.830417,17,32765
7.67803,0.511398,-0.83299,18,32765
7.69933,0.486806,-0.837253,16,32765
7.67104,0.459055,-0.835062,16,32765
7.67231,0.433607,-0.836952,16,32765
7.68352,0.408113,-0.839347,17,32765
7.6549,0.38101,-0.837537,17,32765
7.66583,0.356001,-0.840688,17,32765
7.65686,0.329811,-0.841296,17,32765
7.64774,0.303906,-0.84242,17,32765
7.63863,0.27781,-0.842763,17,32765
7.61947,0.251423,-0.842271,16,32765
7.63996,0.226893,-0.845984,16,32765
7.64046,0.20125,-0.847953,17,32765
7.60109,0.174952,-0.845779,17,32765
7.63124,0.150129,-0.850913,17,32765
7.6017,0.124183,-0.849233,17,32765
7.6118,0.0988664,-0.852278,17,32765
7.60188,0.0733464,-0.853518,17,32765
7.57208,0.0484018,-0.851831,17,32765
7.57194,0.0232862,-0.854121,18,32765
7.54179,-0.0015808,-0.854102,17,32765
7.48199,-0.0260711,-0.848572,17,32765
7.48155,-0.0506649,-0.851344,18,32765
7.37169,-0.073949,-0.842054,18,32765
7.27181,-0.0970947,-0.832905,18,32765
7.91872,2.66031,-0.780247,26,32765
7.93637,2.63719,-0.786918,21,32765
7.95399,2.61386,-0.793672,17,32765
7.98097,2.5938,-0.800725,16,32765
7.97014,2.56109,-0.803652,16,32765
7.98775,2.53713,-0.809513,16,32765
7.98624,2.50737,-0.81309,16,32765
7.96559,2.47191,-0.814486,16,32765
8.00185,2.45426,-0.821606,16,32765
7.93322,2.40482,-0.81836,15,32765
7.93117,2.37579,-0.8213,16,32765
7.95777,2.35506,-0.826585,16,32765
7.93649,2.32001,-0.828129,15,32765
7.94396,2.29327,-0.830975,15,32765
7.9416,2.26378,-0.834432,16,32765
7.90102,2.22291,-0.833715,15,32765
7.89868,2.19332,-0.835363,16,32765
7.91533,2.16904,-0.839812,16,32765
7.92222,2.14237,-0.843327,15,32765
7.93857,2.11855,-0.847627,16,32765
8.03188,2.1147,-0.859871,15,32765
8.05784,2.0927,-0.86526,29,32765
8.06455,2.06536,-0.868442,25,32765
8.11947,2.0499,-0.876688,24,32765
8.10673,2.01748,-0.877917,28,32765
8.12303,1.99172,-0.881751,22,32765
8.11008,1.95939,-0.882851,22,32765
8.09708,1.9271,-0.883475,22,32765
8.10326,1.89966,-0.886185,22,32765
8.10923,1.87261,-0.889132,26,32765
8.10547,1.8432,-0.89079,17,32765
8.06275,1.80526,-0.888397,18,32765
8.08809,1.78198,-0.892353,19,32765
8.08423,1.75196,-0.893483,20,32765
8.04137,1.71359,-0.890457,20,32765
8.05674,1.6879,-0.893544,21,32765
8.0621,1.66068,-0.896188,21,32765
8.06737,1.63356,-0.898555,22,32765
8.05311,1.6021,-0.899035,22,32765
8.07781,1.57866,-0.902906,34,32765
8.06344,1.54711,-0.902724,47,32765
8.06844,1.51937,-0.905241,30,32765
8.05392,1.48797,-0.904354,22,32765
8.05869,1.46022,-0.907162,22,32765
8.03407,1.42769,-0.905232,21,32765
8.02885,1.39839,-0.906691,22,32765
8.05297,1.37466,-0.910161,22,32765
8.03778,1.344,-0.909805,22,32765
8.04203,1.31659,-0.912374,22,32765
8.0071,1.28281,-0.909025,22,32765
7.9818,1.25047,-0.907794,22,32765
7.98585,1.22276,-0.909939,23,32765
7.99972,1.1965,-0.912386,23,32765
7.97408,1.16442,-0.911232,23,32765
7.97785,1.13723,-0.912581,23,32765
7.91264,1.10009,-0.906388,21,32765
7.78808,1.05586,-0.893902,20,32765
7.79162,1.02932,-0.894031,20,32765
7.76524,0.998743,-0.893303,20,32765
7.7684,0.972539,-0.894762,19,32765
7.77153,0.945957,-0.896014,19,32765
7.73502,0.915094,-0.893121,19,32765
7.73786,0.889062,-0.89485,19,32765
7.74063,0.862614,-0.896769,18,32765
7.73351,0.835184,-0.896758,18,32765
7.71636,0.806447,-0.896358,18,32765
7.70896,0.779315,-0.896956,18,32765
7.71141,0.753133,-0.89833,18,32765
7.69398,0.725024,-0.897434,17,32765
7.6962,0.699199,-0.898938,17,32765
7.63888,0.667571,-0.894596,18,32765
7.5024,0.629915,-0.879504,19,32765
7.49441,0.603525,-0.880075,18,32765
7.49625,0.577936,-0.881564,17,32765
7.46831,0.550289,-0.879267,19,32765
7.60868,0.534575,-0.897005,20,32765
7.62017,0.509654,-0.899663,19,32765
7.66124,0.486448,-0.906444,22,32765
7.66272,0.460535,-0.907491,21,32765
7.65407,0.434482,-0.908204,20,32765
7.61568,0.406334,-0.904802,20,32765
7.60691,0.380372,-0.90506,21,32765
7.58805,0.354067,-0.904745,21,32765
7.55924,0.327207,-0.902874,22,32765
7.47074,0.298386,-0.894375,23,32765
7.412,0.271,-0.888645,23,32765
7.33329,0.243329,-0.880765,23,32765
7.31403,0.218492,-0.879835,24,32765
7.21525,0.191244,-0.869757,24,32765
7.12627,0.165138,-0.861088,24,32765
7.04717,0.139676,-0.853173,24,32765
6.97793,0.114956,-0.846271,24,32765
6.81924,0.0894507,-0.828745,23,32765
6.72991,0.0657386,-0.819971,23,32765
6.67035,0.043376,-0.814179,22,32765
6.56103,0.0208438,-0.802836,22,32765
6.43168,-0.00075205,-0.789898,21,32765
6.36203,-0.0216369,-0.782405,21,32765
6.25247,-0.0418751,-0.771295,21,32765
6.13288,-0.0611187,-0.759223,21,32765
6.04311,-0.0803467,-0.749994,21,32765
8.09324,2.72773,-0.920333,14,32765
8.0835,2.69444,-0.917529,14,32765
8.03566,2.64889,-0.911954,14,32765
8.11993,2.647,-0.921018,14,32765
8.10964,2.61394,-0.9198,14,32765
8.0994,2.58036,-0.918659,14,32765
8.10793,2.55305,-0.919738,14,32765
8.07837,2.51365,-0.917386,14,32765
8.03926,2.47164,-0.912662,14,32765
8.00929,2.43311,-0.909767,14,32765
8.01723,2.4061,-0.911593,14,32765
8.02503,2.37909,-0.913897,14,32765
8.03287,2.35186,-0.915483,14,32765
7.98325,2.30805,-0.911169,14,32765
7.98126,2.2784,-0.911561,14,32765
7.96963,2.24583,-0.911102,14,32765
7.95784,2.21348,-0.910734,14,32765
7.95535,2.18425,-0.911874,13,32765
8.00076,2.16774,-0.918901,14,32765
7.97899,2.13322,-0.917167,14,32765
7.96688,2.10072,-0.916458,14,32765
7.92563,2.06095,-0.913474,14,32765
7.97085,2.04377,-0.920262,14,32765
7.99685,2.02135,-0.924403,13,32765
8.0613,2.00901,-0.932167,20,32765
8.08707,1.98625,-0.937259,23,32765
8.0741,1.95449,-0.937256,18,32765
8.12866,1.93881,-0.945485,24,32765
8.12541,1.90877,-0.945696,19,32765
8.11239,1.876,-0.945585,18,32765
8.09929,1.84284,-0.946054,19,32765
8.09565,1.81261,-0.94729,18,32765
8.10157,1.78468,-0.949743,19,32765
8.1074,1.75697,-0.951631,19,32765
8.11308,1.72945,-0.953633,18,32765
8.11868,1.70168,-0.955964,19,32765
8.08531,1.66591,-0.953199,19,32765
8.11008,1.64217,-0.958567,19,32765
8.11545,1.61461,-0.959876,19,32765
8.08166,1.57918,-0.957589,19,32765
8.08681,1.55122,-0.959887,19,32765
8.09185,1.52355,-0.961671,18,32765
8.03806,1.48507,-0.957632,19,32765
8.08196,1.46481,-0.96395,19,32765
8.04759,1.43039,-0.960804,19,32765
8.05225,1.40251,-0.962901,19,32765
8.06655,1.37663,-0.966097,20,32765
8.04158,1.344,-0.964734,19,32765
8.04593,1.31628,-0.966742,19,32765
8.04041,1.28721,-0.966874,19,32765
8.02493,1.25629,-0.966729,20,32765
8.02894,1.22903,-0.968513,19,32765
8.03297,1.20115,-0.970035,19,32765
7.99751,1.16767,-0.967452,20,32765
8.00129,1.1402,-0.968976,20,32765
7.98525,1.10991,-0.968631,20,32765
7.96916,1.08032,-0.967171,20,32765
7.93317,1.0483,-0.964118,20,32765
7.75924,0.998699,-0.944041,15,32765
7.74267,0.970142,-0.943123,15,32765
7.72611,0.941291,-0.941708,16,32765
7.68967,0.910234,-0.938285,16,32765
7.65315,0.879572,-0.934444,16,32765
7.6757,0.855873,-0.937818,16,32765
7.63899,0.825801,-0.933559,16,32765
7.64156,0.799622,-0.935252,16,32765
7.64423,0.773501,-0.935454,17,32765
7.62687,0.74539,-0.934678,18,32765
7.59975,0.716376,-0.930967,19,32765
7.54272,0.68531,-0.924497,19,32765
7.43618,0.650127,-0.911553,19,32765
7.35913,0.618234,-0.902586,19,32765
7.31163,0.589398,-0.89711,19,32765
7.30363,0.563896,-0.896352,19,32765
7.23609,0.534212,-0.8887,20,32765
7.18834,0.506286,-0.882665,19,32765
7.1702,0.480681,-0.880251,20,32765
7.12226,0.453481,-0.874013,21,32765
7.04443,0.424683,-0.864706,21,32765
7.09529,0.404338,-0.87116,20,32765
7.0669,0.379087,-0.867224,21,32765
6.94912,0.349634,-0.852994,20,32765
6.93049,0.325484,-0.849941,21,32765
6.90178,0.300971,-0.846449,20,32765
6.87308,0.276595,-0.842101,18,32765
6.81445,0.25128,-0.834926,18,32765
6.66652,0.223398,-0.816128,19,32765
6.70699,0.20203,-0.820447,18,32765
6.72749,0.179863,-0.822781,18,32765
6.63894,0.155495,-0.810145,19,32765
6.56005,0.131603,-0.800358,19,32765
6.67963,0.111873,-0.814212,20,32765
6.67011,0.0897834,-0.812394,19,32765
6.50169,0.0660902,-0.791298,19,32765
6.45245,0.04436,-0.783497,20,32765
6.49239,0.0227715,-0.787345,19,32765
6.42312,0.00123316,-0.777424,18,32765
6.50262,-0.0201876,-0.786139,19,32765
6.43328,-0.0414891,-0.775615,19,32765
6.40349,-0.0628259,-0.770598,19,32765
6.33405,-0.0835428,-0.75974,17,32765
7.99726,2.70442,-0.989916,15,32765
8.05344,2.69341,-0.995089,15,32765
8.05283,2.66344,-0.994785,15,32765
8.04267,2.63058,-0.992949,15,32765
8.03236,2.59769,-0.991545,15,32765
8.04103,2.57033,-0.992552,15,32765
8.0306,2.53715,-0.991294,15,32765
8.05793,2.51567,-0.995586,15,32765
8.03788,2.47948,-0.992747,16,32765
8.0365,2.44953,-0.993007,15,32765
8.04451,2.42235,-0.994847,15,32765
7.99525,2.37818,-0.990096,15,32765
8.00309,2.35097,-0.991683,15,32765
8.01077,2.32374,-0.993908,16,32765
7.98975,2.28845,-0.99185,15,32765
7.95908,2.25036,-0.988839,15,32765
7.9282,2.21261,-0.985912,15,32765
7.9353,2.18603,-0.988149,15,32765
7.94234,2.15911,-0.99077,15,32765
7.94935,2.13242,-0.992342,15,32765
7.96606,2.10755,-0.995045,16,32765
7.92489,2.06767,-0.991601,16,32765
7.95086,2.04549,-0.99636,16,32765
7.93835,2.0133,-0.995861,16,32765
7.96418,1.99148,-0.99935,15,32765
8.07661,1.99036,-1.01551,27,32765
8.08296,1.96323,-1.01775,24,32765
8.09887,1.93823,-1.02159,26,32765
8.12462,1.91503,-1.02536,27,32765
8.13098,1.88666,-1.02751,22,32765
8.11793,1.85334,-1.02781,22,32765
8.12402,1.82513,-1.03019,22,32765
8.09121,1.78846,-1.02774,22,32765
8.09706,1.7607,-1.02963,22,32765
8.08334,1.72898,-1.02916,22,32765
8.10835,1.70531,-1.03397,22,32765
8.07504,1.66948,-1.03083,22,32765
8.06089,1.6378,-1.03141,22,32765
8.07598,1.61228,-1.03397,23,32765
8.08117,1.58452,-1.03629,23,32765
8.0571,1.55086,-1.03484,23,32765
8.04265,1.51952,-1.03412,24,32765
8.02792,1.48834,-1.03454,24,32765
8.03274,1.46094,-1.03619,24,32765
7.97887,1.42312,-1.03015,25,32765
7.93464,1.38686,-1.02591,25,32765
7.89998,1.35293,-1.02285,25,32765
7.85541,1.3175,-1.01863,25,32765
7.81072,1.28231,-1.01424,25,32765
7.75615,1.2461,-1.00788,25,32765
7.68176,1.20684,-0.999825,24,32765
7.62679,1.17164,-0.993873,23,32765
7.53255,1.13036,-0.982529,23,32765
7.46746,1.0942,-0.975595,24,32765
7.31393,1.04601,-0.95648,22,32765
7.2485,1.01116,-0.949345,23,32765
7.1928,0.978633,-0.942466,23,32765
7.05823,0.936105,-0.925977,24,32765
6.97268,0.900766,-0.915681,24,32765
6.93615,0.872306,-0.911842,24,32765
6.86024,0.838915,-0.902372,23,32765
6.79398,0.807226,-0.894534,23,32765
6.69808,0.772711,-0.882422,23,32765
6.64143,0.743362,-0.875474,22,32765
6.59454,0.715621,-0.869468,22,32765
6.50803,0.683635,-0.859216,21,32765
6.45112,0.655312,-0.851578,21,32765
6.39395,0.627346,-0.845144,22,32765
6.33686,0.599697,-0.837255,23,32765
6.31902,0.576424,-0.835314,23,32765
6.25177,0.548785,-0.826503,22,32765
6.18437,0.521667,-0.817979,21,32765
6.1465,0.497526,-0.81325,21,32765
6.09868,0.472838,-0.807096,21,32765
6.04083,0.447866,-0.799959,21,32765
6.02252,0.426006,-0.797379,21,32765
5.96458,0.401611,-0.789539,21,32765
5.96592,0.38155,-0.789408,22,32765
5.89786,0.357177,-0.780595,21,32765
5.85937,0.335458,-0.775666,21,32765
5.84069,0.314799,-0.772811,21,32765
5.81196,0.293846,-0.769188,20,32765
5.70405,0.269229,-0.754266,22,32765
5.74452,0.251803,-0.759635,22,32765
5.7157,0.231253,-0.755125,19,32765
5.62727,0.208665,-0.743444,21,32765
5.628,0.189703,-0.742965,21,32765
5.58904,0.169398,-0.737285,21,32765
5.52021,0.148563,-0.728059,22,32765
5.52086,0.130231,-0.726635,21,32765
5.54111,0.112035,-0.72916,20,32765
5.51178,0.0931294,-0.724691,22,32765
5.50221,0.0748248,-0.722887,21,32765
5.38352,0.0554182,-0.706806,22,32765
5.37395,0.0375866,-0.704039,22,32765
5.43364,0.0196535,-0.711019,20,32765
5.40409,0.00157756,-0.70587,22,32765
5.29509,-0.01596,-0.690892,20,32765
5.38448,-0.0342912,-0.70076,21,32765
5.35474,-0.0521569,-0.695697,20,32765
5.32506,-0.06991,-0.689735,20,32765
8.04978,2.71451,-0.966957,14,32765
8.09542,2.70081,-0.978772,14,32765
8.10345,2.67448,-0.984544,14,32765
8.11147,2.6475,-0.991359,13,32765
8.08159,2.60856,-0.992905,14,32765
8.05166,2.56961,-0.994011,14,32765
8.13518,2.56696,-1.00876,14,32765
8.01975,2.50156,-0.998693,14,32765
8.0748,2.48947,-1.01009,13,32765
8.12045,2.47432,-1.01906,14,32765
8.03312,2.41819,-1.01185,13,32765
8.0026,2.37964,-1.01185,13,32765
8.05782,2.36603,-1.02229,14,32765
8.02727,2.32703,-1.02192,14,32765
8.01558,2.29423,-1.02327,14,32765
8.02271,2.2668,-1.02847,14,32765
7.99164,2.22885,-1.02737,14,32765
7.96984,2.19403,-1.02797,14,32765
7.98638,2.16972,-1.03227,14,32765
7.93556,2.12764,-1.02878,13,32765
7.9903,2.11332,-1.03823,14,32765
7.99678,2.08657,-1.04238,14,32765
7.9456,2.04529,-1.03782,14,32765
7.9521,2.01846,-1.0406,14,32765
7.9391,1.98695,-1.04176,15,32765
7.96472,1.96408,-1.0481,18,32765
7.90356,1.92015,-1.04245,16,32765
7.987,1.91142,-1.05486,21,32765
7.92557,1.86801,-1.0488,21,32765
7.85417,1.82316,-1.04164,20,32765
7.7924,1.78067,-1.03504,19,32765
7.71094,1.73447,-1.02661,19,32765
7.54227,1.66963,-1.00526,18,32765
7.42171,1.61615,-0.990879,18,32765
7.32021,1.56788,-0.979165,19,32765
7.21861,1.51969,-0.967409,18,32765
7.07796,1.46454,-0.949609,19,32765
7.00492,1.42436,-0.941491,19,32765
6.86372,1.37104,-0.923718,18,32765
6.74172,1.32267,-0.908124,18,32765
6.62915,1.27707,-0.894175,18,32765
6.65265,1.25818,-0.898947,20,32765
6.54951,1.21571,-0.885675,18,32765
6.42667,1.17018,-0.869882,19,32765
6.34262,1.13232,-0.859688,19,32765
6.35608,1.11212,-0.862311,20,32765
6.13499,1.05167,-0.833245,18,32765
6.10903,1.02601,-0.830426,17,32765
6.08306,1.0003,-0.82718,17,32765
5.97868,0.962093,-0.813522,19,32765
5.93296,0.933272,-0.807831,18,32765
5.89685,0.906443,-0.803655,19,32765
5.72343,0.859587,-0.780456,18,32765
5.72616,0.840163,-0.781544,17,32765
5.64057,0.808078,-0.770356,18,32765
5.51565,0.770838,-0.75351,17,32765
5.43961,0.740909,-0.743877,18,32765
5.50101,0.729764,-0.752547,18,32765
5.46402,0.705662,-0.748402,18,32765
5.38765,0.677171,-0.738301,18,32765
5.31113,0.649284,-0.728234,20,32765
5.26403,0.625378,-0.722046,19,32765
5.20691,0.600771,-0.715044,17,32765
5.17932,0.57959,-0.711527,18,32765
5.0531,0.547966,-0.694876,19,32765
5.02527,0.527418,-0.691701,18,32765
4.93828,0.501093,-0.67997,20,32765
5.03852,0.49393,-0.693838,19,32765
4.9118,0.46461,-0.67735,17,32765
4.84417,0.441777,-0.668514,18,32765
4.78626,0.420156,-0.66156,16,32765
4.84673,0.408925,-0.670862,17,32765
4.77895,0.387055,-0.6614,17,32765
4.61222,0.357773,-0.639016,16,32765
4.59352,0.340674,-0.637172,17,32765
4.67363,0.330664,-0.648669,18,32765
4.56588,0.307449,-0.634551,16,32765
4.5075,0.288347,-0.626783,16,32765
4.53796,0.275055,-0.631931,18,32765
4.48932,0.257088,-0.625739,17,32765
4.50978,0.243127,-0.629557,16,32765
4.40162,0.222346,-0.615466,17,32765
4.45172,0.209839,-0.622992,17,32765
4.36323,0.19084,-0.611491,16,32765
4.1658,0.168146,-0.584786,16,32765
4.20577,0.15559,-0.591433,16,32765
4.22589,0.142083,-0.595441,17,32765
4.1965,0.127147,-0.592302,18,32765
4.11761,0.111014,-0.581894,17,32765
4.17722,0.0987901,-0.591152,19,32765
4.1971,0.0849773,-0.595579,18,32765
4.11806,0.0694308,-0.585144,18,32765
4.03893,0.0545077,-0.574854,16,32765
4.00918,0.0407446,-0.572119,16,32765
4.019,0.0277093,-0.574898,17,32765
3.91992,0.0141306,-0.561798,16,32765
3.94941,0.00123504,-0.567653,16,32765
3.84031,-0.0115801,-0.553418,16,32765
3.83013,-0.0244268,-0.553555,17,32765
3.81987,-0.0371387,-0.553902,17,32765
3.75023,-0.0488408,-0.545434,16,32765
8.04744,2.72295,-1.0478,15,32765
8.08359,2.70604,-1.05877,15,32765
8.02568,2.65783,-1.05586,15,32765
8.0619,2.6403,-1.06637,15,32765
8.04145,2.60447,-1.06877,15,32765
8.02098,2.56856,-1.07074,15,32765
8.04763,2.54802,-1.07862,16,32765
8.03641,2.51534,-1.0813,16,32765
8.06298,2.49435,-1.08934,16,32765
8.03271,2.45598,-1.08841,16,32765
8.00239,2.41721,-1.08796,17,32765
7.99091,2.38433,-1.09018,17,32765
7.97948,2.35109,-1.09198,18,32765
7.94892,2.31225,-1.09119,19,32765
7.90861,2.27141,-1.0884,20,32765
7.86796,2.23075,-1.08696,21,32765
7.77955,2.17719,-1.07748,21,32765
7.7194,2.13243,-1.07238,20,32765
7.57317,2.06458,-1.05407,20,32765
7.4551,2.00574,-1.04047,19,32765
7.36569,1.95488,-1.0301,20,32765
7.22789,1.8925,-1.01377,20,32765
7.08983,1.83135,-0.996239,19,32765
7.03803,1.79267,-0.990619,20,32765
6.86099,1.72312,-0.968123,20,32765
6.74148,1.66823,-0.953734,20,32765
6.68908,1.63078,-0.948301,21,32765
6.52102,1.56605,-0.925573,20,32765
6.48749,1.53443,-0.922451,20,32765
6.33797,1.47638,-0.902998,20,32765
6.2462,1.43236,-0.891156,20,32765
6.20241,1.40006,-0.886788,20,32765
6.08125,1.35095,-0.870319,20,32765
5.98886,1.30874,-0.858417,19,32765
5.90588,1.26944,-0.84797,20,32765
5.78407,1.22201,-0.831915,20,32765
5.72991,1.18983,-0.824937,20,32765
5.62699,1.14826,-0.811437,20,32765
5.47539,1.09763,-0.790505,19,32765
5.55668,1.09409,-0.802888,20,32765
5.49215,1.06183,-0.794537,22,32765
5.43713,1.032,-0.787858,22,32765
5.26528,0.980858,-0.763462,20,32765
5.1516,0.941407,-0.747605,20,32765
5.1936,0.930554,-0.754642,21,32765
5.19664,0.912567,-0.755709,22,32765
5.12155,0.881154,-0.745538,21,32765
5.00723,0.844049,-0.729453,21,32765
4.99048,0.823651,-0.727219,22,32765
4.95408,0.800155,-0.722334,20,32765
4.83944,0.764078,-0.706029,20,32765
4.78327,0.738001,-0.698411,19,32765
4.75634,0.71701,-0.69482,19,32765
4.79778,0.706588,-0.701453,19,32765
4.69229,0.674759,-0.686421,19,32765
4.65532,0.653065,-0.681173,20,32765
4.62802,0.632765,-0.677804,19,32765
4.58108,0.610052,-0.671137,20,32765
4.58302,0.594161,-0.672171,19,32765
4.50639,0.568599,-0.661217,20,32765
4.49839,0.552069,-0.660381,19,32765
4.41175,0.526179,-0.647871,19,32765
4.47234,0.518054,-0.657472,20,32765
4.33637,0.487189,-0.637694,19,32765
4.34773,0.473365,-0.639946,21,32765
4.36891,0.460384,-0.643617,21,32765
4.30151,0.438259,-0.633886,20,32765
4.25372,0.418711,-0.626884,19,32765
4.20573,0.399477,-0.620627,19,32765
4.21682,0.386179,-0.622678,19,32765
4.15882,0.366628,-0.615006,19,32765
4.10075,0.347474,-0.60721,18,32765
4.0723,0.33126,-0.602919,19,32765
4.08316,0.318134,-0.605131,18,32765
4.03478,0.300578,-0.598608,20,32765
4.03571,0.286833,-0.599071,19,32765
3.94771,0.267059,-0.586726,19,32765
3.86956,0.248708,-0.575399,19,32765
3.9591,0.241129,-0.589504,19,32765
3.82154,0.219929,-0.569513,19,32765
3.87151,0.209775,-0.577784,19,32765
3.8523,0.195612,-0.575796,20,32765
3.84298,0.182119,-0.574848,19,32765
3.81381,0.167739,-0.571254,20,32765
3.73516,0.151638,-0.560336,18,32765
3.73551,0.13903,-0.561306,18,32765
3.71603,0.125737,-0.559413,19,32765
3.71628,0.113358,-0.560339,20,32765
3.71654,0.100925,-0.561032,19,32765
3.66731,0.0874107,-0.554333,19,32765
3.61795,0.0738868,-0.548263,19,32765
3.60819,0.0614324,-0.547469,18,32765
3.54893,0.0484485,-0.539316,19,32765
3.54887,0.0365863,-0.540637,19,32765
3.49936,0.0246063,-0.534298,19,32765
3.44985,0.0128762,-0.527685,18,32765
3.43978,0.00148201,-0.527566,18,32765
3.42969,-0.00996958,-0.527313,18,32765
3.37012,-0.0211597,-0.519571,19,32765
3.33026,-0.0320808,-0.515027,18,32765
3.30027,-0.0427172,-0.51183,19,32765
6.16479,2.09154,-0.88638,17,32765
6.09603,2.04595,-0.878973,17,32765
6.01779,1.998,-0.86846,17,32765
5.83579,1.9161,-0.843864,18,32765
5.87018,1.90572,-0.84975,19,32765
5.8857,1.88891,-0.853327,18,32765
5.62734,1.78515,-0.817256,17,32765
5.71813,1.7929,-0.831279,20,32765
5.67655,1.7591,-0.826019,19,32765
5.70112,1.74593,-0.830259,18,32765
5.6215,1.70073,-0.819253,18,32765
5.48474,1.63893,-0.799962,18,32765
5.43309,1.60334,-0.793239,17,32765
5.40986,1.57643,-0.7902,18,32765
5.36733,1.54449,-0.784828,17,32765
5.34384,1.51801,-0.781709,17,32765
5.19618,1.45703,-0.761126,16,32765
5.1914,1.43673,-0.760786,17,32765
5.14829,1.40605,-0.755162,17,32765
5.06678,1.36544,-0.743835,17,32765
5.15736,1.37078,-0.758063,18,32765
5.02775,1.31796,-0.739746,18,32765
5.06089,1.308,-0.744906,19,32765
4.92131,1.25399,-0.724662,19,32765
4.95416,1.24455,-0.730049,17,32765
4.91976,1.21817,-0.72553,18,32765
4.96213,1.21091,-0.732504,20,32765
4.83133,1.16166,-0.713555,18,32765
4.82547,1.14282,-0.71338,18,32765
4.7039,1.09682,-0.696196,15,32765
4.70757,1.08019,-0.697428,17,32765
4.65328,1.05034,-0.690089,17,32765
4.72444,1.04895,-0.701041,17,32765
4.65052,1.01561,-0.69086,18,32765
4.56676,0.980931,-0.678878,18,32765
4.55055,0.961164,-0.677244,16,32765
4.41801,0.917339,-0.65821,16,32765
4.49848,0.918033,-0.67116,16,32765
4.47239,0.896667,-0.66769,16,32765
4.37818,0.86213,-0.654491,16,32765
4.27413,0.826224,-0.639648,16,32765
4.36429,0.827887,-0.653959,18,32765
4.30862,0.801845,-0.646319,16,32765
4.37933,0.799276,-0.657747,18,32765
4.20659,0.752834,-0.632628,18,32765
4.27723,0.750236,-0.643853,16,32765
4.19185,0.720336,-0.632055,17,32765
4.19415,0.706011,-0.632974,18,32765
4.17683,0.688351,-0.631406,18,32765
4.10092,0.661568,-0.620335,17,32765
4.10302,0.647387,-0.621395,17,32765
4.10508,0.633137,-0.62249,18,32765
4.07774,0.614283,-0.61932,18,32765
4.06015,0.597062,-0.617407,17,32765
4.04251,0.580228,-0.615119,17,32765
3.97579,0.556601,-0.605687,17,32765
3.9971,0.545479,-0.609985,17,32765
3.88123,0.516167,-0.592614,17,32765
3.84362,0.497835,-0.587502,16,32765
3.93347,0.495948,-0.601634,17,32765
3.78778,0.464542,-0.580107,16,32765
3.79909,0.45279,-0.582054,16,32765
3.80046,0.439969,-0.582983,15,32765
3.73306,0.419183,-0.573194,16,32765
3.74419,0.407545,-0.575399,16,32765
3.7946,0.399825,-0.583725,16,32765
3.69752,0.376742,-0.569229,17,32765
3.66919,0.361143,-0.565266,17,32765
3.76871,0.358066,-0.580974,17,32765
3.71081,0.339936,-0.572053,18,32765
3.67247,0.323797,-0.566614,18,32765
3.65367,0.309603,-0.564732,18,32765
3.61528,0.294043,-0.55876,16,32765
3.62606,0.282574,-0.560577,17,32765
3.59742,0.26807,-0.556073,17,32765
3.58839,0.255226,-0.554934,17,32765
3.61874,0.244983,-0.559985,17,32765
3.53071,0.227047,-0.546763,16,32765
3.60053,0.2193,-0.55733,17,32765
3.57164,0.205404,-0.552801,17,32765
3.56239,0.192944,-0.551619,16,32765
3.51365,0.178367,-0.544129,15,32765
3.51422,0.166602,-0.544164,16,32765
3.52464,0.15531,-0.545615,16,32765
3.52514,0.143528,-0.545593,17,32765
3.51576,0.131399,-0.543827,16,32765
3.47669,0.118146,-0.537667,16,32765
3.47707,0.106392,-0.537621,16,32765
3.40824,0.0929097,-0.527038,16,32765
3.46788,0.0828981,-0.535774,17,32765
3.50773,0.0720234,-0.541457,16,32765
3.44869,0.0591802,-0.532076,16,32765
3.39951,0.046992,-0.524126,16,32765
3.36019,0.0354888,-0.517544,15,32765
3.4197,0.0248556,-0.525946,16,32765
3.41987,0.0137223,-0.525295,16,32765
3.4101,0.00222875,-0.52318,17,32765
3.43986,-0.00915312,-0.526931,17,32765
3.33121,-0.0199994,-0.509461,16,32765
3.45982,-0.0322463,-0.527828,17,32765
3.42036,-0.0431475,-0.520461,16,32765
5.03966,1.71593,-0.77576,21,32765
5.05426,1.70238,-0.780017,22,32765
5.01264,1.67022,-0.774183,21,32765
4.95209,1.63177,-0.766199,22,32765
4.93849,1.60898,-0.764814,21,32765
4.84005,1.55888,-0.750615,20,32765
4.83558,1.53947,-0.751067,21,32765
4.85939,1.5291,-0.75543,21,32765
4.70371,1.46285,-0.731833,19,32765
4.68949,1.44127,-0.730122,19,32765
4.6658,1.41665,-0.72688,19,32765
4.51887,1.35515,-0.704474,16,32765
4.49484,1.33121,-0.701357,17,32765
4.49924,1.31578,-0.702294,18,32765
4.46545,1.28958,-0.69768,17,32765
4.4602,1.27154,-0.697081,19,32765
4.41669,1.24291,-0.691109,18,32765
4.37312,1.21462,-0.684557,18,32765
4.41519,1.21017,-0.6917,18,32765
4.40955,1.1926,-0.691327,19,32765
4.25105,1.13396,-0.66721,17,32765
4.29299,1.12941,-0.674383,20,32765
4.26805,1.10706,-0.670669,18,32765
4.29085,1.0973,-0.674481,19,32765
4.25606,1.07304,-0.66945,20,32765
4.18279,1.03944,-0.658362,20,32765
4.19572,1.02759,-0.660979,18,32765
4.1318,0.997071,-0.651187,18,32765
4.08696,0.971434,-0.644674,19,32765
4.1575,0.972944,-0.656469,20,32765
4.05481,0.933801,-0.640818,19,32765
4.05795,0.919303,-0.6419,18,32765
3.99352,0.889906,-0.632016,19,32765
3.90955,0.856921,-0.619364,19,32765
3.96065,0.853863,-0.627833,20,32765
3.93439,0.834076,-0.624316,20,32765
3.88872,0.810414,-0.617652,20,32765
3.85257,0.789121,-0.612711,19,32765
3.83578,0.771881,-0.61038,21,32765
3.79948,0.750952,-0.605333,19,32765
3.79222,0.735795,-0.604785,20,32765
3.75578,0.715115,-0.599658,20,32765
3.74839,0.700196,-0.599067,21,32765
3.70206,0.678205,-0.592337,19,32765
3.68477,0.66193,-0.590273,19,32765
3.67718,0.647424,-0.589556,19,32765
3.65975,0.631284,-0.587663,19,32765
3.65202,0.617094,-0.586903,19,32765
3.61496,0.59803,-0.581836,19,32765
3.51938,0.569932,-0.566783,19,32765
3.62848,0.574719,-0.584993,20,32765
3.55223,0.549991,-0.573362,19,32765
3.4661,0.524173,-0.560273,18,32765
3.51662,0.519155,-0.569082,19,32765
3.44012,0.495705,-0.557023,19,32765
3.48079,0.489226,-0.564225,20,32765
3.45294,0.473091,-0.560608,19,32765
3.37617,0.450792,-0.5484,19,32765
3.4461,0.448141,-0.560312,20,32765
3.42792,0.433955,-0.557692,20,32765
3.39984,0.418662,-0.553791,19,32765
3.30317,0.395299,-0.53822,20,32765
3.36319,0.390957,-0.548625,20,32765
3.30556,0.372724,-0.5397,19,32765
3.36558,0.367873,-0.549937,19,32765
3.29801,0.348973,-0.539388,19,32765
3.3482,0.342608,-0.547984,20,32765
3.32963,0.329137,-0.545297,20,32765
3.24222,0.309388,-0.531297,19,32765
3.27271,0.301125,-0.536287,19,32765
3.25397,0.288179,-0.533627,19,32765
3.2646,0.277886,-0.536274,20,32765
3.27534,0.267616,-0.537996,19,32765
3.25651,0.254956,-0.53503,19,32765
3.18846,0.238718,-0.523775,19,32765
3.19904,0.228627,-0.525735,19,32765
3.18004,0.216337,-0.522921,18,32765
3.19053,0.206195,-0.525003,19,32765
3.14198,0.192347,-0.516794,19,32765
3.20171,0.18509,-0.526562,19,32765
3.14315,0.171149,-0.517146,19,32765
3.12398,0.15946,-0.514037,18,32765
3.18363,0.151787,-0.5238,20,32765
3.13484,0.138946,-0.515623,19,32765
3.16487,0.129647,-0.520469,19,32765
3.08643,0.11609,-0.507289,19,32765
3.07696,0.105265,-0.505626,19,32765
3.0773,0.0948311,-0.505585,18,32765
3.11704,0.0856202,-0.512167,19,32765
3.12724,0.0753739,-0.513401,19,32765
3.10781,0.0643946,-0.509788,19,32765
3.09818,0.0537143,-0.507964,18,32765
3.06878,0.042933,-0.502816,20,32765
3.03938,0.032578,-0.497525,19,32765
3.10865,0.0230517,-0.508169,18,32765
3.13842,0.013023,-0.512412,18,32765
3.06945,0.00239524,-0.500595,17,32765
3.04981,-0.00775954,-0.496669,17,32765
3.0795,-0.0181606,-0.500739,17,32765
3.04013,-0.0280423,-0.493189,17,32765
0,-0,-0,0,32765
6.95605,5.13164,1.53884,27,32765
7.00487,5.13252,1.5432,26,32765
7.05383,5.13319,1.54707,26,32765
7.07967,5.11537,1.54538,26,32765
7.1454,5.12646,1.55164,26,32765
7.17928,5.11412,1.55119,26,32765
7.24512,5.1245,1.55815,27,32765
7.28714,5.1174,1.5593,26,32765
7.33752,5.11549,1.56172,26,32765
7.40372,5.12498,1.56815,26,32765
7.43741,5.11228,1.56689,27,32765
7.48717,5.11066,1.56952,27,32765
7.52875,5.10311,1.57137,26,32765
7.59535,5.1115,1.57715,27,32765
7.62098,5.09232,1.57445,26,32765
7.6712,5.08916,1.57757,26,32765
7.76276,5.11287,1.5884,25,32765
7.83782,5.12577,1.59532,27,32765
7.85522,5.10008,1.59208,34,32765
7.92215,5.10669,1.59838,30,32765
7.97303,5.10181,1.60071,30,32765
8.03198,5.10216,1.60556,27,32765
8.04926,5.07605,1.60176,23,32765
8.04976,5.0395,1.5943,12,32765
8.05009,5.00312,1.5865,12,32765
8.08387,4.98707,1.5865,12,32765
8.05889,4.93464,1.5748,12,32765
8.07558,4.90823,1.57182,11,32765
8.02525,4.84056,1.55382,11,32765
8.02464,4.80423,1.54754,11,32765
7.99871,4.75274,1.53524,12,32765
8.03191,4.73652,1.53502,11,32765
7.94561,4.65071,1.51233,12,32765
8.06368,4.68429,1.52874,12,32765
8.04525,4.63839,1.51901,12,32765
7.94957,4.5485,1.4946,12,32765
8.04244,4.56618,1.50533,12,32765
7.90302,4.45253,1.47424,12,32765
7.96135,4.45066,1.47856,12,32765
7.97627,4.42473,1.47597,12,32765
7.94817,4.37483,1.46408,12,32765
8.00651,4.37204,1.46925,12,32765
8.0562,4.36398,1.47367,14,32765
8.08009,4.34161,1.47193,32,32765
8.06857,4.30124,1.46462,37,32765
8.04782,4.25675,1.45636,34,32765
8.07073,4.23541,1.45517,36,32765
8.06735,4.20021,1.44922,36,32765
8.07295,4.16887,1.445,38,32765
8.06075,4.12853,1.43818,37,32765
8.06648,4.0968,1.43309,38,32765
8.04553,4.0517,1.42391,38,32765
8.04171,4.01583,1.41915,38,32765
8.04676,3.98425,1.41544,39,32765
