x, y, z, intensity, ring
1.68797,0.142416,-0.23364,14,32765
1.6983,0.137548,-0.235043,13,32765
1.63946,0.127174,-0.227145,12,32765
1.71887,0.127478,-0.238426,12,32765
1.65998,0.117445,-0.230394,13,32765
1.64055,0.110469,-0.227999,14,32765
1.63101,0.104336,-0.226796,13,32765
1.54231,0.0934829,-0.214774,15,32765
1.6118,0.0923025,-0.224659,15,32765
1.49337,0.0805092,-0.208472,15,32765
1.65184,0.0834423,-0.230972,13,32765
1.54326,0.0727441,-0.215971,14,32765
1.61271,0.0705373,-0.226016,13,32765
1.46446,0.0591107,-0.205578,12,32765
1.54376,0.0571106,-0.217091,14,32765
1.59337,0.0535724,-0.224511,12,32765
1.544,0.0467805,-0.217922,13,32765
1.554,0.041897,-0.219609,12,32765
1.54419,0.0365196,-0.21853,12,32765
0,0,-0,0,32765
1.58387,0.0267041,-0.225055,12,32765
1.5344,0.0207076,-0.218388,12,32765
1.43539,0.0145876,-0.204833,13,32765
1.57394,0.0108517,-0.225145,12,32765
1.54421,0.00556661,-0.221314,12,32765
1.40556,0.000439537,-0.202022,14,32765
1.38568,-0.0041784,-0.199687,16,32765
1.45485,-0.00927841,-0.210265,15,32765
1.43493,-0.0139511,-0.208072,12,32765
1.6129,-0.0210054,-0.23458,12,32765
3.8545,1.30422,-0.501869,20,32765
3.90534,1.30734,-0.511512,19,32765
3.83386,1.26965,-0.504386,21,32765
3.85651,1.26302,-0.510109,20,32765
3.77533,1.22275,-0.501768,19,32765
3.84516,1.23134,-0.5133,20,32765
3.77321,1.19466,-0.505721,19,32765
3.71057,1.16138,-0.499258,20,32765
3.76146,1.16364,-0.508189,20,32765
3.77452,1.15405,-0.511439,21,32765
3.76862,1.13836,-0.512363,22,32765
3.71515,1.10853,-0.506847,21,32765
3.68064,1.08447,-0.503688,19,32765
3.74123,1.08828,-0.51358,21,32765
0,0,-0,15,32765
0,0,-0,21,32765
3.58909,1.00445,-0.497093,17,32765
3.67818,1.01607,-0.510975,19,32765
3.65271,0.995796,-0.508402,20,32765
3.60792,0.970688,-0.503539,19,32765
3.66848,0.973627,-0.513041,20,32765
3.61394,0.946249,-0.506884,19,32765
3.62646,0.936742,-0.509578,21,32765
3.57183,0.909784,-0.502742,20,32765
3.67073,0.921892,-0.517959,22,32765
3.59674,0.890042,-0.508839,21,32765
3.58034,0.872876,-0.50758,21,32765
3.55429,0.853577,-0.504485,20,32765
3.56667,0.843592,-0.507143,21,32765
3.52109,0.820208,-0.501665,20,32765
3.52375,0.808057,-0.502739,21,32765
3.53595,0.798167,-0.505552,21,32765
3.5192,0.781792,-0.50365,22,32765
3.53139,0.771715,-0.506175,21,32765
3.5048,0.753339,-0.503222,21,32765
3.48788,0.73689,-0.501657,21,32765
3.50969,0.728793,-0.505292,21,32765
3.46351,0.706773,-0.499454,21,32765
3.43668,0.688938,-0.496168,19,32765
3.47779,0.68476,-0.502507,21,32765
3.4897,0.674687,-0.504848,21,32765
3.46264,0.657228,-0.501749,21,32765
3.43557,0.640006,-0.498155,21,32765
3.44738,0.629978,-0.500288,21,32765
3.39094,0.607566,-0.492712,21,32765
3.42217,0.600959,-0.497662,22,32765
3.40461,0.585758,-0.495605,21,32765
3.41624,0.575862,-0.497677,21,32765
3.40837,0.562533,-0.496672,21,32765
3.4102,0.550797,-0.497228,20,32765
3.32406,0.524822,-0.484949,20,32765
3.35514,0.517657,-0.489888,21,32765
3.35684,0.506038,-0.490377,20,32765
3.36824,0.496054,-0.492448,21,32765
3.34044,0.480361,-0.488663,21,32765
3.37143,0.472957,-0.493312,20,32765
3.31413,0.453124,-0.485376,21,32765
3.3745,0.449374,-0.494371,20,32765
3.19928,0.414768,-0.469224,12,32765
0,0,-0,0,32765
0,0,-0,0,32765
0,0,-0,0,32765
0,0,-0,0,32765
0,0,-0,0,32765
0,0,-0,0,32765
1.71214,0.180421,-0.252228,13,32765
1.63398,0.166478,-0.24079,15,32765
1.65422,0.162832,-0.243788,14,32765
1.66456,0.158107,-0.245635,14,32765
1.63549,0.14978,-0.241506,15,32765
1.59651,0.140744,-0.236093,16,32765
1.63636,0.138656,-0.2423,14,32765
1.60723,0.130739,-0.237956,14,32765
1.64707,0.128329,-0.244099,14,32765
1.60799,0.11979,-0.238565,14,32765
1.6873,0.119923,-0.250467,13,32765
1.54948,0.10482,-0.23029,13,32765
1.53993,0.0989757,-0.228985,15,32765
1.55994,0.0950083,-0.232274,13,32765
1.58984,0.0914949,-0.236929,12,32765
1.42219,0.0770602,-0.212247,15,32765
1.53104,0.0777434,-0.228842,13,32765
1.70909,0.0809938,-0.255652,11,32765
1.54133,0.0677908,-0.230869,12,32765
1.66007,0.0673945,-0.249038,12,32765
1.52187,0.0566418,-0.22868,13,32765
1.5714,0.0531708,-0.23656,12,32765
1.44303,0.0440167,-0.217578,14,32765
1.40359,0.0381155,-0.211879,14,32765
1.47286,0.0351057,-0.22263,14,32765
0,0,-0,0,32765
1.60144,0.0272659,-0.242986,12,32765
1.46307,0.0199732,-0.222336,12,32765
1.53224,0.0157963,-0.233423,12,32765
1.49266,0.0104959,-0.227907,12,32765
1.47286,0.00549727,-0.225287,12,32765
1.49255,0.000643054,-0.228915,12,32765
1.49246,-0.00433835,-0.229465,12,32765
0,-0,-0,12,32765
0,-0,-0,12,32765
1.45252,-0.0188007,-0.225266,12,32765
3.74392,1.27021,-0.538304,20,32765
3.78536,1.27044,-0.545803,19,32765
3.6953,1.22689,-0.533289,18,32765
3.75561,1.23311,-0.543067,18,32765
3.76898,1.22358,-0.545586,18,32765
3.73516,1.19873,-0.541534,18,32765
3.68232,1.16813,-0.534781,18,32765
3.73332,1.17057,-0.542736,18,32765
3.7276,1.15514,-0.542419,18,32765
3.74077,1.14559,-0.544771,18,32765
3.72555,1.12713,-0.542945,19,32765
3.6818,1.10018,-0.536999,17,32765
3.68538,1.08758,-0.538071,18,32765
3.62242,1.05557,-0.529115,17,32765
3.70193,1.06526,-0.541308,17,32765
3.70545,1.0526,-0.542041,18,32765
0,0,-0,15,32765
0,0,-0,18,32765
3.60094,0.983452,-0.528193,15,32765
3.62323,0.976418,-0.531912,17,32765
3.58815,0.953696,-0.527409,18,32765
3.68702,0.966505,-0.54248,19,32765
3.59439,0.928975,-0.529053,19,32765
3.56867,0.909328,-0.525486,18,32765
3.5716,0.897235,-0.526314,19,32765
3.59373,0.889833,-0.529977,19,32765
3.55812,0.868287,-0.525245,19,32765
3.5032,0.842322,-0.517399,17,32765
3.48667,0.825751,-0.515456,18,32765
3.56648,0.831607,-0.527854,17,32765
3.54997,0.81457,-0.525929,18,32765
3.49478,0.788841,-0.518283,18,32765
3.49744,0.776521,-0.518971,18,32765
3.50964,0.766459,-0.521377,18,32765
3.48312,0.748168,-0.517789,19,32765
3.49521,0.738255,-0.520181,19,32765
3.49759,0.726226,-0.521083,18,32765
3.44173,0.702374,-0.513496,17,32765
3.46343,0.694382,-0.517061,18,32765
3.49478,0.688174,-0.522432,18,32765
3.52616,0.681635,-0.527709,19,32765
3.40201,0.645346,-0.509768,18,32765
3.44301,0.640752,-0.516472,18,32765
3.40615,0.621659,-0.511581,18,32765
3.37891,0.604707,-0.508153,17,32765
3.46855,0.608392,-0.522122,19,32765
3.38273,0.581295,-0.510053,17,32765
3.34557,0.563167,-0.504907,18,32765
3.3766,0.55647,-0.510435,18,32765
3.40767,0.549732,-0.515469,18,32765
3.34103,0.527158,-0.505993,18,32765
3.36225,0.518569,-0.509849,19,32765
3.33456,0.502327,-0.506446,19,32765
3.38509,0.497791,-0.514754,19,32765
3.32797,0.477669,-0.506394,18,32765
3.32948,0.466119,-0.507225,19,32765
3.3701,0.459914,-0.514301,18,32765
3.35198,0.445781,-0.511803,17,32765
3.27492,0.424176,-0.500576,13,32765
0,0,-0,11,32765
0,0,-0,0,32765
0,0,-0,0,32765
0,0,-0,0,32765
0,0,-0,0,32765
0,0,-0,0,32765
1.73018,0.182304,-0.266154,13,32765
1.70125,0.173341,-0.261906,14,32765
1.67228,0.164596,-0.257628,13,32765
1.68263,0.159867,-0.25939,13,32765
1.68315,0.154188,-0.259472,14,32765
1.68362,0.148443,-0.259761,15,32765
1.65449,0.140198,-0.255728,14,32765
1.71405,0.13941,-0.264916,14,32765
1.63567,0.127466,-0.252869,14,32765
1.6558,0.123386,-0.255946,13,32765
1.6266,0.115693,-0.25155,13,32765
1.60723,0.108807,-0.248713,13,32765
1.63714,0.105279,-0.253527,13,32765
1.60791,0.097934,-0.24889,14,32765
1.65756,0.0953255,-0.256549,12,32765
0,0,-0,0,32765
0,0,-0,0,32765
0,0,-0,0,32765
0,0,-0,0,32765
0,0,-0,0,32765
0,0,-0,0,32765
0,0,-0,0,32765
0,0,-0,0,32765
0,0,-0,0,32765
1.50176,0.0358989,-0.232016,13,32765
0,0,-0,0,32765
0,0,-0,0,32765
0,0,-0,0,32765
1.52197,0.0160743,-0.234417,11,32765
1.53195,0.0111347,-0.235612,12,32765
1.44306,0.00579032,-0.221656,12,32765
1.50242,0.00098194,-0.230502,12,32765
0,-0,-0,0,32765
1.46296,-0.0087831,-0.22374,13,32765
0,-0,-0,0,32765
0,-0,-0,0,32765
3.64392,1.2407,-0.560912,21,32765
3.67583,1.23809,-0.567285,20,32765
3.64215,1.21357,-0.562515,20,32765
3.62715,1.19518,-0.5612,20,32765
3.64038,1.18605,-0.563777,20,32765
3.62533,1.16765,-0.562231,21,32765
3.57248,1.13735,-0.554882,21,32765
3.57613,1.1253,-0.555938,20,32765
3.61751,1.12504,-0.562836,21,32765
3.61166,1.11001,-0.562312,20,32765
3.50171,1.0632,-0.545528,19,32765
3.52415,1.05685,-0.549401,19,32765
3.56553,1.05598,-0.55635,20,32765
3.55952,1.04096,-0.555613,19,32765
3.60086,1.03989,-0.562597,20,32765
3.56626,1.01669,-0.557368,20,32765
3.50289,0.985753,-0.548121,20,32765
3.49659,0.971165,-0.547347,21,32765
3.47112,0.951408,-0.543799,19,32765
0,0,-0,17,32765
0,0,-0,22,32765
0,0,-0,18,32765
3.4642,0.898559,-0.544354,20,32765
3.45758,0.884205,-0.543499,21,32765
3.44127,0.867619,-0.54129,21,32765
3.49205,0.867786,-0.549642,22,32765
3.50443,0.858286,-0.552076,22,32765
3.43997,0.830119,-0.542151,21,32765
3.41381,0.811433,-0.538493,20,32765
3.43571,0.80403,-0.542499,22,32765
3.45766,0.796281,-0.546446,21,32765
3.41215,0.773,-0.539745,21,32765
3.44369,0.767383,-0.545,21,32765
3.40758,0.746897,-0.53984,20,32765
3.37138,0.726824,-0.534423,20,32765
3.38338,0.717264,-0.536881,21,32765
3.34701,0.69752,-0.531611,19,32765
3.37826,0.691968,-0.537277,19,32765
3.35147,0.674422,-0.533312,20,32765
3.3827,0.668577,-0.538932,20,32765
3.38487,0.656759,-0.539821,19,32765
3.30936,0.630115,-0.528381,19,32765
3.34054,0.624009,-0.533883,19,32765
3.35226,0.614123,-0.536368,20,32765
3.31532,0.595563,-0.53109,19,32765
3.30752,0.582339,-0.530288,19,32765
3.28988,0.567484,-0.528271,20,32765
3.28195,0.554561,-0.52743,20,32765
3.27392,0.541612,-0.526945,21,32765
3.2854,0.532042,-0.529102,21,32765
3.25783,0.516011,-0.525236,21,32765
3.28874,0.509195,-0.530832,22,32765
3.22201,0.48726,-0.520817,20,32765
3.25287,0.480218,-0.526401,21,32765
3.24466,0.46754,-0.525374,21,32765
3.19724,0.449373,-0.518263,19,32765
3.19862,0.438246,-0.519317,20,32765
3.24895,0.433806,-0.527736,22,32765
3.19156,0.41504,-0.518926,18,32765
0,0,-0,0,32765
0,0,-0,0,32765
0,0,-0,0,32765
0,0,-0,0,32765
0,0,-0,0,32765
0,0,-0,0,32765
1.61956,0.171371,-0.264878,12,32765
1.66919,0.170802,-0.273188,13,32765
1.65008,0.163112,-0.270236,14,32765
1.72918,0.165007,-0.283358,13,32765
1.64127,0.151015,-0.268949,14,32765
1.59258,0.141042,-0.261171,15,32765
1.62247,0.138106,-0.266522,15,32765
1.61308,0.131799,-0.264959,15,32765
1.59382,0.124782,-0.261858,14,32765
1.61391,0.120832,-0.265121,14,32765
1.57491,0.112555,-0.258824,14,32765
1.55556,0.105824,-0.255794,15,32765
1.61496,0.104371,-0.265742,14,32765
1.57591,0.0964748,-0.259207,14,32765
1.52697,0.0882739,-0.251129,14,32765
0,0,-0,0,32765
0,0,-0,0,32765
0,0,-0,0,32765
0,0,-0,0,32765
0,0,-0,0,32765
0,0,-0,0,32765
0,0,-0,0,32765
0,0,-0,0,32765
0,0,-0,0,32765
1.54882,0.0373303,-0.254271,11,32765
0,0,-0,0,32765
0,0,-0,0,32765
0,0,-0,0,32765
1.55916,0.0167121,-0.255224,12,32765
1.38162,0.0102452,-0.225853,13,32765
1.34222,0.00556958,-0.219145,14,32765
1.4607,0.00113986,-0.238225,13,32765
0,-0,-0,0,32765
0,-0,-0,12,32765
0,-0,-0,0,32765
0,-0,-0,0,32765
0,0,0,0,32765
0,0,0,0,32765
2.0859,1.51794,0.457486,17,32765
2.09118,1.51097,0.456472,20,32765
2.0484,1.46962,0.444814,20,32765
2.09362,1.49138,0.452357,20,32765
2.04247,1.44464,0.439257,20,32765
2.0878,1.46616,0.446748,22,32765
2.10105,1.46479,0.447188,22,32765
2.08989,1.44666,0.44265,22,32765
2.11917,1.45666,0.446462,22,32765
2.06711,1.41099,0.433325,21,32765
2.07999,1.40985,0.434126,21,32765
2.05213,1.38104,0.426118,23,32765
2.07323,1.38533,0.428317,23,32765
2.07796,1.37854,0.427329,23,32765
2.08269,1.37175,0.426157,23,32765
2.12034,1.38666,0.431577,23,32765
2.14985,1.39581,0.435728,24,32765
2.1297,1.37282,0.429689,22,32765
2.08462,1.33391,0.418518,22,32765
2.10579,1.33766,0.420939,22,32765
2.11866,1.33608,0.421603,22,32765
2.13155,1.33445,0.422168,22,32765
2.16959,1.3484,0.42758,23,32765
2.14059,1.32056,0.420101,23,32765
2.14511,1.3135,0.41918,23,32765
2.18327,1.32696,0.42495,24,32765
2.15415,1.29931,0.417079,22,32765
2.19239,1.31255,0.422799,23,32765
2.15448,1.28016,0.413523,22,32765
2.19284,1.29314,0.419084,22,32765
2.18866,1.28106,0.416581,22,32765
2.19298,1.27393,0.415751,22,32765
2.21437,1.27667,0.418091,21,32765
2.18442,1.24986,0.410692,21,32765
2.26596,1.28652,0.424128,19,32765
2.32189,1.30814,0.433129,21,32765
2.37806,1.32942,0.441649,25,32765
2.33073,1.29294,0.431289,21,32765
0,0,0,0,32765
0,0,0,0,32765
0,0,0,97,32765
10.2545,5.50997,1.86803,31,32765
10.2905,5.4857,1.86794,48,32765
10.3173,5.45714,1.86705,52,32765
10.3442,5.42848,1.86508,49,32765
10.3886,5.40874,1.8662,45,32765
10.4597,5.4014,1.87222,12,32765
0,0,0,0,32765
0,0,0,0,32765
0,0,0,0,32765
0,0,0,0,32765
0,0,0,0,32765
0,0,0,0,32765
0,0,0,0,32765
0,0,0,0,32765
0,0,0,0,32765
0,0,0,0,32765
0,0,0,0,32765
0,0,0,0,32765
0,0,0,0,32765
0,0,0,0,32765
0,0,0,0,32765
0,0,0,0,32765
0,0,0,0,32765
0,0,0,0,32765
0,0,0,0,32765
0,0,0,0,32765
0,0,0,0,32765
0,0,0,0,32765
0,0,0,0,32765
0,0,0,0,32765
11.4154,4.7359,1.87332,12,32765
11.3308,4.65697,1.85431,12,32765
11.3101,4.6049,1.84341,12,32765
11.3989,4.59767,1.85228,12,32765
11.4511,4.57547,1.85442,12,32765
11.43,4.52346,1.84333,12,32765
11.5097,4.51182,1.84945,12,32765
11.3406,4.40248,1.81613,12,32765
10.7555,4.13454,1.71656,19,32765
10.7233,4.0823,1.70446,24,32765
10.6818,4.02626,1.69143,26,32765
11.1215,4.15089,1.75552,12,32765
11.6553,4.30681,1.83293,12,32765
11.8281,4.32641,1.85257,13,32765
11.8052,4.27485,1.84372,13,32765
11.7082,4.19619,1.82077,14,32765
11.6848,4.14596,1.81062,15,32765
11.6522,4.09205,1.79802,16,32765
11.5538,4.01584,1.77524,15,32765
11.3989,3.9211,1.74448,15,32765
11.2436,3.82692,1.71364,14,32765
11.0967,3.73794,1.68522,14,32765
10.9498,3.64932,1.65548,14,32765
10.8396,3.57487,1.63226,14,32765
10.7761,3.51712,1.61483,14,32765
10.5995,3.42265,1.58055,14,32765
10.4694,3.34469,1.55401,15,32765
10.3863,3.28249,1.53276,14,32765
2.06241,1.52322,0.431565,20,32765
2.02772,1.4874,0.422498,20,32765
2.04065,1.48668,0.423248,22,32765
2.05381,1.48563,0.423905,22,32765
2.05094,1.47309,0.421048,22,32765
2.07212,1.4777,0.423204,22,32765
2.05305,1.45373,0.41731,22,32765
2.05003,1.44122,0.414537,23,32765
2.05511,1.43433,0.41328,23,32765
2.06815,1.43318,0.413819,24,32765
2.05677,1.41531,0.409277,25,32765
2.07782,1.41984,0.411342,26,32765
2.07441,1.40759,0.408826,25,32765
2.07105,1.39528,0.406006,25,32765
2.08401,1.39403,0.406408,25,32765
2.09699,1.39265,0.40701,25,32765
2.09352,1.38035,0.404235,25,32765
2.09819,1.37363,0.40293,23,32765
2.11941,1.3775,0.405227,24,32765
2.10746,1.35992,0.40106,23,32765
2.12047,1.35828,0.40148,24,32765
2.11675,1.34603,0.398986,23,32765
2.12966,1.34441,0.399551,24,32765
2.14258,1.34274,0.400017,24,32765
2.13035,1.32537,0.395703,24,32765
2.12645,1.31318,0.393274,24,32765
2.13936,1.31132,0.39391,25,32765
2.16068,1.31456,0.396213,26,32765
2.17375,1.31246,0.39644,26,32765
2.16122,1.29519,0.392544,26,32765
2.17415,1.29315,0.392958,25,32765
2.17856,1.286,0.392013,26,32765
2.18287,1.27894,0.391136,26,32765
2.17864,1.26684,0.388783,25,32765
2.19146,1.2647,0.38942,25,32765
2.19573,1.25756,0.388474,24,32765
2.20864,1.2552,0.388957,24,32765
2.22148,1.25278,0.38986,24,32765
2.24302,1.25512,0.391839,21,32765
2.36823,1.31499,0.412166,25,32765
2.40736,1.32632,0.417001,27,32765
2.41191,1.31829,0.416159,25,32765
2.39035,1.29604,0.411091,19,32765
10.2674,5.52204,1.75822,14,32765
10.3209,5.507,1.76092,21,32765
10.3565,5.48291,1.76141,51,32765
10.401,5.46328,1.76229,65,32765
10.4192,5.42962,1.75868,63,32765
10.4203,5.38585,1.7523,26,32765
0,0,0,0,32765
0,0,0,0,32765
0,0,0,0,32765
0,0,0,0,32765
0,0,0,0,32765
0,0,0,0,32765
0,0,0,0,32765
0,0,0,0,32765
0,0,0,0,32765
0,0,0,0,32765
0,0,0,0,32765
0,0,0,0,32765
0,0,0,0,32765
0,0,0,0,32765
0,0,0,0,32765
0,0,0,0,32765
0,0,0,0,32765
0,0,0,0,32765
0,0,0,0,32765
0,0,0,0,32765
11.1363,4.79848,1.73799,11,32765
11.089,4.73433,1.72418,13,32765
11.178,4.72845,1.73226,13,32765
11.2947,4.73358,1.74345,13,32765
11.2106,4.6543,1.72296,13,32765
11.3269,4.65875,1.7359,13,32765
11.3613,4.62902,1.73377,13,32765
11.4135,4.60679,1.73629,13,32765
11.4289,4.5698,1.73248,13,32765
11.4262,4.52507,1.72455,13,32765
11.469,4.49897,1.72447,13,32765
11.5213,4.47564,1.72622,14,32765
11.5735,4.45194,1.72788,14,32765
10.9499,4.17131,1.62782,16,32765
10.8158,4.07947,1.60154,19,32765
10.6995,3.99598,1.57912,16,32765
11.0011,4.06768,1.61731,18,32765
11.3779,4.16439,1.66562,18,32765
11.2892,4.09057,1.64773,18,32765
11.1634,4.00343,1.62208,17,32765
10.9899,3.9018,1.59087,15,32765
10.8816,3.82375,1.56829,16,32765
10.7541,3.74011,1.54297,16,32765
10.6448,3.66388,1.52093,16,32765
10.4978,3.57517,1.49344,16,32765
10.4156,3.51054,1.4762,16,32765
10.2865,3.43022,1.45105,16,32765
10.2131,3.37013,1.43463,16,32765
10.1016,3.29882,1.41171,16,32765
9.99007,3.22764,1.38887,16,32765
9.85908,3.15144,1.36405,17,32765
9.77519,3.09102,1.34416,16,32765
2.04268,1.50646,0.403667,19,32765
2.03957,1.49402,0.402034,19,32765
2.04444,1.48742,0.401768,21,32765
2.02539,1.46339,0.396487,19,32765
2.02222,1.45093,0.394756,19,32765
2.05124,1.46141,0.398988,19,32765
2.04798,1.44903,0.397067,21,32765
2.02039,1.41972,0.390439,21,32765
2.00071,1.39632,0.385159,21,32765
2.05406,1.42358,0.393883,23,32765
2.05066,1.4113,0.391692,22,32765
2.04722,1.39897,0.389697,21,32765
2.05192,1.39227,0.388976,23,32765
2.04844,1.37995,0.386796,23,32765
2.0367,1.36218,0.383064,22,32765
2.09894,1.39372,0.393092,22,32765
2.08703,1.37607,0.389402,23,32765
2.09991,1.37465,0.39027,22,32765
2.07963,1.35166,0.385015,21,32765
2.08424,1.34477,0.384201,21,32765
2.09715,1.34321,0.384924,22,32765
2.11828,1.34701,0.387367,22,32765
2.10611,1.32953,0.383457,21,32765
2.1357,1.33843,0.387198,24,32765
2.10664,1.31052,0.38038,21,32765
2.13636,1.31908,0.384208,23,32765
2.14083,1.31199,0.383566,23,32765
2.14532,1.30489,0.382675,23,32765
2.15821,1.303,0.383167,24,32765
2.13718,1.28067,0.377823,22,32765
2.18391,1.299,0.384739,24,32765
2.15423,1.27172,0.378068,24,32765
2.20129,1.28953,0.3845,25,32765
2.13727,1.24246,0.371998,22,32765
2.19298,1.26496,0.379867,24,32765
2.18867,1.25288,0.377498,24,32765
2.22721,1.26539,0.38268,24,32765
2.21424,1.24838,0.378917,24,32765
2.21847,1.24113,0.377997,22,32765
2.24011,1.24324,0.379924,18,32765
2.40037,1.32159,0.405597,26,32765
2.40485,1.31371,0.404651,26,32765
2.41807,1.31039,0.405203,25,32765
2.37896,1.27907,0.396806,18,32765
0,0,0,0,32765
10.3032,5.45071,1.70384,29,32765
10.3479,5.43087,1.70376,53,32765
10.3838,5.40604,1.70309,50,32765
10.3755,5.35889,1.69471,18,32765
0,0,0,0,32765
0,0,0,0,32765
0,0,0,0,32765
0,0,0,0,32765
0,0,0,0,32765
0,0,0,0,32765
0,0,0,0,32765
0,0,0,0,32765
0,0,0,0,32765
0,0,0,0,32765
0,0,0,0,32765
0,0,0,0,32765
0,0,0,0,32765
0,0,0,0,32765
0,0,0,0,32765
0,0,0,0,32765
0,0,0,0,32765
10.9486,4.84835,1.67015,11,32765
11.0648,4.85583,1.68243,15,32765
11.072,4.81569,1.67778,22,32765
11.0888,4.77874,1.67306,20,32765
11.132,4.7538,1.67561,13,32765
11.1481,4.71743,1.67169,12,32765
11.2003,4.69599,1.67576,12,32765
11.3347,4.70931,1.69067,12,32765
11.2318,4.62292,1.66848,12,32765
11.3111,4.61281,1.67643,12,32765
11.418,4.61337,1.68827,12,32765
11.4334,4.57611,1.68579,12,32765
11.4486,4.53897,1.68317,12,32765
11.3899,4.47265,1.67004,13,32765
11.4416,4.44968,1.67367,13,32765
11.4932,4.42688,1.67742,13,32765
11.3969,4.34679,1.65863,15,32765
10.9662,4.14192,1.59269,14,32765
10.6643,3.98786,1.54567,13,32765
10.8075,4.00162,1.56281,17,32765
11.0438,4.04874,1.59378,14,32765
11.0572,4.01267,1.59186,14,32765
10.9585,3.93653,1.57369,13,32765
10.8034,3.84085,1.54879,14,32765
10.7785,3.79264,1.54297,14,32765
10.6687,3.71645,1.52539,14,32765
10.568,3.64396,1.50895,14,32765
10.4575,3.56912,1.49162,13,32765
10.347,3.49422,1.47341,14,32765
10.3395,3.45422,1.47101,14,32765
10.266,3.39283,1.45787,14,32765
10.1637,3.32292,1.44297,14,32765
10.0796,3.26045,1.43061,14,32765
10.0614,3.21952,1.42803,14,32765
10.0333,3.17607,1.42448,14,32765
2.01284,1.48648,0.373852,21,32765
2.01764,1.47997,0.373789,22,32765
2.03047,1.47925,0.375001,23,32765
2.0354,1.4726,0.374425,23,32765
2.02423,1.45431,0.371311,23,32765
2.02108,1.44184,0.369377,23,32765
2.00969,1.42381,0.366083,23,32765
2.05479,1.44578,0.373051,24,32765
2.03517,1.42223,0.368039,23,32765
2.0399,1.4156,0.36741,23,32765
2.04461,1.40895,0.366777,23,32765
2.06565,1.41337,0.369254,25,32765
2.0704,1.4066,0.368526,25,32765
2.07517,1.39973,0.367886,24,32765
2.07991,1.39284,0.367234,25,32765
2.08464,1.38596,0.366454,25,32765
2.09746,1.38468,0.367291,25,32765
2.10211,1.3778,0.366619,25,32765
2.06523,1.34396,0.35876,24,32765
2.09475,1.35322,0.362264,24,32765
2.12435,1.3623,0.365757,26,32765
2.10382,1.33945,0.360845,24,32765
2.09998,1.32727,0.358555,25,32765
2.11281,1.32568,0.359167,25,32765
2.10048,1.30826,0.355574,24,32765
2.13022,1.31686,0.359124,25,32765
2.12625,1.3046,0.357066,25,32765
2.13917,1.30269,0.357593,25,32765
2.12663,1.28545,0.353766,25,32765
2.13098,1.27846,0.352931,24,32765
2.15224,1.28165,0.35517,25,32765
2.18212,1.28968,0.35869,27,32765
2.17804,1.27739,0.356259,27,32765
2.17381,1.26516,0.354272,26,32765
2.18678,1.26282,0.35461,27,32765
2.19964,1.26059,0.35511,26,32765
2.22102,1.2633,0.357146,26,32765
2.19077,1.23654,0.350809,25,32765
2.22088,1.24388,0.354031,25,32765
2.2339,1.24117,0.354396,24,32765
2.34227,1.29103,0.370165,24,32765
2.40748,1.3166,0.378814,27,32765
2.42943,1.31799,0.380635,28,32765
2.4339,1.31004,0.379499,28,32765
2.38598,1.2739,0.370397,19,32765
10.3232,5.46723,1.59528,14,32765
10.3505,5.43808,1.59221,24,32765
10.4215,5.43151,1.59674,56,32765
10.4221,5.38871,1.58996,42,32765
0,0,0,0,32765
0,0,0,0,32765
0,0,0,0,32765
0,0,0,0,32765
0,0,0,0,32765
0,0,0,0,32765
0,0,0,0,32765
0,0,0,0,32765
0,0,0,0,32765
0,0,0,0,32765
0,0,0,0,32765
0,0,0,0,32765
0,0,0,0,32765
0,0,0,0,32765
0,0,0,0,32765
11.0362,4.97947,1.57811,33,32765
11.0259,4.93084,1.57113,56,32765
11.0515,4.89858,1.57008,63,32765
11.0953,4.87384,1.57101,67,32765
11.1299,4.8454,1.5703,67,32765
11.1649,4.81605,1.56811,67,32765
11.1809,4.77912,1.56653,44,32765
11.2245,4.75414,1.56642,15,32765
11.2586,4.72474,1.56755,14,32765
11.2742,4.68838,1.56471,13,32765
11.2902,4.65116,1.56023,14,32765
11.3054,4.6146,1.55865,15,32765
11.3021,4.57056,1.55437,16,32765
11.3265,4.53731,1.55319,18,32765
11.2402,4.4602,1.53672,19,32765
11.1719,4.39082,1.52312,18,32765
11.0663,4.30735,1.50504,16,32765
10.9693,4.22863,1.48836,17,32765
10.8352,4.13597,1.46579,16,32765
10.7095,4.04828,1.44575,16,32765
10.6764,3.99563,1.43824,21,32765
10.6337,3.94043,1.42906,22,32765
10.4416,3.831,1.40034,16,32765
10.3424,3.7562,1.38356,16,32765
10.2521,3.68561,1.36788,16,32765
10.2175,3.6353,1.3609,16,32765
10.0889,3.55266,1.34179,16,32765
10.0064,3.4883,1.32918,16,32765
9.95175,3.43396,1.3201,16,32765
9.82166,3.35451,1.30149,16,32765
9.85133,3.32918,1.3032,16,32765
9.74918,3.25926,1.28853,16,32765
9.67502,3.19968,1.2763,17,32765
9.58138,3.13462,1.26369,16,32765
9.55332,3.09221,1.25968,17,32765
9.47783,3.03472,1.24983,17,32765
9.43032,2.98703,1.24405,18,32765
2.02217,1.48791,0.385429,19,32765
2.02732,1.48139,0.383452,20,32765
2.03248,1.47478,0.381644,21,32765
2.0056,1.44491,0.373947,21,32765
2.00258,1.43259,0.370763,21,32765
1.99955,1.42026,0.367494,21,32765
1.99628,1.40808,0.364779,22,32765
1.99298,1.39595,0.361831,21,32765
2.03017,1.41215,0.366366,23,32765
2.04315,1.41111,0.366627,23,32765
2.0644,1.41553,0.367978,24,32765
2.02844,1.38082,0.359412,23,32765
2.06595,1.39639,0.363779,23,32765
2.03795,1.36748,0.356597,22,32765
2.04259,1.36088,0.355312,22,32765
2.07201,1.37057,0.35837,24,32765
2.06014,1.35295,0.354193,23,32765
2.08131,1.35704,0.355889,24,32765
2.09424,1.35564,0.35607,24,32765
2.06552,1.3274,0.34933,23,32765
2.08676,1.3313,0.350824,23,32765
2.11644,1.34031,0.353748,24,32765
2.08746,1.31227,0.347232,24,32765
2.11715,1.32112,0.350316,24,32765
2.10474,1.30378,0.346741,24,32765
2.14291,1.31768,0.351089,23,32765
2.12205,1.29519,0.345652,24,32765
2.14332,1.29857,0.347546,25,32765
2.1307,1.2814,0.343862,24,32765
2.15201,1.28467,0.345535,25,32765
2.16492,1.28261,0.345883,26,32765
2.15227,1.26532,0.342192,25,32765
2.1738,1.26806,0.343809,26,32765
2.1525,1.24581,0.338841,24,32765
2.20823,1.26842,0.346009,25,32765
2.19523,1.2515,0.342381,24,32765
2.208,1.2493,0.342949,25,32765
2.22078,1.24702,0.343482,25,32765
2.19038,1.22043,0.337201,24,32765
2.23785,1.23721,0.343149,22,32765
2.26818,1.24406,0.346103,21,32765
2.40299,1.30767,0.365028,26,32765
2.44229,1.3186,0.369459,26,32765
2.39439,1.28234,0.360692,15,32765
0,0,0,0,32765
0,0,0,0,32765
0,0,0,0,32765
10.3855,5.38671,1.53811,38,32765
10.4742,5.38895,1.54452,28,32765
0,0,0,24,32765
0,0,0,0,32765
0,0,0,0,32765
0,0,0,0,32765
0,0,0,0,32765
0,0,0,0,32765
0,0,0,0,32765
0,0,0,0,32765
2.23819,1.0673,0.318438,11,32765
0,0,0,0,32765
0,0,0,0,32765
0,0,0,0,32765
2.41466,1.11247,0.337969,11,32765
2.35526,1.07564,0.32842,13,32765
2.377,1.07601,0.330095,20,32765
2.24489,1.00719,0.310508,16,32765
11.0332,4.90609,1.51907,42,32765
11.0592,4.87294,1.51672,57,32765
11.0939,4.84424,1.51628,55,32765
11.1015,4.8032,1.51097,52,32765
11.1362,4.77391,1.50954,49,32765
11.189,4.75275,1.50972,48,32765
11.15,4.69294,1.4997,19,32765
11.2666,4.69856,1.50891,13,32765
11.2091,4.63138,1.4948,14,32765
11.1971,4.58367,1.48716,16,32765
11.1301,4.5127,1.47221,16,32765
11.0627,4.44242,1.45674,16,32765
10.9119,4.33977,1.4304,15,32765
10.7696,4.24199,1.40608,14,32765
10.6635,4.1603,1.38646,14,32765
10.5569,4.0793,1.36769,14,32765
10.413,3.98506,1.34189,14,32765
10.3334,3.9164,1.32653,14,32765
10.2814,3.85859,1.31418,14,32765
10.0989,3.75288,1.28497,14,32765
9.98102,3.67206,1.26467,14,32765
9.95625,3.62558,1.25589,14,32765
9.76292,3.51918,1.2261,14,32765
9.71871,3.46756,1.21438,14,32765
9.68355,3.41963,1.20439,15,32765
9.5544,3.33922,1.18285,14,32765
9.45305,3.26912,1.16514,14,32765
9.37937,3.20992,1.15074,15,32765
9.23016,3.12592,1.12644,14,32765
9.15568,3.06869,1.11137,15,32765
9.00532,2.98709,1.08807,15,32765
8.95864,2.94005,1.07654,15,32765
8.9022,2.89037,1.06443,15,32765
8.81731,2.83189,1.04776,16,32765
8.76027,2.78362,1.03522,16,32765
8.66516,2.72439,1.01604,17,32765
2.00007,1.47377,0.357517,23,32765
2.00517,1.4673,0.35556,22,32765
2.02628,1.47239,0.356589,24,32765
1.99935,1.44247,0.349269,24,32765
2.02851,1.45321,0.351765,24,32765
2.00939,1.42929,0.345788,24,32765
2.02232,1.42848,0.345926,24,32765
2.01097,1.41055,0.341673,24,32765
2.01572,1.40409,0.340333,23,32765
2.02052,1.39746,0.339141,24,32765
2.0499,1.40757,0.341683,25,32765
2.04661,1.39515,0.339015,24,32765
2.05958,1.39404,0.338945,25,32765
2.05621,1.38167,0.336173,25,32765
2.06913,1.38049,0.336215,25,32765
2.07385,1.3737,0.334972,25,32765
2.07025,1.36148,0.332309,25,32765
2.05827,1.34388,0.328513,25,32765
2.08779,1.35333,0.331252,26,32765
2.09237,1.34651,0.33015,25,32765
2.08862,1.33432,0.327508,26,32765
2.10158,1.33273,0.32754,26,32765
2.1145,1.33108,0.32791,26,32765
2.09381,1.30834,0.322917,26,32765
2.11505,1.31195,0.324711,26,32765
2.1195,1.30505,0.323523,26,32765
2.13242,1.30327,0.323515,26,32765
2.12829,1.2912,0.321376,26,32765
2.13262,1.28427,0.320438,26,32765
2.12841,1.27228,0.318105,26,32765
2.15835,1.28041,0.320907,26,32765
2.13713,1.25807,0.316139,26,32765
2.15007,1.25588,0.316316,27,32765
2.17162,1.25853,0.317921,26,32765
2.19304,1.26134,0.319507,28,32765
2.17999,1.24444,0.316071,27,32765
2.20138,1.24717,0.317797,26,32765
2.17957,1.22546,0.313266,26,32765
2.20971,1.23279,0.316051,26,32765
2.23122,1.23513,0.317815,26,32765
2.25287,1.23724,0.319257,25,32765
2.26577,1.23456,0.319578,25,32765
2.32232,1.25542,0.326136,21,32765
2.44908,1.31329,0.34243,21,32765
2.47105,1.3146,0.34374,21,32765
2.49305,1.31567,0.34538,19,32765
2.4975,1.30747,0.34442,18,32765
2.41378,1.25353,0.331548,16,32765
2.44449,1.25924,0.334239,14,32765
0,0,0,0,32765
0,0,0,0,32765
0,0,0,0,32765
0,0,0,0,32765
0,0,0,0,32765
0,0,0,0,32765
0,0,0,0,32765
0,0,0,0,32765
2.21342,1.05673,0.291519,14,32765
2.2619,1.07064,0.296563,17,32765
2.30149,1.08007,0.3003,20,32765
2.35013,1.09347,0.305489,21,32765
2.36285,1.08985,0.305896,21,32765
2.34847,1.07377,0.302841,20,32765
2.39736,1.08646,0.307815,18,32765
10.9815,4.93253,1.4041,63,32765
11.0619,4.92441,1.40752,60,32765
2.40845,1.06241,0.305198,19,32765
2.35743,1.03054,0.297664,16,32765
11.1212,4.8171,1.39805,41,32765
11.1104,4.7681,1.3907,31,32765
11.0809,4.712,1.38027,26,32765
10.9685,4.62157,1.36174,20,32765
10.8373,4.52445,1.3394,19,32765
10.7149,4.43197,1.31829,18,32765
10.5826,4.3368,1.29646,17,32765
10.4594,4.24532,1.27583,16,32765
10.3357,4.1549,1.25475,16,32765
10.1745,4.05079,1.22928,16,32765
10.1143,3.98806,1.21682,16,32765
9.96092,3.89026,1.19312,16,32765
9.9182,3.83648,1.18351,17,32765
9.82901,3.76545,1.16624,17,32765
9.73923,3.69502,1.15091,17,32765
9.63992,3.62154,1.13398,17,32765
9.54953,3.55236,1.1179,17,32765
9.49616,3.49722,1.10673,16,32765
9.37733,3.41821,1.08769,17,32765
9.30466,3.35735,1.07422,17,32765
9.21301,3.29041,1.05791,17,32765
9.12095,3.22414,1.04218,17,32765
9.01914,3.15526,1.02548,18,32765
8.94523,3.09653,1.0123,18,32765
8.87087,3.03885,0.998955,18,32765
8.768,2.97228,0.981779,19,32765
8.68347,2.91323,0.966739,19,32765
8.61739,2.86115,0.954648,18,32765
8.5135,2.79664,0.937637,19,32765
8.4565,2.74827,0.926386,19,32765
8.37101,2.69109,0.910931,19,32765
8.35133,2.65617,0.903382,19,32765
8.24616,2.59509,0.88454,19,32765
1.98039,1.45697,0.325116,22,32765
1.97732,1.44442,0.323619,23,32765
1.98211,1.4379,0.3234,22,32765
1.99477,1.43739,0.324338,22,32765
1.99128,1.42536,0.322549,21,32765
2.0041,1.42461,0.323229,21,32765
2.00074,1.41229,0.321504,21,32765
2.0136,1.41137,0.322241,22,32765
2.03459,1.4161,0.324197,23,32765
2.01479,1.39258,0.31974,23,32765
2.03577,1.39722,0.321751,23,32765
2.05678,1.4018,0.323631,24,32765
2.03684,1.37837,0.318995,23,32765
2.02504,1.36056,0.315737,22,32765
2.04613,1.36486,0.317665,23,32765
2.10044,1.39086,0.324454,26,32765
2.0471,1.34578,0.314861,23,32765
2.05986,1.34456,0.315482,24,32765
2.07264,1.34325,0.316111,24,32765
2.0854,1.34195,0.316684,23,32765
2.0481,1.30841,0.309586,23,32765
2.086,1.32296,0.313801,25,32765
2.08204,1.31085,0.311743,23,32765
2.11168,1.31982,0.314646,24,32765
2.10764,1.3077,0.312717,26,32765
2.0952,1.29028,0.30936,25,32765
2.09964,1.28328,0.308418,24,32765
2.12102,1.28651,0.310147,24,32765
2.1254,1.2795,0.309144,24,32765
2.13819,1.27763,0.309694,24,32765
2.12536,1.26055,0.306542,24,32765
2.18944,1.28892,0.314108,26,32765
2.17665,1.27167,0.310848,26,32765
2.17244,1.25942,0.30862,25,32765
2.14237,1.2323,0.302971,24,32765
2.18969,1.24974,0.308197,25,32765
2.21122,1.25233,0.309507,25,32765
2.1808,1.22562,0.303944,23,32765
2.21958,1.23786,0.307846,26,32765
2.18037,1.20653,0.300627,23,32765
2.20184,1.20886,0.302421,25,32765
2.19726,1.19676,0.300335,21,32765
2.25376,1.21779,0.306542,23,32765
2.33666,1.25251,0.316438,20,32765
2.45488,1.30542,0.330769,21,32765
2.46812,1.30194,0.330799,21,32765
2.44611,1.28003,0.326287,20,32765
2.44165,1.26732,0.324225,18,32765
2.41951,1.24551,0.319834,19,32765
0,0,0,0,32765
0,0,0,0,32765
0,0,0,0,32765
0,0,0,0,32765
0,0,0,0,32765
0,0,0,0,32765
2.27001,1.10207,0.290025,12,32765
2.13952,1.0298,0.272166,13,32765
2.2327,1.06549,0.282617,17,32765
2.29916,1.08793,0.289595,22,32765
2.35675,1.10576,0.295649,23,32765
2.3064,1.07291,0.28806,23,32765
2.31002,1.06532,0.287255,20,32765
2.40402,1.09898,0.297511,20,32765
2.37152,1.07463,0.292352,18,32765
10.9786,4.93016,1.34745,49,32765
10.9955,4.89323,1.34402,40,32765
11.0394,4.86875,1.3444,28,32765
2.38599,1.04299,0.289135,17,32765
2.32561,1.00758,0.280746,15,32765
0,0,0,0,32765
0,0,0,0,32765
10.5798,4.45835,1.26233,16,32765
10.4573,4.36552,1.24375,15,32765
10.2422,4.23644,1.21354,14,32765
10.2103,4.1843,1.20509,15,32765
10.1042,4.10265,1.18917,14,32765
10.081,4.05482,1.18195,14,32765
9.93737,3.95961,1.16095,14,32765
9.82088,3.87629,1.14419,14,32765
9.71336,3.79723,1.12772,14,32765
9.68877,3.75116,1.12202,15,32765
9.54324,3.65945,1.10159,14,32765
9.55539,3.62819,1.09961,14,32765
9.44623,3.55178,1.08448,14,32765
9.33684,3.47587,1.06869,14,32765
9.3297,3.43826,1.0654,14,32765
9.1635,3.34329,1.04343,14,32765
9.10905,3.28983,1.03431,14,32765
9.10092,3.25374,1.03187,15,32765
8.98964,3.18097,1.01781,14,32765
8.85933,3.10244,1.00035,15,32765
8.89756,3.08359,1.00292,16,32765
8.76637,3.00669,0.986391,15,32765
8.74767,2.96929,0.982662,16,32765
8.68165,2.916,0.974649,16,32765
8.64383,2.87256,0.968599,17,32765
8.53963,2.80783,0.955256,16,32765
8.46309,2.75353,0.946914,16,32765
8.43368,2.71513,0.94298,16,32765
8.4421,2.68835,0.944337,16,32765
8.38436,2.63984,0.937713,16,32765
1.97359,1.45443,0.300775,24,32765
2.00256,1.46533,0.304239,26,32765
1.99136,1.44704,0.301583,24,32765
2.00407,1.4465,0.302424,24,32765
2.00061,1.43441,0.300726,25,32765
2.01346,1.43363,0.301308,25,32765
1.99392,1.40979,0.297257,25,32765
2.02303,1.4203,0.300312,25,32765
2.00335,1.39662,0.29606,24,32765
2.01612,1.39576,0.296695,24,32765
2.02076,1.38916,0.29612,25,32765
2.02535,1.3826,0.295425,25,32765
2.02999,1.37594,0.294659,25,32765
2.04288,1.37474,0.295159,25,32765
2.04752,1.36796,0.294518,25,32765
2.04395,1.35559,0.292457,26,32765
2.04022,1.34337,0.290622,25,32765
2.07791,1.35847,0.294687,26,32765
2.08242,1.3517,0.294039,26,32765
2.07017,1.33422,0.290995,26,32765
2.083,1.33277,0.291389,27,32765
2.08748,1.32594,0.290549,26,32765
2.07512,1.3085,0.287418,25,32765
2.08793,1.30698,0.287722,26,32765
2.10071,1.30539,0.288208,26,32765
2.12207,1.30882,0.289655,26,32765
2.10115,1.28615,0.28525,25,32765
2.13105,1.29454,0.287937,27,32765
2.12694,1.28236,0.285786,26,32765
2.13975,1.28048,0.28624,26,32765
2.15254,1.27858,0.286686,26,32765
2.15681,1.2716,0.285649,27,32765
2.14396,1.25443,0.282587,26,32765
2.17405,1.26221,0.284972,27,32765
2.16979,1.24991,0.283065,26,32765
2.19133,1.25251,0.284452,26,32765
2.17829,1.23549,0.281112,26,32765
2.20841,1.24295,0.28372,27,32765
2.21257,1.23574,0.282799,27,32765
2.19939,1.21882,0.279364,26,32765
2.23834,1.23066,0.283169,27,32765
2.22511,1.21366,0.280061,26,32765
2.25546,1.22046,0.282411,27,32765
2.25086,1.20824,0.280547,26,32765
2.2725,1.21015,0.281733,25,32765
2.37332,1.2537,0.29259,22,32765
2.37754,1.2459,0.291636,20,32765
2.32003,1.20588,0.283231,15,32765
0,0,0,0,32765
0,0,0,0,32765
2.31465,1.17347,0.278283,14,32765
2.41641,1.21487,0.288899,20,32765
2.45613,1.22463,0.292049,25,32765
2.4335,1.2033,0.288176,23,32765
2.44653,1.19957,0.288275,20,32765
2.40593,1.16965,0.281969,22,32765
2.40995,1.16155,0.281144,23,32765
2.34213,1.11922,0.271799,23,32765
2.3459,1.11154,0.270812,25,32765
2.34059,1.09966,0.269045,24,32765
2.34427,1.09199,0.268212,24,32765
2.35699,1.08842,0.268422,21,32765
2.39687,1.09716,0.271573,17,32765
2.32809,1.05634,0.2627,12,32765
10.7423,4.83039,1.2065,19,32765
10.6044,4.72535,1.18587,17,32765
10.4384,4.60969,1.16275,16,32765
10.5085,4.59957,1.16439,17,32765
0,0,0,0,32765
2.39484,1.02949,0.263204,19,32765
2.43496,1.03706,0.266578,17,32765
9.90987,4.18136,1.08015,17,32765
9.8047,4.09826,1.06511,17,32765
9.71721,4.02435,1.05135,17,32765
9.61089,3.9436,1.03559,17,32765
9.50396,3.86373,1.02099,17,32765
9.49837,3.82521,1.01629,17,32765
9.35386,3.7317,0.997037,17,32765
9.32908,3.68668,0.991521,17,32765
9.2579,3.62358,0.980311,17,32765
9.14921,3.54654,0.966236,16,32765
9.06791,3.48136,0.95436,17,32765
9.05156,3.44099,0.949556,16,32765
8.93239,3.36256,0.934726,16,32765
8.89688,3.31599,0.92804,17,32765
8.7865,3.24186,0.914304,18,32765
8.75974,3.19969,0.908762,18,32765
8.6486,3.12714,0.894564,18,32765
8.58373,3.07234,0.886522,19,32765
8.52806,3.02106,0.879499,18,32765
8.46286,2.96694,0.870278,19,32765
8.40665,2.91671,0.862946,18,32765
8.35955,2.87032,0.856537,18,32765
8.3027,2.82134,0.849258,18,32765
8.27391,2.78206,0.845828,19,32765
8.22618,2.7367,0.839317,18,32765
8.18764,2.69496,0.83387,18,32765
8.12018,2.64474,0.827286,19,32765
8.08095,2.60427,0.82275,19,32765
8.07009,2.57252,0.822116,19,32765
8.02144,2.52813,0.817079,19,32765
1.97498,1.45042,0.310863,21,32765
1.97216,1.43791,0.30756,23,32765
2.00944,1.45452,0.310698,23,32765
2.01444,1.44795,0.309031,24,32765
1.98701,1.41841,0.302543,23,32765
2.01613,1.42924,0.304311,24,32765
2.00479,1.4112,0.300376,23,32765
1.99333,1.39328,0.296513,23,32765
1.99803,1.38681,0.295177,23,32765
2.03548,1.40282,0.298337,25,32765
2.02384,1.38494,0.294825,24,32765
2.03679,1.38391,0.294435,23,32765
2.04154,1.37719,0.29301,25,32765
2.04629,1.37044,0.291573,25,32765
2.05101,1.36362,0.290331,24,32765
2.03913,1.34586,0.286729,24,32765
2.06034,1.34998,0.288015,24,32765
2.03993,1.32704,0.283112,25,32765
2.06106,1.33121,0.284281,25,32765
2.04043,1.30851,0.279385,23,32765
2.06991,1.31793,0.281831,24,32765
2.05754,1.30059,0.278374,24,32765
2.07876,1.30445,0.279377,24,32765
2.10844,1.31346,0.281591,25,32765
2.096,1.29607,0.278184,24,32765
2.10039,1.28911,0.277408,24,32765
2.13025,1.29766,0.279683,25,32765
2.13467,1.29063,0.278469,25,32765
2.12196,1.2734,0.275347,25,32765
2.12629,1.26638,0.27432,25,32765
2.14774,1.26949,0.275174,25,32765
2.16063,1.26743,0.27517,27,32765
2.16495,1.26026,0.274067,26,32765
2.16915,1.25321,0.273235,27,32765
2.19064,1.25595,0.274342,26,32765
2.17759,1.23894,0.271213,26,32765
2.18179,1.23177,0.270086,26,32765
2.22936,1.24884,0.274334,27,32765
2.19877,1.22218,0.269441,25,32765
2.20292,1.21495,0.268162,25,32765
2.22442,1.21727,0.269661,25,32765
2.23721,1.21476,0.269867,26,32765
2.22381,1.19793,0.266875,25,32765
2.25418,1.20465,0.26903,24,32765
2.26707,1.20177,0.269365,21,32765
2.34158,1.23128,0.27665,14,32765
1.96656,1.02568,0.231334,11,32765
1.90826,0.987092,0.223162,11,32765
2.33644,1.19859,0.272071,14,32765
2.37601,1.2088,0.275276,18,32765
2.42455,1.22327,0.27941,22,32765
2.41988,1.21062,0.277461,22,32765
2.40613,1.19377,0.274685,23,32765
2.41015,1.1858,0.273935,20,32765
2.40523,1.17345,0.272031,19,32765
2.38233,1.15254,0.267913,19,32765
2.35041,1.12733,0.262901,21,32765
2.36318,1.12383,0.263192,20,32765
2.331,1.09899,0.2584,20,32765
2.32572,1.08703,0.256513,20,32765
2.34744,1.0877,0.257798,22,32765
2.39634,1.10073,0.261596,15,32765
10.5964,4.82479,1.15183,14,32765
10.522,4.7489,1.13798,15,32765
10.4384,4.66911,1.12225,15,32765
10.3358,4.5821,1.10644,15,32765
10.2331,4.49535,1.08991,14,32765
10.0111,4.358,1.06159,14,32765
9.89796,4.26963,1.04382,14,32765
2.40719,1.02883,0.252711,14,32765
2.42905,1.02856,0.253555,19,32765
2.37748,0.997332,0.247017,12,32765
0,0,0,0,32765
9.50004,3.91115,0.976993,14,32765
9.31958,3.80117,0.953284,14,32765
9.21233,3.72229,0.937001,14,32765
9.14141,3.65908,0.92621,14,32765
9.06112,3.59246,0.913446,14,32765
9.04535,3.55193,0.907191,15,32765
8.89952,3.46116,0.88716,14,32765
8.79033,3.38554,0.871677,14,32765
8.72718,3.32854,0.86114,15,32765
8.65443,3.2686,0.849253,15,32765
8.57204,3.20561,0.836817,15,32765
8.49885,3.14627,0.824956,15,32765
8.42544,3.08727,0.812936,16,32765
8.34229,3.02557,0.800159,16,32765
8.27733,2.97182,0.789308,15,32765
8.14649,2.89484,0.772705,16,32765
8.11852,2.85555,0.764892,15,32765
8.0809,2.81307,0.757493,16,32765
7.99604,2.75471,0.745008,16,32765
7.90135,2.69411,0.731368,16,32765
7.83446,2.64421,0.720733,15,32765
7.84307,2.61952,0.717168,16,32765
7.78554,2.57245,0.707707,15,32765
7.69959,2.51616,0.694391,17,32765
7.68894,2.48563,0.688487,17,32765
7.59238,2.42907,0.674817,17,32765
7.54307,2.38807,0.665497,17,32765
7.53183,2.35876,0.658924,18,32765
1.96803,1.44786,0.286659,25,32765
1.98122,1.44706,0.285769,24,32765
1.98637,1.44035,0.283926,25,32765
1.99937,1.43964,0.283419,26,32765
2.0123,1.43898,0.282997,25,32765
2.01719,1.4325,0.281073,26,32765
2.01397,1.42014,0.278445,26,32765
2.0188,1.41355,0.276994,26,32765
2.03989,1.41832,0.277863,26,32765
2.0202,1.39471,0.272879,26,32765
2.01672,1.38246,0.270662,26,32765
2.02144,1.37585,0.269089,25,32765
2.03439,1.37474,0.268761,26,32765
2.01436,1.35138,0.26408,25,32765
2.05211,1.3667,0.267165,26,32765
2.04852,1.35438,0.264821,26,32765
2.03652,1.33666,0.261641,26,32765
2.04103,1.33002,0.26022,25,32765
2.04548,1.3234,0.259086,25,32765
2.075,1.33295,0.260789,26,32765
2.05427,1.3102,0.256651,25,32765
2.08387,1.31947,0.258602,27,32765
2.0799,1.30737,0.256289,26,32765
2.09273,1.30586,0.256154,27,32765
2.09716,1.29897,0.254997,26,32765
2.1185,1.30241,0.25627,26,32765
2.12295,1.29537,0.255191,27,32765
2.14437,1.29866,0.256012,27,32765
2.14021,1.28648,0.254084,27,32765
2.15313,1.28449,0.254055,27,32765
2.14895,1.27231,0.251695,27,32765
2.14469,1.26016,0.249599,28,32765
2.16619,1.26305,0.250491,27,32765
2.17038,1.25599,0.249657,28,32765
2.17464,1.24882,0.248602,28,32765
2.18748,1.2466,0.248615,27,32765
2.17438,1.22959,0.245524,25,32765
2.12649,1.19314,0.238594,23,32765
2.00004,1.11351,0.223419,23,32765
2.09966,1.15987,0.232884,23,32765
2.21699,1.21516,0.244826,25,32765
2.15109,1.16986,0.236295,21,32765
2.12876,1.14856,0.232566,15,32765
2.06244,1.10393,0.223996,13,32765
2.04861,1.08769,0.221445,17,32765
2.07874,1.09479,0.223348,19,32765
2.25011,1.17542,0.240649,25,32765
2.32488,1.20449,0.247088,24,32765
2.46183,1.26489,0.26046,24,32765
2.41293,1.2295,0.253905,22,32765
2.45269,1.23938,0.256625,21,32765
2.41246,1.20877,0.251052,19,32765
2.39869,1.19192,0.248464,16,32765
2.38484,1.17515,0.245874,14,32765
10.611,5.18476,1.08823,27,32765
10.6375,5.15414,1.0843,25,32765
10.6103,5.09678,1.07529,18,32765
0,0,0,0,32765
10.4825,4.94963,1.0522,16,32765
0,0,0,0,32765
10.0371,4.6577,0.997444,15,32765
0,0,0,0,32765
9.98689,4.55401,0.981566,16,32765
9.86609,4.45948,0.96445,16,32765
9.74503,4.36543,0.946523,16,32765
9.65959,4.28862,0.933897,16,32765
9.5193,4.18792,0.915334,16,32765
9.46043,4.12433,0.905396,16,32765
9.29155,4.0139,0.883956,16,32765
9.28688,3.97498,0.879224,16,32765
0,0,0,0,32765
2.40656,1.01099,0.225301,20,32765
2.44683,1.01825,0.227552,17,32765
8.8982,3.66863,0.823883,16,32765
8.84592,3.61314,0.814275,17,32765
8.72871,3.53192,0.798571,17,32765
8.66636,3.47385,0.789589,17,32765
8.57612,3.40498,0.777099,18,32765
8.51332,3.34773,0.76713,17,32765
8.44097,3.28744,0.755594,17,32765
8.3404,3.21676,0.742337,17,32765
8.29525,3.16822,0.734359,17,32765
8.23122,3.1131,0.724316,18,32765
8.1669,3.05835,0.714612,19,32765
8.05576,2.98636,0.700518,18,32765
7.99109,2.93215,0.690352,19,32765
7.97291,2.89559,0.684337,19,32765
7.86994,2.82944,0.671198,19,32765
7.83243,2.78705,0.664124,19,32765
7.74764,2.72882,0.652101,20,32765
7.7378,2.6973,0.647669,20,32765
7.68074,2.64968,0.63863,20,32765
7.62336,2.60284,0.629295,20,32765
7.56555,2.5569,0.620314,20,32765
7.50768,2.51087,0.611478,21,32765
7.47812,2.47419,0.605118,21,32765
7.4486,2.4374,0.597489,21,32765
7.37124,2.38611,0.586623,21,32765
7.32176,2.34562,0.577915,20,32765
7.27212,2.30536,0.56931,21,32765
7.2225,2.2649,0.560147,20,32765
1.95523,1.43682,0.257367,22,32765
1.9922,1.45372,0.26126,24,32765
1.98092,1.4355,0.258636,24,32765
2.00187,1.44055,0.260242,24,32765
1.95809,1.39927,0.253614,22,32765
1.99525,1.41578,0.257221,24,32765
2.00808,1.415,0.257507,24,32765
2.02081,1.41428,0.25789,24,32765
2.0255,1.40768,0.257252,25,32765
2.00563,1.38409,0.253464,23,32765
2.03491,1.39426,0.256067,24,32765
2.0232,1.37632,0.253014,25,32765
2.00304,1.35298,0.249347,24,32765
2.04063,1.36853,0.252638,25,32765
2.05343,1.36747,0.252728,23,32765
2.04135,1.34977,0.250243,24,32765
2.0043,1.31577,0.244233,23,32765
2.04212,1.33081,0.247366,24,32765
2.05502,1.32936,0.247583,24,32765
2.0763,1.33324,0.248674,26,32765
2.08077,1.3264,0.247961,25,32765
2.05998,1.30363,0.244029,25,32765
2.04743,1.2864,0.241102,23,32765
2.09388,1.30612,0.245221,26,32765
2.07281,1.28366,0.241244,25,32765
2.06869,1.2715,0.239622,23,32765
2.12397,1.29569,0.244809,25,32765
2.10281,1.2732,0.240941,23,32765
2.11567,1.27131,0.241084,26,32765
2.13705,1.27453,0.242092,25,32765
2.14133,1.26751,0.241076,26,32765
2.16282,1.27046,0.241918,27,32765
2.15844,1.25836,0.240346,26,32765
2.15409,1.24625,0.238289,25,32765
2.15824,1.23917,0.237586,27,32765
2.17112,1.23689,0.237566,24,32765
2.10604,1.19042,0.228912,21,32765
1.99726,1.12002,0.21562,21,32765
1.98369,1.10365,0.212913,21,32765
2.03099,1.12114,0.21683,19,32765
2.21816,1.21489,0.235366,20,32765
2.14353,1.16481,0.225854,14,32765
1.98965,1.07275,0.208355,13,32765
1.91425,1.0239,0.199244,15,32765
2.01447,1.0689,0.208487,19,32765
2.06216,1.08538,0.212242,19,32765
2.18944,1.14306,0.223979,21,32765
2.26408,1.17238,0.230341,25,32765
2.2947,1.17842,0.231872,22,32765
2.36967,1.20696,0.23831,17,32765
2.41829,1.22141,0.241778,13,32765
2.44026,1.22222,0.242695,12,32765
10.5271,5.22858,1.04002,16,32765
10.5717,5.20674,1.03788,21,32765
10.4995,5.1286,1.02477,18,32765
10.4365,5.05402,1.01265,16,32765
10.3552,4.97125,0.998885,14,32765
10.2191,4.86402,0.980488,15,32765
10.0013,4.71956,0.954306,14,32765
9.94457,4.65349,0.943871,14,32765
9.87891,4.58294,0.932066,14,32765
9.76758,4.49198,0.916827,13,32765
9.62851,4.38962,0.898589,14,32765
9.52542,4.30404,0.884142,13,32765
9.38519,4.20352,0.866647,14,32765
9.24462,4.10338,0.84958,13,32765
9.2222,4.05634,0.842142,13,32765
9.1536,3.98996,0.83204,13,32765
9.04804,3.90837,0.818362,14,32765
8.95105,3.83178,0.805655,13,32765
8.88143,3.76704,0.794964,13,32765
8.80225,3.69898,0.783836,13,32765
2.47502,1.03061,0.219592,20,32765
2.41397,0.995855,0.213077,13,32765
0,0,0,0,32765
0,0,0,0,32765
8.4372,3.38357,0.734547,15,32765
8.41134,3.34131,0.728938,15,32765
8.23694,3.24068,0.710724,14,32765
8.24754,3.21392,0.709382,15,32765
8.2117,3.16885,0.703801,15,32765
8.08263,3.08839,0.689487,15,32765
7.98092,3.01955,0.678905,15,32765
7.96286,2.98304,0.67468,15,32765
7.93514,2.94368,0.669653,15,32765
8.00087,2.93847,0.673709,15,32765
0,0,0,0,32765
7.83235,2.81906,0.655519,17,32765
0,0,0,0,32765
7.8037,2.7514,0.649668,16,32765
0,0,0,0,32765
7.50127,2.5898,0.620855,19,32765
0,0,0,0,32765
7.35725,2.48735,0.606666,18,32765
0,0,0,0,32765
7.48657,2.47812,0.615057,21,32765
0,0,0,0,32765
7.40737,2.39956,0.607497,17,32765
7.42433,2.37933,0.608688,20,32765
7.34607,2.32919,0.602504,18,32765
7.29613,2.28824,0.599433,18,32765
1.97174,1.45187,0.236508,24,32765
1.97663,1.44525,0.236182,24,32765
1.98949,1.44459,0.236621,25,32765
1.97818,1.42634,0.234213,25,32765
1.991,1.42561,0.234829,24,32765
2.01203,1.43051,0.236147,25,32765
2.00866,1.41818,0.234433,25,32765
2.02141,1.41747,0.23472,24,32765
2.03428,1.41654,0.235024,25,32765
2.06356,1.42684,0.237158,25,32765
2.04375,1.40303,0.233831,26,32765
2.03207,1.38502,0.230958,26,32765
2.04492,1.38391,0.231299,25,32765
2.0413,1.3716,0.22955,25,32765
2.02926,1.35395,0.226768,25,32765
2.04204,1.35279,0.227244,26,32765
2.03826,1.3406,0.22538,25,32765
2.0595,1.34467,0.22629,25,32765
2.0641,1.33774,0.225492,26,32765
2.06029,1.32544,0.223663,25,32765
2.08151,1.32936,0.224766,26,32765
2.07755,1.3172,0.222917,25,32765
2.09875,1.3211,0.223763,26,32765
2.1031,1.3143,0.222916,27,32765
2.1159,1.31276,0.222777,27,32765
2.12884,1.31089,0.223011,26,32765
2.12478,1.29856,0.221415,27,32765
2.12917,1.29152,0.220472,27,32765
2.15916,1.29981,0.222267,27,32765
2.14644,1.28246,0.219567,27,32765
2.14218,1.27031,0.217675,27,32765
2.1551,1.26822,0.217461,27,32765
2.1335,1.24606,0.214256,24,32765
2.01704,1.16906,0.20113,21,32765
1.99503,1.14751,0.1979,23,32765
1.99895,1.14084,0.197005,22,32765
1.98552,1.1243,0.194278,23,32765
1.99809,1.12248,0.194079,23,32765
1.98452,1.10607,0.191557,22,32765
2.00569,1.10913,0.192493,23,32765
2.00942,1.10251,0.191581,23,32765
2.00439,1.09112,0.18965,24,32765
2.02557,1.09403,0.190383,23,32765
2.04684,1.09674,0.191121,20,32765
2.19135,1.16479,0.203362,25,32765
2.23938,1.18072,0.206579,26,32765
2.24339,1.17326,0.205592,28,32765
2.27393,1.17951,0.207153,28,32765
2.30457,1.18554,0.208397,29,32765
2.29081,1.1688,0.206092,28,32765
2.29484,1.16105,0.205146,26,32765
2.29879,1.15334,0.204335,16,32765
10.032,4.99121,0.885278,17,32765
9.91491,4.89157,0.868972,17,32765
9.78788,4.78912,0.852386,16,32765
9.69675,4.70374,0.839064,16,32765
9.5782,4.60602,0.823535,16,32765
9.53079,4.54406,0.8147,16,32765
9.42895,4.45697,0.801167,16,32765
9.32623,4.37146,0.787869,17,32765
9.23243,4.2902,0.774883,16,32765
9.12006,4.20119,0.761173,15,32765
9.04343,4.12974,0.750046,17,32765
8.95756,4.05417,0.738524,16,32765
8.86191,3.97571,0.726542,16,32765
8.82984,3.92574,0.720143,17,32765
8.71552,3.83978,0.705868,16,32765
8.60959,3.75898,0.693806,16,32765
8.55812,3.70278,0.685919,17,32765
8.48789,3.63943,0.676679,17,32765
8.42675,3.57999,0.667727,17,32765
8.31931,3.50169,0.655511,18,32765
8.43206,3.51683,0.66176,19,32765
2.29532,0.948428,0.179126,15,32765
2.48305,1.01654,0.192958,22,32765
2.43101,0.985816,0.187802,13,32765
8.00636,3.21589,0.615465,17,32765
7.95212,3.1639,0.608224,18,32765
7.8884,3.10846,0.600483,18,32765
