x, y, z, intensity, ring
3.01924,1.11349,0.11285,18,32765
2.89143,1.05576,0.106776,17,32765
2.86667,1.03624,0.10444,17,32765
2.93594,1.05047,0.105593,17,32765
2.96772,1.05077,0.104904,18,32765
2.83919,0.994649,0.0988521,17,32765
2.94629,1.02153,0.101158,19,32765
2.90228,0.996003,0.0983129,19,32765
2.88651,0.98048,0.0959346,19,32765
2.83282,0.952168,0.0926851,18,32765
2.85493,0.949238,0.0918108,18,32765
2.87701,0.946289,0.0909373,19,32765
2.87997,0.937359,0.0895831,18,32765
2.92099,0.9406,0.0892173,19,32765
2.86683,0.913264,0.0855467,18,32765
2.8222,0.88887,0.0819664,18,32765
2.87272,0.894902,0.081876,19,32765
3.67439,2.70109,0.296454,16,32765
3.69157,2.69493,0.293353,18,32765
3.67671,2.66486,0.287784,16,32765
3.62112,2.60582,0.279401,17,32765
3.6867,2.63461,0.280577,19,32765
3.65473,2.59382,0.274163,18,32765
3.58181,2.52437,0.265126,16,32765
3.61483,2.52977,0.263925,17,32765
3.57424,2.48357,0.257542,18,32765
3.57443,2.46607,0.253897,17,32765
3.53329,2.42046,0.247665,17,32765
3.5332,2.4031,0.244988,19,32765
3.54137,2.39133,0.242138,18,32765
3.51629,2.35731,0.237483,19,32765
3.54921,2.36221,0.236566,20,32765
3.54049,2.3395,0.232745,19,32765
3.45643,2.26767,0.224466,18,32765
3.48079,2.26712,0.22334,18,32765
3.46317,2.23947,0.219361,19,32765
3.42034,2.19555,0.213929,19,32765
3.39397,2.16287,0.209523,18,32765
3.44338,2.17841,0.209932,19,32765
3.40832,2.14055,0.205669,20,32765
3.44078,2.14539,0.204832,20,32765
3.38855,2.09717,0.199302,19,32765
3.3871,2.08069,0.196715,19,32765
3.40267,2.07457,0.19517,20,32765
3.40112,2.05808,0.192574,20,32765
3.35663,2.01597,0.187847,19,32765
3.34621,1.99465,0.185085,18,32765
3.31846,1.9633,0.181407,18,32765
3.25613,1.91181,0.176078,18,32765
3.31441,1.93105,0.176893,19,32765
3.32093,1.91996,0.175414,19,32765
3.30142,1.89395,0.17232,19,32765
3.29911,1.87804,0.169883,19,32765
3.29664,1.86225,0.168172,19,32765
3.25941,1.82671,0.164209,19,32765
3.23944,1.80115,0.161259,19,32765
3.25437,1.79498,0.159878,19,32765
3.26038,1.78416,0.158476,19,32765
3.21359,1.74488,0.154314,20,32765
3.21939,1.73425,0.153242,19,32765
3.22522,1.72357,0.15127,19,32765
3.14275,1.66596,0.145913,20,32765
3.21034,1.68787,0.147261,21,32765
3.11854,1.62632,0.142121,19,32765
3.14175,1.62517,0.140887,20,32765
3.1739,1.62833,0.140664,20,32765
3.21499,1.63586,0.141197,22,32765
3.16702,1.59799,0.137495,22,32765
3.10987,1.55607,0.133331,20,32765
3.12403,1.55013,0.132718,21,32765
3.12034,1.53517,0.130895,20,32765
3.12557,1.52461,0.129499,20,32765
3.13976,1.5184,0.128306,20,32765
3.08179,1.47766,0.12451,20,32765
3.10481,1.47592,0.124267,20,32765
3.11882,1.46978,0.1232,21,32765
3.07846,1.43829,0.120078,20,32765
3.11048,1.44062,0.120065,20,32765
3.05171,1.40109,0.116701,20,32765
3.05638,1.39097,0.115381,20,32765
3.06107,1.38074,0.113989,20,32765
3.05659,1.36644,0.112115,20,32765
3.0337,1.34421,0.1102,20,32765
3.02909,1.33002,0.108354,22,32765
2.99689,1.30396,0.106099,20,32765
3.04723,1.31357,0.106364,21,32765
3.03333,1.29537,0.10438,22,32765
3.01932,1.27733,0.102733,21,32765
3.00517,1.25955,0.100542,21,32765
3.03706,1.26107,0.100315,23,32765
2.97652,1.22445,0.0970583,21,32765
2.97135,1.21081,0.0953804,21,32765
2.99392,1.20847,0.0946145,22,32765
2.97936,1.19117,0.0928758,22,32765
2.99264,1.18493,0.0918959,22,32765
2.96864,1.16413,0.0898868,22,32765
3.00043,1.16524,0.0894695,22,32765
2.93898,1.13026,0.0861744,21,32765
2.95205,1.12417,0.0851529,21,32765
2.93707,1.10736,0.0834031,23,32765
2.97819,1.11172,0.0829016,21,32765
2.92557,1.08122,0.0800043,22,32765
2.91031,1.06489,0.0783148,21,32765
2.94196,1.0657,0.0777404,21,32765
2.87017,1.0291,0.0745362,22,32765
2.89245,1.02627,0.0733621,22,32765
2.85816,1.0034,0.071006,20,32765
2.88974,1.00402,0.0704257,21,32765
2.93074,1.00789,0.0701091,21,32765
2.84875,0.969688,0.0663572,23,32765
2.87082,0.966967,0.0654162,22,32765
2.85502,0.951265,0.0634886,22,32765
2.85811,0.94205,0.0620135,22,32765
2.85155,0.93006,0.0604653,23,32765
2.84497,0.918045,0.0587543,21,32765
2.85739,0.912173,0.057029,23,32765
2.8318,0.893777,0.0542908,22,32765
2.88234,0.899792,0.0537236,25,32765
3.68604,2.70723,0.245812,15,32765
3.74331,2.7305,0.248196,13,32765
3.66336,2.65375,0.241515,14,32765
3.63975,2.6183,0.238454,14,32765
3.67299,2.62349,0.238386,16,32765
3.64093,2.58249,0.235083,14,32765
3.52694,2.48438,0.225791,15,32765
3.61702,2.53001,0.229386,16,32765
3.46141,2.4041,0.217519,15,32765
3.55998,2.45486,0.221679,16,32765
3.60107,2.46572,0.222211,16,32765
3.57624,2.43135,0.218978,15,32765
3.55949,2.40279,0.215898,15,32765
3.54256,2.37444,0.212678,15,32765
3.55047,2.3627,0.211361,16,32765
3.51667,2.32346,0.207257,16,32765
3.49929,2.29549,0.204338,16,32765
3.49018,2.27307,0.20182,16,32765
3.4139,2.20726,0.195333,16,32765
3.48864,2.23895,0.19755,16,32765
3.42876,2.18442,0.191956,17,32765
3.46143,2.18899,0.19181,17,32765
3.40952,2.14037,0.186842,15,32765
3.43366,2.13957,0.18626,16,32765
3.3474,2.07031,0.179904,16,32765
3.38834,2.08019,0.179893,16,32765
3.36962,2.05351,0.176926,17,32765
3.38507,2.04744,0.175794,17,32765
3.3234,1.99507,0.170576,17,32765
3.3216,1.97877,0.168416,16,32765
3.32829,1.96763,0.166813,17,32765
3.3349,1.95654,0.165257,16,32765
3.28099,1.91033,0.160412,16,32765
3.26146,1.88439,0.157773,17,32765
3.33708,1.91337,0.159318,17,32765
3.29139,1.87266,0.155027,16,32765
3.22802,1.82246,0.150379,16,32765
3.30393,1.8507,0.151861,15,32765
3.27525,1.8202,0.148633,17,32765
3.159,1.74151,0.141413,16,32765
3.18241,1.74049,0.140796,16,32765
3.23217,1.75371,0.141322,16,32765
3.21165,1.72873,0.138781,17,32765
3.20853,1.71353,0.136896,15,32765
3.2496,1.72156,0.136908,18,32765
3.15812,1.65951,0.131264,18,32765
3.11057,1.62119,0.127333,17,32765
3.125,1.61521,0.125917,16,32765
3.11266,1.59562,0.12393,17,32765
3.15369,1.60329,0.123571,17,32765
3.20371,1.61521,0.124219,17,32765
3.21814,1.60888,0.122822,18,32765
3.08038,1.52692,0.115598,17,32765
3.06759,1.50776,0.11381,18,32765
3.08166,1.50186,0.112506,17,32765
3.11371,1.50458,0.112377,19,32765
3.11872,1.49428,0.11086,17,32765
3.187,1.51379,0.111301,18,32765
3.02931,1.42648,0.104623,16,32765
3.00697,1.40357,0.102485,17,32765
3.01169,1.39352,0.101066,16,32765
3.03449,1.39191,0.100238,16,32765
3.02091,1.37361,0.0983837,17,32765
3.0164,1.35941,0.0970436,17,32765
3.11219,1.39018,0.0988359,17,32765
3.08024,1.36372,0.0964628,19,32765
2.95662,1.29729,0.0912597,17,32765
3.00679,1.30739,0.0914873,18,32765
2.94686,1.26975,0.0885296,17,32765
2.9787,1.27168,0.0882907,18,32765
3.04747,1.28881,0.0892957,19,32765
2.98726,1.25157,0.0862242,16,32765
2.8899,1.19942,0.0821616,17,32765
2.93085,1.20509,0.0824311,18,32765
2.97187,1.2105,0.0825481,18,32765
2.98504,1.20468,0.0818637,18,32765
2.95185,1.18009,0.0800201,20,32765
3.00219,1.18883,0.0803033,20,32765
2.97818,1.16801,0.0787599,19,32765
2.93545,1.14005,0.0768216,20,32765
2.9765,1.14484,0.0769124,19,32765
2.88687,1.09939,0.0738286,20,32765
2.88112,1.08637,0.073028,18,32765
2.89408,1.08034,0.0728068,17,32765
2.92579,1.08115,0.0726998,20,32765
2.89177,1.05784,0.0709295,19,32765
2.84821,1.0314,0.0694316,19,32765
2.88918,1.03571,0.0696777,19,32765
2.84542,1.00963,0.0681608,19,32765
2.83926,0.997058,0.0674748,19,32765
2.88974,1.00419,0.0679283,19,32765
2.8363,0.975194,0.0664436,19,32765
2.84888,0.969294,0.0665891,18,32765
2.86148,0.963299,0.0663197,18,32765
2.87406,0.957246,0.0661695,19,32765
2.86763,0.94488,0.0657719,20,32765
2.85163,0.929479,0.0653549,20,32765
2.86409,0.923502,0.065226,18,32765
2.82886,0.902376,0.0647499,18,32765
2.83171,0.893379,0.0647067,19,32765
2.76765,0.863742,0.0638675,18,32765
3.61995,2.66574,0.1995,19,32765
3.56418,2.60671,0.195152,16,32765
3.57279,2.59495,0.19437,17,32765
3.60573,2.60063,0.194764,17,32765
3.51707,2.51869,0.187916,19,32765
3.50098,2.4897,0.185969,18,32765
3.47651,2.45521,0.182851,18,32765
3.46012,2.42654,0.179998,18,32765
3.52561,2.45502,0.181457,19,32765
3.41064,2.35794,0.173675,17,32765
3.43493,2.35801,0.173063,18,32765
3.50058,2.386,0.17479,19,32765
3.40921,2.30723,0.168341,18,32765
3.44174,2.31274,0.167897,19,32765
3.39958,2.26804,0.164205,19,32765
3.43212,2.27335,0.163815,19,32765
3.38954,2.22912,0.160024,20,32765
3.34675,2.18515,0.156177,19,32765
3.39599,2.2012,0.156486,18,32765
3.34462,2.15191,0.152222,19,32765
3.37711,2.1569,0.151606,20,32765
3.29153,2.08675,0.145958,19,32765
3.34078,2.10245,0.146167,19,32765
3.32242,2.0754,0.143593,18,32765
3.35488,2.08008,0.143388,19,32765
3.32775,2.04805,0.140127,20,32765
3.32598,2.03193,0.138175,19,32765
3.28155,1.98972,0.134513,19,32765
3.23683,1.94788,0.130786,19,32765
3.22628,1.92671,0.128419,20,32765
3.2156,1.90567,0.126183,19,32765
3.23923,1.90507,0.125343,20,32765
3.21969,1.87922,0.122518,19,32765
3.19141,1.84841,0.119858,18,32765
3.15425,1.81294,0.116526,19,32765
3.22977,1.84207,0.11731,20,32765
3.23591,1.83134,0.115927,18,32765
3.15495,1.77153,0.111126,19,32765
3.2046,1.78524,0.111067,20,32765
3.097,1.71145,0.105492,19,32765
3.18167,1.74428,0.106771,19,32765
3.15239,1.71454,0.104212,20,32765
3.14935,1.69926,0.102557,20,32765
3.16375,1.69366,0.101357,20,32765
3.11646,1.65498,0.0982283,20,32765
3.08668,1.62585,0.0955961,20,32765
3.11876,1.62934,0.0946854,21,32765
3.09772,1.60492,0.0921122,21,32765
3.10312,1.59452,0.0908411,21,32765
3.13523,1.5977,0.0898539,22,32765
3.10493,1.56912,0.0877666,21,32765
3.04769,1.52728,0.084348,20,32765
3.03501,1.508,0.082111,20,32765
3.07597,1.51546,0.0819585,19,32765
3.0182,1.47441,0.07868,19,32765
3.05915,1.4817,0.0785208,21,32765
2.97396,1.42828,0.0747621,19,32765
3.02394,1.43972,0.0741825,19,32765
2.97452,1.40397,0.0718674,19,32765
2.9974,1.40238,0.071104,20,32765
2.98397,1.38393,0.0692663,20,32765
2.97948,1.36987,0.0676421,20,32765
2.95673,1.34757,0.0657937,20,32765
3.02502,1.36648,0.0661617,20,32765
2.92919,1.31148,0.0628947,20,32765
2.96095,1.31396,0.0623135,20,32765
2.95617,1.3001,0.0609233,20,32765
2.96967,1.29425,0.0599391,20,32765
2.94643,1.27251,0.0583768,19,32765
2.97826,1.27444,0.057854,22,32765
2.93658,1.24478,0.0560893,21,32765
2.96841,1.24654,0.055439,22,32765
2.92644,1.21738,0.0534264,21,32765
2.94895,1.21532,0.052976,21,32765
2.9252,1.19422,0.051567,20,32765
2.97539,1.20354,0.0514425,22,32765
2.90507,1.16405,0.0493448,21,32765
2.96465,1.17665,0.0493259,22,32765
2.91269,1.14494,0.0476162,21,32765
2.90716,1.13164,0.0467612,21,32765
2.90153,1.11855,0.045747,21,32765
2.85853,1.09107,0.0443435,21,32765
2.89018,1.09225,0.044213,20,32765
2.86569,1.07216,0.043328,23,32765
2.86924,1.06265,0.0425281,22,32765
2.84456,1.04292,0.0412848,22,32765
2.83855,1.03023,0.0408015,22,32765
2.87952,1.03457,0.0406719,22,32765
2.82634,1.00511,0.0394932,22,32765
2.81074,0.989255,0.0387725,21,32765
2.86119,0.996494,0.0387607,23,32765
2.84555,0.980559,0.0383499,23,32765
2.8203,0.961707,0.0378908,22,32765
2.81392,0.949396,0.0372796,22,32765
2.798,0.933984,0.0366671,22,32765
2.83898,0.937512,0.0369853,23,32765
2.80396,0.915959,0.0365072,22,32765
2.82589,0.913194,0.0364111,23,32765
2.80016,0.895186,0.0364285,23,32765
2.81254,0.889274,0.0365081,23,32765
2.81528,0.880525,0.0372043,23,32765
3.55931,2.61192,0.213579,15,32765
3.61671,2.63526,0.212623,15,32765
3.60944,2.61157,0.207982,16,32765
3.61825,2.59964,0.204254,15,32765
3.56998,2.54721,0.197701,15,32765
3.48056,2.46634,0.189005,15,32765
3.61133,2.54119,0.192562,17,32765
3.54608,2.47784,0.185832,15,32765
3.5465,2.45998,0.182372,16,32765
3.48091,2.39695,0.175472,16,32765
3.45602,2.36281,0.170787,16,32765
3.49693,2.37393,0.169828,16,32765
3.44665,2.3236,0.164651,17,32765
3.47092,2.3235,0.162672,18,32765
3.4038,2.26224,0.156671,17,32765
3.42809,2.26192,0.154953,16,32765
3.39395,2.22306,0.150648,17,32765
3.39298,2.20643,0.147815,17,32765
3.34158,2.15728,0.142802,16,32765
3.32348,2.13015,0.139572,16,32765
3.33048,2.11933,0.137275,17,32765
3.28688,2.07623,0.133314,15,32765
3.26835,2.04955,0.129856,16,32765
3.34306,2.081,0.130404,17,32765
3.34999,2.06994,0.128375,17,32765
3.16941,1.94396,0.119384,15,32765
3.30397,2.01141,0.122002,16,32765
3.24229,1.95903,0.117733,17,32765
3.25746,1.95332,0.116011,17,32765
3.22104,1.91695,0.112603,16,32765
3.25323,1.92156,0.111747,17,32765
3.25967,1.91073,0.109769,18,32765
3.17096,1.8447,0.10494,17,32765
3.22906,1.86416,0.104873,17,32765
3.2007,1.83336,0.102226,15,32765
3.14603,1.78809,0.0983604,16,32765
3.13462,1.76773,0.0961591,16,32765
3.15799,1.76706,0.094799,17,32765
3.16394,1.75646,0.0933328,16,32765
3.09971,1.70744,0.0896692,16,32765
3.09672,1.69218,0.0880968,16,32765
3.05839,1.65813,0.0849541,17,32765
3.10803,1.67147,0.0849807,17,32765
3.06069,1.63288,0.0822563,16,32765
3.10146,1.64144,0.0818657,17,32765
3.12474,1.64026,0.0805577,19,32765
3.08598,1.60661,0.0770346,19,32765
3.08239,1.59188,0.0753252,16,32765
3.0789,1.57686,0.0739299,18,32765
3.07535,1.56191,0.0720215,17,32765
3.08961,1.55593,0.0709047,17,32765
3.09487,1.54548,0.069652,18,32765
3.01939,1.49524,0.0667216,18,32765
3.04235,1.49396,0.0657942,18,32765
3.03835,1.47943,0.0643919,18,32765
3.01635,1.45611,0.0623406,17,32765
3.00323,1.43726,0.0613175,18,32765
3.03524,1.43984,0.0613328,18,32765
2.99485,1.40838,0.0585844,17,32765
3.05395,1.42369,0.0584156,19,32765
2.99517,1.38414,0.0557425,18,32765
3.02703,1.38669,0.0552819,17,32765
3.01345,1.36834,0.0534674,17,32765
2.9451,1.32541,0.0509331,17,32765
2.97694,1.32774,0.0504052,17,32765
2.99054,1.32178,0.0494268,17,32765
2.98585,1.30767,0.0478141,17,32765
2.95354,1.28174,0.0459813,17,32765
2.93028,1.26001,0.04425,18,32765
2.94367,1.25418,0.0431578,17,32765
2.89259,1.221,0.0411891,17,32765
2.89662,1.21144,0.0398502,17,32765
2.97457,1.23238,0.0394177,19,32765
2.89543,1.18828,0.0370183,19,32765
2.84378,1.15609,0.0352014,18,32765
2.85687,1.15045,0.0339975,19,32765
2.8793,1.14827,0.0329094,18,32765
2.88307,1.13884,0.0313433,19,32765
2.8962,1.1328,0.0301588,19,32765
2.86261,1.10885,0.028692,18,32765
2.8756,1.10298,0.0275076,17,32765
2.80446,1.06505,0.0254906,17,32765
2.85469,1.07362,0.0244664,19,32765
2.87691,1.07131,0.0234149,19,32765
2.80527,1.03445,0.0216878,17,32765
2.83679,1.03568,0.0204512,18,32765
2.84018,1.02637,0.019132,19,32765
2.8247,1.01034,0.0175976,18,32765
2.75265,0.974191,0.0156808,17,32765
2.77472,0.971767,0.0146971,18,32765
2.78731,0.966027,0.0130357,18,32765
2.73369,0.937497,0.0116171,17,32765
2.75562,0.935169,0.01025,18,32765
2.80601,0.942237,0.00892476,19,32765
2.76154,0.917573,0.00723554,18,32765
2.72648,0.896201,0.00568389,19,32765
2.73882,0.890657,0.00401757,18,32765
2.69403,0.866645,0.0023764,19,32765
2.79205,0.888451,0.000701467,19,32765
2.77572,0.87376,-0.000876637,20,32765
2.74022,0.853283,-0.00271573,19,32765
3.50909,2.58206,0.169976,17,32765
3.51793,2.57024,0.166221,18,32765
3.51852,2.55268,0.162235,18,32765
3.46225,2.49429,0.155678,17,32765
3.42989,2.45388,0.150635,18,32765
3.495,2.48327,0.149822,20,32765
3.44609,2.43146,0.144431,19,32765
3.47873,2.43733,0.142697,19,32765
3.41336,2.374,0.136753,19,32765
3.4133,2.35672,0.133379,18,32765
3.3553,2.30012,0.127865,19,32765
3.36293,2.28908,0.125369,19,32765
3.33723,2.25586,0.121841,19,32765
3.32807,2.23383,0.118576,18,32765
3.33554,2.2228,0.116123,18,32765
3.318,2.19512,0.112845,19,32765
3.30036,2.16751,0.109637,19,32765
3.25733,2.12386,0.105604,18,32765
3.33994,2.16195,0.105585,20,32765
3.26299,2.09693,0.100813,19,32765
3.2446,2.07015,0.0977915,18,32765
3.2093,2.03259,0.0946862,19,32765
3.24987,2.04335,0.0932627,19,32765
3.23971,2.02199,0.0906953,20,32765
3.22095,1.99545,0.0880285,20,32765
3.19349,1.96388,0.0852587,19,32765
3.22565,1.96889,0.0837923,19,32765
3.18951,1.9322,0.0809618,18,32765
3.21315,1.9318,0.0793867,19,32765
3.2196,1.92111,0.0775018,19,32765
3.13136,1.8544,0.0735338,19,32765
3.17204,1.86421,0.0724132,20,32765
3.16958,1.8487,0.0705791,19,32765
3.14113,1.81812,0.068072,19,32765
3.05194,1.75269,0.064554,19,32765
3.10995,1.77216,0.0637461,20,32765
3.1072,1.7568,0.061921,20,32765
3.14796,1.766,0.0607229,19,32765
3.07528,1.71165,0.0577804,18,32765
3.06344,1.69181,0.0558665,20,32765
3.03409,1.66222,0.0539322,19,32765
3.04839,1.65696,0.052196,20,32765
3.0452,1.64188,0.0508724,19,32765
3.04187,1.62699,0.0494499,21,32765
3.03844,1.6122,0.0479918,20,32765
3.03505,1.59725,0.0461255,20,32765
3.03162,1.58234,0.0436476,20,32765
2.98355,1.54477,0.0414385,20,32765
2.95322,1.51634,0.039812,19,32765
3.01183,1.53354,0.0388686,20,32765
2.97243,1.50072,0.0370153,20,32765
3.00434,1.50407,0.0361296,20,32765
3.00039,1.4896,0.0349076,21,32765
2.97847,1.46629,0.0332964,21,32765
2.97438,1.45194,0.0320105,21,32765
2.9523,1.42879,0.0302691,20,32765
2.97516,1.42741,0.0298059,22,32765
2.94392,1.40003,0.0289208,21,32765
2.96672,1.39866,0.027277,21,32765
2.98047,1.39292,0.0261563,21,32765
2.94883,1.36613,0.0243985,21,32765
2.91701,1.33963,0.0231634,20,32765
2.96698,1.3506,0.0220619,21,32765
2.9077,1.31185,0.0203593,20,32765
2.92124,1.30614,0.0194383,20,32765
2.87077,1.272,0.0179837,19,32765
2.92084,1.28238,0.0168378,20,32765
2.86095,1.24465,0.0152588,20,32765
2.90184,1.25088,0.0141617,20,32765
2.906,1.2412,0.0129441,20,32765
2.87331,1.21587,0.0116261,20,32765
2.85888,1.19862,0.0102279,20,32765
2.85365,1.18521,0.0088036,22,32765
2.8391,1.16805,0.00747195,22,32765
2.85223,1.1624,0.00638346,22,32765
2.88387,1.1642,0.00511242,21,32765
2.85991,1.14336,0.00376075,21,32765
2.81717,1.11556,0.00216729,22,32765
2.8209,1.10608,0.000913005,20,32765
2.84317,1.10404,-0.000154651,21,32765
2.8188,1.08386,-0.00140785,21,32765
2.82238,1.0745,-0.00272078,21,32765
2.79776,1.05481,-0.00411581,22,32765
2.81992,1.05268,-0.00533327,23,32765
2.81389,1.04019,-0.00643784,22,32765
2.80785,1.02764,-0.00785767,22,32765
2.8018,1.015,-0.0091347,21,32765
2.75804,0.988936,-0.0103577,21,32765
2.78961,0.989709,-0.0119327,22,32765
2.83059,0.993782,-0.0132089,23,32765
2.79601,0.971438,-0.0147513,21,32765
2.76133,0.949317,-0.0157189,22,32765
2.78329,0.946895,-0.0172903,23,32765
2.79579,0.941127,-0.0188467,22,32765
2.74183,0.913281,-0.0199925,22,32765
2.71625,0.895053,-0.0212334,21,32765
2.66202,0.867833,-0.0224284,22,32765
2.76944,0.893119,-0.0249265,22,32765
2.71508,0.86611,-0.0261245,23,32765
2.67007,0.842598,-0.0271811,22,32765
2.67265,0.834323,-0.0289881,22,32765
0,0,0,0,32765
0,0,0,0,32765
0,0,0,0,32765
0,0,0,0,32765
0,0,0,0,32765
0,0,0,0,32765
3.3332,2.35054,0.105606,15,32765
3.39823,2.37977,0.106153,16,32765
3.39788,2.36285,0.104836,17,32765
3.34008,2.30593,0.100793,16,32765
3.3973,2.32865,0.100828,16,32765
3.3803,2.30041,0.0988776,17,32765
3.35488,2.26672,0.0963937,16,32765
3.34579,2.24448,0.0942628,17,32765
3.27847,2.18335,0.0906042,17,32765
3.28564,2.17261,0.0889852,17,32765
3.29272,2.16192,0.0879221,15,32765
3.29977,2.1512,0.0864109,17,32765
3.31522,2.14584,0.0847904,18,32765
3.26353,2.09691,0.0820192,17,32765
3.2705,2.0861,0.0799742,17,32765
3.26064,2.06438,0.0784785,17,32765
3.25922,2.04796,0.0764147,18,32765
3.21523,2.00525,0.0733529,16,32765
3.24756,2.01012,0.0721057,17,32765
3.14347,1.93133,0.0682287,14,32765
3.2011,1.95215,0.0677873,16,32765
3.17335,1.92085,0.0653683,15,32765
3.21402,1.93091,0.0644127,16,32765
3.24631,1.93541,0.0633766,17,32765
3.1667,1.8737,0.0601929,16,32765
3.16439,1.85799,0.0582801,16,32765
3.10151,1.80711,0.0555539,16,32765
3.15949,1.82679,0.0545872,17,32765
3.07029,1.76133,0.0514316,17,32765
3.24139,1.84485,0.0527183,16,32765
3.09068,1.74581,0.048326,18,32765
3.02677,1.69632,0.045563,16,32765
3.11975,1.73493,0.0458386,17,32765
3.10808,1.71477,0.0435504,17,32765
3.06128,1.6754,0.0410362,16,32765
3.07572,1.66985,0.0394849,17,32765
3.09899,1.66889,0.0381117,18,32765
3.05159,1.63036,0.0361953,17,32765
3.08348,1.63434,0.0343332,18,32765
2.99155,1.57289,0.032212,17,32765
3.04114,1.58601,0.0307589,18,32765
2.99319,1.54822,0.0277198,18,32765
3.00726,1.54275,0.0266519,18,32765
2.95005,1.5009,0.0246554,17,32765
2.96396,1.49559,0.0227888,18,32765
2.94211,1.47229,0.0214784,16,32765
2.97396,1.47565,0.0200851,17,32765
2.92512,1.43908,0.0183339,17,32765
2.99293,1.45979,0.0172337,18,32765
2.92589,1.41471,0.015677,18,32765
2.98469,1.43091,0.0142779,18,32765
2.96251,1.40775,0.0136775,18,32765
2.96722,1.39781,0.0122348,17,32765
2.9447,1.37518,0.0107248,17,32765
2.92212,1.35261,0.00943521,16,32765
2.89931,1.33042,0.00797386,17,32765
2.84923,1.29567,0.00651091,18,32765
2.86261,1.29037,0.00515528,18,32765
2.82128,1.26034,0.003751,17,32765
2.84373,1.25909,0.00257705,17,32765
2.86618,1.25775,0.00146728,17,32765
2.81534,1.22425,0.000360111,17,32765
2.81938,1.2149,-0.000533159,18,32765
2.8971,1.23665,-0.00197684,18,32765
2.84597,1.20355,-0.00297315,18,32765
2.83149,1.18641,-0.00386757,18,32765
2.86316,1.18841,-0.00508469,18,32765
2.86708,1.17892,-0.00609465,20,32765
2.87098,1.16937,-0.00700799,18,32765
2.79133,1.1263,-0.00768815,18,32765
2.81357,1.12456,-0.00858515,18,32765
2.82655,1.11897,-0.00935917,18,32765
2.82089,1.10606,-0.0101239,17,32765
2.79656,1.08588,-0.0112431,19,32765
2.78144,1.06951,-0.0119686,17,32765
2.81294,1.07113,-0.0126216,18,32765
2.85386,1.07601,-0.0135246,19,32765
2.81051,1.04922,-0.0140468,19,32765
2.79522,1.03293,-0.0149991,19,32765
2.73287,0.999653,-0.0149737,18,32765
2.79255,1.0111,-0.0156626,18,32765
2.73937,0.981672,-0.0161546,18,32765
2.78971,0.989368,-0.0169509,18,32765
2.69857,0.947126,-0.0168026,18,32765
2.72049,0.945007,-0.0174555,18,32765
2.78968,0.959081,-0.0183663,19,32765
2.75488,0.937247,-0.0181777,18,32765
2.75787,0.928404,-0.0185508,19,32765
2.76088,0.919384,-0.0189673,19,32765
2.72585,0.897947,-0.0189964,18,32765
2.74775,0.895323,-0.0189705,19,32765
2.74109,0.883439,-0.0191451,19,32765
2.68671,0.856546,-0.0185615,20,32765
2.72759,0.859946,-0.0189874,19,32765
2.71117,0.845476,-0.0183449,20,32765
0,0,0,17,32765
0,0,0,17,32765
0,0,0,16,32765
0,0,0,15,32765
0,0,0,0,32765
3.23334,2.30259,0.0671576,17,32765
3.33879,2.36135,0.0677004,18,32765
3.30563,2.32166,0.0656373,19,32765
3.29691,2.29928,0.0642769,19,32765
3.32937,2.30518,0.062741,19,32765
3.29591,2.26568,0.0605501,20,32765
3.24569,2.21517,0.0583173,19,32765
3.27796,2.22111,0.0572751,19,32765
3.22726,2.17116,0.0546614,19,32765
3.23458,2.16028,0.0531237,19,32765
3.22501,2.13859,0.0512566,19,32765
3.20692,2.11158,0.0498192,19,32765
3.21381,2.10111,0.0483426,18,32765
3.20393,2.07968,0.0463081,18,32765
3.18569,2.05268,0.0447014,18,32765
3.14197,2.00977,0.0420245,20,32765
3.14031,1.99379,0.0408637,19,32765
3.17249,1.99907,0.0393777,19,32765
3.18771,1.99366,0.0376232,19,32765
3.12652,1.94062,0.0350585,18,32765
3.17553,1.95647,0.0340928,19,32765
3.1223,1.90941,0.031936,19,32765
3.11153,1.88868,0.0300943,19,32765
3.15207,1.89896,0.0287924,19,32765
3.13274,1.87289,0.0270563,19,32765
3.07017,1.82162,0.0249981,20,32765
3.07631,1.81127,0.0232935,20,32765
3.09102,1.80597,0.0219037,20,32765
3.1057,1.80065,0.020098,19,32765
3.08581,1.77511,0.0184078,19,32765
3.02237,1.72493,0.0166161,18,32765
3.03668,1.72001,0.0148441,20,32765
3.04246,1.70979,0.0131577,19,32765
3.05683,1.7046,0.012175,20,32765
3.00132,1.66039,0.00996623,19,32765
2.99819,1.64535,0.00819195,19,32765
2.98617,1.62565,0.00652011,20,32765
2.97408,1.60599,0.00494376,19,32765
2.99702,1.60556,0.00372534,20,32765
2.9405,1.5628,0.00157015,20,32765
2.96339,1.56232,0.000546926,20,32765
3.04835,1.59409,-0.00137607,21,32765
2.96494,1.53777,-0.00381693,20,32765
2.9434,1.51409,-0.00491175,21,32765
2.94848,1.50416,-0.0063589,21,32765
2.91778,1.47627,-0.0081961,21,32765
2.9495,1.47998,-0.00938181,21,32765
2.92765,1.45659,-0.0108641,20,32765
2.95051,1.45549,-0.0123342,22,32765
2.93749,1.43661,-0.0137286,21,32765
2.89741,1.4047,-0.0146533,21,32765
2.89306,1.3907,-0.0162476,22,32765
2.93395,1.39792,-0.0169196,20,32765
2.92053,1.37951,-0.0182385,20,32765
2.84363,1.33154,-0.0190834,19,32765
2.88441,1.33872,-0.0205047,20,32765
2.82523,1.29989,-0.0213944,19,32765
2.84785,1.29851,-0.0228472,19,32765
2.89768,1.30967,-0.0246083,21,32765
2.86557,1.28354,-0.0256445,20,32765
2.81496,1.24968,-0.0263433,21,32765
2.83737,1.24842,-0.0276321,21,32765
2.83236,1.23493,-0.0286312,21,32765
2.8089,1.21361,-0.0292458,22,32765
2.77626,1.18822,-0.0302362,20,32765
2.81706,1.19449,-0.0316628,21,32765
2.78411,1.16966,-0.0321498,22,32765
2.83417,1.1795,-0.033852,21,32765
2.82882,1.16627,-0.0347407,22,32765
2.76788,1.13036,-0.0348289,20,32765
2.77156,1.12128,-0.0357087,21,32765
2.80307,1.12332,-0.0369121,23,32765
2.78816,1.10669,-0.0374056,21,32765
2.78246,1.09387,-0.0380679,21,32765
2.74878,1.07014,-0.0387594,21,32765
2.78959,1.07548,-0.0400901,21,32765
2.76506,1.05567,-0.0402135,20,32765
2.78721,1.05365,-0.0412055,22,32765
2.75317,1.03051,-0.0413834,22,32765
2.75657,1.02132,-0.0424171,21,32765
2.77871,1.01909,-0.0430402,21,32765
2.71625,0.986049,-0.0423942,20,32765
2.76652,0.993998,-0.0439462,22,32765
2.73209,0.97147,-0.0438583,22,32765
2.76355,0.972468,-0.0447487,22,32765
2.70056,0.940535,-0.044213,21,32765
2.713,0.935152,-0.0448427,21,32765
2.71599,0.926426,-0.0449042,21,32765
2.77579,0.936871,-0.0462205,22,32765
2.70297,0.902439,-0.0453681,22,32765
2.67739,0.884275,-0.045177,23,32765
2.70876,0.884905,-0.0455035,22,32765
2.7211,0.879267,-0.0459035,23,32765
2.67625,0.855419,-0.0449186,22,32765
2.69806,0.852832,-0.045401,23,32765
2.69118,0.841403,-0.0447363,22,32765
0,0,0,0,32765
0,0,0,0,32765
0,0,0,0,32765
0,0,0,0,32765
0,0,0,0,32765
0,0,0,0,32765
0,0,0,0,32765
0,0,0,0,32765
0,0,0,0,32765
3.21817,2.2199,0.0591584,16,32765
3.25017,2.22638,0.0569942,16,32765
0,0,0,0,32765
3.24819,2.19386,0.0512114,18,32765
3.22251,2.16045,0.0482461,16,32765
3.28802,2.18843,0.0465158,17,32765
3.17862,2.10016,0.0425677,17,32765
3.28587,2.15552,0.0414083,16,32765
3.19233,2.07935,0.0379243,16,32765
3.20761,2.07422,0.0358279,17,32765
3.14707,2.02051,0.032955,16,32765
3.14544,2.00454,0.030608,17,32765
3.19439,2.02076,0.0286938,15,32765
3.20113,2.01009,0.0267124,17,32765
3.14841,1.96241,0.0242138,16,32765
3.10381,1.92052,0.0216466,15,32765
3.19538,1.96256,0.0201815,16,32765
3.09941,1.88951,0.0176796,16,32765
3.08857,1.86885,0.0156189,16,32765
3.08628,1.8533,0.0136813,17,32765
3.10966,1.85319,0.0117346,17,32765
3.02981,1.7918,0.00960104,16,32765
3.02722,1.77651,0.00787715,17,32765
3.05901,1.78158,0.00610792,16,32765
3.06488,1.77146,0.00423085,16,32765
3.13145,1.79614,0.00244757,16,32765
2.98971,1.70154,0.000832186,16,32765
2.93448,1.65703,-0.000954577,17,32765
3.01862,1.69102,-0.00230487,16,32765
3.0418,1.69051,-0.00400893,16,32765
3.0211,1.66596,-0.00550354,17,32765
2.97403,1.62703,-0.00696945,17,32765
2.90909,1.57899,-0.00824017,17,32765
2.99359,1.61194,-0.0100289,17,32765
2.91078,1.55474,-0.011362,17,32765
2.90711,1.54034,-0.0124121,19,32765
2.96536,1.5585,-0.0142324,18,32765
2.93501,1.53021,-0.0164089,17,32765
2.92232,1.51124,-0.0175335,17,32765
2.9096,1.49224,-0.0189173,18,32765
2.90569,1.47788,-0.0206006,18,32765
2.88395,1.45438,-0.0218278,17,32765
2.92469,1.46237,-0.0234346,17,32765
2.90276,1.43909,-0.0244007,17,32765
2.89864,1.42482,-0.0258697,17,32765
2.83143,1.38015,-0.0269909,17,32765
2.97106,1.43593,-0.0300677,20,32765
2.89468,1.38708,-0.0303459,18,32765
2.87228,1.36434,-0.0310925,18,32765
2.91312,1.37156,-0.0309987,18,32765
2.85425,1.33218,-0.0319387,18,32765
2.84058,1.31413,-0.0328502,17,32765
2.90862,1.33369,-0.0348488,17,32765
2.86754,1.30324,-0.0356538,17,32765
2.87191,1.29354,-0.0370798,19,32765
2.84881,1.27171,-0.0380618,17,32765
2.87131,1.27029,-0.039423,17,32765
2.82979,1.24049,-0.0399605,19,32765
2.78802,1.21115,-0.0406562,18,32765
2.78288,1.19779,-0.0418684,17,32765
2.86961,1.22383,-0.0444986,19,32765
2.78157,1.17529,-0.0444981,19,32765
2.84084,1.18906,-0.0464725,19,32765
2.697,1.11826,-0.0453828,17,32765
2.81173,1.15474,-0.0486234,21,32765
2.75998,1.12272,-0.048908,19,32765
2.76367,1.11356,-0.0500802,18,32765
2.76733,1.10436,-0.0516061,19,32765
2.78019,1.09902,-0.052892,18,32765
2.71863,1.06424,-0.053134,17,32765
2.72206,1.05539,-0.0543845,18,32765
2.80947,1.07872,-0.0576117,20,32765
2.70086,1.02678,-0.0564792,18,32765
2.6855,1.0108,-0.0573694,17,32765
2.75438,1.02633,-0.0600281,18,32765
2.7577,1.01731,-0.0615853,18,32765
2.6671,0.973908,-0.0607164,18,32765
2.72669,0.985474,-0.0634546,17,32765
2.68276,0.959822,-0.0635988,17,32765
2.63876,0.934285,-0.0638743,19,32765
2.65117,0.929051,-0.0654145,18,32765
2.63524,0.913906,-0.0663575,17,32765
2.69487,0.924866,-0.0692359,19,32765
2.61256,0.88737,-0.0684222,19,32765
2.63432,0.885299,-0.0705627,19,32765
2.6371,0.876894,-0.0718818,17,32765
2.64937,0.871492,-0.0737196,18,32765
2.61408,0.850624,-0.0742693,18,32765
2.6357,0.848609,-0.0764965,19,32765
2.62877,0.83731,-0.0779104,19,32765
2.72672,0.85894,-0.082571,19,32765
2.60535,0.811493,-0.0807285,19,32765
0,0,0,0,32765
0,0,0,0,32765
0,0,0,0,32765
0,0,0,0,32765
0,0,0,15,32765
1.2302,0.875516,0.0129802,15,32765
1.22496,0.865636,0.0119058,16,32765
1.22784,0.86156,0.0107223,18,32765
1.28815,0.897479,0.0100493,19,32765
1.25819,0.870511,0.00887732,18,32765
1.26927,0.872066,0.00791071,17,32765
1.26387,0.862254,0.00682492,15,32765
3.15433,2.13685,0.0142259,17,32765
3.14506,2.11484,0.0117617,19,32765
3.18542,2.12648,0.00936086,19,32765
3.14258,2.08255,0.00693549,20,32765
3.20791,2.11066,0.00461827,19,32765
3.13105,2.04551,0.00231592,20,32765
3.1462,2.04056,0.000163211,19,32765
3.13606,2.01942,-0.0019578,19,32765
3.09229,1.97652,-0.00415202,20,32765
3.04822,1.93401,-0.00630715,19,32765
3.06313,1.92913,-0.00822538,19,32765
3.06106,1.91361,-0.0101557,19,32765
3.00785,1.86663,-0.0120717,18,32765
3.08213,1.89859,-0.0143344,20,32765
3.07135,1.87792,-0.0160991,20,32765
3.04338,1.84692,-0.0178593,20,32765
3.08385,1.85728,-0.0199575,20,32765
3.00422,1.79561,-0.0213617,19,32765
2.99305,1.77525,-0.0230315,18,32765
3.02488,1.78033,-0.0249297,20,32765
2.97895,1.74002,-0.0262963,19,32765
2.97603,1.72512,-0.0280469,19,32765
3.00772,1.7302,-0.0300889,20,32765
2.9614,1.69034,-0.0310587,18,32765
2.95838,1.67539,-0.032756,18,32765
2.94663,1.65549,-0.0338606,18,32765
2.926,1.63088,-0.0351905,17,32765
2.94888,1.63085,-0.0368971,19,32765
2.91926,1.60168,-0.0379959,19,32765
2.91577,1.58719,-0.0393241,20,32765
2.94744,1.59167,-0.0412239,20,32765
2.92632,1.56755,-0.0424953,20,32765
2.88738,1.5343,-0.0429362,19,32765
2.92788,1.54324,-0.045039,21,32765
2.85319,1.49183,-0.0460989,20,32765
2.88477,1.49611,-0.0477401,20,32765
2.8809,1.48176,-0.0490724,21,32765
2.87696,1.46747,-0.0506484,20,32765
2.87304,1.45304,-0.0519067,21,32765
2.86013,1.43418,-0.0528948,21,32765
2.87393,1.42887,-0.054233,21,32765
2.85184,1.40582,-0.0552488,20,32765
2.82952,1.38316,-0.0564917,20,32765
2.8611,1.38673,-0.0587582,20,32765
2.83868,1.36413,-0.0592842,20,32765
2.84331,1.35443,-0.0603073,20,32765
2.90219,1.37029,-0.0609764,22,32765
2.78902,1.30543,-0.060087,19,32765
2.80248,1.30018,-0.0613845,21,32765
2.75234,1.26561,-0.0613917,21,32765
2.82933,1.28952,-0.0643472,20,32765
2.78809,1.25935,-0.0647001,22,32765
2.79226,1.25,-0.0660117,20,32765
2.80554,1.2447,-0.0673219,21,32765
2.72735,1.19897,-0.0664743,20,32765
2.77713,1.20983,-0.0689295,20,32765
2.76281,1.19252,-0.0698136,21,32765
2.74836,1.17543,-0.0706805,21,32765
2.73384,1.15839,-0.0716118,20,32765
2.73772,1.14914,-0.0726652,20,32765
2.7323,1.1361,-0.0737651,20,32765
2.77306,1.14208,-0.0761212,21,32765
2.72131,1.11011,-0.0758283,20,32765
2.78056,1.12353,-0.0785577,22,32765
2.72856,1.09197,-0.0784936,21,32765
2.63915,1.04622,-0.0768825,20,32765
2.73564,1.07392,-0.0810817,22,32765
2.68319,1.04326,-0.080662,21,32765
2.74253,1.05599,-0.0838589,21,32765
2.67126,1.0184,-0.0827309,20,32765
2.69328,1.01659,-0.0845966,20,32765
2.70597,1.01115,-0.08613,21,32765
2.69047,0.995323,-0.0870555,20,32765
2.60924,0.95548,-0.085527,19,32765
2.67813,0.970667,-0.0891123,21,32765
2.64358,0.948489,-0.089084,20,32765
2.66549,0.946432,-0.0911255,20,32765
2.69679,0.947725,-0.0934284,21,32765
2.61485,0.909414,-0.0918881,21,32765
2.62718,0.904201,-0.0936368,21,32765
2.62999,0.895835,-0.0950206,22,32765
2.66123,0.896894,-0.0977095,22,32765
2.64507,0.882059,-0.0983391,22,32765
2.61938,0.864095,-0.098845,22,32765
2.61258,0.852575,-0.100095,21,32765
2.62468,0.847489,-0.10214,22,32765
2.5987,0.830116,-0.102703,22,32765
2.61081,0.8248,-0.10484,22,32765
2.57523,0.804432,-0.1052,22,32765
3.2766,2.41428,0.00585375,15,32765
1.25092,0.915251,0.00186052,13,32765
1.21348,0.881738,0.00137091,16,32765
1.19197,0.860291,0.000846364,17,32765
1.19484,0.856309,0.000405204,17,32765
1.16513,0.829075,-0.000104279,17,32765
1.17605,0.830964,-0.000567399,17,32765
1.17062,0.821313,-0.00113214,16,32765
1.17327,0.817511,-0.00167181,15,32765
1.18418,0.819333,-0.00210265,15,32765
1.24455,0.855092,-0.00288803,14,32765
1.34649,0.91861,-0.00364778,15,32765
1.32474,0.897239,-0.00449949,16,32765
1.29458,0.870423,-0.00496824,17,32765
1.32251,0.882627,-0.00562138,14,32765
3.14283,2.08213,-0.0151012,17,32765
3.14132,2.06626,-0.0166427,16,32765
3.08952,2.01758,-0.0179897,15,32765
3.02906,1.9638,-0.0193792,16,32765
3.13651,2.0186,-0.0216818,17,32765
3.16008,2.01888,-0.0233609,17,32765
3.15837,2.00291,-0.024813,17,32765
3.09729,1.9498,-0.0261434,16,32765
3.0613,1.91306,-0.026901,18,32765
3.09314,1.91866,-0.0288155,17,32765
3.04844,1.87683,-0.0300546,17,32765
3.02058,1.84573,-0.0310987,16,32765
3.00113,1.81996,-0.0324376,16,32765
2.99864,1.80471,-0.0342217,15,32765
3.05619,1.82537,-0.0365337,18,32765
2.95905,1.75393,-0.0368207,16,32765
3.00803,1.76928,-0.0388823,17,32765
2.9449,1.71876,-0.0394224,17,32765
2.99393,1.73386,-0.0415896,16,32765
2.97376,1.70875,-0.042873,17,32765
2.93603,1.67397,-0.0440194,15,32765
2.99378,1.69374,-0.0462759,16,32765
2.92965,1.64456,-0.0467181,16,32765
2.95255,1.64454,-0.0486064,18,32765
2.87926,1.59108,-0.0490529,17,32765
2.84075,1.55734,-0.0496246,17,32765
2.91618,1.58604,-0.0525581,18,32765
2.88636,1.55707,-0.0533311,18,32765
2.9445,1.57556,-0.0557933,18,32765
2.86144,1.51876,-0.0556241,16,32765
2.90192,1.52772,-0.0577726,17,32765
2.87155,1.49945,-0.0589953,17,32765
2.82328,1.46219,-0.0593289,17,32765
2.85487,1.46632,-0.0611716,17,32765
2.84196,1.44756,-0.0624449,17,32765
2.85578,1.44237,-0.0639103,18,32765
2.87848,1.44167,-0.0660237,18,32765
2.83851,1.40973,-0.0665062,18,32765
2.77148,1.36479,-0.0660694,17,32765
2.83893,1.3861,-0.0691302,17,32765
2.83455,1.37218,-0.0704181,19,32765
2.82107,1.35403,-0.071191,17,32765
2.77138,1.31882,-0.071097,17,32765
2.78477,1.31385,-0.0725487,17,32765
2.81627,1.31725,-0.0746865,17,32765
2.82067,1.3077,-0.076497,19,32765
2.77056,1.27309,-0.0757156,17,32765
2.76578,1.25944,-0.0767229,18,32765
2.7335,1.23371,-0.0772429,17,32765
2.7468,1.22842,-0.0785766,18,32765
2.74176,1.2151,-0.0794923,18,32765
2.79148,1.22612,-0.0821833,18,32765
2.75887,1.20082,-0.0822612,18,32765
2.74443,1.18379,-0.0828086,18,32765
2.74839,1.17448,-0.0839222,17,32765
2.75229,1.16524,-0.0849827,18,32765
2.67315,1.12131,-0.0834266,17,32765
2.72297,1.1316,-0.085975,17,32765
2.68041,1.10367,-0.085428,19,32765
2.7303,1.11366,-0.0879756,18,32765
2.76171,1.11593,-0.0897709,19,32765
2.74682,1.09932,-0.0900081,20,32765
2.6854,1.06436,-0.0886707,20,32765
2.67026,1.0482,-0.088851,18,32765
2.68304,1.04287,-0.0901316,18,32765
2.74238,1.05562,-0.0929752,19,32765
2.62439,1.00034,-0.0895475,17,32765
2.63699,0.995222,-0.0906053,17,32765
2.63081,0.983196,-0.0909264,18,32765
2.63402,0.974484,-0.09169,18,32765
2.65597,0.972647,-0.0931912,19,32765
2.62157,0.950232,-0.0923991,16,32765
2.64348,0.948347,-0.0936528,18,32765
2.63715,0.936291,-0.0938131,19,32765
2.67792,0.940818,-0.0959154,18,32765
2.596,0.90253,-0.0934325,18,32765
2.63671,0.907086,-0.0952021,18,32765
2.63017,0.895308,-0.0951284,18,32765
2.64248,0.890064,-0.0957978,20,32765
2.60744,0.868754,-0.0950565,18,32765
2.67665,0.882279,-0.0977373,19,32765
2.62242,0.855168,-0.0958017,20,32765
2.62511,0.846864,-0.0959253,18,32765
2.61827,0.835479,-0.0954908,19,32765
2.61149,0.823798,-0.0953627,20,32765
2.65228,0.827342,-0.0966478,20,32765
3.21643,2.37773,-0.0314559,20,32765
3.11155,2.28405,-0.0312786,17,32765
3.1837,2.3209,-0.0330603,19,32765
3.13443,2.26961,-0.0337862,18,32765
3.14199,2.25911,-0.0349525,18,32765
3.09265,2.20777,-0.0356496,18,32765
3.15709,2.23792,-0.0375537,19,32765
3.18086,2.23891,-0.0392992,18,32765
3.08976,2.1598,-0.0395138,18,32765
3.12972,2.17239,-0.0410467,18,32765
3.11211,2.14508,-0.0424376,18,32765
3.07791,2.10654,-0.043094,18,32765
3.10153,2.10735,-0.0454822,19,32765
3.10866,2.09679,-0.0468837,19,32765
3.06599,2.0527,-0.047432,19,32765
3.07292,2.04226,-0.0491707,19,32765
3.04624,2.01007,-0.0501768,18,32765
2.96923,1.94515,-0.0503997,18,32765
3.02595,1.96797,-0.0530345,18,32765
3.03251,1.95781,-0.0546433,19,32765
2.99693,1.92066,-0.0553738,18,32765
3.00334,1.91057,-0.056819,20,32765
2.99274,1.88989,-0.0583032,20,32765
3.01591,1.89059,-0.0597358,20,32765
2.96276,1.84352,-0.0601859,20,32765
2.99442,1.84931,-0.0623919,20,32765
3.02618,1.85489,-0.0643111,20,32765
2.9897,1.81865,-0.0650066,20,32765
2.97865,1.79823,-0.066504,18,32765
2.95036,1.76761,-0.06741,20,32765
2.97343,1.76791,-0.0693324,20,32765
2.93631,1.73243,-0.0698252,20,32765
2.96803,1.7376,-0.0718868,20,32765
2.91334,1.69238,-0.0719749,18,32765
2.90172,1.67248,-0.0731564,19,32765
2.9073,1.66268,-0.0749149,20,32765
2.88671,1.63817,-0.0756706,20,32765
2.90957,1.63829,-0.0776388,20,32765
2.9237,1.63345,-0.0794701,21,32765
2.89416,1.6042,-0.0802752,20,32765
2.86449,1.57515,-0.0806374,20,32765
2.89604,1.57989,-0.0830778,22,32765
2.88382,1.56043,-0.0839836,22,32765
2.86265,1.53642,-0.0846648,21,32765
2.85012,1.51736,-0.0856431,20,32765
2.82868,1.49369,-0.0862766,21,32765
2.86021,1.49806,-0.0890089,21,32765
2.82972,1.46997,-0.0893399,20,32765
2.86131,1.47409,-0.0914699,21,32765
2.83955,1.45071,-0.0922745,21,32765
2.82661,1.43196,-0.0929565,20,32765
2.81353,1.4134,-0.094049,21,32765
2.80929,1.39943,-0.0952463,21,32765
2.77813,1.3722,-0.0952812,20,32765
2.80965,1.37595,-0.0977549,20,32765
2.78725,1.35336,-0.0983029,21,32765
2.78273,1.33965,-0.0991928,20,32765
2.715,1.29588,-0.0978728,20,32765
2.7825,1.31673,-0.101371,20,32765
2.82304,1.32439,-0.104126,21,32765
2.77308,1.28951,-0.103907,21,32765
2.76834,1.27589,-0.104265,20,32765
2.72721,1.24561,-0.103797,21,32765
2.72222,1.23231,-0.104977,21,32765
2.73551,1.22705,-0.106403,21,32765
2.7396,1.21779,-0.107582,21,32765
2.69785,1.18854,-0.107113,19,32765
2.74756,1.19949,-0.110082,21,32765
2.73313,1.18245,-0.110441,20,32765
2.70953,1.16135,-0.11043,19,32765
2.68579,1.1405,-0.110345,20,32765
2.71716,1.14319,-0.1125,20,32765
2.68402,1.11875,-0.112071,20,32765
2.68763,1.10995,-0.112987,21,32765
2.66351,1.08967,-0.112873,21,32765
2.70409,1.09591,-0.115325,22,32765
2.73551,1.09806,-0.117349,22,32765
2.6927,1.07045,-0.116156,21,32765
2.659,1.0469,-0.115347,21,32765
2.65315,1.03433,-0.115907,20,32765
2.7031,1.04361,-0.118895,21,32765
2.64116,1.00974,-0.116716,20,32765
2.66313,1.00809,-0.11829,21,32765
2.66635,0.999453,-0.118943,20,32765
2.64152,0.980173,-0.118459,22,32765
2.61658,0.961081,-0.118038,21,32765
2.62912,0.95581,-0.11899,20,32765
2.62283,0.943745,-0.119154,21,32765
2.60709,0.928376,-0.11879,20,32765
2.61012,0.91973,-0.119535,20,32765
2.63196,0.917757,-0.120965,21,32765
2.59714,0.896135,-0.119637,21,32765
2.63785,0.900595,-0.121648,22,32765
2.62178,0.885719,-0.121103,22,32765
2.6436,0.883424,-0.122621,22,32765
2.62745,0.868638,-0.122,22,32765
2.61121,0.854041,-0.121265,22,32765
2.60439,0.842676,-0.120948,22,32765
2.60707,0.834373,-0.120864,22,32765
2.56219,0.810646,-0.118875,22,32765
2.58385,0.808388,-0.119657,22,32765
3.22081,2.37195,-0.0144898,16,32765
3.22871,2.36116,-0.0184417,15,32765
3.17976,2.30945,-0.021573,16,32765
3.22793,2.32815,-0.0252003,16,32765
3.17863,2.27676,-0.0276891,17,32765
3.15355,2.243,-0.0307833,15,32765
3.161,2.23245,-0.0337244,17,32765
3.1193,2.18741,-0.0359358,16,32765
3.15111,2.19421,-0.0392428,17,32765
3.07596,2.12707,-0.0411233,16,32765
3.11582,2.13966,-0.0440793,16,32765
3.1311,2.13497,-0.0468566,17,32765
3.04715,2.06277,-0.0477812,16,32765
3.10402,2.08568,-0.0513991,16,32765
3.03613,2.02525,-0.0527747,16,32765
3.19291,2.11444,-0.0579828,16,32765
3.15812,2.07632,-0.0598034,16,32765
3.09787,2.02226,-0.0606506,16,32765
2.99539,1.94136,-0.06081,16,32765
3.06059,1.96933,-0.0642458,17,32765
2.98273,1.90545,-0.0646901,17,32765
2.95529,1.874,-0.0662717,16,32765
3.00374,1.89083,-0.0691343,18,32765
2.97614,1.8595,-0.0706688,17,32765
2.95676,1.83381,-0.0716378,16,32765
2.97986,1.83436,-0.0745012,18,32765
3.003,1.83481,-0.0768006,19,32765
2.88937,1.75218,-0.0760807,16,32765
2.96378,1.7836,-0.0798587,16,32765
2.90963,1.73776,-0.0797751,16,32765
2.96701,1.75853,-0.0831264,18,32765
2.88668,1.69788,-0.082612,16,32765
2.91819,1.70333,-0.0850745,18,32765
2.94979,1.70855,-0.0876214,18,32765
2.86011,1.64387,-0.0864433,17,32765
2.84824,1.62426,-0.0877233,17,32765
2.87976,1.62939,-0.0903556,18,32765
2.85031,1.60012,-0.0908367,17,32765
2.82068,1.57108,-0.0915356,17,32765
2.86084,1.58102,-0.0942055,16,32765
2.86606,1.57144,-0.0956777,17,32765
2.87122,1.56189,-0.0973983,18,32765
2.83234,1.52866,-0.097395,17,32765
2.79333,1.49557,-0.0972434,18,32765
2.86002,1.51913,-0.100803,18,32765
2.83851,1.49556,-0.101414,17,32765
2.82578,1.47668,-0.102385,18,32765
2.78639,1.44403,-0.10202,17,32765
2.79129,1.43444,-0.103471,18,32765
2.85845,1.45668,-0.107142,18,32765
2.75635,1.39274,-0.104515,17,32765
2.79676,1.40126,-0.107384,19,32765
2.74774,1.36507,-0.106848,18,32765
2.77918,1.36902,-0.109225,18,32765
2.76575,1.35091,-0.109907,18,32765
2.73428,1.3241,-0.109793,19,32765
2.78374,1.33646,-0.11296,18,32765
2.68895,1.27981,-0.109738,17,32765
2.72031,1.28352,-0.112231,19,32765
2.72453,1.27441,-0.113748,18,32765
2.71062,1.25681,-0.114432,16,32765
2.74205,1.26014,-0.11668,18,32765
2.61887,1.193,-0.112665,16,32765
2.74125,1.23755,-0.118958,18,32765
2.73622,1.22424,-0.119824,19,32765
2.73114,1.21095,-0.120762,19,32765
2.68942,1.18164,-0.119791,16,32765
2.71165,1.18056,-0.121865,17,32765
2.71555,1.1714,-0.123264,17,32765
2.6551,1.13482,-0.121451,17,32765
2.72326,1.15305,-0.126138,17,32765
2.72708,1.14389,-0.12715,18,32765
2.67551,1.11166,-0.125945,18,32765
2.64221,1.08747,-0.125518,17,32765
2.64574,1.0787,-0.126761,18,32765
2.69556,1.08863,-0.130141,18,32765
2.68976,1.0761,-0.131164,18,32765
2.64682,1.04879,-0.130029,18,32765
2.65026,1.03989,-0.131293,17,32765
2.61641,1.01656,-0.13078,18,32765
2.67569,1.02926,-0.134917,18,32765
2.63235,1.00263,-0.133771,19,32765
2.62621,0.990425,-0.134787,19,32765
2.59195,0.967852,-0.133929,19,32765
2.56695,0.948934,-0.133845,18,32765
2.60751,0.95417,-0.137271,19,32765
2.61062,0.945475,-0.138283,19,32765
2.58545,0.926728,-0.138202,18,32765
2.57903,0.914782,-0.139209,17,32765
2.5442,0.893196,-0.138679,17,32765
2.55646,0.888183,-0.140484,18,32765
2.60643,0.896232,-0.144455,19,32765
2.56195,0.871812,-0.142999,19,32765
2.58361,0.86987,-0.14562,19,32765
2.57689,0.858213,-0.146708,19,32765
2.59857,0.855954,-0.149507,20,32765
2.55377,0.832103,-0.148143,19,32765
2.52779,0.81487,-0.147875,19,32765
2.47315,0.788791,-0.146112,18,32765
2.58975,0.817115,-0.154573,19,32765
2.50644,0.782184,-0.151165,18,32765
3.12832,2.31154,-0.0502574,18,32765
3.15211,2.31286,-0.0543811,19,32765
3.16771,2.30838,-0.057968,20,32765
3.1348,2.26853,-0.0604916,19,32765
3.15845,2.26985,-0.0637243,19,32765
3.0764,2.19543,-0.0652238,19,32765
3.09184,2.19088,-0.0682797,18,32765
3.08276,2.16898,-0.0706281,19,32765
3.06529,2.14155,-0.0730142,19,32765
3.06399,2.12583,-0.0757163,19,32765
2.98854,2.05906,-0.0761058,18,32765
3.0613,2.0943,-0.0803906,20,32765
2.96904,2.01655,-0.0800223,18,32765
2.97595,2.00624,-0.0827503,19,32765
2.98265,1.99616,-0.0853227,19,32765
3.01425,2.00272,-0.0885013,20,32765
3.0292,1.99813,-0.091224,19,32765
2.94368,1.92794,-0.0904729,18,32765
2.96672,1.92911,-0.093261,20,32765
2.96463,1.91385,-0.0951762,20,32765
2.98767,1.91487,-0.0979339,20,32765
2.93499,1.86724,-0.0983051,20,32765
2.95802,1.86815,-0.100762,20,32765
2.96424,1.85813,-0.103072,20,32765
2.92792,1.82185,-0.103162,20,32765
2.94245,1.81725,-0.105888,20,32765
2.95698,1.81259,-0.108044,21,32765
2.86049,1.74032,-0.106624,20,32765
2.94333,1.77707,-0.111457,21,32765
2.88923,1.73119,-0.110715,21,32765
2.93794,1.74695,-0.114284,20,32765
2.86626,1.69134,-0.113163,20,32765
2.82873,1.65647,-0.113138,19,32765
2.83422,1.64693,-0.114864,19,32765
2.85699,1.64739,-0.117216,21,32765
2.87984,1.64759,-0.119755,21,32765
2.8245,1.60329,-0.11903,21,32765
2.86466,1.61336,-0.12208,22,32765
2.8351,1.58421,-0.12242,22,32765
2.79661,1.55051,-0.122043,21,32765
2.84551,1.5652,-0.125416,22,32765
2.86819,1.56526,-0.127911,22,32765
2.78542,1.50817,-0.125465,21,32765
2.79041,1.4988,-0.126829,21,32765
2.77768,1.48012,-0.127404,19,32765
2.8179,1.48946,-0.130559,22,32765
2.76977,1.45204,-0.129679,20,32765
2.78353,1.44717,-0.131336,20,32765
2.79732,1.44214,-0.133213,21,32765
2.77549,1.41892,-0.133273,20,32765
2.73574,1.38674,-0.132509,20,32765
2.71361,1.36394,-0.132689,21,32765
2.76287,1.37696,-0.136406,22,32765
2.70477,1.3366,-0.134617,21,32765
2.73609,1.34068,-0.13733,21,32765
2.7226,1.32264,-0.137741,21,32765
2.72701,1.31339,-0.139078,21,32765
2.68632,1.28263,-0.137586,20,32765
2.69058,1.27352,-0.138962,20,32765
2.71285,1.27297,-0.141408,20,32765
2.71706,1.2638,-0.142856,21,32765
2.72128,1.25456,-0.143951,22,32765
2.71629,1.24131,-0.14492,20,32765
2.65675,1.20321,-0.142701,20,32765
2.65162,1.19015,-0.143438,20,32765
2.68294,1.19334,-0.146234,20,32765
2.63206,1.16011,-0.144279,20,32765
2.69996,1.17919,-0.149043,21,32765
2.62137,1.13436,-0.145849,19,32765
2.67099,1.14523,-0.149511,21,32765
2.62883,1.11659,-0.148629,20,32765
2.66013,1.11934,-0.151179,21,32765
2.66384,1.11032,-0.152549,20,32765
2.62133,1.0823,-0.151212,20,32765
2.58787,1.05845,-0.150301,20,32765
2.60057,1.0536,-0.151964,19,32765
2.60392,1.04507,-0.15339,21,32765
2.61659,1.0401,-0.155052,20,32765
2.56426,1.00934,-0.15298,19,32765
2.59545,1.01163,-0.155963,20,32765
2.60809,1.00645,-0.157837,20,32765
2.59269,0.990666,-0.157898,21,32765
2.6052,0.985631,-0.159947,21,32765
2.57095,0.963071,-0.158708,21,32765
2.58339,0.958062,-0.160663,21,32765
2.58646,0.949492,-0.162126,20,32765
2.54264,0.923799,-0.160178,20,32765
2.62075,0.942386,-0.166339,21,32765
2.57676,0.916907,-0.164869,22,32765
2.5608,0.901908,-0.16518,21,32765
2.54479,0.886971,-0.165253,22,32765
2.58528,0.89182,-0.169072,24,32765
2.53137,0.864183,-0.166519,22,32765
2.54353,0.859141,-0.168684,22,32765
2.52731,0.844424,-0.169022,22,32765
2.52997,0.83606,-0.1707,21,32765
2.53257,0.827875,-0.172055,22,32765
2.58255,0.835232,-0.176694,23,32765
2.509,0.802837,-0.173093,21,32765
2.5209,0.797991,-0.175423,22,32765
2.45664,0.769155,-0.172464,21,32765
3.13519,2.31766,-0.0951011,18,32765
3.15919,2.31875,-0.0966596,16,32765
3.0783,2.24302,-0.0949652,17,32765
3.10202,2.24434,-0.0967029,16,32765
2.97144,2.1348,-0.093605,16,32765
3.01106,2.14811,-0.0957783,16,32765
3.06702,2.17282,-0.0991358,16,32765
2.98426,2.09933,-0.0975943,16,32765
3.01585,2.10645,-0.0995879,16,32765
3.04748,2.11343,-0.101873,17,32765
2.9886,2.05788,-0.101509,16,32765
2.93758,2.0085,-0.100871,16,32765
3.01037,2.04361,-0.104759,15,32765
2.99223,2.01682,-0.105382,17,32765
2.96569,1.98454,-0.105834,16,32765
3.01404,2.00202,-0.109059,17,32765
3.01239,1.98631,-0.110384,16,32765
2.96052,1.93773,-0.110059,17,32765
3.0088,1.9551,-0.113061,17,32765
2.93967,1.89626,-0.111955,17,32765
2.9291,1.87564,-0.112852,16,32765
2.95216,1.87657,-0.115047,17,32765
2.92452,1.84539,-0.115414,16,32765
2.97288,1.86222,-0.11908,18,32765
2.89418,1.79946,-0.117253,18,32765
2.98519,1.84223,-0.12233,17,32765
2.85496,1.74862,-0.118338,17,32765
2.86927,1.74424,-0.120374,18,32765
2.90068,1.75014,-0.122998,18,32765
2.88077,1.72495,-0.123721,17,32765
2.84359,1.68964,-0.123297,16,32765
2.89225,1.70539,-0.127047,18,32765
2.8289,1.65528,-0.125656,17,32765
2.79979,1.62572,-0.125769,17,32765
2.82252,1.6262,-0.128339,18,32765
2.84527,1.62657,-0.130734,18,32765
2.8507,1.61688,-0.132636,18,32765
2.74294,1.54341,-0.128983,17,32765
2.80047,1.56326,-0.133027,18,32765
2.83185,1.56835,-0.1359,17,32765
2.81074,1.54442,-0.136358,18,32765
2.85969,1.55888,-0.140274,19,32765
2.75059,1.48749,-0.136186,19,32765
2.80833,1.50655,-0.140325,17,32765
2.72512,1.45013,-0.137685,17,32765
2.8007,1.47802,-0.142898,17,32765
2.77914,1.45448,-0.143066,20,32765
2.74856,1.42654,-0.142821,18,32765
2.82431,1.45386,-0.148237,18,32765
2.70457,1.38074,-0.143064,17,32765
2.70023,1.36706,-0.14426,19,32765
2.74052,1.37574,-0.14771,19,32765
