x, y, z, intensity, ring
0.735493,-0.129312,0.0694913,16,32765
0.754655,-0.13527,0.0714002,16,32765
0.744403,-0.135983,0.0705155,16,32765
0.734168,-0.136562,0.0696328,16,32765
0.772844,-0.146395,0.0733563,16,32765
0.743019,-0.143292,0.0706385,16,32765
0.762084,-0.149564,0.0725208,16,32765
0.742046,-0.148212,0.0707141,15,32765
0.731793,-0.148662,0.0698475,16,32765
0.750784,-0.155137,0.0718088,15,32765
0.750261,-0.157649,0.0717989,15,32765
0.769199,-0.164288,0.0737744,15,32765
0.768645,-0.166822,0.0738568,15,32765
0.787535,-0.173611,0.0758133,16,32765
0.786951,-0.176219,0.0758588,15,32765
0.737816,-0.167783,0.0712461,15,32765
0.776055,-0.179132,0.0751648,16,32765
0.756069,-0.177139,0.073354,15,32765
0.745791,-0.177286,0.0725597,16,32765
0.793587,-0.191417,0.077329,15,32765
0.754261,-0.184562,0.0736686,15,32765
0.782633,-0.194209,0.0766073,15,32765
0.78198,-0.196772,0.0767323,15,32765
0.819903,-0.209146,0.0807329,15,32765
0.790281,-0.204356,0.078066,15,32765
0.799224,-0.209477,0.0791215,15,32765
0.760029,-0.201867,0.0755314,15,32765
0.788192,-0.212094,0.0785464,16,32765
0.758687,-0.206756,0.0758056,16,32765
0.796366,-0.219808,0.0799135,16,32765
0.786054,-0.219702,0.0790606,15,32765
0.794888,-0.224945,0.0803311,15,32765
0.784554,-0.22482,0.0795699,15,32765
0.802922,-0.232872,0.0817775,15,32765
0.802143,-0.235466,0.0819854,15,32765
0.810886,-0.24092,0.083195,15,32765
0.791025,-0.237786,0.0814709,15,32765
0.828313,-0.251885,0.0857389,15,32765
0.817973,-0.251555,0.0850875,15,32765
0.855147,-0.265989,0.0892929,15,32765
0.854254,-0.268719,0.0896644,15,32765
0.824917,-0.262369,0.0870318,15,32765
0.81458,-0.2619,0.0864142,15,32765
0.851571,-0.276709,0.0908796,15,32765
0.82229,-0.270052,0.0883796,15,32765
0.64786,0.00770809,0.0521322,17,32765
0.627932,0.00535165,0.0507171,18,32765
0.657838,0.00342589,0.0532641,18,32765
0.657835,0.00122803,0.0534056,19,32765
0.647853,-0.000939585,0.0527812,19,32765
0.647837,-0.0031127,0.0528928,19,32765
0.627886,-0.0050833,0.0513167,19,32765
0.637826,-0.00721743,0.0522082,18,32765
0.637792,-0.00931759,0.052298,18,32765
0.637751,-0.0114255,0.0523747,17,32765
0.61777,-0.0131456,0.0508705,18,32765
0.63765,-0.0157024,0.0524981,17,32765
0.667473,-0.0186443,0.0550677,17,32765
0.627559,-0.0196153,0.0518175,17,32765
0.627492,-0.0216529,0.0518151,17,32765
0.657282,-0.0248513,0.0544324,17,32765
0.637281,-0.0262048,0.0527802,17,32765
0.637189,-0.0283443,0.0527875,17,32765
0.64704,-0.0309743,0.0536618,17,32765
0.666837,-0.03417,0.0553241,17,32765
0.646812,-0.0352951,0.0537424,17,32765
0.636744,-0.0368478,0.0529139,17,32765
0.646569,-0.0395211,0.053732,17,32765
0.666325,-0.0429014,0.0554116,17,32765
0.666185,-0.04506,0.0553811,17,32765
0.656081,-0.0465964,0.0546499,18,32765
0.67579,-0.0502787,0.0563869,18,32765
0.665683,-0.0517535,0.0555625,19,32765
0.675436,-0.0547917,0.0564313,18,32765
0.66532,-0.0561909,0.0556068,18,32765
0.645278,-0.0566438,0.0539278,18,32765
0.664936,-0.0606108,0.0555525,17,32765
0.634961,-0.0599878,0.053164,17,32765
0.64468,-0.063064,0.0539526,17,32765
0.684121,-0.0692029,0.0573507,17,32765
0.703708,-0.0735696,0.0590136,17,32765
0.673737,-0.0727279,0.0564769,17,32765
0.703204,-0.0783146,0.0589175,17,32765
0.673233,-0.0772691,0.0564463,17,32765
0.653176,-0.07717,0.0548323,17,32765
0.652918,-0.0793275,0.0548222,17,32765
0.662547,-0.0827167,0.0555804,17,32765
0.701813,-0.0899545,0.0588835,17,32765
0.671869,-0.0883827,0.0563914,17,32765
0.661694,-0.0892811,0.0555857,17,32765
0.681132,-0.0942221,0.0572815,17,32765
0.661081,-0.0936937,0.0556205,17,32765
0.66076,-0.09591,0.0556598,17,32765
0.670294,-0.0995983,0.0564454,17,32765
0.699508,-0.106324,0.0590277,17,32765
0.679448,-0.10563,0.0573863,16,32765
0.679084,-0.107913,0.0574455,16,32765
0.708233,-0.114968,0.0599041,15,32765
0.707847,-0.11733,0.0598916,15,32765
0.736937,-0.124622,0.0623958,15,32765
0.726688,-0.125423,0.0615876,15,32765
0.755699,-0.133071,0.0641116,16,32765
0.725822,-0.130305,0.0616676,15,32765
0.735184,-0.13451,0.0625431,15,32765
0.715148,-0.133235,0.0609194,15,32765
0.685332,-0.130024,0.0584246,15,32765
0.694677,-0.134182,0.0593229,15,32765
0.752897,-0.147998,0.0643593,15,32765
0.742621,-0.148565,0.0635765,15,32765
0.751888,-0.152991,0.0644788,15,32765
0.761121,-0.157528,0.0654164,16,32765
0.731336,-0.153923,0.0628909,15,32765
0.730813,-0.156344,0.0629962,15,32765
0.730286,-0.158757,0.0630746,16,32765
0.729757,-0.161139,0.0631551,15,32765
0.768106,-0.172283,0.066568,15,32765
0.77724,-0.177042,0.0674845,16,32765
0.737814,-0.170588,0.064271,15,32765
0.756643,-0.17757,0.0660309,16,32765
0.75605,-0.180025,0.0661792,16,32765
0.755446,-0.182523,0.0662344,16,32765
0.745153,-0.18264,0.0654957,16,32765
0.754214,-0.187473,0.0664481,16,32765
0.792229,-0.199688,0.0699825,16,32765
0.752946,-0.192392,0.066763,15,32765
0.761939,-0.197363,0.0677951,15,32765
0.770913,-0.202402,0.0687533,16,32765
0.789481,-0.210049,0.070704,16,32765
0.750303,-0.202245,0.067395,15,32765
0.768862,-0.20989,0.0692579,16,32765
0.777755,-0.215041,0.0703872,16,32765
0.786638,-0.220245,0.0713664,15,32765
0.795479,-0.225502,0.0725436,16,32765
0.804286,-0.230874,0.0736297,15,32765
0.793952,-0.230671,0.0730173,16,32765
0.783625,-0.230431,0.0723409,15,32765
0.792392,-0.235837,0.0734516,15,32765
0.782072,-0.235506,0.0727977,15,32765
0.790815,-0.240903,0.074012,16,32765
0.799542,-0.246318,0.0752306,15,32765
0.770202,-0.239988,0.0727672,15,32765
0.816891,-0.257419,0.0776146,15,32765
0.825528,-0.263026,0.0788739,15,32765
0.786748,-0.253398,0.0756175,16,32765
0.785921,-0.255828,0.0760295,15,32765
0.84182,-0.276954,0.0820678,15,32765
0.617798,0.00700546,0.0517374,17,32765
0.617843,0.00492012,0.051432,18,32765
0.607915,0.00281507,0.0503081,17,32765
0.637835,0.000865838,0.0525851,19,32765
0.637861,-0.00123547,0.0522656,19,32765
0.617934,-0.00326447,0.0504711,18,32765
0.627905,-0.00539919,0.0510539,18,32765
0.637863,-0.00760006,0.0516992,18,32765
0.677718,-0.010276,0.0547022,17,32765
0.63783,-0.0117806,0.0513249,18,32765
0.637801,-0.0138919,0.0511502,17,32765
0.627795,-0.0157678,0.0502478,17,32765
0.637715,-0.0181316,0.0508947,17,32765
0.647628,-0.0205317,0.051536,17,32765
0.617682,-0.0216068,0.0490146,18,32765
0.617618,-0.0236174,0.0488936,18,32765
0.617544,-0.025663,0.0487917,17,32765
0.637384,-0.0286058,0.050229,17,32765
0.637291,-0.0307144,0.0501676,18,32765
0.657105,-0.0338795,0.0516202,17,32765
0.637088,-0.0349404,0.0499776,18,32765
0.636974,-0.0370333,0.0499284,18,32765
0.65676,-0.0403516,0.0513579,19,32765
0.686477,-0.0444093,0.0536385,19,32765
0.656494,-0.0446369,0.0512181,19,32765
0.646407,-0.046072,0.0503484,18,32765
0.656192,-0.0489585,0.051142,18,32765
0.646087,-0.0503682,0.0503406,18,32765
0.655862,-0.0532966,0.0510353,17,32765
0.635816,-0.0537971,0.0494396,18,32765
0.615775,-0.0541467,0.0478421,17,32765
0.655311,-0.0598199,0.050887,17,32765
0.64518,-0.0610798,0.0501173,17,32765
0.635055,-0.0622398,0.0493131,18,32765
0.644764,-0.0653706,0.0500567,18,32765
0.644545,-0.0675078,0.050048,18,32765
0.614579,-0.0664315,0.0477459,17,32765
0.644077,-0.0718044,0.0500886,18,32765
0.643837,-0.0739249,0.050094,17,32765
0.623787,-0.0737225,0.0485321,17,32765
0.633433,-0.0769972,0.0493365,17,32765
0.672747,-0.0840268,0.0524437,18,32765
0.642795,-0.0824795,0.050118,18,32765
0.652405,-0.0858926,0.0508939,18,32765
0.652113,-0.0880708,0.0509135,17,32765
0.641942,-0.088856,0.0501472,17,32765
0.651522,-0.0923676,0.050869,17,32765
0.661074,-0.0959766,0.0516721,17,32765
0.660745,-0.0981539,0.0517862,17,32765
0.65055,-0.0988713,0.0510826,17,32765
0.660069,-0.102588,0.0518182,17,32765
0.699095,-0.111093,0.0549976,17,32765
0.688862,-0.111898,0.0542943,16,32765
0.698313,-0.115831,0.0551607,16,32765
0.688089,-0.116509,0.0543997,15,32765
0.687697,-0.118791,0.0544151,16,32765
0.726572,-0.127968,0.0575943,15,32765
0.706506,-0.126873,0.0561512,15,32765
0.715894,-0.130981,0.0569177,15,32765
0.72525,-0.135201,0.0577342,16,32765
0.734583,-0.139462,0.0586393,15,32765
0.743904,-0.143789,0.0594316,16,32765
0.714069,-0.14051,0.0571161,16,32765
0.674498,-0.135025,0.054047,15,32765
0.74242,-0.151218,0.059542,15,32765
0.722387,-0.149639,0.0580094,15,32765
0.71212,-0.150009,0.0572859,16,32765
0.731102,-0.156598,0.0588787,16,32765
0.720833,-0.156906,0.0581464,16,32765
0.720298,-0.159327,0.0581807,16,32765
0.719775,-0.16167,0.058193,16,32765
0.728956,-0.166235,0.059073,16,32765
0.738121,-0.170881,0.0598066,16,32765
0.747256,-0.175565,0.0607066,15,32765
0.756372,-0.18034,0.0614727,16,32765
0.736401,-0.178117,0.0599057,16,32765
0.726121,-0.178174,0.0591797,16,32765
0.754546,-0.187811,0.0615433,15,32765
0.75392,-0.190292,0.0615974,16,32765
0.724324,-0.185347,0.0591724,15,32765
0.723713,-0.187717,0.0591726,16,32765
0.752027,-0.197649,0.0615669,15,32765
0.761011,-0.202671,0.0623397,16,32765
0.721857,-0.194712,0.0592458,15,32765
0.730837,-0.199692,0.0599965,15,32765
0.749399,-0.207383,0.0615844,15,32765
0.739125,-0.207129,0.0607629,15,32765
0.728859,-0.20683,0.0598818,15,32765
0.785675,-0.225678,0.064687,15,32765
0.775374,-0.225432,0.063845,16,32765
0.745967,-0.219439,0.061484,15,32765
0.745274,-0.2218,0.0614122,16,32765
0.763659,-0.229932,0.0629044,16,32765
0.753396,-0.229442,0.0620576,15,32765
0.771716,-0.23771,0.0636284,15,32765
0.770975,-0.240142,0.0634785,15,32765
0.760719,-0.239551,0.0626237,15,32765
0.769476,-0.244963,0.0632469,15,32765
0.778217,-0.250393,0.0638844,15,32765
0.777431,-0.252865,0.0637247,15,32765
0.78614,-0.258354,0.0643193,15,32765
0.648174,0.00740121,0.0481283,19,32765
0.638246,0.00512876,0.0470724,18,32765
0.608363,0.00285704,0.0445712,18,32765
0.638303,0.000904182,0.0465659,18,32765
0.618378,-0.00116535,0.0448009,17,32765
0.608409,-0.00318633,0.0439196,18,32765
0.618385,-0.00529318,0.0444119,18,32765
0.628349,-0.00746631,0.0449656,18,32765
0.618363,-0.00935995,0.0440436,18,32765
0.628313,-0.0115927,0.0445968,18,32765
0.658201,-0.0143278,0.0465402,18,32765
0.638213,-0.0160256,0.045025,18,32765
0.628196,-0.0178613,0.0441731,18,32765
0.618174,-0.0196023,0.043325,18,32765
0.628086,-0.0219793,0.0438785,18,32765
0.647956,-0.0247906,0.0451446,18,32765
0.667813,-0.0277699,0.0464234,18,32765
0.667727,-0.0299899,0.0462803,20,32765
0.667628,-0.0322032,0.046216,20,32765
0.657561,-0.0339337,0.0454111,20,32765
0.667413,-0.0366391,0.046017,19,32765
0.657333,-0.0382562,0.0452794,18,32765
0.657212,-0.040423,0.0451486,18,32765
0.667037,-0.0432004,0.0457804,17,32765
0.627082,-0.0426871,0.0429629,18,32765
0.646848,-0.0461592,0.0442332,18,32765
0.636741,-0.0475663,0.0435711,17,32765
0.63658,-0.0496904,0.043545,18,32765
0.636419,-0.0517841,0.0434676,18,32765
0.646187,-0.0547476,0.0440969,18,32765
0.636068,-0.0560071,0.0433644,18,32765
0.645816,-0.0590347,0.0440009,18,32765
0.655547,-0.0621483,0.0446792,18,32765
0.655339,-0.0643193,0.0446451,17,32765
0.655122,-0.0665167,0.0446177,18,32765
0.644975,-0.0676517,0.0439331,17,32765
0.654665,-0.0708692,0.0446174,18,32765
0.654422,-0.0730666,0.0446504,19,32765
0.664088,-0.0763652,0.0453326,18,32765
0.653924,-0.077402,0.0446345,18,32765
0.643757,-0.0783723,0.0439928,18,32765
0.673192,-0.0842126,0.0460471,17,32765
0.66301,-0.0852062,0.0453576,17,32765
0.672617,-0.0886929,0.0460397,17,32765
0.652541,-0.0882683,0.0447053,17,32765
0.67201,-0.0931664,0.0460655,17,32765
0.651947,-0.0925764,0.044661,17,32765
0.651631,-0.0947586,0.0446929,17,32765
0.651307,-0.096909,0.0448055,17,32765
0.650973,-0.0990972,0.044875,17,32765
0.650638,-0.101289,0.0448373,18,32765
0.640431,-0.101939,0.0442366,17,32765
0.640071,-0.104145,0.044303,17,32765
0.659397,-0.109558,0.045752,17,32765
0.66886,-0.113442,0.0464505,17,32765
0.648817,-0.112264,0.045099,17,32765
0.648439,-0.114399,0.0451614,17,32765
0.657864,-0.118338,0.0459514,17,32765
0.657473,-0.120497,0.0459393,17,32765
0.686483,-0.128193,0.0480313,17,32765
0.656644,-0.124879,0.0460846,17,32765
0.666019,-0.128957,0.0467819,16,32765
0.685156,-0.135054,0.0481873,16,32765
0.704266,-0.141229,0.0496274,15,32765
0.694012,-0.141604,0.0489495,15,32765
0.683766,-0.141886,0.0482927,15,32765
0.712564,-0.150366,0.0504231,15,32765
0.721802,-0.154878,0.051137,15,32765
0.721278,-0.15728,0.0511899,15,32765
0.711003,-0.15755,0.0505322,15,32765
0.710484,-0.159867,0.0505446,15,32765
0.719676,-0.164411,0.0513296,15,32765
0.728852,-0.169037,0.05197,15,32765
0.718578,-0.169129,0.0513861,15,32765
0.72772,-0.17382,0.0520592,16,32765
0.736843,-0.178545,0.0527627,16,32765
0.707181,-0.173841,0.0507409,15,32765
0.725957,-0.181023,0.0521278,15,32765
0.744695,-0.188306,0.0535715,15,32765
0.744077,-0.190749,0.0535144,15,32765
0.733792,-0.19068,0.0528198,16,32765
0.733171,-0.193047,0.0528467,15,32765
0.742175,-0.198019,0.0535263,16,32765
0.731904,-0.197786,0.0528948,16,32765
0.7505,-0.205445,0.0542467,16,32765
0.7306,-0.202556,0.0528648,16,32765
0.768356,-0.215721,0.0556142,16,32765
0.76765,-0.218245,0.0555175,15,32765
0.73818,-0.212433,0.053509,15,32765
0.737492,-0.214821,0.0534587,16,32765
0.736808,-0.217153,0.0534625,15,32765
0.77436,-0.230892,0.0561655,16,32765
0.764072,-0.230492,0.0553898,15,32765
0.7538,-0.230001,0.0546371,15,32765
0.733997,-0.226522,0.0532539,15,32765
0.761858,-0.237756,0.055181,15,32765
0.751602,-0.237135,0.0544212,16,32765
0.760368,-0.24253,0.0549527,16,32765
0.778614,-0.251005,0.0561834,16,32765
0.758851,-0.2473,0.0546574,15,32765
0.777055,-0.255865,0.0558438,16,32765
0.608883,0.00796337,0.0360272,18,32765
0.588931,0.0057754,0.0350218,18,32765
0.578957,0.00376402,0.0345591,18,32765
0.598924,0.00190919,0.0358595,18,32765
0.608899,-0.000106815,0.0366403,18,32765
0.598907,-0.0021056,0.0361353,18,32765
0.618855,-0.00422617,0.0374266,18,32765
0.598872,-0.00603784,0.0362787,18,32765
0.598841,-0.00801551,0.0363989,19,32765
0.628749,-0.0104597,0.0382835,19,32765
0.628704,-0.0125732,0.0383756,20,32765
0.638633,-0.0149092,0.0390618,21,32765
0.648557,-0.0172939,0.0396849,21,32765
0.648492,-0.0194311,0.0397507,20,32765
0.648422,-0.0215737,0.0397877,19,32765
0.618419,-0.0226347,0.0380148,19,32765
0.618339,-0.024704,0.0380406,18,32765
0.608277,-0.0263287,0.0374869,18,32765
0.618154,-0.028812,0.0381566,17,32765
0.618054,-0.0308447,0.038186,17,32765
0.588049,-0.0312751,0.0363322,18,32765
0.627799,-0.0354535,0.0388847,18,32765
0.617714,-0.0369115,0.0382949,18,32765
0.617592,-0.0389405,0.0382637,18,32765
0.637372,-0.0423186,0.0395728,18,32765
0.647185,-0.0451282,0.040181,18,32765
0.637078,-0.0465798,0.0395277,18,32765
0.636915,-0.0487102,0.0395761,18,32765
0.656645,-0.0524647,0.0408016,18,32765
0.616674,-0.0513486,0.0384216,18,32765
0.626445,-0.0542723,0.0389961,18,32765
0.636201,-0.0572565,0.0396166,18,32765
0.616128,-0.0575351,0.0384214,19,32765
0.635795,-0.0615288,0.0397356,19,32765
0.635584,-0.0636368,0.0397977,19,32765
0.645296,-0.0667907,0.0403969,18,32765
0.635147,-0.0678872,0.0397394,18,32765
0.66468,-0.0732852,0.0415954,18,32765
0.624761,-0.0710011,0.0391517,18,32765
0.64435,-0.075357,0.0404263,18,32765
0.624276,-0.0751174,0.0392063,18,32765
0.663646,-0.0820979,0.0416468,18,32765
0.633666,-0.0805618,0.0397108,18,32765
0.633387,-0.082689,0.0397852,18,32765
0.652888,-0.087446,0.0411079,17,32765
0.652588,-0.089631,0.0411733,18,32765
0.642403,-0.0904232,0.0405261,18,32765
0.612465,-0.088291,0.0386226,17,32765
0.641778,-0.0947553,0.0405297,17,32765
0.651327,-0.0983579,0.0412213,18,32765
0.650997,-0.10051,0.0412363,18,32765
0.630944,-0.0995663,0.0399527,17,32765
0.650321,-0.104827,0.0411614,17,32765
0.649962,-0.107023,0.0411708,17,32765
0.620068,-0.104235,0.039375,17,32765
0.639387,-0.109712,0.0405956,18,32765
0.658673,-0.115291,0.041919,18,32765
0.668115,-0.11921,0.0425629,18,32765
0.6579,-0.119631,0.0419076,17,32765
0.696751,-0.129064,0.0445073,18,32765
0.657082,-0.123994,0.0420636,17,32765
0.646856,-0.12434,0.0414376,17,32765
0.64644,-0.126469,0.0414836,17,32765
0.685164,-0.136421,0.0440435,17,32765
0.694492,-0.140647,0.0447122,17,32765
0.645147,-0.132863,0.041625,17,32765
0.674,-0.141147,0.0436131,16,32765
0.702809,-0.149595,0.045608,16,32765
0.721813,-0.156151,0.0469346,16,32765
0.672558,-0.147797,0.0438372,16,32765
0.711021,-0.158716,0.0464621,16,32765
0.700749,-0.158867,0.045959,16,32765
0.70021,-0.161195,0.04607,15,32765
0.699671,-0.163502,0.0461201,16,32765
0.718539,-0.170414,0.0475544,15,32765
0.708269,-0.170421,0.0470334,15,32765
0.717387,-0.175126,0.0478159,16,32765
0.716806,-0.177463,0.0479236,16,32765
0.735571,-0.184674,0.0493115,16,32765
0.734953,-0.187051,0.0495546,16,32765
0.695671,-0.179501,0.0471308,16,32765
0.714387,-0.18681,0.0485118,16,32765
0.733059,-0.194223,0.0500251,16,32765
0.703507,-0.188844,0.0481247,16,32765
0.751021,-0.2042,0.0516649,16,32765
0.73109,-0.201378,0.0505474,15,32765
0.740019,-0.206479,0.0513669,16,32765
0.720123,-0.203447,0.050319,16,32765
0.729036,-0.208538,0.0511693,16,32765
0.71877,-0.208081,0.0507204,16,32765
0.737239,-0.215979,0.0522712,16,32765
0.74607,-0.221226,0.0532746,15,32765
0.735784,-0.220754,0.0528174,15,32765
0.725509,-0.22021,0.0523828,16,32765
0.762942,-0.234197,0.0554216,16,32765
0.752654,-0.233637,0.0550088,15,32765
0.751877,-0.236037,0.0553889,15,32765
0.760611,-0.241439,0.0563802,16,32765
0.75031,-0.24081,0.0560824,15,32765
0.759012,-0.246245,0.0571317,15,32765
0.777156,-0.254825,0.0591025,15,32765
0.599208,0.00787633,0.0297851,18,32765
0.589235,0.00581343,0.0294645,18,32765
0.599232,0.00392756,0.0300994,18,32765
0.609223,0.00197027,0.0307116,19,32765
0.609217,-8.26218e-05,0.0308948,19,32765
0.619196,-0.00215639,0.0315001,19,32765
0.609194,-0.004144,0.0310775,19,32765
0.629147,-0.00633044,0.0321589,18,32765
0.609144,-0.00814515,0.0312601,18,32765
0.619097,-0.0102947,0.0318363,17,32765
0.609069,-0.0121802,0.031412,18,32765
0.619005,-0.0144549,0.0320017,17,32765
0.60897,-0.0162462,0.0314975,18,32765
0.618892,-0.0185563,0.0320767,18,32765
0.618825,-0.0206052,0.032112,18,32765
0.618749,-0.0226671,0.0321755,18,32765
0.628647,-0.0251407,0.0327206,18,32765
0.648511,-0.0281002,0.0338232,18,32765
0.618484,-0.0288601,0.0323174,18,32765
0.618384,-0.030898,0.0323468,18,32765
0.628252,-0.0334549,0.0328621,18,32765
0.628134,-0.0355182,0.0329514,18,32765
0.628013,-0.0375768,0.0329794,18,32765
0.627888,-0.0396438,0.0329477,18,32765
0.627748,-0.0417379,0.0330214,18,32765
0.617644,-0.0431298,0.0324876,18,32765
0.637416,-0.0466725,0.0335005,18,32765
0.637254,-0.0488083,0.0335489,19,32765
0.647039,-0.0517751,0.0340621,19,32765
0.626953,-0.0522842,0.0331085,19,32765
0.636726,-0.0552483,0.0335882,19,32765
0.636537,-0.0573766,0.0335897,18,32765
0.636338,-0.0595165,0.033634,18,32765
0.63613,-0.0616597,0.0337089,18,32765
0.625982,-0.0627766,0.0332435,18,32765
0.62577,-0.0648752,0.0332215,18,32765
0.645409,-0.0690975,0.0342398,18,32765
0.635249,-0.0701564,0.0337066,18,32765
0.644931,-0.0734156,0.0342742,18,32765
0.614931,-0.0720372,0.0327226,18,32765
0.634514,-0.0764784,0.0338026,18,32765
0.634258,-0.078596,0.033756,18,32765
0.643898,-0.082003,0.0342111,18,32765
0.633713,-0.082874,0.0337594,18,32765
0.653224,-0.0876424,0.034894,18,32765
0.633137,-0.0871107,0.0339001,18,32765
0.642731,-0.0906276,0.0344065,18,32765
0.642426,-0.092773,0.034372,18,32765
0.632225,-0.0935096,0.0338809,18,32765
0.641783,-0.0970884,0.0344776,17,32765
0.641457,-0.099213,0.0344925,18,32765
0.631261,-0.0997944,0.0339279,18,32765
0.630929,-0.101884,0.0338894,18,32765
0.650286,-0.107269,0.034958,18,32765
0.630223,-0.106134,0.0339756,18,32765
0.639702,-0.109966,0.0344772,18,32765
0.639326,-0.112109,0.0345495,18,32765
0.629122,-0.112457,0.0340353,17,32765
0.638572,-0.11633,0.0345388,18,32765
0.667635,-0.123898,0.0362267,17,32765
0.647588,-0.122428,0.0352241,18,32765
0.676585,-0.130295,0.0368273,17,32765
0.666349,-0.130606,0.0363412,17,32765
0.665906,-0.132834,0.0363858,17,32765
0.645892,-0.131049,0.0353526,17,32765
0.655233,-0.135193,0.0359509,17,32765
0.654773,-0.137378,0.0360444,17,32765
0.654312,-0.139535,0.0361364,17,32765
0.663599,-0.143828,0.0367309,17,32765
0.653369,-0.143852,0.0362626,17,32765
0.643141,-0.143836,0.0357972,17,32765
0.642652,-0.145973,0.0359198,17,32765
0.661616,-0.152601,0.0371132,17,32765
0.661106,-0.154785,0.0371608,17,32765
0.631439,-0.150043,0.0356562,16,32765
0.679474,-0.163806,0.0385159,16,32765
0.688619,-0.168426,0.039199,15,32765
0.707442,-0.175481,0.0404097,15,32765
0.706856,-0.177806,0.040499,15,32765
0.686912,-0.175162,0.0396169,15,32765
0.734652,-0.189925,0.0426017,15,32765
0.705051,-0.184725,0.0409912,15,32765
0.723738,-0.192126,0.0423141,16,32765
0.723104,-0.194482,0.0423907,15,32765
0.722459,-0.196816,0.0426257,15,32765
0.731416,-0.201861,0.0434017,15,32765
0.740347,-0.206975,0.0441275,15,32765
0.730049,-0.206655,0.043845,15,32765
0.690972,-0.198037,0.0417076,15,32765
0.757439,-0.219706,0.0459993,15,32765
0.708827,-0.208064,0.0432788,15,32765
0.73683,-0.218916,0.0453542,16,32765
0.726548,-0.218412,0.0449884,16,32765
0.744929,-0.22655,0.0464308,16,32765
0.744195,-0.228894,0.0467059,16,32765
0.752984,-0.234201,0.0475851,15,32765
0.723643,-0.227622,0.0461442,16,32765
0.760945,-0.242023,0.0488635,16,32765
0.741139,-0.238337,0.0480442,15,32765
0.740363,-0.240671,0.0483756,16,32765
0.768018,-0.252329,0.0507727,16,32765
0.589128,0.00752079,0.0311759,18,32765
0.569192,0.00539119,0.0298499,18,32765
0.599179,0.00363639,0.0311599,19,32765
0.589213,0.00157958,0.0304235,19,32765
0.599212,-0.000361538,0.0307368,20,32765
0.619194,-0.002382,0.0315232,20,32765
0.619192,-0.0044147,0.0313418,19,32765
0.619183,-0.00645658,0.0311523,18,32765
0.60918,-0.00838716,0.0304953,18,32765
0.609158,-0.010411,0.0302974,18,32765
0.599142,-0.012217,0.0296502,18,32765
0.569146,-0.0135052,0.0281243,18,32765
0.589074,-0.0159472,0.0289474,18,32765
0.599005,-0.0182169,0.029342,18,32765
0.60893,-0.0205521,0.0297027,19,32765
0.588903,-0.0218248,0.0285819,18,32765
0.618773,-0.0249648,0.0299459,19,32765
0.608711,-0.0265834,0.0293881,19,32765
0.588671,-0.0276415,0.0283203,19,32765
0.598556,-0.030111,0.0287154,19,32765
0.598458,-0.0320775,0.0286118,19,32765
0.588381,-0.0334812,0.0280578,19,32765
0.608209,-0.0366155,0.0290106,19,32765
0.618061,-0.0392163,0.0293674,19,32765
0.61793,-0.0412725,0.0293156,19,32765
0.627757,-0.0440251,0.0297187,19,32765
0.597723,-0.0439297,0.0282485,20,32765
0.617495,-0.0474508,0.0291192,19,32765
0.607379,-0.0486966,0.0286227,19,32765
0.627125,-0.0523679,0.0295353,19,32765
0.616998,-0.0535681,0.0290407,19,32765
0.606868,-0.0547232,0.028582,19,32765
0.606683,-0.0567597,0.0285251,19,32765
0.606488,-0.0587906,0.0285577,19,32765
0.606289,-0.0608182,0.0285436,19,32765
0.616023,-0.0638619,0.0289466,19,32765
0.63567,-0.068018,0.0299472,18,32765
0.605652,-0.0668728,0.0285227,18,32765
0.615348,-0.0700447,0.0289878,19,32765
0.605188,-0.0709683,0.0284868,19,32765
0.614864,-0.0741758,0.0289912,18,32765
0.614618,-0.0761856,0.0289807,19,32765
0.614359,-0.078217,0.029075,19,32765
0.633909,-0.0828426,0.0299349,19,32765
0.613824,-0.0823095,0.0290625,18,32765
0.623438,-0.0857458,0.029545,18,32765
0.613249,-0.0864308,0.0292425,19,32765
0.612965,-0.0884594,0.029141,19,32765
0.642309,-0.0948888,0.0305783,19,32765
0.612354,-0.0925516,0.0292667,18,32765
0.592294,-0.0915634,0.0283604,18,32765
0.621583,-0.0982222,0.0297907,18,32765
0.611386,-0.0987015,0.0294197,18,32765
0.63076,-0.104011,0.0303856,18,32765
0.640254,-0.107797,0.0308881,18,32765
0.630043,-0.108264,0.0304063,18,32765
0.619837,-0.108641,0.0299851,18,32765
0.639131,-0.114225,0.0310467,18,32765
0.628919,-0.114568,0.0305841,18,32765
0.618714,-0.114824,0.0301327,18,32765
0.60851,-0.115026,0.0297372,18,32765
0.637545,-0.122706,0.0312909,18,32765
0.637135,-0.124811,0.0313183,18,32765
0.64651,-0.12889,0.031816,18,32765
0.616711,-0.125083,0.0303537,18,32765
0.616291,-0.127111,0.0304609,18,32765
0.664742,-0.13942,0.0328631,17,32765
0.66427,-0.141629,0.0329715,17,32765
0.654024,-0.141759,0.0325115,18,32765
0.624277,-0.137523,0.0310808,18,32765
0.633553,-0.141805,0.0316595,18,32765
0.65256,-0.148334,0.0326011,17,32765
0.652063,-0.150489,0.0326615,17,32765
0.641838,-0.150348,0.0322325,18,32765
0.651056,-0.154775,0.0327242,17,32765
0.631124,-0.152232,0.0317551,16,32765
0.620916,-0.151931,0.031317,16,32765
0.688264,-0.17083,0.0347742,16,32765
0.697385,-0.175519,0.0353178,16,32765
0.716162,-0.182735,0.0363291,16,32765
0.705891,-0.182575,0.0358398,16,32765
0.70529,-0.184879,0.035856,15,32765
0.666064,-0.17694,0.0339269,16,32765
0.733,-0.197279,0.0373182,16,32765
0.703448,-0.191772,0.0358457,15,32765
0.722081,-0.199349,0.0368641,15,32765
0.69258,-0.193601,0.0353888,16,32765
0.691947,-0.195847,0.0354121,15,32765
0.6817,-0.195375,0.0348404,15,32765
0.709828,-0.205979,0.0362937,15,32765
0.689997,-0.202624,0.035317,16,32765
0.689356,-0.204792,0.0353309,16,32765
0.707851,-0.21269,0.0361895,16,32765
0.735843,-0.22365,0.0376287,16,32765
0.706475,-0.21723,0.0361115,15,32765
0.715315,-0.22246,0.0365491,15,32765
0.695569,-0.218677,0.0355467,16,32765
0.704407,-0.223868,0.0359635,16,32765
0.732246,-0.235223,0.037238,16,32765
0.712488,-0.231434,0.036037,16,32765
0.692787,-0.227421,0.0350192,16,32765
0.569416,0.00730393,0.0247484,18,32765
0.579439,0.00551952,0.0249085,18,32765
0.579465,0.0035438,0.024656,18,32765
0.589474,0.00160353,0.0248639,18,32765
0.579493,-0.000330839,0.0242468,17,32765
0.589489,-0.00225271,0.0244381,18,32765
0.589486,-0.00419201,0.0242654,18,32765
0.61945,-0.00645228,0.0253096,18,32765
0.599449,-0.0082506,0.0243411,17,32765
0.589436,-0.0100756,0.0237439,18,32765
0.589405,-0.0120242,0.0235959,18,32765
0.579374,-0.0137577,0.0231518,18,32765
0.58932,-0.015968,0.0233871,18,32765
0.599255,-0.0182431,0.0236875,18,32765
0.589209,-0.0199091,0.0231686,18,32765
0.599131,-0.0222309,0.0234117,19,32765
0.599058,-0.0242007,0.0233253,18,32765
0.60896,-0.0266304,0.0236393,19,32765
0.618855,-0.0290999,0.0239172,18,32765
0.608777,-0.03067,0.0234451,19,32765
0.58872,-0.0316029,0.0225745,19,32765
0.618545,-0.0352519,0.0236413,19,32765
0.618426,-0.0372891,0.0236431,18,32765
0.618306,-0.0392946,0.0235243,18,32765
0.618174,-0.041356,0.0234726,18,32765
0.618035,-0.0434149,0.023404,18,32765
0.617888,-0.0454878,0.0233471,18,32765
0.597809,-0.0460158,0.0225254,19,32765
0.627536,-0.0503989,0.023624,18,32765
0.587534,-0.0491467,0.0220999,18,32765
0.617236,-0.0536822,0.0231979,19,32765
0.607101,-0.0548405,0.0228335,18,32765
0.616864,-0.0578146,0.02315,18,32765
0.616666,-0.0598839,0.0231833,19,32765
0.606519,-0.0609506,0.0227953,19,32765
0.626194,-0.0650338,0.0234768,19,32765
0.616038,-0.0660371,0.023169,19,32765
0.615812,-0.068119,0.023148,18,32765
0.625507,-0.071332,0.023519,18,32765
0.615337,-0.0722919,0.0231117,18,32765
0.634933,-0.0767392,0.023896,18,32765
0.614845,-0.0763558,0.0231389,18,32765
0.63441,-0.080921,0.0239827,19,32765
0.634141,-0.0830287,0.0239048,19,32765
0.614048,-0.0824949,0.0232209,19,32765
0.613765,-0.0845752,0.0232347,19,32765
0.613472,-0.0866263,0.0234013,18,32765
0.632966,-0.0915199,0.0240515,18,32765
0.622769,-0.0921781,0.0237022,18,32765
0.632334,-0.0957547,0.0241815,18,32765
0.62213,-0.0963608,0.0238435,18,32765
0.621803,-0.0984466,0.0238559,18,32765
0.631331,-0.102119,0.02434,18,32765
0.630982,-0.104249,0.024357,18,32765
0.630625,-0.106383,0.0243844,18,32765
0.630262,-0.108513,0.024378,18,32765
0.620052,-0.108891,0.0240512,18,32765
0.61968,-0.110965,0.0241577,18,32765
0.658625,-0.120215,0.0257074,18,32765
0.638574,-0.118743,0.0249676,18,32765
0.618535,-0.117152,0.0242836,18,32765
0.637762,-0.12299,0.0251696,18,32765
0.627545,-0.123176,0.0248095,18,32765
0.627128,-0.125274,0.0248251,18,32765
0.616916,-0.125374,0.0244212,18,32765
0.645852,-0.133473,0.0256967,18,32765
0.635623,-0.133579,0.0252929,18,32765
0.644942,-0.137784,0.0257875,18,32765
0.644471,-0.139969,0.0258122,18,32765
0.643992,-0.142152,0.0258383,17,32765
0.653255,-0.146509,0.0263259,17,32765
0.643023,-0.146461,0.0259011,17,32765
0.632797,-0.146338,0.0255675,17,32765
0.63231,-0.148416,0.0256253,17,32765
0.651256,-0.155138,0.0264174,17,32765
0.641028,-0.154936,0.0260312,17,32765
0.630808,-0.154667,0.0256882,17,32765
0.65938,-0.163996,0.0269046,17,32765
0.658836,-0.166157,0.0269557,17,32765
0.648607,-0.165838,0.0265869,18,32765
0.64806,-0.167962,0.0265887,17,32765
0.637842,-0.167544,0.0262068,17,32765
0.646941,-0.172215,0.0266387,17,32765
0.656024,-0.176928,0.0269912,17,32765
0.684363,-0.186957,0.0281829,17,32765
0.654865,-0.181168,0.0270253,16,32765
0.635035,-0.177885,0.0262301,16,32765
0.682516,-0.193582,0.0282404,16,32765
0.710688,-0.20411,0.0293507,15,32765
0.710009,-0.206464,0.0293322,15,32765
0.699756,-0.205922,0.0289404,15,32765
0.651219,-0.193871,0.0269716,15,32765
0.679318,-0.204549,0.0280439,16,32765
0.736017,-0.224177,0.0303862,15,32765
0.725737,-0.223628,0.0299393,15,32765
0.696398,-0.217039,0.0287088,16,32765
0.705254,-0.222196,0.0290743,15,32765
0.675997,-0.215299,0.0278286,15,32765
0.694353,-0.22353,0.0284388,15,32765
0.693629,-0.225793,0.0282116,15,32765
0.673939,-0.221711,0.0273836,16,32765
0.569709,0.00818775,0.0162707,19,32765
0.569728,0.00631461,0.0164412,19,32765
0.559745,0.00434901,0.016325,19,32765
0.579743,0.00257245,0.0170668,19,32765
0.579747,0.000612805,0.0171211,19,32765
0.57974,-0.00131154,0.0173174,18,32765
0.599721,-0.00332252,0.0179907,19,32765
0.579715,-0.00513139,0.0174377,19,32765
0.589688,-0.00718395,0.0177991,19,32765
0.579664,-0.00901866,0.0175634,18,32765
0.589623,-0.011124,0.0179286,18,32765
0.589579,-0.0130866,0.0180406,19,32765
0.579539,-0.0147863,0.0177855,19,32765
0.589477,-0.0169854,0.0181163,19,32765
0.579424,-0.0186273,0.0178981,19,32765
0.609325,-0.0216124,0.0188615,19,32765
0.589273,-0.022846,0.0183054,18,32765
0.589193,-0.0247966,0.0183522,18,32765
0.609076,-0.0276667,0.0190002,18,32765
0.589011,-0.0287489,0.0184157,18,32765
0.598894,-0.0312363,0.0187308,19,32765
0.598784,-0.033243,0.0187745,19,32765
0.608648,-0.0358184,0.0191017,19,32765
0.588571,-0.0366148,0.018524,19,32765
0.598416,-0.0392416,0.0189173,19,32765
0.588313,-0.0405332,0.0185868,19,32765
0.598145,-0.0431847,0.0189213,19,32765
0.597996,-0.0451874,0.0189526,19,32765
0.607806,-0.0479648,0.0192777,19,32765
0.597679,-0.0491975,0.0189648,20,32765
0.607468,-0.0520616,0.019304,19,32765
0.597334,-0.0532045,0.0190164,19,32765
0.607108,-0.0561033,0.0193008,20,32765
0.596965,-0.0571822,0.01904,19,32765
0.606719,-0.0601454,0.0193387,19,32765
0.606517,-0.0621623,0.0193154,19,32765
0.636124,-0.0673323,0.0203173,19,32765
0.596151,-0.0651276,0.0190364,20,32765
0.60586,-0.068251,0.0193642,20,32765
0.615552,-0.0714709,0.0196767,20,32765
0.625231,-0.0747266,0.020039,20,32765
0.615057,-0.075595,0.0197641,19,32765
0.6148,-0.0776475,0.0198096,19,32765
0.60463,-0.0783748,0.0195067,19,32765
0.624179,-0.083025,0.0201746,19,32765
0.60409,-0.0824218,0.0195448,19,32765
0.613709,-0.0858382,0.0198368,19,32765
0.613414,-0.0879247,0.0198025,19,32765
0.613114,-0.0899807,0.0198617,19,32765
0.61281,-0.092039,0.0198264,19,32765
0.632252,-0.0971319,0.020569,19,32765
0.612174,-0.0961602,0.0199043,19,32765
0.631582,-0.101411,0.0205063,18,32765
0.641098,-0.105149,0.0209166,19,32765
0.621027,-0.103995,0.0202543,18,32765
0.600968,-0.102708,0.0196983,19,32765
0.620318,-0.108128,0.0203485,18,32765
0.639632,-0.113716,0.0209537,18,32765
0.609741,-0.110508,0.0200898,18,32765
0.62902,-0.116196,0.0208032,18,32765
0.618805,-0.116447,0.0204938,18,32765
0.618417,-0.11849,0.0205039,19,32765
0.637641,-0.124356,0.0212029,19,32765
0.617612,-0.122591,0.0206436,19,32765
0.626997,-0.126614,0.0210503,18,32765
0.665736,-0.136723,0.022429,18,32765
0.61636,-0.12871,0.0208326,18,32765
0.635481,-0.134906,0.0215558,18,32765
0.644798,-0.139112,0.0219833,18,32765
0.634565,-0.139122,0.0217365,18,32765
0.614574,-0.136927,0.0211953,18,32765
0.633607,-0.143392,0.0219296,18,32765
0.623382,-0.143268,0.0216541,18,32765
0.622902,-0.14532,0.0217925,18,32765
0.661317,-0.156582,0.0232714,18,32765
0.641372,-0.154036,0.0226886,18,32765
0.640862,-0.156124,0.0228179,18,32765
0.620942,-0.15342,0.0222234,17,32765
0.610736,-0.153025,0.0220088,18,32765
0.63928,-0.162425,0.0232156,18,32765
0.609711,-0.157024,0.022271,17,32765
0.638191,-0.166612,0.0234953,17,32765
0.666618,-0.176372,0.0247578,17,32765
0.637068,-0.170803,0.023893,18,32765
0.665427,-0.180764,0.0251173,17,32765
0.645559,-0.17763,0.0245113,18,32765
0.654597,-0.182405,0.0251143,17,32765
0.654001,-0.184508,0.0252726,16,32765
0.653394,-0.186619,0.025499,16,32765
0.681576,-0.197061,0.0268412,15,32765
0.680925,-0.199278,0.0270104,16,32765
0.661096,-0.195827,0.0265383,16,32765
0.679597,-0.20368,0.0276166,16,32765
0.707619,-0.214558,0.0289982,16,32765
0.71647,-0.219754,0.0296392,16,32765
0.706208,-0.219084,0.0295381,16,32765
0.724558,-0.22732,0.0306904,16,32765
0.704778,-0.223563,0.0301278,15,32765
0.704059,-0.225759,0.0305616,16,32765
0.722336,-0.234146,0.0317202,16,32765
0.712092,-0.233264,0.0318212,16,32765
0.579834,0.00836123,0.0110863,19,32765
0.589852,0.00656204,0.011454,19,32765
0.569872,0.00444729,0.011241,19,32765
0.579878,0.00258893,0.0115971,19,32765
0.589881,0.000635418,0.0118523,19,32765
0.599873,-0.00134913,0.0122562,19,32765
0.589866,-0.00326421,0.0121269,19,32765
0.599849,-0.00531007,0.0123807,19,32765
0.579832,-0.00706846,0.0120278,19,32765
0.599797,-0.00934094,0.0125108,19,32765
0.599761,-0.0113286,0.0125743,19,32765
0.589722,-0.0131069,0.0124767,18,32765
0.599669,-0.0153217,0.0127407,19,32765
0.609608,-0.0175919,0.012978,19,32765
0.599552,-0.0193046,0.0128572,19,32765
0.599483,-0.0212978,0.0128943,19,32765
0.599408,-0.0232776,0.0129576,19,32765
0.589338,-0.024845,0.0127885,18,32765
0.599238,-0.0272671,0.0130308,19,32765
0.609128,-0.0297832,0.0132878,19,32765
0.59904,-0.0312999,0.0130729,18,32765
0.618895,-0.0344218,0.013554,19,32765
0.598816,-0.0353044,0.0131309,19,32765
0.598694,-0.0373133,0.0131803,18,32765
0.608539,-0.0399798,0.0134807,19,32765
0.608404,-0.0419962,0.013465,19,32765
0.59829,-0.043277,0.0132638,18,32765
0.588172,-0.0445297,0.0130736,18,32765
0.607953,-0.0480684,0.0135261,18,32765
0.597823,-0.0493042,0.0133076,18,32765
0.607613,-0.0521751,0.0135525,19,32765
0.607435,-0.0542095,0.013582,18,32765
0.607252,-0.0562265,0.0135496,19,32765
0.607059,-0.0582633,0.0136061,19,32765
0.616811,-0.0612664,0.0138103,19,32765
0.616604,-0.0633214,0.0137867,19,32765
0.616389,-0.0653731,0.0138372,19,32765
0.616165,-0.0674483,0.0138259,18,32765
0.615934,-0.0695247,0.0138367,18,32765
0.595832,-0.0693201,0.0133856,19,32765
0.625374,-0.0748941,0.0141,18,32765
0.605273,-0.0745427,0.0136949,19,32765
0.624856,-0.0790774,0.0141903,19,32765
0.614679,-0.0798392,0.0139821,19,32765
0.604498,-0.0805707,0.0137841,18,32765
0.614128,-0.0839624,0.0140211,19,32765
0.613842,-0.0860325,0.0139928,18,32765
0.613546,-0.088124,0.0139586,19,32765
0.623137,-0.0916395,0.0142441,18,32765
0.612939,-0.0922481,0.0139828,18,32765
0.602742,-0.0927894,0.0138556,19,32765
0.622177,-0.0979338,0.0142878,19,32765
0.61197,-0.098466,0.0140224,18,32765
0.611634,-0.100524,0.0141083,18,32765
0.621153,-0.104233,0.0143173,18,32765
0.640505,-0.109693,0.0148646,18,32765
0.610593,-0.106655,0.0141831,18,32765
0.620072,-0.11047,0.0143725,19,32765
0.619696,-0.112547,0.0144775,19,32765
0.629141,-0.116463,0.0147729,19,32765
0.638571,-0.12042,0.01502,19,32765
0.608715,-0.116877,0.014337,18,32765
0.637759,-0.124642,0.0150789,19,32765
0.647142,-0.128724,0.0154087,18,32765
0.617313,-0.124923,0.0147863,18,32765
0.626688,-0.128977,0.0150806,18,32765
0.636041,-0.133102,0.0153709,18,32765
0.635593,-0.135217,0.0154329,18,32765
0.625368,-0.135208,0.0152888,18,32765
0.634675,-0.139443,0.0156142,18,32765
0.634193,-0.1416,0.0157461,18,32765
0.623965,-0.141513,0.0155645,18,32765
0.613744,-0.141356,0.0153825,18,32765
0.63274,-0.147931,0.0160117,18,32765
0.622518,-0.147713,0.0158756,18,32765
0.622037,-0.149714,0.0159744,18,32765
0.631254,-0.154115,0.0163516,18,32765
0.630744,-0.156178,0.0164503,18,32765
0.591441,-0.148511,0.0155666,18,32765
0.63938,-0.162802,0.0170017,18,32765
0.619484,-0.159886,0.0165992,17,32765
0.657631,-0.172059,0.0178057,18,32765
0.628069,-0.166533,0.0172037,18,32765
0.646818,-0.173794,0.0179482,18,32765
0.646236,-0.175933,0.0180827,18,32765
0.655291,-0.1807,0.0184768,17,32765
0.654693,-0.182829,0.0187143,17,32765
0.634858,-0.179498,0.0183179,18,32765
0.624657,-0.178801,0.018257,17,32765
0.64327,-0.186392,0.0190241,17,32765
0.642654,-0.188489,0.0191841,17,32765
0.632442,-0.187749,0.0191743,18,32765
0.6414,-0.192653,0.0197569,17,32765
0.650335,-0.197621,0.0202494,17,32765
0.640136,-0.196772,0.0201745,16,32765
0.668127,-0.207726,0.0213564,15,32765
0.667448,-0.209863,0.0216828,15,32765
0.7144,-0.227114,0.0234804,15,32765
0.713673,-0.229344,0.0239204,15,32765
0.722437,-0.234694,0.0245725,15,32765
0.702697,-0.230693,0.0244377,15,32765
0.559805,0.0079165,0.0124979,19,32765
0.579828,0.00623717,0.012669,19,32765
0.579851,0.00430057,0.0124124,19,32765
0.579868,0.00237051,0.0121501,19,32765
0.559881,0.00044687,0.011523,19,32765
0.559884,-0.00137811,0.0113071,19,32765
0.579876,-0.00333926,0.011541,20,32765
0.559869,-0.00507342,0.0110116,20,32765
0.579846,-0.00725645,0.0112472,19,32765
0.559827,-0.0089176,0.0106837,19,32765
0.57979,-0.0111773,0.0108851,19,32765
0.589748,-0.0133159,0.0109606,19,32765
0.599698,-0.0154792,0.0110562,19,32765
0.589653,-0.0171514,0.0107235,19,32765
0.589595,-0.0191126,0.0106157,19,32765
0.589529,-0.0210853,0.0105144,19,32765
0.579466,-0.0226795,0.0102446,19,32765
0.579389,-0.0245977,0.0101402,19,32765
0.579306,-0.0265216,0.0100305,19,32765
0.589204,-0.0289199,0.0101387,19,32765
0.579122,-0.0303248,0.00987738,19,32765
0.579018,-0.0322579,0.00986021,19,32765
0.56893,-0.0335724,0.00957296,19,32765
0.568816,-0.0354611,0.00951451,19,32765
0.578673,-0.0380049,0.00964159,19,32765
0.598495,-0.041292,0.00994832,19,32765
0.588383,-0.0425627,0.00970775,19,32765
0.608177,-0.0460429,0.0100358,19,32765
0.598052,-0.0472971,0.00982075,19,32765
0.587927,-0.0484674,0.00962724,19,32765
0.587763,-0.0504166,0.00962104,19,32765
0.587592,-0.0523786,0.00957791,19,32765
0.587416,-0.0543205,0.00958402,19,32765
0.597185,-0.057229,0.00973279,19,32765
0.587037,-0.0582682,0.00960693,19,32765
0.586839,-0.0602348,0.00955965,19,32765
0.586634,-0.0622039,0.00956079,19,32765
0.586424,-0.0641615,0.00951872,19,32765
0.586204,-0.066133,0.00955756,19,32765
0.595914,-0.0692253,0.00972222,19,32765
0.595675,-0.0712405,0.00978485,19,32765
0.595438,-0.0732094,0.00972552,19,32765
0.575345,-0.0727174,0.00948532,19,32765
0.594929,-0.0772117,0.00987437,19,32765
0.594669,-0.0791865,0.0099262,19,32765
0.604305,-0.0825503,0.0100676,19,32765
0.604024,-0.0845956,0.00992047,19,32765
0.633435,-0.0908402,0.0104273,20,32765
0.603443,-0.0886328,0.0100267,19,32765
0.613027,-0.0921635,0.010176,19,32765
0.602826,-0.092733,0.0100725,19,32765
0.602508,-0.0947721,0.0101449,19,32765
0.602187,-0.0967781,0.0102327,19,32765
0.601859,-0.0987926,0.0102825,19,32765
0.611386,-0.102454,0.0105235,20,32765
0.611035,-0.104521,0.0105425,20,32765
0.620524,-0.108309,0.0109035,19,32765
0.590615,-0.105173,0.0105928,19,32765
0.619773,-0.112511,0.0110607,19,32765
0.589897,-0.109131,0.0106003,19,32765
0.619006,-0.116652,0.0111451,19,32765
0.618613,-0.118704,0.011263,19,32765
0.628027,-0.12268,0.0114524,19,32765
0.627612,-0.124783,0.0115095,19,32765
0.636988,-0.128869,0.011803,18,32765
0.607171,-0.12496,0.0113401,18,32765
0.587173,-0.122909,0.0109883,18,32765
0.616096,-0.131117,0.0115922,18,32765
0.615654,-0.133175,0.0116315,18,32765
0.615207,-0.135219,0.0116855,19,32765
0.604993,-0.135093,0.0115651,18,32765
0.614294,-0.139299,0.0117749,18,32765
0.623569,-0.143592,0.0119733,18,32765
0.632822,-0.147943,0.0121961,18,32765
0.612872,-0.145418,0.0118901,18,32765
0.61239,-0.147434,0.0119121,18,32765
0.64103,-0.156601,0.0125122,20,32765
0.640516,-0.158695,0.0124783,19,32765
0.61089,-0.153528,0.011949,19,32765
0.62976,-0.160463,0.0124035,18,32765
0.638908,-0.165036,0.0126275,18,32765
0.619015,-0.16208,0.012265,18,32765
0.628156,-0.16663,0.0124398,18,32765
0.617956,-0.166071,0.0122901,18,32765
0.62707,-0.170662,0.0125336,18,32765
0.61688,-0.170023,0.012321,18,32765
0.60669,-0.16935,0.0121441,18,32765
0.64462,-0.182205,0.012908,18,32765
0.634397,-0.181603,0.0126973,17,32765
0.643401,-0.186459,0.012954,17,32765
0.604421,-0.177284,0.0120976,18,32765
0.651766,-0.193466,0.0131,18,32765
0.62242,-0.186916,0.0124897,18,32765
0.650519,-0.197624,0.0130264,17,32765
0.640336,-0.19674,0.0127766,18,32765
0.630156,-0.195822,0.0125492,17,32765
0.648614,-0.203802,0.0128297,18,32765
0.647968,-0.205852,0.012753,18,32765
0.62828,-0.201775,0.0122708,17,32765
0.627654,-0.203719,0.0122007,17,32765
0.636528,-0.208765,0.0122391,17,32765
0.579894,0.00822589,0.00747371,19,32765
0.579922,0.006259,0.00719839,19,32765
0.569943,0.00424321,0.00682209,19,32765
0.579957,0.00238286,0.00667938,20,32765
0.569964,0.000462431,0.00635233,19,32765
0.579965,-0.0014242,0.00624018,19,32765
0.579959,-0.00334075,0.00607025,19,32765
0.599944,-0.00544208,0.00613868,19,32765
0.599923,-0.00751791,0.00597555,19,32765
0.579899,-0.0092517,0.00559444,19,32765
0.569869,-0.0110045,0.00532095,19,32765
0.56983,-0.012889,0.0052125,19,32765
0.569786,-0.014734,0.00512686,19,32765
0.569736,-0.0166032,0.0049835,19,32765
0.589667,-0.0191516,0.00505057,19,32765
0.579608,-0.0207708,0.0048654,19,32765
0.569543,-0.0223353,0.00469157,19,32765
0.579457,-0.0246498,0.00466947,19,32765
0.589362,-0.0270365,0.00463839,19,32765
0.599258,-0.0294733,0.00465118,19,32765
0.579186,-0.0303904,0.00440674,19,32765
0.579082,-0.032328,0.00438962,19,32765
0.588955,-0.0348262,0.00434397,19,32765
0.568876,-0.0355388,0.00413833,19,32765
0.578733,-0.0380885,0.00417115,19,32765
0.608532,-0.0420729,0.00436079,20,32765
0.588441,-0.0426569,0.0041431,19,32765
0.588295,-0.044632,0.0041422,19,32765
0.588142,-0.0466122,0.00409258,19,32765
0.61788,-0.0510453,0.00426941,19,32765
0.607744,-0.0522419,0.00419422,19,32765
0.597606,-0.0533854,0.00408169,19,32765
0.587469,-0.0544421,0.00401986,18,32765
0.587284,-0.0564013,0.0040065,18,32765
0.587089,-0.058399,0.00404296,19,32765
0.576942,-0.0593469,0.00392805,18,32765
0.616515,-0.0655138,0.00420026,19,32765
0.586472,-0.064306,0.00395505,19,32765
0.586251,-0.0662821,0.00399402,18,32765
0.595961,-0.0693815,0.00406449,19,32765
0.605651,-0.0725914,0.00419603,19,32765
0.605407,-0.0745978,0.00413584,19,32765
0.59523,-0.075395,0.00415505,18,32765
0.60489,-0.0786762,0.00428744,18,32765
0.594712,-0.0793658,0.00426912,18,32765
0.604347,-0.0827373,0.00431639,18,32765
0.594162,-0.0833974,0.00410104,18,32765
0.603781,-0.0867784,0.00418756,18,32765
0.613375,-0.0902901,0.00434605,19,32765
0.622953,-0.0938626,0.00440099,19,32765
0.612745,-0.0944672,0.00439289,20,32765
0.612421,-0.0965446,0.00446666,20,32765
0.612094,-0.0985881,0.00455605,19,32765
0.601893,-0.0990172,0.00453256,19,32765
0.611419,-0.102687,0.00467953,19,32765
0.611068,-0.104759,0.00469866,19,32765
0.620557,-0.108555,0.00496565,19,32765
0.600491,-0.107169,0.0050202,19,32765
0.619804,-0.112767,0.00512326,19,32765
0.609589,-0.113025,0.00511065,18,32765
0.619034,-0.116918,0.00520798,19,32765
0.608821,-0.117086,0.0052416,19,32765
0.61824,-0.121038,0.00533678,19,32765
0.608023,-0.121159,0.00530765,19,32765
0.617412,-0.125189,0.00550366,18,32765
0.62678,-0.129285,0.00567571,18,32765
0.616553,-0.129349,0.00560192,18,32765
0.606335,-0.12933,0.00556685,18,32765
0.605899,-0.13136,0.00560583,18,32765
0.615223,-0.135528,0.0057505,18,32765
0.624524,-0.139769,0.00590918,18,32765
0.633809,-0.144049,0.00602579,18,32765
0.633323,-0.146168,0.00603764,18,32765
0.623096,-0.146,0.00598017,20,32765
0.651793,-0.155004,0.00633448,20,32765
0.631837,-0.152462,0.00616831,18,32765
0.631321,-0.15458,0.00620095,18,32765
0.621107,-0.154237,0.00607295,18,32765
0.630282,-0.158763,0.00620723,18,32765
0.620069,-0.158355,0.006186,18,32765
0.609862,-0.157894,0.00612136,18,32765
0.62868,-0.164988,0.00633643,18,32765
0.628146,-0.167011,0.00631987,18,32765
0.637255,-0.171651,0.00646034,18,32765
0.61741,-0.16842,0.00631558,17,32765
0.626502,-0.173074,0.0063945,18,32765
0.625931,-0.175125,0.00641087,18,32765
0.615735,-0.174444,0.00630572,18,32765
0.634372,-0.182017,0.00648504,18,32765
0.633771,-0.184095,0.00654869,18,32765
0.623578,-0.183329,0.0063642,18,32765
0.613395,-0.182501,0.00630639,17,32765
0.622384,-0.187342,0.00637291,18,32765
0.631347,-0.192249,0.00643267,18,32765
0.630736,-0.194245,0.00637565,19,32765
0.63011,-0.196268,0.00633927,18,32765
0.61995,-0.195255,0.0061482,17,32765
0.647913,-0.20632,0.00635556,17,32765
0.609186,-0.196106,0.0058782,17,32765
0.608576,-0.197995,0.00581056,17,32765
0.607964,-0.199871,0.005671,18,32765
0.549931,0.00861507,-0.00123867,20,32765
0.549957,0.00678132,-0.00106743,20,32765
0.569976,0.00512186,-0.000972907,20,32765
0.56999,0.00322397,-0.000815138,20,32765
0.569998,0.00127853,-0.000687301,20,32765
0.549999,-0.000595144,-0.000554281,20,32765
0.559995,-0.00243465,-0.000500684,20,32765
0.559983,-0.00428062,-0.000396585,20,32765
0.559966,-0.00614048,-0.000258957,20,32765
0.569941,-0.00818827,-0.000275086,20,32765
0.549913,-0.00975459,-0.000187565,20,32765
0.549878,-0.0116051,-7.49127e-05,20,32765
0.569829,-0.0139445,-1.18743e-05,20,32765
0.559784,-0.0155632,2.62853e-05,20,32765
0.569723,-0.0177677,8.1054e-05,19,32765
0.569661,-0.0196454,0.000116499,20,32765
0.58958,-0.0222632,0.000250714,20,32765
0.579512,-0.0237816,0.000298392,20,32765
0.569441,-0.0252445,0.0002921,20,32765
0.569352,-0.0271603,0.00038886,20,32765
0.579246,-0.0295636,0.000357403,20,32765
0.569157,-0.0309815,0.000480127,21,32765
0.549081,-0.0317725,0.000463089,20,32765
0.578915,-0.0354631,0.000477729,20,32765
0.57879,-0.0374359,0.000479812,20,32765
0.578663,-0.0393601,0.000535589,19,32765
0.588503,-0.0419957,0.000582855,20,32765
0.578388,-0.0432042,0.000581148,20,32765
0.578241,-0.0451319,0.000600182,19,32765
0.598019,-0.048716,0.000668179,20,32765
0.577924,-0.0490205,0.000687214,20,32765
0.577756,-0.0509708,0.00068809,20,32765
0.577581,-0.0529137,0.000734656,19,32765
0.577401,-0.0548459,0.000705108,19,32765
0.567259,-0.0558322,0.000729053,19,32765
0.577013,-0.0587817,0.000800099,19,32765
0.586764,-0.0617061,0.000774854,19,32765
0.586553,-0.063682,0.000771991,19,32765
0.586339,-0.0656207,0.000890622,19,32765
0.586114,-0.0675984,0.000828918,19,32765
0.595811,-0.0707744,0.000825908,19,32765
0.595568,-0.0727868,0.00082827,19,32765
0.585395,-0.0735642,0.000833856,19,32765
0.585148,-0.0755052,0.000903691,19,32765
0.594809,-0.0787506,0.000816303,19,32765
0.574725,-0.0780413,0.00089743,19,32765
0.604174,-0.0841001,0.000885474,20,32765
0.593988,-0.084723,0.000695952,20,32765
0.583805,-0.0852694,0.000775193,19,32765
0.583515,-0.0872337,0.000804042,19,32765
0.593107,-0.0906865,0.00074477,20,32765
0.592801,-0.0926643,0.000838587,19,32765
0.602358,-0.096253,0.000856839,19,32765
0.602028,-0.0982944,0.000896654,19,32765
0.601689,-0.100349,0.000923492,19,32765
0.601341,-0.102411,0.00101716,20,32765
0.591145,-0.1027,0.000978173,20,32765
0.61048,-0.108227,0.00124993,19,32765
0.590432,-0.106716,0.00123629,19,32765
0.590072,-0.108692,0.00126896,19,32765
0.599528,-0.112534,0.00136759,20,32765
0.608975,-0.116395,0.00142001,20,32765
0.598758,-0.116562,0.00144414,19,32765
0.617989,-0.122424,0.00151595,19,32765
0.597968,-0.12055,0.00150463,19,32765
0.597566,-0.122527,0.00156451,19,32765
0.606948,-0.126537,0.00166721,19,32765
0.606522,-0.128561,0.00175388,19,32765
0.606092,-0.13057,0.00187923,19,32765
0.605642,-0.132642,0.0019049,19,32765
0.605194,-0.134672,0.00200476,21,32765
0.624253,-0.141078,0.00219284,21,32765
0.604284,-0.138694,0.00219293,19,32765
0.6233,-0.145231,0.00236831,19,32765
0.613082,-0.144999,0.00245684,19,32765
0.593157,-0.142334,0.00249572,18,32765
0.602403,-0.14664,0.00266585,19,32765
0.601917,-0.148618,0.00281876,19,32765
0.611128,-0.153014,0.00300607,18,32765
0.630005,-0.159948,0.00314977,18,32765
0.610109,-0.157026,0.00319121,18,32765
0.609595,-0.159006,0.00338886,19,32765
0.647741,-0.171222,0.00377044,18,32765
0.608543,-0.162979,0.00369506,18,32765
0.598347,-0.162378,0.00372155,18,32765
0.636377,-0.174949,0.00421815,18,32765
0.606899,-0.168984,0.00425896,18,32765
0.606341,-0.170972,0.00439058,18,32765
0.615391,-0.175705,0.00466423,18,32765
0.595601,-0.172155,0.00473166,18,32765
0.604642,-0.17687,0.00499399,18,32765
0.613664,-0.181629,0.00527383,18,32765
