x, y, z, intensity, ring
4.28575,-1.68129,0.578952,18,32765
4.15092,-1.6442,0.562555,17,32765
4.17297,-1.66898,0.567192,19,32765
4.17658,-1.68632,0.569327,17,32765
4.19841,-1.71135,0.574061,17,32765
4.22007,-1.7367,0.578728,17,32765
4.19581,-1.74307,0.577322,18,32765
4.15319,-1.74185,0.573231,16,32765
4.16561,-1.76329,0.576276,18,32765
4.05024,-1.73014,0.561897,18,32765
4.29959,-1.85325,0.597845,17,32765
4.12048,-1.7924,0.574347,18,32765
4.15062,-1.82211,0.580663,16,32765
4.08994,-1.81192,0.573956,18,32765
4.1472,-1.854,0.582963,17,32765
4.05057,-1.82669,0.571397,17,32765
4.11672,-1.87271,0.582383,17,32765
4.08342,-1.87386,0.57898,17,32765
4.17603,-1.9332,0.594209,17,32765
4.10653,-1.91785,0.585778,17,32765
4.26148,-2.00774,0.609328,18,32765
4.12921,-1.96234,0.592402,18,32765
4.16727,-1.99744,0.599743,18,32765
4.19622,-2.02858,0.605487,18,32765
4.10913,-2.00345,0.594427,18,32765
4.15574,-2.0433,0.603057,18,32765
4.1578,-2.06142,0.604665,18,32765
4.10655,-2.05287,0.599067,18,32765
4.0289,-2.03058,0.58928,16,32765
4.13698,-2.10224,0.60694,18,32765
4.0769,-2.0889,0.599786,18,32765
4.05215,-2.09343,0.598016,17,32765
4.07125,-2.12085,0.603181,17,32765
4.03769,-2.12073,0.599647,17,32765
4.08287,-2.16219,0.608867,17,32765
4.16309,-2.22237,0.622381,18,32765
4.10323,-2.20793,0.615221,18,32765
4.09592,-2.22114,0.616424,17,32765
4.07105,-2.22499,0.615105,18,32765
4.00295,-2.20482,0.60599,17,32765
4.11697,-2.28506,0.625751,18,32765
4.13517,-2.3133,0.630392,17,32765
4.02376,-2.26837,0.615985,17,32765
4.1109,-2.33547,0.631629,19,32765
3.99125,-2.28506,0.61486,17,32765
4.10376,-2.36739,0.634838,18,32765
4.05297,-2.35601,0.628948,17,32765
4.07064,-2.38435,0.634334,17,32765
4.06254,-2.39778,0.635622,17,32765
4.04596,-2.40613,0.63501,17,32765
4.01238,-2.404,0.63246,17,32765
4.00428,-2.41715,0.633659,17,32765
4.01307,-2.44059,0.637471,17,32765
3.99656,-2.4483,0.637355,17,32765
3.97141,-2.45096,0.636255,16,32765
3.98021,-2.47411,0.639988,16,32765
4.06423,-2.5449,0.656586,16,32765
4.09769,-2.58443,0.664643,15,32765
4.03046,-2.56055,0.656785,16,32765
4.02187,-2.57383,0.657549,16,32765
3.93001,-2.53307,0.645742,16,32765
3.95465,-2.56755,0.652719,16,32765
3.96259,-2.59117,0.657321,15,32765
3.98693,-2.62592,0.664319,15,32765
3.96155,-2.62796,0.6633,15,32765
4.12575,-2.75619,0.69403,18,32765
4.05889,-2.73092,0.686368,16,32765
4.04971,-2.74405,0.688218,15,32765
4.08127,-2.78524,0.696999,16,32765
4.07177,-2.79863,0.698882,16,32765
4.00539,-2.77231,0.691078,15,32765
3.94749,-2.75108,0.68445,15,32765
4.01138,-2.81467,0.699244,16,32765
4.08286,-2.88453,0.715717,16,32765
3.98436,-2.83462,0.70241,15,32765
4.08725,-2.92837,0.724842,17,32765
3.98878,-2.87812,0.712011,15,32765
4.09116,-2.97249,0.734026,17,32765
3.96925,-2.90377,0.716971,16,32765
4.15061,-3.05747,0.753943,17,32765
4.14017,-3.07069,0.7576,17,32765
4.28345,-1.3649,0.556791,16,32765
4.21314,-1.35709,0.547129,16,32765
4.30323,-1.40149,0.558228,16,32765
4.20458,-1.38429,0.544853,17,32765
4.20958,-1.40133,0.544646,16,32765
4.21447,-1.41806,0.545682,16,32765
4.20052,-1.42844,0.544139,17,32765
4.24294,-1.45809,0.549373,17,32765
4.15387,-1.44239,0.53827,17,32765
4.20541,-1.47565,0.54507,16,32765
4.20062,-1.48942,0.544549,16,32765
4.20509,-1.50659,0.545398,16,32765
4.08806,-1.47994,0.531004,16,32765
4.21372,-1.54106,0.547798,17,32765
4.11554,-1.52053,0.535445,15,32765
4.24081,-1.58249,0.552135,16,32765
4.11482,-1.55079,0.536833,16,32765
4.23034,-1.61017,0.552431,17,32765
4.16015,-1.59903,0.544421,16,32765
4.13639,-1.60551,0.541795,15,32765
4.11261,-1.61177,0.539582,17,32765
4.16267,-1.64713,0.547043,16,32765
4.10186,-1.63891,0.539674,17,32765
4.09638,-1.65236,0.540286,16,32765
4.12762,-1.68089,0.545421,16,32765
4.13121,-1.69814,0.547216,15,32765
4.09813,-1.7001,0.54392,16,32765
4.05585,-1.69829,0.539227,15,32765
4.05023,-1.71142,0.539968,14,32765
4.09015,-1.74418,0.546719,16,32765
3.99316,-1.71846,0.534789,15,32765
4.06015,-1.76339,0.545216,15,32765
4.08129,-1.78925,0.549282,15,32765
4.01163,-1.77481,0.541568,15,32765
4.03286,-1.80014,0.545878,16,32765
4.01791,-1.80901,0.545384,16,32765
4.18369,-1.89996,0.569003,16,32765
3.98787,-1.82679,0.544184,16,32765
3.94577,-1.82323,0.539606,15,32765
4.02947,-1.87829,0.552979,15,32765
3.94222,-1.85362,0.543251,15,32765
4.03463,-1.91343,0.557245,15,32765
4.01023,-1.91828,0.555543,16,32765
4.0395,-1.94879,0.561293,16,32765
3.97044,-1.9318,0.553415,17,32765
3.92823,-1.9274,0.549727,15,32765
4.01963,-1.98861,0.564281,15,32765
4.05728,-2.02407,0.571442,17,32765
3.97075,-1.99721,0.560951,15,32765
3.98171,-2.01927,0.564406,15,32765
3.95712,-2.02356,0.562828,17,32765
3.96781,-2.04584,0.566539,15,32765
4.02231,-2.0913,0.576499,17,32765
4.04159,-2.11848,0.581034,17,32765
3.9115,-2.06713,0.564536,16,32765
4.02702,-2.14544,0.583296,17,32765
4.07217,-2.18689,0.592079,16,32765
4.03857,-2.18623,0.589296,18,32765
3.96153,-2.16153,0.580136,15,32765
4.0238,-2.21272,0.591408,17,32765
3.92965,-2.17782,0.579508,17,32765
3.91374,-2.18575,0.579238,15,32765
3.94954,-2.22305,0.586548,16,32765
3.91616,-2.22134,0.583888,15,32765
4.03775,-2.30817,0.604184,17,32765
3.92687,-2.26209,0.589529,16,32765
3.97925,-2.30987,0.599764,16,32765
3.92004,-2.29316,0.592512,16,32765
3.85245,-2.27088,0.584637,15,32765
3.9215,-2.32922,0.597154,15,32765
3.85415,-2.3064,0.588998,16,32765
3.97383,-2.39568,0.609735,16,32765
3.96589,-2.40864,0.610417,16,32765
4.00017,-2.44732,0.618219,17,32765
3.8992,-2.40319,0.604407,16,32765
3.89951,-2.42124,0.606921,16,32765
3.94178,-2.46568,0.615496,16,32765
3.93349,-2.47873,0.616128,16,32765
4.00062,-2.5393,0.62881,14,32765
3.97553,-2.54162,0.626837,14,32765
4.0005,-2.57579,0.633479,15,32765
3.94221,-2.55617,0.626589,15,32765
3.86747,-2.52548,0.616624,14,32765
3.80946,-2.50525,0.609713,15,32765
3.93344,-2.60523,0.631228,16,32765
3.90836,-2.60694,0.629408,15,32765
3.88331,-2.60856,0.627477,16,32765
3.89106,-2.63244,0.630519,15,32765
3.92346,-2.67277,0.637838,14,32765
3.85741,-2.64632,0.629083,15,32765
3.83239,-2.64757,0.627005,15,32765
3.88067,-2.69946,0.63736,14,32765
3.82311,-2.67793,0.629782,14,32765
3.86309,-2.72436,0.6382,15,32765
3.91902,-2.78252,0.649123,15,32765
3.86995,-2.76598,0.642522,15,32765
3.94968,-2.84184,0.657299,15,32765
3.90838,-2.83127,0.652251,15,32765
3.81924,-2.78529,0.639074,15,32765
3.89825,-2.862,0.653494,16,32765
3.8257,-2.82685,0.642577,15,32765
4.21222,-1.34328,0.505286,20,32765
4.1608,-1.34132,0.498564,19,32765
4.15656,-1.35484,0.497437,20,32765
4.10512,-1.35268,0.490678,19,32765
4.04421,-1.34744,0.482538,17,32765
4.12461,-1.38904,0.492484,17,32765
4.03548,-1.37353,0.482052,17,32765
4.1063,-1.4124,0.490217,18,32765
4.12053,-1.43212,0.492299,19,32765
4.05963,-1.42582,0.485098,17,32765
4.13928,-1.46905,0.494668,18,32765
4.11574,-1.47598,0.492074,19,32765
4.11081,-1.48961,0.492226,17,32765
4.03127,-1.47576,0.483106,17,32765
4.00776,-1.48216,0.480643,16,32765
4.04018,-1.50913,0.484858,18,32765
4.03518,-1.5223,0.485289,16,32765
4.01161,-1.52846,0.482906,17,32765
4.09928,-1.57725,0.494548,17,32765
4.02925,-1.56554,0.486521,17,32765
4.06108,-1.59324,0.491205,16,32765
4.03734,-1.59923,0.489148,17,32765
4.06889,-1.62747,0.493536,16,32765
3.98052,-1.60735,0.484059,16,32765
3.95673,-1.61304,0.482087,15,32765
4.00649,-1.64867,0.489377,16,32765
4.01026,-1.66547,0.490845,16,32765
3.91306,-1.64032,0.479782,16,32765
3.99915,-1.69171,0.491751,17,32765
4.0209,-1.71657,0.495773,17,32765
3.96953,-1.71022,0.490413,17,32765
3.93638,-1.71159,0.487671,17,32765
3.92133,-1.7211,0.486926,17,32765
3.93359,-1.7423,0.49002,17,32765
3.93682,-1.75932,0.491772,17,32765
3.94011,-1.77606,0.493625,17,32765
3.95239,-1.79704,0.49616,17,32765
3.91929,-1.79751,0.493727,17,32765
3.95839,-1.83125,0.499764,18,32765
3.91612,-1.82764,0.496235,17,32765
3.84694,-1.811,0.489599,16,32765
3.89471,-1.84931,0.496832,17,32765
3.95114,-1.89233,0.50561,18,32765
3.95369,-1.90974,0.507531,17,32765
3.92936,-1.91418,0.506042,18,32765
3.87827,-1.90525,0.501563,17,32765
3.88971,-1.92675,0.504685,17,32765
3.89206,-1.94409,0.506723,18,32765
3.91219,-1.97024,0.510946,17,32765
3.88782,-1.97416,0.509559,18,32765
3.86337,-1.97815,0.508148,18,32765
3.95366,-2.04116,0.522134,18,32765
3.91133,-2.03622,0.51859,17,32765
3.88684,-2.04001,0.516977,18,32765
3.93247,-2.08092,0.525188,18,32765
3.85528,-2.05663,0.516806,18,32765
3.90078,-2.0976,0.52498,18,32765
3.88492,-2.10583,0.524795,17,32765
3.89523,-2.12818,0.52816,19,32765
3.88808,-2.14095,0.529197,19,32765
3.81146,-2.11516,0.520575,17,32765
3.83041,-2.1421,0.525122,19,32765
3.84909,-2.16945,0.529567,18,32765
3.8504,-2.18701,0.531929,18,32765
3.8602,-2.2097,0.535277,19,32765
3.83556,-2.21253,0.533674,16,32765
3.82807,-2.22518,0.534835,17,32765
3.94042,-2.30829,0.552132,17,32765
3.79579,-2.24061,0.534093,17,32765
3.8394,-2.28366,0.542145,17,32765
3.78067,-2.26562,0.53583,16,32765
3.82411,-2.30868,0.544261,17,32765
3.79948,-2.31086,0.542497,17,32765
3.78333,-2.31797,0.542499,17,32765
3.81786,-2.35644,0.549123,18,32765
3.82676,-2.3795,0.552738,16,32765
3.88603,-2.43434,0.563179,18,32765
3.7855,-2.38896,0.550381,16,32765
3.88649,-2.47047,0.567082,16,32765
3.76966,-2.41356,0.551819,17,32765
3.81176,-2.4579,0.560472,16,32765
3.82039,-2.48087,0.563924,17,32765
3.75415,-2.45515,0.555918,15,32765
3.74605,-2.46726,0.556932,16,32765
3.77927,-2.50691,0.56339,16,32765
3.71324,-2.48056,0.555553,16,32765
3.75445,-2.52586,0.563663,16,32765
3.78712,-2.56606,0.570219,16,32765
3.76238,-2.567,0.568388,16,32765
3.77842,-2.59615,0.57266,16,32765
3.71274,-2.56892,0.564554,16,32765
3.75317,-2.61487,0.572985,16,32765
3.76082,-2.63846,0.575905,16,32765
3.71991,-2.62754,0.571313,16,32765
3.71957,-2.64513,0.572768,16,32765
3.61442,-2.58749,0.557913,15,32765
3.71086,-2.67431,0.574154,15,32765
3.70218,-2.68625,0.574447,14,32765
3.74965,-2.73901,0.583385,16,32765
3.60502,-2.65107,0.561902,15,32765
3.75638,-2.78022,0.586622,16,32765
0,-0,0,0,32765
1.76298,-0.562641,0.186919,13,32765
3.94819,-1.27415,0.420992,16,32765
3.93454,-1.28343,0.421658,16,32765
3.84534,-1.26777,0.413526,17,32765
4.00155,-1.33358,0.432215,16,32765
4.01584,-1.35289,0.436254,16,32765
3.99239,-1.3597,0.435482,16,32765
3.92199,-1.35007,0.429188,16,32765
3.87984,-1.34982,0.426306,16,32765
3.89412,-1.36895,0.429305,16,32765
3.87075,-1.37483,0.428947,16,32765
3.88484,-1.39419,0.43212,15,32765
3.86143,-1.40029,0.430656,15,32765
3.93128,-1.44054,0.440467,16,32765
3.89837,-1.44331,0.43818,15,32765
3.77238,-1.41078,0.42584,14,32765
3.84203,-1.45126,0.435347,16,32765
3.82793,-1.46017,0.435038,15,32765
3.86942,-1.49049,0.44155,14,32765
3.92,-1.52482,0.448771,15,32765
3.84083,-1.50856,0.441293,15,32765
3.78034,-1.49915,0.435535,14,32765
3.923,-1.5706,0.453626,15,32765
3.86233,-1.56128,0.448193,15,32765
3.81097,-1.55535,0.443836,14,32765
3.76887,-1.55293,0.440505,14,32765
3.82779,-1.59236,0.44866,15,32765
3.84066,-1.61273,0.452275,14,32765
3.82607,-1.62153,0.451931,16,32765
3.82066,-1.63408,0.452471,14,32765
3.94303,-1.70155,0.468681,16,32765
3.7459,-1.63134,0.446167,16,32765
3.84951,-1.69189,0.460108,16,32765
3.92543,-1.74126,0.47055,15,32765
3.8015,-1.7016,0.457449,14,32765
3.88635,-1.75498,0.469533,16,32765
3.89859,-1.77601,0.472119,15,32765
3.80232,-1.74726,0.462121,15,32765
3.78739,-1.75566,0.461846,14,32765
3.81745,-1.78513,0.466858,15,32765
3.72157,-1.75528,0.45667,16,32765
3.77835,-1.79772,0.465158,16,32765
3.79917,-1.82315,0.469091,17,32765
3.81979,-1.84877,0.473491,16,32765
3.82248,-1.86577,0.475331,16,32765
3.82519,-1.88263,0.4772,16,32765
3.77428,-1.87328,0.472485,16,32765
3.81233,-1.90812,0.478834,16,32765
3.83235,-1.93445,0.48313,17,32765
3.81687,-1.94279,0.482913,17,32765
3.7219,-1.91001,0.472621,15,32765
3.74193,-1.93608,0.476595,16,32765
3.81477,-1.98967,0.487509,16,32765
3.79914,-1.99782,0.487508,16,32765
3.85381,-2.04299,0.4964,17,32765
3.7856,-2.02299,0.489064,16,32765
3.76996,-2.03087,0.488939,16,32765
3.78068,-2.05258,0.492224,16,32765
3.79128,-2.07452,0.495055,17,32765
3.82789,-2.1108,0.501742,18,32765
3.75136,-2.08462,0.493999,17,32765
3.79632,-2.12612,0.501958,17,32765
3.75459,-2.11913,0.497904,16,32765
3.7732,-2.14646,0.502548,17,32765
3.73144,-2.13927,0.498775,17,32765
3.74139,-2.16145,0.502652,16,32765
3.77711,-2.19861,0.509498,15,32765
3.79553,-2.22589,0.514081,16,32765
3.63409,-2.14746,0.494288,14,32765
3.73774,-2.22548,0.510795,15,32765
3.68758,-2.21235,0.506116,15,32765
3.71402,-2.24516,0.512057,16,32765
3.69804,-2.25206,0.512136,16,32765
3.64818,-2.23817,0.507435,14,32765
3.7675,-2.3282,0.526337,16,32765
3.75139,-2.33499,0.52671,16,32765
3.76042,-2.35775,0.530268,16,32765
3.76938,-2.38048,0.534046,16,32765
3.74467,-2.38206,0.533066,15,32765
3.75349,-2.4048,0.536987,15,32765
3.7872,-2.44381,0.544501,15,32765
3.76236,-2.44527,0.543807,15,32765
3.73753,-2.44662,0.543024,15,32765
3.77067,-2.48622,0.550682,15,32765
3.72923,-2.47648,0.54773,14,32765
3.7457,-2.50505,0.553207,15,32765
3.77018,-2.53934,0.560268,15,32765
3.72882,-2.52931,0.556849,14,32765
3.7202,-2.54159,0.558632,14,32765
3.76074,-2.58731,0.568055,15,32765
3.76019,-2.60511,0.571335,14,32765
3.79215,-2.64563,0.579505,15,32765
3.72649,-2.61781,0.573096,15,32765
3.69336,-2.61269,0.571463,14,32765
3.75736,-2.67626,0.585172,15,32765
3.78067,-2.71137,0.592491,14,32765
3.77976,-2.72902,0.596556,15,32765
3.75469,-2.72926,0.596487,14,32765
3.80933,-2.78844,0.609262,15,32765
3.67989,-2.7126,0.593541,14,32765
1.62388,-0.512915,0.154987,13,32765
1.55571,-0.497043,0.149419,12,32765
1.6772,-0.541866,0.162085,13,32765
3.85253,-1.25809,0.374344,18,32765
3.82008,-1.26087,0.37257,18,32765
3.84421,-1.28259,0.376698,19,32765
3.7738,-1.2728,0.3721,17,32765
3.76003,-1.28203,0.372372,18,32765
3.84045,-1.32352,0.38165,17,32765
3.73254,-1.30008,0.372548,17,32765
3.73762,-1.31546,0.374385,17,32765
3.76133,-1.33753,0.37887,17,32765
3.72871,-1.33974,0.377089,17,32765
3.84583,-1.39628,0.390022,18,32765
3.81295,-1.39885,0.388602,17,32765
3.7615,-1.39431,0.384662,16,32765
3.68219,-1.37871,0.378284,16,32765
3.77064,-1.42601,0.388937,17,32765
3.8217,-1.45957,0.395444,18,32765
3.73322,-1.43979,0.387974,16,32765
3.83967,-1.49541,0.400407,17,32765
3.76054,-1.47885,0.393659,16,32765
3.6816,-1.4618,0.386509,15,32765
3.7506,-1.50345,0.395286,16,32765
3.76392,-1.52341,0.398181,16,32765
3.83241,-1.56607,0.406987,16,32765
3.72584,-1.53715,0.397172,17,32765
3.78487,-1.57652,0.404665,16,32765
3.75194,-1.5775,0.403149,17,32765
3.76494,-1.59768,0.405845,16,32765
3.8145,-1.63356,0.41231,17,32765
3.79994,-1.64195,0.41234,17,32765
3.7032,-1.61486,0.402695,17,32765
3.69765,-1.62729,0.403575,16,32765
3.70111,-1.64393,0.405186,17,32765
3.7227,-1.66855,0.409211,17,32765
3.69894,-1.67259,0.408326,17,32765
3.72051,-1.69717,0.411709,17,32765
3.70578,-1.7052,0.41164,18,32765
3.75416,-1.74263,0.418481,17,32765
3.7032,-1.73407,0.414048,18,32765
3.75135,-1.77176,0.420923,18,32765
3.68238,-1.75448,0.414605,17,32765
3.69439,-1.77533,0.417231,17,32765
3.61672,-1.75292,0.410154,16,32765
3.72699,-1.82171,0.424066,18,32765
3.74769,-1.84709,0.427862,17,32765
3.7325,-1.85516,0.427682,18,32765
3.66393,-1.83645,0.421286,18,32765
3.72859,-1.88477,0.43039,18,32765
3.62465,-1.8476,0.419975,17,32765
3.73342,-1.91869,0.434241,18,32765
3.63862,-1.88536,0.424542,17,32765
3.67641,-1.92031,0.430465,17,32765
3.63462,-1.9141,0.427414,16,32765
3.67205,-1.94949,0.433536,17,32765
3.70932,-1.98516,0.43929,18,32765
3.65004,-1.96919,0.434036,19,32765
3.7134,-2.01906,0.443363,18,32765
3.64562,-1.99781,0.436598,18,32765
3.68252,-2.03369,0.442782,18,32765
3.74523,-2.08436,0.452534,19,32765
3.6688,-2.05781,0.445198,18,32765
3.67056,-2.07485,0.44677,20,32765
3.62885,-2.0675,0.443714,17,32765
3.63044,-2.08457,0.445577,19,32765
3.68363,-2.13136,0.454537,18,32765
3.68511,-2.14838,0.456643,17,32765
3.6437,-2.14017,0.453451,17,32765
3.6878,-2.1826,0.460966,17,32765
3.68894,-2.19986,0.463408,17,32765
3.61327,-2.17117,0.455957,17,32765
3.62286,-2.19351,0.459344,17,32765
3.62402,-2.21048,0.46165,17,32765
3.67591,-2.25877,0.470402,18,32765
3.70226,-2.29154,0.475959,18,32765
3.61878,-2.25606,0.46768,18,32765
3.62808,-2.27843,0.471011,18,32765
3.67092,-2.32204,0.478939,17,32765
3.62963,-2.31262,0.475913,17,32765
3.52159,-2.25989,0.464167,16,32765
3.65597,-2.36297,0.484394,18,32765
3.6647,-2.3857,0.488269,17,32765
3.65669,-2.39763,0.489859,17,32765
3.63198,-2.39871,0.489199,17,32765
3.52462,-2.34447,0.477584,15,32765
3.64062,-2.43881,0.496185,17,32765
3.60769,-2.43393,0.494905,17,32765
3.64063,-2.47361,0.501997,16,32765
3.624,-2.48,0.502603,16,32765
3.5748,-2.46351,0.49886,16,32765
3.57468,-2.48075,0.501948,16,32765
3.63965,-2.54352,0.514158,16,32765
3.6068,-2.53801,0.512932,16,32765
3.59014,-2.54397,0.513833,15,32765
3.63016,-2.59005,0.523143,16,32765
3.57313,-2.5669,0.518314,16,32765
3.67732,-2.65959,0.537423,15,32765
3.6284,-2.64197,0.533933,16,32765
3.61132,-2.64802,0.535199,16,32765
3.67401,-2.7129,0.549355,16,32765
1.5854,-0.500505,0.157828,13,32765
1.67864,-0.535958,0.166836,12,32765
1.77162,-0.572152,0.175757,12,32765
3.84247,-1.25462,0.380763,16,32765
3.81012,-1.25747,0.377688,17,32765
3.86284,-1.28858,0.382278,17,32765
3.7738,-1.2724,0.373456,17,32765
3.92046,-1.33609,0.387918,18,32765
3.82197,-1.31633,0.378653,17,32765
3.89294,-1.35493,0.385689,17,32765
3.71944,-1.30808,0.369185,15,32765
3.64952,-1.29688,0.362246,15,32765
3.79514,-1.36279,0.377112,15,32765
3.69702,-1.3414,0.367687,16,32765
3.80468,-1.3949,0.378877,15,32765
3.74398,-1.38678,0.373581,16,32765
3.77671,-1.41305,0.377144,15,32765
3.76272,-1.42192,0.376421,15,32765
3.60925,-1.37726,0.361757,15,32765
3.71627,-1.43187,0.37292,16,32765
3.72084,-1.44757,0.374175,15,32765
3.70685,-1.45594,0.373475,15,32765
3.72055,-1.47538,0.375674,15,32765
3.71572,-1.48755,0.375578,14,32765
3.74762,-1.5148,0.37988,14,32765
3.67798,-1.50092,0.373943,14,32765
3.7374,-1.53955,0.38114,15,32765
3.64944,-1.51764,0.373181,14,32765
3.60764,-1.51428,0.369875,15,32765
3.73999,-1.58453,0.384857,15,32765
3.5974,-1.53823,0.370769,15,32765
3.63794,-1.56979,0.376267,15,32765
3.67829,-1.6018,0.381201,15,32765
3.67294,-1.61386,0.381979,16,32765
3.72213,-1.65015,0.388421,15,32765
3.6075,-1.61371,0.377809,16,32765
3.63838,-1.64196,0.382421,16,32765
3.58752,-1.63343,0.378468,15,32765
3.68155,-1.69103,0.389195,16,32765
3.63064,-1.68228,0.385739,15,32765
3.61603,-1.68994,0.385413,15,32765
3.70044,-1.74417,0.395922,16,32765
3.67655,-1.74793,0.394688,15,32765
3.67063,-1.76007,0.395919,16,32765
3.61092,-1.74628,0.390671,16,32765
3.65857,-1.78457,0.397841,16,32765
3.64358,-1.79235,0.397743,16,32765
3.66414,-1.81789,0.401818,17,32765
3.65793,-1.83023,0.402422,16,32765
3.66053,-1.84695,0.404589,17,32765
3.5389,-1.80058,0.392721,16,32765
3.56819,-1.83044,0.398019,15,32765
3.66801,-1.89726,0.410636,17,32765
3.58216,-1.868,0.402915,16,32765
3.6552,-1.92141,0.412593,16,32765
3.53438,-1.873,0.400525,16,32765
3.58071,-1.91275,0.407818,17,32765
3.59172,-1.93413,0.410743,18,32765
3.53272,-1.91747,0.405929,18,32765
3.63975,-1.99124,0.419602,17,32765
3.56333,-1.96486,0.412412,17,32765
3.66112,-2.03445,0.425783,16,32765
3.60215,-2.0174,0.420845,16,32765
3.60406,-2.0341,0.422819,16,32765
3.60581,-2.05096,0.424916,16,32765
3.573,-2.04803,0.422845,16,32765
3.53165,-2.03993,0.419647,16,32765
3.58492,-2.08676,0.42736,16,32765
3.61224,-2.11867,0.432536,16,32765
3.55368,-2.10026,0.427491,18,32765
3.5551,-2.11715,0.429589,17,32765
3.62474,-2.17495,0.439704,16,32765
3.51522,-2.12529,0.428149,17,32765
3.46563,-2.11094,0.42396,16,32765
3.61123,-2.21576,0.443885,16,32765
3.5447,-2.19086,0.43742,17,32765
3.54596,-2.20749,0.439495,17,32765
3.52179,-2.20848,0.438186,15,32765
3.607,-2.27833,0.450374,16,32765
3.54909,-2.25802,0.445212,17,32765
3.50812,-2.24814,0.441709,15,32765
3.52584,-2.27555,0.445836,16,32765
3.39327,-2.20573,0.430569,16,32765
3.54402,-2.3203,0.451374,16,32765
3.55287,-2.34287,0.454364,16,32765
3.52017,-2.33807,0.451979,16,32765
3.53726,-2.36611,0.455765,16,32765
3.42227,-2.30533,0.442748,15,32765
3.51337,-2.38341,0.456596,15,32765
3.58772,-2.45081,0.467698,16,32765
3.47318,-2.38913,0.454608,14,32765
3.53907,-2.45109,0.464819,15,32765
3.4904,-2.43394,0.459848,15,32765
3.47458,-2.43917,0.45899,15,32765
3.5642,-2.51893,0.472884,14,32765
3.4992,-2.49025,0.465469,16,32765
3.49104,-2.50158,0.466012,15,32765
3.46682,-2.50116,0.464016,16,32765
3.5315,-2.56438,0.473882,15,32765
3.43529,-2.51072,0.461997,15,32765
3.43529,-2.52756,0.462919,15,32765
1.54857,-0.489458,0.138743,13,32765
1.50904,-0.482385,0.134941,13,32765
1.55486,-0.502756,0.138742,13,32765
3.6653,-1.19824,0.326609,12,32765
3.69934,-1.22241,0.329731,19,32765
3.64822,-1.21851,0.32454,18,32765
3.65374,-1.23347,0.324985,19,32765
3.71575,-1.26793,0.330412,18,32765
3.70219,-1.27671,0.329632,18,32765
3.60396,-1.25597,0.320853,16,32765
3.71263,-1.30738,0.331171,18,32765
3.66142,-1.30282,0.326566,18,32765
3.64771,-1.31158,0.325697,18,32765
3.60588,-1.31007,0.322239,17,32765
3.62953,-1.33247,0.324769,18,32765
3.58768,-1.33067,0.3217,18,32765
3.59261,-1.346,0.322383,17,32765
3.66271,-1.38601,0.329286,17,32765
3.62095,-1.38363,0.32618,18,32765
3.65364,-1.40969,0.32951,18,32765
3.72328,-1.45053,0.336542,18,32765
3.55162,-1.39693,0.32166,16,32765
3.62109,-1.43797,0.328703,18,32765
3.56087,-1.42758,0.323568,17,32765
3.593,-1.45437,0.327473,16,32765
3.56963,-1.4588,0.326385,16,32765
3.57397,-1.47434,0.327839,17,32765
3.60575,-1.50165,0.331704,17,32765
3.63746,-1.52902,0.335548,17,32765
3.63226,-1.54114,0.336389,15,32765
3.56299,-1.52576,0.330504,16,32765
3.62189,-1.56517,0.337231,16,32765
3.54355,-1.54542,0.330619,16,32765
3.56574,-1.5691,0.333932,17,32765
3.52405,-1.56468,0.331232,17,32765
3.57332,-1.60082,0.337146,18,32765
3.56794,-1.61261,0.337937,18,32765
3.63499,-1.65755,0.345644,17,32765
3.53892,-1.628,0.337232,17,32765
3.51531,-1.63134,0.336791,17,32765
3.51891,-1.64708,0.338275,17,32765
3.51342,-1.65857,0.339129,17,32765
3.53479,-1.68314,0.342405,17,32765
3.48418,-1.67327,0.339219,16,32765
3.52335,-1.70659,0.344139,17,32765
3.58012,-1.74904,0.351595,18,32765
3.61885,-1.78299,0.35686,16,32765
3.51458,-1.74644,0.348273,17,32765
3.56203,-1.78507,0.354166,17,32765
3.45812,-1.7476,0.345551,15,32765
3.461,-1.76376,0.347319,16,32765
3.57017,-1.83439,0.36026,17,32765
3.58159,-1.85555,0.362797,17,32765
3.46053,-1.80749,0.352298,16,32765
3.46331,-1.8235,0.353906,17,32765
3.47472,-1.84438,0.356551,17,32765
3.56507,-1.90751,0.367791,17,32765
3.44463,-1.85797,0.356905,17,32765
3.5171,-1.91214,0.366272,17,32765
3.5456,-1.94294,0.370514,18,32765
3.48674,-1.92582,0.365881,17,32765
3.48901,-1.94204,0.368009,16,32765
3.45637,-1.93899,0.366342,17,32765
3.44121,-1.94545,0.36634,17,32765
3.41731,-1.94702,0.365521,16,32765
3.50572,-2.01287,0.37667,18,32765
3.51618,-2.03444,0.379411,18,32765
3.48348,-2.03117,0.377156,17,32765
3.49382,-2.05273,0.380062,19,32765
3.43546,-2.03388,0.375543,16,32765
3.47986,-2.07591,0.38221,19,32765
3.48994,-2.09769,0.384881,18,32765
3.44874,-2.08872,0.381963,18,32765
3.45025,-2.10524,0.383898,18,32765
3.55353,-2.18418,0.397395,19,32765
3.48707,-2.15904,0.391573,18,32765
3.47998,-2.17025,0.392587,17,32765
3.40535,-2.13925,0.385724,17,32765
3.44036,-2.17694,0.391128,17,32765
3.44151,-2.19349,0.393188,18,32765
3.44261,-2.21012,0.394844,17,32765
3.36016,-2.17253,0.387119,16,32765
3.43639,-2.2378,0.397339,17,32765
3.43728,-2.25451,0.39899,17,32765
3.38822,-2.23837,0.394992,17,32765
3.39729,-2.26059,0.397703,17,32765
3.33195,-2.23288,0.391476,16,32765
3.47309,-2.34389,0.409803,18,32765
3.4077,-2.31602,0.404006,17,32765
3.41658,-2.33826,0.40635,16,32765
3.42529,-2.3606,0.409118,17,32765
3.37681,-2.34312,0.404762,17,32765
3.41005,-2.3824,0.410052,16,32765
3.37809,-2.37594,0.407322,17,32765
3.40297,-2.40957,0.412201,16,32765
3.41122,-2.43229,0.414293,16,32765
3.33857,-2.39693,0.406943,17,32765
3.37919,-2.44266,0.413016,16,32765
3.29921,-2.40037,0.40429,16,32765
3.36404,-2.46346,0.413157,16,32765
3.34015,-2.46239,0.411035,16,32765
1.51357,-0.473503,0.114029,12,32765
1.531,-0.48442,0.116123,13,32765
1.46287,-0.468095,0.111782,13,32765
1.56567,-0.506621,0.120406,13,32765
1.53551,-0.50246,0.118893,13,32765
1.69477,-0.560756,0.131933,13,32765
3.57496,-1.19566,0.280146,17,32765
3.50489,-1.1847,0.276322,17,32765
3.51042,-1.19927,0.277717,17,32765
3.58175,-1.23686,0.284977,17,32765
3.63397,-1.26851,0.291155,17,32765
3.53571,-1.24726,0.28412,16,32765
3.57843,-1.27564,0.289212,17,32765
3.44281,-1.24003,0.279745,16,32765
3.56984,-1.29905,0.291238,17,32765
3.43445,-1.26254,0.281868,16,32765
3.46764,-1.28764,0.285505,17,32765
3.53791,-1.32724,0.292816,16,32765
3.53336,-1.33912,0.293666,16,32765
3.6684,-1.40443,0.306605,16,32765
3.52412,-1.36279,0.295793,16,32765
3.59389,-1.40319,0.303191,17,32765
3.51504,-1.38566,0.297536,17,32765
3.50118,-1.39336,0.297762,16,32765
3.56131,-1.43079,0.303989,17,32765
3.50102,-1.42016,0.300142,16,32765
3.55152,-1.45449,0.306022,17,32765
3.5097,-1.45116,0.303692,15,32765
3.44959,-1.43981,0.299675,15,32765
3.5641,-1.50158,0.311186,16,32765
3.53152,-1.50175,0.309244,16,32765
3.50816,-1.50549,0.308611,15,32765
3.54879,-1.53697,0.313382,16,32765
3.49793,-1.52874,0.310386,16,32765
3.43808,-1.51615,0.306246,16,32765
3.44199,-1.53174,0.308004,16,32765
3.50039,-1.57186,0.3147,17,32765
3.54941,-1.60848,0.320254,18,32765
3.40798,-1.55822,0.308601,16,32765
3.49321,-1.61126,0.317734,15,32765
3.46964,-1.61448,0.317212,16,32765
3.41923,-1.60459,0.313497,16,32765
3.47688,-1.64579,0.319849,16,32765
3.4264,-1.63578,0.316346,16,32765
3.43884,-1.65578,0.318897,16,32765
3.43318,-1.6673,0.319772,17,32765
3.49019,-1.70935,0.326627,16,32765
3.45758,-1.70777,0.324892,17,32765
3.54985,-1.76821,0.335305,16,32765
3.56163,-1.78906,0.337722,17,32765
3.46661,-1.75597,0.330391,16,32765
3.52269,-1.79932,0.337586,15,32765
3.53435,-1.82018,0.33977,16,32765
3.4045,-1.76745,0.3286,16,32765
3.46912,-1.81574,0.336458,15,32765
3.4277,-1.80869,0.334064,15,32765
3.47432,-1.84823,0.340103,15,32765
3.51192,-1.88345,0.345005,16,32765
3.33908,-1.80497,0.329811,16,32765
3.45554,-1.88257,0.343075,15,32765
3.35323,-1.8411,0.334323,15,32765
3.36458,-1.86165,0.336825,16,32765
3.36699,-1.87764,0.338718,16,32765
3.352,-1.88386,0.338795,15,32765
3.38895,-1.9195,0.344415,16,32765
3.46034,-1.97517,0.353229,16,32765
3.33276,-1.91705,0.342331,15,32765
3.38658,-1.96307,0.349741,16,32765
3.30263,-1.92889,0.342896,16,32765
3.39917,-2.00041,0.354386,16,32765
3.3325,-1.97599,0.349319,16,32765
3.30032,-1.97143,0.347765,15,32765
3.38755,-2.0388,0.358783,16,32765
3.47443,-2.10656,0.370282,17,32765
3.33991,-2.04005,0.357852,17,32765
3.29913,-2.03017,0.355318,17,32765
3.27542,-2.03039,0.355001,16,32765
3.36153,-2.0991,0.366482,16,32765
3.48098,-2.18951,0.381773,18,32765
3.33065,-2.11029,0.367514,16,32765
3.41585,-2.18014,0.379288,16,32765
3.43371,-2.20737,0.38357,17,32765
3.43463,-2.22402,0.386224,16,32765
3.43558,-2.24059,0.388505,16,32765
3.42808,-2.25177,0.390124,17,32765
3.3957,-2.24633,0.389018,16,32765
3.41311,-2.27378,0.393741,17,32765
3.41373,-2.29042,0.396616,16,32765
3.36482,-2.2737,0.393267,17,32765
3.36537,-2.29028,0.396227,17,32765
3.28374,-2.25063,0.3895,15,32765
3.39907,-2.34604,0.406098,16,32765
3.35857,-2.33433,0.403781,16,32765
3.37519,-2.36226,0.409165,15,32765
3.38365,-2.38454,0.412921,15,32765
3.33506,-2.36667,0.410255,15,32765
3.36767,-2.4062,0.417879,15,32765
3.40806,-2.45196,0.425926,16,32765
3.39992,-2.46278,0.428508,15,32765
3.37566,-2.46189,0.428988,15,32765
3.38339,-2.48449,0.434033,15,32765
1.52385,-0.477428,0.0997013,12,32765
1.40808,-0.446193,0.092831,13,32765
1.48261,-0.475121,0.0985673,13,32765
1.47153,-0.476869,0.0985365,13,32765
1.53629,-0.503468,0.103664,13,32765
1.54406,-0.511658,0.104818,13,32765
3.38751,-1.13468,0.231672,14,32765
3.4972,-1.18389,0.240799,20,32765
3.41777,-1.16939,0.236228,18,32765
3.4138,-1.18066,0.237455,19,32765
3.55102,-1.24145,0.248936,18,32765
3.44339,-1.21656,0.242169,18,32765
3.43927,-1.22792,0.243433,17,32765
3.54777,-1.2798,0.252611,18,32765
3.44974,-1.2573,0.246723,18,32765
3.48297,-1.28236,0.250756,18,32765
3.49741,-1.30072,0.252676,17,32765
3.47427,-1.3054,0.25246,18,32765
3.41383,-1.29586,0.24921,17,32765
3.46526,-1.32875,0.25454,17,32765
3.38629,-1.31156,0.249895,17,32765
3.44698,-1.34796,0.255809,17,32765
3.42395,-1.3519,0.255028,17,32765
3.53067,-1.40733,0.264342,18,32765
3.47047,-1.39653,0.260876,18,32765
3.39179,-1.37806,0.256175,18,32765
3.41477,-1.40074,0.259355,17,32765
3.3639,-1.39312,0.256666,18,32765
3.442,-1.43898,0.26376,17,32765
3.40035,-1.43492,0.262012,17,32765
3.4322,-1.46191,0.265297,17,32765
3.47312,-1.4929,0.269809,17,32765
3.404,-1.4767,0.265539,17,32765
3.38988,-1.48396,0.265837,17,32765
3.41226,-1.50727,0.268706,17,32765
3.39799,-1.51468,0.268922,17,32765
3.33823,-1.50155,0.265544,17,32765
3.3421,-1.51708,0.266881,17,32765
3.4004,-1.55738,0.272591,18,32765
3.45851,-1.59795,0.278597,19,32765
3.39883,-1.58421,0.275325,17,32765
3.33946,-1.56983,0.271338,17,32765
3.39725,-1.61085,0.277023,18,32765
3.43684,-1.64358,0.281341,19,32765
3.38638,-1.63333,0.278537,18,32765
3.4077,-1.65779,0.281623,17,32765
3.35733,-1.64714,0.278892,17,32765
3.43218,-1.69817,0.286359,18,32765
3.30144,-1.64735,0.277017,16,32765
3.42053,-1.7212,0.288204,17,32765
3.37907,-1.71463,0.286288,17,32765
3.35542,-1.7169,0.285987,18,32765
3.33191,-1.71896,0.284932,17,32765
3.34389,-1.73906,0.287188,18,32765
3.32915,-1.74558,0.287418,17,32765
3.35847,-1.77533,0.29148,18,32765
3.34362,-1.7819,0.29157,17,32765
3.39025,-1.82147,0.296752,17,32765
3.40166,-1.84212,0.299508,18,32765
3.273,-1.78636,0.289787,17,32765
3.29328,-1.81147,0.292901,17,32765
3.33088,-1.84637,0.297541,17,32765
3.37686,-1.88659,0.303241,18,32765
3.34446,-1.88308,0.301848,18,32765
3.38143,-1.91877,0.307,18,32765
3.31438,-1.89535,0.302341,16,32765
3.37705,-1.94613,0.310143,19,32765
3.31873,-1.92732,0.306564,18,32765
3.2951,-1.92808,0.306135,16,32765
3.32297,-1.95923,0.310092,18,32765
3.30783,-1.96506,0.310481,18,32765
3.36977,-2.01671,0.318083,19,32765
3.39712,-2.04843,0.322425,18,32765
3.34771,-2.03358,0.319878,19,32765
3.31541,-2.02893,0.318614,19,32765
3.33403,-2.05556,0.322188,19,32765
3.32717,-2.06642,0.323723,19,32765
3.40473,-2.13016,0.333372,18,32765
3.34707,-2.10933,0.329833,19,32765
3.30633,-2.09893,0.327957,17,32765
3.29086,-2.10443,0.328634,17,32765
3.28385,-2.11513,0.330058,17,32765
3.28508,-2.13132,0.332546,17,32765
3.34473,-2.1856,0.340624,18,32765
3.30413,-2.17459,0.338789,16,32765
3.24709,-2.15223,0.335331,18,32765
3.23995,-2.16267,0.337108,18,32765
3.24096,-2.17878,0.339795,17,32765
3.29965,-2.23408,0.348157,17,32765
3.26742,-2.22803,0.347487,17,32765
3.33379,-2.28948,0.35739,18,32765
3.28518,-2.27194,0.354917,17,32765
3.24492,-2.25984,0.352922,16,32765
3.29442,-2.31034,0.361526,17,32765
3.30306,-2.33241,0.365056,17,32765
3.32769,-2.36619,0.370948,16,32765
3.28745,-2.35361,0.369903,18,32765
3.2311,-2.32933,0.366354,15,32765
3.19114,-2.31622,0.365117,15,32765
3.30404,-2.41453,0.381408,17,32765
3.31997,-2.44286,0.387141,17,32765
1.50449,-0.471147,0.104582,12,32765
1.43637,-0.454994,0.0995808,13,32765
1.50145,-0.480952,0.103665,13,32765
1.52838,-0.494999,0.105472,13,32765
1.48886,-0.487502,0.102678,13,32765
1.60093,-0.530032,0.110349,13,32765
3.50122,-1.17191,0.241081,13,32765
3.49741,-1.18332,0.240576,16,32765
3.44635,-1.17851,0.237228,16,32765
3.54624,-1.22557,0.244387,16,32765
3.53275,-1.23406,0.243492,17,32765
3.48162,-1.22906,0.240317,17,32765
3.52456,-1.25723,0.243599,17,32765
3.44534,-1.24164,0.23846,16,32765
3.39439,-1.23574,0.235442,16,32765
3.49336,-1.28481,0.242129,17,32765
3.45168,-1.28233,0.240083,16,32765
3.39137,-1.27267,0.236263,16,32765
3.29378,-1.24857,0.230135,17,32765
3.45738,-1.32368,0.241821,16,32765
3.36916,-1.3028,0.236336,16,32765
3.34627,-1.30654,0.23548,16,32765
3.28629,-1.29546,0.231739,16,32765
3.37471,-1.34313,0.238613,16,32765
3.33324,-1.33924,0.236505,17,32765
3.41198,-1.38408,0.242532,16,32765
3.37043,-1.38011,0.240749,17,32765
3.38424,-1.3989,0.242683,16,32765
3.39798,-1.41782,0.244237,17,32765
3.39321,-1.42904,0.24514,16,32765
3.32412,-1.41305,0.240658,16,32765
3.30103,-1.41621,0.239939,17,32765
3.37867,-1.46285,0.246454,16,32765
3.3828,-1.47819,0.248216,16,32765
3.22266,-1.42096,0.237211,15,32765
3.41832,-1.52105,0.25298,17,32765
3.32219,-1.49152,0.246848,15,32765
3.23539,-1.46545,0.241485,16,32765
3.36653,-1.53845,0.252536,17,32765
3.35228,-1.54542,0.252815,16,32765
3.36512,-1.56506,0.254885,17,32765
3.37793,-1.58461,0.257298,17,32765
3.38155,-1.60014,0.259222,16,32765
3.32215,-1.5856,0.255477,16,32765
3.29884,-1.58793,0.25502,16,32765
3.23061,-1.56847,0.25107,16,32765
3.38668,-1.65803,0.26406,16,32765
3.30952,-1.63396,0.25937,16,32765
3.34863,-1.66715,0.264154,16,32765
3.32516,-1.6693,0.263862,16,32765
3.28381,-1.66257,0.261823,16,32765
3.31358,-1.69187,0.265757,16,32765
3.26344,-1.68022,0.26314,16,32765
3.2399,-1.68208,0.263251,15,32765
3.26958,-1.7113,0.267032,16,32765
3.26378,-1.72221,0.267772,15,32765
3.28439,-1.74703,0.271281,17,32765
3.23461,-1.73423,0.268661,17,32765
3.23755,-1.74962,0.27048,16,32765
3.26674,-1.7794,0.274028,16,32765
3.26942,-1.79508,0.275986,17,32765
3.23717,-1.79146,0.274813,15,32765
3.32698,-1.8555,0.284085,15,32765
3.22507,-1.8128,0.277127,17,32765
3.28838,-1.86276,0.284205,17,32765
3.30807,-1.88852,0.287336,17,32765
3.18066,-1.82997,0.277484,16,32765
3.32969,-1.93064,0.292279,18,32765
3.2284,-1.88649,0.284846,16,32765
3.26504,-1.9224,0.289699,17,32765
3.24144,-1.92298,0.289176,17,32765
3.21796,-1.92334,0.28827,17,32765
3.25432,-1.95944,0.293374,16,32765
3.25633,-1.97524,0.295188,17,32765
3.25831,-1.99101,0.296955,16,32765
3.30262,-2.03312,0.302035,16,32765
3.27039,-2.02824,0.300654,17,32765
3.18752,-1.99144,0.294621,16,32765
3.23985,-2.03918,0.301147,17,32765
3.24997,-2.0604,0.30345,16,32765
3.16753,-2.02269,0.297261,17,32765
3.21953,-2.07075,0.303651,16,32765
3.21273,-2.08115,0.30465,16,32765
3.1475,-2.05333,0.299926,17,32765
3.21577,-2.11273,0.307864,17,32765
3.27525,-2.16725,0.315231,16,32765
3.16854,-2.11166,0.306022,16,32765
3.16153,-2.12201,0.306904,16,32765
3.1876,-2.15461,0.310627,16,32765
3.15585,-2.14799,0.309246,16,32765
3.21465,-2.2032,0.316323,16,32765
3.17469,-2.19084,0.313767,16,32765
3.11848,-2.16692,0.309288,16,32765
3.20124,-2.23976,0.319271,17,32765
3.22662,-2.27293,0.323049,16,32765
3.15427,-2.2371,0.316777,16,32765
3.08217,-2.20081,0.310891,16,32765
3.10754,-2.23383,0.314343,16,32765
3.20534,-2.31966,0.325379,16,32765
3.18172,-2.31826,0.323759,15,32765
3.17427,-2.32842,0.323979,16,32765
1.42894,-0.448188,0.0851789,12,32765
1.39893,-0.443831,0.0831177,13,32765
1.55913,-0.500222,0.0921777,13,32765
1.49104,-0.483676,0.0880866,13,32765
1.55589,-0.51027,0.0918331,14,32765
1.56369,-0.518537,0.0922211,13,32765
1.66612,-0.558583,0.0981262,13,32765
3.38534,-1.14728,0.19911,19,32765
3.39104,-1.16151,0.199572,18,32765
3.35893,-1.16276,0.197914,18,32765
3.39275,-1.18713,0.199905,19,32765
3.33234,-1.17833,0.196642,17,32765
3.33785,-1.19263,0.197232,18,32765
3.35272,-1.2103,0.1984,18,32765
3.37689,-1.23145,0.200299,19,32765
3.39157,-1.2495,0.20096,18,32765
3.33128,-1.23972,0.198161,17,32765
3.38323,-1.2718,0.201586,19,32765
3.35095,-1.27244,0.200305,18,32765
3.28146,-1.25851,0.196354,17,32765
3.36102,-1.30191,0.201756,19,32765
3.31022,-1.29472,0.199408,18,32765
3.3524,-1.32384,0.202397,19,32765
3.32946,-1.32745,0.201601,19,32765
3.31582,-1.33459,0.201553,20,32765
3.31134,-1.34564,0.201665,18,32765
3.26068,-1.33755,0.199669,18,32765
3.34842,-1.38657,0.205935,19,32765
3.27008,-1.3669,0.201621,18,32765
3.21949,-1.35832,0.19964,17,32765
3.30677,-1.40821,0.205513,19,32765
3.32954,-1.43103,0.207844,19,32765
3.29725,-1.43019,0.206631,19,32765
3.21918,-1.40926,0.203083,17,32765
3.32405,-1.46834,0.21042,19,32765
3.31901,-1.47957,0.211378,19,32765
3.24119,-1.45784,0.207334,18,32765
3.29084,-1.49332,0.211566,19,32765
3.313,-1.51679,0.214184,17,32765
3.24444,-1.49848,0.211007,18,32765
3.30269,-1.53889,0.215824,18,32765
3.26139,-1.5328,0.214468,18,32765
3.22008,-1.52659,0.213271,17,32765
3.21495,-1.53732,0.213662,18,32765
3.31767,-1.6,0.221779,19,32765
3.28528,-1.59803,0.220908,19,32765
3.21724,-1.57807,0.217099,18,32765
3.26559,-1.61534,0.221617,18,32765
3.17973,-1.58608,0.217369,17,32765
3.16545,-1.59216,0.217824,17,32765
3.21336,-1.63003,0.222281,17,32765
3.25214,-1.6637,0.226437,16,32765
3.22869,-1.66554,0.226137,16,32765
3.2052,-1.66728,0.226422,18,32765
3.25261,-1.70573,0.231076,19,32765
3.24683,-1.7166,0.231814,18,32765
3.1882,-1.69918,0.229336,18,32765
3.23527,-1.73798,0.234156,18,32765
3.17678,-1.72015,0.231409,18,32765
3.18854,-1.74022,0.233291,18,32765
3.16513,-1.74125,0.233196,17,32765
3.19414,-1.77115,0.236801,18,32765
3.16209,-1.76704,0.235932,18,32765
3.20826,-1.80694,0.241049,18,32765
3.19351,-1.81263,0.241469,18,32765
3.15273,-1.80345,0.239687,17,32765
3.17254,-1.82897,0.242342,18,32765
3.11453,-1.80953,0.239526,17,32765
3.22029,-1.88556,0.249048,18,32765
3.22256,-1.90124,0.250758,18,32765
3.20761,-1.90678,0.251083,17,32765
3.19273,-1.91216,0.251034,18,32765
3.13517,-1.89156,0.248222,18,32765
3.12035,-1.89665,0.248549,17,32765
3.13109,-1.91721,0.250865,17,32765
3.09073,-1.90662,0.248542,17,32765
3.18602,-1.98002,0.257662,17,32765
3.12867,-1.95874,0.254512,17,32765
3.12205,-1.96915,0.255532,17,32765
3.17449,-2.01677,0.261086,17,32765
3.09218,-1.97874,0.255722,18,32765
3.10241,-1.99964,0.257953,18,32765
3.2046,-2.08029,0.268016,18,32765
3.12267,-2.04147,0.262544,18,32765
3.04934,-2.00766,0.257668,18,32765
3.10917,-2.06176,0.26424,16,32765
3.11892,-2.08306,0.266042,17,32765
3.112,-2.09327,0.266913,17,32765
3.13815,-2.12578,0.270257,17,32765
3.05705,-2.08527,0.26486,17,32765
3.07494,-2.11205,0.267595,17,32765
3.05988,-2.11624,0.267538,17,32765
3.03664,-2.11469,0.266482,15,32765
3.07057,-2.15307,0.271087,16,32765
3.11251,-2.1974,0.275918,17,32765
3.14607,-2.23625,0.279786,17,32765
3.08208,-2.20567,0.275374,17,32765
3.08314,-2.22127,0.27628,16,32765
3.07601,-2.23109,0.276661,17,32765
3.03655,-2.21749,0.273778,17,32765
3.05352,-2.24494,0.276172,16,32765
1.18304,-0.367626,0.0535403,12,32765
1.36291,-0.428321,0.0625094,12,32765
1.41863,-0.450846,0.0657569,12,32765
1.46469,-0.470714,0.0687273,13,32765
1.4441,-0.469341,0.0684132,13,32765
1.51843,-0.499087,0.0726471,13,32765
1.50728,-0.500933,0.0726187,13,32765
1.52458,-0.512111,0.0742068,13,32765
1.59855,-0.542746,0.0784404,13,32765
3.18407,-1.09258,0.157735,17,32765
3.21813,-1.11624,0.160416,17,32765
3.3086,-1.16002,0.166154,17,32765
3.27647,-1.16092,0.165659,18,32765
3.27259,-1.17159,0.167026,19,32765
3.28742,-1.18919,0.16931,16,32765
3.22711,-1.17954,0.167507,16,32765
3.2606,-1.20413,0.170195,17,32765
3.18166,-1.18705,0.167225,17,32765
3.24311,-1.22217,0.171608,17,32765
3.30437,-1.25762,0.176414,18,32765
3.22559,-1.23986,0.17297,16,32765
3.18422,-1.23597,0.171887,17,32765
3.2824,-1.28645,0.178375,18,32765
3.31525,-1.31192,0.181382,17,32765
3.181,-1.271,0.175225,17,32765
3.14887,-1.27049,0.174611,17,32765
3.21851,-1.31126,0.179347,17,32765
3.22328,-1.32586,0.180819,16,32765
3.21872,-1.33672,0.181909,17,32765
3.21421,-1.34745,0.182648,17,32765
3.182,-1.34661,0.181926,17,32765
3.24171,-1.38471,0.186544,17,32765
3.25534,-1.4035,0.188346,18,32765
3.25972,-1.4184,0.189667,17,32765
3.17262,-1.39311,0.186067,17,32765
3.24091,-1.43614,0.191045,16,32765
3.17221,-1.41849,0.188096,17,32765
3.18562,-1.43727,0.189912,16,32765
3.20805,-1.46023,0.192363,16,32765
3.1578,-1.44995,0.190635,16,32765
3.2344,-1.49837,0.196162,18,32765
3.24743,-1.51759,0.197964,16,32765
3.18805,-1.503,0.195546,17,32765
3.22804,-1.53507,0.199346,17,32765
3.13282,-1.50267,0.194488,16,32765
3.15463,-1.52626,0.197261,17,32765
3.2033,-1.56309,0.201338,18,32765
3.18906,-1.56934,0.201664,17,32765
3.13897,-1.5579,0.199751,18,32765
3.09804,-1.55038,0.198382,16,32765
3.16408,-1.59671,0.203962,16,32765
3.13208,-1.59352,0.20293,17,32765
3.18886,-1.63588,0.207819,17,32765
3.11238,-1.60986,0.203837,17,32765
3.16882,-1.65267,0.20892,16,32765
3.09249,-1.6262,0.204916,17,32765
3.14875,-1.66918,0.210031,18,32765
3.08153,-1.64664,0.206763,17,32765
3.15521,-1.69925,0.212867,17,32765
3.15828,-1.71438,0.214863,17,32765
3.09115,-1.69145,0.211415,18,32765
3.12038,-1.72104,0.214816,17,32765
3.18436,-1.77024,0.220379,16,32765
3.1349,-1.75632,0.218532,17,32765
3.07689,-1.73711,0.216268,17,32765
3.18386,-1.81146,0.224865,16,32765
3.08257,-1.76727,0.219407,16,32765
3.10258,-1.79238,0.22236,17,32765
3.11383,-1.81263,0.224845,16,32765
3.05617,-1.79247,0.222231,16,32765
3.06728,-1.81278,0.224707,16,32765
3.06977,-1.82798,0.226744,16,32765
3.1321,-1.87915,0.233151,17,32765
3.12575,-1.88958,0.234046,17,32765
3.17065,-1.9308,0.239562,15,32765
3.11314,-1.90997,0.236603,15,32765
3.18316,-1.96733,0.244202,16,32765
3.10041,-1.93021,0.239477,16,32765
3.09396,-1.94034,0.240998,15,32765
3.07063,-1.93977,0.241106,16,32765
3.02206,-1.92302,0.239223,16,32765
3.1501,-2.01894,0.251473,17,32765
3.19374,-2.06158,0.256918,16,32765
3.0447,-1.9795,0.246865,17,32765
3.05487,-2.00021,0.250024,16,32765
3.1147,-2.05432,0.256979,17,32765
3.03299,-2.01494,0.252049,16,32765
3.08425,-2.06364,0.259196,16,32765
3.06089,-2.06247,0.259205,16,32765
3.09534,-2.1003,0.264714,16,32765
3.09659,-2.11597,0.267208,16,32765
3.03198,-2.08649,0.264147,16,32765
3.08237,-2.13616,0.270948,16,32765
2.97714,-2.07759,0.26427,15,32765
3.09279,-2.17301,0.277076,16,32765
3.06941,-2.17129,0.277735,15,32765
3.09471,-2.20435,0.282341,15,32765
3.05489,-2.1911,0.282185,16,32765
3.06375,-2.21264,0.285957,16,32765
3.09666,-2.25182,0.29255,15,32765
3.1374,-2.29715,0.299626,15,32765
1.22144,-0.38027,0.0432205,12,32765
1.27739,-0.402194,0.0459643,12,32765
1.46653,-0.46694,0.053471,12,32765
1.37936,-0.444123,0.0510659,12,32765
1.39688,-0.454844,0.0523304,13,32765
1.47128,-0.484495,0.0557925,14,32765
1.46965,-0.489346,0.0562082,14,32765
1.47752,-0.497239,0.0572252,14,32765
1.55157,-0.527785,0.0606908,13,32765
3.17525,-1.09161,0.125658,17,32765
3.20932,-1.11529,0.127962,18,32765
3.19611,-1.1227,0.128586,19,32765
3.21118,-1.13995,0.130253,19,32765
3.15095,-1.13019,0.129279,18,32765
3.18471,-1.15423,0.132107,19,32765
3.14327,-1.15109,0.13162,20,32765
3.13938,-1.16158,0.132334,19,32765
3.21968,-1.20354,0.136845,19,32765
3.19696,-1.20709,0.136978,18,32765
3.14626,-1.19974,0.136256,18,32765
3.19819,-1.2317,0.139222,19,32765
3.13822,-1.22047,0.137692,18,32765
3.17137,-1.24534,0.140255,18,32765
3.16721,-1.25577,0.141198,18,32765
3.16298,-1.26626,0.142151,19,32765
3.14013,-1.26943,0.142234,17,32765
3.11728,-1.27251,0.142005,18,32765
3.14989,-1.29821,0.144627,19,32765
3.14544,-1.30885,0.145694,19,32765
3.15944,-1.32709,0.147278,18,32765
3.16409,-1.34167,0.148552,18,32765
3.15953,-1.35227,0.149467,19,32765
3.08155,-1.33121,0.146698,19,32765
3.12281,-1.36152,0.14964,19,32765
3.10905,-1.36791,0.150374,19,32765
3.15917,-1.40272,0.153701,18,32765
3.12704,-1.40109,0.153177,18,32765
3.16782,-1.43211,0.156143,18,32765
3.14483,-1.43433,0.156055,17,32765
3.17633,-1.4614,0.158863,18,32765
3.16228,-1.46792,0.158995,19,32765
3.13923,-1.47,0.158766,18,32765
3.11613,-1.47209,0.158723,18,32765
3.08409,-1.46961,0.158329,18,32765
3.08811,-1.48426,0.159494,18,32765
3.11898,-1.51211,0.162441,18,32765
3.18564,-1.55767,0.166889,19,32765
3.05495,-1.50645,0.161162,20,32765
3.13923,-1.56124,0.166811,19,32765
3.134,-1.57162,0.16773,19,32765
3.09301,-1.56408,0.166805,18,32765
3.06111,-1.56066,0.166041,17,32765
3.14465,-1.61657,0.171712,19,32765
3.08596,-1.59954,0.169448,17,32765
3.07163,-1.60534,0.16995,17,32765
3.11032,-1.63902,0.173069,19,32765
3.06951,-1.63061,0.172097,17,32765
3.15209,-1.68792,0.177914,18,32765
3.085,-1.66498,0.175207,18,32765
3.11452,-1.69422,0.17859,19,32765
3.08247,-1.69031,0.177811,19,32765
3.08549,-1.70544,0.179313,19,32765
3.0012,-1.672,0.17545,17,32765
3.04785,-1.71123,0.179652,17,32765
3.05084,-1.72612,0.181535,18,32765
3.12314,-1.78076,0.186834,19,32765
3.03061,-1.74125,0.182907,18,32765
3.03343,-1.75624,0.184512,18,32765
3.07929,-1.79644,0.188901,19,32765
2.97004,-1.74576,0.183646,18,32765
3.00708,-1.7811,0.18751,18,32765
3.0011,-1.79102,0.188889,17,32765
3.07211,-1.84722,0.195063,18,32765
3.00608,-1.82125,0.192123,17,32765
3.06826,-1.87257,0.198117,19,32765
3.03646,-1.86705,0.197352,19,32765
3.06418,-1.898,0.201281,17,32765
3.10872,-1.9397,0.205768,20,32765
3.02617,-1.90206,0.202213,16,32765
3.04514,-1.92797,0.205323,18,32765
3.02187,-1.92721,0.205618,17,32765
3.02389,-1.94241,0.207718,18,32765
2.99234,-1.93593,0.207321,17,32765
3.00265,-1.95657,0.209878,18,32765
3.01289,-1.97719,0.212828,18,32765
3.06446,-2.02577,0.218424,17,32765
2.94962,-1.96401,0.21193,16,32765
3.01764,-2.02367,0.21957,18,32765
3.01923,-2.03904,0.221559,17,32765
3.03725,-2.0656,0.225352,18,32765
2.98921,-2.04728,0.22402,18,32765
3.05629,-2.10806,0.231507,17,32765
3.00825,-2.08959,0.230146,16,32765
3.01768,-2.11074,0.233399,17,32765
2.9945,-2.10882,0.233992,17,32765
3.06903,-2.17604,0.242493,16,32765
3.02122,-2.15699,0.2409,17,32765
3.04639,-2.19008,0.246294,17,32765
2.99868,-2.17069,0.245249,16,32765
2.99142,-2.18036,0.247978,16,32765
3.04849,-2.23727,0.255763,17,32765
1.26911,-0.394659,0.0501319,12,32765
1.48709,-0.467713,0.0584168,12,32765
1.37128,-0.436259,0.0536659,12,32765
1.39837,-0.449995,0.054473,12,32765
1.39692,-0.45447,0.0544382,13,32765
1.44293,-0.474579,0.0560369,13,32765
1.46983,-0.488729,0.0569908,13,32765
1.50613,-0.506223,0.0584621,14,32765
1.5423,-0.524059,0.0598587,12,32765
3.12842,-1.07439,0.12164,16,32765
3.14371,-1.09132,0.122462,17,32765
3.14952,-1.10502,0.122738,18,32765
3.1176,-1.10535,0.121969,17,32765
3.12331,-1.1191,0.122426,17,32765
3.20416,-1.16004,0.125615,17,32765
3.17213,-1.16035,0.124767,17,32765
3.18704,-1.17769,0.125793,16,32765
3.13633,-1.17068,0.124329,17,32765
3.1792,-1.19862,0.126334,15,32765
3.1752,-1.20914,0.126812,17,32765
3.14317,-1.20894,0.125911,17,32765
3.07396,-1.19395,0.12355,17,32765
3.05145,-1.1966,0.123258,16,32765
3.09395,-1.22501,0.125449,17,32765
3.06206,-1.22404,0.124568,17,32765
3.05791,-1.23431,0.125043,16,32765
3.12777,-1.27471,0.128631,17,32765
3.03107,-1.24712,0.125423,17,32765
3.05458,-1.26868,0.126967,16,32765
3.08722,-1.29418,0.12916,18,32765
3.08287,-1.30445,0.129752,18,32765
3.13362,-1.33826,0.132702,18,32765
3.04652,-1.31308,0.13004,18,32765
3.08784,-1.34331,0.132795,18,32765
3.04673,-1.33752,0.131853,18,32765
3.1153,-1.38007,0.135696,17,32765
3.04678,-1.36196,0.133512,18,32765
3.05128,-1.37624,0.134641,18,32765
3.0193,-1.37412,0.134273,17,32765
2.96918,-1.3635,0.133124,16,32765
3.09148,-1.43224,0.139743,16,32765
2.98715,-1.39585,0.13618,18,32765
3.09096,-1.45681,0.141713,18,32765
3.059,-1.45416,0.141496,17,32765
3.12614,-1.49899,0.145517,17,32765
3.07606,-1.48775,0.144438,17,32765
3.03507,-1.48052,0.144192,16,32765
3.03007,-1.4907,0.144624,17,32765
3.0519,-1.51408,0.146844,17,32765
3.04682,-1.52418,0.147873,17,32765
3.06838,-1.54791,0.150415,17,32765
3.02754,-1.54,0.149679,17,32765
3.01335,-1.54572,0.150298,16,32765
3.06135,-1.58334,0.153836,16,32765
3.09139,-1.6121,0.156692,16,32765
3.0594,-1.6085,0.156186,16,32765
3.03634,-1.60929,0.156279,17,32765
2.97801,-1.59122,0.154591,16,32765
3.0342,-1.63426,0.159086,17,32765
2.9673,-1.61091,0.156495,16,32765
3.11964,-1.70702,0.165909,16,32765
3.00893,-1.65948,0.161493,17,32765
3.03832,-1.68875,0.164815,16,32765
2.98902,-1.67453,0.163102,17,32765
3.03568,-1.71377,0.166518,17,32765
3.0907,-1.75837,0.171237,18,32765
2.98949,-1.71392,0.167198,17,32765
2.94914,-1.70383,0.166204,16,32765
2.96057,-1.72387,0.168003,16,32765
2.9117,-1.70842,0.166463,16,32765
2.9488,-1.74372,0.170004,17,32765
3.03734,-1.80969,0.176517,17,32765
2.89433,-1.73738,0.169677,16,32765
2.97404,-1.79853,0.175392,16,32765
2.9681,-1.80823,0.176388,17,32765
2.945,-1.8076,0.17645,17,32765
3.00691,-1.85935,0.181427,17,32765
3.02619,-1.885,0.183999,17,32765
2.99453,-1.87902,0.183457,17,32765
2.95462,-1.86734,0.18233,17,32765
2.94839,-1.87709,0.183085,17,32765
2.97575,-1.90837,0.186152,16,32765
2.94434,-1.90174,0.185325,16,32765
2.96314,-1.92772,0.187805,16,32765
2.89838,-1.89897,0.184949,15,32765
2.90047,-1.91389,0.186224,16,32765
2.89427,-1.92317,0.187029,16,32765
2.88797,-1.93255,0.187907,16,32765
