x, y, z, intensity, ring
2.96217,1.98382,0.422075,15,32765
3.05998,2.03443,0.433154,15,32765
2.94265,1.9422,0.413776,14,32765
2.99912,1.96509,0.419247,15,32765
2.96415,1.92827,0.411379,16,32765
2.98729,1.92944,0.412035,15,32765
3.02719,1.94132,0.414497,15,32765
3.00849,1.91554,0.409625,15,32765
2.97294,1.87922,0.402222,15,32765
3.05502,1.91707,0.410583,14,32765
3.04459,1.89663,0.406618,15,32765
2.882,1.7821,0.382502,14,32765
2.99814,1.8401,0.395978,15,32765
2.98744,1.81982,0.392224,16,32765
3.05318,1.84596,0.398288,16,32765
3.03381,1.82061,0.393668,15,32765
2.99731,1.78514,0.386691,16,32765
3.02908,1.79044,0.388094,15,32765
2.93228,1.72008,0.373445,15,32765
2.97252,1.73036,0.376298,15,32765
2.96966,1.71571,0.374072,16,32765
2.97548,1.70592,0.37263,15,32765
2.96394,1.68633,0.369152,14,32765
2.96965,1.67658,0.367617,15,32765
3.03609,1.70075,0.373606,15,32765
3.07654,1.71008,0.377004,15,32765
3.05623,1.68557,0.372035,16,32765
2.99206,1.63735,0.362721,15,32765
3.04121,1.65131,0.366851,16,32765
3.02928,1.63183,0.363538,15,32765
3.0085,1.60776,0.359056,15,32765
3.08427,1.63496,0.366461,15,32765
3.03702,1.59696,0.358813,15,32765
2.98071,1.55462,0.350632,15,32765
2.97724,1.54005,0.348174,16,32765
3.13296,1.6072,0.364822,16,32765
3.06753,1.56062,0.355394,17,32765
2.93966,1.48315,0.338772,15,32765
3.02485,1.51327,0.346826,15,32765
3.02994,1.50327,0.345899,15,32765
3.07964,1.51519,0.350028,15,32765
3.03112,1.47881,0.342819,15,32765
3.0003,1.45151,0.337409,15,32765
2.97838,1.42852,0.333142,16,32765
3.11796,1.48277,0.347254,15,32765
3.006,1.41723,0.333227,15,32765
2.96574,1.38618,0.327104,15,32765
2.96138,1.37217,0.325222,15,32765
3.11072,1.42887,0.339582,16,32765
2.96157,1.34847,0.321921,15,32765
3.02055,1.36326,0.326679,15,32765
3.03431,1.35725,0.326224,15,32765
3.00249,1.33107,0.321412,16,32765
3.01618,1.32499,0.321247,15,32765
3.11192,1.35467,0.329992,16,32765
3.08911,1.33254,0.325773,15,32765
3.06619,1.31049,0.321895,15,32765
3.11651,1.31967,0.325316,15,32765
3.05676,1.28228,0.317594,15,32765
3.07956,1.27972,0.318006,16,32765
3.13906,1.29235,0.322824,15,32765
3.15262,1.28585,0.322476,15,32765
3.05539,1.23455,0.310769,15,32765
3.0687,1.22832,0.310922,15,32765
2.98952,1.18525,0.301372,14,32765
3.03983,1.19368,0.304876,16,32765
3.1552,1.2271,0.31453,16,32765
3.02923,1.16669,0.300388,14,32765
3.03311,1.15683,0.299287,15,32765
3.14876,1.18922,0.308985,18,32765
3.03146,1.13365,0.295936,15,32765
3.05398,1.13058,0.29644,15,32765
3.15136,1.15473,0.304061,16,32765
3.01483,1.09342,0.289171,15,32765
3.10283,1.11401,0.295879,15,32765
3.0784,1.0939,0.29199,16,32765
3.02565,1.06422,0.285064,15,32765
3.11383,1.08397,0.291886,15,32765
3.108,1.07074,0.289579,16,32765
3.12094,1.06414,0.288881,15,32765
3.05827,1.0322,0.281346,15,32765
3.04273,1.01625,0.278226,16,32765
3.00826,0.993971,0.273452,15,32765
3.06847,1.00275,0.276731,15,32765
3.12867,1.01141,0.280149,14,32765
3.0844,0.986809,0.274144,15,32765
2.99253,0.947407,0.26402,14,32765
3.03365,0.950055,0.2654,14,32765
2.92004,2.14824,0.425328,15,32765
2.95178,2.15595,0.425762,16,32765
2.94337,2.13428,0.420716,16,32765
2.86201,2.06078,0.4057,16,32765
2.94167,2.10357,0.413699,16,32765
2.93262,2.08259,0.408628,17,32765
2.89102,2.03859,0.399703,16,32765
2.85726,2.00063,0.392036,16,32765
2.864,1.99133,0.39012,16,32765
2.87899,1.98761,0.388881,16,32765
2.87751,1.97254,0.386188,17,32765
2.94999,2.00785,0.392694,16,32765
2.88274,1.94802,0.380836,17,32765
2.84817,1.91076,0.373392,17,32765
2.89612,1.92881,0.377047,16,32765
2.90276,1.91916,0.375252,17,32765
2.89268,1.8986,0.371637,16,32765
2.90743,1.89461,0.370681,17,32765
2.90542,1.87977,0.368007,17,32765
2.94516,1.89193,0.370151,17,32765
2.9179,1.86101,0.36455,18,32765
2.92415,1.85151,0.362878,18,32765
2.83776,1.78374,0.349673,16,32765
2.94501,1.83769,0.360475,18,32765
2.94278,1.82275,0.357819,18,32765
2.91506,1.79211,0.352628,19,32765
2.92967,1.78761,0.352164,18,32765
2.91022,1.76247,0.347445,17,32765
2.89909,1.74265,0.344177,17,32765
2.90501,1.73304,0.342772,17,32765
2.88524,1.70824,0.337934,17,32765
2.88247,1.69365,0.335461,16,32765
2.93123,1.70913,0.338958,17,32765
2.95414,1.70954,0.339811,18,32765
2.92541,1.67995,0.334429,17,32765
2.94835,1.68019,0.335089,18,32765
2.90206,1.64108,0.327691,17,32765
2.94237,1.65092,0.330137,17,32765
2.86963,1.59765,0.320557,17,32765
2.88376,1.59301,0.319853,17,32765
2.99381,1.64094,0.330611,18,32765
2.95556,1.60737,0.324666,17,32765
2.94347,1.58813,0.321572,17,32765
2.90497,1.5549,0.315501,17,32765
2.91026,1.54517,0.314585,17,32765
2.91552,1.53549,0.313255,17,32765
2.92073,1.52573,0.312372,18,32765
2.92599,1.51591,0.310974,18,32765
2.95774,1.51969,0.312926,17,32765
2.91859,1.48716,0.307114,16,32765
2.95033,1.49085,0.308694,18,32765
2.91097,1.45856,0.302929,17,32765
2.95154,1.46663,0.305731,18,32765
2.92076,1.43922,0.301126,18,32765
2.94353,1.43827,0.301878,18,32765
2.94838,1.42857,0.300535,18,32765
3.02511,1.45314,0.306577,18,32765
2.94008,1.4003,0.296591,18,32765
2.94484,1.39049,0.295593,17,32765
2.94956,1.38069,0.294463,17,32765
2.98131,1.38348,0.296271,18,32765
3.03124,1.39445,0.299292,18,32765
2.9725,1.35546,0.292154,17,32765
2.94077,1.32923,0.287472,17,32765
2.91805,1.30719,0.283427,17,32765
3.0135,1.33792,0.291348,17,32765
2.9725,1.30772,0.285823,17,32765
2.9678,1.29383,0.284029,17,32765
2.99963,1.29583,0.285372,17,32765
2.97656,1.27403,0.281802,17,32765
2.9901,1.26797,0.281341,18,32765
3.00361,1.26181,0.281197,17,32765
2.99875,1.24793,0.278879,18,32765
2.9937,1.23427,0.277186,17,32765
2.98861,1.22071,0.275104,18,32765
2.97423,1.20347,0.272106,18,32765
2.97819,1.19379,0.271342,18,32765
3.00998,1.19505,0.27274,18,32765
2.96761,1.16696,0.267409,18,32765
2.99009,1.16453,0.267658,17,32765
3.00329,1.15832,0.267308,18,32765
3.00714,1.14853,0.266216,17,32765
2.99232,1.13171,0.263313,18,32765
2.99609,1.12198,0.262161,18,32765
3.01857,1.11902,0.262491,18,32765
3.05982,1.12273,0.264339,18,32765
2.99804,1.08882,0.25733,19,32765
3.0204,1.08591,0.257599,18,32765
3.04281,1.08274,0.258005,19,32765
3.00879,1.05974,0.253243,18,32765
3.00287,1.04676,0.251346,18,32765
3.02518,1.04362,0.251534,18,32765
3.01915,1.03083,0.249226,18,32765
3.04133,1.02787,0.249365,18,32765
3.06359,1.02459,0.24952,17,32765
2.99125,0.989675,0.242047,17,32765
3.03251,0.992325,0.243253,18,32765
3.04526,0.985768,0.24235,18,32765
3.03886,0.973537,0.239861,18,32765
2.9849,0.946251,0.233678,18,32765
3.07361,0.96385,0.238376,18,32765
2.78059,2.04334,0.36601,13,32765
2.80353,2.04576,0.36766,14,32765
2.8667,2.07739,0.374287,14,32765
2.87365,2.06789,0.373574,14,32765
2.96141,2.11626,0.383565,14,32765
2.82254,2.00281,0.363874,15,32765
2.92675,2.06234,0.375314,15,32765
2.8764,2.01307,0.367077,14,32765
2.86674,1.99232,0.364094,14,32765
2.84881,1.96597,0.360022,14,32765
2.86364,1.96209,0.360353,14,32765
2.91966,1.98615,0.365121,14,32765
2.86031,1.93203,0.356064,14,32765
2.94116,1.97246,0.364126,15,32765
2.85658,1.90232,0.351577,14,32765
2.89606,1.91492,0.355019,14,32765
2.90249,1.90541,0.353682,15,32765
2.83396,1.84684,0.343284,15,32765
2.88204,1.86434,0.347221,14,32765
2.93864,1.88697,0.351954,14,32765
2.8191,1.79705,0.335947,14,32765
2.93442,1.857,0.347617,15,32765
2.88999,1.81578,0.340321,15,32765
2.89597,1.80645,0.339157,14,32765
2.89347,1.79188,0.336757,14,32765
2.90803,1.7874,0.336846,15,32765
2.84612,1.73622,0.328044,14,32765
2.92861,1.7732,0.335561,15,32765
2.87492,1.72754,0.327603,15,32765
2.94058,1.75375,0.333118,15,32765
2.84369,1.68325,0.320149,15,32765
2.83227,1.6637,0.316797,15,32765
2.82919,1.6494,0.315036,15,32765
2.80031,1.62012,0.309776,15,32765
2.91794,1.67536,0.321216,15,32765
2.94961,1.68039,0.322748,15,32765
2.79072,1.57743,0.303332,15,32765
2.85695,1.60212,0.30843,15,32765
2.93203,1.63128,0.3147,14,32765
2.87652,1.58788,0.307098,16,32765
2.95173,1.61667,0.313204,16,32765
2.97469,1.61647,0.313429,15,32765
2.86615,1.54532,0.300141,16,32765
2.86259,1.53115,0.297951,16,32765
2.92934,1.55434,0.303171,16,32765
2.89936,1.52603,0.298409,16,32765
2.86922,1.49796,0.293521,16,32765
2.93623,1.52043,0.298723,15,32765
2.92375,1.50147,0.295436,15,32765
2.89331,1.47366,0.290971,15,32765
2.90728,1.46838,0.290667,16,32765
2.92119,1.46309,0.290526,15,32765
2.94403,1.46223,0.290854,16,32765
2.9222,1.43922,0.286888,14,32765
2.94488,1.43846,0.287426,16,32765
2.98571,1.44587,0.289701,16,32765
2.87394,1.37971,0.277227,15,32765
2.93259,1.39584,0.281372,15,32765
2.91929,1.3776,0.278554,15,32765
2.87869,1.34706,0.273226,14,32765
2.98265,1.38369,0.281411,15,32765
2.9873,1.37382,0.280401,16,32765
2.92844,1.33507,0.2733,16,32765
2.96023,1.33758,0.274767,15,32765
2.9647,1.32786,0.273766,16,32765
2.91456,1.29368,0.267848,16,32765
2.82778,1.24378,0.258223,14,32765
2.94157,1.2822,0.267382,15,32765
2.98247,1.2883,0.269753,17,32765
2.9226,1.25111,0.263054,16,32765
2.85344,1.21028,0.255407,15,32765
2.95858,1.24329,0.26346,16,32765
2.93506,1.22218,0.260409,15,32765
2.93915,1.21251,0.259433,16,32765
2.94313,1.20296,0.258775,16,32765
2.9749,1.20445,0.260168,16,32765
2.96967,1.19093,0.258541,16,32765
2.97361,1.18123,0.257697,16,32765
2.9961,1.17876,0.258518,16,32765
2.95351,1.15093,0.254036,15,32765
2.97593,1.14839,0.255058,17,32765
3.04495,1.16348,0.259749,16,32765
3.03014,1.14644,0.257762,16,32765
2.98724,1.11908,0.253104,15,32765
2.96283,1.09911,0.250035,15,32765
2.92897,1.07572,0.246633,15,32765
3.06368,1.11391,0.256827,16,32765
3.02976,1.09049,0.253572,16,32765
3.00521,1.07043,0.250729,16,32765
2.99925,1.05747,0.249692,15,32765
3.0686,1.07072,0.254685,15,32765
3.02501,1.04438,0.25037,16,32765
2.98121,1.01853,0.246112,15,32765
3.03168,1.02495,0.249987,16,32765
2.98762,0.99959,0.246081,15,32765
3.07602,1.01819,0.25271,16,32765
3.06032,1.00211,0.251197,16,32765
3.00658,0.973958,0.246577,15,32765
3.03809,0.97364,0.24908,16,32765
3.02206,0.958193,0.247861,15,32765
3.11061,0.975561,0.25556,17,32765
2.76524,2.03615,0.331688,15,32765
2.75603,2.01513,0.32931,16,32765
2.7144,1.97096,0.322839,15,32765
2.69678,1.94448,0.319294,16,32765
2.79226,1.99933,0.329334,16,32765
2.76655,1.96695,0.324702,16,32765
2.76495,1.95216,0.322701,16,32765
2.77943,1.94902,0.32274,17,32765
2.72054,1.89441,0.314309,15,32765
2.73504,1.89113,0.314328,16,32765
2.79067,1.91578,0.319287,17,32765
2.78895,1.90089,0.316983,17,32765
2.8365,1.91962,0.320833,17,32765
2.77683,1.86582,0.312262,16,32765
2.7747,1.85132,0.31007,17,32765
2.73102,1.80922,0.303916,16,32765
2.78701,1.83307,0.308173,17,32765
2.78491,1.8183,0.305995,17,32765
2.76606,1.79268,0.302178,16,32765
2.78892,1.79419,0.302763,16,32765
2.79493,1.78498,0.301802,16,32765
2.81772,1.78648,0.302337,17,32765
2.7899,1.75616,0.297451,16,32765
2.81257,1.75768,0.298116,17,32765
2.76759,1.7171,0.291393,17,32765
2.7819,1.71303,0.291425,17,32765
2.75372,1.68294,0.286954,17,32765
2.85309,1.73064,0.295432,19,32765
2.82484,1.70054,0.290792,19,32765
2.82201,1.6861,0.288674,19,32765
2.80197,1.66156,0.284718,18,32765
2.85915,1.68253,0.288504,17,32765
2.83893,1.65807,0.285099,16,32765
2.79282,1.6187,0.278487,17,32765
2.8155,1.61944,0.279287,17,32765
2.80372,1.60013,0.276318,17,32765
2.79187,1.5809,0.273177,17,32765
2.77995,1.56172,0.270023,16,32765
2.83751,1.58149,0.273893,17,32765
2.84284,1.57207,0.272838,17,32765
2.86561,1.57227,0.273211,18,32765
2.84466,1.54853,0.269154,17,32765
2.87614,1.55343,0.270328,18,32765
2.83746,1.52037,0.264944,18,32765
2.80739,1.49224,0.260532,17,32765
2.82127,1.48752,0.260257,17,32765
2.85281,1.49199,0.261442,18,32765
2.8225,1.46407,0.257127,17,32765
2.90731,1.49561,0.2629,18,32765
2.8502,1.45421,0.256417,17,32765
2.82852,1.43106,0.252855,18,32765
2.84231,1.42603,0.252646,18,32765
2.84717,1.41654,0.251249,17,32765
2.92351,1.44233,0.256225,17,32765
2.89248,1.41527,0.251894,19,32765
2.87942,1.39676,0.249158,18,32765
2.83033,1.36107,0.243352,18,32765
2.87094,1.3688,0.24541,19,32765
2.84852,1.34647,0.242035,18,32765
2.90711,1.36264,0.245589,18,32765
2.90266,1.34883,0.243621,18,32765
2.84379,1.31,0.237347,17,32765
2.91167,1.32964,0.241489,19,32765
2.89803,1.31164,0.238934,18,32765
2.86602,1.28578,0.23497,18,32765
2.82482,1.25591,0.230386,18,32765
2.90213,1.27859,0.235043,19,32765
2.879,1.25699,0.232005,18,32765
2.95644,1.27914,0.236954,19,32765
2.92401,1.25375,0.233111,18,32765
2.90071,1.23233,0.229849,19,32765
2.91406,1.22656,0.22961,18,32765
2.81682,1.17483,0.221068,17,32765
2.91294,1.20363,0.227325,18,32765
2.92612,1.19793,0.227389,18,32765
2.83772,1.15074,0.219221,17,32765
2.88784,1.15995,0.221994,19,32765
2.88241,1.14682,0.220464,18,32765
2.91407,1.1483,0.221826,18,32765
2.955,1.15332,0.224169,18,32765
2.98674,1.15437,0.225706,20,32765
2.88812,1.10528,0.217128,18,32765
2.94773,1.117,0.220941,18,32765
2.85801,1.07232,0.213286,17,32765
2.91759,1.084,0.216782,18,32765
2.86495,1.05382,0.21237,18,32765
2.87779,1.04792,0.212276,18,32765
2.94688,1.06227,0.217005,18,32765
2.95042,1.0525,0.216525,19,32765
3.01025,1.06294,0.220407,19,32765
2.90071,1.01365,0.211681,18,32765
2.98891,1.03345,0.217462,18,32765
2.97337,1.01736,0.215731,18,32765
2.95772,1.00142,0.214342,17,32765
2.98924,1.0016,0.216384,19,32765
3.00195,0.995119,0.216697,18,32765
2.97669,0.976135,0.214686,18,32765
2.97977,0.966663,0.214731,18,32765
3.03029,0.972526,0.218318,19,32765
2.96671,0.941975,0.213858,18,32765
2.98864,0.938627,0.215886,18,32765
2.81595,2.06565,0.351597,15,32765
2.7106,1.9742,0.334825,14,32765
2.79001,2.01772,0.340987,14,32765
2.78873,2.00284,0.337767,14,32765
2.76319,1.97061,0.331072,13,32765
2.7131,1.92116,0.322216,14,32765
2.7604,1.94085,0.324648,14,32765
2.72621,1.90326,0.317813,14,32765
2.71622,1.88312,0.313679,14,32765
0,0,0,0,32765
2.71257,1.85399,0.307723,15,32765
2.79304,1.89532,0.314298,15,32765
2.86556,1.93062,0.319647,16,32765
2.8141,1.88255,0.311185,14,32765
0,0,0,0,32765
2.7186,1.79297,0.295546,15,32765
2.74135,1.79492,0.295589,14,32765
2.76416,1.79673,0.295465,14,32765
2.78696,1.79842,0.295661,16,32765
2.87702,1.84284,0.302648,14,32765
2.86638,1.82277,0.299187,15,32765
2.82194,1.78148,0.292385,14,32765
2.78574,1.74578,0.286154,15,32765
2.71537,1.68943,0.276889,15,32765
2.7041,1.67007,0.273537,14,32765
2.75215,1.68731,0.276149,15,32765
2.77485,1.68857,0.276642,15,32765
2.82322,1.70511,0.279447,16,32765
2.77767,1.66514,0.272757,15,32765
2.78332,1.65592,0.271241,16,32765
2.74598,1.62144,0.265564,15,32765
2.77727,1.62745,0.266585,15,32765
2.79144,1.62316,0.26611,15,32765
2.77964,1.60399,0.263041,14,32765
2.80241,1.60462,0.263252,16,32765
2.78182,1.58058,0.259497,16,32765
2.75242,1.55179,0.255033,16,32765
2.80989,1.57178,0.258701,16,32765
2.80644,1.55771,0.256647,15,32765
2.82044,1.55321,0.256058,16,32765
2.89566,1.5821,0.261231,15,32765
2.76949,1.50131,0.248236,15,32765
2.83609,1.52507,0.252373,14,32765
2.76202,1.47352,0.244116,14,32765
2.79345,1.4783,0.245254,16,32765
2.8249,1.48299,0.246322,15,32765
2.71492,1.41384,0.234887,15,32765
2.8526,1.47341,0.245202,16,32765
2.83088,1.45038,0.242135,16,32765
2.79136,1.4183,0.237362,15,32765
2.88528,1.4538,0.243436,16,32765
2.77432,1.38604,0.232726,15,32765
2.77915,1.3765,0.231716,16,32765
2.81961,1.3848,0.233785,15,32765
2.7795,1.35351,0.228877,15,32765
2.81102,1.35729,0.229896,16,32765
2.79755,1.33944,0.227452,15,32765
2.85614,1.35574,0.231007,15,32765
2.80652,1.32089,0.225346,15,32765
2.84717,1.32837,0.227108,15,32765
2.82446,1.30637,0.224162,16,32765
2.78353,1.27621,0.219371,15,32765
2.77881,1.26273,0.217525,15,32765
2.87397,1.29457,0.223625,15,32765
2.74176,1.22391,0.211824,15,32765
2.89186,1.27937,0.221936,16,32765
2.87795,1.26163,0.219485,16,32765
2.87316,1.24788,0.217581,16,32765
2.78574,1.19888,0.209619,16,32765
2.86326,1.2208,0.213989,16,32765
2.90407,1.227,0.215526,17,32765
2.94494,1.23292,0.217347,17,32765
2.80164,1.16204,0.205058,17,32765
2.87931,1.18323,0.209635,17,32765
2.90178,1.18124,0.20963,16,32765
2.93347,1.18295,0.210404,16,32765
2.92818,1.16953,0.208704,16,32765
2.81153,1.11205,0.198871,16,32765
2.76879,1.08458,0.19458,16,32765
2.85617,1.10796,0.19901,17,32765
2.87851,1.10574,0.199066,16,32765
2.88214,1.09644,0.197944,15,32765
2.9792,1.12216,0.203007,17,32765
2.85193,1.0638,0.193139,16,32765
2.95847,1.0925,0.198685,17,32765
2.85899,1.04516,0.190581,15,32765
2.86247,1.03583,0.189241,17,32765
2.87537,1.02977,0.188278,16,32765
2.8505,1.01051,0.185502,17,32765
2.85385,1.00126,0.184107,16,32765
2.80994,0.975841,0.179919,16,32765
2.89808,0.996103,0.183885,17,32765
2.86356,0.973934,0.179995,16,32765
2.80049,0.942545,0.174463,16,32765
2.87934,0.958814,0.177977,16,32765
2.83506,0.934074,0.173358,16,32765
2.85704,0.931374,0.173098,15,32765
2.91708,0.940744,0.174778,16,32765
2.79643,0.892234,0.16576,16,32765
2.82793,0.892314,0.165727,17,32765
2.84029,0.886598,0.164527,17,32765
2.66398,1.95823,0.30156,15,32765
2.74324,2.00213,0.30695,15,32765
2.66145,1.92874,0.294394,15,32765
2.6922,1.93752,0.294911,16,32765
2.67451,1.91132,0.289561,15,32765
2.68108,1.90241,0.287523,16,32765
2.7446,1.93372,0.291241,17,32765
2.67771,1.87325,0.28145,16,32765
2.72489,1.89301,0.283499,16,32765
2.72311,1.87838,0.280635,17,32765
2.71306,1.85814,0.276873,17,32765
2.71939,1.84912,0.275102,18,32765
2.71741,1.83456,0.272304,18,32765
2.73184,1.83126,0.271174,17,32765
2.69651,1.79473,0.265151,16,32765
2.71912,1.79696,0.264962,16,32765
2.70021,1.77158,0.260791,17,32765
2.74799,1.78984,0.262904,16,32765
2.71217,1.75371,0.257359,17,32765
2.70141,1.73386,0.253991,17,32765
2.72403,1.73574,0.253955,17,32765
2.71299,1.71615,0.250907,17,32765
2.71033,1.70193,0.248308,17,32765
2.64826,1.65097,0.240693,16,32765
2.75554,1.70524,0.24826,18,32765
2.70176,1.65972,0.241267,17,32765
2.72437,1.66115,0.241592,17,32765
2.71294,1.64176,0.238698,18,32765
2.74409,1.64827,0.239343,17,32765
2.71541,1.61872,0.23488,17,32765
2.60069,1.53868,0.22308,16,32765
2.74351,1.61083,0.233406,18,32765
2.71453,1.58154,0.229212,18,32765
2.72849,1.57756,0.228538,18,32765
2.75117,1.57836,0.228586,19,32765
2.73048,1.55444,0.225134,18,32765
2.6923,1.52085,0.220355,17,32765
2.68006,1.50207,0.217825,18,32765
2.7897,1.55142,0.225065,18,32765
2.75128,1.51806,0.220194,18,32765
2.73889,1.49933,0.217689,17,32765
2.73514,1.48554,0.215848,18,32765
2.71387,1.46215,0.212467,17,32765
2.75395,1.47203,0.213995,18,32765
2.77657,1.47217,0.214174,18,32765
2.73736,1.43978,0.209558,17,32765
2.74219,1.43076,0.208113,17,32765
2.77363,1.43534,0.208996,17,32765
2.75177,1.41252,0.20623,18,32765
2.80993,1.43043,0.209236,18,32765
2.78811,1.40748,0.205813,19,32765
2.81973,1.41137,0.206825,18,32765
2.74419,1.36174,0.199936,17,32765
2.75775,1.35695,0.199693,18,32765
2.80723,1.36956,0.201725,18,32765
2.731,1.32111,0.19476,18,32765
2.79838,1.34232,0.198268,18,32765
2.76687,1.3158,0.19491,18,32765
2.75321,1.29819,0.192374,17,32765
2.75762,1.28896,0.191272,18,32765
2.81628,1.30498,0.194252,18,32765
2.75719,1.26645,0.188691,18,32765
2.75243,1.25303,0.186948,18,32765
2.7748,1.25218,0.187207,19,32765
2.80641,1.25505,0.187832,19,32765
2.80153,1.24165,0.186108,20,32765
2.83318,1.24425,0.186892,21,32765
2.7734,1.20673,0.181505,19,32765
2.78664,1.20143,0.181069,19,32765
2.80911,1.19987,0.181135,20,32765
2.85905,1.21015,0.182905,19,32765
2.83544,1.1892,0.180266,20,32765
2.821,1.17216,0.177662,20,32765
2.78795,1.14773,0.174545,19,32765
2.8103,1.14604,0.174393,19,32765
2.79559,1.12936,0.172073,20,32765
2.80866,1.12378,0.171648,19,32765
2.79391,1.10704,0.169275,20,32765
2.84408,1.11604,0.171048,19,32765
2.79199,1.08498,0.166279,20,32765
2.83289,1.09013,0.167274,19,32765
2.8178,1.07384,0.165076,19,32765
2.82139,1.06459,0.163803,19,32765
2.80613,1.04855,0.161773,18,32765
2.84709,1.05321,0.162562,20,32765
2.85058,1.0439,0.161377,20,32765
2.80711,1.01756,0.157408,19,32765
2.74474,0.984698,0.152209,19,32765
2.86088,1.01595,0.15753,20,32765
2.79829,0.983469,0.152534,19,32765
2.82976,0.984424,0.152916,20,32765
2.81407,0.968901,0.15047,19,32765
2.87397,0.979167,0.151999,20,32765
2.82036,0.950871,0.147615,20,32765
2.83293,0.944987,0.146926,20,32765
2.87394,0.948518,0.147176,21,32765
2.86749,0.936389,0.145265,20,32765
2.81349,0.908898,0.14067,20,32765
2.77832,0.887981,0.137162,19,32765
2.79076,0.882099,0.135929,20,32765
2.86028,0.894375,0.137405,20,32765
2.65153,1.94691,0.262553,15,32765
2.67399,1.95004,0.263644,14,32765
2.64815,1.91787,0.259757,14,32765
0,0,0,0,32765
2.68526,1.91767,0.260762,15,32765
2.69983,1.91452,0.260631,15,32765
2.64914,1.86546,0.254194,15,32765
2.79414,1.95402,0.266404,14,32765
2.67777,1.85955,0.253947,14,32765
2.69206,1.85656,0.253694,15,32765
2.63252,1.8025,0.246579,14,32765
2.69631,1.83298,0.250959,16,32765
2.71072,1.82967,0.250435,14,32765
2.67538,1.79303,0.245582,14,32765
2.73116,1.81738,0.24896,14,32765
2.72893,1.80285,0.247144,15,32765
2.68499,1.76095,0.241404,15,32765
2.79953,1.8228,0.250056,15,32765
2.60463,1.68362,0.231103,14,32765
2.71094,1.73973,0.238837,15,32765
2.67465,1.70411,0.233822,14,32765
2.71398,1.71671,0.235853,14,32765
2.65209,1.66544,0.228841,15,32765
2.73381,1.70425,0.233941,14,32765
2.64623,1.63745,0.225004,15,32765
2.65174,1.6287,0.223676,15,32765
2.74247,1.67172,0.229343,17,32765
2.73958,1.65742,0.22751,16,32765
2.74529,1.64814,0.226106,16,32765
2.68229,1.59813,0.219581,15,32765
2.68772,1.58919,0.218082,15,32765
2.65007,1.55501,0.213326,15,32765
2.62947,1.53108,0.21016,14,32765
2.72968,1.57716,0.216743,15,32765
2.73496,1.56814,0.21571,16,32765
2.74896,1.56394,0.214973,16,32765
2.71083,1.53025,0.210127,15,32765
2.64636,1.48222,0.203448,16,32765
2.77348,1.54124,0.211668,14,32765
2.67371,1.47439,0.202567,15,32765
2.7137,1.48466,0.204031,15,32765
2.70996,1.47088,0.201887,15,32765
2.73259,1.4712,0.201572,16,32765
2.69356,1.43854,0.197365,16,32765
2.77775,1.47163,0.202198,15,32765
2.7739,1.4577,0.20052,16,32765
2.77885,1.44843,0.199103,15,32765
2.6951,1.39334,0.191348,16,32765
2.72656,1.39781,0.192085,15,32765
2.68673,1.36622,0.187991,14,32765
2.70022,1.36184,0.18742,16,32765
2.68698,1.34391,0.184781,15,32765
2.78091,1.37939,0.189461,16,32765
2.66024,1.30833,0.179711,15,32765
2.7185,1.32567,0.182394,17,32765
2.72307,1.31646,0.180979,16,32765
2.76352,1.32461,0.182386,16,32765
2.65975,1.26409,0.174108,16,32765
2.78139,1.31062,0.180377,17,32765
2.69529,1.25922,0.17366,15,32765
2.72674,1.26277,0.174398,16,32765
2.72202,1.24934,0.172543,16,32765
2.74436,1.24864,0.172632,16,32765
2.75768,1.24357,0.172108,17,32765
2.70712,1.21008,0.167622,16,32765
2.72028,1.20521,0.167204,16,32765
2.75176,1.20819,0.168005,16,32765
2.69168,1.17124,0.163246,16,32765
2.72313,1.17414,0.163884,18,32765
2.70865,1.15738,0.161852,17,32765
2.7401,1.16009,0.162567,17,32765
2.77161,1.16257,0.163453,18,32765
2.83084,1.17633,0.165856,18,32765
2.74243,1.12896,0.159405,17,32765
2.7092,1.10482,0.156595,17,32765
2.74061,1.10718,0.157432,17,32765
2.78139,1.11295,0.158822,19,32765
2.76649,1.0965,0.156934,17,32765
2.71436,1.0655,0.15289,16,32765
2.75504,1.07117,0.154649,17,32765
2.7586,1.06206,0.154116,16,32765
2.7341,1.04239,0.151611,17,32765
2.70946,1.02297,0.14959,17,32765
2.76895,1.03511,0.151746,16,32765
2.80977,1.04002,0.153444,18,32765
2.85073,1.04446,0.154991,19,32765
2.76973,1.00434,0.149716,17,32765
2.80118,1.00547,0.151079,17,32765
2.80449,0.996296,0.150504,17,32765
2.78883,0.980713,0.149129,17,32765
2.83914,0.988207,0.151159,17,32765
2.71961,0.9366,0.14456,16,32765
2.83608,0.966484,0.150187,18,32765
2.83919,0.957365,0.149903,17,32765
2.85168,0.951567,0.150202,17,32765
2.84519,0.939429,0.149509,18,32765
2.83869,0.927203,0.149158,18,32765
2.82263,0.91201,0.147983,18,32765
2.84455,0.90906,0.14923,17,32765
2.82836,0.894048,0.148242,19,32765
2.85017,0.891141,0.149933,17,32765
2.57892,1.89801,0.225406,17,32765
2.6415,1.93082,0.229824,17,32765
2.60753,1.89283,0.225618,17,32765
2.57336,1.85506,0.221311,17,32765
2.62827,1.88128,0.224968,18,32765
2.63458,1.87253,0.224069,18,32765
2.63267,1.85809,0.222438,16,32765
2.62241,1.83811,0.220039,17,32765
2.57937,1.79528,0.215179,17,32765
2.56883,1.77558,0.212828,17,32765
2.59952,1.78391,0.213948,17,32765
2.655,1.80895,0.21701,18,32765
2.61974,1.77222,0.212389,17,32765
2.60077,1.74692,0.20937,17,32765
2.6315,1.75496,0.210227,17,32765
2.62907,1.74073,0.20854,17,32765
2.6016,1.71003,0.204717,17,32765
2.64076,1.72321,0.206306,18,32765
2.61302,1.69276,0.202651,16,32765
2.61864,1.68419,0.201505,17,32765
2.66627,1.7025,0.203418,18,32765
2.65504,1.68309,0.201242,17,32765
2.60992,1.64253,0.196272,17,32765
2.65771,1.66041,0.198027,18,32765
2.6548,1.64631,0.196421,18,32765
2.66034,1.63752,0.195086,18,32765
2.65741,1.62336,0.193005,18,32765
2.65436,1.60931,0.191298,17,32765
2.60003,1.56428,0.18566,17,32765
2.66529,1.59141,0.189048,18,32765
2.67928,1.58759,0.188159,19,32765
2.61581,1.53818,0.182076,18,32765
2.65551,1.54953,0.183371,17,32765
2.64349,1.5306,0.181213,17,32765
2.62264,1.50692,0.178443,18,32765
2.67112,1.52286,0.180006,19,32765
2.65022,1.49919,0.176828,17,32765
2.6814,1.50501,0.177257,18,32765
2.66905,1.48632,0.174997,19,32765
2.64774,1.46313,0.172177,18,32765
2.66142,1.4591,0.171582,18,32765
2.60496,1.41684,0.166201,18,32765
2.65377,1.43174,0.167422,18,32765
2.68503,1.43696,0.168119,18,32765
2.71631,1.44206,0.16882,18,32765
2.68585,1.41435,0.165622,18,32765
2.65525,1.38686,0.162087,19,32765
2.72201,1.41015,0.164439,18,32765
2.65582,1.36434,0.159031,18,32765
2.69595,1.37371,0.160187,19,32765
2.65599,1.34227,0.156368,18,32765
2.69624,1.3513,0.157058,19,32765
2.68289,1.33348,0.154608,19,32765
2.6785,1.31999,0.152861,18,32765
2.66502,1.30223,0.150909,18,32765
2.66051,1.28882,0.149016,18,32765
2.67387,1.28423,0.148567,18,32765
2.68717,1.27971,0.147905,20,32765
2.71856,1.2836,0.14802,20,32765
2.67759,1.25346,0.144704,19,32765
2.68184,1.24447,0.143709,19,32765
2.68612,1.23534,0.142449,19,32765
2.68115,1.22232,0.140928,19,32765
2.71259,1.22568,0.141282,19,32765
2.71666,1.21676,0.140199,19,32765
2.70245,1.1997,0.138281,20,32765
2.67905,1.1786,0.136019,21,32765
2.72875,1.18972,0.137474,19,32765
2.71441,1.17269,0.135526,20,32765
2.7091,1.15986,0.134138,19,32765
2.75896,1.17037,0.135472,22,32765
2.75367,1.15731,0.134273,21,32765
2.78522,1.15964,0.134777,21,32765
2.70598,1.11613,0.129724,19,32765
2.73743,1.11851,0.130381,21,32765
2.78742,1.12828,0.131802,21,32765
2.73554,1.09673,0.128449,20,32765
2.72987,1.08408,0.127194,20,32765
2.75206,1.08239,0.127161,20,32765
2.7742,1.0807,0.127681,21,32765
2.77779,1.0715,0.127142,21,32765
2.73465,1.0446,0.124065,20,32765
2.7287,1.0322,0.123168,20,32765
2.76952,1.0373,0.123915,20,32765
2.80099,1.03874,0.124818,20,32765
2.81382,1.03289,0.124741,21,32765
2.77971,1.00987,0.122387,20,32765
2.75478,0.990675,0.120989,21,32765
2.76745,0.984988,0.120833,21,32765
2.74233,0.96617,0.119241,20,32765
2.78317,0.970539,0.120398,20,32765
2.81469,0.971149,0.121548,21,32765
2.79892,0.955591,0.120341,20,32765
2.7168,0.917791,0.116408,19,32765
2.77655,0.928207,0.118645,20,32765
2.77949,0.919418,0.118455,19,32765
2.80141,0.9167,0.119408,19,32765
2.82334,0.913902,0.120039,20,32765
2.82625,0.904849,0.120287,20,32765
2.83862,0.898912,0.1207,20,32765
2.80326,0.878046,0.119761,20,32765
2.60552,1.91077,0.240445,15,32765
2.61199,1.90225,0.237794,15,32765
2.5863,1.87006,0.232297,15,32765
2.55226,1.83227,0.226329,14,32765
2.5909,1.84711,0.226957,14,32765
2.61332,1.85029,0.226006,14,32765
2.52159,1.77292,0.215497,14,32765
2.61753,1.82748,0.220991,14,32765
2.55815,1.77332,0.213465,15,32765
2.62992,1.81013,0.216694,16,32765
2.66071,1.8184,0.216673,14,32765
2.59254,1.75915,0.209098,15,32765
2.64818,1.78399,0.210966,15,32765
2.60446,1.74191,0.205241,15,32765
2.58543,1.71671,0.201392,15,32765
2.57454,1.69723,0.198127,14,32765
2.57184,1.68336,0.195811,15,32765
2.61098,1.69661,0.196698,15,32765
2.62501,1.69351,0.195537,16,32765
2.59714,1.66324,0.191336,15,32765
2.52688,1.60655,0.18405,14,32765
2.65042,1.67285,0.190957,16,32765
2.64751,1.65888,0.189038,16,32765
2.58516,1.60816,0.18243,15,32765
2.65852,1.64155,0.18565,16,32765
2.62149,1.60667,0.181072,15,32765
2.63547,1.60311,0.180082,16,32765
2.61524,1.57889,0.176717,15,32765
2.71473,1.62671,0.181597,18,32765
2.59145,1.54121,0.17161,16,32765
2.62238,1.54793,0.171911,16,32765
2.66203,1.55942,0.172885,17,32765
2.62417,1.52542,0.168522,16,32765
2.72446,1.57154,0.17341,17,32765
2.69511,1.54261,0.169803,16,32765
2.59611,1.4745,0.161692,16,32765
2.601,1.46596,0.160697,16,32765
2.64958,1.48158,0.161969,17,32765
2.62843,1.45813,0.159048,17,32765
2.62469,1.44442,0.157058,17,32765
2.59447,1.41657,0.15385,16,32765
2.59915,1.4081,0.152554,15,32765
2.60383,1.39952,0.151689,16,32765
2.59973,1.3862,0.149589,16,32765
2.64854,1.40085,0.151096,17,32765
2.63564,1.38263,0.148842,17,32765
2.64026,1.37385,0.148271,16,32765
2.636,1.36054,0.146063,17,32765
2.66727,1.36538,0.146349,16,32765
2.66294,1.35197,0.145,16,32765
2.65862,1.33851,0.14338,16,32765
2.66314,1.32961,0.142137,17,32765
2.63179,1.30301,0.139392,16,32765
2.68106,1.31616,0.140525,16,32765
2.64962,1.28962,0.137464,17,32765
2.65402,1.28069,0.136143,17,32765
2.68536,1.28477,0.136465,16,32765
2.68065,1.27151,0.135171,18,32765
2.62166,1.2328,0.130786,16,32765
2.63483,1.22835,0.130095,16,32765
2.67522,1.23634,0.130963,17,32765
2.68843,1.23163,0.130604,17,32765
2.61067,1.18556,0.125507,15,32765
2.65111,1.19324,0.126053,16,32765
2.6825,1.19662,0.126008,17,32765
2.65905,1.17567,0.123925,17,32765
2.64472,1.15876,0.121753,16,32765
2.68526,1.16587,0.122593,18,32765
2.63418,1.13308,0.118911,16,32765
2.66562,1.13591,0.118976,17,32765
2.66948,1.12692,0.11808,17,32765
2.71936,1.13733,0.118702,19,32765
2.74161,1.13597,0.118468,18,32765
2.7084,1.11179,0.115853,18,32765
2.71211,1.10283,0.114599,18,32765
2.69724,1.08642,0.112593,18,32765
2.69157,1.07383,0.111166,17,32765
2.70446,1.06855,0.110404,17,32765
2.70799,1.05968,0.109354,17,32765
2.64627,1.02553,0.105611,17,32765
2.65899,1.02043,0.104763,17,32765
2.67171,1.01527,0.10396,18,32765
2.72185,1.02405,0.104657,18,32765
2.75333,1.02562,0.104292,18,32765
2.68168,0.989001,0.100234,17,32765
2.75061,1.00434,0.101576,18,32765
2.76328,0.99887,0.100673,18,32765
2.66305,0.952834,0.0957784,17,32765
2.73219,0.967372,0.0965782,16,32765
2.68827,0.941777,0.0935975,17,32765
2.7291,0.946223,0.0937006,17,32765
2.65648,0.911651,0.0899867,17,32765
2.67831,0.909757,0.0890147,17,32765
2.73808,0.920323,0.0895853,18,32765
2.6842,0.892473,0.0863204,17,32765
2.63963,0.868212,0.0834342,17,32765
2.67086,0.8693,0.0830787,17,32765
2.65458,0.854813,0.0810802,17,32765
2.68587,0.855616,0.0801468,16,32765
2.70778,0.852835,0.0786434,17,32765
2.72002,0.847332,0.0775238,17,32765
2.54072,1.86771,0.204988,17,32765
2.5309,1.84762,0.201119,16,32765
2.51309,1.82148,0.196705,16,32765
2.5842,1.85964,0.199394,18,32765
2.57419,1.83958,0.19591,18,32765
2.59657,1.84282,0.194784,18,32765
2.5293,1.78258,0.187219,18,32765
2.53529,1.77427,0.185106,17,32765
2.52492,1.75445,0.181933,18,32765
2.55551,1.7631,0.181522,18,32765
2.54496,1.74341,0.178388,18,32765
2.49305,1.69564,0.172865,18,32765
2.58983,1.7488,0.177078,18,32765
2.52111,1.69015,0.170271,17,32765
2.49359,1.65963,0.166206,18,32765
2.54915,1.68444,0.167577,18,32765
2.57145,1.68706,0.166994,18,32765
2.52692,1.64584,0.162136,19,32765
2.57432,1.66469,0.16306,18,32765
2.60517,1.67229,0.162944,18,32765
2.54337,1.62081,0.157012,19,32765
2.54034,1.60711,0.154876,19,32765
2.53721,1.59346,0.153103,18,32765
2.59329,1.61697,0.154381,19,32765
2.53929,1.57156,0.149352,18,32765
2.58713,1.58927,0.150255,19,32765
2.56693,1.56503,0.147233,19,32765
2.5722,1.55649,0.14564,19,32765
2.56885,1.54284,0.143761,19,32765
2.56543,1.52923,0.141899,18,32765
2.54472,1.50553,0.13911,18,32765
2.567,1.50719,0.138813,19,32765
2.5376,1.47846,0.135433,18,32765
2.56853,1.48497,0.135672,18,32765
2.53022,1.45153,0.132067,18,32765
2.59588,1.47772,0.133671,19,32765
2.5225,1.42494,0.12868,18,32765
2.63193,1.47504,0.132596,19,32765
2.60203,1.44674,0.129529,19,32765
2.54575,1.40414,0.125066,18,32765
2.55922,1.40047,0.124395,18,32765
2.64287,1.435,0.126909,20,32765
2.60366,1.40257,0.123934,20,32765
2.61719,1.39863,0.122751,19,32765
2.58659,1.37114,0.120092,19,32765
2.60896,1.37168,0.119675,19,32765
2.56925,1.33987,0.117088,17,32765
2.61812,1.35431,0.117406,18,32765
2.64047,1.35466,0.117023,19,32765
2.6272,1.33678,0.115383,19,32765
2.57822,1.3009,0.111933,19,32765
2.58262,1.29225,0.110726,19,32765
2.5959,1.28807,0.110281,19,32765
2.64512,1.30137,0.11096,20,32765
2.64057,1.28804,0.109404,19,32765
2.55499,1.2356,0.104409,18,32765
2.57717,1.2357,0.104123,18,32765
2.58132,1.22707,0.103315,19,32765
2.61258,1.23121,0.103202,19,32765
2.62574,1.22678,0.10242,20,32765
2.61172,1.20962,0.100812,19,32765
2.5885,1.18842,0.0989876,19,32765
2.61066,1.18812,0.0985544,19,32765
2.642,1.19171,0.0983838,19,32765
2.59126,1.15842,0.095047,19,32765
2.61337,1.15796,0.0949313,19,32765
2.59898,1.14117,0.092968,20,32765
2.62113,1.14047,0.0927958,19,32765
2.58831,1.11574,0.0903452,20,32765
2.63808,1.12658,0.0907793,20,32765
2.67872,1.13324,0.0911439,21,32765
2.66409,1.11659,0.0891312,20,32765
2.65858,1.10392,0.0878137,20,32765
2.64374,1.08756,0.086207,21,32765
2.64737,1.07879,0.0849806,21,32765
2.61388,1.05508,0.0826046,20,32765
2.65451,1.06129,0.0827492,19,32765
2.67665,1.05981,0.0821926,20,32765
2.65223,1.04006,0.0803064,20,32765
2.63703,1.02411,0.0786331,20,32765
2.64041,1.01544,0.0774202,20,32765
2.64376,1.00677,0.0762604,20,32765
2.65646,1.00156,0.0754347,19,32765
2.70659,1.01034,0.0753414,19,32765
2.63489,0.973791,0.0720552,19,32765
2.63805,0.965271,0.0709886,20,32765
2.62239,0.949936,0.0692958,18,32765
2.67255,0.958246,0.0694042,19,32765
2.64749,0.939355,0.067149,20,32765
2.65063,0.930544,0.0658504,19,32765
2.62532,0.912153,0.0639815,20,32765
2.70385,0.929855,0.0646813,19,32765
2.68786,0.914922,0.0626094,20,32765
2.67185,0.89995,0.0608824,20,32765
2.66532,0.888058,0.0592701,20,32765
2.71568,0.895104,0.0589231,20,32765
2.64244,0.861855,0.0560312,20,32765
2.66418,0.859707,0.0550208,20,32765
2.68595,0.857442,0.0536073,20,32765
2.66018,0.839609,0.0510004,21,32765
2.66282,0.831265,0.0496321,20,32765
2.47077,1.81467,0.164769,14,32765
2.54932,1.85957,0.16903,15,32765
2.54737,1.84532,0.167941,15,32765
2.5535,1.83689,0.16729,16,32765
2.47846,1.77028,0.160858,14,32765
2.54946,1.80832,0.164611,16,32765
2.49825,1.75977,0.159935,16,32765
2.50409,1.75155,0.158806,16,32765
2.46072,1.70908,0.154635,16,32765
2.47472,1.70649,0.1541,15,32765
2.51333,1.72093,0.15509,16,32765
2.5108,1.707,0.15374,15,32765
2.59926,1.7546,0.157656,16,32765
2.5221,1.69047,0.151415,15,32765
2.60257,1.73191,0.154932,16,32765
2.525,1.66827,0.148812,17,32765
2.58898,1.69834,0.151181,15,32765
2.47744,1.6135,0.143258,16,32765
2.59188,1.67578,0.1483,15,32765
2.61438,1.67786,0.148044,16,32765
2.53576,1.6155,0.141963,15,32765
2.49899,1.58035,0.138477,16,32765
2.50426,1.57208,0.137234,16,32765
2.51802,1.56902,0.136591,16,32765
2.54028,1.57112,0.136526,16,32765
2.537,1.55753,0.134694,16,32765
2.51655,1.53363,0.132135,16,32765
2.52171,1.52524,0.130957,16,32765
2.50968,1.50658,0.128812,15,32765
2.55772,1.5237,0.129685,16,32765
2.55427,1.51004,0.128019,16,32765
2.59381,1.52175,0.128533,16,32765
2.52982,1.47297,0.123686,16,32765
2.44826,1.41454,0.118435,16,32765
2.57432,1.47603,0.122902,16,32765
2.57058,1.46255,0.121077,16,32765
2.54936,1.4393,0.118763,16,32765
2.48449,1.39169,0.114196,16,32765
2.58527,1.43674,0.117321,17,32765
2.6077,1.43759,0.116734,16,32765
2.61256,1.42883,0.115585,17,32765
2.54709,1.382,0.111368,16,32765
2.52533,1.3593,0.109123,15,32765
2.57388,1.37459,0.109818,16,32765
2.56965,1.36134,0.108261,17,32765
2.53003,1.32947,0.105158,16,32765
2.62316,1.36715,0.107381,16,32765
2.53019,1.30777,0.10195,15,32765
2.59684,1.33121,0.103393,15,32765
2.59244,1.31796,0.101579,16,32765
2.57011,1.29576,0.0996517,15,32765
2.53875,1.26923,0.0968929,16,32765
2.5252,1.25172,0.0947632,16,32765
2.52941,1.24324,0.0938433,16,32765
2.50666,1.22163,0.0915136,15,32765
2.57376,1.24367,0.0928899,17,32765
2.61396,1.25243,0.0929174,17,32765
2.48279,1.1793,0.0867076,16,32765
2.6043,1.22635,0.089945,17,32765
2.58129,1.20487,0.0879766,16,32765
2.58534,1.19625,0.0867588,16,32765
2.5348,1.1627,0.0837317,17,32765
2.62965,1.1957,0.0856413,17,32765
2.61543,1.17871,0.0841436,17,32765
2.59197,1.1578,0.082315,18,32765
2.55011,1.12902,0.0798609,17,32765
2.56302,1.12458,0.0791106,17,32765
2.57594,1.12005,0.0783778,16,32765
2.59801,1.11944,0.0780495,17,32765
2.60176,1.11076,0.0771181,17,32765
2.62396,1.1097,0.076886,17,32765
2.64613,1.10864,0.0763776,18,32765
2.59445,1.0768,0.0737617,17,32765
2.60725,1.07204,0.0733299,16,32765
2.62006,1.0672,0.072776,18,32765
2.60496,1.05129,0.07144,18,32765
2.58054,1.03165,0.0699547,18,32765
2.57463,1.01953,0.0688669,17,32765
2.61521,1.02566,0.069161,17,32765
2.58133,1.00252,0.0675542,18,32765
2.62193,1.00846,0.0677504,18,32765
2.61593,0.99621,0.0668997,17,32765
2.64727,0.998188,0.0671004,18,32765
2.60373,0.971953,0.0655025,17,32765
2.65384,0.980656,0.0659425,17,32765
2.60072,0.951368,0.0637905,19,32765
2.57561,0.932689,0.0627864,17,32765
2.60685,0.934498,0.0628688,17,32765
2.63814,0.936078,0.0631954,18,32765
2.62231,0.920871,0.0623189,17,32765
2.65365,0.922148,0.0623786,17,32765
2.58103,0.887427,0.0604637,17,32765
2.66905,0.90811,0.0623858,18,32765
2.6246,0.883556,0.0608296,18,32765
2.63692,0.878266,0.06071,18,32765
2.62074,0.863532,0.0601095,18,32765
2.68053,0.87371,0.0614336,18,32765
2.60717,0.840663,0.0593752,18,32765
2.60979,0.832495,0.0597356,17,32765
2.63149,0.830211,0.0601314,17,32765
2.67221,0.833958,0.0616651,16,32765
2.42134,1.78308,0.133443,18,32765
2.41913,1.76926,0.132456,17,32765
2.40072,1.74367,0.130606,17,32765
2.43083,1.75323,0.131302,17,32765
2.50987,1.7974,0.134102,18,32765
2.49953,1.77753,0.132773,18,32765
2.4564,1.73479,0.129198,18,32765
2.47035,1.73242,0.128509,18,32765
2.45153,1.7071,0.126176,18,32765
2.50662,1.73294,0.127641,18,32765
2.47117,1.69641,0.124505,18,32765
2.47682,1.68821,0.123672,18,32765
2.47416,1.67442,0.12217,18,32765
2.43824,1.63842,0.118944,18,32765
2.46033,1.64142,0.118838,18,32765
2.49079,1.64983,0.118885,17,32765
2.4378,1.60321,0.115091,17,32765
2.47659,1.61701,0.115571,18,32765
2.49877,1.61965,0.115143,18,32765
2.49586,1.60582,0.113593,18,32765
2.46757,1.57599,0.110775,18,32765
2.50663,1.58914,0.111153,19,32765
2.48656,1.56486,0.108792,19,32765
2.50877,1.56714,0.108427,19,32765
2.44609,1.51662,0.104546,18,32765
2.49369,1.53473,0.105006,19,32765
2.49022,1.52134,0.103454,18,32765
2.50389,1.51819,0.102636,19,32765
2.49184,1.49956,0.100684,19,32765
2.52268,1.50652,0.100412,18,32765
2.50198,1.48275,0.0981797,18,32765
2.48111,1.4592,0.0960071,18,32765
2.5464,1.48625,0.0968978,19,32765
2.49951,1.44767,0.0938727,18,32765
2.47834,1.42445,0.0915563,18,32765
2.50047,1.42612,0.0908203,19,32765
2.48783,1.40797,0.089127,18,32765
2.51002,1.4094,0.0884098,19,32765
2.50605,1.39609,0.0868564,19,32765
2.5021,1.3827,0.0852279,19,32765
2.5243,1.38389,0.0847108,19,32765
2.49382,1.35635,0.0824409,19,32765
2.55994,1.38125,0.0833631,20,32765
2.5028,1.33983,0.0801819,19,32765
2.49846,1.3268,0.0787496,18,32765
2.51179,1.32304,0.0777916,19,32765
2.46311,1.28681,0.0747799,19,32765
2.50303,1.29681,0.0744288,19,32765
2.4985,1.28384,0.0731414,18,32765
2.50284,1.27544,0.07173,19,32765
2.51606,1.27153,0.0711212,18,32765
2.52931,1.26751,0.0700014,19,32765
2.59632,1.29003,0.0702424,19,32765
2.51099,1.23711,0.0669049,18,32765
2.51517,1.22867,0.0655667,19,32765
2.5283,1.22458,0.0648952,20,32765
2.55941,1.22918,0.0643407,19,32765
2.55455,1.21624,0.0626676,19,32765
2.54959,1.20341,0.0616006,20,32765
2.51745,1.17783,0.0597188,20,32765
2.53954,1.17781,0.0589501,20,32765
2.58887,1.19028,0.0587744,20,32765
2.52004,1.14854,0.0560765,19,32765
2.52389,1.1401,0.0552011,19,32765
2.55506,1.14397,0.0548614,20,32765
2.57712,1.14363,0.0542358,19,32765
2.54432,1.11897,0.0524355,19,32765
2.53888,1.1065,0.0512442,20,32765
2.55173,1.10205,0.0505569,21,32765
2.55542,1.0935,0.0496402,21,32765
2.57756,1.0926,0.049232,20,32765
2.55357,1.07233,0.0476913,20,32765
2.54794,1.05993,0.0465164,20,32765
2.57917,1.06293,0.0463333,21,32765
2.58269,1.05439,0.0455291,21,32765
2.56755,1.03857,0.0443912,20,32765
2.60807,1.04504,0.0443,20,32765
2.56503,1.01805,0.042677,21,32765
2.54046,0.998621,0.041531,20,32765
2.58104,1.00469,0.0415156,22,32765
2.57499,0.992665,0.0405986,21,32765
2.59697,0.991236,0.0402859,21,32765
2.56281,0.968536,0.039205,21,32765
2.57538,0.963546,0.0389385,21,32765
2.57857,0.954997,0.0382197,21,32765
2.60986,0.956869,0.0378784,21,32765
2.59417,0.94153,0.0372888,20,32765
2.5878,0.929758,0.0365516,21,32765
2.61907,0.931401,0.036597,21,32765
2.55608,0.899625,0.0352596,20,32765
2.61567,0.910986,0.0354347,21,32765
2.62811,0.905633,0.0354195,21,32765
2.63102,0.897163,0.0353478,21,32765
2.58653,0.872677,0.0342671,20,32765
2.6747,0.892826,0.0350513,21,32765
2.64908,0.874802,0.0345114,22,32765
2.59485,0.84765,0.0337846,21,32765
2.62608,0.848625,0.0338366,21,32765
2.64777,0.846468,0.034446,21,32765
2.65046,0.838028,0.0344042,20,32765
2.67213,0.835752,0.0353125,21,32765
2.5205,1.84962,0.151245,15,32765
2.53492,1.84704,0.149026,15,32765
2.47643,1.79179,0.142696,16,32765
2.42569,1.74281,0.136932,15,32765
2.46402,1.7581,0.136454,16,32765
2.46981,1.75012,0.134118,16,32765
2.4593,1.73054,0.131134,17,32765
2.48144,1.73391,0.130039,16,32765
2.44643,1.69693,0.125803,16,32765
2.48519,1.7113,0.125278,16,32765
2.43323,1.66356,0.120244,15,32765
2.48009,1.68364,0.120445,16,32765
2.46071,1.65892,0.117551,15,32765
2.47448,1.65647,0.115972,16,32765
2.50499,1.66488,0.115301,16,32765
2.45221,1.61801,0.110842,16,32765
2.47441,1.62075,0.109832,15,32765
2.40441,1.56357,0.104748,15,32765
2.48519,1.60441,0.106205,16,32765
2.47368,1.58548,0.103884,17,32765
2.4536,1.56133,0.101132,16,32765
2.51797,1.59053,0.102128,17,32765
2.49783,1.56636,0.0992426,17,32765
2.52851,1.57395,0.0986304,17,32765
2.49974,1.54458,0.0957928,16,32765
2.49634,1.53113,0.0940313,17,32765
2.46731,1.50206,0.0911073,15,32765
2.4638,1.48866,0.0894649,17,32765
2.43453,1.45985,0.086703,16,32765
2.44799,1.45688,0.0855781,16,32765
2.50447,1.47929,0.0860275,17,32765
2.49218,1.46085,0.0839239,16,32765
2.54022,1.47777,0.0840667,16,32765
2.44993,1.41436,0.0795688,16,32765
2.54147,1.45576,0.0811716,16,32765
2.48553,1.41269,0.0777102,17,32765
2.46416,1.38963,0.0755917,16,32765
2.46009,1.37655,0.073849,17,32765
2.46473,1.36829,0.0727067,16,32765
2.44299,1.34569,0.0706715,17,32765
2.43,1.32786,0.0691298,17,32765
2.46956,1.3389,0.068598,18,32765
2.40366,1.29267,0.0657216,16,32765
2.4609,1.31289,0.0661369,16,32765
2.49177,1.31876,0.0657724,16,32765
2.40773,1.26388,0.0620728,17,32765
2.54505,1.32499,0.0635314,17,32765
2.46058,1.27075,0.0601299,17,32765
2.5094,1.28519,0.060255,18,32765
2.50485,1.27216,0.058661,16,32765
2.4824,1.25014,0.0569697,16,32765
2.50452,1.25068,0.0563658,16,32765
2.49973,1.2379,0.0552384,16,32765
2.54875,1.25157,0.0551196,16,32765
2.44506,1.19054,0.0518184,16,32765
2.57515,1.24313,0.0532221,16,32765
2.48917,1.19125,0.0508217,18,32765
2.55647,1.21272,0.0516583,18,32765
2.50626,1.17862,0.0490268,17,32765
2.47397,1.15331,0.0473218,16,32765
2.46875,1.14086,0.0459453,16,32765
2.48162,1.13684,0.0453212,16,32765
2.51273,1.14097,0.0445831,17,32765
2.58038,1.16127,0.0446256,15,32765
2.52035,1.1241,0.0426743,16,32765
2.45097,1.08329,0.0405088,17,32765
2.50042,1.09507,0.0400406,18,32765
2.48575,1.07873,0.0386985,17,32765
2.48936,1.07042,0.0375917,18,32765
2.51132,1.06997,0.036819,18,32765
2.54253,1.07324,0.0362044,19,32765
2.52763,1.05712,0.0347738,18,32765
2.50345,1.03719,0.0331745,18,32765
2.4884,1.02124,0.0318145,17,32765
2.51957,1.02429,0.0311882,18,32765
2.55078,1.02719,0.0303549,18,32765
2.52636,1.00752,0.0288753,18,32765
2.55756,1.01026,0.0278045,18,32765
2.51438,0.983461,0.0261829,17,32765
2.54558,0.986047,0.0255144,18,32765
2.48347,0.952574,0.0237566,16,32765
2.58945,0.983399,0.0235363,18,32765
2.53646,0.953936,0.021739,17,32765
2.52081,0.938709,0.0205166,17,32765
2.54257,0.937577,0.0196568,18,32765
2.60195,0.949941,0.0187582,19,32765
2.53923,0.917617,0.0171047,18,32765
2.56106,0.916042,0.0159552,18,32765
2.53584,0.897457,0.0144456,18,32765
2.54821,0.892439,0.0134973,19,32765
2.54165,0.880886,0.0118868,17,32765
2.57289,0.88235,0.0109337,18,32765
2.62305,0.890178,0.00975687,18,32765
2.58798,0.869023,0.00823128,18,32765
2.60021,0.863969,0.00681284,17,32765
2.53648,0.833748,0.0052878,18,32765
2.54862,0.828805,0.00373857,19,32765
2.55124,0.82071,0.00225045,18,32765
2.611,0.830838,0.000655979,19,32765
2.61357,0.822715,-0.000825425,19,32765
2.56836,0.799767,-0.0025454,18,32765
2.41451,1.77664,0.116956,17,32765
2.40446,1.75673,0.11361,17,32765
2.41039,1.74873,0.11114,18,32765
2.43249,1.75243,0.109376,18,32765
2.42206,1.73284,0.106372,18,32765
2.37888,1.69024,0.101977,16,32765
2.42533,1.71124,0.101649,18,32765
2.45557,1.72047,0.100727,20,32765
2.42053,1.68349,0.0969764,18,32765
2.36052,1.62982,0.0922402,17,32765
2.41548,1.65586,0.0920502,17,32765
2.42098,1.64792,0.0902537,17,32765
2.43461,1.64572,0.0888868,18,32765
2.36533,1.58764,0.0842746,17,32765
2.42887,1.61859,0.0845583,18,32765
2.42597,1.60497,0.0825071,18,32765
2.38127,1.5639,0.0791051,18,32765
2.47021,1.61064,0.080085,18,32765
2.41684,1.56443,0.0764033,19,32765
2.42201,1.55649,0.0748302,18,32765
2.45241,1.56471,0.0739152,19,32765
2.43231,1.54049,0.0717621,18,32765
2.42047,1.52187,0.0694613,18,32765
2.46795,1.54031,0.0690899,19,32765
2.47308,1.53213,0.0675892,18,32765
2.39299,1.4716,0.0638872,18,32765
2.44057,1.48969,0.0633984,18,32765
2.39427,1.45044,0.0607756,18,32765
2.50197,1.50423,0.0618158,20,32765
2.39538,1.4293,0.0576613,19,32765
2.45175,1.45193,0.0575746,19,32765
2.38765,1.40323,0.0545067,18,32765
2.47003,1.44067,0.0550017,19,32765
2.44022,1.41242,0.0528824,19,32765
2.43635,1.39916,0.0515332,19,32765
2.45842,1.4009,0.0503914,19,32765
2.40221,1.3582,0.0478717,19,32765
2.41547,1.35508,0.0465935,20,32765
2.43751,1.35668,0.0457975,19,32765
2.43325,1.34378,0.0443739,19,32765
2.42903,1.33074,0.0431769,19,32765
2.45101,1.33225,0.0419674,19,32765
2.48192,1.33818,0.0414624,19,32765
2.45994,1.31574,0.03999,20,32765
2.42899,1.28882,0.0383655,20,32765
2.45105,1.28991,0.03725,19,32765
2.44657,1.27697,0.0352244,19,32765
2.45077,1.26891,0.0340388,19,32765
2.45509,1.26058,0.0330967,20,32765
2.42372,1.23409,0.0312789,19,32765
2.41901,1.22131,0.0301236,20,32765
2.44103,1.22206,0.0293553,19,32765
2.48988,1.23615,0.0289681,20,32765
2.44916,1.20572,0.0273793,21,32765
2.45319,1.19752,0.0264014,20,32765
2.46625,1.19356,0.0252857,20,32765
2.45226,1.17654,0.0245673,20,32765
2.45628,1.16812,0.0241302,20,32765
2.44212,1.15133,0.0224536,20,32765
2.4641,1.15159,0.0216246,20,32765
2.49516,1.15596,0.0206448,20,32765
2.499,1.14766,0.019844,21,32765
2.45732,1.1186,0.0182721,20,32765
2.4793,1.11857,0.0173597,21,32765
2.45566,1.09798,0.0163403,20,32765
2.48678,1.10186,0.0155782,20,32765
2.51797,1.1055,0.0145153,20,32765
2.52167,1.09704,0.0134492,21,32765
2.51615,1.08463,0.0122794,21,32765
2.47378,1.05659,0.0110189,20,32765
2.49573,1.0561,0.0100984,21,32765
2.47155,1.03623,0.00884215,20,32765
2.53965,1.05479,0.00783492,22,32765
2.51543,1.03489,0.0066201,21,32765
2.52811,1.03031,0.00565807,21,32765
2.45732,0.991999,0.00435624,20,32765
2.49778,0.998585,0.00328455,20,32765
2.51964,0.997744,0.0019384,21,32765
2.47644,0.971013,0.000801516,19,32765
2.54487,0.988207,-0.000138426,21,32765
2.49212,0.958251,-0.00124469,20,32765
2.48594,0.946418,-0.00239645,20,32765
2.52641,0.952501,-0.00371661,21,32765
2.48265,0.92678,-0.0046954,19,32765
2.5325,0.936168,-0.00579405,21,32765
2.47917,0.907347,-0.00693788,19,32765
2.52914,0.916228,-0.00824575,21,32765
2.52271,0.904555,-0.00947397,20,32765
2.53515,0.899432,-0.0108442,21,32765
2.49092,0.874528,-0.0116239,20,32765
2.50319,0.869699,-0.0132064,20,32765
2.51546,0.864789,-0.0143193,21,32765
2.51821,0.856715,-0.0156436,20,32765
2.5399,0.85499,-0.0171218,21,32765
2.53311,0.843758,-0.0184706,21,32765
2.5263,0.832462,-0.0197485,22,32765
2.54794,0.83064,-0.0214671,21,32765
2.53152,0.81639,-0.022785,21,32765
2.5436,0.811408,-0.0244745,22,32765
2.5175,0.79445,-0.0256279,21,32765
2.52947,0.789627,-0.0274351,21,32765
2.35151,1.72926,0.0804225,15,32765
2.38145,1.73917,0.0806463,16,32765
2.40341,1.743,0.0803868,16,32765
2.33617,1.68247,0.0772815,15,32765
2.39067,1.70944,0.0780424,16,32765
2.32297,1.64946,0.0748021,16,32765
2.32017,1.63616,0.0735099,15,32765
