x, y, z, intensity, ring
1.6325,0.924572,0.228503,18,32765
1.6356,0.919215,0.227958,19,32765
1.64734,0.918723,0.228479,17,32765
1.61573,0.894084,0.222775,17,32765
1.62745,0.893502,0.223529,17,32765
1.67411,0.911815,0.228827,18,32765
1.65101,0.892104,0.22456,18,32765
1.60153,0.858463,0.216884,16,32765
1.63074,0.867175,0.219725,17,32765
1.55465,0.820082,0.208368,17,32765
1.6542,0.865633,0.220654,19,32765
1.59545,0.828105,0.211858,18,32765
1.61595,0.831856,0.213612,18,32765
1.58343,0.808375,0.208314,19,32765
1.57736,0.798573,0.206445,18,32765
1.64224,0.824513,0.213808,20,32765
1.57391,0.783675,0.203859,19,32765
1.6478,0.813675,0.212601,20,32765
1.61489,0.790722,0.207373,19,32765
1.60867,0.780993,0.205529,19,32765
1.61135,0.775584,0.204978,20,32765
1.5871,0.757396,0.200896,19,32765
1.58965,0.752201,0.200228,19,32765
1.60115,0.751244,0.20086,19,32765
1.59466,0.741818,0.199167,18,32765
1.60618,0.740727,0.199732,18,32765
1.59967,0.731275,0.197968,17,32765
1.61118,0.730091,0.198621,17,32765
1.5865,0.712451,0.194718,16,32765
1.62527,0.723277,0.198662,16,32765
1.60043,0.705849,0.194905,17,32765
1.55727,0.680733,0.18871,17,32765
1.55041,0.671719,0.187164,18,32765
1.57094,0.674441,0.188906,19,32765
1.56409,0.665296,0.187395,20,32765
1.59384,0.671648,0.190169,21,32765
1.60529,0.670145,0.190927,20,32765
1.56159,0.645915,0.185023,20,32765
1.59133,0.652147,0.18782,20,32765
1.59346,0.646999,0.187536,21,32765
1.58639,0.638088,0.185998,20,32765
1.61621,0.643988,0.188816,20,32765
1.58133,0.624148,0.184234,20,32765
1.57414,0.615375,0.182757,20,32765
1.61325,0.624595,0.186825,21,32765
1.60601,0.615841,0.185384,21,32765
1.56158,0.592934,0.179704,19,32765
1.56351,0.58788,0.1795,18,32765
0,0,0,0,32765
1.60471,0.59138,0.183249,17,32765
1.59731,0.582776,0.181882,20,32765
1.60858,0.580956,0.18265,22,32765
1.62918,0.58246,0.184718,22,32765
1.59357,0.563885,0.180426,22,32765
1.58605,0.555416,0.179087,21,32765
1.58784,0.550292,0.17898,20,32765
1.58961,0.545204,0.178863,21,32765
1.61017,0.546554,0.180878,21,32765
1.59305,0.535075,0.178844,21,32765
1.61364,0.536253,0.180819,21,32765
1.58701,0.521808,0.177525,20,32765
1.59806,0.519941,0.178803,22,32765
1.60912,0.518037,0.179918,21,32765
1.57283,0.500859,0.175937,20,32765
1.59341,0.501688,0.178208,20,32765
1.66996,1.23067,0.254502,17,32765
1.65011,1.20743,0.250693,18,32765
1.67017,1.21365,0.252941,18,32765
1.63384,1.17927,0.246555,17,32765
1.64566,1.17992,0.247371,18,32765
1.66575,1.18606,0.249275,18,32765
1.64539,1.16337,0.245297,18,32765
1.6493,1.15792,0.244833,17,32765
1.66131,1.15817,0.245513,18,32765
1.6733,1.15842,0.246245,17,32765
1.66896,1.14732,0.244569,17,32765
1.63176,1.11392,0.238014,17,32765
1.60263,1.08627,0.232626,16,32765
1.6063,1.08095,0.232081,16,32765
1.65122,1.1032,0.237515,18,32765
1.64675,1.09216,0.235624,18,32765
1.62554,1.07033,0.231553,17,32765
1.61246,1.05417,0.228677,18,32765
1.62428,1.05432,0.229351,19,32765
1.59436,1.02756,0.224113,18,32765
1.6229,1.03838,0.227026,20,32765
1.62639,1.03306,0.226371,19,32765
1.59625,1.00654,0.221091,19,32765
1.62488,1.01712,0.223913,19,32765
1.62826,1.01181,0.22339,19,32765
1.62326,1.00117,0.221569,19,32765
1.59281,0.974986,0.216238,18,32765
1.60465,0.974774,0.216813,19,32765
1.60797,0.969464,0.216054,18,32765
1.59416,0.953982,0.213254,17,32765
1.64003,0.974155,0.218428,18,32765
1.61761,0.953701,0.214237,19,32765
1.62083,0.948347,0.213636,19,32765
1.60691,0.932941,0.210632,19,32765
1.60151,0.922552,0.208929,18,32765
1.62193,0.927052,0.210539,19,32765
1.61643,0.916809,0.208603,19,32765
1.61084,0.90662,0.206949,20,32765
1.62255,0.906209,0.207386,20,32765
1.63433,0.905685,0.207591,19,32765
1.62868,0.895464,0.206041,20,32765
1.61429,0.880499,0.203182,20,32765
1.60855,0.870406,0.201409,20,32765
1.61151,0.865042,0.200858,20,32765
1.58812,0.845706,0.196887,19,32765
1.58221,0.8358,0.19506,19,32765
1.59383,0.835215,0.195504,20,32765
1.60549,0.834489,0.196,20,32765
1.61719,0.83366,0.196488,21,32765
1.60235,0.819177,0.193704,20,32765
1.56971,0.795803,0.188721,19,32765
1.60798,0.808427,0.192245,19,32765
1.58403,0.789801,0.18835,19,32765
1.61342,0.797794,0.191062,19,32765
1.60721,0.788042,0.189378,19,32765
1.59203,0.77397,0.186582,19,32765
1.60365,0.772924,0.187081,20,32765
1.62424,0.776165,0.188489,21,32765
1.5909,0.753804,0.183654,20,32765
1.5934,0.748612,0.183157,20,32765
1.59591,0.743392,0.182591,20,32765
1.58939,0.733956,0.181005,20,32765
1.60997,0.736961,0.182415,20,32765
1.6034,0.727521,0.180926,20,32765
1.57868,0.709872,0.177307,20,32765
1.59021,0.7086,0.177829,21,32765
1.5926,0.70331,0.177403,21,32765
1.56762,0.686146,0.173699,21,32765
1.6064,0.696878,0.17728,21,32765
1.60875,0.691563,0.176808,21,32765
1.57449,0.670577,0.172374,20,32765
1.58595,0.669172,0.172864,21,32765
1.57903,0.660019,0.171535,21,32765
1.59042,0.658669,0.172075,21,32765
1.55579,0.63838,0.167638,21,32765
1.59475,0.648327,0.171321,21,32765
1.56922,0.631959,0.167901,21,32765
1.5713,0.626866,0.167486,21,32765
1.58261,0.625419,0.168204,21,32765
1.56615,0.612998,0.165838,21,32765
1.59601,0.618667,0.168552,21,32765
1.57016,0.602817,0.165253,22,32765
1.59077,0.604738,0.16688,21,32765
1.5648,0.589061,0.163748,20,32765
1.56675,0.583948,0.163428,20,32765
1.5967,0.589116,0.166149,19,32765
1.56123,0.570276,0.161967,18,32765
1.57247,0.568571,0.162648,22,32765
1.57431,0.563486,0.162593,21,32765
1.57614,0.558349,0.162548,22,32765
1.57798,0.553214,0.162272,22,32765
1.57977,0.548106,0.162164,23,32765
1.56271,0.536569,0.160118,23,32765
1.57384,0.534806,0.160983,23,32765
1.57553,0.529766,0.161064,22,32765
1.58668,0.52786,0.161889,23,32765
1.56,0.513474,0.158878,23,32765
1.57104,0.511687,0.160058,23,32765
1.57261,0.506811,0.160113,22,32765
1.56471,0.498785,0.1594,22,32765
1.5853,0.499642,0.161482,23,32765
1.67913,1.23315,0.264297,17,32765
1.6595,1.20995,0.258801,16,32765
1.62363,1.17525,0.251044,16,32765
1.67601,1.20469,0.257114,17,32765
1.68815,1.20507,0.257039,16,32765
1.69225,1.19964,0.255426,16,32765
1.65578,1.16553,0.248084,16,32765
1.64348,1.14874,0.244472,16,32765
1.66367,1.15473,0.24578,17,32765
1.62675,1.12113,0.23843,17,32765
1.6797,1.14945,0.244693,15,32765
1.65079,1.12163,0.238635,16,32765
1.67933,1.13285,0.241024,16,32765
1.62548,1.08861,0.231612,16,32765
1.70366,1.13269,0.241162,16,32765
1.64954,1.08872,0.231948,17,32765
1.63664,1.07236,0.228786,17,32765
1.65692,1.07788,0.229956,17,32765
1.6355,1.05634,0.225583,19,32765
1.64739,1.05646,0.225569,17,32765
1.62576,1.03514,0.221357,18,32765
1.62924,1.02986,0.220427,18,32765
1.60746,1.00871,0.216037,18,32765
1.64459,1.0245,0.219641,18,32765
1.63961,1.01386,0.217611,19,32765
1.65152,1.01362,0.218123,17,32765
1.66346,1.01331,0.218398,17,32765
1.6414,0.992398,0.214121,18,32765
1.63621,0.9819,0.212315,16,32765
1.59686,0.951058,0.206015,16,32765
1.60866,0.950855,0.206106,17,32765
1.62047,0.950571,0.206377,18,32765
1.64949,0.960199,0.208813,19,32765
1.62686,0.939911,0.204926,18,32765
1.56967,0.899935,0.196576,18,32765
1.63319,0.929202,0.20341,19,32765
1.60171,0.904277,0.198277,18,32765
1.63082,0.913545,0.20068,19,32765
1.65125,0.91784,0.202347,18,32765
1.59342,0.878801,0.193967,18,32765
1.63124,0.892668,0.197751,19,32765
1.62548,0.882599,0.196075,19,32765
1.61095,0.867795,0.193326,18,32765
1.63143,0.871848,0.194707,19,32765
1.59925,0.84776,0.190017,19,32765
1.65495,0.870226,0.195527,19,32765
1.64027,0.855501,0.192952,19,32765
1.61672,0.836287,0.189068,18,32765
1.62843,0.835381,0.189625,18,32765
1.66675,0.847968,0.193104,18,32765
1.58084,0.797587,0.182179,18,32765
1.60139,0.801144,0.183614,17,32765
1.5417,0.764899,0.176002,17,32765
1.57106,0.772964,0.178565,18,32765
1.58262,0.77212,0.178994,19,32765
1.62106,0.784248,0.182301,20,32765
1.58787,0.761591,0.177609,19,32765
1.58145,0.752069,0.176129,18,32765
1.566,0.738315,0.173597,18,32765
1.60456,0.749969,0.176974,21,32765
1.58001,0.732103,0.173518,19,32765
1.58249,0.726897,0.172752,19,32765
1.60305,0.729903,0.174251,20,32765
1.56923,0.708242,0.169716,19,32765
1.63526,0.731454,0.175809,21,32765
1.59223,0.705869,0.170446,20,32765
1.60377,0.704525,0.170814,20,32765
1.62441,0.707132,0.172254,19,32765
1.59025,0.68598,0.167706,19,32765
1.58343,0.676759,0.166232,19,32765
1.58575,0.671477,0.165528,20,32765
1.59723,0.670022,0.16595,21,32765
1.57195,0.65323,0.162325,20,32765
1.57413,0.648069,0.161886,20,32765
1.57631,0.642927,0.161238,20,32765
1.56923,0.634058,0.159609,20,32765
1.58057,0.632661,0.160144,20,32765
1.61971,0.642166,0.163282,20,32765
1.56625,0.615036,0.157085,20,32765
1.59616,0.620771,0.159115,21,32765
1.58895,0.611974,0.157565,20,32765
1.6096,0.613899,0.158824,21,32765
1.59301,0.601648,0.156321,20,32765
1.59502,0.596474,0.155708,20,32765
1.68109,0.622338,0.163178,14,32765
1.56165,0.572223,0.150677,19,32765
1.61041,0.584061,0.154464,21,32765
1.5936,0.572152,0.151962,22,32765
1.54858,0.550286,0.146885,21,32765
1.61619,0.568466,0.15227,22,32765
1.57102,0.546896,0.147266,21,32765
1.62935,0.561326,0.15181,23,32765
1.58404,0.540107,0.146623,22,32765
1.60465,0.541585,0.14762,22,32765
1.56861,0.523904,0.143434,21,32765
1.57981,0.521991,0.143605,21,32765
1.58159,0.516849,0.142636,19,32765
1.57381,0.508772,0.140923,20,32765
1.58491,0.507068,0.140868,20,32765
1.60551,0.508291,0.141649,20,32765
1.59766,0.500342,0.139772,20,32765
1.68002,1.23598,0.244709,19,32765
1.6684,1.21858,0.240648,18,32765
1.64861,1.19543,0.235647,17,32765
1.66077,1.19583,0.23542,17,32765
1.62439,1.16159,0.228444,17,32765
1.65264,1.17361,0.230277,17,32765
1.67289,1.17963,0.231289,18,32765
1.67691,1.17416,0.230084,18,32765
1.66455,1.15735,0.226736,19,32765
1.62761,1.12368,0.21985,18,32765
1.63961,1.12395,0.22005,18,32765
1.63523,1.11299,0.217677,18,32765
1.58139,1.06863,0.208915,18,32765
1.61809,1.08553,0.21213,18,32765
1.62183,1.08013,0.211147,18,32765
1.60896,1.06376,0.207997,17,32765
1.64584,1.08024,0.211449,18,32765
1.5995,1.0423,0.203928,17,32765
1.64473,1.06412,0.208326,18,32765
1.65665,1.06421,0.20821,17,32765
1.64341,1.04816,0.205321,18,32765
1.62172,1.02684,0.201251,19,32765
1.61677,1.01626,0.19922,19,32765
1.62018,1.01099,0.198313,19,32765
1.64052,1.01613,0.199474,20,32765
1.63548,1.00546,0.197841,20,32765
1.62193,0.989661,0.194966,20,32765
1.6253,0.984301,0.194041,20,32765
1.60303,0.963582,0.19031,19,32765
1.6063,0.958268,0.189533,19,32765
1.60957,0.952965,0.188521,19,32765
1.61281,0.947637,0.187698,20,32765
1.61604,0.942276,0.186874,19,32765
1.60195,0.927037,0.184271,20,32765
1.61372,0.9267,0.184479,20,32765
1.63413,0.931252,0.185724,20,32765
1.62862,0.920965,0.183898,19,32765
1.59704,0.896076,0.179189,19,32765
1.60873,0.89565,0.179706,19,32765
1.58563,0.875917,0.175871,19,32765
1.62347,0.889841,0.179282,19,32765
1.6002,0.870265,0.17578,20,32765
1.6119,0.869693,0.176099,20,32765
1.6324,0.873752,0.177291,21,32765
1.60899,0.854277,0.173925,20,32765
1.62071,0.853566,0.174136,21,32765
1.62361,0.848143,0.173645,21,32765
1.61769,0.838103,0.171928,21,32765
1.59399,0.818993,0.168643,21,32765
1.61454,0.822683,0.169893,21,32765
1.59069,0.803802,0.166434,20,32765
1.62017,0.811795,0.168603,21,32765
1.60507,0.797565,0.166259,21,32765
1.60776,0.792234,0.165758,21,32765
1.60149,0.782523,0.164244,20,32765
1.58621,0.768562,0.161686,20,32765
1.59783,0.767535,0.161931,20,32765
1.58243,0.753679,0.159633,20,32765
1.59399,0.752649,0.16,20,32765
1.58753,0.743124,0.158488,20,32765
1.6081,0.746239,0.159807,21,32765
1.59253,0.732605,0.15724,20,32765
1.56781,0.714922,0.154093,20,32765
1.5793,0.713845,0.154383,20,32765
1.59084,0.71264,0.154516,20,32765
1.60235,0.711401,0.154916,21,32765
1.58655,0.697986,0.152556,22,32765
1.57978,0.688715,0.151191,21,32765
1.57298,0.679519,0.149646,21,32765
1.57529,0.674257,0.149139,21,32765
1.5776,0.668993,0.148438,21,32765
1.57069,0.659845,0.147048,21,32765
1.59136,0.662247,0.147994,21,32765
1.54751,0.638023,0.143284,21,32765
1.57732,0.644262,0.145194,22,32765
1.57024,0.635371,0.143658,21,32765
1.56309,0.626554,0.142412,21,32765
1.57445,0.625105,0.142664,21,32765
1.58581,0.623596,0.142897,22,32765
1.56933,0.611196,0.140479,21,32765
1.55278,0.598884,0.138205,21,32765
1.5734,0.600931,0.139289,20,32765
1.52879,0.578197,0.134528,15,32765
1.55871,0.583708,0.136389,13,32765
1.56069,0.578565,0.135715,13,32765
1.54395,0.566517,0.133382,19,32765
1.60208,0.58184,0.137511,22,32765
1.57586,0.566562,0.1344,22,32765
1.57775,0.56142,0.13378,20,32765
1.57021,0.553049,0.132161,19,32765
1.57203,0.547991,0.131582,19,32765
1.57385,0.542941,0.13086,20,32765
1.56619,0.534742,0.129286,20,32765
1.56789,0.529894,0.128555,21,32765
1.56016,0.521781,0.12707,21,32765
1.59975,0.529288,0.129449,23,32765
1.58259,0.51787,0.126947,22,32765
1.5843,0.512845,0.126083,23,32765
1.57641,0.505023,0.124428,23,32765
1.578,0.500247,0.123537,23,32765
1.57011,0.492369,0.121771,23,32765
1.69881,1.24838,0.223614,16,32765
1.72711,1.26028,0.226495,17,32765
1.66687,1.20792,0.217633,16,32765
1.6467,1.18497,0.21407,16,32765
1.67489,1.1969,0.216934,17,32765
1.7357,1.23161,0.223761,16,32765
1.6341,1.15147,0.20955,16,32765
1.62969,1.14055,0.207975,17,32765
1.6498,1.14658,0.209536,17,32765
1.64544,1.13552,0.207944,18,32765
1.64106,1.12441,0.206506,17,32765
1.62843,1.10777,0.203645,16,32765
1.68157,1.13583,0.209329,16,32765
1.68538,1.13029,0.208656,16,32765
1.64771,1.09728,0.202794,15,32765
1.70942,1.13029,0.209553,15,32765
1.66332,1.09192,0.202683,17,32765
1.61703,1.05378,0.195874,17,32765
1.59557,1.03214,0.192229,17,32765
1.64932,1.05907,0.197536,18,32765
1.64448,1.04828,0.195969,18,32765
1.65639,1.04822,0.196219,19,32765
1.63457,1.027,0.192485,18,32765
1.62951,1.01646,0.190838,18,32765
1.64979,1.02168,0.19201,19,32765
1.65325,1.01616,0.191502,17,32765
1.63971,1.00027,0.188993,18,32765
1.64309,0.994847,0.188266,19,32765
1.63794,0.984237,0.186646,18,32765
1.6327,0.973738,0.184958,17,32765
1.62741,0.963305,0.183218,18,32765
1.67361,0.983096,0.187198,18,32765
1.63388,0.952543,0.181935,18,32765
1.64572,0.952132,0.182053,17,32765
1.5971,0.916985,0.175813,16,32765
1.65213,0.941217,0.180777,17,32765
1.66403,0.94058,0.180869,18,32765
1.59781,0.896018,0.172496,17,32765
1.62697,0.905189,0.174626,17,32765
1.61259,0.890173,0.172161,18,32765
1.61559,0.884864,0.171428,19,32765
1.59233,0.865286,0.167777,18,32765
1.60399,0.864813,0.167969,18,32765
1.59813,0.854813,0.166341,18,32765
1.61861,0.858856,0.167518,19,32765
1.62153,0.853465,0.166891,20,32765
1.57145,0.820424,0.160759,18,32765
1.60962,0.833486,0.163758,18,32765
1.62135,0.832632,0.163833,19,32765
1.59753,0.81368,0.160659,20,32765
1.65368,0.835228,0.165333,19,32765
1.612,0.807379,0.160321,19,32765
1.62367,0.806442,0.16041,19,32765
1.56387,0.770227,0.153533,19,32765
1.62013,0.79137,0.158128,20,32765
1.587,0.768523,0.153985,19,32765
1.63456,0.784707,0.157673,19,32765
1.61022,0.766425,0.154496,20,32765
1.59479,0.752578,0.152173,19,32765
1.57922,0.738985,0.149889,20,32765
1.57267,0.729581,0.14838,20,32765
1.57512,0.724378,0.147848,19,32765
1.57755,0.719203,0.147226,19,32765
1.58,0.713922,0.146655,19,32765
1.59148,0.712806,0.146961,19,32765
1.61212,0.715565,0.148153,20,32765
1.60545,0.706148,0.146604,19,32765
1.59868,0.696849,0.145316,19,32765
1.61932,0.699475,0.146461,19,32765
1.59415,0.682425,0.143484,20,32765
1.62398,0.688808,0.14536,20,32765
1.58036,0.664117,0.14073,22,32765
1.61014,0.670474,0.142857,21,32765
1.59396,0.657568,0.140696,20,32765
1.56844,0.641078,0.137905,20,32765
1.58908,0.643371,0.138972,20,32765
1.56347,0.626998,0.136117,19,32765
1.6026,0.636615,0.138884,20,32765
1.614,0.634999,0.139264,21,32765
1.62536,0.633373,0.139799,21,32765
1.59956,0.617261,0.137094,21,32765
1.62025,0.619101,0.138215,17,32765
1.58499,0.599677,0.134829,14,32765
1.55897,0.584019,0.132089,14,32765
1.50478,0.558224,0.12699,15,32765
1.59082,0.584258,0.133954,18,32765
1.62085,0.589315,0.135875,21,32765
1.60399,0.577316,0.134244,20,32765
1.6153,0.575357,0.134767,20,32765
1.65476,0.583429,0.137761,18,32765
1.59078,0.555066,0.13203,18,32765
1.60203,0.553097,0.132595,18,32765
1.61325,0.551166,0.133181,20,32765
1.57723,0.533232,0.130055,19,32765
1.54108,0.515611,0.126934,19,32765
1.56167,0.516928,0.128299,20,32765
1.56332,0.511914,0.12832,20,32765
1.54597,0.500805,0.126789,20,32765
1.54753,0.495948,0.126875,20,32765
1.57755,0.500189,0.129386,20,32765
1.57908,0.495239,0.129734,22,32765
1.66716,1.22759,0.199974,18,32765
1.62309,1.18675,0.193938,17,32765
1.69147,1.22819,0.201176,18,32765
1.67943,1.21093,0.198842,17,32765
1.68345,1.2054,0.198555,18,32765
1.69562,1.20555,0.199011,18,32765
1.64271,1.15981,0.191722,17,32765
1.64647,1.15455,0.191183,17,32765
1.6503,1.14916,0.190662,17,32765
1.64594,1.13807,0.189162,18,32765
1.64978,1.13257,0.188755,18,32765
1.65362,1.12708,0.187946,18,32765
1.64088,1.11048,0.185598,18,32765
1.62808,1.09395,0.183082,18,32765
1.61512,1.07764,0.180489,18,32765
1.64359,1.08883,0.182904,18,32765
1.66388,1.09437,0.183984,18,32765
1.60925,1.0507,0.176818,18,32765
1.62955,1.05611,0.17802,19,32765
1.60803,1.03449,0.174566,18,32765
1.62828,1.0399,0.175825,19,32765
1.62335,1.02923,0.174182,19,32765
1.60145,1.00806,0.170742,18,32765
1.59633,0.997604,0.169201,18,32765
1.60808,0.997701,0.169311,19,32765
1.62843,1.00275,0.17059,18,32765
1.62333,0.992103,0.169161,20,32765
1.61817,0.981554,0.167558,19,32765
1.58737,0.955592,0.163406,19,32765
1.59914,0.955456,0.163582,19,32765
1.60235,0.950191,0.162821,19,32765
1.62276,0.954951,0.163745,19,32765
1.61733,0.944597,0.16242,19,32765
1.62053,0.939244,0.161591,20,32765
1.61502,0.92894,0.160204,20,32765
1.60954,0.918595,0.158627,21,32765
1.60402,0.908281,0.15695,20,32765
1.61585,0.907747,0.156951,20,32765
1.61024,0.897473,0.15543,21,32765
1.62199,0.896946,0.155669,20,32765
1.61627,0.886801,0.154097,20,32765
1.61927,0.881473,0.15321,21,32765
1.60467,0.866703,0.150823,21,32765
1.61639,0.866093,0.150928,21,32765
1.59291,0.846695,0.147825,21,32765
1.63105,0.859972,0.150461,21,32765
1.6163,0.845304,0.148124,21,32765
1.61033,0.835297,0.146699,21,32765
1.59547,0.82076,0.144275,21,32765
1.60712,0.819974,0.144584,20,32765
1.62773,0.823536,0.145511,21,32765
1.61272,0.809125,0.143351,21,32765
1.57085,0.781541,0.13862,19,32765
1.60033,0.789532,0.140258,20,32765
1.61191,0.788694,0.140375,22,32765
1.60566,0.77888,0.138938,20,32765
1.61733,0.777753,0.139058,21,32765
1.59296,0.759489,0.136168,20,32765
1.5775,0.74567,0.134038,20,32765
1.58898,0.744799,0.134235,20,32765
1.60053,0.743747,0.134333,20,32765
1.61209,0.742613,0.134547,20,32765
1.58736,0.724879,0.131653,20,32765
1.62617,0.736001,0.134073,21,32765
1.60133,0.718404,0.131285,21,32765
1.59466,0.708983,0.130057,21,32765
1.56058,0.687542,0.126391,21,32765
1.59031,0.694335,0.128155,20,32765
1.55602,0.673233,0.124713,21,32765
1.55825,0.668145,0.124228,22,32765
1.56969,0.666861,0.124381,22,32765
1.57194,0.661646,0.123859,22,32765
1.57411,0.656525,0.123538,22,32765
1.56709,0.647521,0.122295,21,32765
1.57844,0.646199,0.122661,22,32765
1.58986,0.644716,0.122821,22,32765
1.59202,0.639461,0.122382,21,32765
1.58486,0.630567,0.121219,21,32765
1.57768,0.621692,0.120097,22,32765
1.5983,0.623808,0.121249,22,32765
1.57246,0.607752,0.11883,21,32765
1.56517,0.59899,0.117669,21,32765
1.57648,0.59738,0.118161,22,32765
1.59712,0.59924,0.119189,23,32765
1.54296,0.573269,0.114644,18,32765
1.53547,0.564794,0.113819,18,32765
1.58419,0.576868,0.116856,22,32765
1.58606,0.57173,0.116796,23,32765
1.57857,0.563122,0.115848,23,32765
1.58038,0.558043,0.115713,24,32765
1.57279,0.54961,0.114775,23,32765
1.56517,0.541177,0.113876,23,32765
1.57636,0.539361,0.114372,23,32765
1.57808,0.534306,0.114361,23,32765
1.5703,0.526156,0.11367,23,32765
1.58147,0.524243,0.114159,23,32765
1.59262,0.522263,0.114864,24,32765
1.60376,0.520274,0.115572,24,32765
1.57689,0.506079,0.113607,23,32765
1.57844,0.501179,0.113783,23,32765
1.57998,0.496217,0.114131,24,32765
1.62058,1.18878,0.202344,16,32765
1.70518,1.24193,0.210632,17,32765
1.68529,1.21879,0.205972,17,32765
1.68132,1.20751,0.203639,16,32765
1.67736,1.19623,0.200973,16,32765
1.69772,1.20216,0.201626,15,32765
1.65298,1.16222,0.194406,16,32765
1.64062,1.14537,0.191259,16,32765
1.68537,1.16844,0.194632,16,32765
1.71394,1.17984,0.196201,18,32765
1.62754,1.1124,0.184634,16,32765
1.63957,1.11259,0.1845,18,32765
1.62684,1.09606,0.181471,17,32765
1.6388,1.09631,0.181219,17,32765
1.64249,1.09097,0.180055,17,32765
1.62119,1.0692,0.176243,16,32765
1.62481,1.06386,0.175197,19,32765
1.65348,1.07478,0.176744,17,32765
1.62363,1.04773,0.172247,18,32765
1.62724,1.04231,0.171177,17,32765
1.68116,1.06907,0.175476,16,32765
1.65947,1.04762,0.17194,16,32765
1.62924,1.02102,0.167357,15,32765
1.63261,1.01576,0.166479,17,32765
1.61907,0.999946,0.163779,17,32765
1.65639,1.01551,0.166201,18,32765
1.60873,0.978954,0.160384,18,32765
1.64617,0.994221,0.16294,18,32765
1.60677,0.963217,0.15778,18,32765
1.63573,0.973173,0.159407,19,32765
1.63901,0.967796,0.158509,18,32765
1.5993,0.937168,0.153513,18,32765
1.63696,0.951852,0.156052,19,32765
1.597,0.921548,0.151126,18,32765
1.61744,0.926121,0.151939,17,32765
1.64656,0.935543,0.153596,20,32765
1.61498,0.910511,0.149641,19,32765
1.65288,0.924576,0.152177,20,32765
1.65597,0.919144,0.151438,20,32765
1.61542,0.88961,0.146658,19,32765
1.61842,0.884253,0.146005,20,32765
1.65643,0.897933,0.14847,20,32765
1.62438,0.87349,0.144548,19,32765
1.6273,0.868159,0.143826,20,32765
1.63025,0.862731,0.14313,19,32765
1.60666,0.843452,0.140096,18,32765
1.62718,0.847381,0.140779,20,32765
1.58576,0.819069,0.136308,19,32765
1.63286,0.836581,0.139664,19,32765
1.62681,0.826591,0.138335,19,32765
1.59403,0.803178,0.134491,19,32765
1.56111,0.779926,0.130955,19,32765
1.57276,0.778985,0.131132,19,32765
1.63806,0.804502,0.135818,20,32765
1.60494,0.781542,0.132158,19,32765
1.65248,0.797897,0.135146,20,32765
1.56519,0.749396,0.127256,19,32765
1.61277,0.765542,0.130443,19,32765
1.59728,0.751762,0.128252,20,32765
1.60888,0.750634,0.128334,19,32765
1.58423,0.732739,0.125732,20,32765
1.60484,0.735795,0.126478,20,32765
1.59827,0.726277,0.125112,20,32765
1.60978,0.725122,0.125259,21,32765
1.57583,0.703445,0.121746,20,32765
1.59645,0.706275,0.12252,21,32765
1.58973,0.696899,0.12124,22,32765
1.59213,0.691502,0.120571,20,32765
1.59447,0.686202,0.119979,21,32765
1.62435,0.692572,0.121398,22,32765
1.60827,0.679511,0.119358,22,32765
1.5737,0.658839,0.116145,20,32765
1.59436,0.661293,0.116694,20,32765
1.58731,0.652296,0.115568,21,32765
1.60799,0.654572,0.116164,21,32765
1.60092,0.645587,0.114826,22,32765
1.64942,0.658785,0.117561,21,32765
1.60526,0.634935,0.113547,21,32765
1.60739,0.629639,0.112961,21,32765
1.6002,0.620749,0.111498,22,32765
1.59296,0.611914,0.110163,20,32765
1.56699,0.596122,0.10762,20,32765
1.57832,0.594501,0.107549,19,32765
1.63635,0.610379,0.110818,12,32765
1.55414,0.573908,0.104372,14,32765
1.57479,0.575693,0.104976,19,32765
1.61425,0.584138,0.10672,23,32765
1.57863,0.565363,0.103368,20,32765
1.6087,0.570287,0.104689,22,32765
1.61059,0.565068,0.103902,23,32765
1.59356,0.553413,0.102035,20,32765
1.6048,0.551588,0.101825,21,32765
1.60662,0.546432,0.100987,21,32765
1.57055,0.528589,0.0978409,20,32765
1.60069,0.533025,0.098941,21,32765
1.61191,0.531079,0.0985648,19,32765
1.6231,0.52912,0.0983381,18,32765
1.54881,0.499483,0.0927974,18,32765
1.56943,0.500743,0.0930286,20,32765
1.57107,0.49573,0.0920706,20,32765
1.58218,0.493877,0.0916494,20,32765
1.69307,1.24454,0.191654,17,32765
1.65721,1.2095,0.18543,17,32765
1.64526,1.19231,0.181989,18,32765
1.64927,1.18695,0.180666,18,32765
1.66144,1.18733,0.179879,18,32765
1.64927,1.17027,0.17687,18,32765
1.62884,1.14761,0.172843,18,32765
1.63275,1.14223,0.171616,18,32765
1.65294,1.14832,0.171973,18,32765
1.64863,1.13721,0.169903,18,32765
1.62783,1.11488,0.166124,18,32765
1.62339,1.10387,0.164227,17,32765
1.59411,1.0762,0.159741,18,32765
1.67222,1.12095,0.165991,18,32765
1.6179,1.07684,0.15909,18,32765
1.65476,1.09356,0.161246,18,32765
1.64179,1.07716,0.158567,19,32765
1.6204,1.05541,0.155025,18,32765
1.59047,1.02841,0.15092,18,32765
1.62756,1.04462,0.153026,18,32765
1.61424,1.02858,0.150492,19,32765
1.60926,1.01796,0.14883,20,32765
1.60424,1.00737,0.146974,19,32765
1.62449,1.01274,0.147646,20,32765
1.63637,1.01265,0.147429,19,32765
1.63125,1.0021,0.145671,19,32765
1.6176,0.986307,0.143445,20,32765
1.61241,0.975764,0.141868,21,32765
1.62423,0.975611,0.141667,21,32765
1.62753,0.970212,0.14078,20,32765
1.6308,0.964849,0.139885,20,32765
1.60826,0.94428,0.136824,20,32765
1.62872,0.948925,0.137527,21,32765
1.60601,0.928566,0.134519,20,32765
1.62648,0.933118,0.135139,20,32765
1.62962,0.927727,0.134366,21,32765
1.60669,0.907602,0.131502,21,32765
1.60978,0.902217,0.130837,20,32765
1.59536,0.887218,0.128709,20,32765
1.61583,0.891556,0.12932,20,32765
1.61008,0.881396,0.12797,20,32765
1.6218,0.880848,0.127987,21,32765
1.58968,0.856468,0.124455,20,32765
1.63653,0.874755,0.127166,21,32765
1.63068,0.86461,0.125785,22,32765
1.61592,0.849932,0.123707,21,32765
1.62762,0.849223,0.123525,21,32765
1.62164,0.839191,0.122193,21,32765
1.62443,0.833841,0.121742,22,32765
1.60948,0.81933,0.119847,21,32765
1.57666,0.795925,0.116386,20,32765
1.60617,0.803947,0.117811,21,32765
1.60003,0.793977,0.116575,21,32765
1.58481,0.779806,0.114759,21,32765
1.62335,0.79198,0.116652,22,32765
1.61704,0.782235,0.115318,22,32765
1.61065,0.772591,0.114116,21,32765
1.62227,0.771476,0.114279,22,32765
1.60679,0.757635,0.112271,21,32765
1.59129,0.743794,0.110373,21,32765
1.57567,0.730115,0.108681,21,32765
1.55999,0.716543,0.106759,21,32765
1.56244,0.711291,0.106122,20,32765
1.5739,0.710252,0.106186,21,32765
1.60367,0.717173,0.107332,21,32765
1.58784,0.703738,0.105482,22,32765
1.60852,0.706412,0.106106,22,32765
1.58349,0.688993,0.103632,20,32765
1.55832,0.671853,0.101256,21,32765
1.57898,0.674438,0.101814,22,32765
1.58121,0.66928,0.101157,22,32765
1.56502,0.656375,0.0994973,22,32765
1.58566,0.658863,0.0998625,22,32765
1.56937,0.646075,0.0982539,21,32765
1.58079,0.644646,0.0980962,22,32765
1.58294,0.63947,0.0974323,21,32765
1.58508,0.634212,0.0968707,22,32765
1.58724,0.628916,0.0961659,22,32765
1.57075,0.616374,0.0944676,22,32765
1.58212,0.614819,0.094225,22,32765
1.56554,0.60244,0.0924408,21,32765
1.57685,0.600926,0.0923768,21,32765
1.56951,0.59222,0.0911219,20,32765
1.59949,0.597673,0.0922107,19,32765
1.60149,0.592428,0.0914413,21,32765
1.56595,0.573459,0.0886514,21,32765
1.58663,0.575144,0.0889697,21,32765
1.56977,0.563166,0.0870513,21,32765
1.5716,0.558104,0.0865381,21,32765
1.58287,0.556306,0.0862818,22,32765
1.5658,0.544715,0.0846134,22,32765
1.56757,0.539723,0.0838186,23,32765
1.56934,0.534676,0.0829994,23,32765
1.59,0.536061,0.083219,22,32765
1.55385,0.518321,0.0805884,22,32765
1.56502,0.516519,0.0801455,23,32765
1.55718,0.508503,0.0788855,23,32765
1.56833,0.506649,0.0784141,22,32765
1.56994,0.50177,0.0775058,24,32765
1.57159,0.496745,0.0765469,23,32765
1.56362,0.488925,0.0751148,23,32765
1.64716,1.20944,0.163101,16,32765
1.68333,1.22759,0.165968,16,32765
1.70353,1.23375,0.1671,17,32765
1.68335,1.21069,0.164193,16,32765
1.67119,1.19347,0.162287,16,32765
1.69146,1.19946,0.163287,17,32765
1.64654,1.15945,0.157991,16,32765
1.70753,1.19413,0.162803,16,32765
1.6214,1.12597,0.153766,15,32765
1.68254,1.16035,0.158559,16,32765
1.62065,1.10967,0.1518,16,32765
1.62438,1.10428,0.151189,16,32765
1.58676,1.07102,0.146596,17,32765
1.63173,1.09358,0.149782,17,32765
1.69349,1.12688,0.154371,19,32765
1.64734,1.0883,0.149191,18,32765
1.65936,1.08829,0.149191,17,32765
1.64629,1.07191,0.147048,18,32765
1.608,1.03941,0.142675,17,32765
1.64503,1.05569,0.144929,17,32765
1.67376,1.06641,0.146323,19,32765
1.60985,1.0183,0.1399,18,32765
1.6301,1.02366,0.140657,17,32765
1.64198,1.0236,0.14051,19,32765
1.65389,1.02341,0.140628,19,32765
1.65733,1.01794,0.139797,20,32765
1.60971,0.981227,0.134614,18,32765
1.6557,1.00168,0.137498,20,32765
1.6677,1.0012,0.137354,19,32765
1.60252,0.954795,0.131188,18,32765
1.64011,0.969761,0.133079,19,32765
1.66059,0.974403,0.133675,20,32765
1.63803,0.953787,0.130919,19,32765
1.59807,0.92334,0.126891,18,32765
1.65309,0.947829,0.130382,19,32765
1.64764,0.937377,0.128848,20,32765
1.63345,0.922071,0.126615,19,32765
1.65397,0.926391,0.127155,18,32765
1.60478,0.891787,0.122474,18,32765
1.61646,0.891381,0.122467,18,32765
1.56694,0.857273,0.117812,18,32765
1.63124,0.885383,0.121524,19,32765
1.60792,0.865692,0.11861,18,32765
1.58445,0.846197,0.116097,19,32765
1.65783,0.878307,0.120677,19,32765
1.59013,0.835625,0.114947,19,32765
1.61067,0.839534,0.115404,20,32765
1.60465,0.829589,0.113928,19,32765
1.64304,0.842326,0.115752,20,32765
1.58357,0.805253,0.110803,19,32765
1.65756,0.835979,0.11505,21,32765
1.5979,0.799205,0.109886,18,32765
1.58271,0.785055,0.107828,19,32765
1.60331,0.788522,0.10831,20,32765
1.60598,0.783152,0.107751,20,32765
1.58171,0.764674,0.105123,20,32765
1.5843,0.759383,0.10456,19,32765
1.61388,0.767027,0.105645,19,32765
1.57131,0.740415,0.101901,19,32765
1.57376,0.735247,0.101399,19,32765
1.59437,0.738364,0.101974,19,32765
1.59692,0.732947,0.101225,20,32765
1.58119,0.719415,0.0994632,20,32765
1.57452,0.710028,0.0982661,20,32765
1.60422,0.717084,0.0993318,20,32765
1.59748,0.70776,0.0981903,20,32765
1.59986,0.702434,0.0976775,20,32765
1.60219,0.697166,0.0971703,21,32765
1.5862,0.683925,0.0954612,21,32765
1.59764,0.682659,0.0954654,21,32765
1.59073,0.673475,0.0943759,20,32765
1.6114,0.675913,0.0950309,20,32765
1.57679,0.655218,0.0923822,20,32765
1.60668,0.661413,0.0933887,20,32765
1.60888,0.656103,0.0929949,21,32765
1.60178,0.647105,0.0920125,19,32765
1.58539,0.63438,0.0905287,21,32765
1.5782,0.62552,0.0895262,20,32765
1.58957,0.623975,0.089535,21,32765
1.5916,0.61882,0.0893413,22,32765
1.61229,0.620732,0.0900745,23,32765
1.61433,0.615475,0.0895178,21,32765
1.61633,0.610253,0.0892385,21,32765
1.59963,0.597988,0.0876641,20,32765
1.56411,0.578946,0.0854174,19,32765
1.58478,0.580637,0.0861629,20,32765
1.57734,0.571964,0.0852619,20,32765
1.59799,0.573588,0.0861858,20,32765
1.57164,0.558327,0.0843429,21,32765
1.57343,0.553308,0.0841372,21,32765
1.5752,0.548275,0.0838655,21,32765
1.58644,0.54635,0.0843266,21,32765
1.5882,0.541231,0.0841049,21,32765
1.58994,0.536124,0.0839456,20,32765
1.58216,0.527946,0.0833345,20,32765
1.58382,0.522949,0.0832267,20,32765
1.59498,0.520971,0.0838079,21,32765
1.59664,0.515885,0.0837078,21,32765
1.57925,0.504695,0.0828502,21,32765
1.59988,0.505724,0.0838539,22,32765
1.58237,0.494747,0.0832406,20,32765
1.65501,1.21804,0.144653,18,32765
1.65094,1.20676,0.14364,18,32765
1.65493,1.20133,0.143194,19,32765
1.6832,1.21337,0.144757,19,32765
1.62239,1.16128,0.138869,18,32765
1.66694,1.18478,0.141772,20,32765
1.67904,1.18503,0.141865,19,32765
1.66658,1.16814,0.139838,18,32765
1.62132,1.12846,0.135255,18,32765
1.62501,1.12321,0.134632,18,32765
1.61236,1.10648,0.132702,18,32765
1.63257,1.11234,0.133441,19,32765
1.61978,1.09576,0.131319,19,32765
1.61513,1.08487,0.130023,18,32765
1.62705,1.08509,0.129983,20,32765
1.63069,1.07969,0.129348,19,32765
1.65101,1.08521,0.129917,19,32765
1.63794,1.06883,0.127962,19,32765
1.61639,1.04713,0.125358,19,32765
1.64505,1.05802,0.126587,19,32765
1.63173,1.04191,0.124489,20,32765
1.60988,1.02054,0.122023,20,32765
1.6217,1.0206,0.121955,20,32765
1.6251,1.01528,0.121087,20,32765
1.62002,1.00462,0.119861,20,32765
1.6404,1.00971,0.120292,21,32765
1.62681,0.99379,0.118154,20,32765
1.62163,0.983181,0.11687,20,32765
1.62502,0.977674,0.116037,21,32765
1.63688,0.977359,0.116104,20,32765
1.63162,0.9668,0.114584,20,32765
1.60907,0.946181,0.112001,20,32765
1.60365,0.935753,0.110737,20,32765
1.58955,0.92036,0.108965,19,32765
1.62725,0.934984,0.110717,20,32765
1.63042,0.92954,0.109874,20,32765
1.6162,0.914257,0.107836,22,32765
1.6367,0.918643,0.108196,21,32765
1.61364,0.898592,0.105799,21,32765
1.60787,0.888499,0.104556,21,32765
1.61086,0.883142,0.103852,21,32765
1.62262,0.882544,0.103526,21,32765
1.62565,0.877061,0.10256,21,32765
1.61102,0.862175,0.100871,21,32765
1.59628,0.847445,0.0992092,20,32765
1.59914,0.842095,0.0986106,21,32765
1.6197,0.845983,0.0988733,21,32765
1.59597,0.826798,0.096414,21,32765
1.61659,0.830466,0.0968014,22,32765
1.61935,0.825135,0.0962181,22,32765
1.62211,0.819775,0.0954999,22,32765
1.58025,0.791988,0.0920507,21,32765
1.61868,0.804536,0.0932803,22,32765
1.60352,0.790229,0.0915122,21,32765
1.60619,0.784846,0.0909518,21,32765
1.60889,0.77939,0.0901147,20,32765
1.59352,0.765348,0.08854,20,32765
1.62312,0.772977,0.0893385,21,32765
1.58959,0.750541,0.0865499,20,32765
1.61922,0.758006,0.087507,19,32765
1.60367,0.744159,0.0859344,20,32765
1.60623,0.738699,0.0851805,19,32765
1.58142,0.720963,0.0831238,19,32765
1.58386,0.715667,0.0824936,20,32765
1.58624,0.710459,0.0818615,20,32765
1.56121,0.693067,0.0798851,20,32765
1.59097,0.699919,0.0807756,20,32765
1.56583,0.682691,0.0788863,21,32765
1.61397,0.697275,0.0805828,21,32765
1.59791,0.68412,0.0791185,22,32765
1.60939,0.682718,0.0790251,22,32765
1.57484,0.661875,0.0767918,21,32765
1.58629,0.660457,0.0767604,21,32765
1.57926,0.651396,0.0757095,22,32765
1.58142,0.646166,0.0753215,21,32765
1.56503,0.633489,0.074002,21,32765
1.58569,0.63573,0.0744567,21,32765
1.55993,0.619475,0.072682,21,32765
1.58987,0.625301,0.0734611,22,32765
1.57329,0.612879,0.0724097,20,32765
1.57532,0.607665,0.0721042,16,32765
1.56799,0.598953,0.071136,13,32765
1.56059,0.590334,0.0704421,18,32765
1.56253,0.585234,0.0699112,23,32765
1.5738,0.583642,0.0701318,23,32765
1.57574,0.578418,0.0698551,24,32765
1.56828,0.569757,0.0690497,23,32765
1.56073,0.56127,0.0685464,23,32765
1.5814,0.56285,0.0690475,24,32765
1.56436,0.551149,0.0680204,24,32765
1.56613,0.546134,0.0677495,24,32765
1.58681,0.547494,0.068524,25,32765
1.57912,0.539134,0.0678949,24,32765
1.56192,0.52765,0.0669247,23,32765
1.56359,0.52271,0.0668139,23,32765
1.57473,0.520899,0.067111,23,32765
1.55739,0.509623,0.0663826,23,32765
1.54951,0.501569,0.0658801,23,32765
1.57014,0.502694,0.0668259,23,32765
1.58125,0.500736,0.0672357,23,32765
1.57326,0.492781,0.0672128,23,32765
1.72093,1.26205,0.158812,16,32765
1.63652,1.19184,0.148989,16,32765
1.60835,1.16294,0.144459,17,32765
1.65289,1.18661,0.146575,18,32765
1.665,1.18702,0.14585,16,32765
1.62824,1.15283,0.140814,17,32765
1.66474,1.17047,0.14227,16,32765
1.64414,1.14789,0.13881,17,32765
1.66444,1.1538,0.138889,18,32765
1.63548,1.12568,0.134757,17,32765
1.6475,1.12594,0.134163,17,32765
1.64304,1.11488,0.132518,18,32765
1.61374,1.08712,0.128557,17,32765
1.6423,1.0984,0.12942,17,32765
1.67928,1.11504,0.130807,19,32765
1.63304,1.07656,0.125673,18,32765
1.71178,1.12042,0.130329,19,32765
1.63186,1.06038,0.122937,18,32765
1.64378,1.06047,0.122445,19,32765
1.67259,1.07115,0.123223,19,32765
1.64247,1.04426,0.119633,19,32765
1.67128,1.05486,0.120412,19,32765
1.63249,1.02289,0.116563,18,32765
1.64433,1.0229,0.116037,19,32765
1.62229,1.00171,0.113288,18,32765
1.66822,1.02242,0.115227,18,32765
1.66316,1.01167,0.113644,19,32765
1.6153,0.975196,0.109149,19,32765
1.63569,0.980129,0.109417,19,32765
1.60464,0.954324,0.106262,18,32765
1.65081,0.974434,0.108219,18,32765
1.64546,0.963912,0.106864,19,32765
1.62285,0.943352,0.104218,18,32765
1.65198,0.9529,0.105147,19,32765
1.68119,0.962272,0.105922,19,32765
1.60629,0.912318,0.100044,19,32765
1.62672,0.916841,0.100503,19,32765
1.63856,0.91624,0.100165,19,32765
1.58929,0.88166,0.0961687,19,32765
1.62731,0.895538,0.0973758,19,32765
1.64784,0.89971,0.0977159,19,32765
1.60691,0.870547,0.0943155,19,32765
1.63619,0.879427,0.0953184,19,32765
1.61271,0.859913,0.092796,18,32765
1.60678,0.849851,0.0916651,19,32765
1.63622,0.858343,0.0924018,20,32765
1.65681,0.862111,0.0930422,19,32765
1.59758,0.824568,0.088523,19,32765
1.60925,0.823779,0.0882973,20,32765
1.5853,0.804852,0.086321,19,32765
1.62372,0.817477,0.0875675,20,32765
1.5818,0.789737,0.0844236,18,32765
1.64711,0.81549,0.0872387,20,32765
1.60505,0.787934,0.0841272,17,32765
1.65264,0.804374,0.0857405,18,32765
1.65539,0.798801,0.0849166,19,32765
1.60401,0.76741,0.0815128,18,32765
1.57951,0.749208,0.079646,17,32765
1.54587,0.726929,0.0771187,19,32765
1.58452,0.738699,0.078236,19,32765
1.60513,0.741806,0.0785776,20,32765
1.58036,0.723999,0.076774,19,32765
1.55549,0.706381,0.0747794,19,32765
1.53965,0.692983,0.0732062,19,32765
1.57848,0.704136,0.0741473,19,32765
1.58995,0.702978,0.0740994,19,32765
1.57402,0.689641,0.0724618,20,32765
1.59466,0.692357,0.0728024,21,32765
1.58785,0.683007,0.0716779,20,32765
1.59018,0.67763,0.0709751,21,32765
1.58328,0.668382,0.0700336,19,32765
1.58552,0.663119,0.0692096,19,32765
1.5785,0.654044,0.0682091,20,32765
1.58067,0.648858,0.0676141,20,32765
1.56432,0.636101,0.0660996,20,32765
1.56644,0.630942,0.0653889,20,32765
1.54997,0.618375,0.0640163,19,32765
1.58922,0.627914,0.0648766,18,32765
1.64713,0.644547,0.0665142,15,32765
1.48154,0.574152,0.0591275,13,32765
1.5021,0.576454,0.0591821,15,32765
1.58808,0.603481,0.0617947,20,32765
1.59008,0.598242,0.06114,22,32765
1.57333,0.586068,0.0595954,21,32765
1.59401,0.587867,0.0595794,22,32765
1.58653,0.579297,0.0585884,21,32765
1.62601,0.587771,0.0592396,23,32765
1.5903,0.569007,0.0571963,21,32765
1.57336,0.557073,0.0556157,20,32765
1.5658,0.548544,0.0545164,21,32765
1.57702,0.546779,0.0541453,23,32765
1.55986,0.535311,0.0528392,21,32765
1.58048,0.536853,0.0525281,22,32765
1.61064,0.541367,0.0526972,22,32765
1.59345,0.529807,0.0512432,22,32765
1.57618,0.518429,0.0498204,21,32765
1.57781,0.513537,0.0490785,21,32765
1.58895,0.511662,0.0485319,22,32765
1.57152,0.500626,0.0468944,22,32765
1.58272,0.498488,0.0459676,22,32765
1.57475,0.490561,0.0448822,22,32765
1.68041,1.23529,0.135577,19,32765
1.67652,1.2239,0.133226,19,32765
1.65654,1.20065,0.129661,19,32765
1.685,1.21255,0.130012,19,32765
1.63222,1.16642,0.12422,19,32765
1.6605,1.17848,0.124564,20,32765
1.64812,1.16155,0.121994,18,32765
1.65203,1.15614,0.120618,19,32765
1.62316,1.12786,0.116957,19,32765
1.64342,1.13382,0.116734,19,32765
1.63075,1.11714,0.114307,19,32765
1.64277,1.11733,0.113908,19,32765
1.6052,1.08392,0.109754,18,32765
1.62545,1.0897,0.10978,19,32765
1.62083,1.07876,0.108034,19,32765
1.6078,1.06241,0.105694,19,32765
1.67812,1.10097,0.10898,20,32765
1.63162,1.06271,0.104691,19,32765
1.60161,1.03569,0.101448,20,32765
1.62193,1.04113,0.101446,20,32765
1.64224,1.04655,0.101382,20,32765
1.62885,1.03047,0.0993062,21,32765
1.64073,1.03044,0.0990069,20,32765
1.62716,1.01457,0.0968664,20,32765
1.63058,1.00916,0.0959049,19,32765
1.63398,1.00375,0.0948978,21,32765
1.65443,1.00869,0.0948945,21,32765
1.61511,0.977329,0.0914485,20,32765
1.62694,0.97713,0.0910483,20,32765
1.62162,0.966639,0.0896952,21,32765
1.63344,0.966391,0.0892935,21,32765
1.61945,0.950845,0.087573,21,32765
1.61405,0.940383,0.0861431,20,32765
1.62587,0.939981,0.0858797,21,32765
1.62038,0.929575,0.0845769,21,32765
1.61483,0.919251,0.0831534,21,32765
1.63527,0.923754,0.0834202,21,32765
1.61228,0.903585,0.0812262,21,32765
1.62409,0.903001,0.0808468,21,32765
1.62718,0.897489,0.0799388,21,32765
1.61266,0.882486,0.0783859,20,32765
1.6068,0.872442,0.077157,21,32765
1.6097,0.867126,0.0766211,20,32765
1.63905,0.875912,0.0768747,21,32765
1.61552,0.856379,0.0750061,20,32765
1.60959,0.84626,0.0738331,20,32765
1.60357,0.836263,0.0730792,20,32765
1.57975,0.817178,0.0708417,19,32765
1.61807,0.83013,0.071711,21,32765
1.56742,0.797537,0.0688385,20,32765
1.62366,0.819252,0.0704906,22,32765
1.59961,0.800393,0.0685809,20,32765
1.59335,0.790609,0.0676899,21,32765
1.61397,0.794053,0.0677041,21,32765
1.59871,0.779831,0.066238,21,32765
1.57438,0.761375,0.0643368,21,32765
1.58595,0.760431,0.0640756,20,32765
1.61558,0.767992,0.0646623,20,32765
1.59105,0.749803,0.0628499,21,32765
1.57545,0.736067,0.0614518,21,32765
1.55978,0.722409,0.0602074,22,32765
1.56218,0.717224,0.0597399,22,32765
1.60096,0.728606,0.0604375,22,32765
1.57609,0.710917,0.058691,21,32765
1.56023,0.697499,0.057229,19,32765
1.56254,0.692349,0.0567596,20,32765
1.56488,0.68711,0.0559772,19,32765
1.58551,0.689863,0.0561317,20,32765
1.56033,0.672609,0.0544634,20,32765
1.57182,0.671239,0.054088,21,32765
1.55568,0.658138,0.0529323,22,32765
1.55789,0.652955,0.0521217,21,32765
1.58776,0.659284,0.0524443,23,32765
1.56221,0.642648,0.0509405,23,32765
1.5551,0.633696,0.0499187,23,32765
1.56648,0.632298,0.0495042,24,32765
1.56857,0.627125,0.0488973,24,32765
1.57997,0.625582,0.0485165,24,32765
1.58203,0.620385,0.047902,24,32765
1.55613,0.604334,0.0464019,23,32765
1.6141,0.620748,0.0473275,17,32765
1.54142,0.586987,0.0444628,19,32765
1.57143,0.592471,0.0446233,23,32765
1.57338,0.587324,0.0437971,24,32765
1.58468,0.585661,0.0433357,24,32765
1.58659,0.580537,0.0426942,24,32765
1.58847,0.575409,0.0419749,25,32765
1.58095,0.56685,0.041056,24,32765
1.564,0.554921,0.0396681,25,32765
1.57529,0.553028,0.0391353,24,32765
1.58652,0.551229,0.0386651,25,32765
1.58827,0.546209,0.0379946,24,32765
1.58054,0.538,0.0368161,24,32765
1.59174,0.53614,0.0362704,25,32765
1.55556,0.518297,0.0345918,24,32765
1.56674,0.516406,0.0339941,24,32765
1.57786,0.514633,0.0334575,25,32765
1.56997,0.506613,0.0324229,24,32765
1.59061,0.507776,0.0317461,25,32765
1.56369,0.493533,0.0299788,23,32765
1.57479,0.491608,0.0293523,22,32765
1.67401,1.22948,0.111635,17,32765
1.69417,1.23579,0.11233,18,32765
1.64972,1.19507,0.108762,16,32765
1.62127,1.16628,0.106216,17,32765
1.69835,1.21308,0.110227,17,32765
1.67792,1.19014,0.108338,17,32765
1.68183,1.18468,0.107669,17,32765
1.63666,1.1448,0.103794,18,32765
1.68149,1.16787,0.105667,17,32765
1.63611,1.12821,0.10188,17,32765
1.67281,1.1454,0.103224,17,32765
1.64358,1.11741,0.100639,17,32765
1.66385,1.12317,0.10092,18,32765
1.6178,1.08435,0.0971244,17,32765
1.65467,1.10112,0.0985032,18,32765
1.65,1.09015,0.0972437,18,32765
1.64525,1.07927,0.0960728,19,32765
1.64884,1.07385,0.0953443,18,32765
1.65243,1.06838,0.094547,19,32765
1.66446,1.06822,0.0942528,19,32765
1.63435,1.04122,0.0914977,18,32765
1.66318,1.05179,0.0921622,18,32765
1.61592,1.01442,0.0885527,17,32765
1.65325,1.03016,0.0896809,18,32765
1.6652,1.0299,0.0894954,20,32765
1.64309,1.00873,0.0872344,19,32765
1.65495,1.00856,0.0868953,20,32765
1.62415,0.982355,0.0843454,19,32765
1.63601,0.982108,0.0839693,20,32765
1.65651,0.986827,0.0839904,19,32765
1.62544,0.960935,0.0814667,18,32765
1.62867,0.95552,0.0807067,19,32765
1.6664,0.970248,0.0814724,20,32765
1.6437,0.949691,0.0795145,19,32765
1.62954,0.934321,0.0777968,19,32765
1.62398,0.923976,0.0764909,19,32765
1.60966,0.908772,0.074987,19,32765
1.62145,0.908259,0.074528,19,32765
1.65073,0.917379,0.0749108,19,32765
1.64513,0.906933,0.0736444,18,32765
1.66573,0.911001,0.0736951,18,32765
1.65122,0.895917,0.072197,18,32765
1.55743,0.838316,0.0672991,18,32765
1.60427,0.856763,0.068448,18,32765
1.60714,0.851425,0.0677098,18,32765
1.58348,0.83208,0.0658159,18,32765
1.60403,0.835996,0.0656618,19,32765
1.58026,0.816781,0.0636741,19,32765
1.60969,0.825165,0.0640894,19,32765
1.60357,0.815235,0.0628325,19,32765
1.58847,0.800854,0.0615903,18,32765
1.60907,0.804442,0.061411,18,32765
1.54915,0.767899,0.0581349,18,32765
1.58761,0.780334,0.0589017,19,32765
1.59923,0.779393,0.058385,18,32765
1.56586,0.75664,0.0565134,19,32765
1.59542,0.764416,0.0567116,19,32765
1.5619,0.741886,0.054547,19,32765
1.58247,0.745177,0.0546541,18,32765
1.56689,0.731377,0.0534033,18,32765
1.57842,0.73034,0.0529685,20,32765
1.6081,0.737628,0.0531201,19,32765
1.55595,0.707492,0.0506735,18,32765
1.5401,0.694081,0.049548,19,32765
1.57891,0.705282,0.0501426,20,32765
1.55383,0.687932,0.0486608,20,32765
1.56527,0.686799,0.048314,20,32765
1.57673,0.685583,0.047975,20,32765
1.55146,0.668499,0.046609,20,32765
1.5537,0.663314,0.0460529,20,32765
1.56517,0.661927,0.0458618,21,32765
1.60427,0.672138,0.0463056,22,32765
1.59729,0.662939,0.045412,22,32765
1.57175,0.646264,0.044206,21,32765
1.5924,0.648615,0.0442314,22,32765
1.58522,0.63975,0.0434742,21,32765
1.57803,0.630863,0.042778,22,32765
1.5801,0.625702,0.0422649,22,32765
1.58216,0.620508,0.0418412,22,32765
1.58421,0.615265,0.0414593,21,32765
1.5489,0.595747,0.0400234,16,32765
1.54153,0.587052,0.039423,19,32765
1.61829,0.6102,0.041019,23,32765
1.60158,0.597856,0.0402911,22,32765
1.61293,0.596017,0.0400781,24,32765
1.56794,0.573568,0.0384585,22,32765
1.5886,0.575272,0.0387259,21,32765
1.56223,0.560024,0.0376759,21,32765
1.62999,0.578362,0.0390457,24,32765
1.60357,0.563123,0.0381087,23,32765
1.58652,0.55132,0.037294,22,32765
1.59778,0.54936,0.0374299,22,32765
1.59007,0.541002,0.037166,22,32765
1.56339,0.526306,0.0362343,21,32765
1.55559,0.518113,0.0358145,21,32765
1.58574,0.5225,0.0363706,22,32765
1.59691,0.520508,0.0365988,23,32765
1.63662,0.527716,0.037272,23,32765
1.59064,0.507397,0.0364082,22,32765
1.59224,0.502338,0.0363839,21,32765
1.59378,0.497396,0.0367788,22,32765
1.66518,1.22624,0.0917699,19,32765
1.67726,1.22669,0.0918364,19,32765
1.67323,1.21528,0.0910284,19,32765
1.66917,1.20389,0.0901605,18,32765
1.66513,1.19245,0.0889674,18,32765
1.6365,1.16379,0.0869297,18,32765
1.64032,1.15845,0.0862748,18,32765
1.66871,1.17024,0.0868075,19,32765
1.63982,1.14187,0.0843987,19,32765
1.61081,1.11363,0.082025,19,32765
1.64745,1.13094,0.0830036,19,32765
1.64296,1.11984,0.0820357,19,32765
1.62186,1.09761,0.0800847,19,32765
1.66696,1.12015,0.0813188,19,32765
1.62914,1.08688,0.0786898,19,32765
1.6161,1.07046,0.077136,20,32765
1.61129,1.05966,0.0760706,20,32765
1.62317,1.0598,0.0757457,20,32765
1.64349,1.06527,0.0757315,19,32765
1.6555,1.06514,0.0753459,21,32765
1.62539,1.03811,0.0729676,20,32765
1.62889,1.03267,0.0722307,20,32765
1.60696,1.01131,0.070308,20,32765
1.59341,0.995347,0.068866,20,32765
1.62223,1.00581,0.0693343,20,32765
1.63409,1.00569,0.0688092,20,32765
1.62888,0.995124,0.0676703,20,32765
1.59804,0.96895,0.0655052,20,32765
1.63554,0.984246,0.0660847,20,32765
1.61314,0.963354,0.0642093,20,32765
1.625,0.963026,0.0637662,20,32765
1.62823,0.9576,0.0630046,21,32765
1.58827,0.927016,0.0604379,21,32765
1.61733,0.936729,0.0607412,20,32765
1.62045,0.931374,0.0598637,20,32765
1.59752,0.911131,0.0580241,21,32765
1.60056,0.905826,0.0573404,21,32765
1.63848,0.920022,0.0577119,21,32765
1.59794,0.890188,0.0553823,21,32765
1.62724,0.899237,0.0554279,20,32765
1.58645,0.869736,0.0532384,20,32765
1.59815,0.86921,0.0528318,20,32765
1.58347,0.854378,0.0515648,20,32765
1.60391,0.858626,0.0513842,21,32765
1.60678,0.853275,0.0506446,21,32765
1.60967,0.847864,0.0498524,21,32765
1.59482,0.833184,0.0484187,20,32765
1.59768,0.827753,0.0475077,20,32765
1.58268,0.813251,0.0463316,19,32765
1.56762,0.79885,0.044927,19,32765
1.58815,0.802594,0.0448921,20,32765
1.56406,0.783795,0.0432871,21,32765
1.56675,0.778464,0.0423877,20,32765
1.57834,0.777611,0.0420545,20,32765
1.54503,0.754756,0.0402767,21,32765
1.55657,0.753925,0.0399532,22,32765
1.59512,0.766076,0.0400997,22,32765
1.57967,0.752092,0.0387521,22,32765
1.58219,0.746795,0.0382273,23,32765
1.56661,0.732965,0.0371631,23,32765
1.57815,0.731925,0.0366332,22,32765
1.58058,0.726699,0.0358833,22,32765
1.57389,0.71732,0.0350225,22,32765
1.5854,0.716167,0.0346751,22,32765
1.57866,0.706812,0.0338965,23,32765
1.581,0.70159,0.0332723,22,32765
1.56503,0.688289,0.0322535,23,32765
1.57649,0.68707,0.0318195,22,32765
1.56959,0.677877,0.0310979,22,32765
1.56267,0.668686,0.0303555,22,32765
1.56495,0.663362,0.0298908,22,32765
1.57639,0.661981,0.0294412,23,32765
1.57861,0.656695,0.0288199,23,32765
1.58078,0.651475,0.0283978,23,32765
1.58294,0.646241,0.027905,23,32765
1.57575,0.637388,0.0272437,23,32765
1.58712,0.635949,0.0269584,22,32765
1.55203,0.615992,0.0258227,22,32765
1.58197,0.621852,0.0258618,23,32765
1.58403,0.616598,0.0254789,16,32765
1.51141,0.582651,0.0238296,13,32765
1.54136,0.588323,0.0239107,17,32765
1.58071,0.597382,0.0241812,24,32765
1.59205,0.595647,0.0240711,25,32765
1.58465,0.586889,0.0234877,24,32765
1.54902,0.567926,0.0224818,22,32765
1.56966,0.569694,0.0225624,23,32765
1.56209,0.561236,0.0220639,22,32765
1.55449,0.55281,0.0217213,21,32765
1.54685,0.544422,0.0213379,20,32765
1.5203,0.52949,0.0205956,19,32765
1.54094,0.531001,0.0207676,18,32765
1.50479,0.513125,0.0202169,17,32765
1.52539,0.514656,0.0202088,16,32765
1.5555,0.519232,0.0203844,16,32765
1.53818,0.50795,0.0200388,16,32765
1.5398,0.503001,0.020048,15,32765
1.56042,0.504255,0.0201058,16,32765
1.59057,0.50849,0.0206924,15,32765
1.60172,0.506434,0.020791,15,32765
1.53647,0.480557,0.0203047,15,32765
1.65886,1.21732,0.0995413,17,32765
1.67919,1.22352,0.098718,17,32765
