x, y, z, intensity, ring
0,-0,-0,0,32765
0,-0,-0,0,32765
0,-0,-0,12,32765
0,-0,-0,12,32765
0,-0,-0,0,32765
0,-0,-0,0,32765
1.70869,-0.915996,-0.0701717,14,32765
1.72323,-0.931216,-0.0700871,16,32765
1.70258,-0.927412,-0.0687509,16,32765
1.66446,-0.913858,-0.0665429,16,32765
1.71386,-0.948504,-0.0680855,17,32765
1.72814,-0.964009,-0.0679776,16,32765
1.69878,-0.955128,-0.0661728,16,32765
1.66084,-0.941079,-0.0640058,17,32765
1.7619,-1.00603,-0.0670671,16,32765
1.68055,-0.967122,-0.0635696,16,32765
1.67732,-0.972743,-0.0628739,17,32765
1.69994,-0.993535,-0.0631894,17,32765
1.70524,-1.00431,-0.0626842,17,32765
1.70188,-1.01003,-0.061885,16,32765
1.67275,-1.00037,-0.0604034,16,32765
1.66086,-1.00081,-0.0593177,17,32765
1.64047,-0.995936,-0.0581804,17,32765
1.65426,-1.01176,-0.0578474,17,32765
1.65096,-1.01717,-0.0573879,17,32765
1.64761,-1.02262,-0.0567556,17,32765
1.63577,-1.02277,-0.0555637,17,32765
1.64924,-1.03895,-0.0555844,16,32765
1.63735,-1.03909,-0.0546348,17,32765
1.61712,-1.03367,-0.0533265,17,32765
1.67253,-1.07692,-0.054722,16,32765
1.64387,-1.06605,-0.0532348,17,32765
1.63199,-1.06601,-0.0523178,18,32765
1.58673,-1.04392,-0.0503051,18,32765
1.60827,-1.06575,-0.0505652,17,32765
1.62134,-1.08221,-0.0505851,17,32765
1.62609,-1.09311,-0.0501759,17,32765
1.60594,-1.08727,-0.049022,16,32765
1.61069,-1.0981,-0.0485057,16,32765
1.62369,-1.11453,-0.0485361,17,32765
1.59541,-1.10273,-0.0473442,16,32765
1.62464,-1.13077,-0.0479482,17,32765
1.59632,-1.11897,-0.0465566,17,32765
1.61711,-1.14157,-0.0466071,17,32765
1.62158,-1.15257,-0.0464393,17,32765
1.64227,-1.17523,-0.0468082,17,32765
1.58989,-1.14535,-0.0449378,16,32765
1.54577,-1.12107,-0.0435864,16,32765
1.631,-1.19087,-0.0456052,16,32765
0.935115,-0.287752,-0.0562057,17,32765
0.953228,-0.296733,-0.0574947,17,32765
0.971291,-0.305845,-0.058766,17,32765
0.970282,-0.308998,-0.0589278,17,32765
0.969252,-0.312193,-0.0590473,17,32765
0.968224,-0.315375,-0.0589968,17,32765
0.995621,-0.327948,-0.0607341,17,32765
1.01345,-0.337613,-0.0619308,17,32765
0.965024,-0.325028,-0.0590354,16,32765
0.982857,-0.334622,-0.0601743,17,32765
1.01008,-0.34757,-0.0618591,17,32765
1.01837,-0.354167,-0.0623158,18,32765
1.02657,-0.360961,-0.0629278,19,32765
1.02533,-0.364488,-0.0628228,18,32765
1.03349,-0.371361,-0.0632348,18,32765
1.02285,-0.371438,-0.0625263,18,32765
1.03099,-0.378268,-0.0629736,17,32765
1.03909,-0.385166,-0.0634823,18,32765
1.05653,-0.395591,-0.0644498,18,32765
1.06456,-0.402622,-0.0648665,18,32765
1.05388,-0.402646,-0.0641314,18,32765
1.04323,-0.402564,-0.0634118,19,32765
1.06048,-0.413326,-0.0643575,19,32765
1.0591,-0.416898,-0.0640613,19,32765
1.05769,-0.420482,-0.063872,19,32765
1.06556,-0.427745,-0.064154,19,32765
1.07338,-0.435083,-0.0645347,18,32765
1.12736,-0.461405,-0.0675401,17,32765
1.07042,-0.442377,-0.0640166,16,32765
1.11501,-0.46524,-0.06645,17,32765
1.11343,-0.469041,-0.0661627,16,32765
1.13026,-0.480562,-0.066864,16,32765
1.15615,-0.496224,-0.0683214,16,32765
1.17283,-0.508056,-0.0689033,16,32765
1.1711,-0.512067,-0.0686728,16,32765
1.1785,-0.520097,-0.0687865,16,32765
1.18587,-0.52816,-0.0689394,16,32765
1.20229,-0.540417,-0.069622,14,32765
1.20958,-0.548588,-0.0697654,14,32765
1.25314,-0.573448,-0.0720936,13,32765
1.28752,-0.594359,-0.0736808,12,32765
0,-0,-0,0,32765
1.24739,-0.586011,-0.0707158,13,32765
0,-0,-0,0,32765
0,-0,-0,0,32765
0,-0,-0,0,32765
0,-0,-0,0,32765
0,-0,-0,0,32765
0,-0,-0,0,32765
0,-0,-0,0,32765
0,-0,-0,0,32765
0,-0,-0,0,32765
0,-0,-0,0,32765
0,-0,-0,0,32765
0,-0,-0,14,32765
0,-0,-0,15,32765
0,-0,-0,0,32765
0,-0,-0,0,32765
1.76839,-0.951061,-0.0914565,18,32765
1.68619,-0.914145,-0.0865683,16,32765
1.70068,-0.929375,-0.086847,18,32765
1.65385,-0.91097,-0.0838207,17,32765
1.68572,-0.935959,-0.0850424,16,32765
1.69131,-0.946526,-0.0846947,17,32765
1.67944,-0.947323,-0.0834894,17,32765
1.6763,-0.952934,-0.0826696,17,32765
1.67318,-0.958486,-0.0817551,16,32765
1.6959,-0.979144,-0.0824942,18,32765
1.64946,-0.959709,-0.0797029,16,32765
1.6807,-0.985508,-0.0807198,18,32765
1.643,-0.970831,-0.0782654,18,32765
1.64835,-0.981472,-0.0778983,17,32765
1.66218,-0.997322,-0.0781663,18,32765
1.67596,-1.01324,-0.0781862,18,32765
1.66407,-1.0136,-0.077251,18,32765
1.65224,-1.01387,-0.075914,18,32765
1.64043,-1.01403,-0.0750633,18,32765
1.63709,-1.01947,-0.0744321,18,32765
1.6422,-1.0302,-0.0739119,17,32765
1.63872,-1.03577,-0.0733573,17,32765
1.61842,-1.0305,-0.0719411,17,32765
1.60665,-1.03042,-0.0708233,17,32765
1.62002,-1.04661,-0.0710303,17,32765
1.62499,-1.05735,-0.0707407,17,32765
1.63823,-1.07369,-0.0708189,18,32765
1.63469,-1.0791,-0.0701243,17,32765
1.57286,-1.04581,-0.0670943,17,32765
1.60258,-1.07331,-0.068013,17,32765
1.59906,-1.07859,-0.0673523,18,32765
1.59551,-1.08388,-0.0667114,18,32765
1.60851,-1.10035,-0.0666315,17,32765
1.58031,-1.08847,-0.0651487,17,32765
1.59322,-1.10498,-0.065372,18,32765
1.57322,-1.09875,-0.0643345,17,32765
1.59408,-1.12126,-0.0646722,18,32765
1.5659,-1.10923,-0.0630292,18,32765
1.57859,-1.1259,-0.06329,17,32765
1.5912,-1.14264,-0.0636183,18,32765
1.59569,-1.15354,-0.0634578,18,32765
1.55159,-1.12923,-0.0616382,17,32765
1.58022,-1.15784,-0.0624428,17,32765
0.906247,-0.276864,-0.0675464,16,32765
0.924421,-0.285789,-0.0683374,16,32765
0.942526,-0.29489,-0.0691715,17,32765
0.932055,-0.295038,-0.0680102,17,32765
0.931114,-0.298128,-0.0674271,17,32765
0.977611,-0.31656,-0.0704741,17,32765
0.948161,-0.310442,-0.0679397,17,32765
0.956627,-0.31673,-0.068165,17,32765
0.936666,-0.313595,-0.0664397,17,32765
0.945083,-0.319954,-0.0666859,16,32765
1.04789,-0.358644,-0.0735164,16,32765
0.961861,-0.332723,-0.0672173,17,32765
0.951356,-0.332644,-0.0661113,17,32765
1.01612,-0.359082,-0.0703668,17,32765
1.01493,-0.362531,-0.0698972,18,32765
1.01372,-0.365982,-0.0695448,17,32765
1.04062,-0.37968,-0.0710364,18,32765
1.02999,-0.37977,-0.0700185,17,32765
1.02873,-0.383232,-0.0696108,17,32765
1.0368,-0.390215,-0.0698618,18,32765
1.04483,-0.397247,-0.0701614,17,32765
1.0249,-0.393557,-0.068438,18,32765
1.05152,-0.407821,-0.069923,17,32765
1.05016,-0.411346,-0.0696461,18,32765
1.03951,-0.411229,-0.0686284,18,32765
1.05667,-0.422146,-0.0695381,18,32765
1.06453,-0.429448,-0.0696878,19,32765
1.06311,-0.433006,-0.0693749,17,32765
1.09859,-0.451787,-0.0713528,17,32765
1.07863,-0.447876,-0.0698202,16,32765
1.14157,-0.478545,-0.0735242,16,32765
1.10318,-0.466882,-0.0707424,16,32765
1.12916,-0.48236,-0.0722239,16,32765
1.12756,-0.486177,-0.0717058,16,32765
1.14422,-0.497992,-0.0725413,15,32765
1.16081,-0.509933,-0.0733863,15,32765
1.18647,-0.526029,-0.0746908,15,32765
1.18466,-0.530137,-0.0743221,15,32765
1.29207,-0.583479,-0.0806894,13,32765
1.19015,-0.542355,-0.0740716,13,32765
1.26092,-0.579731,-0.0781132,13,32765
1.24994,-0.579749,-0.0770533,12,32765
0,-0,-0,0,32765
0,-0,-0,0,32765
1.32518,-0.631082,-0.0808747,12,32765
0,-0,-0,0,32765
0,-0,-0,0,32765
0,-0,-0,0,32765
0,-0,-0,0,32765
0,-0,-0,0,32765
0,-0,-0,0,32765
0,-0,-0,0,32765
0,-0,-0,0,32765
0,-0,-0,0,32765
0,-0,-0,0,32765
0,-0,-0,13,32765
0,-0,-0,0,32765
0,-0,-0,0,32765
1.63739,-0.877394,-0.0934671,13,32765
1.66084,-0.897127,-0.0942128,15,32765
1.71051,-0.93131,-0.096596,16,32765
1.61994,-0.888848,-0.0907829,17,32765
1.67822,-0.928038,-0.0934499,17,32765
1.70132,-0.94822,-0.0942215,16,32765
1.65457,-0.92958,-0.0910744,16,32765
1.63406,-0.925363,-0.0892272,17,32765
1.63968,-0.935778,-0.0887793,16,32765
1.64519,-0.946311,-0.0886221,17,32765
1.63344,-0.946762,-0.0873364,17,32765
1.62165,-0.947224,-0.0862037,16,32765
1.68737,-0.993227,-0.0888484,17,32765
1.66686,-0.988729,-0.0870951,17,32765
1.68071,-1.00461,-0.0869502,17,32765
1.62606,-0.979258,-0.0834731,17,32765
1.6314,-0.989798,-0.0832529,17,32765
1.65379,-1.01074,-0.0835267,17,32765
1.63348,-1.00572,-0.0816929,17,32765
1.5962,-0.990104,-0.0789643,17,32765
1.61836,-1.01128,-0.0794409,16,32765
1.58966,-1.00071,-0.0772147,17,32765
1.62863,-1.03264,-0.0782375,17,32765
1.61686,-1.0326,-0.0768849,16,32765
1.64711,-1.05956,-0.0772621,17,32765
1.61852,-1.04865,-0.0750252,16,32765
1.61509,-1.05399,-0.0741442,16,32765
1.63672,-1.07576,-0.0741757,16,32765
1.59988,-1.05909,-0.0714615,17,32765
1.59639,-1.06442,-0.0703759,17,32765
1.60951,-1.08083,-0.0699555,17,32765
1.62252,-1.09735,-0.0695984,17,32765
1.66855,-1.13638,-0.070619,17,32765
1.63194,-1.11919,-0.0677936,17,32765
1.6036,-1.10754,-0.0656634,17,32765
1.60006,-1.11273,-0.0642722,17,32765
1.60467,-1.12367,-0.0634138,17,32765
1.57651,-1.11165,-0.0612091,16,32765
1.62179,-1.15156,-0.0616273,17,32765
1.57733,-1.12791,-0.0585949,17,32765
1.59796,-1.15068,-0.0580545,16,32765
1.54569,-1.12069,-0.0547895,16,32765
1.55027,-1.13145,-0.0535068,17,32765
0.914867,-0.280451,-0.0772416,17,32765
0.961576,-0.298286,-0.0806074,17,32765
0.979623,-0.307536,-0.081605,17,32765
0.94062,-0.298757,-0.0779682,17,32765
0.949161,-0.304933,-0.0781604,17,32765
0.967144,-0.314227,-0.0793337,17,32765
0.956677,-0.314285,-0.078069,17,32765
0.974584,-0.32376,-0.0791513,17,32765
0.964072,-0.323854,-0.0779954,16,32765
0.981888,-0.333529,-0.0790823,16,32765
0.961944,-0.330332,-0.077097,17,32765
0.998561,-0.346573,-0.0797681,18,32765
1.00684,-0.35322,-0.0800466,18,32765
1.00568,-0.356578,-0.0797224,18,32765
1.02327,-0.36673,-0.080738,18,32765
1.00329,-0.363426,-0.0789066,17,32765
1.03018,-0.377121,-0.080682,18,32765
1.03827,-0.384098,-0.0810334,18,32765
1.02766,-0.384105,-0.0798949,18,32765
1.04504,-0.394626,-0.0809615,19,32765
1.05305,-0.401702,-0.0813508,19,32765
1.04244,-0.401619,-0.0801511,19,32765
1.05041,-0.408741,-0.0804845,19,32765
1.03976,-0.408624,-0.0794968,19,32765
1.04767,-0.415833,-0.0798008,19,32765
1.04628,-0.419381,-0.0794869,18,32765
1.04489,-0.422924,-0.0790339,18,32765
1.07119,-0.437747,-0.0808155,16,32765
1.05129,-0.433769,-0.0790044,17,32765
1.08666,-0.452709,-0.0814392,16,32765
1.09434,-0.460268,-0.0816742,16,32765
1.11115,-0.471816,-0.0826325,16,32765
1.14625,-0.491288,-0.0850713,16,32765
1.14462,-0.495173,-0.0845438,16,32765
1.15209,-0.503081,-0.084886,16,32765
1.16864,-0.515078,-0.085914,15,32765
1.19425,-0.531239,-0.0874942,15,32765
1.20153,-0.539472,-0.0877864,17,32765
1.26333,-0.5724,-0.0919577,16,32765
1.26139,-0.576732,-0.0915668,15,32765
1.34101,-0.618612,-0.0969812,14,32765
1.30278,-0.606271,-0.0938393,13,32765
0,-0,-0,0,32765
0,-0,-0,0,32765
1.32362,-0.632447,-0.0945861,12,32765
0,-0,-0,0,32765
0,-0,-0,0,32765
0,-0,-0,0,32765
0,-0,-0,0,32765
0,-0,-0,0,32765
0,-0,-0,0,32765
0,-0,-0,0,32765
0,-0,-0,0,32765
0,-0,-0,0,32765
0,-0,-0,0,32765
0,-0,-0,15,32765
0,-0,-0,0,32765
1.69989,-0.906577,-0.115678,13,32765
1.66169,-0.893432,-0.112578,18,32765
1.6675,-0.90378,-0.112406,18,32765
1.66451,-0.909345,-0.111811,19,32765
1.67032,-0.91961,-0.111511,18,32765
1.66731,-0.925148,-0.110745,17,32765
1.68168,-0.940468,-0.111221,18,32765
1.6437,-0.926628,-0.108187,18,32765
1.64927,-0.937167,-0.10786,18,32765
1.65484,-0.94766,-0.107493,18,32765
1.643,-0.948289,-0.106301,18,32765
1.64851,-0.958778,-0.106031,18,32765
1.64531,-0.964346,-0.105348,18,32765
1.59911,-0.944515,-0.101617,18,32765
1.64744,-0.98057,-0.104055,18,32765
1.65273,-0.991287,-0.103568,18,32765
1.62384,-0.98129,-0.101141,17,32765
1.61209,-0.981462,-0.0999541,18,32765
1.5834,-0.971065,-0.0973748,17,32765
1.62271,-1.00255,-0.099023,18,32765
1.61941,-1.00798,-0.0979782,17,32765
1.59917,-1.00275,-0.0961749,17,32765
1.61275,-1.01877,-0.0961967,18,32765
1.57576,-1.0026,-0.0931817,18,32765
1.61455,-1.03472,-0.0947241,18,32765
1.58601,-1.02382,-0.0920616,18,32765
1.6162,-1.0508,-0.092954,18,32765
1.60439,-1.05068,-0.0915939,18,32765
1.56763,-1.03396,-0.0886088,18,32765
1.58923,-1.05573,-0.0888269,18,32765
1.59405,-1.06659,-0.0882046,18,32765
1.59885,-1.07745,-0.0875148,18,32765
1.57879,-1.07154,-0.0855552,18,32765
1.59184,-1.08796,-0.0853887,18,32765
1.5719,-1.08182,-0.0831259,18,32765
1.59299,-1.1041,-0.0833323,18,32765
1.55669,-1.0864,-0.0802572,18,32765
1.60224,-1.12595,-0.0816018,18,32765
1.55781,-1.10236,-0.0782972,18,32765
1.55423,-1.1075,-0.0768707,18,32765
1.54245,-1.10689,-0.0750135,18,32765
1.58741,-1.14715,-0.0759416,18,32765
1.55947,-1.13471,-0.0732654,18,32765
1.56401,-1.14555,-0.0720579,17,32765
0.915285,-0.280009,-0.0738137,16,32765
0.933411,-0.28886,-0.0755306,17,32765
0.941953,-0.294908,-0.0765035,16,32765
0.959986,-0.304022,-0.0780895,17,32765
0.939977,-0.301109,-0.0766629,17,32765
0.967403,-0.313504,-0.0790343,16,32765
0.985306,-0.322909,-0.0806298,18,32765
1.00315,-0.332474,-0.0821819,16,32765
0.992598,-0.332613,-0.0813452,17,32765
0.982061,-0.332672,-0.0805358,15,32765
0.999807,-0.34241,-0.0821064,17,32765
0.989254,-0.342467,-0.0811979,18,32765
1.02573,-0.359011,-0.084224,18,32765
0.977529,-0.345821,-0.0802784,17,32765
1.02333,-0.365855,-0.083982,17,32765
0.984593,-0.35572,-0.0808665,17,32765
1.01152,-0.369238,-0.0829519,18,32765
1.01963,-0.376125,-0.0835904,18,32765
1.03705,-0.386554,-0.0848255,18,32765
1.04509,-0.393568,-0.0854098,17,32765
1.05308,-0.400662,-0.0859578,18,32765
1.01452,-0.389888,-0.0826858,18,32765
1.05041,-0.407718,-0.0855296,19,32765
1.03977,-0.407623,-0.0844313,18,32765
1.02913,-0.407439,-0.0835323,18,32765
1.01851,-0.407216,-0.0825383,18,32765
1.05415,-0.425557,-0.0853196,16,32765
1.08041,-0.440453,-0.0872321,16,32765
1.11581,-0.459329,-0.0899437,16,32765
1.11424,-0.463183,-0.0895577,16,32765
1.11269,-0.466967,-0.0891885,16,32765
1.10194,-0.466847,-0.0881929,15,32765
1.1279,-0.482348,-0.0899334,16,32765
1.13545,-0.490099,-0.0903262,16,32765
1.1338,-0.493974,-0.0898725,15,32765
1.20519,-0.529949,-0.0952221,16,32765
1.20343,-0.534014,-0.0947482,15,32765
1.16522,-0.521817,-0.0915036,14,32765
1.19982,-0.542226,-0.0939806,18,32765
1.28879,-0.58765,-0.100487,15,32765
1.22339,-0.562833,-0.0950313,15,32765
1.28487,-0.596332,-0.0995216,13,32765
1.30997,-0.613397,-0.101161,13,32765
1.2087,-0.570987,-0.0928851,12,32765
0,-0,-0,0,32765
0,-0,-0,0,32765
0,-0,-0,0,32765
0,-0,-0,0,32765
0,-0,-0,0,32765
0,-0,-0,0,32765
0,-0,-0,0,32765
0,-0,-0,0,32765
0,-0,-0,0,32765
0,-0,-0,0,32765
0,-0,-0,0,32765
0,-0,-0,0,32765
0,-0,-0,0,32765
1.68287,-0.895123,-0.12162,11,32765
1.71508,-0.919683,-0.123282,13,32765
1.64177,-0.88751,-0.117497,17,32765
1.67388,-0.912163,-0.119028,17,32765
1.66211,-0.912998,-0.117638,18,32765
1.63287,-0.904097,-0.115052,15,32765
1.64729,-0.919347,-0.115518,16,32765
1.69644,-0.954248,-0.118296,17,32765
1.62378,-0.920606,-0.112761,17,32765
1.62075,-0.926034,-0.111972,17,32765
1.63496,-0.941475,-0.112409,17,32765
1.64049,-0.951939,-0.112213,17,32765
1.65458,-0.967501,-0.11278,18,32765
1.62557,-0.957867,-0.110061,17,32765
1.59663,-0.948037,-0.107755,17,32765
1.66199,-0.994461,-0.111565,18,32765
1.63304,-0.984579,-0.109088,17,32765
1.57854,-0.958992,-0.105073,17,32765
1.63497,-1.00077,-0.108284,16,32765
1.6062,-0.990468,-0.10581,17,32765
1.57752,-0.979963,-0.103517,17,32765
1.62512,-1.01692,-0.106126,18,32765
1.6049,-1.01162,-0.104451,17,32765
1.56788,-0.995517,-0.101519,17,32765
1.59831,-1.02218,-0.102785,17,32765
1.62849,-1.04916,-0.104409,18,32765
1.63341,-1.05998,-0.104412,17,32765
1.58816,-1.03805,-0.100987,17,32765
1.56803,-1.03238,-0.0993771,17,32765
1.55632,-1.03206,-0.0981349,17,32765
1.58608,-1.05948,-0.099732,17,32765
1.5992,-1.07585,-0.100051,17,32765
1.58737,-1.07557,-0.0990406,17,32765
1.58385,-1.08081,-0.0983123,17,32765
1.58034,-1.08599,-0.0977602,17,32765
1.56857,-1.0855,-0.0968338,17,32765
1.58969,-1.10766,-0.0979099,17,32765
1.5371,-1.07835,-0.0942873,17,32765
1.57441,-1.11215,-0.0962056,17,32765
1.53012,-1.08831,-0.093395,17,32765
1.5509,-1.11079,-0.0945557,17,32765
1.55541,-1.12168,-0.0945452,17,32765
1.57604,-1.1443,-0.095756,18,32765
1.56429,-1.14347,-0.0951471,17,32765
0.923833,-0.28361,-0.083654,17,32765
0.941922,-0.292511,-0.0855586,17,32765
0.969446,-0.304576,-0.0883584,17,32765
0.939951,-0.298716,-0.0857983,17,32765
0.967398,-0.310976,-0.0885205,17,32765
0.947386,-0.30809,-0.086831,17,32765
0.993674,-0.326789,-0.0912177,17,32765
0.992573,-0.330119,-0.0912181,17,32765
0.963153,-0.323874,-0.0885513,17,32765
0.999814,-0.339869,-0.0919875,18,32765
0.998668,-0.343215,-0.0920082,18,32765
0.988122,-0.343269,-0.0910054,18,32765
0.996348,-0.349946,-0.0918056,17,32765
1.01395,-0.359959,-0.0934515,18,32765
0.994003,-0.356613,-0.0915683,17,32765
1.03964,-0.376919,-0.0958508,19,32765
1.02904,-0.376945,-0.0947571,18,32765
1.00908,-0.373533,-0.0929048,19,32765
1.02649,-0.383952,-0.0943284,19,32765
1.01588,-0.383904,-0.0932947,19,32765
1.05182,-0.401578,-0.0965027,20,32765
1.04119,-0.401533,-0.0954122,19,32765
1.03056,-0.401413,-0.094372,19,32765
1.01068,-0.397605,-0.0923385,16,32765
1.03713,-0.41204,-0.0947323,17,32765
1.05425,-0.422977,-0.0961726,17,32765
1.05284,-0.426516,-0.0959514,16,32765
1.09752,-0.448989,-0.0998203,17,32765
1.096,-0.452749,-0.0995529,16,32765
1.07606,-0.448874,-0.0975055,16,32765
1.12966,-0.475745,-0.102129,16,32765
1.15558,-0.491281,-0.104348,17,32765
1.14478,-0.49128,-0.103047,16,32765
1.16144,-0.503069,-0.104348,16,32765
1.15975,-0.507044,-0.103882,16,32765
1.16717,-0.515024,-0.104264,15,32765
1.17456,-0.523027,-0.104614,16,32765
1.18189,-0.531135,-0.105044,15,32765
1.28903,-0.584583,-0.114328,14,32765
1.24178,-0.568199,-0.10971,15,32765
1.25798,-0.580775,-0.110793,15,32765
1.31028,-0.610258,-0.115127,15,32765
1.33529,-0.627449,-0.117035,13,32765
1.30617,-0.6192,-0.114011,13,32765
0,-0,-0,0,32765
0,-0,-0,0,32765
0,-0,-0,0,32765
0,-0,-0,0,32765
0,-0,-0,0,32765
0,-0,-0,0,32765
0,-0,-0,0,32765
0,-0,-0,0,32765
0,-0,-0,0,32765
0,-0,-0,14,32765
0,-0,-0,0,32765
0,-0,-0,0,32765
0,-0,-0,0,32765
1.66289,-0.887623,-0.137919,14,32765
1.63359,-0.879089,-0.134884,17,32765
1.60436,-0.870357,-0.131995,17,32765
1.64523,-0.899725,-0.134633,19,32765
1.61603,-0.890839,-0.131736,17,32765
1.6305,-0.905994,-0.132429,18,32765
1.64489,-0.921272,-0.13308,17,32765
1.55497,-0.877782,-0.125221,17,32765
1.62139,-0.922528,-0.130133,17,32765
1.627,-0.932926,-0.130033,18,32765
1.63253,-0.943434,-0.129962,17,32765
1.60356,-0.933834,-0.127124,17,32765
1.63488,-0.959409,-0.129248,18,32765
1.6317,-0.96493,-0.128284,18,32765
1.60277,-0.955106,-0.125694,18,32765
1.62523,-0.975968,-0.1269,18,32765
1.60492,-0.971113,-0.124822,18,32765
1.61018,-0.981744,-0.124883,19,32765
1.59842,-0.981939,-0.123472,18,32765
1.60369,-0.992501,-0.123345,18,32765
1.56657,-0.976693,-0.120121,17,32765
1.58875,-0.997774,-0.121352,17,32765
1.61078,-1.01903,-0.122714,18,32765
1.61587,-1.02973,-0.122597,18,32765
1.57894,-1.01348,-0.119133,18,32765
1.54205,-0.997103,-0.116084,17,32765
1.60567,-1.0458,-0.120602,17,32765
1.56887,-1.02921,-0.117348,17,32765
1.59043,-1.05098,-0.118662,18,32765
1.56205,-1.03968,-0.116078,18,32765
1.55857,-1.04494,-0.115581,18,32765
1.56343,-1.05568,-0.115483,18,32765
1.54342,-1.04967,-0.113779,18,32765
1.54822,-1.06043,-0.113672,18,32765
1.5612,-1.07684,-0.114333,18,32765
1.51668,-1.05351,-0.110917,18,32765
1.51331,-1.05839,-0.11049,17,32765
1.53442,-1.08051,-0.111685,18,32765
1.54721,-1.09705,-0.11229,17,32765
1.54366,-1.10208,-0.111965,18,32765
1.51571,-1.0897,-0.109872,17,32765
1.52027,-1.1005,-0.109961,18,32765
1.51672,-1.10541,-0.109701,18,32765
1.5212,-1.11621,-0.110166,17,32765
0.913533,-0.278854,-0.0964293,16,32765
0.950702,-0.293606,-0.0998043,17,32765
0.921295,-0.28781,-0.0963411,17,32765
0.939377,-0.296871,-0.0976669,17,32765
0.957389,-0.306075,-0.0991204,17,32765
0.994276,-0.321535,-0.102616,17,32765
0.945966,-0.309358,-0.0971917,17,32765
0.954432,-0.315599,-0.0977594,17,32765
0.962879,-0.321899,-0.0982034,17,32765
0.971292,-0.32827,-0.0986463,16,32765
0.960796,-0.328353,-0.097239,16,32765
0.987967,-0.341328,-0.0995832,18,32765
0.986842,-0.344681,-0.0991844,18,32765
1.00448,-0.354686,-0.100582,17,32765
1.00333,-0.358075,-0.100106,17,32765
1.03024,-0.371627,-0.10249,17,32765
1.01967,-0.371695,-0.101104,18,32765
1.01845,-0.375153,-0.100608,18,32765
1.00789,-0.375086,-0.0993244,18,32765
1.03463,-0.389014,-0.101541,18,32765
1.02403,-0.38899,-0.10029,18,32765
1.03204,-0.396074,-0.100627,19,32765
1.0307,-0.399632,-0.10024,19,32765
1.04791,-0.41042,-0.101678,18,32765
1.03731,-0.410292,-0.100283,17,32765
1.02671,-0.410091,-0.0989976,16,32765
1.02536,-0.413561,-0.0985456,16,32765
1.05166,-0.428324,-0.100744,16,32765
1.0318,-0.424375,-0.0984979,16,32765
1.11315,-0.462333,-0.106035,16,32765
1.09321,-0.458478,-0.103841,16,32765
1.11922,-0.473826,-0.105988,16,32765
1.13598,-0.485446,-0.107199,16,32765
1.1435,-0.49328,-0.107616,15,32765
1.11444,-0.485247,-0.104677,15,32765
1.15841,-0.509127,-0.108465,16,32765
1.17492,-0.521193,-0.109635,15,32765
1.13676,-0.508984,-0.105855,15,32765
1.24401,-0.562153,-0.115436,15,32765
1.3328,-0.607738,-0.123277,14,32765
1.25834,-0.578962,-0.116068,14,32765
1.28355,-0.595806,-0.117957,15,32765
1.29059,-0.604369,-0.118408,14,32765
1.29758,-0.612998,-0.11878,13,32765
1.33156,-0.634516,-0.121418,13,32765
0,-0,-0,0,32765
0,-0,-0,0,32765
0,-0,-0,0,32765
0,-0,-0,0,32765
0,-0,-0,0,32765
0,-0,-0,0,32765
0,-0,-0,12,32765
0,-0,-0,12,32765
0,-0,-0,0,32765
0,-0,-0,14,32765
0,-0,-0,0,32765
0,-0,-0,0,32765
1.64592,-0.875724,-0.144719,12,32765
1.62542,-0.871894,-0.142457,14,32765
1.64879,-0.891709,-0.144027,17,32765
1.59326,-0.868713,-0.138826,17,32765
1.6603,-0.912495,-0.144095,18,32765
1.6224,-0.898745,-0.140299,17,32765
1.62816,-0.909009,-0.140409,17,32765
1.58172,-0.890002,-0.135888,17,32765
1.6048,-0.910069,-0.137406,18,32765
1.62775,-0.930348,-0.138878,18,32765
1.59008,-0.915953,-0.135218,17,32765
1.6388,-0.95135,-0.13878,18,32765
1.57541,-0.921592,-0.132872,17,32765
1.60673,-0.947147,-0.135016,17,32765
1.60367,-0.95246,-0.134014,17,32765
1.60909,-0.962954,-0.134024,16,32765
1.59741,-0.963143,-0.132414,17,32765
1.59424,-0.968488,-0.131637,18,32765
1.61662,-0.989395,-0.132809,18,32765
1.6134,-0.994759,-0.13187,17,32765
1.55928,-0.968579,-0.126845,17,32765
1.58151,-0.989623,-0.12794,18,32765
1.57828,-0.994891,-0.126997,16,32765
1.58345,-1.00548,-0.126879,17,32765
1.58862,-1.01608,-0.126364,18,32765
1.57691,-1.01597,-0.124833,17,32765
1.54851,-1.00489,-0.121728,18,32765
1.53689,-1.00456,-0.12011,17,32765
1.55859,-1.02617,-0.121105,18,32765
1.5636,-1.03684,-0.120557,17,32765
1.57684,-1.05307,-0.120819,18,32765
1.54038,-1.03592,-0.117085,17,32765
1.5453,-1.04658,-0.116677,17,32765
1.55838,-1.06297,-0.116853,17,32765
1.55491,-1.06818,-0.115555,18,32765
1.54323,-1.06764,-0.113895,17,32765
1.55621,-1.08409,-0.113866,18,32765
1.52827,-1.07192,-0.110889,17,32765
1.533,-1.08266,-0.110192,18,32765
1.48885,-1.05877,-0.105952,16,32765
1.55034,-1.11023,-0.109232,18,32765
1.51444,-1.09191,-0.105394,17,32765
1.52713,-1.1086,-0.104878,17,32765
1.53975,-1.12534,-0.104351,17,32765
0.883821,-0.270812,-0.102085,16,32765
0.88299,-0.273731,-0.101487,17,32765
0.929567,-0.291495,-0.106469,16,32765
0.928664,-0.294595,-0.105815,16,32765
0.956127,-0.306824,-0.108535,17,32765
0.97405,-0.316179,-0.110261,17,32765
0.973057,-0.319412,-0.109707,16,32765
0.943731,-0.31323,-0.106111,16,32765
0.980458,-0.329002,-0.109821,17,32765
0.97942,-0.332252,-0.109295,18,32765
0.978332,-0.335592,-0.108837,18,32765
0.967857,-0.335624,-0.107284,18,32765
0.99491,-0.348789,-0.110005,18,32765
0.97501,-0.345557,-0.107451,17,32765
1.02071,-0.365627,-0.112131,17,32765
1.01014,-0.365727,-0.110686,18,32765
1.01829,-0.372565,-0.111257,19,32765
1.01707,-0.376028,-0.11076,19,32765
1.01584,-0.37944,-0.110395,19,32765
1.02391,-0.386403,-0.11087,19,32765
1.02263,-0.389889,-0.110533,19,32765
1.01206,-0.389834,-0.108963,18,32765
1.02929,-0.40055,-0.110575,17,32765
1.00016,-0.393158,-0.107233,17,32765
1.06362,-0.422244,-0.113674,17,32765
1.04376,-0.41843,-0.111299,17,32765
1.07005,-0.433171,-0.113781,17,32765
1.05019,-0.429294,-0.111353,16,32765
1.07635,-0.444321,-0.113783,15,32765
1.06565,-0.444226,-0.112447,16,32765
1.06415,-0.447923,-0.112016,15,32765
1.1268,-0.478779,-0.1183,15,32765
1.11607,-0.478682,-0.116819,16,32765
1.14187,-0.494379,-0.119243,16,32765
1.14933,-0.50227,-0.119828,15,32765
1.15675,-0.510255,-0.120275,15,32765
1.11866,-0.49805,-0.115973,15,32765
1.1896,-0.534592,-0.123117,14,32765
1.25127,-0.567502,-0.129108,13,32765
1.21316,-0.555208,-0.124831,14,32765
1.3017,-0.601101,-0.133628,14,32765
1.24556,-0.580287,-0.12746,14,32765
1.26165,-0.592979,-0.128934,14,32765
1.26867,-0.601532,-0.129408,14,32765
1.31161,-0.627299,-0.133343,13,32765
0,-0,-0,0,32765
0,-0,-0,0,32765
0,-0,-0,0,32765
0,-0,-0,0,32765
0,-0,-0,0,32765
0,-0,-0,0,32765
0,-0,-0,13,32765
0,-0,-0,13,32765
0,-0,-0,0,32765
0,-0,-0,12,32765
0,-0,-0,0,32765
0,-0,-0,0,32765
1.61696,-0.863493,-0.159468,16,32765
1.61407,-0.869008,-0.158756,18,32765
1.61113,-0.874571,-0.15803,19,32765
1.6344,-0.894452,-0.159983,19,32765
1.5791,-0.871092,-0.154054,17,32765
1.61106,-0.895782,-0.156698,18,32765
1.59074,-0.891421,-0.154372,17,32765
1.58781,-0.896756,-0.153599,18,32765
1.56753,-0.892243,-0.151212,18,32765
1.60777,-0.922361,-0.154639,18,32765
1.58744,-0.917851,-0.152268,17,32765
1.5758,-0.918195,-0.150624,17,32765
1.56418,-0.918448,-0.149008,17,32765
1.56114,-0.923721,-0.148265,17,32765
1.56672,-0.934004,-0.148098,18,32765
1.55509,-0.934136,-0.146602,17,32765
1.57763,-0.954796,-0.14813,18,32765
1.53193,-0.934143,-0.143376,17,32765
1.56287,-0.960109,-0.14565,18,32765
1.55127,-0.960065,-0.143952,17,32765
1.56504,-0.975827,-0.144658,17,32765
1.57031,-0.986333,-0.144471,18,32765
1.58394,-1.00224,-0.145074,18,32765
1.54703,-0.986079,-0.141204,17,32765
1.55225,-0.99659,-0.140805,18,32765
1.56573,-1.0126,-0.141469,18,32765
1.56246,-1.01781,-0.140341,18,32765
1.53414,-1.00659,-0.137128,18,32765
1.56411,-1.03373,-0.139138,19,32765
1.55247,-1.03339,-0.137208,18,32765
1.48286,-0.994098,-0.130374,17,32765
1.53757,-1.038,-0.134281,18,32765
1.57547,-1.07111,-0.136829,19,32765
1.50613,-1.03128,-0.130059,18,32765
1.54383,-1.06465,-0.13232,18,32765
1.5076,-1.04701,-0.128476,18,32765
1.52879,-1.06909,-0.129347,18,32765
1.5091,-1.06256,-0.126796,18,32765
1.51386,-1.07327,-0.126204,18,32765
1.52666,-1.08986,-0.126214,17,32765
1.53122,-1.10078,-0.125546,18,32765
1.52774,-1.10578,-0.123978,19,32765
1.49197,-1.08728,-0.119744,17,32765
1.49659,-1.09804,-0.118797,17,32765
0.903452,-0.276049,-0.100355,17,32765
0.91202,-0.28199,-0.101493,16,32765
0.901573,-0.282066,-0.10052,16,32765
0.938555,-0.297047,-0.104771,16,32765
0.94703,-0.303216,-0.105804,17,32765
0.964918,-0.312557,-0.107894,17,32765
0.926071,-0.303413,-0.103602,17,32765
0.981698,-0.325271,-0.109857,16,32765
0.933477,-0.312735,-0.104482,16,32765
0.97012,-0.328575,-0.108657,17,32765
0.97845,-0.335001,-0.109587,18,32765
0.986749,-0.341512,-0.110436,18,32765
0.985604,-0.344824,-0.110372,18,32765
1.00322,-0.35478,-0.112202,18,32765
1.00202,-0.358163,-0.112125,17,32765
0.991437,-0.358244,-0.110971,17,32765
1.00893,-0.368448,-0.112761,18,32765
1.00769,-0.371888,-0.112553,19,32765
1.00645,-0.375284,-0.112361,18,32765
1.01452,-0.382144,-0.113185,19,32765
0.976078,-0.371401,-0.108781,18,32765
1.02127,-0.392525,-0.113737,18,32765
1.02923,-0.39959,-0.11452,16,32765
0.990843,-0.38859,-0.110127,16,32765
1.01728,-0.402948,-0.112979,16,32765
1.02515,-0.410172,-0.113689,16,32765
1.06989,-0.432295,-0.118545,16,32765
1.10529,-0.450978,-0.122294,16,32765
1.0578,-0.435775,-0.116877,16,32765
1.09311,-0.454583,-0.120651,15,32765
1.08245,-0.454396,-0.119315,16,32765
1.09011,-0.46189,-0.120034,15,32765
1.11602,-0.47735,-0.122593,15,32765
1.12355,-0.485141,-0.123172,16,32765
1.14015,-0.496979,-0.124761,16,32765
1.13848,-0.500905,-0.124303,16,32765
1.16411,-0.516859,-0.126923,15,32765
1.18057,-0.528906,-0.1285,15,32765
1.18787,-0.537033,-0.129109,14,32765
1.2857,-0.586477,-0.139395,13,32765
1.32893,-0.611698,-0.143765,14,32765
1.25466,-0.582723,-0.135512,14,32765
1.27074,-0.59548,-0.136836,14,32765
1.32271,-0.625373,-0.142252,15,32765
1.32066,-0.629844,-0.141626,14,32765
1.29163,-0.621422,-0.138301,12,32765
1.37915,-0.669221,-0.147233,12,32765
0,-0,-0,0,32765
0,-0,-0,0,32765
0,-0,-0,0,32765
0,-0,-0,0,32765
0,-0,-0,0,32765
0,-0,-0,0,32765
0,-0,-0,0,32765
0,-0,-0,0,32765
0,-0,-0,0,32765
0,-0,-0,0,32765
1.54706,-0.823661,-0.160597,12,32765
1.62325,-0.871343,-0.168289,16,32765
1.62039,-0.876796,-0.167534,17,32765
1.59999,-0.872777,-0.164917,18,32765
1.58839,-0.873346,-0.163317,17,32765
1.59424,-0.883494,-0.163527,17,32765
1.59999,-0.893773,-0.163754,17,32765
1.62307,-0.913856,-0.165582,18,32765
1.55069,-0.88009,-0.157835,16,32765
1.57372,-0.900152,-0.159795,17,32765
1.59664,-0.920393,-0.161651,17,32765
1.61081,-0.935805,-0.162618,17,32765
1.59056,-0.931115,-0.160141,17,32765
1.56168,-0.92136,-0.157024,17,32765
1.57576,-0.936831,-0.157927,17,32765
1.57264,-0.942173,-0.157233,17,32765
1.58656,-0.957808,-0.158187,17,32765
1.5834,-0.963162,-0.157375,16,32765
1.59719,-0.978939,-0.158284,17,32765
1.54311,-0.952861,-0.152504,17,32765
1.56535,-0.973826,-0.154401,17,32765
1.57904,-0.989669,-0.155218,17,32765
1.55054,-0.978925,-0.152085,17,32765
1.57253,-1.00021,-0.153763,18,32765
1.56088,-1.00005,-0.152191,16,32765
1.50737,-0.972793,-0.146684,17,32765
1.55431,-1.01043,-0.150868,17,32765
1.52599,-0.999202,-0.147857,17,32765
1.5643,-1.03175,-0.151127,17,32765
1.52769,-1.01493,-0.147213,17,32765
1.49128,-0.997767,-0.143312,17,32765
1.52933,-1.0306,-0.146649,17,32765
1.53422,-1.04125,-0.146863,17,32765
1.53081,-1.04635,-0.146187,17,32765
1.51097,-1.04012,-0.143914,17,32765
1.51575,-1.05083,-0.144047,18,32765
1.53683,-1.07298,-0.145815,18,32765
1.48447,-1.04355,-0.140496,17,32765
1.48921,-1.05421,-0.14071,16,32765
1.55886,-1.11115,-0.147287,17,32765
1.50671,-1.08134,-0.141907,17,32765
1.51129,-1.0921,-0.142217,17,32765
1.53196,-1.11459,-0.144138,18,32765
1.52833,-1.11964,-0.143554,18,32765
0.930704,-0.28548,-0.112653,17,32765
0.910763,-0.282694,-0.110434,17,32765
0.928754,-0.291697,-0.11282,17,32765
0.946714,-0.300791,-0.115141,17,32765
0.95516,-0.307004,-0.116265,17,32765
0.982453,-0.319469,-0.11969,17,32765
0.962506,-0.316571,-0.117324,17,32765
0.952025,-0.316658,-0.116087,17,32765
0.960392,-0.322995,-0.117139,18,32765
0.968728,-0.32937,-0.11824,18,32765
1.00522,-0.345496,-0.122703,19,32765
1.04163,-0.361895,-0.127072,19,32765
1.01229,-0.355525,-0.12357,18,32765
0.992391,-0.352302,-0.121011,18,32765
0.991202,-0.355659,-0.120934,18,32765
0.980637,-0.355705,-0.119687,19,32765
0.998106,-0.365898,-0.121665,19,32765
1.02482,-0.379665,-0.124863,20,32765
1.00495,-0.376164,-0.1224,18,32765
1.03159,-0.390065,-0.125578,18,32765
1.00246,-0.382902,-0.121926,17,32765
1.03827,-0.40059,-0.126212,17,32765
1.00915,-0.393298,-0.122584,17,32765
1.04481,-0.411326,-0.126801,17,32765
1.07113,-0.425904,-0.129916,17,32765
1.04202,-0.418519,-0.126233,16,32765
1.06824,-0.433282,-0.129317,16,32765
1.03001,-0.421872,-0.124541,15,32765
1.10208,-0.455754,-0.1331,16,32765
1.11892,-0.467098,-0.135018,17,32765
1.10823,-0.467001,-0.13358,15,32765
1.14328,-0.48627,-0.137689,16,32765
1.1234,-0.482342,-0.135013,16,32765
1.13089,-0.49018,-0.13568,16,32765
1.17477,-0.514027,-0.140723,16,32765
1.18213,-0.522101,-0.141336,16,32765
1.1804,-0.526099,-0.140966,16,32765
1.224,-0.550463,-0.145965,14,32765
1.26742,-0.575195,-0.150964,13,32765
1.29265,-0.591907,-0.153638,15,32765
1.27261,-0.588019,-0.150972,15,32765
1.36075,-0.634416,-0.161211,15,32765
1.34063,-0.63064,-0.158414,15,32765
1.35646,-0.643789,-0.16012,16,32765
1.2826,-0.614036,-0.151026,15,32765
1.33425,-0.644393,-0.156912,14,32765
1.35003,-0.657602,-0.158358,13,32765
0,-0,-0,0,32765
0,-0,-0,0,32765
0,-0,-0,0,32765
0,-0,-0,0,32765
0,-0,-0,0,32765
0,-0,-0,0,32765
0,-0,-0,0,32765
0,-0,-0,0,32765
0,-0,-0,0,32765
1.5822,-0.838769,-0.181926,15,32765
1.62333,-0.867603,-0.185931,17,32765
1.55033,-0.835416,-0.177391,17,32765
1.56507,-0.850139,-0.178663,18,32765
1.63206,-0.893721,-0.185823,18,32765
1.58557,-0.87517,-0.180153,17,32765
1.53052,-0.85147,-0.173551,16,32765
1.56239,-0.876162,-0.176841,17,32765
1.5335,-0.866781,-0.173095,17,32765
1.53058,-0.872059,-0.172437,16,32765
1.56222,-0.897056,-0.17565,17,32765
1.57649,-0.91232,-0.176819,17,32765
1.57346,-0.917673,-0.176053,17,32765
1.57904,-0.927984,-0.176279,17,32765
1.51596,-0.897885,-0.169064,16,32765
1.52153,-0.908136,-0.169222,16,32765
1.53557,-0.923573,-0.170443,17,32765
1.53249,-0.9288,-0.16971,17,32765
1.48694,-0.908044,-0.164229,16,32765
1.5348,-0.944402,-0.169103,17,32765
1.56555,-0.97053,-0.172098,18,32765
1.5539,-0.970521,-0.170551,18,32765
1.53385,-0.965152,-0.167867,17,32765
1.55594,-0.986228,-0.169984,18,32765
1.56946,-1.00222,-0.171018,18,32765
1.51594,-0.97512,-0.164799,17,32765
1.5044,-0.974742,-0.163288,17,32765
1.50119,-0.97979,-0.162603,17,32765
1.55624,-1.02308,-0.168334,17,32765
1.51965,-1.00631,-0.163982,17,32765
1.49976,-1.00037,-0.161499,17,32765
1.52134,-1.02196,-0.163458,18,32765
1.50972,-1.02148,-0.161929,18,32765
1.49815,-1.02087,-0.160476,17,32765
1.4866,-1.02023,-0.158934,18,32765
1.48326,-1.02518,-0.158241,17,32765
1.49625,-1.04151,-0.159345,18,32765
1.4602,-1.02362,-0.155319,16,32765
1.50577,-1.06283,-0.159846,18,32765
1.51854,-1.07936,-0.161001,18,32765
1.49883,-1.07273,-0.158945,18,32765
1.47114,-1.06015,-0.155605,18,32765
1.48384,-1.07667,-0.156866,18,32765
1.44818,-1.05798,-0.153111,17,32765
1.48486,-1.09229,-0.156792,18,32765
0.929577,-0.283712,-0.125677,16,32765
0.919231,-0.283903,-0.123749,17,32765
0.908874,-0.284016,-0.121998,16,32765
0.917452,-0.290023,-0.122754,16,32765
0.963786,-0.308191,-0.128587,17,32765
0.915599,-0.296212,-0.121808,17,32765
0.914651,-0.299313,-0.121346,16,32765
0.93251,-0.308675,-0.123467,16,32765
0.978568,-0.327602,-0.129157,17,32765
0.94932,-0.321355,-0.124994,18,32765
0.948277,-0.32457,-0.124599,18,32765
0.975353,-0.337515,-0.12795,18,32765
0.974254,-0.340837,-0.127512,17,32765
0.973134,-0.344155,-0.127148,18,32765
1.00006,-0.357471,-0.130358,17,32765
0.989553,-0.357516,-0.12871,19,32765
0.997709,-0.364288,-0.129505,19,32765
0.987214,-0.364199,-0.127938,19,32765
0.97671,-0.364082,-0.126416,19,32765
1.03128,-0.388358,-0.133181,19,32765
1.00216,-0.381322,-0.12911,17,32765
0.99162,-0.381199,-0.127579,16,32765
1.01812,-0.395377,-0.130787,16,32765
1.00757,-0.395247,-0.129176,17,32765
0.997069,-0.39497,-0.127486,16,32765
1.06951,-0.42789,-0.136602,16,32765
1.06812,-0.43148,-0.136207,15,32765
1.11268,-0.453841,-0.141713,16,32765
1.102,-0.453868,-0.139998,16,32765
1.10964,-0.461528,-0.140711,16,32765
1.10804,-0.465468,-0.140323,16,32765
1.11561,-0.473192,-0.141061,15,32765
1.12315,-0.480957,-0.141806,15,32765
1.13979,-0.492688,-0.143622,16,32765
1.16549,-0.508481,-0.146589,15,32765
1.14561,-0.504468,-0.143866,15,32765
1.18933,-0.528563,-0.149053,15,32765
1.18755,-0.532639,-0.148711,14,32765
1.24012,-0.561258,-0.154903,13,32765
1.26536,-0.577895,-0.157814,12,32765
1.30853,-0.603071,-0.162939,15,32765
1.32455,-0.615931,-0.164595,14,32765
1.40346,-0.658447,-0.174244,14,32765
1.33841,-0.633465,-0.165811,14,32765
1.34529,-0.642296,-0.166283,15,32765
1.31626,-0.634018,-0.162407,13,32765
1.34097,-0.651553,-0.165159,13,32765
1.34771,-0.660534,-0.165712,13,32765
1.39005,-0.687205,-0.170604,12,32765
0,-0,-0,0,32765
1.33216,-0.66996,-0.162822,11,32765
1.36541,-0.692468,-0.166553,12,32765
0,-0,-0,0,32765
0,-0,-0,0,32765
0,-0,-0,0,32765
0,-0,-0,0,32765
1.58226,-0.83667,-0.190899,12,32765
1.6234,-0.865376,-0.19547,17,32765
1.59428,-0.856728,-0.191528,17,32765
1.4953,-0.809976,-0.179237,16,32765
1.57991,-0.86274,-0.188843,18,32765
1.57705,-0.868127,-0.188051,16,32765
1.5655,-0.868649,-0.186146,16,32765
1.5453,-0.864225,-0.183224,17,32765
1.57716,-0.888946,-0.186392,17,32765
1.58284,-0.899252,-0.18668,17,32765
1.51946,-0.870045,-0.178531,17,32765
1.54241,-0.890154,-0.180845,17,32765
1.54807,-0.900444,-0.18076,17,32765
1.5623,-0.915722,-0.181866,17,32765
1.5593,-0.921024,-0.180869,17,32765
1.54772,-0.921211,-0.178963,17,32765
1.54472,-0.92642,-0.178027,16,32765
1.56725,-0.94707,-0.179995,17,32765
1.56416,-0.952324,-0.179108,17,32765
1.57804,-0.967996,-0.179972,18,32765
1.56642,-0.968072,-0.177922,17,32765
1.53795,-0.957521,-0.17394,17,32765
1.5264,-0.957398,-0.172018,17,32765
1.50653,-0.951763,-0.169177,17,32765
1.50348,-0.956764,-0.168077,17,32765
1.47527,-0.945616,-0.164327,16,32765
1.49733,-0.966725,-0.165951,17,32765
1.50256,-0.977145,-0.165867,16,32765
1.54939,-1.01491,-0.170149,17,32765
1.52947,-1.00912,-0.167274,17,32765
1.52622,-1.01424,-0.166067,17,32765
1.49809,-1.00275,-0.162172,17,32765
1.53612,-1.03564,-0.165541,17,32765
1.51637,-1.0295,-0.162296,17,32765
1.49659,-1.02332,-0.159451,17,32765
1.50154,-1.0339,-0.15912,17,32765
1.49828,-1.03881,-0.157937,17,32765
1.48682,-1.03801,-0.155907,17,32765
1.47542,-1.03714,-0.153597,17,32765
1.49647,-1.05935,-0.154837,17,32765
1.49311,-1.06428,-0.153418,17,32765
1.47355,-1.05754,-0.150501,17,32765
1.49442,-1.07995,-0.151393,18,32765
1.46677,-1.06735,-0.147538,18,32765
1.4955,-1.09583,-0.149073,17,32765
0.890197,-0.272833,-0.129269,16,32765
0.898826,-0.278762,-0.130012,17,32765
0.954667,-0.299571,-0.137723,17,32765
0.953741,-0.302749,-0.137187,17,32765
0.933926,-0.299882,-0.133989,16,32765
0.951811,-0.309201,-0.136201,17,32765
0.913167,-0.300061,-0.130344,17,32765
0.959205,-0.31882,-0.13667,17,32765
0.976974,-0.328413,-0.138803,18,32765
0.966538,-0.328526,-0.137022,18,32765
0.965473,-0.331809,-0.136619,18,32765
0.983116,-0.341592,-0.138917,18,32765
1.00071,-0.351522,-0.141112,18,32765
0.980872,-0.348305,-0.138106,19,32765
0.998409,-0.358332,-0.140279,19,32765
0.978595,-0.354994,-0.13723,19,32765
0.986743,-0.361746,-0.13812,18,32765
0.976272,-0.361622,-0.136463,18,32765
1.00294,-0.375373,-0.140037,17,32765
1.02955,-0.389276,-0.143468,17,32765
1.02827,-0.392837,-0.142983,17,32765
0.98995,-0.382093,-0.137493,17,32765
1.00716,-0.392698,-0.139697,17,32765
1.04277,-0.410706,-0.144385,17,32765
1.02302,-0.406883,-0.14131,17,32765
1.07689,-0.432576,-0.148617,16,32765
1.06629,-0.432474,-0.146951,16,32765
1.06487,-0.436086,-0.146599,16,32765
1.08177,-0.447324,-0.148591,16,32765
1.06195,-0.443465,-0.145637,16,32765
1.08783,-0.458814,-0.14902,15,32765
1.07716,-0.458714,-0.147359,15,32765
1.13942,-0.48988,-0.155681,16,32765
1.1651,-0.505647,-0.158915,16,32765
1.13617,-0.497677,-0.154721,15,32765
1.16174,-0.513621,-0.157993,15,32765
1.16003,-0.517609,-0.157482,15,32765
1.22164,-0.550122,-0.16574,13,32765
1.20176,-0.546078,-0.162683,13,32765
1.29918,-0.595719,-0.175641,15,32765
1.27915,-0.591894,-0.1727,15,32765
1.32216,-0.617283,-0.178187,15,32765
1.28417,-0.604897,-0.172945,14,32765
1.33597,-0.634847,-0.179585,15,32765
1.33388,-0.639403,-0.178947,15,32765
1.34066,-0.64836,-0.179585,14,32765
1.36527,-0.666022,-0.182601,14,32765
1.36304,-0.670727,-0.182044,14,32765
1.39637,-0.693099,-0.186203,14,32765
1.41184,-0.706774,-0.187853,13,32765
1.37399,-0.693773,-0.182567,13,32765
1.48674,-0.757032,-0.197211,12,32765
0,-0,-0,0,32765
0,-0,-0,0,32765
0,-0,-0,0,32765
1.55557,-0.819204,-0.204917,16,32765
1.57923,-0.838433,-0.207514,17,32765
1.60276,-0.85782,-0.210246,17,32765
1.54749,-0.834939,-0.2026,18,32765
1.56222,-0.849643,-0.204139,19,32765
1.5507,-0.850211,-0.202135,18,32765
1.5218,-0.841096,-0.197961,17,32765
1.51035,-0.841438,-0.195991,18,32765
1.54226,-0.866016,-0.199641,17,32765
1.51351,-0.856523,-0.195362,17,32765
1.53655,-0.876486,-0.197993,18,32765
1.51643,-0.871835,-0.194758,17,32765
1.49633,-0.867066,-0.191834,17,32765
1.55355,-0.907301,-0.198449,17,32765
1.51632,-0.892386,-0.193183,17,32765
1.51339,-0.897548,-0.192212,17,32765
1.49338,-0.892487,-0.189156,17,32765
1.55861,-0.938559,-0.196855,18,32765
1.53004,-0.928359,-0.192665,18,32765
1.51853,-0.928319,-0.190729,17,32765
1.49859,-0.923016,-0.187566,17,32765
1.50404,-0.933319,-0.187583,17,32765
1.5179,-0.948903,-0.188605,18,32765
1.52322,-0.959319,-0.188684,17,32765
1.47818,-0.937685,-0.182545,17,32765
1.47518,-0.942609,-0.181462,17,32765
1.51398,-0.97442,-0.185655,18,32765
1.51086,-0.979473,-0.184464,17,32765
1.5077,-0.984527,-0.183446,18,32765
1.48791,-0.978648,-0.180217,17,32765
1.48473,-0.983645,-0.179198,18,32765
1.48984,-0.994148,-0.179017,17,32765
1.47009,-0.988079,-0.175859,17,32765
1.49159,-1.00978,-0.177739,17,32765
1.4473,-0.986678,-0.171427,17,32765
1.46872,-1.00843,-0.173284,17,32765
1.42458,-0.984978,-0.167294,18,32765
1.47049,-1.02377,-0.171898,17,32765
1.4754,-1.03432,-0.17169,18,32765
1.48843,-1.05064,-0.172118,17,32765
1.46881,-1.0441,-0.16895,17,32765
1.4817,-1.06055,-0.169405,17,32765
1.48643,-1.07124,-0.169065,18,32765
1.43466,-1.0411,-0.162023,16,32765
1.43936,-1.05178,-0.161555,17,32765
1.48412,-1.09205,-0.165271,18,32765
0.909833,-0.277991,-0.128552,17,32765
0.899417,-0.278051,-0.127426,16,32765
0.907952,-0.28395,-0.128822,16,32765
0.935318,-0.295957,-0.133004,17,32765
0.972068,-0.311139,-0.138475,17,32765
0.989871,-0.320493,-0.141211,17,32765
0.979385,-0.320689,-0.139872,17,32765
0.950092,-0.314606,-0.135825,17,32765
0.967824,-0.324079,-0.138528,18,32765
0.957373,-0.324119,-0.137054,18,32765
0.984402,-0.337005,-0.140998,18,32765
0.983259,-0.340356,-0.140924,18,32765
0.991446,-0.347034,-0.142133,18,32765
0.971566,-0.343874,-0.139322,18,32765
0.970412,-0.347195,-0.139127,18,32765
0.997176,-0.360639,-0.143106,19,32765
0.986659,-0.36064,-0.141572,19,32765
0.985452,-0.363976,-0.141442,17,32765
0.993538,-0.370779,-0.142497,17,32765
1.00159,-0.377604,-0.143662,17,32765
1.01885,-0.388078,-0.146049,16,32765
0.999065,-0.384381,-0.143248,17,32765
1.04402,-0.405643,-0.149585,17,32765
1.015,-0.398315,-0.145291,16,32765
1.05055,-0.41634,-0.150361,16,32765
1.05832,-0.423689,-0.151455,16,32765
1.08446,-0.438505,-0.155105,16,32765
1.09218,-0.445994,-0.155982,16,32765
1.09069,-0.449759,-0.155632,16,32765
1.1075,-0.461092,-0.157933,15,32765
1.10596,-0.46491,-0.157515,15,32765
1.13179,-0.480314,-0.16111,16,32765
1.09375,-0.468557,-0.155441,15,32765
1.14679,-0.495957,-0.162795,15,32765
1.16331,-0.507826,-0.164986,15,32765
1.1888,-0.523918,-0.168435,15,32765
1.20517,-0.536105,-0.170466,14,32765
1.21242,-0.544321,-0.171314,14,32765
1.26481,-0.573072,-0.178448,13,32765
1.3441,-0.614536,-0.189283,13,32765
1.39611,-0.644077,-0.196323,15,32765
1.38498,-0.644649,-0.19456,16,32765
1.39186,-0.653567,-0.195136,15,32765
1.3628,-0.645596,-0.190709,14,32765
1.3696,-0.65458,-0.19138,14,32765
1.3853,-0.667928,-0.193206,14,32765
1.34738,-0.655349,-0.187595,15,32765
1.38979,-0.681753,-0.193127,14,32765
1.4854,-0.734912,-0.205904,14,32765
1.38529,-0.691267,-0.191609,14,32765
1.39181,-0.700621,-0.192073,13,32765
1.44254,-0.73246,-0.198675,12,32765
1.51079,-0.773631,-0.207591,12,32765
1.61411,-0.833404,-0.221358,11,32765
1.41767,-0.738029,-0.193987,12,32765
1.44161,-0.756745,-0.196745,13,32765
1.59701,-0.845373,-0.21753,17,32765
1.55914,-0.832231,-0.211818,16,32765
1.58259,-0.851733,-0.214631,17,32765
1.54489,-0.838171,-0.209007,18,32765
1.5683,-0.857696,-0.211674,17,32765
1.51331,-0.834252,-0.203726,16,32765
1.51059,-0.839357,-0.203001,17,32765
1.52515,-0.85424,-0.204418,16,32765
1.56557,-0.883868,-0.209416,18,32765
1.53673,-0.874521,-0.205128,17,32765
1.49937,-0.860035,-0.199598,16,32765
1.56537,-0.904908,-0.207765,18,32765
1.55379,-0.905233,-0.205901,18,32765
1.56799,-0.92051,-0.207307,17,32765
1.50509,-0.890396,-0.198708,17,32765
1.51924,-0.90566,-0.200252,17,32765
1.5504,-0.931211,-0.203699,17,32765
1.49633,-0.905595,-0.196202,16,32765
1.49336,-0.91065,-0.195441,17,32765
1.51578,-0.931313,-0.19787,17,32765
1.46201,-0.905059,-0.190512,17,32765
1.47596,-0.920462,-0.191832,17,32765
1.5403,-0.967687,-0.199874,17,32765
1.50359,-0.95154,-0.194684,17,32765
1.50049,-0.956552,-0.193987,16,32765
1.51407,-0.97236,-0.195456,17,32765
1.48587,-0.961241,-0.191363,17,32765
1.49936,-0.977116,-0.192772,17,32765
1.51278,-0.993059,-0.194213,18,32765
1.47636,-0.976189,-0.189281,16,32765
1.48143,-0.986651,-0.189722,17,32765
1.51127,-1.0137,-0.193276,18,32765
1.508,-1.01872,-0.192486,17,32765
1.48006,-1.0069,-0.188595,17,32765
1.4685,-1.00629,-0.187063,17,32765
1.50612,-1.03948,-0.191491,18,32765
1.50273,-1.04452,-0.190768,17,32765
1.45043,-1.01528,-0.184063,17,32765
1.4797,-1.04291,-0.187674,17,32765
1.4358,-1.01896,-0.181894,16,32765
1.45679,-1.04101,-0.184548,16,32765
1.42917,-1.0284,-0.180983,17,32765
1.44189,-1.04485,-0.182583,17,32765
1.4706,-1.07309,-0.186302,17,32765
1.46712,-1.07791,-0.185884,17,32765
0.90831,-0.278712,-0.13745,17,32765
0.935709,-0.290507,-0.141966,17,32765
0.915859,-0.287645,-0.139152,17,32765
0.971454,-0.308702,-0.14792,17,32765
0.970407,-0.311932,-0.148016,17,32765
0.959937,-0.312125,-0.146623,17,32765
0.940091,-0.309133,-0.143752,18,32765
0.957836,-0.318519,-0.146613,18,32765
0.909859,-0.305963,-0.139438,18,32765
0.96507,-0.328111,-0.147931,18,32765
0.963957,-0.331405,-0.147845,18,32765
0.981526,-0.341196,-0.15064,19,32765
0.952345,-0.334758,-0.146206,18,32765
0.979164,-0.348029,-0.150375,19,32765
0.977995,-0.351387,-0.150177,18,32765
0.986086,-0.358135,-0.151571,17,32765
0.994175,-0.364921,-0.152802,17,32765
0.992951,-0.368292,-0.15267,17,32765
1.00101,-0.37514,-0.153814,17,32765
1.00902,-0.382009,-0.155068,17,32765
1.03548,-0.396072,-0.159056,18,32765
1.02493,-0.395993,-0.157485,17,32765
1.01443,-0.395804,-0.155778,16,32765
1.01313,-0.39925,-0.155455,17,32765
1.0578,-0.420974,-0.162303,17,32765
1.10228,-0.443139,-0.169125,17,32765
1.03657,-0.420898,-0.158969,17,32765
1.07181,-0.439511,-0.164165,15,32765
1.11608,-0.462159,-0.17082,16,32765
1.08713,-0.454511,-0.166309,15,32765
1.14036,-0.481376,-0.174261,15,32765
1.11141,-0.473643,-0.169772,15,32765
1.15534,-0.497014,-0.176229,16,32765
1.14459,-0.497079,-0.174423,16,32765
1.11572,-0.489089,-0.169891,15,32765
1.16839,-0.517078,-0.177764,15,32765
1.16666,-0.521145,-0.177239,12,32765
1.29134,-0.582175,-0.19601,13,32765
1.30743,-0.594858,-0.198194,13,32765
1.4045,-0.644832,-0.212561,15,32765
1.42933,-0.662157,-0.216051,14,32765
1.38225,-0.646067,-0.208758,15,32765
1.40703,-0.663452,-0.212127,16,32765
1.38694,-0.659778,-0.20876,16,32765
1.35794,-0.651719,-0.204138,15,32765
1.44496,-0.69961,-0.216861,14,32765
1.39811,-0.682865,-0.209515,14,32765
1.3781,-0.678846,-0.206169,14,32765
1.40251,-0.696803,-0.209363,15,32765
1.4268,-0.714954,-0.21258,15,32765
1.45091,-0.733425,-0.215741,15,32765
1.45726,-0.74303,-0.216308,15,32765
1.49889,-0.770743,-0.222031,17,32765
1.50516,-0.780406,-0.222587,17,32765
1.52898,-0.799309,-0.22567,18,32765
1.52635,-0.804581,-0.224759,17,32765
1.54115,-0.819223,-0.226558,17,32765
1.52967,-0.819921,-0.224353,18,32765
1.5182,-0.820506,-0.222342,18,32765
1.51552,-0.825684,-0.221474,17,32765
1.52152,-0.835606,-0.221894,18,32765
1.51879,-0.840788,-0.220995,17,32765
1.50738,-0.841095,-0.219005,18,32765
1.47002,-0.826822,-0.213084,17,32765
1.51907,-0.861222,-0.219816,18,32765
1.5162,-0.866472,-0.219006,17,32765
1.50473,-0.86675,-0.216833,17,32765
1.46758,-0.851954,-0.210927,17,32765
1.49902,-0.87701,-0.21516,18,32765
1.47907,-0.871979,-0.211877,18,32765
1.5018,-0.892203,-0.21488,18,32765
1.49035,-0.892199,-0.212955,17,32765
1.48748,-0.897203,-0.211941,17,32765
1.4506,-0.881641,-0.206335,17,32765
1.49003,-0.91248,-0.211604,18,32765
1.4786,-0.912327,-0.209518,18,32765
1.51775,-0.943565,-0.214747,18,32765
1.46422,-0.91703,-0.20671,17,32765
1.48643,-0.937824,-0.209567,17,32765
1.45826,-0.926799,-0.205215,17,32765
1.46361,-0.937031,-0.20571,18,32765
1.46052,-0.941987,-0.205032,17,32765
1.44913,-0.941495,-0.203024,18,32765
1.43771,-0.940967,-0.201143,18,32765
1.43463,-0.945807,-0.200474,17,32765
1.44808,-0.961618,-0.202137,17,32765
1.46143,-0.977536,-0.203829,18,32765
1.43355,-0.965732,-0.199719,17,32765
1.47153,-0.998394,-0.204683,17,32765
1.43552,-0.980836,-0.199391,17,32765
1.46498,-1.00824,-0.203461,18,32765
1.4535,-1.00753,-0.201551,17,32765
1.44205,-1.00672,-0.199721,17,32765
1.45502,-1.02295,-0.201487,17,32765
1.39497,-0.987502,-0.193108,17,32765
1.46463,-1.04399,-0.202572,17,32765
1.42896,-1.02562,-0.19767,17,32765
1.41756,-1.02454,-0.196063,17,32765
1.40614,-1.02345,-0.194511,16,32765
1.43483,-1.05163,-0.1986,17,32765
1.44741,-1.06816,-0.200402,17,32765
0,-0,-0,0,32765
0.915535,-0.283122,-0.150127,16,32765
0.924088,-0.289069,-0.15133,17,32765
0.923149,-0.292168,-0.151109,17,32765
0.941035,-0.301304,-0.15385,16,32765
0.930652,-0.301454,-0.152028,16,32765
0.939057,-0.307691,-0.153293,17,32765
0.909928,-0.301537,-0.148349,17,32765
0.955819,-0.320297,-0.155625,18,32765
0.973523,-0.329848,-0.158279,19,32765
