x, y, z, intensity, ring
6.75044,3.01392,1.13938,38,32765
6.75179,2.98738,1.13566,38,32765
6.77996,2.97316,1.13689,39,32765
6.79031,2.9506,1.13388,39,32765
6.79125,2.92406,1.13101,37,32765
6.80129,2.90157,1.12863,37,32765
6.82027,2.88292,1.12816,39,32765
6.83018,2.86041,1.12553,39,32765
6.85839,2.84533,1.12549,40,32765
6.8954,2.83403,1.12845,42,32765
6.90514,2.81141,1.12545,42,32765
6.89621,2.78153,1.12061,42,32765
6.96982,2.78491,1.12871,30,32765
0,0,0,0,32765
4.94456,1.93828,0.794526,13,32765
0,0,0,0,32765
4.58841,1.76383,0.7323,13,32765
4.61288,1.75609,0.733212,14,32765
4.51707,1.70261,0.715268,14,32765
4.25398,1.58772,0.671488,13,32765
4.37073,1.61505,0.687349,16,32765
4.34842,1.59054,0.681072,15,32765
4.26996,1.54622,0.666877,16,32765
4.11696,1.47551,0.640239,17,32765
4.16847,1.47905,0.645926,15,32765
4.15481,1.4591,0.641122,15,32765
4.03823,1.40359,0.620473,16,32765
4.00551,1.37786,0.613004,16,32765
3.89777,1.32667,0.594062,16,32765
3.89276,1.31128,0.591179,15,32765
3.80331,1.26756,0.575017,16,32765
3.74168,1.234,0.563436,15,32765
3.83046,1.25019,0.574005,18,32765
3.74987,1.21086,0.559164,17,32765
3.73502,1.19324,0.554404,16,32765
3.69187,1.16678,0.544827,17,32765
5.91754,4.37047,1.23826,36,32765
5.91616,4.33971,1.2327,38,32765
5.9386,4.32648,1.23172,43,32765
5.96962,4.31814,1.23213,46,32765
6.00059,4.30993,1.2319,46,32765
5.99952,4.27847,1.22532,45,32765
6.01423,4.25858,1.22247,46,32765
6.02096,4.23288,1.2175,48,32765
6.02779,4.207,1.21218,49,32765
6.06658,4.20398,1.21387,50,32765
6.08088,4.18439,1.21004,51,32765
6.0868,4.1593,1.20499,50,32765
6.09255,4.13409,1.20073,51,32765
6.10675,4.11413,1.19716,51,32765
6.13718,4.10525,1.19682,51,32765
6.14294,4.07965,1.1923,52,32765
6.15693,4.05953,1.18883,52,32765
6.16239,4.03436,1.18341,52,32765
6.19264,4.02488,1.18402,51,32765
6.18962,3.99408,1.17792,51,32765
6.22005,3.98428,1.17767,51,32765
6.22524,3.95859,1.17339,50,32765
6.23864,3.93832,1.17045,50,32765
6.25198,3.91806,1.16724,49,32765
6.26525,3.89785,1.16374,50,32765
6.27849,3.87727,1.16117,50,32765
6.30018,3.86168,1.16002,51,32765
6.31324,3.84099,1.15769,51,32765
6.31826,3.81481,1.1523,53,32765
6.33112,3.79415,1.14992,53,32765
6.35261,3.77842,1.14817,54,32765
6.36548,3.75754,1.14541,54,32765
6.37808,3.7369,1.14285,54,32765
6.39067,3.71607,1.14043,55,32765
6.40317,3.69528,1.13784,54,32765
6.42423,3.67933,1.13659,53,32765
6.42826,3.65325,1.13206,54,32765
6.44917,3.63694,1.1318,53,32765
6.47024,3.62055,1.1303,55,32765
6.47374,3.59464,1.12669,53,32765
6.48602,3.57342,1.1235,53,32765
6.49828,3.5518,1.12123,52,32765
6.51045,3.52995,1.11966,52,32765
6.52273,3.50806,1.11697,52,32765
6.53454,3.48668,1.1149,53,32765
6.54602,3.46557,1.11333,53,32765
6.5663,3.44904,1.11256,52,32765
6.5515,3.41408,1.10583,53,32765
6.58954,3.40589,1.10812,55,32765
6.59232,3.37944,1.10491,53,32765
6.62183,3.36607,1.10497,54,32765
6.62478,3.33915,1.10109,52,32765
6.62735,3.31242,1.09827,50,32765
6.65655,3.29875,1.09943,50,32765
6.65887,3.27241,1.09583,50,32765
6.6789,3.25478,1.0949,50,32765
6.68995,3.23267,1.09298,49,32765
6.70973,3.21493,1.09276,50,32765
6.71181,3.18846,1.08879,49,32765
6.72257,3.1664,1.08676,49,32765
6.73335,3.14417,1.08459,49,32765
6.74406,3.12177,1.08271,49,32765
6.75464,3.09957,1.08054,49,32765
6.78326,3.0853,1.0813,49,32765
6.79377,3.06283,1.07917,49,32765
6.80425,3.04033,1.07677,49,32765
6.83283,3.02559,1.07741,49,32765
6.82489,2.99516,1.07273,49,32765
6.85346,2.98031,1.07254,50,32765
6.86358,2.95743,1.07117,48,32765
6.87372,2.93466,1.06876,48,32765
6.90194,2.9196,1.06959,49,32765
6.90283,2.89296,1.06552,48,32765
6.92201,2.87382,1.06385,49,32765
6.93168,2.85099,1.06231,45,32765
6.95981,2.83569,1.06209,23,32765
4.99512,2.01617,0.759888,15,32765
4.93752,1.97424,0.748463,19,32765
4.89825,1.93984,0.739291,16,32765
4.48989,1.76125,0.675094,14,32765
4.46818,1.73574,0.669462,15,32765
4.3724,1.68192,0.652786,15,32765
4.29479,1.63608,0.63847,15,32765
4.18916,1.58005,0.620305,15,32765
4.19443,1.56651,0.619048,15,32765
4.19974,1.55287,0.61742,15,32765
4.10274,1.50163,0.600602,13,32765
4.07977,1.47827,0.595467,15,32765
4.07554,1.46157,0.592188,16,32765
3.94964,1.40226,0.571742,17,32765
3.84221,1.35014,0.553752,16,32765
3.98716,1.38667,0.572066,18,32765
3.8044,1.30945,0.543571,17,32765
3.79009,1.29077,0.539186,16,32765
3.84129,1.29469,0.544423,17,32765
3.77986,1.26046,0.533201,18,32765
3.69929,1.2207,0.519638,16,32765
3.67504,1.20013,0.513588,17,32765
3.6602,1.18255,0.508857,16,32765
3.60744,1.15311,0.499105,18,32765
3.61134,1.14195,0.496584,18,32765
5.8896,4.34351,1.16388,32,32765
5.91158,4.33034,1.16527,35,32765
5.94167,4.32283,1.16764,38,32765
5.95607,4.30341,1.16595,36,32765
5.97036,4.2837,1.16547,36,32765
5.9687,4.25243,1.16098,35,32765
5.99076,4.23871,1.1615,37,32765
5.99651,4.21372,1.15882,39,32765
6.01022,4.19462,1.15704,39,32765
6.0404,4.18635,1.1583,40,32765
6.02179,4.14428,1.15021,40,32765
6.06011,4.14117,1.15357,41,32765
6.07402,4.12133,1.15143,41,32765
6.07978,4.0957,1.14801,43,32765
6.1101,4.08653,1.14919,42,32765
6.12396,4.06637,1.1469,43,32765
6.13735,4.04664,1.14512,43,32765
6.12611,4.01031,1.13854,41,32765
6.14776,3.99575,1.13817,40,32765
6.1697,3.98074,1.1373,41,32765
6.18325,3.96033,1.13492,41,32765
6.18804,3.93497,1.1316,40,32765
6.19297,3.90946,1.12755,42,32765
6.20608,3.88931,1.12515,41,32765
6.21921,3.86891,1.12295,42,32765
6.24086,3.85336,1.12237,43,32765
6.25393,3.83265,1.1205,43,32765
6.26705,3.81193,1.11789,44,32765
6.28843,3.79659,1.11644,45,32765
6.30976,3.78103,1.11548,47,32765
6.3223,3.76053,1.1138,46,32765
6.33496,3.73976,1.11179,46,32765
6.33937,3.71365,1.1073,45,32765
6.3605,3.69757,1.10707,46,32765
6.36479,3.67134,1.10251,44,32765
6.36861,3.64563,1.09844,44,32765
6.40645,3.63982,1.10076,45,32765
6.39287,3.60428,1.09399,44,32765
6.40507,3.58335,1.09134,44,32765
6.43492,3.57132,1.09137,43,32765
6.44722,3.54968,1.0894,44,32765
6.45924,3.52853,1.08686,44,32765
6.47139,3.50695,1.08443,44,32765
6.49203,3.49049,1.08286,45,32765
6.49533,3.46416,1.07885,44,32765
6.52475,3.45181,1.079,42,32765
6.50139,3.41211,1.07044,43,32765
6.52169,3.39534,1.06965,40,32765
6.54182,3.37883,1.06853,44,32765
6.55349,3.35721,1.06516,44,32765
6.57371,3.33996,1.06465,41,32765
6.6029,3.32675,1.0655,41,32765
6.58789,3.29113,1.05916,40,32765
6.61704,3.27783,1.05935,39,32765
6.61079,3.24671,1.05357,40,32765
6.6308,3.22901,1.05282,41,32765
6.6507,3.21159,1.05145,39,32765
6.66131,3.18996,1.05007,40,32765
6.68101,3.17256,1.04877,40,32765
6.69167,3.15062,1.04693,39,32765
6.70231,3.12867,1.04465,39,32765
6.73084,3.11496,1.0454,40,32765
6.72354,3.0845,1.03961,39,32765
6.73395,3.06234,1.03775,40,32765
6.74441,3.04007,1.03526,39,32765
6.74565,3.01378,1.03198,38,32765
6.79195,3.00766,1.03607,42,32765
6.79308,2.98116,1.0329,39,32765
6.80309,2.95894,1.03089,40,32765
6.81336,2.93624,1.02799,40,32765
6.82315,2.91374,1.02703,39,32765
6.85123,2.89918,1.02737,40,32765
6.86088,2.87658,1.0265,41,32765
6.87037,2.85447,1.02477,40,32765
6.95343,2.86199,1.03294,16,32765
4.91706,2.00524,0.728764,14,32765
4.90525,1.98193,0.725289,16,32765
0,0,0,0,32765
0,0,0,0,32765
4.49138,1.76371,0.658552,13,32765
4.51571,1.75617,0.660554,14,32765
4.51222,1.73799,0.658552,14,32765
4.38843,1.67375,0.638658,13,32765
4.28264,1.61755,0.621997,13,32765
4.22304,1.57918,0.612079,13,32765
0,0,0,0,32765
0,0,0,0,32765
4.10802,1.49081,0.591416,15,32765
4.08497,1.46741,0.586617,15,32765
3.9404,1.4009,0.564898,14,32765
4.02908,1.41772,0.576773,14,32765
3.97737,1.38552,0.568677,15,32765
3.96301,1.36649,0.565856,14,32765
3.911,1.33482,0.557853,15,32765
3.88716,1.31271,0.55353,16,32765
3.835,1.2812,0.545611,16,32765
3.75449,1.24083,0.533171,16,32765
3.6642,1.19798,0.520217,16,32765
3.70561,1.19865,0.525939,16,32765
3.68099,1.17787,0.522451,17,32765
3.69401,1.16934,0.524456,17,32765
5.94304,4.38894,1.10382,41,32765
5.94127,4.35801,1.10068,40,32765
5.9555,4.33875,1.09991,46,32765
5.99401,4.33664,1.10264,48,32765
6.00039,4.311,1.10067,46,32765
6.03103,4.30254,1.10224,46,32765
6.02906,4.27144,1.09825,46,32765
6.0511,4.25766,1.09859,47,32765
6.06497,4.23835,1.09679,48,32765
6.0628,4.20733,1.09198,48,32765
6.07682,4.18755,1.0901,47,32765
6.10715,4.17867,1.09171,48,32765
6.10483,4.14752,1.08664,48,32765
6.14348,4.14386,1.08912,49,32765
6.14109,4.11245,1.08428,49,32765
6.16328,4.09763,1.08343,51,32765
6.16852,4.07228,1.08018,52,32765
6.19045,4.05747,1.07965,54,32765
6.20397,4.03728,1.07772,54,32765
6.21775,4.01669,1.07529,55,32765
6.23976,4.00142,1.07432,55,32765
6.25303,3.98114,1.07251,56,32765
6.24973,3.95008,1.06709,56,32765
6.26297,3.9297,1.06467,56,32765
6.27624,3.90908,1.06246,56,32765
6.28961,3.88811,1.06034,57,32765
6.30281,3.8672,1.05845,56,32765
6.31604,3.84627,1.05582,56,32765
6.32906,3.82563,1.05284,56,32765
6.34201,3.80482,1.05036,56,32765
6.36314,3.78923,1.05007,55,32765
6.38442,3.77332,1.04945,55,32765
6.38892,3.74701,1.04503,54,32765
6.41874,3.73571,1.04608,55,32765
6.42314,3.70924,1.04158,53,32765
6.43566,3.68821,1.03897,53,32765
6.44784,3.66749,1.03683,52,32765
6.4602,3.64634,1.03447,52,32765
6.47254,3.62516,1.03179,53,32765
6.47657,3.59844,1.02747,52,32765
6.48895,3.57663,1.02549,51,32765
6.51845,3.56481,1.02567,52,32765
6.5133,3.53354,1.02048,51,32765
6.54275,3.52161,1.02016,53,32765
6.5374,3.4904,1.01486,51,32765
6.54941,3.46861,1.0121,52,32765
6.56991,3.4518,1.01065,50,32765
6.56399,3.42103,1.0057,49,32765
6.57541,3.3998,1.00313,50,32765
6.60477,3.38708,1.00241,49,32765
6.63394,3.37412,1.00313,50,32765
6.63672,3.3473,0.999774,50,32765
6.64833,3.32479,0.997693,50,32765
6.65985,3.30247,0.995015,49,32765
6.68034,3.28426,0.993367,48,32765
6.69158,3.26195,0.991185,49,32765
6.70266,3.23999,0.988376,49,32765
6.71338,3.21816,0.98698,49,32765
6.74212,3.20481,0.98688,49,32765
6.73495,3.17417,0.982403,49,32765
6.75465,3.15625,0.981409,48,32765
6.7743,3.13817,0.980651,49,32765
6.78506,3.11579,0.97763,48,32765
6.79557,3.09338,0.975747,48,32765
6.80613,3.07088,0.973234,49,32765
6.83462,3.05647,0.973896,48,32765
6.84484,3.03398,0.972444,49,32765
6.85512,3.01125,0.970634,49,32765
6.87433,2.99275,0.96989,50,32765
6.87559,2.96584,0.96568,50,32765
6.90373,2.95089,0.967264,49,32765
6.91369,2.9283,0.964831,49,32765
6.93258,2.9093,0.965233,50,32765
6.94218,2.88692,0.963483,48,32765
7.01625,2.89044,0.9696,14,32765
4.9134,2.00553,0.677399,14,32765
4.80041,1.94128,0.660198,15,32765
4.56745,1.82968,0.626326,15,32765
4.47209,1.77457,0.611409,14,32765
4.50568,1.77084,0.614284,14,32765
4.3544,1.69487,0.592207,15,32765
4.33219,1.67004,0.587809,15,32765
4.16168,1.58858,0.562995,15,32765
4.11118,1.55406,0.554998,15,32765
4.09775,1.53357,0.552012,15,32765
4.03764,1.49619,0.542617,14,32765
3.98662,1.46268,0.534652,15,32765
4.05675,1.47335,0.542693,19,32765
3.94958,1.41987,0.526972,16,32765
3.9823,1.41687,0.530416,17,32765
3.82781,1.3479,0.509084,16,32765
3.92572,1.36854,0.521465,18,32765
3.78936,1.30756,0.502658,17,32765
3.81223,1.30204,0.505168,17,32765
3.71305,1.25479,0.491185,18,32765
3.66065,1.2238,0.483822,17,32765
3.71174,1.22753,0.48964,18,32765
3.68732,1.20634,0.486323,18,32765
3.55889,1.15194,0.469268,18,32765
3.6286,1.16185,0.478499,18,32765
3.61322,1.14448,0.476658,18,32765
5.89931,4.34072,1.12442,28,32765
5.92234,4.32753,1.12016,35,32765
5.9294,4.30241,1.11338,37,32765
5.96063,4.29426,1.11137,36,32765
5.97556,4.27476,1.10633,37,32765
5.97446,4.24361,1.09804,37,32765
6.01309,4.24135,1.09877,39,32765
6.01136,4.21056,1.09138,40,32765
6.02555,4.19127,1.08737,40,32765
6.0399,4.17149,1.08381,39,32765
6.07081,4.16267,1.08212,38,32765
6.06896,4.13132,1.07534,39,32765
6.08308,4.1116,1.07113,40,32765
6.09741,4.09141,1.06692,40,32765
6.11953,4.07714,1.0645,42,32765
6.11697,4.04617,1.05798,41,32765
6.13905,4.03169,1.05547,44,32765
6.16932,4.02248,1.05491,46,32765
6.16638,3.99162,1.04843,47,32765
6.17991,3.97149,1.04517,47,32765
6.2102,3.96194,1.04405,47,32765
6.20712,3.93087,1.03747,48,32765
6.23722,3.921,1.03751,48,32765
6.25062,3.90046,1.03427,46,32765
6.2637,3.88006,1.0319,47,32765
6.27686,3.85967,1.02839,47,32765
6.29007,3.83913,1.02456,48,32765
6.28595,3.80845,1.01928,47,32765
6.31569,3.79826,1.01926,46,32765
6.32843,3.77784,1.01612,48,32765
6.34134,3.75693,1.01314,47,32765
6.35433,3.73569,1.01028,47,32765
6.3588,3.70933,1.00571,46,32765
6.37173,3.6878,1.00302,45,32765
6.38411,3.66706,1.00033,45,32765
6.38768,3.64163,0.996261,44,32765
6.41699,3.63077,0.996696,43,32765
6.43767,3.61491,0.995697,44,32765
6.44126,3.58894,0.991612,43,32765
6.45333,3.56777,0.989546,42,32765
6.46561,3.54628,0.986592,43,32765
6.49504,3.53449,0.986633,43,32765
6.48952,3.50372,0.981706,42,32765
6.50155,3.48199,0.979397,43,32765
6.51333,3.46075,0.976405,43,32765
6.52505,3.4392,0.974319,43,32765
6.52788,3.41317,0.970503,37,32765
6.53931,3.3918,0.968489,41,32765
6.53313,3.36129,0.963375,37,32765
6.57093,3.35323,0.965558,40,32765
6.59127,3.3358,0.964421,40,32765
6.62056,3.32251,0.964383,41,32765
6.62317,3.29587,0.960432,40,32765
6.63452,3.27354,0.958481,39,32765
6.64571,3.25139,0.956357,39,32765
6.65679,3.22932,0.954024,40,32765
6.67688,3.21137,0.95254,40,32765
6.67874,3.18482,0.95022,40,32765
6.69856,3.16696,0.948957,39,32765
6.70034,3.14075,0.944863,39,32765
6.71984,3.123,0.944198,39,32765
6.73042,3.1008,0.942026,39,32765
6.75895,3.08681,0.942477,39,32765
6.76949,3.06437,0.94008,40,32765
6.77994,3.04188,0.937785,40,32765
6.79036,3.01944,0.934908,39,32765
6.80079,2.99658,0.932697,39,32765
6.8382,2.98596,0.934626,41,32765
6.82116,2.95127,0.928399,40,32765
6.84954,2.93629,0.92847,40,32765
6.85043,2.90985,0.924318,43,32765
6.87845,2.89507,0.925162,42,32765
6.88821,2.87262,0.922522,42,32765
6.9713,2.8804,0.929663,14,32765
4.91422,2.0117,0.652691,13,32765
4.77397,1.93561,0.631469,14,32765
0,0,0,0,32765
4.50127,1.7902,0.590055,13,32765
4.51658,1.77902,0.589685,14,32765
4.53176,1.76804,0.589215,15,32765
4.31538,1.66751,0.559072,14,32765
4.28391,1.63944,0.552049,14,32765
4.15007,1.5729,0.532758,15,32765
4.11815,1.54553,0.526386,14,32765
4.06747,1.51153,0.517539,14,32765
4.11915,1.51545,0.521926,16,32765
4.04968,1.4747,0.51083,16,32765
3.9332,1.41777,0.493958,16,32765
3.97541,1.4184,0.496738,16,32765
3.81161,1.34602,0.47407,16,32765
3.79738,1.32717,0.47012,14,32765
3.83942,1.32778,0.473229,16,32765
3.82505,1.30905,0.46929,17,32765
3.71653,1.25865,0.453562,16,32765
3.59822,1.20601,0.436773,16,32765
3.63042,1.20422,0.438648,15,32765
3.59667,1.18036,0.432205,17,32765
3.59112,1.16597,0.429387,17,32765
3.54774,1.13944,0.421579,17,32765
3.54199,1.12548,0.418565,16,32765
3.47934,1.09393,0.407973,15,32765
5.96037,4.39195,1.06543,44,32765
5.95159,4.35515,1.05535,47,32765
5.9587,4.32988,1.04863,45,32765
5.99002,4.32161,1.0464,45,32765
6.01307,4.30774,1.04273,47,32765
6.02817,4.28788,1.03736,47,32765
6.05078,4.27401,1.03501,48,32765
6.04912,4.24304,1.02777,48,32765
6.0634,4.22359,1.02374,48,32765
6.086,4.20927,1.02153,50,32765
6.10887,4.19468,1.01824,51,32765
6.11528,4.16871,1.01298,53,32765
6.12951,4.1488,1.00873,53,32765
6.15217,4.13394,1.00583,54,32765
6.16618,4.11397,1.00195,55,32765
6.17198,4.08825,0.996908,55,32765
6.20247,4.079,0.995597,56,32765
6.1997,4.0479,0.989513,56,32765
6.23009,4.03844,0.988478,56,32765
6.2271,4.00733,0.982557,56,32765
6.2408,3.98694,0.978595,56,32765
6.25452,3.96632,0.974791,56,32765
6.26797,3.94571,0.972018,56,32765
6.28144,3.92503,0.968752,56,32765
6.31145,3.91495,0.968958,55,32765
6.31627,3.88916,0.964126,55,32765
6.32956,3.86845,0.960275,55,32765
6.334,3.84272,0.956445,53,32765
6.35537,3.82724,0.954929,54,32765
6.35968,3.80157,0.950497,53,32765
6.3812,3.78557,0.948767,54,32765
6.41138,3.77422,0.948418,55,32765
6.39883,3.73761,0.941386,53,32765
6.42902,3.72585,0.941196,53,32765
6.44152,3.70488,0.938474,52,32765
6.44519,3.67922,0.934471,52,32765
6.45738,3.65837,0.932205,52,32765
6.4868,3.64721,0.932338,52,32765
6.48183,3.61619,0.927083,51,32765
6.49398,3.59485,0.925002,51,32765
6.52375,3.58274,0.924491,52,32765
6.53588,3.56124,0.921861,52,32765
6.53916,3.53499,0.91833,50,32765
6.56004,3.51774,0.917224,52,32765
6.56317,3.49161,0.912983,50,32765
6.58377,3.47449,0.912095,52,32765
6.58671,3.44822,0.908347,50,32765
6.58945,3.42204,0.905103,45,32765
6.60099,3.40039,0.902567,48,32765
6.61243,3.37855,0.900836,44,32765
6.65058,3.36992,0.901991,49,32765
6.66225,3.34749,0.899345,51,32765
6.67382,3.3251,0.896662,51,32765
6.68527,3.30255,0.894693,50,32765
6.69655,3.28018,0.892551,50,32765
6.70773,3.25791,0.890198,49,32765
6.71897,3.23545,0.887416,49,32765
6.72988,3.21298,0.88636,50,32765
6.74082,3.19067,0.883806,49,32765
6.75164,3.1685,0.880958,50,32765
6.77125,3.15054,0.880182,50,32765
6.79995,3.13645,0.880327,51,32765
6.81959,3.11808,0.879403,52,32765
6.83022,3.09539,0.876982,52,32765
6.84078,3.07266,0.874665,52,32765
6.86036,3.05402,0.872915,51,32765
6.85272,3.02286,0.868375,51,32765
6.88115,3.00807,0.868858,51,32765
6.8915,2.98502,0.866332,51,32765
6.90175,2.96194,0.863904,51,32765
6.91185,2.93917,0.86096,51,32765
6.93998,2.92417,0.861601,51,32765
6.94983,2.90147,0.858935,51,32765
6.93208,2.8673,0.852876,31,32765
4.98329,2.04218,0.610495,14,32765
4.83379,1.96197,0.589622,14,32765
4.49939,1.80874,0.546226,14,32765
4.48712,1.78647,0.542134,15,32765
4.38223,1.72792,0.527215,16,32765
4.41576,1.72458,0.528918,17,32765
4.31025,1.66726,0.514329,17,32765
4.26017,1.63205,0.50548,18,32765
4.15404,1.57602,0.490895,16,32765
4.12209,1.54859,0.484895,16,32765
4.11794,1.53185,0.482061,18,32765
4.08577,1.5047,0.476175,19,32765
3.98817,1.45376,0.462592,18,32765
3.89019,1.40368,0.449121,17,32765
3.91366,1.39776,0.449395,18,32765
3.84336,1.35858,0.43915,17,32765
3.87607,1.35601,0.440709,20,32765
3.77729,1.30757,0.427461,19,32765
3.73461,1.27935,0.420557,17,32765
3.76713,1.27703,0.421817,19,32765
3.72418,1.24943,0.414617,18,32765
3.67159,1.21905,0.406745,18,32765
3.63785,1.19501,0.400655,18,32765
3.56611,1.15894,0.390657,18,32765
3.56052,1.14463,0.387455,20,32765
3.5832,1.13965,0.387603,21,32765
3.48256,1.09597,0.373563,18,32765
5.91721,4.35328,0.971414,42,32765
5.93197,4.33327,0.970857,42,32765
5.94632,4.31371,0.970199,41,32765
5.97628,4.30637,0.971705,41,32765
5.98998,4.28762,0.970259,37,32765
6.00421,4.26809,0.968384,37,32765
6.01843,4.24831,0.967117,38,32765
6.02457,4.22273,0.964124,39,32765
6.04681,4.20864,0.963513,42,32765
6.05254,4.18337,0.960515,43,32765
6.07461,4.16921,0.960085,45,32765
6.08019,4.14396,0.956709,44,32765
6.10232,4.12956,0.9557,45,32765
6.11627,4.10934,0.953629,46,32765
6.13838,4.09459,0.952996,48,32765
6.15247,4.07401,0.950371,47,32765
6.16617,4.0537,0.948406,48,32765
6.17958,4.03368,0.946445,47,32765
6.19296,4.01357,0.944523,47,32765
6.20615,3.99363,0.942452,46,32765
6.20282,3.96261,0.937603,47,32765
6.23288,3.95294,0.937624,47,32765
6.22933,3.92197,0.932715,48,32765
6.25931,3.91213,0.932655,46,32765
6.27232,3.89172,0.930646,46,32765
6.27716,3.86564,0.926832,45,32765
6.29044,3.84466,0.92401,46,32765
6.31214,3.82864,0.922998,43,32765
6.33368,3.81292,0.92125,45,32765
6.3379,3.78707,0.917977,43,32765
6.35047,3.76646,0.915932,43,32765
6.36305,3.74592,0.912877,43,32765
6.37571,3.7249,0.910516,43,32765
6.37136,3.69363,0.905123,44,32765
6.4013,3.68205,0.905263,44,32765
6.41391,3.66066,0.902749,43,32765
6.44362,3.64937,0.901924,43,32765
6.42989,3.61363,0.896152,41,32765
6.45066,3.59753,0.894677,43,32765
6.47161,3.58114,0.8923,42,32765
6.48369,3.55967,0.89053,41,32765
6.49588,3.53803,0.887895,41,32765
6.50794,3.5165,0.885171,42,32765
6.51989,3.49484,0.882944,41,32765
6.53175,3.47336,0.880081,42,32765
6.55238,3.45639,0.878206,42,32765
6.55522,3.4303,0.874401,36,32765
6.54927,3.39935,0.869673,37,32765
6.56092,3.37743,0.867287,34,32765
6.59023,3.36446,0.867005,37,32765
6.61959,3.35132,0.866374,41,32765
6.63111,3.32925,0.863322,42,32765
6.64244,3.30738,0.860355,41,32765
6.65354,3.28549,0.858448,41,32765
6.66475,3.26337,0.855845,41,32765
6.66703,3.23678,0.851805,40,32765
6.68711,3.21867,0.850661,40,32765
6.70707,3.20075,0.848985,42,32765
6.70888,3.17454,0.845029,42,32765
6.73743,3.16113,0.845194,43,32765
6.74802,3.1391,0.842801,43,32765
6.75861,3.11688,0.840447,43,32765
6.76019,3.09036,0.83661,42,32765
6.7706,3.06802,0.834653,40,32765
6.79931,3.05336,0.834508,42,32765
6.79163,3.02241,0.830163,40,32765
6.80185,2.99986,0.828345,42,32765
6.83924,2.98965,0.828779,43,32765
6.84915,2.96742,0.826824,44,32765
6.87742,2.95264,0.827014,43,32765
6.87832,2.92575,0.824099,42,32765
6.88832,2.90275,0.821878,42,32765
6.88898,2.87588,0.819349,36,32765
5.01546,2.07453,0.594252,11,32765
4.84757,1.9866,0.572146,13,32765
4.73433,1.9223,0.557188,12,32765
4.62084,1.85862,0.541774,13,32765
4.57156,1.82157,0.534081,15,32765
4.45731,1.75929,0.519303,15,32765
4.40759,1.72305,0.511718,15,32765
4.34836,1.68354,0.503568,14,32765
4.45599,1.70869,0.514359,13,32765
4.17351,1.58469,0.480279,15,32765
4.22521,1.58868,0.485076,15,32765
4.11865,1.53327,0.471417,16,32765
4.1144,1.51627,0.469841,16,32765
4.01662,1.46546,0.457364,16,32765
3.89052,1.4051,0.441759,15,32765
3.88568,1.3892,0.440563,15,32765
3.8902,1.37654,0.440451,16,32765
3.89473,1.36389,0.43977,17,32765
3.75821,1.30247,0.423621,14,32765
3.7718,1.29365,0.424402,15,32765
3.62525,1.23055,0.407239,15,32765
3.66684,1.23162,0.41166,16,32765
3.68023,1.22303,0.412395,15,32765
3.6369,1.19581,0.406829,17,32765
3.53653,1.15064,0.395694,16,32765
3.60632,1.16101,0.403227,17,32765
3.53412,1.12543,0.395329,17,32765
3.49981,1.10192,0.391421,17,32765
5.98469,4.4104,0.912066,46,32765
5.98365,4.3784,0.909065,41,32765
5.98211,4.34696,0.905965,39,32765
6.00416,4.33368,0.906059,42,32765
6.02602,4.32059,0.905815,46,32765
6.04037,4.3009,0.903924,45,32765
6.07092,4.29242,0.905062,46,32765
6.07721,4.26661,0.902143,47,32765
6.08333,4.24096,0.899011,50,32765
6.09733,4.22117,0.897294,53,32765
6.11954,4.20684,0.896753,55,32765
6.13345,4.18699,0.894647,54,32765
6.14751,4.16681,0.892328,55,32765
6.16159,4.1464,0.890238,54,32765
6.17558,4.12596,0.888306,55,32765
6.18978,4.1052,0.88566,54,32765
6.20359,4.08473,0.88368,55,32765
6.22542,4.06998,0.882882,55,32765
6.23892,4.04968,0.880942,55,32765
6.24389,4.02417,0.877678,54,32765
6.25738,4.00367,0.875339,54,32765
6.27082,3.98315,0.872813,54,32765
6.27576,3.95729,0.869237,53,32765
6.28903,3.93674,0.866646,53,32765
6.319,3.92667,0.866939,53,32765
6.33241,3.90559,0.86435,52,32765
6.34582,3.88439,0.8615,52,32765
6.35917,3.86299,0.859224,53,32765
6.36381,3.83682,0.85507,52,32765
6.37663,3.81593,0.853018,50,32765
6.3893,3.79514,0.850957,51,32765
6.40196,3.77444,0.84788,51,32765
6.43187,3.76328,0.847762,52,32765
6.44482,3.74174,0.844779,52,32765
6.44911,3.71501,0.841333,50,32765
6.46183,3.69341,0.838796,50,32765
6.48301,3.67704,0.836642,52,32765
6.48667,3.65085,0.833359,50,32765
6.50756,3.63453,0.831763,52,32765
6.51125,3.60829,0.82705,50,32765
6.54955,3.60101,0.828571,52,32765
6.5357,3.56483,0.822612,50,32765
6.54784,3.54312,0.819868,50,32765
6.57741,3.53069,0.819807,50,32765
6.57182,3.49963,0.81474,49,32765
6.60133,3.48714,0.813834,51,32765
6.62188,3.47007,0.81226,52,32765
6.60723,3.43424,0.806615,45,32765
6.61899,3.41208,0.804205,45,32765
6.62187,3.38533,0.800499,43,32765
6.6513,3.37205,0.799664,47,32765
6.68065,3.35877,0.79872,52,32765
6.70096,3.34112,0.796786,52,32765
6.69435,3.31018,0.792748,51,32765
6.7235,3.29664,0.79223,51,32765
6.73482,3.27415,0.789304,51,32765
6.74607,3.25146,0.786994,52,32765
6.75718,3.22902,0.784156,52,32765
6.78603,3.21538,0.783383,52,32765
6.79672,3.19323,0.781264,51,32765
6.7984,3.16677,0.777816,50,32765
6.80907,3.14433,0.775442,51,32765
6.81977,3.12173,0.772701,50,32765
6.8484,3.10738,0.772768,50,32765
6.85911,3.08427,0.770368,50,32765
6.8697,3.06115,0.768221,51,32765
6.87094,3.03428,0.765367,50,32765
6.88112,3.01186,0.762459,50,32765
6.90023,2.99341,0.761496,50,32765
6.9286,2.97844,0.761482,50,32765
6.92958,2.95132,0.758645,50,32765
6.93966,2.92811,0.756405,49,32765
6.96795,2.91253,0.756948,50,32765
6.96844,2.88596,0.753948,22,32765
4.97115,2.03979,0.535649,13,32765
4.74737,1.92999,0.510002,13,32765
4.62457,1.86242,0.494814,14,32765
4.43662,1.76997,0.472903,16,32765
4.39614,1.73728,0.467234,16,32765
4.35557,1.70479,0.461208,17,32765
4.23128,1.64019,0.44686,18,32765
4.24594,1.6301,0.446868,16,32765
4.23275,1.6091,0.444037,17,32765
4.20074,1.58135,0.439584,17,32765
4.10338,1.52939,0.428027,18,32765
4.0431,1.49174,0.420716,17,32765
3.96385,1.44789,0.411222,17,32765
3.98734,1.44173,0.412429,17,32765
3.94514,1.41207,0.407452,18,32765
3.82777,1.35599,0.394759,16,32765
3.82285,1.34023,0.393122,18,32765
3.76136,1.30501,0.386105,17,32765
3.76556,1.29294,0.385828,18,32765
3.78852,1.28738,0.387516,19,32765
3.66996,1.23401,0.375173,18,32765
3.66448,1.21911,0.373886,20,32765
3.64946,1.20122,0.371679,21,32765
3.63421,1.18366,0.370254,19,32765
3.57153,1.15101,0.36363,20,32765
3.54667,1.13058,0.361306,20,32765
3.47437,1.09502,0.353906,18,32765
5.94094,4.363,0.935106,37,32765
5.94855,4.33712,0.927682,39,32765
5.96401,4.31701,0.922152,36,32765
5.9869,4.3033,0.91844,38,32765
6.0014,4.28405,0.913779,37,32765
6.016,4.26476,0.908045,37,32765
6.0306,4.24504,0.903561,37,32765
6.03693,4.21964,0.89801,39,32765
6.0675,4.21137,0.896375,43,32765
6.07374,4.18594,0.890217,45,32765
6.0879,4.16604,0.886863,45,32765
6.10216,4.14614,0.882118,45,32765
6.11638,4.12603,0.877849,45,32765
6.13061,4.10578,0.873542,46,32765
6.1613,4.09636,0.872162,46,32765
6.15883,4.06494,0.866016,44,32765
6.17271,4.0445,0.862882,45,32765
6.19473,4.02986,0.859736,44,32765
6.19987,4.0044,0.855145,45,32765
6.21326,3.98453,0.850749,44,32765
6.24325,3.97515,0.850058,45,32765
6.23141,3.93893,0.843076,44,32765
6.25312,3.92392,0.840394,44,32765
6.2663,3.90359,0.83689,44,32765
6.288,3.88822,0.834551,44,32765
6.30117,3.86734,0.832225,43,32765
6.29739,3.8361,0.826791,44,32765
6.32747,3.82562,0.825421,42,32765
6.3318,3.79975,0.821616,41,32765
6.34472,3.7788,0.818552,41,32765
6.35764,3.7579,0.814559,42,32765
6.37042,3.7369,0.811314,42,32765
6.38318,3.71577,0.808062,42,32765
6.42136,3.70991,0.808862,43,32765
6.42531,3.6838,0.804664,42,32765
6.42042,3.65289,0.799649,41,32765
6.45012,3.64155,0.798467,42,32765
6.46254,3.62017,0.795248,42,32765
6.45726,3.58924,0.791283,41,32765
6.48687,3.57763,0.789647,42,32765
6.49878,3.55635,0.787833,41,32765
6.49317,3.52565,0.783247,42,32765
6.51384,3.50891,0.781711,40,32765
6.5345,3.49208,0.779873,41,32765
6.54638,3.47022,0.777816,42,32765
6.567,3.45313,0.775867,43,32765
6.56108,3.422,0.771806,40,32765
6.56405,3.39542,0.767637,34,32765
6.58452,3.37785,0.766745,33,32765
6.58722,3.35128,0.763172,32,32765
6.6431,3.35166,0.765563,42,32765
6.62798,3.31585,0.759957,41,32765
6.65696,3.30277,0.759961,41,32765
6.65024,3.27192,0.755857,41,32765
6.68814,3.26297,0.756428,43,32765
6.69917,3.24098,0.753378,42,32765
6.7193,3.22278,0.751577,43,32765
6.72114,3.19629,0.748547,41,32765
6.732,3.17391,0.746269,42,32765
6.74278,3.15156,0.743688,41,32765
6.74437,3.12503,0.740674,40,32765
6.76402,3.10697,0.738393,41,32765
6.7926,3.09281,0.73835,41,32765
6.80303,3.07041,0.735764,42,32765
6.81357,3.04772,0.732538,42,32765
6.83294,3.02918,0.731457,40,32765
6.85246,3.01024,0.729842,41,32765
6.83528,2.97552,0.72482,40,32765
6.86368,2.96075,0.723833,40,32765
6.89206,2.94566,0.723542,40,32765
6.86549,2.90715,0.716651,40,32765
6.92131,2.90343,0.719116,42,32765
6.91292,2.87268,0.713852,26,32765
5.02618,2.06927,0.516898,12,32765
4.69205,1.91374,0.479942,12,32765
4.50462,1.82012,0.458173,14,32765
4.44592,1.77959,0.450462,14,32765
4.49817,1.78339,0.453458,16,32765
4.35586,1.71046,0.436864,16,32765
4.30592,1.67464,0.429241,16,32765
4.3487,1.67488,0.431232,15,32765
4.27985,1.63233,0.422307,16,32765
4.26666,1.61143,0.418684,16,32765
4.16943,1.5592,0.407026,16,32765
4.0533,1.50053,0.393441,15,32765
4.03037,1.47682,0.388874,15,32765
3.96984,1.43978,0.380772,16,32765
4.04961,1.45394,0.386162,15,32765
3.89492,1.38405,0.369438,17,32765
3.76797,1.32532,0.355002,16,32765
3.80056,1.32303,0.35626,17,32765
3.70135,1.27515,0.344862,15,32765
3.78096,1.28918,0.349974,16,32765
3.67181,1.23927,0.337789,15,32765
3.6664,1.22455,0.335254,16,32765
3.6137,1.19402,0.328486,16,32765
3.64618,1.19154,0.328832,18,32765
3.53634,1.1432,0.316653,17,32765
3.53995,1.13255,0.314633,17,32765
3.53403,1.11884,0.311795,17,32765
3.4616,1.08408,0.302839,17,32765
5.99209,4.40831,0.872796,46,32765
6.00784,4.38806,0.866564,44,32765
5.99129,4.34438,0.856375,35,32765
6.00619,4.32474,0.851399,37,32765
6.02882,4.31116,0.847856,42,32765
6.05157,4.29749,0.843219,47,32765
6.07438,4.28333,0.839826,48,32765
6.09711,4.26914,0.836566,50,32765
6.10335,4.24363,0.831366,51,32765
6.11785,4.22367,0.826372,52,32765
6.13213,4.20358,0.822988,52,32765
6.14649,4.18349,0.818204,52,32765
6.16906,4.16876,0.814988,52,32765
6.17516,4.14275,0.809557,51,32765
6.18943,4.12214,0.805804,51,32765
6.20361,4.10152,0.801967,52,32765
6.21761,4.08089,0.798806,51,32765
6.2314,4.06064,0.794469,50,32765
6.24498,4.04042,0.791004,51,32765
6.25847,4.02035,0.786572,51,32765
6.27181,4.00011,0.783572,51,32765
6.28523,3.97968,0.779978,51,32765
6.30707,3.96446,0.777166,49,32765
6.32037,3.94392,0.773627,50,32765
6.3422,3.92833,0.771161,52,32765
6.33009,3.8916,0.765735,50,32765
6.36035,3.88092,0.764553,49,32765
6.37356,3.8599,0.760925,50,32765
6.38652,3.83895,0.758202,50,32765
6.39957,3.81778,0.755107,50,32765
6.4126,3.79665,0.751075,49,32765
6.4255,3.77543,0.747798,49,32765
6.43838,3.75407,0.744514,49,32765
6.45087,3.73307,0.742036,50,32765
6.46351,3.71176,0.738901,50,32765
6.47599,3.69052,0.736017,50,32765
6.48849,3.66916,0.732659,50,32765
6.501,3.64761,0.729417,50,32765
6.53928,3.6407,0.730482,52,32765
6.53421,3.60955,0.724742,52,32765
6.54623,3.58807,0.722911,51,32765
6.5582,3.56666,0.720412,52,32765
6.57025,3.54494,0.717796,52,32765
6.59981,3.53259,0.716789,52,32765
6.61182,3.51047,0.714707,52,32765
6.62377,3.48849,0.711685,53,32765
6.63561,3.46632,0.709678,53,32765
6.63872,3.43943,0.705563,48,32765
6.63278,3.40792,0.701742,41,32765
6.64444,3.38566,0.699174,44,32765
6.66491,3.36789,0.69735,48,32765
6.70324,3.35869,0.697571,55,32765
6.72346,3.34091,0.696439,55,32765
6.72579,3.31418,0.693419,54,32765
6.73701,3.29184,0.690924,53,32765
6.74812,3.26965,0.68785,52,32765
6.77732,3.25556,0.686841,51,32765
6.77927,3.22883,0.683884,51,32765
6.78123,3.20195,0.680679,52,32765
6.80112,3.18361,0.678977,51,32765
6.81184,3.16103,0.676933,51,32765
6.82256,3.13855,0.67363,51,32765
6.85126,3.12417,0.673379,50,32765
6.86179,3.10153,0.670767,50,32765
6.87243,3.0786,0.667511,50,32765
6.8828,3.05579,0.665435,51,32765
6.89329,3.03263,0.662828,51,32765
6.92182,3.01761,0.662442,51,32765
6.93208,2.99462,0.659487,51,32765
6.94226,2.97144,0.65725,51,32765
6.95244,2.94823,0.654161,50,32765
6.96249,2.92493,0.651826,50,32765
6.97255,2.90164,0.648438,48,32765
7.00065,2.88629,0.648189,17,32765
4.75041,1.94032,0.43728,13,32765
4.49829,1.82015,0.411539,16,32765
4.44879,1.78327,0.405328,17,32765
4.43624,1.76133,0.401977,18,32765
4.35867,1.71398,0.392757,18,32765
4.29941,1.67446,0.384863,19,32765
4.28643,1.65321,0.381513,16,32765
4.25469,1.625,0.376658,17,32765
4.15756,1.57241,0.365849,17,32765
4.08812,1.53092,0.357714,17,32765
4.08395,1.51397,0.355135,17,32765
4.02362,1.47638,0.347601,18,32765
4.00988,1.4563,0.344179,19,32765
3.94904,1.41978,0.336799,18,32765
3.85987,1.37347,0.327284,17,32765
3.8174,1.34454,0.321302,16,32765
3.73711,1.30271,0.312804,17,32765
3.86393,1.33297,0.321274,19,32765
3.76451,1.28531,0.310754,18,32765
3.72138,1.2577,0.305123,18,32765
3.66874,1.22698,0.298808,18,32765
3.59707,1.19012,0.291069,19,32765
3.57268,1.16908,0.286582,18,32765
3.60498,1.16695,0.286894,17,32765
3.4757,1.11348,0.274341,18,32765
3.50773,1.112,0.274608,20,32765
3.52085,1.1041,0.273063,19,32765
5.97788,4.39289,0.786868,39,32765
5.97659,4.36116,0.783779,30,32765
5.95887,4.31817,0.778011,26,32765
5.98946,4.31005,0.778629,28,32765
5.99563,4.28456,0.776562,37,32765
6.0344,4.28187,0.777937,40,32765
6.04862,4.26217,0.775648,40,32765
6.0543,4.23715,0.772629,40,32765
6.06834,4.21737,0.770718,41,32765
6.08238,4.19746,0.768667,41,32765
6.10473,4.18279,0.768202,42,32765
6.11072,4.15693,0.764184,42,32765
6.12453,4.13688,0.762408,41,32765
6.13843,4.11668,0.759959,41,32765
6.152,4.09689,0.757165,41,32765
6.16554,4.07674,0.755814,42,32765
6.19585,4.06742,0.754994,42,32765
6.20138,4.04132,0.751186,43,32765
6.20683,4.01509,0.747783,40,32765
6.22053,3.99435,0.74502,41,32765
6.23391,3.97384,0.742883,41,32765
6.24719,3.95345,0.740055,41,32765
6.27709,3.94389,0.739181,41,32765
6.27319,3.91309,0.734675,41,32765
6.27765,3.88764,0.730624,40,32765
6.29084,3.86662,0.728688,40,32765
6.31245,3.85079,0.727572,40,32765
6.31695,3.82475,0.723798,40,32765
6.35554,3.81905,0.724226,41,32765
6.3684,3.79809,0.721433,41,32765
6.38117,3.77717,0.718406,42,32765
6.39406,3.75593,0.715193,41,32765
6.41512,3.73999,0.714336,43,32765
6.41918,3.71381,0.710101,41,32765
6.42293,3.68777,0.707055,40,32765
6.45282,3.67617,0.706071,42,32765
6.46545,3.65455,0.702751,42,32765
6.47808,3.63277,0.699359,44,32765
6.49049,3.61108,0.696636,43,32765
6.50267,3.58956,0.694227,43,32765
6.49729,3.55859,0.689419,42,32765
6.50933,3.53721,0.685857,42,32765
6.52991,3.52069,0.683808,42,32765
6.5418,3.4991,0.680901,44,32765
6.57121,3.48677,0.680086,44,32765
6.57423,3.46024,0.676635,44,32765
6.58597,3.43841,0.673743,42,32765
6.57999,3.40722,0.669428,32,32765
6.58287,3.38058,0.665179,33,32765
6.61201,3.36773,0.664948,35,32765
6.66807,3.36785,0.666667,47,32765
6.66174,3.33657,0.662541,47,32765
6.68205,3.31882,0.660151,46,32765
6.68441,3.29217,0.656245,44,32765
6.6864,3.26604,0.652605,42,32765
6.70663,3.24777,0.650741,42,32765
6.71785,3.22506,0.648019,42,32765
6.72876,3.20271,0.645603,42,32765
6.74859,3.18464,0.643942,42,32765
6.75906,3.16285,0.641524,42,32765
6.78779,3.14894,0.640422,43,32765
6.78933,3.12232,0.637276,42,32765
6.79979,3.10001,0.634597,43,32765
6.81036,3.07725,0.632132,42,32765
6.82063,3.05488,0.629831,42,32765
6.831,3.03206,0.627769,42,32765
6.8414,3.00915,0.624734,42,32765
6.85149,2.9865,0.622785,42,32765
6.87981,2.97178,0.622253,43,32765
6.91714,2.9611,0.622589,43,32765
6.89963,2.92646,0.617575,43,32765
6.91868,2.90744,0.616105,43,32765
6.90981,2.87729,0.613063,31,32765
4.97537,2.05252,0.439166,11,32765
4.5577,1.8629,0.400737,14,32765
4.47158,1.81042,0.39106,13,32765
4.55165,1.82534,0.396269,14,32765
4.50211,1.78841,0.390158,15,32765
4.39675,1.72982,0.379373,14,32765
4.29095,1.67211,0.369071,15,32765
4.43599,1.71182,0.380196,16,32765
4.2648,1.62959,0.363808,15,32765
4.31678,1.63324,0.367211,15,32765
4.16347,1.55971,0.352764,16,32765
4.05636,1.50478,0.34232,16,32765
4.02383,1.47783,0.338825,16,32765
3.92564,1.4273,0.329084,15,32765
3.96777,1.4281,0.332077,16,32765
3.82226,1.36145,0.318895,15,32765
3.79843,1.33924,0.316224,15,32765
3.73691,1.30391,0.310153,15,32765
3.82603,1.32093,0.316667,17,32765
3.81142,1.30217,0.314649,15,32765
3.68335,1.24527,0.303722,17,32765
3.64943,1.22102,0.300593,18,32765
3.63444,1.20303,0.298586,17,32765
3.60985,1.18206,0.296303,17,32765
3.58513,1.16138,0.294026,16,32765
3.45583,1.10752,0.283328,16,32765
3.49722,1.10885,0.286832,17,32765
3.44355,1.07998,0.282914,18,32765
6.00338,4.42052,0.720098,47,32765
6.01827,4.40039,0.719106,46,32765
6.0168,4.36886,0.715611,38,32765
6.00721,4.33142,0.711242,33,32765
6.03775,4.3232,0.712124,36,32765
6.06855,4.3146,0.712249,44,32765
6.09102,4.30049,0.710891,46,32765
6.10498,4.28099,0.708892,47,32765
6.111,4.2553,0.706016,49,32765
6.12518,4.23521,0.703945,49,32765
6.13947,4.21473,0.702431,48,32765
6.15379,4.1943,0.69942,48,32765
6.16773,4.17406,0.697626,49,32765
6.19002,4.15923,0.696084,49,32765
6.19545,4.1337,0.692336,48,32765
6.20912,4.11337,0.69097,49,32765
6.23957,4.10388,0.689938,49,32765
6.24521,4.07757,0.686199,49,32765
6.25915,4.05655,0.68378,49,32765
6.27299,4.03559,0.680989,49,32765
6.27811,4.00951,0.677923,48,32765
6.29151,3.98893,0.67507,49,32765
6.3131,3.9739,0.673085,49,32765
6.31774,3.94819,0.669643,48,32765
6.33076,3.92779,0.66655,48,32765
6.35258,3.91177,0.66548,50,32765
6.38285,3.90089,0.665131,51,32765
6.40455,3.88489,0.663179,52,32765
6.40068,3.85319,0.658894,52,32765
6.41366,3.83204,0.656077,53,32765
6.42654,3.81093,0.653024,52,32765
6.43953,3.78949,0.649784,52,32765
6.45212,3.76834,0.647951,53,32765
6.46487,3.74698,0.644646,53,32765
6.48601,3.73066,0.643388,53,32765
6.49874,3.70895,0.640479,53,32765
6.52014,3.69204,0.637979,55,32765
6.53289,3.67003,0.634553,55,32765
6.53672,3.64325,0.630963,54,32765
6.54901,3.62154,0.628533,55,32765
6.56119,3.59993,0.625552,55,32765
6.57336,3.5783,0.621952,54,32765
6.5853,3.5568,0.618951,53,32765
6.6061,3.53968,0.616836,53,32765
6.60925,3.51308,0.613353,53,32765
6.62998,3.49567,0.611604,52,32765
6.63301,3.46898,0.607874,53,32765
6.65366,3.45134,0.606143,50,32765
6.63895,3.41527,0.600342,42,32765
6.66822,3.40221,0.599904,45,32765
6.67104,3.37515,0.596355,47,32765
6.70927,3.36614,0.596372,56,32765
6.72968,3.34819,0.593861,55,32765
6.73213,3.32133,0.590023,53,32765
6.75212,3.30375,0.588014,51,32765
6.7635,3.28087,0.585249,51,32765
6.77482,3.25792,0.5825,51,32765
6.78585,3.23534,0.58006,51,32765
6.79678,3.21277,0.577514,51,32765
6.80733,3.19079,0.575076,51,32765
6.81808,3.16828,0.572245,51,32765
6.84684,3.15402,0.571446,51,32765
6.8574,3.13148,0.568741,51,32765
6.86807,3.10847,0.566252,51,32765
6.87844,3.08587,0.563928,50,32765
6.90714,3.07091,0.563331,50,32765
6.90853,3.04368,0.559521,50,32765
6.92789,3.02475,0.558285,50,32765
6.92887,2.99787,0.555338,50,32765
6.94797,2.97914,0.553912,51,32765
6.9764,2.96383,0.552802,51,32765
6.968,2.93291,0.549036,51,32765
6.99603,2.91789,0.549059,50,32765
7.01502,2.89861,0.54745,29,32765
4.39379,1.79878,0.341442,13,32765
4.6032,1.86668,0.35561,18,32765
4.88712,1.963,0.375683,20,32765
4.85654,1.93226,0.371456,19,32765
4.47319,1.76268,0.340509,13,32765
4.37674,1.70822,0.332024,13,32765
4.27075,1.65064,0.322738,18,32765
4.28559,1.64009,0.322189,19,32765
4.28167,1.62247,0.320924,20,32765
4.12824,1.54891,0.30808,18,32765
4.00234,1.48703,0.29738,16,32765
4.07273,1.49808,0.301898,18,32765
3.97454,1.44729,0.293176,18,32765
3.86661,1.3938,0.284733,17,32765
3.93702,1.40445,0.288929,18,32765
3.91332,1.38182,0.286529,18,32765
3.78599,1.32301,0.276285,18,32765
3.81864,1.32034,0.277829,17,32765
3.76627,1.28865,0.27326,19,32765
3.73259,1.26378,0.270495,18,32765
3.6798,1.23298,0.266371,18,32765
3.60802,1.19603,0.260446,18,32765
3.56444,1.16887,0.257076,18,32765
3.59661,1.16677,0.259182,18,32765
3.60974,1.15849,0.260065,20,32765
3.51821,1.11709,0.253614,18,32765
3.47406,1.09108,0.25095,18,32765
5.96885,4.37847,0.745266,38,32765
5.97618,4.35261,0.738204,33,32765
5.9832,4.32701,0.731251,26,32765
5.98163,4.29595,0.724486,27,32765
6.02067,4.29372,0.721368,33,32765
6.03544,4.27371,0.716787,38,32765
6.05009,4.25383,0.711544,37,32765
6.07275,4.23959,0.707943,40,32765
6.08696,4.22,0.702943,39,32765
6.1013,4.19999,0.698438,40,32765
6.12382,4.18553,0.694707,40,32765
6.12986,4.15964,0.689788,39,32765
6.14402,4.13944,0.685353,40,32765
6.14964,4.11393,0.68003,40,32765
6.17177,4.09941,0.67657,39,32765
6.18545,4.07942,0.672435,39,32765
6.19094,4.05358,0.667546,40,32765
6.22145,4.04399,0.66502,40,32765
6.22672,4.0181,0.660577,39,32765
6.22375,3.98656,0.654708,40,32765
6.25391,3.97694,0.652772,40,32765
6.27565,3.9618,0.65023,40,32765
6.28058,3.93595,0.645148,40,32765
6.29358,3.91569,0.641762,40,32765
6.31522,3.90031,0.638824,41,32765
6.33674,3.88497,0.635826,42,32765
6.34982,3.86402,0.633051,43,32765
6.36292,3.84295,0.62981,42,32765
6.35872,3.81188,0.624405,44,32765
6.37165,3.79079,0.620934,43,32765
6.40157,3.77998,0.619097,42,32765
6.39719,3.74867,0.614052,44,32765
6.42721,3.73727,0.612709,44,32765
6.44843,3.72106,0.610222,45,32765
6.45246,3.69458,0.60613,44,32765
6.45626,3.66831,0.602259,45,32765
6.48599,3.65673,0.600977,44,32765
6.49841,3.63504,0.598295,45,32765
6.51058,3.61369,0.595389,44,32765
6.52281,3.5921,0.592183,45,32765
6.53491,3.57047,0.589546,45,32765
6.53809,3.54422,0.586025,44,32765
6.55022,3.52229,0.582879,44,32765
6.57958,3.51018,0.581525,44,32765
6.58268,3.48357,0.577934,44,32765
6.58555,3.45723,0.574239,43,32765
6.59717,3.43558,0.570768,43,32765
6.59111,3.4044,0.566554,35,32765
6.59355,3.37815,0.563969,33,32765
6.61392,3.36057,0.562412,33,32765
6.65216,3.35181,0.561256,42,32765
6.69047,3.34254,0.561235,48,32765
6.68425,3.31069,0.557311,43,32765
6.7044,3.29274,0.555889,42,32765
6.71564,3.27025,0.552997,43,32765
6.7177,3.24363,0.549399,42,32765
6.7375,3.22585,0.547787,42,32765
6.76643,3.21186,0.547276,43,32765
6.75009,3.17694,0.541991,41,32765
6.76089,3.15435,0.539292,42,32765
6.78051,3.13612,0.538134,43,32765
6.80017,3.11778,0.535924,42,32765
6.81989,3.09906,0.533861,44,32765
6.82112,3.07255,0.530757,42,32765
6.83164,3.04962,0.527799,42,32765
6.84195,3.02689,0.525084,41,32765
6.87055,3.01188,0.523978,41,32765
6.89924,2.99651,0.522472,42,32765
6.9002,2.9696,0.519221,43,32765
6.91036,2.94637,0.516455,43,32765
6.92933,2.92772,0.514262,43,32765
6.94822,2.90891,0.512803,45,32765
6.93038,2.87452,0.507249,34,32765
4.8173,1.97964,0.350736,19,32765
4.72232,1.92234,0.341149,19,32765
4.78424,1.9293,0.343151,17,32765
0,0,0,0,32765
4.57453,1.80938,0.323576,12,32765
4.50626,1.76517,0.316681,12,32765
4.36334,1.69262,0.304026,16,32765
4.29447,1.64966,0.296988,16,32765
4.26259,1.62159,0.292753,16,32765
4.23065,1.59354,0.288283,16,32765
4.16102,1.55211,0.281793,15,32765
4.00705,1.47971,0.269105,16,32765
4.0682,1.48721,0.271188,17,32765
4.03562,1.46035,0.266799,17,32765
3.94658,1.41341,0.25842,17,32765
3.89474,1.3807,0.253458,17,32765
3.85223,1.35154,0.248514,16,32765
3.75287,1.3033,0.240295,16,32765
3.70992,1.27514,0.235396,16,32765
3.68577,1.25358,0.231677,17,32765
3.72769,1.2546,0.232225,16,32765
3.63706,1.21113,0.224813,17,32765
3.60308,1.18712,0.220321,16,32765
3.63537,1.1851,0.220254,18,32765
3.56321,1.14912,0.213491,16,32765
3.53835,1.12895,0.209737,17,32765
3.44684,1.0876,0.201997,17,32765
3.41217,1.06511,0.197653,17,32765
6.01,4.41782,0.680326,46,32765
6.02547,4.39764,0.67421,47,32765
6.02455,4.36596,0.666402,42,32765
6.02309,4.3347,0.659785,32,32765
6.02981,4.30915,0.652829,33,32765
6.05274,4.29483,0.649105,38,32765
6.10001,4.29779,0.647298,46,32765
6.11464,4.27764,0.642702,46,32765
6.12896,4.25786,0.637661,46,32765
6.1434,4.23767,0.63312,46,32765
6.16604,4.22304,0.629257,48,32765
6.18043,4.20255,0.625231,48,32765
6.18645,4.17655,0.619926,47,32765
6.19218,4.15085,0.614661,48,32765
6.20612,4.13063,0.610255,48,32765
6.23652,4.12147,0.607712,49,32765
6.25047,4.10087,0.603682,49,32765
6.27277,4.08562,0.600124,50,32765
6.26981,4.05409,0.594944,49,32765
6.29211,4.03848,0.591595,52,32765
6.30562,4.01791,0.587858,52,32765
6.31907,3.99723,0.58441,51,32765
6.33254,3.97648,0.58016,52,32765
6.34566,3.956,0.576741,53,32765
6.36742,3.94042,0.573673,54,32765
6.37208,3.91444,0.569026,56,32765
6.38525,3.89332,0.566231,56,32765
6.40697,3.87724,0.563717,57,32765
6.41142,3.8511,0.559213,56,32765
6.43305,3.83489,0.55645,56,32765
6.44594,3.81369,0.552914,57,32765
6.45886,3.79227,0.549491,57,32765
6.47179,3.77059,0.546472,57,32765
6.47585,3.74422,0.542416,55,32765
6.48861,3.72255,0.539117,55,32765
6.51849,3.71091,0.537462,55,32765
6.52231,3.68437,0.533828,54,32765
6.53483,3.66251,0.531126,54,32765
6.54708,3.64099,0.528199,53,32765
6.56813,3.62406,0.525669,52,32765
6.58909,3.60702,0.523704,53,32765
6.59239,3.58053,0.52025,53,32765
6.60462,3.55837,0.517073,53,32765
6.62531,3.54135,0.514818,53,32765
6.62851,3.51452,0.511297,53,32765
6.64913,3.49726,0.509023,54,32765
6.66088,3.47535,0.505514,53,32765
6.6638,3.44848,0.502125,52,32765
6.67527,3.42649,0.500274,43,32765
6.66913,3.39502,0.496604,40,32765
6.68076,3.37256,0.493161,41,32765
6.70131,3.35424,0.491536,49,32765
6.74875,3.3489,0.491698,52,32765
6.75112,3.32189,0.48886,51,32765
6.76246,3.29919,0.485945,51,32765
6.78257,3.28104,0.483697,51,32765
6.78451,3.25438,0.480689,51,32765
6.79552,3.23163,0.478703,51,32765
6.82436,3.21782,0.476836,51,32765
6.83529,3.19493,0.474103,51,32765
6.84599,3.17222,0.472202,50,32765
6.8567,3.14946,0.469245,51,32765
6.87653,3.13051,0.467061,52,32765
6.87786,3.10376,0.464027,51,32765
6.88847,3.08058,0.461042,51,32765
6.91713,3.06571,0.459512,51,32765
6.92759,3.04239,0.456981,50,32765
6.95638,3.02679,0.45526,51,32765
6.94827,2.99568,0.451482,50,32765
6.97687,2.98008,0.449877,51,32765
6.96836,2.9495,0.445795,51,32765
7.00574,2.93824,0.445397,52,32765
7.03407,2.92275,0.442995,52,32765
7.03449,2.89594,0.440409,25,32765
4.89029,1.99426,0.303467,22,32765
4.85063,1.95955,0.298565,19,32765
4.56059,1.82475,0.278716,14,32765
4.61319,1.8279,0.2795,17,32765
4.59143,1.80171,0.276136,14,32765
4.3648,1.69618,0.25995,14,32765
4.23069,1.62802,0.24981,16,32765
4.29202,1.63566,0.25144,20,32765
4.2134,1.58983,0.244619,19,32765
4.2092,1.57282,0.24266,18,32765
4.11143,1.52091,0.234753,17,32765
4.03208,1.47657,0.228264,17,32765
3.9431,1.42935,0.221108,17,32765
3.95731,1.41972,0.219453,18,32765
3.88666,1.38022,0.214013,18,32765
3.83469,1.34772,0.209028,18,32765
3.78244,1.31585,0.204397,17,32765
3.77728,1.30054,0.201973,18,32765
3.76264,1.28194,0.198999,20,32765
3.71001,1.25081,0.194178,19,32765
3.72355,1.24207,0.193117,19,32765
3.65171,1.20521,0.187006,19,32765
3.64607,1.19064,0.184708,19,32765
3.55488,1.1484,0.177739,17,32765
3.51096,1.12214,0.173331,19,32765
3.49559,1.10488,0.170259,19,32765
3.51815,1.10008,0.169008,19,32765
5.99407,4.40119,0.593529,40,32765
6.00843,4.38172,0.592404,39,32765
5.98255,4.33276,0.58683,28,32765
5.99695,4.31307,0.584938,24,32765
6.00331,4.28724,0.582972,25,32765
6.05021,4.29038,0.584064,35,32765
6.07265,4.2762,0.58269,37,32765
6.08665,4.25657,0.580325,37,32765
6.10074,4.2366,0.578564,38,32765
6.1146,4.21689,0.576226,37,32765
6.11239,4.18519,0.572525,38,32765
6.15121,4.18167,0.572524,39,32765
6.15697,4.1558,0.568823,40,32765
6.17076,4.13562,0.566436,41,32765
6.18455,4.11534,0.563755,41,32765
6.19834,4.09488,0.561348,42,32765
6.22051,4.07971,0.559278,43,32765
6.23419,4.05912,0.55684,43,32765
6.23939,4.03311,0.553607,41,32765
6.236,4.00192,0.549399,42,32765
6.25766,3.98698,0.547056,42,32765
6.27081,3.96655,0.544952,43,32765
6.29237,3.95143,0.54295,44,32765
6.30554,3.93085,0.539585,46,32765
6.31872,3.90994,0.53727,46,32765
6.34037,3.89427,0.534815,47,32765
6.35368,3.87299,0.531335,48,32765
6.34969,3.84149,0.527313,48,32765
6.38858,3.83538,0.526171,49,32765
6.40149,3.81407,0.524049,48,32765
6.40587,3.78765,0.519773,47,32765
6.41867,3.76635,0.516691,47,32765
6.42281,3.73985,0.513341,45,32765
6.45277,3.7283,0.512364,45,32765
6.46524,3.70695,0.509922,45,32765
6.47783,3.68537,0.506577,44,32765
6.48166,3.65886,0.502419,43,32765
6.49403,3.6373,0.499251,44,32765
6.50633,3.61561,0.496554,44,32765
6.51826,3.59444,0.49384,43,32765
6.53038,3.57277,0.490992,43,32765
6.55125,3.55581,0.488057,42,32765
6.55469,3.529,0.483514,43,32765
6.56665,3.50702,0.481157,43,32765
6.59606,3.49454,0.480139,43,32765
6.59021,3.4632,0.476394,43,32765
6.61969,3.45039,0.474296,43,32765
6.61364,3.41919,0.469559,38,32765
6.6077,3.38752,0.46551,29,32765
6.63676,3.37482,0.464375,29,32765
6.64806,3.3529,0.461437,34,32765
6.6862,3.34416,0.459804,42,32765
6.6885,3.31763,0.45568,42,32765
6.69986,3.29505,0.452604,42,32765
6.71101,3.27261,0.450267,41,32765
6.74026,3.25856,0.447969,42,32765
6.74227,3.23169,0.444974,42,32765
6.76207,3.2138,0.442648,42,32765
6.7819,3.1957,0.439815,43,32765
6.78346,3.16917,0.437063,42,32765
6.7942,3.14644,0.434547,42,32765
6.82319,3.13168,0.432508,42,32765
6.82454,3.10506,0.429292,44,32765
6.85325,3.09047,0.427713,43,32765
6.8544,3.06391,0.424418,42,32765
6.87372,3.04539,0.422499,43,32765
6.87482,3.01846,0.419734,43,32765
6.91231,3.00777,0.419221,44,32765
6.92244,2.98476,0.416608,43,32765
6.9323,2.96211,0.414232,43,32765
6.93301,2.93526,0.411326,43,32765
6.97046,2.92381,0.411077,44,32765
6.97105,2.89675,0.408426,41,32765
4.59842,1.89301,0.267285,16,32765
0,0,0,0,32765
4.91644,1.9862,0.28242,16,32765
0,0,0,0,32765
4.64176,1.83977,0.263312,12,32765
4.53632,1.7807,0.255515,12,32765
4.47695,1.74066,0.251305,13,32765
4.29633,1.65409,0.240025,14,32765
4.27379,1.62941,0.236989,15,32765
4.28842,1.61911,0.236766,16,32765
4.0973,1.53169,0.224543,16,32765
4.13036,1.52883,0.225563,16,32765
4.0698,1.4911,0.22127,14,32765
4.05601,1.47076,0.219245,15,32765
3.99497,1.43397,0.215464,16,32765
3.98086,1.41421,0.213635,15,32765
