x, y, z, intensity, ring
1.10844,-0.689574,-0.109332,17,32765
1.08084,-0.677421,-0.106246,18,32765
1.09549,-0.691632,-0.107451,18,32765
1.06797,-0.679285,-0.104427,18,32765
1.09933,-0.704336,-0.107188,17,32765
1.08028,-0.697168,-0.105123,17,32765
1.07799,-0.700781,-0.104634,17,32765
1.0757,-0.704355,-0.104227,18,32765
1.09002,-0.718933,-0.105307,18,32765
1.08765,-0.722586,-0.104809,18,32765
1.07704,-0.720609,-0.103503,17,32765
1.10773,-0.746488,-0.106221,17,32765
1.08055,-0.733353,-0.103436,19,32765
1.06992,-0.731319,-0.102174,19,32765
1.08396,-0.746174,-0.103242,19,32765
1.0897,-0.755461,-0.103558,19,32765
1.07905,-0.753371,-0.102381,19,32765
1.08481,-0.762597,-0.10267,19,32765
1.08232,-0.766172,-0.102265,19,32765
1.07172,-0.763918,-0.10126,19,32765
1.07738,-0.773218,-0.101471,19,32765
1.07487,-0.776735,-0.101149,18,32765
1.07237,-0.780214,-0.100897,15,32765
0,-0,-0,0,32765
1.30109,-0.399089,-0.157484,17,32765
1.29973,-0.403427,-0.157598,17,32765
1.33627,-0.419687,-0.162323,20,32765
1.31593,-0.418099,-0.160045,20,32765
1.30507,-0.419471,-0.158858,20,32765
1.28475,-0.417767,-0.156518,19,32765
1.31165,-0.431405,-0.159883,20,32765
1.30079,-0.432662,-0.158615,21,32765
1.29935,-0.436993,-0.158483,20,32765
1.2885,-0.438094,-0.157271,19,32765
1.29646,-0.445593,-0.158252,20,32765
1.29499,-0.449923,-0.157982,21,32765
1.28411,-0.45099,-0.156751,20,32765
1.29198,-0.458658,-0.157543,20,32765
1.28108,-0.459673,-0.156302,20,32765
1.29818,-0.470885,-0.158443,21,32765
1.28728,-0.471906,-0.156914,20,32765
1.26705,-0.469405,-0.154376,21,32765
1.23757,-0.463239,-0.150733,20,32765
1.25464,-0.474404,-0.15273,20,32765
1.26235,-0.482173,-0.153536,20,32765
1.27002,-0.490008,-0.154384,19,32765
1.24061,-0.483504,-0.150699,20,32765
1.25747,-0.495048,-0.152609,20,32765
1.23734,-0.491993,-0.150076,20,32765
1.25411,-0.503705,-0.151926,20,32765
1.23401,-0.500516,-0.149384,20,32765
1.21394,-0.497206,-0.146781,20,32765
1.22147,-0.505127,-0.147519,20,32765
1.22898,-0.513042,-0.148299,20,32765
1.24561,-0.524893,-0.15014,19,32765
1.23474,-0.525172,-0.148704,21,32765
1.2056,-0.517636,-0.144892,19,32765
1.23121,-0.533663,-0.147716,20,32765
1.21119,-0.529966,-0.145086,20,32765
1.20941,-0.534149,-0.144598,20,32765
1.20764,-0.53824,-0.144219,20,32765
1.1968,-0.538231,-0.142721,20,32765
1.2131,-0.550544,-0.144494,21,32765
1.19321,-0.546376,-0.14182,20,32765
1.20041,-0.554656,-0.142406,21,32765
1.19854,-0.55879,-0.141994,21,32765
1.19667,-0.56292,-0.141403,20,32765
1.20375,-0.57131,-0.142093,20,32765
1.17496,-0.562509,-0.138353,20,32765
1.19993,-0.579521,-0.141115,20,32765
1.1891,-0.579213,-0.139481,20,32765
1.16933,-0.574485,-0.136892,19,32765
1.15849,-0.574057,-0.135459,19,32765
1.1477,-0.57357,-0.133822,19,32765
1.14576,-0.577544,-0.133363,20,32765
1.15266,-0.586028,-0.133936,19,32765
1.15069,-0.590029,-0.133357,20,32765
1.13985,-0.589451,-0.131884,20,32765
1.15554,-0.602535,-0.133363,19,32765
1.1447,-0.601893,-0.131824,19,32765
1.16907,-0.619757,-0.134423,20,32765
1.14949,-0.614357,-0.131659,19,32765
1.14742,-0.618302,-0.131289,20,32765
1.1279,-0.61267,-0.128757,19,32765
1.12586,-0.616524,-0.128188,19,32765
1.14126,-0.62993,-0.12967,19,32765
1.1218,-0.624089,-0.127205,19,32765
1.13707,-0.637651,-0.128701,20,32765
1.13496,-0.641516,-0.12811,19,32765
1.11551,-0.635569,-0.125674,19,32765
1.11341,-0.639338,-0.125187,18,32765
1.08545,-0.628155,-0.121744,18,32765
1.11776,-0.651899,-0.125065,19,32765
1.13279,-0.665728,-0.126461,19,32765
1.12198,-0.664536,-0.125127,18,32765
1.11978,-0.668347,-0.12454,19,32765
1.10902,-0.667025,-0.123098,18,32765
1.12383,-0.68112,-0.124454,19,32765
1.09609,-0.669358,-0.12106,19,32765
1.0769,-0.662647,-0.118653,18,32765
1.11704,-0.692486,-0.122794,18,32765
1.08942,-0.68042,-0.119571,18,32765
1.09561,-0.689394,-0.119905,18,32765
1.06813,-0.677032,-0.116692,18,32765
1.07428,-0.68601,-0.117061,18,32765
1.08042,-0.694975,-0.117453,18,32765
1.09487,-0.709396,-0.118838,18,32765
1.07585,-0.702183,-0.116532,18,32765
1.07355,-0.705761,-0.116124,18,32765
1.05462,-0.69837,-0.113801,18,32765
1.09375,-0.72955,-0.117779,19,32765
1.06659,-0.716486,-0.114598,17,32765
0.998232,-0.675404,-0.107068,14,32765
1.02895,-0.701149,-0.110217,16,32765
1.06772,-0.732764,-0.114151,19,32765
1.08172,-0.747645,-0.115402,19,32765
1.07108,-0.745565,-0.114067,18,32765
1.07679,-0.754851,-0.114537,18,32765
1.04183,-0.735367,-0.110596,17,32765
1.01507,-0.721496,-0.107621,13,32765
0,-0,-0,0,32765
0,-0,-0,0,32765
0,-0,-0,0,32765
0,-0,-0,0,32765
0,-0,-0,0,32765
1.27105,-0.387933,-0.171844,14,32765
1.26987,-0.392196,-0.170952,14,32765
1.30651,-0.408273,-0.175373,17,32765
1.28632,-0.406631,-0.172109,18,32765
1.30395,-0.416965,-0.17397,19,32765
1.27429,-0.412253,-0.169527,19,32765
1.2824,-0.419656,-0.170134,18,32765
1.25277,-0.414685,-0.16587,19,32765
1.27026,-0.425253,-0.167656,19,32765
1.26889,-0.429534,-0.167071,20,32765
1.27689,-0.437044,-0.167777,20,32765
1.2567,-0.434875,-0.164858,19,32765
1.26466,-0.442433,-0.16552,20,32765
1.27256,-0.450049,-0.166271,20,32765
1.24307,-0.444333,-0.162034,19,32765
1.25094,-0.451954,-0.162709,20,32765
1.24947,-0.456211,-0.162183,20,32765
1.2573,-0.463838,-0.16294,20,32765
1.20926,-0.450768,-0.156515,19,32765
1.24497,-0.468828,-0.160777,20,32765
1.22486,-0.46606,-0.157802,18,32765
1.24184,-0.47739,-0.159772,19,32765
1.22175,-0.474452,-0.156945,19,32765
1.22942,-0.482274,-0.157619,20,32765
1.21864,-0.482741,-0.155816,20,32765
1.24469,-0.497975,-0.158977,20,32765
1.22465,-0.494714,-0.156169,20,32765
1.24141,-0.506351,-0.158109,20,32765
1.20302,-0.495472,-0.152831,20,32765
1.22885,-0.511113,-0.155829,18,32765
1.19961,-0.503936,-0.15192,19,32765
1.2162,-0.515857,-0.153779,20,32765
1.1962,-0.512239,-0.151029,20,32765
1.21274,-0.52422,-0.152814,20,32765
1.1837,-0.516426,-0.14888,20,32765
1.20925,-0.532494,-0.151859,21,32765
1.20749,-0.536632,-0.151328,20,32765
1.17849,-0.528573,-0.147575,20,32765
1.21296,-0.548968,-0.151511,21,32765
1.19305,-0.544873,-0.148796,20,32765
1.19122,-0.549003,-0.148331,20,32765
1.15335,-0.536321,-0.14332,20,32765
1.16955,-0.548706,-0.145203,20,32765
1.17672,-0.556939,-0.14578,20,32765
1.14798,-0.548093,-0.141895,19,32765
1.16404,-0.560696,-0.143625,19,32765
1.18899,-0.57771,-0.146441,19,32765
1.16028,-0.568672,-0.142666,18,32765
1.16729,-0.577076,-0.143264,20,32765
1.14759,-0.572192,-0.140492,21,32765
1.1723,-0.589565,-0.143283,20,32765
1.16149,-0.589047,-0.141678,20,32765
1.13295,-0.579496,-0.137872,20,32765
1.15751,-0.597078,-0.140626,19,32765
1.13788,-0.591875,-0.137923,19,32765
1.12708,-0.59117,-0.136373,20,32765
1.15153,-0.60891,-0.138932,19,32765
1.13199,-0.603424,-0.1363,19,32765
1.12125,-0.602534,-0.134701,19,32765
1.12803,-0.611035,-0.135214,20,32765
1.09983,-0.600582,-0.13146,19,32765
1.11526,-0.613924,-0.132986,19,32765
1.10455,-0.61288,-0.131336,19,32765
1.12859,-0.631176,-0.133815,20,32765
1.09188,-0.615424,-0.129041,20,32765
1.12443,-0.638813,-0.132614,19,32765
1.07053,-0.612986,-0.125783,18,32765
1.10295,-0.636534,-0.129319,19,32765
1.12665,-0.655323,-0.131553,19,32765
1.10734,-0.649056,-0.128905,19,32765
1.10521,-0.652814,-0.128199,19,32765
1.08597,-0.646375,-0.125571,19,32765
1.10093,-0.660266,-0.126881,19,32765
1.08174,-0.653684,-0.124236,19,32765
1.07961,-0.65731,-0.123623,19,32765
1.05202,-0.64533,-0.119981,18,32765
1.1092,-0.6855,-0.125988,18,32765
1.05629,-0.657638,-0.119465,18,32765
1.08788,-0.682344,-0.122598,18,32765
1.09413,-0.691224,-0.122866,18,32765
1.07511,-0.684166,-0.120189,18,32765
1.0813,-0.693094,-0.120444,18,32765
1.05399,-0.680488,-0.116814,18,32765
1.06848,-0.694859,-0.11795,18,32765
1.03293,-0.676604,-0.113433,17,32765
1.07229,-0.707483,-0.117273,19,32765
1.0866,-0.722091,-0.118232,19,32765
1.0677,-0.71467,-0.115581,18,32765
1.03234,-0.695992,-0.11125,16,32765
1.03014,-0.699391,-0.110255,14,32765
1.06899,-0.730944,-0.113893,19,32765
1.05026,-0.723164,-0.111297,19,32765
1.08891,-0.754979,-0.114785,19,32765
1.04568,-0.730028,-0.109649,18,32765
1.05969,-0.744906,-0.110318,19,32765
1.05729,-0.748452,-0.109396,18,32765
1.1036,-0.786639,-0.113396,15,32765
1.10111,-0.790252,-0.112462,13,32765
0,-0,-0,0,32765
0,-0,-0,0,32765
0,-0,-0,0,32765
1.30689,-0.400543,-0.189778,20,32765
1.32459,-0.410807,-0.191597,15,32765
1.19097,-0.373722,-0.171813,11,32765
1.33146,-0.42265,-0.191518,13,32765
1.28297,-0.411959,-0.184066,19,32765
1.27222,-0.413289,-0.182051,20,32765
1.28032,-0.420705,-0.182751,20,32765
1.28834,-0.428219,-0.183567,20,32765
1.28698,-0.432621,-0.182847,20,32765
1.26682,-0.430592,-0.179592,19,32765
1.2748,-0.438116,-0.18039,20,32765
1.27337,-0.442443,-0.179931,20,32765
1.27193,-0.446794,-0.179357,20,32765
1.25178,-0.444504,-0.17625,20,32765
1.25967,-0.452102,-0.176987,20,32765
1.26751,-0.459801,-0.177745,20,32765
1.2567,-0.460715,-0.175908,20,32765
1.24591,-0.461499,-0.174153,19,32765
1.25367,-0.469216,-0.175047,19,32765
1.26144,-0.47695,-0.17578,20,32765
1.2506,-0.477775,-0.173898,20,32765
1.23975,-0.478509,-0.172188,20,32765
1.23816,-0.482766,-0.171737,20,32765
1.23656,-0.487031,-0.171218,20,32765
1.24422,-0.494857,-0.171863,20,32765
1.24256,-0.499126,-0.171481,21,32765
1.25013,-0.507038,-0.172287,19,32765
1.23928,-0.507514,-0.170611,19,32765
1.22845,-0.507978,-0.168739,21,32765
1.20842,-0.504632,-0.165724,20,32765
1.21581,-0.512792,-0.166552,20,32765
1.21408,-0.517025,-0.166091,20,32765
1.21234,-0.521233,-0.165645,20,32765
1.21062,-0.525399,-0.165123,20,32765
1.20888,-0.529528,-0.164623,21,32765
1.20712,-0.533684,-0.164165,21,32765
1.18722,-0.52974,-0.161173,20,32765
1.19449,-0.537897,-0.162057,21,32765
1.20176,-0.546078,-0.162683,21,32765
1.20896,-0.554349,-0.163444,20,32765
1.18007,-0.546043,-0.159321,20,32765
1.16926,-0.545896,-0.157581,20,32765
1.16743,-0.549907,-0.157223,20,32765
1.17458,-0.558154,-0.15789,20,32765
1.17274,-0.562159,-0.157329,19,32765
1.17978,-0.570557,-0.158035,20,32765
1.16896,-0.570254,-0.156345,20,32765
1.13141,-0.556747,-0.151109,20,32765
1.15623,-0.573903,-0.154181,20,32765
1.14545,-0.57342,-0.152409,20,32765
1.15238,-0.581874,-0.153121,19,32765
1.12391,-0.57228,-0.149082,19,32765
1.14849,-0.589804,-0.152031,19,32765
1.13768,-0.589211,-0.150391,20,32765
1.13572,-0.593128,-0.149833,19,32765
1.13372,-0.597047,-0.149346,20,32765
1.13178,-0.600877,-0.148718,20,32765
1.12981,-0.604693,-0.148206,20,32765
1.13658,-0.613232,-0.148803,20,32765
1.12585,-0.612313,-0.147117,20,32765
1.13254,-0.620941,-0.147627,20,32765
1.11309,-0.615202,-0.144794,20,32765
1.13711,-0.633496,-0.147556,19,32765
1.1177,-0.627618,-0.144684,19,32765
1.10702,-0.626485,-0.142893,19,32765
1.10493,-0.630282,-0.142377,20,32765
1.09425,-0.629108,-0.140536,19,32765
1.10075,-0.637841,-0.141119,20,32765
1.09864,-0.641627,-0.140339,20,32765
1.09655,-0.645341,-0.139703,20,32765
1.09443,-0.649074,-0.139001,20,32765
1.08377,-0.64769,-0.137273,19,32765
1.07314,-0.646221,-0.13554,19,32765
1.09653,-0.665324,-0.138077,19,32765
1.0774,-0.65864,-0.135322,19,32765
1.06679,-0.657063,-0.133522,19,32765
1.07311,-0.665907,-0.133837,19,32765
1.07096,-0.669504,-0.133071,19,32765
1.06878,-0.673113,-0.132391,19,32765
1.05824,-0.671297,-0.130686,19,32765
1.04771,-0.669467,-0.128879,19,32765
1.07066,-0.689093,-0.131292,19,32765
1.05176,-0.681843,-0.128411,20,32765
1.05789,-0.690801,-0.128716,18,32765
0.989168,-0.650609,-0.119809,14,32765
0.945584,-0.626456,-0.114126,12,32765
0,-0,-0,0,32765
0,-0,-0,0,32765
0.964179,-0.652731,-0.114892,12,32765
1.01147,-0.689554,-0.119804,15,32765
0.984618,-0.676042,-0.116168,13,32765
1.01522,-0.701938,-0.119221,12,32765
0,-0,-0,0,32765
0,-0,-0,0,32765
0,-0,-0,0,32765
0,-0,-0,0,32765
0,-0,-0,0,32765
0,-0,-0,0,32765
0,-0,-0,0,32765
0,-0,-0,0,32765
0,-0,-0,0,32765
1.28893,-0.39382,-0.182115,19,32765
1.30652,-0.403906,-0.185103,14,32765
1.35247,-0.422968,-0.191891,12,32765
1.27543,-0.403578,-0.18137,14,32765
1.28351,-0.410825,-0.182841,19,32765
1.26326,-0.40901,-0.180213,19,32765
1.28073,-0.419363,-0.18291,19,32765
1.26992,-0.420513,-0.181548,19,32765
1.2779,-0.42791,-0.18291,20,32765
1.28588,-0.435336,-0.184082,19,32765
1.23753,-0.423663,-0.177255,18,32765
1.28292,-0.444084,-0.183872,20,32765
1.27204,-0.445251,-0.182359,20,32765
1.27985,-0.452988,-0.18353,20,32765
1.269,-0.454024,-0.181935,20,32765
1.2488,-0.451642,-0.179216,20,32765
1.2659,-0.462708,-0.181639,20,32765
1.26435,-0.466988,-0.181473,19,32765
1.22567,-0.45741,-0.175791,19,32765
1.24271,-0.468509,-0.178247,20,32765
1.24115,-0.47275,-0.177915,20,32765
1.23033,-0.473358,-0.176407,20,32765
1.2288,-0.477438,-0.17606,20,32765
1.24569,-0.488842,-0.178312,20,32765
1.24407,-0.493034,-0.178059,20,32765
1.21477,-0.486321,-0.173844,19,32765
1.21313,-0.490531,-0.173507,18,32765
1.22067,-0.498464,-0.174333,20,32765
1.219,-0.502672,-0.173942,20,32765
1.19903,-0.499199,-0.170985,20,32765
1.19736,-0.503332,-0.170532,19,32765
1.19568,-0.507429,-0.170204,19,32765
1.19401,-0.511508,-0.16969,20,32765
1.1923,-0.515638,-0.169256,20,32765
1.19058,-0.519728,-0.168853,20,32765
1.19787,-0.527918,-0.16972,20,32765
1.19611,-0.532074,-0.169184,20,32765
1.16718,-0.524011,-0.164921,20,32765
1.1835,-0.536232,-0.166977,20,32765
1.16369,-0.532048,-0.163876,20,32765
1.17093,-0.540194,-0.164658,20,32765
1.17813,-0.54837,-0.165503,20,32765
1.15839,-0.543936,-0.162404,20,32765
1.18349,-0.560649,-0.165616,18,32765
1.14581,-0.547623,-0.160109,19,32765
1.1708,-0.564507,-0.163291,21,32765
1.16892,-0.568547,-0.162748,20,32765
1.15816,-0.568128,-0.160939,20,32765
1.13851,-0.563286,-0.157819,19,32765
1.11889,-0.558331,-0.154761,20,32765
1.11699,-0.562282,-0.154147,20,32765
1.13279,-0.575184,-0.156015,20,32765
1.13972,-0.583616,-0.156604,20,32765
1.15545,-0.59659,-0.158458,20,32765
1.15351,-0.600508,-0.157841,20,32765
1.12516,-0.59063,-0.153557,20,32765
1.11439,-0.589903,-0.151793,20,32765
1.12994,-0.603134,-0.153508,20,32765
1.12792,-0.607036,-0.152969,20,32765
1.12594,-0.610871,-0.152327,20,32765
1.12395,-0.614682,-0.1517,20,32765
1.11324,-0.613703,-0.149867,20,32765
1.13728,-0.63193,-0.152834,19,32765
1.1092,-0.621265,-0.148668,20,32765
1.1158,-0.629939,-0.149253,20,32765
1.10506,-0.628869,-0.147508,19,32765
1.10298,-0.632669,-0.146831,20,32765
1.10952,-0.641391,-0.147262,20,32765
1.08164,-0.630162,-0.143334,20,32765
1.11387,-0.653914,-0.147267,21,32765
1.09461,-0.647561,-0.144515,20,32765
1.09248,-0.651261,-0.144001,19,32765
1.09039,-0.654917,-0.143261,19,32765
1.07124,-0.648324,-0.140463,19,32765
1.08608,-0.662291,-0.142139,20,32765
1.08391,-0.665967,-0.141494,19,32765
1.08172,-0.669639,-0.140957,20,32765
1.05426,-0.657473,-0.137023,19,32765
1.05212,-0.660988,-0.136526,19,32765
1.06679,-0.675115,-0.138128,20,32765
1.07298,-0.684015,-0.138717,20,32765
1.06236,-0.682264,-0.137143,19,32765
0,-0,-0,0,32765
0,-0,-0,0,32765
0,-0,-0,0,32765
0,-0,-0,0,32765
0,-0,-0,0,32765
0,-0,-0,0,32765
0,-0,-0,0,32765
0,-0,-0,0,32765
0,-0,-0,0,32765
0,-0,-0,0,32765
0,-0,-0,0,32765
0,-0,-0,0,32765
0,-0,-0,0,32765
0,-0,-0,0,32765
0,-0,-0,0,32765
0,-0,-0,0,32765
0,-0,-0,0,32765
0,-0,-0,0,32765
0,-0,-0,0,32765
1.33408,-0.409358,-0.20188,20,32765
1.28542,-0.39908,-0.195024,19,32765
1.30297,-0.409227,-0.197969,19,32765
1.2544,-0.398616,-0.191004,17,32765
1.33784,-0.430042,-0.20406,16,32765
1.27992,-0.416167,-0.195498,19,32765
1.28793,-0.423513,-0.196941,20,32765
1.27711,-0.424692,-0.195484,19,32765
1.27568,-0.428979,-0.1955,20,32765
1.27427,-0.433234,-0.195327,20,32765
1.26344,-0.434365,-0.193777,20,32765
1.27131,-0.44193,-0.195114,20,32765
1.26979,-0.446345,-0.194942,20,32765
1.26825,-0.45078,-0.194772,20,32765
1.25742,-0.451783,-0.193085,20,32765
1.26517,-0.459494,-0.194469,20,32765
1.25433,-0.460414,-0.192788,21,32765
1.25279,-0.464668,-0.192621,21,32765
1.26053,-0.472399,-0.193691,21,32765
1.23119,-0.466121,-0.189211,20,32765
1.23888,-0.473872,-0.1903,21,32765
1.22807,-0.474478,-0.188698,20,32765
1.24498,-0.485759,-0.191182,20,32765
1.22497,-0.48273,-0.187959,19,32765
1.21417,-0.483205,-0.186296,19,32765
1.24007,-0.498532,-0.190265,20,32765
1.2292,-0.499118,-0.188511,20,32765
1.21838,-0.499615,-0.186615,20,32765
1.21671,-0.503829,-0.186222,20,32765
1.19676,-0.500344,-0.183079,20,32765
1.19509,-0.504482,-0.182625,19,32765
1.1934,-0.508584,-0.182296,20,32765
1.19173,-0.512668,-0.18178,21,32765
1.20818,-0.524694,-0.184113,21,32765
1.18829,-0.520899,-0.180941,20,32765
1.19556,-0.529103,-0.181898,20,32765
1.18475,-0.529224,-0.179987,20,32765
1.192,-0.537392,-0.180932,21,32765
1.17218,-0.533321,-0.177691,20,32765
1.20643,-0.553894,-0.182584,21,32765
1.15964,-0.537222,-0.175286,18,32765
1.15786,-0.541186,-0.174869,19,32765
1.16506,-0.549355,-0.175647,20,32765
1.1543,-0.549105,-0.173742,20,32765
1.16139,-0.557391,-0.174592,20,32765
1.15062,-0.557097,-0.172685,20,32765
1.14876,-0.56108,-0.172149,20,32765
1.14694,-0.564975,-0.171586,20,32765
1.16284,-0.577729,-0.173586,20,32765
1.12549,-0.56397,-0.167688,19,32765
1.15896,-0.585845,-0.17233,20,32765
1.15698,-0.589921,-0.171736,20,32765
1.13739,-0.584858,-0.168483,20,32765
1.15308,-0.597855,-0.17052,21,32765
1.11598,-0.583403,-0.164713,19,32765
1.1316,-0.5965,-0.166631,20,32765
1.12959,-0.600453,-0.166057,20,32765
1.1101,-0.595029,-0.162816,19,32765
1.11684,-0.60359,-0.163562,20,32765
1.14099,-0.621636,-0.166742,19,32765
1.10419,-0.606411,-0.161032,20,32765
1.09353,-0.605368,-0.159116,20,32765
1.1262,-0.628404,-0.163624,20,32765
1.09819,-0.617685,-0.159186,20,32765
1.10478,-0.626343,-0.159866,20,32765
1.09408,-0.625238,-0.158032,20,32765
1.07481,-0.619107,-0.154881,20,32765
1.08137,-0.627755,-0.15542,20,32765
1.09643,-0.64147,-0.157374,20,32765
1.08579,-0.640123,-0.15554,19,32765
1.08368,-0.643806,-0.155055,20,32765
1.09008,-0.652579,-0.155761,20,32765
1.07949,-0.651113,-0.153808,20,32765
1.0519,-0.639318,-0.149623,20,32765
1.05826,-0.648068,-0.150287,20,32765
1.08994,-0.672516,-0.154445,20,32765
1.07929,-0.670979,-0.152709,20,32765
1.06871,-0.669326,-0.150874,20,32765
1.09173,-0.688797,-0.153919,21,32765
1.03084,-0.655151,-0.145066,17,32765
1.03707,-0.663954,-0.14576,14,32765
0,-0,-0,0,32765
0,-0,-0,0,32765
0,-0,-0,0,32765
0,-0,-0,0,32765
0,-0,-0,0,32765
0,-0,-0,0,32765
0,-0,-0,0,32765
0,-0,-0,0,32765
0,-0,-0,0,32765
0,-0,-0,0,32765
0,-0,-0,0,32765
0,-0,-0,0,32765
0,-0,-0,0,32765
0,-0,-0,0,32765
0,-0,-0,0,32765
0,-0,-0,0,32765
0,-0,-0,0,32765
0,-0,-0,0,32765
0,-0,-0,0,32765
0,-0,-0,0,32765
0,-0,-0,0,32765
1.2742,-0.394035,-0.20894,19,32765
1.29184,-0.404107,-0.211553,20,32765
1.26226,-0.399495,-0.206619,19,32765
1.2704,-0.40676,-0.207697,16,32765
1.31607,-0.426299,-0.214988,15,32765
1.24895,-0.409229,-0.20388,19,32765
1.24763,-0.413447,-0.203406,19,32765
1.23694,-0.414502,-0.201398,19,32765
1.26371,-0.428168,-0.205459,19,32765
1.26233,-0.432483,-0.204916,19,32765
1.27026,-0.440063,-0.205894,19,32765
1.24083,-0.434625,-0.200861,19,32765
1.23942,-0.438888,-0.20027,20,32765
1.2287,-0.439752,-0.198291,20,32765
1.23657,-0.447334,-0.199192,19,32765
1.22582,-0.448167,-0.197257,19,32765
1.23365,-0.455774,-0.198163,20,32765
1.23217,-0.459979,-0.19765,20,32765
1.23994,-0.467652,-0.198607,20,32765
1.24763,-0.475482,-0.199604,21,32765
1.24607,-0.479769,-0.199085,20,32765
1.2445,-0.484093,-0.198451,18,32765
1.16927,-0.459427,-0.186105,17,32765
1.21376,-0.481644,-0.192885,20,32765
1.20301,-0.482107,-0.190878,19,32765
1.19228,-0.482475,-0.18892,19,32765
1.2182,-0.49776,-0.192681,19,32765
1.20742,-0.498171,-0.190708,20,32765
1.19662,-0.498572,-0.188759,20,32765
1.17669,-0.495135,-0.185344,20,32765
1.20232,-0.510949,-0.189106,21,32765
1.2097,-0.519097,-0.189914,20,32765
1.18071,-0.51151,-0.185125,20,32765
1.19718,-0.523504,-0.187387,21,32765
1.19545,-0.527619,-0.18688,21,32765
1.16657,-0.519653,-0.182118,20,32765
1.17388,-0.527713,-0.183077,20,32765
1.17214,-0.53177,-0.182482,20,32765
1.16137,-0.531693,-0.180603,19,32765
1.17757,-0.544048,-0.182875,17,32765
1.16676,-0.543979,-0.180975,20,32765
1.15598,-0.543825,-0.179057,20,32765
1.1631,-0.552098,-0.179939,20,32765
1.1434,-0.547547,-0.176689,20,32765
1.15942,-0.560123,-0.178892,20,32765
1.14864,-0.559801,-0.177083,20,32765
1.13791,-0.559356,-0.175161,20,32765
1.13604,-0.563274,-0.174731,21,32765
1.12535,-0.562699,-0.172781,19,32765
1.13232,-0.571051,-0.173627,20,32765
1.13924,-0.579473,-0.174472,20,32765
1.1549,-0.592522,-0.1767,21,32765
1.12649,-0.582919,-0.172128,21,32765
1.10699,-0.577638,-0.168835,20,32765
1.11383,-0.586091,-0.169652,19,32765
1.12937,-0.599241,-0.171883,20,32765
1.10119,-0.589074,-0.167264,19,32765
1.1167,-0.602238,-0.16938,19,32765
1.08862,-0.591811,-0.16482,19,32765
1.09537,-0.600265,-0.165646,20,32765
1.1021,-0.608789,-0.166304,20,32765
1.11744,-0.622147,-0.168408,21,32765
1.09809,-0.616276,-0.165229,20,32765
1.07882,-0.610242,-0.162057,19,32765
1.08541,-0.618862,-0.16279,20,32765
1.08336,-0.62259,-0.162188,20,32765
1.07273,-0.621329,-0.160294,19,32765
1.11355,-0.649951,-0.166073,20,32765
1.08581,-0.638614,-0.161516,19,32765
1.05812,-0.627137,-0.157118,20,32765
1.07307,-0.640908,-0.15922,20,32765
1.06251,-0.63941,-0.157224,19,32765
1.06045,-0.642995,-0.156544,20,32765
1.04991,-0.641408,-0.154548,20,32765
1.06474,-0.655341,-0.156387,21,32765
1.0879,-0.674651,-0.15946,20,32765
1.07729,-0.673056,-0.157601,20,32765
1.04994,-0.660829,-0.153103,19,32765
1.07296,-0.680315,-0.156007,16,32765
0,-0,-0,0,32765
0,-0,-0,0,32765
0,-0,-0,0,32765
0,-0,-0,0,32765
0,-0,-0,0,32765
0,-0,-0,0,32765
0,-0,-0,0,32765
0,-0,-0,0,32765
0,-0,-0,0,32765
0,-0,-0,0,32765
0,-0,-0,0,32765
0,-0,-0,0,32765
0,-0,-0,0,32765
0,-0,-0,0,32765
0,-0,-0,0,32765
0,-0,-0,0,32765
0,-0,-0,0,32765
0,-0,-0,0,32765
0,-0,-0,0,32765
0,-0,-0,0,32765
0,-0,-0,0,32765
0,-0,-0,0,32765
1.28119,-0.398004,-0.223038,19,32765
1.28937,-0.40517,-0.224195,19,32765
1.22224,-0.388584,-0.212445,12,32765
1.18343,-0.38063,-0.205475,11,32765
1.35107,-0.439612,-0.234415,12,32765
1.26528,-0.416451,-0.219398,12,32765
1.20777,-0.402038,-0.209186,13,32765
1.27196,-0.428149,-0.220043,12,32765
1.21454,-0.413354,-0.209837,13,32765
1.21321,-0.417514,-0.209314,14,32765
1.1932,-0.415214,-0.205584,15,32765
1.2384,-0.435708,-0.213122,15,32765
1.17189,-0.41682,-0.201345,15,32765
1.19841,-0.430818,-0.205676,17,32765
1.21558,-0.441689,-0.208271,18,32765
1.21413,-0.445859,-0.207836,18,32765
1.23121,-0.456882,-0.21042,19,32765
1.22048,-0.457625,-0.208327,19,32765
1.22824,-0.46528,-0.209379,19,32765
1.22669,-0.469561,-0.2089,16,32765
1.18831,-0.459541,-0.20212,18,32765
1.2052,-0.470866,-0.204637,20,32765
1.21286,-0.478645,-0.205589,20,32765
1.21131,-0.482779,-0.205042,20,32765
1.20058,-0.483238,-0.202941,20,32765
1.19901,-0.487322,-0.202436,20,32765
1.19744,-0.491416,-0.201844,20,32765
1.19583,-0.495543,-0.201323,19,32765
1.16683,-0.488279,-0.196219,18,32765
1.16517,-0.492425,-0.195688,19,32765
1.19076,-0.508238,-0.19973,20,32765
1.16182,-0.500721,-0.194554,20,32765
1.18734,-0.516615,-0.198602,20,32765
1.18564,-0.520713,-0.19802,20,32765
1.17488,-0.520796,-0.196007,21,32765
1.17316,-0.524857,-0.195487,20,32765
1.18945,-0.53703,-0.198034,18,32765
1.16068,-0.528855,-0.192941,19,32765
1.15892,-0.532874,-0.192465,20,32765
1.1392,-0.528603,-0.188967,20,32765
1.16428,-0.545179,-0.192926,20,32765
1.15352,-0.545019,-0.190914,20,32765
1.16062,-0.553307,-0.191887,20,32765
1.14986,-0.553029,-0.189924,21,32765
1.13913,-0.552705,-0.1879,20,32765
1.14615,-0.561015,-0.188934,20,32765
1.12657,-0.556185,-0.185459,20,32765
1.12471,-0.560077,-0.185031,20,32765
1.12289,-0.563907,-0.184444,20,32765
1.12984,-0.572272,-0.185381,20,32765
1.09267,-0.558201,-0.179094,19,32765
1.11716,-0.575651,-0.182963,20,32765
1.09765,-0.570463,-0.179567,20,32765
1.12206,-0.588046,-0.183262,20,32765
1.10259,-0.5827,-0.179879,19,32765
1.09189,-0.58188,-0.178022,19,32765
1.10743,-0.594992,-0.180243,20,32765
1.09677,-0.594066,-0.178291,20,32765
1.08615,-0.593043,-0.176284,20,32765
1.08421,-0.596737,-0.175795,20,32765
1.09092,-0.605245,-0.176547,20,32765
1.08895,-0.608933,-0.176043,20,32765
1.09556,-0.617544,-0.17687,20,32765
1.06771,-0.606602,-0.172126,20,32765
1.07429,-0.615206,-0.172953,20,32765
1.08942,-0.628811,-0.175113,19,32765
1.07022,-0.622594,-0.171747,19,32765
1.0682,-0.626221,-0.171136,21,32765
1.04914,-0.619752,-0.167695,20,32765
1.06413,-0.633471,-0.169833,20,32765
1.08752,-0.652392,-0.173468,20,32765
1.06846,-0.64582,-0.170018,19,32765
1.0833,-0.659746,-0.17202,19,32765
1.08118,-0.663421,-0.171251,19,32765
1.06218,-0.656648,-0.16792,17,32765
1.02638,-0.639311,-0.161972,13,32765
1.04949,-0.658584,-0.165345,11,32765
1.05576,-0.667433,-0.165856,11,32765
1.07033,-0.681658,-0.167718,11,32765
0,-0,-0,0,32765
0,-0,-0,0,32765
0,-0,-0,0,32765
0,-0,-0,0,32765
0,-0,-0,0,32765
0,-0,-0,0,32765
0,-0,-0,0,32765
0,-0,-0,0,32765
0,-0,-0,0,32765
0,-0,-0,0,32765
0,-0,-0,0,32765
0,-0,-0,0,32765
0,-0,-0,0,32765
0,-0,-0,0,32765
0,-0,-0,0,32765
0,-0,-0,0,32765
0,-0,-0,0,32765
0,-0,-0,0,32765
0,-0,-0,0,32765
0,-0,-0,0,32765
0,-0,-0,0,32765
11.2495,0.0750379,1.96466,18,32765
11.2398,0.0385639,1.96284,17,32765
11.2794,0.00224091,1.96892,17,32765
11.2796,-0.0356967,1.96782,17,32765
11.2798,-0.0731079,1.96555,16,32765
11.3192,-0.111232,1.97061,16,32765
11.319,-0.148882,1.96956,16,32765
11.368,-0.187512,1.97621,15,32765
11.3677,-0.225839,1.9737,14,32765
11.3771,-0.263676,1.97375,13,32765
11.4357,-0.302094,1.98109,12,32765
11.3957,-0.337751,1.97206,12,32765
11.4735,-0.377257,1.98491,12,32765
11.4726,-0.414947,1.98252,12,32765
11.4716,-0.452345,1.98018,12,32765
11.4998,-0.491333,1.98407,12,32765
11.4689,-0.527739,1.9768,12,32765
11.4677,-0.564621,1.97388,12,32765
11.5544,-0.607012,1.98861,12,32765
11.5526,-0.644567,1.98733,12,32765
11.5901,-0.685141,1.99209,12,32765
11.6371,-0.726265,1.99974,23,32765
11.6546,-0.765505,2.00186,32,32765
11.6818,-0.80543,2.00517,32,32765
11.709,-0.845359,2.00794,35,32765
11.7259,-0.885358,2.01078,32,32765
11.7427,-0.925702,2.0134,28,32765
11.7102,-0.961866,2.00825,14,32765
11.6975,-1.00015,2.0038,12,32765
11.5862,-1.02883,1.9851,11,32765
11.6322,-1.07139,1.99171,11,32765
11.4619,-1.09372,1.9623,11,32765
11.5565,-1.14057,1.97855,11,32765
11.2782,-1.1503,1.93127,11,32765
11.1274,-1.17151,1.90552,12,32765
11.2511,-1.22159,1.92649,13,32765
11.2864,-1.26309,1.93198,13,32765
11.2624,-1.29798,1.92953,12,32765
11.1408,-1.32108,1.90819,12,32765
11.0679,-1.34907,1.89675,11,32765
11.1517,-1.39633,1.91032,12,32765
10.9319,-1.40581,1.87357,12,32765
10.9953,-1.45156,1.88661,12,32765
10.9904,-1.48848,1.88605,11,32765
10.7901,-1.49736,1.85289,11,32765
10.7851,-1.53217,1.85403,11,32765
10.7801,-1.56694,1.85405,12,32765
10.6287,-1.58003,1.82886,12,32765
10.6233,-1.61535,1.82915,11,32765
10.5593,-1.64156,1.82006,12,32765
10.4954,-1.66798,1.80918,11,32765
10.5481,-1.71301,1.81921,12,32765
10.4544,-1.73393,1.80573,11,32765
10.4484,-1.76927,1.80669,12,32765
10.5298,-1.81878,1.82212,12,32765
10.4656,-1.84317,1.81192,14,32765
10.4302,-1.8725,1.80753,14,32765
10.4335,-1.90849,1.81023,15,32765
10.4078,-1.93934,1.80659,14,32765
10.3142,-1.95691,1.7919,13,32765
10.2883,-1.98718,1.7888,14,32765
10.2525,-2.01558,1.78448,14,32765
10.2071,-2.04148,1.77797,14,32765
10.1422,-2.06353,1.76825,14,32765
10.0967,-2.08902,1.76184,16,32765
10.0608,-2.11625,1.75671,17,32765
10.0633,-2.15183,1.75862,17,32765
10.0272,-2.17852,1.75435,13,32765
9.96232,-2.19905,1.74324,13,32765
9.97392,-2.23649,1.74811,13,32765
9.91843,-2.25849,1.73962,12,32765
9.8244,-2.27123,1.72498,11,32765
9.50027,-2.22926,1.66891,12,32765
9.48343,-2.2584,1.66624,12,32765
9.3512,-2.25944,1.64548,12,32765
9.42051,-2.30878,1.65804,12,32765
9.33633,-2.32033,1.6452,11,32765
9.02293,-2.27337,1.59127,12,32765
8.9679,-2.29059,1.58179,12,32765
8.96054,-2.31944,1.58144,12,32765
9.00057,-2.36123,1.58994,11,32765
9.08805,-2.41601,1.60682,12,32765
9.00428,-2.42467,1.59231,12,32765
9.12956,-2.49035,1.61533,13,32765
9.07394,-2.50658,1.60722,13,32765
8.98044,-2.51202,1.59156,12,32765
9.0103,-2.55205,1.59734,12,32765
8.96404,-2.57007,1.5913,12,32765
8.89905,-2.58277,1.57995,13,32765
8.90042,-2.61353,1.58116,12,32765
8.87334,-2.63636,1.57657,12,32765
8.80851,-2.64755,1.56512,12,32765
8.67762,-2.63819,1.54236,11,32765
8.75411,-2.69212,1.55635,11,32765
8.60453,-2.67553,1.53074,11,32765
8.69033,-2.73242,1.54586,11,32765
8.60683,-2.73549,1.53138,12,32765
8.59887,-2.76169,1.52907,12,32765
8.62818,-2.80056,1.53343,11,32765
8.56364,-2.80864,1.52156,12,32765
8.5275,-2.82566,1.51311,12,32765
11.1886,0.0761485,1.84544,14,32765
11.2184,0.0399559,1.85023,13,32765
11.2186,0.00363876,1.84942,13,32765
11.2187,-0.0341522,1.84833,13,32765
11.2682,-0.0717338,1.85419,13,32765
11.3077,-0.109875,1.85888,13,32765
11.3074,-0.147544,1.85783,13,32765
11.3269,-0.185705,1.85916,13,32765
11.3859,-0.225124,1.86636,13,32765
11.3952,-0.263079,1.86631,13,32765
11.3553,-0.299014,1.85695,13,32765
11.4434,-0.338261,1.86927,13,32765
11.4226,-0.374741,1.86526,13,32765
11.4415,-0.413035,1.8661,13,32765
11.5489,-0.454661,1.88143,13,32765
11.4391,-0.488072,1.86256,13,32765
11.5167,-0.529322,1.87322,13,32765
11.5154,-0.566416,1.87029,13,32765
11.4741,-0.6023,1.86337,13,32765
11.6004,-0.646796,1.8829,13,32765
11.5394,-0.681768,1.87129,13,32765
11.6357,-0.72586,1.88647,13,32765
11.6335,-0.763863,1.88521,15,32765
11.6805,-0.805139,1.89143,15,32765
11.6782,-0.842994,1.88915,13,32765
11.6656,-0.880723,1.88702,13,32765
11.6627,-0.919378,1.88627,13,32765
11.7089,-0.9618,1.89413,14,32765
11.7158,-1.00182,1.89296,15,32765
11.683,-1.03759,1.888,12,32765
11.5619,-1.06514,1.86713,12,32765
11.5584,-1.10322,1.86629,12,32765
11.4664,-1.13203,1.85146,12,32765
11.4234,-1.16552,1.84486,12,32765
11.292,-1.18929,1.82368,13,32765
11.298,-1.22721,1.8244,13,32765
11.2745,-1.26233,1.82001,15,32765
11.2505,-1.29724,1.81775,15,32765
11.2366,-1.33312,1.81495,13,32765
11.0655,-1.34951,1.78832,12,32765
11.0514,-1.38457,1.78523,15,32765
10.988,-1.41388,1.77584,13,32765
10.9634,-1.44825,1.77399,12,32765
10.9194,-1.47982,1.76709,12,32765
10.8264,-1.50341,1.75322,12,32765
10.8213,-1.53838,1.75436,12,32765
10.7772,-1.56764,1.74804,12,32765
10.7721,-1.60252,1.74802,12,32765
10.6397,-1.61906,1.72771,12,32765
10.6439,-1.65599,1.73028,12,32765
10.6286,-1.69048,1.72788,13,32765
10.4863,-1.70436,1.70565,12,32765
10.4803,-1.73964,1.70727,12,32765
10.4839,-1.77678,1.70983,13,32765
10.4682,-1.80968,1.70855,12,32765
10.4817,-1.8476,1.71161,15,32765
10.5045,-1.8875,1.71703,17,32765
10.469,-1.91669,1.71329,16,32765
10.4917,-1.95675,1.71778,19,32765
10.4464,-1.98381,1.71187,17,32765
10.3525,-2.00145,1.69784,15,32765
10.3747,-2.04154,1.70334,32,32765
10.3873,-2.07951,1.70676,27,32765
10.1191,-2.06081,1.66419,12,32765
12.645,-2.61882,2.08145,11,32765
9.93126,-2.09106,1.6358,12,32765
12.6273,-2.70278,2.08164,11,32765
12.6761,-2.7568,2.09217,11,32765
12.667,-2.79894,2.0909,11,32765
12.7825,-2.86924,2.11352,11,32765
12.8211,-2.92249,2.1214,11,32765
12.7055,-2.94037,2.10458,11,32765
12.6766,-2.97774,2.10083,12,32765
9.48814,-2.26194,1.57264,14,32765
9.55722,-2.3117,1.58655,12,32765
9.40593,-2.30771,1.56172,12,32765
9.39827,-2.33828,1.56237,12,32765
9.24708,-2.33242,1.53849,12,32765
8.98134,-2.29657,1.49444,12,32765
8.96439,-2.32304,1.4925,13,32765
8.95673,-2.35238,1.49258,12,32765
9.03482,-2.4046,1.50694,12,32765
9.06534,-2.44391,1.51227,12,32765
9.01931,-2.46311,1.50536,13,32765
9.05885,-2.50532,1.51362,15,32765
9.04126,-2.53199,1.51152,14,32765
8.9951,-2.55075,1.50421,12,32765
8.94879,-2.56874,1.49855,13,32765
8.91213,-2.58965,1.49251,13,32765
8.85664,-2.6038,1.48411,15,32765
8.89578,-2.64623,1.49082,13,32765
8.84027,-2.66033,1.48151,12,32765
8.81304,-2.68264,1.47738,12,32765
8.71962,-2.68482,1.46202,12,32765
8.71127,-2.71207,1.46154,12,32765
8.66519,-2.72792,1.45359,12,32765
8.65685,-2.75484,1.45249,12,32765
8.6112,-2.76914,1.44387,13,32765
8.58415,-2.7898,1.43841,12,32765
8.55706,-2.81007,1.4334,12,32765
8.52082,-2.82709,1.42523,13,32765
11.25,0.0980717,1.71233,12,32765
11.22,0.0613718,1.71168,12,32765
11.2197,0.0248457,1.7145,12,32765
11.3481,-0.0121747,1.73537,12,32765
11.2486,-0.0495047,1.72368,12,32765
11.3074,-0.0874986,1.73464,12,32765
11.3067,-0.124487,1.73699,12,32765
11.3454,-0.161694,1.74525,12,32765
11.3842,-0.198705,1.75226,12,32765
11.3438,-0.235061,1.74706,12,32765
11.3923,-0.273369,1.75555,12,32765
11.3614,-0.310261,1.75291,12,32765
11.4294,-0.349753,1.764,12,32765
11.4675,-0.38911,1.77104,12,32765
11.466,-0.427299,1.77192,12,32765
11.425,-0.463682,1.76599,12,32765
11.5023,-0.504114,1.77919,12,32765
11.5005,-0.54192,1.77992,12,32765
11.4985,-0.579503,1.78072,12,32765
11.5853,-0.622517,1.79445,12,32765
11.5832,-0.660982,1.79447,12,32765
11.5414,-0.696311,1.78936,12,32765
11.5193,-0.732933,1.786,12,32765
11.6648,-0.780432,1.80885,12,32765
11.6326,-0.81681,1.80459,12,32765
11.6789,-0.859351,1.8128,12,32765
11.6463,-0.895946,1.80917,12,32765
11.8009,-0.947293,1.83327,12,32765
11.729,-0.980134,1.82148,13,32765
11.6174,-1.00932,1.8045,11,32765
11.5942,-1.0454,1.80266,11,32765
11.5906,-1.08357,1.80335,11,32765
11.4592,-1.10988,1.78242,11,32765
11.3078,-1.13324,1.76067,11,32765
11.2451,-1.16503,1.75036,12,32765
11.2413,-1.20184,1.75,12,32765
11.2766,-1.24236,1.7565,13,32765
11.2725,-1.27933,1.75657,13,32765
11.1897,-1.3071,1.74384,12,32765
11.0971,-1.33433,1.7293,12,32765
11.0532,-1.36683,1.72401,13,32765
11.0879,-1.4081,1.72987,12,32765
10.9165,-1.42345,1.70388,11,32765
10.8238,-1.44736,1.68904,11,32765
10.9071,-1.4956,1.7026,12,32765
10.9804,-1.5429,1.7143,12,32765
10.77,-1.54921,1.68156,11,32765
10.7061,-1.57594,1.67266,12,32765
10.7206,-1.61345,1.67539,11,32765
10.6275,-1.63535,1.6601,11,32765
10.6219,-1.67059,1.66089,12,32765
10.6356,-1.70944,1.6647,11,32765
10.4444,-1.71501,1.63635,12,32765
10.3996,-1.74347,1.62993,12,32765
10.5204,-1.80032,1.64905,12,32765
10.5532,-1.84215,1.65562,13,32765
10.4986,-1.86805,1.64738,14,32765
10.4631,-1.89686,1.64441,15,32765
10.5444,-1.94699,1.65767,16,32765
10.4407,-1.96331,1.64331,14,32765
10.4341,-1.9975,1.64353,13,32765
10.3886,-2.02418,1.63802,18,32765
10.3627,-2.05455,1.63408,19,32765
12.7872,-2.57907,2.01887,11,32765
0,-0,0,0,32765
0,-0,0,0,32765
0,-0,0,0,32765
0,-0,0,0,32765
0,-0,0,0,32765
12.7716,-2.84005,2.02915,11,32765
0,-0,0,0,32765
12.8101,-2.93695,2.04127,11,32765
12.8191,-2.98355,2.0474,11,32765
9.54922,-2.25494,1.52729,12,32765
9.45533,-2.2656,1.51306,12,32765
9.40925,-2.28673,1.50895,11,32765
9.40152,-2.31704,1.51085,12,32765
9.39372,-2.34762,1.51217,12,32765
8.99321,-2.27855,1.45003,12,32765
9.01423,-2.31515,1.45606,12,32765
8.97764,-2.33712,1.45326,11,32765
8.98885,-2.37112,1.45826,12,32765
9.02858,-2.41326,1.46717,12,32765
9.09669,-2.46296,1.48177,12,32765
9.09774,-2.49535,1.48555,13,32765
9.08938,-2.52459,1.48733,12,32765
8.9763,-2.52427,1.47233,12,32765
8.96777,-2.55345,1.47397,12,32765
8.95922,-2.58246,1.47544,12,32765
8.89342,-2.5951,1.46863,13,32765
8.92242,-2.63501,1.47772,12,32765
8.86634,-2.64871,1.47282,12,32765
8.8575,-2.6766,1.4756,12,32765
8.75412,-2.67544,1.46297,12,32765
8.83943,-2.73265,1.48118,12,32765
8.66974,-2.71121,1.4577,12,32765
8.66063,-2.73906,1.45983,12,32765
8.61353,-2.75467,1.45758,12,32765
8.67935,-2.8059,1.47427,12,32765
8.55715,-2.79638,1.45943,12,32765
8.50075,-2.80752,1.45601,11,32765
11.1964,0.0989756,1.59625,13,32765
11.2159,0.0626671,1.60294,13,32765
11.2552,0.0261899,1.61142,13,32765
11.2847,-0.0108967,1.61691,13,32765
11.2545,-0.0483814,1.61608,13,32765
11.254,-0.0859952,1.61794,13,32765
11.2533,-0.122867,1.62028,13,32765
11.3416,-0.160656,1.63529,13,32765
11.3409,-0.197023,1.63621,13,32765
11.3895,-0.235137,1.64424,13,32765
11.3886,-0.272469,1.64512,13,32765
11.3873,-0.310218,1.64705,13,32765
11.4257,-0.348947,1.65319,13,32765
11.4343,-0.387347,1.65556,13,32765
11.4724,-0.426958,1.66217,13,32765
11.4708,-0.465027,1.66235,13,32765
11.5087,-0.503936,1.66907,13,32765
11.4673,-0.539963,1.66406,13,32765
11.4851,-0.578493,1.66773,13,32765
11.5424,-0.619936,1.67632,13,32765
11.6292,-0.663393,1.68925,13,32765
11.5874,-0.69893,1.68452,13,32765
11.5357,-0.733878,1.67703,13,32765
11.6418,-0.778862,1.69274,13,32765
11.6391,-0.817303,1.69306,14,32765
11.6757,-0.859207,1.69938,14,32765
11.6924,-0.899647,1.70321,13,32765
11.719,-0.940934,1.70714,13,32765
11.7752,-0.984276,1.71468,14,32765
11.7522,-1.02137,1.71165,14,32765
11.65,-1.05083,1.69852,12,32765
11.6267,-1.08741,1.69633,12,32765
11.5837,-1.12247,1.68954,12,32765
11.4911,-1.1522,1.67783,12,32765
11.4086,-1.18262,1.66519,12,32765
11.3457,-1.21371,1.65621,13,32765
11.2728,-1.2427,1.64653,13,32765
11.2392,-1.27637,1.64229,15,32765
11.294,-1.32015,1.65042,14,32765
11.1716,-1.34423,1.63241,12,32765
11.0883,-1.37217,1.62175,13,32765
11.0445,-1.40365,1.61575,14,32765
11.03,-1.43936,1.61432,13,32765
10.888,-1.4571,1.59314,12,32765
10.9419,-1.50161,1.60155,12,32765
10.8487,-1.52568,1.58812,12,32765
10.8046,-1.55553,1.58172,12,32765
10.7602,-1.5853,1.57625,12,32765
10.7062,-1.61272,1.56875,12,32765
10.6521,-1.64063,1.56004,12,32765
10.6073,-1.66985,1.55509,12,32765
10.6015,-1.70558,1.55585,12,32765
10.5663,-1.7367,1.55223,13,32765
10.4726,-1.75742,1.539,13,32765
10.4082,-1.78288,1.52967,13,32765
10.4899,-1.83292,1.54303,12,32765
10.5034,-1.8708,1.5453,16,32765
10.5067,-1.90673,1.54835,18,32765
10.4811,-1.93731,1.54499,17,32765
10.5231,-1.9809,1.55309,21,32765
10.4485,-2.00238,1.54326,17,32765
10.3932,-2.02725,1.53669,16,32765
10.406,-2.06539,1.53868,28,32765
10.3699,-2.09382,1.53527,18,32765
12.5344,-2.57402,1.85689,12,32765
12.6032,-2.63155,1.86941,11,32765
12.4296,-2.63801,1.84686,11,32765
0,-0,0,0,32765
12.5373,-2.74734,1.86761,11,32765
12.6345,-2.81281,1.88265,11,32765
12.5958,-2.84794,1.88116,11,32765
12.7503,-2.92668,1.90571,11,32765
12.7594,-2.97317,1.91165,12,32765
12.7015,-3.00286,1.90571,13,32765
9.51628,-2.28293,1.42853,14,32765
9.47009,-2.30429,1.42481,13,32765
9.46232,-2.33485,1.42672,13,32765
9.41606,-2.35606,1.42225,12,32765
9.3027,-2.35984,1.40747,12,32765
9.02644,-2.32113,1.36825,12,32765
8.96107,-2.33569,1.36137,12,32765
9.02014,-2.38233,1.37346,12,32765
9.03123,-2.41698,1.37753,12,32765
9.08035,-2.46162,1.38847,12,32765
9.07188,-2.49139,1.39069,13,32765
9.07307,-2.52324,1.39394,15,32765
9.02651,-2.54161,1.39023,14,32765
8.98939,-2.56288,1.38747,13,32765
8.95229,-2.58378,1.38453,12,32765
8.92441,-2.60749,1.38417,13,32765
8.86806,-2.62233,1.37962,16,32765
8.86883,-2.65289,1.38404,13,32765
8.84106,-2.67511,1.38386,13,32765
8.76594,-2.68255,1.37662,12,32765
8.72857,-2.70191,1.37456,12,32765
8.68146,-2.71843,1.37201,12,32765
8.71003,-2.75831,1.38012,12,32765
8.60634,-2.756,1.36927,13,32765
8.56882,-2.77383,1.36869,12,32765
8.55935,-2.8008,1.373,12,32765
8.53106,-2.82127,1.37459,13,32765
11.1517,0.0915388,1.62606,12,32765
11.1924,0.055524,1.62578,12,32765
11.2625,0.0188919,1.6307,12,32765
11.1939,-0.0186761,1.61615,12,32765
11.2341,-0.0557294,1.61722,12,32765
11.3632,-0.0940534,1.63056,12,32765
11.284,-0.130184,1.61689,12,32765
11.2345,-0.166137,1.60619,12,32765
11.4125,-0.2056,1.62876,13,32765
11.3626,-0.242217,1.61971,12,32765
11.3821,-0.280548,1.6187,12,32765
11.4012,-0.319205,1.61904,12,32765
11.3808,-0.355821,1.61305,12,32765
11.4294,-0.395478,1.61696,12,32765
11.3987,-0.431565,1.61022,12,32765
11.5262,-0.474377,1.62621,12,32765
11.4854,-0.510318,1.61795,12,32765
11.4839,-0.547937,1.61625,12,32765
11.5516,-0.58904,1.62384,12,32765
11.5695,-0.627973,1.62518,12,32765
11.5678,-0.66592,1.62254,12,32765
11.6252,-0.707818,1.62853,12,32765
11.6031,-0.744911,1.62528,12,32765
11.6007,-0.783247,1.62392,12,32765
11.6574,-0.82543,1.63241,13,32765
11.724,-0.868615,1.64019,12,32765
11.6326,-0.900226,1.62534,12,32765
11.7184,-0.945248,1.63764,12,32765
11.7154,-0.983394,1.63708,12,32765
11.7912,-1.02824,1.64687,13,32765
11.709,-1.06016,1.635,12,32765
11.4885,-1.07908,1.60414,11,32765
11.6131,-1.13028,1.62086,11,32765
11.4811,-1.15677,1.60278,11,32765
11.3985,-1.18601,1.59139,11,32765
11.3257,-1.21532,1.58128,12,32765
11.3906,-1.25958,1.59128,12,32765
11.2979,-1.28631,1.57912,13,32765
11.2149,-1.31426,1.5677,13,32765
11.2105,-1.35116,1.56846,12,32765
11.2453,-1.39339,1.57325,12,32765
11.0736,-1.40917,1.54972,13,32765
11.1082,-1.45074,1.55561,12,32765
10.9756,-1.47086,1.53815,12,32765
10.9512,-1.50404,1.53457,12,32765
10.9264,-1.53754,1.53256,11,32765
10.8331,-1.56073,1.52019,11,32765
10.7298,-1.58176,1.50723,11,32765
10.7246,-1.61694,1.50722,12,32765
10.67,-1.64482,1.50166,12,32765
10.6645,-1.68039,1.50186,12,32765
10.6392,-1.71314,1.49905,12,32765
10.5552,-1.73596,1.48789,12,32765
10.5882,-1.7781,1.49444,12,32765
10.4943,-1.79838,1.48274,12,32765
10.4882,-1.83319,1.48309,12,32765
10.4821,-1.86822,1.48279,14,32765
10.4852,-1.90494,1.4866,15,32765
10.4788,-1.9396,1.48662,15,32765
10.5211,-1.98313,1.49306,16,32765
10.4658,-2.00821,1.48709,14,32765
10.3716,-2.02564,1.47524,13,32765
10.3939,-2.06564,1.48015,22,32765
10.3675,-2.09616,1.47766,15,32765
12.6304,-2.59735,1.80195,11,32765
12.6703,-2.6492,1.80827,11,32765
0,-0,0,0,32765
12.6908,-2.742,1.81604,11,32765
12.8653,-2.82469,1.84254,11,32765
12.5464,-2.7986,1.79857,11,32765
12.914,-2.92515,1.85193,11,32765
12.6531,-2.9097,1.81769,11,32765
12.769,-2.98015,1.83554,11,32765
12.6339,-2.99214,1.81734,12,32765
9.48497,-2.27885,1.36556,13,32765
9.49653,-2.31514,1.36854,12,32765
9.54654,-2.36086,1.37652,11,32765
9.50033,-2.38272,1.37059,12,32765
9.31966,-2.36996,1.34585,12,32765
9.07224,-2.33817,1.31115,11,32765
8.94,-2.33486,1.29375,12,32765
9.00928,-2.38374,1.30336,12,32765
9.03025,-2.42027,1.30781,12,32765
9.02245,-2.44934,1.30756,12,32765
9.15788,-2.51762,1.32775,12,32765
9.11153,-2.53663,1.32214,13,32765
9.06507,-2.55578,1.31625,12,32765
9.04729,-2.58236,1.31452,12,32765
8.91539,-2.57576,1.29542,12,32765
8.92616,-2.60999,1.29757,12,32765
8.90832,-2.63585,1.29558,14,32765
8.90926,-2.66759,1.29663,12,32765
8.9008,-2.69597,1.29601,12,32765
8.79773,-2.69511,1.28078,12,32765
8.82738,-2.73417,1.28473,12,32765
8.85681,-2.77327,1.28947,12,32765
8.68775,-2.75028,1.26451,12,32765
8.67924,-2.77749,1.26343,12,32765
8.586,-2.7773,1.24875,12,32765
8.57768,-2.80364,1.24703,12,32765
8.57923,-2.83249,1.24425,12,32765
11.1665,0.0929681,1.5208,13,32765
11.1676,0.0566445,1.51476,13,32765
11.1882,0.0199486,1.51234,13,32765
11.1888,-0.0175515,1.50781,13,32765
11.2686,-0.0548417,1.51384,13,32765
11.2691,-0.0922808,1.5087,13,32765
11.269,-0.129081,1.50639,13,32765
11.2988,-0.166218,1.50674,13,32765
11.3283,-0.203274,1.50782,13,32765
11.3675,-0.241574,1.51111,13,32765
11.3572,-0.279255,1.50597,13,32765
11.3664,-0.317616,1.50482,13,32765
11.3856,-0.35542,1.50425,13,32765
11.4144,-0.394473,1.50508,13,32765
11.4134,-0.431699,1.50255,13,32765
11.4915,-0.472589,1.51081,13,32765
11.4704,-0.509358,1.50552,13,32765
11.5283,-0.549826,1.51162,13,32765
11.5664,-0.589628,1.51466,13,32765
11.614,-0.630288,1.5197,13,32765
11.5925,-0.667306,1.51445,13,32765
11.5608,-0.703931,1.50826,13,32765
11.6475,-0.747864,1.51939,13,32765
11.6056,-0.783739,1.51287,13,32765
11.6425,-0.824607,1.51823,13,32765
11.6697,-0.864885,1.5202,15,32765
11.6967,-0.905557,1.52164,14,32765
11.7135,-0.94528,1.52409,13,32765
11.6907,-0.981815,1.52096,13,32765
11.7073,-1.02149,1.5223,14,32765
11.7632,-1.06571,1.52915,15,32765
11.6807,-1.09783,1.51833,12,32765
11.6869,-1.13823,1.51842,12,32765
11.5449,-1.16402,1.50027,12,32765
11.5115,-1.19865,1.49604,12,32765
11.34,-1.21779,1.47376,12,32765
11.2965,-1.25016,1.469,13,32765
11.3416,-1.29236,1.47563,13,32765
11.3078,-1.32626,1.47137,16,32765
11.3328,-1.3671,1.47598,14,32765
11.22,-1.3915,1.46117,13,32765
11.1072,-1.41473,1.44691,13,32765
11.0631,-1.4462,1.44218,14,32765
11.0286,-1.47938,1.43876,13,32765
11.0238,-1.5155,1.43792,13,32765
10.8713,-1.5313,1.41944,12,32765
10.8662,-1.56709,1.41945,12,32765
10.8216,-1.59694,1.41513,12,32765
10.7477,-1.62213,1.40614,12,32765
10.7225,-1.65465,1.4049,13,32765
10.6875,-1.68583,1.40125,12,32765
10.672,-1.72028,1.39991,13,32765
10.5291,-1.73358,1.3818,12,32765
10.5231,-1.76913,1.38283,12,32765
10.4486,-1.79257,1.37454,13,32765
10.4719,-1.83242,1.37875,13,32765
10.5048,-1.87443,1.3836,13,32765
10.5176,-1.91306,1.3886,19,32765
10.482,-1.94246,1.38476,18,32765
10.5438,-1.98977,1.39331,19,32765
10.5274,-2.02243,1.39297,23,32765
10.4524,-2.0439,1.38454,17,32765
10.3677,-2.06295,1.37499,18,32765
10.4482,-2.11508,1.38688,37,32765
10.3925,-2.13979,1.38086,15,32765
12.1325,-2.53992,1.61259,13,32765
12.0365,-2.56217,1.6017,13,32765
12.0375,-2.60413,1.60439,14,32765
12.048,-2.64862,1.60715,15,32765
12.0391,-2.68886,1.6075,16,32765
12.0689,-2.73726,1.61203,16,32765
12.079,-2.78127,1.61631,17,32765
12.0892,-2.82518,1.61873,16,32765
12.1185,-2.87384,1.62374,17,32765
12.2248,-2.941,1.63942,13,32765
9.51757,-2.32335,1.27761,14,32765
9.48097,-2.34778,1.2734,12,32765
9.3578,-2.35013,1.25751,12,32765
9.38843,-2.39068,1.26289,12,32765
9.19825,-2.37387,1.23827,12,32765
8.98899,-2.35086,1.21175,12,32765
8.94326,-2.36953,1.20511,13,32765
9.0505,-2.42905,1.22091,13,32765
9.02351,-2.45303,1.21808,12,32765
9.05391,-2.49251,1.22267,13,32765
9.07445,-2.52985,1.22647,15,32765
9.04704,-2.55429,1.22353,15,32765
9.02923,-2.58085,1.22191,13,32765
9.00196,-2.60447,1.21821,13,32765
8.96505,-2.62511,1.21372,13,32765
8.94713,-2.65114,1.21182,14,32765
8.90051,-2.66882,1.20635,14,32765
8.86356,-2.68858,1.20186,13,32765
8.76037,-2.68758,1.18758,13,32765
8.80901,-2.73248,1.19373,13,32765
8.70598,-2.73005,1.18015,13,32765
8.69755,-2.75746,1.17857,12,32765
8.65122,-2.77263,1.17238,12,32765
8.60503,-2.78761,1.16493,13,32765
8.58722,-2.81097,1.16194,13,32765
8.57929,-2.83679,1.15779,13,32765
11.1882,0.114449,1.35051,12,32765
11.1881,0.0763822,1.35429,12,32765
11.168,0.0391863,1.35535,12,32765
11.1876,0.00340222,1.36027,12,32765
11.2965,-0.0322236,1.37541,12,32765
11.2664,-0.0690876,1.37304,12,32765
11.2658,-0.10642,1.37544,12,32765
11.3546,-0.144997,1.388,12,32765
11.3539,-0.182444,1.38923,12,32765
11.2637,-0.217784,1.37984,12,32765
11.3521,-0.256788,1.39232,12,32765
11.3511,-0.293729,1.39317,12,32765
11.35,-0.331178,1.39371,12,32765
11.428,-0.37154,1.40444,12,32765
11.4365,-0.409917,1.40693,13,32765
11.4549,-0.449232,1.40943,12,32765
11.4532,-0.487209,1.4106,13,32765
11.5208,-0.527728,1.42025,14,32765
11.5189,-0.565378,1.42143,15,32765
11.5169,-0.602619,1.4223,15,32765
11.5544,-0.64271,1.42769,16,32765
11.572,-0.68184,1.4303,12,32765
11.54,-0.717999,1.42698,12,32765
11.6267,-0.761682,1.43804,12,32765
11.6636,-0.802452,1.44399,12,32765
11.6806,-0.842835,1.44657,13,32765
11.7273,-0.885728,1.45239,12,32765
11.6746,-0.921391,1.44701,12,32765
11.7211,-0.964127,1.45249,12,32765
11.7375,-1.00433,1.45596,13,32765
11.7736,-1.04612,1.46185,13,32765
11.6615,-1.07428,1.44748,11,32765
11.6578,-1.11289,1.44795,12,32765
11.6343,-1.14999,1.44497,11,32765
11.4625,-1.17213,1.42479,11,32765
11.2907,-1.19278,1.40418,12,32765
11.3065,-1.2321,1.40554,12,32765
11.3221,-1.27147,1.4088,12,32765
11.3376,-1.31069,1.4111,13,32765
11.2743,-1.34095,1.40209,13,32765
11.2696,-1.3784,1.4036,12,32765
11.1763,-1.40492,1.39261,12,32765
11.0436,-1.42549,1.37653,13,32765
11.019,-1.45967,1.3748,12,32765
11.0142,-1.496,1.37441,11,32765
10.8913,-1.51603,1.35901,12,32765
10.906,-1.55456,1.36146,12,32765
10.8123,-1.57795,1.35087,11,32765
10.8461,-1.62001,1.35625,12,32765
10.8014,-1.65038,1.35145,12,32765
10.6291,-1.66059,1.33016,12,32765
10.6824,-1.70541,1.33692,12,32765
10.618,-1.73106,1.32905,12,32765
10.524,-1.75137,1.3192,12,32765
10.479,-1.77969,1.31441,12,32765
10.5121,-1.82142,1.31898,12,32765
10.4277,-1.84293,1.30983,12,32765
10.5095,-1.89336,1.32066,15,32765
10.552,-1.93668,1.32651,16,32765
10.5456,-1.97101,1.32736,15,32765
10.4903,-1.99617,1.32161,17,32765
10.5031,-2.03445,1.32456,15,32765
10.3405,-2.03848,1.30484,14,32765
10.392,-2.0843,1.31333,28,32765
10.414,-2.12519,1.31757,18,32765
11.9614,-2.48287,1.51549,14,32765
11.9529,-2.52251,1.51705,14,32765
11.9835,-2.56967,1.52155,14,32765
12.0137,-2.61699,1.52771,14,32765
12.0243,-2.66086,1.5314,15,32765
12.0441,-2.70752,1.53673,15,32765
12.0543,-2.75209,1.54011,15,32765
12.0641,-2.79678,1.5449,15,32765
12.0934,-2.84509,1.55106,15,32765
12.1515,-2.90042,1.56085,13,32765
9.54754,-2.31153,1.22935,13,32765
9.48202,-2.3284,1.22286,12,32765
9.43579,-2.34943,1.21903,12,32765
9.42788,-2.37991,1.2211,11,32765
9.34304,-2.39085,1.21236,12,32765
9.08521,-2.35647,1.18218,12,32765
9.01025,-2.36796,1.17482,12,32765
9.00226,-2.39736,1.17647,12,32765
