x, y, z, intensity, ring
4.90457,0.666131,-0.0632005,15,32765
4.94639,0.655125,-0.0644138,17,32765
4.9089,0.633288,-0.0646513,15,32765
4.74242,0.595061,-0.0612506,14,32765
4.72451,0.576923,-0.0611637,16,32765
4.76616,0.565573,-0.0623454,16,32765
4.66868,0.538164,-0.0617261,15,32765
4.61083,0.51584,-0.0616099,16,32765
4.54294,0.492782,-0.061493,17,32765
4.5346,0.476545,-0.0622714,16,32765
4.52621,0.46045,-0.0627171,18,32765
4.49787,0.442243,-0.0631692,16,32765
4.61876,0.438596,-0.0657464,17,32765
4.60027,0.421385,-0.0661181,16,32765
4.45223,0.392794,-0.0650633,16,32765
4.51329,0.383022,-0.0665263,17,32765
4.42484,0.360613,-0.0657144,16,32765
4.46588,0.348907,-0.0673804,16,32765
4.21774,0.31526,-0.0643315,16,32765
4.30854,0.3074,-0.0664501,17,32765
4.24966,0.289117,-0.0664802,17,32765
4.2406,0.274423,-0.0668526,16,32765
4.20155,0.257888,-0.0675099,17,32765
4.24229,0.246544,-0.0687187,16,32765
4.25305,0.233036,-0.0697504,16,32765
4.14394,0.213415,-0.0686324,16,32765
4.08468,0.196832,-0.0689285,16,32765
3.95545,0.177471,-0.06738,16,32765
4.10584,0.170686,-0.070758,16,32765
4.02644,0.153975,-0.0702758,16,32765
4.00692,0.140029,-0.0710486,16,32765
3.94739,0.124868,-0.0707654,16,32765
3.97774,0.11276,-0.072375,17,32765
3.86813,0.0969147,-0.0713645,16,32765
3.85841,0.0839683,-0.0723078,15,32765
3.77868,0.069923,-0.0714295,16,32765
3.77887,0.0576269,-0.072438,17,32765
3.83899,0.0460862,-0.0750291,16,32765
3.73912,0.0328184,-0.0740385,15,32765
3.72919,0.0205361,-0.0751314,17,32765
3.72921,0.00840823,-0.0760721,16,32765
3.6892,-0.00374822,-0.0767072,16,32765
3.60916,-0.0152207,-0.0761924,16,32765
3.55908,-0.0263052,-0.0763298,16,32765
3.61892,-0.0387295,-0.079394,17,32765
3.4688,-0.0484692,-0.0774672,17,32765
7.53975,2.48897,-0.0279803,29,32765
7.52874,2.45832,-0.0334487,26,32765
7.46051,2.40932,-0.0390892,24,32765
7.34439,2.34569,-0.0421327,22,32765
7.18035,2.26745,-0.0460537,20,32765
7.00638,2.18722,-0.0488285,19,32765
6.78416,2.09343,-0.0518166,18,32765
6.70498,2.04458,-0.0552008,18,32765
6.48182,1.95342,-0.0558379,17,32765
6.2294,1.85508,-0.0572911,16,32765
6.15858,1.8124,-0.0590676,17,32765
5.97236,1.73655,-0.0608858,17,32765
5.78582,1.66163,-0.0602069,18,32765
5.68551,1.6122,-0.0619957,18,32765
5.49831,1.53908,-0.0625585,19,32765
5.46486,1.50999,-0.0643428,18,32765
5.34436,1.45781,-0.065128,17,32765
5.42633,1.46103,-0.0683285,19,32765
5.29577,1.4073,-0.0687428,20,32765
5.26172,1.37948,-0.0704429,20,32765
5.10169,1.31936,-0.0699761,20,32765
5.04793,1.28739,-0.0714351,20,32765
5.02311,1.26315,-0.0723173,20,32765
5.01754,1.24408,-0.073896,20,32765
4.80793,1.17518,-0.0726105,17,32765
4.77289,1.14991,-0.0730355,17,32765
4.75722,1.12932,-0.0747704,18,32765
4.64411,1.0861,-0.0742125,17,32765
4.57949,1.05486,-0.0744761,16,32765
4.47577,1.01491,-0.0744883,17,32765
4.37182,0.975781,-0.0739177,16,32765
4.28718,0.941692,-0.0735253,16,32765
4.41733,0.954821,-0.0769296,17,32765
4.34221,0.923508,-0.0770336,17,32765
4.21803,0.88236,-0.0760906,18,32765
4.24054,0.872221,-0.07699,19,32765
4.22386,0.85386,-0.077877,18,32765
4.21691,0.837564,-0.0783519,18,32765
4.09213,0.79844,-0.0764833,18,32765
4.06533,0.778917,-0.0772175,18,32765
4.04827,0.761531,-0.0772927,18,32765
4.04091,0.746279,-0.0786929,17,32765
4.00402,0.725607,-0.0786747,17,32765
3.94736,0.701612,-0.078627,18,32765
3.92016,0.683045,-0.0785231,18,32765
3.95199,0.674894,-0.0800905,20,32765
3.88516,0.650247,-0.0794407,18,32765
3.94648,0.646904,-0.0825218,19,32765
3.80055,0.609879,-0.0796777,18,32765
3.7532,0.589181,-0.0798987,19,32765
3.7453,0.574786,-0.0805386,19,32765
3.75712,0.563506,-0.0808553,18,32765
3.72935,0.546241,-0.0805765,19,32765
3.60248,0.515255,-0.07884,18,32765
3.63389,0.507251,-0.0803559,18,32765
3.69499,0.503106,-0.0827832,19,32765
3.5777,0.475037,-0.0806291,18,32765
3.68834,0.477021,-0.0836534,18,32765
3.58089,0.450444,-0.0802895,18,32765
3.63198,0.444624,-0.0815327,19,32765
3.59375,0.427523,-0.081146,18,32765
3.49584,0.403984,-0.0794141,18,32765
3.52697,0.395578,-0.0806057,19,32765
3.48851,0.379362,-0.0803223,18,32765
3.46987,0.365574,-0.0805639,19,32765
3.51084,0.358063,-0.0819397,18,32765
3.41252,0.336381,-0.0802759,18,32765
3.45342,0.328772,-0.0818858,18,32765
3.44453,0.316325,-0.0821411,19,32765
3.41568,0.302117,-0.0822672,19,32765
3.36685,0.286464,-0.0815085,18,32765
3.35782,0.274359,-0.0816548,19,32765
3.39857,0.266208,-0.0834419,19,32765
3.37949,0.25326,-0.0835229,20,32765
3.33046,0.238238,-0.0828711,19,32765
3.32124,0.226546,-0.0833683,20,32765
3.32196,0.215541,-0.0837827,19,32765
3.37252,0.207553,-0.0860739,19,32765
3.28335,0.191325,-0.0842215,19,32765
3.26399,0.179324,-0.0843777,19,32765
3.27453,0.169098,-0.0851758,20,32765
3.24509,0.156803,-0.0854207,18,32765
3.22561,0.145126,-0.0854192,19,32765
3.19609,0.133239,-0.0852689,18,32765
3.23645,0.124117,-0.0870546,19,32765
3.20685,0.112393,-0.0871464,18,32765
3.16722,0.100485,-0.0866864,19,32765
3.19749,0.090916,-0.0883689,19,32765
3.1178,0.0783595,-0.0869577,17,32765
3.10803,0.0678577,-0.0875876,19,32765
3.02826,0.0562275,-0.0858318,19,32765
3.13835,0.0480331,-0.0897855,18,32765
3.0385,0.0366223,-0.088067,18,32765
3.05857,0.026969,-0.0894344,18,32765
3.03862,0.0168334,-0.0899018,18,32765
2.99866,0.00683719,-0.0894754,18,32765
2.94865,-0.0029431,-0.0891438,17,32765
2.95859,-0.0124461,-0.0903873,17,32765
2.93852,-0.0217094,-0.0907613,19,32765
2.9084,-0.0311384,-0.0912639,18,32765
2.86827,-0.0401125,-0.0911364,17,32765
4.59404,1.52081,-0.086978,15,32765
4.67504,1.53054,-0.0882608,18,32765
4.70841,1.52496,-0.0888764,15,32765
4.5704,1.46424,-0.086043,15,32765
4.54658,1.4402,-0.085756,15,32765
4.67539,1.46387,-0.0885758,15,32765
4.68974,1.45137,-0.0889574,16,32765
4.62753,1.41555,-0.088413,15,32765
4.60334,1.39196,-0.0881469,15,32765
4.58867,1.37126,-0.0886631,16,32765
4.56431,1.34791,-0.0886777,16,32765
4.41514,1.28805,-0.0865433,16,32765
4.42904,1.27596,-0.0874815,14,32765
4.38526,1.24724,-0.0863763,15,32765
4.35096,1.22146,-0.0870499,15,32765
4.36464,1.2096,-0.0876045,16,32765
4.40722,1.20556,-0.0889831,15,32765
4.36291,1.17788,-0.0893898,17,32765
4.27015,1.13777,-0.0876667,16,32765
4.16756,1.0955,-0.0862475,15,32765
4.08408,1.05897,-0.0854774,15,32765
4.04885,1.03534,-0.0854219,15,32765
4.10071,1.03413,-0.0874549,16,32765
4.0653,1.01086,-0.0873724,14,32765
4.02978,0.987802,-0.0873819,15,32765
4.11081,0.99304,-0.0896791,15,32765
4.0655,0.967527,-0.0894324,15,32765
3.93246,0.921827,-0.0871008,15,32765
3.92576,0.906385,-0.0880106,16,32765
3.90931,0.888586,-0.0884652,16,32765
3.9025,0.873285,-0.0888274,16,32765
3.86634,0.851539,-0.0889364,16,32765
3.81059,0.825575,-0.0884669,17,32765
3.7449,0.798101,-0.0876174,16,32765
3.81607,0.799708,-0.0900615,17,32765
3.76976,0.776795,-0.0894959,16,32765
3.77233,0.764125,-0.0903367,17,32765
3.66701,0.729935,-0.0886605,16,32765
3.65957,0.715797,-0.0899181,16,32765
3.66195,0.703408,-0.0905975,16,32765
3.54641,0.668806,-0.0880355,16,32765
3.58795,0.664127,-0.0897448,17,32765
3.6,0.653697,-0.0908712,17,32765
3.51361,0.625644,-0.0894932,17,32765
3.50585,0.612,-0.0898474,17,32765
3.4389,0.588419,-0.0886396,17,32765
3.4507,0.578461,-0.0898641,16,32765
3.46249,0.568377,-0.0907322,16,32765
3.39527,0.545565,-0.0898899,17,32765
3.3971,0.533962,-0.0905901,17,32765
3.37909,0.519501,-0.0908237,17,32765
3.36104,0.505103,-0.0908216,17,32765
3.37261,0.495154,-0.0919495,17,32765
3.35445,0.480877,-0.0921477,17,32765
3.34614,0.468092,-0.0927719,17,32765
3.29815,0.450184,-0.0917598,17,32765
3.27982,0.436433,-0.0915551,18,32765
3.26141,0.422914,-0.0919391,16,32765
3.2727,0.413332,-0.092763,17,32765
3.25421,0.399891,-0.0927878,16,32765
3.25551,0.388998,-0.0934443,16,32765
3.20715,0.372227,-0.0923045,17,32765
3.16865,0.356899,-0.0916397,17,32765
3.21951,0.351536,-0.0938475,17,32765
3.19085,0.337484,-0.0933291,17,32765
3.11239,0.318699,-0.091262,17,32765
3.14327,0.311299,-0.092513,17,32765
3.11442,0.297951,-0.0921949,17,32765
3.09548,0.285752,-0.0920445,16,32765
3.15614,0.280643,-0.0943459,16,32765
3.07739,0.263322,-0.0919722,17,32765
3.05832,0.251359,-0.0916519,17,32765
3.11891,0.245971,-0.0938393,16,32765
3.07982,0.232746,-0.0928292,17,32765
3.06063,0.221157,-0.0924612,16,32765
3.15108,0.21729,-0.0953984,17,32765
3.08196,0.202154,-0.0934569,17,32765
3.12251,0.194444,-0.0948928,17,32765
3.0932,0.182318,-0.0941477,17,32765
3.02392,0.168141,-0.0922432,16,32765
3.03445,0.158701,-0.0924617,17,32765
3.05492,0.149661,-0.0931777,16,32765
3.04541,0.139205,-0.0927548,15,32765
3.0858,0.130868,-0.0940304,16,32765
3.01629,0.117964,-0.0919687,16,32765
3.07661,0.110165,-0.0935577,16,32765
3.01702,0.0979903,-0.0916224,16,32765
3.02732,0.0882596,-0.0917729,16,32765
3.06757,0.0792897,-0.0927705,17,32765
3.02786,0.0681572,-0.0913589,16,32765
3.10802,0.0598019,-0.0935998,17,32765
3.07822,0.0490532,-0.0923431,17,32765
3.07838,0.0389425,-0.0919898,17,32765
3.06851,0.0288689,-0.0913077,17,32765
3.0686,0.0186634,-0.090817,17,32765
3.03867,0.00858492,-0.0896412,17,32765
3.09867,-0.00139224,-0.090731,17,32765
3.10867,-0.0112572,-0.0903182,17,32765
3.11863,-0.0214888,-0.0899585,16,32765
3.15855,-0.0325085,-0.0901146,16,32765
3.13847,-0.0426755,-0.0883341,17,32765
3.54825,1.17774,-0.102357,18,32765
3.58062,1.17536,-0.103062,18,32765
3.53679,1.14854,-0.101756,17,32765
3.54995,1.14033,-0.101923,17,32765
3.49651,1.11051,-0.100479,16,32765
3.5288,1.10779,-0.101667,17,32765
3.50381,1.08722,-0.100995,16,32765
3.44044,1.0552,-0.0996091,17,32765
3.46295,1.04989,-0.100377,17,32765
3.43761,1.02999,-0.100209,18,32765
3.45051,1.02167,-0.100921,18,32765
3.35791,0.982194,-0.0987633,17,32765
3.4092,0.98474,-0.100754,17,32765
3.32602,0.948459,-0.098083,17,32765
3.35808,0.945201,-0.10004,17,32765
3.36121,0.933955,-0.100321,19,32765
3.24863,0.890964,-0.0973197,17,32765
3.32874,0.901031,-0.100685,17,32765
3.25443,0.869401,-0.0985464,17,32765
3.23798,0.853377,-0.0985558,18,32765
3.21178,0.834969,-0.0984859,18,32765
3.22424,0.826633,-0.0993854,18,32765
3.15911,0.798754,-0.098077,16,32765
3.17143,0.790655,-0.0989604,18,32765
3.19344,0.78484,-0.100236,18,32765
3.14748,0.762318,-0.0991835,18,32765
3.08198,0.735379,-0.0976589,17,32765
3.11363,0.731785,-0.0991104,17,32765
3.11604,0.721313,-0.100005,17,32765
3.07948,0.701794,-0.099459,18,32765
3.05255,0.68487,-0.0989722,18,32765
3.09386,0.683183,-0.101037,17,32765
3.02779,0.657693,-0.0995046,18,32765
3.06908,0.655782,-0.101395,17,32765
2.96369,0.622703,-0.0984991,17,32765
2.99512,0.618785,-0.0999437,17,32765
2.97757,0.604715,-0.0999555,17,32765
2.95997,0.590736,-0.10003,18,32765
2.97169,0.582773,-0.101576,18,32765
2.91475,0.561347,-0.100107,16,32765
2.93626,0.55519,-0.101074,17,32765
2.85949,0.530677,-0.0989557,17,32765
2.86126,0.520916,-0.0996567,17,32765
2.85316,0.509376,-0.100011,17,32765
2.81548,0.492776,-0.0991185,17,32765
2.78756,0.478224,-0.0985329,16,32765
2.8187,0.473759,-0.100371,17,32765
2.85972,0.470667,-0.102281,17,32765
2.80207,0.451434,-0.100964,17,32765
2.77397,0.437168,-0.10047,18,32765
2.82479,0.43543,-0.102895,17,32765
2.77682,0.418409,-0.101534,18,32765
2.72877,0.401689,-0.100425,17,32765
2.73998,0.393833,-0.101392,17,32765
2.73139,0.383109,-0.101758,17,32765
2.72274,0.372632,-0.101688,17,32765
2.68435,0.358148,-0.100493,17,32765
2.70532,0.351743,-0.102013,18,32765
2.72629,0.345244,-0.103214,17,32765
2.7175,0.334834,-0.10333,17,32765
2.68882,0.32215,-0.102742,18,32765
2.65019,0.308414,-0.101461,17,32765
2.70085,0.305031,-0.10377,17,32765
2.64225,0.289288,-0.102114,18,32765
2.69289,0.285591,-0.10433,18,32765
2.65406,0.272508,-0.103012,17,32765
2.54556,0.252793,-0.0990733,16,32765
2.64584,0.253818,-0.10342,18,32765
2.63671,0.244073,-0.103405,17,32765
2.62755,0.234287,-0.103453,18,32765
2.63827,0.226375,-0.103852,17,32765
2.57926,0.212577,-0.101733,17,32765
2.53013,0.200097,-0.100091,17,32765
2.53076,0.191793,-0.100247,17,32765
2.60114,0.188488,-0.103208,17,32765
2.52199,0.174406,-0.100226,17,32765
2.51259,0.165281,-0.0999704,17,32765
2.553,0.159441,-0.101743,17,32765
2.60339,0.153896,-0.103868,17,32765
2.57395,0.143544,-0.102863,17,32765
2.59437,0.13609,-0.103588,18,32765
2.5948,0.127504,-0.103679,17,32765
2.56526,0.117617,-0.102384,16,32765
2.57562,0.109571,-0.102832,17,32765
2.56598,0.10067,-0.102492,17,32765
2.58628,0.0929061,-0.103089,17,32765
2.5666,0.0836364,-0.102198,17,32765
2.58685,0.0756741,-0.102862,17,32765
2.48721,0.0645145,-0.0987177,17,32765
2.53736,0.0573259,-0.10053,16,32765
2.53754,0.0490147,-0.100391,17,32765
2.5377,0.0406083,-0.100099,16,32765
2.55782,0.0325064,-0.100594,16,32765
2.52795,0.0239105,-0.0990992,17,32765
2.53802,0.0155432,-0.0990852,17,32765
2.58803,0.00740001,-0.10079,16,32765
2.58806,-0.00109565,-0.100223,16,32765
2.57807,-0.00928923,-0.0992508,17,32765
2.55806,-0.0176007,-0.0979482,16,32765
2.65794,-0.0273523,-0.100935,16,32765
2.58793,-0.0352072,-0.097281,16,32765
3.96737,1.31249,-0.0986675,15,32765
3.90501,1.27791,-0.0997906,15,32765
3.75688,1.216,-0.0984889,14,32765
3.80831,1.21914,-0.102508,15,32765
3.66924,1.16145,-0.101197,15,32765
3.61571,1.13158,-0.101445,15,32765
3.60979,1.11676,-0.103221,16,32765
3.53697,1.08131,-0.103214,16,32765
3.46388,1.04658,-0.102929,15,32765
3.37143,1.00673,-0.101902,15,32765
3.3842,0.998646,-0.103897,16,32765
3.33941,0.973618,-0.103884,15,32765
3.285,0.945686,-0.104129,16,32765
3.23047,0.918082,-0.103855,15,32765
3.19502,0.896339,-0.103954,16,32765
3.13053,0.866961,-0.103144,16,32765
3.13333,0.856648,-0.104523,15,32765
3.03959,0.820256,-0.102844,15,32765
3.10016,0.825738,-0.106017,16,32765
3.09315,0.812991,-0.10698,15,32765
2.97972,0.772528,-0.104205,14,32765
3.01127,0.770083,-0.106488,15,32765
2.92657,0.738014,-0.104564,15,32765
2.8999,0.720976,-0.104367,15,32765
2.97021,0.727866,-0.107989,16,32765
2.94344,0.710928,-0.107834,16,32765
2.9166,0.694127,-0.107959,16,32765
2.90915,0.682032,-0.10841,16,32765
2.83352,0.654154,-0.106627,15,32765
2.83568,0.644569,-0.107437,15,32765
2.77931,0.621853,-0.106119,15,32765
2.77157,0.610492,-0.106353,16,32765
2.73451,0.592633,-0.106039,15,32765
2.78533,0.593883,-0.108333,16,32765
2.71883,0.570043,-0.106729,15,32765
2.6718,0.550711,-0.105408,15,32765
2.73238,0.553581,-0.108435,16,32765
2.69502,0.536438,-0.107616,16,32765
2.65755,0.51973,-0.10674,15,32765
2.66906,0.512676,-0.108054,15,32765
2.73946,0.516794,-0.111329,15,32765
2.64289,0.489466,-0.10787,15,32765
2.6445,0.480587,-0.108506,15,32765
2.66574,0.475255,-0.109768,15,32765
2.65745,0.464617,-0.109837,16,32765
2.67867,0.459042,-0.111481,15,32765
2.59149,0.435135,-0.108435,15,32765
2.6521,0.435971,-0.111235,15,32765
2.62398,0.422083,-0.110334,15,32765
2.58591,0.406847,-0.109356,16,32765
2.52802,0.388908,-0.107143,14,32765
2.56882,0.386297,-0.109301,16,32765
2.52067,0.370228,-0.107944,15,32765
2.52189,0.361696,-0.108292,15,32765
2.52308,0.353131,-0.108839,16,32765
2.48464,0.339251,-0.107519,16,32765
2.49566,0.332221,-0.108294,15,32765
2.53638,0.328837,-0.110535,16,32765
2.4879,0.314058,-0.108676,15,32765
2.50876,0.308153,-0.109843,16,32765
2.49983,0.298571,-0.109966,16,32765
2.51073,0.291358,-0.11069,15,32765
2.4521,0.276167,-0.10872,15,32765
2.50266,0.273318,-0.11125,17,32765
2.52342,0.266981,-0.112486,16,32765
2.46466,0.252444,-0.110087,15,32765
2.4456,0.242312,-0.109307,15,32765
2.44637,0.234021,-0.110009,16,32765
2.44712,0.225815,-0.110451,16,32765
2.4976,0.221949,-0.113233,16,32765
2.47841,0.211842,-0.11262,15,32765
2.44923,0.201044,-0.111587,15,32765
2.43991,0.191979,-0.111806,16,32765
2.43056,0.183032,-0.111678,15,32765
2.40123,0.172807,-0.110957,16,32765
2.45162,0.168299,-0.113332,16,32765
2.44215,0.159605,-0.113621,15,32765
2.40277,0.149022,-0.112277,14,32765
2.46307,0.14456,-0.115203,15,32765
2.41365,0.133444,-0.113529,15,32765
2.31431,0.120187,-0.109298,15,32765
2.31467,0.11258,-0.109614,15,32765
2.33496,0.10577,-0.111196,15,32765
2.32529,0.0977058,-0.111167,15,32765
2.29564,0.0888317,-0.110213,15,32765
2.36578,0.0836973,-0.113996,15,32765
2.29613,0.0735667,-0.111257,16,32765
2.29633,0.0658619,-0.111942,16,32765
2.3065,0.0585293,-0.112877,16,32765
2.28668,0.0504392,-0.112377,16,32765
2.26685,0.0426111,-0.11168,15,32765
2.2969,0.035829,-0.113836,15,32765
2.25702,0.0278647,-0.112556,16,32765
2.26705,0.0205527,-0.113889,15,32765
2.22713,0.0127172,-0.112339,15,32765
2.21715,0.00525263,-0.112298,15,32765
2.23709,-0.00195692,-0.114084,16,32765
2.21706,-0.00910737,-0.113929,16,32765
2.17704,-0.0158703,-0.112501,16,32765
2.23684,-0.0234844,-0.116609,15,32765
2.18679,-0.0300132,-0.114657,15,32765
3.06406,1.0164,-0.106589,18,32765
3.00079,0.984661,-0.106415,18,32765
2.96587,0.962569,-0.107109,17,32765
2.91179,0.934665,-0.107171,17,32765
2.88618,0.916058,-0.108115,17,32765
2.87957,0.90364,-0.109214,17,32765
2.82519,0.876397,-0.108646,17,32765
2.78983,0.855211,-0.108897,17,32765
2.81169,0.851835,-0.111225,18,32765
2.81439,0.842674,-0.112744,17,32765
2.6829,0.793851,-0.108729,17,32765
2.70462,0.790684,-0.110689,17,32765
2.65923,0.767619,-0.110376,17,32765
2.64256,0.753044,-0.110852,18,32765
2.59697,0.73054,-0.109923,17,32765
2.64749,0.735184,-0.113129,18,32765
2.55349,0.700023,-0.110141,16,32765
2.57503,0.696784,-0.112276,16,32765
2.5483,0.680596,-0.112014,17,32765
2.51184,0.662,-0.111369,16,32765
2.49467,0.648535,-0.111549,17,32765
2.46773,0.632802,-0.111292,17,32765
2.45042,0.619626,-0.111391,17,32765
2.45245,0.611396,-0.112104,17,32765
2.44476,0.600736,-0.112632,17,32765
2.44671,0.592567,-0.113385,17,32765
2.40978,0.575075,-0.112572,16,32765
2.3825,0.560087,-0.111876,17,32765
2.38435,0.551963,-0.112817,17,32765
2.37643,0.541657,-0.113037,17,32765
2.34898,0.52701,-0.112407,16,32765
2.37996,0.525668,-0.114328,17,32765
2.29383,0.498491,-0.111105,16,32765
2.35409,0.50331,-0.114282,17,32765
2.36552,0.497327,-0.115677,17,32765
2.34761,0.485219,-0.115248,18,32765
2.28069,0.463339,-0.112481,17,32765
2.29203,0.457479,-0.11359,17,32765
2.32293,0.45554,-0.11565,17,32765
2.27538,0.438261,-0.113996,17,32765
2.2768,0.430699,-0.114407,17,32765
2.26838,0.421266,-0.114372,17,32765
2.20098,0.401092,-0.111436,17,32765
2.19246,0.391959,-0.111314,17,32765
2.19374,0.384606,-0.111706,17,32765
2.19499,0.377199,-0.112388,16,32765
2.17653,0.366475,-0.11192,17,32765
2.20732,0.363864,-0.113712,16,32765
2.15925,0.348296,-0.111454,17,32765
2.19987,0.347076,-0.11407,16,32765
2.19116,0.338028,-0.113812,17,32765
2.20215,0.332084,-0.11474,17,32765
2.14396,0.315782,-0.112287,18,32765
2.13512,0.307085,-0.112066,17,32765
2.18558,0.306755,-0.115134,17,32765
2.18658,0.299397,-0.115476,17,32765
2.17766,0.29071,-0.115256,17,32765
2.1291,0.276817,-0.113076,18,32765
2.1201,0.268391,-0.112807,18,32765
2.13089,0.262486,-0.11359,17,32765
2.12182,0.254147,-0.113535,18,32765
2.06313,0.240104,-0.110588,17,32765
2.11352,0.23872,-0.113813,18,32765
2.1143,0.231572,-0.114091,17,32765
2.08526,0.221263,-0.112777,17,32765
2.08598,0.214281,-0.112996,17,32765
2.11649,0.210318,-0.114704,18,32765
2.08734,0.200263,-0.113687,17,32765
2.02832,0.187723,-0.110806,16,32765
2.07865,0.185269,-0.113969,17,32765
2.02951,0.173991,-0.11148,16,32765
2.06987,0.170416,-0.11394,16,32765
2.07041,0.163401,-0.114512,17,32765
2.0311,0.15342,-0.112584,17,32765
2.08137,0.15025,-0.11591,17,32765
2.04201,0.140616,-0.113752,17,32765
2.01253,0.131941,-0.112705,16,32765
2.01294,0.125242,-0.113134,16,32765
2.00337,0.117958,-0.112681,17,32765
2.00373,0.111142,-0.113228,17,32765
2.05392,0.107019,-0.116453,17,32765
1.97447,0.0963576,-0.1122,17,32765
2.02462,0.0920274,-0.115586,17,32765
1.99496,0.0841204,-0.114261,17,32765
1.99521,0.0774846,-0.114676,17,32765
2.01539,0.0715656,-0.116189,17,32765
1.98565,0.0638635,-0.115006,17,32765
1.96586,0.0566093,-0.114437,17,32765
1.98597,0.0506076,-0.115984,17,32765
2.01605,0.0446681,-0.118154,17,32765
1.93632,0.0365728,-0.113718,17,32765
1.96634,0.0308348,-0.116059,18,32765
1.96639,0.0244232,-0.116669,17,32765
1.94645,0.0177758,-0.116201,17,32765
1.9365,0.0111704,-0.116003,17,32765
1.91653,0.00463618,-0.115207,17,32765
1.92648,-0.00160425,-0.116474,17,32765
1.90646,-0.00776637,-0.116009,17,32765
1.89641,-0.0137747,-0.115946,17,32765
1.90628,-0.0199786,-0.117418,17,32765
1.88621,-0.0258679,-0.11675,17,32765
2.35035,0.782506,-0.118039,16,32765
2.35296,0.774684,-0.117745,15,32765
2.34607,0.763632,-0.11718,15,32765
2.37712,0.76499,-0.118776,16,32765
2.3606,0.75109,-0.117661,15,32765
2.3535,0.740362,-0.117566,15,32765
2.35589,0.732706,-0.117675,15,32765
2.34874,0.721977,-0.117413,15,32765
2.35111,0.714156,-0.117819,16,32765
2.35348,0.70626,-0.118118,15,32765
2.36537,0.701291,-0.118803,16,32765
2.37721,0.696376,-0.11979,15,32765
2.36031,0.682911,-0.119064,15,32765
2.2857,0.653139,-0.115771,15,32765
2.37439,0.669816,-0.120431,16,32765
2.33813,0.651056,-0.119041,16,32765
2.35956,0.648454,-0.120399,16,32765
2.37136,0.643063,-0.121415,16,32765
2.28664,0.611884,-0.117392,15,32765
2.28866,0.6042,-0.117884,15,32765
2.29063,0.596533,-0.118497,15,32765
2.25389,0.579018,-0.11675,16,32765
2.27515,0.576388,-0.118249,15,32765
2.25764,0.563941,-0.117966,16,32765
2.20133,0.541994,-0.11537,15,32765
2.23222,0.541644,-0.117541,15,32765
2.18545,0.522512,-0.115321,15,32765
2.19686,0.517515,-0.116468,15,32765
2.21803,0.514617,-0.117924,16,32765
2.22947,0.509295,-0.11908,16,32765
2.1727,0.48861,-0.116341,15,32765
2.23283,0.494148,-0.119973,16,32765
2.18565,0.47602,-0.118088,15,32765
2.19699,0.470736,-0.118902,16,32765
2.16923,0.457075,-0.117988,15,32765
2.19029,0.453722,-0.119771,16,32765
2.21137,0.450247,-0.121364,16,32765
2.17371,0.434765,-0.119863,16,32765
2.19474,0.431222,-0.121419,16,32765
2.16676,0.418048,-0.12043,15,32765
2.13869,0.405177,-0.119248,15,32765
2.1302,0.396198,-0.119109,15,32765
2.15112,0.392619,-0.120986,15,32765
2.13274,0.381881,-0.120315,16,32765
2.11434,0.371071,-0.119897,15,32765
2.09589,0.360436,-0.119305,15,32765
2.13648,0.359862,-0.121941,16,32765
2.11796,0.349303,-0.121299,16,32765
2.09939,0.338981,-0.120601,15,32765
2.0216,0.319385,-0.116748,15,32765
2.0325,0.314098,-0.117894,15,32765
2.12239,0.320551,-0.123351,16,32765
2.03456,0.300122,-0.118707,15,32765
2.10472,0.303136,-0.123135,15,32765
2.01674,0.283475,-0.118382,15,32765
2.02753,0.278104,-0.119421,16,32765
2.04823,0.273959,-0.120915,16,32765
2.03921,0.265694,-0.120886,16,32765
1.98066,0.251251,-0.117738,16,32765
2.07064,0.2556,-0.123342,16,32765
1.99216,0.239177,-0.11911,15,32765
1.9731,0.230345,-0.118048,16,32765
2.01351,0.228307,-0.120707,16,32765
2.01423,0.221579,-0.121111,16,32765
2.01496,0.214669,-0.121474,16,32765
2.01567,0.207798,-0.121631,16,32765
2.00642,0.200049,-0.121132,16,32765
1.95738,0.188453,-0.118596,16,32765
2.04743,0.190248,-0.124234,16,32765
1.97844,0.177102,-0.120414,16,32765
1.95914,0.168702,-0.119235,16,32765
1.94974,0.161246,-0.118852,16,32765
1.95027,0.154637,-0.118864,16,32765
1.9209,0.145879,-0.117259,16,32765
1.98108,0.143864,-0.121306,16,32765
1.95167,0.135316,-0.119445,16,32765
1.97203,0.130164,-0.120704,16,32765
1.97245,0.123557,-0.120669,16,32765
2.01269,0.119353,-0.123375,16,32765
1.97322,0.110384,-0.120953,16,32765
1.9636,0.103395,-0.120306,16,32765
1.98387,0.097918,-0.121589,17,32765
1.97422,0.0908702,-0.120753,17,32765
1.99446,0.0852384,-0.12191,16,32765
2.0047,0.0790064,-0.122676,16,32765
1.97503,0.0713103,-0.12073,16,32765
1.91541,0.0628042,-0.116846,16,32765
1.95553,0.0575602,-0.119198,16,32765
1.97567,0.0515891,-0.120253,16,32765
1.98581,0.0452466,-0.120801,16,32765
2.00592,0.0391412,-0.121936,17,32765
2.00606,0.0325816,-0.12146,16,32765
1.96624,0.0253971,-0.118947,16,32765
1.96634,0.0189892,-0.118491,16,32765
1.95642,0.0124897,-0.117682,15,32765
1.97643,0.0060909,-0.118607,16,32765
1.96649,-0.000460087,-0.117494,16,32765
1.97649,-0.00711853,-0.117549,16,32765
2.00644,-0.0139428,-0.118842,16,32765
2.0164,-0.0206468,-0.118805,15,32765
1.97644,-0.026515,-0.115717,16,32765
2.03601,0.679813,-0.122501,17,32765
2.03828,0.673019,-0.122248,17,32765
2.03107,0.663007,-0.121603,18,32765
2.03326,0.656218,-0.121753,17,32765
2.0069,0.640386,-0.119907,18,32765
2.04705,0.645812,-0.122512,17,32765
1.99195,0.621299,-0.119187,17,32765
2.01307,0.620573,-0.120513,17,32765
2.02466,0.616761,-0.121435,17,32765
2.01715,0.607066,-0.121121,17,32765
2.00958,0.597511,-0.120722,17,32765
2.00192,0.588118,-0.120575,17,32765
2.00386,0.581437,-0.120779,16,32765
1.97695,0.566532,-0.119548,16,32765
1.96924,0.557112,-0.119204,17,32765
1.99994,0.558478,-0.121429,17,32765
1.97293,0.543749,-0.119995,17,32765
1.98437,0.539658,-0.121021,17,32765
1.94758,0.522644,-0.119029,16,32765
1.99756,0.528857,-0.122406,17,32765
1.95099,0.509535,-0.119972,17,32765
1.92366,0.495594,-0.118408,17,32765
1.93496,0.491604,-0.119427,17,32765
1.92687,0.482693,-0.119448,17,32765
1.91878,0.473778,-0.119235,18,32765
1.90094,0.462577,-0.118582,17,32765
1.91218,0.458484,-0.119481,17,32765
1.92338,0.454386,-0.120644,18,32765
1.89571,0.441093,-0.119182,17,32765
1.87771,0.430169,-0.118498,17,32765
1.89861,0.428195,-0.12006,18,32765
1.8903,0.419541,-0.119871,17,32765
1.87216,0.408913,-0.119265,18,32765
1.86375,0.400482,-0.118887,17,32765
1.87484,0.396179,-0.120092,17,32765
1.86637,0.387733,-0.120081,18,32765
1.85788,0.379364,-0.119893,18,32765
1.86893,0.374884,-0.121082,17,32765
1.85059,0.364651,-0.120216,18,32765
1.84199,0.356416,-0.120123,18,32765
1.82355,0.346472,-0.119231,18,32765
1.83449,0.342188,-0.120225,17,32765
1.82577,0.334204,-0.120244,17,32765
1.78758,0.321006,-0.118023,17,32765
1.82795,0.321742,-0.121215,17,32765
1.83884,0.317153,-0.122327,17,32765
1.79071,0.302503,-0.119388,17,32765
1.79171,0.296361,-0.119797,17,32765
1.78282,0.28871,-0.119505,17,32765
1.79361,0.2842,-0.120766,17,32765
1.77481,0.275084,-0.119943,17,32765
1.78559,0.27048,-0.120867,16,32765
1.79635,0.265768,-0.121995,16,32765
1.74785,0.252485,-0.118972,16,32765
1.77832,0.250707,-0.121386,17,32765
1.71981,0.2366,-0.117729,17,32765
1.73047,0.232151,-0.118684,17,32765
1.77079,0.231414,-0.12188,17,32765
1.75175,0.222883,-0.120849,17,32765
1.71287,0.212076,-0.118371,17,32765
1.73335,0.208736,-0.120166,17,32765
1.69438,0.19841,-0.117525,17,32765
1.71484,0.195037,-0.119144,16,32765
1.76504,0.194763,-0.122942,17,32765
1.69624,0.181272,-0.118414,17,32765
1.71668,0.177525,-0.119933,17,32765
1.72719,0.172746,-0.120713,17,32765
1.69795,0.163989,-0.119033,18,32765
1.71834,0.160174,-0.12061,17,32765
1.69898,0.15257,-0.119561,17,32765
1.70942,0.147671,-0.120288,16,32765
1.69996,0.141042,-0.119783,16,32765
1.69048,0.134475,-0.119093,17,32765
1.74064,0.132623,-0.12279,16,32765
1.68135,0.122503,-0.118922,17,32765
1.68175,0.116992,-0.118894,16,32765
1.68213,0.111405,-0.118929,17,32765
1.7024,0.107006,-0.120307,17,32765
1.73261,0.103101,-0.122648,17,32765
1.70306,0.0956072,-0.120552,17,32765
1.68345,0.0889609,-0.119112,17,32765
1.72358,0.0853815,-0.121985,17,32765
1.69398,0.0782611,-0.119676,17,32765
1.71416,0.073538,-0.121031,17,32765
1.68448,0.0666463,-0.119051,17,32765
1.70464,0.0617957,-0.120361,17,32765
1.67494,0.0551485,-0.118053,17,32765
1.70503,0.0504054,-0.120089,17,32765
1.71517,0.0449917,-0.120652,17,32765
1.6854,0.0385883,-0.118497,17,32765
1.73539,0.0340399,-0.121935,17,32765
1.7056,0.0278612,-0.119428,17,32765
1.70569,0.0221766,-0.119344,17,32765
1.71575,0.0167003,-0.119645,16,32765
1.71581,0.0110701,-0.119463,16,32765
1.72583,0.00542091,-0.119917,17,32765
1.68597,-0.000309231,-0.116704,16,32765
1.73587,-0.00617954,-0.119681,16,32765
1.68599,-0.0116605,-0.115832,17,32765
1.74583,-0.017834,-0.119401,16,32765
1.70591,-0.0228587,-0.116036,16,32765
2.19813,0.7315,-0.124601,16,32765
2.17192,0.715076,-0.124689,16,32765
2.16465,0.704881,-0.125913,15,32765
2.13834,0.688631,-0.125615,16,32765
2.08342,0.663429,-0.123782,16,32765
2.1046,0.662425,-0.126302,16,32765
2.07808,0.646611,-0.125926,16,32765
2.01335,0.61916,-0.123098,16,32765
1.9962,0.606749,-0.122988,16,32765
1.99811,0.600229,-0.124097,15,32765
2.00958,0.59643,-0.125947,16,32765
2.02106,0.592598,-0.127472,15,32765
1.97505,0.571862,-0.125531,15,32765
1.93849,0.554298,-0.124097,16,32765
1.94987,0.550587,-0.125574,15,32765
1.942,0.541423,-0.126058,16,32765
1.91486,0.527068,-0.124891,16,32765
1.88768,0.512739,-0.123919,15,32765
1.92793,0.516681,-0.127059,16,32765
1.90065,0.502543,-0.125975,16,32765
1.88298,0.491074,-0.125457,16,32765
1.86523,0.479802,-0.124869,16,32765
1.8571,0.471121,-0.125001,16,32765
1.86832,0.467293,-0.126163,16,32765
1.89888,0.468212,-0.129002,16,32765
1.79374,0.435891,-0.122424,16,32765
1.83395,0.439197,-0.125792,16,32765
1.80627,0.426072,-0.124345,15,32765
1.85626,0.431202,-0.128377,16,32765
1.8577,0.424802,-0.128884,15,32765
1.81042,0.407551,-0.126012,16,32765
1.86044,0.412218,-0.130099,15,32765
1.78382,0.388919,-0.125,16,32765
1.74606,0.37455,-0.122807,16,32765
1.78635,0.376837,-0.125932,15,32765
1.74851,0.362664,-0.1236,15,32765
1.7497,0.356773,-0.123974,15,32765
1.75087,0.350804,-0.124493,15,32765
1.74223,0.342906,-0.124318,16,32765
1.75315,0.338938,-0.125247,15,32765
1.76406,0.334862,-0.126304,16,32765
1.75533,0.327122,-0.126072,16,32765
1.74659,0.319355,-0.125828,16,32765
1.7182,0.308125,-0.123914,15,32765
1.70938,0.30052,-0.123668,15,32765
1.73003,0.298129,-0.125293,15,32765
1.69167,0.285705,-0.122595,16,32765
1.68275,0.278368,-0.122303,15,32765
1.74274,0.282205,-0.126986,15,32765
1.74368,0.276163,-0.127316,16,32765
1.71505,0.265541,-0.125284,16,32765
1.70607,0.25807,-0.124961,16,32765
1.72667,0.255122,-0.126653,16,32765
1.70777,0.246407,-0.125387,16,32765
1.70856,0.240654,-0.125717,16,32765
1.68959,0.232146,-0.12452,15,32765
1.68046,0.225115,-0.12403,16,32765
1.70096,0.222007,-0.125848,16,32765
1.6918,0.214983,-0.125303,16,32765
1.6727,0.206809,-0.124142,16,32765
1.69319,0.203524,-0.125682,15,32765
1.72356,0.201278,-0.12817,16,32765
1.70439,0.193208,-0.127004,16,32765
1.6951,0.186342,-0.126546,16,32765
1.68579,0.179572,-0.125982,16,32765
1.6566,0.170783,-0.124108,16,32765
1.69684,0.169188,-0.127316,16,32765
1.6676,0.160569,-0.125362,16,32765
1.6979,0.157757,-0.127846,16,32765
1.65866,0.148506,-0.125278,16,32765
1.69889,0.146327,-0.128361,16,32765
1.66952,0.138134,-0.126576,16,32765
1.66002,0.131664,-0.126062,16,32765
1.67038,0.126822,-0.127109,16,32765
1.63098,0.118274,-0.124514,15,32765
1.65125,0.114157,-0.126312,16,32765
1.66155,0.10932,-0.127311,16,32765
1.67182,0.104435,-0.12847,16,32765
1.62237,0.0959787,-0.124933,16,32765
1.67242,0.093391,-0.129218,15,32765
1.63287,0.0857503,-0.126411,15,32765
1.61322,0.0793883,-0.124965,16,32765
1.60348,0.0735104,-0.124684,15,32765
1.66344,0.0707193,-0.129836,16,32765
1.60387,0.0628651,-0.125437,15,32765
1.60404,0.0574685,-0.125906,16,32765
1.6042,0.052125,-0.126199,16,32765
1.62425,0.0472837,-0.1283,16,32765
1.55462,0.0401012,-0.12308,15,32765
1.54474,0.0346812,-0.122801,16,32765
1.60462,0.0306856,-0.127852,16,32765
1.53491,0.0243048,-0.122729,16,32765
1.60471,0.0201073,-0.128898,15,32765
1.50505,0.0140015,-0.121405,16,32765
1.52499,0.00925583,-0.123382,16,32765
1.54491,0.0043294,-0.125398,15,32765
1.51497,-0.000699863,-0.123606,16,32765
1.5747,-0.00594503,-0.129154,16,32765
1.5547,-0.01096,-0.128006,16,32765
1.51474,-0.0155984,-0.125414,16,32765
1.51461,-0.0205042,-0.126237,16,32765
1.84601,0.616126,-0.123013,17,32765
1.83841,0.607053,-0.123822,17,32765
1.80234,0.588631,-0.122744,17,32765
1.81368,0.585796,-0.124543,17,32765
1.81551,0.57982,-0.125867,17,32765
1.78882,0.564693,-0.125073,17,32765
1.78107,0.555826,-0.125556,17,32765
1.7733,0.546947,-0.125957,18,32765
1.77502,0.541113,-0.126898,17,32765
1.75761,0.529543,-0.12651,17,32765
1.71147,0.509456,-0.124144,16,32765
1.72266,0.5066,-0.125627,17,32765
1.73389,0.503522,-0.127275,17,32765
1.68755,0.483973,-0.124634,17,32765
1.64111,0.464776,-0.121821,17,32765
1.6714,0.467361,-0.124908,17,32765
1.66327,0.459176,-0.124804,17,32765
1.66476,0.453531,-0.125609,18,32765
1.64699,0.442701,-0.124679,17,32765
1.62914,0.432033,-0.123927,17,32765
1.63054,0.426504,-0.124587,17,32765
1.65123,0.426017,-0.126681,17,32765
1.6236,0.413112,-0.125141,17,32765
1.62495,0.407633,-0.125586,18,32765
1.62625,0.402185,-0.126339,17,32765
1.5888,0.387241,-0.123919,17,32765
1.59973,0.38425,-0.125304,17,32765
1.6107,0.381077,-0.126555,17,32765
1.57311,0.366521,-0.124091,17,32765
1.59377,0.365541,-0.126058,17,32765
1.58524,0.357929,-0.125731,17,32765
1.59613,0.354715,-0.127103,17,32765
1.58756,0.347168,-0.126641,17,32765
1.58868,0.341814,-0.127132,17,32765
1.5508,0.328131,-0.124344,17,32765
1.55187,0.322848,-0.124718,17,32765
1.55293,0.317606,-0.125051,17,32765
1.58329,0.318186,-0.127881,17,32765
1.54521,0.305049,-0.125186,17,32765
1.54621,0.299836,-0.12539,17,32765
1.5374,0.292722,-0.124909,17,32765
1.55794,0.291218,-0.126917,17,32765
1.54909,0.284105,-0.126529,17,32765
1.55003,0.278815,-0.126716,17,32765
1.55095,0.273499,-0.127136,17,32765
1.51256,0.26145,-0.124096,16,32765
1.52325,0.258049,-0.125037,17,32765
1.54374,0.256157,-0.127037,17,32765
1.5249,0.247691,-0.125762,17,32765
1.52573,0.24239,-0.126052,17,32765
1.50686,0.234028,-0.124536,16,32765
1.48793,0.22577,-0.123256,17,32765
1.48868,0.220643,-0.123469,16,32765
1.49927,0.216999,-0.124447,17,32765
1.49997,0.211936,-0.124737,17,32765
1.47105,0.202753,-0.122499,16,32765
1.5211,0.204408,-0.126826,17,32765
1.47235,0.192776,-0.12302,17,32765
1.46309,0.186511,-0.122356,16,32765
1.49337,0.185225,-0.125109,16,32765
1.4544,0.175381,-0.121856,17,32765
1.47477,0.172777,-0.123757,17,32765
1.46542,0.166655,-0.123191,16,32765
1.49567,0.164953,-0.125936,16,32765
1.4863,0.158839,-0.125257,17,32765
1.49672,0.154806,-0.126409,17,32765
1.47738,0.147793,-0.12494,17,32765
1.48777,0.14373,-0.126028,16,32765
1.44854,0.13504,-0.122877,16,32765
1.43903,0.129277,-0.122402,17,32765
1.43945,0.124404,-0.122472,17,32765
1.43983,0.11954,-0.122876,16,32765
1.45014,0.115417,-0.123933,17,32765
1.4207,0.108244,-0.121635,17,32765
1.45084,0.105584,-0.124571,17,32765
1.43129,0.0993066,-0.123107,17,32765
1.41171,0.0932209,-0.1216,17,32765
1.44181,0.0904001,-0.124511,17,32765
1.43214,0.0850431,-0.123905,17,32765
1.42243,0.0797352,-0.123431,17,32765
1.39282,0.0734295,-0.121071,17,32765
1.39305,0.0688267,-0.121154,17,32765
1.39324,0.0641331,-0.12158,17,32765
1.41331,0.060338,-0.123747,17,32765
1.39357,0.0548593,-0.122235,18,32765
1.38376,0.0497997,-0.121767,17,32765
1.36398,0.0445279,-0.120264,17,32765
1.384,0.0404888,-0.122475,17,32765
1.36419,0.0353735,-0.120967,17,32765
1.39414,0.0314765,-0.124076,16,32765
1.39421,0.0268261,-0.124335,17,32765
1.39426,0.02223,-0.124731,17,32765
1.38432,0.0174853,-0.124349,17,32765
1.3644,0.0128192,-0.123025,17,32765
1.34449,0.00827328,-0.121555,16,32765
1.37436,0.00395522,-0.124615,16,32765
1.37431,-0.000542621,-0.125191,16,32765
1.36429,-0.00507068,-0.124864,17,32765
1.37418,-0.00961857,-0.126205,16,32765
1.33426,-0.0136842,-0.123155,17,32765
1.3441,-0.0181508,-0.124804,17,32765
1.65437,0.55394,-0.136828,16,32765
1.5994,0.529714,-0.131984,16,32765
1.61058,0.52762,-0.132886,16,32765
1.59336,0.516148,-0.131134,16,32765
1.61405,0.516924,-0.132785,16,32765
1.61574,0.511537,-0.133063,16,32765
1.58887,0.497282,-0.13075,16,32765
1.60952,0.497965,-0.132592,16,32765
1.6302,0.498517,-0.134235,16,32765
1.61274,0.487383,-0.132757,16,32765
1.5857,0.473368,-0.130631,15,32765
1.59683,0.470891,-0.131546,16,32765
1.58881,0.462708,-0.131094,16,32765
1.58078,0.454539,-0.130506,16,32765
1.60146,0.454672,-0.132304,16,32765
1.61256,0.451929,-0.13343,16,32765
1.58523,0.43853,-0.131312,15,32765
1.58668,0.433174,-0.131512,16,32765
1.60733,0.433072,-0.133511,16,32765
1.59914,0.425085,-0.132853,16,32765
1.60053,0.419673,-0.133321,16,32765
1.573,0.406708,-0.131012,16,32765
1.57435,0.401301,-0.131412,16,32765
1.57568,0.395934,-0.131843,16,32765
1.55763,0.385839,-0.130438,15,32765
1.58793,0.387699,-0.133244,16,32765
1.56983,0.377681,-0.131896,16,32765
1.53229,0.363155,-0.128914,15,32765
1.55292,0.36241,-0.130806,16,32765
1.57355,0.361511,-0.132908,16,32765
1.52615,0.345089,-0.129158,15,32765
1.56619,0.348598,-0.132762,16,32765
1.5576,0.341171,-0.132183,16,32765
1.5295,0.329551,-0.13007,15,32765
1.53057,0.324343,-0.130543,16,32765
1.56092,0.32518,-0.13335,16,32765
1.50343,0.307822,-0.128614,15,32765
1.50445,0.302609,-0.129078,16,32765
1.52501,0.301276,-0.131014,16,32765
1.52601,0.29608,-0.131307,17,32765
1.5074,0.28715,-0.129978,16,32765
1.48875,0.278391,-0.128507,17,32765
1.47984,0.271565,-0.128156,16,32765
1.51994,0.273614,-0.131975,16,32765
1.48159,0.261568,-0.12876,16,32765
1.50207,0.259903,-0.130941,17,32765
1.50292,0.254741,-0.131301,16,32765
1.47427,0.244618,-0.129176,16,32765
1.50458,0.244319,-0.132035,16,32765
1.47587,0.234458,-0.129784,16,32765
1.44708,0.224828,-0.12772,15,32765
1.49708,0.227365,-0.132067,16,32765
1.48796,0.220728,-0.131788,16,32765
1.46897,0.212746,-0.13029,16,32765
1.45978,0.206345,-0.129843,16,32765
1.45057,0.200071,-0.129283,16,32765
1.47095,0.197877,-0.13136,16,32765
1.46171,0.19161,-0.130729,16,32765
1.45245,0.185371,-0.130144,16,32765
1.4827,0.184052,-0.133101,16,32765
1.43385,0.173002,-0.129051,16,32765
1.45419,0.170488,-0.131033,16,32765
1.45473,0.165592,-0.131282,16,32765
1.44535,0.159644,-0.130734,16,32765
1.41614,0.151619,-0.128267,16,32765
1.43643,0.148907,-0.130338,16,32765
1.43691,0.144031,-0.130603,16,32765
1.44727,0.140107,-0.131803,16,32765
1.4378,0.134294,-0.13109,16,32765
1.41839,0.127673,-0.129484,16,32765
1.44856,0.125469,-0.132454,16,32765
1.43904,0.119837,-0.131574,16,32765
1.41955,0.113414,-0.130055,16,32765
1.40998,0.107926,-0.129265,15,32765
1.40038,0.102464,-0.128582,16,32765
1.40071,0.0978045,-0.128675,16,32765
1.4507,0.0964412,-0.133337,16,32765
1.42118,0.0896807,-0.130746,16,32765
1.43141,0.0855441,-0.131713,16,32765
1.43168,0.0807553,-0.131798,16,32765
1.39215,0.0738725,-0.128342,16,32765
1.42223,0.070739,-0.130964,17,32765
1.43239,0.066443,-0.132039,16,32765
1.41272,0.0608195,-0.130124,16,32765
1.40296,0.0557182,-0.129258,16,32765
1.41308,0.051361,-0.130243,16,32765
1.3834,0.04568,-0.127356,16,32765
1.4134,0.0419819,-0.130124,16,32765
1.40359,0.0371015,-0.129048,16,32765
1.41366,0.0326904,-0.129951,15,32765
1.3839,0.0273657,-0.127186,16,32765
1.40392,0.0230381,-0.128804,16,32765
1.39403,0.0182384,-0.127878,16,32765
1.41401,0.0138576,-0.129523,16,32765
1.42402,0.00932476,-0.130282,16,32765
1.40415,0.00458374,-0.128226,16,32765
1.43406,-6.40412e-05,-0.130672,16,32765
1.41416,-0.0048019,-0.128602,15,32765
1.41418,-0.00943556,-0.128126,15,32765
1.42415,-0.0141919,-0.128486,16,32765
1.40422,-0.0185866,-0.126168,16,32765
1.40703,0.472597,-0.130438,16,32765
1.4275,0.474256,-0.132053,17,32765
1.45741,0.478935,-0.134787,16,32765
1.45901,0.4741,-0.134617,17,32765
1.40367,0.450947,-0.129451,16,32765
1.43363,0.455294,-0.132323,16,32765
1.39711,0.438624,-0.12885,17,32765
1.41755,0.439935,-0.130847,17,32765
1.44755,0.444037,-0.133549,17,32765
1.40133,0.424809,-0.129237,17,32765
1.43138,0.428624,-0.132084,16,32765
1.43279,0.42383,-0.1322,17,32765
1.44375,0.421767,-0.133388,16,32765
1.38774,0.400271,-0.128266,16,32765
1.43696,0.409236,-0.132884,17,32765
1.3712,0.385477,-0.126968,17,32765
1.40126,0.388841,-0.129867,17,32765
1.42177,0.389355,-0.131826,17,32765
1.41341,0.382004,-0.131293,17,32765
1.39544,0.372087,-0.12963,17,32765
1.38702,0.364817,-0.129143,17,32765
1.3979,0.362557,-0.13013,17,32765
1.39911,0.357738,-0.130487,17,32765
1.36166,0.343218,-0.127261,17,32765
1.39178,0.345828,-0.13016,17,32765
1.38324,0.338771,-0.129584,17,32765
1.37467,0.331758,-0.128921,17,32765
1.38546,0.329379,-0.130079,17,32765
1.35747,0.317785,-0.127578,17,32765
1.37794,0.317558,-0.12981,18,32765
1.35957,0.308382,-0.128296,17,32765
1.34115,0.299441,-0.126733,17,32765
1.36158,0.299168,-0.128785,17,32765
1.36257,0.294502,-0.129111,17,32765
1.36353,0.28985,-0.129534,17,32765
1.36449,0.28515,-0.129808,17,32765
1.34594,0.276442,-0.128191,17,32765
1.33709,0.269792,-0.127675,17,32765
1.32823,0.263227,-0.126971,17,32765
1.36819,0.266298,-0.130968,16,32765
1.3495,0.257884,-0.129415,16,32765
1.34056,0.251473,-0.128674,17,32765
1.33157,0.245132,-0.12818,16,32765
1.35195,0.244148,-0.130443,17,32765
1.34295,0.237848,-0.129672,17,32765
1.34372,0.233246,-0.130099,17,32765
1.36411,0.231954,-0.132325,17,32765
1.32559,0.220655,-0.128922,17,32765
1.3165,0.214465,-0.128209,17,32765
1.3172,0.209928,-0.128511,16,32765
1.29819,0.202349,-0.127071,16,32765
1.33824,0.203901,-0.130925,17,32765
1.33889,0.199262,-0.131456,17,32765
1.30014,0.188912,-0.127809,17,32765
1.35002,0.191456,-0.133046,16,32765
1.31119,0.181443,-0.129449,17,32765
1.32163,0.178379,-0.130709,17,32765
1.30247,0.171303,-0.128982,17,32765
1.30302,0.166855,-0.12925,16,32765
1.31343,0.163588,-0.130496,17,32765
1.30407,0.157875,-0.129867,16,32765
1.2947,0.152304,-0.129064,17,32765
1.2853,0.146804,-0.128299,17,32765
1.29564,0.143599,-0.129595,17,32765
1.26641,0.136056,-0.126825,17,32765
1.26684,0.131783,-0.127069,16,32765
1.29696,0.130459,-0.130287,17,32765
1.26766,0.123152,-0.127566,17,32765
1.27796,0.119789,-0.128732,17,32765
1.25852,0.113689,-0.126916,17,32765
1.24896,0.108573,-0.126136,16,32765
1.22948,0.10276,-0.124157,17,32765
1.23971,0.0994118,-0.125416,16,32765
1.26979,0.0975581,-0.128534,16,32765
1.27009,0.0932824,-0.128741,16,32765
1.28031,0.0897404,-0.129833,17,32765
1.25081,0.0834762,-0.126899,17,32765
1.25107,0.079258,-0.127029,17,32765
1.26126,0.0756781,-0.128085,16,32765
1.24163,0.0703219,-0.126141,17,32765
1.24184,0.0661719,-0.126325,17,32765
1.252,0.062538,-0.127223,17,32765
1.24225,0.0578756,-0.126351,17,32765
1.20269,0.0520108,-0.12224,17,32765
1.27243,0.0507699,-0.129357,17,32765
1.23282,0.045026,-0.125374,16,32765
1.22304,0.0405886,-0.124244,16,32765
1.26294,0.0377117,-0.128302,16,32765
1.25313,0.0333103,-0.127149,17,32765
1.23334,0.0286924,-0.12512,16,32765
1.26327,0.025145,-0.128129,16,32765
1.24347,0.0205557,-0.125925,16,32765
1.20374,0.0158836,-0.121884,16,32765
1.23365,0.012217,-0.124748,17,32765
1.24364,0.00826046,-0.12562,16,32765
1.23374,0.00413217,-0.12441,16,32765
1.22382,3.80496e-05,-0.123165,16,32765
1.22383,-0.00407424,-0.122945,16,32765
1.22385,-0.0080955,-0.122533,16,32765
1.27362,-0.0126305,-0.127029,16,32765
1.28357,-0.0169395,-0.127545,16,32765
1.54021,0.515802,-0.136347,15,32765
1.48506,0.491912,-0.132401,15,32765
1.52446,0.499387,-0.136887,16,32765
1.49757,0.485165,-0.135304,16,32765
1.46114,0.468028,-0.132762,15,32765
1.46263,0.463097,-0.133659,15,32765
1.43557,0.449284,-0.13187,15,32765
1.48456,0.459233,-0.137036,16,32765
1.43837,0.439765,-0.133398,16,32765
1.46833,0.443686,-0.136892,15,32765
1.44109,0.430306,-0.134937,15,32765
1.47111,0.433982,-0.138229,15,32765
1.39598,0.406777,-0.131841,15,32765
1.41643,0.407594,-0.134153,16,32765
1.45603,0.413724,-0.138595,16,32765
1.44778,0.406026,-0.138472,16,32765
1.42031,0.393137,-0.136197,15,32765
1.42158,0.388312,-0.136813,15,32765
1.44204,0.388719,-0.1393,16,32765
1.4144,0.376251,-0.137097,16,32765
1.42523,0.374046,-0.138562,16,32765
1.38787,0.359287,-0.13539,16,32765
1.39867,0.357055,-0.136881,16,32765
1.39983,0.352276,-0.137407,16,32765
1.3913,0.345133,-0.137027,16,32765
1.41177,0.345046,-0.139413,16,32765
1.37417,0.33093,-0.136134,16,32765
1.38493,0.328549,-0.137559,16,32765
1.38599,0.323869,-0.138021,17,32765
1.38701,0.319256,-0.138524,16,32765
1.36861,0.310215,-0.137045,16,32765
1.36958,0.305657,-0.137543,16,32765
1.39003,0.305258,-0.139805,16,32765
1.37157,0.296272,-0.138222,16,32765
1.38228,0.293602,-0.139604,16,32765
1.34429,0.280711,-0.136006,16,32765
1.37442,0.282187,-0.139413,16,32765
1.36557,0.275608,-0.138824,16,32765
1.34693,0.267082,-0.137283,15,32765
1.32826,0.258731,-0.135571,15,32765
1.34865,0.257911,-0.137898,16,32765
1.33971,0.251448,-0.137316,16,32765
1.37968,0.254055,-0.141548,16,32765
1.36092,0.245777,-0.140014,15,32765
1.34212,0.237708,-0.138228,15,32765
1.32328,0.229707,-0.136631,15,32765
1.33383,0.226927,-0.137851,15,32765
1.33456,0.222405,-0.138159,15,32765
1.33526,0.217866,-0.138584,16,32765
1.33598,0.213315,-0.138768,16,32765
1.3465,0.210236,-0.140143,16,32765
1.30785,0.199573,-0.136402,15,32765
1.29867,0.193577,-0.135591,15,32765
1.29929,0.189081,-0.135951,15,32765
1.30975,0.186062,-0.137201,15,32765
1.2611,0.174725,-0.132311,15,32765
1.26164,0.170453,-0.132662,15,32765
1.32138,0.173955,-0.138902,16,32765
1.30219,0.166898,-0.137275,15,32765
1.27311,0.158823,-0.134393,16,32765
1.30324,0.158071,-0.137728,16,32765
1.31362,0.154855,-0.139052,15,32765
1.28445,0.147053,-0.136202,15,32765
1.32445,0.147065,-0.140721,15,32765
1.35458,0.145758,-0.144069,16,32765
1.2957,0.13492,-0.138076,15,32765
1.29611,0.130544,-0.138369,15,32765
1.29652,0.126154,-0.1386,15,32765
1.29692,0.121754,-0.138837,15,32765
1.22797,0.111139,-0.131658,16,32765
1.25802,0.109519,-0.135269,15,32765
1.24845,0.104417,-0.134392,16,32765
1.24877,0.10017,-0.13468,15,32765
1.24908,0.0959182,-0.134928,16,32765
1.24937,0.0916882,-0.135127,16,32765
1.24965,0.0874409,-0.135359,16,32765
1.23007,0.0819293,-0.133451,16,32765
1.22038,0.0771613,-0.132709,16,32765
1.23054,0.0736388,-0.133956,16,32765
1.24067,0.0701175,-0.135341,16,32765
1.22103,0.0648552,-0.133385,16,32765
1.26092,0.0627603,-0.13796,16,32765
1.2313,0.0571815,-0.135033,16,32765
1.23145,0.0530436,-0.135306,16,32765
1.23158,0.0489407,-0.135662,16,32765
1.21185,0.0440738,-0.133702,16,32765
1.20203,0.0396639,-0.132875,16,32765
1.21206,0.035996,-0.134213,16,32765
1.26182,0.0332363,-0.140039,16,32765
1.2122,0.0279008,-0.134882,16,32765
1.21225,0.0238486,-0.135171,16,32765
1.22223,0.0199666,-0.136543,15,32765
1.22226,0.0158754,-0.136854,15,32765
1.18252,0.0114094,-0.132769,15,32765
1.19245,0.00762232,-0.134147,16,32765
1.17256,0.00360601,-0.132265,15,32765
1.21225,-0.000254094,-0.137286,15,32765
1.18241,-0.00412013,-0.134104,15,32765
1.18234,-0.0080068,-0.134542,15,32765
1.19219,-0.0119594,-0.136181,15,32765
1.1921,-0.0159172,-0.136542,16,32765
1.34967,0.453425,-0.132986,16,32765
1.35107,0.44895,-0.133963,17,32765
1.36192,0.447558,-0.135896,17,32765
1.3349,0.433838,-0.133929,17,32765
1.34573,0.432431,-0.135694,17,32765
1.29967,0.41281,-0.131714,16,32765
1.32946,0.417399,-0.135354,16,32765
1.32126,0.410019,-0.1351,16,32765
1.33206,0.408558,-0.136772,16,32765
1.30474,0.39551,-0.134592,16,32765
1.28691,0.385495,-0.133264,17,32765
1.29767,0.384039,-0.134791,17,32765
1.28932,0.376898,-0.134534,16,32765
1.30009,0.375313,-0.135996,16,32765
1.29171,0.368206,-0.135721,16,32765
1.29289,0.363749,-0.136426,17,32765
1.28449,0.356681,-0.135848,16,32765
1.26645,0.347046,-0.13437,16,32765
1.25795,0.340183,-0.13391,17,32765
1.25902,0.335992,-0.13443,17,32765
1.28895,0.339365,-0.137991,17,32765
1.2804,0.332531,-0.13749,17,32765
1.27183,0.32572,-0.136959,17,32765
1.22467,0.309189,-0.132232,17,32765
1.24496,0.309828,-0.134823,16,32765
1.25564,0.307877,-0.136299,16,32765
1.25663,0.303601,-0.136795,17,32765
1.27696,0.303915,-0.139329,17,32765
1.23921,0.290509,-0.135522,16,32765
1.23043,0.284136,-0.13491,16,32765
1.21194,0.275597,-0.133192,16,32765
1.22251,0.273722,-0.134703,16,32765
1.23312,0.271683,-0.136049,16,32765
1.21458,0.263215,-0.134237,16,32765
1.23489,0.263152,-0.136745,16,32765
1.21629,0.254816,-0.134895,16,32765
1.2171,0.250707,-0.135294,16,32765
1.20816,0.244639,-0.134566,16,32765
1.20894,0.240509,-0.134964,16,32765
1.21948,0.238324,-0.136308,16,32765
1.22025,0.234128,-0.136611,16,32765
1.20147,0.22625,-0.1348,16,32765
1.1729,0.216695,-0.131702,17,32765
1.18338,0.214425,-0.133212,16,32765
1.18407,0.210415,-0.133414,16,32765
1.18474,0.206347,-0.133792,16,32765
1.18541,0.202353,-0.133977,16,32765
1.16646,0.195044,-0.132033,16,32765
1.15727,0.189461,-0.131293,16,32765
1.15789,0.185505,-0.131452,16,32765
1.16831,0.183033,-0.132875,16,32765
1.14925,0.175969,-0.130951,16,32765
1.14001,0.170508,-0.130021,16,32765
1.17006,0.170858,-0.133707,16,32765
1.17061,0.166868,-0.133905,17,32765
1.15147,0.160088,-0.1319,16,32765
1.11258,0.150837,-0.1277,16,32765
1.15249,0.152251,-0.13224,17,32765
1.16281,0.149558,-0.133769,16,32765
1.16329,0.145634,-0.133987,16,32765
1.16376,0.141653,-0.134175,16,32765
1.15433,0.136564,-0.133285,16,32765
1.15476,0.132679,-0.133543,16,32765
1.1453,0.127632,-0.132685,16,32765
1.13583,0.122664,-0.131708,16,32765
1.11645,0.116682,-0.129691,16,32765
1.13658,0.114899,-0.132244,16,32765
1.12705,0.110073,-0.131294,16,32765
1.11751,0.105306,-0.130347,17,32765
