x, y, z, intensity, ring
5.83884,2.29643,0.269787,50,32765
5.79975,2.25931,0.26693,48,32765
5.78862,2.2329,0.264951,48,32765
5.84263,2.23181,0.265066,51,32765
5.83119,2.2058,0.263209,49,32765
5.90395,2.21127,0.264156,51,32765
5.90175,2.18866,0.262994,50,32765
5.90902,2.16907,0.261957,51,32765
5.93506,2.15621,0.261314,50,32765
5.95146,2.14026,0.261385,51,32765
5.93967,2.11404,0.259339,52,32765
5.96528,2.10167,0.259379,49,32765
5.9626,2.07926,0.257938,50,32765
5.98831,2.06614,0.258596,52,32765
5.99499,2.04677,0.257757,50,32765
5.99211,2.02426,0.256747,41,32765
5.95111,1.98947,0.254298,17,32765
5.92894,1.96122,0.252677,16,32765
6.02066,1.97013,0.256626,31,32765
6.09348,1.97243,0.259074,51,32765
6.06168,1.9407,0.257988,50,32765
6.1059,1.93357,0.259627,52,32765
6.09281,1.90841,0.260297,51,32765
4.65617,3.41461,0.429683,35,32765
4.65966,3.39352,0.424214,39,32765
4.64725,3.36026,0.417408,38,32765
4.62648,3.32136,0.410266,38,32765
4.67824,3.33522,0.409804,36,32765
4.66489,3.30286,0.403432,36,32765
4.69228,3.29913,0.401006,35,32765
4.7361,3.3066,0.399855,38,32765
4.74734,3.29088,0.396141,38,32765
4.75851,3.27521,0.392081,39,32765
4.76127,3.25398,0.387731,37,32765
4.77226,3.23818,0.3849,36,32765
4.77501,3.21676,0.380398,38,32765
4.82737,3.22864,0.380415,40,32765
4.8217,3.20159,0.375586,37,32765
4.8408,3.19123,0.372529,38,32765
4.87648,3.19182,0.371277,39,32765
4.86211,3.1594,0.366288,38,32765
4.86424,3.13813,0.362336,39,32765
4.9085,3.14348,0.361619,39,32765
4.92741,3.13278,0.358898,39,32765
4.87035,3.074,0.350898,35,32765
4.91438,3.07926,0.350898,38,32765
4.91603,3.05815,0.346916,40,32765
4.94332,3.05234,0.345202,36,32765
4.97914,3.05163,0.343918,40,32765
4.98948,3.03502,0.340932,39,32765
4.97408,3.00298,0.336109,39,32765
5.01839,3.0071,0.335697,37,32765
5.07994,3.02117,0.336401,41,32765
5.02981,2.96898,0.32973,39,32765
5.04839,2.95734,0.327866,41,32765
5.1275,2.98059,0.329284,41,32765
5.12026,2.95349,0.3259,41,32765
5.15624,2.9513,0.324865,44,32765
5.14013,2.91942,0.32014,41,32765
5.14112,2.89761,0.317632,40,32765
5.18586,2.8998,0.317011,45,32765
5.13461,2.84844,0.310699,40,32765
5.17939,2.85031,0.309927,41,32765
5.18017,2.82834,0.307181,45,32765
5.16318,2.79717,0.303047,41,32765
5.18127,2.78485,0.301841,26,32765
0,0,0,0,32765
5.13817,2.71765,0.293127,16,32765
5.2359,2.7467,0.295686,36,32765
5.29824,2.75691,0.297536,41,32765
5.25425,2.71191,0.291142,38,32765
5.29897,2.71255,0.290747,43,32765
5.29026,2.68585,0.28806,41,32765
5.33508,2.686,0.287722,44,32765
5.33522,2.66369,0.284751,39,32765
5.3531,2.65034,0.283526,41,32765
5.38902,2.64552,0.282461,42,32765
5.38906,2.62296,0.279589,40,32765
5.36201,2.58742,0.275056,41,32765
5.40676,2.58678,0.274762,42,32765
5.43351,2.57728,0.273982,43,32765
5.42412,2.55063,0.270592,44,32765
5.44169,2.5369,0.268685,42,32765
5.4774,2.53136,0.268141,43,32765
5.48584,2.51319,0.266503,43,32765
5.50332,2.49918,0.26457,42,32765
5.56642,2.5054,0.264668,48,32765
5.51099,2.45837,0.258873,44,32765
5.58309,2.4685,0.2602,45,32765
5.59144,2.44983,0.257408,42,32765
5.59048,2.42723,0.255227,46,32765
5.53452,2.38065,0.249837,42,32765
5.61619,2.39325,0.250669,45,32765
5.6059,2.36654,0.247968,45,32765
5.64151,2.35947,0.246257,44,32765
5.65861,2.34461,0.244516,41,32765
5.70335,2.3412,0.243964,45,32765
5.71117,2.32233,0.241322,43,32765
5.69109,2.2923,0.237567,43,32765
5.71726,2.28095,0.236132,43,32765
5.7249,2.26196,0.233707,42,32765
5.74169,2.24681,0.23186,44,32765
5.75843,2.23161,0.229816,42,32765
5.76582,2.21272,0.227171,43,32765
5.77313,2.19383,0.224642,42,32765
5.81784,2.18886,0.223701,48,32765
5.81571,2.16636,0.22029,41,32765
5.84157,2.15436,0.218341,44,32765
5.79225,2.11495,0.213899,41,32765
5.90252,2.13364,0.215043,45,32765
5.90952,2.11442,0.21254,46,32765
5.89776,2.08819,0.208476,45,32765
5.96136,2.08843,0.207557,45,32765
5.95869,2.06597,0.204585,47,32765
5.96527,2.04716,0.20207,47,32765
5.92445,2.01239,0.196902,40,32765
0,0,0,0,32765
5.89007,1.95839,0.189417,15,32765
5.9724,1.96441,0.188777,44,32765
6.01657,1.95825,0.187149,48,32765
6.00374,1.93329,0.183375,45,32765
6.07654,1.93576,0.181325,47,32765
6.05437,1.90687,0.17584,47,32765
6.13675,1.9117,0.174905,46,32765
4.6553,3.42216,0.375595,42,32765
4.6991,3.43044,0.373416,42,32765
4.70296,3.40868,0.36811,41,32765
4.69045,3.37533,0.361909,42,32765
4.72612,3.3774,0.359683,44,32765
4.75359,3.37369,0.356594,43,32765
4.77303,3.3639,0.3533,44,32765
4.77616,3.3425,0.348716,43,32765
4.75472,3.30383,0.342602,41,32765
4.79878,3.31077,0.340864,41,32765
4.80988,3.29499,0.337148,43,32765
4.821,3.27899,0.334282,43,32765
4.8487,3.27412,0.331526,43,32765
4.87636,3.2691,0.329339,43,32765
4.89575,3.25841,0.326317,45,32765
4.89004,3.23127,0.321462,44,32765
4.91748,3.22622,0.319349,45,32765
4.9116,3.19903,0.315146,42,32765
4.93062,3.1884,0.312311,43,32765
4.95823,3.18274,0.310119,46,32765
4.94357,3.15038,0.305185,45,32765
4.97096,3.14481,0.303064,45,32765
4.98139,3.1285,0.300593,44,32765
4.99167,3.1124,0.297158,45,32765
5.01064,3.10108,0.294708,45,32765
5.01256,3.07922,0.291119,45,32765
5.00593,3.05206,0.287129,45,32765
5.0675,3.06643,0.286926,46,32765
5.07776,3.04967,0.284167,45,32765
5.07079,3.02266,0.280475,46,32765
5.07225,3.0009,0.27728,45,32765
5.10816,2.99921,0.276228,46,32765
5.12698,2.9871,0.273631,47,32765
5.12842,2.96494,0.270887,46,32765
5.13843,2.9478,0.268204,48,32765
5.13966,2.92579,0.26466,44,32765
5.15807,2.91376,0.263129,46,32765
5.17672,2.90124,0.260802,47,32765
5.23899,2.91291,0.260796,48,32765
5.24023,2.8903,0.257437,46,32765
5.24115,2.86808,0.254754,45,32765
5.26818,2.86047,0.252974,48,32765
5.2601,2.83356,0.250379,41,32765
5.19912,2.77843,0.24385,25,32765
5.19084,2.75164,0.241003,21,32765
5.24445,2.75732,0.240566,24,32765
5.33341,2.78138,0.243059,46,32765
5.33387,2.75912,0.23919,47,32765
5.34318,2.74125,0.236804,47,32765
5.37909,2.737,0.236241,49,32765
5.37055,2.70983,0.233161,48,32765
5.38865,2.6963,0.23103,48,32765
5.41559,2.68718,0.23007,50,32765
5.4068,2.66008,0.226809,47,32765
5.43382,2.65055,0.225135,47,32765
5.45185,2.63653,0.222789,47,32765
5.44269,2.60966,0.219896,48,32765
5.46951,2.60002,0.218913,49,32765
5.51444,2.59875,0.217832,49,32765
5.50501,2.572,0.214728,49,32765
5.53176,2.56203,0.213526,49,32765
5.51306,2.53113,0.210826,49,32765
5.56698,2.53356,0.210158,48,32765
5.57552,2.51492,0.207624,49,32765
5.57486,2.49223,0.204485,48,32765
5.61966,2.49003,0.204135,49,32765
5.60977,2.46315,0.200667,49,32765
5.61802,2.44443,0.198894,48,32765
5.62637,2.42535,0.196389,49,32765
5.62546,2.40233,0.193578,48,32765
5.68883,2.40668,0.193563,50,32765
5.69691,2.38773,0.190599,47,32765
5.7418,2.38416,0.189653,50,32765
5.73119,2.35764,0.186882,50,32765
5.76683,2.34996,0.185115,51,32765
5.74684,2.31967,0.181613,51,32765
5.78237,2.31183,0.180254,51,32765
5.78082,2.28889,0.177513,49,32765
5.77907,2.26623,0.174983,49,32765
5.82382,2.26173,0.17366,50,32765
5.81264,2.23541,0.170434,50,32765
5.8387,2.22344,0.16842,50,32765
5.89286,2.22177,0.167337,53,32765
5.91892,2.20946,0.16476,52,32765
5.88865,2.1763,0.161034,49,32765
5.92388,2.16757,0.159408,51,32765
5.91212,2.14161,0.156226,50,32765
5.94737,2.13244,0.154449,52,32765
5.93565,2.10603,0.150548,50,32765
5.971,2.09621,0.148339,52,32765
5.99668,2.08352,0.146145,52,32765
6.0033,2.06454,0.143611,51,32765
6.0193,2.04891,0.14021,53,32765
5.9785,2.01372,0.13623,35,32765
5.95666,1.9847,0.132461,19,32765
5.85865,1.93105,0.127117,19,32765
6.05479,1.97483,0.128388,43,32765
6.07053,1.9589,0.125369,51,32765
6.07672,1.93989,0.121282,52,32765
6.09267,1.92297,0.116807,51,32765
6.14645,1.91876,0.114563,52,32765
4.65986,3.42246,0.310753,38,32765
4.65493,3.39548,0.308641,40,32765
4.69039,3.39773,0.309225,36,32765
4.70168,3.38221,0.308025,36,32765
4.705,3.36062,0.305366,38,32765
4.69981,3.33355,0.303452,37,32765
4.7679,3.35851,0.305236,39,32765
4.7545,3.32565,0.301523,38,32765
4.74099,3.29282,0.297929,39,32765
4.79323,3.30527,0.298473,40,32765
4.73825,3.24437,0.292383,37,32765
4.79861,3.26238,0.293826,38,32765
4.79289,3.23539,0.29071,40,32765
4.79531,3.21411,0.287887,40,32765
4.83929,3.22036,0.288085,39,32765
4.85001,3.20439,0.285837,39,32765
4.85224,3.18301,0.283342,41,32765
4.88792,3.18338,0.282645,42,32765
4.86502,3.14548,0.278362,39,32765
4.9009,3.14532,0.277522,41,32765
4.89462,3.11829,0.274021,37,32765
4.95576,3.134,0.274615,42,32765
4.93238,3.09637,0.270294,38,32765
4.96821,3.09577,0.269503,40,32765
4.96162,3.06868,0.26666,39,32765
4.99738,3.06802,0.265319,42,32765
4.98191,3.03607,0.261582,40,32765
5.03487,3.0453,0.261471,37,32765
5.01937,3.01317,0.257623,38,32765
5.07252,3.02184,0.257194,39,32765
5.02254,2.96924,0.251728,39,32765
5.06698,2.97273,0.251087,41,32765
5.0769,2.95599,0.248216,41,32765
5.12144,2.95904,0.24775,41,32765
5.07063,2.90733,0.242081,39,32765
5.09774,2.9004,0.240108,42,32765
5.12481,2.89333,0.238742,42,32765
5.14332,2.88104,0.236406,44,32765
5.17927,2.87834,0.235038,40,32765
5.22416,2.88,0.23386,42,32765
5.19005,2.83849,0.229618,40,32765
5.20836,2.82595,0.227728,40,32765
5.20024,2.79912,0.224711,33,32765
5.06843,2.70681,0.216251,18,32765
0,0,0,0,32765
5.18391,2.72402,0.215465,22,32765
5.29063,2.7574,0.216575,39,32765
5.25569,2.71649,0.21177,41,32765
5.3093,2.72168,0.211389,42,32765
5.33633,2.71292,0.209092,42,32765
5.33655,2.69051,0.206916,41,32765
5.35462,2.677,0.204362,42,32765
5.38171,2.66767,0.20196,46,32765
5.38173,2.6452,0.199667,45,32765
5.39965,2.63155,0.197131,42,32765
5.4355,2.6265,0.196173,43,32765
5.44424,2.60852,0.193524,41,32765
5.44408,2.58588,0.190126,44,32765
5.44371,2.56341,0.18801,44,32765
5.44335,2.5408,0.185523,42,32765
5.47003,2.53101,0.183563,41,32765
5.52387,2.53377,0.182469,44,32765
5.52318,2.51139,0.179876,45,32765
5.53159,2.49294,0.177962,42,32765
5.55813,2.48276,0.176513,42,32765
5.53894,2.45227,0.173461,42,32765
5.57456,2.44597,0.172066,45,32765
5.62856,2.44737,0.17126,43,32765
5.60914,2.41688,0.16851,47,32765
5.61723,2.39814,0.166499,45,32765
5.6346,2.38294,0.165103,46,32765
5.61495,2.35248,0.16207,44,32765
5.66901,2.35286,0.161173,43,32765
5.6398,2.31895,0.158621,44,32765
5.69376,2.31917,0.158153,45,32765
5.71978,2.30834,0.156863,47,32765
5.73661,2.29337,0.155511,47,32765
5.71624,2.26357,0.152899,41,32765
5.71438,2.24113,0.151121,40,32765
5.80567,2.25477,0.151936,41,32765
5.77571,2.22149,0.149244,44,32765
5.78307,2.20233,0.147896,46,32765
5.81837,2.1939,0.147479,42,32765
5.84435,2.18165,0.147027,45,32765
5.8422,2.15883,0.145167,49,32765
5.81171,2.12598,0.14255,43,32765
5.90321,2.1377,0.143905,46,32765
5.91952,2.12202,0.14276,46,32765
5.89812,2.0928,0.141287,42,32765
5.94265,2.08687,0.141226,46,32765
5.92113,2.0576,0.139186,44,32765
5.95622,2.04791,0.139532,46,32765
5.96278,2.02876,0.139372,45,32765
5.94088,1.99996,0.13769,24,32765
0,0,0,0,32765
5.94415,1.95859,0.136335,16,32765
6.01694,1.9612,0.137899,43,32765
6.03266,1.94518,0.137386,45,32765
6.05775,1.93236,0.138656,47,32765
6.06387,1.9131,0.138564,44,32765
6.08882,1.90023,0.140508,45,32765
4.66571,3.43584,0.257133,43,32765
4.66085,3.40878,0.255199,41,32765
4.66403,3.38753,0.253736,42,32765
4.72391,3.40712,0.255163,42,32765
4.71109,3.37377,0.251713,41,32765
4.75481,3.38135,0.252572,43,32765
4.78224,3.37736,0.251528,43,32765
4.77709,3.35011,0.248508,43,32765
4.79647,3.33997,0.246866,45,32765
4.81599,3.32952,0.245238,44,32765
4.82703,3.31365,0.243201,43,32765
4.82155,3.28638,0.240748,43,32765
4.83248,3.27044,0.23862,44,32765
4.87648,3.27685,0.237888,45,32765
4.87079,3.24956,0.235266,44,32765
4.88161,3.23345,0.232998,44,32765
4.8756,3.20642,0.230183,45,32765
4.92809,3.21764,0.22997,45,32765
4.92208,3.19038,0.226808,45,32765
4.9413,3.17921,0.22489,45,32765
4.95197,3.16274,0.222306,46,32765
4.97949,3.15688,0.220809,46,32765
4.98157,3.13505,0.217955,44,32765
4.97515,3.10781,0.215023,45,32765
5.01958,3.11222,0.214537,45,32765
5.02142,3.09041,0.211445,46,32765
5.01456,3.06352,0.208325,43,32765
5.0505,3.0623,0.207024,43,32765
5.05219,3.04034,0.204136,44,32765
5.07968,3.03354,0.202191,45,32765
5.15012,3.05213,0.202095,46,32765
5.11729,3.0096,0.198015,47,32765
5.1187,2.98761,0.194781,46,32765
5.16334,2.99052,0.193917,46,32765
5.11265,2.93856,0.188875,45,32765
5.19194,2.96118,0.188578,47,32765
5.20182,2.94393,0.186356,45,32765
5.21177,2.92645,0.183573,47,32765
5.20421,2.89919,0.180371,44,32765
5.2404,2.89593,0.178502,46,32765
5.26772,2.88791,0.176775,47,32765
5.25984,2.86075,0.173881,48,32765
5.26944,2.84318,0.171596,46,32765
5.26117,2.81648,0.168551,37,32765
5.19115,2.75674,0.163621,20,32765
5.20048,2.73925,0.161062,18,32765
5.27177,2.75414,0.160051,39,32765
5.36997,2.78217,0.159679,49,32765
5.33488,2.7413,0.156174,48,32765
5.39759,2.75059,0.154692,48,32765
5.38009,2.7189,0.152078,47,32765
5.38038,2.69625,0.148908,46,32765
5.39856,2.68236,0.146056,47,32765
5.41657,2.66862,0.144323,48,32765
5.44354,2.6592,0.141905,47,32765
5.45248,2.64092,0.139952,48,32765
5.49732,2.64015,0.138197,50,32765
5.4792,2.60868,0.134414,48,32765
5.49699,2.59458,0.132813,51,32765
5.5239,2.58444,0.131038,50,32765
5.50537,2.55332,0.127795,49,32765
5.53202,2.54345,0.125592,48,32765
5.54045,2.52513,0.123287,48,32765
5.54891,2.50658,0.121363,48,32765
5.56637,2.49223,0.11952,49,32765
5.57463,2.47382,0.117319,47,32765
5.64692,2.48347,0.116377,48,32765
5.60021,2.44069,0.113033,49,32765
5.61748,2.42609,0.111298,49,32765
5.644,2.41514,0.109637,50,32765
5.64301,2.39201,0.107783,51,32765
5.69714,2.39242,0.106402,50,32765
5.7144,2.37716,0.104325,51,32765
5.74074,2.36588,0.103129,51,32765
5.73005,2.33932,0.101013,49,32765
5.7654,2.33209,0.0996798,50,32765
5.7823,2.31694,0.0982167,50,32765
5.7899,2.29798,0.0963324,51,32765
5.78815,2.27525,0.0946238,50,32765
5.82365,2.26691,0.0936723,50,32765
5.83104,2.24788,0.0919353,50,32765
5.8385,2.2285,0.0905709,50,32765
5.84583,2.20925,0.0894275,50,32765
5.88122,2.20039,0.0889215,50,32765
5.91665,2.19128,0.0876968,52,32765
5.91443,2.16844,0.0858396,50,32765
5.94028,2.15597,0.085386,51,32765
5.93783,2.13337,0.0838693,52,32765
5.93531,2.11073,0.0829357,50,32765
5.97047,2.10134,0.0823591,49,32765
5.98678,2.08507,0.0811033,51,32765
5.98415,2.06211,0.0806495,52,32765
6.00023,2.04605,0.0806134,51,32765
6.00682,2.02666,0.0795801,44,32765
5.87107,1.95978,0.0769387,21,32765
5.91533,1.95341,0.077063,22,32765
6.03564,1.97164,0.0785833,30,32765
6.0514,1.95553,0.0779712,50,32765
6.09559,1.9487,0.0793002,52,32765
6.12084,1.9353,0.0794515,52,32765
6.15544,1.92521,0.081345,53,32765
4.60616,3.38013,0.276396,37,32765
4.65005,3.3882,0.273373,39,32765
4.63724,3.35522,0.267205,38,32765
4.71346,3.38653,0.26608,39,32765
4.65967,3.32472,0.258047,38,32765
4.66249,3.30386,0.253187,40,32765
4.76336,3.35184,0.25399,40,32765
4.74176,3.31332,0.248491,40,32765
4.7615,3.30275,0.244852,40,32765
4.77288,3.2866,0.2406,39,32765
4.75924,3.2538,0.235189,38,32765
4.81138,3.26625,0.233663,40,32765
4.79714,3.23405,0.229165,41,32765
4.7995,3.21288,0.224939,39,32765
4.88516,3.24678,0.224856,43,32765
4.86272,3.20851,0.219799,41,32765
4.83179,3.16485,0.21447,40,32765
4.87584,3.17072,0.212416,40,32765
4.90322,3.16546,0.209539,41,32765
4.87163,3.12242,0.204587,38,32765
4.90719,3.12265,0.202263,39,32765
4.91765,3.10634,0.199457,40,32765
4.96179,3.11149,0.197139,40,32765
4.97217,3.09509,0.193951,42,32765
5.00799,3.0944,0.191912,42,32765
4.99268,3.06226,0.188063,37,32765
4.99438,3.0405,0.184421,39,32765
5.0217,3.03418,0.182347,40,32765
5.03192,3.01737,0.179207,40,32765
5.0506,3.00578,0.176561,40,32765
5.10362,3.0145,0.175307,39,32765
5.06198,2.96719,0.170461,39,32765
5.08045,2.95554,0.168133,41,32765
5.14225,2.96867,0.16701,44,32765
5.11764,2.93138,0.163451,38,32765
5.14488,2.92416,0.160855,40,32765
5.15472,2.90694,0.158128,38,32765
5.16445,2.88978,0.155031,41,32765
5.19166,2.88215,0.153148,41,32765
5.20121,2.86502,0.150462,43,32765
5.19337,2.83787,0.147743,41,32765
5.22036,2.83026,0.145008,44,32765
5.17712,2.78421,0.141554,33,32765
0,0,0,0,32765
5.23096,2.76846,0.138075,17,32765
5.29346,2.77868,0.136469,25,32765
5.30292,2.76078,0.132376,44,32765
5.29425,2.73418,0.129377,41,32765
5.33914,2.73444,0.128202,41,32765
5.33951,2.71184,0.125046,45,32765
5.36663,2.70263,0.123161,43,32765
5.35789,2.67555,0.120582,42,32765
5.39368,2.67103,0.119188,44,32765
5.37571,2.63977,0.116256,43,32765
5.37554,2.61745,0.113924,41,32765
5.39341,2.60361,0.111469,42,32765
5.46534,2.61556,0.111587,50,32765
5.41104,2.56686,0.10934,42,32765
5.49207,2.58274,0.107434,48,32765
5.48261,2.55588,0.104871,45,32765
5.473,2.52919,0.101857,44,32765
5.46321,2.5027,0.0997731,43,32765
5.48976,2.49277,0.0974044,44,32765
5.49812,2.47437,0.0950857,45,32765
5.55208,2.47627,0.0940072,47,32765
5.53297,2.44549,0.0914472,42,32765
5.55039,2.43082,0.0888814,46,32765
5.62274,2.44009,0.0875358,45,32765
5.59416,2.40547,0.0844772,44,32765
5.62056,2.3947,0.0824044,45,32765
5.6562,2.38757,0.0805418,44,32765
5.65487,2.36502,0.0777968,44,32765
5.68125,2.35376,0.0752853,45,32765
5.7076,2.3424,0.0729722,45,32765
5.71536,2.32349,0.0707468,45,32765
5.72302,2.30463,0.0681054,44,32765
5.74932,2.29284,0.0657125,46,32765
5.70103,2.25196,0.0619788,42,32765
5.74583,2.24739,0.0598328,43,32765
5.78116,2.23937,0.0579448,44,32765
5.81656,2.23103,0.0556404,44,32765
5.79589,2.20111,0.0526805,45,32765
5.76553,2.16836,0.0494141,42,32765
5.85691,2.18101,0.0476687,43,32765
5.85448,2.15885,0.0452615,44,32765
5.87083,2.14337,0.0423245,44,32765
5.87785,2.12411,0.0395943,47,32765
5.86595,2.09814,0.0365444,43,32765
5.92009,2.09518,0.0337244,45,32765
5.92695,2.07575,0.0313937,48,32765
5.98092,2.07287,0.0279716,46,32765
5.97818,2.05017,0.0254048,46,32765
5.95631,2.02138,0.0221555,40,32765
5.91538,1.98634,0.0188143,19,32765
5.9691,1.98335,0.0156397,13,32765
5.96596,1.96102,0.0124372,14,32765
6.05773,1.96996,0.00888608,43,32765
6.02588,1.93847,0.00531542,46,32765
6.07009,1.93155,0.00152503,46,32765
6.05699,1.90666,-0.00191294,46,32765
6.12014,1.90577,-0.00606544,47,32765
4.68415,3.44669,0.226895,45,32765
4.68788,3.42502,0.221501,44,32765
4.70754,3.41531,0.217059,43,32765
4.71904,3.39972,0.212189,44,32765
4.69782,3.361,0.206319,41,32765
4.74147,3.36891,0.203255,43,32765
4.7445,3.34758,0.198849,43,32765
4.76381,3.33771,0.195411,43,32765
4.78362,3.32703,0.191652,45,32765
4.80329,3.31644,0.187694,44,32765
4.78975,3.28346,0.18253,42,32765
4.80064,3.26771,0.178967,42,32765
4.84437,3.27464,0.176867,42,32765
4.83856,3.24769,0.172393,42,32765
4.88269,3.25382,0.169985,44,32765
4.88529,3.23201,0.166148,43,32765
4.90458,3.22109,0.162929,45,32765
4.9153,3.20489,0.159356,44,32765
4.92599,3.18861,0.155725,45,32765
4.91972,3.16161,0.151999,45,32765
4.93011,3.14555,0.148592,44,32765
4.97441,3.15052,0.146764,45,32765
4.99329,3.13952,0.143294,46,32765
4.99526,3.11767,0.139842,46,32765
5.00565,3.10111,0.136804,45,32765
5.02443,3.08984,0.13414,46,32765
5.04328,3.07835,0.131009,46,32765
5.05362,3.06147,0.12828,45,32765
5.08107,3.05482,0.125537,46,32765
5.07409,3.02766,0.122143,44,32765
5.13577,3.04142,0.120604,46,32765
5.08561,2.98882,0.116097,45,32765
5.13869,2.99721,0.114427,48,32765
5.14869,2.98011,0.111578,48,32765
5.15014,2.95766,0.108935,47,32765
5.16008,2.94041,0.105769,47,32765
5.19608,2.93785,0.103549,46,32765
5.22335,2.93029,0.100756,46,32765
5.24195,2.91758,0.0984893,48,32765
5.22536,2.88574,0.0952922,46,32765
5.27897,2.89207,0.0938357,50,32765
5.27099,2.86506,0.0902525,49,32765
5.27189,2.84245,0.0880709,47,32765
5.26375,2.8154,0.0855699,36,32765
5.22894,2.77448,0.0825905,20,32765
5.34453,2.81265,0.0812239,19,32765
5.24771,2.73902,0.0755538,34,32765
5.33665,2.76311,0.0741207,49,32765
5.38162,2.76322,0.072549,49,32765
5.36427,2.73134,0.0692276,48,32765
5.39144,2.72203,0.0671389,49,32765
5.38277,2.6948,0.0647322,48,32765
5.3828,2.67239,0.0626252,47,32765
5.42763,2.67201,0.0606757,49,32765
5.43656,2.65385,0.0585086,49,32765
5.47255,2.64848,0.0561085,50,32765
5.48151,2.6299,0.0549151,51,32765
5.49051,2.6111,0.0539382,49,32765
5.49024,2.58837,0.0504791,50,32765
5.5261,2.58261,0.0484964,49,32765
5.5438,2.56833,0.0458691,50,32765
5.5614,2.55406,0.0441619,50,32765
5.56082,2.53135,0.0413491,49,32765
5.59665,2.525,0.0391869,50,32765
5.60512,2.50616,0.0372972,49,32765
5.59525,2.47918,0.035051,48,32765
5.61278,2.46426,0.0323559,48,32765
5.6302,2.4494,0.0300285,48,32765
5.65676,2.43843,0.0276063,49,32765
5.66486,2.41956,0.0252329,50,32765
5.70057,2.41226,0.023066,49,32765
5.70854,2.39338,0.0204227,48,32765
5.72577,2.37808,0.0176642,50,32765
5.75219,2.36654,0.0151386,50,32765
5.76928,2.35121,0.012912,50,32765
5.75847,2.32465,0.0102084,49,32765
5.76626,2.30528,0.00758255,51,32765
5.7645,2.28266,0.00443472,48,32765
5.80938,2.27787,0.00188025,48,32765
5.81684,2.25876,-0.000316401,48,32765
5.81494,2.23592,-0.00290427,50,32765
5.83167,2.22017,-0.00562174,49,32765
5.91366,2.22956,-0.00869963,52,32765
5.90215,2.20329,-0.0111627,50,32765
5.91855,2.18786,-0.0135409,51,32765
5.9162,2.16526,-0.0165563,50,32765
5.92327,2.14581,-0.0193116,51,32765
5.9585,2.13651,-0.022377,51,32765
5.96562,2.11651,-0.0255182,52,32765
6.01028,2.11013,-0.028047,54,32765
5.96042,2.07087,-0.0314461,49,32765
5.99549,2.06119,-0.0341294,53,32765
6.03046,2.05161,-0.0374623,52,32765
5.98014,2.01306,-0.0403128,41,32765
5.94853,1.98141,-0.0433748,19,32765
5.93587,1.95597,-0.0464016,15,32765
6.0561,1.97432,-0.0510245,32,32765
6.08136,1.96118,-0.0547355,51,32765
6.0875,1.94191,-0.0585739,51,32765
6.11256,1.92895,-0.0622253,53,32765
6.15664,1.92192,-0.0667761,50,32765
4.64664,3.41707,0.158917,38,32765
4.64988,3.39579,0.157465,40,32765
4.67735,3.39209,0.156443,39,32765
4.68857,3.37663,0.1551,40,32765
4.7163,3.37237,0.153961,39,32765
4.69485,3.33364,0.151179,39,32765
4.7302,3.3357,0.149867,38,32765
4.7002,3.29153,0.146824,39,32765
4.72748,3.28744,0.145858,39,32765
4.74686,3.27714,0.143245,38,32765
4.73313,3.24429,0.140474,37,32765
4.77705,3.25095,0.139734,39,32765
4.8128,3.25176,0.138283,39,32765
4.81529,3.23026,0.135664,39,32765
4.85946,3.23624,0.134297,42,32765
4.84507,3.20377,0.131219,38,32765
4.87222,3.19898,0.130098,41,32765
4.85752,3.16674,0.127204,40,32765
4.90988,3.17801,0.125576,40,32765
4.90371,3.15077,0.12324,41,32765
4.93104,3.14529,0.12058,41,32765
4.95009,3.13401,0.119141,42,32765
4.90153,3.07992,0.11492,41,32765
4.97131,3.10046,0.113416,41,32765
4.96485,3.07306,0.110235,43,32765
4.99207,3.06709,0.108352,42,32765
5.00225,3.05056,0.105929,40,32765
5.03801,3.04955,0.103779,42,32765
5.04816,3.03282,0.101171,42,32765
4.99829,2.97992,0.0975799,39,32765
5.05984,2.99385,0.0961778,43,32765
5.10442,2.99708,0.0940105,40,32765
5.07991,2.95983,0.0909907,41,32765
5.09846,2.94789,0.0880873,42,32765
5.12582,2.94053,0.0858646,40,32765
5.10107,2.9033,0.0829642,40,32765
5.17145,2.92115,0.0808609,40,32765
5.18127,2.90378,0.0779955,43,32765
5.1821,2.88183,0.0761408,43,32765
5.13052,2.83058,0.0718889,42,32765
5.22787,2.86114,0.070079,44,32765
5.19357,2.81966,0.0666731,45,32765
5.22074,2.81152,0.0642053,43,32765
5.20358,2.78009,0.0617203,19,32765
0,0,0,0,32765
5.21309,2.74093,0.0561328,18,32765
5.28431,2.75587,0.053447,38,32765
5.29359,2.73809,0.0490238,41,32765
5.32053,2.72949,0.0471534,41,32765
5.31187,2.70253,0.0443946,41,32765
5.34763,2.69838,0.041116,45,32765
5.36555,2.68503,0.0391703,45,32765
5.36568,2.66239,0.0362379,42,32765
5.39262,2.65303,0.0337995,43,32765
5.42862,2.64778,0.0312587,47,32765
5.41065,2.61612,0.0289904,43,32765
5.44639,2.61108,0.0260538,43,32765
5.43729,2.58373,0.0251032,44,32765
5.44593,2.5655,0.0224554,44,32765
5.48167,2.55995,0.0199645,45,32765
5.49031,2.54139,0.0177276,42,32765
5.47143,2.51069,0.0150479,44,32765
5.50729,2.50442,0.012585,44,32765
5.52465,2.49033,0.00994937,44,32765
5.533,2.47173,0.00735633,44,32765
5.55944,2.46151,0.00503809,47,32765
5.54005,2.43111,0.00283612,42,32765
5.60316,2.43653,0.000716704,48,32765
5.58366,2.40607,-0.0010559,46,32765
5.62865,2.40264,-0.00384071,43,32765
5.69194,2.4071,-0.0059463,46,32765
5.66297,2.37282,-0.00773514,43,32765
5.70784,2.36915,-0.0101366,46,32765
5.68791,2.33882,-0.012091,45,32765
5.68639,2.31611,-0.0138803,44,32765
5.69393,2.2975,-0.0156828,46,32765
5.74786,2.29737,-0.0175386,44,32765
5.74609,2.27475,-0.0190262,46,32765
5.79074,2.27053,-0.0207825,41,32765
5.77023,2.24053,-0.0231982,43,32765
5.77755,2.22158,-0.0248609,46,32765
5.83147,2.22055,-0.0261656,51,32765
5.82,2.19436,-0.0275812,42,32765
5.86459,2.18936,-0.029311,45,32765
5.83431,2.15597,-0.0313069,42,32765
5.86956,2.14702,-0.03216,44,32765
5.86718,2.12433,-0.0329073,45,32765
5.92119,2.1219,-0.0349184,46,32765
5.89043,2.08904,-0.0357915,44,32765
5.9444,2.08633,-0.0370128,49,32765
5.91328,2.05408,-0.0379415,45,32765
5.99545,2.06121,-0.039472,49,32765
5.93576,2.01943,-0.0391664,44,32765
5.96116,2.00676,-0.0400979,27,32765
0,0,-0,0,32765
5.92658,1.95233,-0.0413022,13,32765
6.04695,1.97033,-0.0417483,29,32765
6.04372,1.94786,-0.0422123,45,32765
6.07843,1.93786,-0.0419937,50,32765
6.11323,1.92736,-0.0425557,45,32765
6.10968,1.9053,-0.0413405,47,32765
4.69107,3.45998,0.106209,42,32765
4.71061,3.45032,0.105192,43,32765
4.72209,3.43464,0.103599,44,32765
4.73347,3.41898,0.102235,46,32765
4.72883,3.39124,0.100198,44,32765
4.74006,3.37558,0.0984527,44,32765
4.75104,3.36017,0.0963364,43,32765
4.74571,3.33307,0.0942317,43,32765
4.78133,3.33453,0.0932175,42,32765
4.81731,3.3354,0.0907807,43,32765
4.83675,3.32488,0.0888573,45,32765
4.82312,3.29175,0.0866598,43,32765
4.83416,3.27557,0.0844663,44,32765
4.85333,3.26511,0.0822029,45,32765
4.88928,3.26541,0.0803001,46,32765
4.88335,3.23828,0.0776133,45,32765
4.9106,3.23335,0.0762857,44,32765
4.92115,3.21733,0.0740246,44,32765
4.95687,3.21752,0.0716441,46,32765
4.95925,3.19546,0.069588,46,32765
4.92775,3.15206,0.0659098,44,32765
4.98059,3.1622,0.0648108,46,32765
4.99984,3.15053,0.0620592,46,32765
4.98504,3.11774,0.0588363,46,32765
5.02962,3.12187,0.0563984,47,32765
5.03146,3.09993,0.0540184,46,32765
5.03321,3.07801,0.0514816,45,32765
5.06905,3.07688,0.0490273,48,32765
5.07072,3.05484,0.0463182,47,32765
5.08963,3.0428,0.0439573,49,32765
5.09976,3.02583,0.0415235,48,32765
5.10133,3.00355,0.0386267,47,32765
5.12004,2.99145,0.0362819,48,32765
5.12138,2.96931,0.033142,47,32765
5.18347,2.98179,0.030921,47,32765
5.15888,2.94427,0.0283619,47,32765
5.16845,2.92747,0.0252647,47,32765
5.23059,2.93946,0.0226206,51,32765
5.21408,2.90755,0.0207671,46,32765
5.24136,2.89964,0.0174046,46,32765
5.26875,2.89139,0.0143958,49,32765
5.26093,2.86402,0.0114869,48,32765
5.27064,2.84612,0.00876128,49,32765
5.28887,2.83335,0.00657413,43,32765
5.19224,2.75954,0.00277252,23,32765
5.21026,2.74688,0.00096161,22,32765
5.24601,2.74332,-0.00236812,30,32765
5.33511,2.76706,-0.00686819,47,32765
5.33547,2.74457,-0.00890348,48,32765
5.38031,2.74476,-0.0116036,50,32765
5.38942,2.72682,-0.015139,49,32765
5.41636,2.71778,-0.0172284,49,32765
5.4166,2.69491,-0.0201003,48,32765
5.38983,2.65881,-0.0225314,47,32765
5.4438,2.66234,-0.025442,47,32765
5.45289,2.64363,-0.0275774,48,32765
5.47067,2.62977,-0.0307237,49,32765
5.47068,2.60658,-0.0315486,47,32765
5.47939,2.58818,-0.0342184,48,32765
5.53331,2.59099,-0.0371336,48,32765
5.53298,2.56799,-0.0393328,47,32765
5.53237,2.54544,-0.0418946,48,32765
5.57742,2.54309,-0.0447456,49,32765
5.58578,2.52461,-0.0474368,48,32765
5.62162,2.51802,-0.050309,50,32765
5.62078,2.49531,-0.0526011,51,32765
5.59237,2.4606,-0.0544619,46,32765
5.61888,2.44987,-0.056799,49,32765
5.64533,2.43911,-0.0587782,49,32765
5.64445,2.41579,-0.0614737,47,32765
5.70776,2.4202,-0.0641533,49,32765
5.67885,2.38579,-0.065577,47,32765
5.7422,2.38973,-0.0685861,50,32765
5.73159,2.36302,-0.0703897,49,32765
5.73942,2.3439,-0.0722206,49,32765
5.75632,2.32881,-0.0741642,48,32765
5.77321,2.31359,-0.0760243,49,32765
5.77149,2.29084,-0.0774295,49,32765
5.80688,2.28286,-0.0794461,48,32765
5.79573,2.25637,-0.0817233,49,32765
5.81243,2.24088,-0.0835321,51,32765
5.83838,2.22904,-0.0849102,51,32765
5.84566,2.20983,-0.086421,50,32765
5.85282,2.19071,-0.0879748,51,32765
5.85069,2.1677,-0.090028,49,32765
5.9423,2.17933,-0.092042,51,32765
5.94003,2.15634,-0.0927098,51,32765
5.95649,2.14014,-0.0946188,51,32765
5.9635,2.12048,-0.0957321,51,32765
5.98926,2.10757,-0.096981,52,32765
5.98656,2.08496,-0.0980107,52,32765
6.03099,2.07884,-0.0996851,53,32765
6.03764,2.05944,-0.0998219,53,32765
6.0158,2.03042,-0.100171,48,32765
6.00344,2.00436,-0.100765,29,32765
5.9909,1.97864,-0.101088,15,32765
5.95927,1.94679,-0.100108,18,32765
6.07014,1.96144,-0.1024,49,32765
6.09539,1.94829,-0.102306,52,32765
6.13022,1.93771,-0.103155,53,32765
6.11718,1.91255,-0.101688,51,32765
4.65668,3.4216,0.127937,40,32765
4.66805,3.40627,0.12244,42,32765
4.67932,3.39094,0.117661,39,32765
4.6501,3.34619,0.111736,41,32765
4.68561,3.34828,0.108199,42,32765
4.72949,3.35576,0.10394,42,32765
4.72436,3.32849,0.0997776,40,32765
4.73546,3.31282,0.0952218,40,32765
4.75474,3.30277,0.0910638,37,32765
4.73261,3.26456,0.0869977,39,32765
4.77626,3.27176,0.0837554,41,32765
4.79529,3.26171,0.0799835,40,32765
4.81428,3.25162,0.0759026,40,32765
4.82545,3.2351,0.0722448,41,32765
4.80301,3.19678,0.0679484,41,32765
4.84718,3.20261,0.0649129,38,32765
4.9079,3.21957,0.0618491,42,32765
4.87647,3.17633,0.0579316,40,32765
4.92057,3.18192,0.0549612,42,32765
4.92256,3.16042,0.0515473,40,32765
4.90789,3.12773,0.0477583,42,32765
4.92679,3.11668,0.0442552,41,32765
4.95413,3.11086,0.0413406,39,32765
4.95598,3.08907,0.0381156,42,32765
4.99161,3.08861,0.0348125,42,32765
5.01035,3.0773,0.0316446,43,32765
4.99491,3.04508,0.028492,41,32765
5.03069,3.044,0.0254403,45,32765
5.04092,3.02705,0.022346,44,32765
5.05104,3.01015,0.0190606,44,32765
5.04395,2.98294,0.0159835,40,32765
5.07124,2.97604,0.0131959,44,32765
5.1502,2.99949,0.0102834,46,32765
5.06485,2.92741,0.00699165,37,32765
5.10921,2.93054,0.00399341,42,32765
5.13639,2.92329,0.00142971,45,32765
5.13751,2.90103,-0.00167122,43,32765
5.14735,2.88353,-0.00393027,44,32765
5.21826,2.9001,-0.00687738,45,32765
5.22781,2.88284,-0.00952351,45,32765
5.22867,2.86049,-0.0122531,44,32765
5.24691,2.84791,-0.0148622,43,32765
5.22997,2.81615,-0.017521,41,32765
5.16002,2.75613,-0.0201417,26,32765
5.21336,2.76232,-0.0222588,20,32765
5.17832,2.72157,-0.0248536,18,32765
5.2582,2.74142,-0.0293972,40,32765
5.31169,2.74687,-0.0318695,46,32765
5.3743,2.75631,-0.034942,43,32765
5.32116,2.70643,-0.0377256,42,32765
5.32148,2.68363,-0.0402767,41,32765
5.36641,2.68325,-0.0429993,45,32765
5.33965,2.64721,-0.0448853,41,32765
5.40242,2.65555,-0.0482153,45,32765
5.40218,2.63323,-0.0514969,43,32765
5.44695,2.63253,-0.0551241,47,32765
5.47374,2.62293,-0.0573831,44,32765
5.45553,2.59139,-0.0590563,44,32765
5.47341,2.57699,-0.058243,42,32765
5.4548,2.54595,-0.0610384,40,32765
5.49058,2.54009,-0.0634963,44,32765
5.56273,2.55068,-0.0666484,43,32765
5.58032,2.53615,-0.0693834,48,32765
5.60706,2.52549,-0.072394,44,32765
5.56978,2.48636,-0.0744157,46,32765
5.55973,2.45967,-0.0763349,43,32765
5.6321,2.46894,-0.079533,47,32765
5.63107,2.4462,-0.0821148,46,32765
5.63924,2.42721,-0.0848422,43,32765
5.61965,2.39666,-0.0871431,44,32765
5.63682,2.38171,-0.090175,46,32765
5.64478,2.36269,-0.0923414,44,32765
5.68033,2.35525,-0.0955837,42,32765
5.70669,2.34367,-0.0986863,43,32765
5.72372,2.32833,-0.101427,46,32765
5.74064,2.31307,-0.104026,46,32765
5.72967,2.28655,-0.106849,43,32765
5.75564,2.27524,-0.109499,46,32765
5.80037,2.27062,-0.113365,44,32765
5.77039,2.23728,-0.115288,43,32765
5.75896,2.2112,-0.118094,44,32765
5.82227,2.21344,-0.121753,43,32765
5.86693,2.20825,-0.125333,44,32765
5.8273,2.17136,-0.126998,42,32765
5.84369,2.15573,-0.130502,43,32765
5.87889,2.14671,-0.133833,45,32765
5.91409,2.13746,-0.137631,46,32765
5.91148,2.11498,-0.140141,46,32765
5.8995,2.08879,-0.142805,42,32765
5.88729,2.06309,-0.145262,40,32765
5.94109,2.06038,-0.149602,44,32765
5.95708,2.04444,-0.153048,46,32765
5.93506,2.01587,-0.155437,44,32765
5.91302,1.98715,-0.158385,26,32765
0,0,-0,0,32765
6.02043,1.98038,-0.16752,15,32765
5.96961,1.94252,-0.169604,31,32765
6.06116,1.9515,-0.175914,46,32765
6.03856,1.92339,-0.178968,45,32765
6.06362,1.91009,-0.183619,47,32765
6.12687,1.90834,-0.189845,47,32765
4.66859,3.44075,0.0743193,43,32765
4.71227,3.44896,0.0692742,43,32765
4.73175,3.43932,0.0645516,45,32765
4.74324,3.42354,0.0595376,45,32765
4.74645,3.40202,0.0552508,46,32765
4.74973,3.3803,0.0501154,45,32765
4.77735,3.37598,0.0464325,42,32765
4.79678,3.36583,0.0418885,45,32765
4.79159,3.33839,0.0373807,45,32765
4.82716,3.3398,0.0340587,45,32765
4.83805,3.32404,0.0301532,44,32765
4.84071,3.30249,0.0261399,43,32765
4.86809,3.29782,0.0219549,44,32765
4.89601,3.29223,0.0183097,45,32765
4.86546,3.24802,0.0142979,45,32765
4.89309,3.2426,0.0107988,47,32765
4.92882,3.24294,0.00709578,48,32765
4.91424,3.21047,0.00363489,47,32765
4.92486,3.19416,0.000255479,46,32765
4.96052,3.19425,-0.00309679,46,32765
4.94598,3.16136,-0.00664097,45,32765
4.9903,3.16621,-0.0103256,46,32765
5.00086,3.1495,-0.0134287,46,32765
5.01981,3.1381,-0.0166542,47,32765
5.01308,3.11105,-0.0201195,48,32765
5.01485,3.08914,-0.023323,47,32765
5.05066,3.08813,-0.026474,48,32765
5.06945,3.07647,-0.0297488,48,32765
5.07978,3.05935,-0.0328745,48,32765
5.09001,3.04227,-0.0361928,48,32765
5.07443,3.00976,-0.0390476,46,32765
5.11903,3.01287,-0.0421888,47,32765
5.12897,2.99586,-0.0452754,47,32765
5.13019,2.97383,-0.0483484,46,32765
5.19201,2.98672,-0.0519402,48,32765
5.20199,2.96925,-0.0545577,49,32765
5.19456,2.94179,-0.0575157,46,32765
5.21327,2.92894,-0.0599073,47,32765
5.1882,2.89176,-0.0623975,47,32765
5.25898,2.90843,-0.0658017,49,32765
5.26869,2.89073,-0.0685753,49,32765
5.25189,2.85885,-0.0708308,47,32765
5.26139,2.84125,-0.0735877,47,32765
5.29735,2.83765,-0.0769267,47,32765
5.28912,2.81053,-0.0786507,27,32765
5.22773,2.75544,-0.080417,25,32765
5.25449,2.74738,-0.0848964,24,32765
5.32572,2.76204,-0.0881355,46,32765
5.37056,2.7623,-0.0914806,48,32765
5.37982,2.74412,-0.094711,49,32765
5.37135,2.71655,-0.0970429,48,32765
5.40742,2.71151,-0.100004,49,32765
5.43451,2.70194,-0.102553,49,32765
5.43464,2.67902,-0.105286,48,32765
5.43447,2.65654,-0.1085,47,32765
5.46129,2.647,-0.112158,49,32765
5.4701,2.62866,-0.11424,49,32765
5.48803,2.61426,-0.116403,50,32765
5.50602,2.59971,-0.115684,48,32765
5.49654,2.57272,-0.118418,49,32765
5.50519,2.55407,-0.120584,48,32765
5.55918,2.55628,-0.123999,48,32765
5.57678,2.54172,-0.126832,49,32765
5.59441,2.52693,-0.129823,49,32765
5.62103,2.51634,-0.132886,48,32765
5.61109,2.48941,-0.134644,47,32765
5.63775,2.4784,-0.13741,50,32765
5.65508,2.46358,-0.140361,49,32765
5.65413,2.4405,-0.142874,48,32765
5.65298,2.41769,-0.14538,49,32765
5.71622,2.42209,-0.149734,51,32765
5.72432,2.40274,-0.151936,51,32765
5.71382,2.37582,-0.154259,51,32765
5.74948,2.36791,-0.157825,50,32765
5.74806,2.34483,-0.160168,49,32765
5.8021,2.34444,-0.163924,51,32765
5.79123,2.31765,-0.166599,49,32765
5.78941,2.29505,-0.168654,51,32765
5.78764,2.27204,-0.17154,49,32765
5.79494,2.25315,-0.174208,49,32765
5.85819,2.25565,-0.179127,49,32765
5.8749,2.23976,-0.18195,50,32765
5.89156,2.2238,-0.185055,50,32765
5.89882,2.20423,-0.187758,50,32765
5.93404,2.19526,-0.192007,52,32765
5.9318,2.17217,-0.194435,52,32765
5.95766,2.15931,-0.198236,51,32765
5.9363,2.12988,-0.200043,52,32765
5.97146,2.12027,-0.204147,51,32765
5.9782,2.1009,-0.207111,50,32765
6.0132,2.09132,-0.211309,51,32765
6.01982,2.07186,-0.214556,50,32765
6.00735,2.04624,-0.217043,52,32765
6.01381,2.02679,-0.220803,47,32765
6.04859,2.01704,-0.224876,24,32765
6.02648,1.98804,-0.227415,20,32765
5.99469,1.95627,-0.229671,21,32765
6.08621,1.96519,-0.236847,47,32765
6.0922,1.94606,-0.240768,52,32765
6.13635,1.93858,-0.246413,51,32765
6.17102,1.92766,-0.252091,53,32765
4.62105,3.40491,0.00825565,43,32765
4.68895,3.43071,0.00697396,38,32765
4.65977,3.38588,0.0052643,39,32765
4.67059,3.37094,0.00331637,37,32765
4.72245,3.38446,0.00160152,37,32765
4.67683,3.3279,-0.000418575,37,32765
4.70421,3.32386,-0.0022696,42,32765
4.74796,3.3312,-0.00459189,40,32765
4.75874,3.31578,-0.00678077,42,32765
4.77785,3.30578,-0.00848363,44,32765
4.81337,3.30711,-0.0111696,42,32765
4.80772,3.27995,-0.0130246,42,32765
4.81875,3.26371,-0.0163669,42,32765
4.79659,3.22503,-0.018408,44,32765
4.84089,3.23075,-0.0205764,42,32765
4.86014,3.21984,-0.0233528,44,32765
4.86236,3.19831,-0.0257608,41,32765
4.88127,3.18767,-0.0284227,41,32765
4.91698,3.18778,-0.0314577,41,32765
4.91078,3.16049,-0.0339468,40,32765
4.94657,3.16022,-0.0365676,42,32765
4.9149,3.11684,-0.0386127,42,32765
4.95904,3.12181,-0.041858,45,32765
4.96083,3.10012,-0.043593,46,32765
5.0136,3.10992,-0.0467064,46,32765
5.00694,3.08262,-0.0493634,41,32765
5.00871,3.06057,-0.0515676,44,32765
5.03609,3.054,-0.0544323,42,32765
4.99488,3.00613,-0.0570036,41,32765
5.03928,3.0098,-0.0602396,42,32765
5.08371,3.01329,-0.0632588,44,32765
5.13692,3.02146,-0.0664007,40,32765
5.07801,2.96372,-0.0679777,41,32765
5.08795,2.94655,-0.0706783,41,32765
5.13255,2.94922,-0.0739965,41,32765
5.12502,2.92202,-0.0768385,44,32765
5.16079,2.91973,-0.079772,42,32765
5.19664,2.91713,-0.082869,43,32765
5.22374,2.90956,-0.0859959,47,32765
5.18968,2.86781,-0.0884145,42,32765
5.2168,2.85992,-0.0911315,45,32765
5.20873,2.83289,-0.0938764,42,32765
5.26233,2.8388,-0.0972318,43,32765
5.21018,2.78789,-0.0987241,33,32765
5.04285,2.67659,-0.0980289,17,32765
5.19337,2.73406,-0.103392,18,32765
5.24678,2.73973,-0.107794,26,32765
5.29142,2.74046,-0.111195,41,32765
5.32731,2.73622,-0.114149,45,32765
5.34539,2.72269,-0.117451,44,32765
5.33674,2.69543,-0.119432,41,32765
5.37256,2.69081,-0.123231,43,32765
5.38153,2.6727,-0.126089,46,32765
5.39048,2.65449,-0.128504,43,32765
5.41733,2.645,-0.131916,46,32765
5.41713,2.62239,-0.134577,44,32765
5.42583,2.60423,-0.136923,43,32765
5.47054,2.60328,-0.140341,46,32765
5.452,2.57225,-0.142035,46,32765
5.4967,2.57097,-0.145771,44,32765
5.47808,2.53972,-0.148566,43,32765
5.52296,2.53782,-0.150935,46,32765
5.49516,2.50231,-0.152436,44,32765
5.51255,2.48797,-0.155773,44,32765
5.53922,2.47725,-0.158459,42,32765
5.56576,2.46665,-0.161369,45,32765
5.60127,2.46027,-0.164906,47,32765
5.60023,2.43755,-0.166982,42,32765
5.60818,2.41905,-0.169218,44,32765
5.65304,2.41574,-0.172616,45,32765
5.64265,2.38894,-0.174229,45,32765
5.65048,2.37022,-0.176347,43,32765
5.64902,2.34759,-0.178362,44,32765
5.67508,2.33674,-0.180872,46,32765
5.71048,2.32925,-0.184003,43,32765
5.73657,2.31798,-0.186471,43,32765
5.79059,2.31748,-0.189747,44,32765
5.74248,2.27605,-0.189614,45,32765
5.81503,2.28266,-0.193491,46,32765
5.82257,2.26317,-0.195598,46,32765
5.82055,2.2405,-0.197335,45,32765
5.8465,2.22852,-0.19949,45,32765
5.8818,2.21984,-0.202095,43,32765
5.79527,2.16583,-0.200297,44,32765
5.87734,2.17438,-0.204589,46,32765
5.82812,2.13433,-0.204494,46,32765
5.93846,2.1525,-0.209305,48,32765
5.94547,2.13294,-0.210636,45,32765
5.91475,2.09997,-0.210409,46,32765
5.95932,2.09365,-0.213446,46,32765
5.98496,2.08074,-0.215404,47,32765
6.00111,2.06452,-0.216679,49,32765
6.00775,2.04504,-0.21729,49,32765
5.95742,2.00663,-0.215974,39,32765
6.06822,2.02183,-0.221222,15,32765
5.97974,1.97105,-0.218349,18,32765
5.88145,1.91793,-0.21486,18,32765
6.08722,1.96374,-0.222435,44,32765
6.05535,1.93223,-0.220844,48,32765
6.05217,1.90917,-0.221005,45,32765
6.12504,1.91062,-0.223194,47,32765
4.69598,3.47149,-0.0459256,48,32765
4.66732,3.42608,-0.0469179,44,32765
4.69475,3.42244,-0.0487513,45,32765
4.72999,3.42494,-0.0509849,46,32765
4.73329,3.40325,-0.0526546,47,32765
4.74477,3.38719,-0.0546939,44,32765
4.76419,3.37712,-0.0566702,45,32765
4.7672,3.35549,-0.0588982,45,32765
4.79445,3.35141,-0.0613146,46,32765
4.81369,3.34126,-0.0631322,46,32765
4.84106,3.33679,-0.0660141,45,32765
4.84379,3.31511,-0.0678182,47,32765
4.81358,3.27061,-0.0705884,46,32765
4.87438,3.28777,-0.0735137,48,32765
4.88564,3.27097,-0.0755827,45,32765
4.88003,3.24327,-0.0780868,46,32765
4.90738,3.23814,-0.0808328,46,32765
4.92642,3.22731,-0.0836209,47,32765
4.92031,3.2,-0.0862362,47,32765
4.93097,3.18348,-0.0888521,45,32765
4.97524,3.18852,-0.0919267,45,32765
4.98589,3.17177,-0.0943259,46,32765
5.00482,3.16049,-0.0975015,47,32765
4.99828,3.13327,-0.0990004,44,32765
5.05112,3.14296,-0.102609,48,32765
5.03607,3.11021,-0.104932,48,32765
5.09762,3.12458,-0.108333,48,32765
5.04832,3.07092,-0.109768,46,32765
5.11848,3.09007,-0.11428,47,32765
5.08593,3.04707,-0.116204,48,32765
5.08749,3.02486,-0.118627,45,32765
5.08903,3.00254,-0.121017,45,32765
5.1164,2.99533,-0.123921,46,32765
5.1178,2.97297,-0.126437,47,32765
5.18844,2.9905,-0.130808,48,32765
5.18106,2.96305,-0.133505,46,32765
5.19085,2.94575,-0.13607,46,32765
5.16579,2.9087,-0.137844,46,32765
5.24521,2.93046,-0.142572,50,32765
5.24622,2.90792,-0.145514,48,32765
5.24719,2.88536,-0.147712,49,32765
5.29186,2.88688,-0.151806,49,32765
5.31044,2.87348,-0.154653,48,32765
5.31131,2.85065,-0.157086,50,32765
5.2767,2.80922,-0.158559,35,32765
5.26842,2.782,-0.16069,23,32765
5.27766,2.76423,-0.164239,20,32765
5.29574,2.75101,-0.167197,36,32765
5.35829,2.76048,-0.171293,49,32765
5.37644,2.74681,-0.174714,49,32765
5.40356,2.73744,-0.177702,49,32765
5.42163,2.7236,-0.181231,49,32765
5.40386,2.69191,-0.183213,48,32765
5.43975,2.68685,-0.186567,49,32765
5.43976,2.66397,-0.189263,47,32765
5.45761,2.64996,-0.192483,48,32765
5.4574,2.62728,-0.194533,47,32765
5.50215,2.62621,-0.198347,49,32765
5.4837,2.59499,-0.199781,48,32765
5.49226,2.57662,-0.202579,48,32765
5.51897,2.56638,-0.206795,49,32765
5.54577,2.55596,-0.208871,49,32765
5.54533,2.53274,-0.211053,48,32765
5.58101,2.52644,-0.215221,48,32765
5.6078,2.51545,-0.218127,48,32765
5.62532,2.50052,-0.220902,49,32765
5.64262,2.48587,-0.224029,51,32765
5.63251,2.45895,-0.225668,48,32765
5.66804,2.4522,-0.229035,50,32765
5.62114,2.40931,-0.229095,47,32765
5.68432,2.41379,-0.233538,50,32765
5.72907,2.41038,-0.237203,49,32765
5.75541,2.39897,-0.240318,52,32765
5.73545,2.36866,-0.241116,51,32765
5.77094,2.36095,-0.244558,50,32765
5.76007,2.33444,-0.245659,50,32765
5.79556,2.3264,-0.248621,50,32765
5.77538,2.29593,-0.249136,51,32765
5.84795,2.30244,-0.253684,50,32765
5.82763,2.2719,-0.254589,51,32765
5.82564,2.24916,-0.25624,51,32765
5.87961,2.24783,-0.259826,52,32765
5.83086,2.20718,-0.258992,49,32765
5.89405,2.20932,-0.262927,50,32765
5.92,2.1967,-0.265483,53,32765
5.94592,2.18396,-0.268229,52,32765
5.9343,2.1574,-0.268577,53,32765
5.97893,2.15133,-0.27162,53,32765
5.97654,2.12823,-0.272317,51,32765
5.9929,2.11173,-0.274456,52,32765
6.02803,2.10196,-0.277049,53,32765
6.01592,2.07577,-0.277124,52,32765
6.03206,2.05943,-0.278177,52,32765
6.01969,2.03364,-0.278056,52,32765
6.0168,2.01066,-0.279083,38,32765
5.99475,1.98188,-0.278354,21,32765
6.09598,1.9938,-0.283098,19,32765
6.03573,1.95292,-0.2803,38,32765
6.12757,1.96108,-0.284074,54,32765
6.14354,1.94374,-0.285036,53,32765
6.12115,1.91507,-0.283468,52,32765
4.63797,3.41561,-0.0208653,39,32765
4.64127,3.39417,-0.02651,40,32765
4.66042,3.38484,-0.0316185,39,32765
4.67157,3.36938,-0.0364708,41,32765
4.69884,3.36565,-0.0409317,42,32765
4.69366,3.33842,-0.045817,42,32765
4.73742,3.34579,-0.050543,45,32765
4.73217,3.31843,-0.0545168,44,32765
4.79231,3.33703,-0.0596818,42,32765
4.7702,3.29866,-0.0637741,40,32765
4.78089,3.28307,-0.0676349,43,32765
4.77514,3.25597,-0.0714594,42,32765
4.84397,3.27913,-0.0759565,46,32765
4.83031,3.24562,-0.0799848,45,32765
4.87444,3.2515,-0.0847287,45,32765
4.85189,3.21307,-0.0881096,40,32765
4.89592,3.21885,-0.092711,45,32765
4.89798,3.19735,-0.0958935,41,32765
4.90841,3.18121,-0.0996466,41,32765
4.94403,3.18122,-0.103782,41,32765
4.95437,3.16498,-0.107451,41,32765
4.93955,3.13226,-0.110768,40,32765
4.8906,3.0786,-0.112562,39,32765
4.94327,3.08856,-0.117379,37,32765
4.9959,3.0985,-0.121043,44,32765
4.98062,3.06601,-0.124523,41,32765
5.01637,3.06496,-0.128292,44,32765
5.00939,3.0378,-0.131903,40,32765
5.06241,3.04656,-0.136406,40,32765
5.05537,3.0193,-0.138606,43,32765
5.09982,3.02263,-0.142881,43,32765
5.084,2.99029,-0.145496,44,32765
5.11978,2.98839,-0.149258,42,32765
5.1297,2.97118,-0.152374,42,32765
5.13953,2.95399,-0.155336,42,32765
5.07995,2.89693,-0.156458,40,32765
5.1244,2.89944,-0.160784,43,32765
5.16891,2.90174,-0.164728,43,32765
5.18725,2.88923,-0.168335,41,32765
5.223,2.88645,-0.17199,45,32765
5.22377,2.86416,-0.174385,43,32765
5.21561,2.8372,-0.176925,41,32765
5.24246,2.82944,-0.180272,44,32765
5.2342,2.80243,-0.182216,41,32765
5.13744,2.7288,-0.181072,19,32765
5.12876,2.70226,-0.18324,16,32765
5.28838,2.76356,-0.191611,18,32765
5.33318,2.7639,-0.195268,44,32765
5.34256,2.74554,-0.198046,44,32765
5.32508,2.71368,-0.199598,43,32765
5.35213,2.70436,-0.202942,45,32765
5.40587,2.7085,-0.207563,47,32765
5.37018,2.66789,-0.208823,42,32765
5.41493,2.66737,-0.212813,47,32765
5.38782,2.63165,-0.214105,44,32765
5.39661,2.61336,-0.216696,42,32765
5.4864,2.634,-0.22263,48,32765
5.45008,2.59398,-0.222423,47,32765
5.44062,2.56704,-0.224462,48,32765
5.49431,2.56998,-0.229385,48,32765
5.53002,2.56406,-0.233457,46,32765
5.5295,2.54114,-0.235292,44,32765
5.51962,2.51441,-0.237458,45,32765
5.53713,2.49976,-0.240287,43,32765
5.5454,2.48113,-0.242843,43,32765
5.54449,2.45834,-0.24516,45,32765
5.56179,2.44367,-0.247732,44,32765
5.60651,2.44088,-0.251965,49,32765
5.57789,2.40612,-0.253191,43,32765
5.63174,2.40707,-0.257612,45,32765
5.64893,2.3918,-0.261651,43,32765
5.62921,2.3612,-0.262461,45,32765
5.71083,2.37282,-0.268828,47,32765
5.71862,2.35365,-0.271662,46,32765
5.74477,2.34221,-0.27524,49,32765
5.76165,2.3269,-0.278172,47,32765
5.73197,2.29321,-0.279514,45,32765
5.7487,2.27789,-0.282413,44,32765
5.80268,2.27681,-0.287463,45,32765
5.78217,2.24657,-0.289018,46,32765
5.78956,2.22707,-0.291929,46,32765
5.79676,2.20791,-0.294581,46,32765
5.83187,2.19938,-0.299312,45,32765
5.8857,2.19776,-0.304119,47,32765
5.85526,2.16454,-0.305302,47,32765
5.87159,2.1486,-0.309106,46,32765
5.89738,2.13582,-0.312381,45,32765
5.91364,2.11968,-0.316105,46,32765
5.9393,2.10667,-0.320587,47,32765
5.96474,2.09405,-0.325126,47,32765
5.9808,2.07789,-0.328659,47,32765
5.96836,2.05224,-0.330781,46,32765
6.0031,2.04281,-0.33507,48,32765
6.01895,2.02651,-0.339247,45,32765
5.92116,1.972,-0.337104,21,32765
5.98431,1.97119,-0.344302,16,32765
6.02842,1.96426,-0.349705,16,32765
6.0724,1.95753,-0.355235,37,32765
6.06872,1.93557,-0.358535,45,32765
6.0745,1.91662,-0.362565,47,32765
6.07073,1.89449,-0.366131,47,32765
4.69649,3.47028,-0.0754507,43,32765
4.6919,3.44267,-0.0809457,43,32765
4.70308,3.42724,-0.0860648,45,32765
4.70626,3.40573,-0.0908155,47,32765
4.73361,3.40186,-0.0955045,47,32765
4.73668,3.38026,-0.100424,47,32765
4.74789,3.36436,-0.104852,45,32765
4.79995,3.37717,-0.10997,46,32765
4.80284,3.35548,-0.114402,46,32765
4.82188,3.34547,-0.119157,44,32765
4.81624,3.31832,-0.12265,44,32765
4.84362,3.31362,-0.127195,45,32765
4.82986,3.28041,-0.130176,46,32765
4.87426,3.28598,-0.135535,46,32765
4.88523,3.26947,-0.139749,45,32765
4.89607,3.25303,-0.143754,46,32765
4.91514,3.24215,-0.148019,46,32765
4.94238,3.23696,-0.151902,47,32765
4.95292,3.22063,-0.155698,46,32765
4.95505,3.19878,-0.159076,45,32765
4.96543,3.18246,-0.162763,46,32765
4.99286,3.17645,-0.167232,47,32765
4.99482,3.1545,-0.170144,47,32765
5.01381,3.14289,-0.174339,46,32765
5.00717,3.11563,-0.176422,46,32765
5.05148,3.11979,-0.181784,46,32765
5.04477,3.09237,-0.184328,47,32765
5.0635,3.08063,-0.18874,48,32765
5.08238,3.06854,-0.192458,47,32765
5.08401,3.04628,-0.19482,48,32765
5.09415,3.02907,-0.198158,46,32765
5.13861,3.03222,-0.202877,46,32765
5.13138,3.00488,-0.205235,49,32765
5.16727,3.00264,-0.209418,47,32765
5.17721,2.98527,-0.21241,47,32765
5.20454,2.97757,-0.216425,48,32765
5.15362,2.92539,-0.217184,46,32765
5.19818,2.92759,-0.221526,46,32765
5.21659,2.91494,-0.225253,47,32765
5.26113,2.91689,-0.229593,51,32765
5.27952,2.90404,-0.232695,49,32765
5.2715,2.87683,-0.23509,50,32765
5.26331,2.84982,-0.237077,48,32765
5.30795,2.85104,-0.241254,49,32765
5.26436,2.80519,-0.241461,39,32765
5.24712,2.77348,-0.24311,22,32765
5.29177,2.77419,-0.247757,19,32765
5.27453,2.74225,-0.248869,31,32765
5.35487,2.76066,-0.255008,47,32765
5.34637,2.73323,-0.256721,49,32765
5.40019,2.73735,-0.261565,48,32765
5.40044,2.71441,-0.264068,49,32765
5.41845,2.70045,-0.267515,49,32765
5.4364,2.68648,-0.270572,50,32765
5.44527,2.66818,-0.27331,49,32765
5.48114,2.66275,-0.277299,50,32765
5.50801,2.65279,-0.280911,52,32765
5.47181,2.6126,-0.28025,49,32765
5.49854,2.60261,-0.283986,51,32765
