x, y, z, intensity, ring
1.42954,0.210534,-0.209004,21,32765
1.43022,0.205668,-0.209222,21,32765
1.4113,0.197982,-0.206503,21,32765
1.42174,0.194387,-0.208224,21,32765
1.4322,0.190723,-0.20982,21,32765
1.43281,0.185755,-0.210143,20,32765
1.41377,0.178384,-0.207441,20,32765
1.42416,0.174782,-0.209073,20,32765
1.40508,0.16758,-0.206338,19,32765
1.41542,0.163956,-0.208079,19,32765
1.42579,0.160187,-0.209673,19,32765
1.43613,0.15636,-0.211385,19,32765
1.42678,0.150351,-0.21019,19,32765
1.42728,0.145418,-0.210328,20,32765
1.42775,0.140539,-0.210413,19,32765
1.41832,0.134718,-0.209298,19,32765
1.42859,0.130832,-0.210954,20,32765
1.42898,0.125974,-0.211317,19,32765
1.42935,0.121115,-0.211648,20,32765
1.41988,0.1155,-0.210219,20,32765
1.43009,0.111424,-0.211942,20,32765
1.44029,0.107297,-0.213684,19,32765
1.42088,0.100988,-0.21092,20,32765
1.42118,0.0961411,-0.211221,20,32765
1.42147,0.0913622,-0.211371,20,32765
1.42172,0.0865899,-0.211692,20,32765
1.41209,0.0812657,-0.21044,20,32765
1.41231,0.0765251,-0.210773,20,32765
1.41251,0.0717246,-0.211125,20,32765
1.43247,0.067885,-0.214275,20,32765
1.42277,0.0625761,-0.21311,20,32765
1.42292,0.0577667,-0.213461,21,32765
1.42305,0.0529638,-0.213831,20,32765
1.42316,0.0481547,-0.214243,20,32765
1.42326,0.0434137,-0.214598,20,32765
1.42336,0.0386523,-0.214864,20,32765
1.42343,0.0339276,-0.215159,20,32765
1.42345,0.0290702,-0.21571,20,32765
1.4235,0.0242364,-0.215988,21,32765
1.42353,0.0194334,-0.216327,21,32765
1.4235,0.0146753,-0.216857,21,32765
1.4037,0.00987032,-0.214323,21,32765
1.40366,0.00523901,-0.214703,20,32765
1.40359,0.000604727,-0.215271,21,32765
1.4035,-0.00407977,-0.215788,20,32765
1.38363,-0.00868727,-0.213314,20,32765
1.39337,-0.0134225,-0.215486,21,32765
1.39323,-0.0180333,-0.216072,20,32765
0,0,-0,0,32765
1.56862,0.526462,-0.226176,19,32765
1.52325,0.505743,-0.219829,19,32765
1.54366,0.506841,-0.223216,19,32765
1.5547,0.504725,-0.225054,19,32765
1.54688,0.496444,-0.224272,19,32765
1.54846,0.491215,-0.224882,18,32765
1.55004,0.48601,-0.225338,19,32765
1.55159,0.480821,-0.225778,19,32765
1.50578,0.461134,-0.219288,19,32765
1.51676,0.458882,-0.221046,19,32765
1.52776,0.456519,-0.222827,18,32765
1.51975,0.448486,-0.221885,19,32765
1.52123,0.443284,-0.2222,18,32765
1.50361,0.432677,-0.219863,19,32765
1.51457,0.430239,-0.221554,19,32765
1.50641,0.422405,-0.220657,19,32765
1.51734,0.419926,-0.222362,19,32765
1.49004,0.406945,-0.218563,19,32765
1.50091,0.404479,-0.220344,19,32765
1.50224,0.399281,-0.220809,19,32765
1.50354,0.394133,-0.221219,19,32765
1.49526,0.386454,-0.220086,19,32765
1.49654,0.381331,-0.220365,19,32765
1.50737,0.378672,-0.222127,18,32765
1.5086,0.373539,-0.222477,19,32765
1.48095,0.361395,-0.218615,20,32765
1.49175,0.358681,-0.220321,19,32765
1.50254,0.355848,-0.22213,19,32765
1.49407,0.348376,-0.221128,19,32765
1.49523,0.343093,-0.221519,19,32765
1.48673,0.335584,-0.220485,20,32765
1.46854,0.326053,-0.21791,19,32765
1.49861,0.327276,-0.222627,20,32765
1.48033,0.317971,-0.22006,20,32765
1.48135,0.312889,-0.220464,19,32765
1.47267,0.30578,-0.219403,20,32765
1.48334,0.302713,-0.221309,18,32765
1.47463,0.295647,-0.220149,19,32765
1.47557,0.290563,-0.220582,20,32765
1.47652,0.285423,-0.220969,20,32765
1.47744,0.280265,-0.221385,20,32765
1.47835,0.275125,-0.221762,20,32765
1.46951,0.268202,-0.220711,20,32765
1.47036,0.263144,-0.221127,19,32765
1.47121,0.258054,-0.221462,17,32765
1.46227,0.25128,-0.220484,17,32765
1.49234,0.251209,-0.225221,17,32765
1.5224,0.250894,-0.230138,19,32765
1.47438,0.23785,-0.223025,19,32765
1.47513,0.232751,-0.223406,20,32765
1.45632,0.224613,-0.220836,20,32765
1.47659,0.222438,-0.224262,20,32765
1.46752,0.215805,-0.223159,20,32765
1.45843,0.209332,-0.22192,20,32765
1.4591,0.20427,-0.222284,20,32765
1.46952,0.200544,-0.224259,20,32765
1.46036,0.194214,-0.222978,19,32765
1.47077,0.190498,-0.224809,20,32765
1.47137,0.185517,-0.22505,20,32765
1.47194,0.180521,-0.22543,19,32765
1.47252,0.1755,-0.225602,19,32765
1.47304,0.170531,-0.225962,20,32765
1.47358,0.165467,-0.226261,20,32765
1.46426,0.159381,-0.225025,19,32765
1.47459,0.155372,-0.226836,19,32765
1.47507,0.150296,-0.227086,19,32765
1.4362,0.141359,-0.221257,18,32765
1.46616,0.1393,-0.226019,18,32765
1.46661,0.134351,-0.22609,18,32765
1.46702,0.129345,-0.226342,18,32765
1.45753,0.123508,-0.225284,18,32765
1.45793,0.118579,-0.225331,19,32765
1.47801,0.11518,-0.228496,19,32765
1.42911,0.106494,-0.220906,18,32765
1.46887,0.104475,-0.227157,19,32765
1.46919,0.0994619,-0.227351,19,32765
1.46948,0.0944973,-0.227563,19,32765
1.4698,0.0895225,-0.227513,19,32765
1.46023,0.0839772,-0.226007,19,32765
1.48022,0.0801706,-0.229205,20,32765
1.4706,0.0746537,-0.227739,19,32765
1.47084,0.0697294,-0.227754,19,32765
1.47107,0.0648212,-0.227722,19,32765
1.48115,0.0603057,-0.229241,19,32765
1.47149,0.0549957,-0.227613,19,32765
1.47167,0.0500106,-0.227592,19,32765
1.47183,0.0450352,-0.227572,19,32765
1.44233,0.0393183,-0.223036,18,32765
1.47212,0.0351904,-0.227437,19,32765
1.48214,0.0304324,-0.228785,20,32765
1.46248,0.0250965,-0.225637,19,32765
1.44282,0.0199443,-0.222449,19,32765
1.46267,0.0154481,-0.225284,19,32765
1.47265,0.0107037,-0.226491,20,32765
1.45295,0.00582998,-0.223175,20,32765
1.453,0.00094964,-0.22292,20,32765
1.44316,-0.0038401,-0.221069,20,32765
1.46296,-0.0087831,-0.22374,19,32765
1.44324,-0.0134513,-0.22018,19,32765
1.45316,-0.0183315,-0.221121,20,32765
0,0,-0,0,32765
1.49096,0.502186,-0.230098,20,32765
1.50192,0.500441,-0.231965,20,32765
1.48469,0.48922,-0.229714,19,32765
1.48625,0.484228,-0.230172,20,32765
1.47838,0.476157,-0.229273,20,32765
1.47989,0.471144,-0.229859,20,32765
1.49084,0.469122,-0.231763,19,32765
1.50179,0.467053,-0.233658,20,32765
1.48437,0.456207,-0.231107,20,32765
1.4764,0.44827,-0.230007,20,32765
1.4684,0.440353,-0.228917,19,32765
1.45087,0.429694,-0.226387,20,32765
1.47127,0.430264,-0.229653,20,32765
1.46315,0.422543,-0.228601,20,32765
1.45503,0.414811,-0.227406,21,32765
1.44685,0.407159,-0.226398,20,32765
1.46723,0.407519,-0.229677,20,32765
1.46855,0.402519,-0.230069,20,32765
1.46031,0.394952,-0.228946,20,32765
1.44249,0.384782,-0.226402,20,32765
1.44374,0.379824,-0.226797,20,32765
1.43544,0.372331,-0.225561,20,32765
1.44625,0.369847,-0.227336,20,32765
1.44744,0.364932,-0.227673,20,32765
1.43903,0.357604,-0.226501,20,32765
1.43058,0.350369,-0.225368,20,32765
1.45094,0.350134,-0.228673,20,32765
1.45207,0.345145,-0.229049,20,32765
1.44358,0.337828,-0.227941,20,32765
1.42544,0.328272,-0.225276,20,32765
1.42655,0.323175,-0.225656,20,32765
1.44693,0.32243,-0.228991,20,32765
1.43833,0.315262,-0.227865,20,32765
1.4297,0.308224,-0.226632,20,32765
1.42102,0.301251,-0.22549,20,32765
1.44134,0.300377,-0.228931,21,32765
1.42293,0.291459,-0.226303,20,32765
1.43358,0.288481,-0.228122,21,32765
1.4248,0.281607,-0.227,21,32765
1.43542,0.278511,-0.228921,21,32765
1.42662,0.271633,-0.227777,21,32765
1.4275,0.266655,-0.228142,21,32765
1.42836,0.26167,-0.228539,21,32765
1.41946,0.254992,-0.227388,21,32765
1.43002,0.251776,-0.229272,21,32765
1.42107,0.245126,-0.228188,21,32765
1.42185,0.240255,-0.228501,21,32765
1.41285,0.233732,-0.227402,21,32765
1.4136,0.22892,-0.227655,21,32765
1.41433,0.224017,-0.228022,22,32765
1.41504,0.21909,-0.2284,21,32765
1.40597,0.212622,-0.227266,21,32765
1.41642,0.209104,-0.229214,20,32765
1.39755,0.20138,-0.226291,20,32765
1.41774,0.199263,-0.229811,20,32765
1.42813,0.195669,-0.231866,20,32765
1.40919,0.188157,-0.228897,20,32765
1.40977,0.183331,-0.229219,20,32765
1.40055,0.177301,-0.227857,21,32765
1.40109,0.172532,-0.228219,20,32765
1.40164,0.167738,-0.228384,21,32765
1.40215,0.162994,-0.228727,21,32765
1.42227,0.160371,-0.232215,21,32765
1.41296,0.154442,-0.230877,20,32765
1.40362,0.148521,-0.229561,21,32765
1.40408,0.143674,-0.2298,21,32765
1.39471,0.137868,-0.228413,21,32765
1.41479,0.135006,-0.231839,21,32765
1.41523,0.130216,-0.231908,21,32765
1.40579,0.1245,-0.23054,20,32765
1.40614,0.119692,-0.230985,21,32765
1.40653,0.114922,-0.231031,21,32765
1.38721,0.108607,-0.227913,20,32765
1.40725,0.10536,-0.231172,20,32765
1.38789,0.0991888,-0.228088,20,32765
1.40788,0.0957778,-0.23151,20,32765
1.40816,0.091006,-0.231714,20,32765
1.40847,0.0862243,-0.231666,20,32765
1.38905,0.0803007,-0.228447,19,32765
1.41885,0.0772584,-0.233445,20,32765
1.40924,0.071933,-0.231884,19,32765
1.39961,0.0667298,-0.230277,19,32765
1.39983,0.0620452,-0.230247,20,32765
1.4099,0.0577556,-0.23186,20,32765
1.39037,0.0522962,-0.228523,20,32765
1.40041,0.0479091,-0.230125,20,32765
1.42029,0.0437682,-0.233347,20,32765
1.4007,0.0384749,-0.230151,20,32765
1.39098,0.0335259,-0.228358,20,32765
1.39111,0.0288243,-0.228191,20,32765
1.41095,0.0244623,-0.231334,20,32765
1.38145,0.0193267,-0.226348,20,32765
1.40127,0.0150197,-0.229378,20,32765
1.40136,0.0103916,-0.229079,20,32765
1.39156,0.00577434,-0.227201,20,32765
1.39161,0.00108594,-0.226958,20,32765
1.42127,-0.0036161,-0.231457,19,32765
1.40157,-0.00826538,-0.2279,18,32765
1.39175,-0.0128375,-0.225778,20,32765
0,-0,-0,0,32765
3.69986,2.72947,0.818495,25,32765
3.70893,2.71756,0.817093,24,32765
3.74188,2.72302,0.820682,25,32765
3.74336,2.70474,0.81712,25,32765
3.75273,2.6924,0.814913,24,32765
3.73002,2.65706,0.805924,24,32765
3.79545,2.68453,0.816258,26,32765
3.82091,2.68324,0.8176,26,32765
3.81422,2.65915,0.811819,25,32765
3.86387,2.67463,0.818388,25,32765
3.88921,2.67334,0.819369,25,32765
3.89821,2.66088,0.817176,26,32765
3.92343,2.65937,0.818881,27,32765
3.96528,2.66854,0.823375,26,32765
3.9498,2.63925,0.816004,26,32765
3.91773,2.59907,0.805676,24,32765
3.94312,2.5971,0.806835,25,32765
3.98491,2.60605,0.811096,25,32765
4.00203,2.59836,0.811124,25,32765
4.0108,2.5854,0.80922,26,32765
4.03635,2.58279,0.810358,26,32765
4.04512,2.56958,0.808601,26,32765
4.07885,2.57222,0.811669,25,32765
4.10429,2.56946,0.81288,27,32765
4.07112,2.53019,0.802332,27,32765
4.16366,2.56863,0.817137,25,32765
4.10515,2.51368,0.802196,20,32765
4.07994,2.47973,0.794115,12,32765
4.10555,2.47633,0.794903,12,32765
4.24934,2.54401,0.819479,14,32765
0,0,0,0,32765
4.1562,2.45096,0.794311,16,32765
4.19848,2.45745,0.799122,24,32765
4.12997,2.39915,0.782971,23,32765
4.18934,2.41531,0.790982,12,32765
4.24891,2.4311,0.798837,12,32765
4.29159,2.4366,0.803272,11,32765
4.26539,2.40311,0.795674,11,32765
4.33394,2.42282,0.804889,11,32765
4.31616,2.39433,0.798683,11,32765
4.31571,2.37545,0.794968,11,32765
4.37585,2.38948,0.803,11,32765
4.36667,2.36539,0.798767,11,32765
4.3923,2.36008,0.800132,12,32765
4.4351,2.36429,0.805065,12,32765
4.48653,2.37307,0.811897,13,32765
4.48568,2.35402,0.808778,12,32765
4.51106,2.34865,0.810366,12,32765
4.50155,2.3246,0.805745,12,32765
4.57098,2.34115,0.815542,11,32765
4.51758,2.29439,0.802595,11,32765
4.5609,2.29685,0.807194,11,32765
4.59526,2.29476,0.810944,11,32765
4.70058,2.32743,0.826844,11,32765
4.67302,2.29452,0.819122,12,32765
4.67195,2.27481,0.81589,11,32765
4.75085,2.29373,0.826939,11,32765
4.68727,2.244,0.813379,11,32765
4.73959,2.24968,0.819337,11,32765
4.71143,2.2173,0.81174,12,32765
4.78166,2.23099,0.820986,12,32765
4.76235,2.20267,0.815049,12,32765
4.81474,2.20762,0.821173,11,32765
4.89427,2.22433,0.831906,11,32765
4.90185,2.20815,0.830371,11,32765
4.87332,2.17583,0.822544,11,32765
4.91697,2.17555,0.827037,11,32765
4.87904,2.13956,0.818136,11,32765
4.94995,2.15091,0.826567,11,32765
4.95725,2.13441,0.825575,11,32765
5.01004,2.13739,0.831384,11,32765
5.10838,2.1593,0.844991,11,32765
5.11579,2.14244,0.84302,11,32765
5.12324,2.12547,0.840744,11,32765
5.16698,2.12364,0.845591,11,32765
5.26585,2.14398,0.858269,11,32765
5.29137,2.13424,0.859827,11,32765
5.28017,2.10978,0.855087,11,32765
5.30581,2.09979,0.855675,12,32765
5.29446,2.07544,0.850749,11,32765
5.50435,2.13682,0.881485,11,32765
5.37315,2.0655,0.857542,11,32765
5.43561,2.06931,0.863986,12,32765
5.47972,2.06547,0.867702,11,32765
5.48662,2.04777,0.866058,11,32765
5.49357,2.02996,0.86393,11,32765
5.54702,2.02896,0.868804,11,32765
5.65607,2.04815,0.883357,11,32765
5.68178,2.03634,0.883588,11,32765
5.66986,2.01177,0.878575,11,32765
5.65802,1.987,0.873078,12,32765
5.73018,1.99167,0.880439,12,32765
5.75559,1.97986,0.880835,12,32765
5.71549,1.94535,0.871101,12,32765
5.75002,1.9369,0.873235,12,32765
5.75661,1.91855,0.870335,12,32765
5.76294,1.9006,0.867804,11,32765
5.76922,1.88296,0.864533,12,32765
5.72845,1.84975,0.8542,12,32765
5.76288,1.84109,0.855407,12,32765
5.68416,1.79642,0.838839,12,32765
3.69648,2.73008,0.773497,27,32765
3.6817,2.70066,0.767124,26,32765
3.73056,2.71784,0.773751,28,32765
3.73201,2.69956,0.770286,28,32765
3.75738,2.69874,0.771374,29,32765
3.76676,2.68621,0.769313,29,32765
3.80821,2.69653,0.774068,29,32765
3.82565,2.68953,0.773584,29,32765
3.83513,2.67667,0.771239,29,32765
3.83622,2.6584,0.767594,29,32765
3.87778,2.66839,0.77164,30,32765
3.8949,2.66151,0.771065,29,32765
3.9283,2.66555,0.774194,31,32765
3.94565,2.65819,0.773498,32,32765
3.9465,2.63987,0.769615,31,32765
4.00484,2.65969,0.777309,32,32765
3.98923,2.63027,0.770275,30,32765
4.03116,2.6391,0.774134,31,32765
4.03184,2.62048,0.770882,31,32765
3.99919,2.58063,0.761068,29,32765
4.08295,2.61535,0.773046,31,32765
4.05849,2.58077,0.764984,29,32765
4.05887,2.56228,0.761498,30,32765
4.14288,2.5963,0.77347,32,32765
4.15167,2.58292,0.771153,32,32765
4.15204,2.56408,0.767895,30,32765
4.1187,2.52455,0.758354,16,32765
4.10192,2.49562,0.752186,12,32765
4.11913,2.48703,0.751231,13,32765
4.03429,2.41769,0.732748,15,32765
4.29735,2.55599,0.776706,16,32765
4.24649,2.5067,0.76412,29,32765
4.19521,2.45796,0.751714,31,32765
4.25475,2.47407,0.759271,17,32765
4.30588,2.48493,0.76515,13,32765
4.26281,2.44143,0.754185,13,32765
4.31416,2.45178,0.759753,13,32765
4.37407,2.46671,0.767632,13,32765
4.36526,2.44267,0.762579,13,32765
4.37345,2.42842,0.761154,12,32765
4.39907,2.42363,0.762002,12,32765
4.3987,2.40422,0.758967,13,32765
4.44171,2.40828,0.763882,13,32765
4.4675,2.40272,0.765029,13,32765
4.49304,2.39738,0.766587,13,32765
4.47472,2.36899,0.761047,14,32765
4.37754,2.29936,0.741706,12,32765
4.26242,2.22121,0.719459,11,32765
4.11187,2.12528,0.691465,11,32765
4.09269,2.09805,0.685959,11,32765
4.05598,2.06178,0.676815,11,32765
4.09853,2.06582,0.681208,11,32765
4.38874,2.19354,0.727296,11,32765
4.67997,2.31923,0.772967,12,32765
4.68784,2.30378,0.771468,13,32765
4.72237,2.30131,0.774155,13,32765
4.74799,2.29429,0.77571,13,32765
4.73786,2.27012,0.771615,13,32765
4.80819,2.28414,0.779986,13,32765
4.83381,2.27677,0.781422,15,32765
4.82362,2.25241,0.776978,13,32765
4.8762,2.25716,0.782841,14,32765
4.86586,2.23285,0.77839,13,32765
4.93656,2.24534,0.786924,12,32765
4.91714,2.21679,0.781075,12,32765
4.93376,2.20454,0.780765,12,32765
4.95041,2.19205,0.780584,13,32765
5.01217,2.19963,0.78781,13,32765
4.97443,2.1632,0.778481,13,32765
5.03632,2.17009,0.785996,12,32765
5.04376,2.15338,0.784232,12,32765
5.09668,2.15596,0.78983,12,32765
5.05842,2.11997,0.780816,12,32765
5.1938,2.15631,0.79824,12,32765
5.16443,2.12412,0.79147,12,32765
5.20839,2.1221,0.794819,13,32765
5.2155,2.10511,0.793412,12,32765
5.27772,2.11027,0.800033,13,32765
5.26654,2.08569,0.794877,13,32765
5.31043,2.08312,0.798469,12,32765
5.28057,2.05133,0.791183,12,32765
5.37075,2.06596,0.801836,12,32765
5.37774,2.04863,0.799464,13,32765
5.38474,2.031,0.797339,13,32765
5.46575,2.04131,0.80668,12,32765
5.52842,2.04415,0.812755,13,32765
5.52614,2.02261,0.808975,12,32765
5.6353,2.04191,0.822506,12,32765
5.53975,1.98666,0.804943,12,32765
5.63034,1.99897,0.815036,13,32765
5.62776,1.97758,0.811092,12,32765
5.66252,1.96934,0.812441,14,32765
5.69723,1.96095,0.814017,13,32765
5.7039,1.94254,0.811449,14,32765
5.72906,1.93096,0.811976,13,32765
5.68859,1.89697,0.802454,13,32765
5.67601,1.87299,0.797308,13,32765
5.68218,1.85559,0.794086,13,32765
5.70726,1.84393,0.79345,13,32765
5.66614,1.81117,0.783934,12,32765
5.69117,1.79961,0.782574,12,32765
3.67206,2.7081,0.725658,24,32765
3.68876,2.70208,0.727116,23,32765
3.72153,2.70758,0.731343,24,32765
3.74656,2.70698,0.733422,24,32765
3.74752,2.68883,0.731552,23,32765
3.70832,2.64201,0.721309,22,32765
3.78151,2.67558,0.733168,23,32765
3.8549,2.70882,0.744957,25,32765
3.78272,2.64001,0.728215,24,32765
3.8402,2.66148,0.73639,25,32765
3.81651,2.62658,0.728983,24,32765
3.90685,2.66974,0.743685,25,32765
3.89947,2.64586,0.739209,25,32765
3.91662,2.63847,0.739554,25,32765
3.90915,2.6145,0.735236,24,32765
3.9674,2.6344,0.743021,25,32765
3.96783,2.61617,0.740325,23,32765
3.96833,2.59777,0.737518,24,32765
4.01013,2.6064,0.742419,25,32765
4.00241,2.58239,0.737789,25,32765
3.9696,2.5425,0.728607,22,32765
4.05308,2.57735,0.741182,25,32765
4.09522,2.5852,0.745611,26,32765
4.14576,2.59812,0.751619,28,32765
4.14614,2.57928,0.748636,28,32765
4.12132,2.54467,0.741189,27,32765
4.08781,2.50517,0.732401,21,32765
4.13017,2.51218,0.736724,11,32765
0,0,0,0,32765
0,0,0,0,32765
4.18937,2.49185,0.738039,16,32765
4.08707,2.41275,0.717284,16,32765
4.23193,2.4791,0.739194,25,32765
4.18049,2.43025,0.727629,24,32765
4.28317,2.47062,0.741928,12,32765
4.25718,2.43697,0.73427,12,32765
4.29963,2.44283,0.738765,12,32765
4.2734,2.40933,0.731295,11,32765
4.22113,2.36154,0.719224,11,32765
4.3159,2.39528,0.731978,11,32765
4.4108,2.42848,0.745303,11,32765
4.36693,2.38555,0.734799,12,32765
4.37515,2.37096,0.733155,11,32765
4.43549,2.38478,0.739832,11,32765
4.44371,2.36997,0.738082,11,32765
4.28569,2.26727,0.708727,12,32765
0,0,0,0,32765
0,0,0,0,32765
0,0,0,0,32765
0,0,0,0,32765
0,0,0,0,32765
0,0,0,0,32765
0,0,0,0,32765
0,0,0,0,32765
4.55824,2.23866,0.726452,11,32765
4.74392,2.31015,0.753228,11,32765
4.77852,2.30752,0.755466,11,32765
4.70578,2.2535,0.741804,12,32765
4.82964,2.29341,0.758149,12,32765
4.79256,2.25647,0.74981,13,32765
4.7643,2.224,0.742582,12,32765
4.87065,2.25409,0.756483,12,32765
4.82439,2.21324,0.745962,11,32765
4.86791,2.21374,0.750181,11,32765
4.94771,2.2302,0.759469,11,32765
4.98237,2.226,0.762226,11,32765
4.96265,2.1976,0.757024,11,32765
4.99731,2.19309,0.75985,11,32765
5.02284,2.18464,0.761126,11,32765
4.91217,2.11691,0.741144,11,32765
5.07409,2.16683,0.763761,11,32765
5.1179,2.1657,0.767446,11,32765
5.17992,2.1718,0.775003,11,32765
5.13219,2.1323,0.76551,11,32765
5.0662,2.08522,0.752586,11,32765
5.27483,2.15115,0.78179,12,32765
5.30025,2.14152,0.783692,11,32765
5.30737,2.12423,0.782544,11,32765
5.31442,2.10699,0.781325,12,32765
5.38597,2.115,0.789721,12,32765
5.34682,2.07939,0.782128,11,32765
5.35364,2.06208,0.781356,11,32765
5.4809,2.09042,0.797649,11,32765
5.45064,2.0587,0.791633,12,32765
5.541,2.07202,0.803101,11,32765
5.58495,2.06791,0.807607,11,32765
5.50792,2.01925,0.794874,11,32765
5.5612,2.01817,0.800624,11,32765
5.67046,2.03695,0.8143,12,32765
5.67717,2.01835,0.813882,12,32765
5.73046,2.01638,0.82033,12,32765
0,0,0,0,32765
0,0,0,0,32765
0,0,0,0,32765
0,0,0,0,32765
0,0,0,0,32765
0,0,0,0,32765
0,0,0,0,32765
0,0,0,0,32765
0,0,0,0,32765
0,0,0,0,32765
3.69948,2.73207,0.687119,29,32765
3.70034,2.71425,0.685526,29,32765
3.71719,2.70808,0.686518,28,32765
3.73423,2.70171,0.686936,29,32765
3.75928,2.70087,0.689578,28,32765
3.8006,2.71134,0.694605,29,32765
3.80145,2.69324,0.69247,28,32765
3.82643,2.69234,0.694697,28,32765
3.87574,2.70847,0.700887,30,32765
3.87662,2.69021,0.698226,29,32765
3.88558,2.67756,0.697023,29,32765
3.93536,2.69267,0.70348,30,32765
3.95259,2.68532,0.703549,32,32765
3.94528,2.66115,0.69942,32,32765
3.9543,2.64804,0.69818,31,32765
3.97977,2.64593,0.699594,32,32765
3.98022,2.62763,0.696986,31,32765
4.03041,2.6417,0.702926,32,32765
4.02263,2.61776,0.698789,31,32765
4.03987,2.60977,0.698651,32,32765
4.06542,2.60707,0.699959,31,32765
4.08242,2.59917,0.70021,30,32765
4.12465,2.60694,0.704253,33,32765
4.09147,2.5672,0.69553,31,32765
4.12535,2.56942,0.698347,32,32765
4.12571,2.55043,0.695536,30,32765
4.05,2.48495,0.680126,17,32765
4.12614,2.51269,0.689744,15,32765
4.2109,2.5453,0.700485,26,32765
4.27045,2.56201,0.707268,18,32765
4.22791,2.51771,0.697706,16,32765
4.25344,2.51387,0.699166,29,32765
4.24504,2.48965,0.694356,34,32765
4.12511,2.40081,0.67228,18,32765
4.31354,2.49098,0.699486,13,32765
4.27039,2.44732,0.689412,13,32765
4.33012,2.46294,0.696297,13,32765
4.3643,2.46335,0.698855,12,32765
4.29486,2.40548,0.684643,12,32765
4.40718,2.44867,0.699176,13,32765
4.45031,2.45295,0.703314,13,32765
4.42385,2.41932,0.696087,13,32765
4.27544,2.31948,0.669863,11,32765
0,0,0,0,32765
3.96789,2.1185,0.615972,11,32765
3.94891,2.09137,0.610239,11,32765
3.99984,2.1015,0.615295,11,32765
3.92785,2.04712,0.601805,11,32765
3.88187,2.00711,0.592206,13,32765
3.90642,2.00331,0.592884,16,32765
3.78073,1.92293,0.571689,16,32765
3.92894,1.9816,0.591866,12,32765
3.98014,1.99044,0.597286,11,32765
3.98703,1.97708,0.595683,11,32765
4.03845,1.98542,0.600517,11,32765
4.13435,2.01538,0.612397,11,32765
4.35539,2.10534,0.642247,11,32765
4.76462,2.28399,0.70048,13,32765
4.82603,2.29401,0.706412,14,32765
4.83374,2.27814,0.70508,14,32765
4.88635,2.28324,0.709955,16,32765
4.92104,2.27966,0.712372,13,32765
4.89281,2.24684,0.704984,13,32765
4.90039,2.23069,0.703626,13,32765
4.92608,2.22261,0.704399,13,32765
4.96076,2.21847,0.706881,12,32765
4.99537,2.21421,0.709691,13,32765
5.00288,2.19762,0.70837,13,32765
5.02844,2.18914,0.709456,13,32765
5.09067,2.1959,0.714987,13,32765
5.098,2.17906,0.714267,13,32765
5.10535,2.16238,0.712471,12,32765
5.13999,2.15703,0.715648,13,32765
5.16542,2.14805,0.716893,12,32765
5.15442,2.12344,0.712307,13,32765
5.23483,2.13674,0.721715,13,32765
5.26022,2.12723,0.723435,13,32765
5.2673,2.11003,0.722295,12,32765
5.29274,2.10021,0.723605,13,32765
5.31818,2.09017,0.725057,12,32765
5.37135,2.0907,0.730514,13,32765
5.41523,2.08755,0.734761,13,32765
5.36662,2.04853,0.726,13,32765
5.42898,2.05221,0.732898,12,32765
5.47296,2.04824,0.737268,13,32765
5.47966,2.03055,0.736409,12,32765
5.57008,2.04366,0.747014,12,32765
5.53956,2.01189,0.741057,12,32765
5.63959,2.02742,0.752461,12,32765
5.69301,2.02553,0.75827,11,32765
5.6528,1.99054,0.751802,11,32765
1.88322,0.656506,0.250154,15,32765
1.86654,0.644069,0.247596,15,32765
1.76527,0.602914,0.23392,15,32765
1.89882,0.641692,0.251188,16,32765
1.89149,0.632347,0.249995,17,32765
1.87471,0.619996,0.247306,17,32765
1.84838,0.604711,0.243783,17,32765
1.92577,0.623331,0.253927,18,32765
1.88045,0.602104,0.247972,18,32765
1.87282,0.593211,0.247064,18,32765
3.68608,2.71222,0.702574,25,32765
3.70346,2.70617,0.700479,25,32765
3.77689,2.74054,0.709197,25,32765
3.77854,2.7222,0.704516,24,32765
3.82822,2.73861,0.708767,25,32765
3.81366,2.70881,0.700906,25,32765
3.80668,2.68505,0.69559,25,32765
3.81584,2.67274,0.692773,24,32765
3.88981,2.70569,0.701957,26,32765
3.90721,2.69854,0.701119,27,32765
3.87586,2.65762,0.690867,26,32765
3.92601,2.67255,0.695636,27,32765
3.91875,2.64871,0.690026,25,32765
3.95263,2.65225,0.691626,26,32765
3.98634,2.6559,0.693432,27,32765
3.99543,2.64284,0.69104,26,32765
4.00445,2.62983,0.688472,28,32765
4.03825,2.63299,0.69051,28,32765
4.05551,2.62521,0.689532,27,32765
4.07275,2.61733,0.6888,27,32765
4.09005,2.60934,0.687615,27,32765
4.08231,2.58526,0.682328,26,32765
4.12461,2.59292,0.686097,26,32765
4.15868,2.59507,0.688121,26,32765
4.18422,2.59192,0.68932,26,32765
4.09177,2.51605,0.670386,18,32765
0,0,0,0,32765
4.10874,2.48935,0.666244,12,32765
0,0,0,0,32765
0,0,0,0,32765
4.25313,2.51977,0.679511,20,32765
4.23622,2.49046,0.673521,36,32765
4.16788,2.43128,0.659192,25,32765
4.20208,2.43206,0.661483,12,32765
4.2618,2.448,0.667784,12,32765
4.26132,2.42939,0.664621,11,32765
4.31249,2.44003,0.669823,11,32765
4.22553,2.37274,0.653552,11,32765
4.3288,2.41192,0.666406,11,32765
4.33691,2.39769,0.665018,12,32765
4.37124,2.39756,0.66701,12,32765
4.4316,2.4116,0.673185,11,32765
0,0,0,0,32765
0,0,0,0,32765
0,0,0,0,32765
0,0,0,0,32765
0,0,0,0,32765
0,0,0,0,32765
3.64127,1.87343,0.536942,13,32765
3.8772,1.97859,0.569731,17,32765
0,0,0,0,32765
3.83762,1.9259,0.559007,11,32765
0,0,0,0,32765
0,0,0,0,32765
0,0,0,0,32765
0,0,0,0,32765
0,0,0,0,32765
0,0,0,0,32765
4.86924,2.30208,0.689804,13,32765
4.79622,2.24821,0.67635,12,32765
4.81274,2.23668,0.676233,14,32765
4.82932,2.22494,0.675939,11,32765
4.87294,2.22547,0.67949,12,32765
4.91669,2.22566,0.682782,11,32765
4.98765,2.23775,0.689879,11,32765
5.04971,2.24543,0.695252,11,32765
5.05746,2.22843,0.693608,11,32765
4.91041,2.14417,0.671141,11,32765
5.07261,2.19474,0.690412,11,32765
5.12576,2.19733,0.694807,11,32765
5.08759,2.16105,0.68646,12,32765
5.14054,2.1636,0.691411,12,32765
5.26692,2.19648,0.705386,12,32765
0,0,0,0,32765
0,0,0,0,32765
0,0,0,0,32765
0,0,0,0,32765
0,0,0,0,32765
0,0,0,0,32765
0,0,0,0,32765
0,0,0,0,32765
0,0,0,0,32765
1.94041,0.735425,0.249097,12,32765
1.8871,0.708222,0.241211,13,32765
1.85224,0.688317,0.235676,13,32765
1.91047,0.702869,0.24207,15,32765
1.89421,0.689777,0.238937,16,32765
1.90587,0.686997,0.239353,17,32765
1.85207,0.660806,0.231422,17,32765
1.8543,0.654822,0.230629,17,32765
1.84712,0.645561,0.228676,18,32765
1.84931,0.63954,0.227937,18,32765
1.83264,0.627188,0.224844,18,32765
1.88179,0.637293,0.229652,17,32765
1.85563,0.621946,0.225247,19,32765
1.82935,0.606802,0.221033,19,32765
1.85026,0.607219,0.222342,20,32765
1.81446,0.58912,0.216953,19,32765
1.8259,0.586431,0.216973,18,32765
1.81835,0.577789,0.214878,19,32765
1.83921,0.578263,0.215659,21,32765
3.70531,2.73029,0.662332,28,32765
3.77067,2.75923,0.668623,29,32765
3.74021,2.71781,0.658211,28,32765
3.75781,2.71114,0.656457,29,32765
3.80747,2.72766,0.660258,29,32765
3.82511,2.72082,0.658247,30,32765
3.84241,2.71411,0.657259,31,32765
3.85165,2.70167,0.654414,29,32765
3.86075,2.68928,0.651848,29,32765
3.89439,2.69348,0.653667,31,32765
3.86296,2.65252,0.643888,29,32765
3.9295,2.67869,0.650909,31,32765
3.97146,2.68811,0.653583,32,32765
3.99727,2.68596,0.65352,33,32765
3.98164,2.65648,0.646979,31,32765
3.98245,2.63793,0.643253,32,32765
4.02457,2.64672,0.646008,32,32765
4.00034,2.6119,0.638481,31,32765
4.06744,2.63658,0.645348,33,32765
4.07638,2.62327,0.6432,32,32765
4.08534,2.60993,0.640607,31,32765
4.11944,2.61236,0.642031,33,32765
4.14508,2.60935,0.642807,34,32765
4.1624,2.60093,0.641944,31,32765
4.17955,2.59254,0.64166,32,32765
4.05322,2.49572,0.61869,15,32765
4.10406,2.50829,0.622638,15,32765
4.13788,2.51037,0.624826,14,32765
4.24824,2.55831,0.638322,15,32765
4.15465,2.48349,0.62094,17,32765
4.2911,2.54564,0.638008,37,32765
4.25715,2.50609,0.62975,37,32765
4.27445,2.49674,0.628851,18,32765
4.27457,2.47727,0.625788,13,32765
4.32588,2.48806,0.630244,13,32765
4.33413,2.47413,0.628394,13,32765
4.29053,2.43076,0.619393,13,32765
4.37643,2.46065,0.629017,12,32765
4.38477,2.44625,0.627144,13,32765
4.40167,2.43662,0.626973,13,32765
4.46224,2.4506,0.632352,13,32765
4.40954,2.40265,0.621949,12,32765
0,0,0,0,32765
3.94477,2.11534,0.551557,11,32765
3.95192,2.10243,0.54974,11,32765
3.94148,2.08006,0.546041,11,32765
3.9661,2.0763,0.546949,11,32765
3.85853,2.00381,0.529993,12,32765
3.75939,1.93659,0.514029,18,32765
3.86315,1.97383,0.526291,19,32765
3.86991,1.96093,0.52486,14,32765
3.97428,1.99691,0.536493,12,32765
3.99007,1.98797,0.536087,11,32765
4.01472,1.98329,0.537292,11,32765
4.03042,1.97423,0.537194,11,32765
4.02821,1.95648,0.534593,11,32765
0,0,0,0,32765
4.77633,2.28032,0.629068,13,32765
4.92771,2.33246,0.646084,15,32765
4.8637,2.2825,0.634619,14,32765
4.88934,2.27492,0.635557,15,32765
4.93312,2.27538,0.638646,13,32765
4.92275,2.2508,0.634801,13,32765
4.93043,2.23442,0.633053,13,32765
4.93804,2.21801,0.63138,13,32765
4.95471,2.20568,0.630438,13,32765
4.98958,2.201,0.632279,13,32765
5.03343,2.20035,0.635553,13,32765
5.02277,2.17559,0.631414,13,32765
5.05763,2.17052,0.633073,12,32765
5.1016,2.16939,0.635471,12,32765
5.07223,2.13719,0.629719,12,32765
5.19862,2.17036,0.642502,12,32765
1.90976,0.78993,0.234965,15,32765
1.91241,0.783714,0.234286,16,32765
1.94272,0.788524,0.236972,17,32765
1.89933,0.763524,0.230579,17,32765
1.94811,0.775606,0.235371,19,32765
1.94149,0.765533,0.233576,20,32765
1.91627,0.748405,0.229531,20,32765
1.92802,0.745784,0.230065,20,32765
1.88413,0.721799,0.223556,20,32765
1.86793,0.708682,0.220738,20,32765
1.86099,0.69914,0.218914,20,32765
1.85401,0.689677,0.217036,20,32765
1.85632,0.683642,0.216344,20,32765
1.83064,0.667299,0.212337,20,32765
1.85158,0.668096,0.213764,21,32765
1.84448,0.658751,0.211796,21,32765
1.86544,0.659408,0.213148,20,32765
1.84888,0.646812,0.210217,21,32765
1.85106,0.640774,0.209477,21,32765
1.82497,0.625171,0.205511,22,32765
1.82706,0.619359,0.204581,22,32765
1.81966,0.61048,0.202585,22,32765
1.82164,0.604822,0.201804,22,32765
1.85199,0.608369,0.20397,23,32765
1.77833,0.577935,0.19481,21,32765
1.81814,0.584489,0.197849,22,32765
1.81056,0.575856,0.195852,22,32765
1.80296,0.567397,0.193398,21,32765
3.69726,2.72007,0.60697,26,32765
3.70648,2.70757,0.606622,25,32765
3.79569,2.75356,0.619304,27,32765
3.70803,2.67192,0.602902,24,32765
3.73265,2.67183,0.604616,25,32765
3.79001,2.69412,0.611268,24,32765
3.87188,2.7331,0.622183,26,32765
3.88917,2.726,0.622392,27,32765
3.84945,2.67925,0.61338,25,32765
3.91539,2.70622,0.621357,27,32765
3.8835,2.66538,0.613782,25,32765
3.92508,2.67514,0.617606,26,32765
3.94228,2.66782,0.617411,25,32765
3.95952,2.66029,0.617356,27,32765
3.95199,2.63617,0.613555,26,32765
3.9776,2.63387,0.61442,26,32765
4.0279,2.64798,0.619524,27,32765
4.04497,2.64033,0.619514,28,32765
4.02043,2.60559,0.613178,27,32765
4.03733,2.59801,0.6131,26,32765
4.07948,2.60614,0.616645,26,32765
4.09661,2.5981,0.616261,26,32765
4.1389,2.60584,0.619715,27,32765
4.13922,2.58705,0.616755,27,32765
4.15626,2.57879,0.616678,28,32765
4.17351,2.57015,0.616225,21,32765
4.17388,2.55103,0.613105,13,32765
0,0,0,0,32765
0,0,0,0,32765
0,0,0,0,32765
4.16536,2.47047,0.600773,17,32765
4.23348,2.49224,0.607358,37,32765
4.2419,2.47826,0.605787,30,32765
4.2075,2.43919,0.597722,12,32765
4.30195,2.47449,0.608376,12,32765
4.27594,2.44044,0.601833,11,32765
4.27559,2.4215,0.598462,11,32765
4.31832,2.42692,0.601857,11,32765
4.33512,2.41769,0.601261,12,32765
4.42154,2.44671,0.609638,12,32765
4.39498,2.41293,0.603648,11,32765
4.39453,2.39352,0.60067,11,32765
0,0,0,0,32765
0,0,0,0,32765
0,0,0,0,32765
0,0,0,0,32765
0,0,0,0,32765
3.87844,2.01307,0.515015,11,32765
3.98247,2.05009,0.526442,14,32765
3.88337,1.98255,0.510893,19,32765
3.81047,1.92914,0.498716,12,32765
0,0,0,0,32765
0,0,0,0,32765
0,0,0,0,32765
0,0,0,0,32765
0,0,0,0,32765
0,0,0,0,32765
4.76131,2.27219,0.602688,12,32765
4.77795,2.26085,0.601815,13,32765
4.81245,2.25795,0.60371,14,32765
0,0,0,0,32765
0,0,0,0,32765
0,0,0,0,32765
0,0,0,0,32765
0,0,0,0,32765
0,0,0,0,32765
0,0,0,0,32765
0,0,0,0,32765
1.72369,0.746794,0.208082,12,32765
1.84494,0.792077,0.221855,12,32765
1.91166,0.813139,0.229038,15,32765
1.89612,0.799029,0.226235,16,32765
1.93552,0.808004,0.230203,17,32765
1.93821,0.801694,0.229647,17,32765
1.84888,0.757697,0.218219,17,32765
1.92505,0.781635,0.226561,19,32765
1.89076,0.760511,0.221684,18,32765
1.8748,0.747026,0.219027,18,32765
1.84951,0.729997,0.215479,18,32765
1.82415,0.713111,0.211783,20,32765
1.86358,0.721515,0.215815,19,32765
1.90308,0.729753,0.219674,18,32765
1.86832,0.709403,0.215002,20,32765
1.83341,0.68936,0.210485,19,32765
1.87296,0.697255,0.214377,20,32765
1.82862,0.673898,0.208818,20,32765
1.83083,0.667977,0.208473,20,32765
1.88915,0.682285,0.214508,20,32765
1.84453,0.659451,0.209135,19,32765
1.84667,0.653443,0.209082,20,32765
1.85821,0.650725,0.209818,20,32765
1.82273,0.631696,0.205456,20,32765
1.81535,0.622629,0.204263,21,32765
1.82675,0.620067,0.205206,20,32765
1.80986,0.607896,0.203184,21,32765
1.81181,0.602109,0.203025,20,32765
1.84207,0.60567,0.206056,21,32765
1.81555,0.590702,0.203137,21,32765
1.81736,0.585077,0.203201,20,32765
1.81917,0.579307,0.203494,22,32765
1.83052,0.576344,0.204727,21,32765
3.73944,2.75577,0.569889,29,32765
3.71675,2.71965,0.564667,29,32765
3.79001,2.75405,0.57398,30,32765
3.79083,2.73614,0.572056,31,32765
3.79147,2.71844,0.569924,29,32765
3.84093,2.73484,0.574784,31,32765
3.81763,2.69924,0.569138,29,32765
3.85919,2.70941,0.572885,30,32765
3.81939,2.66267,0.56444,29,32765
3.89348,2.69545,0.572971,30,32765
3.88607,2.67145,0.569462,29,32765
3.9113,2.67004,0.570517,30,32765
3.96136,2.68503,0.575003,32,32765
3.95396,2.66079,0.571276,31,32765
3.95468,2.64216,0.568848,30,32765
3.99687,2.65082,0.57189,31,32765
4.03897,2.65944,0.575337,31,32765
4.03946,2.64087,0.572871,31,32765
4.03989,2.62229,0.570436,30,32765
4.07355,2.62539,0.572603,32,32765
4.10745,2.62808,0.574587,33,32765
4.10789,2.60928,0.571763,32,32765
4.10823,2.59051,0.569019,31,32765
4.14217,2.59287,0.570803,32,32765
4.18455,2.6003,0.574101,33,32765
4.06661,2.50813,0.555077,20,32765
4.19383,2.56712,0.569349,15,32765
0,0,0,0,32765
4.18582,2.52368,0.562426,15,32765
4.10901,2.45893,0.549672,18,32765
4.21113,2.50135,0.560858,30,32765
4.26227,2.51293,0.564498,45,32765
4.18501,2.44864,0.551611,23,32765
4.27936,2.48452,0.560933,13,32765
4.28792,2.47006,0.559391,13,32765
4.28775,2.45077,0.556585,13,32765
4.32201,2.45136,0.557761,12,32765
4.3995,2.47615,0.565215,13,32765
4.36441,2.43756,0.557836,13,32765
4.42487,2.4521,0.56204,13,32765
4.41572,2.42781,0.558624,13,32765
4.20589,2.29406,0.529371,11,32765
0,0,0,0,32765
3.94995,2.12029,0.492321,11,32765
3.93958,2.09791,0.488409,11,32765
3.83247,2.02449,0.472479,11,32765
3.90092,2.0442,0.478499,11,32765
3.87259,2.01286,0.472769,13,32765
3.92367,2.02265,0.476725,18,32765
3.83325,1.95969,0.46339,18,32765
3.9021,1.97827,0.469136,12,32765
3.95331,1.98757,0.472647,11,32765
3.97786,1.98338,0.472992,11,32765
4.04692,2.0011,0.479238,11,32765
0,0,0,0,32765
0,0,0,0,32765
4.68552,2.25832,0.546611,11,32765
4.82784,2.30705,0.56026,13,32765
4.87156,2.30826,0.562376,13,32765
4.87023,2.28813,0.55982,13,32765
0,0,0,0,32765
1.92352,0.888254,0.219057,15,32765
1.92654,0.881869,0.218283,18,32765
1.94763,0.883712,0.219769,19,32765
1.93253,0.868981,0.217048,19,32765
1.95368,0.870566,0.218476,20,32765
1.92932,0.852009,0.214911,20,32765
1.90484,0.833747,0.211065,19,32765
1.92586,0.835462,0.212534,19,32765
1.91039,0.821231,0.20996,20,32765
1.90403,0.81093,0.208452,20,32765
1.8793,0.792949,0.204839,20,32765
1.89117,0.790488,0.205443,20,32765
1.88461,0.780504,0.203904,20,32765
1.92402,0.789476,0.207316,21,32765
1.84364,0.749511,0.198059,21,32765
1.89229,0.762069,0.202469,21,32765
1.85783,0.741177,0.198028,21,32765
1.84175,0.727827,0.195747,21,32765
1.87197,0.732696,0.198221,21,32765
1.87438,0.726574,0.197951,22,32765
1.85818,0.713393,0.195566,22,32765
1.84194,0.700223,0.193229,21,32765
1.85354,0.697757,0.193963,21,32765
1.84652,0.688224,0.192612,21,32765
1.84881,0.682134,0.192383,22,32765
1.8417,0.672721,0.191063,22,32765
1.83455,0.663333,0.189756,22,32765
1.86481,0.667463,0.192596,23,32765
1.84821,0.65473,0.190607,23,32765
1.85037,0.648709,0.190283,24,32765
1.82426,0.632932,0.187261,24,32765
1.8263,0.627075,0.187126,23,32765
1.83772,0.624474,0.187974,23,32765
1.81139,0.609072,0.185176,23,32765
1.82279,0.606411,0.18598,22,32765
1.80582,0.594385,0.183914,22,32765
1.82657,0.594913,0.186091,21,32765
1.7905,0.577031,0.182297,20,32765
1.75437,0.559244,0.178721,18,32765
1.75617,0.553496,0.178887,17,32765
3.75007,2.75403,0.590262,26,32765
3.67174,2.67709,0.572612,22,32765
3.72952,2.69958,0.576656,24,32765
3.76297,2.70476,0.57727,24,32765
3.78016,2.69843,0.57557,25,32765
3.81364,2.7035,0.575625,24,32765
3.86348,2.71957,0.578863,25,32765
3.79139,2.65007,0.563979,23,32765
3.90636,2.71135,0.577102,25,32765
3.88294,2.67607,0.569116,25,32765
3.8838,2.65774,0.565778,25,32765
3.91754,2.66179,0.566312,25,32765
3.9349,2.65443,0.564753,24,32765
3.96056,2.65246,0.564334,25,32765
3.98624,2.65026,0.564272,25,32765
4.01194,2.64795,0.564134,26,32765
4.02098,2.63464,0.562093,25,32765
4.02158,2.61616,0.558135,26,32765
4.06371,2.62469,0.560506,27,32765
4.12266,2.64384,0.564494,28,32765
4.08954,2.60385,0.556816,27,32765
4.15707,2.62772,0.562429,27,32765
4.14911,2.60362,0.557624,26,32765
4.19159,2.61115,0.559804,28,32765
4.14129,2.56079,0.549637,24,32765
4.03986,2.47946,0.533563,15,32765
0,0,0,0,32765
4.12476,2.49385,0.538077,15,32765
4.09053,2.45475,0.530789,14,32765
4.01349,2.39036,0.517792,14,32765
4.24413,2.50864,0.54377,39,32765
4.26124,2.49965,0.542696,31,32765
4.20104,2.44551,0.53182,13,32765
4.22639,2.44178,0.532374,12,32765
4.31229,2.47235,0.540043,12,32765
4.2774,2.43362,0.532741,11,32765
4.32028,2.4391,0.534812,11,32765
4.38065,2.45394,0.539061,11,32765
4.34539,2.41537,0.532492,12,32765
4.3536,2.4011,0.529964,11,32765
4.40522,2.41068,0.534035,12,32765
0,0,0,0,32765
0,0,0,0,32765
0,0,0,0,32765
0,0,0,0,32765
0,0,0,0,32765
0,0,0,0,32765
3.90486,2.01988,0.456656,13,32765
3.92947,2.01581,0.457574,17,32765
3.87431,1.97107,0.448864,13,32765
0,0,0,0,32765
0,0,0,0,32765
0,0,0,0,32765
0,0,0,0,32765
0,0,0,0,32765
0,0,0,0,32765
1.95568,0.938005,0.21875,13,32765
1.89594,0.901629,0.211154,14,32765
1.935,0.912286,0.214502,14,32765
1.94711,0.910075,0.214755,16,32765
1.90504,0.882707,0.209213,16,32765
1.93516,0.888892,0.211251,19,32765
1.9291,0.878358,0.209692,20,32765
1.94113,0.876091,0.209938,20,32765
1.92597,0.86149,0.207064,18,32765
1.89248,0.838975,0.202587,18,32765
1.91359,0.840626,0.203812,19,32765
1.87993,0.818367,0.19935,18,32765
1.90099,0.820022,0.200476,19,32765
1.86717,0.798028,0.196019,19,32765
1.86074,0.787919,0.194233,19,32765
1.88179,0.789394,0.195516,19,32765
1.84774,0.767831,0.190804,20,32765
1.89633,0.780714,0.19502,19,32765
1.84364,0.751962,0.188582,20,32765
1.86462,0.75341,0.189653,20,32765
1.83937,0.736255,0.186366,21,32765
1.84184,0.730234,0.185675,20,32765
1.86282,0.731493,0.186829,19,32765
1.82816,0.710999,0.182242,20,32765
1.85842,0.715759,0.184287,20,32765
1.80498,0.688418,0.178104,20,32765
1.82591,0.689608,0.179175,20,32765
1.80955,0.676702,0.176651,21,32765
1.81184,0.670742,0.17587,21,32765
1.82349,0.668165,0.175941,21,32765
1.79766,0.651975,0.172425,21,32765
1.78108,0.639464,0.16984,22,32765
1.82076,0.647003,0.172701,23,32765
1.79472,0.631261,0.169091,21,32765
1.81562,0.632041,0.170193,22,32765
1.80829,0.622974,0.168482,22,32765
1.81976,0.62048,0.168441,22,32765
0,0,0,0,32765
0,0,0,0,32765
0,0,0,0,32765
5.76759,1.8848,0.520152,11,32765
5.79277,1.87265,0.5187,12,32765
5.78919,1.85216,0.514548,12,32765
5.84255,1.8497,0.515467,11,32765
0,0,0,0,32765
3.75206,2.76034,0.546517,29,32765
3.74587,2.73595,0.540301,29,32765
3.7717,2.73492,0.539114,30,32765
3.77301,2.71675,0.534839,29,32765
3.8468,2.75082,0.540991,31,32765
3.85615,2.73843,0.537312,30,32765
3.84928,2.7143,0.532189,30,32765
3.88294,2.7188,0.532767,30,32765
3.91659,2.72318,0.533497,31,32765
3.94225,2.72167,0.532501,33,32765
3.91866,2.68625,0.52592,31,32765
3.95249,2.69019,0.526145,32,32765
4.00289,2.70496,0.528817,33,32765
3.99569,2.6806,0.523831,33,32765
4.0132,2.67278,0.52248,33,32765
4.00581,2.64844,0.517848,32,32765
4.04809,2.65695,0.520078,33,32765
4.07374,2.65462,0.519379,33,32765
4.06592,2.63059,0.514999,33,32765
4.11653,2.6444,0.517371,32,32765
4.12531,2.63109,0.515398,33,32765
4.14254,2.62297,0.514077,34,32765
4.1598,2.61475,0.512577,34,32765
4.20233,2.62226,0.514374,34,32765
4.14357,2.56651,0.503825,25,32765
3.97431,2.44332,0.480763,14,32765
4.01661,2.45084,0.482822,14,32765
4.22067,2.55609,0.503897,29,32765
4.05872,2.43971,0.481848,16,32765
4.15246,2.47723,0.489962,23,32765
4.23797,2.50914,0.496371,41,32765
4.18644,2.45982,0.487217,27,32765
4.24641,2.47598,0.491041,13,32765
4.33216,2.50699,0.498323,13,32765
4.34065,2.49268,0.496218,13,32765
4.29715,2.44885,0.488385,12,32765
4.4094,2.49346,0.497895,13,32765
4.4179,2.47882,0.495692,13,32765
4.42619,2.46425,0.494435,13,32765
4.41713,2.44006,0.489925,13,32765
4.38161,2.40161,0.483869,12,32765
0,0,0,0,32765
0,0,0,0,32765
0,0,0,11,32765
0,0,0,0,32765
0,0,0,0,32765
0,0,0,0,32765
1.94477,1.00756,0.20669,14,32765
2.00135,1.02829,0.211741,16,32765
1.96051,0.998972,0.206298,16,32765
1.94615,0.983423,0.203626,18,32765
1.95845,0.981291,0.203806,18,32765
1.95283,0.97037,0.202281,18,32765
1.95611,0.963884,0.201672,19,32765
1.93253,0.944273,0.198193,20,32765
1.9626,0.950933,0.200052,20,32765
1.92997,0.927079,0.19559,21,32765
1.90611,0.90784,0.192286,20,32765
1.94521,0.918487,0.195254,20,32765
1.93931,0.907794,0.193607,20,32765
1.9243,0.892971,0.191229,20,32765
1.95447,0.899106,0.192976,21,32765
1.91219,0.871957,0.187941,21,32765
1.8879,0.853332,0.18455,21,32765
1.88174,0.842951,0.182771,20,32765
1.88458,0.836704,0.182202,21,32765
1.86009,0.818329,0.178858,21,32765
1.89939,0.82805,0.181778,21,32765
1.83819,0.794089,0.174877,21,32765
1.87752,0.80362,0.177752,21,32765
1.88028,0.797346,0.176917,22,32765
1.84626,0.775607,0.172846,22,32765
1.85812,0.773259,0.172803,21,32765
1.84228,0.759551,0.170576,21,32765
1.8356,0.749755,0.168968,21,32765
1.82887,0.740021,0.16732,22,32765
1.85906,0.745192,0.169378,21,32765
1.85229,0.735418,0.16784,22,32765
1.84548,0.725705,0.166295,22,32765
1.82934,0.71246,0.163754,22,32765
1.82243,0.702882,0.162205,22,32765
1.82477,0.696938,0.161543,23,32765
1.83641,0.694541,0.161597,24,32765
1.82939,0.68507,0.160073,24,32765
1.82236,0.67557,0.15847,24,32765
1.83402,0.672953,0.158441,23,32765
1.82693,0.663502,0.15681,23,32765
1.80099,0.647499,0.1536,20,32765
1.78437,0.634939,0.151299,18,32765
1.74886,0.615971,0.147198,14,32765
1.77913,0.620182,0.148917,13,32765
5.64511,1.94743,0.469374,13,32765
0,0,0,0,32765
0,0,0,0,32765
5.69222,1.90371,0.463615,12,32765
5.65118,1.86974,0.457285,11,32765
0,0,0,0,32765
0,0,0,0,32765
0,0,0,0,32765
0,0,0,0,32765
0,0,0,0,32765
3.71013,2.72642,0.488365,26,32765
3.7434,2.73159,0.490915,23,32765
3.78469,2.74262,0.494142,25,32765
3.76157,2.70685,0.489004,26,32765
3.82717,2.73495,0.4957,24,32765
3.82016,2.7107,0.492484,23,32765
3.86169,2.72115,0.495206,25,32765
3.85422,2.69741,0.491862,24,32765
3.87132,2.69049,0.491683,25,32765
3.88028,2.67779,0.490374,24,32765
3.86469,2.64797,0.486321,25,32765
3.92303,2.66871,0.4906,26,32765
3.90717,2.63914,0.486381,24,32765
3.93256,2.63734,0.486865,25,32765
3.99093,2.65774,0.491189,24,32765
4.0495,2.67759,0.496416,26,32765
4.00859,2.63154,0.488466,26,32765
4.02589,2.6236,0.487665,25,32765
4.06827,2.63169,0.490135,27,32765
4.11912,2.64498,0.493338,26,32765
4.11958,2.62605,0.490923,28,32765
4.10314,2.59661,0.486066,27,32765
4.15383,2.60985,0.489149,28,32765
4.17931,2.60697,0.489454,29,32765
4.17946,2.58827,0.486426,26,32765
0,0,0,0,32765
4.16299,2.53955,0.479826,12,32765
4.16306,2.52062,0.477004,17,32765
4.25693,2.55799,0.485085,22,32765
4.19716,2.50317,0.475468,18,32765
4.2741,2.52994,0.481187,32,32765
4.21407,2.47538,0.471356,48,32765
4.23089,2.46659,0.471117,13,32765
4.30817,2.49249,0.476578,12,32765
4.28195,2.45851,0.47137,12,32765
4.18655,2.38507,0.458095,11,32765
0,0,0,0,32765
0,0,0,0,32765
0,0,0,0,32765
0,0,0,0,32765
0,0,0,0,32765
0,0,0,0,32765
0,0,0,0,32765
0,0,0,0,32765
1.97048,1.04556,0.203935,13,32765
1.91234,1.00653,0.196823,14,32765
1.94224,1.01401,0.198691,15,32765
1.98992,1.03041,0.202448,15,32765
1.95803,1.00553,0.197853,16,32765
1.94367,0.989977,0.195468,17,32765
1.95597,0.987904,0.195556,17,32765
1.92371,0.963501,0.191322,18,32765
1.927,0.957097,0.190377,18,32765
1.92132,0.946279,0.188626,18,32765
1.91552,0.935653,0.186958,19,32765
1.90081,0.920491,0.184435,19,32765
1.84112,0.883874,0.177599,18,32765
1.91608,0.912003,0.183841,19,32765
1.87411,0.884386,0.178825,17,32765
1.85897,0.869891,0.17644,18,32765
1.87094,0.867949,0.176521,20,32765
1.89196,0.870087,0.177588,19,32765
1.88581,0.859737,0.175995,18,32765
1.79793,0.812393,0.166883,19,32765
1.81883,0.814636,0.167955,20,32765
1.87625,0.832805,0.172427,19,32765
1.8791,0.826514,0.171594,20,32765
1.82707,0.796399,0.166076,20,32765
1.86633,0.806174,0.168803,19,32765
1.85984,0.796163,0.167398,20,32765
1.82583,0.774422,0.163428,20,32765
1.84682,0.776091,0.164458,20,32765
1.81256,0.754762,0.160817,18,32765
1.8243,0.752592,0.161028,19,32765
1.836,0.750438,0.16143,18,32765
1.82928,0.740624,0.159979,20,32765
1.81326,0.72717,0.157863,20,32765
1.8064,0.717572,0.156545,20,32765
1.83662,0.722585,0.158472,21,32765
1.80183,0.702139,0.154978,20,32765
1.79486,0.692625,0.153832,21,32765
1.78786,0.683146,0.152513,21,32765
1.79944,0.68081,0.153071,22,32765
1.82968,0.685435,0.155026,22,32765
1.82256,0.676109,0.153807,21,32765
1.8154,0.666741,0.152865,21,32765
1.80823,0.657444,0.151583,21,32765
1.81035,0.651591,0.151515,20,32765
1.84069,0.655639,0.153571,17,32765
0,0,0,0,32765
0,0,0,0,32765
5.72019,1.97488,0.473441,11,32765
5.71713,1.95326,0.471974,12,32765
5.72336,1.93496,0.471938,12,32765
5.72942,1.91693,0.471916,12,32765
5.75453,1.9048,0.472762,11,32765
0,0,0,0,32765
0,0,0,0,32765
0,0,0,0,32765
0,0,0,0,32765
0,0,0,0,32765
3.75111,2.76209,0.449941,30,32765
3.74434,2.73776,0.447401,29,32765
3.76956,2.73712,0.448335,31,32765
3.83525,2.76535,0.454086,30,32765
3.84441,2.75271,0.45343,30,32765
3.82124,2.71681,0.448488,29,32765
3.84653,2.71579,0.448934,29,32765
3.8798,2.72063,0.450511,30,32765
3.90516,2.7193,0.451171,31,32765
3.93878,2.72345,0.452671,31,32765
3.93977,2.70464,0.450758,31,32765
3.9325,2.68031,0.446955,30,32765
3.98264,2.69528,0.450473,32,32765
3.99996,2.68767,0.449806,32,32765
4.00054,2.66922,0.447057,32,32765
4.02597,2.66709,0.448022,31,32765
4.0266,2.64837,0.44524,31,32765
4.06897,2.65668,0.447083,32,32765
4.06134,2.63216,0.443681,32,32765
4.09545,2.63472,0.444598,32,32765
4.12945,2.63727,0.445906,32,32765
4.12986,2.6184,0.443127,31,32765
4.14692,2.61036,0.442133,32,32765
4.16396,2.60222,0.441355,32,32765
4.13023,2.56252,0.434861,25,32765
4.18134,2.57477,0.438027,16,32765
4.17308,2.55038,0.43486,15,32765
4.14763,2.51588,0.429479,15,32765
4.0879,2.46091,0.420814,16,32765
4.17315,2.49338,0.426888,28,32765
4.3015,2.55078,0.437091,47,32765
4.20716,2.4758,0.424525,31,32765
4.2842,2.50218,0.43024,13,32765
4.28405,2.483,0.427185,13,32765
4.32688,2.48876,0.429211,11,32765
1.94702,1.1112,0.191888,13,32765
1.95084,1.10467,0.190885,14,32765
2.05021,1.15176,0.199142,16,32765
2.00192,1.11578,0.193238,16,32765
1.97953,1.09466,0.189983,17,32765
2.02689,1.1121,0.193246,18,32765
1.99564,1.08636,0.188822,19,32765
1.98173,1.07035,0.186262,19,32765
1.99413,1.06849,0.186199,19,32765
1.98893,1.0572,0.184578,20,32765
1.96607,1.03662,0.181367,20,32765
1.96959,1.03007,0.1805,20,32765
1.92885,1.00052,0.175717,21,32765
1.92343,0.989472,0.173931,21,32765
1.91789,0.978533,0.172542,20,32765
1.93905,0.981043,0.173341,21,32765
1.91566,0.961115,0.170279,21,32765
1.92786,0.959164,0.170125,21,32765
1.88643,0.930678,0.165332,20,32765
1.88952,0.924524,0.16455,21,32765
1.91065,0.926824,0.165329,21,32765
1.89587,0.911699,0.163007,22,32765
1.90796,0.90967,0.163094,21,32765
1.893,0.894804,0.160846,20,32765
1.87788,0.880217,0.158642,20,32765
1.89893,0.882411,0.159379,22,32765
1.9019,0.876117,0.158735,22,32765
1.87762,0.857429,0.155727,21,32765
1.85329,0.838794,0.152798,20,32765
1.87428,0.84086,0.153663,22,32765
1.82246,0.810266,0.148636,21,32765
1.85262,0.816205,0.150043,21,32765
1.84622,0.806067,0.148778,20,32765
1.86723,0.807879,0.149655,21,32765
1.8699,0.801774,0.149074,21,32765
1.83589,0.779955,0.145474,22,32765
1.82933,0.769986,0.14414,22,32765
1.83186,0.764027,0.143767,22,32765
1.83441,0.757981,0.143157,22,32765
1.82767,0.748231,0.142028,23,32765
1.79321,0.72718,0.138531,22,32765
1.81416,0.728688,0.139458,22,32765
1.79803,0.71538,0.137524,23,32765
1.80969,0.713117,0.137758,23,32765
1.79344,0.699971,0.136053,22,32765
1.79576,0.69406,0.135705,21,32765
1.77014,0.677429,0.133078,20,32765
1.80035,0.682216,0.134942,17,32765
1.8026,0.676335,0.134523,15,32765
1.75804,0.65318,0.130625,12,32765
0,0,0,0,32765
0,0,0,0,32765
0,0,0,0,32765
0,0,0,0,32765
0,0,0,11,32765
0,0,0,0,32765
0,0,0,0,32765
0,0,0,0,32765
0,0,0,0,32765
0,0,0,0,32765
0,0,0,0,32765
0,0,0,0,32765
0,0,0,0,32765
0,0,0,0,32765
0,0,0,0,32765
0,0,0,0,32765
3.73053,2.73654,0.465791,27,32765
3.75623,2.73576,0.463986,27,32765
3.86247,2.79331,0.472061,27,32765
3.78298,2.7169,0.458189,23,32765
3.84901,2.74498,0.461171,25,32765
3.82596,2.70918,0.454383,25,32765
3.85968,2.71375,0.453932,26,32765
3.8526,2.68963,0.449125,25,32765
3.92707,2.72258,0.453511,27,32765
3.92812,2.70403,0.449667,25,32765
3.97021,2.71357,0.450394,28,32765
3.95475,2.68364,0.445024,26,32765
3.96388,2.6706,0.442163,26,32765
4.04734,2.70755,0.447557,29,32765
4.06474,2.69988,0.44559,27,32765
4.05712,2.67575,0.44106,28,32765
4.03286,2.64055,0.434848,26,32765
4.0502,2.63267,0.432933,26,32765
4.12604,2.66253,0.437721,29,32765
