x, y, z, intensity, ring
11.5604,-0.16447,-1.43294,18,32765
11.5401,-0.2038,-1.4292,18,32765
11.5395,-0.243226,-1.4271,18,32765
11.5585,-0.283395,-1.42925,17,32765
11.5575,-0.322706,-1.42884,18,32765
11.497,-0.360298,-1.42011,18,32765
11.4958,-0.399489,-1.4192,18,32765
11.5343,-0.439822,-1.42243,18,32765
11.5129,-0.478105,-1.42028,18,32765
11.4913,-0.516312,-1.41805,20,32765
11.4898,-0.555522,-1.41576,20,32765
11.4878,-0.595055,-1.41616,20,32765
11.4857,-0.634629,-1.41543,19,32765
11.4636,-0.672776,-1.41323,18,32765
11.4615,-0.71139,-1.41186,17,32765
11.3699,-0.744436,-1.40063,19,32765
11.11,-0.764959,-1.36828,25,32765
11.1668,-0.806978,-1.37433,21,32765
11.1244,-0.842016,-1.36996,19,32765
11.0126,-0.872368,-1.35608,31,32765
11.3261,-0.936983,-1.39454,15,32765
11.3229,-0.976697,-1.39334,16,32765
11.4281,-1.0256,-1.4076,21,32765
11.4246,-1.06475,-1.4063,21,32765
11.421,-1.10351,-1.40571,21,32765
11.4271,-1.14365,-1.40644,20,32765
11.4529,-1.1855,-1.4092,21,32765
11.3995,-1.21939,-1.40262,20,32765
11.3952,-1.25849,-1.40252,21,32765
11.3909,-1.29741,-1.402,21,32765
11.4062,-1.33889,-1.40348,20,32765
11.2341,-1.35769,-1.38258,21,32765
11.2295,-1.39604,-1.38204,20,32765
11.412,-1.45839,-1.40276,18,32765
11.3676,-1.49218,-1.39751,20,32765
11.333,-1.52703,-1.39327,19,32765
11.377,-1.57272,-1.39862,19,32765
11.4109,-1.61761,-1.4022,19,32765
11.3857,-1.65411,-1.39949,19,32765
11.3999,-1.69581,-1.39986,19,32765
11.3548,-1.72881,-1.39427,18,32765
11.3489,-1.76818,-1.39291,19,32765
11.333,-1.80558,-1.39166,40,32765
11.3268,-1.845,-1.39004,48,32765
11.3207,-1.88391,-1.38817,46,32765
11.3241,-1.92434,-1.38829,45,32765
11.2981,-1.9594,-1.38412,44,32765
11.3111,-2.00079,-1.38569,45,32765
11.3044,-2.03918,-1.38478,45,32765
11.3076,-2.07907,-1.38311,39,32765
11.3006,-2.11775,-1.38114,33,32765
11.3032,-2.15839,-1.38084,44,32765
11.2961,-2.19676,-1.37892,45,32765
11.279,-2.23305,-1.37629,46,32765
11.2717,-2.27103,-1.37354,48,32765
11.2642,-2.30976,-1.37056,39,32765
11.2466,-2.34632,-1.36851,31,32765
11.2194,-2.38098,-1.36309,20,32765
11.2794,-2.43421,-1.36879,16,32765
11.2908,-2.47657,-1.36889,17,32765
11.2632,-2.51072,-1.36409,16,32765
11.255,-2.5486,-1.36136,16,32765
11.2467,-2.58667,-1.3582,16,32765
11.2769,-2.63391,-1.36014,16,32765
11.2876,-2.67626,-1.35982,16,32765
11.2404,-2.70506,-1.35152,16,32765
11.2218,-2.7407,-1.34759,18,32765
11.2515,-2.78786,-1.34946,41,32765
11.2329,-2.82307,-1.34475,45,32765
11.2432,-2.86501,-1.34302,45,32765
11.2341,-2.90204,-1.34006,45,32765
11.2152,-2.93687,-1.33498,48,32765
11.2058,-2.97413,-1.33158,49,32765
11.2155,-3.01675,-1.32995,47,32765
11.2059,-3.05419,-1.32538,49,32765
11.1865,-3.08892,-1.32018,51,32765
11.1862,-3.12902,-1.31699,49,32765
11.1761,-3.16651,-1.31329,49,32765
11.1754,-3.20679,-1.31011,51,32765
11.1846,-3.24891,-1.30692,51,32765
11.1933,-3.29146,-1.30514,51,32765
11.1734,-3.32548,-1.2994,50,32765
11.1821,-3.36742,-1.29748,48,32765
11.1717,-3.40359,-1.29237,49,32765
11.1803,-3.44562,-1.28884,47,32765
11.1697,-3.48226,-1.28256,47,32765
11.1588,-3.51887,-1.27704,48,32765
11.1481,-3.55441,-1.27214,47,32765
11.1372,-3.59087,-1.26547,46,32765
11.1357,-3.63025,-1.25966,47,32765
11.1625,-3.67858,-1.25701,43,32765
11.6415,0.233416,-1.57617,19,32765
11.6229,0.192635,-1.56987,19,32765
11.5942,0.152254,-1.56276,19,32765
11.5949,0.112663,-1.56083,19,32765
11.5759,0.0728005,-1.55437,19,32765
11.586,0.0331215,-1.55515,20,32765
11.5667,-0.00710088,-1.54957,21,32765
11.5667,-0.0472358,-1.54824,21,32765
11.5865,-0.0873066,-1.54991,21,32765
11.5665,-0.126699,-1.54559,22,32765
11.5463,-0.165797,-1.54193,22,32765
11.5657,-0.205895,-1.54329,21,32765
11.5454,-0.245099,-1.53854,22,32765
11.5445,-0.284915,-1.53824,22,32765
11.5336,-0.324012,-1.5365,22,32765
11.5227,-0.363187,-1.53381,22,32765
11.5413,-0.40327,-1.53553,22,32765
11.55,-0.442734,-1.53518,23,32765
11.5484,-0.482006,-1.53547,23,32765
11.5071,-0.519549,-1.53042,23,32765
11.159,-0.542089,-1.4821,18,32765
11.0976,-0.577503,-1.47459,20,32765
11.0758,-0.614743,-1.47125,21,32765
11.0241,-0.649843,-1.46491,22,32765
11.0319,-0.687699,-1.4649,25,32765
11.0493,-0.726532,-1.46728,30,32765
10.9876,-0.759706,-1.45878,45,32765
11.0246,-0.799994,-1.46278,36,32765
11.002,-0.83615,-1.46065,27,32765
11.0188,-0.876377,-1.4628,25,32765
11.075,-0.919861,-1.47015,24,32765
11.062,-0.957951,-1.46766,22,32765
11.3745,-1.02477,-1.51046,21,32765
11.4007,-1.06662,-1.51309,19,32765
11.3477,-1.10062,-1.50595,17,32765
11.3439,-1.13963,-1.50547,16,32765
11.2514,-1.16903,-1.4928,17,32765
11.0896,-1.19068,-1.47138,24,32765
10.9672,-1.21572,-1.45558,56,32765
11.0123,-1.25892,-1.46161,56,32765
10.9982,-1.29573,-1.45939,24,32765
10.9839,-1.33229,-1.4578,23,32765
10.999,-1.37235,-1.45988,30,32765
11.0338,-1.41516,-1.46286,21,32765
11.0781,-1.45941,-1.46898,20,32765
11.417,-1.54386,-1.51398,23,32765
11.4118,-1.58315,-1.51327,23,32765
11.3867,-1.61991,-1.50941,23,32765
11.3909,-1.66072,-1.51041,22,32765
11.3952,-1.7011,-1.50966,23,32765
11.3894,-1.74018,-1.50888,23,32765
11.3737,-1.77824,-1.50622,22,32765
11.3577,-1.81584,-1.50487,25,32765
11.2733,-1.84267,-1.49287,25,32765
11.2671,-1.8815,-1.491,27,32765
11.2705,-1.92187,-1.49122,29,32765
11.1566,-1.94154,-1.47523,30,32765
10.906,-1.93578,-1.44213,49,32765
10.9971,-1.99057,-1.45416,34,32765
11.0004,-2.02953,-1.45265,26,32765
10.9839,-2.06544,-1.44944,24,32765
10.9867,-2.10511,-1.44927,22,32765
10.9505,-2.13681,-1.44354,20,32765
10.9433,-2.17397,-1.44213,20,32765
10.9363,-2.21093,-1.43946,19,32765
10.8901,-2.24062,-1.43145,16,32765
10.9019,-2.2821,-1.43316,14,32765
11.2435,-2.39417,-1.47603,17,32765
11.3034,-2.44762,-1.48237,19,32765
11.2954,-2.48592,-1.48011,20,32765
11.2871,-2.52452,-1.47764,19,32765
11.2886,-2.56479,-1.47616,20,32765
11.2512,-2.59639,-1.4692,20,32765
11.262,-2.63926,-1.46899,19,32765
11.2534,-2.67708,-1.46633,19,32765
11.2833,-2.72449,-1.4677,19,32765
11.2455,-2.75566,-1.46115,22,32765
11.2461,-2.79585,-1.45963,44,32765
11.2949,-2.84813,-1.46355,60,32765
11.2859,-2.88547,-1.45949,60,32765
11.2863,-2.92525,-1.45774,60,32765
11.277,-2.96288,-1.45378,61,32765
11.2675,-3.00045,-1.45035,62,32765
11.277,-3.0434,-1.44887,62,32765
11.2482,-3.07592,-1.44182,60,32765
11.2575,-3.11885,-1.44016,61,32765
11.2475,-3.15662,-1.43581,61,32765
11.2373,-3.19443,-1.43208,62,32765
11.2461,-3.23778,-1.43018,61,32765
11.2266,-3.27192,-1.4235,63,32765
11.2352,-3.31473,-1.42188,63,32765
11.2438,-3.35752,-1.41963,63,32765
11.2334,-3.39407,-1.41546,62,32765
11.2135,-3.42761,-1.40913,62,32765
11.222,-3.46989,-1.40575,60,32765
11.2208,-3.50974,-1.40061,59,32765
11.2099,-3.54664,-1.39506,59,32765
11.2085,-3.58547,-1.3913,60,32765
11.1975,-3.62224,-1.38458,61,32765
11.2054,-3.66503,-1.37997,60,32765
11.2037,-3.70436,-1.37417,60,32765
11.5572,0.231094,-1.52763,15,32765
11.6066,0.193156,-1.54044,16,32765
11.5866,0.153384,-1.54405,15,32765
11.5566,0.113713,-1.54493,16,32765
11.576,0.0745934,-1.55338,16,32765
11.645,0.0358046,-1.56687,16,32765
11.5752,-0.00316457,-1.56106,17,32765
11.5746,-0.042732,-1.56476,17,32765
11.5541,-0.0813848,-1.56562,17,32765
11.5633,-0.120713,-1.56981,17,32765
11.5327,-0.159576,-1.56873,17,32765
11.5516,-0.199518,-1.57371,17,32765
11.5306,-0.239579,-1.57371,17,32765
11.5591,-0.280608,-1.58048,17,32765
11.518,-0.319766,-1.57804,17,32765
11.5264,-0.359565,-1.58171,17,32765
11.525,-0.398636,-1.58308,17,32765
11.5331,-0.438356,-1.58707,17,32765
11.5116,-0.476537,-1.58487,18,32765
11.4702,-0.514052,-1.58086,18,32765
11.3494,-0.547124,-1.56644,17,32765
11.0998,-0.572414,-1.53432,18,32765
11.0583,-0.607601,-1.52903,19,32765
10.9967,-0.641237,-1.52151,20,32765
11.0438,-0.681906,-1.52894,21,32765
11.061,-0.721201,-1.53289,22,32765
10.9892,-0.754488,-1.52408,25,32765
10.9864,-0.792474,-1.52496,27,32765
10.9737,-0.829513,-1.52372,22,32765
10.9905,-0.868891,-1.52684,22,32765
11.027,-0.909598,-1.53172,22,32765
11.0436,-0.949246,-1.534,21,32765
11.0796,-0.990565,-1.54075,17,32765
11.1058,-1.03103,-1.54439,16,32765
11.0232,-1.06184,-1.53438,18,32765
10.9998,-1.09796,-1.53141,19,32765
10.937,-1.13014,-1.52164,19,32765
10.9427,-1.16933,-1.5236,21,32765
10.9488,-1.2081,-1.52275,26,32765
10.9544,-1.24686,-1.5246,30,32765
10.9502,-1.28416,-1.52318,24,32765
10.9458,-1.32133,-1.52331,21,32765
11.0003,-1.36598,-1.53065,21,32765
11.0155,-1.40594,-1.53168,21,32765
11.05,-1.44931,-1.536,22,32765
11.2709,-1.51791,-1.56596,19,32765
11.3542,-1.56852,-1.57702,18,32765
11.3686,-1.61033,-1.57783,19,32765
11.3634,-1.64873,-1.57603,18,32765
11.3577,-1.68835,-1.57452,18,32765
11.352,-1.72809,-1.57319,18,32765
11.3854,-1.77391,-1.57569,17,32765
11.3304,-1.80586,-1.56757,17,32765
11.3439,-1.84743,-1.56906,16,32765
11.2792,-1.87615,-1.55891,15,32765
10.9799,-1.86509,-1.51653,14,32765
10.9249,-1.89474,-1.50775,15,32765
10.8304,-1.91785,-1.49488,20,32765
10.9021,-1.96939,-1.5029,18,32765
10.915,-2.01038,-1.504,18,32765
10.8793,-2.04162,-1.49751,17,32765
10.892,-2.08231,-1.49801,17,32765
10.8851,-2.11933,-1.49659,16,32765
10.878,-2.15675,-1.49469,15,32765
10.9095,-2.20224,-1.49858,14,32765
10.9119,-2.24178,-1.49772,14,32765
10.9335,-2.28526,-1.50003,13,32765
11.1585,-2.37228,-1.53004,14,32765
11.2959,-2.44177,-1.5482,15,32765
11.2879,-2.48011,-1.54533,16,32765
11.2989,-2.52246,-1.54742,16,32765
11.2712,-2.55609,-1.54354,16,32765
11.2627,-2.5944,-1.54153,16,32765
11.2831,-2.63907,-1.54352,15,32765
11.2744,-2.67765,-1.54115,16,32765
11.2653,-2.7157,-1.54084,16,32765
11.2563,-2.75359,-1.53928,15,32765
11.228,-2.78699,-1.53413,20,32765
11.2093,-2.82185,-1.53141,45,32765
11.2191,-2.86428,-1.53272,46,32765
11.2001,-2.89911,-1.53056,47,32765
11.1905,-2.93674,-1.52877,47,32765
11.1998,-2.97954,-1.53098,48,32765
11.2089,-3.02247,-1.53254,48,32765
11.1892,-3.05754,-1.53065,46,32765
11.1984,-3.09996,-1.53127,45,32765
11.1882,-3.13711,-1.53017,46,32765
11.1778,-3.17409,-1.52956,47,32765
11.1673,-3.21089,-1.53,47,32765
11.1853,-3.25659,-1.53206,47,32765
11.1934,-3.29925,-1.53498,49,32765
11.1633,-3.33104,-1.53233,48,32765
11.1714,-3.37404,-1.5327,48,32765
11.1698,-3.41317,-1.53447,49,32765
11.1492,-3.44638,-1.53316,45,32765
11.1569,-3.48809,-1.53649,44,32765
11.1456,-3.52412,-1.53609,43,32765
11.1714,-3.57273,-1.5442,46,32765
11.1786,-3.61515,-1.54644,46,32765
11.176,-3.65469,-1.54941,48,32765
11.1452,-3.68383,-1.54924,50,32765
11.5819,0.23113,-1.64222,19,32765
11.6015,0.192495,-1.65128,19,32765
11.6012,0.152884,-1.65753,18,32765
11.6009,0.113338,-1.66239,18,32765
11.5806,0.0736957,-1.66536,18,32765
11.5604,0.0345026,-1.66665,18,32765
11.5996,-0.00433213,-1.6759,19,32765
11.5396,-0.0438749,-1.671,19,32765
11.5685,-0.0828774,-1.67885,20,32765
11.5183,-0.121744,-1.6745,20,32765
11.5372,-0.161258,-1.68034,20,32765
11.5461,-0.201163,-1.68405,20,32765
11.5449,-0.241736,-1.68676,20,32765
11.5436,-0.282213,-1.68947,21,32765
11.5421,-0.322536,-1.69244,20,32765
11.501,-0.360985,-1.68895,20,32765
11.5391,-0.401461,-1.69613,21,32765
11.5175,-0.440214,-1.69584,20,32765
11.5159,-0.479276,-1.69637,20,32765
11.4942,-0.517804,-1.6949,21,32765
11.4921,-0.556797,-1.69687,21,32765
11.144,-0.577514,-1.64783,21,32765
11.0827,-0.611862,-1.63924,26,32765
11.0805,-0.649149,-1.63993,26,32765
11.0781,-0.687164,-1.64052,27,32765
11.0854,-0.726048,-1.64319,28,32765
11.0827,-0.76428,-1.64397,29,32765
11.1193,-0.805561,-1.65072,33,32765
11.1559,-0.846912,-1.6567,33,32765
11.1726,-0.887035,-1.66001,32,32765
11.1794,-0.926034,-1.66086,33,32765
11.1959,-0.966325,-1.66332,34,32765
11.2416,-1.00917,-1.67192,36,32765
11.2579,-1.04939,-1.67436,27,32765
11.1851,-1.08178,-1.66508,34,32765
11.1813,-1.12054,-1.66484,38,32765
11.2071,-1.16263,-1.66766,39,32765
11.2029,-1.20182,-1.66826,41,32765
11.199,-1.24052,-1.66598,40,32765
11.1946,-1.27914,-1.66647,41,32765
11.2002,-1.31853,-1.66648,42,32765
11.1956,-1.35666,-1.66661,42,32765
11.191,-1.39495,-1.66571,43,32765
11.1865,-1.43315,-1.66397,42,32765
11.1718,-1.47079,-1.66135,41,32765
11.2159,-1.51614,-1.6672,35,32765
11.3774,-1.57758,-1.69075,21,32765
11.3526,-1.61401,-1.68592,22,32765
11.3865,-1.65818,-1.68992,22,32765
11.3808,-1.69799,-1.68841,21,32765
11.3945,-1.74092,-1.68997,21,32765
11.3595,-1.77633,-1.68269,20,32765
11.3632,-1.81766,-1.68278,20,32765
11.3571,-1.85627,-1.68155,20,32765
11.3901,-1.90142,-1.68528,21,32765
11.2374,-1.91569,-1.66171,16,32765
10.9482,-1.90561,-1.61783,15,32765
10.9123,-1.93928,-1.61276,17,32765
10.9254,-1.98065,-1.61286,18,32765
10.909,-2.01644,-1.60983,18,32765
10.922,-2.05692,-1.61023,18,32765
10.9346,-2.09788,-1.61089,19,32765
10.9082,-2.13135,-1.60661,18,32765
10.9108,-2.1709,-1.60612,17,32765
10.884,-2.20484,-1.6018,17,32765
10.9057,-2.2484,-1.60388,15,32765
10.9466,-2.29604,-1.60932,14,32765
11.2196,-2.39366,-1.64866,17,32765
11.2987,-2.45094,-1.65968,19,32765
11.2714,-2.48514,-1.65396,20,32765
11.263,-2.52323,-1.65339,19,32765
11.2932,-2.57003,-1.65782,19,32765
11.2654,-2.60407,-1.65297,18,32765
11.2568,-2.64209,-1.65099,19,32765
11.248,-2.6807,-1.64861,19,32765
11.2582,-2.72343,-1.65112,19,32765
11.2299,-2.75668,-1.64673,19,32765
11.2305,-2.79728,-1.64561,22,32765
11.2597,-2.84438,-1.64982,51,32765
11.2599,-2.88464,-1.64989,59,32765
11.2599,-2.92469,-1.65044,61,32765
11.2502,-2.96264,-1.64863,61,32765
11.2593,-3.00577,-1.65101,62,32765
11.2397,-3.04126,-1.64854,63,32765
11.2486,-3.0844,-1.65074,59,32765
11.229,-3.11919,-1.64733,56,32765
11.2378,-3.16192,-1.64902,57,32765
11.2273,-3.19917,-1.64839,57,32765
11.2261,-3.23899,-1.65022,59,32765
11.225,-3.27947,-1.64974,60,32765
11.2234,-3.31956,-1.65144,63,32765
11.2122,-3.35724,-1.65139,62,32765
11.2202,-3.40053,-1.65193,63,32765
11.228,-3.44284,-1.65517,64,32765
11.2167,-3.47927,-1.65515,59,32765
11.2148,-3.51835,-1.65727,56,32765
11.2034,-3.55467,-1.65686,57,32765
11.2006,-3.59453,-1.66115,57,32765
11.1889,-3.63105,-1.66076,58,32765
11.1861,-3.67074,-1.66381,58,32765
11.1835,-3.70936,-1.66765,60,32765
11.6479,0.242966,-1.80856,16,32765
11.6287,0.202805,-1.80712,15,32765
11.5502,0.163026,-1.79513,15,32765
11.5704,0.123642,-1.79873,16,32765
11.5707,0.0833992,-1.79909,15,32765
11.6102,0.0438944,-1.80641,15,32765
11.5511,0.00389226,-1.79649,15,32765
11.5413,-0.0355069,-1.7942,16,32765
11.551,-0.0748888,-1.79604,16,32765
11.5409,-0.11443,-1.79351,16,32765
11.5208,-0.153795,-1.78986,16,32765
11.54,-0.193753,-1.7928,16,32765
11.569,-0.234254,-1.79621,17,32765
11.5189,-0.273251,-1.78791,17,32765
11.518,-0.313108,-1.78672,16,32765
11.5171,-0.352365,-1.78521,16,32765
11.5159,-0.39154,-1.78492,16,32765
11.5147,-0.431056,-1.78384,17,32765
11.4737,-0.468927,-1.77727,17,32765
11.5116,-0.509978,-1.78277,17,32765
11.5297,-0.550679,-1.78439,17,32765
11.2517,-0.576363,-1.73996,21,32765
11.2004,-0.612521,-1.73149,27,32765
11.2181,-0.652057,-1.73362,27,32765
11.206,-0.68985,-1.73185,28,32765
11.2235,-0.729158,-1.73379,28,32765
11.241,-0.768501,-1.73478,30,32765
11.2583,-0.808191,-1.73578,30,32765
11.2356,-0.845048,-1.73385,31,32765
11.2624,-0.886851,-1.73679,32,32765
11.2396,-0.924843,-1.73299,32,32765
11.2169,-0.962931,-1.72824,31,32765
11.2431,-1.00535,-1.73177,31,32765
11.2396,-1.04462,-1.73103,20,32765
11.1868,-1.07865,-1.72327,33,32765
11.1832,-1.11693,-1.72218,33,32765
11.1795,-1.15528,-1.721,33,32765
11.1559,-1.19142,-1.71729,32,32765
11.1715,-1.23208,-1.71941,32,32765
11.1869,-1.27311,-1.72164,32,32765
11.1825,-1.31188,-1.72123,34,32765
11.1584,-1.34837,-1.71743,33,32765
11.1734,-1.38969,-1.71935,32,32765
11.149,-1.42602,-1.71554,33,32765
11.1637,-1.46739,-1.71773,32,32765
11.2369,-1.51629,-1.73018,24,32765
11.3493,-1.57125,-1.74729,17,32765
11.383,-1.61585,-1.75304,18,32765
11.3775,-1.6547,-1.75223,17,32765
11.3232,-1.68672,-1.74285,17,32765
11.3566,-1.7315,-1.74747,16,32765
11.3506,-1.77088,-1.74739,17,32765
11.3248,-1.80769,-1.74365,16,32765
11.3381,-1.85073,-1.7454,16,32765
11.3317,-1.89036,-1.74447,16,32765
11.2669,-1.91972,-1.73351,14,32765
11.0558,-1.92297,-1.70105,13,32765
10.9617,-1.94528,-1.68669,14,32765
10.9553,-1.98306,-1.68449,14,32765
10.929,-2.01688,-1.68125,14,32765
10.9223,-2.05374,-1.68042,14,32765
10.9157,-2.09082,-1.67733,14,32765
10.9086,-2.12791,-1.67701,14,32765
11.0178,-2.18833,-1.69375,14,32765
11.0592,-2.23611,-1.69765,14,32765
11.1581,-2.29614,-1.71334,13,32765
11.2858,-2.36279,-1.733,15,32765
11.278,-2.40141,-1.73048,16,32765
11.299,-2.44637,-1.73302,15,32765
11.2813,-2.4826,-1.72925,15,32765
11.254,-2.5165,-1.72344,15,32765
11.2746,-2.56136,-1.72585,15,32765
11.2663,-2.5994,-1.72352,16,32765
11.2769,-2.64256,-1.72397,16,32765
11.2491,-2.67595,-1.71876,15,32765
11.2403,-2.71409,-1.71643,15,32765
11.2314,-2.75221,-1.71369,15,32765
11.2801,-2.80431,-1.71988,17,32765
11.2136,-2.82803,-1.70685,39,32765
11.1948,-2.86336,-1.70321,45,32765
11.1952,-2.90338,-1.70143,48,32765
11.2052,-2.94562,-1.70044,48,32765
11.196,-2.98301,-1.69594,50,32765
11.1863,-3.02055,-1.69316,50,32765
11.2053,-3.06555,-1.69437,45,32765
11.1766,-3.09752,-1.68764,44,32765
11.1858,-3.13994,-1.68713,45,32765
11.195,-3.18264,-1.68533,45,32765
11.1755,-3.21725,-1.67925,47,32765
11.1843,-3.26002,-1.67799,48,32765
11.1743,-3.2971,-1.67258,49,32765
11.1831,-3.33956,-1.67022,51,32765
11.1536,-3.37052,-1.66419,50,32765
11.1528,-3.40995,-1.66007,51,32765
11.1614,-3.45177,-1.6577,48,32765
11.1795,-3.49666,-1.6557,45,32765
11.169,-3.53294,-1.6496,45,32765
11.1585,-3.56912,-1.64236,46,32765
11.1477,-3.60528,-1.63673,45,32765
11.1558,-3.64757,-1.63289,46,32765
11.1549,-3.68619,-1.6248,48,32765
11.147,0.231948,-1.83865,15,32765
11.1869,0.194413,-1.84673,14,32765
11.0987,0.15586,-1.83235,13,32765
11.3457,0.120314,-1.87359,13,32765
11.5433,0.0821377,-1.90653,18,32765
11.5927,0.0426389,-1.91584,18,32765
11.5731,0.00259323,-1.91189,18,32765
11.5436,-0.036935,-1.90624,18,32765
11.5631,-0.0765096,-1.9098,18,32765
11.5432,-0.11611,-1.90555,18,32765
11.5724,-0.156266,-1.90985,19,32765
11.5422,-0.195688,-1.90484,19,32765
11.5417,-0.235716,-1.90364,19,32765
11.5705,-0.276617,-1.90789,19,32765
11.5697,-0.316773,-1.90669,20,32765
11.4997,-0.354197,-1.8938,19,32765
11.5182,-0.394105,-1.89676,19,32765
11.4973,-0.433005,-1.89243,19,32765
11.4958,-0.472549,-1.89197,20,32765
11.5238,-0.513361,-1.89622,20,32765
11.4926,-0.551862,-1.88991,20,32765
11.4219,-0.58814,-1.87689,22,32765
11.3312,-0.622828,-1.86147,38,32765
11.339,-0.662358,-1.86215,40,32765
11.3367,-0.701289,-1.8619,40,32765
11.3345,-0.739874,-1.86077,40,32765
11.3027,-0.776331,-1.85385,39,32765
11.3298,-0.817061,-1.85664,40,32765
11.3268,-0.855761,-1.85775,40,32765
11.324,-0.895676,-1.85611,40,32765
11.3209,-0.935625,-1.85535,40,32765
11.2883,-0.973269,-1.84878,39,32765
11.3046,-1.01519,-1.85096,38,32765
11.3502,-1.05938,-1.85826,29,32765
11.2483,-1.08914,-1.84199,36,32765
11.2446,-1.12774,-1.84088,41,32765
11.2507,-1.16744,-1.8413,42,32765
11.2566,-1.20709,-1.84221,42,32765
11.2623,-1.24714,-1.8429,42,32765
11.2384,-1.28412,-1.83889,42,32765
11.2535,-1.32549,-1.84167,43,32765
11.249,-1.36472,-1.84089,42,32765
11.2443,-1.40404,-1.83977,42,32765
11.2395,-1.44324,-1.83897,42,32765
11.2443,-1.48376,-1.83973,42,32765
11.2293,-1.52116,-1.83851,38,32765
11.3708,-1.58032,-1.86153,20,32765
11.3555,-1.61816,-1.85964,20,32765
11.3989,-1.66416,-1.86683,20,32765
11.3445,-1.69636,-1.85697,20,32765
11.3486,-1.73687,-1.85716,20,32765
11.3718,-1.78092,-1.86187,19,32765
11.3655,-1.82104,-1.86113,20,32765
11.3398,-1.85797,-1.85667,19,32765
11.3528,-1.90099,-1.85892,19,32765
11.327,-1.93718,-1.85377,19,32765
11.3398,-1.97973,-1.85595,19,32765
11.3526,-2.02213,-1.85822,18,32765
11.3264,-2.05786,-1.85276,19,32765
11.3388,-2.10024,-1.85567,19,32765
11.225,-2.11847,-1.83733,17,32765
11.005,-2.11568,-1.79927,17,32765
11.0365,-2.16078,-1.80528,16,32765
11.3294,-2.25847,-1.85321,18,32765
11.3221,-2.29765,-1.84956,18,32765
11.2949,-2.33278,-1.8457,18,32765
11.2676,-2.36759,-1.84138,18,32765
11.2792,-2.4104,-1.842,19,32765
11.2904,-2.45339,-1.84324,19,32765
11.2438,-2.48332,-1.83465,19,32765
11.2743,-2.53018,-1.83807,18,32765
11.2852,-2.57304,-1.83918,18,32765
11.2479,-2.60455,-1.83214,17,32765
11.2681,-2.65004,-1.83433,17,32765
11.2595,-2.68809,-1.83206,18,32765
11.2219,-2.7194,-1.82503,17,32765
11.1938,-2.75286,-1.81917,17,32765
11.2136,-2.7978,-1.82124,19,32765
11.2239,-2.84078,-1.82009,39,32765
11.272,-2.89345,-1.82721,58,32765
11.2723,-2.93385,-1.82548,60,32765
11.2726,-2.97395,-1.8231,63,32765
11.2538,-3.00914,-1.81702,62,32765
11.2536,-3.04958,-1.81575,63,32765
11.2439,-3.08708,-1.81261,58,32765
11.2436,-3.12723,-1.81026,57,32765
11.2337,-3.16463,-1.80685,57,32765
11.2238,-3.2022,-1.80214,56,32765
11.2423,-3.24799,-1.80204,58,32765
11.232,-3.28556,-1.79789,58,32765
11.2219,-3.32292,-1.79244,59,32765
11.2212,-3.36283,-1.78872,60,32765
11.22,-3.40263,-1.78701,60,32765
11.2096,-3.43949,-1.78143,59,32765
11.1993,-3.47576,-1.77622,58,32765
11.2078,-3.51794,-1.77297,58,32765
11.1973,-3.55443,-1.76684,58,32765
11.1962,-3.59384,-1.76105,58,32765
11.1854,-3.63024,-1.75538,60,32765
11.1933,-3.67278,-1.7517,59,32765
0,-0,-0,0,32765
10.5976,3.44099,2.05396,21,32765
10.7586,3.45583,2.08098,24,32765
10.8543,3.44876,2.09439,31,32765
10.922,3.43117,2.10388,31,32765
11.0373,3.42714,2.11994,24,32765
11.1899,3.43467,2.14467,23,32765
11.2584,3.41511,2.1513,25,32765
11.355,3.40357,2.16383,25,32765
11.4425,3.38829,2.17376,23,32765
11.5392,3.37554,2.18633,23,32765
11.6358,3.36311,2.19883,24,32765
11.7416,3.35309,2.21357,24,32765
11.8762,3.3504,2.23213,22,32765
12.0014,3.34362,2.24992,26,32765
12.0513,3.31483,2.25142,17,32765
12.0151,3.26288,2.23892,12,32765
11.9885,3.2136,2.22754,13,32765
12.0755,3.19503,2.2381,13,32765
12.0106,3.13591,2.2191,13,32765
11.9738,3.08458,2.20619,13,32765
12.0703,3.06717,2.21896,13,32765
11.9471,2.99424,2.19097,13,32765
12.0246,2.97182,2.19866,12,32765
11.9867,2.92144,2.18764,12,32765
11.8149,2.83859,2.15063,12,32765
11.7481,2.78194,2.13346,12,32765
11.2976,2.63562,2.04582,12,32765
10.9421,2.51427,1.97725,14,32765
10.8353,2.45223,1.95472,17,32765
10.7572,2.39716,1.93695,23,32765
10.7656,2.36188,1.93382,29,32765
10.7738,2.32657,1.93098,37,32765
10.8202,2.29968,1.936,42,32765
10.7703,2.25241,1.92254,43,32765
10.778,2.21715,1.92036,42,32765
10.8047,2.18605,1.92218,36,32765
10.8605,2.16018,1.92903,27,32765
11.1099,2.17159,1.96843,22,32765
11.6589,2.23908,2.06356,24,32765
11.9281,2.25006,2.10719,33,32765
11.9744,2.21843,2.1124,41,32765
11.9918,2.18018,2.1119,46,32765
11.9802,2.1364,2.1055,50,32765
11.9973,2.09799,2.10551,50,32765
11.9948,2.05659,2.10194,49,32765
11.9822,2.01464,2.09697,50,32765
11.9889,1.97635,2.09483,50,32765
11.976,1.93415,2.09053,51,32765
11.9827,1.8945,2.08855,52,32765
11.9698,1.85117,2.08369,50,32765
11.976,1.81096,2.083,50,32765
11.9627,1.76754,2.07896,50,32765
11.9883,1.73037,2.08083,49,32765
11.9359,1.6821,2.068,51,32765
11.9418,1.64219,2.06642,49,32765
11.9471,1.60326,2.06647,50,32765
11.9233,1.56005,2.05949,50,32765
11.9286,1.52074,2.05802,50,32765
11.9339,1.48172,2.05593,50,32765
11.9193,1.43979,2.05166,50,32765
11.9045,1.39868,2.04747,50,32765
11.89,1.35682,2.04139,51,32765
11.9045,1.31886,2.04134,52,32765
11.8795,1.2763,2.03547,51,32765
11.8938,1.23794,2.035,51,32765
11.8881,1.19819,2.03296,51,32765
11.8727,1.15661,2.02785,50,32765
11.8865,1.11828,2.02779,52,32765
11.871,1.07727,2.02155,51,32765
11.8748,1.03783,2.01999,52,32765
11.849,0.996503,2.01314,51,32765
11.8624,0.958049,2.01279,52,32765
11.8557,0.918339,2.01084,53,32765
11.8591,0.879081,2.00803,52,32765
11.8427,0.838309,2.00237,51,32765
11.8455,0.799835,2.00171,52,32765
11.8485,0.76138,1.99881,53,32765
11.8315,0.721683,1.99375,52,32765
11.8341,0.68341,1.99187,53,32765
11.8366,0.644634,1.99005,52,32765
11.8194,0.605067,1.98413,52,32765
11.8216,0.566277,1.98233,53,32765
11.814,0.527408,1.97795,50,32765
11.8259,0.489454,1.97709,52,32765
11.808,0.45026,1.97186,52,32765
11.8099,0.411802,1.96921,52,32765
11.7722,0.371786,1.95983,51,32765
11.8132,0.334663,1.96376,53,32765
11.7753,0.295245,1.95445,52,32765
11.7766,0.257035,1.95188,52,32765
11.7579,0.219257,1.94664,51,32765
11.779,0.181605,1.94543,53,32765
11.7503,0.143216,1.93853,53,32765
11.7613,0.105132,1.93591,53,32765
11.7523,0.0673715,1.93063,52,32765
11.7332,0.0298507,1.9242,52,32765
11.7438,-0.00733269,1.92161,54,32765
11.7346,-0.0444374,1.91537,52,32765
11.7449,-0.0816756,1.91351,54,32765
11.7159,-0.118837,1.90303,52,32765
11.726,-0.156043,1.90016,54,32765
10.5676,3.43508,1.94022,29,32765
10.7006,3.44105,1.9606,29,32765
10.787,3.43119,1.97148,32,32765
10.9018,3.42859,1.98899,48,32765
10.9326,3.39834,1.98864,31,32765
11.0476,3.39468,2.00515,29,32765
11.2008,3.40135,2.02663,29,32765
11.307,3.39283,2.04005,31,32765
11.3567,3.36651,2.04245,32,32765
11.4819,3.36236,2.05929,29,32765
11.5785,3.35012,2.07098,27,32765
11.6465,3.32946,2.07804,28,32765
11.7812,3.3271,2.09543,29,32765
11.897,3.318,2.11044,28,32765
11.9658,3.29475,2.11498,27,32765
12.0056,3.26367,2.11639,14,32765
11.9122,3.19645,2.09366,14,32765
11.9993,3.17811,2.1035,13,32765
11.9723,3.1291,2.09194,13,32765
11.9831,3.09011,2.08783,13,32765
11.9555,3.04106,2.07816,13,32765
10.8564,2.72359,1.88234,21,32765
10.8181,2.67629,1.86994,40,32765
10.7695,2.62737,1.85796,48,32765
10.7882,2.59445,1.8561,52,32765
10.7972,2.55924,1.85314,49,32765
10.7871,2.51892,1.84591,45,32765
10.7766,2.4786,1.84008,37,32765
10.7657,2.43878,1.83509,30,32765
10.8126,2.41175,1.83947,25,32765
10.8403,2.38047,1.83959,19,32765
11.0125,2.38029,1.86449,15,32765
12.0338,2.55993,2.03382,47,32765
12.0136,2.51468,2.02545,58,32765
12.0222,2.47529,2.02302,61,32765
12.0305,2.43618,2.02122,62,32765
12.0194,2.39276,2.01604,63,32765
12.0279,2.35303,2.01225,63,32765
12.0164,2.30965,2.00817,63,32765
12.0049,2.26643,2.0023,63,32765
11.9931,2.2237,1.99744,64,32765
11.9814,2.18004,1.992,64,32765
11.9892,2.13969,1.98901,64,32765
11.9869,2.09778,1.9857,66,32765
11.9843,2.05635,1.98223,63,32765
11.9717,2.01437,1.97745,65,32765
11.9687,1.97445,1.9737,63,32765
11.9558,1.93224,1.96958,63,32765
11.9722,1.89414,1.96921,65,32765
11.969,1.85229,1.96614,64,32765
11.9557,1.80906,1.96225,63,32765
11.9717,1.76997,1.9632,65,32765
11.9582,1.72707,1.95848,64,32765
11.9448,1.68433,1.9526,64,32765
11.9507,1.64434,1.95103,65,32765
11.9168,1.60006,1.94468,65,32765
11.9126,1.55944,1.94118,64,32765
11.9081,1.51886,1.93812,66,32765
11.9133,1.47984,1.93603,65,32765
11.9085,1.4391,1.93353,66,32765
11.8937,1.39796,1.92954,65,32765
11.8987,1.35831,1.92682,65,32765
11.8838,1.317,1.92191,66,32765
11.8686,1.2755,1.91791,65,32765
11.8927,1.23813,1.91894,67,32765
11.8771,1.19733,1.91541,67,32765
11.8617,1.15573,1.91048,67,32765
11.8657,1.11645,1.90874,67,32765
11.8501,1.07545,1.9027,66,32765
11.8637,1.03687,1.90272,68,32765
11.8378,0.995519,1.89615,67,32765
11.8512,0.957042,1.89571,68,32765
11.8347,0.916544,1.89228,68,32765
11.8381,0.877296,1.88948,68,32765
11.8315,0.837229,1.88557,67,32765
11.8244,0.798067,1.88335,67,32765
11.8175,0.758988,1.87889,66,32765
11.8202,0.720533,1.87715,66,32765
11.8228,0.682238,1.87527,67,32765
11.8055,0.642367,1.87033,67,32765
11.8277,0.604859,1.87085,66,32765
11.8102,0.565038,1.86593,67,32765
11.8124,0.526588,1.86319,66,32765
11.8144,0.488173,1.86069,66,32765
11.7965,0.448957,1.85564,67,32765
11.7983,0.410478,1.853,67,32765
11.8,0.371687,1.85019,68,32765
11.8016,0.333298,1.84756,67,32765
11.8031,0.294849,1.8448,68,32765
11.7846,0.25606,1.83914,66,32765
11.7462,0.217834,1.83101,68,32765
11.7475,0.179861,1.82654,67,32765
11.7483,0.141876,1.82453,68,32765
11.7494,0.103654,1.82029,68,32765
11.7305,0.0658207,1.81358,68,32765
11.7311,0.0283636,1.81039,67,32765
11.7318,-0.00886182,1.80619,68,32765
11.7324,-0.0460202,1.80156,67,32765
11.7228,-0.0831681,1.79658,67,32765
11.7234,-0.120614,1.79092,67,32765
11.7137,-0.157633,1.78495,69,32765
10.54,3.43309,1.79879,23,32765
10.6536,3.43338,1.81894,23,32765
10.7491,3.42648,1.83356,22,32765
10.8727,3.42788,1.85385,30,32765
10.8931,3.39523,1.85659,35,32765
11.0455,3.40331,1.88086,23,32765
11.132,3.39086,1.89327,24,32765
11.2089,3.3754,1.90426,23,32765
11.3332,3.37352,1.92305,24,32765
11.4104,3.35649,1.93365,25,32765
11.5064,3.34452,1.94844,24,32765
11.6312,3.33961,1.96703,24,32765
11.7277,3.3258,1.98068,24,32765
11.8813,3.32694,2.00379,23,32765
11.9781,3.31175,2.01643,33,32765
12.0271,3.28302,2.02201,15,32765
12.095,3.25958,2.03044,13,32765
12.0009,3.19218,2.01104,12,32765
12.0211,3.15538,2.01105,13,32765
12.0031,3.1082,2.00475,13,32765
11.9943,3.06415,1.99964,13,32765
10.8844,2.74273,1.81205,18,32765
10.8553,2.69735,1.80411,33,32765
10.8739,2.66439,1.80417,23,32765
10.8636,2.62397,1.79963,17,32765
11.0262,2.6244,1.82343,14,32765
11.1215,2.60827,1.8367,12,32765
11.7077,2.7043,1.93036,12,32765
11.8421,2.69426,1.9482,12,32765
11.9668,2.68159,1.96529,13,32765
11.9469,2.63641,1.95773,13,32765
11.9464,2.59463,1.95345,13,32765
12.0227,2.56928,1.96375,37,32765
12.0605,2.5352,1.96678,49,32765
12.0502,2.49077,1.95947,49,32765
12.039,2.44782,1.95552,49,32765
12.0278,2.40489,1.95039,49,32765
12.0168,2.36156,1.94416,49,32765
12.0053,2.31814,1.94005,49,32765
12.0134,2.27792,1.93718,49,32765
12.0021,2.23399,1.93095,49,32765
12,2.19229,1.928,51,32765
11.988,2.14916,1.92315,51,32765
11.9955,2.10931,1.92044,49,32765
12.0029,2.06939,1.91759,50,32765
11.9905,2.02642,1.91267,50,32765
11.9976,1.98692,1.90921,51,32765
11.9849,1.94449,1.90427,50,32765
11.9916,1.9054,1.9016,50,32765
11.9883,1.86443,1.89806,52,32765
11.946,1.81706,1.88774,50,32765
11.9328,1.77425,1.88265,50,32765
11.9388,1.73399,1.88185,50,32765
11.9451,1.6938,1.87848,51,32765
11.9313,1.65081,1.87497,52,32765
11.9274,1.61005,1.87031,50,32765
11.9232,1.56937,1.86636,51,32765
11.9087,1.52848,1.86247,52,32765
11.9431,1.49332,1.8665,51,32765
11.8897,1.44708,1.85321,50,32765
11.9042,1.40994,1.85432,52,32765
11.8896,1.36799,1.84878,51,32765
11.8842,1.3281,1.84703,51,32765
11.8887,1.28896,1.84578,50,32765
11.8836,1.24853,1.84114,51,32765
11.868,1.2078,1.83779,52,32765
11.8722,1.16864,1.83555,52,32765
11.8761,1.1296,1.83514,52,32765
11.87,1.08946,1.83289,52,32765
11.8739,1.05019,1.83054,53,32765
11.8576,1.00985,1.82736,52,32765
11.861,0.970933,1.82643,52,32765
11.8446,0.930369,1.82224,52,32765
11.8476,0.892272,1.82148,52,32765
11.8505,0.853435,1.82171,54,32765
11.8533,0.815502,1.8204,54,32765
11.8361,0.775537,1.81783,54,32765
11.8387,0.737266,1.81706,55,32765
11.841,0.698728,1.81739,54,32765
11.8238,0.658516,1.81211,52,32765
11.8257,0.620446,1.81311,53,32765
11.8277,0.581481,1.81301,52,32765
11.7899,0.541333,1.80793,53,32765
11.7916,0.502664,1.80779,52,32765
11.7931,0.464103,1.80836,53,32765
11.7945,0.426165,1.80873,52,32765
11.7759,0.38699,1.80697,53,32765
11.7671,0.348445,1.80623,53,32765
11.7681,0.3097,1.80681,54,32765
11.7689,0.270926,1.80757,53,32765
11.7695,0.232827,1.80881,52,32765
11.7503,0.194919,1.80659,53,32765
11.7506,0.157798,1.80824,54,32765
11.7606,0.120387,1.81187,54,32765
11.7607,0.0821594,1.81388,55,32765
11.7506,0.0434041,1.81479,53,32765
11.7304,0.00452072,1.81524,53,32765
11.7401,-0.0337342,1.8177,54,32765
11.7294,-0.0714228,1.82034,53,32765
11.7387,-0.109708,1.82375,54,32765
11.7177,-0.147069,1.82609,54,32765
10.4415,3.40542,1.67612,28,32765
10.5553,3.40606,1.69522,29,32765
10.6414,3.39648,1.70748,28,32765
10.7368,3.38933,1.72211,28,32765
10.8515,3.38652,1.73987,46,32765
10.9474,3.37732,1.75367,37,32765
11.0434,3.36806,1.76685,30,32765
11.1487,3.36144,1.78172,29,32765
11.2637,3.35696,1.79788,30,32765
11.3409,3.34014,1.80783,31,32765
11.437,3.3284,1.82177,29,32765
11.562,3.32374,1.83926,31,32765
11.63,3.30206,1.84754,30,32765
11.7552,3.29555,1.86472,31,32765
11.8996,3.29396,1.88408,34,32765
11.9581,3.26806,1.8908,32,32765
11.9783,3.23194,1.89115,15,32765
12.0273,3.20294,1.89537,14,32765
12.0189,3.15846,1.89077,14,32765
11.9338,3.09383,1.87422,14,32765
11.9825,3.06463,1.87831,14,32765
11.9543,3.01574,1.87118,15,32765
11.9548,2.97391,1.86796,14,32765
11.9647,2.93496,1.86627,14,32765
11.9361,2.88623,1.85879,14,32765
11.9844,2.85561,1.863,14,32765
11.9362,2.80241,1.85292,14,32765
11.9651,2.76676,1.85429,14,32765
11.936,2.71856,1.84551,14,32765
11.9065,2.67094,1.83763,15,32765
11.9155,2.63228,1.83483,14,32765
11.8763,2.58212,1.82471,13,32765
12.03,2.57354,1.84623,30,32765
12.0388,2.53326,1.84453,64,32765
12.0286,2.48883,1.83741,64,32765
12.0173,2.44588,1.83365,64,32765
12.0255,2.40683,1.83166,63,32765
12.0144,2.36343,1.82562,64,32765
12.0029,2.31995,1.82169,64,32765
11.9916,2.27597,1.81588,63,32765
11.9802,2.23204,1.80984,65,32765
11.9878,2.19213,1.80845,64,32765
11.9855,2.15072,1.80525,66,32765
11.993,2.1108,1.80255,66,32765
11.9906,2.06915,1.79824,66,32765
11.9684,2.0245,1.79204,64,32765
11.9658,1.98339,1.78713,64,32765
11.9725,1.94416,1.78529,64,32765
11.9499,1.90039,1.77827,64,32765
11.9661,1.86253,1.77773,65,32765
11.9727,1.82259,1.77513,66,32765
11.9594,1.77963,1.77021,65,32765
11.9263,1.73351,1.76363,65,32765
11.9326,1.6933,1.76025,66,32765
11.9187,1.65028,1.75694,65,32765
11.9246,1.61082,1.75382,65,32765
11.9302,1.57138,1.75139,66,32765
11.9255,1.53165,1.74913,67,32765
11.8912,1.48779,1.74281,65,32765
11.8966,1.44882,1.73871,65,32765
11.9013,1.41043,1.73829,66,32765
11.9063,1.37068,1.7358,65,32765
11.8911,1.32958,1.73271,66,32765
11.8759,1.28822,1.72859,67,32765
11.8609,1.24672,1.72262,67,32765
11.8649,1.20801,1.72232,67,32765
11.8495,1.16686,1.71722,66,32765
11.8336,1.12595,1.71396,66,32765
11.8472,1.08769,1.71466,68,32765
11.8511,1.04844,1.71231,68,32765
11.8446,1.00895,1.71075,66,32765
11.848,0.970009,1.70982,68,32765
11.8513,0.930972,1.70866,67,32765
11.8248,0.890561,1.70363,65,32765
11.8375,0.852447,1.70528,66,32765
11.8304,0.813815,1.70255,65,32765
11.8231,0.774506,1.70159,66,32765
11.8257,0.736216,1.70082,66,32765
11.8279,0.697657,1.70115,66,32765
11.8107,0.657425,1.69606,66,32765
11.8127,0.619334,1.69706,66,32765
11.8147,0.580349,1.69696,67,32765
11.8163,0.541994,1.69794,66,32765
11.7983,0.502334,1.69496,68,32765
11.7998,0.463688,1.69553,66,32765
11.7616,0.424239,1.69021,66,32765
11.7627,0.385757,1.69147,67,32765
11.7638,0.347485,1.69225,66,32765
11.7648,0.308686,1.69283,67,32765
11.736,0.269179,1.68932,65,32765
11.7465,0.23132,1.69199,67,32765
11.7471,0.193751,1.6928,68,32765
11.7474,0.156579,1.69445,67,32765
11.7376,0.118914,1.69513,67,32765
11.7377,0.0806983,1.69713,68,32765
11.7375,0.0419907,1.69957,68,32765
11.7371,0.00309248,1.70308,68,32765
11.7369,-0.0352184,1.70401,67,32765
11.7163,-0.0728984,1.7053,67,32765
11.7158,-0.111112,1.70718,67,32765
11.7244,-0.148838,1.71403,69,32765
10.496,3.41022,1.72461,22,32765
10.5923,3.40455,1.73194,24,32765
10.6985,3.4003,1.74036,22,32765
10.8048,3.3957,1.74869,25,32765
10.8738,3.37772,1.74991,39,32765
10.9325,3.35735,1.75302,26,32765
11.0575,3.35675,1.76627,23,32765
11.2018,3.36109,1.78098,23,32765
11.2795,3.34498,1.78695,23,32765
11.3766,3.33339,1.79487,24,32765
11.4643,3.31828,1.8011,23,32765
11.5615,3.30517,1.80916,24,32765
11.6491,3.28857,1.81712,24,32765
11.7653,3.27979,1.82855,24,32765
11.9293,3.28318,1.84706,26,32765
11.9598,3.24971,1.84479,27,32765
12.0472,3.23139,1.85343,14,32765
12.0489,3.18954,1.847,12,32765
12.0214,3.14037,1.83806,13,32765
12.0132,3.09606,1.83002,13,32765
12.0238,3.05692,1.82617,13,32765
12.0055,3.01049,1.81786,13,32765
12.0162,2.97058,1.813,12,32765
11.9013,2.9008,1.79152,12,32765
12.0075,2.88462,1.80227,13,32765
12.0654,2.85689,1.80671,13,32765
11.892,2.77518,1.77595,13,32765
11.9499,2.74709,1.77914,13,32765
11.8722,2.68881,1.76403,13,32765
11.9972,2.67576,1.77868,13,32765
11.8905,2.61071,1.75781,13,32765
11.8995,2.57113,1.75522,13,32765
12.0153,2.55305,1.76738,21,32765
12.0337,2.51488,1.76675,49,32765
12.0423,2.47533,1.76411,49,32765
12.0311,2.43279,1.75905,50,32765
12.02,2.39009,1.75255,50,32765
12.0279,2.35097,1.75105,50,32765
12.0166,2.30778,1.74474,50,32765
12.0147,2.26596,1.74188,50,32765
12.0027,2.22262,1.73871,50,32765
12.0105,2.18292,1.73526,51,32765
11.9985,2.13949,1.73016,51,32765
11.9864,2.0964,1.72513,51,32765
12.0131,2.05999,1.72579,51,32765
12.0004,2.0171,1.72235,50,32765
11.9974,1.97631,1.71893,52,32765
11.9944,1.93499,1.71564,50,32765
11.9716,1.89111,1.70921,52,32765
11.9487,1.84709,1.7033,50,32765
11.9649,1.80852,1.70285,52,32765
11.9612,1.76715,1.70042,52,32765
11.9673,1.72662,1.69911,52,32765
11.9537,1.68404,1.69391,51,32765
11.9594,1.64395,1.69284,52,32765
11.9454,1.60147,1.68849,52,32765
11.9312,1.5594,1.68454,51,32765
11.9365,1.51976,1.68293,52,32765
11.922,1.47791,1.67861,52,32765
11.9074,1.43645,1.67443,51,32765
11.8828,1.3939,1.66834,51,32765
11.8973,1.35635,1.66822,53,32765
11.8823,1.3146,1.66352,52,32765
11.9064,1.27761,1.66525,52,32765
11.8813,1.23486,1.65939,52,32765
11.8856,1.19557,1.65718,52,32765
11.8897,1.15631,1.65611,52,32765
11.8939,1.11633,1.65292,52,32765
11.878,1.07506,1.64911,53,32765
11.862,1.03385,1.64425,52,32765
11.8656,0.994927,1.64247,53,32765
11.8492,0.95474,1.63879,54,32765
11.8526,0.915944,1.63621,54,32765
11.8556,0.877511,1.63537,53,32765
11.8588,0.838557,1.63245,52,32765
11.8419,0.798064,1.62866,52,32765
11.8449,0.75871,1.62608,53,32765
11.8477,0.719315,1.62327,53,32765
11.8503,0.680733,1.62116,53,32765
11.8528,0.64202,1.61847,52,32765
11.8153,0.601947,1.61247,52,32765
11.7976,0.563206,1.60826,53,32765
11.7997,0.525101,1.60552,52,32765
11.8015,0.48691,1.60404,54,32765
11.7937,0.447888,1.59899,53,32765
11.7756,0.408876,1.59414,53,32765
11.8069,0.371407,1.59568,54,32765
11.7788,0.331528,1.58813,54,32765
11.7901,0.293907,1.58685,56,32765
11.7815,0.255011,1.58253,53,32765
11.7628,0.216175,1.57698,53,32765
11.7537,0.178106,1.57403,54,32765
11.7646,0.139862,1.57203,53,32765
11.7555,0.102123,1.56732,55,32765
11.7563,0.0645379,1.56342,54,32765
11.7372,0.02743,1.55658,54,32765
11.7378,-0.00979405,1.55223,55,32765
11.7283,-0.0477097,1.5472,54,32765
11.7385,-0.0853176,1.54458,54,32765
11.7389,-0.123054,1.5391,54,32765
11.7193,-0.159096,1.53151,56,32765
10.3967,3.38248,1.6031,27,32765
10.5119,3.3832,1.61255,29,32765
10.6275,3.38223,1.62152,30,32765
10.696,3.36599,1.62323,29,32765
10.8216,3.36599,1.63252,37,32765
10.8804,3.34575,1.63518,46,32765
10.996,3.34247,1.64592,31,32765
11.0834,3.32995,1.65088,29,32765
11.1801,3.31985,1.65906,28,32765
11.2961,3.31416,1.669,30,32765
11.3933,3.30205,1.67592,31,32765
11.481,3.28645,1.68177,30,32765
11.5877,3.27549,1.6918,30,32765
11.6849,3.26159,1.69945,30,32765
11.7727,3.24424,1.70543,29,32765
11.9177,3.24242,1.71959,31,32765
11.9477,3.20881,1.71923,21,32765
11.9588,3.16974,1.7143,15,32765
11.9695,3.1308,1.71124,14,32765
11.9133,3.07421,1.69658,14,32765
11.991,3.05243,1.7023,14,32765
11.9823,3.00843,1.69564,14,32765
11.9256,2.95186,1.6813,14,32765
11.9548,2.91747,1.68135,14,32765
11.9264,2.86866,1.67224,14,32765
11.9361,2.82973,1.66949,14,32765
11.9456,2.7911,1.6661,14,32765
11.9747,2.75612,1.66478,15,32765
11.9258,2.70422,1.65452,14,32765
11.9156,2.66075,1.6493,15,32765
11.8958,2.61499,1.6416,14,32765
11.9339,2.58162,1.643,14,32765
11.9529,2.54278,1.64081,16,32765
12.0101,2.51287,1.64542,57,32765
12.0284,2.47533,1.64411,66,32765
12.0074,2.43079,1.63791,64,32765
12.0157,2.39197,1.63425,65,32765
12.0042,2.34898,1.6301,64,32765
11.9928,2.3058,1.62398,64,32765
12.0007,2.26582,1.62254,65,32765
12.0081,2.22607,1.62219,65,32765
11.9867,2.18096,1.6148,63,32765
12.0039,2.14276,1.61383,66,32765
11.9917,2.09957,1.60897,65,32765
11.9989,2.05972,1.60683,65,32765
11.9862,2.01681,1.60358,65,32765
11.9734,1.97438,1.59894,65,32765
11.9802,1.93465,1.59706,65,32765
11.9867,1.89538,1.59481,65,32765
11.9736,1.85275,1.59048,66,32765
11.9407,1.80662,1.58343,66,32765
11.9468,1.76671,1.5824,66,32765
11.9235,1.72191,1.57719,66,32765
11.9393,1.68355,1.57608,66,32765
11.9156,1.63939,1.57113,66,32765
11.9408,1.60225,1.57214,66,32765
11.9266,1.56013,1.56838,65,32765
11.9122,1.51793,1.56418,67,32765
11.8977,1.47608,1.56006,67,32765
11.8928,1.43582,1.55735,67,32765
11.8879,1.39556,1.55412,66,32765
11.8926,1.3568,1.55262,65,32765
11.8874,1.31609,1.54939,68,32765
11.8721,1.27478,1.5458,68,32765
11.8765,1.23515,1.54407,68,32765
11.8808,1.19582,1.54186,68,32765
11.8651,1.15458,1.53823,68,32765
11.8595,1.11369,1.53377,68,32765
11.8633,1.07426,1.5327,68,32765
11.867,1.03475,1.53058,69,32765
11.8508,0.994087,1.52626,68,32765
11.8344,0.95388,1.52276,66,32765
11.8378,0.915067,1.52019,67,32765
11.8408,0.876618,1.51934,67,32765
11.844,0.837648,1.51643,67,32765
11.8468,0.79847,1.51536,67,32765
11.8299,0.757766,1.51025,68,32765
11.8328,0.718354,1.50744,67,32765
11.8353,0.679756,1.50534,68,32765
11.818,0.639955,1.50013,68,32765
11.8201,0.601946,1.49954,67,32765
11.8221,0.564071,1.49802,68,32765
11.7846,0.524061,1.49027,68,32765
11.7864,0.485854,1.48879,68,32765
11.7884,0.447195,1.48508,69,32765
11.7702,0.408136,1.48043,69,32765
11.7718,0.369685,1.47795,68,32765
11.7833,0.330974,1.47566,69,32765
11.7648,0.292535,1.47056,69,32765
11.776,0.254086,1.46883,69,32765
11.7672,0.215388,1.4647,69,32765
11.7383,0.176942,1.45937,69,32765
11.7591,0.138802,1.45851,69,32765
11.7301,0.100849,1.45144,69,32765
11.7309,0.0632842,1.44755,69,32765
11.7315,0.0262431,1.44335,68,32765
11.7122,-0.0110043,1.43657,68,32765
11.7324,-0.0490222,1.43528,68,32765
11.7228,-0.0865589,1.43015,69,32765
11.7132,-0.124199,1.42347,68,32765
11.7034,-0.160352,1.41728,70,32765
10.3311,3.36765,1.4317,24,32765
10.4645,3.37342,1.45004,22,32765
10.5695,3.36995,1.46445,25,32765
10.6461,3.35786,1.47437,24,32765
10.7702,3.35996,1.48892,23,32765
10.8662,3.35187,1.50054,37,32765
10.9052,3.32549,1.50591,28,32765
11.068,3.3355,1.5262,23,32765
11.1455,3.31932,1.53365,23,32765
11.2515,3.31101,1.54605,24,32765
11.348,3.29973,1.55626,24,32765
11.4441,3.28795,1.56887,25,32765
11.5503,3.27779,1.5808,24,32765
11.676,3.27173,1.59378,25,32765
11.7632,3.25408,1.60407,23,32765
11.8699,3.24103,1.61504,24,32765
11.9571,3.22297,1.625,20,32765
12.0348,3.20173,1.63294,13,32765
12.0166,3.15529,1.62679,12,32765
12.0365,3.1188,1.62737,13,32765
12.0277,3.07449,1.62279,13,32765
12.057,3.04009,1.62393,13,32765
12.048,2.99593,1.61866,13,32765
11.9712,2.93549,1.60566,13,32765
12.0196,2.90509,1.60915,13,32765
11.9426,2.84451,1.59597,13,32765
11.9136,2.79563,1.58914,13,32765
11.962,2.76449,1.5915,13,32765
11.9711,2.72494,1.59141,13,32765
11.9029,2.66815,1.57876,13,32765
11.9119,2.62917,1.5758,13,32765
11.9205,2.59077,1.57444,13,32765
11.9393,2.55316,1.57182,13,32765
12.0257,2.52954,1.58011,40,32765
12.0249,2.48667,1.57596,51,32765
12.0333,2.44645,1.57452,50,32765
12.0219,2.40313,1.5709,50,32765
12.0302,2.36359,1.56739,49,32765
12.0284,2.32239,1.56445,50,32765
12.0168,2.2789,1.55977,50,32765
12.0052,2.23521,1.55438,51,32765
11.9932,2.1922,1.54978,50,32765
12.0008,2.15176,1.54736,49,32765
12.0083,2.11195,1.54452,51,32765
12.0154,2.07203,1.54312,51,32765
12.0029,2.02893,1.53812,50,32765
11.9706,1.98327,1.53077,51,32765
11.9677,1.94179,1.5274,51,32765
11.9646,1.90023,1.52376,50,32765
11.9516,1.85668,1.51933,52,32765
11.958,1.81659,1.5173,51,32765
11.9642,1.77708,1.51544,52,32765
11.9507,1.73442,1.51007,53,32765
11.937,1.69251,1.50534,52,32765
11.9231,1.64977,1.50152,54,32765
11.9287,1.61016,1.49977,52,32765
11.9344,1.57055,1.49677,53,32765
11.9201,1.52824,1.49263,52,32765
11.9055,1.48703,1.48863,53,32765
11.9107,1.4479,1.48561,53,32765
11.8958,1.40685,1.4815,53,32765
11.8905,1.36702,1.47987,54,32765
11.8952,1.32772,1.47847,54,32765
11.8802,1.28617,1.47288,53,32765
11.8846,1.24619,1.47172,54,32765
11.8889,1.20648,1.46946,53,32765
11.8928,1.16737,1.46958,54,32765
11.877,1.12668,1.46569,53,32765
11.8807,1.08817,1.46438,54,32765
11.8647,1.04709,1.46063,53,32765
11.8483,1.0062,1.45769,53,32765
11.8716,0.968305,1.45888,53,32765
11.8649,0.927902,1.45675,54,32765
11.8581,0.888456,1.45469,53,32765
11.8611,0.849589,1.45362,53,32765
11.8342,0.809261,1.44906,54,32765
11.8169,0.770002,1.44672,54,32765
11.8096,0.730757,1.44437,52,32765
11.8119,0.6925,1.44392,53,32765
11.8043,0.653409,1.44222,53,32765
11.8163,0.615823,1.44339,54,32765
11.8182,0.577542,1.44327,54,32765
11.7902,0.537659,1.44004,54,32765
11.8018,0.499564,1.44141,54,32765
11.8034,0.460596,1.44147,54,32765
11.7849,0.421385,1.44001,54,32765
11.7861,0.383193,1.4408,54,32765
11.787,0.344856,1.44259,54,32765
11.7683,0.305774,1.43984,55,32765
11.7692,0.266799,1.44038,54,32765
11.75,0.228295,1.4393,55,32765
11.7505,0.190059,1.44063,55,32765
11.7509,0.151892,1.4417,56,32765
11.7511,0.114133,1.44387,54,32765
11.7512,0.0758225,1.44548,55,32765
11.7312,0.038028,1.44553,55,32765
11.731,0.000306021,1.44754,54,32765
11.7107,-0.0366619,1.44867,55,32765
11.73,-0.0739504,1.45377,55,32765
11.7095,-0.112519,1.45395,56,32765
11.7084,-0.151029,1.45954,56,32765
10.2664,3.35168,1.31954,28,32765
10.3527,3.34246,1.33059,29,32765
10.4673,3.34238,1.34527,28,32765
10.5722,3.33958,1.35816,32,32765
10.687,3.33898,1.37038,29,32765
10.7925,3.33409,1.38238,32,32765
10.8505,3.31371,1.38989,50,32765
10.9754,3.31248,1.40381,32,32765
11.0529,3.29659,1.41063,31,32765
11.1875,3.297,1.42573,29,32765
11.2935,3.2887,1.43632,31,32765
11.3707,3.27161,1.44565,32,32765
11.4769,3.26168,1.45666,31,32765
11.5549,3.24247,1.46247,31,32765
11.6804,3.23581,1.47686,30,32765
11.768,3.2178,1.48449,29,32765
11.9031,3.21298,1.49974,30,32765
12,3.19701,1.50943,20,32765
12.0106,3.15816,1.50719,15,32765
11.9536,3.10168,1.49803,14,32765
12.0121,3.07479,1.50208,14,32765
11.9356,3.01365,1.48981,14,32765
11.965,2.97939,1.48955,14,32765
11.9555,2.93567,1.48579,14,32765
11.9847,2.90061,1.4865,14,32765
11.9558,2.85155,1.48015,14,32765
11.9075,2.79798,1.4713,14,32765
11.9366,2.76233,1.4709,14,32765
11.9457,2.7228,1.47081,14,32765
11.9064,2.6725,1.46248,14,32765
11.8767,2.62487,1.45477,14,32765
11.8853,2.58651,1.45341,15,32765
11.8749,2.54272,1.44716,14,32765
11.9905,2.52542,1.45825,33,32765
12.0091,2.48662,1.45656,67,32765
12.0175,2.44638,1.45512,66,32765
12.0061,2.40303,1.45169,66,32765
12.0144,2.36347,1.44818,66,32765
12.0028,2.32037,1.44416,66,32765
12.0009,2.27873,1.44084,67,32765
11.9892,2.23502,1.43564,66,32765
11.9968,2.19556,1.43356,66,32765
11.9849,2.15152,1.42881,65,32765
11.9923,2.11169,1.42598,65,32765
11.9994,2.07175,1.42457,67,32765
11.9869,2.02863,1.41976,66,32765
11.9742,1.98619,1.41511,66,32765
11.9418,1.93985,1.40836,65,32765
11.9485,1.89986,1.40597,67,32765
11.9453,1.85781,1.40288,67,32765
11.932,1.81468,1.39854,67,32765
11.9382,1.77519,1.39669,66,32765
11.9247,1.73254,1.39151,67,32765
11.9306,1.69343,1.38926,67,32765
11.9167,1.65064,1.38564,67,32765
11.9026,1.60832,1.38159,66,32765
11.9083,1.56872,1.3786,67,32765
11.8939,1.52642,1.37465,66,32765
11.899,1.4877,1.37312,66,32765
11.9042,1.44852,1.37009,66,32765
11.8893,1.40742,1.36618,67,32765
11.884,1.36753,1.36464,67,32765
11.8886,1.32818,1.36324,68,32765
11.8637,1.28551,1.3567,67,32765
11.878,1.24656,1.35668,68,32765
11.8724,1.20579,1.35329,67,32765
11.8763,1.16667,1.35341,67,32765
11.8802,1.12784,1.35196,68,32765
11.8642,1.08744,1.3484,66,32765
11.8481,1.04634,1.34483,67,32765
11.8516,1.00711,1.34433,67,32765
11.855,0.967525,1.34309,68,32765
11.8385,0.926331,1.33993,66,32765
11.8415,0.887645,1.33908,68,32765
11.8247,0.847344,1.33578,68,32765
11.8473,0.810454,1.3371,68,32765
11.83,0.771085,1.33494,68,32765
11.8326,0.732342,1.33381,67,32765
11.7952,0.691616,1.32888,69,32765
11.8372,0.655257,1.33286,68,32765
11.7996,0.614912,1.32835,68,32765
11.8015,0.576618,1.32824,68,32765
11.7834,0.537172,1.3264,68,32765
11.7752,0.498192,1.32544,69,32765
11.7767,0.459243,1.3255,67,32765
11.7781,0.42076,1.32647,68,32765
11.7793,0.382522,1.32726,68,32765
11.7803,0.344139,1.32904,68,32765
11.7615,0.305012,1.32648,68,32765
11.7624,0.26599,1.32703,69,32765
11.763,0.227826,1.32838,68,32765
11.7437,0.189159,1.32747,68,32765
11.7441,0.150946,1.32853,68,32765
11.7542,0.113236,1.33183,69,32765
11.7544,0.0748469,1.33344,69,32765
11.7245,0.0369444,1.33255,68,32765
11.7044,-0.000822214,1.33229,69,32765
11.7039,-0.037836,1.33587,68,32765
11.7134,-0.075109,1.33964,69,32765
11.683,-0.113594,1.33887,68,32765
11.7117,-0.152477,1.34788,70,32765
10.3125,3.35509,1.3642,24,32765
10.4281,3.35505,1.37086,23,32765
10.5064,3.34151,1.3721,23,32765
10.6126,3.33757,1.37785,24,32765
10.709,3.33053,1.38396,23,32765
10.8153,3.32555,1.38891,29,32765
10.8646,3.30241,1.38824,39,32765
10.9901,3.30143,1.39699,25,32765
11.0964,3.29432,1.40484,24,32765
11.1934,3.28359,1.40993,24,32765
11.2902,3.27236,1.41705,25,32765
11.397,3.26297,1.42308,24,32765
