x, y, z, intensity, ring
7.69393,3.65897,0.0755844,20,32765
7.60674,3.58619,0.0699389,20,32765
7.57347,3.53945,0.066464,20,32765
7.53085,3.48889,0.0623099,19,32765
7.4879,3.4388,0.0594598,20,32765
7.46296,3.39723,0.0554931,20,32765
7.40143,3.33925,0.0518237,21,32765
7.36699,3.29393,0.0490209,20,32765
7.30491,3.23671,0.045761,20,32765
7.27006,3.19188,0.0419097,21,32765
7.22573,3.14353,0.0385382,21,32765
7.17196,3.09158,0.0350009,19,32765
7.13626,3.04802,0.0317869,19,32765
7.09118,3.00072,0.0286927,20,32765
7.04576,2.95403,0.0252067,20,32765
7.00945,2.91123,0.0216244,20,32765
6.9914,2.87638,0.0184,21,32765
6.92684,2.82296,0.0155027,20,32765
6.89904,2.78508,0.0122303,19,32765
6.8248,2.72847,0.00897452,18,32765
6.80583,2.69501,0.00523583,18,32765
6.75899,2.65021,0.0021876,18,32765
6.71174,2.60626,-0.000365078,18,32765
6.67365,2.5661,-0.00333316,19,32765
6.62605,2.52259,-0.00638753,19,32765
6.57801,2.48003,-0.00967696,20,32765
6.56732,2.45159,-0.0124207,20,32765
6.52822,2.41323,-0.0149358,21,32765
6.48903,2.37491,-0.0181594,20,32765
6.44978,2.33655,-0.0210282,19,32765
6.40092,2.29514,-0.0240384,20,32765
6.3426,2.25025,-0.0271307,20,32765
6.34051,2.22607,-0.029588,21,32765
6.30992,2.1923,-0.03329,21,32765
6.26028,2.15222,-0.0356367,21,32765
6.2198,2.11602,-0.0386385,21,32765
6.19812,2.08643,-0.0417822,20,32765
6.14777,2.04777,-0.0448276,21,32765
6.08782,2.00605,-0.0475895,23,32765
6.06561,1.97742,-0.0511046,22,32765
6.07184,1.95811,-0.0546498,22,32765
6.00176,1.91456,-0.0577489,22,32765
6.04581,1.90788,-0.0615458,24,32765
6.02301,1.88021,-0.0653267,25,32765
10.3724,7.6277,0.354741,19,32765
10.4703,7.64643,0.35457,18,32765
10.5443,7.64688,0.352673,18,32765
10.5777,7.61786,0.349914,18,32765
10.6361,7.60527,0.347209,13,32765
10.6531,7.56435,0.34304,12,32765
10.7267,7.56437,0.339854,17,32765
10.7924,7.55791,0.337132,18,32765
10.8502,7.54513,0.334765,18,32765
10.9005,7.5255,0.328943,18,32765
11,7.53986,0.326469,17,32765
11.0831,7.54243,0.324193,14,32765
11.3734,7.68446,0.326786,14,32765
11.3574,7.61897,0.319979,24,32765
11.3498,7.55861,0.313665,27,32765
11.2329,7.42767,0.304221,16,32765
11.1652,7.33076,0.298132,15,32765
11.0634,7.21253,0.289718,14,32765
10.9276,7.07312,0.279486,15,32765
10.7747,6.92304,0.27079,14,32765
10.705,6.82823,0.261771,14,32765
10.4661,6.62635,0.251904,14,32765
10.3025,6.47369,0.24155,14,32765
10.2056,6.36494,0.232833,14,32765
10.1167,6.26189,0.224623,14,32765
9.96711,6.12372,0.216335,14,32765
9.82523,5.9918,0.208062,14,32765
9.79376,5.92824,0.201743,15,32765
9.60778,5.77214,0.192551,14,32765
9.57577,5.70896,0.186944,15,32765
9.43987,5.58547,0.179434,15,32765
9.31211,5.46765,0.171506,14,32765
9.26134,5.39616,0.165888,15,32765
9.23609,5.34024,0.159574,14,32765
9.02872,5.17951,0.151244,14,32765
9.0116,5.12899,0.146565,15,32765
8.87156,5.01121,0.138716,14,32765
8.77502,4.91785,0.132093,15,32765
8.75626,4.86947,0.128656,15,32765
8.62383,4.75788,0.120837,15,32765
8.58738,4.69976,0.115113,15,32765
8.50656,4.61832,0.109204,15,32765
8.4694,4.56101,0.104158,15,32765
8.34337,4.45757,0.0989617,15,32765
8.32274,4.41132,0.09267,15,32765
8.26659,4.34639,0.0890119,15,32765
8.16585,4.25866,0.0825918,15,32765
8.11802,4.19902,0.0751808,15,32765
8.02529,4.11705,0.0711244,16,32765
7.96781,4.05379,0.0665919,15,32765
7.90093,3.98675,0.0607473,15,32765
7.86947,3.93804,0.0574498,16,32765
7.7753,3.85802,0.0525118,15,32765
7.75245,3.81401,0.0485903,16,32765
7.63062,3.7218,0.0439381,16,32765
7.67035,3.70871,0.0410979,17,32765
7.52936,3.60969,0.0360181,17,32765
7.54175,3.58375,0.0348193,17,32765
7.49041,3.52863,0.0308855,16,32765
7.43877,3.47392,0.0270924,17,32765
7.35067,3.40252,0.0237345,17,32765
7.31645,3.35732,0.0201221,17,32765
7.29147,3.31577,0.0166621,18,32765
7.24768,3.26702,0.0130524,16,32765
7.1856,3.20999,0.00955351,17,32765
7.19618,3.1862,0.00652134,16,32765
7.12423,3.12629,0.00364711,17,32765
7.07044,3.07457,0.000904384,18,32765
7.00712,3.01945,-0.00132508,16,32765
6.99902,2.9876,-0.00477578,17,32765
6.91691,2.92513,-0.00722601,16,32765
6.91731,2.8984,-0.00944846,17,32765
6.8531,2.84451,-0.0121705,17,32765
6.82549,2.80658,-0.0145092,17,32765
6.78848,2.765,-0.0165705,17,32765
6.75111,2.72407,-0.0185946,17,32765
6.74143,2.69449,-0.0205704,15,32765
6.66658,2.63916,-0.0220741,16,32765
6.63794,2.60271,-0.023823,16,32765
6.57191,2.55181,-0.0264212,15,32765
6.57091,2.52664,-0.0282747,16,32765
6.54171,2.49101,-0.0293525,17,32765
6.47499,2.44131,-0.0306852,17,32765
6.4548,2.4097,-0.0322608,17,32765
6.40649,2.36741,-0.0343772,17,32765
6.39548,2.33939,-0.0350416,16,32765
6.3467,2.29795,-0.0355968,17,32765
6.3448,2.2737,-0.0374165,17,32765
6.31454,2.23945,-0.0383685,17,32765
6.22746,2.18568,-0.0387753,17,32765
6.17778,2.14595,-0.0396386,18,32765
6.17513,2.12298,-0.0406549,17,32765
6.1819,2.10317,-0.0407905,17,32765
6.06541,2.04185,-0.0407991,15,32765
6.12897,2.04097,-0.0421062,16,32765
6.16402,2.03055,-0.042957,17,32765
6.12302,1.99511,-0.0422735,18,32765
6.11034,1.96933,-0.0426777,18,32765
6.00221,1.91356,-0.0414671,18,32765
6.04647,1.90631,-0.0420909,20,32765
5.99512,1.86957,-0.0405654,20,32765
10.3638,7.64401,0.234644,22,32765
10.4617,7.66279,0.233619,23,32765
10.4872,7.62796,0.230083,22,32765
10.5449,7.61661,0.227754,22,32765
10.5871,7.59242,0.224326,20,32765
10.604,7.55156,0.22025,19,32765
10.6858,7.55749,0.216674,15,32765
10.7106,7.5224,0.212671,14,32765
10.8011,7.53271,0.210579,15,32765
11.1637,7.72948,0.210376,17,32765
11.2143,7.70897,0.206022,20,32765
11.1163,7.5868,0.199733,21,32765
11.0176,7.46539,0.192508,21,32765
10.9262,7.35069,0.185062,18,32765
10.8096,7.21944,0.177534,17,32765
10.6584,7.06786,0.169398,16,32765
10.5227,6.92861,0.163469,16,32765
10.3779,6.78484,0.156106,16,32765
10.2576,6.65824,0.148259,16,32765
10.2127,6.58048,0.143304,17,32765
10.0155,6.40649,0.13396,17,32765
9.97807,6.33512,0.129841,17,32765
9.83895,6.19977,0.122123,17,32765
9.67335,6.04991,0.11417,17,32765
9.62595,5.9748,0.107938,17,32765
9.50955,5.85892,0.102096,17,32765
9.38396,5.73865,0.0959826,17,32765
9.30893,5.65046,0.0900349,17,32765
9.21637,5.55238,0.0841865,17,32765
9.16649,5.48011,0.0791676,16,32765
9.01273,5.3475,0.0733838,17,32765
8.92733,5.25622,0.0675968,16,32765
8.88452,5.1909,0.0629579,18,32765
8.73748,5.06588,0.056543,17,32765
8.67668,4.99126,0.051759,17,32765
8.60682,4.91208,0.0473176,17,32765
8.54447,4.8397,0.0417675,17,32765
8.4474,4.74723,0.0365323,17,32765
8.42812,4.69981,0.0335683,17,32765
8.33018,4.60844,0.0276614,17,32765
8.29324,4.55118,0.0226596,17,32765
8.21197,4.47055,0.0179303,19,32765
8.14793,4.39984,0.0135442,17,32765
8.05671,4.31613,0.0100146,18,32765
8.02678,4.26602,0.00428609,18,32765
7.97019,4.20193,0.00147099,19,32765
7.88673,4.12425,-0.00356019,18,32765
7.82069,4.05621,-0.010068,19,32765
7.7809,4.00249,-0.0129842,19,32765
7.71416,3.93536,-0.0166369,19,32765
7.65583,3.87353,-0.0215054,19,32765
7.59721,3.81207,-0.0241653,21,32765
7.57429,3.76842,-0.0281072,20,32765
7.52424,3.71172,-0.031454,21,32765
7.43806,3.63765,-0.0347624,20,32765
7.41449,3.59464,-0.037498,19,32765
7.38135,3.54825,-0.0414542,19,32765
7.30327,3.47974,-0.0421169,19,32765
7.2516,3.42529,-0.0452857,20,32765
7.21775,3.37974,-0.0484378,20,32765
7.19287,3.33839,-0.0511327,20,32765
7.1403,3.28525,-0.0540708,20,32765
7.08778,3.23175,-0.0568626,20,32765
7.03463,3.17945,-0.059741,20,32765
6.97227,3.123,-0.0623963,20,32765
6.94601,3.08363,-0.065003,22,32765
6.91952,3.04454,-0.0673866,21,32765
6.86548,2.9934,-0.0694005,20,32765
6.84783,2.95866,-0.0712985,19,32765
6.79356,2.9076,-0.0739887,21,32765
6.76646,2.86911,-0.0760527,21,32765
6.72058,2.82344,-0.0776066,20,32765
6.70231,2.7893,-0.0800539,19,32765
6.62831,2.73272,-0.0814022,18,32765
6.60033,2.69548,-0.0830537,18,32765
6.56276,2.65507,-0.0845543,19,32765
6.51574,2.61116,-0.0858023,19,32765
6.48712,2.57489,-0.0870303,19,32765
6.48621,2.54993,-0.0887403,19,32765
6.42935,2.50304,-0.0906577,19,32765
6.40021,2.46749,-0.0919792,20,32765
6.3615,2.42876,-0.0925182,21,32765
6.33201,2.39369,-0.0936112,22,32765
6.28359,2.35195,-0.0944498,21,32765
6.28199,2.3275,-0.0966647,21,32765
6.2427,2.2895,-0.096695,20,32765
6.2126,2.25529,-0.0969639,21,32765
6.13528,2.20438,-0.0974589,21,32765
6.11423,2.17408,-0.0981518,21,32765
6.14017,2.16067,-0.0994246,22,32765
6.13764,2.13758,-0.100484,20,32765
6.0499,2.08536,-0.0999976,22,32765
6.09442,2.07881,-0.100761,21,32765
6.08212,2.0528,-0.101275,22,32765
6.00344,2.00436,-0.100765,23,32765
5.9909,1.97864,-0.101088,23,32765
6.01629,1.96542,-0.101066,23,32765
5.94646,1.92148,-0.100313,22,32765
5.85728,1.87218,-0.0983095,22,32765
5.86327,1.85333,-0.0986629,24,32765
5.92632,1.85288,-0.098515,25,32765
10.3929,7.63644,0.285533,18,32765
10.4102,7.59634,0.273054,18,32765
10.484,7.59735,0.263618,19,32765
10.5256,7.57419,0.252918,19,32765
10.5752,7.55688,0.244198,18,32765
10.6332,7.54467,0.233685,16,32765
10.6503,7.5035,0.224931,12,32765
10.7572,7.52548,0.216308,13,32765
10.848,7.53533,0.207764,13,32765
11.3336,7.81792,0.208341,14,32765
11.1446,7.63411,0.195429,17,32765
11.1284,7.56943,0.185617,17,32765
10.9709,7.40988,0.172969,17,32765
10.8303,7.26088,0.162147,14,32765
10.7131,7.13042,0.151559,14,32765
10.5453,6.96747,0.141222,14,32765
10.4011,6.82307,0.131074,14,32765
10.2473,6.67466,0.121736,15,32765
10.1182,6.54302,0.113017,14,32765
9.97134,6.40188,0.104416,14,32765
9.83265,6.26621,0.0956808,15,32765
9.76062,6.17455,0.0876754,14,32765
9.6796,6.07814,0.0807732,15,32765
9.54706,5.9507,0.0734247,15,32765
9.43899,5.84047,0.0658294,15,32765
9.31346,5.72021,0.0588224,14,32765
9.22138,5.62169,0.0526005,14,32765
9.12026,5.51854,0.0461213,14,32765
9.03593,5.42604,0.0400557,14,32765
8.94241,5.32919,0.033745,14,32765
8.88286,5.25323,0.0281485,14,32765
8.78842,5.15745,0.0228684,15,32765
8.67584,5.05284,0.017323,14,32765
8.64055,4.99411,0.0119276,14,32765
8.57896,4.92072,0.0067054,14,32765
8.46505,4.81774,0.00235625,14,32765
8.39417,4.74,-0.0027306,15,32765
8.33173,4.66741,-0.0063617,15,32765
8.2688,4.59547,-0.0108978,15,32765
8.17886,4.51017,-0.0148994,16,32765
8.15006,4.45872,-0.0190992,16,32765
8.07691,4.38396,-0.0228783,16,32765
8.02985,4.32379,-0.026901,15,32765
7.89439,4.21665,-0.030815,16,32765
7.87306,4.17156,-0.0336146,16,32765
7.84271,4.12189,-0.0376416,16,32765
7.74099,4.03586,-0.0432778,15,32765
7.74548,4.00547,-0.0464719,16,32765
7.65215,3.92455,-0.0497519,15,32765
7.62075,3.87604,-0.0540291,16,32765
7.53578,3.80031,-0.0570361,16,32765
7.53086,3.7655,-0.0603424,17,32765
7.44505,3.69099,-0.0625834,17,32765
7.4216,3.64807,-0.0662359,18,32765
7.37968,3.59714,-0.0703477,16,32765
7.35563,3.555,-0.0744403,16,32765
7.2863,3.49147,-0.0763848,16,32765
7.18071,3.41085,-0.0777313,17,32765
7.19233,3.3863,-0.0765342,17,32765
7.13111,3.32834,-0.079796,17,32765
7.14229,3.30421,-0.0825977,17,32765
7.07158,3.24253,-0.0847262,16,32765
7.00954,3.18571,-0.0871537,17,32765
6.95641,3.13325,-0.0898156,16,32765
6.94853,3.10183,-0.0928367,16,32765
6.86737,3.03817,-0.0942887,17,32765
6.83178,2.99484,-0.0964742,17,32765
6.82331,2.96413,-0.0995006,16,32765
6.73219,2.89763,-0.101286,17,32765
6.72335,2.86737,-0.104258,17,32765
6.71445,2.83704,-0.107414,17,32765
6.6317,2.77577,-0.108486,16,32765
6.58549,2.73056,-0.110815,16,32765
6.59461,2.70833,-0.114041,16,32765
6.54801,2.66363,-0.116034,15,32765
6.49184,2.61575,-0.117638,16,32765
6.48187,2.58673,-0.120876,16,32765
6.47161,2.55826,-0.12312,17,32765
6.359,2.4893,-0.124283,17,32765
6.37632,2.47222,-0.127394,18,32765
6.29098,2.41547,-0.129004,16,32765
6.27085,2.38397,-0.131133,18,32765
6.30671,2.37378,-0.134728,21,32765
6.25826,2.33194,-0.13639,20,32765
6.2564,2.30798,-0.139719,19,32765
6.06671,2.2153,-0.138108,20,32765
6.11154,2.20882,-0.142226,19,32765
0,0,-0,0,32765
6.02202,2.13217,-0.14577,19,32765
6.03824,2.11599,-0.148987,18,32765
5.9222,2.05383,-0.149126,18,32765
5.85307,2.00874,-0.150376,18,32765
5.88774,1.9998,-0.154198,20,32765
5.84668,1.96485,-0.156608,21,32765
5.76747,1.91781,-0.157209,18,32765
5.84951,1.92416,-0.162764,21,32765
5.79851,1.88684,-0.164743,21,32765
5.72813,1.84427,-0.166249,21,32765
5.67662,1.8081,-0.168241,20,32765
5.74899,1.81098,-0.174092,20,32765
5.65925,1.76269,-0.175355,23,32765
10.3675,7.64084,0.16504,22,32765
10.417,7.62433,0.153139,24,32765
10.4341,7.58414,0.142345,41,32765
10.4919,7.57276,0.131695,91,32765
10.5901,7.59046,0.123274,21,32765
10.6971,7.61293,0.112867,15,32765
10.9185,7.7157,0.10612,15,32765
10.7395,7.53578,0.0937844,12,32765
10.7154,7.46565,0.0835944,13,32765
10.7645,7.4477,0.0759504,17,32765
10.6816,7.33895,0.0665733,18,32765
10.491,7.15727,0.0566513,16,32765
10.3074,6.98262,0.0464862,17,32765
10.2235,6.87462,0.0382332,16,32765
10.0969,6.74034,0.0296712,16,32765
10.0029,6.62882,0.0220758,17,32765
9.87435,6.49687,0.0142156,16,32765
9.74477,6.36625,0.00720785,16,32765
9.68192,6.2795,0.000502254,18,32765
9.54269,6.14488,-0.00595738,18,32765
9.42011,6.02112,-0.0126484,18,32765
9.27132,5.8824,-0.0191835,17,32765
9.21478,5.80338,-0.0247443,16,32765
9.08992,5.68251,-0.0301576,17,32765
9.03204,5.60517,-0.0362492,17,32765
8.92286,5.49647,-0.0414984,17,32765
8.83865,5.40423,-0.0463296,17,32765
8.71125,5.28655,-0.0511197,16,32765
8.65191,5.2107,-0.0559919,17,32765
8.5749,5.12517,-0.0609724,18,32765
8.55772,5.07578,-0.0658515,17,32765
8.46277,4.98088,-0.0697464,16,32765
8.34969,4.8771,-0.0737059,17,32765
8.31385,4.81931,-0.0783521,18,32765
8.19973,4.71692,-0.0820291,18,32765
8.17207,4.66454,-0.0857074,18,32765
8.07463,4.57283,-0.0894046,18,32765
8.02041,4.50605,-0.092165,18,32765
7.98319,4.44961,-0.0960123,18,32765
7.88409,4.36022,-0.0986478,19,32765
7.85482,4.30964,-0.102235,18,32765
7.7988,4.24525,-0.10518,18,32765
7.75132,4.18586,-0.108413,18,32765
7.67719,4.11247,-0.111486,18,32765
7.64671,4.06331,-0.113709,18,32765
7.57181,3.99097,-0.116475,20,32765
7.52286,3.93343,-0.121546,20,32765
7.5004,3.88988,-0.124124,20,32765
7.42453,3.81875,-0.126467,21,32765
7.4017,3.77544,-0.130306,21,32765
7.35214,3.71833,-0.132829,21,32765
7.28438,3.65269,-0.134716,19,32765
7.23408,3.59665,-0.136512,20,32765
7.19238,3.54551,-0.139338,20,32765
7.13219,3.48644,-0.142395,20,32765
7.11677,3.44939,-0.146157,19,32765
7.09221,3.40816,-0.148116,20,32765
7.03154,3.34952,-0.149141,20,32765
6.99779,3.30407,-0.147027,20,32765
6.95444,3.2551,-0.149827,19,32765
6.92003,3.21047,-0.151574,19,32765
6.8763,3.16193,-0.153378,19,32765
6.83224,3.11392,-0.155385,20,32765
6.79711,3.07017,-0.157733,20,32765
6.73429,3.01471,-0.159205,20,32765
6.70772,2.97594,-0.160959,19,32765
6.67195,2.93305,-0.162617,20,32765
6.64495,2.89481,-0.16493,20,32765
6.59954,2.84857,-0.166764,20,32765
6.58135,2.81474,-0.169255,19,32765
6.48943,2.74971,-0.169988,18,32765
6.48019,2.72001,-0.171999,19,32765
6.44305,2.67904,-0.173946,19,32765
6.38728,2.63059,-0.175333,20,32765
6.35897,2.59404,-0.177191,19,32765
6.31187,2.55042,-0.178326,19,32765
6.27383,2.51078,-0.180482,20,32765
6.26334,2.48292,-0.182461,21,32765
6.22497,2.44372,-0.184502,23,32765
6.20487,2.41254,-0.186531,22,32765
6.09139,2.34545,-0.186258,22,32765
6.07104,2.31454,-0.188025,21,32765
6.08795,2.29792,-0.191224,21,32765
6.02991,2.25321,-0.19193,21,32765
6.00904,2.223,-0.194434,22,32765
5.95057,2.17904,-0.195051,20,32765
5.98585,2.16953,-0.199174,24,32765
5.90808,2.11975,-0.199092,21,32765
5.86786,2.08349,-0.200605,22,32765
5.85562,2.05782,-0.202864,22,32765
5.80553,2.0191,-0.204011,23,32765
5.81192,2.0003,-0.207146,22,32765
5.76138,1.96246,-0.208157,23,32765
5.77704,1.94699,-0.21211,24,32765
5.72625,1.90955,-0.212892,24,32765
5.69431,1.87847,-0.21488,24,32765
5.64318,1.84156,-0.216204,23,32765
5.58219,1.80245,-0.217233,24,32765
5.63528,1.8001,-0.22271,27,32765
5.5837,1.76399,-0.224221,22,32765
5.56059,1.73698,-0.227155,25,32765
10.2967,7.58689,0.0183954,20,32765
10.3625,7.58182,0.0154123,20,32765
10.3874,7.54768,0.011735,19,32765
10.5088,7.58461,0.00746182,14,32765
10.8429,7.77086,0.00367716,14,32765
10.9099,7.76316,-0.000976432,17,32765
10.8131,7.64025,-0.00521692,17,32765
10.7156,7.51817,-0.0103634,15,32765
10.5923,7.38047,-0.0150931,14,32765
10.4438,7.22606,-0.0185442,14,32765
10.3603,7.11822,-0.0240414,14,32765
10.2846,7.01638,-0.0278619,14,32765
10.0846,6.83023,-0.0342523,14,32765
9.95831,6.69556,-0.0382173,14,32765
9.83982,6.56697,-0.0418245,14,32765
9.75363,6.46178,-0.0468657,14,32765
9.64952,6.34717,-0.0511232,15,32765
9.51137,6.21131,-0.0553829,15,32765
9.45637,6.13076,-0.0604996,15,32765
9.33384,6.0071,-0.0645222,15,32765
9.24428,5.90589,-0.0683384,15,32765
9.08665,5.7624,-0.0713871,14,32765
8.97029,5.64697,-0.0757158,14,32765
8.9719,5.60671,-0.0788399,14,32765
8.84604,5.48716,-0.082409,14,32765
8.80472,5.42079,-0.0868056,14,32765
8.69485,5.31298,-0.0895185,14,32765
8.62719,5.23173,-0.0932464,15,32765
8.51614,5.12538,-0.0971897,15,32765
8.45603,5.05052,-0.101084,14,32765
8.39544,4.97627,-0.104468,14,32765
8.36042,4.91748,-0.108068,14,32765
8.28199,4.83369,-0.110868,15,32765
8.21167,4.75558,-0.114071,15,32765
8.13231,4.67291,-0.117244,15,32765
8.06974,4.60095,-0.120988,15,32765
7.97181,4.51007,-0.123223,15,32765
7.93447,4.45401,-0.126528,15,32765
7.85308,4.37407,-0.129281,15,32765
7.79764,4.30897,-0.132845,16,32765
7.79452,4.27306,-0.136161,15,32765
7.66816,4.17051,-0.138202,15,32765
7.5855,4.09205,-0.140157,15,32765
7.59047,4.06155,-0.143826,16,32765
7.50687,3.98441,-0.145927,17,32765
7.50252,3.94972,-0.149363,17,32765
7.43589,3.88283,-0.152769,17,32765
7.34229,3.80261,-0.154293,17,32765
7.34617,3.77315,-0.157407,17,32765
7.30536,3.72101,-0.160517,17,32765
7.24654,3.66002,-0.162172,17,32765
7.18726,3.59969,-0.164854,16,32765
7.14552,3.54878,-0.167419,16,32765
7.07668,3.48485,-0.168702,17,32765
7.03444,3.43455,-0.171294,16,32765
7.00088,3.38907,-0.173921,17,32765
6.97607,3.3483,-0.176044,16,32765
6.91491,3.29061,-0.177395,16,32765
6.85342,3.23344,-0.178545,16,32765
6.85503,3.20631,-0.181793,16,32765
6.77504,3.14101,-0.18374,15,32765
6.74927,3.10132,-0.184448,15,32765
6.6688,3.03674,-0.184993,17,32765
6.67884,3.01435,-0.18873,17,32765
6.59779,2.95067,-0.188741,17,32765
6.57107,2.91218,-0.190516,16,32765
6.56228,2.88238,-0.193198,16,32765
6.48013,2.82054,-0.193218,16,32765
6.4618,2.78725,-0.194974,16,32765
6.43436,2.74963,-0.196473,16,32765
6.36984,2.69682,-0.196682,16,32765
6.33259,2.65634,-0.197635,16,32765
6.30438,2.61994,-0.199054,16,32765
6.27586,2.58411,-0.200019,17,32765
6.22878,2.54066,-0.200704,16,32765
6.25555,2.52769,-0.20334,17,32765
6.22674,2.49203,-0.204039,18,32765
6.11416,2.42336,-0.201887,18,32765
6.10345,2.39588,-0.203088,16,32765
6.08342,2.36456,-0.204361,17,32765
6.16568,2.37335,-0.209036,18,32765
6.08932,2.32107,-0.207776,15,32765
6.00336,2.26572,-0.206272,18,32765
6.04805,2.2603,-0.209034,20,32765
5.92421,2.19172,-0.206221,17,32765
6.04397,2.21337,-0.212068,21,32765
5.90088,2.13887,-0.207981,20,32765
5.84199,2.09581,-0.206969,20,32765
5.81115,2.06318,-0.206724,21,32765
5.86502,2.06052,-0.210068,20,32765
5.76784,2.00526,-0.20759,20,32765
5.93496,2.04176,-0.21429,19,32765
5.81853,1.98063,-0.210446,20,32765
5.768,1.94283,-0.209107,19,32765
5.79325,1.93021,-0.211198,23,32765
5.60007,1.8459,-0.204486,20,32765
5.5679,1.81568,-0.203405,20,32765
5.6497,1.8226,-0.206448,19,32765
5.62691,1.79552,-0.205218,21,32765
5.63281,1.77688,-0.205691,22,32765
5.61939,1.75289,-0.204768,21,32765
10.2845,7.6028,-0.10058,16,32765
10.6163,7.79299,-0.10672,18,32765
10.6743,7.78148,-0.110844,20,32765
10.6263,7.69438,-0.114541,19,32765
10.522,7.56538,-0.11705,19,32765
10.515,7.50643,-0.121209,15,32765
10.5155,7.45394,-0.125082,12,32765
0,0,-0,0,32765
0,0,-0,0,32765
9.94774,6.9049,-0.130466,13,32765
9.80561,6.75871,-0.133712,17,32765
9.67108,6.61893,-0.135405,17,32765
9.60235,6.52435,-0.140813,17,32765
9.51665,6.41897,-0.143527,18,32765
9.37245,6.27492,-0.144995,17,32765
9.25207,6.14893,-0.148045,17,32765
9.19716,6.06875,-0.151493,17,32765
9.12516,5.97792,-0.15489,17,32765
8.98565,5.84395,-0.157488,17,32765
8.91271,5.75412,-0.1606,16,32765
8.80558,5.6433,-0.162699,16,32765
8.74007,5.55998,-0.16535,18,32765
8.66543,5.47214,-0.168816,17,32765
8.60721,5.3956,-0.170482,16,32765
8.48078,5.27701,-0.17228,16,32765
8.46434,5.22746,-0.176363,17,32765
8.38805,5.14144,-0.17826,17,32765
8.29427,5.04545,-0.180347,16,32765
8.22551,4.96581,-0.183651,17,32765
8.13063,4.87121,-0.185769,17,32765
8.08671,4.80809,-0.18856,18,32765
7.99951,4.71972,-0.190228,18,32765
7.98089,4.67231,-0.1933,17,32765
7.91876,4.60006,-0.195635,18,32765
7.85629,4.52818,-0.198068,18,32765
7.79329,4.45698,-0.200817,18,32765
7.72107,4.38161,-0.202396,17,32765
7.69206,4.33117,-0.205255,18,32765
7.63653,4.26648,-0.207571,18,32765
7.57204,4.1971,-0.210025,18,32765
7.516,4.13295,-0.211581,19,32765
7.45073,4.06462,-0.213737,20,32765
7.39417,4.00099,-0.215336,20,32765
7.34599,3.94269,-0.217263,20,32765
7.31502,3.89439,-0.219808,20,32765
7.25734,3.83225,-0.221353,20,32765
7.18151,3.76139,-0.223487,20,32765
7.16743,3.72332,-0.22629,20,32765
7.10885,3.66232,-0.227254,20,32765
7.06771,3.61087,-0.229674,20,32765
7.03533,3.56409,-0.231365,18,32765
6.97577,3.50434,-0.233182,20,32765
6.92481,3.44956,-0.234779,20,32765
6.90051,3.40836,-0.236666,19,32765
6.85805,3.35854,-0.238609,20,32765
6.81527,3.30918,-0.240366,21,32765
6.76321,3.25592,-0.24108,19,32765
6.73788,3.21603,-0.242894,18,32765
6.6762,3.15931,-0.243226,19,32765
6.65042,3.11997,-0.245297,18,32765
6.61552,3.07628,-0.247883,18,32765
6.57142,3.02867,-0.2475,19,32765
6.51804,2.97701,-0.248074,18,32765
6.48235,2.93446,-0.249979,19,32765
6.45581,2.89584,-0.251112,19,32765
6.41067,2.84962,-0.251742,18,32765
6.38339,2.81222,-0.253439,19,32765
6.35603,2.77482,-0.254657,19,32765
6.28254,2.71805,-0.253865,19,32765
6.26408,2.68488,-0.255299,19,32765
6.2086,2.63642,-0.255077,19,32765
6.19881,2.60801,-0.256652,20,32765
6.16125,2.56813,-0.257263,19,32765
6.1603,2.54412,-0.258976,20,32765
6.07613,2.48581,-0.257492,19,32765
6.04715,2.45079,-0.257902,19,32765
6.00884,2.41201,-0.257771,20,32765
6.0168,2.3919,-0.25955,20,32765
5.93162,2.33538,-0.257314,20,32765
5.93934,2.31545,-0.259469,22,32765
5.91886,2.28514,-0.260339,20,32765
5.9076,2.25853,-0.261064,23,32765
5.89627,2.23194,-0.261897,23,32765
5.8192,2.18126,-0.259588,21,32765
5.8076,2.15499,-0.260442,23,32765
5.80524,2.13229,-0.261883,24,32765
5.77467,2.09937,-0.261352,24,32765
5.77211,2.07692,-0.262224,24,32765
5.75065,2.04779,-0.262024,23,32765
5.69137,2.00548,-0.260647,25,32765
5.66012,1.97367,-0.26014,25,32765
5.53427,1.90958,-0.254936,22,32765
5.61606,1.9174,-0.258993,25,32765
5.61269,1.89614,-0.259257,26,32765
5.59041,1.86817,-0.259305,25,32765
5.61534,1.85644,-0.260737,25,32765
5.58324,1.8261,-0.259286,26,32765
5.55097,1.79607,-0.257788,24,32765
5.5091,1.76315,-0.255402,25,32765
5.5149,1.74485,-0.25587,23,32765
5.47281,1.71223,-0.253443,24,32765
10.2663,7.56059,-0.0461863,20,32765
10.3399,7.56162,-0.0590596,14,32765
10.761,7.81568,-0.073008,14,32765
10.7138,7.72734,-0.0836423,16,32765
10.6171,7.60473,-0.0924858,17,32765
10.5933,7.53463,-0.103406,15,32765
10.504,7.41843,-0.112066,12,32765
0,0,-0,0,32765
0,0,-0,0,32765
9.86938,6.82481,-0.131947,12,32765
9.76785,6.70765,-0.138185,14,32765
9.69072,6.60771,-0.14502,15,32765
9.56373,6.47418,-0.149965,15,32765
9.46144,6.35741,-0.156671,15,32765
9.35792,6.24222,-0.162662,15,32765
9.22026,6.10593,-0.167439,14,32765
9.14851,6.01475,-0.17324,15,32765
9.00894,5.88094,-0.176378,14,32765
8.91903,5.78057,-0.181067,15,32765
8.82863,5.68075,-0.185324,15,32765
8.72913,5.57639,-0.189319,15,32765
8.62944,5.47209,-0.193513,15,32765
8.55432,5.38488,-0.196887,14,32765
8.49598,5.3083,-0.201738,14,32765
8.36899,5.19051,-0.202768,14,32765
8.35212,5.14146,-0.208816,15,32765
8.22411,5.02487,-0.210329,14,32765
8.19796,4.97142,-0.215862,14,32765
8.10328,4.87655,-0.218342,15,32765
8.06799,4.81857,-0.221205,15,32765
7.98944,4.73528,-0.223839,15,32765
7.91897,4.65775,-0.226628,15,32765
7.86529,4.59094,-0.229298,14,32765
7.73347,4.47931,-0.229717,15,32765
7.67029,4.40856,-0.231825,15,32765
7.66768,4.37262,-0.236158,15,32765
7.63005,4.31716,-0.239401,15,32765
7.56596,4.24741,-0.24112,15,32765
7.51016,4.18306,-0.243717,15,32765
7.44518,4.11452,-0.245165,16,32765
7.45001,4.0848,-0.248704,16,32765
7.36683,4.00743,-0.2499,17,32765
7.29195,3.93558,-0.250747,17,32765
7.2609,3.88754,-0.252771,17,32765
7.15887,3.8025,-0.252318,17,32765
7.12721,3.75521,-0.25464,17,32765
7.0866,3.70327,-0.256765,16,32765
7.05471,3.65607,-0.258299,16,32765
7.04933,3.62265,-0.261315,17,32765
7.00809,3.57135,-0.262681,17,32765
6.90424,3.48862,-0.261795,17,32765
6.8802,3.44719,-0.264171,17,32765
6.82907,3.39266,-0.265553,16,32765
6.79555,3.34746,-0.267073,16,32765
6.79763,3.32026,-0.27013,17,32765
6.72777,3.25799,-0.270147,18,32765
6.67557,3.20492,-0.270885,16,32765
6.63213,3.15659,-0.270663,15,32765
6.59743,3.11285,-0.272188,15,32765
6.58955,3.08229,-0.275111,16,32765
6.52723,3.02643,-0.275555,16,32765
6.49194,2.98345,-0.276246,16,32765
6.42895,2.92865,-0.276577,16,32765
6.42053,2.89857,-0.278622,17,32765
6.42099,2.87288,-0.281187,16,32765
6.31177,2.79854,-0.279086,15,32765
6.28446,2.76119,-0.279921,16,32765
6.25694,2.72406,-0.281196,16,32765
6.22008,2.68315,-0.282341,18,32765
6.21054,2.65445,-0.284087,18,32765
6.16414,2.60995,-0.285514,18,32765
6.16357,2.58534,-0.287375,16,32765
0,0,-0,0,32765
6.04197,2.48673,-0.287023,18,32765
6.0223,2.45536,-0.288537,20,32765
6.0488,2.44287,-0.292036,17,32765
5.96385,2.38597,-0.290821,18,32765
5.9623,2.36253,-0.292906,18,32765
6.02586,2.36438,-0.29852,19,32765
5.83804,2.26828,-0.29181,18,32765
5.90144,2.2701,-0.29757,20,32765
5.75942,2.19369,-0.292684,18,32765
5.67299,2.13946,-0.291158,20,32765
5.69856,2.12788,-0.294449,17,32765
5.79905,2.14376,-0.302372,20,32765
5.70276,2.08682,-0.300218,21,32765
5.65322,2.0474,-0.299448,22,32765
5.58458,2.00173,-0.298515,20,32765
5.65692,2.00651,-0.305345,20,32765
5.50302,1.93195,-0.299958,21,32765
5.54686,1.92713,-0.304813,19,32765
5.51506,1.89638,-0.305658,21,32765
5.5115,1.87552,-0.307632,23,32765
5.48898,1.84808,-0.309376,22,32765
5.53273,1.84263,-0.31499,21,32765
5.42476,1.78688,-0.312109,22,32765
5.36387,1.74773,-0.311155,21,32765
5.29315,1.70633,-0.309649,22,32765
5.36483,1.71107,-0.31695,22,32765
5.35089,1.6883,-0.319375,21,32765
5.34644,1.66846,-0.322448,25,32765
10.4465,7.719,-0.167826,12,32765
10.5044,7.70756,-0.181224,20,32765
10.4001,7.5788,-0.190318,19,32765
10.344,7.48557,-0.199607,15,32765
10.271,7.3814,-0.207227,12,32765
0,0,-0,0,32765
0,0,-0,0,32765
0,0,-0,0,32765
0,0,-0,0,32765
0,0,-0,0,32765
9.2867,6.39841,-0.236494,15,32765
9.21691,6.30547,-0.242038,16,32765
9.06426,6.15638,-0.244302,17,32765
9.01074,6.07459,-0.250556,17,32765
8.9064,5.96066,-0.25478,17,32765
8.81793,5.85877,-0.258903,17,32765
8.67869,5.72468,-0.261358,17,32765
8.64707,5.66331,-0.265764,16,32765
8.59009,5.58569,-0.270035,16,32765
8.43198,5.44336,-0.2707,17,32765
8.39073,5.37781,-0.275043,16,32765
8.31581,5.2905,-0.278531,17,32765
8.22329,5.19345,-0.280119,17,32765
8.17284,5.12312,-0.284184,17,32765
8.04541,5.00614,-0.283472,17,32765
7.99393,4.93704,-0.287671,16,32765
7.98471,4.89451,-0.291749,17,32765
7.87276,4.78978,-0.293454,18,32765
7.83748,4.73196,-0.296787,18,32765
7.72461,4.62849,-0.296008,18,32765
7.69706,4.57681,-0.29941,18,32765
7.60033,4.48485,-0.300068,17,32765
7.5979,4.44924,-0.303886,18,32765
7.56081,4.39349,-0.306422,18,32765
7.46279,4.30318,-0.306183,18,32765
7.42514,4.248,-0.308767,19,32765
7.39584,4.19815,-0.311675,19,32765
7.32273,4.12412,-0.312066,19,32765
7.29275,4.07507,-0.314902,19,32765
7.21875,4.00224,-0.315023,20,32765
7.20571,3.96356,-0.317592,20,32765
7.11345,3.88204,-0.317235,20,32765
7.08218,3.83465,-0.319006,20,32765
7.04205,3.78247,-0.320072,20,32765
6.98388,3.72145,-0.32033,21,32765
6.952,3.67463,-0.3221,20,32765
6.91116,3.62315,-0.323576,19,32765
6.87905,3.57644,-0.324576,19,32765
6.82013,3.51607,-0.324786,19,32765
6.78748,3.46998,-0.32592,20,32765
6.78143,3.4375,-0.328467,20,32765
6.73939,3.38741,-0.32954,20,32765
6.67024,3.32432,-0.329317,19,32765
6.60966,3.26627,-0.328965,19,32765
6.57559,3.22204,-0.330043,18,32765
6.56838,3.19093,-0.332305,17,32765
6.51601,3.13827,-0.332319,18,32765
6.44537,3.07744,-0.330113,18,32765
6.45559,3.0556,-0.333415,19,32765
6.40232,3.00422,-0.333724,20,32765
6.36698,2.9615,-0.334758,20,32765
6.34965,2.92731,-0.335885,22,32765
6.33196,2.89362,-0.337824,21,32765
6.25974,2.83495,-0.336226,20,32765
6.19622,2.78111,-0.335181,20,32765
6.15068,2.73576,-0.335244,20,32765
6.15061,2.71094,-0.337152,20,32765
6.10466,2.66618,-0.336988,21,32765
6.11347,2.64551,-0.340144,21,32765
6.03956,2.58956,-0.33807,20,32765
6.02975,2.56114,-0.340912,20,32765
5.94618,2.50206,-0.337929,20,32765
5.97289,2.48957,-0.342048,21,32765
5.91645,2.4428,-0.341292,23,32765
5.86893,2.40042,-0.340862,21,32765
5.83045,2.36216,-0.340703,22,32765
5.81944,2.3356,-0.342807,26,32765
5.79918,2.30519,-0.343643,21,32765
5.71384,2.24907,-0.340878,23,32765
5.74907,2.24081,-0.345467,22,32765
5.70055,2.1998,-0.344986,22,32765
5.70765,2.18089,-0.347603,22,32765
5.67727,2.1479,-0.348558,24,32765
5.60001,2.09774,-0.345695,21,32765
5.60671,2.07927,-0.348686,24,32765
5.61337,2.06067,-0.351861,24,32765
5.49812,1.99759,-0.346363,21,32765
5.5233,1.9861,-0.350564,23,32765
5.50148,1.95763,-0.352001,25,32765
5.51701,1.94308,-0.355867,24,32765
5.48544,1.91192,-0.356213,27,32765
5.39701,1.86176,-0.352953,25,32765
5.42168,1.8509,-0.356648,26,32765
5.37072,1.8141,-0.356181,27,32765
5.31018,1.77424,-0.355136,24,32765
5.38212,1.77858,-0.363136,25,32765
5.32125,1.73947,-0.361508,24,32765
5.27904,1.70731,-0.361183,26,32765
5.30312,1.69691,-0.365856,26,32765
5.2606,1.66524,-0.366072,25,32765
5.22749,1.63669,-0.366988,25,32765
10.1371,7.49378,-0.307494,14,32765
10.0901,7.40579,-0.308719,13,32765
0,0,-0,0,32765
0,0,-0,0,32765
0,0,-0,0,32765
0,0,-0,0,32765
0,0,-0,0,32765
0,0,-0,0,32765
0,0,-0,0,32765
0,0,-0,0,32765
0,0,-0,0,32765
9.03552,6.17783,-0.310264,14,32765
8.89877,6.04099,-0.309672,15,32765
8.86892,5.97785,-0.312351,15,32765
8.72261,5.83688,-0.311276,15,32765
8.6258,5.72955,-0.312115,15,32765
8.57821,5.65632,-0.314335,15,32765
8.4885,5.55592,-0.315565,15,32765
8.41459,5.46776,-0.316193,14,32765
8.30667,5.35828,-0.316353,14,32765
8.29071,5.30892,-0.319424,15,32765
8.21544,5.22222,-0.32016,15,32765
8.13118,5.13082,-0.320891,14,32765
8.0378,5.0349,-0.321957,14,32765
8.01205,4.9815,-0.324596,14,32765
7.97751,4.9231,-0.326909,14,32765
7.80641,4.7813,-0.323574,15,32765
7.77948,4.72919,-0.32637,15,32765
7.76938,4.6877,-0.329445,16,32765
7.67349,4.59472,-0.329555,16,32765
7.61154,4.52273,-0.330033,16,32765
7.54911,4.45127,-0.331609,15,32765
7.48623,4.38043,-0.332529,15,32765
7.43154,4.31519,-0.333832,15,32765
7.40261,4.26504,-0.336594,15,32765
7.3127,4.18048,-0.336003,16,32765
7.28319,4.13094,-0.338869,16,32765
7.22744,4.06677,-0.33986,16,32765
7.18001,4.008,-0.341064,16,32765
7.17578,3.97413,-0.344364,16,32765
7.07502,3.88751,-0.34323,17,32765
7.05273,3.8446,-0.345953,16,32765
6.9951,3.78289,-0.346339,17,32765
6.94599,3.72624,-0.347073,17,32765
6.90539,3.67461,-0.34889,17,32765
6.83831,3.60879,-0.348904,16,32765
6.84164,3.58063,-0.352198,15,32765
6.75614,3.50653,-0.351063,15,32765
6.71439,3.45636,-0.352413,16,32765
6.65466,3.39735,-0.352013,16,32765
6.62135,3.35224,-0.353746,16,32765
6.64151,3.33403,-0.357969,16,32765
6.52759,3.24883,-0.354496,16,32765
6.50262,3.20889,-0.355809,16,32765
6.47728,3.16945,-0.357449,16,32765
6.44282,3.12581,-0.358248,15,32765
6.35412,3.05642,-0.356516,15,32765
6.34614,3.02637,-0.359358,17,32765
6.34718,3.00055,-0.361706,17,32765
6.29378,2.94954,-0.36076,17,32765
6.23094,2.89488,-0.359765,18,32765
6.204,2.8576,-0.360742,18,32765
6.14966,2.80806,-0.359698,17,32765
6.1316,2.77502,-0.361044,17,32765
6.10445,2.73771,-0.361412,17,32765
5.995,2.66402,-0.357625,18,32765
6.12262,2.69601,-0.367553,16,32765
5.98513,2.61137,-0.361326,19,32765
5.91116,2.55576,-0.358892,18,32765
5.92872,2.53988,-0.361749,19,32765
5.88205,2.49622,-0.360989,18,32765
5.90874,2.48395,-0.364952,18,32765
5.75111,2.3949,-0.355982,20,32765
5.87887,2.42521,-0.36626,19,32765
5.88665,2.40591,-0.368563,19,32765
5.74641,2.32645,-0.361267,21,32765
5.69836,2.28509,-0.359866,19,32765
5.68726,2.25876,-0.360564,20,32765
5.69465,2.23974,-0.362559,19,32765
5.58107,2.17366,-0.356217,18,32765
5.61608,2.16592,-0.359743,20,32765
5.67898,2.1689,-0.364958,20,32765
5.54591,2.09727,-0.357646,20,32765
5.52465,2.06853,-0.357114,18,32765
5.55005,2.05724,-0.360047,19,32765
5.49111,2.01489,-0.357119,19,32765
5.56334,2.02049,-0.363054,19,32765
5.41027,1.94457,-0.35383,24,32765
5.49172,1.95372,-0.359966,21,32765
5.47921,1.92906,-0.359724,21,32765
5.36296,1.86832,-0.35228,21,32765
5.36889,1.85093,-0.353732,21,32765
5.39373,1.83988,-0.355795,20,32765
5.28609,1.78424,-0.349116,19,32765
5.3013,1.77027,-0.349732,23,32765
5.27855,1.74367,-0.348473,21,32765
5.31269,1.73557,-0.350872,23,32765
5.23289,1.69042,-0.345572,21,32765
5.24788,1.6764,-0.346244,22,32765
5.23416,1.65363,-0.345078,22,32765
5.28696,1.65221,-0.347454,23,32765
0,0,-0,0,32765
0,0,-0,0,32765
0,0,-0,0,32765
0,0,-0,0,32765
0,0,-0,0,32765
0,0,-0,0,32765
0,0,-0,0,32765
0,0,-0,0,32765
0,0,-0,0,32765
0,0,-0,0,32765
0,0,-0,0,32765
8.60242,5.90234,-0.39276,12,32765
8.53932,5.81728,-0.393615,17,32765
8.50054,5.74957,-0.395192,17,32765
8.36201,5.61509,-0.392465,17,32765
8.32281,5.54754,-0.394571,18,32765
8.21638,5.43656,-0.393111,17,32765
8.16784,5.36459,-0.394947,17,32765
8.11016,5.28821,-0.395231,17,32765
8.04377,5.20664,-0.395897,17,32765
7.95171,5.10942,-0.394719,17,32765
7.89276,5.0344,-0.395114,18,32765
7.83334,4.95989,-0.395838,17,32765
7.78183,4.89132,-0.397672,18,32765
7.73871,4.82807,-0.398848,17,32765
7.65276,4.73889,-0.397819,18,32765
7.57492,4.65541,-0.397181,18,32765
7.51352,4.58313,-0.397585,18,32765
7.44315,4.50621,-0.397062,19,32765
7.4153,4.45527,-0.399461,19,32765
7.36157,4.38909,-0.399451,18,32765
7.33317,4.33866,-0.401924,19,32765
7.27862,4.27344,-0.402371,18,32765
7.21503,4.2037,-0.402339,19,32765
7.17713,4.14916,-0.404025,19,32765
7.13028,4.09002,-0.40466,19,32765
7.1092,4.04591,-0.407449,19,32765
7.00105,3.95273,-0.404589,18,32765
6.97074,3.90434,-0.406041,19,32765
6.92254,3.84683,-0.406483,19,32765
6.89145,3.79943,-0.408139,22,32765
6.88643,3.76661,-0.411432,21,32765
6.81107,3.69579,-0.409936,19,32765
6.73537,3.62543,-0.408331,20,32765
6.7033,3.57908,-0.410002,20,32765
6.66245,3.52782,-0.410701,19,32765
6.59479,3.46305,-0.409426,20,32765
6.58871,3.43113,-0.41212,20,32765
6.52902,3.37223,-0.4117,20,32765
6.49576,3.32737,-0.412163,20,32765
6.48896,3.29625,-0.41505,20,32765
6.42867,3.23802,-0.414132,20,32765
6.39495,3.19349,-0.414467,20,32765
6.33405,3.13618,-0.413016,19,32765
6.29059,3.08842,-0.413022,19,32765
6.26488,3.04966,-0.413862,19,32765
6.21199,2.99807,-0.413401,20,32765
6.17682,2.95549,-0.414168,21,32765
6.14156,2.91307,-0.413924,21,32765
6.11504,2.87537,-0.414082,21,32765
6.07917,2.83382,-0.414107,21,32765
6.06113,2.80113,-0.415264,21,32765
6.0339,2.76442,-0.415388,21,32765
5.98846,2.7193,-0.414519,21,32765
5.98847,2.69468,-0.416362,20,32765
5.91545,2.63747,-0.413859,22,32765
5.91506,2.61332,-0.415983,24,32765
5.8963,2.58121,-0.416578,23,32765
5.83147,2.52973,-0.413923,24,32765
5.79393,2.49043,-0.41293,25,32765
5.81142,2.47449,-0.416159,24,32765
5.72768,2.41589,-0.41234,21,32765
5.6805,2.3734,-0.409623,24,32765
5.6882,2.3544,-0.412399,24,32765
5.65883,2.32053,-0.411946,23,32765
5.65712,2.29796,-0.413212,24,32765
5.67383,2.28286,-0.415975,26,32765
5.57933,2.2233,-0.410351,24,32765
5.66085,2.23389,-0.417793,24,32765
5.56596,2.17503,-0.41161,24,32765
5.56373,2.1529,-0.412657,26,32765
5.52407,2.11679,-0.410804,24,32765
5.4656,2.07381,-0.407614,25,32765
5.44429,2.04526,-0.406789,25,32765
5.4135,2.01334,-0.405687,25,32765
5.42002,1.99545,-0.406997,25,32765
5.37028,1.9569,-0.404397,25,32765
5.32978,1.92204,-0.40204,25,32765
5.3735,1.91807,-0.406073,25,32765
5.28566,1.86715,-0.399934,25,32765
5.26351,1.83981,-0.398385,26,32765
5.27877,1.82596,-0.400532,25,32765
5.25634,1.79902,-0.39919,25,32765
5.26204,1.78208,-0.399989,24,32765
5.22997,1.7523,-0.397114,26,32765
5.2356,1.73528,-0.397729,28,32765
5.22231,1.71176,-0.396809,27,32765
5.18048,1.6791,-0.393549,26,32765
5.23342,1.67739,-0.397203,28,32765
5.15319,1.63351,-0.390807,25,32765
5.16783,1.62039,-0.390789,26,32765
0,0,-0,11,32765
0,0,-0,0,32765
0,0,-0,0,32765
0,0,-0,0,32765
0,0,-0,0,32765
0,0,-0,0,32765
0,0,-0,0,32765
0,0,-0,0,32765
0,0,-0,0,32765
0,0,-0,0,32765
0,0,-0,0,32765
0,0,-0,0,32765
8.49719,5.77128,-0.410454,14,32765
8.34211,5.62553,-0.409354,14,32765
8.33553,5.58109,-0.414764,15,32765
8.22896,5.47033,-0.414455,15,32765
8.16335,5.38783,-0.418383,15,32765
8.08916,5.30022,-0.418893,15,32765
7.96428,5.18029,-0.418288,15,32765
7.90595,5.10451,-0.419987,15,32765
7.88926,5.05606,-0.424631,15,32765
7.76254,4.93844,-0.422831,15,32765
7.71102,4.86992,-0.425416,14,32765
7.68464,4.81763,-0.428063,15,32765
7.58149,4.71823,-0.427745,15,32765
7.52905,4.65067,-0.42927,15,32765
7.49327,4.59399,-0.431444,16,32765
7.40618,4.50625,-0.429651,15,32765
7.35275,4.43974,-0.431053,16,32765
7.34177,4.39939,-0.434327,16,32765
7.23627,4.30288,-0.43191,15,32765
7.20746,4.25304,-0.434222,16,32765
7.11807,4.1682,-0.432217,16,32765
7.12304,4.13943,-0.435859,16,32765
7.06751,4.07542,-0.436022,16,32765
7.02898,4.02176,-0.43697,16,32765
6.98142,3.96356,-0.437726,16,32765
6.89892,3.88587,-0.435778,16,32765
6.85944,3.83339,-0.436044,17,32765
6.83713,3.79089,-0.437888,17,32765
6.79709,3.73905,-0.438219,18,32765
6.76553,3.69236,-0.43875,16,32765
6.71631,3.63611,-0.438642,17,32765
6.71085,3.60372,-0.441217,16,32765
6.66993,3.55281,-0.441003,16,32765
6.56688,3.46964,-0.437304,17,32765
6.52523,3.41981,-0.436748,18,32765
6.51869,3.38871,-0.439261,17,32765
6.48557,3.3437,-0.43957,17,32765
6.45249,3.29848,-0.439356,17,32765
6.39244,3.23993,-0.438178,17,32765
6.3589,3.19521,-0.438091,17,32765
6.29822,3.13761,-0.436224,16,32765
6.28164,3.10321,-0.43752,17,32765
6.27402,3.07309,-0.439085,16,32765
6.24822,3.03443,-0.439899,16,32765
6.16828,2.97002,-0.436898,17,32765
6.1602,2.94035,-0.437995,18,32765
6.10674,2.88969,-0.436273,20,32765
6.08018,2.85195,-0.436703,19,32765
6.10765,2.83981,-0.441183,18,32765
6.04451,2.78569,-0.439055,19,32765
6.07188,2.77347,-0.442984,19,32765
5.90835,2.67473,-0.432707,19,32765
5.8807,2.63838,-0.433543,20,32765
5.82554,2.59014,-0.431614,20,32765
5.87976,2.59037,-0.438234,20,32765
5.75108,2.51068,-0.430817,18,32765
5.75009,2.48747,-0.432813,20,32765
5.77659,2.47588,-0.437063,22,32765
5.70204,2.42135,-0.433472,20,32765
5.69161,2.39434,-0.434521,19,32765
5.72716,2.38632,-0.439937,22,32765
5.67956,2.34434,-0.438473,21,32765
5.66883,2.31739,-0.440125,21,32765
5.61161,2.27219,-0.438045,20,32765
5.62819,2.25725,-0.441283,19,32765
5.45933,2.16853,-0.430415,19,32765
5.52186,2.17262,-0.437338,21,32765
5.45444,2.12541,-0.43437,22,32765
5.43331,2.09656,-0.434922,24,32765
5.44933,2.08209,-0.438442,25,32765
5.43737,2.05685,-0.439592,22,32765
5.3692,2.01088,-0.436548,23,32765
5.2728,1.95478,-0.43125,22,32765
5.25096,1.92696,-0.431654,21,32765
5.28522,1.91962,-0.437188,21,32765
5.3101,1.90883,-0.44134,23,32765
5.29733,1.88463,-0.442831,22,32765
5.19993,1.83048,-0.437035,23,32765
5.2433,1.82648,-0.443449,22,32765
5.18308,1.78652,-0.440468,21,32765
5.14138,1.75372,-0.439525,23,32765
5.12778,1.73097,-0.441028,21,32765
5.19922,1.7366,-0.449843,22,32765
5.02473,1.6604,-0.437319,22,32765
5.02031,1.64106,-0.43976,21,32765
5.05375,1.63395,-0.445774,22,32765
5.02061,1.60581,-0.446091,19,32765
5.02534,1.5899,-0.449727,22,32765
4.98242,1.5592,-0.449474,24,32765
0,0,-0,0,32765
0,0,-0,0,32765
0,0,-0,0,32765
0,0,-0,0,32765
0,0,-0,0,32765
0,0,-0,0,32765
0,0,-0,0,32765
0,0,-0,0,32765
0,0,-0,0,32765
0,0,-0,0,32765
0,0,-0,0,32765
0,0,-0,0,32765
8.14556,5.55256,-0.485603,12,32765
8.04791,5.44684,-0.48576,17,32765
8.0159,5.38655,-0.489159,18,32765
7.90888,5.2766,-0.487248,17,32765
7.83442,5.18946,-0.489427,18,32765
7.75137,5.09726,-0.488196,18,32765
7.70963,5.03278,-0.49107,18,32765
7.67605,4.97397,-0.493385,17,32765
7.60018,4.88836,-0.493669,17,32765
7.5152,4.79831,-0.492847,17,32765
7.45487,4.72509,-0.493946,19,32765
7.39427,4.65226,-0.493721,20,32765
7.35849,4.5959,-0.496449,20,32765
7.29725,4.52367,-0.49651,20,32765
7.23561,4.45194,-0.496236,18,32765
7.16525,4.37527,-0.494376,18,32765
7.11146,4.30942,-0.494874,18,32765
7.09153,4.26463,-0.497128,18,32765
7.05432,4.20967,-0.498104,19,32765
7.03384,4.16541,-0.500453,19,32765
6.9185,4.06578,-0.495397,20,32765
6.88003,4.01245,-0.495736,20,32765
6.85873,3.96911,-0.497524,20,32765
6.81992,3.91602,-0.497805,20,32765
6.75475,3.8485,-0.496512,20,32765
6.75018,3.81559,-0.499204,21,32765
6.66703,3.73908,-0.495612,20,32765
6.63573,3.69227,-0.496331,19,32765
6.63038,3.66027,-0.498634,19,32765
6.54611,3.58526,-0.494662,20,32765
6.54046,3.55343,-0.49712,20,32765
6.48204,3.49315,-0.495396,21,32765
6.48483,3.46641,-0.497901,21,32765
6.40809,3.39769,-0.494937,20,32765
6.36627,3.34827,-0.493762,21,32765
6.35952,3.31762,-0.49601,20,32765
6.3085,3.26387,-0.494395,20,32765
6.27521,3.21915,-0.49365,19,32765
6.25055,3.17916,-0.494449,20,32765
6.19014,3.12135,-0.491719,20,32765
6.13823,3.06866,-0.489748,20,32765
6.11252,3.03027,-0.489978,20,32765
6.09573,2.99624,-0.49057,21,32765
6.04283,2.94499,-0.488752,22,32765
6.01658,2.90714,-0.489098,22,32765
6.00832,2.87792,-0.48996,21,32765
5.94572,2.82337,-0.486789,22,32765
5.90996,2.78183,-0.486034,21,32765
5.91006,2.75758,-0.488381,23,32765
5.88294,2.72074,-0.48842,23,32765
5.85569,2.6841,-0.487943,24,32765
5.79195,2.63122,-0.484168,24,32765
5.7551,2.59108,-0.483806,24,32765
5.72718,2.55533,-0.483479,24,32765
5.69915,2.5196,-0.483557,24,32765
5.70739,2.50034,-0.486333,24,32765
5.6515,2.45339,-0.48353,23,32765
5.60459,2.41059,-0.481629,22,32765
5.62164,2.39559,-0.48504,23,32765
5.60196,2.3649,-0.48508,27,32765
5.60058,2.34178,-0.487529,26,32765
5.54369,2.2963,-0.484646,26,32765
5.56048,2.28109,-0.488476,26,32765
5.44781,2.21363,-0.480804,25,32765
5.47343,2.20291,-0.484888,26,32765
5.44347,2.16985,-0.484533,28,32765
5.38543,2.12641,-0.481247,25,32765
5.32722,2.08316,-0.4783,25,32765
5.39891,2.09065,-0.486893,25,32765
5.25672,2.0156,-0.476169,24,32765
5.22594,1.98387,-0.47535,24,32765
5.2602,1.97704,-0.480826,25,32765
5.26652,1.95938,-0.483882,27,32765
5.24472,1.93151,-0.48401,27,32765
5.18535,1.89004,-0.481141,26,32765
5.19136,1.8728,-0.48369,26,32765
5.18787,1.85228,-0.485811,27,32765
5.14683,1.81827,-0.484236,24,32765
5.10548,1.78484,-0.482991,25,32765
5.08285,1.75826,-0.48287,25,32765
5.10706,1.74827,-0.487705,25,32765
5.04629,1.70959,-0.484478,26,32765
4.95705,1.6617,-0.478411,23,32765
5.05663,1.67699,-0.490564,26,32765
5.01441,1.64508,-0.489245,25,32765
4.9531,1.60724,-0.486243,27,32765
4.94834,1.58847,-0.488928,24,32765
4.73477,1.50345,-0.470816,21,32765
4.86258,1.52728,-0.486988,24,32765
0,0,-0,0,32765
0,0,-0,0,32765
0,0,-0,0,32765
0,0,-0,0,32765
0,0,-0,0,32765
0,0,-0,0,32765
0,0,-0,0,32765
0,0,-0,0,32765
0,0,-0,0,32765
0,0,-0,0,32765
0,0,-0,0,32765
0,0,-0,0,32765
0,0,-0,0,32765
7.92189,5.36024,-0.536536,12,32765
7.86502,5.28343,-0.535728,15,32765
7.75794,5.17369,-0.531833,15,32765
7.7335,5.11984,-0.533206,15,32765
7.6503,5.028,-0.530175,15,32765
7.64173,4.9859,-0.533207,15,32765
7.54922,4.88976,-0.528768,15,32765
7.47291,4.80497,-0.527119,15,32765
7.42191,4.73608,-0.52647,16,32765
7.40401,4.68939,-0.527955,16,32765
7.30978,4.59503,-0.524782,17,32765
7.23168,4.51248,-0.521497,17,32765
7.20395,4.46204,-0.522812,16,32765
7.16781,4.40608,-0.523336,16,32765
7.10556,4.33525,-0.52179,15,32765
7.08607,4.28999,-0.523172,15,32765
7.02337,4.2195,-0.521702,15,32765
6.9517,4.14444,-0.519192,16,32765
6.88822,4.07493,-0.517452,16,32765
6.84993,4.02147,-0.517584,17,32765
6.82002,3.9732,-0.518777,17,32765
6.79866,3.93011,-0.519038,17,32765
6.75978,3.87707,-0.519464,17,32765
6.67737,3.7995,-0.516305,17,32765
6.64661,3.75207,-0.516742,17,32765
6.64185,3.71927,-0.519404,16,32765
6.54067,3.63394,-0.513894,16,32765
6.52646,3.59723,-0.5159,16,32765
6.49457,3.55113,-0.516171,16,32765
6.4535,3.50079,-0.516124,17,32765
6.40343,3.44598,-0.515231,17,32765
6.34423,3.38698,-0.513086,17,32765
6.34665,3.36054,-0.516538,16,32765
6.25187,3.28313,-0.51142,17,32765
6.26291,3.26143,-0.515159,17,32765
6.22069,3.21231,-0.514253,16,32765
6.17799,3.16388,-0.51364,17,32765
6.12637,3.11097,-0.511454,16,32765
6.09214,3.06752,-0.511624,18,32765
6.0399,3.01541,-0.509775,17,32765
6.00532,2.97236,-0.509498,18,32765
6.00603,2.94773,-0.512406,18,32765
5.97094,2.90547,-0.511585,18,32765
5.89963,2.84637,-0.507393,16,32765
5.87282,2.80938,-0.508221,17,32765
5.84605,2.77223,-0.508433,18,32765
5.80104,2.72693,-0.506629,18,32765
5.74689,2.67738,-0.50448,18,32765
5.81911,2.68698,-0.512849,20,32765
5.72801,2.62198,-0.50748,18,32765
5.64575,2.56153,-0.502482,19,32765
5.71769,2.57122,-0.510793,17,32765
5.63512,2.51126,-0.505125,21,32765
5.59778,2.47189,-0.504196,18,32765
5.58764,2.44482,-0.505462,19,32765
5.6048,2.42988,-0.508688,20,32765
5.5119,2.36795,-0.502173,21,32765
5.5013,2.34147,-0.50321,23,32765
5.463,2.30361,-0.501536,21,32765
5.51645,2.30445,-0.508266,22,32765
5.43182,2.24789,-0.502356,23,32765
5.47597,2.24498,-0.507361,19,32765
5.37245,2.18172,-0.49934,22,32765
5.35181,2.15241,-0.49931,22,32765
5.40503,2.153,-0.505784,22,32765
5.37491,2.12041,-0.504209,22,32765
5.27039,2.0591,-0.495508,20,32765
5.24918,2.03065,-0.495071,21,32765
5.24647,2.00954,-0.495894,21,32765
5.19705,1.97098,-0.492313,21,32765
5.22199,1.96067,-0.496573,20,32765
5.17234,1.92252,-0.492317,20,32765
5.13182,1.88802,-0.489855,23,32765
5.17542,1.88448,-0.494622,24,32765
5.08768,1.83386,-0.487174,23,32765
5.14982,1.83728,-0.493833,23,32765
5.10873,1.80395,-0.4902,24,32765
4.99225,1.74442,-0.480185,22,32765
5.05445,1.74711,-0.486909,21,32765
5.04122,1.72405,-0.486044,21,32765
5.05613,1.71086,-0.487938,22,32765
5.01422,1.67909,-0.484094,24,32765
5.07627,1.68155,-0.490681,22,32765
4.86405,1.59359,-0.470202,22,32765
4.945,1.60225,-0.477631,22,32765
4.96912,1.59237,-0.479371,22,32765
4.97417,1.57659,-0.479185,22,32765
4.97915,1.56079,-0.479222,22,32765
0,0,-0,0,32765
0,0,-0,0,32765
0,0,-0,0,32765
0,0,-0,0,32765
0,0,-0,0,32765
0,0,-0,0,32765
0,0,-0,0,32765
0,0,-0,0,32765
0,0,-0,0,32765
0,0,-0,0,32765
0,0,-0,0,32765
0,0,-0,0,32765
0,0,-0,0,32765
0,0,-0,0,32765
7.5534,5.09344,-0.599863,16,32765
7.53713,5.04557,-0.601696,17,32765
7.43755,4.94262,-0.596507,17,32765
7.41225,4.89002,-0.596928,17,32765
7.3365,4.80488,-0.594144,18,32765
7.28542,4.73673,-0.591788,18,32765
7.22552,4.66344,-0.590338,20,32765
7.17417,4.59524,-0.588829,20,32765
7.15585,4.54927,-0.589831,20,32765
7.09508,4.47683,-0.588109,19,32765
7.05058,4.41599,-0.586534,18,32765
6.99719,4.35023,-0.585166,18,32765
6.95227,4.2896,-0.584314,19,32765
6.93229,4.24536,-0.585418,19,32765
6.85289,4.16432,-0.581289,20,32765
6.81553,4.10991,-0.581045,19,32765
6.76931,4.05074,-0.579706,19,32765
6.73136,3.99696,-0.579253,19,32765
6.6929,3.94389,-0.578751,19,32765
6.61114,3.86583,-0.574901,20,32765
6.61537,3.83835,-0.576973,21,32765
6.55898,3.77585,-0.575222,20,32765
6.53698,3.73341,-0.576274,19,32765
6.47137,3.66668,-0.573107,19,32765
6.43158,3.61485,-0.572397,19,32765
6.38248,3.55916,-0.570254,20,32765
6.36806,3.52289,-0.571896,21,32765
6.34473,3.48201,-0.572413,21,32765
6.30351,3.43204,-0.571725,21,32765
6.24452,3.37286,-0.569301,21,32765
6.21155,3.32837,-0.56875,21,32765
6.16978,3.27892,-0.567983,21,32765
6.14542,3.23912,-0.568185,20,32765
6.10331,3.19002,-0.566949,20,32765
6.05208,3.13674,-0.564583,20,32765
5.99148,3.07966,-0.561658,20,32765
5.98406,3.04989,-0.562918,20,32765
5.94969,3.00681,-0.562544,20,32765
5.89733,2.95506,-0.559976,22,32765
5.88938,2.92569,-0.561715,22,32765
5.82738,2.87056,-0.558474,21,32765
5.8279,2.8463,-0.560553,22,32765
5.78342,2.80056,-0.558064,21,32765
5.74752,2.75954,-0.557582,22,32765
5.76561,2.74413,-0.561742,25,32765
5.68455,2.68199,-0.555826,21,32765
5.66642,2.6496,-0.556513,23,32765
5.69327,2.63854,-0.56105,24,32765
5.58405,2.56548,-0.5528,22,32765
5.5833,2.54252,-0.554911,25,32765
5.58248,2.51965,-0.556612,26,32765
5.59986,2.50472,-0.559965,25,32765
5.57166,2.46941,-0.559473,25,32765
5.45213,2.39431,-0.549522,23,32765
5.43259,2.36389,-0.549099,25,32765
