x, y, z, intensity, ring
2.50172,-0.329491,-0.290538,22,32765
2.50061,-0.337947,-0.290424,22,32765
2.46995,-0.342347,-0.28682,22,32765
2.47859,-0.352141,-0.28804,21,32765
2.48728,-0.36201,-0.288577,22,32765
2.47617,-0.369108,-0.287646,22,32765
2.44545,-0.373182,-0.283916,22,32765
2.48345,-0.387745,-0.288169,20,32765
2.44286,-0.390178,-0.283402,22,32765
2.45134,-0.400172,-0.284275,22,32765
2.45975,-0.410307,-0.285281,22,32765
2.40938,-0.410333,-0.279464,20,32765
2.39823,-0.416885,-0.277845,22,32765
2.40656,-0.426892,-0.278945,22,32765
2.4247,-0.438608,-0.280844,22,32765
2.39388,-0.441546,-0.277303,19,32765
2.36311,-0.44409,-0.273679,22,32765
2.39089,-0.457698,-0.276843,22,32765
2.38934,-0.465859,-0.276637,22,32765
2.37803,-0.472,-0.275298,22,32765
2.3667,-0.478228,-0.273752,22,32765
2.38453,-0.490322,-0.275844,22,32765
2.40232,-0.50249,-0.277929,22,32765
2.36175,-0.502417,-0.27313,21,32765
2.32123,-0.502013,-0.268312,21,32765
2.31953,-0.509922,-0.26805,21,32765
2.31781,-0.517797,-0.267819,21,32765
2.32574,-0.527904,-0.268832,18,32765
2.32393,-0.535879,-0.268636,22,32765
2.29311,-0.536949,-0.265026,21,32765
2.27194,-0.540236,-0.26257,21,32765
2.28945,-0.552569,-0.264579,21,32765
2.25865,-0.553158,-0.261013,21,32765
2.27607,-0.565638,-0.263002,22,32765
2.28381,-0.575645,-0.26406,22,32765
2.26261,-0.578461,-0.261657,21,32765
2.25109,-0.583486,-0.26024,21,32765
2.24915,-0.591022,-0.260059,22,32765
2.24717,-0.598569,-0.259907,22,32765
2.22601,-0.600827,-0.257482,21,32765
2.28151,-0.624047,-0.263981,20,32765
2.21241,-0.61303,-0.255962,22,32765
2.21035,-0.620436,-0.255939,22,32765
2.20829,-0.627779,-0.255792,22,32765
2.22533,-0.64059,-0.257741,22,32765
2.18504,-0.636801,-0.253305,22,32765
2.202,-0.649641,-0.255463,23,32765
2.20938,-0.659759,-0.256446,22,32765
2.18815,-0.66138,-0.254139,23,32765
2.1955,-0.67142,-0.25508,20,32765
2.16478,-0.669794,-0.252022,22,32765
2.17213,-0.679712,-0.252846,22,32765
2.16992,-0.686684,-0.252963,23,32765
2.14874,-0.687633,-0.250942,22,32765
2.16546,-0.700641,-0.252915,22,32765
2.14424,-0.701428,-0.251272,22,32765
2.14201,-0.708212,-0.251263,22,32765
2.85691,0.0573833,-0.359389,20,32765
2.82744,0.0469888,-0.354766,17,32765
2.80784,0.037026,-0.351528,19,32765
2.81793,0.0275622,-0.352301,19,32765
2.79828,0.0178051,-0.348902,17,32765
2.78841,0.00820456,-0.347533,18,32765
2.77859,-0.00144639,-0.345595,19,32765
2.73891,-0.0109025,-0.340345,18,32765
2.74881,-0.0204024,-0.341345,20,32765
2.72893,-0.0295581,-0.338487,20,32765
2.75861,-0.0392469,-0.341937,19,32765
2.71881,-0.0480148,-0.336715,20,32765
2.73853,-0.0577216,-0.338675,20,32765
2.66888,-0.0654363,-0.330016,18,32765
2.66865,-0.0745132,-0.32992,20,32765
2.71802,-0.0851782,-0.335729,20,32765
2.73758,-0.0951328,-0.337962,19,32765
2.69762,-0.102865,-0.332674,21,32765
2.68733,-0.111599,-0.331521,21,32765
2.78608,-0.12518,-0.343807,18,32765
2.69648,-0.130373,-0.332257,21,32765
2.696,-0.13965,-0.332353,21,32765
2.62616,-0.145105,-0.323632,19,32765
2.65536,-0.155838,-0.327351,19,32765
2.63505,-0.163552,-0.324594,20,32765
2.61468,-0.171194,-0.322095,20,32765
2.64381,-0.182036,-0.325606,19,32765
2.63332,-0.190298,-0.324089,21,32765
2.60295,-0.19702,-0.320552,21,32765
2.57257,-0.203788,-0.316785,19,32765
2.59164,-0.214401,-0.3191,20,32765
2.58102,-0.222636,-0.317609,20,32765
2.59998,-0.233332,-0.320242,20,32765
2.53991,-0.236713,-0.312647,17,32765
2.5885,-0.250103,-0.318594,20,32765
2.6074,-0.260954,-0.320917,21,32765
2.52753,-0.261629,-0.310995,20,32765
2.53651,-0.271327,-0.312099,21,32765
2.47637,-0.27349,-0.30479,20,32765
2.52475,-0.287565,-0.310746,20,32765
2.46462,-0.289302,-0.303258,19,32765
2.52275,-0.304884,-0.310474,21,32765
2.49215,-0.309823,-0.306715,20,32765
2.54037,-0.324646,-0.312262,20,32765
2.48021,-0.325567,-0.304912,21,32765
2.4791,-0.334039,-0.304777,20,32765
2.46812,-0.341186,-0.303417,20,32765
2.46696,-0.349716,-0.303145,20,32765
2.45592,-0.356797,-0.301875,22,32765
2.42529,-0.360779,-0.297816,21,32765
2.42406,-0.369073,-0.297653,20,32765
2.413,-0.375948,-0.296158,18,32765
2.4215,-0.385795,-0.297354,21,32765
2.41038,-0.392622,-0.295804,21,32765
2.41886,-0.402532,-0.296606,21,32765
2.39792,-0.407489,-0.293977,18,32765
2.41613,-0.419023,-0.295998,21,32765
2.40496,-0.425405,-0.294623,21,32765
2.40352,-0.433568,-0.294431,21,32765
2.39236,-0.439871,-0.292627,17,32765
2.38113,-0.446226,-0.291018,21,32765
2.41863,-0.461847,-0.295469,22,32765
2.35862,-0.458684,-0.287919,21,32765
2.3571,-0.466666,-0.287618,22,32765
2.36531,-0.476564,-0.288229,21,32765
2.32483,-0.476713,-0.28287,20,32765
2.30376,-0.48062,-0.280325,21,32765
2.33131,-0.49475,-0.283239,20,32765
2.32966,-0.502762,-0.282709,21,32765
2.3086,-0.506378,-0.279893,20,32765
2.336,-0.520726,-0.282913,21,32765
2.28588,-0.517616,-0.276489,18,32765
2.31323,-0.532025,-0.279354,21,32765
2.25344,-0.526331,-0.271795,20,32765
2.30972,-0.547625,-0.278251,21,32765
2.30794,-0.555421,-0.277503,21,32765
2.25787,-0.551439,-0.27114,21,32765
2.22716,-0.551839,-0.267117,20,32765
2.25428,-0.566552,-0.269873,21,32765
2.24287,-0.57153,-0.267915,21,32765
2.22181,-0.573948,-0.265029,20,32765
2.27764,-0.596434,-0.271115,21,32765
2.20852,-0.58616,-0.262436,20,32765
2.23542,-0.601286,-0.265079,21,32765
2.27185,-0.619198,-0.268705,20,32765
2.22198,-0.613553,-0.262227,21,32765
2.23915,-0.626339,-0.263623,21,32765
2.25625,-0.639261,-0.265129,21,32765
2.21598,-0.635876,-0.259783,20,32765
2.13767,-0.620951,-0.249787,20,32765
2.17383,-0.639227,-0.253468,20,32765
2.18134,-0.64922,-0.253677,20,32765
2.19835,-0.662021,-0.25508,20,32765
2.18681,-0.666235,-0.252975,20,32765
2.18477,-0.673316,-0.251855,21,32765
2.19218,-0.683434,-0.251718,21,32765
2.11421,-0.666702,-0.241954,21,32765
2.15006,-0.685516,-0.24535,21,32765
2.15742,-0.695597,-0.245138,20,32765
2.13638,-0.696466,-0.241666,21,32765
2.12483,-0.700238,-0.239279,21,32765
2.90294,0.0582051,-0.393036,20,32765
2.84379,0.0471323,-0.384102,19,32765
2.87377,0.0377381,-0.387351,21,32765
2.8343,0.0275399,-0.381536,21,32765
2.84442,0.0178885,-0.381938,20,32765
2.81475,0.00804662,-0.377811,20,32765
2.80494,-0.00172198,-0.375773,21,32765
2.80496,-0.0114548,-0.375452,20,32765
2.81485,-0.0212105,-0.37654,22,32765
2.8049,-0.0307248,-0.37481,22,32765
2.82464,-0.0405598,-0.37721,20,32765
2.78488,-0.0495771,-0.371606,21,32765
2.77485,-0.0589079,-0.369778,22,32765
2.74491,-0.0677438,-0.365745,19,32765
2.72486,-0.0765493,-0.363006,20,32765
2.73453,-0.0861906,-0.364,21,32765
2.75407,-0.0962309,-0.366418,21,32765
2.74387,-0.105178,-0.364703,22,32765
2.73358,-0.114094,-0.363457,22,32765
2.73317,-0.123404,-0.363508,20,32765
2.6635,-0.12939,-0.353757,19,32765
2.66302,-0.13858,-0.35385,21,32765
2.71204,-0.150527,-0.360253,22,32765
2.7016,-0.159252,-0.358994,21,32765
2.6912,-0.167761,-0.357357,21,32765
2.67084,-0.175616,-0.35467,21,32765
2.66036,-0.183943,-0.353205,20,32765
2.61032,-0.189416,-0.346344,21,32765
2.6393,-0.200586,-0.350399,20,32765
2.63859,-0.209859,-0.350285,20,32765
2.62798,-0.218272,-0.348849,20,32765
2.60748,-0.225803,-0.345949,21,32765
2.5869,-0.233063,-0.343525,20,32765
2.596,-0.242874,-0.34454,18,32765
2.56557,-0.248835,-0.340475,21,32765
2.56472,-0.257657,-0.340367,22,32765
2.54413,-0.264338,-0.337549,21,32765
2.52351,-0.270945,-0.334821,21,32765
2.56198,-0.283995,-0.340028,21,32765
2.561,-0.292772,-0.339909,21,32765
2.55016,-0.300442,-0.338389,19,32765
2.53928,-0.308003,-0.337019,22,32765
2.52839,-0.315469,-0.335589,22,32765
2.52736,-0.324149,-0.335075,21,32765
2.52625,-0.332802,-0.334985,21,32765
2.50546,-0.338799,-0.332241,22,32765
2.5043,-0.347421,-0.332087,22,32765
2.51293,-0.357498,-0.333111,21,32765
2.49207,-0.363328,-0.330443,22,32765
2.47126,-0.368913,-0.327396,22,32765
2.4994,-0.38188,-0.331123,23,32765
2.46871,-0.385975,-0.32693,19,32765
2.45758,-0.392911,-0.325623,22,32765
2.47581,-0.404683,-0.327861,23,32765
2.46468,-0.411579,-0.326156,22,32765
2.44373,-0.41671,-0.323334,20,32765
2.43258,-0.423331,-0.321657,22,32765
2.44092,-0.433254,-0.322769,22,32765
2.41995,-0.43803,-0.319992,22,32765
2.44779,-0.451606,-0.32324,19,32765
2.3878,-0.449008,-0.315096,21,32765
2.43499,-0.466558,-0.321203,22,32765
2.38477,-0.465349,-0.314371,22,32765
2.39294,-0.475376,-0.315347,22,32765
2.36224,-0.477561,-0.310923,21,32765
2.37037,-0.4877,-0.311574,22,32765
2.34929,-0.491779,-0.308837,21,32765
2.32826,-0.495773,-0.305649,21,32765
2.3363,-0.505898,-0.30639,22,32765
2.34432,-0.515947,-0.307192,21,32765
2.36197,-0.528287,-0.309215,22,32765
2.33123,-0.529661,-0.304846,19,32765
2.3295,-0.537569,-0.30419,22,32765
2.30841,-0.54098,-0.301105,21,32765
2.31631,-0.551028,-0.301818,22,32765
2.31452,-0.55887,-0.301066,21,32765
2.29342,-0.561993,-0.297989,22,32765
2.2627,-0.562521,-0.293675,22,32765
2.29938,-0.579815,-0.297945,22,32765
2.23988,-0.572671,-0.28966,21,32765
2.26686,-0.587539,-0.29279,21,32765
2.2554,-0.592576,-0.290757,22,32765
2.2535,-0.60009,-0.290069,22,32765
2.24199,-0.605061,-0.288051,21,32765
2.20178,-0.602095,-0.282228,19,32765
2.25724,-0.625361,-0.288767,22,32765
2.22657,-0.624888,-0.284235,22,32765
2.22455,-0.632373,-0.283496,22,32765
2.23206,-0.642613,-0.283852,22,32765
2.19195,-0.63883,-0.277934,21,32765
2.19944,-0.648901,-0.278352,22,32765
2.18789,-0.653325,-0.276239,23,32765
2.17635,-0.657564,-0.274231,22,32765
2.20282,-0.673333,-0.276814,20,32765
2.18179,-0.67462,-0.273306,22,32765
2.17023,-0.678827,-0.270896,23,32765
2.17759,-0.688958,-0.270999,23,32765
2.1755,-0.695915,-0.270041,23,32765
2.13556,-0.690824,-0.264064,21,32765
2.15234,-0.703981,-0.265066,22,32765
2.15964,-0.714056,-0.264887,23,32765
2.83478,0.0566835,-0.374701,20,32765
2.84466,0.0473404,-0.377545,18,32765
2.83469,0.037526,-0.377757,19,32765
2.82474,0.0277944,-0.377619,19,32765
2.78498,0.0179458,-0.373715,18,32765
2.77498,0.00853216,-0.373381,19,32765
2.74515,-0.000750501,-0.370217,19,32765
2.80447,-0.0103537,-0.379133,19,32765
2.76467,-0.0194737,-0.374621,19,32765
2.7744,-0.0289628,-0.376646,19,32765
2.81382,-0.0389343,-0.382749,19,32765
2.73434,-0.0472273,-0.372507,19,32765
2.73407,-0.0568074,-0.373148,19,32765
2.73377,-0.0663649,-0.37379,18,32765
2.70371,-0.0750611,-0.370425,19,32765
2.72317,-0.0849489,-0.373686,20,32765
2.74262,-0.0948645,-0.376729,19,32765
2.7323,-0.103851,-0.375992,21,32765
2.67252,-0.110632,-0.367941,20,32765
2.70177,-0.121084,-0.372369,20,32765
2.6716,-0.128791,-0.368735,20,32765
2.66119,-0.137237,-0.367854,20,32765
2.68049,-0.147281,-0.370632,21,32765
2.59096,-0.151083,-0.358485,17,32765
2.64973,-0.163609,-0.366837,20,32765
2.5898,-0.16886,-0.358908,19,32765
2.65836,-0.182516,-0.368684,19,32765
2.6478,-0.190992,-0.367527,20,32765
2.58786,-0.195619,-0.359329,20,32765
2.63653,-0.20844,-0.366277,20,32765
2.62595,-0.21661,-0.364762,20,32765
2.63508,-0.226496,-0.366022,21,32765
2.58491,-0.231102,-0.359463,20,32765
2.58413,-0.239902,-0.359353,17,32765
2.59311,-0.24979,-0.36095,20,32765
2.56267,-0.255798,-0.35678,20,32765
2.54211,-0.262681,-0.353679,20,32765
2.54116,-0.271545,-0.353815,20,32765
2.53043,-0.279209,-0.35193,20,32765
2.52944,-0.28791,-0.352041,20,32765
2.48914,-0.291908,-0.34624,18,32765
2.46846,-0.297983,-0.343533,20,32765
2.49695,-0.310062,-0.347439,19,32765
2.49593,-0.318562,-0.347054,20,32765
2.49485,-0.327222,-0.346795,20,32765
2.48393,-0.334523,-0.345112,20,32765
2.473,-0.341631,-0.343482,21,32765
2.44244,-0.345963,-0.338982,20,32765
2.47072,-0.358482,-0.342674,21,32765
2.4401,-0.362725,-0.33827,21,32765
2.42906,-0.369772,-0.336628,21,32765
2.41805,-0.376747,-0.334648,17,32765
2.4559,-0.391425,-0.339776,21,32765
2.45459,-0.399745,-0.339511,21,32765
2.43374,-0.404818,-0.336369,21,32765
2.37378,-0.403217,-0.327862,19,32765
2.39195,-0.414845,-0.330115,20,32765
2.38073,-0.421582,-0.328605,21,32765
2.37934,-0.429813,-0.328002,21,32765
2.35841,-0.434385,-0.324971,18,32765
2.35701,-0.442321,-0.324438,21,32765
2.38476,-0.455913,-0.327982,21,32765
2.37351,-0.462123,-0.326335,21,32765
2.36224,-0.468357,-0.324585,22,32765
2.34122,-0.472609,-0.3216,21,32765
2.36877,-0.48665,-0.325127,22,32765
2.36714,-0.494767,-0.324763,20,32765
2.29762,-0.488471,-0.315047,21,32765
2.32505,-0.502594,-0.318669,21,32765
2.32341,-0.510485,-0.318079,21,32765
2.32169,-0.518313,-0.317962,20,32765
2.29097,-0.519549,-0.313737,19,32765
2.28924,-0.527335,-0.313329,20,32765
2.29716,-0.537296,-0.314249,20,32765
2.28573,-0.54286,-0.312449,20,32765
2.29353,-0.552898,-0.313705,20,32765
2.25319,-0.551188,-0.30812,20,32765
2.28024,-0.565996,-0.311558,20,32765
2.26877,-0.571147,-0.30996,21,32765
2.25728,-0.57629,-0.30838,20,32765
2.22658,-0.576343,-0.304276,21,32765
2.26303,-0.593891,-0.30916,21,32765
2.28019,-0.606614,-0.311697,21,32765
2.23987,-0.603978,-0.306246,19,32765
2.21872,-0.606281,-0.303513,20,32765
2.20719,-0.611,-0.301811,20,32765
2.19563,-0.615645,-0.300289,20,32765
2.22221,-0.631026,-0.304084,20,32765
2.22964,-0.641082,-0.305478,19,32765
2.18945,-0.637461,-0.299892,20,32765
2.18732,-0.644713,-0.299953,20,32765
2.18515,-0.652033,-0.299946,20,32765
2.19251,-0.662195,-0.300811,20,32765
2.16189,-0.660614,-0.296994,21,32765
2.18816,-0.676393,-0.3009,21,32765
2.13864,-0.668624,-0.294526,21,32765
2.13648,-0.67553,-0.29445,20,32765
2.1814,-0.697634,-0.301531,20,32765
2.11309,-0.68337,-0.292323,21,32765
2.12023,-0.693343,-0.293943,21,32765
2.13679,-0.706275,-0.297025,20,32765
2.91032,0.0580788,-0.41266,21,32765
2.88058,0.0477953,-0.410002,20,32765
2.8508,0.0375688,-0.407311,20,32765
2.83095,0.0276577,-0.405668,20,32765
2.81103,0.0178885,-0.40424,20,32765
2.84062,0.00847796,-0.409529,19,32765
2.81081,-0.00104977,-0.406105,20,32765
2.81066,-0.0106865,-0.407003,20,32765
2.81049,-0.0201345,-0.407864,20,32765
2.78062,-0.0293901,-0.404239,21,32765
2.79029,-0.0390006,-0.406394,20,32765
2.79995,-0.0487824,-0.408387,21,32765
2.77988,-0.0582072,-0.406152,20,32765
2.76968,-0.0677118,-0.405356,21,32765
2.76932,-0.0773865,-0.40607,20,32765
2.75906,-0.0865991,-0.405175,21,32765
2.76859,-0.096323,-0.406955,20,32765
2.72861,-0.104291,-0.401762,21,32765
2.71834,-0.113134,-0.400431,21,32765
2.74753,-0.123774,-0.405144,22,32765
2.71738,-0.131659,-0.401237,20,32765
2.72673,-0.141307,-0.403192,22,32765
2.68672,-0.14833,-0.397391,21,32765
2.68618,-0.157369,-0.397558,20,32765
2.66586,-0.16536,-0.394778,21,32765
2.6751,-0.175208,-0.396532,20,32765
2.70406,-0.186476,-0.401111,21,32765
2.67377,-0.193706,-0.396934,21,32765
2.65335,-0.201432,-0.394034,20,32765
2.67235,-0.212168,-0.397055,22,32765
2.61248,-0.216401,-0.38812,20,32765
2.63144,-0.22712,-0.390938,21,32765
2.62075,-0.235267,-0.389772,21,32765
2.63965,-0.246051,-0.392589,19,32765
2.6092,-0.252351,-0.388421,20,32765
2.58864,-0.25942,-0.385435,20,32765
2.55825,-0.265394,-0.380678,21,32765
2.54745,-0.273286,-0.37935,21,32765
2.56623,-0.284262,-0.381757,21,32765
2.53574,-0.289743,-0.377478,21,32765
2.5839,-0.304186,-0.384459,19,32765
2.52392,-0.305843,-0.375717,22,32765
2.50326,-0.312028,-0.372592,21,32765
2.52186,-0.323088,-0.375124,22,32765
2.48153,-0.326699,-0.369026,20,32765
2.50984,-0.339277,-0.37308,21,32765
2.51851,-0.349214,-0.374265,22,32765
2.46837,-0.350933,-0.366567,20,32765
2.4966,-0.363573,-0.370533,22,32765
2.49536,-0.372303,-0.370201,22,32765
2.46474,-0.376577,-0.365556,22,32765
2.47328,-0.386756,-0.366368,20,32765
2.46218,-0.393852,-0.364626,22,32765
2.46087,-0.402219,-0.36436,22,32765
2.45955,-0.410589,-0.363916,23,32765
2.44843,-0.417394,-0.362057,20,32765
2.43728,-0.424224,-0.360159,22,32765
2.44552,-0.434606,-0.361431,22,32765
2.42462,-0.439556,-0.357935,22,32765
2.40368,-0.444301,-0.354709,19,32765
2.41197,-0.454244,-0.355598,22,32765
2.4202,-0.46433,-0.356544,22,32765
2.39922,-0.468783,-0.353368,22,32765
2.40736,-0.478988,-0.354376,23,32765
2.40573,-0.487344,-0.354052,23,32765
2.38472,-0.491651,-0.350716,22,32765
2.38307,-0.499847,-0.350347,22,32765
2.34267,-0.499797,-0.344242,22,32765
2.33133,-0.505716,-0.34245,22,32765
2.34901,-0.517916,-0.344694,22,32765
2.34726,-0.525853,-0.344574,21,32765
2.35517,-0.535972,-0.345733,22,32765
2.31481,-0.535082,-0.339651,22,32765
2.30341,-0.540633,-0.33783,21,32765
2.31124,-0.550828,-0.338756,21,32765
2.29975,-0.556324,-0.337281,21,32765
2.29791,-0.56408,-0.33696,22,32765
2.30566,-0.574292,-0.33785,22,32765
2.31337,-0.584395,-0.338966,22,32765
2.28266,-0.584791,-0.334476,21,32765
2.27114,-0.589916,-0.332897,21,32765
2.24047,-0.590007,-0.328323,21,32765
2.23847,-0.597578,-0.328239,21,32765
2.24603,-0.607735,-0.329427,20,32765
2.22488,-0.610072,-0.326506,22,32765
2.21336,-0.614828,-0.324707,22,32765
2.23993,-0.630238,-0.328684,22,32765
2.2188,-0.632236,-0.325763,22,32765
2.18814,-0.631328,-0.321653,20,32765
2.20507,-0.64423,-0.324082,22,32765
2.20291,-0.651556,-0.324141,21,32765
2.20071,-0.658951,-0.324131,22,32765
2.21751,-0.672064,-0.326479,20,32765
2.19636,-0.673472,-0.323778,22,32765
2.20362,-0.683534,-0.325169,22,32765
2.17304,-0.681736,-0.321121,22,32765
2.18027,-0.691769,-0.322438,22,32765
2.1779,-0.698937,-0.323001,21,32765
2.18504,-0.709095,-0.324324,22,32765
2.15444,-0.70698,-0.320448,22,32765
2.16151,-0.716935,-0.322319,22,32765
0,0,-0,0,32765
2.86518,0.0499689,-0.445255,20,32765
2.88508,0.0407216,-0.448397,19,32765
2.84566,0.0304091,-0.442387,20,32765
2.89514,0.0208676,-0.450158,19,32765
2.80622,0.0106094,-0.436612,16,32765
2.82603,0.000952255,-0.439518,18,32765
2.82604,-0.00869432,-0.439333,18,32765
2.78646,-0.0180656,-0.433261,18,32765
2.77654,-0.0275297,-0.431486,18,32765
2.83573,-0.0378553,-0.440557,20,32765
2.75655,-0.0462818,-0.428247,19,32765
2.77618,-0.0562129,-0.431028,19,32765
2.72659,-0.0646803,-0.42321,20,32765
2.71652,-0.0738463,-0.421396,20,32765
2.75582,-0.0843136,-0.427164,19,32765
2.70614,-0.0920085,-0.419441,20,32765
2.70585,-0.101294,-0.419187,20,32765
2.75487,-0.112591,-0.426728,19,32765
2.715,-0.120278,-0.420466,20,32765
2.67514,-0.127769,-0.414014,16,32765
2.70435,-0.138529,-0.418202,20,32765
2.68415,-0.146789,-0.414948,20,32765
2.6738,-0.155416,-0.413203,19,32765
2.6634,-0.163961,-0.411619,20,32765
2.62342,-0.170436,-0.405262,20,32765
2.6722,-0.182687,-0.41239,20,32765
2.60263,-0.186832,-0.401266,19,32765
2.62165,-0.197178,-0.404564,19,32765
2.64071,-0.207941,-0.407226,21,32765
2.58088,-0.212365,-0.397935,19,32765
2.63926,-0.226572,-0.406644,20,32765
2.5991,-0.23241,-0.400338,20,32765
2.60814,-0.242404,-0.401684,18,32765
2.56794,-0.247607,-0.39558,20,32765
2.56711,-0.256392,-0.395328,20,32765
2.55643,-0.264181,-0.393545,20,32765
2.56536,-0.273974,-0.394901,20,32765
2.53496,-0.279576,-0.390157,20,32765
2.534,-0.288378,-0.389976,20,32765
2.58209,-0.302918,-0.397438,19,32765
2.55161,-0.308334,-0.392728,20,32765
2.48189,-0.308685,-0.381909,20,32765
2.52005,-0.322329,-0.387768,20,32765
2.49934,-0.32852,-0.384566,18,32765
2.52757,-0.341067,-0.389177,20,32765
2.45787,-0.34028,-0.378403,20,32765
2.52521,-0.358459,-0.388894,19,32765
2.4653,-0.358542,-0.379674,20,32765
2.46411,-0.367058,-0.379272,21,32765
2.43356,-0.371036,-0.374457,20,32765
2.42249,-0.37795,-0.372936,18,32765
2.43094,-0.38803,-0.374283,21,32765
2.44911,-0.39977,-0.377018,21,32765
2.40872,-0.401824,-0.370812,21,32765
2.42687,-0.413505,-0.373395,19,32765
2.40598,-0.41848,-0.370185,21,32765
2.40456,-0.426717,-0.369993,21,32765
2.41288,-0.436766,-0.371007,20,32765
2.43083,-0.448593,-0.373943,17,32765
2.37103,-0.44583,-0.364789,21,32765
2.3696,-0.453879,-0.364118,21,32765
2.38747,-0.465718,-0.367032,22,32765
2.3471,-0.466175,-0.360817,21,32765
2.36498,-0.478187,-0.363039,21,32765
2.35366,-0.484342,-0.361407,21,32765
2.33266,-0.488364,-0.358193,20,32765
2.31171,-0.492228,-0.354703,20,32765
2.35839,-0.510619,-0.361726,21,32765
2.32774,-0.51225,-0.356807,21,32765
2.31643,-0.517977,-0.354738,20,32765
2.32437,-0.528047,-0.3558,20,32765
2.36119,-0.544785,-0.361217,22,32765
2.31124,-0.541601,-0.353333,21,32765
2.3191,-0.551672,-0.354338,22,32765
2.31728,-0.559533,-0.353858,21,32765
2.28664,-0.560329,-0.348896,21,32765
2.31362,-0.575182,-0.352757,22,32765
2.27342,-0.573348,-0.346042,20,32765
2.28112,-0.583458,-0.347059,20,32765
2.25052,-0.583656,-0.342032,21,32765
2.25826,-0.593652,-0.342702,21,32765
2.2564,-0.601187,-0.341795,21,32765
2.27356,-0.613913,-0.344126,20,32765
2.25252,-0.616244,-0.340607,20,32765
2.20289,-0.610518,-0.332633,20,32765
2.22001,-0.623173,-0.33484,21,32765
2.1895,-0.622455,-0.329613,20,32765
2.13999,-0.616069,-0.321559,19,32765
2.17605,-0.634277,-0.326474,20,32765
2.1741,-0.641491,-0.325421,20,32765
2.19109,-0.654316,-0.327244,20,32765
2.21745,-0.670096,-0.330859,20,32765
2.15861,-0.659991,-0.321303,20,32765
2.15661,-0.666952,-0.320302,20,32765
2.15463,-0.673912,-0.319104,20,32765
2.16204,-0.683892,-0.319323,21,32765
2.16945,-0.693912,-0.319309,20,32765
2.17678,-0.703989,-0.319597,21,32765
2.13701,-0.698733,-0.312799,21,32765
2.13504,-0.705535,-0.310987,20,32765
0,0,-0,0,32765
2.89045,0.0502321,-0.477152,20,32765
2.92019,0.0410085,-0.48211,20,32765
2.91042,0.0308632,-0.480617,20,32765
2.8809,0.0204993,-0.475819,20,32765
2.89077,0.0106325,-0.477738,20,32765
2.86122,0.000641123,-0.472675,20,32765
2.8119,-0.00899698,-0.464341,19,32765
2.90064,-0.0191927,-0.47908,18,32765
2.8414,-0.028581,-0.469058,20,32765
2.84131,-0.0383671,-0.468915,20,32765
2.75238,-0.046664,-0.454231,19,32765
2.77198,-0.056612,-0.457199,20,32765
2.81125,-0.0672088,-0.463553,20,32765
2.80118,-0.0766953,-0.461636,20,32765
2.75165,-0.084752,-0.453147,21,32765
2.75136,-0.0941399,-0.453079,20,32765
2.77078,-0.104352,-0.456066,19,32765
2.7507,-0.113071,-0.452711,21,32765
2.75032,-0.122522,-0.452564,21,32765
2.73023,-0.131103,-0.448976,17,32765
2.74953,-0.14158,-0.451815,21,32765
2.7195,-0.149479,-0.446752,21,32765
2.72886,-0.159403,-0.448146,20,32765
2.7086,-0.167554,-0.444849,21,32765
2.71791,-0.177415,-0.446197,22,32765
2.69768,-0.185292,-0.442469,21,32765
2.62821,-0.189535,-0.430688,18,32765
2.66687,-0.201487,-0.437402,21,32765
2.64653,-0.209328,-0.433791,20,32765
2.68514,-0.221916,-0.44006,20,32765
2.61558,-0.225513,-0.428375,20,32765
2.6148,-0.234817,-0.428136,20,32765
2.57468,-0.24031,-0.421528,19,32765
2.61313,-0.253023,-0.427921,20,32765
2.57301,-0.258051,-0.421233,20,32765
2.56233,-0.265884,-0.419355,21,32765
2.55162,-0.273621,-0.41759,20,32765
2.55069,-0.282453,-0.417382,20,32765
2.56933,-0.293578,-0.420409,21,32765
2.56831,-0.302508,-0.420312,20,32765
2.53787,-0.307895,-0.415322,22,32765
2.54662,-0.317988,-0.416673,22,32765
2.53573,-0.32561,-0.414889,21,32765
2.49547,-0.329294,-0.408296,18,32765
2.53343,-0.343188,-0.414785,21,32765
2.53227,-0.351938,-0.414563,21,32765
2.5115,-0.357888,-0.411298,21,32765
2.50052,-0.365061,-0.409518,21,32765
2.49931,-0.373724,-0.409109,21,32765
2.46879,-0.37784,-0.404009,22,32765
2.47721,-0.387953,-0.405587,20,32765
2.46611,-0.395131,-0.403829,21,32765
2.50371,-0.410221,-0.409935,22,32765
2.47308,-0.414109,-0.404945,22,32765
2.46196,-0.421054,-0.402923,20,32765
2.46053,-0.429564,-0.402707,22,32765
2.43963,-0.434551,-0.399326,22,32765
2.42848,-0.441221,-0.397246,22,32765
2.41726,-0.44774,-0.3956,18,32765
2.41576,-0.455919,-0.395415,22,32765
2.39491,-0.460417,-0.391559,22,32765
2.40303,-0.470477,-0.393072,22,32765
2.38208,-0.474858,-0.389649,22,32765
2.40957,-0.488987,-0.393625,22,32765
2.38855,-0.49332,-0.390316,21,32765
2.41587,-0.507631,-0.394806,21,32765
2.34661,-0.501478,-0.383224,21,32765
2.36423,-0.513744,-0.385978,22,32765
2.38183,-0.526055,-0.388644,22,32765
2.35122,-0.527661,-0.383324,22,32765
2.34947,-0.535683,-0.382901,20,32765
2.35735,-0.545864,-0.383982,22,32765
2.35554,-0.553975,-0.383457,22,32765
2.32491,-0.55505,-0.378291,22,32765
2.32309,-0.562955,-0.377808,21,32765
2.29248,-0.563781,-0.372564,21,32765
2.30982,-0.5763,-0.375144,21,32765
2.30798,-0.584154,-0.374267,21,32765
2.26779,-0.582128,-0.367613,21,32765
2.27549,-0.592244,-0.368503,21,32765
2.27363,-0.599832,-0.36771,21,32765
2.2813,-0.609994,-0.368336,21,32765
2.33655,-0.633175,-0.376999,21,32765
2.23924,-0.6148,-0.360985,22,32765
2.24682,-0.624916,-0.361746,22,32765
2.24484,-0.63239,-0.361063,22,32765
2.25237,-0.642609,-0.361649,21,32765
2.22187,-0.641917,-0.356147,20,32765
2.22933,-0.652118,-0.356844,22,32765
2.2368,-0.662338,-0.357277,22,32765
2.23476,-0.669728,-0.356235,21,32765
2.19481,-0.665607,-0.349567,20,32765
2.19278,-0.672818,-0.348475,22,32765
2.19075,-0.679913,-0.347455,22,32765
2.18873,-0.687005,-0.346236,22,32765
2.1961,-0.697124,-0.346527,22,32765
2.18463,-0.701238,-0.343619,21,32765
2.1731,-0.705286,-0.341037,23,32765
2.18979,-0.718521,-0.342692,22,32765
0,-0,-0,0,32765
5.49992,1.78579,1.06596,35,32765
5.51506,1.77153,1.06675,35,32765
5.53026,1.75714,1.06709,35,32765
5.5736,1.75096,1.07363,36,32765
5.57034,1.72961,1.06989,34,32765
5.58554,1.71445,1.07053,36,32765
5.61976,1.7047,1.07385,33,32765
5.65394,1.69472,1.07743,34,32765
5.60334,1.65923,1.06448,33,32765
5.62798,1.64634,1.06633,35,32765
5.67137,1.63921,1.07173,34,32765
5.6863,1.62386,1.072,35,32765
5.7108,1.61108,1.07335,37,32765
5.72579,1.59522,1.07342,37,32765
5.74096,1.57911,1.07253,38,32765
5.71787,1.55277,1.06548,36,32765
5.78982,1.55201,1.07579,36,32765
5.75706,1.52324,1.06702,35,32765
5.79098,1.512,1.06995,36,32765
5.77716,1.48826,1.06445,36,32765
5.82998,1.48146,1.07177,37,32765
5.82555,1.46002,1.06834,35,32765
5.85936,1.44811,1.07137,34,32765
5.88332,1.43391,1.07374,34,32765
5.8979,1.41699,1.07357,35,32765
5.89319,1.39551,1.07021,34,32765
5.88858,1.37374,1.06632,35,32765
5.91256,1.35859,1.06841,35,32765
5.97479,1.35221,1.07787,34,32765
5.97944,1.33247,1.07666,34,32765
6.01295,1.31919,1.0801,36,32765
5.98865,1.29323,1.07334,34,32765
6.03155,1.28192,1.07919,36,32765
6.02635,1.2603,1.07573,35,32765
6.06926,1.24851,1.08139,36,32765
6.0831,1.23075,1.08219,35,32765
6.12593,1.21847,1.08808,37,32765
6.11092,1.19447,1.08272,35,32765
6.13424,1.17807,1.08572,34,32765
6.15768,1.16156,1.0878,39,32765
6.16158,1.14152,1.08696,34,32765
6.19464,1.12622,1.09095,38,32765
6.19866,1.10539,1.0894,37,32765
6.19277,1.08294,1.08683,34,32765
6.26448,1.07409,1.09778,16,32765
6.12229,1.02938,1.07145,16,32765
6.29103,1.03706,1.09924,15,32765
6.275,1.01342,1.09536,15,32765
6.26877,0.991114,1.09263,35,32765
6.24298,0.965501,1.08678,30,32765
6.27549,0.948948,1.0915,14,32765
6.35672,0.93923,1.10471,13,32765
6.34045,0.915168,1.10052,13,32765
6.36324,0.896751,1.10248,13,32765
6.36634,0.875478,1.10164,13,32765
6.3887,0.857344,1.10504,13,32765
6.43076,0.841404,1.11077,13,32765
6.4043,0.816465,1.10492,14,32765
6.44625,0.800373,1.11054,13,32765
6.45874,0.780181,1.11173,15,32765
6.52006,0.766055,1.1214,13,32765
6.51304,0.743236,1.11822,13,32765
6.5352,0.724016,1.12064,13,32765
6.57685,0.706599,1.1269,13,32765
6.59897,0.686837,1.12907,12,32765
6.66006,0.671262,1.13893,13,32765
6.62318,0.645219,1.13124,12,32765
6.62544,0.623321,1.13027,12,32765
6.64737,0.603238,1.132,13,32765
6.64949,0.581148,1.13113,12,32765
6.71048,0.564355,1.14011,13,32765
6.70268,0.541333,1.1373,15,32765
6.71428,0.520087,1.13881,13,32765
6.72607,0.498583,1.13888,15,32765
6.81643,0.482515,1.15253,13,32765
6.86722,0.463692,1.16046,13,32765
6.81977,0.438236,1.15048,13,32765
6.85085,0.41788,1.15445,12,32765
6.91143,0.39913,1.1633,13,32765
6.87349,0.374338,1.15562,13,32765
6.87492,0.351947,1.15411,13,32765
6.93533,0.332216,1.16297,13,32765
6.97605,0.311431,1.16796,12,32765
6.97727,0.288778,1.16648,13,32765
7.04736,0.268728,1.17686,13,32765
7.02875,0.245088,1.17199,12,32765
7.04951,0.222636,1.1736,13,32765
7.12934,0.201971,1.18514,13,32765
7.09079,0.17779,1.17693,13,32765
7.09159,0.154781,1.17538,13,32765
0,0,0,0,32765
0,0,0,0,32765
0,0,0,0,32765
0,0,0,0,32765
0,0,0,0,32765
0,0,0,0,32765
3.22708,-0.00201495,0.528039,12,32765
3.07923,-0.0116606,0.502604,14,32765
3.05959,-0.0212768,0.498478,16,32765
3.15844,-0.0320369,0.513033,16,32765
3.10917,-0.041375,0.503831,19,32765
5.49927,1.78758,1.00967,41,32765
5.52381,1.77632,1.01209,39,32765
5.54843,1.76487,1.01405,41,32765
5.55427,1.74681,1.01336,41,32765
5.57918,1.73426,1.01485,41,32765
5.58499,1.71615,1.01368,41,32765
5.64754,1.71499,1.02185,40,32765
5.62516,1.68792,1.01491,39,32765
5.65947,1.67765,1.01783,41,32765
5.67473,1.66179,1.01777,41,32765
5.66142,1.63808,1.01263,38,32765
5.71426,1.63357,1.01958,41,32765
5.71036,1.61265,1.01566,41,32765
5.72536,1.59677,1.01564,41,32765
5.74053,1.58064,1.01465,40,32765
5.74593,1.56201,1.01291,40,32765
5.77992,1.55095,1.01587,40,32765
5.7852,1.53226,1.01416,41,32765
5.80965,1.51842,1.01513,41,32765
5.79581,1.49458,1.00981,38,32765
5.81049,1.47799,1.01001,41,32765
5.82515,1.46138,1.00999,41,32765
5.85899,1.44946,1.01274,40,32765
5.88299,1.43524,1.01494,41,32765
5.92634,1.42522,1.01962,42,32765
5.93124,1.40588,1.01799,41,32765
5.92664,1.38395,1.01418,41,32765
5.96029,1.37086,1.01771,41,32765
5.94568,1.34689,1.01348,40,32765
5.96957,1.33151,1.01556,41,32765
5.99347,1.31614,1.01709,41,32765
5.97874,1.29228,1.01225,41,32765
6.06995,1.29125,1.02588,42,32765
6.09373,1.27553,1.02738,42,32765
6.07876,1.25157,1.0229,42,32765
6.08295,1.2318,1.02198,40,32765
6.11617,1.21757,1.02588,42,32765
6.10111,1.19357,1.0207,42,32765
6.16323,1.18463,1.03,44,32765
6.15762,1.16251,1.02703,43,32765
6.17122,1.14423,1.02781,43,32765
6.18491,1.12535,1.02828,41,32765
6.20835,1.10799,1.02996,42,32765
6.24134,1.09228,1.03392,43,32765
6.16727,1.05822,1.02008,23,32765
6.20972,1.04485,1.0257,19,32765
6.25217,1.0314,1.03101,20,32765
6.22635,1.00628,1.02572,19,32765
6.26882,0.991803,1.03111,38,32765
6.25274,0.967657,1.02714,47,32765
6.24626,0.945141,1.02518,20,32765
6.31783,0.93407,1.03605,14,32765
6.36014,0.918566,1.04164,14,32765
6.35363,0.89592,1.03862,14,32765
6.35673,0.874647,1.03778,14,32765
6.35955,0.853889,1.0378,13,32765
6.4408,0.843149,1.04954,14,32765
6.44368,0.821884,1.04875,14,32765
6.43672,0.799554,1.04603,14,32765
6.44923,0.779363,1.04713,15,32765
6.52044,0.766401,1.05783,16,32765
6.53301,0.745785,1.05792,14,32765
6.46689,0.716682,1.04586,13,32765
6.56747,0.705796,1.06127,13,32765
6.56997,0.68399,1.06009,13,32765
6.59184,0.664525,1.06306,13,32765
6.62367,0.645371,1.06683,13,32765
6.65542,0.626213,1.0706,13,32765
6.69705,0.607785,1.0753,14,32765
6.64999,0.581197,1.06653,13,32765
6.70122,0.563548,1.07338,14,32765
6.71308,0.542112,1.07382,15,32765
6.705,0.519273,1.07208,17,32765
6.74634,0.499957,1.07678,17,32765
6.79743,0.481006,1.0833,14,32765
6.87785,0.464209,1.09548,13,32765
6.84017,0.439314,1.08753,13,32765
6.88115,0.41946,1.09279,13,32765
6.90237,0.398304,1.09482,13,32765
6.90381,0.375653,1.09376,14,32765
6.93483,0.354642,1.09692,14,32765
6.93613,0.331848,1.09586,13,32765
6.95716,0.310146,1.09737,13,32765
6.95837,0.28752,1.09589,13,32765
6.92983,0.263739,1.09009,13,32765
7.01975,0.244226,1.1025,14,32765
7.02078,0.221146,1.10083,13,32765
7.06121,0.199421,1.10544,13,32765
7.06208,0.176416,1.10379,13,32765
7.17152,0.155825,1.11921,13,32765
3.08225,0.0571609,0.480466,13,32765
3.10236,0.0474989,0.482366,15,32765
3.08282,0.0372291,0.478767,17,32765
3.14239,0.0277224,0.486839,19,32765
3.10308,0.0174117,0.479751,20,32765
3.08349,0.00745531,0.475856,21,32765
3.08367,-0.00232931,0.474751,21,32765
3.0443,-0.0119412,0.467466,21,32765
3.0345,-0.0215283,0.465052,21,32765
2.98521,-0.0307127,0.456036,20,32765
3.02481,-0.0407053,0.460923,18,32765
5.55625,1.80978,0.948249,35,32765
5.55227,1.78936,0.947964,33,32765
5.50148,1.75371,0.938434,33,32765
5.58226,1.75994,0.951803,34,32765
5.55961,1.73286,0.947567,32,32765
5.55578,1.71183,0.946053,34,32765
5.60849,1.70837,0.953864,33,32765
5.60446,1.6877,0.952132,35,32765
5.60984,1.66987,0.951893,34,32765
5.63419,1.65736,0.954791,35,32765
5.71529,1.66124,0.967799,37,32765
5.71125,1.63984,0.965869,36,32765
5.72615,1.62385,0.967087,35,32765
5.72205,1.60225,0.965023,34,32765
5.72741,1.58354,0.964171,34,32765
5.76118,1.57263,0.968581,35,32765
5.75679,1.55145,0.966421,34,32765
5.77151,1.53519,0.967154,36,32765
5.78618,1.5188,0.967989,36,32765
5.82952,1.50955,0.973644,37,32765
5.76761,1.47343,0.961549,35,32765
5.82035,1.46665,0.968975,35,32765
5.85403,1.45462,0.972912,34,32765
5.85886,1.43557,0.972086,34,32765
5.90206,1.42557,0.977714,36,32765
5.90692,1.40593,0.976839,32,32765
5.92123,1.38867,0.977879,35,32765
5.92598,1.36881,0.977079,35,32765
5.94994,1.3537,0.978854,35,32765
5.96411,1.33648,0.979479,34,32765
5.99756,1.32352,0.982814,34,32765
6.0118,1.3057,0.983037,36,32765
5.99686,1.28155,0.979508,36,32765
6.07855,1.27776,0.991271,36,32765
6.09282,1.25938,0.990741,37,32765
6.1066,1.24162,0.991908,36,32765
6.11076,1.22181,0.990898,36,32765
6.115,1.20173,0.989328,38,32765
6.1675,1.1909,0.996664,38,32765
6.14258,1.16472,0.990496,35,32765
6.17584,1.14953,0.993597,37,32765
6.19917,1.13254,0.996003,36,32765
6.20302,1.11206,0.995107,37,32765
6.21664,1.09315,0.995267,37,32765
6.24968,1.07749,0.998453,30,32765
6.24362,1.05519,0.995957,13,32765
6.28633,1.04108,1.00036,13,32765
6.30936,1.02366,1.00249,16,32765
6.23483,0.990685,0.988711,24,32765
6.26751,0.974726,0.992308,40,32765
6.26117,0.952359,0.989404,25,32765
6.37198,0.94743,1.00531,13,32765
6.37521,0.925928,1.00489,13,32765
6.37857,0.90447,1.00308,13,32765
6.38162,0.882958,1.00286,12,32765
6.40435,0.86451,1.00426,13,32765
6.40737,0.84336,1.00296,13,32765
6.44933,0.827768,1.00865,13,32765
6.50107,0.812868,1.016,13,32765
6.41575,0.780852,1,13,32765
6.29069,0.745072,0.9799,13,32765
5.97917,0.687946,0.929732,11,32765
0,0,0,0,32765
0,0,0,0,32765
6.15312,0.646466,0.953311,11,32765
6.25354,0.636421,0.968382,12,32765
6.47219,0.63709,1.00066,12,32765
6.51364,0.619547,1.00652,13,32765
6.66335,0.611578,1.02891,12,32765
6.72461,0.59476,1.0367,13,32765
6.69698,0.57035,1.03207,13,32765
6.70875,0.549174,1.03306,13,32765
6.71062,0.527106,1.0324,15,32765
6.75177,0.508491,1.03803,16,32765
6.75338,0.486359,1.03816,13,32765
6.75502,0.464741,1.03741,13,32765
6.86496,0.449811,1.05434,12,32765
6.82698,0.425157,1.04784,12,32765
6.86777,0.405262,1.05409,12,32765
6.92849,0.385875,1.06185,13,32765
6.92961,0.363567,1.06244,13,32765
6.95052,0.341705,1.06541,13,32765
6.991,0.320992,1.07204,13,32765
0,0,0,0,32765
0,0,0,0,32765
0,0,0,0,32765
0,0,0,0,32765
0,0,0,0,32765
3.24091,0.0852909,0.497593,11,32765
3.09292,0.0712005,0.475037,12,32765
3.1425,0.0621655,0.482958,13,32765
3.08335,0.0511477,0.474058,15,32765
3.16249,0.0424687,0.486657,16,32765
3.13288,0.0320694,0.482658,16,32765
3.17241,0.0221623,0.489289,18,32765
3.12295,0.0115355,0.482316,18,32765
3.0833,0.00118826,0.477132,19,32765
3.07337,-0.00883109,0.475846,20,32765
3.13244,-0.0190742,0.486141,19,32765
3.08288,-0.0288121,0.478966,18,32765
3.07267,-0.0385652,0.478849,19,32765
5.48863,1.79007,0.881057,24,32765
5.54104,1.78803,0.889913,40,32765
5.52785,1.76437,0.886985,39,32765
5.55222,1.75269,0.890539,39,32765
5.56727,1.73743,0.89263,39,32765
5.58235,1.72217,0.894233,39,32765
5.57843,1.70133,0.8925,39,32765
5.60277,1.68928,0.895399,39,32765
5.61763,1.67424,0.896671,40,32765
5.6515,1.66449,0.900892,40,32765
5.69478,1.6573,0.907108,42,32765
5.69072,1.63593,0.90527,39,32765
5.71513,1.62268,0.907907,42,32765
5.70151,1.59841,0.904426,38,32765
5.7259,1.585,0.906593,40,32765
5.72158,1.56366,0.904691,38,32765
5.74578,1.5503,0.907148,40,32765
5.78917,1.54169,0.912305,42,32765
5.79432,1.5227,0.911538,39,32765
5.80901,1.50598,0.912311,40,32765
5.79489,1.4821,0.908377,41,32765
5.79021,1.46071,0.90633,40,32765
5.85269,1.45593,0.914489,40,32765
5.86713,1.43921,0.91516,41,32765
5.87196,1.41988,0.914427,41,32765
5.87679,1.4003,0.913555,41,32765
5.94886,1.39668,0.92347,42,32765
5.95364,1.3767,0.922665,42,32765
5.94871,1.35489,0.919775,41,32765
5.9822,1.34196,0.923284,40,32765
5.97708,1.3204,0.920388,40,32765
6.01064,1.30682,0.92349,41,32765
6.07304,1.29918,0.932019,41,32765
6.05813,1.27478,0.928198,41,32765
6.07238,1.25644,0.927581,40,32765
6.05711,1.2328,0.92422,39,32765
6.09032,1.21894,0.927649,41,32765
6.10425,1.20081,0.927558,42,32765
6.1471,1.18813,0.932954,43,32765
6.16099,1.16934,0.932956,42,32765
6.14568,1.14501,0.928426,44,32765
6.17876,1.12987,0.932117,42,32765
6.1826,1.10943,0.931224,42,32765
6.23518,1.09741,0.937151,43,32765
6.20978,1.07158,0.931281,40,32765
6.1549,1.04112,0.921581,18,32765
6.25617,1.03699,0.934378,14,32765
6.24015,1.01331,0.930507,16,32765
6.23386,0.99137,0.927665,19,32765
6.28613,0.978435,0.933887,47,32765
6.25043,0.951501,0.926722,47,32765
6.35161,0.945153,0.940155,14,32765
6.37441,0.926531,0.942628,14,32765
6.37776,0.90504,0.940825,14,32765
6.41022,0.887568,0.944931,13,32765
6.41337,0.866347,0.943253,14,32765
6.4262,0.846425,0.943391,14,32765
6.24247,0.801755,0.915595,12,32765
5.96034,0.745737,0.873561,11,32765
5.72728,0.697491,0.83705,11,32765
5.7197,0.677845,0.835411,12,32765
5.72211,0.658741,0.834215,14,32765
5.72425,0.640044,0.834107,20,32765
5.80513,0.629699,0.844962,24,32765
5.70898,0.600082,0.829145,13,32765
5.69123,0.579442,0.826143,12,32765
5.82132,0.573245,0.843623,11,32765
5.7838,0.550318,0.837715,11,32765
0,0,0,0,32765
6.71432,0.593998,0.970121,13,32765
6.71624,0.572103,0.970041,14,32765
6.73789,0.551637,0.972361,14,32765
6.72003,0.527887,0.968857,17,32765
6.73162,0.506981,0.969845,16,32765
6.76285,0.487011,0.974243,16,32765
6.81386,0.468725,0.9806,14,32765
6.85483,0.449046,0.986554,14,32765
6.91559,0.430536,0.994633,14,32765
6.89716,0.406821,0.991984,13,32765
6.89866,0.384002,0.990669,14,32765
6.91955,0.36279,0.994091,14,32765
6.97015,0.342382,1.00114,13,32765
7.11946,0.326557,1.02303,13,32765
3.24379,0.13811,0.466007,17,32765
3.20464,0.12593,0.460479,19,32765
3.23469,0.116675,0.464844,19,32765
3.20532,0.105118,0.460923,19,32765
3.18583,0.0941043,0.458289,20,32765
3.08715,0.081001,0.444209,21,32765
3.12696,0.0717206,0.450106,21,32765
3.11723,0.0613864,0.449011,20,32765
3.0481,0.050274,0.439243,19,32765
3.04819,0.0406287,0.439671,19,32765
3.05812,0.0309818,0.441649,17,32765
2.96906,0.0204127,0.429292,17,32765
3.0284,0.010834,0.438506,14,32765
3.00849,0.000792676,0.43654,13,32765
3.03813,-0.00911641,0.441088,13,32765
3.07751,-0.0191481,0.44793,12,32765
3.08726,-0.0292794,0.449864,12,32765
0,-0,0,0,32765
5.49699,1.78601,0.90322,34,32765
5.56896,1.78996,0.910578,36,32765
5.57529,1.77199,0.906946,33,32765
5.55323,1.74526,0.89876,33,32765
5.57848,1.73284,0.897738,35,32765
5.61272,1.72365,0.899993,35,32765
5.60916,1.70278,0.895977,35,32765
5.59616,1.67912,0.889737,33,32765
5.63029,1.66968,0.891972,34,32765
5.71202,1.67365,0.901177,37,32765
5.67991,1.64402,0.892341,34,32765
5.7237,1.63628,0.895652,36,32765
5.73888,1.6201,0.8952,37,32765
5.72545,1.59608,0.889845,35,32765
5.75011,1.58254,0.89031,37,32765
5.76514,1.5665,0.88927,36,32765
5.77043,1.54779,0.887764,36,32765
5.81406,1.53908,0.891249,36,32765
5.81926,1.52018,0.889762,36,32765
5.8629,1.511,0.893121,35,32765
5.83931,1.48458,0.886872,36,32765
5.85401,1.46795,0.886408,35,32765
5.88803,1.45561,0.888386,37,32765
5.8545,1.42697,0.881288,36,32765
5.84983,1.40533,0.87803,36,32765
5.90273,1.39766,0.883891,34,32765
5.92673,1.38309,0.885095,37,32765
5.89297,1.3547,0.877366,36,32765
5.96504,1.35096,0.886316,36,32765
6.00826,1.34003,0.890772,37,32765
6.00326,1.31809,0.887481,36,32765
6.03683,1.30438,0.890453,37,32765
6.03183,1.28167,0.887249,36,32765
6.03624,1.26149,0.88622,38,32765
6.09872,1.25361,0.893419,35,32765
6.14168,1.2419,0.897964,36,32765
6.10709,1.21435,0.89043,35,32765
6.1597,1.20397,0.89674,37,32765
6.15415,1.1819,0.893542,38,32765
6.1387,1.15775,0.889979,35,32765
6.18146,1.14466,0.895442,36,32765
6.19521,1.12599,0.895075,37,32765
6.20884,1.10711,0.8953,35,32765
6.22238,1.08829,0.89555,37,32765
6.22612,1.06765,0.894441,33,32765
6.36635,1.0701,0.913729,13,32765
6.20387,1.02195,0.88886,17,32765
6.29534,1.01559,0.900469,17,32765
6.27924,0.991905,0.896497,22,32765
6.2826,0.971197,0.895592,42,32765
6.20763,0.938299,0.883474,29,32765
6.38713,0.943639,0.908004,13,32765
6.37079,0.919169,0.904521,13,32765
6.39361,0.900735,0.906013,13,32765
6.41629,0.881988,0.90822,12,32765
6.45858,0.865871,0.912924,13,32765
6.42222,0.839383,0.906739,12,32765
0,0,0,0,32765
5.75953,0.713977,0.810938,11,32765
5.72261,0.690348,0.80472,11,32765
5.74465,0.673874,0.806547,11,32765
5.71739,0.651809,0.801684,15,32765
5.73935,0.63497,0.803505,23,32765
5.82026,0.624537,0.814031,15,32765
5.79287,0.602069,0.809057,12,32765
5.87382,0.590848,0.818971,11,32765
5.91525,0.575277,0.823933,11,32765
0,0,0,0,32765
0,0,0,0,32765
6.72051,0.585733,0.931562,13,32765
6.71266,0.562854,0.929186,13,32765
6.74415,0.543406,0.932746,14,32765
0,0,0,0,32765
6.72806,0.497988,0.928072,15,32765
0,0,0,0,32765
0,0,0,0,32765
0,0,0,0,32765
3.23389,0.196341,0.443079,12,32765
3.25437,0.186946,0.44521,14,32765
3.26496,0.17685,0.445822,16,32765
3.25564,0.165863,0.444308,17,32765
3.20672,0.153086,0.437144,18,32765
3.1776,0.141407,0.43236,18,32765
3.1781,0.131122,0.43196,19,32765
3.17865,0.120716,0.430961,17,32765
3.18901,0.11073,0.431719,14,32765
0,0,0,0,32765
7.15247,0.201315,0.964363,11,32765
7.07404,0.176344,0.952107,12,32765
7.08473,0.15335,0.95165,12,32765
7.24398,0.133129,0.971166,11,32765
0,0,0,0,32765
0,0,0,0,32765
0,0,0,0,32765
0,0,0,0,32765
0,0,0,0,32765
0,-0,0,0,32765
0,-0,0,0,32765
0,-0,0,0,32765
0,-0,0,0,32765
0,-0,0,0,32765
5.44768,1.77236,0.839997,26,32765
5.51025,1.77345,0.845288,40,32765
5.56365,1.77064,0.848887,40,32765
5.55096,1.74687,0.84242,40,32765
5.56676,1.7315,0.839785,38,32765
5.59156,1.71943,0.840342,41,32765
5.59742,1.70146,0.837845,40,32765
5.6223,1.68919,0.837446,40,32765
5.67546,1.68529,0.842206,41,32765
5.61482,1.64732,0.829586,39,32765
5.69667,1.65102,0.837958,40,32765
5.71196,1.63505,0.836703,43,32765
5.71761,1.6162,0.834769,40,32765
5.72321,1.59752,0.832383,41,32765
5.74788,1.58397,0.832662,42,32765
5.73424,1.56011,0.82739,40,32765
5.77776,1.55174,0.831397,40,32765
5.78314,1.53285,0.829015,41,32765
5.77873,1.51151,0.826164,40,32765
5.81278,1.49997,0.827801,41,32765
5.85631,1.49078,0.831387,42,32765
5.85181,1.46923,0.828104,42,32765
5.86662,1.45213,0.82709,41,32765
5.89078,1.43759,0.828492,42,32765
5.93429,1.42738,0.832067,42,32765
5.93911,1.40801,0.830699,44,32765
5.91492,1.38202,0.824976,41,32765
5.96801,1.37361,0.829707,42,32765
5.97258,1.3543,0.828603,42,32765
5.99651,1.33902,0.830005,41,32765
5.9818,1.31494,0.825474,42,32765
6.06382,1.31176,0.834838,40,32765
6.04914,1.28686,0.830387,43,32765
6.08266,1.27267,0.833342,42,32765
6.06758,1.24866,0.829354,39,32765
6.11057,1.23703,0.833531,42,32765
6.11479,1.21727,0.831668,42,32765
6.12856,1.19924,0.832225,44,32765
6.16191,1.18472,0.834401,43,32765
6.17566,1.16601,0.834974,42,32765
6.17952,1.14556,0.834794,41,32765
6.20302,1.12863,0.835648,43,32765
6.19715,1.10622,0.833154,43,32765
6.23023,1.09082,0.835931,44,32765
6.24374,1.07179,0.836129,41,32765
6.26684,1.05447,0.838412,23,32765
6.28018,1.03558,0.838662,17,32765
6.30329,1.0179,0.840283,17,32765
6.30674,0.997244,0.839102,20,32765
6.30033,0.974894,0.836891,47,32765
6.29389,0.952257,0.834618,50,32765
6.27749,0.928321,0.831473,20,32765
6.4279,0.928272,0.850256,14,32765
6.43113,0.906849,0.848958,14,32765
6.3458,0.873078,0.836726,13,32765
6.42742,0.862447,0.846241,13,32765
6.46965,0.846304,0.850776,14,32765
6.07908,0.774633,0.798238,11,32765
5.77664,0.716676,0.757448,11,32765
5.77905,0.697704,0.756758,11,32765
5.6731,0.665986,0.741649,11,32765
5.71474,0.651985,0.74608,13,32765
5.73672,0.635127,0.747715,24,32765
5.78815,0.62151,0.753641,21,32765
5.76071,0.599111,0.748951,14,32765
5.74306,0.578047,0.745318,12,32765
5.75488,0.560001,0.746078,11,32765
5.79643,0.544327,0.749645,11,32765
0,0,0,0,32765
6.63013,0.578115,0.855139,13,32765
6.69143,0.561299,0.861781,15,32765
6.81193,0.549059,0.876511,15,32765
3.10531,0.240043,0.398779,13,32765
3.26437,0.241674,0.418867,16,32765
3.27515,0.23163,0.419329,19,32765
3.28583,0.221464,0.420301,21,32765
3.28664,0.210526,0.419585,21,32765
3.25772,0.197773,0.41502,21,32765
3.26833,0.187715,0.4157,23,32765
3.22939,0.174875,0.409927,22,32765
3.21014,0.163479,0.407252,21,32765
3.16115,0.150829,0.400561,17,32765
2.98331,0.132668,0.377268,13,32765
0,0,0,0,32765
0,0,0,0,32765
0,0,0,0,32765
0,0,0,0,32765
0,0,0,0,32765
7.17199,0.178333,0.896473,11,32765
7.08348,0.152837,0.883523,11,32765
7.17345,0.131303,0.892898,11,32765
0,0,0,0,32765
0,0,0,0,32765
0,0,0,0,32765
0,0,0,0,32765
0,0,0,0,32765
0,-0,0,0,32765
0,-0,0,0,32765
0,-0,0,0,32765
0,-0,0,0,32765
0,-0,0,0,32765
5.52372,1.80059,0.765487,13,32765
5.53891,1.78557,0.767514,28,32765
5.53507,1.76478,0.766908,35,32765
5.57831,1.75945,0.772537,34,32765
5.56494,1.73608,0.769319,35,32765
5.60836,1.73,0.774473,34,32765
5.62329,1.71479,0.776528,35,32765
5.63842,1.69922,0.777496,36,32765
5.61552,1.6724,0.772711,35,32765
5.71609,1.68209,0.785442,37,32765
5.66446,1.6471,0.776826,34,32765
5.70777,1.63987,0.782474,35,32765
5.72269,1.62401,0.783223,34,32765
5.73775,1.60778,0.783204,35,32765
5.74306,1.58871,0.783141,35,32765
5.78671,1.58004,0.787349,36,32765
5.80144,1.56375,0.788431,36,32765
5.80659,1.54479,0.787866,36,32765
5.80211,1.5235,0.785483,35,32765
5.81666,1.50717,0.78643,37,32765
5.8313,1.49059,0.78677,36,32765
5.89391,1.4861,0.793836,36,32765
5.8508,1.45489,0.78606,35,32765
5.93263,1.45475,0.795726,37,32765
5.8797,1.4211,0.787153,36,32765
5.90378,1.40617,0.788959,35,32765
5.93751,1.39328,0.791996,37,32765
5.97133,1.38001,0.794463,35,32765
5.98553,1.36247,0.795707,37,32765
5.99015,1.34275,0.794515,37,32765
5.98502,1.321,0.791743,35,32765
6.04749,1.31434,0.79874,34,32765
6.03269,1.29006,0.794212,35,32765
6.06622,1.276,0.79707,38,32765
6.05128,1.25137,0.793072,36,32765
6.11385,1.24299,0.79998,35,32765
6.08878,1.21712,0.795619,36,32765
6.15138,1.20857,0.801448,37,32765
6.1554,1.18846,0.800593,37,32765
6.1497,1.16625,0.798229,35,32765
6.21226,1.15665,0.804336,38,32765
6.2064,1.13445,0.802,37,32765
6.22988,1.11702,0.803265,37,32765
6.24351,1.09808,0.803052,37,32765
6.24722,1.07732,0.802323,38,32765
6.25092,1.05663,0.801027,27,32765
0,0,0,0,32765
6.31681,1.02492,0.806196,13,32765
6.21257,0.986687,0.791206,15,32765
6.28463,0.976318,0.798924,29,32765
6.29782,0.956726,0.799101,43,32765
6.3207,0.938834,0.800609,17,32765
6.35344,0.922077,0.802806,13,32765
6.4057,0.908242,0.807803,13,32765
6.4088,0.886769,0.807085,12,32765
6.47083,0.873444,0.813559,13,32765
6.4739,0.851953,0.811934,13,32765
6.25042,0.801346,0.782676,11,32765
0,0,0,0,32765
5.90116,0.717365,0.736045,11,32765
5.9627,0.705175,0.742593,11,32765
5.75794,0.661974,0.716622,11,32765
5.7799,0.645142,0.718395,15,32765
5.7822,0.625993,0.716866,20,32765
0,0,0,0,32765
0,0,0,0,32765
0,0,0,0,32765
0,0,0,0,32765
0,0,0,0,32765
3.37154,0.297547,0.415061,12,32765
3.35274,0.284725,0.412484,14,32765
3.35372,0.273546,0.412135,17,32765
3.32496,0.260029,0.40823,17,32765
3.36541,0.252149,0.412849,19,32765
3.31675,0.237573,0.406478,18,32765
3.27792,0.224155,0.401373,18,32765
3.28852,0.214284,0.402607,20,32765
3.20008,0.198016,0.391386,18,32765
3.24036,0.189973,0.396108,19,32765
3.28062,0.181594,0.400818,18,32765
3.26136,0.169971,0.398385,16,32765
3.23216,0.157952,0.394721,11,32765
0,0,0,11,32765
0,0,0,0,32765
0,0,0,0,32765
0,0,0,0,32765
0,0,0,0,32765
7.08413,0.207262,0.86701,11,32765
7.0848,0.184083,0.866815,11,32765
7.01586,0.159045,0.858644,11,32765
0,0,0,0,32765
0,0,0,0,32765
0,0,0,0,32765
0,0,0,0,32765
0,0,0,0,32765
0,0,0,0,32765
0,0,0,0,32765
0,-0,0,0,32765
0,-0,0,0,32765
0,-0,0,0,32765
0,-0,0,0,32765
5.48235,1.78982,0.704645,13,32765
5.51642,1.78102,0.708999,20,32765
5.55039,1.77234,0.713343,39,32765
5.56531,1.75799,0.714949,40,32765
5.58982,1.74645,0.716779,41,32765
5.60487,1.7315,0.717912,40,32765
5.62933,1.71918,0.721088,40,32765
5.62548,1.69783,0.71953,40,32765
5.63109,1.6795,0.718667,40,32765
5.69371,1.67796,0.725608,40,32765
5.67059,1.65129,0.721191,39,32765
5.71397,1.64404,0.726464,40,32765
5.70027,1.61999,0.723481,41,32765
5.75356,1.61453,0.728212,42,32765
5.74934,1.59273,0.726937,41,32765
5.74517,1.57093,0.72473,41,32765
5.78863,1.56251,0.72934,42,32765
5.80337,1.54611,0.729982,42,32765
5.79888,1.5248,0.727692,41,32765
5.81346,1.50845,0.728545,42,32765
5.80887,1.48693,0.726385,40,32765
5.85229,1.47766,0.730488,41,32765
5.87652,1.46331,0.731583,40,32765
5.86206,1.43943,0.728514,42,32765
5.90551,1.42929,0.73248,42,32765
5.90066,1.40735,0.730508,41,32765
5.96342,1.40126,0.736847,43,32765
5.98763,1.38564,0.737833,41,32765
5.98251,1.3636,0.736598,42,32765
5.98712,1.34386,0.735406,42,32765
5.98198,1.32208,0.732727,41,32765
6.03482,1.31331,0.737976,41,32765
6.0394,1.29319,0.736004,43,32765
