x, y, z, intensity, ring
4.71087,-3.44261,0.543808,26,32765
4.78749,-3.52267,0.558269,14,32765
0,-0,0,0,32765
0,-0,0,0,32765
0,-0,0,0,32765
0,-0,0,0,32765
7.54861,-2.47167,0.520584,11,32765
7.57839,-2.50903,0.522363,11,32765
7.57019,-2.53386,0.521257,12,32765
7.56197,-2.55853,0.520164,12,32765
7.56309,-2.58627,0.520601,12,32765
7.5452,-2.60761,0.519972,12,32765
7.53653,-2.63266,0.51945,12,32765
7.36785,-2.60096,0.508563,12,32765
7.49086,-2.67204,0.517729,12,32765
7.40701,-2.66936,0.512656,12,32765
7.5108,-2.73433,0.520963,12,32765
7.33324,-2.69707,0.508276,12,32765
7.39913,-2.74885,0.514649,12,32765
7.35264,-2.75921,0.512229,12,32765
7.18474,-2.72352,0.501995,12,32765
7.24093,-2.77224,0.506455,12,32765
7.28745,-2.81793,0.51119,12,32765
7.15729,-2.79454,0.503665,12,32765
7.111,-2.80318,0.501446,12,32765
7.10173,-2.82647,0.502135,12,32765
7.16647,-2.87937,0.508485,12,32765
7.08286,-2.87318,0.503468,12,32765
7.00866,-2.86988,0.500625,12,32765
6.99902,-2.89309,0.501898,12,32765
7.01696,-2.92786,0.504359,12,32765
6.97952,-2.93941,0.504232,12,32765
6.91454,-2.9393,0.500595,12,32765
6.95967,-2.98584,0.505872,12,32765
6.89469,-2.98517,0.502926,12,32765
6.8296,-2.98434,0.501128,12,32765
6.79223,-2.99487,0.499957,12,32765
6.74549,-3.00153,0.499213,12,32765
6.73539,-3.02391,0.500459,12,32765
6.6889,-3.02968,0.49925,12,32765
6.5062,-2.97323,0.488055,13,32765
6.47805,-2.98641,0.488548,22,32765
6.40458,-2.97867,0.485103,17,32765
6.21395,-2.915,0.473318,15,32765
6.18597,-2.92719,0.474204,16,32765
6.14013,-2.93056,0.472183,16,32765
6.13027,-2.95086,0.473906,16,32765
6.12022,-2.97138,0.475639,17,32765
6.08348,-2.97832,0.47433,18,32765
6.03763,-2.98087,0.473175,18,32765
6.03647,-3.00532,0.476182,21,32765
5.91932,-2.97163,0.469718,21,32765
5.99807,-3.03678,0.478235,19,32765
5.9609,-3.04356,0.478078,20,32765
5.94158,-3.0591,0.479086,23,32765
0,-0,0,0,32765
5.96477,-3.12197,0.487152,15,32765
5.98066,-3.15584,0.490674,16,32765
5.98762,-3.18493,0.494561,16,32765
5.97699,-3.20455,0.496438,17,32765
6.00132,-3.24321,0.501378,17,32765
6.00799,-3.27256,0.503976,16,32765
6.03182,-3.31178,0.509172,15,32765
6.09042,-3.37045,0.517033,14,32765
6.1314,-3.41957,0.52355,12,32765
6.11981,-3.43992,0.525869,12,32765
6.00412,-3.40113,0.518917,12,32765
6.05325,-3.4557,0.525779,12,32765
5.98103,-3.44114,0.52179,12,32765
5.96928,-3.46114,0.523983,12,32765
5.87998,-3.43592,0.518799,12,32765
5.95439,-3.50585,0.528319,12,32765
5.90834,-3.50512,0.527096,12,32765
5.92242,-3.53976,0.53054,12,32765
5.91074,-3.55888,0.532848,12,32765
5.82218,-3.53165,0.527784,12,32765
5.83604,-3.56614,0.531884,12,32765
5.82415,-3.58541,0.532638,12,32765
5.75284,-3.5678,0.528871,12,32765
5.74091,-3.5867,0.53063,12,32765
5.69505,-3.5845,0.52936,12,32765
5.71691,-3.62437,0.533788,12,32765
5.67131,-3.62154,0.532231,12,32765
5.65933,-3.64,0.533761,12,32765
5.63064,-3.64743,0.53393,12,32765
5.63545,-3.67639,0.537004,12,32765
5.58178,-3.66718,0.534375,12,32765
5.61115,-3.71294,0.540053,12,32765
5.55739,-3.70369,0.53674,12,32765
5.52854,-3.71074,0.536681,12,32765
5.53288,-3.73986,0.539171,12,32765
5.48772,-3.73516,0.537749,12,32765
5.4427,-3.73022,0.535565,12,32765
5.43061,-3.74765,0.536729,12,32765
5.0174,-3.4864,0.497621,13,32765
4.67937,-3.27393,0.466689,15,32765
4.86437,-3.42661,0.487021,19,32765
4.894,-3.47097,0.491494,13,32765
5.36946,-3.83405,0.541604,12,32765
5.25206,-3.77541,0.531273,12,32765
4.70708,-3.40646,0.477824,17,32765
4.7605,-3.46858,0.484409,19,32765
4.86989,-3.57221,0.497041,13,32765
7.21139,-2.26185,0.429869,12,32765
7.16595,-2.2735,0.425766,12,32765
7.19671,-2.30895,0.425479,12,32765
7.15129,-2.3198,0.422479,11,32765
7.24817,-2.37711,0.427808,11,32765
7.1361,-2.36642,0.420863,11,32765
7.11888,-2.38667,0.419266,11,32765
7.12056,-2.41313,0.418798,11,32765
0,-0,0,0,32765
0,-0,0,0,32765
0,-0,0,0,32765
0,-0,0,0,32765
0,-0,0,0,32765
0,-0,0,0,32765
0,-0,0,0,32765
7.46708,-2.75098,0.442444,11,32765
7.36437,-2.74062,0.438069,11,32765
7.36461,-2.76846,0.438813,12,32765
7.23395,-2.7469,0.432412,12,32765
7.27142,-2.78874,0.435102,12,32765
7.21548,-2.79496,0.433132,13,32765
7.16904,-2.80402,0.431864,13,32765
7.12268,-2.81271,0.430024,13,32765
7.18756,-2.86567,0.435211,13,32765
7.08547,-2.85186,0.430692,13,32765
7.04817,-2.86418,0.429243,13,32765
7.08481,-2.90623,0.433841,13,32765
7.03814,-2.91446,0.432861,13,32765
7.00074,-2.92633,0.431639,13,32765
6.97249,-2.94173,0.432364,13,32765
6.96258,-2.96507,0.432719,13,32765
6.9526,-2.98821,0.43401,13,32765
6.9059,-2.99546,0.432778,13,32765
6.81333,-2.98266,0.42982,13,32765
6.80334,-3.00527,0.430667,13,32765
6.70184,-2.98759,0.426821,14,32765
6.66447,-2.99758,0.426315,14,32765
6.61805,-3.00313,0.42547,17,32765
6.56246,-3.0045,0.424259,25,32765
6.52514,-3.01371,0.424371,24,32765
6.4425,-3.00189,0.421005,27,32765
6.1885,-2.90849,0.406954,26,32765
6.17859,-2.92918,0.409217,26,32765
6.15973,-2.94545,0.40937,26,32765
6.12285,-2.95285,0.409299,25,32765
6.10381,-2.96902,0.41043,24,32765
6.12083,-3.0023,0.413033,25,32765
6.06594,-3.00055,0.411661,26,32765
6.05578,-3.02069,0.413978,31,32765
6.00989,-3.02287,0.413558,33,32765
6.02617,-3.05687,0.416853,29,32765
5.94449,-3.04103,0.413898,31,32765
5.94291,-3.0657,0.416242,31,32765
5.93227,-3.08586,0.419068,32,32765
5.93955,-3.11481,0.421964,20,32765
5.96429,-3.15333,0.425833,19,32765
5.98007,-3.18713,0.430164,18,32765
5.96943,-3.20677,0.432042,17,32765
6.00253,-3.25023,0.437248,18,32765
6.00041,-3.27487,0.439023,18,32765
6.02424,-3.31415,0.443845,18,32765
6.01302,-3.33421,0.445782,16,32765
6.08898,-3.40265,0.454315,13,32765
6.02527,-3.39353,0.452703,14,32765
6.04857,-3.43315,0.457347,14,32765
6.00232,-3.43349,0.456327,14,32765
6.00795,-3.46358,0.45893,14,32765
5.94436,-3.45365,0.457157,14,32765
5.90673,-3.45853,0.45681,14,32765
5.95529,-3.5135,0.4634,14,32765
5.86632,-3.48727,0.4592,14,32765
5.85477,-3.50648,0.460341,14,32765
5.80903,-3.50481,0.459921,14,32765
5.79736,-3.52382,0.461785,14,32765
5.78572,-3.54268,0.463556,14,32765
5.73993,-3.54087,0.461577,14,32765
5.71112,-3.54929,0.461873,14,32765
5.68233,-3.5575,0.462248,14,32765
5.70406,-3.59768,0.466864,14,32765
5.65851,-3.59487,0.465384,14,32765
5.62139,-3.59722,0.464885,14,32765
5.63464,-3.63177,0.468498,14,32765
5.5976,-3.63371,0.468152,14,32765
5.58575,-3.65171,0.469631,14,32765
5.55714,-3.65878,0.469575,14,32765
5.52833,-3.66597,0.469838,14,32765
5.51618,-3.68414,0.470526,14,32765
5.50394,-3.7022,0.472067,14,32765
5.47525,-3.70893,0.471527,14,32765
5.46315,-3.72651,0.473321,14,32765
5.45103,-3.74408,0.474373,14,32765
5.38965,-3.72753,0.471241,14,32765
5.09926,-3.55108,0.447488,14,32765
4.83451,-3.38995,0.426818,16,32765
4.80727,-3.39389,0.426156,26,32765
4.84512,-3.44395,0.430884,15,32765
5.29631,-3.79026,0.473208,13,32765
5.25186,-3.78373,0.470618,13,32765
4.80374,-3.48424,0.432056,17,32765
4.79244,-3.49976,0.43209,23,32765
4.74099,-3.48557,0.428793,16,32765
0,-0,0,0,32765
0,-0,0,0,32765
0,-0,0,0,32765
0,-0,0,0,32765
0,-0,0,0,32765
0,-0,0,0,32765
7.05293,-2.34399,0.339801,11,32765
7.04525,-2.36652,0.342918,11,32765
7.08471,-2.40542,0.347644,11,32765
6.95393,-2.38617,0.344489,11,32765
6.98363,-2.42235,0.348116,12,32765
6.9377,-2.4324,0.348403,12,32765
6.91071,-2.4486,0.349408,12,32765
6.85552,-2.45429,0.349891,12,32765
6.90359,-2.4973,0.355552,11,32765
0,-0,0,0,32765
0,-0,0,0,32765
0,-0,0,0,32765
0,-0,0,0,32765
0,-0,0,0,32765
0,-0,0,0,32765
0,-0,0,0,32765
7.28079,-2.85351,0.39566,11,32765
7.18768,-2.84434,0.393248,12,32765
7.20593,-2.87921,0.396939,12,32765
7.16831,-2.89223,0.397496,12,32765
0,-0,0,12,32765
0,-0,0,0,32765
0,-0,0,0,32765
6.97179,-2.92269,0.396174,12,32765
0,-0,0,0,32765
0,-0,0,0,32765
6.91415,-2.98095,0.400036,13,32765
6.77582,-2.94835,0.394251,13,32765
6.63782,-2.91469,0.389292,15,32765
6.55485,-2.90465,0.386395,16,32765
6.55408,-2.93072,0.388625,16,32765
6.54418,-2.95256,0.390134,17,32765
6.51608,-2.96597,0.390721,19,32765
6.46079,-2.96656,0.390035,16,32765
6.38725,-2.95896,0.387378,19,32765
6.2054,-2.89991,0.378283,20,32765
6.17741,-2.91233,0.378906,20,32765
6.18557,-2.9415,0.381987,20,32765
6.1126,-2.93194,0.379474,19,32765
6.11154,-2.95686,0.382159,20,32765
6.11947,-2.98606,0.384629,20,32765
6.05563,-2.97999,0.382935,20,32765
6.06332,-3.00927,0.385844,25,32765
5.9461,-2.97566,0.380755,25,32765
6.0073,-3.03149,0.387241,26,32765
5.97942,-3.04217,0.387412,22,32765
5.89805,-3.0257,0.384379,25,32765
5.87007,-3.03626,0.384445,25,32765
5.96588,-3.11145,0.393331,16,32765
5.98176,-3.14553,0.396366,16,32765
5.97116,-3.16537,0.398295,15,32765
5.99577,-3.2039,0.402303,15,32765
5.98522,-3.22338,0.403794,15,32765
6.02706,-3.2716,0.410029,15,32765
6.02467,-3.29666,0.41205,15,32765
6.08343,-3.35531,0.418802,14,32765
6.11572,-3.39983,0.423248,13,32765
6.13047,-3.43458,0.427351,12,32765
6.07556,-3.43006,0.427038,12,32765
6.04672,-3.4403,0.427059,13,32765
6.00061,-3.44022,0.427104,13,32765
5.98911,-3.45995,0.429235,12,32765
6.01201,-3.49973,0.434118,12,32765
6.00042,-3.5193,0.436323,13,32765
5.87681,-3.47323,0.43053,13,32765
5.86514,-3.49257,0.433221,13,32765
5.85343,-3.51186,0.435724,12,32765
5.84157,-3.53134,0.437397,12,32765
5.79582,-3.52941,0.437908,13,32765
5.818,-3.56944,0.442175,13,32765
5.77213,-3.56742,0.442819,13,32765
5.70103,-3.54926,0.44035,12,32765
5.74835,-3.605,0.447756,13,32765
5.70259,-3.60243,0.447768,13,32765
5.69057,-3.62106,0.450459,13,32765
5.67858,-3.63948,0.453322,13,32765
5.66658,-3.65782,0.455843,12,32765
5.61263,-3.64903,0.455073,12,32765
5.62564,-3.68345,0.460426,13,32765
5.58814,-3.68568,0.46105,13,32765
5.55909,-3.69313,0.461975,13,32765
5.56326,-3.72231,0.467529,13,32765
5.55097,-3.74031,0.470071,13,32765
5.52209,-3.74694,0.472249,12,32765
5.49315,-3.7536,0.47401,13,32765
5.48057,-3.77151,0.477469,13,32765
5.2138,-3.61329,0.458306,12,32765
4.92374,-3.43601,0.437061,13,32765
4.84728,-3.40572,0.434256,17,32765
4.82801,-3.41531,0.436862,19,32765
5.27157,-3.75491,0.480943,12,32765
5.31568,-3.81262,0.491016,12,32765
4.86643,-3.51453,0.454211,13,32765
4.72564,-3.43637,0.446443,17,32765
4.87504,-3.56942,0.465573,15,32765
0,-0,0,0,32765
0,-0,0,0,32765
0,-0,0,0,32765
0,-0,0,0,32765
0,-0,0,0,32765
0,-0,0,0,32765
0,-0,0,0,32765
0,-0,0,0,32765
0,-0,0,0,32765
0,-0,0,0,32765
6.97556,-2.42412,0.278129,11,32765
0,-0,0,0,32765
6.87437,-2.44035,0.278841,11,32765
6.91327,-2.47967,0.283641,11,32765
6.88612,-2.49573,0.285646,11,32765
6.84952,-2.50835,0.286815,12,32765
6.76607,-2.50347,0.285209,11,32765
0,-0,0,0,32765
6.85197,-2.58713,0.293581,11,32765
6.86202,-2.61665,0.297176,11,32765
6.788,-2.61423,0.295491,11,32765
0,-0,0,0,32765
0,-0,0,0,32765
0,-0,0,0,32765
0,-0,0,0,32765
0,-0,0,0,32765
0,-0,0,14,32765
0,-0,0,14,32765
0,-0,0,13,32765
0,-0,0,0,32765
0,-0,0,0,32765
0,-0,0,14,32765
6.46576,-2.79316,0.307804,17,32765
6.47457,-2.82287,0.310251,20,32765
6.44671,-2.83641,0.311806,21,32765
6.39139,-2.83787,0.310956,20,32765
6.36348,-2.85119,0.311714,20,32765
6.35385,-2.87244,0.313183,20,32765
6.35328,-2.89769,0.315267,21,32765
6.37081,-2.93115,0.318634,22,32765
6.36081,-2.95267,0.319811,23,32765
6.22418,-2.91459,0.314787,24,32765
6.1871,-2.92284,0.315146,25,32765
6.16817,-2.93921,0.316659,25,32765
6.12221,-2.94255,0.316198,24,32765
6.1301,-2.97192,0.319264,25,32765
6.13797,-3.00125,0.321555,25,32765
6.08303,-2.99964,0.320907,24,32765
6.05488,-3.01129,0.32174,27,32765
6.0805,-3.04922,0.325425,34,32765
6.01667,-3.04252,0.324477,30,32765
6.00654,-3.06233,0.325807,26,32765
6.03168,-3.10071,0.329358,31,32765
5.92363,-3.07038,0.325261,30,32765
5.97507,-3.12279,0.330595,24,32765
5.95555,-3.13835,0.331389,18,32765
5.95379,-3.16283,0.333808,18,32765
5.99602,-3.21082,0.338435,18,32765
5.99423,-3.23508,0.34043,19,32765
6.03603,-3.28344,0.346112,18,32765
6.02483,-3.30379,0.34754,19,32765
6.03112,-3.33358,0.350499,18,32765
6.1071,-3.40233,0.35702,17,32765
6.09571,-3.42246,0.359304,17,32765
6.00608,-3.39815,0.357381,17,32765
5.99469,-3.41807,0.358618,16,32765
5.99195,-3.4427,0.361634,17,32765
5.96314,-3.45244,0.362716,17,32765
5.94295,-3.46707,0.364574,17,32765
5.92285,-3.48139,0.366226,17,32765
5.89388,-3.49095,0.367519,17,32765
5.84785,-3.48993,0.368064,17,32765
5.86182,-3.52463,0.372196,17,32765
5.81575,-3.5235,0.371693,17,32765
5.7956,-3.53709,0.374222,16,32765
5.74971,-3.53537,0.373697,17,32765
5.75488,-3.56466,0.378028,17,32765
5.7092,-3.56228,0.377896,17,32765
5.69731,-3.58097,0.380702,16,32765
5.67694,-3.59426,0.382777,17,32765
5.67337,-3.61821,0.386034,16,32765
5.61099,-3.60425,0.385433,16,32765
5.62425,-3.63869,0.389671,16,32765
5.60382,-3.65154,0.391694,15,32765
5.5751,-3.65863,0.393819,16,32765
5.56267,-3.67722,0.396486,16,32765
5.55027,-3.69566,0.398787,16,32765
5.52129,-3.70265,0.401741,16,32765
5.49251,-3.70938,0.403056,15,32765
5.472,-3.72146,0.406002,15,32765
5.42669,-3.71669,0.406692,15,32765
5.3978,-3.7231,0.40887,14,32765
5.32796,-3.70091,0.407615,14,32765
4.93133,-3.44925,0.381408,15,32765
4.87933,-3.43616,0.381274,21,32765
4.88439,-3.4632,0.38593,23,32765
5.17343,-3.69356,0.412509,13,32765
5.29067,-3.80351,0.427739,13,32765
4.87386,-3.52809,0.398612,14,32765
4.74919,-3.46155,0.39369,20,32765
4.72959,-3.47101,0.396803,21,32765
0,-0,0,0,32765
0,-0,0,0,32765
0,-0,0,0,32765
0,-0,0,0,32765
0,-0,0,0,32765
0,-0,0,0,32765
0,-0,0,0,32765
0,-0,0,0,32765
0,-0,0,0,32765
0,-0,0,0,32765
0,-0,0,0,32765
0,-0,0,0,32765
0,-0,0,0,32765
0,-0,0,0,32765
0,-0,0,0,32765
0,-0,0,0,32765
0,-0,0,0,32765
0,-0,0,0,32765
6.95685,-2.62287,0.276449,12,32765
6.80801,-2.59253,0.271901,13,32765
6.85528,-2.6367,0.274613,13,32765
6.85586,-2.66286,0.275554,13,32765
6.76343,-2.65222,0.273196,11,32765
0,-0,0,0,32765
0,-0,0,0,32765
0,-0,0,0,32765
0,-0,0,0,32765
0,-0,0,0,32765
0,-0,0,0,32765
0,-0,0,0,32765
0,-0,0,0,32765
0,-0,0,0,32765
0,-0,0,0,32765
0,-0,0,0,32765
6.39539,-2.80758,0.276772,12,32765
6.40418,-2.83704,0.278954,13,32765
6.29424,-2.81363,0.275819,14,32765
6.33027,-2.85519,0.279331,17,32765
6.36599,-2.89725,0.283105,18,32765
0,-0,0,0,32765
0,-0,0,0,32765
0,-0,0,0,32765
6.19999,-2.92214,0.284255,20,32765
0,-0,0,0,32765
0,-0,0,0,32765
0,-0,0,0,32765
0,-0,0,0,32765
0,-0,0,0,32765
6.068,-3.0104,0.291966,20,32765
6.04003,-3.02154,0.293145,22,32765
6.0208,-3.03732,0.295145,20,32765
5.99275,-3.04829,0.296276,20,32765
5.98225,-3.06864,0.29838,24,32765
5.94523,-3.0749,0.298755,23,32765
5.93476,-3.09486,0.300812,19,32765
5.96849,-3.13796,0.304698,15,32765
5.99324,-3.17648,0.30847,15,32765
6.00007,-3.20598,0.311468,15,32765
6.05081,-3.25905,0.31725,17,32765
6.06629,-3.29331,0.319934,16,32765
6.09031,-3.33253,0.323896,16,32765
6.07908,-3.35273,0.326273,17,32765
6.04171,-3.35808,0.327736,18,32765
6.02162,-3.37346,0.328582,17,32765
6.00178,-3.38825,0.32922,18,32765
5.96435,-3.39326,0.33045,18,32765
5.96164,-3.4179,0.333426,17,32765
5.94152,-3.43265,0.334844,18,32765
5.92976,-3.45276,0.336496,18,32765
5.88369,-3.45223,0.336373,18,32765
5.87181,-3.4722,0.33852,18,32765
5.82586,-3.47113,0.338574,19,32765
5.81434,-3.49018,0.340859,19,32765
5.79425,-3.50404,0.341712,20,32765
5.75708,-3.50734,0.342132,19,32765
5.74531,-3.52639,0.344231,20,32765
5.73351,-3.54537,0.34594,19,32765
5.72179,-3.56407,0.347897,20,32765
5.693,-3.57226,0.348776,20,32765
5.63067,-3.55862,0.347469,20,32765
0,-0,0,0,32765
5.6825,-3.64423,0.355478,20,32765
0,-0,0,0,32765
5.50776,-3.58317,0.349084,20,32765
5.67147,-3.71585,0.361903,22,32765
5.44255,-3.59129,0.349437,22,32765
5.47251,-3.63635,0.353635,20,32765
5.56846,-3.72626,0.362315,20,32765
5.48968,-3.7002,0.359027,19,32765
5.41129,-3.67336,0.356123,21,32765
5.35802,-3.66275,0.354791,20,32765
5.3545,-3.68543,0.356484,18,32765
0,-0,0,0,32765
4.83948,-3.37659,0.325851,15,32765
4.95912,-3.48416,0.335663,21,32765
5.11877,-3.6215,0.348296,15,32765
5.28621,-3.76502,0.361309,20,32765
5.18518,-3.71744,0.355872,20,32765
0,-0,0,0,32765
4.77303,-3.46947,0.330296,21,32765
0,-0,0,0,32765
0,-0,0,0,32765
0,-0,0,0,32765
0,-0,0,0,32765
0,-0,0,0,32765
0,-0,0,0,32765
0,-0,0,0,32765
0,-0,0,0,32765
0,-0,0,0,32765
0,-0,0,0,32765
0,-0,0,0,32765
0,-0,0,0,32765
7.22371,-2.53962,0.20943,11,32765
7.09283,-2.51991,0.206636,11,32765
7.08438,-2.54356,0.206842,12,32765
7.1135,-2.58067,0.207657,12,32765
6.98286,-2.55955,0.20466,13,32765
6.97439,-2.58252,0.205294,12,32765
6.93773,-2.59497,0.205324,13,32765
6.92912,-2.61784,0.205653,13,32765
6.90169,-2.63367,0.206141,14,32765
6.8742,-2.64949,0.206063,13,32765
6.86541,-2.67215,0.206635,14,32765
6.83806,-2.68711,0.207101,14,32765
6.82916,-2.70961,0.207795,14,32765
6.80162,-2.72464,0.207788,14,32765
6.77385,-2.74002,0.208277,12,32765
6.78309,-2.77028,0.210059,11,32765
0,-0,0,0,32765
0,-0,0,0,32765
0,-0,0,0,32765
0,-0,0,0,32765
0,-0,0,0,32765
0,-0,0,0,32765
0,-0,0,0,32765
0,-0,0,0,32765
0,-0,0,0,32765
0,-0,0,0,32765
0,-0,0,0,32765
0,-0,0,0,32765
0,-0,0,12,32765
0,-0,0,12,32765
0,-0,0,13,32765
6.34425,-2.99671,0.224974,11,32765
1.33542,-0.636218,0.0478791,14,32765
1.23416,-0.593091,0.044591,14,32765
1.33107,-0.645205,0.0486127,14,32765
1.38275,-0.676004,0.0512422,13,32765
0,-0,0,0,32765
6.03172,-2.99907,0.226989,18,32765
5.98592,-3.00116,0.22767,21,32765
5.9846,-3.02581,0.230433,22,32765
5.98329,-3.05031,0.232784,22,32765
5.98167,-3.07525,0.235239,27,32765
5.98012,-3.09991,0.237309,28,32765
5.96956,-3.12004,0.239384,23,32765
5.95899,-3.14006,0.241027,20,32765
5.9396,-3.15519,0.242624,22,32765
5.92887,-3.17514,0.244694,22,32765
5.92695,-3.19962,0.24759,23,32765
5.91628,-3.21921,0.248864,23,32765
5.88797,-3.22919,0.250171,23,32765
5.86834,-3.24393,0.252098,22,32765
5.80515,-3.23402,0.252609,22,32765
5.78547,-3.24864,0.253502,23,32765
5.76603,-3.26269,0.254196,23,32765
5.75507,-3.28179,0.256769,23,32765
5.71808,-3.28588,0.258006,22,32765
5.6811,-3.28984,0.258658,22,32765
5.6612,-3.30408,0.259847,22,32765
5.65008,-3.32292,0.261616,22,32765
5.62144,-3.33195,0.26288,22,32765
5.56739,-3.32494,0.262822,21,32765
5.56491,-3.34834,0.26542,22,32765
5.53673,-3.35623,0.265903,22,32765
5.51711,-3.36912,0.26735,22,32765
5.48877,-3.37694,0.268535,22,32765
5.46048,-3.38459,0.269336,22,32765
5.44929,-3.40244,0.271205,22,32765
5.42949,-3.41508,0.272611,21,32765
5.31703,-3.36848,0.269224,22,32765
5.40684,-3.45057,0.275742,23,32765
5.40372,-3.47383,0.277948,22,32765
5.30848,-3.43705,0.274984,22,32765
5.36401,-3.49815,0.280087,22,32765
5.28578,-3.47161,0.278161,23,32765
5.21603,-3.45025,0.276425,22,32765
5.18821,-3.45591,0.276991,22,32765
5.16028,-3.46162,0.277679,20,32765
5.18171,-3.50126,0.280445,22,32765
5.15355,-3.50708,0.280915,22,32765
5.0761,-3.47867,0.278633,21,32765
5.06493,-3.49483,0.279724,21,32765
5.00465,-3.47652,0.278086,19,32765
5.0015,-3.4984,0.279763,18,32765
4.83483,-3.4054,0.272035,23,32765
4.89689,-3.4733,0.277153,18,32765
5.04032,-3.59902,0.286695,20,32765
4.89115,-3.51559,0.279479,20,32765
4.93644,-3.57231,0.283143,19,32765
4.77107,-3.47697,0.275086,23,32765
4.75983,-3.49237,0.274779,19,32765
0,-0,0,0,32765
0,-0,0,0,32765
0,-0,0,0,32765
0,-0,0,0,32765
0,-0,0,0,32765
0,-0,0,0,32765
7.14852,-2.36271,0.13094,11,32765
7.30197,-2.43976,0.13704,11,32765
7.29378,-2.46397,0.140299,11,32765
7.37075,-2.51698,0.144764,11,32765
7.40008,-2.5546,0.147589,12,32765
7.21221,-2.51639,0.146318,12,32765
7.15665,-2.52358,0.148279,12,32765
7.14831,-2.54694,0.151069,12,32765
7.12105,-2.56363,0.152899,12,32765
7.15005,-2.60092,0.155215,12,32765
7.12255,-2.6177,0.158018,13,32765
7.02008,-2.60643,0.158396,13,32765
7.02068,-2.63327,0.160813,14,32765
7.04924,-2.67077,0.163737,14,32765
6.91877,-2.64807,0.162682,15,32765
6.90977,-2.6713,0.165207,15,32765
6.90079,-2.69429,0.167325,15,32765
6.92891,-2.732,0.169952,14,32765
6.80834,-2.71047,0.169719,13,32765
6.86415,-2.75927,0.172973,13,32765
6.77151,-2.74826,0.172719,13,32765
6.74379,-2.76313,0.174501,13,32765
6.75291,-2.79336,0.177342,12,32765
0,-0,0,0,32765
0,-0,0,0,32765
0,-0,0,0,32765
0,-0,0,0,32765
0,-0,0,0,32765
0,-0,0,0,32765
0,-0,0,0,32765
0,-0,0,0,32765
0,-0,0,0,32765
0,-0,0,0,32765
0,-0,0,0,32765
0,-0,0,0,32765
0,-0,0,0,32765
0,-0,0,0,32765
1.30982,-0.620652,0.0407566,14,32765
1.34381,-0.642259,0.0423156,16,32765
1.36863,-0.659818,0.0436192,16,32765
1.29445,-0.629483,0.0417458,15,32765
1.33717,-0.655895,0.0432775,15,32765
1.40662,-0.695828,0.0461692,14,32765
1.33275,-0.664776,0.044221,13,32765
1.31264,-0.660268,0.0439801,13,32765
1.31037,-0.664729,0.0444602,12,32765
0,-0,0,0,32765
0,-0,0,0,32765
0,-0,0,0,32765
0,-0,0,0,32765
0,-0,0,0,32765
0,-0,0,0,32765
0,-0,0,0,32765
0,-0,0,0,32765
0,-0,0,0,32765
0,-0,0,0,32765
0,-0,0,0,32765
0,-0,0,0,32765
0,-0,0,0,32765
0,-0,0,0,32765
0,-0,0,0,32765
5.62839,-3.24342,0.226912,19,32765
5.60896,-3.25689,0.228871,19,32765
5.56354,-3.25526,0.229674,19,32765
5.5439,-3.26876,0.232358,18,32765
5.5241,-3.28246,0.233693,18,32765
5.52165,-3.30591,0.236518,19,32765
5.50199,-3.31899,0.239447,18,32765
5.52533,-3.35746,0.24303,18,32765
5.45464,-3.33884,0.24283,19,32765
5.29899,-3.26749,0.238942,18,32765
5.47499,-3.40066,0.249968,20,32765
5.45523,-3.41329,0.252042,18,32765
5.30872,-3.34576,0.248592,20,32765
5.43255,-3.44886,0.257672,19,32765
5.36205,-3.42913,0.257571,17,32765
5.28349,-3.40333,0.257328,18,32765
5.28882,-3.43172,0.260397,20,32765
5.27744,-3.44894,0.263739,20,32765
5.24084,-3.44984,0.265683,20,32765
5.22944,-3.46688,0.268496,20,32765
5.18484,-3.46155,0.269639,20,32765
5.31436,-3.57308,0.280652,20,32765
5.19499,-3.51755,0.277991,20,32765
5.15028,-3.512,0.279406,21,32765
5.17136,-3.55169,0.284478,20,32765
5.11857,-3.53999,0.285734,18,32765
0,-0,0,0,32765
4.85812,-3.40653,0.279022,20,32765
4.84678,-3.42239,0.282154,20,32765
5.07144,-3.60603,0.299804,18,32765
5.01899,-3.59323,0.301399,21,32765
4.9506,-3.56827,0.301793,18,32765
4.81772,-3.49602,0.298451,18,32765
4.85443,-3.547,0.306038,19,32765
0,-0,0,11,32765
0,-0,0,11,32765
0,-0,0,11,32765
0,-0,0,0,32765
7.61985,-2.46872,0.0581618,11,32765
7.49764,-2.45639,0.0598223,11,32765
7.43256,-2.46212,0.0624845,11,32765
7.46242,-2.49898,0.0660213,11,32765
7.29302,-2.46925,0.0678577,11,32765
7.37944,-2.52562,0.0715721,12,32765
7.32369,-2.53392,0.0731769,12,32765
7.23974,-2.53169,0.0747449,12,32765
7.18415,-2.53899,0.0771922,12,32765
7.22285,-2.57931,0.0805215,12,32765
7.15786,-2.5827,0.0821356,12,32765
7.13043,-2.59965,0.0834288,12,32765
7.12171,-2.62332,0.0866431,12,32765
7.10358,-2.6434,0.0890224,13,32765
7.05726,-2.653,0.090775,13,32765
7.04836,-2.6765,0.0928457,13,32765
6.98323,-2.67882,0.0938959,14,32765
6.94617,-2.69148,0.0960624,14,32765
6.96505,-2.72557,0.0985915,13,32765
6.89076,-2.72316,0.0993872,14,32765
6.90026,-2.75334,0.102198,14,32765
6.83534,-2.75398,0.103005,14,32765
6.80756,-2.76923,0.10459,14,32765
6.79828,-2.79185,0.106867,14,32765
6.78883,-2.81468,0.109246,14,32765
6.73319,-2.81815,0.110351,13,32765
6.76039,-2.8566,0.112245,12,32765
6.75068,-2.87937,0.11447,12,32765
6.70424,-2.88613,0.115762,11,32765
0,-0,0,0,32765
0,-0,0,0,32765
0,-0,0,0,32765
0,-0,0,0,32765
0,-0,0,0,32765
0,-0,0,0,32765
0,-0,0,0,32765
0,-0,0,0,32765
0,-0,0,0,32765
0,-0,0,0,32765
1.30051,-0.617695,0.0269589,14,32765
1.28039,-0.613401,0.0269997,15,32765
1.23329,-0.595982,0.0264571,15,32765
1.2672,-0.617693,0.0276441,15,32765
1.28303,-0.630836,0.0281162,15,32765
1.2361,-0.612934,0.0276335,14,32765
1.32348,-0.661733,0.0300387,15,32765
1.24089,-0.625676,0.0285465,14,32765
1.22092,-0.620841,0.0285842,15,32765
1.26327,-0.64781,0.0297498,15,32765
1.26108,-0.652052,0.0302335,14,32765
1.2766,-0.665524,0.0310689,14,32765
1.27438,-0.669745,0.031563,14,32765
1.27212,-0.674014,0.0318923,14,32765
1.17283,-0.626493,0.0297546,14,32765
1.18833,-0.639882,0.0305289,14,32765
1.23009,-0.66771,0.0324113,14,32765
1.2717,-0.695788,0.0338477,13,32765
1.26937,-0.700027,0.0342493,13,32765
1.27577,-0.709083,0.0348603,13,32765
1.21235,-0.6791,0.0336045,13,32765
1.19267,-0.673291,0.033605,12,32765
1.2252,-0.696962,0.035211,13,32765
1.24887,-0.715968,0.0363732,12,32765
5.54859,-3.20538,0.163723,11,32765
5.48609,-3.19348,0.164453,12,32765
5.36329,-3.14592,0.163227,13,32765
5.36124,-3.16897,0.166435,14,32765
5.29025,-3.15138,0.166195,15,32765
5.28823,-3.17411,0.168828,16,32765
5.28613,-3.1968,0.172275,20,32765
5.18181,-3.15666,0.171178,20,32765
5.23108,-3.21008,0.175487,21,32765
5.20344,-3.2167,0.177438,23,32765
5.19287,-3.2336,0.179899,24,32765
5.18213,-3.25065,0.182243,22,32765
5.14606,-3.25151,0.184083,22,32765
5.09307,-3.24159,0.185152,21,32765
5.05695,-3.24229,0.186785,22,32765
5.12178,-3.30761,0.192488,23,32765
5.01851,-3.26468,0.191159,21,32765
5.04113,-3.30298,0.195635,22,32765
5.00503,-3.30311,0.197721,20,32765
5.02742,-3.34155,0.20175,22,32765
4.98325,-3.33556,0.203163,23,32765
4.95568,-3.34055,0.205913,22,32765
4.95289,-3.36233,0.209153,21,32765
4.98296,-3.40674,0.213988,21,32765
4.87269,-3.35529,0.212834,22,32765
4.93555,-3.42232,0.219472,22,32765
4.85056,-3.38679,0.219388,20,32765
4.88854,-3.43684,0.225019,22,32765
4.83633,-3.42397,0.22627,25,32765
4.83307,-3.44557,0.230351,23,32765
4.84612,-3.47859,0.235385,21,32765
4.80244,-3.4706,0.237509,21,32765
4.79922,-3.49178,0.241968,22,32765
4.77147,-3.49559,0.245664,24,32765
0,-0,0,0,32765
0,-0,0,0,32765
0,-0,0,0,32765
0,-0,0,0,32765
0,-0,0,0,32765
0,-0,0,0,32765
7.34839,-2.42992,0.0649694,11,32765
7.4258,-2.48237,0.0652485,11,32765
7.4742,-2.52672,0.0646195,11,32765
7.40882,-2.53262,0.0647901,12,32765
7.31521,-2.52808,0.0640824,12,32765
7.2692,-2.53864,0.0640289,12,32765
7.32704,-2.58521,0.0641574,12,32765
7.22438,-2.57549,0.0636705,13,32765
7.24408,-2.60943,0.0644667,12,32765
7.15072,-2.60291,0.0647075,12,32765
7.15132,-2.63037,0.0646206,13,32765
7.12384,-2.647,0.0654617,13,32765
7.14312,-2.68111,0.0669543,14,32765
7.08752,-2.68683,0.0663567,15,32765
7.08788,-2.71392,0.0680806,15,32765
7.04152,-2.72301,0.0684565,16,32765
7.03254,-2.74609,0.069817,15,32765
6.98621,-2.75464,0.0703434,15,32765
6.95848,-2.77029,0.0715712,15,32765
6.91212,-2.77847,0.072499,14,32765
6.85644,-2.78278,0.0732116,13,32765
6.88417,-2.82068,0.0748003,13,32765
6.87458,-2.84392,0.0765068,13,32765
6.86498,-2.86699,0.0777391,13,32765
6.81845,-2.87447,0.0790576,12,32765
6.75366,-2.87354,0.0801408,12,32765
6.74412,-2.89583,0.0814236,12,32765
6.70683,-2.90649,0.0826069,11,32765
0,-0,0,0,32765
0,-0,0,0,32765
0,-0,0,0,32765
0,-0,0,0,32765
0,-0,0,0,32765
0,-0,0,0,32765
0,-0,0,0,32765
0,-0,0,0,32765
0,-0,0,0,32765
1.17466,-0.556636,0.0181209,12,32765
1.2269,-0.586462,0.0193755,15,32765
1.24293,-0.59926,0.0202023,14,32765
1.2769,-0.620865,0.0210376,14,32765
1.25684,-0.616379,0.020813,15,32765
1.25474,-0.620619,0.0212743,15,32765
1.16315,-0.580233,0.0200911,14,32765
1.27729,-0.642579,0.0226671,15,32765
1.2216,-0.61976,0.0221463,15,32765
1.21059,-0.619334,0.0224207,14,32765
1.24406,-0.641671,0.0236884,14,32765
1.2153,-0.631977,0.0236081,14,32765
1.21315,-0.63607,0.0240283,14,32765
1.25519,-0.663506,0.0255329,14,32765
1.2176,-0.649001,0.0254823,14,32765
1.18898,-0.638882,0.0255198,14,32765
1.28355,-0.695222,0.0277971,13,32765
1.24613,-0.680305,0.0275085,13,32765
1.21756,-0.670001,0.027442,13,32765
1.21533,-0.674023,0.0278565,14,32765
1.21307,-0.678052,0.0283737,13,32765
1.26306,-0.711536,0.0301464,13,32765
1.23458,-0.70093,0.0299859,13,32765
1.22352,-0.700136,0.0301711,13,32765
1.1952,-0.689206,0.0299771,12,32765
1.21883,-0.708233,0.0311202,12,32765
1.37175,-0.803203,0.0356827,13,32765
1.21407,-0.716318,0.0320245,13,32765
1.22885,-0.730581,0.0328515,13,32765
1.22642,-0.734622,0.0334146,13,32765
1.301,-0.785182,0.0359054,12,32765
1.23004,-0.747938,0.0344599,13,32765
0,-0,0,0,32765
0,-0,0,0,32765
0,-0,0,0,32765
0,-0,0,0,32765
0,-0,0,0,32765
0,-0,0,0,32765
0,-0,0,0,32765
0,-0,0,0,32765
0,-0,0,0,32765
0,-0,0,0,32765
0,-0,0,0,32765
0,-0,0,0,32765
4.89601,-3.27031,0.162118,19,32765
0,-0,0,0,32765
4.86583,-3.29712,0.164665,20,32765
4.89627,-3.34115,0.167574,19,32765
4.81945,-3.31174,0.166582,20,32765
4.73476,-3.27605,0.164746,19,32765
4.74054,-3.3027,0.166832,19,32765
4.80347,-3.36965,0.170379,19,32765
4.65377,-3.28706,0.166398,19,32765
4.70822,-3.34846,0.169914,20,32765
4.75429,-3.40431,0.172872,19,32765
4.63801,-3.3434,0.169982,19,32765
4.72445,-3.42854,0.173893,18,32765
4.64899,-3.39634,0.171406,20,32765
7.65103,-2.37105,-0.00182613,11,32765
7.68136,-2.40816,-0.00353267,11,32765
7.72107,-2.44848,-0.00493362,11,32765
7.57028,-2.42762,-0.00642064,11,32765
7.5148,-2.43674,-0.00757798,11,32765
7.61138,-2.49537,-0.00760112,12,32765
7.44185,-2.46664,-0.00794218,12,32765
7.43376,-2.49093,-0.00841444,12,32765
7.46314,-2.52899,-0.00957981,12,32765
7.49235,-2.56728,-0.00895414,12,32765
7.46478,-2.58593,-0.00888883,12,32765
7.39025,-2.58709,-0.00852305,11,32765
7.33476,-2.59414,-0.00891789,12,32765
7.25092,-2.59116,-0.00848136,12,32765
7.31757,-2.64225,-0.00801179,12,32765
7.20532,-2.62911,-0.00689168,13,32765
7.23395,-2.6672,-0.00709639,13,32765
7.15012,-2.6632,-0.00600329,13,32765
7.15997,-2.69395,-0.0047769,14,32765
7.12301,-2.70686,-0.00491264,13,32765
7.16065,-2.74846,-0.00328654,13,32765
7.08619,-2.74697,-0.0025119,13,32765
7.0585,-2.76297,-0.00113462,13,32765
6.97491,-2.75692,-0.000222542,13,32765
6.94717,-2.77257,0.00119615,13,32765
6.99356,-2.81811,0.00253659,12,32765
6.9007,-2.80763,0.00371867,13,32765
6.93757,-2.84957,0.00495127,13,32765
6.83551,-2.83474,0.00658764,12,32765
6.82593,-2.85773,0.00781848,12,32765
6.81628,-2.88067,0.00956,12,32765
6.75148,-2.87974,0.0112117,12,32765
6.76028,-2.90998,0.0125337,12,32765
6.68626,-2.90479,0.0139316,12,32765
6.72214,-2.94757,0.0169305,12,32765
6.6847,-2.95814,0.0185417,12,32765
6.63816,-2.96435,0.0190177,13,32765
6.59168,-2.97022,0.0211744,13,32765
6.58162,-2.99244,0.0227705,12,32765
6.57163,-3.01429,0.0249463,12,32765
6.51604,-3.01544,0.0264256,12,32765
1.15983,-0.541446,0.00510247,11,32765
1.158,-0.545356,0.00536308,13,32765
1.15615,-0.549251,0.00583288,15,32765
1.18134,-0.566115,0.0063735,15,32765
1.15242,-0.55703,0.00673106,15,32765
1.17753,-0.574001,0.00712018,15,32765
1.17557,-0.577994,0.00718844,15,32765
1.15569,-0.573085,0.00750478,15,32765
1.16268,-0.581479,0.00790031,15,32765
1.14284,-0.576411,0.00828716,15,32765
1.14087,-0.580289,0.00869021,15,32765
1.1389,-0.584153,0.00910164,15,32765
1.18136,-0.610895,0.010036,14,32765
1.21477,-0.633332,0.0107662,14,32765
1.14181,-0.600212,0.0105343,15,32765
1.16628,-0.618102,0.0113637,15,32765
1.09359,-0.58441,0.0112767,14,32765
1.12683,-0.607053,0.0122024,14,32765
1.14236,-0.62036,0.0125704,14,32765
1.11398,-0.609745,0.0127044,14,32765
1.14695,-0.632792,0.0135905,15,32765
1.14484,-0.636591,0.0139824,14,32765
1.18632,-0.664837,0.0150232,15,32765
1.12314,-0.634376,0.0147384,15,32765
1.13839,-0.648016,0.0153955,14,32765
1.11016,-0.636944,0.0154038,14,32765
1.14266,-0.66065,0.0163148,14,32765
1.09725,-0.639276,0.0161405,14,32765
1.12961,-0.663173,0.0171359,14,32765
1.11878,-0.661846,0.0173579,15,32765
1.06502,-0.634864,0.0168812,13,32765
1.12291,-0.674413,0.0183511,14,32765
1.1121,-0.672971,0.0185439,14,32765
1.13546,-0.692279,0.0193833,13,32765
1.09909,-0.67509,0.0191134,14,32765
1.12233,-0.694538,0.0199606,14,32765
1.11155,-0.692932,0.0202189,14,32765
1.05844,-0.66469,0.019746,14,32765
1.09848,-0.694919,0.0208716,13,32765
1.12991,-0.720019,0.0218655,13,32765
1.11068,-0.712961,0.0218704,13,32765
1.14194,-0.738273,0.0229096,13,32765
1.15631,-0.752851,0.023684,13,32765
1.14551,-0.751088,0.023777,13,32765
1.07632,-0.710717,0.0227806,12,32765
0,-0,0,0,32765
0,-0,0,0,32765
1.01118,-0.682211,0.0224193,12,32765
1.10815,-0.752983,0.0250074,12,32765
4.58771,-3.13934,0.105183,13,32765
0,-0,0,0,32765
4.59186,-3.18612,0.10768,20,32765
4.57333,-3.19519,0.108955,21,32765
4.53023,-3.18696,0.109076,20,32765
4.48726,-3.17845,0.109214,18,32765
4.55829,-3.25106,0.11235,19,32765
4.49092,-3.22491,0.111802,19,32765
4.43199,-3.20405,0.111506,17,32765
4.48644,-3.26519,0.113471,20,32765
4.37119,-3.20262,0.110721,20,32765
7.80857,-2.40042,-0.114434,11,32765
7.76249,-2.41427,-0.109349,11,32765
7.75463,-2.43955,-0.105538,11,32765
7.6609,-2.43765,-0.100578,12,32765
7.61476,-2.45076,-0.0959105,12,32765
7.60678,-2.47555,-0.0926458,12,32765
7.63669,-2.51285,-0.0903262,11,32765
7.55267,-2.51228,-0.0853161,12,32765
7.5444,-2.53707,-0.0829662,12,32765
7.47911,-2.54297,-0.079221,13,32765
7.48947,-2.57459,-0.0759597,13,32765
7.42412,-2.58009,-0.0721291,14,32765
7.45318,-2.61822,-0.0710143,14,32765
7.42562,-2.63629,-0.0672633,14,32765
7.34156,-2.63389,-0.0645193,14,32765
7.31412,-2.65111,-0.0606693,14,32765
7.32412,-2.68213,-0.0588612,14,32765
7.29656,-2.69916,-0.0564384,13,32765
7.22208,-2.69865,-0.0534483,14,32765
7.21313,-2.72256,-0.0507641,13,32765
7.16667,-2.73231,-0.0478439,13,32765
7.13867,-2.74952,-0.0456661,13,32765
7.11994,-2.77025,-0.0422892,13,32765
7.00808,-2.75428,-0.0398845,13,32765
7.11965,-2.82573,-0.0383063,12,32765
7.02666,-2.81597,-0.035382,12,32765
6.92443,-2.80215,-0.0326808,12,32765
6.88736,-2.81369,-0.0308355,12,32765
6.92416,-2.85575,-0.0291686,12,32765
6.91454,-2.87898,-0.0265588,12,32765
6.9048,-2.90229,-0.024304,12,32765
6.89495,-2.92562,-0.0228437,12,32765
6.80235,-2.91336,-0.0197527,12,32765
6.73734,-2.91265,-0.0173241,12,32765
6.72755,-2.9352,-0.015358,12,32765
6.77247,-2.9822,-0.014344,12,32765
6.72581,-2.9888,-0.0115467,12,32765
6.652,-2.98243,-0.00937476,12,32765
6.70581,-3.03342,-0.00734789,12,32765
0,-0,-0,0,32765
1.08086,-0.49783,-0.000541278,12,32765
1.08823,-0.50573,-0.000190972,14,32765
1.1499,-0.539097,0.000121622,15,32765
1.13908,-0.538614,0.000604471,15,32765
1.14629,-0.546734,0.000699057,15,32765
1.11744,-0.537526,0.00104717,15,32765
1.14262,-0.554357,0.00154928,15,32765
1.14074,-0.55823,0.00148466,14,32765
1.11196,-0.548765,0.00173855,15,32765
1.13696,-0.565869,0.00237851,15,32765
1.14402,-0.574127,0.00261398,15,32765
1.15102,-0.582443,0.00298154,15,32765
1.14014,-0.581785,0.00337541,15,32765
1.12925,-0.581095,0.00368867,15,32765
1.1095,-0.57575,0.00397985,15,32765
1.12527,-0.588762,0.00455481,15,32765
1.14098,-0.601862,0.00507557,15,32765
1.13013,-0.60098,0.00541265,14,32765
1.11923,-0.600164,0.00606703,14,32765
1.11723,-0.603871,0.00640278,14,32765
1.12397,-0.612405,0.00693143,14,32765
1.13068,-0.62097,0.00737308,14,32765
1.14609,-0.634447,0.00791281,14,32765
1.12651,-0.628503,0.00818183,15,32765
1.11569,-0.627338,0.00853882,15,32765
1.11363,-0.630987,0.00897888,15,32765
1.12888,-0.644626,0.0095131,15,32765
1.0574,-0.608462,0.00944267,14,32765
1.07267,-0.622002,0.0100518,14,32765
1.11377,-0.650773,0.0109001,15,32765
1.08572,-0.639287,0.0110791,14,32765
1.12657,-0.668426,0.0121009,14,32765
1.09859,-0.656766,0.0123017,14,32765
1.1221,-0.675886,0.0131125,14,32765
1.14551,-0.695131,0.0139735,14,32765
1.15174,-0.704118,0.0146229,13,32765
1.14942,-0.70789,0.0151672,14,32765
1.06211,-0.658939,0.0145995,14,32765
1.06844,-0.667679,0.0153583,15,32765
1.14241,-0.719106,0.0170454,14,32765
1.08094,-0.685338,0.0167449,13,32765
1.16292,-0.742753,0.0185464,13,32765
1.05957,-0.681624,0.0175934,13,32765
1.03215,-0.668774,0.0177702,13,32765
1.11368,-0.726794,0.0198669,13,32765
1.11127,-0.730452,0.0205324,13,32765
1.14218,-0.756204,0.0219005,13,32765
1.08975,-0.726691,0.0215055,13,32765
1.18695,-0.797161,0.0242308,13,32765
1.1512,-0.77862,0.0242912,12,32765
0,-0,0,0,32765
0,-0,0,0,32765
0,-0,0,0,32765
4.58033,-3.18509,0.110149,17,32765
4.61895,-3.23445,0.114918,20,32765
4.60015,-3.2437,0.117818,19,32765
4.64643,-3.29932,0.123076,19,32765
4.52174,-3.23297,0.123819,18,32765
4.51112,-3.24764,0.127562,17,32765
4.54917,-3.29723,0.133088,21,32765
4.50618,-3.28818,0.136379,17,32765
7.69077,-2.37045,-0.188445,11,32765
7.82617,-2.44048,-0.18739,11,32765
7.76104,-2.44799,-0.182199,11,32765
7.62923,-2.43396,-0.175509,11,32765
7.58315,-2.44699,-0.170478,11,32765
7.65122,-2.49655,-0.1689,12,32765
7.50066,-2.47456,-0.163014,12,32765
7.55908,-2.521,-0.160339,12,32765
7.53185,-2.53948,-0.157585,12,32765
7.47604,-2.54858,-0.15347,12,32765
7.57146,-2.60959,-0.152102,12,32765
7.48715,-2.6088,-0.147295,12,32765
7.43121,-2.61734,-0.144883,12,32765
7.42252,-2.64208,-0.141308,13,32765
7.31965,-2.63291,-0.137454,13,32765
7.31104,-2.65692,-0.133766,13,32765
7.30223,-2.68112,-0.131802,13,32765
7.29343,-2.70508,-0.129525,13,32765
7.26579,-2.7221,-0.12669,13,32765
7.21,-2.72852,-0.123185,13,32765
7.16354,-2.73828,-0.119884,13,32765
7.08889,-2.73751,-0.116745,13,32765
7.09817,-2.76903,-0.11374,13,32765
7.07008,-2.78595,-0.111623,13,32765
7.04213,-2.80231,-0.109082,12,32765
7.05132,-2.83329,-0.106881,12,32765
7.01393,-2.84584,-0.10419,12,32765
6.93046,-2.83876,-0.101358,12,32765
6.92094,-2.86195,-0.0994787,12,32765
6.86517,-2.86597,-0.0962173,12,32765
6.81861,-2.87364,-0.0934672,12,32765
6.89166,-2.93197,-0.093138,12,32765
6.83584,-2.93546,-0.0896796,12,32765
6.78913,-2.94282,-0.0869051,12,32765
6.77923,-2.9656,-0.0849176,12,32765
6.73253,-2.97249,-0.0833193,12,32765
6.74986,-3.00747,-0.0809229,11,32765
0,-0,-0,0,32765
0,-0,-0,0,32765
0,-0,-0,0,32765
0,-0,-0,0,32765
0,-0,-0,0,32765
1.14025,-0.536004,-0.0116942,14,32765
1.10233,-0.522638,-0.0108536,16,32765
1.10959,-0.530654,-0.0108545,17,32765
1.12584,-0.543027,-0.0106625,16,32765
1.15998,-0.564298,-0.0105184,16,32765
1.11317,-0.546215,-0.0101726,16,32765
1.1203,-0.554379,-0.00996228,16,32765
1.11843,-0.558154,-0.0093729,16,32765
1.08977,-0.548389,-0.00894029,15,32765
1.11469,-0.565594,-0.00882271,15,32765
1.07716,-0.551148,-0.0081452,15,32765
1.11082,-0.57317,-0.00807909,16,32765
1.0911,-0.567751,-0.00760506,15,32765
1.05376,-0.552856,-0.00687771,15,32765
1.09609,-0.579771,-0.00673404,15,32765
1.12062,-0.59756,-0.00652236,16,32765
1.10092,-0.591976,-0.00573301,15,32765
1.09895,-0.595631,-0.00540143,16,32765
1.04429,-0.570561,-0.00469655,14,32765
1.06865,-0.588527,-0.00444739,14,32765
1.10164,-0.611533,-0.00418291,15,32765
1.04724,-0.5859,-0.00362002,15,32765
1.0627,-0.599206,-0.00327856,15,32765
1.04334,-0.592811,-0.00281122,15,32765
1.08474,-0.621153,-0.00254843,15,32765
1.04803,-0.604759,-0.00195508,15,32765
1.05465,-0.613272,-0.00152317,15,32765
1.06124,-0.621824,-0.0011121,15,32765
1.05914,-0.625392,-0.000688827,15,32765
1.05704,-0.628939,-0.000141103,15,32765
1.04637,-0.62731,0.000316673,15,32765
1.09563,-0.661809,0.000843904,15,32765
1.07636,-0.655018,0.00135902,15,32765
1.09124,-0.669024,0.00189859,15,32765
1.04649,-0.646334,0.00232145,15,32765
1.03587,-0.644488,0.00284612,15,32765
1.01682,-0.637232,0.00341195,15,32765
1.1162,-0.704615,0.00433127,15,32765
1.05482,-0.670693,0.00467229,15,32765
1.02732,-0.658026,0.00499748,14,32765
1.00835,-0.65054,0.00554487,14,32765
1.04813,-0.681086,0.00638238,14,32765
1.04589,-0.684522,0.00699629,14,32765
1.03527,-0.682463,0.00756187,14,32765
1.07465,-0.713551,0.0085747,14,32765
1.05565,-0.70599,0.00898992,14,32765
1.01184,-0.681532,0.00928143,14,32765
1.05098,-0.712903,0.0103375,14,32765
1.01564,-0.693727,0.010694,14,32765
1.13696,-0.782026,0.0127619,13,32765
0,-0,0,0,32765
4.40438,-3.07169,0.0558875,18,32765
4.30422,-3.02289,0.0580907,19,32765
4.37594,-3.09466,0.0621552,17,32765
4.43082,-3.15547,0.0667071,18,32765
4.32297,-3.09994,0.0688438,19,32765
4.36143,-3.14912,0.0732465,18,32765
4.22993,-3.07489,0.0750696,19,32765
4.26033,-3.11796,0.0798018,17,32765
7.93121,-2.44116,-0.163263,11,32765
7.79909,-2.42832,-0.162274,11,32765
7.71481,-2.42967,-0.162714,12,32765
7.79265,-2.48194,-0.16438,12,32765
7.85105,-2.52898,-0.166934,12,32765
7.64302,-2.48984,-0.162899,12,32765
7.63475,-2.51501,-0.163945,12,32765
7.53144,-2.50892,-0.162358,12,32765
7.58005,-2.55273,-0.162572,12,32765
7.58106,-2.5809,-0.163199,12,32765
7.51597,-2.58587,-0.161113,13,32765
7.50749,-2.61034,-0.16173,13,32765
7.51773,-2.64181,-0.159864,13,32765
7.44285,-2.64366,-0.1582,14,32765
7.41505,-2.66208,-0.157341,14,32765
7.41548,-2.69039,-0.156559,15,32765
7.38782,-2.70793,-0.155371,15,32765
7.29449,-2.70101,-0.152767,14,32765
7.25752,-2.71442,-0.151249,13,32765
7.1736,-2.7104,-0.148829,13,32765
7.22992,-2.75931,-0.148771,12,32765
7.18329,-2.76924,-0.14731,12,32765
7.17399,-2.79333,-0.145309,12,32765
7.12749,-2.8025,-0.143191,12,32765
7.15532,-2.84094,-0.14287,12,32765
7.09024,-2.8423,-0.139504,12,32765
7.0807,-2.86602,-0.138698,11,32765
6.96931,-2.84806,-0.134874,11,32765
6.99674,-2.88663,-0.133888,11,32765
6.89457,-2.87204,-0.131019,11,32765
6.977,-2.93416,-0.130901,12,32765
6.93026,-2.9421,-0.128199,12,32765
6.92042,-2.96525,-0.126388,11,32765
6.94727,-3.00409,-0.12567,12,32765
6.81807,-2.97534,-0.12194,12,32765
0,-0,-0,0,32765
0,-0,-0,0,32765
1.11303,-0.499209,-0.0188124,12,32765
0,-0,-0,0,32765
0,-0,-0,0,32765
0.98988,-0.456059,-0.015725,12,32765
0.988365,-0.459339,-0.0155794,13,32765
1.05926,-0.496599,-0.0163441,15,32765
1.15701,-0.547185,-0.0175718,16,32765
1.15516,-0.551109,-0.0170755,16,32765
1.11726,-0.537646,-0.0162045,15,32765
1.11548,-0.541338,-0.0158163,16,32765
1.07774,-0.527491,-0.0152258,15,32765
1.067,-0.526677,-0.0145827,15,32765
1.07416,-0.534757,-0.0144659,15,32765
1.12595,-0.565353,-0.0148115,15,32765
1.09726,-0.555625,-0.0138749,16,32765
1.08645,-0.554837,-0.0132527,16,32765
1.08458,-0.55849,-0.0129653,15,32765
1.07383,-0.557528,-0.012519,15,32765
1.04538,-0.547218,-0.0119442,15,32765
1.07894,-0.569345,-0.0119103,15,32765
1.06818,-0.568289,-0.0113785,15,32765
1.09265,-0.586177,-0.010753,15,32765
1.09071,-0.589791,-0.0101905,14,32765
1.02724,-0.559988,-0.00917848,15,32765
1.05166,-0.577866,-0.00898081,15,32765
1.05847,-0.586229,-0.00861835,15,32765
1.02157,-0.570284,-0.00794326,15,32765
1.08067,-0.608014,-0.00803324,15,32765
1.04386,-0.59187,-0.0073269,15,32765
1.05922,-0.605305,-0.00705481,15,32765
1.03988,-0.598844,-0.00656126,15,32765
1.04653,-0.607316,-0.00617873,15,32765
1.03587,-0.605762,-0.00580005,16,32765
1.03385,-0.609204,-0.00535333,15,32765
1.00602,-0.597334,-0.00476605,15,32765
1.06409,-0.63663,-0.00470707,15,32765
1.01913,-0.61438,-0.00410918,15,32765
1.04269,-0.633387,-0.00379661,15,32765
1.01502,-0.621153,-0.00336439,14,32765
1.0385,-0.640238,-0.00299326,15,32765
1.04487,-0.648948,-0.00275177,15,32765
1.02581,-0.641724,-0.00227375,15,32765
0.981385,-0.618449,-0.00182619,14,32765
0.996243,-0.632374,-0.00146183,14,32765
1.05313,-0.673359,-0.00129012,15,32765
1.05931,-0.682245,-0.000869076,15,32765
1.00673,-0.653059,-0.000461491,14,32765
1.02968,-0.672799,-0.000113885,15,32765
1.00241,-0.659676,0.000172959,15,32765
0.991896,-0.657451,0.000542545,14,32765
0.989742,-0.660688,0.000834347,14,32765
1.01247,-0.680664,0.00117085,15,32765
1.05164,-0.712007,0.00150734,15,32765
1.00801,-0.687245,0.00185537,13,32765
0,-0,0,0,32765
0,-0,0,0,32765
4.34998,-3.0278,0.0114679,18,32765
0,-0,0,0,32765
4.26488,-3.00982,0.0135783,15,32765
0,-0,0,0,32765
4.25356,-3.04301,0.0153514,17,32765
0,-0,0,0,32765
4.23385,-3.07036,0.0166005,16,32765
0,-0,0,0,32765
7.93708,-2.4496,-0.241572,11,32765
7.80496,-2.43675,-0.239357,11,32765
7.72065,-2.43813,-0.239041,12,32765
7.82696,-2.49967,-0.242432,12,32765
7.79012,-2.51621,-0.24268,12,32765
7.73424,-2.52645,-0.241409,12,32765
7.64039,-2.52377,-0.239781,12,32765
7.55603,-2.52402,-0.237846,11,32765
7.67085,-2.59041,-0.240694,11,32765
7.5771,-2.58665,-0.238438,11,32765
7.51201,-2.59163,-0.235783,12,32765
7.52237,-2.62273,-0.236988,11,32765
7.4477,-2.62442,-0.23265,12,32765
7.43882,-2.64953,-0.232383,12,32765
7.4298,-2.67476,-0.231918,11,32765
7.43956,-2.7066,-0.231513,12,32765
7.43061,-2.73117,-0.230711,11,32765
7.4122,-2.75221,-0.229573,11,32765
7.20659,-2.70286,-0.22255,11,32765
7.32839,-2.77658,-0.225713,12,32765
7.22573,-2.76539,-0.221412,11,32765
7.21638,-2.78975,-0.22071,12,32765
7.33738,-2.86492,-0.222649,11,32765
7.03956,-2.77566,-0.212537,12,32765
7.15103,-2.84718,-0.215112,12,32765
7.18799,-2.88954,-0.214219,12,32765
7.07639,-2.8723,-0.210366,12,32765
7.18702,-2.94527,-0.212055,11,32765
7.02012,-2.9044,-0.2057,12,32765
7.0194,-2.93226,-0.204843,12,32765
6.99103,-2.94833,-0.202422,11,32765
0,-0,-0,0,32765
0,-0,-0,0,32765
0,-0,-0,0,32765
0,-0,-0,0,32765
0.969336,-0.428092,-0.0269093,12,32765
1.06832,-0.476154,-0.0294275,14,32765
1.012,-0.455183,-0.0275193,15,32765
1.02868,-0.466865,-0.0275787,15,32765
1.04527,-0.478682,-0.0278205,16,32765
1.05274,-0.486397,-0.0276038,16,32765
1.01487,-0.473001,-0.0265014,16,32765
1.08567,-0.510432,-0.0280049,15,32765
1.03878,-0.492672,-0.0265596,16,32765
1.06417,-0.509149,-0.026794,15,32765
1.04444,-0.504042,-0.0260232,15,32765
1.06974,-0.520628,-0.0263228,16,32765
1.05004,-0.51541,-0.0258009,15,32765
1.02144,-0.505632,-0.0246439,15,32765
1.01971,-0.509109,-0.0244155,15,32765
1.05368,-0.530593,-0.0249174,16,32765
1.01623,-0.516073,-0.0235306,15,32765
0.98776,-0.505892,-0.0224471,15,32765
1.03935,-0.536747,-0.0233837,15,32765
1.01094,-0.526397,-0.0224627,15,32765
1.00032,-0.52515,-0.0220114,15,32765
1.02509,-0.5425,-0.0221776,15,32765
1.01443,-0.541262,-0.0215727,15,32765
1.00375,-0.540054,-0.02055,15,32765
0.993176,-0.538616,-0.0198562,15,32765
1.04398,-0.570773,-0.0204653,15,32765
1.03331,-0.569444,-0.0198665,15,32765
1.0314,-0.57291,-0.0194389,15,32765
1.02075,-0.571495,-0.0188829,15,32765
1.00142,-0.565081,-0.0182018,14,32765
0.982162,-0.558527,-0.0174631,15,32765
0.988952,-0.566812,-0.0172482,15,32765
0.995721,-0.575108,-0.0170362,16,32765
0.985164,-0.573394,-0.0164751,15,32765
0.965992,-0.566574,-0.0158792,15,32765
0.981321,-0.579968,-0.0157373,15,32765
1.00515,-0.598596,-0.0156969,15,32765
0.986001,-0.59167,-0.0151082,15,32765
1.00113,-0.605329,-0.0149686,15,32765
1.03324,-0.629521,-0.0150663,15,32765
0.980028,-0.601539,-0.0139906,15,32765
1.01206,-0.62581,-0.0140313,15,32765
0.967545,-0.60273,-0.013194,15,32765
0.990996,-0.621815,-0.0131211,15,32765
0.99739,-0.630435,-0.0128723,15,32765
0.944712,-0.60148,-0.0118409,15,32765
0.98481,-0.631587,-0.0121263,15,32765
0.890327,-0.575156,-0.0106222,15,32765
0.921962,-0.599893,-0.0106862,15,32765
0.945059,-0.619395,-0.0106465,16,32765
0.926332,-0.611478,-0.010194,16,32765
0.974273,-0.647754,-0.010379,15,32765
0.997075,-0.667634,-0.0103495,15,32765
0.986589,-0.665314,-0.00995419,13,32765
1.00095,-0.679786,-0.00984519,13,32765
0,-0,-0,0,32765
0,-0,-0,0,32765
4.03469,-2.79787,-0.0363609,16,32765
4.05847,-2.83374,-0.0354173,15,32765
4.08194,-2.86996,-0.0348031,16,32765
4.03997,-2.86007,-0.0332399,14,32765
4.05506,-2.89064,-0.0327407,16,32765
4.04582,-2.90357,-0.0317652,15,32765
4.05284,-2.92806,-0.0310046,18,32765
4.00273,-2.912,-0.0303785,17,32765
3.95288,-2.89549,-0.0293698,16,32765
8.06233,-2.4704,-0.359862,13,32765
7.93024,-2.45867,-0.349868,13,32765
7.96066,-2.49591,-0.347619,12,32765
7.87663,-2.49718,-0.340037,12,32765
7.83046,-2.51093,-0.334675,12,32765
7.79362,-2.52794,-0.330038,12,32765
7.79484,-2.55693,-0.326614,11,32765
7.83393,-2.59829,-0.325646,11,32765
7.66456,-2.56965,-0.315412,11,32765
7.60891,-2.57866,-0.310874,11,32765
7.68568,-2.63255,-0.311259,11,32765
7.55426,-2.61551,-0.303647,11,32765
7.5455,-2.64103,-0.300774,11,32765
0,-0,-0,0,32765
7.42399,-2.65557,-0.290551,11,32765
7.60314,-2.74841,-0.294411,11,32765
0,-0,-0,0,32765
7.37849,-2.72313,-0.281657,11,32765
7.36958,-2.74752,-0.278141,11,32765
7.3791,-2.77933,-0.276139,11,32765
7.36981,-2.8041,-0.27393,11,32765
7.30444,-2.80743,-0.269172,11,32765
7.29513,-2.83174,-0.266974,11,32765
7.28575,-2.85604,-0.264324,11,32765
7.15545,-2.83254,-0.257503,11,32765
7.14596,-2.85664,-0.254616,11,32765
7.17337,-2.8959,-0.253358,11,32765
0,-0,-0,0,32765
0,-0,-0,0,32765
0,-0,-0,0,32765
0,-0,-0,0,32765
0,-0,-0,0,32765
0.937431,-0.40079,-0.0314686,11,32765
1.0095,-0.435648,-0.0335692,13,32765
1.01718,-0.443081,-0.0335236,14,32765
1.0157,-0.446504,-0.0331155,15,32765
1.0142,-0.449921,-0.0327741,15,32765
1.06742,-0.47785,-0.0342091,15,32765
1.05672,-0.477295,-0.0337588,16,32765
1.0551,-0.480875,-0.0333586,15,32765
1.07165,-0.492794,-0.0334367,15,32765
1.05186,-0.487995,-0.0324922,15,32765
0.995878,-0.466152,-0.0304875,15,32765
1.08468,-0.512236,-0.0329034,15,32765
1.0288,-0.490122,-0.0308504,15,32765
1.02716,-0.493578,-0.0304383,15,32765
1.07947,-0.523206,-0.0317314,16,32765
1.04177,-0.509304,-0.0302633,15,32765
1.00419,-0.495142,-0.0289339,15,32765
1.03831,-0.516378,-0.0295832,15,32765
1.00083,-0.50194,-0.0282203,15,32765
1.05266,-0.532393,-0.0292961,15,32765
1.07758,-0.549586,-0.0296979,16,32765
1.05794,-0.544093,-0.028832,15,32765
1.02947,-0.533877,-0.027788,15,32765
1.01884,-0.53267,-0.0270826,15,32765
0.999362,-0.526775,-0.0261439,15,32765
0.988779,-0.525414,-0.025636,15,32765
1.0311,-0.552296,-0.0263679,15,32765
