x, y, z, intensity, ring
4.51167,3.00286,0.0638268,14,32765
4.52181,2.98763,0.0605556,14,32765
4.4564,2.92339,0.0561594,15,32765
0,0,0,0,32765
4.61828,2.98644,0.0515847,14,32765
0,0,0,0,32765
4.59588,2.92889,0.0447221,15,32765
0,0,0,0,32765
4.5561,2.86092,0.0380192,14,32765
0,0,0,0,32765
4.55793,2.82026,0.0317879,14,32765
0,0,0,0,32765
4.57654,2.79002,0.0261055,14,32765
0,0,0,0,32765
0,0,0,0,32765
0,0,0,0,32765
4.71687,2.78951,0.0149471,14,32765
0,0,0,0,32765
4.80455,2.79818,0.00959323,15,32765
4.71854,2.72724,0.00651359,13,32765
4.77091,2.7365,0.00372899,14,32765
0,0,0,0,32765
4.84145,2.73386,-0.00157491,15,32765
0,0,-0,0,32765
4.76374,2.6475,-0.00627835,15,32765
4.78122,2.63657,-0.00870994,14,32765
4.83389,2.64452,-0.0113279,15,32765
4.81626,2.61416,-0.0136423,14,32765
4.78093,2.57436,-0.0160167,15,32765
0,0,-0,0,32765
4.88642,2.58909,-0.0208629,14,32765
0,0,-0,0,32765
4.7705,2.48716,-0.0266706,14,32765
0,0,-0,0,32765
4.92051,2.52358,-0.0319916,13,32765
0,0,-0,0,32765
4.99112,2.51703,-0.0377763,14,32765
0,0,-0,0,32765
4.98129,2.46954,-0.0418729,15,32765
4.8909,2.40411,-0.04365,13,32765
0,0,-0,0,32765
0,0,-0,0,32765
5.04991,2.41983,-0.0529399,15,32765
0,0,-0,0,32765
5.01201,2.35976,-0.0533332,15,32765
0,0,-0,0,32765
5.10941,2.36375,-0.0590883,14,32765
0,0,-0,0,32765
0,0,-0,0,32765
0,0,-0,0,32765
5.23194,2.33555,-0.069902,15,32765
0,0,-0,0,32765
0,0,-0,0,32765
5.16334,2.24302,-0.0752942,13,32765
5.17084,2.2256,-0.0777951,13,32765
5.22416,2.228,-0.0810103,14,32765
0,0,-0,0,32765
4.99914,2.09244,-0.0817795,14,32765
0,0,-0,0,32765
5.30898,2.18034,-0.0918086,14,32765
5.24212,2.13241,-0.0928925,15,32765
5.33258,2.14866,-0.0966312,14,32765
5.22821,2.08643,-0.0974974,14,32765
0,0,-0,0,32765
0,0,-0,0,32765
5.41615,2.09994,-0.10821,14,32765
0,0,-0,0,32765
0,0,-0,0,32765
0,0,-0,0,32765
5.24645,1.95492,-0.114339,23,32765
5.19647,1.91697,-0.116049,22,32765
5.2215,1.90666,-0.118867,22,32765
5.24652,1.89619,-0.122095,27,32765
5.29021,1.8927,-0.125412,28,32765
5.23982,1.85522,-0.126836,22,32765
5.19855,1.82173,-0.128268,20,32765
5.23269,1.81471,-0.131764,25,32765
5.08716,1.74589,-0.130698,20,32765
5.13047,1.74259,-0.134365,20,32765
5.07913,1.70691,-0.136049,18,32765
5.04653,1.67808,-0.137558,19,32765
4.94739,1.62741,-0.137663,20,32765
5.00953,1.63011,-0.142327,22,32765
5.04303,1.62369,-0.146365,18,32765
4.93371,1.57147,-0.146223,17,32765
5.01488,1.57973,-0.151861,15,32765
0,0,-0,0,32765
4.37076,3.22125,0.0695783,17,32765
4.31689,3.15958,0.0634618,17,32765
4.4163,3.21003,0.0602481,18,32765
4.38648,3.16605,0.0550596,16,32765
4.42135,3.169,0.0514665,15,32765
4.42385,3.14838,0.046677,17,32765
4.3037,3.04127,0.041829,18,32765
4.44479,3.11885,0.0388147,17,32765
4.49622,3.1326,0.0350764,18,32765
4.44888,3.07808,0.0313897,16,32765
4.5331,3.11452,0.0282526,16,32765
4.46899,3.04888,0.0241326,17,32765
4.45414,3.01739,0.020088,17,32765
4.4562,2.99649,0.016665,17,32765
4.55773,3.04259,0.0133936,16,32765
4.55132,3.01611,0.0100445,15,32765
4.56125,3.00109,0.0065666,16,32765
4.58774,2.99717,0.00339339,17,32765
4.50536,2.92209,0.000233718,17,32765
4.59899,2.96145,-0.00287109,17,32765
4.52468,2.89207,-0.0060753,17,32765
4.6441,2.94656,-0.00960924,16,32765
4.63701,2.92034,-0.0124517,15,32765
4.58736,2.86776,-0.0152195,17,32765
4.52876,2.81049,-0.0181757,18,32765
4.6232,2.84788,-0.0215016,16,32765
4.71793,2.88469,-0.02473,17,32765
4.7104,2.85858,-0.0276418,17,32765
4.63434,2.79108,-0.0299917,17,32765
4.71234,2.81654,-0.0335073,16,32765
4.696,2.7853,-0.0361356,17,32765
4.73122,2.78462,-0.0389927,16,32765
4.75768,2.77899,-0.0419979,17,32765
4.61977,2.67795,-0.043538,15,32765
4.79329,2.75735,-0.0479515,16,32765
4.7504,2.71148,-0.0498214,16,32765
4.79431,2.71512,-0.053084,18,32765
4.79481,2.69384,-0.0550987,17,32765
4.79515,2.67269,-0.0576704,16,32765
4.80396,2.65678,-0.0601084,16,32765
4.90049,2.68871,-0.063783,16,32765
4.88303,2.65806,-0.0658561,16,32765
4.80388,2.59419,-0.0671888,17,32765
4.86545,2.60629,-0.0706548,17,32765
4.84763,2.57593,-0.0720856,17,32765
4.98005,2.6249,-0.076607,17,32765
4.91777,2.57132,-0.0794561,17,32765
4.98843,2.58712,-0.0825536,16,32765
4.91709,2.52906,-0.0837563,15,32765
0,0,-0,0,32765
4.96983,2.51348,-0.0897888,15,32765
5.02309,2.51879,-0.0928965,16,32765
4.92418,2.44822,-0.0929225,16,32765
4.99521,2.4624,-0.0967723,16,32765
4.97636,2.4326,-0.0993537,17,32765
5.1014,2.47257,-0.104767,16,32765
5.10062,2.45111,-0.106523,17,32765
5.08185,2.42077,-0.107787,17,32765
4.99067,2.35639,-0.104857,16,32765
5.18867,2.42861,-0.111785,16,32765
5.1152,2.37314,-0.112042,18,32765
5.04141,2.31819,-0.11245,17,32765
5.131,2.33855,-0.116694,15,32765
5.20262,2.34996,-0.120731,17,32765
5.11915,2.29167,-0.121021,16,32765
0,0,-0,0,32765
5.18014,2.27724,-0.126257,15,32765
5.14182,2.23998,-0.127622,15,32765
5.14012,2.21863,-0.129886,15,32765
5.18419,2.2172,-0.133324,15,32765
5.21916,2.21147,-0.136713,16,32765
5.17125,2.17059,-0.137257,16,32765
0,0,-0,0,32765
5.21335,2.14711,-0.143108,15,32765
5.29451,2.15981,-0.14753,15,32765
5.33867,2.15718,-0.150831,15,32765
5.25294,2.10222,-0.151114,16,32765
5.30618,2.10349,-0.154577,16,32765
5.28518,2.07478,-0.156648,18,32765
5.32911,2.07203,-0.160204,17,32765
5.4011,2.07966,-0.165151,21,32765
5.39856,2.05816,-0.167197,22,32765
5.2837,1.99436,-0.165962,21,32765
5.28085,1.97331,-0.168088,25,32765
5.23096,1.93516,-0.169258,20,32765
5.26541,1.92814,-0.172592,24,32765
5.39384,1.95496,-0.179475,27,32765
5.29657,1.90035,-0.178485,28,32765
5.34041,1.89621,-0.182573,26,32765
5.32758,1.87225,-0.18457,26,32765
5.29577,1.84181,-0.186098,24,32765
5.25435,1.8084,-0.187274,26,32765
5.24106,1.78523,-0.189358,26,32765
5.22775,1.76187,-0.191942,26,32765
5.11001,1.70405,-0.189981,24,32765
5.1059,1.68436,-0.192676,23,32765
5.04466,1.64625,-0.193273,24,32765
5.0021,1.61514,-0.194659,21,32765
4.95943,1.58421,-0.196,23,32765
4.92623,1.55628,-0.197819,27,32765
5.02647,1.57013,-0.205335,27,32765
0,0,0,0,32765
0,0,0,0,32765
4.33617,3.15075,0.00489873,12,32765
0,0,0,0,32765
4.34855,3.1165,0.00147472,13,32765
4.33462,3.08439,-0.000387948,13,32765
4.31219,3.04687,-0.00208046,13,32765
0,0,-0,0,32765
0,0,-0,0,32765
0,0,-0,0,32765
4.36005,2.99565,-0.0101177,14,32765
0,0,-0,0,32765
4.46273,3.02257,-0.0151576,15,32765
0,0,-0,0,32765
4.50818,3.00871,-0.0191622,14,32765
0,0,-0,0,32765
4.46969,2.94003,-0.0236805,14,32765
0,0,-0,0,32765
4.46388,2.89402,-0.0285588,13,32765
4.60806,2.96567,-0.0318542,14,32765
0,0,-0,0,32765
4.62778,2.93475,-0.036357,14,32765
0,0,-0,0,32765
4.60467,2.87754,-0.0404632,15,32765
0,0,-0,0,32765
0,0,-0,0,32765
0,0,-0,0,32765
4.65133,2.82067,-0.0502736,16,32765
0,0,-0,0,32765
4.65296,2.77907,-0.0556216,14,32765
0,0,-0,0,32765
4.79216,2.81868,-0.0619443,15,32765
0,0,-0,0,32765
4.68991,2.71604,-0.065149,14,32765
4.79442,2.75493,-0.0691217,14,32765
4.74282,2.70411,-0.0711082,14,32765
0,0,-0,0,32765
0,0,-0,0,32765
0,0,-0,0,32765
4.97089,2.74691,-0.084687,14,32765
0,0,-0,0,32765
4.85738,2.6418,-0.0875441,14,32765
0,0,-0,0,32765
0,0,-0,0,32765
0,0,-0,0,32765
4.83063,2.5431,-0.0961703,14,32765
4.84795,2.53147,-0.0996001,13,32765
4.95405,2.56573,-0.104105,13,32765
0,0,-0,0,32765
4.88212,2.48673,-0.107272,13,32765
0,0,-0,0,32765
4.96135,2.48486,-0.113799,16,32765
0,0,-0,0,32765
4.80748,2.3674,-0.114606,14,32765
0,0,-0,0,32765
5.14718,2.49171,-0.12787,13,32765
0,0,-0,0,32765
4.91085,2.33693,-0.125983,15,32765
0,0,-0,0,32765
5.06204,2.36767,-0.134244,14,32765
0,0,-0,0,32765
4.97793,2.28738,-0.13604,14,32765
0,0,-0,0,32765
4.97496,2.24534,-0.140582,14,32765
0,0,-0,0,32765
0,0,-0,0,32765
0,0,-0,0,32765
4.9128,2.13834,-0.146485,14,32765
0,0,-0,0,32765
5.14749,2.1997,-0.157179,15,32765
0,0,-0,0,32765
5.31864,2.23102,-0.16599,17,32765
5.23365,2.17497,-0.165247,18,32765
5.21294,2.14645,-0.166143,20,32765
5.1274,2.09142,-0.165215,18,32765
5.28247,2.13449,-0.17171,24,32765
5.20596,2.0835,-0.17059,21,32765
5.28717,2.09558,-0.17458,21,32765
5.21026,2.04526,-0.173368,20,32765
5.18907,2.01694,-0.174317,21,32765
5.24223,2.01788,-0.177728,23,32765
5.23009,1.99356,-0.178458,23,32765
5.24593,1.97986,-0.180247,25,32765
5.23353,1.95589,-0.180882,21,32765
5.08994,1.88308,-0.17718,23,32765
5.28378,1.93498,-0.185395,26,32765
5.16797,1.87322,-0.182149,22,32765
5.21169,1.86969,-0.184639,22,32765
5.19895,1.84583,-0.184946,19,32765
5.25212,1.8452,-0.188116,21,32765
5.22032,1.81491,-0.187884,23,32765
5.14111,1.76866,-0.185627,24,32765
5.23195,1.78095,-0.18923,21,32765
5.14289,1.73227,-0.186445,21,32765
5.01576,1.67117,-0.182854,20,32765
5.02108,1.65506,-0.183344,21,32765
4.9123,1.60189,-0.179455,18,32765
4.92684,1.5894,-0.180034,20,32765
4.93188,1.57374,-0.17987,22,32765
4.91798,1.55139,-0.179588,19,32765
4.99925,1.55945,-0.182171,18,32765
4.39846,3.25155,-0.0430159,16,32765
4.30458,3.1598,-0.0432714,16,32765
4.31496,3.14558,-0.0448076,16,32765
0,0,-0,0,32765
4.40041,3.16392,-0.0489516,15,32765
4.39481,3.13736,-0.0506599,15,32765
4.47866,3.17472,-0.0532738,16,32765
4.41558,3.108,-0.0545541,16,32765
4.43384,3.09934,-0.0567029,17,32765
4.46868,3.10179,-0.0586074,17,32765
4.5282,3.12115,-0.0617479,17,32765
0,0,-0,0,32765
4.30906,2.92781,-0.0631899,15,32765
4.60911,3.10884,-0.069513,17,32765
4.48681,3.00395,-0.0694127,15,32765
4.57191,3.03849,-0.0731564,17,32765
4.56519,3.01235,-0.0751965,16,32765
4.47476,2.93143,-0.0759545,16,32765
4.53474,2.94923,-0.0794784,15,32765
4.60336,2.97197,-0.0829488,16,32765
4.61325,2.95653,-0.0852383,17,32765
4.57251,2.90879,-0.0865053,15,32765
0,0,-0,0,32765
4.61705,2.89429,-0.0914495,15,32765
0,0,-0,0,32765
4.78937,2.95785,-0.0997916,17,32765
4.62025,2.83197,-0.0981877,16,32765
4.6981,2.85788,-0.102153,17,32765
4.70763,2.84204,-0.105107,17,32765
4.66568,2.79529,-0.106602,16,32765
4.78671,2.84602,-0.111613,17,32765
4.7446,2.79932,-0.112826,15,32765
4.81442,2.81854,-0.116607,16,32765
4.74607,2.75702,-0.117253,17,32765
4.71204,2.71591,-0.118797,16,32765
4.74714,2.71489,-0.122324,15,32765
4.82567,2.73851,-0.126498,17,32765
4.75636,2.67816,-0.126919,18,32765
4.74774,2.65253,-0.12905,18,32765
4.81778,2.67044,-0.13363,16,32765
4.90555,2.6975,-0.138095,16,32765
4.80041,2.61878,-0.137708,17,32765
4.82687,2.61182,-0.14057,17,32765
4.92375,2.64265,-0.145623,17,32765
4.79138,2.55085,-0.143976,16,32765
4.89716,2.58595,-0.149366,16,32765
4.86147,2.54624,-0.151288,15,32765
4.90543,2.54826,-0.154875,16,32765
0,0,-0,0,32765
4.91357,2.51033,-0.159672,16,32765
0,0,-0,0,32765
4.97504,2.49925,-0.166303,16,32765
0,0,-0,0,32765
5.04544,2.49209,-0.173043,17,32765
5.00889,2.45296,-0.174272,16,32765
4.99008,2.42295,-0.175994,17,32765
5.06115,2.43652,-0.180409,17,32765
5.08724,2.42816,-0.18339,19,32765
5.06813,2.39834,-0.184641,20,32765
5.13938,2.41108,-0.189563,21,32765
5.05679,2.35146,-0.189477,21,32765
5.11917,2.35935,-0.192804,23,32765
5.13625,2.3459,-0.195484,24,32765
5.10758,2.31212,-0.196964,26,32765
5.14276,2.30685,-0.200038,25,32765
5.09566,2.26508,-0.200103,27,32765
5.08476,2.2401,-0.20188,26,32765
5.05552,2.20706,-0.202551,24,32765
5.12692,2.21809,-0.207169,24,32765
5.12515,2.19672,-0.208881,25,32765
5.12324,2.17554,-0.210486,25,32765
5.11195,2.15074,-0.211652,23,32765
5.09133,2.12216,-0.212589,24,32765
5.07971,2.09785,-0.213549,24,32765
5.07731,2.07719,-0.215164,25,32765
5.08405,2.06046,-0.216828,25,32765
5.04446,2.0249,-0.2164,26,32765
5.06042,2.01171,-0.218294,27,32765
5.06698,1.99496,-0.219806,25,32765
5.08288,1.98156,-0.222053,28,32765
5.04268,1.94687,-0.221801,26,32765
5.06766,1.93741,-0.223946,27,32765
5.09265,1.92775,-0.226203,25,32765
5.09882,1.91123,-0.227453,25,32765
5.02076,1.86302,-0.225157,25,32765
5.02683,1.84638,-0.226768,25,32765
5.12678,1.86383,-0.23203,28,32765
5.06705,1.82322,-0.230193,26,32765
5.06359,1.80313,-0.230719,27,32765
5.0412,1.77637,-0.230871,26,32765
5.11297,1.78288,-0.234993,27,32765
5.05262,1.74339,-0.232749,28,32765
5.0866,1.73663,-0.234576,25,32765
5.0448,1.70429,-0.233025,24,32765
5.05032,1.68769,-0.234254,25,32765
5.03673,1.66515,-0.23387,24,32765
5.00402,1.63665,-0.232387,24,32765
5.00918,1.62077,-0.232627,25,32765
4.95724,1.58653,-0.229818,23,32765
4.91483,1.55499,-0.228029,28,32765
4.90074,1.53325,-0.226951,26,32765
4.28368,3.15469,-0.0192715,14,32765
0,0,-0,0,32765
4.3125,3.13215,-0.0292581,14,32765
0,0,-0,0,32765
4.2192,3.02209,-0.0367535,14,32765
0,0,-0,0,32765
4.46787,3.15543,-0.0476673,15,32765
0,0,-0,0,32765
4.44766,3.09704,-0.0553896,15,32765
4.34253,3.00292,-0.0580565,14,32765
4.42644,3.03967,-0.0626206,13,32765
4.39511,2.99685,-0.0657723,13,32765
4.50448,3.04931,-0.070633,15,32765
0,0,-0,0,32765
4.55835,3.04066,-0.0792344,14,32765
0,0,-0,0,32765
4.33614,2.85083,-0.082111,14,32765
0,0,-0,0,32765
0,0,-0,0,32765
0,0,-0,0,32765
0,0,-0,0,32765
0,0,-0,0,32765
4.61984,2.90815,-0.106331,14,32765
0,0,-0,0,32765
0,0,-0,0,32765
0,0,-0,0,32765
4.72631,2.88774,-0.120874,15,32765
0,0,-0,0,32765
4.65125,2.79912,-0.125327,15,32765
0,0,-0,0,32765
4.69562,2.78306,-0.131557,14,32765
0,0,-0,0,32765
4.65356,2.71626,-0.135666,15,32765
0,0,-0,0,32765
4.74085,2.72484,-0.143286,15,32765
0,0,-0,0,32765
4.7155,2.66807,-0.147954,14,32765
0,0,-0,0,32765
4.73315,2.6363,-0.153598,14,32765
0,0,-0,0,32765
4.89947,2.68635,-0.163559,14,32765
0,0,-0,0,32765
4.88182,2.63479,-0.16787,14,32765
0,0,-0,0,32765
4.78435,2.54125,-0.168627,14,32765
0,0,-0,0,32765
4.82775,2.52285,-0.174921,13,32765
0,0,-0,0,32765
4.94253,2.53996,-0.183217,18,32765
0,0,-0,0,32765
4.9418,2.49702,-0.187383,18,32765
4.96804,2.48914,-0.190752,22,32765
4.94951,2.4589,-0.192465,21,32765
4.91288,2.42007,-0.193082,19,32765
4.89393,2.39041,-0.194479,23,32765
4.95588,2.39994,-0.198999,21,32765
5.01794,2.4091,-0.203621,26,32765
4.9538,2.35778,-0.202169,24,32765
4.92548,2.32398,-0.203209,24,32765
4.92406,2.30325,-0.205577,25,32765
4.86823,2.25721,-0.205518,25,32765
4.97564,2.28661,-0.211724,22,32765
4.86491,2.21616,-0.209291,22,32765
4.86321,2.19551,-0.211041,21,32765
4.95255,2.21587,-0.216881,21,32765
4.91423,2.17889,-0.217291,21,32765
4.9123,2.15831,-0.218803,24,32765
4.89196,2.12979,-0.219851,21,32765
4.88065,2.10536,-0.221542,21,32765
4.86921,2.08116,-0.222731,21,32765
4.91291,2.08017,-0.227559,21,32765
4.83688,2.02885,-0.225519,21,32765
4.83437,2.00865,-0.22757,22,32765
4.8964,2.01524,-0.232602,18,32765
4.81969,1.96504,-0.230918,19,32765
4.86313,1.96402,-0.234791,23,32765
4.85084,1.94069,-0.236547,20,32765
4.78285,1.89517,-0.234964,19,32765
4.62169,1.81342,-0.228957,16,32765
4.77657,1.85586,-0.238754,21,32765
4.78268,1.83975,-0.241159,21,32765
4.63928,1.76704,-0.23576,16,32765
4.78513,1.80462,-0.24559,24,32765
4.73476,1.76799,-0.244649,21,32765
4.67484,1.72817,-0.243753,18,32765
4.83984,1.77105,-0.25479,20,32765
4.6578,1.68689,-0.246721,17,32765
4.69143,1.68159,-0.250773,18,32765
4.69685,1.66597,-0.253523,16,32765
4.68322,1.64414,-0.255272,17,32765
4.69785,1.63216,-0.258158,17,32765
4.73125,1.62686,-0.262217,22,32765
4.70794,1.60207,-0.26278,21,32765
4.69402,1.58042,-0.26457,21,32765
4.69903,1.56498,-0.267526,18,32765
4.64709,1.53072,-0.267366,17,32765
4.65185,1.51573,-0.269851,17,32765
4.70397,1.51639,-0.275182,18,32765
4.68947,1.49567,-0.27705,17,32765
4.68441,1.47802,-0.279596,18,32765
4.53637,1.41566,-0.273592,17,32765
4.33461,3.20288,-0.0696368,15,32765
4.36943,3.20606,-0.0753824,16,32765
4.3152,3.14458,-0.0789666,17,32765
4.44705,3.21815,-0.0858136,16,32765
4.33576,3.11594,-0.0874776,16,32765
4.36231,3.11309,-0.0924867,16,32765
4.45421,3.15626,-0.098366,16,32765
4.56282,3.21032,-0.104537,16,32765
4.4668,3.12071,-0.106398,15,32765
4.46866,3.1004,-0.110428,15,32765
4.43753,3.05739,-0.113006,15,32765
4.4228,3.02572,-0.116144,15,32765
4.43289,3.01079,-0.119476,15,32765
4.53438,3.05686,-0.126085,16,32765
4.41166,2.95253,-0.126202,15,32765
4.61297,3.06493,-0.135441,16,32765
4.55631,3.00546,-0.137213,18,32765
4.60787,3.01788,-0.141621,17,32765
4.55065,2.95905,-0.143053,18,32765
4.57712,2.95481,-0.146944,17,32765
4.59513,2.94512,-0.150625,17,32765
4.6302,2.94573,-0.155085,16,32765
4.63141,2.92499,-0.157765,17,32765
4.70044,2.94646,-0.163442,17,32765
4.64224,2.88856,-0.163564,17,32765
4.65179,2.87294,-0.1674,16,32765
4.68686,2.87298,-0.171251,16,32765
4.62802,2.81568,-0.172508,16,32765
4.75725,2.87224,-0.180146,16,32765
4.70678,2.82025,-0.180364,16,32765
4.66462,2.77367,-0.18145,14,32765
4.75989,2.80874,-0.187925,16,32765
4.68293,2.74227,-0.187299,16,32765
4.74387,2.7566,-0.192258,16,32765
4.79627,2.76562,-0.196781,16,32765
4.7795,2.7344,-0.198751,18,32765
4.77123,2.70833,-0.201069,18,32765
4.76282,2.6824,-0.202973,21,32765
4.79786,2.68097,-0.207172,22,32765
4.81542,2.66978,-0.210143,25,32765
4.86801,2.67769,-0.214558,23,32765
4.83294,2.63749,-0.215532,25,32765
4.8679,2.63572,-0.219267,26,32765
4.88542,2.62409,-0.22205,25,32765
4.84992,2.58434,-0.222451,26,32765
4.86728,2.57271,-0.225511,27,32765
4.83162,2.53296,-0.226213,26,32765
4.78697,2.48876,-0.225865,27,32765
4.78652,2.46766,-0.227942,24,32765
4.78593,2.44672,-0.22981,22,32765
4.82988,2.44826,-0.233941,24,32765
4.76667,2.39586,-0.233078,25,32765
4.77467,2.37961,-0.235731,23,32765
4.79156,2.36782,-0.238477,22,32765
4.71864,2.31213,-0.236839,24,32765
4.71737,2.29171,-0.238659,23,32765
4.73401,2.28001,-0.241436,23,32765
4.75966,2.27257,-0.243776,23,32765
4.74915,2.2479,-0.245281,24,32765
4.72035,2.21497,-0.24605,22,32765
4.73674,2.20322,-0.249045,27,32765
4.77131,2.19967,-0.252394,28,32765
4.76033,2.1754,-0.253974,22,32765
4.7494,2.15094,-0.255102,24,32765
4.52871,2.03266,-0.244978,17,32765
4.48981,1.99702,-0.244718,18,32765
4.6518,2.05033,-0.254993,23,32765
4.74095,2.07059,-0.261709,24,32765
4.6928,2.03074,-0.2611,24,32765
4.6903,2.01104,-0.262544,24,32765
4.57747,1.94428,-0.258802,20,32765
4.5747,1.92496,-0.259985,20,32765
4.59949,1.91713,-0.263398,20,32765
4.50425,1.85973,-0.259829,19,32765
4.53802,1.85608,-0.263564,20,32765
4.52554,1.83348,-0.26445,20,32765
4.54991,1.82608,-0.268022,21,32765
4.56512,1.81464,-0.270516,21,32765
4.53391,1.78463,-0.270486,22,32765
4.56763,1.78032,-0.274473,22,32765
4.53622,1.7505,-0.274523,20,32765
4.49524,1.71763,-0.273766,20,32765
4.47272,1.69218,-0.274604,21,32765
4.48748,1.681,-0.277018,20,32765
4.53029,1.68008,-0.281743,21,32765
4.48882,1.64785,-0.281371,20,32765
4.46605,1.62261,-0.281346,21,32765
4.52761,1.62807,-0.287367,21,32765
4.41999,1.5728,-0.282804,19,32765
4.46256,1.57171,-0.287851,21,32765
4.51465,1.57355,-0.293171,21,32765
4.50065,1.55255,-0.294333,21,32765
4.53381,1.54779,-0.298242,21,32765
4.33061,1.46277,-0.287202,19,32765
4.43935,1.48328,-0.296896,21,32765
4.49141,1.48424,-0.30304,22,32765
4.49603,1.46971,-0.305445,21,32765
4.42452,1.43095,-0.302718,21,32765
4.45728,1.42625,-0.307503,23,32765
4.46152,1.41229,-0.310466,22,32765
4.45622,1.39521,-0.312843,24,32765
0,0,-0,0,32765
4.44059,3.25926,-0.135866,14,32765
0,0,-0,0,32765
4.27641,3.09402,-0.133314,14,32765
0,0,-0,0,32765
4.54914,3.24538,-0.144703,14,32765
0,0,-0,0,32765
4.40689,3.1001,-0.144119,15,32765
0,0,-0,0,32765
4.42747,3.07045,-0.148004,15,32765
0,0,-0,0,32765
4.42287,3.02403,-0.151873,15,32765
0,0,-0,0,32765
0,0,-0,0,32765
0,0,-0,0,32765
4.42947,2.9422,-0.160275,14,32765
0,0,-0,0,32765
4.45751,2.91754,-0.165711,14,32765
0,0,-0,0,32765
0,0,-0,0,32765
0,0,-0,0,32765
4.53789,2.88455,-0.176844,15,32765
0,0,-0,0,32765
4.73459,2.96576,-0.189646,14,32765
0,0,-0,0,32765
4.56708,2.81845,-0.187154,13,32765
0,0,-0,0,32765
4.63695,2.81882,-0.194532,16,32765
4.72324,2.84979,-0.20028,17,32765
4.71555,2.82357,-0.20252,16,32765
4.60473,2.7361,-0.199659,18,32765
4.66547,2.75096,-0.204939,19,32765
4.69183,2.74534,-0.208405,17,32765
4.70088,2.72961,-0.211168,22,32765
4.7446,2.73361,-0.215735,22,32765
4.76236,2.72252,-0.218821,23,32765
4.66715,2.64715,-0.217151,20,32765
4.62382,2.60176,-0.217428,20,32765
4.73724,2.6444,-0.225028,20,32765
4.63235,2.56552,-0.222306,21,32765
4.6583,2.5596,-0.225988,21,32765
4.6141,2.51525,-0.226332,18,32765
4.66633,2.52351,-0.231038,21,32765
4.65707,2.49833,-0.232702,20,32765
4.67415,2.48728,-0.236158,20,32765
4.67373,2.46647,-0.238463,22,32765
4.6555,2.43649,-0.239659,20,32765
4.65482,2.41592,-0.241874,19,32765
4.65389,2.39568,-0.244265,19,32765
4.66182,2.37996,-0.246597,20,32765
4.69643,2.3777,-0.250907,19,32765
4.56158,2.28991,-0.245863,21,32765
4.51566,2.24748,-0.245234,19,32765
4.6217,2.2807,-0.252889,18,32765
4.59331,2.24759,-0.253482,20,32765
4.54681,2.20594,-0.252822,19,32765
4.66208,2.24253,-0.26158,19,32765
4.55228,2.17091,-0.257778,20,32765
4.61367,2.18106,-0.262919,22,32765
4.51235,2.11468,-0.258648,19,32765
4.53736,2.10805,-0.26198,19,32765
4.52602,2.08471,-0.263173,16,32765
4.49643,2.05316,-0.262999,16,32765
4.49408,2.03392,-0.264623,16,32765
4.54645,2.03898,-0.269171,16,32765
4.55328,2.02336,-0.271621,15,32765
4.51429,1.98781,-0.271002,17,32765
4.52088,1.9725,-0.272928,17,32765
4.35318,1.88215,-0.264301,15,32765
4.46031,1.91081,-0.272152,18,32765
4.56778,1.93847,-0.28033,18,32765
4.44536,1.86877,-0.274567,18,32765
4.49767,1.87294,-0.278396,17,32765
4.46683,1.8427,-0.278288,16,32765
4.47275,1.82804,-0.280038,17,32765
4.45092,1.80197,-0.279822,19,32765
4.51236,1.8095,-0.284967,17,32765
4.41621,1.75395,-0.279981,15,32765
4.53342,1.78302,-0.288628,18,32765
4.44625,1.73168,-0.283787,17,32765
4.44257,1.71334,-0.284572,18,32765
4.54132,1.73441,-0.291846,17,32765
4.46287,1.6877,-0.287803,17,32765
4.54311,1.70103,-0.293667,17,32765
4.50181,1.66869,-0.292045,16,32765
4.54469,1.66761,-0.295568,20,32765
4.46568,1.62184,-0.291423,18,32765
4.44281,1.59684,-0.290558,17,32765
4.56076,1.62253,-0.298945,19,32765
4.44362,1.56446,-0.291735,18,32765
4.45814,1.5531,-0.292844,19,32765
4.48194,1.54515,-0.295295,17,32765
4.46801,1.5241,-0.294731,17,32765
4.51067,1.52251,-0.297904,18,32765
4.54398,1.51738,-0.29977,21,32765
4.52041,1.49324,-0.298423,18,32765
4.57271,1.49383,-0.302,18,32765
4.51111,1.45726,-0.297907,18,32765
4.44929,1.4213,-0.293555,18,32765
4.49186,1.41912,-0.29614,18,32765
4.4582,1.39322,-0.292988,17,32765
4.26209,3.16207,-0.178716,16,32765
4.35334,3.20669,-0.183568,16,32765
4.44507,3.25053,-0.188441,18,32765
4.39937,3.19435,-0.187815,16,32765
0,0,-0,0,32765
4.46114,3.19392,-0.193055,16,32765
4.44715,3.16174,-0.194626,16,32765
4.35963,3.0777,-0.192344,17,32765
4.47629,3.13755,-0.198805,16,32765
4.4539,3.09966,-0.199513,15,32765
4.4888,3.10176,-0.203378,17,32765
4.37537,3.00205,-0.199766,15,32765
0,0,-0,0,32765
4.42823,2.99515,-0.205869,17,32765
4.49624,3.01923,-0.211028,18,32765
4.5896,3.05918,-0.217586,19,32765
4.55817,3.01603,-0.218085,20,32765
4.60172,3.02238,-0.222511,21,32765
4.62003,3.01248,-0.225147,22,32765
4.59644,2.97523,-0.226227,22,32765
4.55584,2.92738,-0.22615,24,32765
4.55708,2.90673,-0.228129,23,32765
4.55819,2.88615,-0.230337,25,32765
4.57605,2.87631,-0.233848,26,32765
4.5432,2.83444,-0.234154,23,32765
4.60355,2.8507,-0.23931,27,32765
4.56197,2.80371,-0.239201,26,32765
4.58828,2.79878,-0.242793,23,32765
4.56331,2.7627,-0.243434,21,32765
4.58104,2.75239,-0.24678,24,32765
4.56452,2.72144,-0.247678,24,32765
4.53917,2.6856,-0.248788,23,32765
4.48777,2.63486,-0.248089,21,32765
4.51371,2.62983,-0.251703,21,32765
4.55705,2.63447,-0.256531,24,32765
4.52249,2.59416,-0.256662,24,32765
4.47906,2.54907,-0.256708,22,32765
4.54851,2.56804,-0.262857,21,32765
4.54841,2.54758,-0.264942,22,32765
4.50445,2.50311,-0.264496,22,32765
4.51268,2.48795,-0.267258,22,32765
4.53839,2.48232,-0.271147,24,32765
4.53779,2.46227,-0.273115,23,32765
4.3349,2.33334,-0.262803,19,32765
4.37784,2.33745,-0.267767,19,32765
4.35045,2.3036,-0.26818,19,32765
4.3759,2.29787,-0.27167,19,32765
4.34819,2.26436,-0.271977,18,32765
4.3379,2.24052,-0.273534,19,32765
4.292,2.19852,-0.272332,18,32765
4.29927,2.18393,-0.274992,16,32765
4.37792,2.20508,-0.282023,19,32765
4.27819,2.13643,-0.277276,18,32765
4.339,2.14837,-0.282928,19,32765
4.22957,2.07654,-0.277701,16,32765
4.26335,2.07534,-0.28164,18,32765
4.32412,2.08693,-0.287765,18,32765
4.30397,2.05937,-0.288589,19,32765
4.35591,2.0661,-0.293576,20,32765
4.23627,1.99194,-0.28686,17,32765
4.28799,1.99886,-0.292093,18,32765
4.24913,1.96372,-0.29112,17,32765
4.319,1.97874,-0.29733,18,32765
4.28916,1.94766,-0.296894,17,32765
4.24107,1.90839,-0.29487,18,32765
4.22923,1.88565,-0.295886,19,32765
4.21722,1.8632,-0.296581,19,32765
4.27824,1.87288,-0.302261,19,32765
4.30265,1.86652,-0.305407,21,32765
4.30878,1.85206,-0.307084,21,32765
4.21397,1.7943,-0.301765,19,32765
4.24749,1.79156,-0.305781,19,32765
4.26268,1.78101,-0.307383,19,32765
4.26846,1.76675,-0.309467,21,32765
4.29259,1.76027,-0.312488,19,32765
4.28906,1.74224,-0.313285,20,32765
4.24843,1.70935,-0.311472,20,32765
4.29108,1.70995,-0.315602,21,32765
4.27812,1.68823,-0.315742,21,32765
4.27436,1.6703,-0.316094,21,32765
4.34492,1.68128,-0.322259,22,32765
4.38758,1.6813,-0.326288,24,32765
4.33704,1.6456,-0.323448,23,32765
4.22096,1.58569,-0.315384,20,32765
4.31023,1.60302,-0.323008,23,32765
4.35287,1.60257,-0.326863,23,32765
4.31122,1.57099,-0.324647,23,32765
4.25068,1.5329,-0.320641,20,32765
4.31195,1.53915,-0.325852,22,32765
4.32634,1.52827,-0.327348,23,32765
4.36899,1.52714,-0.330681,23,32765
4.34556,1.50315,-0.329723,23,32765
4.31265,1.47603,-0.327522,23,32765
4.40236,1.49093,-0.334641,25,32765
4.39772,1.47346,-0.33392,22,32765
4.40245,1.45914,-0.334438,24,32765
4.30296,1.41042,-0.326953,21,32765
4.31706,1.39925,-0.327958,22,32765
4.3881,1.40645,-0.333045,24,32765
4.40208,1.39541,-0.333844,21,32765
4.28274,1.34287,-0.323858,21,32765
4.42922,3.27335,-0.165392,15,32765
0,0,-0,0,32765
4.4101,3.21438,-0.174499,14,32765
0,0,-0,0,32765
4.43111,3.18484,-0.18333,14,32765
0,0,-0,0,32765
4.24007,3.00466,-0.183819,14,32765
0,0,-0,0,32765
4.38237,3.06241,-0.197537,13,32765
0,0,-0,0,32765
4.45982,3.07295,-0.208346,14,32765
0,0,-0,0,32765
4.47177,3.03722,-0.216008,18,32765
4.53141,3.05577,-0.22236,18,32765
4.46665,2.99066,-0.222254,20,32765
4.41818,2.93705,-0.222524,19,32765
4.46108,2.94432,-0.228636,22,32765
4.52091,2.96221,-0.234113,22,32765
4.42181,2.87612,-0.232235,21,32765
4.46493,2.8828,-0.23719,21,32765
4.42404,2.83527,-0.238119,21,32765
4.44176,2.8258,-0.241946,21,32765
4.47628,2.827,-0.246956,20,32765
4.43475,2.78022,-0.247032,19,32765
4.40133,2.73911,-0.248322,21,32765
4.47834,2.76626,-0.255333,18,32765
4.47042,2.74074,-0.257396,20,32765
4.39422,2.67364,-0.254919,23,32765
4.386,2.64836,-0.257128,21,32765
4.34338,2.60267,-0.256947,19,32765
4.28339,2.54702,-0.255662,17,32765
4.4208,2.60867,-0.266336,18,32765
4.4294,2.59377,-0.268958,18,32765
4.36016,2.53383,-0.266799,17,32765
4.43774,2.55899,-0.273781,16,32765
4.22952,2.42,-0.262936,15,32765
4.21143,2.39095,-0.264051,14,32765
4.24549,2.3913,-0.268171,15,32765
4.29695,2.40135,-0.273151,14,32765
4.17388,2.31424,-0.267319,15,32765
4.21647,2.31946,-0.271842,15,32765
4.29418,2.3436,-0.278481,16,32765
4.25805,2.30525,-0.278093,16,32765
4.28333,2.30014,-0.281616,17,32765
4.29096,2.28563,-0.28371,15,32765
4.21022,2.22449,-0.280368,14,32765
4.28826,2.24743,-0.287023,16,32765
4.18046,2.17319,-0.2817,15,32765
4.32075,2.22761,-0.292846,15,32765
4.26611,2.18081,-0.290484,15,32765
4.24679,2.15243,-0.291101,16,32765
4.26305,2.14209,-0.293699,16,32765
4.18988,2.08729,-0.290197,15,32765
4.19671,2.07323,-0.292303,16,32765
4.16774,2.04141,-0.291678,16,32765
4.17446,2.02732,-0.293898,16,32765
4.22608,2.03485,-0.299332,15,32765
4.13382,1.97313,-0.293917,16,32765
4.29366,2.03175,-0.306745,16,32765
4.26425,2.00018,-0.306276,16,32765
4.09891,1.90583,-0.296083,15,32765
4.25925,1.96293,-0.309379,16,32765
4.26574,1.94848,-0.311214,16,32765
4.25401,1.92581,-0.311549,18,32765
4.24211,1.90323,-0.312742,18,32765
4.16631,1.85242,-0.308681,17,32765
4.16331,1.83417,-0.310303,16,32765
4.18759,1.82813,-0.313695,16,32765
4.27595,1.84976,-0.321853,17,32765
4.19032,1.796,-0.317044,17,32765
4.187,1.778,-0.318299,16,32765
4.23882,1.78319,-0.323609,18,32765
4.24473,1.76864,-0.326063,17,32765
4.25967,1.75826,-0.328855,18,32765
4.21007,1.72106,-0.326868,17,32765
4.18791,1.69572,-0.32691,19,32765
4.11932,1.6521,-0.322979,16,32765
4.10609,1.631,-0.323725,17,32765
4.21332,1.65776,-0.3337,18,32765
4.19072,1.63298,-0.333732,17,32765
4.14011,1.59755,-0.331404,17,32765
4.17316,1.59449,-0.335764,17,32765
4.14098,1.56646,-0.334784,17,32765
4.14595,1.55275,-0.337091,18,32765
4.18833,1.55273,-0.342553,18,32765
4.14648,1.52165,-0.340861,18,32765
4.17008,1.51459,-0.344944,17,32765
4.15614,1.49402,-0.34543,18,32765
4.16084,1.4803,-0.347827,18,32765
4.18439,1.47299,-0.351682,18,32765
4.10427,1.4297,-0.347117,17,32765
4.17474,1.43896,-0.354777,19,32765
4.0848,1.39332,-0.3492,18,32765
4.09845,1.3835,-0.352498,18,32765
4.14047,1.38297,-0.358239,17,32765
4.07845,1.34771,-0.354961,17,32765
4.01625,1.31285,-0.351808,17,32765
4.13402,1.33659,-0.364648,17,32765
4.03357,1.29011,-0.35839,18,32765
4.06587,1.28635,-0.363862,17,32765
4.00305,1.25272,-0.361123,18,32765
4.33377,3.21456,-0.212116,16,32765
4.27992,3.15261,-0.213779,17,32765
4.33041,3.16787,-0.221376,16,32765
4.38113,3.1828,-0.227757,18,32765
4.3592,3.14462,-0.230498,20,32765
4.41011,3.15898,-0.23806,23,32765
4.45313,3.16717,-0.244058,23,32765
4.39818,3.10617,-0.244629,23,32765
4.39179,3.08019,-0.248051,22,32765
4.36896,3.04274,-0.250683,24,32765
4.2885,2.96567,-0.249051,21,32765
4.34761,2.98516,-0.255934,23,32765
4.39052,2.99287,-0.261743,25,32765
4.32585,2.92775,-0.261102,23,32765
4.36025,2.93002,-0.266078,23,32765
4.3449,2.89881,-0.267679,23,32765
4.30435,2.85117,-0.268899,19,32765
4.14686,2.72695,-0.261177,16,32765
4.27291,2.78932,-0.272166,21,32765
4.35759,2.82365,-0.280088,24,32765
4.30817,2.77097,-0.279836,23,32765
4.1321,2.63826,-0.270983,23,32765
4.18282,2.65118,-0.277146,28,32765
4.18304,2.63185,-0.279305,26,32765
4.15767,2.59676,-0.280502,18,32765
4.17471,2.58796,-0.28405,18,32765
4.13221,2.54247,-0.283397,18,32765
4.1492,2.5336,-0.28628,18,32765
4.02954,2.44183,-0.280409,17,32765
4.12318,2.47956,-0.289042,18,32765
4.16574,2.48591,-0.294142,19,32765
4.13958,2.45144,-0.294528,19,32765
4.17347,2.45262,-0.29884,19,32765
4.09526,2.38836,-0.295081,18,32765
4.12042,2.38447,-0.29889,19,32765
4.10234,2.35558,-0.299441,18,32765
4.04071,2.30218,-0.297015,17,32765
4.02231,2.27364,-0.297466,17,32765
3.99499,2.24052,-0.296979,17,32765
4.11572,2.29008,-0.307842,18,32765
4.02715,2.22317,-0.302859,17,32765
3.97318,2.17608,-0.300236,17,32765
4.07683,2.21494,-0.309867,19,32765
4.05786,2.18677,-0.310126,19,32765
4.04752,2.16357,-0.310766,19,32765
4.0899,2.16854,-0.315888,19,32765
4.03521,2.12227,-0.312967,18,32765
4.08637,2.13176,-0.318715,19,32765
4.05799,2.09951,-0.318023,18,32765
4.02075,2.06262,-0.316299,18,32765
4.10776,2.08929,-0.324944,19,32765
3.99019,2.01204,-0.316965,17,32765
4.01483,2.00712,-0.320329,18,32765
4.08395,2.02461,-0.327368,20,32765
3.98326,1.9579,-0.320563,18,32765
4.06143,1.97934,-0.328494,19,32765
4.04099,1.95256,-0.328499,17,32765
4.02054,1.92579,-0.327862,19,32765
4.03589,1.91647,-0.330427,18,32765
4.07833,1.91968,-0.335401,20,32765
4.05752,1.8932,-0.335295,20,32765
4.09091,1.89196,-0.33964,20,32765
3.99746,1.83233,-0.3331,19,32765
4.04892,1.83938,-0.338462,20,32765
4.07312,1.83381,-0.342409,22,32765
4.06093,1.81189,-0.342817,20,32765
4.02132,1.77783,-0.341198,20,32765
4.02713,1.76424,-0.343157,20,32765
4.03287,1.75072,-0.345043,21,32765
4.00197,1.72129,-0.343909,21,32765
4.03511,1.71951,-0.348152,19,32765
4.02239,1.69807,-0.348303,19,32765
3.98202,1.66501,-0.346634,20,32765
3.96899,1.64403,-0.346981,20,32765
4.08506,1.67582,-0.358864,21,32765
3.99814,1.62458,-0.352861,21,32765
4.01262,1.61497,-0.355476,21,32765
4.05483,1.61632,-0.360927,20,32765
4.04139,1.59572,-0.361142,22,32765
4.01862,1.57144,-0.360808,22,32765
4.04221,1.56529,-0.364541,21,32765
4.03791,1.54827,-0.365765,22,32765
4.01493,1.52415,-0.365198,21,32765
3.94515,1.48278,-0.36062,20,32765
3.99658,1.48691,-0.367201,21,32765
4.05741,1.49425,-0.374439,23,32765
3.96857,1.44653,-0.368238,22,32765
3.9638,1.42996,-0.369316,20,32765
4.00582,1.43024,-0.37512,21,32765
4.01039,1.41679,-0.377315,21,32765
4.02421,1.40684,-0.3807,22,32765
4.0098,1.38707,-0.380931,22,32765
4.00461,1.37088,-0.382425,22,32765
3.96158,1.34211,-0.380338,21,32765
3.92788,1.3167,-0.379084,22,32765
3.93189,1.30398,-0.381448,22,32765
3.98315,1.30675,-0.388627,22,32765
3.9587,1.28456,-0.388623,22,32765
3.84871,1.23548,-0.380277,20,32765
3.92825,1.24735,-0.390617,21,32765
3.90336,1.226,-0.390922,22,32765
4.06635,3.01703,-0.259344,20,32765
4.07641,3.0033,-0.260734,19,32765
4.18303,3.06045,-0.268248,21,32765
4.02357,2.92302,-0.259301,16,32765
4.12232,2.9738,-0.266574,19,32765
4.14021,2.96582,-0.269393,20,32765
4.08498,2.90555,-0.266656,19,32765
4.03736,2.85166,-0.265065,16,32765
4.03846,2.83257,-0.266426,15,32765
4.07225,2.83637,-0.269647,17,32765
4.11454,2.84528,-0.273894,19,32765
3.8606,2.65047,-0.258626,13,32765
0,0,-0,0,32765
0,0,-0,0,32765
0,0,-0,0,32765
3.94542,2.63116,-0.270472,12,32765
4.04573,2.67841,-0.278943,12,32765
3.9628,2.60447,-0.274627,15,32765
4.12185,2.68933,-0.287605,16,32765
4.07206,2.63754,-0.285218,16,32765
4.08071,2.62384,-0.287842,17,32765
4.18219,2.66874,-0.296662,20,32765
4.14894,2.62776,-0.295847,19,32765
4.09855,2.5764,-0.294242,18,32765
4.00537,2.4993,-0.288839,16,32765
3.99654,2.47541,-0.29004,15,32765
4.08131,2.5088,-0.297985,17,32765
4.02137,2.45352,-0.295306,16,32765
4.02967,2.43961,-0.297515,17,32765
4.1319,2.48236,-0.306921,18,32765
4.11445,2.45294,-0.30729,16,32765
4.03674,2.38805,-0.303245,15,32765
4.07898,2.39469,-0.308209,17,32765
4.02648,2.34575,-0.306282,15,32765
4.03427,2.3321,-0.307994,15,32765
3.89488,2.23391,-0.299307,13,32765
4.10181,2.33398,-0.317159,15,32765
4.01403,2.26596,-0.312072,15,32765
3.9085,2.18867,-0.305652,15,32765
4.00289,2.22397,-0.314503,13,32765
4.06266,2.23924,-0.321143,16,32765
4.10506,2.24458,-0.326259,14,32765
4.00713,2.17372,-0.320474,15,32765
4.05814,2.18387,-0.326525,15,32765
4.04763,2.1609,-0.327351,15,32765
3.87851,2.05366,-0.315662,15,32765
3.91183,2.05428,-0.319999,15,32765
3.93644,2.04991,-0.323793,16,32765
3.99649,2.06375,-0.330382,15,32765
3.94113,2.01834,-0.327667,14,32765
3.91234,1.98669,-0.326618,16,32765
3.87439,1.95083,-0.325375,16,32765
4.04147,2.0177,-0.341105,16,32765
3.94099,1.95061,-0.334358,15,32765
3.93838,1.93294,-0.336004,15,32765
3.96269,1.92826,-0.33952,16,32765
3.95105,1.90625,-0.339806,16,32765
4.0741,1.94892,-0.352564,16,32765
3.92739,1.86239,-0.341567,15,32765
3.95157,1.85753,-0.345106,17,32765
3.97583,1.85228,-0.349012,16,32765
3.95482,1.82615,-0.348546,16,32765
3.90628,1.78809,-0.346082,16,32765
3.9847,1.8079,-0.354645,18,32765
3.97239,1.78637,-0.354875,18,32765
3.91454,1.74449,-0.350895,16,32765
3.89292,1.71905,-0.350638,15,32765
3.91683,1.71377,-0.354319,15,32765
3.92245,1.70052,-0.355999,16,32765
3.99201,1.715,-0.3637,17,32765
3.96094,1.68586,-0.362311,16,32765
3.94805,1.66479,-0.362455,14,32765
3.89829,1.62848,-0.359175,16,32765
3.94958,1.63448,-0.365273,16,32765
3.91799,1.60626,-0.363011,16,32765
3.86779,1.57069,-0.359491,16,32765
3.94685,1.58736,-0.368231,17,32765
3.95197,1.5742,-0.369812,17,32765
3.93851,1.55375,-0.369463,17,32765
3.97135,1.55157,-0.373376,18,32765
3.96708,1.53466,-0.374151,17,32765
3.87904,1.48578,-0.366645,17,32765
3.91175,1.48353,-0.370558,19,32765
4.05637,1.52302,-0.385731,18,32765
3.91194,1.45404,-0.372348,17,32765
4.01945,1.47877,-0.383675,18,32765
3.97749,1.44829,-0.380134,20,32765
3.95396,1.42521,-0.378614,17,32765
3.93037,1.40222,-0.376897,18,32765
3.95363,1.39607,-0.379364,17,32765
3.99568,1.39619,-0.384329,16,32765
3.93437,1.35994,-0.37901,19,32765
3.93875,1.34702,-0.37975,18,32765
3.99963,1.35337,-0.385981,18,32765
3.94716,1.32177,-0.381076,19,32765
3.9041,1.29326,-0.377376,17,32765
3.96505,1.29905,-0.383297,16,32765
3.94085,1.27689,-0.380641,19,32765
3.99237,1.27937,-0.385143,18,32765
3.98693,1.26368,-0.38408,17,32765
3.95291,1.2391,-0.380451,18,32765
3.87446,2.88596,-0.292256,18,32765
3.89213,2.87877,-0.294197,18,32765
3.86142,2.83619,-0.292414,18,32765
3.83862,2.79954,-0.291807,17,32765
3.83981,2.78078,-0.292644,17,32765
3.88946,2.79702,-0.297891,19,32765
3.89879,2.78385,-0.299322,19,32765
3.89973,2.76509,-0.300764,19,32765
3.86793,2.72342,-0.29945,19,32765
3.87679,2.71063,-0.300986,19,32765
3.86943,2.68606,-0.301678,17,32765
3.83728,2.64457,-0.300705,17,32765
3.89552,2.66531,-0.306582,18,32765
3.82189,2.59591,-0.302132,19,32765
3.78911,2.55509,-0.300917,17,32765
3.78929,2.53666,-0.302503,17,32765
3.90575,2.59557,-0.313249,19,32765
3.83938,2.53292,-0.309195,17,32765
3.83935,2.5145,-0.310929,18,32765
3.89782,2.53423,-0.316617,19,32765
3.87261,2.49943,-0.316399,19,32765
3.8391,2.45905,-0.315099,18,32765
3.85574,2.45126,-0.317815,19,32765
3.91453,2.46998,-0.324474,19,32765
3.88881,2.43568,-0.323508,20,32765
3.93063,2.44371,-0.328713,20,32765
3.769,2.3255,-0.316771,18,32765
3.86167,2.3649,-0.32611,19,32765
3.76739,2.28934,-0.319565,17,32765
3.90313,2.35367,-0.332754,18,32765
3.88529,2.32495,-0.332726,19,32765
3.87589,2.30144,-0.333532,18,32765
3.79751,2.23774,-0.32838,17,32765
3.83068,2.23997,-0.333113,17,32765
3.864,2.24196,-0.337006,18,32765
3.82823,2.20382,-0.335735,17,32765
3.86158,2.20543,-0.340421,19,32765
3.83424,2.17248,-0.339562,18,32765
3.83287,2.15426,-0.341118,19,32765
3.85735,2.15103,-0.344642,18,32765
3.82084,2.11373,-0.343137,18,32765
3.9152,2.14868,-0.353224,19,32765
3.80837,2.07353,-0.345417,17,32765
3.85898,2.08435,-0.351815,19,32765
3.83939,2.05728,-0.351547,19,32765
3.811,2.02535,-0.350837,18,32765
3.84419,2.02619,-0.355421,19,32765
3.86867,2.02204,-0.359368,19,32765
3.84891,1.99486,-0.359055,20,32765
3.78456,1.94529,-0.354775,19,32765
3.83548,1.95482,-0.360802,19,32765
3.83306,1.93712,-0.362416,20,32765
3.79496,1.90159,-0.360347,19,32765
3.83702,1.90613,-0.365966,21,32765
3.82534,1.88436,-0.366606,19,32765
3.7868,1.84944,-0.36423,19,32765
3.81975,1.84967,-0.368582,20,32765
3.83468,1.84113,-0.372012,20,32765
3.84074,1.828,-0.374203,20,32765
3.82874,1.80641,-0.374368,20,32765
3.78964,1.77202,-0.37219,19,32765
3.83166,1.77578,-0.377595,19,32765
3.81924,1.75467,-0.37809,19,32765
3.87024,1.76243,-0.384654,21,32765
3.80334,1.71664,-0.379221,21,32765
3.82717,1.71183,-0.382703,20,32765
3.82369,1.69469,-0.383952,19,32765
3.77455,1.6576,-0.380438,20,32765
3.82564,1.66466,-0.386677,20,32765
3.84927,1.65977,-0.390353,20,32765
3.84554,1.64277,-0.391323,22,32765
3.75002,1.58712,-0.382809,18,32765
3.81025,1.59757,-0.390168,20,32765
3.8246,1.5886,-0.392917,19,32765
3.81134,1.56829,-0.392146,21,32765
3.86249,1.57432,-0.39849,23,32765
3.81222,1.53888,-0.394602,21,32765
3.81719,1.52613,-0.396134,21,32765
3.81285,1.50974,-0.39652,22,32765
3.83625,1.50433,-0.39971,22,32765
3.88751,1.50945,-0.406158,22,32765
3.83667,1.47499,-0.401589,21,32765
3.80421,1.44809,-0.398945,21,32765
3.82745,1.4424,-0.40273,21,32765
3.83214,1.42966,-0.403524,21,32765
3.83676,1.4168,-0.40501,21,32765
3.79466,1.38685,-0.400966,21,32765
3.83648,1.388,-0.40605,21,32765
3.85028,1.37876,-0.407999,22,32765
3.88282,1.37617,-0.411639,23,32765
3.79331,1.33042,-0.402992,20,32765
3.86348,1.34042,-0.410972,21,32765
3.79251,1.30185,-0.40369,21,32765
3.82491,1.29909,-0.407445,21,32765
3.82895,1.28698,-0.40799,20,32765
3.8708,1.28702,-0.412866,22,32765
3.85606,1.26808,-0.411283,21,32765
3.88857,1.26467,-0.414398,22,32765
3.85476,1.2399,-0.410299,21,32765
3.84923,1.2246,-0.409152,21,32765
3.8531,1.21234,-0.409184,21,32765
4.04899,3.00463,-0.283507,20,32765
4.00259,2.94938,-0.284244,16,32765
3.91553,2.86508,-0.281975,15,32765
3.91682,2.84601,-0.285027,16,32765
3.97469,2.86777,-0.292937,16,32765
3.97598,2.84849,-0.29618,15,32765
3.8226,2.71929,-0.288473,15,32765
3.9537,2.79285,-0.301334,15,32765
3.86463,2.71095,-0.297201,16,32765
3.91431,2.72656,-0.303985,16,32765
3.89026,2.6908,-0.304994,16,32765
3.89074,2.67218,-0.307373,17,32765
3.84159,2.61988,-0.306543,15,32765
3.94099,2.66849,-0.317236,16,32765
3.90014,2.62161,-0.316539,17,32765
3.81757,2.54731,-0.312063,16,32765
3.80931,2.52328,-0.313994,15,32765
3.82594,2.51582,-0.317719,16,32765
3.8758,2.53036,-0.324188,15,32765
3.80875,2.46838,-0.320921,15,32765
3.85019,2.47737,-0.326784,17,32765
3.93388,2.51278,-0.335997,18,32765
3.79887,2.40868,-0.327012,16,32765
3.76454,2.36932,-0.325769,14,32765
3.84007,2.39862,-0.334834,16,32765
3.79711,2.35404,-0.333014,16,32765
3.82182,2.35155,-0.337503,14,32765
3.86361,2.35933,-0.343018,17,32765
3.86268,2.34127,-0.345055,16,32765
3.85315,2.31808,-0.346154,14,32765
3.75783,2.24398,-0.339669,16,32765
3.77366,2.23651,-0.342778,15,32765
3.78097,2.22371,-0.345539,15,32765
3.83137,2.23594,-0.351664,17,32765
3.81294,2.20766,-0.352312,16,32765
3.82881,2.19971,-0.355494,17,32765
3.79268,2.16212,-0.353844,16,32765
3.79973,2.14929,-0.356372,16,32765
3.70239,2.07807,-0.348654,16,32765
3.79625,2.11396,-0.359485,16,32765
3.74214,2.06731,-0.355938,16,32765
3.67906,2.01621,-0.351422,14,32765
3.64197,1.97972,-0.349775,15,32765
3.76251,2.0288,-0.362714,16,32765
3.7516,2.00659,-0.363347,15,32765
3.7757,2.0033,-0.367347,15,32765
3.78223,1.99054,-0.369565,17,32765
3.71804,1.94085,-0.365231,16,32765
3.73329,1.93283,-0.367642,16,32765
3.80164,1.95187,-0.376582,17,32765
3.746,1.90713,-0.372465,16,32765
3.73454,1.88528,-0.372713,17,32765
3.78541,1.89453,-0.37937,16,32765
3.67568,1.82402,-0.369791,17,32765
3.73535,1.83769,-0.377458,16,32765
3.72342,1.8163,-0.377868,17,32765
3.67564,1.77757,-0.37409,16,32765
3.69046,1.76923,-0.377378,15,32765
3.71423,1.76528,-0.381061,16,32765
3.72003,1.75253,-0.383276,17,32765
3.68057,1.71899,-0.380637,17,32765
3.72228,1.72328,-0.386412,16,32765
3.746,1.71891,-0.390395,16,32765
3.73343,1.69803,-0.390576,15,32765
3.70276,1.66883,-0.388558,16,32765
3.73547,1.66838,-0.393582,18,32765
3.70446,1.6396,-0.391875,16,32765
3.70982,1.62698,-0.393806,16,32765
3.78812,1.64617,-0.40345,17,32765
3.67465,1.58212,-0.392764,17,32765
3.85369,1.64385,-0.413414,17,32765
3.71236,1.56874,-0.399916,17,32765
3.67159,1.53682,-0.397042,17,32765
3.63978,1.50916,-0.394994,16,32765
3.71836,1.52689,-0.405021,17,32765
3.75091,1.52559,-0.410042,17,32765
3.71887,1.49815,-0.408,17,32765
3.70524,1.47813,-0.407953,18,32765
3.70064,1.46214,-0.409149,16,32765
3.65902,1.43148,-0.406076,16,32765
3.69138,1.43011,-0.41097,17,32765
3.6402,1.39638,-0.406763,16,32765
3.66323,1.39123,-0.410889,16,32765
3.70483,1.3931,-0.417018,17,32765
3.71858,1.38411,-0.420143,17,32765
3.5923,1.32365,-0.407217,17,32765
3.64317,1.32865,-0.414734,17,32765
3.66604,1.3233,-0.41889,17,32765
3.6421,1.30112,-0.417505,17,32765
3.63674,1.28579,-0.418638,18,32765
3.64072,1.27377,-0.420782,18,32765
3.65407,1.26498,-0.423909,18,32765
3.64862,1.24956,-0.424921,18,32765
3.66187,1.24084,-0.427966,17,32765
3.63733,1.21936,-0.427277,16,32765
3.64103,1.20767,-0.428991,18,32765
3.60685,1.18357,-0.426871,17,32765
3.65762,1.18724,-0.434946,20,32765
3.57605,1.14816,-0.426578,17,32765
3.62672,1.15167,-0.435281,18,32765
3.64905,1.14613,-0.439673,18,32765
3.80893,2.83776,-0.311125,18,32765
3.77811,2.79508,-0.312273,17,32765
3.70681,2.72316,-0.30999,18,32765
3.69151,2.69298,-0.311407,17,32765
3.76493,2.72724,-0.321009,17,32765
3.72527,2.67948,-0.320484,17,32765
3.75022,2.6784,-0.326188,19,32765
3.69381,2.61962,-0.323965,17,32765
3.77561,2.65901,-0.333643,19,32765
3.71062,2.59491,-0.33062,17,32765
3.67801,2.55406,-0.330348,17,32765
3.69448,2.54742,-0.333964,18,32765
3.66971,2.51255,-0.334557,17,32765
3.66962,2.49455,-0.337036,18,32765
3.7192,2.50983,-0.343973,19,32765
3.66955,2.45819,-0.341436,18,32765
3.66933,2.44011,-0.343841,19,32765
3.66902,2.42212,-0.345988,18,32765
3.73517,2.44812,-0.354389,19,32765
3.67635,2.39192,-0.350985,20,32765
3.66724,2.3689,-0.352296,19,32765
3.64136,2.33504,-0.351684,19,32765
3.6994,2.35479,-0.359692,19,32765
3.65655,2.31035,-0.35711,19,32765
3.65576,2.29241,-0.359363,20,32765
3.65484,2.27468,-0.36105,19,32765
3.63687,2.24648,-0.361408,19,32765
3.63578,2.22885,-0.36294,18,32765
3.61742,2.20114,-0.36302,18,32765
3.64158,2.19931,-0.367216,18,32765
3.7084,2.22307,-0.375933,20,32765
3.61285,2.14952,-0.367783,17,32765
3.61987,2.13722,-0.370434,19,32765
3.66991,2.15002,-0.376937,20,32765
3.68568,2.14224,-0.380746,20,32765
3.59778,2.07499,-0.37321,18,32765
3.64776,2.08755,-0.379965,19,32765
3.59394,2.04075,-0.376061,18,32765
3.60921,2.03361,-0.378969,18,32765
3.61586,2.02129,-0.381497,19,32765
3.63992,2.0186,-0.385503,18,32765
3.60297,1.98214,-0.382977,17,32765
3.61827,1.97443,-0.386422,19,32765
3.58101,1.93837,-0.383674,20,32765
3.61367,1.94027,-0.388734,19,32765
3.7254,1.98423,-0.402332,19,32765
3.56463,1.88324,-0.3864,18,32765
3.69416,1.93582,-0.402307,18,32765
3.56808,1.8544,-0.389386,18,32765
3.62722,1.86949,-0.397887,20,32765
3.6423,1.86147,-0.400836,20,32765
3.64847,1.84892,-0.40281,20,32765
3.58354,1.8004,-0.397078,19,32765
3.62511,1.80584,-0.403024,19,32765
3.63109,1.79327,-0.405249,21,32765
3.61905,1.77218,-0.405419,19,32765
3.66966,1.7815,-0.412099,20,32765
3.65758,1.76022,-0.41245,22,32765
3.6364,1.73493,-0.411232,20,32765
3.61512,1.70965,-0.410346,20,32765
3.60261,1.68905,-0.410269,21,32765
3.64416,1.69361,-0.416379,20,32765
3.62259,1.66868,-0.415331,21,32765
3.55559,1.62338,-0.40902,19,32765
3.65158,1.65211,-0.421183,21,32765
3.60252,1.6152,-0.417008,21,32765
3.68953,1.63929,-0.428583,20,32765
3.61298,1.59062,-0.420969,19,32765
3.63636,1.58632,-0.424923,20,32765
3.56851,1.54236,-0.418305,19,32765
3.59178,1.53805,-0.422395,21,32765
3.66998,1.55683,-0.433187,20,32765
3.6384,1.52882,-0.430917,21,32765
3.63415,1.51266,-0.431757,20,32765
3.59315,1.4812,-0.42829,21,32765
3.5611,1.45401,-0.425825,20,32765
3.57495,1.44576,-0.428842,21,32765
3.55195,1.42248,-0.427428,21,32765
3.61184,1.43261,-0.436254,21,32765
3.59794,1.41308,-0.436036,22,32765
3.59315,1.39749,-0.436681,22,32765
3.58831,1.38185,-0.437522,22,32765
3.57412,1.3627,-0.437267,21,32765
3.55051,1.34031,-0.435741,23,32765
3.56407,1.3318,-0.438877,21,32765
3.60552,1.33374,-0.445288,23,32765
3.60037,1.31822,-0.446345,23,32765
3.50178,1.26899,-0.435569,20,32765
3.58054,1.28418,-0.446656,22,32765
3.61257,1.2823,-0.45235,23,32765
3.58843,1.26045,-0.450953,22,32765
3.59233,1.24855,-0.452965,21,32765
3.59623,1.23652,-0.455042,22,32765
3.56241,1.21195,-0.452191,21,32765
3.59428,1.20974,-0.458355,22,32765
3.58852,1.19502,-0.458849,23,32765
3.56377,1.17413,-0.457538,23,32765
3.5295,1.15027,-0.455102,23,32765
3.54241,1.14195,-0.458053,22,32765
3.51732,1.12146,-0.457361,21,32765
3.47328,1.09535,-0.453234,21,32765
3.57337,2.66363,-0.34199,15,32765
3.54229,2.62169,-0.339646,15,32765
3.55906,2.61553,-0.342039,15,32765
3.56768,2.6035,-0.34402,17,32765
3.55213,2.57384,-0.343061,14,32765
3.51206,2.52684,-0.340774,14,32765
3.57734,2.55533,-0.347962,15,32765
3.51269,2.49113,-0.343023,15,32765
3.64321,2.56521,-0.35727,15,32765
3.65983,2.55858,-0.360158,15,32765
3.66002,2.54055,-0.361642,15,32765
3.59457,2.47716,-0.356544,15,32765
3.54519,2.42556,-0.352721,15,32765
3.56969,2.42464,-0.356838,15,32765
3.57762,2.41257,-0.359254,15,32765
3.61041,2.41706,-0.363874,15,32765
3.56855,2.37173,-0.36111,16,32765
3.60123,2.3762,-0.365622,16,32765
3.64229,2.3859,-0.371665,17,32765
3.57488,2.32471,-0.366599,15,32765
3.60767,2.32878,-0.370975,15,32765
3.52306,2.25731,-0.364141,15,32765
3.50532,2.22919,-0.363801,16,32765
3.58843,2.2651,-0.37426,15,32765
3.60423,2.25836,-0.377193,16,32765
3.62849,2.25671,-0.381404,17,32765
3.5256,2.17653,-0.372072,15,32765
3.69407,2.26347,-0.391204,17,32765
3.5823,2.1785,-0.381272,16,32765
3.53846,2.13513,-0.37821,15,32765
3.53706,2.11771,-0.379643,15,32765
3.63837,2.16129,-0.391928,16,32765
3.51681,2.07291,-0.380837,16,32765
3.55802,2.08101,-0.38661,16,32765
3.56479,2.06898,-0.388866,16,32765
3.51982,2.02699,-0.385518,15,32765
3.5437,2.02495,-0.389552,16,32765
3.55033,2.01287,-0.391839,15,32765
3.56559,2.0056,-0.395221,16,32765
3.54607,1.9789,-0.394602,16,32765
3.54389,1.96192,-0.395781,17,32765
3.58519,1.96898,-0.402038,16,32765
3.55666,1.93772,-0.400378,16,32765
3.57182,1.9303,-0.403074,16,32765
3.56057,1.90872,-0.403394,16,32765
3.60194,1.91527,-0.409621,17,32765
3.49381,1.84259,-0.398801,16,32765
3.57044,1.86742,-0.408893,17,32765
3.51476,1.82306,-0.404138,16,32765
3.52073,1.8111,-0.405879,16,32765
3.48234,1.77648,-0.4029,16,32765
3.62138,1.83176,-0.420323,16,32765
3.5829,1.79704,-0.417585,18,32765
3.54436,1.76245,-0.414326,16,32765
3.48774,1.71949,-0.408822,17,32765
3.53803,1.72939,-0.416096,16,32765
