x, y, z, intensity, ring
1.43105,0.000558226,0.160313,16,32765
1.42108,-0.00393915,0.159434,16,32765
1.42104,-0.00860758,0.159594,16,32765
1.44084,-0.0135107,0.162131,16,32765
1.42089,-0.0180544,0.160102,17,32765
1.43075,-0.0229077,0.161377,16,32765
1.43064,-0.0275866,0.161573,17,32765
1.42059,-0.0320679,0.160643,17,32765
1.4006,-0.0361854,0.158501,17,32765
1.43026,-0.0416827,0.161941,17,32765
1.41023,-0.0458068,0.159814,18,32765
1.43985,-0.0515738,0.16335,17,32765
1.41981,-0.0556558,0.161104,17,32765
1.40967,-0.0599489,0.160122,18,32765
1.41938,-0.0650073,0.161385,17,32765
1.41914,-0.0696538,0.16153,18,32765
1.43874,-0.0752885,0.163897,18,32765
1.42856,-0.0794777,0.162829,18,32765
1.40845,-0.0830103,0.160587,18,32765
1.42799,-0.0888788,0.162893,18,32765
1.41778,-0.0929202,0.161766,18,32765
1.40754,-0.0968852,0.160761,18,32765
1.42703,-0.103025,0.163042,18,32765
1.42668,-0.107817,0.163004,18,32765
1.41639,-0.111857,0.161963,19,32765
1.41602,-0.116557,0.161883,19,32765
1.42551,-0.122065,0.16314,19,32765
1.42509,-0.126722,0.163259,19,32765
1.41479,-0.130439,0.162019,19,32765
1.42424,-0.136076,0.16321,19,32765
1.41389,-0.139877,0.162013,20,32765
1.43317,-0.146686,0.164363,20,32765
1.42278,-0.150447,0.163261,19,32765
1.41242,-0.154062,0.161991,20,32765
1.43164,-0.160932,0.164359,19,32765
1.42124,-0.164468,0.163206,19,32765
1.43058,-0.170327,0.16413,19,32765
1.41026,-0.172672,0.162056,19,32765
1.42939,-0.179873,0.164329,19,32765
1.41893,-0.183352,0.163179,19,32765
1.40845,-0.186781,0.162139,19,32765
1.41767,-0.19277,0.163223,19,32765
1.4072,-0.196099,0.162002,18,32765
1.40654,-0.200724,0.162001,18,32765
1.42552,-0.208285,0.164327,19,32765
1.42481,-0.213066,0.164389,19,32765
1.40444,-0.214847,0.162136,19,32765
1.43316,-0.224175,0.16548,19,32765
1.4128,-0.225824,0.163134,18,32765
1.41205,-0.230492,0.163067,18,32765
1.43086,-0.238417,0.165493,19,32765
1.41047,-0.239849,0.163241,19,32765
1.40967,-0.244562,0.163196,19,32765
1.42839,-0.25277,0.165554,20,32765
1.41777,-0.255753,0.164391,20,32765
1.41693,-0.260398,0.164352,21,32765
1.42582,-0.266843,0.165601,20,32765
1.42494,-0.271508,0.165655,21,32765
1.41427,-0.274311,0.164586,21,32765
1.43285,-0.282846,0.166849,21,32765
1.42215,-0.285624,0.165867,21,32765
1.41144,-0.288425,0.164806,21,32765
1.44935,-0.30126,0.169483,16,32765
1.4386,-0.304017,0.168534,14,32765
1.37933,-0.296186,0.161652,15,32765
1.38805,-0.302785,0.162933,18,32765
1.42582,-0.315964,0.167636,19,32765
1.40535,-0.316367,0.165546,19,32765
1.41396,-0.323275,0.166794,19,32765
1.3838,-0.321261,0.163633,19,32765
1.41174,-0.332602,0.167208,19,32765
1.41064,-0.337186,0.167337,19,32765
1.39985,-0.339403,0.166484,19,32765
1.41801,-0.348711,0.168924,19,32765
1.40722,-0.350895,0.167945,19,32765
1.41567,-0.357884,0.169407,19,32765
1.41447,-0.362489,0.169594,19,32765
1.39402,-0.362104,0.167632,19,32765
1.40242,-0.369112,0.169003,19,32765
1.39158,-0.371136,0.168101,19,32765
1.39992,-0.37822,0.169621,19,32765
1.39865,-0.382776,0.169878,19,32765
1.40691,-0.390022,0.171423,19,32765
1.40561,-0.394566,0.171698,19,32765
1.38518,-0.393698,0.169644,18,32765
1.40293,-0.403648,0.172483,18,32765
1.39202,-0.405427,0.171819,18,32765
1.39066,-0.40994,0.172113,19,32765
1.37976,-0.411581,0.171377,18,32765
1.4069,-0.424594,0.175361,18,32765
1.40549,-0.429042,0.175808,19,32765
1.40404,-0.433518,0.176429,18,32765
1.41208,-0.440951,0.178038,18,32765
1.40115,-0.442432,0.177269,18,32765
1.39968,-0.44678,0.178003,18,32765
1.38877,-0.448051,0.177373,19,32765
1.40612,-0.458597,0.180567,19,32765
1.37625,-0.45385,0.177615,18,32765
1.41072,0.013902,0.161508,15,32765
1.42078,0.00917502,0.161869,15,32765
1.401,0.0042771,0.158984,15,32765
1.43088,-0.000342802,0.161845,15,32765
1.41105,-0.00490456,0.159141,15,32765
1.42104,-0.00953734,0.159561,15,32765
1.42104,-0.0142249,0.159154,16,32765
1.44091,-0.0191606,0.160999,16,32765
1.39119,-0.0230435,0.155141,16,32765
1.42097,-0.0282003,0.157954,16,32765
1.39108,-0.0321914,0.154492,16,32765
1.41089,-0.0372896,0.15624,16,32765
1.42073,-0.0422585,0.15699,16,32765
1.41068,-0.0466575,0.15554,17,32765
1.40061,-0.0510169,0.154228,16,32765
1.42032,-0.0564859,0.156176,17,32765
1.44993,-0.0625041,0.159359,17,32765
1.39018,-0.0644742,0.152456,17,32765
1.39991,-0.0694897,0.153377,17,32765
1.40965,-0.0745213,0.154078,18,32765
1.38956,-0.077976,0.151839,18,32765
1.40916,-0.0836885,0.153814,18,32765
1.38906,-0.0870513,0.151403,18,32765
1.39871,-0.0922373,0.152305,18,32765
1.3885,-0.0961653,0.151064,18,32765
1.42782,-0.103671,0.155472,17,32765
1.39774,-0.106162,0.152133,17,32765
1.41723,-0.112358,0.1541,18,32765
1.42676,-0.117838,0.155181,18,32765
1.37684,-0.118315,0.149723,18,32765
1.41608,-0.126399,0.153754,17,32765
1.40577,-0.130172,0.152568,18,32765
1.40534,-0.134846,0.152459,18,32765
1.42467,-0.141394,0.154659,17,32765
1.39453,-0.143057,0.151357,17,32765
1.38417,-0.146592,0.150255,17,32765
1.40346,-0.153314,0.152273,18,32765
1.41284,-0.159087,0.153245,18,32765
1.38265,-0.160309,0.150221,18,32765
1.43151,-0.170744,0.155361,18,32765
1.40131,-0.171817,0.152343,18,32765
1.42046,-0.17888,0.154541,18,32765
1.39028,-0.179755,0.151355,18,32765
1.37983,-0.183045,0.150253,18,32765
1.41859,-0.193025,0.154704,19,32765
1.37856,-0.192242,0.15036,18,32765
1.38774,-0.198254,0.151603,18,32765
1.39691,-0.204352,0.152606,18,32765
1.39619,-0.209059,0.152793,18,32765
1.4053,-0.215242,0.153922,18,32765
1.40457,-0.219941,0.153934,19,32765
1.394,-0.223117,0.152919,18,32765
1.40305,-0.229329,0.154151,18,32765
1.38265,-0.230706,0.152142,18,32765
1.40147,-0.238623,0.154365,18,32765
1.3713,-0.238126,0.151067,18,32765
1.39986,-0.24793,0.154308,18,32765
1.4088,-0.25432,0.155546,19,32765
1.3786,-0.253612,0.152413,19,32765
1.40706,-0.263677,0.155701,19,32765
1.3964,-0.26647,0.15478,19,32765
1.36625,-0.265377,0.15143,19,32765
1.39461,-0.275679,0.154837,19,32765
1.39369,-0.28027,0.154878,19,32765
1.41223,-0.288895,0.156957,18,32765
1.41125,-0.293565,0.157114,15,32765
1.42971,-0.302409,0.159336,14,32765
1.4384,-0.309247,0.160571,15,32765
1.4665,-0.320368,0.1638,15,32765
1.36837,-0.303712,0.153078,17,32765
1.40614,-0.31701,0.157373,19,32765
1.39537,-0.319484,0.156397,18,32765
1.36527,-0.317378,0.153033,19,32765
1.38355,-0.326413,0.15538,18,32765
1.38248,-0.330918,0.155365,19,32765
1.40072,-0.340103,0.157483,18,32765
1.40924,-0.347015,0.158776,18,32765
1.4081,-0.351612,0.158813,18,32765
1.37803,-0.34888,0.155574,18,32765
1.39617,-0.358287,0.157636,18,32765
1.41423,-0.367839,0.159819,18,32765
1.37458,-0.362291,0.155519,18,32765
1.42142,-0.37955,0.160921,18,32765
1.37221,-0.37117,0.1555,18,32765
1.42851,-0.391433,0.161979,18,32765
1.38891,-0.385511,0.15755,18,32765
1.37807,-0.387374,0.156392,18,32765
1.40552,-0.399947,0.159573,18,32765
1.41376,-0.407256,0.160663,18,32765
1.37431,-0.400631,0.156125,18,32765
1.38255,-0.407841,0.157242,18,32765
1.4003,-0.417939,0.159308,18,32765
1.37997,-0.416592,0.156963,18,32765
1.40722,-0.429542,0.160074,18,32765
1.39638,-0.431021,0.158885,18,32765
1.42347,-0.44437,0.162054,18,32765
1.39362,-0.439999,0.15849,18,32765
1.39225,-0.444392,0.158252,18,32765
1.40988,-0.454665,0.160097,18,32765
1.38963,-0.452745,0.157656,18,32765
1.36939,-0.450805,0.15511,17,32765
1.41218,0.0140544,0.148193,17,32765
1.42224,0.00931427,0.148459,17,32765
1.42233,0.00446292,0.147829,18,32765
1.44229,-0.000232021,0.149371,17,32765
1.42243,-0.00484077,0.14685,18,32765
1.41253,-0.00938633,0.145127,18,32765
1.43243,-0.0142524,0.146761,17,32765
1.42247,-0.0188383,0.145366,17,32765
1.41248,-0.0233282,0.144037,18,32765
1.39256,-0.0275779,0.141507,18,32765
1.42231,-0.0328631,0.144388,18,32765
1.42224,-0.0375474,0.143926,18,32765
1.4122,-0.0419715,0.142571,18,32765
1.41209,-0.0466795,0.142219,18,32765
1.42189,-0.0517761,0.143,18,32765
1.42173,-0.0565349,0.14276,18,32765
1.42154,-0.0612821,0.142669,18,32765
1.40149,-0.0650091,0.140317,18,32765
1.42117,-0.0705639,0.142136,18,32765
1.42097,-0.0751476,0.141746,19,32765
1.41079,-0.0792035,0.140685,18,32765
1.40061,-0.0832248,0.139501,18,32765
1.41029,-0.0884345,0.140242,17,32765
1.41994,-0.0936992,0.141048,18,32765
1.42957,-0.0990807,0.141869,18,32765
1.41929,-0.103131,0.140975,18,32765
1.42887,-0.108616,0.141859,18,32765
1.4186,-0.112564,0.140683,18,32765
1.39839,-0.115599,0.138718,18,32765
1.41783,-0.121952,0.140614,18,32765
1.41745,-0.126645,0.140337,18,32765
1.41703,-0.131347,0.140225,19,32765
1.4166,-0.136068,0.140115,18,32765
1.41614,-0.140697,0.140168,19,32765
1.42558,-0.146401,0.141066,19,32765
1.41519,-0.150045,0.140057,19,32765
1.4147,-0.154718,0.139927,18,32765
1.42408,-0.160539,0.140805,19,32765
1.41364,-0.164094,0.140023,19,32765
1.42299,-0.169932,0.140778,18,32765
1.40265,-0.17219,0.13902,18,32765
1.40207,-0.176782,0.139071,18,32765
1.42121,-0.183984,0.141065,17,32765
1.43047,-0.190003,0.142015,17,32765
1.41008,-0.192112,0.140213,17,32765
1.40944,-0.196803,0.140166,17,32765
1.38905,-0.198702,0.138375,17,32765
1.41792,-0.207701,0.141246,16,32765
1.40735,-0.211012,0.140454,17,32765
1.41647,-0.217244,0.141489,16,32765
1.4354,-0.225072,0.143467,16,32765
1.40514,-0.225208,0.140581,18,32765
1.40437,-0.229862,0.140737,19,32765
1.40358,-0.234524,0.140886,19,32765
1.42241,-0.242528,0.142923,18,32765
1.44122,-0.25062,0.144832,16,32765
1.44037,-0.255467,0.144835,16,32765
1.41012,-0.254921,0.142039,17,32765
1.39946,-0.25782,0.141163,19,32765
1.40838,-0.264305,0.142195,20,32765
1.40748,-0.268974,0.142356,20,32765
1.40659,-0.273613,0.142251,19,32765
1.40566,-0.278274,0.142415,19,32765
1.40473,-0.28291,0.142456,19,32765
1.41354,-0.289592,0.143359,19,32765
1.42229,-0.296305,0.144506,15,32765
1.39208,-0.294894,0.14159,17,32765
1.41053,-0.303715,0.143719,18,32765
1.40952,-0.308387,0.143694,19,32765
1.40847,-0.313091,0.143824,20,32765
1.40742,-0.317786,0.143776,19,32765
1.40634,-0.322491,0.143887,19,32765
1.41496,-0.329439,0.14477,20,32765
1.41385,-0.33408,0.14495,19,32765
1.40308,-0.336373,0.143943,20,32765
1.41165,-0.343294,0.144881,20,32765
1.40085,-0.34549,0.144094,19,32765
1.39971,-0.350068,0.144131,19,32765
1.39855,-0.354636,0.144156,19,32765
1.39741,-0.359176,0.144043,18,32765
1.39623,-0.363736,0.144052,19,32765
1.41427,-0.373352,0.146089,19,32765
1.40345,-0.375354,0.14506,19,32765
1.40222,-0.379902,0.145077,19,32765
1.41057,-0.387144,0.146026,19,32765
1.39011,-0.386476,0.143959,18,32765
1.42716,-0.401828,0.147856,19,32765
1.4163,-0.403678,0.146787,19,32765
1.40542,-0.405519,0.1458,19,32765
1.39458,-0.407215,0.14461,18,32765
1.41235,-0.417326,0.146624,19,32765
1.40149,-0.418991,0.145531,18,32765
1.39065,-0.420521,0.144363,19,32765
1.39888,-0.427714,0.145217,18,32765
1.39754,-0.432108,0.14511,19,32765
1.39616,-0.436581,0.145037,18,32765
1.39477,-0.44111,0.144715,18,32765
1.39339,-0.445514,0.144477,19,32765
1.40155,-0.452755,0.145154,19,32765
1.40021,-0.456977,0.14486,18,32765
1.37993,-0.455062,0.1425,19,32765
1.39427,0.0164711,0.125443,16,32765
1.42416,0.0120263,0.12856,16,32765
1.41421,0.00726297,0.127945,16,32765
1.41419,0.00254673,0.128249,16,32765
1.44404,-0.00218079,0.13137,17,32765
1.45396,-0.00706401,0.132527,17,32765
1.40412,-0.0114344,0.128103,17,32765
1.38415,-0.0157202,0.126453,17,32765
1.39403,-0.0204151,0.127559,17,32765
1.39394,-0.0250138,0.127727,17,32765
1.39382,-0.0296917,0.128026,17,32765
1.39371,-0.0343445,0.127997,17,32765
1.4533,-0.0406104,0.133719,17,32765
1.42329,-0.0444937,0.131056,17,32765
1.40323,-0.0484193,0.129218,17,32765
1.40303,-0.0530371,0.129538,16,32765
1.4128,-0.0580746,0.130451,17,32765
1.40265,-0.0623664,0.129548,18,32765
1.41237,-0.067574,0.130575,17,32765
1.41213,-0.0723141,0.130598,17,32765
1.39198,-0.0759035,0.128909,16,32765
1.41161,-0.081625,0.130747,17,32765
1.44116,-0.088016,0.13349,17,32765
1.41105,-0.0907696,0.130783,18,32765
1.41075,-0.0953321,0.130719,18,32765
1.40047,-0.0993671,0.130002,18,32765
1.41005,-0.1048,0.131093,18,32765
1.39976,-0.108709,0.13018,18,32765
1.39938,-0.113394,0.130261,18,32765
1.38908,-0.117185,0.129349,18,32765
1.39861,-0.122631,0.130231,18,32765
1.38828,-0.126396,0.129235,19,32765
1.40766,-0.132828,0.1313,19,32765
1.42704,-0.139424,0.133057,19,32765
1.39684,-0.141121,0.130443,19,32765
1.41617,-0.147865,0.132295,19,32765
1.38597,-0.149418,0.12943,18,32765
1.40526,-0.156295,0.131177,18,32765
1.41462,-0.162143,0.132139,18,32765
1.42395,-0.168007,0.133164,18,32765
1.39374,-0.169103,0.130368,16,32765
0,-0,0,0,32765
0,-0,0,0,32765
0,-0,0,0,32765
0,-0,0,0,32765
0,-0,0,0,32765
1.39011,-0.196732,0.130299,18,32765
1.39929,-0.202812,0.131306,17,32765
1.40846,-0.208973,0.132136,17,32765
1.41759,-0.215152,0.133246,16,32765
1.45621,-0.226049,0.136993,16,32765
1.40626,-0.223131,0.132487,16,32765
1.40551,-0.227812,0.13241,17,32765
1.45387,-0.240619,0.137013,17,32765
1.40398,-0.237061,0.132401,18,32765
1.39336,-0.240116,0.13152,19,32765
0,-0,0,0,32765
0,-0,0,0,32765
0,-0,0,0,32765
1.39981,-0.260379,0.132767,18,32765
1.42829,-0.270552,0.13557,18,32765
1.39805,-0.269615,0.132912,19,32765
1.39715,-0.274201,0.132955,18,32765
1.39622,-0.278872,0.133054,18,32765
1.40504,-0.285432,0.134107,19,32765
1.40406,-0.290126,0.134292,18,32765
1.41283,-0.296871,0.135206,18,32765
1.39235,-0.297382,0.133541,18,32765
1.38162,-0.299857,0.132755,18,32765
1.39034,-0.306498,0.133843,18,32765
1.39902,-0.313278,0.13486,18,32765
1.39797,-0.317905,0.134993,18,32765
1.3872,-0.320199,0.134357,18,32765
1.38613,-0.324756,0.134482,18,32765
1.39473,-0.331547,0.135696,19,32765
1.38394,-0.333813,0.134854,18,32765
1.39248,-0.34073,0.136003,18,32765
1.40101,-0.347658,0.137137,18,32765
1.4095,-0.354675,0.138308,18,32765
1.38901,-0.354318,0.136771,18,32765
1.39745,-0.361362,0.138044,17,32765
1.40586,-0.368478,0.139178,18,32765
1.38537,-0.36796,0.137678,18,32765
1.35531,-0.364699,0.135062,18,32765
1.38292,-0.376872,0.138177,18,32765
1.42003,-0.391947,0.142496,18,32765
1.38997,-0.388497,0.139802,18,32765
1.40781,-0.398396,0.142273,18,32765
1.38732,-0.397547,0.140703,18,32765
1.386,-0.401981,0.141164,17,32765
1.38465,-0.406459,0.141522,17,32765
1.37374,-0.408148,0.140942,18,32765
1.40097,-0.42114,0.144292,18,32765
1.39004,-0.422704,0.143884,18,32765
1.39816,-0.429984,0.14544,18,32765
1.40624,-0.437404,0.146837,18,32765
1.39528,-0.438908,0.146452,18,32765
1.41279,-0.449345,0.149054,18,32765
1.41131,-0.453757,0.149718,18,32765
1.40982,-0.458107,0.150456,18,32765
1.37994,-0.45319,0.148315,17,32765
1.41533,0.0168392,0.113889,18,32765
1.42531,0.0121474,0.11512,17,32765
1.41535,0.00737085,0.114598,17,32765
1.41534,0.00264212,0.114903,17,32765
1.40534,-0.00203818,0.114495,17,32765
1.40531,-0.00675216,0.114737,17,32765
1.41524,-0.0114576,0.115666,17,32765
1.41518,-0.0160137,0.115837,17,32765
1.43503,-0.0209646,0.11767,17,32765
1.41501,-0.0253503,0.116206,17,32765
1.40493,-0.0298956,0.115689,17,32765
1.42475,-0.0350851,0.1173,17,32765
1.43457,-0.0400714,0.118354,17,32765
1.42446,-0.0445237,0.117618,17,32765
1.40439,-0.0484612,0.115967,17,32765
1.41415,-0.0534679,0.117112,17,32765
1.41397,-0.0581419,0.117106,18,32765
1.41376,-0.0628889,0.117122,18,32765
1.42349,-0.0681436,0.118056,18,32765
1.42325,-0.0729299,0.11808,18,32765
1.42299,-0.0776493,0.118233,18,32765
1.41277,-0.0817561,0.117403,18,32765
1.4324,-0.0875545,0.119037,19,32765
1.42216,-0.0915658,0.118267,18,32765
1.41191,-0.0955004,0.117375,18,32765
1.40163,-0.0995469,0.116752,18,32765
1.43109,-0.106473,0.119408,19,32765
1.42079,-0.110459,0.118589,19,32765
1.41047,-0.114418,0.117842,19,32765
1.42994,-0.120769,0.119513,19,32765
1.40968,-0.123745,0.117811,19,32765
1.41919,-0.129363,0.118567,19,32765
1.41874,-0.134035,0.118788,19,32765
1.4183,-0.138741,0.118696,19,32765
1.42773,-0.144423,0.119688,19,32765
1.41733,-0.148175,0.118858,20,32765
1.42674,-0.154012,0.119598,20,32765
1.42622,-0.158835,0.119495,20,32765
1.41577,-0.162492,0.118703,20,32765
1.41521,-0.167202,0.118803,19,32765
1.42455,-0.173078,0.119612,18,32765
0,-0,0,0,32765
0,-0,0,0,32765
0,-0,0,0,32765
0,-0,0,0,32765
0,-0,0,0,32765
1.41096,-0.199973,0.118712,16,32765
1.43,-0.207567,0.120458,18,32765
1.4293,-0.212379,0.120362,18,32765
1.42857,-0.217141,0.120549,19,32765
1.42782,-0.221975,0.120594,19,32765
1.41722,-0.225209,0.119886,19,32765
1.43614,-0.233129,0.121472,19,32765
1.42552,-0.236289,0.120615,20,32765
1.43457,-0.242598,0.121464,24,32765
1.47302,-0.254236,0.12484,28,32765
0,-0,0,0,32765
0,-0,0,0,32765
0,-0,0,0,32765
1.44009,-0.268295,0.122673,18,32765
1.40983,-0.267478,0.120188,19,32765
1.42849,-0.275924,0.121988,19,32765
1.41779,-0.278698,0.121196,20,32765
1.40707,-0.281492,0.120461,19,32765
1.41589,-0.288101,0.121421,19,32765
1.42466,-0.294859,0.122446,20,32765
1.41392,-0.297584,0.121589,19,32765
1.46163,-0.312689,0.125992,16,32765
1.41189,-0.30693,0.121944,14,32765
1.35248,-0.298644,0.117048,14,32765
1.42926,-0.320578,0.123867,13,32765
1.41846,-0.323101,0.123159,18,32765
1.39796,-0.32322,0.121777,19,32765
1.40658,-0.330098,0.12275,19,32765
1.38609,-0.330046,0.121329,19,32765
1.41404,-0.341646,0.123977,20,32765
1.41289,-0.346305,0.124187,20,32765
1.4214,-0.353314,0.125229,19,32765
1.40089,-0.353107,0.12375,19,32765
1.40936,-0.360119,0.124967,19,32765
1.3985,-0.362248,0.124434,19,32765
1.40692,-0.369383,0.125475,19,32765
1.39603,-0.371427,0.125025,19,32765
1.42365,-0.383748,0.127878,18,32765
1.41278,-0.385673,0.127261,19,32765
1.40188,-0.387605,0.126871,19,32765
1.41979,-0.397516,0.128808,19,32765
1.40886,-0.399383,0.128481,19,32765
1.38835,-0.398533,0.127099,19,32765
1.40616,-0.408537,0.12932,19,32765
1.40479,-0.41309,0.129684,19,32765
1.41294,-0.420528,0.130974,19,32765
1.41155,-0.42506,0.131391,18,32765
1.42918,-0.435367,0.133757,19,32765
1.41824,-0.436922,0.133445,19,32765
1.38826,-0.432571,0.131161,19,32765
1.43431,-0.451979,0.136277,19,32765
1.40435,-0.447446,0.134176,19,32765
1.42183,-0.457947,0.136658,19,32765
1.42981,-0.465421,0.138319,19,32765
1.40934,-0.463665,0.137394,18,32765
1.41496,0.0160448,0.118495,16,32765
1.43499,0.0114274,0.119455,16,32765
1.39522,0.00646081,0.115461,16,32765
1.39527,0.00189402,0.11503,17,32765
1.40529,-0.0027219,0.115148,17,32765
1.39533,-0.00737139,0.113967,17,32765
1.40531,-0.0120839,0.114264,17,32765
1.39533,-0.0166251,0.113092,17,32765
1.40527,-0.0213075,0.113427,16,32765
1.40522,-0.0259542,0.113075,16,32765
1.40516,-0.0306055,0.11269,16,32765
1.38513,-0.0347892,0.110864,17,32765
1.395,-0.0396628,0.111332,17,32765
1.38493,-0.0439064,0.110208,17,32765
1.39477,-0.0487895,0.110678,17,32765
1.39462,-0.0533297,0.110405,17,32765
1.39445,-0.0579488,0.110175,18,32765
1.39428,-0.0625752,0.109876,17,32765
1.38412,-0.0667078,0.108958,17,32765
1.3839,-0.0713522,0.108715,18,32765
1.39363,-0.0764321,0.109326,18,32765
1.41329,-0.0821676,0.110779,18,32765
1.41303,-0.086817,0.110497,18,32765
1.39285,-0.0901058,0.108832,18,32765
1.38262,-0.0940081,0.107868,18,32765
1.43204,-0.102067,0.111541,18,32765
1.42175,-0.106077,0.110808,19,32765
1.41145,-0.110035,0.109975,18,32765
1.43097,-0.116284,0.11135,19,32765
1.41072,-0.119362,0.109694,19,32765
1.40039,-0.12314,0.108802,19,32765
1.41984,-0.12961,0.110255,19,32765
1.40947,-0.133436,0.109487,19,32765
1.3991,-0.137122,0.108643,18,32765
1.41848,-0.143815,0.110125,18,32765
1.40808,-0.147479,0.109336,19,32765
1.39767,-0.151078,0.108583,18,32765
1.39715,-0.15576,0.108654,18,32765
1.39663,-0.16036,0.108666,18,32765
1.4258,-0.168508,0.110931,17,32765
0,-0,0,0,32765
0,-0,0,0,32765
1.41415,-0.181455,0.11026,16,32765
1.43331,-0.188703,0.111812,16,32765
1.40303,-0.189486,0.109541,18,32765
1.38264,-0.191382,0.108009,16,32765
1.44124,-0.204328,0.112528,16,32765
1.37148,-0.199116,0.1072,19,32765
1.40039,-0.208028,0.109756,15,32765
1.44895,-0.220213,0.113775,17,32765
1.42851,-0.222019,0.112144,17,32765
1.42773,-0.226881,0.112319,17,32765
1.40725,-0.228592,0.110915,17,32765
1.43597,-0.238188,0.113429,16,32765
1.43516,-0.243004,0.113462,16,32765
1.38522,-0.239279,0.109608,21,32765
0,-0,0,0,32765
0,-0,0,0,32765
0,-0,0,0,32765
0,-0,0,0,32765
1.37122,-0.26033,0.10946,18,32765
1.4095,-0.272443,0.112607,19,32765
1.38901,-0.273322,0.111103,19,32765
1.39787,-0.279835,0.112011,18,32765
1.40669,-0.286518,0.112816,19,32765
1.40573,-0.291189,0.112883,18,32765
1.39498,-0.293854,0.112218,18,32765
1.39397,-0.29858,0.112262,18,32765
1.42218,-0.309572,0.114721,14,32765
1.38219,-0.305737,0.111644,13,32765
1.38119,-0.310232,0.111668,15,32765
1.40931,-0.321387,0.114208,18,32765
1.37912,-0.319279,0.111744,18,32765
1.39747,-0.328329,0.113529,19,32765
1.39638,-0.332935,0.113488,19,32765
1.39529,-0.337484,0.113505,19,32765
1.39415,-0.342095,0.113625,19,32765
1.38333,-0.34432,0.112829,18,32765
1.40152,-0.353748,0.114508,18,32765
1.41967,-0.363279,0.115978,18,32765
1.41848,-0.367926,0.115978,18,32765
1.40764,-0.369959,0.115241,18,32765
1.42569,-0.379688,0.116788,18,32765
1.42446,-0.384231,0.116912,18,32765
1.39436,-0.380992,0.114467,17,32765
1.43155,-0.396155,0.117642,18,32765
1.37266,-0.384667,0.112845,17,32765
1.381,-0.391888,0.11346,17,32765
1.40847,-0.404569,0.115963,18,32765
1.37844,-0.400768,0.113502,17,32765
1.38673,-0.407931,0.114297,18,32765
1.38544,-0.412321,0.114164,19,32765
1.41277,-0.425373,0.116373,19,32765
1.4305,-0.435649,0.117831,18,32765
1.40052,-0.431399,0.115474,18,32765
1.37062,-0.426918,0.112851,18,32765
1.40733,-0.44317,0.115854,18,32765
1.42495,-0.453636,0.117124,18,32765
1.38561,-0.445822,0.113745,18,32765
1.38421,-0.450223,0.113461,18,32765
1.38285,-0.454453,0.11314,18,32765
1.41601,0.0161688,0.105142,18,32765
1.40614,0.0112993,0.103706,17,32765
1.41619,0.00665082,0.103756,17,32765
1.39629,0.0019779,0.101863,17,32765
1.42626,-0.00268783,0.103331,18,32765
1.42627,-0.0074696,0.102959,18,32765
1.42627,-0.0122085,0.102434,18,32765
1.41628,-0.0168288,0.101351,18,32765
1.4362,-0.0217392,0.102295,18,32765
1.4162,-0.0261296,0.10052,18,32765
1.40616,-0.0306095,0.0994267,18,32765
1.42601,-0.0358071,0.100603,18,32765
1.4259,-0.0405422,0.100266,19,32765
1.42579,-0.0452118,0.0999269,18,32765
1.41569,-0.0495406,0.0989007,19,32765
1.4255,-0.0545394,0.0993181,19,32765
1.41536,-0.0588556,0.09839,19,32765
1.40522,-0.0631131,0.0973959,19,32765
1.42494,-0.0687322,0.0986402,19,32765
1.41475,-0.0730089,0.0977026,19,32765
1.41452,-0.077653,0.0975286,19,32765
1.42422,-0.0828885,0.0981055,19,32765
1.40404,-0.0863583,0.0964538,18,32765
1.41372,-0.091559,0.0970272,19,32765
1.41342,-0.0962153,0.0968371,18,32765
1.41311,-0.10084,0.0966325,18,32765
1.42272,-0.106281,0.0973542,18,32765
1.44225,-0.11258,0.0986567,19,32765
1.41205,-0.114896,0.0964438,18,32765
1.42161,-0.120445,0.0970132,19,32765
1.42121,-0.125141,0.0968922,19,32765
1.41086,-0.128968,0.096125,19,32765
1.42035,-0.134655,0.096805,20,32765
1.40004,-0.137409,0.0953781,19,32765
1.42936,-0.145127,0.0973477,20,32765
1.43879,-0.150915,0.0980046,19,32765
1.42836,-0.154624,0.097347,19,32765
1.43774,-0.160525,0.0980955,19,32765
1.41738,-0.162988,0.0967546,19,32765
1.42674,-0.168877,0.0973843,20,32765
0,-0,0,0,32765
0,-0,0,0,32765
1.47446,-0.189488,0.10087,24,32765
1.48371,-0.195646,0.101558,31,32765
1.4435,-0.19526,0.0988935,20,32765
1.45273,-0.201404,0.0995828,17,32765
1.40267,-0.199179,0.0960888,16,32765
1.43161,-0.208182,0.098189,16,32765
1.41117,-0.20997,0.0970787,16,32765
1.46962,-0.223719,0.101309,16,32765
1.41957,-0.220993,0.0978268,16,32765
1.43851,-0.22897,0.0993622,17,32765
1.42785,-0.232323,0.0988298,19,32765
1.42705,-0.237104,0.0990156,18,32765
1.41641,-0.240231,0.0983658,17,32765
1.42543,-0.24664,0.0990812,17,32765
0,-0,0,0,32765
0,-0,0,0,32765
0,-0,0,0,32765
0,-0,0,0,32765
1.4505,-0.275853,0.101799,16,32765
1.4006,-0.271188,0.0983795,19,32765
1.42904,-0.281684,0.100505,20,32765
1.40853,-0.282459,0.0992549,19,32765
1.41735,-0.289191,0.0999673,19,32765
1.4066,-0.29188,0.0993449,20,32765
1.40561,-0.296612,0.0994647,20,32765
1.40459,-0.301383,0.0995098,19,32765
1.4523,-0.316686,0.103072,15,32765
1.40253,-0.310783,0.09968,16,32765
1.44043,-0.324113,0.102474,16,32765
1.36155,-0.311048,0.0971101,15,32765
1.41883,-0.329059,0.101168,18,32765
1.42745,-0.335973,0.102078,19,32765
1.41663,-0.33837,0.101342,19,32765
1.41551,-0.342994,0.10136,20,32765
1.40467,-0.3453,0.100787,19,32765
1.40352,-0.349978,0.10078,19,32765
1.41202,-0.357047,0.101577,19,32765
1.41085,-0.36168,0.101469,19,32765
1.40965,-0.366307,0.10147,20,32765
1.41811,-0.373394,0.102217,19,32765
1.40724,-0.375464,0.101491,19,32765
1.41566,-0.38256,0.10231,19,32765
1.4144,-0.387184,0.102234,19,32765
1.41313,-0.391786,0.102252,19,32765
1.41185,-0.396388,0.102191,19,32765
1.40096,-0.398297,0.10132,19,32765
1.41884,-0.408312,0.102848,19,32765
1.42709,-0.415693,0.103446,19,32765
1.4162,-0.417385,0.102759,19,32765
1.3862,-0.413326,0.100543,19,32765
1.40398,-0.423529,0.101779,19,32765
1.41218,-0.430889,0.102358,19,32765
1.4108,-0.435394,0.102358,19,32765
1.39991,-0.436876,0.101395,19,32765
1.40806,-0.444252,0.101954,19,32765
1.41619,-0.451712,0.102349,19,32765
1.42429,-0.459155,0.102775,19,32765
1.42285,-0.463688,0.102483,19,32765
1.42144,-0.468045,0.102153,19,32765
1.40742,0.0184071,0.0832761,18,32765
1.41743,0.0139001,0.0842898,17,32765
1.42743,0.00928025,0.0852062,17,32765
1.38751,0.00442295,0.0830746,17,32765
1.38749,-0.000243399,0.0834918,17,32765
1.37749,-0.00484288,0.0831112,17,32765
1.39741,-0.00954296,0.0845118,17,32765
1.41733,-0.0142896,0.0858597,18,32765
1.3973,-0.0187029,0.0849307,18,32765
1.38724,-0.0230777,0.0844668,18,32765
1.4071,-0.0281399,0.0858882,18,32765
1.41697,-0.0330799,0.0866685,18,32765
1.38691,-0.0369824,0.0848646,18,32765
1.38678,-0.0415527,0.0850054,18,32765
1.3966,-0.0464665,0.0856967,17,32765
1.41638,-0.0518408,0.0870663,18,32765
1.40622,-0.0561816,0.0865116,18,32765
1.38608,-0.059995,0.085421,17,32765
1.41577,-0.0659888,0.0873909,17,32765
1.40557,-0.0701468,0.0868423,18,32765
1.40534,-0.0747423,0.0868278,18,32765
1.38514,-0.0782228,0.0857932,18,32765
1.4048,-0.083944,0.08709,18,32765
1.42445,-0.0898144,0.0882534,18,32765
1.42413,-0.0945556,0.0884205,19,32765
1.43376,-0.0999762,0.0890163,18,32765
1.42347,-0.104077,0.0883198,18,32765
1.4032,-0.107315,0.087191,18,32765
1.41278,-0.112879,0.0877852,18,32765
1.40244,-0.116777,0.0873781,18,32765
1.3921,-0.120605,0.086658,18,32765
1.40163,-0.126143,0.0872803,19,32765
1.39126,-0.129918,0.086758,18,32765
1.40074,-0.135556,0.0875424,18,32765
1.42013,-0.142188,0.088923,19,32765
1.3998,-0.144885,0.0876301,19,32765
1.40923,-0.150625,0.0881719,19,32765
1.3988,-0.154227,0.0875366,20,32765
1.40819,-0.160034,0.0882468,19,32765
1.45722,-0.170423,0.0914255,18,32765
1.4071,-0.169312,0.0883698,19,32765
1.41644,-0.175224,0.088888,19,32765
1.38614,-0.176229,0.0868673,17,32765
1.47461,-0.19251,0.0926248,34,32765
1.44427,-0.193441,0.0909357,24,32765
1.49304,-0.205065,0.0941996,17,32765
1.43305,-0.201713,0.0904043,16,32765
1.4225,-0.205063,0.0897041,15,32765
1.45141,-0.214293,0.0916594,16,32765
1.43095,-0.216089,0.0905621,15,32765
1.42036,-0.219294,0.0899701,16,32765
1.42948,-0.22558,0.0905179,16,32765
1.41888,-0.228714,0.0898067,15,32765
1.44764,-0.238368,0.0916987,15,32765
1.42714,-0.239907,0.090625,16,32765
1.43616,-0.24643,0.091184,16,32765
1.43532,-0.251231,0.091346,15,32765
1.38536,-0.247184,0.0882555,15,32765
1.39435,-0.253547,0.0888192,15,32765
1.42294,-0.263581,0.0908953,16,32765
1.39262,-0.262793,0.0891496,16,32765
1.37212,-0.263751,0.087898,16,32765
1.40062,-0.274015,0.0898812,19,32765
1.3899,-0.27674,0.0893453,19,32765
1.41833,-0.287237,0.0913137,19,32765
1.39782,-0.287871,0.0901876,20,32765
1.40661,-0.294568,0.0910187,19,32765
1.40562,-0.299191,0.091216,19,32765
1.37535,-0.297531,0.0894295,19,32765
1.41335,-0.310589,0.0921216,15,32765
0,-0,0,0,32765
0,-0,0,0,32765
1.37124,-0.315674,0.0902203,15,32765
1.41878,-0.331547,0.0935213,18,32765
1.39824,-0.331616,0.0925383,18,32765
1.42624,-0.343176,0.0947112,18,32765
1.396,-0.340785,0.0930472,18,32765
1.40455,-0.347731,0.0939043,18,32765
1.39371,-0.349908,0.0934324,18,32765
1.40221,-0.356874,0.094545,18,32765
1.42033,-0.366481,0.0962253,18,32765
1.40947,-0.36857,0.0957125,18,32765
1.38895,-0.368002,0.0947843,18,32765
1.39738,-0.3751,0.0955902,18,32765
1.3865,-0.376985,0.0953813,18,32765
1.41408,-0.389507,0.0977693,18,32765
1.38393,-0.386143,0.0960629,18,32765
1.38264,-0.390619,0.0966125,18,32765
1.41011,-0.403356,0.0989721,18,32765
1.41837,-0.410613,0.100088,18,32765
1.4266,-0.417933,0.101148,18,32765
1.41562,-0.419762,0.101085,18,32765
1.41423,-0.424307,0.101519,18,32765
1.37465,-0.41724,0.0992517,18,32765
1.39237,-0.42741,0.101144,18,32765
1.42909,-0.443614,0.104447,18,32765
1.38003,-0.433232,0.101663,18,32765
1.38811,-0.440625,0.102894,18,32765
1.41514,-0.454185,0.105776,18,32765
1.42315,-0.46171,0.107122,18,32765
1.42163,-0.466144,0.108114,18,32765
1.40814,0.0185094,0.0699949,18,32765
1.41816,0.0139917,0.0709146,18,32765
1.40819,0.00922978,0.0707335,18,32765
1.4082,0.00455424,0.070989,18,32765
1.43815,-0.000195042,0.0729319,18,32765
1.42814,-0.00497361,0.0726535,18,32765
1.41812,-0.00964668,0.0723444,18,32765
1.40809,-0.0141681,0.0719746,19,32765
1.42799,-0.0190944,0.073282,19,32765
1.40795,-0.0234122,0.0724019,19,32765
1.41783,-0.028354,0.073123,18,32765
1.40774,-0.0328732,0.0727781,18,32765
1.4176,-0.0378191,0.073322,19,32765
1.40748,-0.0422006,0.0729485,19,32765
1.41731,-0.0471925,0.0735468,19,32765
1.40716,-0.0515494,0.0731733,19,32765
1.42693,-0.0570654,0.0742706,19,32765
1.4367,-0.0622527,0.0749315,19,32765
1.43648,-0.06703,0.0750598,19,32765
1.43625,-0.0717631,0.0751281,19,32765
1.43601,-0.0764684,0.0751134,19,32765
1.41579,-0.0800568,0.0742715,19,32765
1.41552,-0.0846968,0.0743345,19,32765
1.41524,-0.0893558,0.074263,19,32765
1.42489,-0.0947384,0.0749533,19,32765
1.4146,-0.0987811,0.074407,19,32765
1.43419,-0.105013,0.0753762,19,32765
1.43382,-0.109819,0.0754851,19,32765
1.40358,-0.112312,0.0738886,19,32765
1.43304,-0.119507,0.0756765,19,32765
1.41273,-0.122582,0.0745237,19,32765
1.42226,-0.128201,0.075052,19,32765
1.42182,-0.132982,0.075151,19,32765
1.42135,-0.137771,0.0753183,19,32765
1.42088,-0.142493,0.0754574,18,32765
1.40053,-0.145197,0.074353,19,32765
1.40997,-0.150951,0.0748007,19,32765
1.43924,-0.158948,0.0763665,18,32765
1.40893,-0.160385,0.074876,18,32765
1.41831,-0.16615,0.0754731,18,32765
1.43757,-0.173271,0.0765839,19,32765
1.43699,-0.178069,0.0764785,18,32765
1.44629,-0.184191,0.0768435,18,32765
1.43576,-0.187761,0.076486,20,32765
1.44501,-0.193876,0.0771897,18,32765
1.41467,-0.194638,0.0757456,18,32765
1.43378,-0.202169,0.0767529,19,32765
1.40345,-0.202673,0.0750895,19,32765
1.43238,-0.211858,0.0767615,19,32765
1.40205,-0.212101,0.0753203,18,32765
1.41121,-0.218269,0.0758834,18,32765
1.41047,-0.222978,0.0758078,19,32765
1.41959,-0.229239,0.0762512,20,32765
1.4188,-0.234041,0.0762721,19,32765
1.40815,-0.237143,0.0759143,19,32765
1.43687,-0.246999,0.0774412,20,32765
1.42619,-0.250088,0.077072,21,32765
1.43519,-0.256544,0.0776431,21,32765
1.42451,-0.259505,0.077048,21,32765
1.43345,-0.266017,0.0777808,20,32765
1.41292,-0.267116,0.0768526,21,32765
1.43161,-0.275697,0.0779245,20,32765
1.43069,-0.280418,0.0780267,20,32765
1.41995,-0.283248,0.0775873,20,32765
1.40922,-0.285925,0.0771329,20,32765
1.42782,-0.2946,0.0783408,21,32765
1.42682,-0.299362,0.0785445,20,32765
1.42581,-0.30406,0.078745,20,32765
1.41503,-0.306693,0.0783232,19,32765
1.42376,-0.313469,0.07902,18,32765
0,-0,0,0,32765
0,-0,0,0,32765
1.4108,-0.325399,0.0791385,13,32765
1.41943,-0.332332,0.0797865,19,32765
1.42802,-0.339328,0.0806379,19,32765
1.41719,-0.341652,0.0803332,19,32765
1.41603,-0.34634,0.0806065,19,32765
1.41488,-0.350962,0.0808194,19,32765
1.41371,-0.355613,0.0809981,19,32765
1.4222,-0.362659,0.0820238,19,32765
1.40164,-0.362358,0.0812796,19,32765
1.4101,-0.369451,0.0819825,19,32765
1.41853,-0.376567,0.0829356,19,32765
1.42693,-0.383777,0.0836511,19,32765
1.42565,-0.388384,0.0841147,19,32765
1.41471,-0.390441,0.0839479,19,32765
1.41339,-0.395133,0.0842435,19,32765
1.42167,-0.402433,0.0853823,19,32765
1.41073,-0.404325,0.085153,19,32765
1.42859,-0.414382,0.0867582,19,32765
1.43681,-0.421751,0.0877273,19,32765
1.41625,-0.420773,0.0871743,19,32765
1.43398,-0.431077,0.0887929,19,32765
1.39435,-0.424056,0.0869089,19,32765
1.41206,-0.434311,0.0886215,19,32765
1.42019,-0.441721,0.0897492,19,32765
1.39016,-0.437275,0.0886455,19,32765
1.40775,-0.447742,0.0903974,19,32765
1.42527,-0.458341,0.0923927,19,32765
1.42377,-0.462829,0.0930301,19,32765
1.40329,-0.461045,0.0927699,19,32765
1.38795,0.0177185,0.0734483,17,32765
1.38803,0.0131469,0.0727918,17,32765
1.3881,0.00842431,0.0721872,17,32765
1.39813,0.00374815,0.0721914,17,32765
1.39816,-0.000843589,0.0717191,17,32765
1.42814,-0.00549396,0.0727067,17,32765
1.39817,-0.00996867,0.0707718,18,32765
1.38817,-0.0144752,0.0698414,18,32765
1.38813,-0.0191117,0.0694893,18,32765
1.3781,-0.0235528,0.0685416,18,32765
1.40798,-0.0287099,0.069678,18,32765
1.38792,-0.0329337,0.0685839,18,32765
1.40779,-0.0381111,0.0691794,18,32765
1.41765,-0.0431133,0.0694427,17,32765
1.41751,-0.0478427,0.0691441,18,32765
1.40738,-0.0521575,0.0683059,19,32765
1.38725,-0.0559695,0.0671367,19,32765
1.417,-0.0618828,0.0684117,17,32765
1.39685,-0.06559,0.0672007,18,32765
1.37668,-0.0692554,0.0660454,18,32765
1.3964,-0.0748474,0.0667608,17,32765
1.38618,-0.0788793,0.0661023,18,32765
1.37595,-0.0828351,0.0656305,18,32765
1.41556,-0.0898179,0.0672609,18,32765
1.41526,-0.0945274,0.0671423,18,32765
1.39502,-0.0978336,0.0660416,18,32765
1.38472,-0.10177,0.0654424,17,32765
1.39434,-0.107147,0.0657531,17,32765
1.4139,-0.113359,0.0666298,17,32765
1.41352,-0.118036,0.0665717,18,32765
1.41313,-0.122688,0.0665126,17,32765
1.42266,-0.128285,0.0670036,17,32765
1.40233,-0.131199,0.0659351,18,32765
1.382,-0.133965,0.0650741,17,32765
1.41136,-0.141577,0.0664457,18,32765
1.38108,-0.143174,0.0648964,18,32765
1.45012,-0.155166,0.068317,19,32765
1.42974,-0.157864,0.0673323,19,32765
1.39942,-0.159295,0.0659239,18,32765
1.4088,-0.165205,0.0663135,18,32765
1.41815,-0.171083,0.0668668,18,32765
1.40767,-0.17449,0.0663752,18,32765
1.38726,-0.176619,0.0656532,19,32765
1.4263,-0.186396,0.0673535,19,32765
1.42566,-0.19117,0.0674999,19,32765
1.39531,-0.191907,0.0661246,19,32765
1.42432,-0.200742,0.067918,19,32765
1.41377,-0.204027,0.0672124,19,32765
1.41308,-0.208755,0.0672723,19,32765
1.442,-0.217944,0.0689184,19,32765
1.4215,-0.219752,0.0680649,18,32765
1.41089,-0.222949,0.06762,19,32765
1.41013,-0.22765,0.0678552,19,32765
1.41921,-0.234024,0.0683676,19,32765
1.39871,-0.235496,0.0674786,19,32765
1.40775,-0.241903,0.0679392,20,32765
1.39709,-0.244873,0.0675855,20,32765
1.40609,-0.251295,0.0683027,20,32765
1.41507,-0.257777,0.0688141,20,32765
1.4142,-0.262454,0.0688749,20,32765
1.4035,-0.265303,0.0685875,20,32765
1.4026,-0.269953,0.06884,20,32765
1.4115,-0.276505,0.069382,20,32765
1.43016,-0.285119,0.0703808,20,32765
1.41941,-0.28789,0.0698617,20,32765
1.40867,-0.290539,0.0696249,20,32765
1.40769,-0.295242,0.0695925,20,32765
1.38715,-0.295755,0.0688523,20,32765
1.40566,-0.304677,0.0698755,20,32765
1.42413,-0.313724,0.0709032,18,32765
1.46204,-0.327241,0.0730603,16,32765
0,-0,0,0,32765
0,-0,0,0,32765
1.38093,-0.323475,0.0693487,13,32765
1.43815,-0.341891,0.0722863,18,32765
1.38847,-0.33491,0.0698613,19,32765
1.40676,-0.344219,0.0709526,19,32765
1.39592,-0.346472,0.070528,18,32765
1.42383,-0.358352,0.0721071,18,32765
1.43232,-0.365471,0.0726582,19,32765
1.40211,-0.362648,0.0711886,19,32765
1.3816,-0.362161,0.0702385,18,32765
1.3997,-0.37183,0.0712957,18,32765
1.40813,-0.378983,0.0716902,18,32765
1.4069,-0.383545,0.0716913,18,32765
1.43453,-0.396039,0.0732367,18,32765
1.41402,-0.395268,0.0722522,18,32765
1.42233,-0.402574,0.0727915,18,32765
1.42101,-0.40726,0.0726251,18,32765
1.41966,-0.411957,0.0725873,18,32765
1.43749,-0.422132,0.0735771,18,32765
1.38829,-0.412428,0.0711525,17,32765
1.4157,-0.42538,0.072379,18,32765
1.39523,-0.424063,0.0713479,18,32765
1.37476,-0.422719,0.0702709,18,32765
1.42109,-0.441954,0.0726108,18,32765
1.4102,-0.443346,0.0720673,18,32765
1.41833,-0.450761,0.0724131,18,32765
1.44547,-0.464336,0.0735087,18,32765
1.40598,-0.456696,0.0711131,18,32765
1.43302,-0.470418,0.0724369,19,32765
1.39856,0.0179395,0.0607855,18,32765
1.39864,0.013323,0.0601239,18,32765
1.39871,0.008554,0.0595145,18,32765
1.39875,0.003805,0.0589992,18,32765
1.41876,-0.000809986,0.0593627,19,32765
1.40878,-0.0053836,0.0584028,19,32765
1.40877,-0.0100182,0.0579901,19,32765
1.40875,-0.0146737,0.0575589,19,32765
1.42869,-0.0196639,0.0580129,19,32765
1.41864,-0.0242498,0.0571463,19,32765
1.42856,-0.0291434,0.05719,19,32765
1.41847,-0.0336826,0.0566819,18,32765
1.40837,-0.0381608,0.0558913,18,32765
1.40825,-0.0428713,0.0556656,18,32765
1.40811,-0.0475793,0.0553689,18,32765
1.41794,-0.0526132,0.0554078,19,32765
1.41777,-0.057275,0.0552031,19,32765
1.41758,-0.0619921,0.0550291,19,32765
1.42736,-0.0671174,0.0551638,19,32765
1.41715,-0.0713958,0.0545771,19,32765
1.41692,-0.0760613,0.0543318,19,32765
1.42665,-0.0813067,0.0545276,19,32765
1.43634,-0.0866069,0.054913,18,32765
1.41612,-0.0899974,0.0538783,19,32765
1.41582,-0.0947186,0.0537598,19,32765
1.40553,-0.0987339,0.0532251,19,32765
1.42513,-0.104915,0.053849,19,32765
1.4447,-0.111205,0.0544364,19,32765
1.42441,-0.114397,0.0536226,18,32765
1.40411,-0.117452,0.0528151,19,32765
1.43358,-0.124681,0.053879,19,32765
1.4232,-0.12856,0.0535276,19,32765
1.42277,-0.133346,0.0533944,19,32765
1.42231,-0.138119,0.053471,19,32765
1.42184,-0.142884,0.0534382,19,32765
1.42136,-0.147616,0.0532885,19,32765
1.4308,-0.153377,0.0538118,19,32765
1.42034,-0.157113,0.0533898,19,32765
1.42973,-0.163044,0.0537576,19,32765
1.42917,-0.167904,0.0536787,19,32765
1.4286,-0.172663,0.0537659,20,32765
1.42803,-0.177343,0.0537419,19,32765
1.41751,-0.180808,0.0535864,19,32765
1.44663,-0.189409,0.0545328,20,32765
1.43608,-0.192932,0.054307,19,32765
1.43542,-0.197797,0.0543391,20,32765
1.42484,-0.201197,0.0543513,20,32765
1.42417,-0.20592,0.0541159,20,32765
1.44324,-0.213619,0.054929,20,32765
1.43263,-0.216944,0.0547863,20,32765
1.44176,-0.223312,0.0552564,20,32765
1.43113,-0.226583,0.0549064,20,32765
1.43036,-0.231362,0.0551453,20,32765
1.41971,-0.23456,0.0548033,20,32765
1.42876,-0.241023,0.0552459,21,32765
1.43779,-0.247546,0.0556124,21,32765
1.43695,-0.25235,0.0557376,21,32765
1.43608,-0.257158,0.0559845,21,32765
1.42538,-0.260167,0.0556354,20,32765
1.39504,-0.259407,0.0545446,19,32765
1.42361,-0.269636,0.0558909,20,32765
1.43251,-0.276255,0.0565348,21,32765
1.43159,-0.280995,0.0565966,20,32765
1.43064,-0.285781,0.0566322,19,32765
1.41989,-0.288559,0.0562076,20,32765
1.4287,-0.295259,0.0568442,20,32765
1.42771,-0.30004,0.0568118,20,32765
1.42669,-0.304795,0.057045,20,32765
1.42565,-0.309629,0.0570997,20,32765
1.41483,-0.312303,0.0567659,19,32765
1.43326,-0.321446,0.0577597,19,32765
0,-0,0,0,32765
0,-0,0,0,32765
1.37163,-0.321949,0.0555873,13,32765
1.41916,-0.338061,0.0575662,18,32765
1.42774,-0.345085,0.0579786,20,32765
1.41689,-0.347406,0.0576997,19,32765
1.41573,-0.352108,0.0577658,19,32765
1.40487,-0.354306,0.0574791,20,32765
1.42306,-0.363854,0.0583326,20,32765
1.43154,-0.371022,0.0587332,20,32765
1.43031,-0.375705,0.0587667,19,32765
1.42906,-0.380416,0.0588436,19,32765
1.42782,-0.385079,0.0587457,19,32765
1.41692,-0.387081,0.0583505,19,32765
1.43492,-0.396972,0.0592172,19,32765
1.42402,-0.398894,0.0588189,19,32765
1.42271,-0.403523,0.0588673,19,32765
1.43098,-0.410978,0.059098,18,32765
1.42002,-0.412928,0.0586643,18,32765
1.4091,-0.414665,0.0582772,18,32765
1.40778,-0.419103,0.0583062,17,32765
1.39691,-0.420621,0.0576678,17,32765
1.41468,-0.430886,0.0584046,18,32765
1.41328,-0.435486,0.0583029,17,32765
1.43095,-0.44597,0.0589906,18,32765
1.42957,-0.450397,0.0589343,17,32765
1.43768,-0.45789,0.0591848,18,32765
1.41724,-0.456245,0.0580462,18,32765
1.42527,-0.463959,0.057969,19,32765
1.42382,-0.468404,0.0578528,19,32765
1.38929,0.0199666,0.0396776,18,32765
1.39933,0.0155096,0.0403819,18,32765
1.38937,0.0107949,0.0405209,18,32765
1.37939,0.00612065,0.0406073,17,32765
1.38939,0.00146862,0.0410316,18,32765
1.40937,-0.00318839,0.0420991,18,32765
1.39935,-0.00775254,0.0419783,18,32765
1.40931,-0.0124746,0.0423917,18,32765
1.37927,-0.0168031,0.0416318,18,32765
1.40918,-0.0219247,0.0426972,18,32765
1.37912,-0.0260189,0.0419347,18,32765
1.41899,-0.0314965,0.0434197,18,32765
1.40888,-0.0359461,0.0432372,18,32765
1.39876,-0.0403044,0.0429877,17,32765
1.39861,-0.0449625,0.0432024,18,32765
1.39845,-0.0496022,0.0432887,19,32765
1.39828,-0.0542108,0.0434365,18,32765
1.41806,-0.05968,0.0441697,19,32765
1.40786,-0.0639508,0.0439185,19,32765
1.41762,-0.0691921,0.0443225,18,32765
1.4074,-0.0734054,0.0440173,18,32765
1.40714,-0.0781211,0.0441201,19,32765
1.41685,-0.0833805,0.0444664,18,32765
1.38663,-0.0862619,0.0436412,18,32765
1.40628,-0.0922178,0.0444556,18,32765
1.40597,-0.0968675,0.0444192,18,32765
1.40564,-0.101484,0.044465,18,32765
1.41526,-0.106943,0.0448545,19,32765
1.42486,-0.112442,0.0451921,19,32765
1.42447,-0.117254,0.0451995,19,32765
1.40415,-0.120339,0.0446206,18,32765
1.40373,-0.125031,0.0446887,18,32765
1.41327,-0.130601,0.0449298,18,32765
1.42277,-0.136284,0.0453787,19,32765
1.40242,-0.139025,0.0447009,19,32765
1.41189,-0.144706,0.0449636,19,32765
1.40146,-0.148342,0.0447616,19,32765
1.42083,-0.155221,0.0453701,19,32765
1.4203,-0.159998,0.0453948,19,32765
1.40981,-0.163691,0.045066,19,32765
1.39933,-0.167245,0.0448492,19,32765
1.42852,-0.175575,0.0459036,19,32765
1.41801,-0.17909,0.0456898,19,32765
1.41741,-0.183731,0.0457289,20,32765
1.4267,-0.189771,0.0461134,20,32765
1.40624,-0.191867,0.0454977,19,32765
1.42539,-0.199366,0.0460726,19,32765
1.39502,-0.199958,0.0450346,19,32765
1.41412,-0.207536,0.0458102,19,32765
1.4233,-0.213768,0.0460484,19,32765
1.41269,-0.217029,0.0459588,18,32765
1.41195,-0.221789,0.0459083,19,32765
1.41119,-0.22659,0.0458188,18,32765
1.42028,-0.232944,0.0463383,18,32765
1.42935,-0.239354,0.0466171,18,32765
1.38912,-0.237407,0.045532,18,32765
1.42772,-0.248866,0.0468339,18,32765
1.39735,-0.248426,0.0457757,19,32765
1.42601,-0.258445,0.0469842,19,32765
1.41529,-0.261442,0.0468072,18,32765
1.43406,-0.269862,0.0474935,19,32765
1.41352,-0.270834,0.0468661,19,32765
1.41262,-0.275497,0.0469725,19,32765
1.42149,-0.282155,0.0475131,19,32765
1.44993,-0.292796,0.0486788,19,32765
1.41958,-0.291541,0.0478266,18,32765
1.40882,-0.294195,0.0476175,18,32765
1.38828,-0.294718,0.047091,18,32765
1.42637,-0.307733,0.0486298,19,32765
1.43509,-0.31463,0.049158,19,32765
1.43401,-0.319497,0.0494558,19,32765
1.42318,-0.322081,0.0492572,18,32765
1.45131,-0.333546,0.0504135,12,32765
1.3626,-0.317887,0.0476712,16,32765
1.41016,-0.333889,0.0496229,18,32765
1.39936,-0.336079,0.0495024,18,32765
1.4468,-0.352462,0.0515132,19,32765
1.42623,-0.352386,0.0510444,18,32765
1.42505,-0.357059,0.0513537,18,32765
1.43354,-0.364226,0.0520592,18,32765
1.41298,-0.363897,0.0516123,18,32765
1.40209,-0.366042,0.0516186,19,32765
1.42985,-0.378304,0.0531037,18,32765
1.39962,-0.37525,0.0524921,18,32765
1.42729,-0.387727,0.0538747,18,32765
1.40674,-0.387074,0.0534126,17,32765
1.44396,-0.402364,0.0553991,18,32765
1.46189,-0.412431,0.0564918,18,32765
1.41248,-0.403426,0.0551229,17,32765
1.44955,-0.419102,0.0570848,18,32765
1.43857,-0.421009,0.0570642,17,32765
1.45633,-0.431387,0.0584612,18,32765
1.44534,-0.433178,0.0587339,17,32765
1.45349,-0.440713,0.059564,18,32765
1.44249,-0.442438,0.0596736,17,32765
1.4315,-0.444089,0.0598745,17,32765
1.43005,-0.448659,0.0605731,17,32765
1.4286,-0.453169,0.0610699,17,32765
1.43666,-0.46067,0.0623621,18,32765
1.41616,-0.45905,0.0621883,17,32765
1.41469,-0.463418,0.0632182,17,32765
1.41959,0.0204706,0.0271424,19,32765
1.42964,0.0159046,0.0277615,20,32765
1.42968,0.0111572,0.0282012,20,32765
1.4197,0.00633843,0.028393,20,32765
1.42971,0.00154008,0.0287266,20,32765
1.4297,-0.00321542,0.0292107,20,32765
1.41968,-0.00785623,0.0291867,21,32765
1.42964,-0.0126557,0.0295074,20,32765
1.41959,-0.0173055,0.0294473,19,32765
1.42952,-0.0222626,0.0298174,20,32765
1.42943,-0.0269998,0.0299687,20,32765
1.41933,-0.0315455,0.0300287,20,32765
1.43921,-0.036772,0.0305776,20,32765
1.43907,-0.0415284,0.0306365,20,32765
1.42893,-0.0460092,0.0306431,20,32765
1.41878,-0.0504048,0.0305164,20,32765
1.42859,-0.0554783,0.0308824,21,32765
1.4284,-0.0602175,0.0309959,21,32765
1.42818,-0.0649865,0.0310567,20,32765
1.42795,-0.0698195,0.0311501,20,32765
1.4377,-0.0751198,0.031375,21,32765
1.44742,-0.0805026,0.0316988,20,32765
1.45712,-0.0859074,0.0319518,20,32765
1.43686,-0.089552,0.0316327,20,32765
1.43655,-0.0943785,0.0318233,20,32765
1.43623,-0.0991386,0.0317863,20,32765
1.4359,-0.103865,0.0318332,20,32765
1.43554,-0.108683,0.0319085,20,32765
1.44513,-0.114261,0.0321523,20,32765
1.4547,-0.119974,0.0323818,20,32765
1.44433,-0.124023,0.032215,20,32765
1.4439,-0.128859,0.0322851,20,32765
1.4136,-0.130888,0.0315416,19,32765
1.43306,-0.13754,0.0321194,19,32765
1.4127,-0.14032,0.0316301,19,32765
1.43211,-0.147069,0.0320207,20,32765
1.42167,-0.15078,0.0319149,19,32765
1.42116,-0.155566,0.0318887,19,32765
1.44049,-0.162598,0.03236,19,32765
1.44986,-0.168679,0.0325717,20,32765
1.42943,-0.171186,0.0322285,20,32765
1.42884,-0.17597,0.032329,20,32765
1.43816,-0.182003,0.0326603,20,32765
1.42764,-0.185433,0.0324746,20,32765
1.43692,-0.191521,0.0327656,21,32765
1.44617,-0.197718,0.0330173,21,32765
1.4257,-0.199817,0.0324995,19,32765
1.42501,-0.204675,0.03242,19,32765
1.40453,-0.206553,0.0321058,19,32765
1.39394,-0.20979,0.0317996,19,32765
1.42287,-0.219044,0.0327084,19,32765
1.41224,-0.222294,0.0324311,18,32765
1.41148,-0.227107,0.0323419,18,32765
1.43043,-0.235098,0.0329951,19,32765
1.40992,-0.236592,0.032498,19,32765
1.41896,-0.243013,0.0329309,19,32765
1.428,-0.249435,0.0331702,19,32765
1.42715,-0.254256,0.0330795,20,32765
1.42629,-0.259037,0.0333213,19,32765
1.4254,-0.263861,0.0334698,19,32765
1.43433,-0.270482,0.0337373,20,32765
1.43343,-0.275226,0.0337613,19,32765
1.44232,-0.281882,0.0341016,19,32765
1.43156,-0.284754,0.0340859,19,32765
1.4306,-0.289504,0.0342667,20,32765
1.43942,-0.296243,0.0346382,20,32765
1.42864,-0.298968,0.0345255,19,32765
1.41786,-0.301638,0.0344273,19,32765
1.44616,-0.312668,0.0353553,20,32765
1.43534,-0.315356,0.0353121,20,32765
1.43425,-0.320235,0.0356104,19,32765
1.43317,-0.325037,0.0357498,19,32765
1.48078,-0.341049,0.0371134,14,32765
1.46017,-0.34138,0.03695,14,32765
1.38121,-0.327737,0.035224,13,32765
1.38015,-0.332178,0.0354432,14,32765
1.4276,-0.348536,0.0369799,18,32765
1.44586,-0.358008,0.0377092,18,32765
1.43497,-0.360321,0.0377683,19,32765
1.44345,-0.367537,0.0383826,19,32765
1.43256,-0.369737,0.0383857,19,32765
1.42164,-0.371952,0.0384918,19,32765
1.44939,-0.384307,0.0397008,19,32765
1.42879,-0.383903,0.0396467,19,32765
1.42751,-0.388628,0.0399439,19,32765
1.44549,-0.398603,0.0407576,19,32765
1.40566,-0.392545,0.0401806,19,32765
1.43324,-0.405231,0.041354,18,32765
1.4223,-0.407116,0.0415699,19,32765
1.42095,-0.411732,0.0420234,18,32765
1.44837,-0.424803,0.0432358,18,32765
1.42779,-0.423858,0.0432875,19,32765
1.43597,-0.431312,0.0442318,19,32765
1.43456,-0.435929,0.0446679,19,32765
1.43314,-0.440534,0.0451668,19,32765
1.41261,-0.439191,0.0451536,19,32765
1.42071,-0.446709,0.0461534,19,32765
1.4288,-0.454228,0.0469607,19,32765
1.45589,-0.467863,0.0487977,19,32765
1.42586,-0.463212,0.0484983,19,32765
1.43388,-0.470738,0.0498662,19,32765
1.36952,0.0193671,0.0305751,18,32765
1.36959,0.0147326,0.0299249,19,32765
1.39964,0.0103807,0.029961,19,32765
1.40968,0.0057628,0.0295372,19,32765
1.3997,0.00111718,0.0288074,20,32765
1.39971,-0.00344526,0.0282678,20,32765
1.3897,-0.00800272,0.0276587,19,32765
1.38967,-0.0125929,0.0273323,20,32765
1.40962,-0.0176407,0.0273423,19,32765
1.39957,-0.022294,0.0267093,19,32765
1.39949,-0.0269797,0.0262745,19,32765
1.38941,-0.0313715,0.0258223,19,32765
1.3993,-0.036118,0.0257977,19,32765
1.42916,-0.0415704,0.0259909,19,32765
1.40903,-0.0456758,0.0253697,19,32765
1.39888,-0.0500329,0.0249494,20,32765
1.39871,-0.0547437,0.0247285,20,32765
1.38854,-0.0589497,0.0243016,20,32765
1.4183,-0.0649322,0.0245574,19,32765
1.4081,-0.0691136,0.0242297,19,32765
1.39788,-0.0731978,0.023842,20,32765
1.38765,-0.0773076,0.0236305,18,32765
1.42732,-0.0842254,0.0240164,18,32765
1.38711,-0.0864752,0.0232021,18,32765
1.41675,-0.0930466,0.0236053,18,32765
1.39649,-0.0963481,0.0232127,19,32765
