x, y, z, intensity, ring
1.60701,0.789741,0.264461,19,32765
1.61859,0.788774,0.265341,19,32765
1.59454,0.770502,0.26051,19,32765
1.57929,0.756706,0.257205,19,32765
1.564,0.742983,0.253713,19,32765
1.59337,0.750492,0.25758,19,32765
1.62282,0.757782,0.2614,20,32765
1.58948,0.735758,0.25518,19,32765
1.60996,0.73878,0.257545,19,32765
1.54943,0.704742,0.246991,19,32765
1.56988,0.707745,0.249371,19,32765
1.58133,0.706583,0.250245,19,32765
1.56567,0.69328,0.246876,19,32765
1.59519,0.700064,0.250731,19,32765
1.55224,0.675012,0.24292,19,32765
1.57271,0.677662,0.245446,19,32765
1.57504,0.672446,0.244896,19,32765
1.57733,0.667228,0.244438,19,32765
1.56135,0.65436,0.24101,19,32765
1.53619,0.637783,0.236099,19,32765
1.57497,0.647781,0.24137,18,32765
1.54968,0.631399,0.236487,19,32765
1.57934,0.637464,0.240259,19,32765
1.57228,0.62867,0.238337,19,32765
1.55602,0.616226,0.23485,19,32765
1.54887,0.607578,0.232887,19,32765
1.56017,0.606076,0.233758,20,32765
1.56223,0.600941,0.233236,20,32765
1.55501,0.592375,0.23117,21,32765
1.5663,0.590772,0.231928,20,32765
1.57755,0.589173,0.232828,21,32765
1.54238,0.5703,0.226752,20,32765
1.58156,0.578861,0.231525,19,32765
1.57416,0.570384,0.229758,22,32765
1.58545,0.568574,0.230371,22,32765
1.54064,0.546981,0.22302,21,32765
1.54249,0.542026,0.222309,21,32765
1.56304,0.543602,0.224261,22,32765
1.56486,0.538616,0.223587,22,32765
1.5667,0.53356,0.222882,22,32765
1.55906,0.525473,0.220964,22,32765
1.57964,0.526761,0.22283,22,32765
1.55314,0.512509,0.218169,22,32765
1.56425,0.510825,0.218604,22,32765
1.57539,0.508986,0.219018,22,32765
1.55819,0.498072,0.215582,22,32765
1.56933,0.496238,0.215793,22,32765
1.71681,1.26613,0.339269,15,32765
1.67309,1.22557,0.329793,16,32765
1.70903,1.24339,0.335853,16,32765
1.65713,1.19732,0.324398,15,32765
1.70926,1.22638,0.333663,16,32765
1.72143,1.22644,0.334837,17,32765
1.64484,1.16379,0.318904,16,32765
1.69712,1.19256,0.327968,16,32765
1.64431,1.14759,0.316548,16,32765
1.71307,1.18726,0.328495,16,32765
1.6682,1.14808,0.318639,16,32765
1.6965,1.1593,0.322936,15,32765
1.69222,1.1482,0.320789,16,32765
1.63876,1.10396,0.309437,18,32765
1.65071,1.10402,0.310467,16,32765
1.62153,1.07671,0.303683,17,32765
1.63333,1.07693,0.304749,17,32765
1.6452,1.07699,0.305763,16,32765
1.64879,1.07164,0.305251,16,32765
1.64414,1.06082,0.303075,16,32765
1.63944,1.05005,0.300913,16,32765
1.62624,1.03412,0.297388,17,32765
1.62973,1.0288,0.296723,17,32765
1.67506,1.04975,0.303684,18,32765
1.63663,1.01814,0.295514,17,32765
1.6233,1.00229,0.291938,16,32765
1.65198,1.0124,0.29598,17,32765
1.63011,0.991513,0.290772,16,32765
1.65039,0.996414,0.29301,16,32765
1.63681,0.980833,0.289364,16,32765
1.63156,0.970458,0.287431,17,32765
1.64334,0.970125,0.288408,17,32765
1.65523,0.969648,0.28912,17,32765
1.63287,0.949241,0.284207,18,32765
1.61904,0.933895,0.280449,18,32765
1.60503,0.918778,0.276832,17,32765
1.62526,0.92339,0.279253,18,32765
1.63699,0.922928,0.280133,18,32765
1.64011,0.91757,0.279453,18,32765
1.58278,0.878429,0.268441,17,32765
1.62047,0.892191,0.273815,17,32765
1.64954,0.901103,0.277558,19,32765
1.60045,0.867311,0.268192,18,32765
1.63826,0.880822,0.273258,19,32765
1.64129,0.875352,0.272612,18,32765
1.61807,0.856011,0.267581,18,32765
1.62973,0.855328,0.268331,18,32765
1.63262,0.849977,0.267772,17,32765
1.64425,0.849248,0.268568,17,32765
1.64718,0.843815,0.267722,17,32765
1.60593,0.815936,0.260088,16,32765
1.61758,0.814988,0.261026,18,32765
1.56728,0.78297,0.251978,17,32765
1.62321,0.80408,0.259867,19,32765
1.60827,0.789857,0.256311,19,32765
1.60207,0.780164,0.254374,19,32765
1.61364,0.779218,0.255111,18,32765
1.56264,0.748316,0.24633,18,32765
1.60988,0.764471,0.252716,18,32765
1.57662,0.742314,0.246667,18,32765
1.5881,0.741332,0.247527,19,32765
1.59959,0.740272,0.248439,18,32765
1.62013,0.743253,0.25051,18,32765
1.55954,0.709216,0.240336,18,32765
1.58002,0.712199,0.242531,18,32765
1.56434,0.698906,0.23932,18,32765
1.58479,0.701788,0.241751,19,32765
1.56903,0.688573,0.238574,19,32765
1.58951,0.691342,0.240863,19,32765
1.59191,0.686037,0.240186,19,32765
1.57598,0.673001,0.237218,18,32765
1.64211,0.694875,0.246239,17,32765
1.59874,0.670309,0.239199,17,32765
1.57351,0.653753,0.234702,17,32765
1.60323,0.659879,0.23816,17,32765
1.55952,0.635991,0.231138,17,32765
1.54323,0.623528,0.228181,17,32765
1.5453,0.618493,0.227846,18,32765
1.56577,0.620776,0.2302,19,32765
1.58628,0.622912,0.232589,19,32765
1.61605,0.628486,0.236395,21,32765
1.56263,0.601884,0.228064,19,32765
1.58317,0.60382,0.230402,19,32765
1.58513,0.598705,0.23022,19,32765
1.58712,0.593494,0.230034,19,32765
1.57977,0.584932,0.228441,18,32765
1.57236,0.576442,0.226915,15,32765
1.60222,0.581448,0.230666,22,32765
1.59482,0.572891,0.229022,21,32765
1.5967,0.567662,0.228904,21,32765
1.5705,0.552613,0.224821,20,32765
1.59095,0.554208,0.227471,21,32765
1.6208,0.55887,0.231426,22,32765
1.61317,0.550573,0.230098,21,32765
1.59618,0.539036,0.227295,22,32765
1.60732,0.536974,0.228675,22,32765
1.59966,0.528672,0.227166,21,32765
1.57306,0.514298,0.223332,21,32765
1.61236,0.52155,0.228844,22,32765
1.58566,0.507392,0.225056,20,32765
1.57775,0.499438,0.224001,20,32765
1.66278,1.22796,0.308834,16,32765
1.65877,1.21673,0.307305,17,32765
1.69472,1.23465,0.312993,17,32765
1.68281,1.21751,0.309564,17,32765
1.66276,1.19461,0.305006,17,32765
1.69094,1.20632,0.30904,18,32765
1.65456,1.17222,0.301393,17,32765
1.63412,1.1498,0.296678,16,32765
1.63787,1.14458,0.296191,16,32765
1.65792,1.15053,0.298612,17,32765
1.62917,1.12267,0.292253,18,32765
1.64926,1.12846,0.29482,18,32765
1.64487,1.11749,0.292781,17,32765
1.62404,1.09544,0.287911,18,32765
1.66064,1.11207,0.293207,18,32765
1.61498,1.07371,0.283893,17,32765
1.63503,1.0794,0.286314,18,32765
1.59727,1.04691,0.278572,17,32765
1.64223,1.06869,0.285279,17,32765
1.62094,1.04713,0.280323,16,32765
1.6245,1.04176,0.279697,16,32765
1.63631,1.04179,0.280657,17,32765
1.69002,1.06816,0.288558,17,32765
1.6433,1.03109,0.279352,17,32765
1.62157,1.00998,0.274503,18,32765
1.61661,0.999353,0.272537,18,32765
1.62844,0.999155,0.273467,18,32765
1.64031,0.998898,0.274202,19,32765
1.59286,0.962809,0.264972,18,32765
1.59611,0.957571,0.264347,17,32765
1.6078,0.957439,0.265325,18,32765
1.63659,0.967261,0.269018,18,32765
1.63994,0.961798,0.268242,20,32765
1.63464,0.95136,0.266401,19,32765
1.60364,0.926071,0.260047,20,32765
1.61536,0.925746,0.260784,19,32765
1.58398,0.900958,0.254709,17,32765
1.60427,0.9055,0.256891,18,32765
1.60733,0.90024,0.256224,18,32765
1.6278,0.904422,0.258242,18,32765
1.61356,0.889375,0.255003,18,32765
1.60788,0.879319,0.252998,19,32765
1.61091,0.873938,0.252392,18,32765
1.59643,0.859273,0.248919,19,32765
1.59939,0.853934,0.248288,19,32765
1.63735,0.867152,0.253026,20,32765
1.59643,0.838755,0.245578,20,32765
1.59926,0.833504,0.24503,19,32765
1.60204,0.828332,0.244403,20,32765
1.63135,0.836595,0.247592,20,32765
1.61653,0.822189,0.244437,20,32765
1.61051,0.812279,0.242612,20,32765
1.60446,0.802384,0.240777,20,32765
1.59836,0.792592,0.238804,21,32765
1.61894,0.795919,0.240736,21,32765
1.59493,0.777483,0.236248,20,32765
1.59757,0.772247,0.235578,20,32765
1.57331,0.754189,0.231303,19,32765
1.60271,0.761833,0.234597,19,32765
1.55146,0.731201,0.226306,18,32765
1.55393,0.726104,0.225776,18,32765
1.61036,0.745994,0.233116,19,32765
1.6039,0.736534,0.2311,18,32765
1.57932,0.718913,0.226767,17,32765
1.59985,0.721839,0.228768,19,32765
1.57513,0.704406,0.224448,18,32765
1.60468,0.711278,0.227977,19,32765
1.58894,0.697972,0.224981,19,32765
1.59128,0.692765,0.224512,19,32765
1.56636,0.675661,0.219996,19,32765
1.6051,0.686073,0.224886,20,32765
1.57088,0.665347,0.219222,20,32765
1.56395,0.65632,0.21775,21,32765
1.58443,0.658887,0.219898,20,32765
1.57751,0.649877,0.218002,20,32765
1.56127,0.637272,0.215248,21,32765
1.56335,0.632218,0.215007,21,32765
1.57466,0.630797,0.215931,20,32765
1.57676,0.625672,0.215569,20,32765
1.55114,0.609634,0.211475,20,32765
1.57165,0.611737,0.213748,21,32765
1.58291,0.610207,0.214776,20,32765
1.57569,0.601467,0.213161,21,32765
1.56837,0.59286,0.211726,20,32765
1.53317,0.573785,0.206535,17,32765
0,0,0,0,32765
1.57415,0.577555,0.211113,15,32765
1.55742,0.565631,0.208344,21,32765
1.56863,0.563918,0.209294,23,32765
1.56114,0.55544,0.207933,22,32765
1.56294,0.550366,0.207866,21,32765
1.56467,0.545456,0.207839,21,32765
1.57577,0.543737,0.209026,22,32765
1.56809,0.535567,0.207791,22,32765
1.57922,0.533685,0.208909,22,32765
1.57154,0.525383,0.207708,22,32765
1.58267,0.523414,0.208781,23,32765
1.56546,0.512153,0.20647,22,32765
1.56705,0.50722,0.206627,22,32765
1.56861,0.502257,0.206851,22,32765
1.57014,0.497339,0.207134,22,32765
1.71964,1.26531,0.327767,17,32765
1.70008,1.24227,0.321556,16,32765
1.6804,1.21931,0.315532,16,32765
0,0,0,0,32765
0,0,0,0,32765
0,0,0,0,32765
0,0,0,0,32765
1.70943,1.19734,0.310351,16,32765
1.67286,1.16361,0.301886,16,32765
1.68499,1.16374,0.302358,17,32765
1.64826,1.13019,0.2938,16,32765
1.63584,1.11356,0.289848,17,32765
1.65604,1.11933,0.291601,17,32765
1.65172,1.10832,0.289016,17,32765
1.63078,1.08651,0.283677,17,32765
1.66751,1.103,0.288409,17,32765
1.65473,1.08671,0.284492,16,32765
1.72475,1.12456,0.29492,17,32765
1.62054,1.04901,0.27553,17,32765
1.6241,1.04372,0.274675,16,32765
1.64437,1.04906,0.276449,17,32765
1.62289,1.02775,0.271253,17,32765
1.64314,1.03295,0.273323,17,32765
1.63827,1.0223,0.271078,17,32765
1.64169,1.01695,0.270458,17,32765
1.63671,1.00642,0.268154,17,32765
1.6317,0.995903,0.26578,17,32765
1.6435,0.995741,0.266498,17,32765
1.65532,0.995511,0.267144,18,32765
1.63314,0.974927,0.262224,17,32765
1.61943,0.95943,0.258732,17,32765
1.59712,0.938945,0.253928,17,32765
1.66031,0.968519,0.262594,19,32765
1.63796,0.948008,0.257843,17,32765
1.65832,0.952548,0.259843,16,32765
1.60983,0.91777,0.251079,16,32765
1.64737,0.932092,0.255872,17,32765
1.54677,0.868548,0.239235,15,32765
1.63629,0.911705,0.251901,17,32765
1.62201,0.896737,0.248717,18,32765
1.62509,0.891338,0.247974,18,32765
1.65423,0.900205,0.251287,18,32765
1.59621,0.861802,0.241468,18,32765
1.58169,0.847096,0.238267,18,32765
1.62833,0.865187,0.244101,20,32765
1.63126,0.859799,0.24358,18,32765
1.6166,0.845254,0.24034,19,32765
1.61063,0.835396,0.238538,18,32765
1.61344,0.830115,0.237919,18,32765
1.58974,0.811266,0.233603,19,32765
1.55713,0.788054,0.227836,18,32765
1.57759,0.791708,0.229799,18,32765
1.55369,0.773161,0.225303,17,32765
1.59193,0.785474,0.229984,18,32765
1.58571,0.7758,0.228192,17,32765
1.65081,0.800838,0.236588,18,32765
1.6357,0.786721,0.233353,17,32765
1.6294,0.776992,0.231823,17,32765
1.59618,0.754643,0.226124,18,32765
1.5179,0.711511,0.214051,17,32765
1.58326,0.735806,0.222462,18,32765
1.57674,0.726425,0.220689,18,32765
1.63334,0.745944,0.227755,20,32765
1.59069,0.720065,0.2209,18,32765
1.59315,0.71478,0.220361,19,32765
1.60467,0.71354,0.220933,19,32765
1.57989,0.696135,0.216675,19,32765
1.62771,0.710754,0.222471,19,32765
1.58462,0.685609,0.215676,19,32765
1.57786,0.676402,0.213882,19,32765
1.62584,0.690603,0.219371,19,32765
1.58241,0.66602,0.212837,20,32765
1.59381,0.664674,0.213456,19,32765
1.59606,0.65946,0.212844,19,32765
1.59827,0.654273,0.212277,21,32765
1.60972,0.652663,0.212923,19,32765
1.58433,0.636216,0.208625,20,32765
1.60496,0.63831,0.210388,20,32765
1.56094,0.614834,0.203797,18,32765
1.60924,0.627833,0.209232,17,32765
1.5928,0.615474,0.206353,16,32765
1.60415,0.613904,0.20672,16,32765
1.58761,0.601712,0.203807,16,32765
1.50596,0.565182,0.192493,15,32765
1.50785,0.560338,0.191857,15,32765
1.59361,0.586296,0.201922,13,32765
1.48364,0.540269,0.187147,13,32765
1.57888,0.56913,0.198287,21,32765
1.5621,0.557346,0.195189,20,32765
1.60144,0.565528,0.199179,21,32765
1.60334,0.56036,0.198495,20,32765
1.60524,0.555134,0.197854,21,32765
1.5507,0.530698,0.190253,20,32765
1.5807,0.535326,0.192907,21,32765
1.5542,0.520919,0.188658,20,32765
1.57475,0.52235,0.19027,20,32765
1.55761,0.511179,0.187175,20,32765
1.5971,0.518548,0.190964,21,32765
1.58939,0.510469,0.188867,21,32765
1.57211,0.499547,0.18578,21,32765
1.6022,0.503744,0.187868,22,32765
1.65743,1.22129,0.296269,17,32765
1.66964,1.22178,0.296064,17,32765
1.62583,1.1814,0.286117,17,32765
1.62196,1.17019,0.283343,16,32765
1.66627,1.19371,0.28895,17,32765
1.66239,1.18247,0.286073,17,32765
1.69066,1.19421,0.289194,17,32765
1.6704,1.17167,0.283809,17,32765
1.64183,1.14365,0.277207,16,32765
1.65389,1.14389,0.277603,17,32765
1.66605,1.144,0.277702,17,32765
1.61273,1.09938,0.267144,17,32765
1.65751,1.1219,0.272776,18,32765
1.61207,1.08323,0.263559,18,32765
1.63222,1.08899,0.265221,18,32765
1.65247,1.09458,0.26691,18,32765
1.61479,1.06196,0.259201,18,32765
1.63499,1.06752,0.260956,19,32765
1.62199,1.0514,0.257347,19,32765
1.62555,1.04609,0.256491,19,32765
1.62912,1.04077,0.255457,19,32765
1.64108,1.04069,0.255769,18,32765
1.63622,1.03001,0.25374,19,32765
1.61451,1.00884,0.248997,18,32765
1.59261,0.987884,0.244504,17,32765
1.63818,1.00869,0.250054,18,32765
1.61624,0.987799,0.245204,17,32765
1.5941,0.967111,0.240712,18,32765
1.61433,0.97216,0.242562,18,32765
1.64313,0.982199,0.245577,18,32765
1.61236,0.956514,0.239729,19,32765
1.62422,0.956137,0.240266,18,32765
1.62755,0.950663,0.239442,20,32765
1.57936,0.915295,0.231215,19,32765
1.59963,0.920038,0.233052,20,32765
1.62853,0.929642,0.236116,20,32765
1.62298,0.919482,0.234297,20,32765
1.62603,0.914234,0.233706,19,32765
1.62046,0.904048,0.231771,19,32765
1.60613,0.8891,0.228777,20,32765
1.61789,0.88852,0.229274,19,32765
1.61218,0.87844,0.227392,20,32765
1.60642,0.86841,0.225598,20,32765
1.5919,0.853639,0.22258,19,32765
1.59479,0.848429,0.221846,20,32765
1.63278,0.861673,0.226199,19,32765
1.6093,0.842488,0.221933,20,32765
1.61212,0.83721,0.221436,19,32765
1.58847,0.818276,0.217195,19,32765
1.60007,0.817538,0.217983,20,32765
1.58516,0.803217,0.214988,19,32765
1.5702,0.788956,0.211963,20,32765
1.5907,0.792533,0.213718,20,32765
1.57562,0.778364,0.210866,20,32765
1.5872,0.77746,0.21155,20,32765
1.60771,0.780858,0.213363,20,32765
1.60146,0.771165,0.211514,19,32765
1.57717,0.752975,0.207722,19,32765
1.60667,0.760493,0.210654,20,32765
1.57328,0.738332,0.205283,20,32765
1.61177,0.749929,0.209511,21,32765
1.63235,0.752915,0.211325,21,32765
1.61683,0.739252,0.208494,20,32765
1.55602,0.705176,0.199789,20,32765
1.57655,0.708136,0.201578,19,32765
1.5699,0.69887,0.199754,20,32765
1.56322,0.689566,0.198091,19,32765
1.56555,0.684377,0.197677,18,32765
1.60437,0.694926,0.201686,18,32765
1.61589,0.693471,0.202263,19,32765
1.57254,0.668699,0.19588,18,32765
1.62055,0.68282,0.201192,19,32765
1.56784,0.654553,0.19377,18,32765
1.56087,0.645616,0.192038,19,32765
1.57222,0.644303,0.19261,20,32765
1.57443,0.639041,0.192048,21,32765
1.57663,0.633799,0.191403,21,32765
1.56034,0.62122,0.18852,21,32765
1.57169,0.619717,0.189085,21,32765
1.57375,0.614632,0.188503,21,32765
1.58506,0.61312,0.18914,22,32765
1.56856,0.600907,0.186114,21,32765
1.56125,0.592331,0.184497,21,32765
1.58184,0.594269,0.186077,20,32765
0,0,0,0,32765
1.55782,0.573709,0.181555,16,32765
1.56912,0.571971,0.182003,21,32765
1.58039,0.570243,0.182455,22,32765
1.56359,0.558433,0.179543,22,32765
1.57484,0.556686,0.179944,23,32765
1.56732,0.548312,0.178204,23,32765
1.56917,0.543194,0.177577,22,32765
1.57098,0.538163,0.176909,23,32765
1.59161,0.539544,0.178218,23,32765
1.57453,0.528239,0.175294,21,32765
1.5668,0.52021,0.173572,21,32765
1.58742,0.521459,0.174831,20,32765
1.58914,0.516453,0.174086,21,32765
1.5814,0.508384,0.172088,22,32765
1.57358,0.500482,0.170217,22,32765
1.57522,0.495726,0.168968,22,32765
0,0,0,0,32765
1.74517,1.27484,0.285623,16,32765
0,0,0,0,32765
0,0,0,0,32765
0,0,0,0,32765
0,0,0,0,32765
0,0,0,0,32765
1.69695,1.18942,0.271566,16,32765
1.69278,1.17819,0.269732,17,32765
1.64773,1.13887,0.261488,15,32765
1.67604,1.15032,0.264895,16,32765
1.66345,1.13372,0.261741,15,32765
1.62619,1.10047,0.254682,17,32765
1.6546,1.11168,0.25798,16,32765
1.6501,1.1007,0.256182,17,32765
1.65389,1.09516,0.255476,17,32765
1.65757,1.0897,0.254948,17,32765
1.63626,1.06806,0.250604,18,32765
1.64813,1.06813,0.251365,17,32765
1.66832,1.07356,0.253347,18,32765
1.63848,1.04673,0.247669,17,32765
1.63362,1.03605,0.245748,16,32765
1.65388,1.04128,0.247635,18,32765
1.61531,1.00958,0.240685,16,32765
1.61023,0.999084,0.238916,16,32765
1.65589,1.01974,0.244494,18,32765
1.62553,0.993505,0.238775,17,32765
1.61197,0.977745,0.235712,17,32765
1.64931,0.992893,0.239896,17,32765
1.66114,0.99258,0.240599,17,32765
1.6559,0.982114,0.238832,17,32765
1.59931,0.941514,0.229446,17,32765
1.62821,0.951251,0.232524,17,32765
1.63148,0.945809,0.23177,18,32765
1.61753,0.93041,0.228749,18,32765
1.64658,0.939766,0.231754,19,32765
1.58931,0.900112,0.222458,18,32765
1.60964,0.904624,0.224339,19,32765
1.63867,0.913888,0.227277,19,32765
1.61573,0.894084,0.222775,18,32765
1.60134,0.879167,0.219943,17,32765
1.63051,0.88807,0.222868,18,32765
1.64227,0.887384,0.223372,17,32765
1.61028,0.863154,0.218069,17,32765
1.57814,0.839202,0.212637,17,32765
1.62492,0.857148,0.217786,18,32765
1.60141,0.838006,0.213612,18,32765
1.60426,0.83268,0.213029,19,32765
1.61595,0.831856,0.213612,18,32765
1.62766,0.830955,0.214133,19,32765
1.62167,0.821005,0.212244,19,32765
1.58898,0.797772,0.206874,19,32765
1.57391,0.783675,0.203859,18,32765
1.59435,0.787286,0.205706,19,32765
1.57028,0.768879,0.201645,18,32765
1.57292,0.763638,0.200962,18,32765
1.61135,0.775584,0.204978,18,32765
1.56917,0.748838,0.198626,19,32765
1.56271,0.739452,0.196834,19,32765
1.59216,0.747024,0.199732,19,32765
1.58565,0.737627,0.198041,19,32765
1.58814,0.732405,0.197488,18,32765
1.59063,0.727143,0.196849,18,32765
1.60213,0.72599,0.197505,18,32765
1.6409,0.736878,0.201395,17,32765
1.65251,0.735399,0.201991,16,32765
1.56406,0.689807,0.190475,16,32765
1.54816,0.676752,0.187607,17,32765
1.51393,0.655914,0.18276,17,32765
1.5618,0.67052,0.187808,18,32765
1.56409,0.665296,0.187395,19,32765
1.57552,0.663928,0.187983,20,32765
1.61446,0.673975,0.192018,20,32765
1.58915,0.657313,0.188289,19,32765
1.59133,0.652147,0.18782,21,32765
1.59346,0.646999,0.187536,20,32765
1.59562,0.641797,0.18708,20,32765
1.57003,0.625588,0.183422,20,32765
1.59982,0.631448,0.186389,20,32765
1.60192,0.626235,0.185982,21,32765
1.55762,0.603058,0.180382,20,32765
1.59673,0.612281,0.184312,21,32765
1.58017,0.599993,0.181843,20,32765
1.59143,0.598378,0.182705,19,32765
0,0,0,0,32765
1.60471,0.59138,0.183249,16,32765
1.60665,0.586184,0.182945,22,32765
1.61793,0.584333,0.183712,23,32765
1.61045,0.575765,0.182595,22,32765
1.6217,0.573836,0.18361,22,32765
1.60482,0.561989,0.181207,21,32765
1.61603,0.56006,0.182157,23,32765
1.60842,0.551656,0.18098,22,32765
1.59134,0.540162,0.178762,21,32765
1.58362,0.531909,0.177786,20,32765
1.6042,0.533117,0.179762,20,32765
1.58701,0.521808,0.177525,20,32765
1.59806,0.519941,0.178803,21,32765
1.59965,0.51499,0.178859,21,32765
1.5823,0.503877,0.176997,21,32765
1.57444,0.495716,0.176086,20,32765
1.64599,1.21301,0.250849,16,32765
1.67414,1.22502,0.254344,18,32765
1.63805,1.19031,0.248076,17,32765
1.64994,1.19089,0.248984,17,32765
1.66179,1.19149,0.249796,18,32765
1.67384,1.19182,0.250485,18,32765
1.62107,1.14617,0.241672,17,32765
1.65742,1.16362,0.246039,18,32765
1.63688,1.14114,0.241903,17,32765
1.64881,1.14147,0.242642,17,32765
1.66896,1.14732,0.244569,17,32765
1.63996,1.11951,0.239211,17,32765
1.66016,1.12526,0.240976,17,32765
1.62277,1.09203,0.234461,17,32765
1.63471,1.09217,0.23514,18,32765
1.62192,1.07569,0.232071,17,32765
1.65042,1.08671,0.235097,18,32765
1.62077,1.05961,0.229856,19,32765
1.62428,1.05432,0.229351,19,32765
1.60271,1.03294,0.225286,18,32765
1.61454,1.03303,0.225856,19,32765
1.63477,1.03839,0.227538,18,32765
1.62145,1.02243,0.224582,19,32765
1.65013,1.03293,0.227393,18,32765
1.61139,1.00133,0.221075,19,32765
1.61481,0.995952,0.220415,19,32765
1.59281,0.974986,0.216238,18,32765
1.60465,0.974774,0.216813,19,32765
1.61648,0.974593,0.217197,18,32765
1.60268,0.959083,0.214395,18,32765
1.59732,0.948786,0.212739,17,32765
1.61761,0.953701,0.214237,18,32765
1.61226,0.943329,0.212506,18,32765
1.59832,0.927952,0.209505,18,32765
1.61012,0.927512,0.210052,18,32765
1.60467,0.91719,0.208299,18,32765
1.58185,0.897198,0.204141,19,32765
1.61084,0.90662,0.206949,19,32765
1.61388,0.901363,0.206277,20,32765
1.62564,0.900868,0.206486,20,32765
1.59384,0.87631,0.201634,20,32765
1.61429,0.880499,0.203182,20,32765
1.62603,0.879866,0.203599,19,32765
1.58523,0.850938,0.197583,19,32765
1.57934,0.841034,0.195799,19,32765
1.59979,0.845086,0.197227,19,32765
1.59383,0.835215,0.195504,20,32765
1.61432,0.839074,0.197077,21,32765
1.60835,0.829105,0.195414,20,32765
1.58465,0.810125,0.191563,20,32765
1.57858,0.8003,0.189787,20,32765
1.58132,0.795027,0.189059,19,32765
1.61072,0.803112,0.191525,19,32765
1.6045,0.793386,0.190006,18,32765
1.58042,0.774908,0.186221,19,32765
1.59203,0.77397,0.186582,18,32765
1.62157,0.781561,0.189171,20,32765
1.59731,0.763301,0.185365,19,32765
1.60887,0.762321,0.185729,20,32765
1.60241,0.752842,0.184192,20,32765
1.58689,0.739192,0.181559,20,32765
1.58939,0.733956,0.181005,20,32765
1.60997,0.736961,0.182415,20,32765
1.58528,0.719301,0.178882,19,32765
1.58776,0.713951,0.178326,20,32765
1.56295,0.696453,0.174781,20,32765
1.5653,0.691253,0.174362,21,32765
1.55851,0.682157,0.172689,20,32765
1.57902,0.685,0.174258,20,32765
1.57219,0.675846,0.17279,21,32765
1.58364,0.674476,0.173376,21,32765
1.60428,0.676908,0.174862,20,32765
1.56985,0.656182,0.170538,20,32765
1.56284,0.647247,0.169091,21,32765
1.5742,0.645934,0.169622,22,32765
1.58553,0.64458,0.170331,21,32765
1.56922,0.631959,0.167901,21,32765
1.58054,0.630553,0.168472,21,32765
1.59187,0.629077,0.169188,21,32765
1.57542,0.616625,0.16682,21,32765
1.57745,0.611473,0.166592,21,32765
1.59803,0.613518,0.168186,22,32765
1.57216,0.597665,0.164928,22,32765
1.58343,0.596074,0.165697,19,32765
1.56675,0.583948,0.163428,19,32765
1.56868,0.57878,0.163234,19,32765
1.61733,0.590765,0.167786,20,32765
1.58183,0.571955,0.163616,22,32765
1.57431,0.563486,0.162593,21,32765
1.59491,0.564996,0.164483,23,32765
1.56859,0.549921,0.161306,22,32765
1.59858,0.554631,0.164095,24,32765
1.57212,0.539802,0.161083,23,32765
1.57384,0.534806,0.160983,23,32765
1.58497,0.532938,0.162029,23,32765
1.58668,0.52786,0.161889,22,32765
1.58836,0.52281,0.161767,22,32765
1.57104,0.511687,0.160058,22,32765
1.58209,0.509864,0.161078,22,32765
1.57419,0.501808,0.160366,22,32765
1.57581,0.49665,0.160515,23,32765
1.65515,1.21553,0.260521,16,32765
1.69958,1.23918,0.265052,17,32765
1.6397,1.18689,0.25353,16,32765
1.6599,1.19311,0.254641,16,32765
1.68815,1.20507,0.257039,17,32765
1.61938,1.14798,0.244427,16,32765
1.65578,1.16553,0.248084,16,32765
1.65161,1.15443,0.245682,17,32765
1.65551,1.14907,0.244576,17,32765
1.71667,1.1831,0.251609,17,32765
1.6797,1.14945,0.244693,15,32765
1.69185,1.14953,0.244571,16,32765
1.69579,1.14396,0.243387,16,32765
1.66673,1.11624,0.237491,16,32765
1.64577,1.0942,0.232967,16,32765
1.64125,1.08325,0.230782,16,32765
1.5951,1.04515,0.222979,17,32765
1.65692,1.07788,0.229956,17,32765
1.7106,1.10485,0.235942,19,32765
1.63903,1.0511,0.224424,17,32765
1.64252,1.04581,0.223639,17,32765
1.62924,1.02986,0.220427,18,32765
1.64113,1.02983,0.220561,17,32765
1.61929,1.00873,0.216262,18,32765
1.61426,0.998185,0.214246,18,32765
1.65998,1.01882,0.219242,18,32765
1.638,0.9978,0.215055,17,32765
1.65841,1.00268,0.21634,18,32765
1.65326,0.992128,0.214527,17,32765
1.62247,0.966316,0.20932,17,32765
1.62578,0.96097,0.208299,17,32765
1.6119,0.945541,0.205285,18,32765
1.62372,0.945196,0.20555,17,32765
1.65268,0.95483,0.208179,18,32765
1.6128,0.924658,0.201976,18,32765
1.65047,0.939035,0.205563,19,32765
1.62768,0.918941,0.201492,18,32765
1.63949,0.918405,0.201747,19,32765
1.65125,0.91784,0.202347,19,32765
1.61083,0.888406,0.196087,19,32765
1.63124,0.892668,0.197751,19,32765
1.61674,0.877854,0.195021,19,32765
1.61095,0.867795,0.193326,18,32765
1.60512,0.857786,0.191566,19,32765
1.60804,0.852418,0.191061,19,32765
1.62855,0.85634,0.192407,19,32765
1.59618,0.832503,0.187765,19,32765
1.61672,0.836287,0.189068,17,32765
1.66383,0.853542,0.193747,19,32765
1.65789,0.843457,0.192077,17,32765
1.60749,0.811029,0.18525,17,32765
1.5658,0.783341,0.179533,17,32765
1.55953,0.773742,0.178036,17,32765
1.56214,0.768572,0.17755,18,32765
1.61839,0.789569,0.183039,18,32765
1.57628,0.762583,0.177265,19,32765
1.61478,0.774499,0.180619,19,32765
1.56347,0.743523,0.174127,18,32765
1.602,0.755288,0.177588,19,32765
1.59555,0.745756,0.17598,19,32765
1.58001,0.732103,0.173518,19,32765
1.59153,0.731051,0.17374,20,32765
1.61211,0.734027,0.175235,20,32765
1.60552,0.724617,0.17364,19,32765
1.58983,0.711136,0.170926,19,32765
1.59223,0.705869,0.170446,20,32765
1.57643,0.692516,0.167902,19,32765
1.5514,0.675351,0.164512,19,32765
1.60853,0.693865,0.169633,21,32765
1.60174,0.684583,0.168154,19,32765
1.58575,0.671477,0.165528,20,32765
1.60641,0.673873,0.166904,20,32765
1.58115,0.65705,0.163275,20,32765
1.58334,0.651858,0.162832,20,32765
1.60396,0.654207,0.164067,21,32765
1.57846,0.637788,0.160548,19,32765
1.57132,0.628961,0.159207,20,32765
1.58269,0.627488,0.15955,21,32765
1.56625,0.615036,0.157085,19,32765
1.5776,0.613552,0.157265,20,32765
1.57966,0.608395,0.156644,20,32765
1.57238,0.599705,0.155152,20,32765
1.5837,0.598129,0.155407,20,32765
1.58569,0.592986,0.154797,19,32765
1.62505,0.601593,0.157739,16,32765
1.54295,0.565371,0.148873,18,32765
1.57296,0.570478,0.150872,20,32765
1.57485,0.565421,0.150174,21,32765
1.58612,0.563627,0.150446,22,32765
1.5786,0.555246,0.148729,20,32765
1.58043,0.55017,0.148148,20,32765
1.60109,0.551592,0.149177,22,32765
1.58404,0.540107,0.146623,21,32765
1.58577,0.535213,0.145883,21,32765
1.59696,0.533372,0.146026,21,32765
1.57981,0.521991,0.143605,21,32765
1.57212,0.513754,0.141782,21,32765
1.57381,0.508772,0.140923,21,32765
1.5944,0.510104,0.141712,20,32765
1.57701,0.499268,0.139134,21,32765
1.58815,0.497364,0.13894,20,32765
1.65602,1.21832,0.241213,17,32765
1.66038,1.21272,0.239491,18,32765
1.64057,1.1896,0.234497,17,32765
1.68496,1.21325,0.238849,18,32765
1.67288,1.19626,0.235263,17,32765
1.67694,1.19087,0.233663,18,32765
1.64853,1.16246,0.227921,17,32765
1.65249,1.15706,0.226733,18,32765
1.64823,1.14601,0.224513,18,32765
1.64397,1.13497,0.22206,18,32765
1.6478,1.12957,0.221151,18,32765
1.6681,1.13536,0.222053,18,32765
1.65552,1.11872,0.218708,18,32765
1.62635,1.09107,0.213212,18,32765
1.65493,1.10218,0.215456,18,32765
1.59237,1.0528,0.205853,19,32765
1.6209,1.06387,0.208245,18,32765
1.63283,1.06402,0.208176,18,32765
1.61969,1.04792,0.205154,17,32765
1.62319,1.04271,0.204004,17,32765
1.61826,1.03211,0.202178,18,32765
1.61332,1.02152,0.200208,18,32765
1.60835,1.01096,0.198183,19,32765
1.62018,1.01099,0.198313,19,32765
1.63206,1.01089,0.198445,19,32765
1.61006,0.989831,0.194765,20,32765
1.60495,0.979298,0.192925,19,32765
1.63381,0.989454,0.195057,20,32765
1.62008,0.973833,0.192334,19,32765
1.63193,0.97356,0.192557,20,32765
1.60957,0.952965,0.188521,20,32765
1.62139,0.952678,0.188697,20,32765
1.60745,0.937264,0.18588,20,32765
1.59334,0.922053,0.18328,20,32765
1.63961,0.941567,0.187438,21,32765
1.64277,0.936179,0.186707,21,32765
1.61996,0.916067,0.18292,19,32765
1.6144,0.905816,0.181137,19,32765
1.60873,0.89565,0.179706,19,32765
1.61177,0.890356,0.17877,19,32765
1.63219,0.894625,0.180246,19,32765
1.61769,0.879776,0.177702,20,32765
1.58562,0.855513,0.173228,20,32765
1.60607,0.859659,0.174431,20,32765
1.61779,0.858945,0.174875,21,32765
1.6119,0.848927,0.173189,20,32765
1.61478,0.843533,0.172701,21,32765
1.60001,0.828943,0.170049,21,32765
1.62941,0.837193,0.172391,22,32765
1.60567,0.818163,0.168959,20,32765
1.59069,0.803802,0.166434,20,32765
1.60237,0.802874,0.16675,21,32765
1.61399,0.801996,0.167182,21,32765
1.5899,0.783431,0.163916,20,32765
1.59255,0.778151,0.163326,20,32765
1.59517,0.772904,0.162599,20,32765
1.60681,0.771847,0.16284,20,32765
1.60041,0.762243,0.161447,21,32765
1.59399,0.752649,0.16,21,32765
1.57851,0.738902,0.157587,21,32765
1.59907,0.742046,0.158909,20,32765
1.61063,0.74093,0.159027,20,32765
1.55875,0.71079,0.153203,21,32765
1.60653,0.726153,0.157045,20,32765
1.59993,0.716712,0.155399,20,32765
1.59324,0.707359,0.154036,21,32765
1.57743,0.693975,0.151679,21,32765
1.57065,0.684734,0.150317,21,32765
1.59127,0.68742,0.151386,21,32765
1.59361,0.682097,0.150873,22,32765
1.5776,0.668993,0.148438,20,32765
1.57988,0.663704,0.147908,21,32765
1.57296,0.654591,0.146283,22,32765
1.56594,0.645618,0.14499,21,32765
1.58655,0.648029,0.146043,22,32765
1.56101,0.631634,0.142813,21,32765
1.58159,0.633969,0.144098,22,32765
1.58371,0.628782,0.143503,22,32765
1.56727,0.616302,0.141225,22,32765
1.56933,0.611196,0.140479,22,32765
1.58068,0.609643,0.140688,22,32765
1.5734,0.600931,0.139289,20,32765
1.53811,0.581722,0.135348,16,32765
1.54938,0.580213,0.135572,13,32765
0,0,0,0,32765
1.52523,0.55965,0.131765,18,32765
1.5646,0.56823,0.134294,22,32765
1.57586,0.566562,0.1344,23,32765
1.57775,0.56142,0.13378,21,32765
1.5326,0.539803,0.128996,19,32765
1.54379,0.538147,0.129219,19,32765
1.56442,0.53969,0.130077,21,32765
1.56619,0.534742,0.129286,20,32765
1.549,0.523509,0.127006,21,32765
1.56962,0.524943,0.127841,21,32765
1.58082,0.523025,0.127917,22,32765
1.57311,0.514769,0.126187,22,32765
1.57481,0.509774,0.125328,22,32765
1.56691,0.50198,0.123678,22,32765
1.578,0.500247,0.123537,23,32765
1.57963,0.495353,0.122509,23,32765
1.70682,1.25427,0.224669,16,32765
1.70301,1.2427,0.223335,17,32765
1.64271,1.19041,0.214479,17,32765
1.67899,1.20821,0.218268,16,32765
1.6668,1.19112,0.215886,16,32765
1.69515,1.20284,0.218533,16,32765
1.69914,1.1973,0.217891,16,32765
1.67043,1.16907,0.213175,16,32765
1.66614,1.15793,0.21161,17,32765
1.66181,1.14682,0.210013,17,32765
1.60003,1.09629,0.201343,16,32765
1.71067,1.16372,0.21393,17,32765
1.64035,1.10799,0.204198,16,32765
1.67712,1.12475,0.207633,15,32765
1.66427,1.10831,0.204832,15,32765
1.65133,1.09189,0.202432,16,32765
1.63837,1.07555,0.199643,16,32765
1.62536,1.05922,0.196883,16,32765
1.67075,1.08078,0.201287,19,32765
1.65769,1.06444,0.198538,18,32765
1.69482,1.08037,0.201968,19,32765
1.65639,1.04822,0.196219,18,32765
1.61772,1.01641,0.1905,18,32765
1.63795,1.02172,0.191826,19,32765
1.61594,1.00073,0.188072,18,32765
1.64477,1.01095,0.190519,18,32765
1.61422,0.984723,0.186055,18,32765
1.6516,1,0.189241,18,32765
1.62941,0.979111,0.185674,18,32765
1.6327,0.973738,0.184958,19,32765
1.64454,0.973445,0.185146,18,32765
1.62212,0.952847,0.181438,18,32765
1.64248,0.957557,0.182893,18,32765
1.62849,0.942162,0.180146,19,32765
1.65753,0.951681,0.182466,17,32765
1.62618,0.926434,0.177938,17,32765
1.63803,0.925884,0.178043,17,32765
1.58913,0.891149,0.171559,17,32765
1.61827,0.900349,0.173692,17,32765
1.60388,0.885361,0.17123,18,32765
1.58939,0.870515,0.168648,18,32765
1.64483,0.893812,0.173308,18,32765
1.63905,0.883716,0.17164,18,32765
1.64204,0.878297,0.170911,20,32765
1.58342,0.840186,0.163876,18,32765
1.59509,0.83955,0.16417,18,32765
1.57145,0.820424,0.160759,18,32765
1.61847,0.838066,0.164658,18,32765
1.63021,0.837182,0.164728,18,32765
1.61528,0.822721,0.162444,18,32765
1.61812,0.817266,0.161778,20,32765
1.59419,0.798457,0.158549,19,32765
1.60583,0.79758,0.158648,19,32765
1.61748,0.796635,0.158797,20,32765
1.57538,0.769509,0.15376,19,32765
1.62286,0.785891,0.157465,19,32765
1.58067,0.758838,0.152475,19,32765
1.58324,0.75358,0.151907,19,32765
1.58578,0.748326,0.151313,20,32765
1.5702,0.734762,0.149032,19,32765
1.59075,0.737967,0.150086,19,32765
1.59323,0.732705,0.149547,21,32765
1.59569,0.72747,0.148919,19,32765
1.60724,0.726231,0.149183,20,32765
1.59148,0.712806,0.146961,19,32765
1.58479,0.703437,0.145642,19,32765
1.5872,0.698124,0.144938,19,32765
1.58041,0.688885,0.143656,19,32765
1.56442,0.675764,0.141496,19,32765
1.61247,0.690269,0.145133,21,32765
1.58728,0.673242,0.142075,19,32765
1.56199,0.656395,0.139094,20,32765
1.60094,0.666642,0.142041,20,32765
1.58475,0.653767,0.139882,20,32765
1.56844,0.641078,0.137905,20,32765
1.57984,0.63963,0.138164,20,32765
1.58197,0.634419,0.137728,20,32765
1.6026,0.636615,0.138884,22,32765
1.62327,0.638648,0.140064,22,32765
1.60678,0.626135,0.138202,20,32765
1.61816,0.624439,0.138688,21,32765
1.60163,0.611985,0.136626,19,32765
1.53838,0.582039,0.130864,13,32765
1.46561,0.549048,0.124179,13,32765
1.52347,0.565158,0.128567,14,32765
1.56274,0.573947,0.13159,17,32765
1.60211,0.582502,0.134304,20,32765
1.60399,0.577316,0.134244,21,32765
1.57774,0.561976,0.131633,19,32765
1.62655,0.573484,0.135413,20,32765
1.60019,0.55835,0.132811,18,32765
1.62088,0.559605,0.134155,18,32765
1.59438,0.54472,0.131623,18,32765
1.6339,0.55239,0.134728,20,32765
1.5789,0.528264,0.130049,19,32765
1.5806,0.523194,0.129854,19,32765
1.59175,0.521221,0.130653,19,32765
1.57442,0.510022,0.129122,20,32765
1.55702,0.498991,0.127653,18,32765
1.56805,0.497175,0.128607,20,32765
1.56006,0.489272,0.128171,19,32765
1.65113,1.21579,0.198051,17,32765
1.64719,1.20438,0.196818,17,32765
1.62703,1.18141,0.193512,16,32765
1.67136,1.20511,0.197886,16,32765
1.67535,1.1996,0.1976,18,32765
1.6794,1.19401,0.197106,17,32765
1.68337,1.18852,0.196468,17,32765
1.67092,1.1717,0.194022,17,32765
1.68298,1.17192,0.194438,18,32765
1.62956,1.12675,0.18728,17,32765
1.64157,1.12693,0.187816,18,32765
1.66185,1.13268,0.188881,18,32765
1.63264,1.1049,0.184666,18,32765
1.62808,1.09395,0.183082,18,32765
1.63169,1.08869,0.18234,18,32765
1.60209,1.06134,0.178285,18,32765
1.63061,1.07248,0.180304,19,32765
1.60091,1.04525,0.175901,18,32765
1.62955,1.05611,0.17802,18,32765
1.59965,1.0291,0.173657,18,32765
1.61989,1.03454,0.174919,19,32765
1.62335,1.02923,0.174182,19,32765
1.61831,1.01868,0.17254,18,32765
1.61322,1.00816,0.170992,19,32765
1.64194,1.01871,0.172875,19,32765
1.61995,0.997528,0.169702,19,32765
1.60634,0.981714,0.16739,19,32765
1.60965,0.976388,0.166677,18,32765
1.61297,0.971005,0.166041,20,32765
1.59914,0.955456,0.163582,19,32765
1.60235,0.950191,0.162821,20,32765
1.62276,0.954951,0.163745,19,32765
1.62593,0.949621,0.163284,20,32765
1.61191,0.934248,0.160732,20,32765
1.60639,0.923972,0.159348,20,32765
1.60089,0.913656,0.157774,20,32765
1.63004,0.92301,0.159495,20,32765
1.60716,0.902867,0.156107,20,32765
1.61024,0.897473,0.15543,21,32765
1.62199,0.896946,0.155669,21,32765
1.61627,0.886801,0.154097,20,32765
1.62802,0.886238,0.154039,21,32765
1.61344,0.871439,0.151647,21,32765
1.6076,0.861386,0.150108,21,32765
1.60171,0.851373,0.148642,21,32765
1.63105,0.859972,0.150461,22,32765
1.62513,0.849924,0.148933,21,32765
1.61033,0.835297,0.146699,21,32765
1.59547,0.82076,0.144275,20,32765
1.59824,0.815444,0.143785,21,32765
1.61884,0.819035,0.144716,21,32765
1.61272,0.809125,0.143351,20,32765
1.60655,0.799303,0.141771,20,32765
1.60033,0.789532,0.140258,20,32765
1.60296,0.784312,0.139595,21,32765
1.61463,0.783231,0.139715,21,32765
1.59038,0.76479,0.136741,20,32765
1.61996,0.772361,0.138476,21,32765
1.58652,0.749931,0.134804,20,32765
1.58898,0.744799,0.134235,20,32765
1.60053,0.743747,0.134333,20,32765
1.59397,0.734269,0.133035,20,32765
1.59643,0.729022,0.132405,20,32765
1.58983,0.719554,0.131077,20,32765
1.59223,0.714322,0.130539,21,32765
1.58554,0.704931,0.129314,20,32765
1.58796,0.699605,0.128608,20,32765
1.58117,0.690344,0.127419,20,32765
1.57433,0.681153,0.12618,22,32765
1.59492,0.683866,0.127151,22,32765
1.58805,0.674661,0.125835,22,32765
1.57194,0.661646,0.123859,21,32765
1.58331,0.660365,0.124261,22,32765
1.56709,0.647521,0.122295,22,32765
1.57844,0.646199,0.122661,22,32765
1.58062,0.640968,0.122107,21,32765
1.5735,0.632025,0.120958,22,32765
1.56633,0.623192,0.119802,21,32765
1.58696,0.625349,0.120803,21,32765
1.57042,0.612928,0.119134,21,32765
1.58176,0.611349,0.119533,22,32765
1.58381,0.60612,0.11907,22,32765
1.56715,0.593846,0.117462,22,32765
1.57844,0.592231,0.117795,23,32765
1.56166,0.580218,0.116034,19,32765
1.58228,0.582013,0.117289,18,32765
1.56545,0.570041,0.115473,22,32765
1.56729,0.564964,0.115413,22,32765
1.58796,0.566474,0.116537,23,32765
1.6086,0.568008,0.11778,24,32765
1.5822,0.552901,0.115462,23,32765
1.56517,0.541177,0.113876,22,32765
1.5858,0.54259,0.115057,23,32765
1.58753,0.537506,0.115046,24,32765
1.57976,0.529326,0.114355,23,32765
1.572,0.521104,0.113475,24,32765
1.59262,0.522263,0.114864,23,32765
1.58478,0.514117,0.114204,24,32765
1.55789,0.499982,0.112239,23,32765
1.56893,0.49816,0.113098,22,32765
1.57046,0.493228,0.113443,23,32765
1.66069,1.2182,0.207352,16,32765
1.67301,1.2185,0.206657,17,32765
1.69336,1.22463,0.206958,18,32765
1.66516,1.1959,0.201681,17,32765
1.62874,1.16156,0.195148,15,32765
1.73021,1.22517,0.205485,16,32765
1.67741,1.17939,0.197279,16,32765
1.70592,1.19096,0.198871,16,32765
1.64446,1.14008,0.189908,16,32765
1.66474,1.14596,0.190569,17,32765
1.66042,1.13487,0.188364,16,32765
1.68077,1.14055,0.189135,16,32765
1.64336,1.10719,0.183314,18,32765
1.6388,1.09631,0.181219,17,32765
1.6176,1.07444,0.177327,17,32765
1.63781,1.08017,0.178051,17,32765
1.63314,1.06932,0.176096,18,32765
1.63678,1.06392,0.174958,17,32765
1.65711,1.06933,0.175799,17,32765
1.6524,1.05843,0.173824,17,32765
1.68116,1.06907,0.175476,17,32765
1.67632,1.05825,0.173686,16,32765
1.64612,1.0316,0.169091,16,32765
1.66644,1.03682,0.169929,17,32765
1.61907,0.999946,0.163779,17,32765
1.67338,1.02592,0.167906,19,32765
1.61725,0.984133,0.161233,17,32765
1.64617,0.994221,0.16294,19,32765
1.60677,0.963217,0.15778,18,32765
1.61861,0.962983,0.157737,18,32765
1.63043,0.962729,0.157679,19,32765
1.64229,0.96236,0.15764,19,32765
1.57665,0.916784,0.150303,18,32765
1.6229,0.936492,0.153577,18,32765
1.62609,0.931074,0.152751,18,32765
1.65523,0.940467,0.154405,20,32765
1.64103,0.925197,0.152055,18,32765
1.61808,0.905111,0.148973,18,32765
1.62111,0.899793,0.148249,18,32765
1.63288,0.899228,0.148244,20,32765
1.61842,0.884253,0.146005,19,32765
1.63014,0.88368,0.146114,20,32765
1.5717,0.845161,0.13986,18,32765
1.6361,0.872852,0.144604,19,32765
1.60381,0.848741,0.140809,18,32765
1.60666,0.843452,0.140096,19,32765
1.64487,0.856591,0.142309,20,32765
1.60348,0.82822,0.137831,19,32765
1.59736,0.818395,0.136628,19,32765
1.61792,0.822074,0.137579,19,32765
1.58512,0.798691,0.13374,19,32765
1.61463,0.806667,0.135445,19,32765
1.61744,0.801116,0.134857,21,32765
1.60225,0.786917,0.132849,20,32765
1.59597,0.777176,0.13142,19,32765
1.58962,0.767542,0.130005,18,32765
1.59217,0.762317,0.12945,18,32765
1.59475,0.756989,0.128985,20,32765
1.59728,0.751762,0.128252,19,32765
1.55464,0.725331,0.124008,19,32765
1.57518,0.728552,0.125014,20,32765
1.59577,0.731638,0.125763,20,32765
1.62551,0.738657,0.127245,20,32765
1.60978,0.725122,0.125259,21,32765
1.59405,0.711577,0.123153,20,32765
1.58733,0.702239,0.121819,20,32765
1.58059,0.692893,0.120543,20,32765
1.58298,0.687528,0.119878,21,32765
1.62196,0.698033,0.122048,21,32765
1.58764,0.676921,0.118654,21,32765
1.57151,0.663979,0.11663,20,32765
1.59211,0.666545,0.117503,20,32765
1.61279,0.668938,0.118043,21,32765
1.59654,0.656088,0.11624,21,32765
1.60799,0.654572,0.116164,22,32765
1.61017,0.649319,0.11549,21,32765
1.58455,0.632878,0.112938,21,32765
1.5867,0.627595,0.112234,20,32765
1.57951,0.618721,0.111002,21,32765
1.58159,0.613531,0.110201,20,32765
1.60228,0.615492,0.110807,22,32765
1.61363,0.613863,0.110823,20,32765
1.58766,0.598019,0.108186,19,32765
1.71116,0.638282,0.115883,12,32765
1.59158,0.587737,0.106887,13,32765
1.56541,0.572267,0.104351,19,32765
1.61425,0.584138,0.10672,22,32765
1.55984,0.558633,0.102138,21,32765
1.6087,0.570287,0.104689,23,32765
1.60117,0.561764,0.103294,22,32765
1.55584,0.540314,0.0996197,21,32765
1.58592,0.545099,0.100627,21,32765
1.57826,0.536789,0.0992053,21,32765
1.60839,0.541326,0.100199,20,32765
1.60069,0.533025,0.098941,21,32765
1.55502,0.512335,0.095086,18,32765
1.60412,0.522931,0.0971879,19,32765
1.57731,0.508676,0.0945053,19,32765
1.5504,0.494674,0.091901,19,32765
1.56155,0.492726,0.0915126,19,32765
1.55358,0.484951,0.0899931,21,32765
1.69307,1.24454,0.191654,17,32765
1.63307,1.19188,0.18273,17,32765
1.66945,1.20985,0.184666,18,32765
1.64119,1.18113,0.17978,18,32765
1.65334,1.18154,0.179001,18,32765
1.70614,1.21062,0.182969,18,32765
1.63698,1.15335,0.173707,18,32765
1.61642,1.13081,0.1699,18,32765
1.62839,1.13126,0.169419,18,32765
1.66503,1.14853,0.171593,19,32765
1.61961,1.10925,0.165285,18,32765
1.64811,1.12068,0.166728,18,32765
1.62714,1.09851,0.163051,18,32765
1.66394,1.1154,0.165169,18,32765
1.6345,1.08788,0.160722,17,32765
1.64644,1.08807,0.160436,18,32765
1.62512,1.06623,0.156957,18,32765
1.6371,1.06629,0.156623,18,32765
1.63233,1.05547,0.154892,18,32765
1.61078,1.03385,0.151448,18,32765
1.59742,1.01787,0.148924,18,32765
1.61768,1.02329,0.149609,19,32765
1.63802,1.02858,0.150068,19,32765
1.60757,1.00219,0.146108,19,32765
1.61941,1.00216,0.145901,20,32765
1.62276,0.996876,0.144912,20,32765
1.6176,0.986307,0.143445,20,32765
1.62947,0.98609,0.143369,21,32765
1.59858,0.960207,0.13943,20,32765
1.61897,0.965106,0.140039,21,32765
1.6308,0.964849,0.139885,20,32765
1.61687,0.949329,0.137556,20,32765
1.60287,0.933862,0.135345,20,32765
1.62328,0.93855,0.135966,21,32765
1.63513,0.938082,0.135858,20,32765
1.60362,0.912922,0.132221,21,32765
1.60669,0.907602,0.131502,21,32765
1.60108,0.89734,0.130129,20,32765
1.6128,0.896915,0.130115,21,32765
1.62456,0.896375,0.130019,21,32765
1.61008,0.881396,0.12797,20,32765
1.61303,0.876087,0.127295,20,32765
1.59846,0.8612,0.125143,20,32765
1.62773,0.870052,0.126483,21,32765
1.6395,0.869284,0.126464,21,32765
1.59826,0.840643,0.122355,20,32765
1.60109,0.835377,0.121511,20,32765
1.62164,0.839191,0.122193,21,32765
1.61556,0.829284,0.121077,21,32765
1.61837,0.823857,0.120509,21,32765
1.63011,0.822905,0.120331,21,32765
1.58833,0.795014,0.116502,20,32765
1.61791,0.802848,0.117877,22,32765
1.60272,0.788618,0.116056,21,32765
1.60541,0.783229,0.115363,21,32765
1.59009,0.769198,0.113397,21,32765
1.60165,0.768275,0.113478,21,32765
1.58622,0.754332,0.11174,21,32765
1.60679,0.757635,0.112271,21,32765
1.58224,0.739568,0.109746,21,32765
1.58472,0.734311,0.109306,21,32765
1.57813,0.724875,0.108001,21,32765
1.5806,0.719562,0.107356,21,32765
1.5648,0.706146,0.105572,22,32765
1.57633,0.704948,0.105503,21,32765
1.56959,0.695649,0.104269,21,32765
1.59024,0.698385,0.104901,21,32765
1.6018,0.696958,0.10483,21,32765
1.58582,0.68371,0.103043,22,32765
1.56062,0.666596,0.10063,21,32765
1.58121,0.66928,0.101157,22,32765
1.57422,0.660236,0.100083,21,32765
1.58566,0.658863,0.0998625,22,32765
1.58784,0.653676,0.0994098,22,32765
1.58079,0.644646,0.0980962,21,32765
1.57368,0.635731,0.0968626,22,32765
1.57581,0.630503,0.0963042,21,32765
1.56867,0.62156,0.0950412,21,32765
1.58934,0.623669,0.0955855,22,32765
1.57282,0.611203,0.0936707,21,32765
1.5935,0.613197,0.0940915,22,32765
1.58618,0.604482,0.0929234,19,32765
1.56017,0.588695,0.0905795,19,32765
1.55273,0.580198,0.0895145,18,32765
1.55466,0.575105,0.0887676,21,32765
1.5847,0.580327,0.0897131,21,32765
1.55846,0.564935,0.0873903,21,32765
1.55097,0.556422,0.0860088,21,32765
1.56219,0.554762,0.0860199,22,32765
1.58287,0.556306,0.0862818,22,32765
1.55637,0.541433,0.0841037,22,32765
1.57701,0.542975,0.0843236,22,32765
1.55989,0.531456,0.0824994,22,32765
1.57108,0.52968,0.0822283,22,32765
1.55385,0.518321,0.0805884,22,32765
1.5745,0.51965,0.0806313,23,32765
1.55718,0.508503,0.0788855,22,32765
1.56833,0.506649,0.0784141,23,32765
1.55091,0.495688,0.0765664,23,32765
1.56206,0.493735,0.076083,23,32765
1.55409,0.485943,0.0746568,23,32765
1.6793,1.23304,0.166284,16,32765
1.70749,1.24521,0.168351,17,32765
1.65509,1.19867,0.162348,16,32765
1.71573,1.23397,0.167351,17,32765
1.72798,1.23403,0.167801,17,32765
0,0,0,0,32765
1.6873,1.18815,0.161902,17,32765
1.70753,1.19413,0.162803,15,32765
1.65416,1.14871,0.156872,15,32765
1.60867,1.10941,0.151598,16,32765
1.58774,1.08713,0.148718,16,32765
1.62438,1.10428,0.151189,17,32765
1.61982,1.09334,0.14965,17,32765
1.63173,1.09358,0.149782,17,32765
1.61878,1.07717,0.14756,17,32765
1.64734,1.0883,0.149191,17,32765
1.63434,1.07188,0.146942,18,32765
1.62122,1.05559,0.144808,16,32765
1.66663,1.0773,0.147876,18,32765
1.66181,1.06646,0.146408,18,32765
1.65693,1.05569,0.144852,18,32765
1.6267,1.02896,0.141365,18,32765
1.62166,1.01836,0.139928,17,32765
1.62505,1.01305,0.139061,19,32765
1.64541,1.01816,0.139906,20,32765
1.64884,1.01272,0.13908,20,32765
1.64378,1.00199,0.137463,19,32765
1.60449,0.970699,0.133246,19,32765
1.59073,0.954994,0.131015,19,32765
1.64536,0.980324,0.134695,19,32765
1.63152,0.964684,0.132382,19,32765
1.64339,0.964306,0.13229,19,32765
1.62079,0.943747,0.129541,18,32765
1.63263,0.943304,0.129634,19,32765
1.62713,0.932941,0.128334,19,32765
1.65631,0.942311,0.129526,19,32765
1.62476,0.917167,0.125941,19,32765
1.62786,0.911763,0.125147,19,32765
1.6135,0.896634,0.12314,18,32765
1.65141,0.910654,0.125115,19,32765
1.61946,0.886009,0.121761,19,32765
1.64878,0.894903,0.122831,19,32765
1.64307,0.884614,0.121203,20,32765
1.64606,0.879105,0.120612,19,32765
1.65783,0.878307,0.120677,19,32765
1.6078,0.844909,0.116225,19,32765
1.60182,0.834921,0.11477,19,32765
1.59578,0.825006,0.113298,19,32765
1.60752,0.824113,0.113249,19,32765
1.60136,0.814301,0.112048,20,32765
1.64865,0.831484,0.114431,21,32765
1.57112,0.785811,0.108045,19,32765
1.62742,0.807232,0.110874,21,32765
1.59435,0.784117,0.107705,19,32765
1.63289,0.796278,0.109557,19,32765
1.5907,0.769019,0.105721,19,32765
1.5663,0.750754,0.103372,19,32765
1.58683,0.754172,0.103875,21,32765
1.61646,0.761691,0.104829,21,32765
1.6009,0.747924,0.103147,20,32765
1.60343,0.742559,0.102553,21,32765
1.5697,0.720454,0.0994998,19,32765
1.59936,0.727684,0.100606,20,32765
1.55631,0.701819,0.0971301,19,32765
1.58599,0.708935,0.098203,19,32765
1.58835,0.703715,0.0976292,20,32765
1.57243,0.690392,0.0960031,19,32765
1.60219,0.697166,0.0971703,21,32765
1.5862,0.683925,0.0954612,20,32765
1.57928,0.674812,0.0943681,20,32765
1.57234,0.665689,0.0932849,20,32765
1.60219,0.672051,0.0944879,21,32765
1.57679,0.655218,0.0923822,19,32765
1.60668,0.661413,0.0933887,20,32765
1.59038,0.648562,0.091926,20,32765
1.574,0.635883,0.0904169,20,32765
1.57612,0.630671,0.0899993,20,32765
1.60605,0.636559,0.0911061,21,32765
1.58957,0.623975,0.089535,21,32765
1.5916,0.61882,0.0893413,21,32765
1.58433,0.609968,0.0885125,21,32765
1.57701,0.601245,0.087448,20,32765
1.5883,0.599671,0.087691,21,32765
1.57157,0.587497,0.0861261,18,32765
1.58284,0.58588,0.0864404,19,32765
1.56603,0.573765,0.0851432,19,32765
1.58672,0.575368,0.0857695,20,32765
1.59799,0.573588,0.0861858,21,32765
1.57164,0.558327,0.0843429,20,32765
1.60169,0.563247,0.0856487,21,32765
1.55634,0.541708,0.0828611,19,32765
1.60533,0.552854,0.0853305,22,32765
1.59766,0.544453,0.0846055,22,32765
1.58994,0.536124,0.0839456,20,32765
1.56321,0.521623,0.0823365,20,32765
1.58382,0.522949,0.0832267,21,32765
1.58549,0.517869,0.0833091,21,32765
1.58714,0.512814,0.0832096,21,32765
1.58876,0.507736,0.0833493,21,32765
1.57131,0.496693,0.0823565,20,32765
1.5919,0.497728,0.0837421,21,32765
1.63894,1.20621,0.143249,18,32765
1.62678,1.1891,0.141538,18,32765
1.663,1.20719,0.143893,18,32765
1.65893,1.19587,0.142669,18,32765
1.64672,1.1787,0.140952,19,32765
1.66694,1.18478,0.141772,19,32765
1.65459,1.16778,0.139799,19,32765
1.61756,1.13378,0.135725,18,32765
1.6377,1.13986,0.136621,17,32765
1.66605,1.15158,0.138032,19,32765
1.57945,1.0839,0.129994,18,32765
1.63257,1.11234,0.133441,19,32765
1.62804,1.10135,0.131989,19,32765
1.60685,1.07931,0.129356,20,32765
1.65195,1.10169,0.131972,18,32765
1.61405,1.06867,0.128028,19,32765
1.63434,1.07425,0.128604,20,32765
1.62958,1.06337,0.127309,18,32765
1.61639,1.04713,0.125358,19,32765
1.64505,1.05802,0.126587,20,32765
1.6149,1.03117,0.123206,20,32765
1.61831,1.02588,0.122661,20,32765
1.6217,1.0206,0.121955,20,32765
1.61663,1.00999,0.120456,20,32765
1.61154,0.99936,0.119233,20,32765
1.6234,0.999251,0.119046,20,32765
1.65237,1.0094,0.120009,21,32765
1.62163,0.983181,0.11687,20,32765
1.62502,0.977674,0.116037,20,32765
1.61117,0.962008,0.11428,20,32765
1.61444,0.956624,0.113378,20,32765
1.63488,0.96136,0.113798,21,32765
1.61227,0.940784,0.111332,20,32765
1.64138,0.950372,0.112518,21,32765
1.59263,0.915091,0.108362,20,32765
1.62175,0.924595,0.10929,19,32765
1.62489,0.919173,0.108416,21,32765
1.62799,0.913756,0.10762,21,32765
1.61364,0.898592,0.105799,21,32765
1.60787,0.888499,0.104556,21,32765
