x, y, z, intensity, ring
2.0474,0.208599,-0.301712,19,32765
2.02839,0.199663,-0.298931,18,32765
2.01914,0.191786,-0.297959,19,32765
1.99018,0.182262,-0.293881,20,32765
1.99071,0.175495,-0.294387,19,32765
2.00109,0.169561,-0.296307,20,32765
1.99178,0.16202,-0.29489,20,32765
1.95282,0.152151,-0.28941,20,32765
1.96313,0.146247,-0.291254,20,32765
1.97345,0.140261,-0.292944,21,32765
1.95412,0.132194,-0.290429,20,32765
1.96439,0.126257,-0.292103,19,32765
2.04372,0.124473,-0.304308,15,32765
2.1527,0.123888,-0.320811,15,32765
2.11353,0.11452,-0.315423,15,32765
2.3015,0.116866,-0.344001,15,32765
2.29196,0.108616,-0.34284,14,32765
2.312,0.101686,-0.346304,16,32765
2.32212,0.094272,-0.348357,16,32765
2.18399,0.0812847,-0.328171,17,32765
2.12486,0.0718976,-0.319877,16,32765
2.01628,0.0615028,-0.304014,16,32765
2.00654,0.054489,-0.302898,16,32765
2.04618,0.0487709,-0.309291,16,32765
2.00668,0.0409809,-0.304091,15,32765
1.9672,0.0334933,-0.298483,15,32765
2.00678,0.0273957,-0.304962,15,32765
1.99686,0.0205862,-0.304202,15,32765
1.97704,0.0139019,-0.301863,15,32765
1.99676,0.00745267,-0.305422,14,32765
1.91758,0.000826176,-0.294103,14,32765
1.90758,-0.00554504,-0.293289,14,32765
1.99638,-0.0125345,-0.307781,14,32765
1.93689,-0.0186583,-0.299541,15,32765
1.99597,-0.0258349,-0.30955,14,32765
4.08171,1.38481,-0.586872,33,32765
4.19865,1.40915,-0.605395,31,32765
4.19365,1.39235,-0.605208,30,32765
4.18859,1.37527,-0.605676,27,32765
4.18357,1.35817,-0.6056,21,32765
4.11244,1.31981,-0.596235,15,32765
4.17329,1.32389,-0.606086,13,32765
0,0,-0,0,32765
0,0,-0,0,32765
4.14799,1.27029,-0.604075,11,32765
0,0,-0,0,32765
0,0,-0,0,32765
4.07482,1.2025,-0.594929,12,32765
4.24992,1.23842,-0.620772,12,32765
4.08259,1.1748,-0.59697,13,32765
4.21983,1.19872,-0.617285,13,32765
4.21415,1.18166,-0.61728,16,32765
4.26573,1.18055,-0.625131,18,32765
4.21223,1.1504,-0.61786,17,32765
4.26375,1.14903,-0.625944,17,32765
4.21966,1.12155,-0.620234,17,32765
4.27119,1.11964,-0.628432,17,32765
4.20783,1.08752,-0.619344,17,32765
4.26897,1.08777,-0.628606,18,32765
4.13807,1.03954,-0.609789,17,32765
4.2087,1.0421,-0.620669,17,32765
4.24089,1.0349,-0.626035,18,32765
4.24426,1.02051,-0.626849,18,32765
4.16088,0.985426,-0.61513,18,32765
4.17375,0.973205,-0.617731,18,32765
4.27347,0.980583,-0.633116,18,32765
2.60661,0.588362,-0.386565,18,32765
2.56028,0.568447,-0.37991,22,32765
2.64915,0.578539,-0.393546,16,32765
2.57364,0.552813,-0.382588,18,32765
2.50764,0.529662,-0.373204,18,32765
2.51904,0.523044,-0.375295,19,32765
2.47223,0.504522,-0.368849,18,32765
2.43508,0.488207,-0.363536,18,32765
2.46576,0.485545,-0.368605,19,32765
2.45763,0.475079,-0.367797,19,32765
2.43973,0.462805,-0.365576,19,32765
2.4315,0.452508,-0.36474,19,32765
2.39403,0.436938,-0.359568,18,32765
2.45385,0.439153,-0.369033,19,32765
2.38706,0.418697,-0.359326,19,32765
2.32989,0.400373,-0.351305,18,32765
2.36043,0.397337,-0.356232,18,32765
2.34215,0.385991,-0.354059,18,32765
2.31409,0.373314,-0.350046,18,32765
2.33481,0.368394,-0.353604,18,32765
2.29689,0.354255,-0.348298,19,32765
2.30779,0.347652,-0.350502,18,32765
2.29912,0.338095,-0.349616,18,32765
2.24149,0.321724,-0.341071,18,32765
2.26209,0.316687,-0.344615,19,32765
2.23367,0.304827,-0.340874,19,32765
2.22485,0.295884,-0.339705,18,32765
2.19635,0.284477,-0.335715,18,32765
2.19725,0.277038,-0.336075,18,32765
2.16865,0.265968,-0.332134,18,32765
2.15969,0.2574,-0.330884,18,32765
2.11136,0.244427,-0.323879,17,32765
2.16125,0.242685,-0.331849,19,32765
2.11286,0.229979,-0.3247,17,32765
2.11357,0.2227,-0.325132,18,32765
2.07494,0.211416,-0.319434,18,32765
2.08544,0.205261,-0.321277,19,32765
2.02703,0.192589,-0.312482,19,32765
2.04734,0.187551,-0.315615,19,32765
2.02823,0.178826,-0.312929,19,32765
2.05827,0.174413,-0.318138,19,32765
2.02928,0.165049,-0.313637,20,32765
2.05937,0.160484,-0.318371,19,32765
2.04018,0.152029,-0.315362,19,32765
2.01107,0.143039,-0.311007,19,32765
2.02137,0.136844,-0.312798,19,32765
2.14998,0.138258,-0.332945,16,32765
2.37733,0.144798,-0.367991,14,32765
2.37781,0.136747,-0.368025,14,32765
2.40782,0.130411,-0.37284,14,32765
2.35888,0.119747,-0.3653,13,32765
2.31978,0.109976,-0.35921,14,32765
2.28065,0.100495,-0.353045,15,32765
2.15261,0.0876444,-0.333163,16,32765
2.12328,0.0793561,-0.328435,15,32765
2.07416,0.0704847,-0.320767,14,32765
2.08427,0.0637747,-0.322267,15,32765
2.10422,0.0573617,-0.325389,15,32765
1.99576,0.0477078,-0.308337,15,32765
2.02559,0.041591,-0.312672,15,32765
2.06526,0.0354403,-0.318636,14,32765
1.98634,0.0274575,-0.306248,14,32765
2.07541,0.0219195,-0.319659,14,32765
2.05577,0.0149421,-0.316176,13,32765
2.08552,0.0083682,-0.320339,13,32765
2.01641,0.00131787,-0.309359,14,32765
1.95716,-0.00520781,-0.299806,14,32765
2.0264,-0.0121658,-0.30991,14,32765
2.01658,-0.018795,-0.307648,15,32765
1.98697,-0.0250655,-0.302349,15,32765
4.15913,1.41612,-0.640219,13,32765
3.87275,1.30442,-0.597675,11,32765
3.95192,1.31678,-0.610358,11,32765
4.10638,1.3531,-0.635349,12,32765
4.12012,1.34235,-0.638073,12,32765
4.16206,1.34052,-0.64547,12,32765
3.89297,1.23938,-0.60466,13,32765
4.08566,1.28563,-0.635148,15,32765
4.08033,1.26898,-0.634843,17,32765
4.06548,1.24948,-0.632969,17,32765
4.09795,1.24424,-0.638416,19,32765
4.07361,1.22162,-0.63506,19,32765
4.16294,1.23291,-0.649569,21,32765
4.11006,1.20196,-0.641547,20,32765
4.10441,1.18531,-0.641271,20,32765
4.13686,1.17936,-0.646547,21,32765
4.12161,1.15987,-0.644936,20,32765
4.05871,1.12729,-0.63534,19,32765
4.08143,1.11869,-0.639412,20,32765
4.11368,1.11258,-0.64494,20,32765
4.01223,1.07026,-0.629726,20,32765
4.05396,1.06653,-0.636834,19,32765
4.04794,1.04997,-0.636083,20,32765
4.02267,1.02871,-0.632326,19,32765
4.03558,1.01746,-0.634771,20,32765
4.00051,0.994139,-0.629672,19,32765
4.0133,0.982914,-0.632241,20,32765
4.03572,0.973883,-0.636043,21,32765
4.00041,0.950863,-0.631022,20,32765
3.9939,0.934657,-0.630636,19,32765
3.99702,0.920492,-0.631685,20,32765
3.91337,0.886548,-0.61903,18,32765
2.48872,0.554579,-0.393865,17,32765
2.5581,0.560701,-0.405263,17,32765
2.59857,0.560217,-0.411919,18,32765
2.51337,0.532825,-0.398826,19,32765
2.4764,0.516084,-0.393331,19,32765
2.44899,0.501628,-0.389487,21,32765
2.44095,0.491197,-0.388424,21,32765
2.41344,0.477008,-0.38451,20,32765
2.43439,0.472339,-0.388238,21,32765
2.43592,0.463809,-0.388925,20,32765
2.418,0.451681,-0.386445,20,32765
2.40003,0.439676,-0.384008,21,32765
2.40142,0.43139,-0.38469,20,32765
2.37363,0.417914,-0.38056,20,32765
2.34574,0.404626,-0.376667,20,32765
2.33729,0.39494,-0.375618,20,32765
2.31903,0.383642,-0.373253,19,32765
2.3495,0.380481,-0.378378,19,32765
2.32145,0.367696,-0.37427,19,32765
2.28358,0.353565,-0.36859,19,32765
2.26517,0.342558,-0.36615,18,32765
2.23696,0.33024,-0.361999,20,32765
2.23803,0.32249,-0.362382,19,32765
2.21949,0.31195,-0.359773,19,32765
2.20088,0.301545,-0.357328,19,32765
2.18228,0.291382,-0.354473,19,32765
2.19297,0.285181,-0.356562,19,32765
2.16449,0.274011,-0.352142,19,32765
2.14572,0.264228,-0.349511,20,32765
2.13677,0.255713,-0.348166,19,32765
2.09832,0.24392,-0.342291,19,32765
2.08927,0.235579,-0.341116,20,32765
2.05075,0.224156,-0.335093,19,32765
2.05144,0.217069,-0.335512,20,32765
2.0423,0.208981,-0.334254,20,32765
1.99385,0.197094,-0.326535,20,32765
2.02393,0.193133,-0.331658,20,32765
1.98525,0.182665,-0.325316,20,32765
1.99563,0.176738,-0.32727,20,32765
2.01579,0.171586,-0.331133,19,32765
2.13438,0.174393,-0.350586,16,32765
2.18412,0.170998,-0.358842,15,32765
2.25357,0.168723,-0.370199,16,32765
2.26393,0.161797,-0.372059,15,32765
2.13644,0.145341,-0.351312,16,32765
2.2058,0.142555,-0.362965,16,32765
2.33432,0.142903,-0.38395,14,32765
2.23627,0.129278,-0.367783,14,32765
2.21695,0.120716,-0.364758,15,32765
2.09908,0.107145,-0.345394,16,32765
2.08956,0.0996248,-0.343794,16,32765
2.08989,0.0926309,-0.343749,15,32765
2.08034,0.0852197,-0.342115,15,32765
2.09049,0.0786298,-0.343595,15,32765
2.03158,0.0695019,-0.333843,15,32765
2.08112,0.0641325,-0.341918,14,32765
2.05172,0.0563576,-0.337123,13,32765
2.05194,0.0494567,-0.336869,14,32765
2.02254,0.0419076,-0.331767,14,32765
2.03256,0.0352393,-0.33325,13,32765
2.01296,0.0281618,-0.329821,14,32765
1.95388,0.020943,-0.319838,14,32765
2.0527,0.0152215,-0.335553,14,32765
1.97385,0.00819056,-0.322272,14,32765
1.95418,0.00152494,-0.318707,14,32765
1.89503,-0.00482146,-0.30861,13,32765
2.03326,-0.0119906,-0.330616,13,32765
1.93463,-0.0178451,-0.313848,14,32765
0,-0,-0,0,32765
3.03436,2.23852,0.671271,23,32765
3.08151,2.25784,0.67887,25,32765
3.06515,2.23056,0.672261,25,32765
3.07291,2.22031,0.67077,25,32765
3.0726,2.20444,0.667221,24,32765
3.11236,2.21707,0.67247,25,32765
3.13607,2.21815,0.67445,26,32765
3.12767,2.19641,0.669259,25,32765
3.10309,2.16338,0.660463,23,32765
3.15914,2.18681,0.669122,26,32765
3.15846,2.17104,0.665417,25,32765
3.18205,2.17203,0.667047,25,32765
3.173,2.15071,0.662255,25,32765
3.1804,2.14034,0.660398,24,32765
3.20409,2.14097,0.661945,25,32765
3.21139,2.13047,0.660418,25,32765
3.20224,2.10913,0.655238,26,32765
3.23413,2.11506,0.658281,26,32765
3.24958,2.10982,0.658619,25,32765
3.24013,2.08862,0.653729,25,32765
3.22243,2.06198,0.646953,25,32765
3.21279,2.04086,0.642222,24,32765
3.23639,2.04094,0.644024,25,32765
3.30182,2.06708,0.653946,26,32765
3.2837,2.04081,0.647149,26,32765
3.32421,2.05076,0.652392,29,32765
3.29758,2.01919,0.644387,27,32765
3.32127,2.01863,0.646449,27,32765
3.31147,1.99737,0.641157,24,32765
3.24202,1.94095,0.62522,21,32765
3.22324,1.91521,0.618656,14,32765
0,0,0,0,32765
3.21912,1.88421,0.612714,14,32765
0,0,0,0,32765
3.33438,1.92239,0.629557,25,32765
3.43511,1.96546,0.645834,28,32765
3.40752,1.93466,0.637798,28,32765
3.41403,1.92345,0.63686,28,32765
3.41201,1.90743,0.63367,29,32765
3.43567,1.90589,0.635752,28,32765
3.45949,1.90417,0.637249,29,32765
3.45736,1.88793,0.63445,28,32765
3.44646,1.86692,0.630439,29,32765
3.44426,1.85068,0.62743,28,32765
3.47663,1.85334,0.631082,28,32765
3.47401,1.83751,0.628667,27,32765
3.5151,1.84467,0.633779,28,32765
3.45994,1.80139,0.621543,27,32765
3.5012,1.80802,0.626691,27,32765
3.53372,1.80989,0.630477,27,32765
3.5489,1.80241,0.630499,28,32765
3.54639,1.78595,0.627644,28,32765
3.51714,1.75637,0.620684,27,32765
3.57634,1.77078,0.629086,29,32765
3.55575,1.74593,0.623279,28,32765
3.58835,1.74719,0.626653,28,32765
3.61207,1.74392,0.628721,29,32765
3.58228,1.715,0.621632,29,32765
3.61494,1.71586,0.624918,29,32765
3.64756,1.71662,0.628444,29,32765
3.63549,1.69622,0.624195,27,32765
3.61437,1.67171,0.618577,27,32765
3.638,1.66807,0.620476,29,32765
3.6617,1.66416,0.6224,29,32765
3.67639,1.65611,0.622778,29,32765
3.69108,1.64799,0.623001,29,32765
3.68773,1.63166,0.620278,27,32765
3.74754,1.64337,0.628401,30,32765
3.72606,1.61909,0.622196,29,32765
3.70432,1.59494,0.616913,28,32765
3.69161,1.57492,0.612599,28,32765
3.71518,1.5704,0.614539,29,32765
3.73882,1.56578,0.616111,28,32765
3.75339,1.55717,0.615947,29,32765
3.76778,1.54857,0.616608,27,32765
3.81889,1.55485,0.622432,27,32765
3.77824,1.52393,0.613949,28,32765
3.75581,1.50069,0.608227,27,32765
3.77016,1.49205,0.608019,28,32765
3.83043,1.50153,0.615498,30,32765
3.83553,1.48897,0.614234,29,32765
3.85907,1.48347,0.615898,30,32765
3.86409,1.47104,0.614194,28,32765
3.86913,1.45839,0.612668,28,32765
3.91107,1.45973,0.617359,28,32765
3.89746,1.44017,0.612923,29,32765
3.95817,1.4478,0.61995,30,32765
3.91646,1.41821,0.611667,29,32765
3.96793,1.4221,0.617063,30,32765
3.94466,1.39963,0.611245,29,32765
3.95874,1.39025,0.610867,30,32765
3.98215,1.3841,0.611855,30,32765
3.95872,1.36176,0.605843,29,32765
3.97273,1.35218,0.605486,30,32765
3.97718,1.33972,0.603999,28,32765
4.0193,1.33954,0.607673,29,32765
4.05192,1.33631,0.610153,30,32765
3.99987,1.30548,0.599391,30,32765
4.05137,1.30821,0.604122,30,32765
4.09344,1.30775,0.607605,31,32765
4.079,1.28913,0.601958,31,32765
3.05396,2.25554,0.639048,27,32765
3.0694,2.25152,0.639546,27,32765
3.053,2.22422,0.633219,26,32765
3.10069,2.24289,0.639981,28,32765
3.10845,2.23265,0.638151,28,32765
3.14834,2.24519,0.643008,30,32765
3.13191,2.21766,0.636602,28,32765
3.13962,2.20723,0.634861,28,32765
3.16358,2.20797,0.636191,29,32765
3.17928,2.20316,0.636146,29,32765
3.1949,2.19848,0.635754,30,32765
3.1534,2.15482,0.624272,29,32765
3.19328,2.1668,0.629334,29,32765
3.20891,2.16185,0.629069,30,32765
3.20807,2.14593,0.625612,29,32765
3.23183,2.14632,0.627274,30,32765
3.23919,2.13573,0.62545,30,32765
3.19684,2.09289,0.613913,28,32765
3.22878,2.09853,0.617339,29,32765
3.23586,2.08806,0.615802,29,32765
3.24307,2.07736,0.614028,28,32765
3.25846,2.07203,0.614186,28,32765
3.25712,2.05615,0.611078,29,32765
3.2892,2.06131,0.614088,30,32765
3.2794,2.04024,0.609133,29,32765
3.31995,2.05023,0.614005,31,32765
3.3017,2.02377,0.607924,29,32765
3.33386,2.02833,0.611345,31,32765
3.36635,2.03252,0.613943,32,32765
3.36473,2.01643,0.611136,29,32765
3.31219,1.97003,0.598647,25,32765
3.25082,1.91896,0.584957,16,32765
3.29989,1.9334,0.591287,19,32765
3.22096,1.87294,0.574789,14,32765
3.24439,1.87234,0.576525,17,32765
3.35364,1.92072,0.593333,29,32765
3.41179,1.93896,0.600841,32,32765
3.43554,1.93743,0.602923,33,32765
3.44217,1.92613,0.601322,32,32765
3.44863,1.9149,0.600198,31,32765
3.47249,1.91314,0.601502,32,32765
3.47905,1.90156,0.600287,33,32765
3.50295,1.89929,0.602436,33,32765
3.47472,1.86878,0.595023,32,32765
3.48101,1.85739,0.593919,32,32765
3.53083,1.86928,0.600513,32,32765
3.52829,1.85328,0.597815,33,32765
3.50816,1.82815,0.592147,32,32765
3.54956,1.83464,0.596906,32,32765
3.5382,1.8138,0.593023,33,32765
3.57985,1.81974,0.597363,33,32765
3.55971,1.79424,0.591653,33,32765
3.5747,1.78667,0.592394,33,32765
3.60748,1.78774,0.595829,35,32765
3.60467,1.77146,0.593212,34,32765
3.61959,1.76391,0.593373,35,32765
3.63448,1.75623,0.593789,34,32765
3.64931,1.74855,0.594332,35,32765
3.61955,1.71948,0.587164,34,32765
3.63431,1.7118,0.587514,34,32765
3.65806,1.70815,0.589232,34,32765
3.64592,1.68767,0.585329,32,32765
3.66064,1.6798,0.585591,31,32765
3.67539,1.67171,0.585885,32,32765
3.69011,1.66361,0.586165,32,32765
3.67773,1.64331,0.581999,32,32765
3.71959,1.64704,0.586508,34,32765
3.74327,1.64276,0.588364,35,32765
3.74898,1.63029,0.586702,34,32765
3.73633,1.60994,0.583112,34,32765
3.75096,1.60143,0.583219,33,32765
3.73817,1.58129,0.579303,34,32765
3.7436,1.56893,0.57786,34,32765
3.78562,1.57168,0.581816,33,32765
3.79091,1.55919,0.580973,34,32765
3.80543,1.55048,0.580722,34,32765
3.79225,1.53066,0.5769,33,32765
3.84336,1.53675,0.582603,33,32765
3.84863,1.52416,0.580872,33,32765
3.85375,1.51171,0.579444,32,32765
3.86811,1.50264,0.579555,32,32765
3.86398,1.48635,0.57688,33,32765
3.88752,1.48094,0.577926,34,32765
3.89258,1.46819,0.57639,33,32765
3.89748,1.4556,0.575222,34,32765
3.93958,1.45667,0.579173,33,32765
3.94458,1.44375,0.57745,34,32765
3.94005,1.42765,0.575074,34,32765
3.9543,1.41809,0.574572,33,32765
3.94964,1.40226,0.571742,33,32765
3.99179,1.4027,0.575309,35,32765
3.95909,1.37691,0.568037,34,32765
4.01055,1.38041,0.573025,35,32765
4.01525,1.36745,0.571217,34,32765
4.01034,1.35167,0.568383,34,32765
4.03373,1.34512,0.569013,33,32765
4.03816,1.33252,0.567239,35,32765
4.07081,1.32938,0.568897,35,32765
4.0847,1.31971,0.567874,35,32765
4.05129,1.29499,0.560513,34,32765
4.07457,1.28842,0.560282,34,32765
3.09184,2.2802,0.610998,25,32765
3.06733,2.24687,0.604621,25,32765
3.09062,2.24857,0.60736,24,32765
3.12214,2.25582,0.611185,24,32765
3.1216,2.23973,0.609365,24,32765
3.09697,2.20645,0.602394,24,32765
3.13648,2.21919,0.608107,26,32765
3.12756,2.19772,0.604399,24,32765
3.16711,2.21037,0.609705,25,32765
3.17446,2.20009,0.608728,26,32765
3.18178,2.18975,0.607745,27,32765
3.18094,2.1737,0.605506,25,32765
3.12285,2.11891,0.591987,24,32765
3.1628,2.13065,0.597213,25,32765
3.18645,2.13115,0.59931,26,32765
3.21837,2.13703,0.602741,26,32765
3.2584,2.14842,0.607959,27,32765
3.24907,2.12693,0.603843,26,32765
3.21473,2.08942,0.595162,24,32765
3.27168,2.11092,0.603089,27,32765
3.27887,2.1001,0.601826,26,32765
3.25248,2.06825,0.594775,26,32765
3.28453,2.07344,0.59801,26,32765
3.28311,2.0575,0.595222,26,32765
3.29845,2.05193,0.595575,27,32765
3.26341,2.01497,0.586901,25,32765
3.31239,2.02996,0.593471,27,32765
3.32779,2.02412,0.593598,27,32765
3.35157,2.02349,0.595036,28,32765
3.33298,1.99724,0.589223,24,32765
3.28862,1.95608,0.579353,21,32765
3.26114,1.92517,0.572333,15,32765
0,0,0,0,32765
3.31704,1.9283,0.577341,13,32765
3.30661,1.90732,0.572769,14,32765
3.39888,1.94565,0.586232,28,32765
3.39671,1.92984,0.583625,27,32765
3.41183,1.92358,0.583857,28,32765
3.42697,1.91724,0.58391,30,32765
3.44234,1.91046,0.583822,27,32765
3.48358,1.91797,0.588629,28,32765
3.46403,1.89232,0.582873,30,32765
3.47054,1.88074,0.581568,29,32765
3.45079,1.85535,0.575586,27,32765
3.48338,1.8578,0.578575,28,32765
3.50727,1.85546,0.579999,29,32765
3.48727,1.83022,0.574171,28,32765
3.52856,1.83705,0.578733,29,32765
3.54348,1.8302,0.578786,29,32765
3.541,1.81398,0.57553,29,32765
3.53833,1.79775,0.573052,29,32765
3.57989,1.80366,0.577681,29,32765
3.56844,1.78269,0.573712,28,32765
3.54801,1.75755,0.568016,28,32765
3.58084,1.75863,0.570682,30,32765
3.59576,1.75103,0.570927,30,32765
3.56606,1.72203,0.563781,29,32765
3.59854,1.72326,0.567262,29,32765
3.6759,1.74554,0.577036,31,32765
3.61906,1.70395,0.566212,28,32765
3.63378,1.69627,0.566376,28,32765
3.63052,1.68017,0.563873,27,32765
3.64529,1.67232,0.563646,27,32765
3.65995,1.6644,0.564025,27,32765
3.64758,1.64416,0.559901,27,32765
3.68027,1.64425,0.563023,31,32765
3.71293,1.64419,0.566387,29,32765
3.70037,1.62392,0.562648,31,32765
3.7149,1.61576,0.562931,28,32765
3.72961,1.60729,0.56272,30,32765
3.74408,1.59886,0.563565,30,32765
3.73123,1.57891,0.559511,29,32765
3.76389,1.5781,0.563142,29,32765
3.78739,1.57357,0.564922,30,32765
3.7653,1.54977,0.559336,30,32765
3.77953,1.54134,0.560169,28,32765
3.78458,1.52913,0.559586,28,32765
3.83566,1.53519,0.565547,29,32765
3.84996,1.52638,0.56602,30,32765
3.85503,1.51382,0.565246,31,32765
3.85082,1.49759,0.563294,31,32765
3.87422,1.49225,0.565437,27,32765
3.8607,1.47247,0.561858,30,32765
3.87477,1.4635,0.562759,28,32765
3.86106,1.44382,0.559615,28,32765
3.90296,1.44513,0.564385,29,32765
3.91695,1.43599,0.565273,30,32765
3.92171,1.4232,0.564594,28,32765
3.94508,1.41715,0.566528,29,32765
3.9404,1.4009,0.564898,30,32765
3.9543,1.3914,0.566068,30,32765
3.94929,1.37574,0.564663,29,32765
3.98174,1.37295,0.568532,30,32765
3.9579,1.35083,0.564542,30,32765
3.99044,1.34759,0.568238,30,32765
3.97599,1.3283,0.56567,29,32765
4.00855,1.32479,0.56925,30,32765
4.0033,1.30884,0.568361,29,32765
4.04505,1.30845,0.574117,31,32765
4.01133,1.28358,0.569337,30,32765
4.04357,1.28,0.574085,30,32765
3.06301,2.26204,0.568905,27,32765
3.09425,2.26968,0.573242,28,32765
3.07767,2.24217,0.568408,27,32765
3.1172,2.25529,0.57343,29,32765
3.1247,2.24495,0.573175,28,32765
3.13227,2.23456,0.572461,28,32765
3.10735,2.20148,0.566032,27,32765
3.17117,2.23129,0.575732,29,32765
3.11357,2.17584,0.563056,27,32765
3.16143,2.1939,0.569413,28,32765
3.1443,2.16675,0.564048,28,32765
3.19237,2.18431,0.570666,29,32765
3.22426,2.19051,0.573909,31,32765
3.23988,2.18535,0.574368,31,32765
3.22263,2.15807,0.568995,30,32765
3.21348,2.13646,0.56489,30,32765
3.25354,2.14789,0.569735,31,32765
3.26075,2.13722,0.568692,30,32765
3.25957,2.12119,0.566235,31,32765
3.27512,2.11574,0.566396,31,32765
3.274,2.09954,0.563696,30,32765
3.26426,2.07827,0.559882,30,32765
3.31311,2.09402,0.565688,30,32765
3.28659,2.06217,0.558705,30,32765
3.27675,2.04089,0.554695,29,32765
3.33425,2.06117,0.562107,31,32765
3.33281,2.0449,0.559687,30,32765
3.34826,2.03899,0.559711,31,32765
3.34669,2.02292,0.556723,31,32765
3.34505,2.00682,0.554003,31,32765
3.36872,2.00606,0.555919,28,32765
3.34138,1.97482,0.549244,23,32765
3.25425,1.90857,0.532293,18,32765
3.30351,1.92264,0.538382,18,32765
3.31877,1.91652,0.538173,17,32765
3.38538,1.94013,0.546536,25,32765
3.39179,1.92922,0.54541,29,32765
3.42416,1.93271,0.548311,31,32765
3.46527,1.94084,0.552398,32,32765
3.48938,1.93873,0.553572,34,32765
3.45268,1.90307,0.545651,33,32765
3.47651,1.90123,0.547023,33,32765
3.49176,1.89432,0.547077,33,32765
3.49819,1.88289,0.545445,34,32765
3.53089,1.88519,0.548134,35,32765
3.55489,1.88269,0.54935,35,32765
3.54372,1.86185,0.54513,34,32765
3.54122,1.84562,0.542567,34,32765
3.55618,1.83871,0.54252,34,32765
3.5537,1.82242,0.53935,32,32765
3.54222,1.80163,0.535624,33,32765
3.56613,1.79862,0.537212,33,32765
3.56351,1.78209,0.534764,31,32765
3.58744,1.77893,0.535982,34,32765
3.62927,1.78426,0.539672,34,32765
3.61755,1.76345,0.535847,34,32765
3.63247,1.75589,0.535645,34,32765
3.63827,1.74406,0.534888,35,32765
3.6531,1.73647,0.534724,34,32765
3.641,1.716,0.531099,34,32765
3.65578,1.70823,0.531161,34,32765
3.67953,1.70453,0.532651,33,32765
3.68538,1.69237,0.53101,33,32765
3.71816,1.69253,0.533875,33,32765
3.69682,1.66798,0.528623,33,32765
3.71151,1.65981,0.528871,34,32765
3.69893,1.63956,0.525506,32,32765
3.74081,1.64323,0.52967,34,32765
3.72814,1.62305,0.525998,33,32765
3.76109,1.62237,0.528246,33,32765
3.77562,1.61383,0.528992,34,32765
3.77193,1.59761,0.526387,33,32765
3.77725,1.58515,0.525912,34,32765
3.8008,1.58057,0.527501,34,32765
3.82454,1.57557,0.528527,33,32765
3.81133,1.55569,0.525459,34,32765
3.82562,1.54707,0.526135,33,32765
3.82156,1.53088,0.524043,33,32765
3.82663,1.51844,0.523164,34,32765
3.85014,1.5132,0.524911,31,32765
3.84592,1.49696,0.523053,33,32765
3.86009,1.48805,0.523753,33,32765
3.87434,1.4789,0.524125,33,32765
3.89773,1.47338,0.526183,33,32765
3.89333,1.45707,0.524474,32,32765
3.9167,1.45138,0.526364,33,32765
3.92141,1.43876,0.525908,33,32765
3.92619,1.42593,0.525227,33,32765
3.97759,1.42993,0.530709,35,32765
3.9823,1.41687,0.530416,35,32765
3.99627,1.40722,0.531489,34,32765
3.98194,1.38814,0.528932,34,32765
4.01447,1.38523,0.532518,34,32765
4.03758,1.37901,0.53503,35,32765
4.02325,1.35963,0.532221,35,32765
4.01824,1.34334,0.531085,34,32765
4.06973,1.34592,0.536865,36,32765
4.06454,1.32975,0.536075,35,32765
4.05922,1.31388,0.535239,34,32765
4.08218,1.30708,0.538311,36,32765
4.0767,1.29128,0.5378,35,32765
3.05713,2.24944,0.582696,25,32765
3.07291,2.24542,0.581216,24,32765
3.07272,2.22959,0.576974,26,32765
3.08862,2.22515,0.575879,24,32765
3.07223,2.19779,0.568801,23,32765
3.08802,2.19339,0.567541,23,32765
3.14394,2.21759,0.574489,25,32765
3.16771,2.21877,0.575105,27,32765
3.14271,2.18601,0.567135,24,32765
3.18275,2.19818,0.57112,26,32765
3.1986,2.19324,0.570147,26,32765
3.13263,2.13247,0.55506,24,32765
3.19731,2.16108,0.562992,26,32765
3.17197,2.12842,0.555026,25,32765
3.21214,2.14009,0.558757,26,32765
3.19469,2.11318,0.552546,26,32765
3.19363,2.09735,0.54907,26,32765
3.22562,2.10315,0.551557,27,32765
3.19954,2.07112,0.543995,26,32765
3.26486,2.09814,0.552167,27,32765
3.28873,2.09813,0.552899,29,32765
3.2625,2.06609,0.545303,27,32765
3.25274,2.04482,0.541069,27,32765
3.24293,2.02363,0.536595,25,32765
3.3339,2.06519,0.549237,29,32765
3.30716,2.03359,0.541838,28,32765
3.27185,1.99697,0.532938,24,32765
3.32088,2.01201,0.53849,26,32765
3.3446,2.01144,0.539767,26,32765
3.33433,1.99048,0.535374,24,32765
3.29852,1.95421,0.526995,21,32765
3.2882,1.93312,0.522793,15,32765
3.24359,1.89211,0.513006,15,32765
0,0,0,0,32765
3.37679,1.93964,0.529111,17,32765
3.40045,1.9386,0.530354,25,32765
3.41549,1.9325,0.5305,28,32765
3.44782,1.93604,0.533266,28,32765
3.45439,1.92471,0.531792,30,32765
3.48688,1.92775,0.534674,31,32765
3.44137,1.88754,0.525121,30,32765
3.42165,1.862,0.519768,28,32765
3.51515,1.89785,0.531757,31,32765
3.5042,1.87672,0.527874,30,32765
3.5193,1.86992,0.527574,31,32765
3.51686,1.85365,0.525137,30,32765
3.5407,1.85129,0.526397,29,32765
3.50289,1.81687,0.518787,28,32765
3.56192,1.8326,0.525241,29,32765
3.52393,1.79831,0.517819,29,32765
3.54778,1.79551,0.519104,28,32765
3.58946,1.80136,0.522858,29,32765
3.53354,1.75839,0.512402,28,32765
3.58406,1.76841,0.517785,29,32765
3.62574,1.77388,0.521766,32,32765
3.5961,1.74453,0.515378,31,32765
3.61106,1.7368,0.515162,31,32765
3.66167,1.7461,0.520965,32,32765
3.60485,1.70431,0.510684,29,32765
3.64656,1.70931,0.514229,31,32765
3.65228,1.69737,0.513178,29,32765
3.67605,1.69361,0.51452,29,32765
3.6908,1.68559,0.514651,29,32765
3.65137,1.65288,0.507066,28,32765
3.67511,1.64887,0.508332,29,32765
3.68076,1.63671,0.506773,28,32765
3.67733,1.62031,0.504329,29,32765
3.71918,1.62401,0.508327,29,32765
3.74298,1.61946,0.509442,28,32765
3.74855,1.60694,0.508124,32,32765
3.77231,1.60236,0.508991,29,32765
3.77766,1.58998,0.508101,28,32765
3.77386,1.57383,0.505424,31,32765
3.78835,1.56527,0.505198,28,32765
3.78441,1.5492,0.502633,29,32765
3.80813,1.54401,0.503716,30,32765
3.7766,1.51656,0.497304,28,32765
3.79103,1.50773,0.496952,28,32765
3.84232,1.51344,0.501654,29,32765
3.81963,1.4902,0.496624,29,32765
3.81531,1.47427,0.494287,28,32765
3.8481,1.47266,0.495888,28,32765
3.88082,1.47085,0.498194,29,32765
3.89504,1.4618,0.497869,29,32765
3.93716,1.46311,0.500959,30,32765
3.92344,1.44345,0.497128,29,32765
3.91905,1.42713,0.494352,30,32765
3.92385,1.41441,0.492785,29,32765
3.96606,1.41506,0.495569,31,32765
3.97082,1.40225,0.493871,30,32765
3.92865,1.37305,0.486372,28,32765
3.97084,1.37323,0.489428,29,32765
4.00362,1.37016,0.491198,29,32765
3.95175,1.33832,0.482269,28,32765
4.04093,1.35439,0.490512,30,32765
3.97932,1.31995,0.480803,29,32765
4.04036,1.32597,0.485521,31,32765
4.04474,1.31325,0.483625,29,32765
4.04915,1.30048,0.481162,30,32765
4.09128,1.30002,0.483476,30,32765
4.04816,1.27277,0.474672,30,32765
3.08378,2.2723,0.551231,28,32765
3.07565,2.25065,0.545381,28,32765
3.1155,2.26387,0.548274,29,32765
3.12348,2.25349,0.545645,28,32765
3.1152,2.23172,0.540211,28,32765
3.12303,2.22143,0.537429,28,32765
3.13055,2.21129,0.535493,28,32765
3.14619,2.20684,0.534553,28,32765
3.12111,2.17407,0.526968,27,32765
3.16928,2.19198,0.531959,29,32765
3.1851,2.18706,0.530901,30,32765
3.17634,2.16527,0.526152,29,32765
3.20014,2.16604,0.526648,30,32765
3.21591,2.16093,0.525774,30,32765
3.23147,2.15598,0.525084,30,32765
3.25537,2.15632,0.525812,31,32765
3.21303,2.11302,0.515743,29,32765
3.24509,2.11878,0.517938,30,32765
3.27724,2.12436,0.519974,31,32765
3.2511,2.09218,0.512981,30,32765
3.31673,2.1189,0.520083,32,32765
3.27378,2.07608,0.510232,31,32765
3.33117,2.09699,0.516588,32,32765
3.32151,2.07549,0.512259,32,32765
3.32847,2.06462,0.510999,31,32765
3.34391,2.05897,0.510419,31,32765
3.32556,2.03249,0.504529,30,32765
3.35778,2.03711,0.507031,32,32765
3.33912,2.01084,0.501721,31,32765
3.35437,2.00511,0.501333,31,32765
3.36975,1.99906,0.50102,30,32765
3.30827,1.9475,0.489384,19,32765
3.28936,1.92134,0.483925,20,32765
3.22739,1.87039,0.472483,16,32765
3.27666,1.88459,0.477381,17,32765
3.31738,1.89371,0.480978,20,32765
3.38408,1.91722,0.488535,28,32765
3.42503,1.92573,0.492274,31,32765
3.45755,1.92896,0.494527,33,32765
3.46404,1.91757,0.493417,32,32765
3.47933,1.9108,0.493062,33,32765
3.4858,1.89933,0.491659,33,32765
3.50094,1.89257,0.491656,34,32765
3.50744,1.88082,0.490409,34,32765
3.50503,1.86468,0.487574,33,32765
3.52012,1.85769,0.487667,34,32765
3.55278,1.85992,0.48995,34,32765
3.54139,1.83912,0.486432,34,32765
3.57407,1.84112,0.488689,34,32765
3.56258,1.82026,0.485344,34,32765
3.58653,1.81733,0.486426,33,32765
3.57508,1.79632,0.482605,31,32765
3.59906,1.79316,0.483553,34,32765
3.58743,1.77221,0.480108,32,32765
3.62916,1.77768,0.483713,33,32765
3.63522,1.76561,0.482438,34,32765
3.62341,1.74481,0.478566,33,32765
3.64722,1.74126,0.480358,34,32765
3.66212,1.73341,0.48015,33,32765
3.668,1.72137,0.478603,34,32765
3.67376,1.70934,0.477546,33,32765
3.69758,1.7055,0.478693,34,32765
3.68529,1.685,0.475227,33,32765
3.70008,1.67684,0.47508,34,32765
3.69674,1.66046,0.472666,33,32765
3.72964,1.66032,0.474561,33,32765
3.75355,1.65576,0.475648,33,32765
3.76825,1.64728,0.475803,34,32765
3.75568,1.62676,0.472128,35,32765
3.78866,1.62593,0.474233,34,32765
3.7942,1.61343,0.472617,34,32765
3.78128,1.59325,0.469447,34,32765
3.79582,1.58471,0.469128,33,32765
3.81035,1.57606,0.468799,34,32765
3.82482,1.56743,0.468572,33,32765
3.821,1.55089,0.466082,34,32765
3.84477,1.54558,0.466754,35,32765
3.85006,1.53283,0.465164,35,32765
3.83676,1.51284,0.461591,33,32765
3.86958,1.51127,0.463496,32,32765
3.85605,1.49157,0.460131,32,32765
3.90747,1.49693,0.463632,35,32765
3.88454,1.47378,0.459047,34,32765
3.91738,1.47169,0.460815,34,32765
3.95025,1.46946,0.462429,34,32765
3.93652,1.44973,0.458781,34,32765
3.97883,1.45035,0.461508,34,32765
3.95565,1.4273,0.456678,34,32765
3.9792,1.42116,0.456921,35,32765
3.9746,1.40497,0.454146,34,32765
4.00746,1.40197,0.455649,34,32765
4.0216,1.39214,0.455108,35,32765
4.02623,1.37924,0.453396,34,32765
4.04966,1.37281,0.453453,35,32765
4.02589,1.35065,0.448206,35,32765
4.04913,1.3444,0.44857,35,32765
4.10084,1.3471,0.451647,36,32765
4.05799,1.3188,0.444541,34,32765
4.10028,1.31815,0.446191,36,32765
4.09509,1.30246,0.442975,35,32765
4.12782,1.29904,0.442779,36,32765
3.09835,2.27945,0.508648,25,32765
3.07406,2.24558,0.503116,24,32765
3.12162,2.26455,0.509322,25,32765
3.05651,2.20245,0.496969,23,32765
3.09576,2.21594,0.501453,24,32765
3.11928,2.21734,0.50309,25,32765
3.15907,2.22993,0.507639,26,32765
3.13407,2.19673,0.501552,25,32765
3.10886,2.16379,0.495373,23,32765
3.15678,2.18189,0.500969,25,32765
3.14768,2.16036,0.497487,25,32765
3.16301,2.15575,0.497695,25,32765
3.22774,2.18428,0.505505,28,32765
3.1775,2.13487,0.495425,25,32765
3.19295,2.12985,0.495712,25,32765
3.22508,2.13557,0.498178,28,32765
3.24055,2.13037,0.498423,27,32765
3.2393,2.11443,0.49612,27,32765
3.25463,2.10928,0.496382,27,32765
3.2282,2.07733,0.490227,25,32765
3.30204,2.10948,0.499128,27,32765
3.27561,2.07742,0.492756,28,32765
3.31615,2.08784,0.496526,29,32765
3.26426,2.0402,0.486384,26,32765
3.32163,2.06094,0.492842,27,32765
3.31177,2.03947,0.488988,27,32765
3.38651,2.0698,0.497448,29,32765
3.34272,2.02753,0.488792,27,32765
3.35812,2.02161,0.488448,29,32765
3.34784,2.00043,0.484899,28,32765
3.37155,1.99967,0.486281,26,32765
3.31836,1.95352,0.47607,17,32765
3.3164,1.93755,0.473615,16,32765
3.29731,1.91153,0.468419,14,32765
3.37273,1.94,0.476966,15,32765
3.35351,1.91397,0.472002,17,32765
3.41184,1.93231,0.47756,24,32765
3.41831,1.92111,0.47642,27,32765
3.43341,1.91481,0.476199,28,32765
3.43994,1.90353,0.474296,28,32765
3.44636,1.89212,0.473355,29,32765
3.479,1.89487,0.47553,29,32765
3.49419,1.88805,0.475259,30,32765
3.51812,1.8858,0.476434,30,32765
3.53328,1.87888,0.47607,32,32765
3.54847,1.87183,0.475597,29,32765
3.52838,1.84638,0.470651,29,32765
3.52585,1.83007,0.468195,28,32765
3.54979,1.82736,0.469246,29,32765
3.57376,1.82449,0.470161,30,32765
3.57121,1.80801,0.467401,28,32765
3.5863,1.80056,0.466911,29,32765
3.58354,1.7843,0.464154,30,32765
3.59843,1.77689,0.464275,29,32765
3.58665,1.75619,0.460575,29,32765
3.6195,1.75723,0.462441,29,32765
3.60764,1.73645,0.458924,29,32765
3.64944,1.74158,0.461948,30,32765
3.61938,1.71264,0.455886,29,32765
3.65207,1.71351,0.458142,29,32765
3.67583,1.70995,0.459096,32,32765
3.69062,1.70201,0.458935,31,32765
3.66026,1.67326,0.452978,30,32765
3.7021,1.67757,0.456381,30,32765
3.68069,1.65289,0.451747,29,32765
3.69545,1.64455,0.451706,29,32765
3.72828,1.64431,0.454039,30,32765
3.7247,1.62819,0.451359,31,32765
3.73922,1.62003,0.451395,30,32765
3.75381,1.6116,0.451398,29,32765
3.75015,1.59515,0.449309,28,32765
3.78308,1.5942,0.451377,29,32765
3.77931,1.57771,0.449496,30,32765
3.74781,1.55019,0.444056,28,32765
3.79895,1.55686,0.44838,31,32765
3.78562,1.53709,0.445533,29,32765
3.78152,1.52102,0.443368,28,32765
3.84196,1.53085,0.448844,30,32765
3.82848,1.51109,0.446041,29,32765
3.85201,1.50586,0.447216,31,32765
3.83842,1.48611,0.444514,29,32765
3.86185,1.48087,0.445778,30,32765
3.86677,1.46822,0.44498,28,32765
3.86225,1.4522,0.443407,27,32765
3.97887,1.48123,0.455418,32,32765
3.89981,1.43719,0.445337,28,32765
3.90453,1.42456,0.4446,28,32765
3.98404,1.43888,0.452378,31,32765
3.96995,1.41933,0.450117,30,32765
3.97456,1.40639,0.450003,31,32765
3.96981,1.39018,0.448248,30,32765
4.00249,1.38713,0.451156,31,32765
3.99754,1.37107,0.449803,31,32765
4.04898,1.37438,0.454838,32,32765
4.00619,1.3456,0.449757,30,32765
4.01995,1.33593,0.450462,31,32765
4.06199,1.33558,0.45438,31,32765
4.0377,1.3137,0.451768,31,32765
4.07959,1.31338,0.456144,32,32765
4.09314,1.30344,0.45786,32,32765
4.09734,1.29006,0.458249,31,32765
3.06825,2.26114,0.467601,27,32765
3.06792,2.24488,0.466094,28,32765
3.10749,2.25809,0.470615,29,32765
3.12281,2.25398,0.471248,29,32765
3.15418,2.26151,0.474128,29,32765
3.12126,2.22242,0.467088,28,32765
3.15299,2.22931,0.470052,29,32765
3.14423,2.20746,0.46675,28,32765
3.1516,2.19713,0.465753,28,32765
3.19151,2.20947,0.469668,29,32765
3.19885,2.19903,0.468757,30,32765
3.20612,2.18865,0.467657,30,32765
3.19703,2.16696,0.464058,29,32765
3.20436,2.15635,0.462971,29,32765
3.21163,2.14572,0.461966,29,32765
3.24384,2.15139,0.464143,31,32765
3.26767,2.15158,0.465468,31,32765
3.24154,2.11922,0.459711,30,32765
3.26523,2.11946,0.461054,31,32765
3.29724,2.12506,0.46348,32,32765
3.2709,2.09283,0.457563,31,32765
3.31984,2.10872,0.462078,32,32765
3.30171,2.08195,0.457309,32,32765
3.28343,2.05532,0.452466,30,32765
3.31558,2.06032,0.454883,32,32765
3.33952,2.05969,0.455832,32,32765
3.32118,2.03295,0.450879,31,32765
3.36213,2.04238,0.454276,31,32765
3.36908,2.03126,0.452684,30,32765
3.35881,2.00999,0.449317,31,32765
3.36549,1.99905,0.448232,32,32765
3.39783,2.00328,0.450011,30,32765
3.3017,1.93182,0.435185,17,32765
3.28256,1.90579,0.430274,16,32765
3.29774,1.89966,0.430214,17,32765
3.39052,1.93793,0.440116,18,32765
3.34523,1.89735,0.431707,25,32765
3.42953,1.93022,0.440601,30,32765
3.45335,1.92872,0.441389,32,32765
3.45991,1.91736,0.439474,32,32765
3.50122,1.92501,0.442933,33,32765
3.50781,1.9133,0.441509,33,32765
3.47936,1.88273,0.435657,32,32765
3.50328,1.88053,0.436648,32,32765
3.5272,1.87831,0.437284,33,32765
3.50723,1.85269,0.432383,32,32765
3.52228,1.84578,0.432053,32,32765
3.53738,1.83863,0.431846,33,32765
3.53484,1.82221,0.429482,32,32765
3.57652,1.82844,0.432355,34,32765
3.57397,1.81191,0.429686,33,32765
3.60684,1.81338,0.431224,35,32765
3.59521,1.79258,0.427492,33,32765
3.63688,1.79834,0.430681,35,32765
3.6073,1.76872,0.425048,34,32765
3.63126,1.76535,0.425574,33,32765
3.64628,1.75743,0.425374,34,32765
3.67023,1.75388,0.425923,34,32765
3.66715,1.73758,0.423338,34,32765
3.65492,1.71716,0.420124,34,32765
3.69674,1.72198,0.42295,33,32765
3.69351,1.70561,0.420631,34,32765
3.71741,1.70163,0.421194,35,32765
3.70502,1.68111,0.418072,34,32765
3.70174,1.66453,0.415754,33,32765
3.70746,1.65205,0.414596,33,32765
3.74034,1.65177,0.416643,34,32765
3.74588,1.63957,0.41506,33,32765
3.7787,1.63925,0.41701,34,32765
3.73852,1.6071,0.410879,33,32765
3.79891,1.61796,0.415902,35,32765
3.80444,1.60524,0.414674,34,32765
3.8007,1.58865,0.412881,34,32765
3.79679,1.57243,0.410792,34,32765
3.7928,1.55629,0.40868,34,32765
3.84399,1.56273,0.412953,34,32765
3.85842,1.55388,0.412839,35,32765
3.85431,1.53767,0.410834,33,32765
3.83159,1.51417,0.407232,34,32765
3.84588,1.50529,0.407236,34,32765
3.89723,1.5107,0.411581,34,32765
3.8743,1.48742,0.407754,34,32765
3.89785,1.48178,0.408904,33,32765
3.912,1.47265,0.409369,33,32765
3.92619,1.46335,0.409544,34,32765
3.92171,1.44695,0.408085,33,32765
3.90776,1.4274,0.405403,34,32765
3.96862,1.43496,0.410493,34,32765
3.96388,1.41878,0.409387,34,32765
3.99665,1.41581,0.412174,36,32765
4.02009,1.40938,0.413406,35,32765
4.02466,1.39636,0.413133,35,32765
4.04798,1.38991,0.414765,35,32765
4.0524,1.37705,0.414507,36,32765
4.04733,1.3609,0.413752,35,32765
4.08004,1.35735,0.416286,36,32765
4.09382,1.34748,0.416935,37,32765
4.06955,1.32545,0.414607,36,32765
4.09258,1.31893,0.41668,36,32765
4.09669,1.30591,0.417337,35,32765
4.13887,1.30445,0.421593,36,32765
3.08641,2.26664,0.485802,25,32765
3.07849,2.24455,0.480094,24,32765
3.13472,2.26905,0.484689,25,32765
3.04583,2.1893,0.467255,25,32765
3.10974,2.21986,0.473493,25,32765
3.1335,2.22135,0.472966,25,32765
3.14111,2.21108,0.47063,25,32765
3.15678,2.2065,0.469579,25,32765
3.17239,2.20191,0.468669,26,32765
3.13088,2.15776,0.458887,24,32765
3.17095,2.16993,0.461932,25,32765
3.18659,2.16514,0.460648,25,32765
3.15286,2.12688,0.452512,24,32765
3.2097,2.14959,0.457346,25,32765
3.25019,2.1609,0.46008,29,32765
3.21619,2.12274,0.45224,26,32765
3.25666,2.13384,0.455249,28,32765
3.24724,2.11243,0.450668,28,32765
3.28768,2.12347,0.453469,30,32765
3.24461,2.08075,0.444267,28,32765
3.26828,2.08095,0.444997,28,32765
3.30046,2.08625,0.446535,29,32765
3.28226,2.05966,0.441122,26,32765
3.34821,2.08577,0.447167,29,32765
3.29613,2.03818,0.437466,27,32765
3.3115,2.03243,0.437365,26,32765
3.35239,2.04213,0.440138,28,32765
3.35934,2.03107,0.438228,29,32765
3.36617,2.02006,0.436795,29,32765
3.35596,1.99875,0.432962,30,32765
3.37135,1.99275,0.431946,28,32765
3.29238,1.93132,0.419306,16,32765
3.29898,1.9204,0.417626,15,32765
3.29676,1.90469,0.415274,15,32765
3.27734,1.87898,0.410433,15,32765
3.38736,1.92723,0.421888,16,32765
3.41986,1.93075,0.423349,27,32765
3.4438,1.92914,0.423776,29,32765
3.45893,1.92263,0.423864,28,32765
3.48288,1.92088,0.423971,29,32765
3.47183,1.8999,0.420883,28,32765
3.48691,1.89332,0.420613,29,32765
3.51082,1.89123,0.421326,29,32765
3.49091,1.86557,0.41663,28,32765
3.53241,1.87252,0.419707,29,32765
3.50357,1.84229,0.413935,28,32765
3.5451,1.84899,0.417024,29,32765
3.54264,1.83252,0.414297,29,32765
3.59316,1.84329,0.418412,32,32765
3.57288,1.81772,0.413941,30,32765
3.5791,1.80577,0.412462,30,32765
3.62092,1.81148,0.415171,30,32765
3.62702,1.7995,0.414062,31,32765
3.58845,1.76552,0.407859,29,32765
3.62125,1.76671,0.409563,30,32765
3.57349,1.72881,0.401869,28,32765
3.66915,1.75983,0.410407,32,32765
3.63014,1.72634,0.404295,29,32765
3.672,1.73122,0.407056,30,32765
3.64182,1.70218,0.401671,29,32765
3.67464,1.70266,0.403553,30,32765
3.68946,1.69471,0.40276,30,32765
3.67706,1.67424,0.399694,29,32765
3.70085,1.6703,0.400255,31,32765
3.67933,1.64577,0.395571,29,32765
3.75766,1.66585,0.402252,32,32765
3.72694,1.63722,0.396949,29,32765
3.73248,1.62482,0.395797,29,32765
3.73801,1.61245,0.394204,29,32765
3.7618,1.60779,0.394922,30,32765
3.73981,1.5836,0.390379,29,32765
3.77276,1.58264,0.391985,29,32765
3.75982,1.5624,0.388252,30,32765
3.78345,1.55764,0.389093,29,32765
3.78867,1.54528,0.387537,29,32765
3.82155,1.54412,0.388696,31,32765
3.81739,1.52801,0.38678,28,32765
3.80401,1.50817,0.38348,30,32765
3.8554,1.51394,0.386672,30,32765
3.84192,1.49418,0.382987,29,32765
3.91198,1.50667,0.387924,31,32765
3.90769,1.49039,0.385585,30,32765
3.83813,1.44958,0.376633,27,32765
3.88027,1.45107,0.378798,30,32765
3.90387,1.44521,0.378936,29,32765
3.95556,1.4494,0.381656,31,32765
3.9043,1.41601,0.374485,29,32765
3.94649,1.41692,0.376329,29,32765
3.98877,1.4174,0.37834,31,32765
3.9559,1.39142,0.372708,29,32765
3.9793,1.38525,0.373014,30,32765
4.00273,1.37898,0.372943,31,32765
4.01668,1.36956,0.371793,31,32765
4.04938,1.3667,0.372523,31,32765
4.04438,1.35079,0.369817,30,32765
4.02994,1.33155,0.366322,30,32765
4.05341,1.32462,0.365559,29,32765
4.07675,1.3179,0.365042,31,32765
4.0809,1.30562,0.362714,29,32765
4.06604,1.28727,0.358732,30,32765
4.09876,1.28362,0.358581,31,32765
3.10405,2.28361,0.452129,28,32765
3.0721,2.24383,0.443116,27,32765
3.08813,2.23925,0.441407,29,32765
3.15224,2.26976,0.446842,30,32765
3.15179,2.25382,0.443249,30,32765
3.12705,2.22066,0.43572,29,32765
3.15088,2.22184,0.435632,29,32765
3.13403,2.19442,0.430011,28,32765
3.16591,2.20124,0.431243,29,32765
3.15707,2.17959,0.426443,30,32765
3.18084,2.18047,0.426898,31,32765
3.1965,2.17564,0.42551,31,32765
3.17925,2.14839,0.420007,31,32765
3.20316,2.14891,0.419931,30,32765
3.24366,2.16027,0.422293,31,32765
3.25938,2.15494,0.421354,31,32765
3.25842,2.13865,0.418626,31,32765
3.28232,2.1389,0.418477,31,32765
3.27277,2.11744,0.414537,31,32765
3.30494,2.12305,0.415369,32,32765
3.28683,2.09631,0.410642,32,32765
3.31907,2.10157,0.411887,33,32765
3.32616,2.09074,0.409854,33,32765
3.33317,2.0799,0.407988,33,32765
3.35714,2.0794,0.408201,33,32765
3.38113,2.07864,0.409007,33,32765
3.37124,2.05704,0.405244,33,32765
3.36122,2.0356,0.401289,32,32765
3.39364,2.03992,0.40289,32,32765
3.40057,2.02867,0.401245,33,32765
3.39893,2.01238,0.3981,33,32765
3.39719,1.99609,0.395365,30,32765
3.35243,1.95472,0.387664,24,32765
3.29003,1.90391,0.378448,18,32765
3.35688,1.92774,0.383755,19,32765
3.32013,1.89207,0.377344,18,32765
3.3612,1.90072,0.379535,23,32765
3.47183,1.94799,0.389542,33,32765
3.48703,1.94138,0.389525,33,32765
3.49362,1.92991,0.387495,33,32765
3.4826,1.90885,0.384589,33,32765
3.51519,1.91173,0.386141,35,32765
3.52165,1.90009,0.384738,34,32765
3.53686,1.89313,0.38413,34,32765
3.53451,1.87661,0.382064,33,32765
3.55852,1.87413,0.382342,34,32765
3.55605,1.85762,0.380319,34,32765
3.5713,1.85024,0.379557,34,32765
3.59534,1.84729,0.380383,35,32765
3.56617,1.81713,0.375257,33,32765
3.59017,1.81417,0.375639,34,32765
3.62313,1.81539,0.377041,34,32765
3.62924,1.80338,0.375929,34,32765
3.62639,1.78693,0.373875,34,32765
3.64139,1.77926,0.373448,34,32765
3.62947,1.75857,0.369959,34,32765
3.65347,1.75498,0.370257,34,32765
3.65937,1.74288,0.369152,35,32765
3.6833,1.73917,0.369718,36,32765
3.66214,1.71425,0.365603,34,32765
3.70405,1.71886,0.368094,34,32765
3.68274,1.69415,0.363617,34,32765
3.72469,1.69846,0.366083,36,32765
3.73042,1.68615,0.364663,35,32765
3.72711,1.66961,0.36201,34,32765
3.75094,1.66532,0.362644,35,32765
3.75666,1.6527,0.361224,34,32765
3.76226,1.64018,0.360061,35,32765
3.76783,1.62768,0.358455,34,32765
3.78253,1.619,0.358106,34,32765
3.80641,1.61414,0.358149,36,32765
3.80273,1.59752,0.35601,35,32765
3.81742,1.58863,0.355015,35,32765
3.82273,1.57607,0.353945,33,32765
3.83723,1.56733,0.353221,34,32765
3.84248,1.55479,0.35154,35,32765
3.8476,1.54229,0.350554,35,32765
3.88055,1.5407,0.351625,34,32765
3.88571,1.52799,0.350139,35,32765
3.93726,1.53342,0.352444,35,32765
3.89591,1.50259,0.346755,34,32765
3.91022,1.49344,0.346163,34,32765
3.90587,1.47722,0.343702,34,32765
3.92011,1.46801,0.343014,34,32765
3.95312,1.46547,0.343758,34,32765
3.95812,1.45234,0.341943,35,32765
3.9443,1.43248,0.33855,34,32765
3.99594,1.43664,0.340799,36,32765
4.01013,1.42694,0.340025,34,32765
3.99605,1.40746,0.336339,34,32765
4.02893,1.40443,0.337229,35,32765
4.0053,1.38174,0.333028,34,32765
4.04755,1.38195,0.334118,35,32765
4.05196,1.36942,0.332228,36,32765
4.06587,1.35979,0.331153,35,32765
4.07037,1.34671,0.329368,35,32765
4.06546,1.33034,0.326111,34,32765
4.10778,1.32971,0.326909,36,32765
4.08347,1.30819,0.322313,36,32765
4.0971,1.29884,0.320749,35,32765
4.12035,1.2921,0.319557,36,32765
3.07708,2.26122,0.405037,26,32765
3.10076,2.26264,0.406638,26,32765
3.07606,2.22911,0.401622,25,32765
3.12388,2.24796,0.406104,26,32765
3.1556,2.25503,0.408717,28,32765
3.15508,2.23878,0.406744,26,32765
3.10561,2.18837,0.39825,26,32765
3.13715,2.19556,0.400353,26,32765
3.1771,2.20802,0.403512,27,32765
3.18445,2.1976,0.402438,26,32765
3.22468,2.20946,0.405784,28,32765
3.19929,2.17637,0.400091,26,32765
3.17355,2.1436,0.395057,25,32765
3.19727,2.14422,0.395833,25,32765
3.2209,2.14494,0.396416,25,32765
3.21139,2.12342,0.393674,25,32765
3.23515,2.12379,0.394219,26,32765
3.26739,2.1293,0.395786,29,32765
3.24961,2.10211,0.391504,27,32765
3.25678,2.09125,0.390058,28,32765
3.29734,2.10191,0.392938,29,32765
3.29596,2.0858,0.390446,28,32765
3.31127,2.08047,0.38993,29,32765
3.26746,2.03818,0.382664,27,32765
3.30803,2.04861,0.385006,28,32765
3.3489,2.05838,0.387913,28,32765
3.37287,2.05755,0.388757,29,32765
3.34577,2.02578,0.383359,28,32765
3.37825,2.02999,0.384957,28,32765
3.38508,2.01885,0.383473,29,32765
3.409,2.01787,0.383793,28,32765
3.39872,1.99644,0.380156,27,32765
3.31935,1.93517,0.369616,17,32765
3.34314,1.93417,0.369824,16,32765
3.40139,1.95293,0.374435,15,32765
3.30426,1.88243,0.361554,14,32765
3.38006,1.91055,0.36739,23,32765
3.46482,1.943,0.374054,28,32765
3.48015,1.93623,0.373531,30,32765
3.46925,1.91507,0.370378,29,32765
3.49317,1.91322,0.370655,29,32765
3.49089,1.89697,0.367819,31,32765
3.50599,1.8903,0.367145,30,32765
3.5036,1.87401,0.364671,29,32765
3.50992,1.86241,0.363259,30,32765
3.54268,1.86464,0.364621,29,32765
3.54018,1.84826,0.362159,30,32765
3.54648,1.83642,0.360807,30,32765
3.5971,1.84726,0.363476,32,32765
3.52345,1.79462,0.354342,29,32765
3.54741,1.7917,0.354667,28,32765
3.58914,1.79764,0.356957,30,32765
3.59528,1.78569,0.355195,30,32765
3.61923,1.78253,0.35532,30,32765
3.59831,1.75763,0.351201,30,32765
3.6492,1.76717,0.35408,31,32765
3.61937,1.73757,0.349133,30,32765
3.66124,1.74265,0.351284,32,32765
3.64911,1.722,0.348193,30,32765
3.67281,1.71867,0.348598,32,32765
3.67861,1.70655,0.347073,31,32765
3.67529,1.69022,0.344979,30,32765
3.66282,1.66987,0.341836,29,32765
3.70483,1.67402,0.34388,30,32765
3.71952,1.66593,0.343468,30,32765
3.71606,1.64944,0.341506,30,32765
3.74908,1.64902,0.342354,31,32765
3.69067,1.60873,0.335473,30,32765
3.76011,1.6242,0.340088,31,32765
3.79297,1.6237,0.341393,33,32765
3.73424,1.58387,0.334246,30,32765
3.79471,1.59465,0.337917,31,32765
3.79073,1.57849,0.336327,29,32765
3.79602,1.566,0.335067,30,32765
3.81961,1.56121,0.33584,30,32765
3.8803,1.57102,0.339349,29,32765
3.83004,1.53596,0.333446,30,32765
3.78881,1.50506,0.328343,27,32765
3.81237,1.49991,0.32895,27,32765
3.85442,1.502,0.331524,30,32765
3.9152,1.51085,0.335561,29,32765
3.91095,1.49438,0.333623,30,32765
3.94384,1.49214,0.335487,31,32765
3.89275,1.4583,0.329826,30,32765
3.95355,1.46664,0.333643,31,32765
3.93961,1.4469,0.331733,31,32765
3.91627,1.42389,0.328299,28,32765
3.95839,1.42472,0.331292,31,32765
3.90678,1.39156,0.325947,28,32765
3.93946,1.38896,0.327965,28,32765
4.00047,1.39588,0.332028,31,32765
4.04277,1.39576,0.334606,32,32765
4.01898,1.37308,0.331784,30,32765
3.96668,1.34106,0.327086,29,32765
4.03707,1.35071,0.332521,30,32765
4.01303,1.32835,0.329689,30,32765
4.06464,1.33098,0.333633,31,32765
4.04987,1.31192,0.33214,30,32765
4.07294,1.30529,0.333922,31,32765
4.09593,1.29868,0.335937,32,32765
4.07137,1.27688,0.334495,30,32765
3.08585,2.27223,0.370144,29,32765
3.10957,2.27363,0.371554,28,32765
3.13324,2.27508,0.372654,30,32765
3.13279,2.25886,0.370917,29,32765
3.12409,2.23694,0.368472,29,32765
3.15597,2.24382,0.370407,30,32765
3.13903,2.21627,0.36636,28,32765
3.19513,2.24052,0.371009,31,32765
3.15354,2.19592,0.364334,29,32765
3.16904,2.19121,0.364207,30,32765
3.20927,2.20315,0.36718,31,32765
3.19207,2.17565,0.362801,29,32765
3.19106,2.15957,0.360938,30,32765
3.25617,2.1879,0.366164,31,32765
3.23025,2.15527,0.360977,31,32765
3.23738,2.14467,0.360265,30,32765
3.29449,2.16685,0.364288,32,32765
3.24351,2.11773,0.356384,30,32765
3.25075,2.10681,0.355127,29,32765
3.25793,2.09592,0.353678,29,32765
3.29853,2.1066,0.356181,31,32765
3.28875,2.08512,0.352877,30,32765
3.29562,2.07449,0.35137,32,32765
3.32779,2.07966,0.352726,33,32765
3.35158,2.07942,0.352879,32,32765
3.35016,2.06295,0.350954,32,32765
3.35716,2.05173,0.349836,32,32765
3.37261,2.04577,0.349227,32,32765
3.42223,2.06017,0.352289,33,32765
3.36076,2.00799,0.343784,31,32765
3.40178,2.01725,0.345667,32,32765
3.41724,2.01096,0.344818,32,32765
3.38951,1.97963,0.34039,27,32765
3.33587,1.93344,0.332637,19,32765
3.34232,1.92246,0.331546,19,32765
3.34023,1.90633,0.329194,19,32765
3.36412,1.90493,0.32917,17,32765
3.44019,1.93262,0.334153,29,32765
3.49031,1.94533,0.336906,34,32765
3.50559,1.93856,0.336445,33,32765
3.50338,1.9222,0.334017,34,32765
3.50112,1.90589,0.331266,33,32765
3.51625,1.89917,0.330492,33,32765
3.54902,1.90164,0.331385,35,32765
3.55544,1.88986,0.329953,34,32765
3.55303,1.87334,0.327761,34,32765
3.56822,1.86614,0.327005,34,32765
3.57457,1.85418,0.325641,34,32765
3.58982,1.84671,0.324618,35,32765
3.59604,1.83475,0.323517,35,32765
3.61126,1.82708,0.322827,34,32765
3.60857,1.81047,0.320758,34,32765
3.62367,1.80287,0.319771,34,32765
3.62981,1.79078,0.318127,34,32765
3.64471,1.78332,0.317403,35,32765
3.65086,1.77097,0.31591,34,32765
3.65697,1.75859,0.314427,34,32765
3.66292,1.74639,0.313109,34,32765
3.68685,1.74274,0.313267,35,32765
3.7016,1.73504,0.312707,35,32765
3.70744,1.7228,0.311168,35,32765
3.71323,1.71051,0.309911,35,32765
3.72803,1.70243,0.309197,35,32765
3.74292,1.69404,0.308592,35,32765
3.72127,1.66947,0.305088,34,32765
3.74516,1.6651,0.305448,36,32765
