x, y, z, intensity, ring
2.28416,1.49137,0.106591,20,32765
2.25561,1.46203,0.103938,20,32765
2.23535,1.43821,0.101736,19,32765
2.22334,1.42001,0.0998106,19,32765
2.21123,1.40187,0.0980541,20,32765
2.24128,1.41051,0.0980612,20,32765
2.23755,1.39772,0.0967055,20,32765
2.21677,1.37443,0.0947448,19,32765
2.23836,1.37759,0.0942542,19,32765
2.23438,1.36504,0.0928252,19,32765
2.15351,1.30575,0.0882744,19,32765
2.20926,1.32951,0.0892663,20,32765
2.18804,1.30668,0.0870924,20,32765
2.20965,1.30951,0.0867086,20,32765
2.1882,1.28693,0.0846729,20,32765
2.15797,1.25953,0.0821168,20,32765
2.2141,1.28237,0.0831537,20,32765
2.20971,1.27005,0.0816324,20,32765
2.15318,1.22805,0.0782064,20,32765
2.15728,1.2209,0.0772849,21,32765
2.17012,1.21854,0.0764376,20,32765
2.16551,1.20638,0.0750536,21,32765
2.1784,1.20382,0.0742019,22,32765
2.15617,1.18207,0.0723572,21,32765
2.16014,1.17487,0.0714101,21,32765
2.16408,1.16765,0.0704719,20,32765
2.17673,1.16528,0.0697356,21,32765
2.14532,1.13926,0.0676189,21,32765
2.14918,1.13204,0.0665612,22,32765
2.17073,1.13406,0.0659032,22,32765
2.15686,1.11747,0.0641355,21,32765
2.16952,1.11479,0.0635107,21,32765
2.16438,1.10296,0.0620298,22,32765
2.13241,1.07764,0.0602765,21,32765
2.13606,1.07044,0.0591178,21,32765
2.13973,1.06316,0.0578895,21,32765
2.11641,1.04271,0.0563913,21,32765
2.15586,1.05315,0.0562,22,32765
2.12341,1.02848,0.0545027,21,32765
2.13584,1.02576,0.0536928,21,32765
2.11224,1.00565,0.051817,21,32765
2.10658,0.994304,0.0508969,21,32765
2.10995,0.987172,0.050052,21,32765
2.07698,0.963281,0.0482127,21,32765
2.09835,0.964756,0.0476382,22,32765
2.08336,0.949516,0.0463593,22,32765
2.10476,0.950773,0.0460342,23,32765
2.08055,0.931521,0.0446729,21,32765
2.05622,0.912473,0.0432732,21,32765
2.03179,0.893568,0.041873,21,32765
2.07144,0.902777,0.0418094,21,32765
2.05607,0.887979,0.0407365,21,32765
2.07743,0.88896,0.040355,21,32765
2.07125,0.87798,0.0395614,22,32765
2.08342,0.874899,0.0389106,22,32765
2.09559,0.871753,0.038258,23,32765
2.06149,0.849585,0.0370334,23,32765
2.0643,0.842759,0.0363907,22,32765
2.06702,0.836103,0.0357373,22,32765
2.07903,0.833057,0.0353139,24,32765
2.05388,0.815175,0.0341725,22,32765
2.05656,0.808408,0.0336204,23,32765
2.07788,0.808832,0.0334223,24,32765
2.06186,0.794851,0.0325083,22,32765
2.07384,0.791562,0.0321708,23,32765
2.05773,0.777657,0.0314785,24,32765
2.04157,0.763829,0.0308676,23,32765
2.07223,0.76747,0.0307147,24,32765
2.06536,0.757234,0.0299757,23,32765
2.03962,0.740261,0.0293177,23,32765
2.07965,0.747187,0.0293742,24,32765
2.04439,0.727029,0.0285667,22,32765
2.04675,0.720364,0.0282337,23,32765
2.06799,0.720238,0.0280152,23,32765
2.06089,0.710173,0.027775,23,32765
2.06317,0.70353,0.0277188,23,32765
2.04649,0.69047,0.0271125,23,32765
2.02974,0.677534,0.0265992,23,32765
2.0604,0.680402,0.0268422,24,32765
2.02455,0.661353,0.0263594,24,32765
2.05519,0.664141,0.0264808,24,32765
2.04774,0.654643,0.0266399,24,32765
2.02121,0.639072,0.0262363,23,32765
2.05181,0.641738,0.027115,24,32765
2.26282,1.66052,0.135782,16,32765
2.26044,1.64704,0.13289,16,32765
2.2822,1.65126,0.131504,17,32765
2.25532,1.6204,0.127315,17,32765
2.25258,1.60724,0.124745,17,32765
2.25788,1.59995,0.12261,17,32765
2.24687,1.58106,0.119807,17,32765
2.21937,1.55079,0.116306,17,32765
2.2494,1.56027,0.115671,16,32765
2.22186,1.52997,0.112004,17,32765
2.24352,1.53385,0.110869,18,32765
2.24862,1.5265,0.109203,17,32765
2.26186,1.52486,0.108052,18,32765
2.20877,1.47859,0.103519,17,32765
2.21372,1.47129,0.101894,17,32765
2.29374,1.51345,0.103679,18,32765
2.28214,1.49481,0.101298,18,32765
2.21172,1.43827,0.0963538,16,32765
2.25011,1.45264,0.0961582,17,32765
2.22967,1.42909,0.0936366,17,32765
2.22594,1.41646,0.0917482,17,32765
2.22223,1.40373,0.0901327,18,32765
2.20994,1.38583,0.0878044,17,32765
2.2485,1.39965,0.0877083,17,32765
2.18515,1.35019,0.0837373,16,32765
2.20666,1.35345,0.0831198,16,32765
2.14289,1.30456,0.0791278,16,32765
2.1986,1.32842,0.079835,18,32765
2.16879,1.3005,0.0772389,17,32765
2.14736,1.27797,0.0750685,17,32765
2.17743,1.28612,0.0747937,19,32765
2.16449,1.26877,0.0728889,18,32765
2.18597,1.27169,0.0723431,19,32765
2.1729,1.25444,0.0705716,17,32765
2.1338,1.22224,0.0681509,18,32765
2.19005,1.24474,0.0684719,19,32765
2.17682,1.22759,0.0667771,18,32765
2.17221,1.21546,0.0652071,18,32765
2.16756,1.20332,0.0639407,19,32765
2.22409,1.22511,0.0643389,19,32765
2.20192,1.20322,0.0626411,19,32765
2.17076,1.17689,0.0602979,19,32765
2.17474,1.16956,0.0594624,19,32765
2.12573,1.13407,0.057129,18,32765
2.13833,1.1317,0.056443,18,32765
2.15102,1.12913,0.0554548,19,32765
2.16373,1.12647,0.0540128,20,32765
2.17633,1.12395,0.0531835,19,32765
2.12676,1.08922,0.0510672,18,32765
2.10372,1.06844,0.0492669,17,32765
2.0895,1.05227,0.0479529,17,32765
2.14673,1.07201,0.0483135,19,32765
2.10551,1.04268,0.0465269,18,32765
2.12695,1.04445,0.0459977,19,32765
2.14842,1.0461,0.0455316,19,32765
2.11595,1.02145,0.0437314,19,32765
2.09234,1.00134,0.0427197,19,32765
2.08673,0.98989,0.0421663,20,32765
2.09006,0.98289,0.0408852,19,32765
2.07523,0.967432,0.0396949,19,32765
2.1057,0.973089,0.0391887,21,32765
2.09074,0.957774,0.0381827,20,32765
2.07573,0.942541,0.0368295,20,32765
2.11536,0.951995,0.0365836,20,32765
2.1003,0.936747,0.0355619,20,32765
2.08515,0.921607,0.0344627,19,32765
2.06995,0.906544,0.0331472,20,32765
2.06381,0.895628,0.0321298,19,32765
2.06681,0.888722,0.0312108,20,32765
2.06977,0.881844,0.0303453,19,32765
2.08193,0.878811,0.0296457,19,32765
2.04793,0.856499,0.0281744,19,32765
2.05079,0.849651,0.0271762,19,32765
2.06288,0.846605,0.0263741,21,32765
2.03789,0.828472,0.0252258,19,32765
2.02207,0.814279,0.0240632,19,32765
2.06195,0.822312,0.0235673,20,32765
2.05535,0.811882,0.0223447,19,32765
2.07669,0.812266,0.0216251,21,32765
2.0607,0.798228,0.0206545,21,32765
2.06334,0.791425,0.0197376,20,32765
2.04726,0.777489,0.0186081,20,32765
2.00296,0.753293,0.0171666,20,32765
2.05226,0.764228,0.0167031,21,32765
1.97026,0.726536,0.0152322,19,32765
2.05714,0.751036,0.0148305,20,32765
2.01257,0.727297,0.0135571,20,32765
2.03378,0.727445,0.0126703,20,32765
1.95137,0.690608,0.0111162,19,32765
2.05744,0.720562,0.0108978,20,32765
2.01254,0.697504,0.00941223,19,32765
2.06209,0.707177,0.00876304,20,32765
1.99806,0.678078,0.00743213,19,32765
2.00971,0.674845,0.00639205,19,32765
2.02133,0.671626,0.00529611,20,32765
2.00449,0.658879,0.00417875,20,32765
1.98754,0.646345,0.00291553,20,32765
2.02767,0.652281,0.0017886,20,32765
1.98207,0.630709,0.00049797,19,32765
2.0031,0.630548,-0.000632625,21,32765
1.9382,0.603542,-0.00192088,21,32765
2.29378,1.68781,0.111108,19,32765
2.25115,1.64472,0.106366,19,32765
2.2648,1.64311,0.104427,19,32765
2.22979,1.6064,0.100261,18,32765
2.24325,1.60491,0.0985193,19,32765
2.21594,1.57447,0.0949922,19,32765
2.23751,1.57872,0.0937776,20,32765
2.23457,1.56563,0.0916618,20,32765
2.26463,1.57506,0.0907305,19,32765
2.21248,1.52761,0.0864551,19,32765
2.21763,1.52022,0.0845102,18,32765
2.24746,1.52981,0.083785,20,32765
2.2193,1.50018,0.0810261,19,32765
2.24084,1.50408,0.0798391,20,32765
2.2126,1.47447,0.0770291,19,32765
2.20922,1.46158,0.0751353,21,32765
2.21416,1.45415,0.0735538,20,32765
2.22738,1.4523,0.0722122,21,32765
2.20705,1.42863,0.069771,20,32765
2.16131,1.38895,0.0667755,19,32765
2.19116,1.39802,0.066041,20,32765
2.18739,1.38537,0.0645361,20,32765
2.19197,1.37819,0.0629037,19,32765
2.14567,1.33917,0.0600678,19,32765
2.19263,1.35838,0.0599244,20,32765
2.20564,1.35639,0.0588853,20,32765
2.1675,1.32301,0.0563049,20,32765
2.15484,1.3054,0.0546981,20,32765
2.13353,1.28271,0.0527128,19,32765
2.15499,1.28586,0.0518745,19,32765
2.15926,1.27872,0.050706,20,32765
2.13768,1.25632,0.0488002,20,32765
2.16775,1.26437,0.0482707,21,32765
2.13735,1.23712,0.046319,20,32765
2.15023,1.23485,0.0454812,21,32765
2.14569,1.22269,0.0439812,21,32765
2.1585,1.22041,0.0430151,21,32765
2.16259,1.21321,0.0417155,21,32765
2.1492,1.19621,0.0403806,21,32765
2.11815,1.16976,0.0386277,21,32765
2.13088,1.1674,0.0378772,21,32765
2.13475,1.16035,0.0365523,22,32765
2.14748,1.15786,0.0358753,21,32765
2.10726,1.1271,0.0342566,21,32765
2.15517,1.14353,0.0340407,21,32765
2.1148,1.11295,0.0321399,22,32765
2.15404,1.12429,0.0310128,23,32765
2.11335,1.09421,0.0293523,21,32765
2.09928,1.07788,0.0283001,21,32765
2.12967,1.08437,0.027484,21,32765
2.14229,1.0816,0.0266777,22,32765
2.10125,1.05196,0.0252692,21,32765
2.11371,1.04939,0.0245916,21,32765
2.10825,1.03789,0.0235683,21,32765
2.12969,1.03961,0.0229199,21,32765
2.09721,1.01496,0.0215021,21,32765
2.10065,1.00784,0.0210448,22,32765
2.09506,0.996339,0.0205817,21,32765
2.06223,0.972237,0.0189608,21,32765
2.07455,0.969538,0.018206,22,32765
2.08686,0.966802,0.0172666,22,32765
2.0719,0.951514,0.0164525,21,32765
2.05686,0.936308,0.0152944,22,32765
2.10558,0.949958,0.014743,22,32765
2.09051,0.934708,0.0139105,22,32765
2.04793,0.907413,0.0128291,22,32765
2.051,0.900481,0.0118234,21,32765
2.05401,0.893593,0.010955,22,32765
2.06618,0.890661,0.0100835,22,32765
2.05995,0.879841,0.00917559,22,32765
2.04447,0.865142,0.00827245,23,32765
2.05655,0.862236,0.00735746,23,32765
2.05019,0.851507,0.00632492,22,32765
2.05303,0.84465,0.00540317,23,32765
2.02804,0.826509,0.00453889,22,32765
2.04931,0.82729,0.00363294,23,32765
2.05208,0.820399,0.00269846,23,32765
2.02687,0.802613,0.0015593,23,32765
2.02956,0.795793,0.000656882,23,32765
2.04149,0.792737,-0.000111045,23,32765
2.02543,0.778803,-0.0010116,23,32765
2.028,0.772078,-0.001955,23,32765
2.03984,0.769056,-0.00300082,24,32765
2.02359,0.755413,-0.0038272,24,32765
2.026,0.748934,-0.00463524,23,32765
2.00963,0.735501,-0.00562388,23,32765
2.00263,0.725489,-0.00652916,23,32765
2.02382,0.72567,-0.00760039,23,32765
1.99797,0.708846,-0.00854638,23,32765
2.01915,0.708898,-0.00942237,24,32765
2.00255,0.69576,-0.0105651,23,32765
2.01426,0.692481,-0.0114662,21,32765
2.007,0.682795,-0.0124678,22,32765
2.00918,0.676336,-0.0135441,22,32765
1.96387,0.654149,-0.0143199,21,32765
1.97546,0.650948,-0.0154425,21,32765
1.9775,0.644676,-0.0166611,22,32765
1.99857,0.644519,-0.0179882,22,32765
1.95295,0.622991,-0.0187913,23,32765
1.97395,0.622921,-0.0200946,23,32765
1.96631,0.613823,-0.0213269,22,32765
2.2146,1.62859,0.0757404,18,32765
2.21192,1.61536,0.0749054,18,32765
2.24157,1.62562,0.0749736,19,32765
2.29562,1.65326,0.0759399,17,32765
2.25244,1.6106,0.0735298,18,32765
2.26592,1.60894,0.0729648,18,32765
2.20579,1.55551,0.0698862,17,32765
2.23546,1.56549,0.0698308,17,32765
2.19959,1.52957,0.0678646,16,32765
2.15542,1.48806,0.0650439,17,32765
2.22638,1.52606,0.0660769,17,32765
2.1819,1.48486,0.0638232,17,32765
2.21173,1.49436,0.0635484,17,32765
2.20839,1.48147,0.0622181,17,32765
2.2217,1.47958,0.0613993,18,32765
2.22657,1.4723,0.0603021,18,32765
2.223,1.45957,0.0593586,18,32765
2.19426,1.4305,0.057461,17,32765
2.19056,1.41788,0.056026,17,32765
2.20373,1.41595,0.0553841,18,32765
2.18314,1.39253,0.0533849,17,32765
2.13715,1.35308,0.051438,18,32765
2.13331,1.34048,0.0500169,17,32765
2.18873,1.36505,0.0499342,18,32765
2.15937,1.33657,0.0479446,18,32765
2.14676,1.31895,0.0465952,17,32765
2.15967,1.31705,0.0457338,18,32765
2.13838,1.29438,0.0440487,17,32765
2.19411,1.31817,0.0439724,18,32765
2.08692,1.24419,0.0407421,18,32765
2.18571,1.29326,0.0415462,18,32765
2.13834,1.25553,0.0393828,18,32765
2.10799,1.22823,0.0377581,18,32765
2.12941,1.23121,0.0367903,18,32765
2.15094,1.23393,0.0360312,19,32765
2.12907,1.21177,0.0346273,18,32765
2.17654,1.22944,0.0340324,19,32765
2.14578,1.20258,0.0323012,20,32765
2.09731,1.16634,0.0308158,18,32765
2.15377,1.18826,0.0301786,18,32765
2.15781,1.18094,0.0289252,19,32765
2.17058,1.17844,0.0278651,19,32765
2.13936,1.1521,0.0263101,19,32765
2.08143,1.11204,0.0246881,19,32765
2.12928,1.12859,0.0237086,19,32765
2.07992,1.09358,0.0223959,19,32765
2.12791,1.10975,0.0215223,19,32765
2.06059,1.06583,0.0190831,19,32765
2.09085,1.07262,0.0185302,18,32765
2.07662,1.05652,0.0173556,18,32765
2.15155,1.08566,0.0165425,18,32765
2.04785,1.02479,0.01495,18,32765
2.06923,1.02673,0.0139749,18,32765
2.09962,1.03296,0.0131599,18,32765
2.10314,1.0258,0.0121101,18,32765
2.07964,1.00553,0.0111427,19,32765
2.06494,0.989963,0.00987803,19,32765
2.0864,0.991432,0.00963264,20,32765
2.03544,0.958866,0.00839279,20,32765
2.02958,0.947818,0.00739183,19,32765
2.0963,0.970348,0.00676874,21,32765
2.05406,0.942552,0.00564919,20,32765
2.02996,0.923116,0.00463876,20,32765
2.04211,0.920519,0.00367765,19,32765
2.06346,0.9218,0.00274345,20,32765
2.02993,0.898775,0.00183957,20,32765
2.06035,0.904132,0.00105476,20,32765
2.06336,0.897249,0.000263925,19,32765
2.0204,0.870616,-0.000382069,20,32765
2.08775,0.891176,-0.00142458,21,32765
2.03547,0.860792,-0.00212643,20,32765
2.04752,0.857926,-0.00279674,21,32765
2.04115,0.847219,-0.00362489,19,32765
2.06244,0.848058,-0.00438421,20,32765
2.04673,0.833648,-0.00499602,19,32765
2.04944,0.826949,-0.00564479,21,32765
2.04286,0.816511,-0.00623344,21,32765
2.04553,0.809783,-0.00677308,20,32765
2.00162,0.784828,-0.00718365,19,32765
1.99488,0.774593,-0.00802006,19,32765
1.96941,0.757274,-0.00847439,19,32765
1.99055,0.757978,-0.00893154,20,32765
2.04916,0.772612,-0.00971107,21,32765
2.0142,0.751938,-0.0100669,20,32765
1.98854,0.734833,-0.0106705,20,32765
2.00035,0.731705,-0.0109601,21,32765
2.04035,0.738748,-0.0114437,20,32765
1.97687,0.708423,-0.011658,20,32765
2.02631,0.718629,-0.0123123,20,32765
1.96259,0.688819,-0.0122201,19,32765
1.98369,0.689067,-0.012728,20,32765
1.94805,0.669731,-0.0128253,19,32765
1.99752,0.679585,-0.0131804,19,32765
1.99021,0.669982,-0.0133872,19,32765
2.04931,0.682429,-0.0140788,20,32765
1.98502,0.653905,-0.0138336,18,32765
1.9491,0.63509,-0.0134566,19,32765
1.97968,0.638039,-0.013827,21,32765
1.94357,0.619629,-0.0134274,21,32765
1.94555,0.613388,-0.0135435,21,32765
1.9761,0.616245,-0.0133711,20,32765
2.21277,1.63207,0.0500987,19,32765
2.22625,1.63063,0.0497138,19,32765
2.19933,1.59969,0.0482518,20,32765
2.21273,1.59826,0.0477916,19,32765
2.18566,1.56743,0.0463113,19,32765
2.20714,1.57179,0.0458431,20,32765
2.22042,1.57039,0.0450232,21,32765
2.1683,1.52287,0.0430541,19,32765
2.19794,1.53285,0.0428513,19,32765
2.20314,1.5254,0.0415175,19,32765
2.1753,1.49535,0.0399631,19,32765
2.17206,1.48241,0.0390266,19,32765
2.19358,1.48635,0.038328,19,32765
2.21511,1.49023,0.0375183,21,32765
2.2035,1.47165,0.0361897,21,32765
2.11667,1.40363,0.0336413,18,32765
2.18806,1.44071,0.0339912,19,32765
2.15091,1.40621,0.0323543,19,32765
2.18069,1.41549,0.0315186,20,32765
2.16022,1.39192,0.030312,19,32765
2.15642,1.37936,0.0288426,19,32765
2.14419,1.36135,0.0279016,19,32765
2.15729,1.35936,0.0267768,19,32765
2.17036,1.35739,0.0256158,20,32765
2.13249,1.32363,0.0239122,20,32765
2.15391,1.32704,0.0231246,20,32765
2.14978,1.31467,0.0219887,20,32765
2.16268,1.31273,0.0209172,20,32765
2.09852,1.26425,0.0191689,20,32765
2.14571,1.2828,0.0185317,21,32765
2.14998,1.27564,0.0175057,21,32765
2.13704,1.25825,0.0161815,21,32765
2.124,1.24097,0.0150512,20,32765
2.14544,1.2439,0.0138838,20,32765
2.08032,1.19671,0.0124098,21,32765
2.11045,1.20448,0.0116026,21,32765
2.12307,1.20253,0.0103781,22,32765
2.10967,1.18558,0.00912366,21,32765
2.13978,1.19322,0.00852253,22,32765
2.11755,1.17147,0.00703157,22,32765
2.12153,1.16425,0.00579665,21,32765
2.0991,1.14274,0.00458326,22,32765
2.09418,1.13085,0.00348111,22,32765
2.09792,1.12389,0.00260774,21,32765
2.08396,1.10757,0.00111278,22,32765
2.11418,1.11461,0.000390195,22,32765
2.06473,1.07972,-0.000932049,21,32765
2.13937,1.10959,-0.00275413,22,32765
2.10751,1.0841,-0.00351688,21,32765
2.03098,1.0361,-0.00438015,20,32765
2.09688,1.06093,-0.00589016,22,32765
2.09147,1.04944,-0.00665256,21,32765
2.05025,1.02006,-0.00760822,21,32765
2.08957,1.03079,-0.00873515,21,32765
2.05714,1.00606,-0.00961423,20,32765
2.04259,0.990272,-0.0103301,21,32765
2.06389,0.992122,-0.011591,21,32765
2.02217,0.963487,-0.0116615,22,32765
2.03443,0.960959,-0.0127048,22,32765
2.03763,0.954129,-0.0136744,22,32765
2.04085,0.94721,-0.014508,23,32765
2.02581,0.932074,-0.0153407,23,32765
2.02898,0.925136,-0.0162777,22,32765
2.04113,0.922534,-0.0173342,23,32765
2.0351,0.911556,-0.0182125,22,32765
2.04724,0.90886,-0.0191588,22,32765
2.02277,0.890006,-0.019699,22,32765
2.02573,0.883232,-0.0204773,22,32765
2.00111,0.864595,-0.0208352,22,32765
2.02244,0.865592,-0.0220264,23,32765
2.04375,0.866587,-0.022971,23,32765
2.00972,0.844321,-0.0232074,22,32765
2.01254,0.837558,-0.0240382,22,32765
2.02455,0.834681,-0.0248634,23,32765
2.03657,0.831705,-0.0256267,23,32765
2.02074,0.817523,-0.0260351,24,32765
2.01412,0.807154,-0.0265229,22,32765
2.00748,0.796815,-0.026932,23,32765
2.01007,0.790221,-0.0275006,23,32765
1.99403,0.776306,-0.028117,22,32765
2.02456,0.780531,-0.0290955,22,32765
2.01774,0.770355,-0.029345,23,32765
2.00155,0.756645,-0.0295905,23,32765
2.01337,0.753605,-0.0302633,24,32765
2.02524,0.750359,-0.0311635,23,32765
1.99015,0.729886,-0.0308261,23,32765
2.00194,0.726742,-0.0312455,23,32765
2.00432,0.720141,-0.0318386,23,32765
1.98783,0.706828,-0.0319107,23,32765
2.009,0.706948,-0.0325306,24,32765
1.99237,0.693891,-0.0326187,24,32765
1.98512,0.684258,-0.0328117,23,32765
1.97785,0.674645,-0.0327003,22,32765
1.98948,0.671478,-0.0331273,22,32765
1.98218,0.661789,-0.0332699,22,32765
1.94633,0.642824,-0.0328414,21,32765
1.99593,0.652035,-0.0335289,23,32765
2.00752,0.64869,-0.0338658,24,32765
1.95243,0.62406,-0.0327698,23,32765
1.97349,0.623803,-0.0332085,23,32765
1.9659,0.614642,-0.0326797,23,32765
2.21555,1.62792,0.0608694,18,32765
2.22096,1.62063,0.0582543,18,32765
2.21823,1.60747,0.055777,18,32765
2.1668,1.55922,0.0520657,17,32765
2.22892,1.59276,0.0514695,19,32765
2.20166,1.56216,0.0483857,18,32765
2.17419,1.5318,0.0459184,17,32765
2.17929,1.52458,0.0438218,17,32765
2.18439,1.51733,0.0418359,17,32765
2.14819,1.48183,0.0394894,17,32765
2.20252,1.50874,0.0386229,17,32765
2.15788,1.46777,0.0359926,17,32765
2.1627,1.46071,0.0340974,17,32765
2.20094,1.47556,0.0329516,18,32765
2.18924,1.45711,0.0309713,18,32765
2.10239,1.38908,0.028155,17,32765
2.18222,1.43153,0.0275002,16,32765
2.16173,1.40806,0.025681,17,32765
2.1496,1.39005,0.0240103,18,32765
2.17939,1.39923,0.0228218,18,32765
2.14193,1.36502,0.020843,17,32765
2.12114,1.34183,0.0190533,17,32765
2.13408,1.34006,0.0178083,18,32765
2.13005,1.32767,0.0163819,18,32765
2.1174,1.31016,0.0147671,18,32765
2.12173,1.30314,0.0134005,17,32765
2.10896,1.2857,0.0120299,17,32765
2.12179,1.28386,0.0107299,19,32765
2.11753,1.27157,0.00938686,19,32765
2.13037,1.26959,0.00803916,18,32765
2.11743,1.25222,0.00670982,17,32765
2.11301,1.24002,0.0054983,18,32765
2.08255,1.21288,0.00415822,17,32765
2.11252,1.221,0.00291618,19,32765
2.15125,1.23391,0.00168143,18,32765
2.12061,1.20691,0.000590271,19,32765
2.09854,1.185,-0.00068265,19,32765
2.08511,1.16807,-0.00159209,18,32765
2.08031,1.15616,-0.00274174,18,32765
2.10163,1.15893,-0.00382855,18,32765
2.06164,1.12788,-0.00483133,18,32765
2.07416,1.12581,-0.00587516,18,32765
2.06029,1.10939,-0.00690223,19,32765
2.06401,1.10245,-0.00805667,18,32765
2.08534,1.10493,-0.00890353,18,32765
2.12444,1.11654,-0.0101964,19,32765
2.05717,1.07253,-0.0115011,19,32765
2.06961,1.07027,-0.0124174,18,32765
2.01981,1.0359,-0.0131322,18,32765
2.04111,1.03815,-0.0144709,18,32765
2.0268,1.02212,-0.0153403,19,32765
2.02135,1.01069,-0.0161964,19,32765
2.1054,1.04378,-0.0176981,19,32765
1.99225,0.979288,-0.0177804,19,32765
2.01346,0.981437,-0.0191935,19,32765
2.01672,0.974689,-0.0204096,20,32765
2.01996,0.967933,-0.021176,18,32765
2.01421,0.956754,-0.0218039,19,32765
2.03557,0.958386,-0.0216606,19,32765
2.02969,0.947329,-0.022712,20,32765
2.03287,0.940461,-0.0235094,19,32765
2.02694,0.929414,-0.0242853,19,32765
2.03004,0.922613,-0.0252406,19,32765
2.03313,0.915746,-0.0262502,19,32765
1.99051,0.888567,-0.0265945,19,32765
2.03003,0.898102,-0.0278723,20,32765
1.98726,0.871154,-0.0280629,20,32765
2.01765,0.87649,-0.0294222,20,32765
1.99302,0.857826,-0.029985,20,32765
2.00505,0.855111,-0.031092,19,32765
1.98947,0.840604,-0.0318265,19,32765
2.0015,0.83775,-0.032742,19,32765
2.02275,0.838698,-0.0340371,21,32765
2.0163,0.828073,-0.0348681,20,32765
2.00979,0.817551,-0.0356142,21,32765
2.02174,0.814621,-0.0366358,21,32765
2.00585,0.800479,-0.0374057,21,32765
1.99913,0.790268,-0.0380327,21,32765
1.98311,0.776311,-0.0387587,20,32765
2.00425,0.777086,-0.0400434,20,32765
1.97877,0.759763,-0.040577,19,32765
1.97191,0.749655,-0.0412357,22,32765
1.99307,0.750172,-0.0425773,21,32765
1.96742,0.733096,-0.0428772,20,32765
1.94164,0.71627,-0.0433611,20,32765
1.95337,0.713285,-0.0444684,20,32765
1.96509,0.710221,-0.045731,20,32765
1.9297,0.690398,-0.0457465,20,32765
1.90367,0.67402,-0.0460807,20,32765
2.00017,0.700921,-0.0493519,20,32765
1.93629,0.671508,-0.0487573,19,32765
1.91005,0.655519,-0.0490725,20,32765
1.90263,0.646237,-0.0498292,20,32765
1.9331,0.649644,-0.0517798,20,32765
1.9636,0.652939,-0.0535235,19,32765
1.92768,0.634097,-0.0536382,20,32765
1.96769,0.640288,-0.0559046,20,32765
1.96012,0.631096,-0.0568891,19,32765
1.91443,0.60978,-0.0567391,20,32765
1.94493,0.612671,-0.0588968,21,32765
1.94686,0.60639,-0.0603246,20,32765
2.2216,1.63732,0.0353658,19,32765
2.2351,1.63589,0.0328578,19,32765
2.17579,1.5815,0.0296827,19,32765
2.19729,1.58595,0.0275807,19,32765
2.17817,1.5612,0.0253548,20,32765
2.18341,1.5539,0.0230376,20,32765
2.12327,1.50044,0.0206367,18,32765
2.17738,1.52783,0.0190142,18,32765
2.15786,1.50342,0.0168341,19,32765
2.16276,1.49637,0.0152597,19,32765
2.1594,1.48365,0.0134585,19,32765
2.19732,1.49908,0.0118655,19,32765
2.16912,1.46943,0.00978263,20,32765
2.11607,1.42291,0.00791353,20,32765
2.12084,1.4158,0.00623243,20,32765
2.12562,1.40862,0.00469111,19,32765
2.09684,1.37962,0.00301871,19,32765
2.14318,1.40014,0.00158523,20,32765
2.14781,1.39303,0.000111419,20,32765
2.14395,1.38057,-0.00133844,20,32765
2.12332,1.35717,-0.00285098,19,32765
2.1194,1.3447,-0.00438531,20,32765
2.09004,1.31629,-0.00561234,21,32765
2.08593,1.30401,-0.00692049,20,32765
2.10719,1.3077,-0.008457,20,32765
2.11152,1.30069,-0.00982023,22,32765
2.09875,1.28324,-0.011001,21,32765
2.11156,1.28143,-0.0123911,21,32765
2.09016,1.25882,-0.0135268,21,32765
2.10295,1.25692,-0.0149532,21,32765
2.11578,1.25492,-0.0162809,21,32765
2.12,1.24776,-0.0174721,21,32765
2.08958,1.22054,-0.0184455,21,32765
2.08495,1.20859,-0.0196492,21,32765
2.09761,1.20665,-0.0209842,21,32765
2.10164,1.1996,-0.0220417,21,32765
2.07957,1.1777,-0.0230255,20,32765
2.03126,1.14121,-0.0233418,20,32765
2.07877,1.15865,-0.025001,20,32765
2.09134,1.1566,-0.0261674,20,32765
2.0689,1.13513,-0.0269281,20,32765
2.05509,1.11868,-0.0277164,20,32765
2.0764,1.1213,-0.0290413,21,32765
2.01846,1.08123,-0.0293115,21,32765
2.07503,1.10263,-0.0308563,21,32765
2.03448,1.07234,-0.031296,21,32765
2.02914,1.06096,-0.0327846,21,32765
2.03265,1.05418,-0.0336384,22,32765
2.05397,1.05644,-0.0349868,21,32765
2.0397,1.0404,-0.0359086,21,32765
2.05218,1.03788,-0.0370762,21,32765
2.06465,1.0353,-0.0381834,21,32765
2.03235,1.01045,-0.0383517,22,32765
2.01781,0.994687,-0.0390912,22,32765
2.00312,0.979188,-0.0399925,21,32765
2.03336,0.98554,-0.041759,21,32765
1.99158,0.957058,-0.0415931,22,32765
2.00385,0.954548,-0.0425023,21,32765
2.03424,0.960485,-0.0427404,23,32765
2.01027,0.940929,-0.0433095,22,32765
2.0225,0.938316,-0.0443001,22,32765
2.00748,0.9231,-0.0447774,23,32765
2.00145,0.912201,-0.0455189,22,32765
2.00451,0.905413,-0.0465164,23,32765
1.99839,0.894608,-0.0472436,22,32765
2.00135,0.887917,-0.0480244,22,32765
1.96772,0.865028,-0.0479596,21,32765
2.0164,0.878424,-0.0500478,23,32765
2.00097,0.863683,-0.0505627,23,32765
1.97624,0.845208,-0.0508238,22,32765
2.00666,0.850265,-0.0525635,23,32765
1.99107,0.835736,-0.0528474,22,32765
2.00307,0.832882,-0.0540778,23,32765
2.00585,0.826104,-0.055061,23,32765
1.99007,0.811816,-0.0554527,24,32765
1.98346,0.801452,-0.0560379,22,32765
1.99538,0.798548,-0.0574018,23,32765
1.97936,0.784663,-0.0576618,23,32765
1.98194,0.778044,-0.0587428,23,32765
1.98444,0.771578,-0.0596563,23,32765
1.98693,0.765055,-0.0607549,23,32765
1.97075,0.751334,-0.0610358,24,32765
1.9545,0.737736,-0.0613913,22,32765
1.97564,0.738241,-0.0628839,23,32765
1.96864,0.728285,-0.0636991,23,32765
1.96162,0.718328,-0.0642991,22,32765
1.95456,0.708417,-0.0650363,23,32765
1.94741,0.698709,-0.0656241,22,32765
1.94025,0.688922,-0.0663317,22,32765
1.97073,0.692568,-0.0682746,23,32765
1.98237,0.689447,-0.0696624,23,32765
1.90896,0.657009,-0.0680382,23,32765
1.90154,0.647708,-0.068702,23,32765
1.96988,0.663893,-0.0723259,23,32765
1.92455,0.641785,-0.0715514,22,32765
1.93607,0.638679,-0.0730593,23,32765
1.91906,0.626255,-0.073524,22,32765
1.93047,0.623334,-0.0751249,22,32765
1.90381,0.608143,-0.07524,23,32765
1.91523,0.605054,-0.0769084,23,32765
1.91712,0.598855,-0.0783157,22,32765
2.23002,1.64313,0.003984,16,32765
2.19517,1.60612,0.00326492,16,32765
2.15191,1.56362,0.00243108,16,32765
2.14879,1.55086,0.00152576,15,32765
2.15396,1.54369,0.00073047,16,32765
2.11028,1.50161,-0.000188869,15,32765
2.1806,1.54075,-0.00105205,17,32765
2.16114,1.51627,-0.0020901,18,32765
2.15784,1.50353,-0.00307473,18,32765
2.17923,1.5078,-0.00386947,17,32765
2.08524,1.4327,-0.00483889,17,32765
2.19734,1.49908,-0.00595282,18,32765
2.13615,1.4468,-0.00725542,18,32765
2.11614,1.42281,-0.00812117,17,32765
2.13764,1.42664,-0.00908613,17,32765
2.11745,1.40281,-0.0101743,18,32765
2.11371,1.39033,-0.0111984,18,32765
2.10154,1.37239,-0.0122369,18,32765
2.15642,1.39805,-0.0137963,18,32765
2.0854,1.34213,-0.0144158,18,32765
2.132,1.36207,-0.0157608,18,32765
2.11121,1.33885,-0.0165862,18,32765
2.11563,1.33183,-0.0178575,19,32765
2.11153,1.31954,-0.018555,19,32765
2.09892,1.30195,-0.0195533,18,32765
2.11177,1.30015,-0.0208199,19,32765
2.09905,1.28262,-0.0216109,19,32765
2.09481,1.27034,-0.0226416,18,32765
2.09905,1.2633,-0.0239552,18,32765
2.08611,1.24597,-0.0249374,19,32765
2.11606,1.25426,-0.0263311,17,32765
2.12027,1.24711,-0.027407,18,32765
2.07266,1.20968,-0.027746,18,32765
2.09402,1.2127,-0.0290887,18,32765
2.07209,1.19065,-0.0298736,17,32765
2.10213,1.19853,-0.0315168,18,32765
2.01906,1.14229,-0.0312093,17,32765
2.04029,1.14532,-0.0325358,17,32765
2.04407,1.13852,-0.0336506,18,32765
2.06537,1.14132,-0.0351869,17,32765
2.04288,1.11994,-0.0356868,18,32765
2.0993,1.14175,-0.0378355,19,32765
2.01517,1.0871,-0.0372342,19,32765
2.08055,1.11327,-0.0394228,19,32765
1.99595,1.05938,-0.0387995,19,32765
1.99949,1.05264,-0.0398068,19,32765
2.02958,1.05979,-0.0416973,20,32765
2.05975,1.06675,-0.043284,20,32765
2.08112,1.06891,-0.0445924,20,32765
2.00452,1.02101,-0.0440442,18,32765
2.01689,1.01867,-0.0451366,19,32765
2.0203,1.01185,-0.0463396,19,32765
2.00576,0.996149,-0.0469949,19,32765
2.036,1.00261,-0.0485365,19,32765
2.01241,0.982554,-0.0490037,19,32765
2.03368,0.984486,-0.0505222,20,32765
1.98286,0.951712,-0.0500384,19,32765
1.99503,0.949379,-0.0511806,19,32765
2.0072,0.946996,-0.0522916,20,32765
1.9741,0.923348,-0.0523526,19,32765
1.98626,0.920859,-0.0538677,19,32765
1.98936,0.914117,-0.0543662,20,32765
1.99245,0.907294,-0.0552707,20,32765
2.00456,0.904718,-0.0566448,20,32765
1.98025,0.885608,-0.0566483,19,32765
2.00148,0.887021,-0.0580294,20,32765
1.97692,0.868332,-0.058202,19,32765
1.97979,0.86172,-0.0590313,20,32765
1.94588,0.839342,-0.0587138,20,32765
2.01303,0.86024,-0.0614681,21,32765
1.95145,0.826192,-0.0602553,20,32765
1.92651,0.808116,-0.0601247,19,32765
2.003,0.832398,-0.0632426,21,32765
1.91326,0.787793,-0.0609779,20,32765
1.95286,0.796552,-0.062925,20,32765
2.02031,0.81635,-0.0656714,21,32765
1.92092,0.768778,-0.0629449,19,32765
1.95133,0.773414,-0.064432,20,32765
1.99106,0.781583,-0.0662513,20,32765
1.98433,0.771288,-0.0666598,21,32765
1.95884,0.754014,-0.0664109,20,32765
1.94261,0.740466,-0.0662843,20,32765
1.92631,0.727006,-0.0661868,20,32765
1.95672,0.731274,-0.0676285,20,32765
1.94974,0.721326,-0.0678701,21,32765
1.95209,0.714879,-0.0684939,20,32765
1.92624,0.698199,-0.0678918,21,32765
1.90029,0.68173,-0.0673234,20,32765
1.95903,0.69553,-0.0696898,21,32765
1.90472,0.669174,-0.0682215,20,32765
1.90688,0.66295,-0.0686304,21,32765
1.94682,0.669748,-0.0702926,21,32765
1.95843,0.66665,-0.070833,21,32765
1.95108,0.65718,-0.0707324,22,32765
1.91528,0.638139,-0.0698233,20,32765
1.91731,0.631987,-0.0700104,20,32765
1.89081,0.616588,-0.0690744,20,32765
1.90226,0.61367,-0.0695111,20,32765
1.91372,0.610659,-0.0697951,20,32765
1.90619,0.601313,-0.0696078,19,32765
1.89857,0.592234,-0.0691831,18,32765
2.14696,1.58714,-0.0209968,19,32765
2.13617,1.56807,-0.0214737,18,32765
2.13324,1.55512,-0.0221521,18,32765
2.17061,1.57172,-0.0233972,20,32765
2.12714,1.52942,-0.023663,20,32765
2.14858,1.53382,-0.0247671,20,32765
2.15367,1.52664,-0.025618,21,32765
2.10149,1.47918,-0.0259637,19,32765
2.10628,1.47233,-0.0269365,20,32765
2.14398,1.48817,-0.0281186,20,32765
2.09944,1.44708,-0.0286286,19,32765
2.15371,1.47401,-0.0301542,19,32765
2.12558,1.44424,-0.0311705,19,32765
2.1056,1.42023,-0.0317559,20,32765
2.08554,1.39628,-0.032264,20,32765
2.11524,1.40579,-0.0338465,20,32765
2.09482,1.38227,-0.0345052,21,32765
2.12446,1.39174,-0.0360606,21,32765
2.09553,1.36286,-0.0367275,21,32765
2.09167,1.3504,-0.0376902,21,32765
2.07091,1.3272,-0.0382639,20,32765
2.09222,1.33096,-0.0395818,20,32765
2.10507,1.32933,-0.0410099,20,32765
2.06709,1.29579,-0.0409425,21,32765
2.09685,1.30473,-0.0425957,21,32765
2.06717,1.27666,-0.0430717,21,32765
2.07996,1.27491,-0.0442026,22,32765
2.08425,1.26786,-0.0453189,22,32765
2.0628,1.24533,-0.046056,21,32765
2.09269,1.25377,-0.0478141,21,32765
2.0539,1.22118,-0.0478915,20,32765
2.06661,1.2193,-0.0491438,21,32765
2.05346,1.20217,-0.0497357,20,32765
2.04885,1.19019,-0.0506174,20,32765
2.06152,1.18821,-0.0519738,20,32765
2.03077,1.1614,-0.0523286,20,32765
2.06069,1.16942,-0.0540179,20,32765
2.06457,1.1625,-0.055091,20,32765
2.01604,1.12635,-0.0547988,19,32765
2.03728,1.12924,-0.0565079,21,32765
2.00602,1.10308,-0.0564709,20,32765
2.07111,1.12986,-0.0594133,20,32765
1.99581,1.07993,-0.0581228,20,32765
2.00826,1.07786,-0.0593956,21,32765
2.0295,1.08047,-0.0609843,21,32765
2.03312,1.07359,-0.0620113,21,32765
2.01011,1.05282,-0.0625542,22,32765
1.99588,1.03681,-0.063014,22,32765
2.02602,1.04376,-0.0647675,23,32765
2.00281,1.02323,-0.0650839,22,32765
1.98844,1.00734,-0.0653921,22,32765
2.00966,1.00957,-0.0671779,22,32765
1.99513,0.993866,-0.0676431,22,32765
1.98054,0.978243,-0.0679263,22,32765
2.01971,0.989098,-0.0702711,22,32765
1.96906,0.956081,-0.0694463,22,32765
1.98123,0.953797,-0.0706227,22,32765
1.9934,0.951461,-0.0718601,22,32765
1.9875,0.940525,-0.0724082,22,32765
1.9906,0.933867,-0.0734222,23,32765
1.99372,0.927099,-0.0747043,22,32765
1.96961,0.907764,-0.0741817,22,32765
1.99086,0.909295,-0.0757716,22,32765
1.93924,0.877865,-0.074783,22,32765
1.97869,0.887566,-0.076965,22,32765
1.98165,0.880865,-0.0778178,23,32765
1.96623,0.866227,-0.0780651,22,32765
1.95077,0.851637,-0.0781583,23,32765
1.97189,0.853111,-0.0796804,23,32765
1.97475,0.846407,-0.0804828,23,32765
1.96836,0.835844,-0.080869,23,32765
1.95267,0.821544,-0.0808472,23,32765
1.94614,0.811189,-0.0812612,22,32765
1.958,0.808626,-0.0823134,23,32765
1.96064,0.802119,-0.0830872,23,32765
1.96324,0.795661,-0.0837294,23,32765
1.95658,0.785393,-0.0839346,23,32765
1.9406,0.771461,-0.0837127,22,32765
1.93382,0.761379,-0.0838891,22,32765
1.94565,0.75851,-0.0849985,23,32765
1.95742,0.755716,-0.0860965,23,32765
1.90387,0.727868,-0.0841343,21,32765
1.96231,0.742801,-0.0871607,22,32765
1.93662,0.725918,-0.0863902,22,32765
1.95772,0.72644,-0.0877943,23,32765
1.9132,0.702726,-0.0863071,22,32765
1.93428,0.703203,-0.0875424,22,32765
1.90837,0.686668,-0.0866962,23,32765
1.93885,0.690417,-0.0883421,23,32765
1.90341,0.670705,-0.0871701,23,32765
1.93387,0.674338,-0.0888811,22,32765
1.93605,0.668028,-0.0891842,23,32765
1.91929,0.655272,-0.088511,23,32765
1.94031,0.655496,-0.089625,23,32765
1.91401,0.639611,-0.088779,23,32765
1.88759,0.62404,-0.0876463,22,32765
1.89906,0.621121,-0.0881925,23,32765
1.91052,0.618168,-0.0887249,23,32765
1.89346,0.605986,-0.0877808,23,32765
1.8764,0.59367,-0.0870575,22,32765
1.9069,0.596596,-0.0883078,22,32765
2.10158,1.5477,-0.00945461,16,32765
2.2036,1.61149,-0.0125865,17,32765
2.11175,1.53375,-0.0143271,16,32765
2.1087,1.5209,-0.0164625,17,32765
2.13806,1.53143,-0.0186246,18,32765
2.12681,1.51272,-0.0207608,17,32765
2.1155,1.49407,-0.0225701,18,32765
2.08772,1.46401,-0.0240515,17,32765
2.12536,1.47995,-0.0264685,17,32765
2.13836,1.47871,-0.0285884,18,32765
2.10194,1.44342,-0.029736,17,32765
2.09842,1.43082,-0.0314026,19,32765
2.09491,1.41815,-0.0328496,19,32765
2.06658,1.38859,-0.0342203,17,32765
2.10449,1.40381,-0.0365808,18,32765
2.10915,1.39675,-0.0383019,18,32765
2.01351,1.32379,-0.0381286,17,32765
2.06804,1.34999,-0.0404884,19,32765
2.07244,1.34318,-0.042073,18,32765
2.02638,1.30387,-0.0425364,17,32765
2.09802,1.34027,-0.0455024,18,32765
2.09403,1.32786,-0.0469583,17,32765
2.08147,1.31027,-0.0479072,18,32765
2.0604,1.28734,-0.0489246,19,32765
2.11561,1.31212,-0.051258,20,32765
2.03482,1.25261,-0.0508737,18,32765
2.06456,1.26143,-0.0528004,19,32765
2.05163,1.24415,-0.0540218,18,32765
2.02154,1.21656,-0.0544701,16,32765
2.06849,1.2354,-0.0567133,18,32765
2.04681,1.21313,-0.0573452,17,32765
2.0336,1.19612,-0.0581983,18,32765
2.01165,1.17419,-0.058646,17,32765
2.05015,1.18747,-0.0608981,18,32765
2.05408,1.1806,-0.062082,18,32765
2.06671,1.17858,-0.0636529,18,32765
2.01844,1.14205,-0.0633308,18,32765
2.02224,1.13525,-0.0644468,17,32765
2.06966,1.15277,-0.0671639,19,32765
2.01221,1.11203,-0.0662607,18,32765
2.02465,1.1101,-0.0675889,18,32765
1.95805,1.06515,-0.0664214,18,32765
1.95273,1.05392,-0.0671481,19,32765
2.00909,1.07568,-0.0699416,20,32765
1.9773,1.05026,-0.0696908,19,32765
2.00729,1.05761,-0.0717162,20,32765
1.97539,1.03229,-0.0715732,20,32765
2.01436,1.04394,-0.0737534,20,32765
1.98235,1.01873,-0.0734845,20,32765
1.97687,1.00742,-0.0740981,19,32765
1.97137,0.996104,-0.0747503,19,32765
1.97471,0.989387,-0.0758205,20,32765
2.02277,1.0049,-0.0786567,20,32765
2.00818,0.989224,-0.0789239,20,32765
1.95757,0.956165,-0.0777917,19,32765
1.98775,0.962589,-0.0798163,20,32765
1.97294,0.947203,-0.0800591,19,32765
1.92197,0.914766,-0.0784371,18,32765
1.95212,0.921063,-0.0805377,19,32765
1.94609,0.910291,-0.0812483,19,32765
1.9763,0.916336,-0.0834321,20,32765
1.93396,0.888775,-0.0822944,19,32765
1.94596,0.886464,-0.0837165,19,32765
1.96714,0.888073,-0.085365,19,32765
1.96095,0.877372,-0.0858739,20,32765
1.91819,0.850497,-0.0848164,20,32765
1.98505,0.872165,-0.0884175,21,32765
1.97877,0.861488,-0.0889287,20,32765
1.9541,0.842935,-0.0887,20,32765
1.94768,0.832462,-0.0890924,20,32765
1.92284,0.814148,-0.0890634,21,32765
1.96239,0.823134,-0.0914961,20,32765
1.94666,0.808829,-0.0916361,21,32765
1.91237,0.787086,-0.0908466,20,32765
1.96118,0.799596,-0.0939628,21,32765
1.96378,0.793091,-0.0948109,20,32765
1.88283,0.753271,-0.0918145,19,32765
1.93171,0.765429,-0.094898,20,32765
1.90633,0.74799,-0.0944391,20,32765
1.90877,0.741622,-0.0954085,20,32765
1.93918,0.745942,-0.0977799,20,32765
1.89492,0.721749,-0.0962962,19,32765
1.89723,0.715503,-0.0973725,20,32765
1.91823,0.71628,-0.0991168,21,32765
1.91116,0.706506,-0.0996507,20,32765
1.85715,0.679589,-0.0977684,20,32765
1.91571,0.693802,-0.101474,21,32765
1.92734,0.690833,-0.103023,22,32765
1.91074,0.67774,-0.103136,21,32765
1.88459,0.661627,-0.102725,22,32765
1.92442,0.668595,-0.105752,21,32765
1.91705,0.659185,-0.106248,21,32765
1.85292,0.630535,-0.103423,22,32765
1.89275,0.637268,-0.106681,21,32765
1.8853,0.627884,-0.107334,20,32765
1.88729,0.62166,-0.108583,20,32765
1.90821,0.621757,-0.110694,20,32765
1.87208,0.603494,-0.109517,20,32765
1.93096,0.615864,-0.114079,20,32765
1.88519,0.594812,-0.11252,20,32765
1.87745,0.585894,-0.11323,20,32765
2.1472,1.58658,-0.0344954,20,32765
2.09604,1.53796,-0.0361613,20,32765
2.14144,1.56051,-0.0391876,20,32765
2.13037,1.54166,-0.0411093,20,32765
2.04609,1.47045,-0.0412815,19,32765
2.12418,1.51589,-0.0450355,20,32765
2.14552,1.52032,-0.0473814,20,32765
2.10969,1.48434,-0.0483344,20,32765
2.07358,1.4487,-0.0493919,20,32765
2.07004,1.43622,-0.0511542,20,32765
2.05822,1.41809,-0.0524144,20,32765
2.07112,1.4169,-0.0543882,20,32765
2.12547,1.4436,-0.0572862,20,32765
2.07239,1.3971,-0.0576255,21,32765
2.07705,1.39008,-0.0594169,19,32765
2.06501,1.37203,-0.0606307,20,32765
2.07788,1.37062,-0.0625751,21,32765
2.0656,1.35284,-0.0634852,21,32765
2.04486,1.32967,-0.0642816,21,32765
2.066,1.33373,-0.0663268,21,32765
2.07875,1.33232,-0.06814,21,32765
2.0663,1.31458,-0.069209,22,32765
2.04526,1.29169,-0.0696698,21,32765
2.04956,1.28476,-0.0712668,22,32765
2.07076,1.2885,-0.0729611,21,32765
2.06652,1.27628,-0.0743661,22,32765
2.01961,1.23799,-0.0737936,21,32765
2.05785,1.25199,-0.0767055,21,32765
2.02782,1.22432,-0.0767888,20,32765
2.04046,1.22262,-0.0781907,21,32765
2.03594,1.21061,-0.0791965,20,32765
2.03995,1.20375,-0.0805392,20,32765
2.0698,1.21205,-0.082784,21,32765
2.02198,1.17494,-0.081946,21,32765
2.01721,1.16316,-0.0827618,21,32765
2.0211,1.15629,-0.0840452,21,32765
2.01626,1.1445,-0.084969,20,32765
2.00265,1.12788,-0.085345,20,32765
2.02383,1.13088,-0.0873891,20,32765
2.02754,1.12412,-0.0884811,21,32765
1.99623,1.09805,-0.0879842,22,32765
1.99107,1.08659,-0.0887945,22,32765
2.0034,1.08474,-0.0902398,22,32765
1.98938,1.06855,-0.0904203,22,32765
1.98406,1.05723,-0.0910028,21,32765
1.97871,1.04589,-0.0916778,22,32765
1.99105,1.0438,-0.0932197,22,32765
1.97684,1.02777,-0.0932738,23,32765
1.98921,1.02552,-0.0947292,23,32765
1.98376,1.01416,-0.0952557,23,32765
1.96047,0.993758,-0.0949577,23,32765
1.98165,0.996032,-0.0968977,23,32765
1.96709,0.980362,-0.0971175,23,32765
1.97932,0.97811,-0.0985112,23,32765
1.95563,0.95826,-0.0981575,22,32765
1.96782,0.955969,-0.099555,23,32765
1.962,0.944948,-0.100063,22,32765
1.99221,0.95121,-0.102035,23,32765
1.96828,0.931639,-0.101657,23,32765
1.96229,0.920784,-0.102285,22,32765
1.9744,0.918359,-0.103808,22,32765
1.92304,0.886558,-0.101725,21,32765
1.97136,0.900882,-0.105176,22,32765
1.93797,0.877681,-0.104093,22,32765
1.94999,0.875231,-0.105483,22,32765
1.93463,0.860507,-0.105448,23,32765
1.94663,0.857996,-0.106706,23,32765
1.94946,0.851418,-0.107614,23,32765
1.94311,0.840853,-0.108112,23,32765
1.94588,0.834326,-0.108922,23,32765
1.95783,0.83159,-0.110693,24,32765
1.93297,0.813363,-0.109853,23,32765
1.95409,0.81449,-0.111904,23,32765
1.91985,0.79267,-0.110747,22,32765
1.89469,0.77494,-0.110042,22,32765
1.92497,0.779887,-0.112486,22,32765
1.94599,0.781011,-0.114633,23,32765
1.92997,0.767167,-0.114365,22,32765
1.9232,0.757005,-0.114735,22,32765
1.91636,0.746938,-0.115156,22,32765
1.9095,0.736862,-0.115559,22,32765
1.9212,0.734091,-0.117004,23,32765
1.89554,0.717143,-0.116377,23,32765
1.87913,0.703917,-0.116001,23,32765
1.87202,0.694247,-0.116423,22,32765
1.91173,0.701798,-0.119832,23,32765
1.88587,0.68518,-0.118804,24,32765
1.87868,0.675546,-0.119239,24,32765
1.88085,0.669275,-0.120342,24,32765
1.87352,0.659852,-0.120849,23,32765
1.89446,0.660301,-0.123022,24,32765
1.87763,0.647709,-0.122793,23,32765
1.8513,0.632015,-0.121782,23,32765
1.87219,0.632379,-0.124162,24,32765
1.85525,0.619877,-0.124076,23,32765
1.86668,0.616868,-0.125947,24,32765
1.84963,0.604628,-0.125658,23,32765
1.87994,0.608,-0.128623,24,32765
1.87225,0.599087,-0.129164,23,32765
1.87403,0.593224,-0.130409,24,32765
1.86628,0.584319,-0.13102,23,32765
2.09816,1.55105,-0.0636446,18,32765
2.15179,1.57935,-0.065837,18,32765
2.06836,1.50712,-0.0638086,18,32765
2.08151,1.50599,-0.0648894,18,32765
2.07027,1.48736,-0.0652166,18,32765
2.08333,1.48626,-0.0662682,18,32765
2.08003,1.47359,-0.0672331,18,32765
2.07672,1.4609,-0.0679149,18,32765
2.04062,1.42529,-0.0673842,18,32765
2.06999,1.43554,-0.0691966,17,32765
2.09119,1.43995,-0.0710281,18,32765
2.06291,1.41046,-0.0708364,18,32765
2.05929,1.39796,-0.0716619,18,32765
2.07218,1.39669,-0.0729793,19,32765
2.0602,1.37861,-0.0735205,18,32765
2.05654,1.36602,-0.0744135,18,32765
2.06111,1.35906,-0.0755261,18,32765
2.07404,1.35751,-0.0771037,19,32765
2.06174,1.33971,-0.0774737,19,32765
2.05777,1.32738,-0.0783684,18,32765
2.06216,1.32049,-0.0794506,18,32765
2.04121,1.29751,-0.0795469,19,32765
2.00321,1.26404,-0.0790552,17,32765
2.03274,1.27332,-0.0814222,18,32765
2.05394,1.27704,-0.083212,19,32765
2.02414,1.24915,-0.0829471,18,32765
2.01978,1.23708,-0.0837195,18,32765
1.96408,1.19398,-0.0823985,17,32765
2.03647,1.22871,-0.0863524,17,32765
2.01483,1.20643,-0.0865313,17,32765
2.05323,1.22001,-0.089027,17,32765
2.00564,1.18261,-0.0881012,18,32765
2.0268,1.18595,-0.090028,19,32765
1.99615,1.15908,-0.0896688,20,32765
1.97403,1.13734,-0.0897585,18,32765
1.97781,1.13066,-0.0908763,18,32765
2.02504,1.14858,-0.0942202,19,32765
2.02891,1.14164,-0.0954064,18,32765
1.96294,1.09575,-0.0932435,19,32765
1.99279,1.10366,-0.0956333,20,32765
1.97015,1.08254,-0.0955777,19,32765
2.00003,1.09026,-0.0981061,20,32765
1.98605,1.07404,-0.0983324,20,32765
1.96319,1.05317,-0.0980955,19,32765
2.00195,1.06531,-0.101147,20,32765
1.97905,1.0444,-0.100975,19,32765
1.95602,1.0237,-0.100693,21,32765
2.00379,1.03999,-0.104121,21,32765
1.98945,1.02411,-0.104419,21,32765
1.94836,0.99468,-0.103063,19,32765
1.92491,0.974541,-0.102839,20,32765
1.96389,0.985869,-0.105851,20,32765
1.94934,0.970199,-0.105863,19,32765
1.97049,0.972391,-0.107821,21,32765
1.97369,0.965761,-0.108918,20,32765
1.94992,0.946025,-0.108424,19,32765
1.97104,0.948097,-0.110591,20,32765
1.94711,0.928546,-0.110258,20,32765
1.93214,0.913398,-0.110107,20,32765
1.95324,0.915375,-0.11196,19,32765
1.88377,0.875197,-0.108766,18,32765
1.95916,0.902399,-0.113918,20,32765
1.92574,0.879334,-0.112638,19,32765
1.90134,0.860503,-0.111956,19,32765
1.95889,0.87852,-0.115975,20,32765
1.89796,0.843405,-0.113221,19,32765
1.90075,0.836971,-0.114106,19,32765
1.91268,0.83452,-0.11547,19,32765
1.92456,0.832108,-0.116849,20,32765
1.90894,0.817793,-0.116477,20,32765
1.94843,0.826874,-0.119577,20,32765
1.89595,0.797032,-0.117103,19,32765
1.89861,0.790625,-0.11752,19,32765
1.90117,0.784291,-0.118445,21,32765
1.93141,0.78938,-0.120926,22,32765
1.93398,0.782975,-0.121586,21,32765
1.91799,0.769129,-0.121126,21,32765
1.90194,0.755376,-0.12058,20,32765
1.87654,0.738054,-0.119473,20,32765
1.88826,0.735422,-0.12052,21,32765
1.92791,0.743523,-0.123494,21,32765
1.88367,0.719405,-0.121053,21,32765
1.90466,0.720275,-0.122828,21,32765
1.87894,0.70351,-0.121455,21,32765
1.89057,0.70078,-0.122647,21,32765
1.88347,0.691112,-0.122493,20,32765
1.92324,0.698483,-0.125508,20,32765
1.88796,0.678572,-0.123472,20,32765
1.89953,0.675774,-0.124509,21,32765
1.88289,0.662906,-0.123616,22,32765
1.88505,0.656702,-0.123824,21,32765
1.91544,0.66035,-0.1262,22,32765
1.91756,0.654107,-0.126491,21,32765
1.89127,0.638368,-0.124907,21,32765
1.85546,0.619595,-0.122406,20,32765
1.89535,0.626095,-0.125125,22,32765
1.87842,0.613647,-0.124058,22,32765
1.86143,0.601311,-0.122926,21,32765
1.9014,0.607391,-0.125451,21,32765
1.84623,0.583282,-0.121718,20,32765
1.89569,0.592414,-0.124583,21,32765
2.0869,1.54828,-0.0875069,20,32765
2.0439,1.50554,-0.0861851,19,32765
2.08943,1.52792,-0.0885777,19,32765
2.07838,1.5091,-0.0887289,20,32765
2.06717,1.49043,-0.088874,20,32765
2.06399,1.47769,-0.0893187,19,32765
2.06882,1.47085,-0.0905405,20,32765
2.05735,1.4524,-0.0907689,20,32765
2.04584,1.43398,-0.0908613,20,32765
2.0588,1.43281,-0.0922245,19,32765
2.03887,1.40886,-0.0923769,20,32765
2.05173,1.40774,-0.0936756,20,32765
2.03986,1.38962,-0.094026,20,32765
2.04443,1.38281,-0.0950461,21,32765
2.07391,1.39263,-0.0973375,21,32765
2.03705,1.35779,-0.0965733,21,32765
2.04159,1.35087,-0.0976797,21,32765
2.03778,1.33841,-0.0985349,20,32765
2.04219,1.3316,-0.0995215,20,32765
2.01304,1.30302,-0.0990774,21,32765
2.02575,1.30166,-0.100557,20,32765
2.03005,1.29487,-0.101625,21,32765
2.00054,1.2667,-0.101092,20,32765
2.04696,1.28663,-0.104605,21,32765
2.04275,1.27444,-0.105282,21,32765
2.01299,1.24652,-0.104643,20,32765
2.00012,1.22924,-0.104874,21,32765
2.06387,1.25893,-0.109212,22,32765
1.99965,1.21062,-0.106673,20,32765
2.02936,1.21928,-0.109321,20,32765
1.99912,1.19191,-0.108476,20,32765
2.01168,1.19021,-0.110258,21,32765
1.98116,1.16318,-0.109521,20,32765
1.985,1.15652,-0.110691,20,32765
1.99749,1.15477,-0.112445,20,32765
2.00133,1.14799,-0.11358,20,32765
1.9444,1.10657,-0.111439,21,32765
1.9916,1.12444,-0.115094,21,32765
1.99538,1.11762,-0.116229,21,32765
2.01653,1.12058,-0.118408,21,32765
1.98523,1.09451,-0.117573,22,32765
1.96255,1.07344,-0.117253,22,32765
1.97486,1.07159,-0.11886,22,32765
1.96961,1.06018,-0.119407,22,32765
1.9643,1.0488,-0.120145,22,32765
1.96785,1.04199,-0.121306,22,32765
1.98905,1.04448,-0.123486,24,32765
1.93942,1.00997,-0.121309,23,32765
1.95161,1.008,-0.123062,23,32765
1.96383,1.00595,-0.124607,23,32765
1.93156,0.981187,-0.123547,22,32765
1.94376,0.97904,-0.125216,22,32765
1.956,0.97678,-0.126771,23,32765
1.96821,0.97452,-0.128338,23,32765
1.96245,0.96348,-0.128849,22,32765
1.9387,0.943734,-0.128072,22,32765
1.94181,0.937167,-0.129225,22,32765
1.91788,0.917668,-0.128597,22,32765
1.94798,0.92397,-0.131289,22,32765
1.92393,0.904657,-0.13028,22,32765
1.94497,0.906654,-0.13249,23,32765
1.9479,0.900215,-0.133456,23,32765
1.92359,0.881288,-0.132424,22,32765
1.9174,0.870672,-0.132722,22,32765
1.96582,0.884575,-0.136678,23,32765
1.92321,0.857481,-0.134552,23,32765
1.88953,0.834812,-0.132884,22,32765
1.91058,0.836392,-0.134984,22,32765
1.91331,0.830007,-0.135808,22,32765
1.9252,0.827516,-0.137208,23,32765
1.93714,0.824831,-0.13872,23,32765
1.87552,0.791078,-0.13502,22,32765
1.92419,0.803956,-0.138754,23,32765
1.89914,0.786071,-0.137689,23,32765
1.91089,0.783604,-0.139108,23,32765
1.88571,0.765986,-0.137737,21,32765
1.89745,0.763437,-0.139111,23,32765
1.8814,0.749718,-0.138374,22,32765
1.90242,0.750733,-0.140406,22,32765
1.91417,0.748006,-0.141555,23,32765
1.87939,0.727235,-0.139392,22,32765
1.85378,0.710357,-0.137858,22,32765
1.87472,0.711324,-0.139813,24,32765
1.88636,0.70865,-0.140946,23,32765
1.88865,0.702408,-0.141535,24,32765
1.8722,0.689276,-0.140586,22,32765
1.86507,0.679623,-0.140445,22,32765
1.8673,0.673392,-0.140856,22,32765
1.86006,0.663946,-0.140564,22,32765
1.89042,0.667787,-0.143037,22,32765
1.88319,0.658249,-0.142535,24,32765
1.86642,0.645607,-0.141617,24,32765
1.88737,0.645967,-0.143336,23,32765
1.87998,0.636685,-0.142905,23,32765
1.89149,0.633744,-0.143622,23,32765
1.86512,0.618174,-0.141686,24,32765
1.86714,0.612008,-0.141872,24,32765
1.85966,0.602753,-0.141274,24,32765
1.86162,0.596674,-0.141292,24,32765
1.88253,0.596743,-0.142767,23,32765
1.87489,0.587877,-0.141778,23,32765
2.04982,1.51489,-0.0765428,18,32765
2.03867,1.4962,-0.0782262,17,32765
2.07581,1.51299,-0.0821359,18,32765
2.08884,1.51196,-0.0845098,18,32765
2.08571,1.49909,-0.0862925,18,32765
2.03369,1.45143,-0.0864365,18,32765
2.0548,1.45611,-0.0890815,18,32765
2.05139,1.4435,-0.0906538,18,32765
2.03145,1.41958,-0.0915683,18,32765
2.01963,1.40145,-0.092896,17,32765
2.04888,1.41174,-0.095716,19,32765
2.00403,1.37102,-0.0952579,18,32765
2.04164,1.38668,-0.0986208,19,32765
2.07103,1.39661,-0.101627,19,32765
2.05897,1.3786,-0.102452,18,32765
2.00524,1.33301,-0.100995,18,32765
2.00123,1.32082,-0.102566,19,32765
2.05572,1.34696,-0.106454,20,32765
1.97641,1.28554,-0.103802,18,32765
1.97229,1.27342,-0.104774,18,32765
1.96811,1.26132,-0.105931,17,32765
2.02281,1.28689,-0.110184,18,32765
2.00166,1.26415,-0.110431,18,32765
2.01425,1.26277,-0.112201,18,32765
2.00986,1.25081,-0.113396,18,32765
1.97149,1.21778,-0.112405,19,32765
1.9755,1.21114,-0.113744,18,32765
2.00513,1.22001,-0.116322,17,32765
1.96643,1.18737,-0.115281,18,32765
1.94467,1.1653,-0.115043,18,32765
1.96572,1.16887,-0.117328,17,32765
1.96098,1.15715,-0.118141,18,32765
1.97341,1.15559,-0.119828,19,32765
1.95992,1.13897,-0.119927,18,32765
1.96368,1.13234,-0.121147,19,32765
1.94142,1.11082,-0.120692,19,32765
1.96244,1.11413,-0.123042,19,32765
1.94875,1.09765,-0.123095,19,32765
1.9175,1.0716,-0.121893,18,32765
1.99962,1.1087,-0.128067,20,32765
1.96827,1.08274,-0.126897,21,32765
1.95429,1.06658,-0.126737,20,32765
1.94905,1.05519,-0.127292,20,32765
1.97895,1.06269,-0.13011,21,32765
1.98248,1.05599,-0.131077,20,32765
1.95947,1.0353,-0.130486,20,32765
1.94519,1.01945,-0.130196,21,32765
