x, y, z, intensity, ring
1.60747,0.840685,0.147314,21,32765
1.61033,0.835297,0.146699,21,32765
1.60434,0.82532,0.145076,21,32765
1.58936,0.810914,0.142986,19,32765
1.59215,0.805535,0.14233,20,32765
1.61272,0.809125,0.143351,21,32765
1.60655,0.799303,0.141771,20,32765
1.60927,0.793943,0.141041,21,32765
1.62087,0.793075,0.141154,21,32765
1.61463,0.783231,0.139715,21,32765
1.62632,0.782073,0.139831,21,32765
1.61996,0.772361,0.138476,21,32765
1.5775,0.74567,0.134038,20,32765
1.59801,0.749031,0.134998,21,32765
1.60053,0.743747,0.134333,21,32765
1.59397,0.734269,0.133035,20,32765
1.6055,0.733164,0.133158,21,32765
1.58075,0.715442,0.130328,20,32765
1.57404,0.706159,0.129047,20,32765
1.57643,0.70088,0.12857,21,32765
1.58796,0.699605,0.128608,20,32765
1.57203,0.686354,0.126682,20,32765
1.58348,0.685113,0.126913,21,32765
1.55825,0.668145,0.124228,21,32765
1.56969,0.666861,0.124381,22,32765
1.58113,0.665515,0.124583,22,32765
1.5649,0.652686,0.122816,22,32765
1.55787,0.643712,0.121576,22,32765
1.55075,0.634863,0.120509,22,32765
1.58986,0.644716,0.122821,22,32765
1.56425,0.628308,0.120247,22,32765
1.55706,0.619504,0.119093,21,32765
1.58696,0.625349,0.120803,21,32765
1.57042,0.612928,0.119134,22,32765
1.57246,0.607752,0.11883,22,32765
1.58381,0.60612,0.11907,23,32765
1.57648,0.59738,0.118161,22,32765
1.5691,0.588727,0.117098,22,32765
1.54296,0.573269,0.114644,18,32765
1.5261,0.56135,0.113125,17,32765
1.57482,0.573455,0.116164,22,32765
1.58606,0.57173,0.116796,23,32765
1.57857,0.563122,0.115848,23,32765
1.58038,0.558043,0.115713,23,32765
1.56337,0.546319,0.114088,23,32765
1.56517,0.541177,0.113876,23,32765
1.60468,0.54905,0.116426,23,32765
1.58753,0.537506,0.115046,23,32765
1.5703,0.526156,0.11367,23,32765
1.59094,0.527382,0.114842,24,32765
1.57366,0.516046,0.113496,23,32765
1.57529,0.511039,0.11352,24,32765
1.57689,0.506079,0.113607,23,32765
1.57844,0.501179,0.113783,23,32765
1.56095,0.490238,0.112756,23,32765
1.7008,1.24763,0.212361,17,32765
1.64888,1.20092,0.203677,17,32765
1.70948,1.23629,0.208929,18,32765
1.63282,1.17268,0.197765,17,32765
1.66115,1.18467,0.199032,16,32765
1.65711,1.1734,0.196803,16,32765
1.65298,1.16222,0.194406,15,32765
1.65695,1.15677,0.193162,15,32765
1.64446,1.14008,0.189908,17,32765
1.61553,1.11209,0.184936,16,32765
1.63576,1.11801,0.185566,17,32765
1.63133,1.107,0.183573,17,32765
1.65988,1.11832,0.185156,16,32765
1.59742,1.06862,0.176643,17,32765
1.64249,1.09097,0.180055,16,32765
1.61287,1.06372,0.175339,16,32765
1.65814,1.08568,0.178791,18,32765
1.63678,1.06392,0.174958,17,32765
1.632,1.05313,0.173135,18,32765
1.6524,1.05843,0.173824,17,32765
1.63913,1.04234,0.17109,16,32765
1.66789,1.05294,0.172813,16,32765
1.62924,1.02102,0.167357,15,32765
1.62415,1.0105,0.165616,16,32765
1.61907,0.999946,0.163779,18,32765
1.64789,1.0103,0.165349,18,32765
1.63427,0.994493,0.16293,19,32765
1.6547,0.999372,0.163784,19,32765
1.64951,0.988834,0.161976,18,32765
1.66999,0.993554,0.162745,19,32765
1.63043,0.962729,0.157679,19,32765
1.63369,0.957322,0.156814,18,32765
1.61972,0.941833,0.154409,18,32765
1.64879,0.951436,0.156027,18,32765
1.63474,0.936026,0.153564,18,32765
1.65523,0.940467,0.154405,19,32765
1.67576,0.944778,0.155273,20,32765
1.65288,0.924576,0.152177,19,32765
1.63854,0.909469,0.149844,20,32765
1.64162,0.904037,0.149037,19,32765
1.60092,0.874694,0.144427,18,32765
1.63891,0.888431,0.146899,20,32765
1.59804,0.859325,0.142204,19,32765
1.58332,0.844696,0.139939,19,32765
1.60381,0.848741,0.140809,18,32765
1.58901,0.834184,0.138556,19,32765
1.62718,0.847381,0.140779,19,32765
1.60348,0.82822,0.137831,19,32765
1.58849,0.813848,0.135869,19,32765
1.56458,0.794973,0.133044,18,32765
1.62965,0.821126,0.137496,19,32765
1.59679,0.797753,0.133948,20,32765
1.59064,0.787837,0.132622,19,32765
1.60225,0.786917,0.132849,20,32765
1.63184,0.79464,0.134373,20,32765
1.62554,0.784888,0.132943,20,32765
1.61016,0.77093,0.130913,20,32765
1.56772,0.744159,0.126799,19,32765
1.57923,0.743267,0.126803,19,32765
1.5908,0.742199,0.126892,20,32765
1.57518,0.728552,0.125014,19,32765
1.60484,0.735795,0.126478,20,32765
1.54378,0.701518,0.120847,19,32765
1.57341,0.708736,0.122428,19,32765
1.56672,0.699379,0.121042,21,32765
1.58733,0.702239,0.121819,20,32765
1.59886,0.700904,0.121936,21,32765
1.61043,0.699451,0.121956,22,32765
1.58531,0.682258,0.11929,21,32765
1.58764,0.676921,0.118654,20,32765
1.59908,0.675628,0.118676,21,32765
1.59211,0.666545,0.117503,21,32765
1.60357,0.665116,0.117369,21,32765
1.58731,0.652296,0.115568,22,32765
1.57103,0.639525,0.113494,20,32765
1.60092,0.645587,0.114826,20,32765
1.57529,0.629177,0.112277,20,32765
1.57742,0.623925,0.111578,20,32765
1.5981,0.626,0.112308,20,32765
1.6095,0.624358,0.112146,22,32765
1.58365,0.608335,0.109518,20,32765
1.56699,0.596122,0.10762,20,32765
1.597,0.601537,0.108822,19,32765
1.5335,0.572012,0.103852,13,32765
1.5635,0.577365,0.105001,14,32765
1.54667,0.565413,0.103101,18,32765
1.59548,0.577346,0.105479,21,32765
1.59743,0.572094,0.104599,23,32765
1.57107,0.556947,0.10224,20,32765
1.5635,0.548546,0.100864,20,32765
1.58413,0.550138,0.101431,22,32765
1.6048,0.551588,0.101825,21,32765
1.59717,0.543217,0.100393,22,32765
1.58001,0.531774,0.0984304,20,32765
1.61016,0.536179,0.0995265,22,32765
1.61191,0.531079,0.0985648,19,32765
1.63259,0.532214,0.0989132,19,32765
1.55831,0.502547,0.0933667,19,32765
1.56943,0.500743,0.0930286,19,32765
1.57107,0.49573,0.0920706,19,32765
1.54405,0.481976,0.089441,20,32765
1.669,1.22685,0.188929,17,32765
1.64916,1.20363,0.18453,17,32765
1.69365,1.22738,0.187342,19,32765
1.64119,1.18113,0.17978,18,32765
1.68575,1.20471,0.182511,19,32765
1.66552,1.1818,0.178613,18,32765
1.66142,1.17056,0.1763,18,32765
1.64907,1.15365,0.173332,18,32765
1.63657,1.13695,0.17027,18,32765
1.64043,1.13155,0.169057,18,32765
1.6525,1.13177,0.168641,19,32765
1.63987,1.11508,0.165895,18,32765
1.66844,1.12639,0.16719,17,32765
1.68878,1.13205,0.167635,18,32765
1.65109,1.09892,0.162354,18,32765
1.62981,1.07708,0.158815,18,32765
1.60846,1.05529,0.155348,18,32765
1.6204,1.05541,0.155025,18,32765
1.61558,1.04465,0.153303,18,32765
1.62756,1.04462,0.153026,18,32765
1.59742,1.01787,0.148924,19,32765
1.61768,1.02329,0.149609,19,32765
1.61269,1.01268,0.147747,19,32765
1.62449,1.01274,0.147646,19,32765
1.61093,0.996911,0.145137,20,32765
1.59727,0.981219,0.142636,19,32765
1.60908,0.981116,0.14269,21,32765
1.61241,0.975764,0.141868,21,32765
1.63278,0.980746,0.142413,20,32765
1.60184,0.954893,0.138557,19,32765
1.60505,0.949615,0.137676,21,32765
1.61687,0.949329,0.137556,21,32765
1.62872,0.948925,0.137527,21,32765
1.61465,0.933558,0.135242,21,32765
1.62648,0.933118,0.135139,22,32765
1.62962,0.927727,0.134366,21,32765
1.62406,0.917414,0.132924,21,32765
1.60978,0.902217,0.130837,20,32765
1.63023,0.906611,0.131522,21,32765
1.6071,0.886737,0.128621,21,32765
1.61008,0.881396,0.12797,20,32765
1.61303,0.876087,0.127295,21,32765
1.60724,0.865932,0.12583,20,32765
1.61893,0.865349,0.125799,21,32765
1.59543,0.845916,0.123065,20,32765
1.62475,0.854577,0.124383,21,32765
1.62762,0.849223,0.123525,21,32765
1.60392,0.83002,0.120857,21,32765
1.5978,0.820171,0.119746,20,32765
1.61837,0.823857,0.120509,21,32765
1.59448,0.804918,0.117701,20,32765
1.60617,0.803947,0.117811,21,32765
1.60003,0.793977,0.116575,21,32765
1.57586,0.775401,0.114111,21,32765
1.59644,0.778853,0.114719,21,32765
1.59009,0.769198,0.113397,21,32765
1.61065,0.772591,0.114116,21,32765
1.55918,0.741474,0.109835,21,32765
1.58874,0.749122,0.111009,21,32765
1.5732,0.735342,0.109119,21,32765
1.57567,0.730115,0.108681,21,32765
1.5872,0.729041,0.108622,21,32765
1.56244,0.711291,0.106122,21,32765
1.5648,0.706146,0.105572,22,32765
1.60367,0.717173,0.107332,21,32765
1.58784,0.703738,0.105482,21,32765
1.59024,0.698385,0.104901,21,32765
1.56519,0.681027,0.102434,22,32765
1.55832,0.671853,0.101256,21,32765
1.57898,0.674438,0.101814,21,32765
1.56283,0.661498,0.0999803,22,32765
1.59263,0.667958,0.101253,23,32765
1.55801,0.647371,0.0981207,21,32765
1.57861,0.649875,0.0988319,22,32765
1.58079,0.644646,0.0980962,21,32765
1.57368,0.635731,0.0968626,22,32765
1.57581,0.630503,0.0963042,22,32765
1.55011,0.614204,0.0939164,21,32765
1.56146,0.612727,0.0939086,21,32765
1.58212,0.614819,0.094225,22,32765
1.56554,0.60244,0.0924408,21,32765
1.53953,0.586703,0.0901904,20,32765
1.5228,0.574594,0.08841,18,32765
1.56208,0.583693,0.0900537,17,32765
1.57339,0.582034,0.0898371,20,32765
1.57532,0.576893,0.0891823,21,32765
1.57724,0.571741,0.0884432,21,32765
1.56977,0.563166,0.0870513,21,32765
1.56219,0.554762,0.0860199,21,32765
1.55461,0.546372,0.0847411,22,32765
1.5658,0.544715,0.0846134,21,32765
1.56757,0.539723,0.0838186,22,32765
1.56934,0.534676,0.0829994,22,32765
1.55215,0.523298,0.0812376,22,32765
1.54438,0.51516,0.080097,23,32765
1.54605,0.510259,0.0791741,22,32765
1.55718,0.508503,0.0788855,22,32765
1.55882,0.503579,0.0779388,22,32765
1.56043,0.498729,0.0770361,22,32765
1.57159,0.496745,0.0765469,23,32765
1.56362,0.488925,0.0751148,23,32765
1.69537,1.24484,0.167875,16,32765
1.66722,1.21584,0.16438,16,32765
1.71161,1.2396,0.167892,17,32765
1.65098,1.1874,0.161036,16,32765
1.66308,1.18768,0.161499,16,32765
1.66706,1.18216,0.160932,15,32765
1.64654,1.15945,0.157991,16,32765
1.68302,1.17699,0.160466,16,32765
1.67873,1.16577,0.159202,15,32765
1.64971,1.13771,0.155465,15,32765
1.70291,1.16599,0.159506,16,32765
1.61614,1.09867,0.150422,17,32765
1.64461,1.11007,0.151941,17,32765
1.61517,1.08248,0.148262,18,32765
1.66028,1.10479,0.151344,17,32765
1.63902,1.08281,0.148437,17,32765
1.62601,1.06641,0.146192,17,32765
1.67136,1.08824,0.149287,16,32765
1.63313,1.05565,0.144904,17,32765
1.65342,1.06107,0.145668,19,32765
1.64011,1.04497,0.143382,19,32765
1.63513,1.03429,0.142098,18,32765
1.6301,1.02366,0.140657,18,32765
1.65044,1.02888,0.141234,18,32765
1.63693,1.01291,0.139185,19,32765
1.66583,1.02316,0.140514,20,32765
1.61823,0.986418,0.135327,18,32765
1.61303,0.975862,0.133954,18,32765
1.62494,0.975532,0.133832,18,32765
1.67107,0.995642,0.1368,19,32765
1.62293,0.959606,0.131685,19,32765
1.66059,0.974403,0.133675,19,32765
1.60355,0.933707,0.128163,18,32765
1.62399,0.938313,0.128948,18,32765
1.64444,0.942866,0.129699,19,32765
1.61295,0.917643,0.126136,19,32765
1.65083,0.931881,0.127962,18,32765
1.65397,0.926391,0.127155,18,32765
1.58734,0.882094,0.121143,18,32765
1.59898,0.881745,0.121143,19,32765
1.58445,0.866852,0.119128,18,32765
1.6137,0.875863,0.120218,19,32765
1.66064,0.894076,0.122499,19,32765
1.62846,0.869703,0.119322,19,32765
1.58729,0.840932,0.115542,19,32765
1.6078,0.844909,0.116225,19,32765
1.59297,0.830309,0.114135,19,32765
1.57805,0.815839,0.112039,18,32765
1.59864,0.81956,0.112623,19,32765
1.64584,0.83692,0.11516,21,32765
1.58627,0.800023,0.110102,19,32765
1.60683,0.80367,0.1105,20,32765
1.61847,0.802797,0.110265,19,32765
1.60331,0.788522,0.10831,20,32765
1.57906,0.770027,0.105945,19,32765
1.59969,0.773364,0.106318,19,32765
1.6023,0.768013,0.105748,21,32765
1.60486,0.762742,0.105055,20,32765
1.62549,0.765946,0.105415,20,32765
1.58281,0.739473,0.101981,19,32765
1.56719,0.725778,0.100236,19,32765
1.64228,0.75377,0.104101,21,32765
1.58119,0.719415,0.0994632,20,32765
1.59272,0.718236,0.0994021,20,32765
1.58599,0.708935,0.098203,20,32765
1.57009,0.695627,0.0965071,20,32765
1.61814,0.710462,0.0987938,20,32765
1.55641,0.677247,0.094394,19,32765
1.56786,0.676018,0.0943576,19,32765
1.57928,0.674812,0.0943681,21,32765
1.60912,0.681261,0.095467,22,32765
1.59298,0.668188,0.0939449,20,32765
1.58601,0.65905,0.0929224,19,32765
1.61591,0.665214,0.0939254,20,32765
1.59963,0.652333,0.0924604,19,32765
1.59252,0.643364,0.0914806,20,32765
1.60393,0.6418,0.0915875,22,32765
1.5782,0.62552,0.0895262,20,32765
1.56168,0.613028,0.0879642,20,32765
1.58229,0.615201,0.0888189,20,32765
1.59365,0.613556,0.0890331,23,32765
1.59567,0.60836,0.0884829,21,32765
1.59765,0.603198,0.0882068,21,32765
1.59963,0.597988,0.0876641,19,32765
1.5922,0.589346,0.0869518,19,32765
1.56603,0.573765,0.0851432,20,32765
1.55856,0.565155,0.0842469,19,32765
1.56039,0.560092,0.0841579,20,32765
1.58105,0.56167,0.0848479,20,32765
1.54516,0.543368,0.0826258,20,32765
1.59407,0.554841,0.0848699,20,32765
1.55811,0.536594,0.0828208,20,32765
1.55984,0.531566,0.082603,21,32765
1.58994,0.536124,0.0839456,19,32765
1.59163,0.531107,0.0838335,22,32765
1.62176,0.535475,0.0852202,22,32765
1.57599,0.514768,0.0828102,21,32765
1.57763,0.509743,0.0827113,21,32765
1.58876,0.507736,0.0833493,21,32765
1.58083,0.499703,0.0828556,20,32765
1.55377,0.485806,0.0817363,20,32765
1.66304,1.22395,0.145355,18,32765
1.63483,1.19499,0.142238,18,32765
1.67915,1.21891,0.14529,19,32765
1.67511,1.20754,0.144061,19,32765
1.59805,1.14386,0.136786,18,32765
1.67507,1.19056,0.142464,18,32765
1.63828,1.15627,0.138421,18,32765
1.65841,1.16242,0.139152,17,32765
1.64589,1.14556,0.137305,18,32765
1.64963,1.14023,0.136672,18,32765
1.64526,1.12906,0.13541,18,32765
1.61608,1.1011,0.132093,18,32765
1.66936,1.1293,0.135339,19,32765
1.62341,1.09043,0.13069,19,32765
1.63535,1.09062,0.130646,19,32765
1.59741,1.05766,0.126708,19,32765
1.626,1.06877,0.127948,19,32765
1.64629,1.07428,0.128615,19,32765
1.63314,1.05798,0.126657,19,32765
1.58629,1.02023,0.122066,19,32765
1.6149,1.03117,0.123206,20,32765
1.65202,1.04726,0.125217,20,32765
1.61325,1.01528,0.12132,19,32765
1.59971,0.999417,0.119195,20,32765
1.6285,1.00988,0.120488,20,32765
1.6234,0.999251,0.119046,20,32765
1.59274,0.972978,0.115679,19,32765
1.63017,0.988356,0.117485,20,32765
1.60791,0.967383,0.114816,20,32765
1.61117,0.962008,0.11428,20,32765
1.61444,0.956624,0.113378,20,32765
1.61767,0.951241,0.1126,20,32765
1.6209,0.945815,0.111928,20,32765
1.6241,0.940368,0.111333,20,32765
1.62725,0.934984,0.110717,21,32765
1.6391,0.934484,0.110459,21,32765
1.63358,0.924088,0.108996,20,32765
1.61929,0.90887,0.107045,22,32765
1.62236,0.90345,0.106371,21,32765
1.59039,0.878841,0.10342,20,32765
1.61086,0.883142,0.103852,21,32765
1.63139,0.887314,0.104085,21,32765
1.60808,0.867579,0.101451,20,32765
1.60221,0.857463,0.10032,20,32765
1.59628,0.847445,0.0992092,21,32765
1.61681,0.8514,0.0997002,21,32765
1.6197,0.845983,0.0988733,21,32765
1.5871,0.822205,0.0958783,20,32765
1.59882,0.82134,0.0957376,21,32765
1.61935,0.825135,0.0962181,22,32765
1.59537,0.806262,0.0939257,21,32765
1.60703,0.805412,0.0936109,21,32765
1.61868,0.804536,0.0932803,22,32765
1.60352,0.790229,0.0915122,21,32765
1.58824,0.776077,0.0899356,20,32765
1.61788,0.783744,0.0906181,21,32765
1.62053,0.77832,0.0900407,21,32765
1.59607,0.760094,0.0878496,20,32765
1.59862,0.754806,0.0870416,19,32765
1.59208,0.745302,0.0860404,20,32765
1.59461,0.739955,0.0854489,19,32765
1.58808,0.730352,0.084218,19,32765
1.57234,0.71682,0.0826461,19,32765
1.57476,0.711554,0.0820195,19,32765
1.57712,0.706375,0.081391,20,32765
1.57034,0.69712,0.0803523,21,32765
1.5544,0.683828,0.0789187,21,32765
1.57498,0.686684,0.0793476,21,32765
1.57729,0.681428,0.0787514,21,32765
1.57954,0.676256,0.0782091,21,32765
1.57261,0.667113,0.0772188,22,32765
1.57484,0.661875,0.0767918,21,32765
1.55862,0.648937,0.0754215,21,32765
1.57002,0.647587,0.0752667,22,32765
1.58142,0.646166,0.0753215,21,32765
1.56503,0.633489,0.074002,21,32765
1.55787,0.624577,0.0731504,22,32765
1.56921,0.623162,0.0731147,21,32765
1.56198,0.61433,0.0721724,21,32765
1.56398,0.609253,0.0719812,20,32765
1.52872,0.589687,0.069971,17,32765
1.57732,0.602518,0.0715595,12,32765
1.52321,0.576194,0.0687549,17,32765
1.56253,0.585234,0.0699112,23,32765
1.5457,0.57322,0.0688795,23,32765
1.56636,0.574975,0.0694393,24,32765
1.56828,0.569757,0.0690497,23,32765
1.56073,0.56127,0.0685464,23,32765
1.57199,0.5595,0.0686365,23,32765
1.56436,0.551149,0.0680204,23,32765
1.55669,0.542844,0.0673414,23,32765
1.58681,0.547494,0.068524,24,32765
1.57912,0.539134,0.0678949,23,32765
1.57139,0.530848,0.0673303,23,32765
1.59202,0.532214,0.0680287,25,32765
1.58421,0.524037,0.0675153,24,32765
1.55739,0.509623,0.0663826,23,32765
1.56852,0.507723,0.0666884,23,32765
1.57965,0.50574,0.0672309,24,32765
1.5622,0.494703,0.0664256,23,32765
1.57326,0.492781,0.0672128,23,32765
1.68877,1.23846,0.155844,16,32765
1.68489,1.22707,0.153392,18,32765
1.64068,1.18632,0.147363,17,32765
1.61238,1.15753,0.142982,16,32765
1.64063,1.16964,0.143716,16,32765
1.65266,1.17012,0.142926,17,32765
1.64842,1.159,0.140875,17,32765
1.62778,1.13646,0.137429,17,32765
1.66444,1.1538,0.138889,17,32765
1.65192,1.13699,0.136111,18,32765
1.63102,1.11468,0.132821,18,32765
1.65956,1.12608,0.133849,17,32765
1.61374,1.08712,0.128557,17,32765
1.63401,1.09286,0.128766,18,32765
1.66265,1.104,0.129512,18,32765
1.63304,1.07656,0.125673,18,32765
1.63663,1.07123,0.124607,19,32765
1.64023,1.06582,0.123567,18,32765
1.63539,1.05506,0.12182,18,32765
1.61375,1.03347,0.118888,18,32765
1.64247,1.04426,0.119633,18,32765
1.62064,1.02289,0.116763,18,32765
1.64941,1.03349,0.117771,17,32765
1.64433,1.0229,0.116037,18,32765
1.63079,1.00696,0.113881,19,32765
1.62567,0.996343,0.112288,18,32765
1.62904,0.990921,0.111313,18,32765
1.62384,0.980355,0.109726,19,32765
1.63569,0.980129,0.109417,18,32765
1.63038,0.969633,0.107967,19,32765
1.65081,0.974434,0.108219,19,32765
1.62823,0.953819,0.105745,19,32765
1.65737,0.963423,0.106435,20,32765
1.63468,0.942922,0.104046,18,32765
1.61187,0.92259,0.101554,18,32765
1.62366,0.922181,0.101125,19,32765
1.62672,0.916841,0.100503,18,32765
1.64727,0.921113,0.100698,20,32765
1.63295,0.905881,0.0988107,20,32765
1.63606,0.900353,0.0978993,19,32765
1.60401,0.875782,0.095117,18,32765
1.57178,0.851518,0.092254,18,32765
1.6186,0.869971,0.0942934,19,32765
1.63034,0.869311,0.0938102,19,32765
1.62444,0.85919,0.0926724,20,32765
1.592,0.835144,0.0899044,19,32765
1.61251,0.83906,0.0905545,21,32765
1.5887,0.819987,0.0880312,19,32765
1.59147,0.814677,0.0873217,19,32765
1.63873,0.831982,0.0892307,21,32765
1.57911,0.795019,0.0851618,19,32765
1.59074,0.794199,0.0849006,18,32765
1.57549,0.780034,0.0834457,19,32765
1.64092,0.805541,0.0860071,19,32765
1.58079,0.769401,0.0820127,17,32765
1.67338,0.807483,0.0858396,17,32765
1.61302,0.771722,0.0819707,17,32765
1.61561,0.766333,0.0814665,18,32765
1.59108,0.748184,0.0793736,19,32765
1.5483,0.721815,0.0764477,18,32765
1.57793,0.729233,0.0772458,19,32765
1.57128,0.719838,0.0763328,19,32765
1.59187,0.722904,0.0765286,20,32765
1.61253,0.725787,0.0766715,20,32765
1.57848,0.704136,0.0741473,21,32765
1.57167,0.694898,0.0732477,20,32765
1.60148,0.70167,0.0737257,20,32765
1.56717,0.68042,0.0715472,20,32765
1.56031,0.671163,0.0704349,20,32765
1.5718,0.669796,0.0701546,20,32765
1.59248,0.672268,0.0704407,20,32765
1.59474,0.666974,0.0696119,21,32765
1.5785,0.654044,0.0682091,20,32765
1.56218,0.641269,0.0668233,20,32765
1.59209,0.647392,0.067273,20,32765
1.55717,0.627209,0.065002,20,32765
1.5871,0.633187,0.0655497,20,32765
1.57063,0.62057,0.0641178,20,32765
1.62852,0.637264,0.0657627,16,32765
1.42563,0.552485,0.0568963,12,32765
1.47411,0.565712,0.0580794,14,32765
1.55071,0.589282,0.0603407,19,32765
1.57138,0.591204,0.0604207,21,32765
1.5827,0.589557,0.0599501,22,32765
1.57526,0.580951,0.0588785,22,32765
1.56776,0.572441,0.057895,21,32765
1.60721,0.580976,0.0585547,22,32765
1.58089,0.56564,0.0568579,21,32765
1.60163,0.56708,0.0566148,22,32765
1.58466,0.555153,0.0551733,21,32765
1.55814,0.540231,0.0534969,21,32765
1.59767,0.548288,0.0541201,23,32765
1.57102,0.533638,0.0522136,21,32765
1.55379,0.522259,0.0508373,21,32765
1.56499,0.520346,0.0503282,21,32765
1.56669,0.515306,0.0495203,21,32765
1.5683,0.510443,0.0487829,21,32765
1.56992,0.505534,0.0479507,21,32765
1.562,0.497592,0.0466102,21,32765
1.57318,0.495485,0.0456907,22,32765
1.56521,0.487588,0.0446102,22,32765
1.69649,1.24711,0.136875,19,32765
1.64428,1.20036,0.130664,19,32765
1.66462,1.20651,0.130293,19,32765
1.63639,1.17758,0.126262,19,32765
1.67282,1.19544,0.12731,19,32765
1.6605,1.17848,0.124564,19,32765
1.65628,1.1673,0.122598,19,32765
1.63567,1.14469,0.119423,18,32765
1.64776,1.14495,0.118729,18,32765
1.64342,1.13382,0.116734,19,32765
1.63075,1.11714,0.114307,19,32765
1.62626,1.1061,0.112763,19,32765
1.61347,1.08951,0.11032,19,32765
1.63375,1.09526,0.11034,18,32765
1.61252,1.07323,0.10748,19,32765
1.63279,1.07892,0.107337,20,32765
1.62803,1.0681,0.105727,20,32765
1.61489,1.05181,0.103617,19,32765
1.61838,1.04653,0.10251,19,32765
1.62193,1.04113,0.101446,20,32765
1.61698,1.03045,0.0998221,20,32765
1.63729,1.03581,0.0998207,21,32765
1.64073,1.03044,0.0990069,19,32765
1.61869,1.00929,0.0963619,20,32765
1.63058,1.00916,0.0959049,20,32765
1.59993,0.98284,0.0929208,19,32765
1.61179,0.982691,0.0924488,20,32765
1.64074,0.992842,0.0929001,21,32765
1.60125,0.961702,0.0896107,20,32765
1.6302,0.971753,0.0901698,21,32765
1.61624,0.956218,0.0883535,20,32765
1.62807,0.955903,0.0880388,19,32765
1.63131,0.950441,0.0870644,21,32765
1.61722,0.934981,0.0854229,20,32765
1.61172,0.924604,0.0841246,20,32765
1.61483,0.919251,0.0831534,20,32765
1.62658,0.918841,0.0829765,21,32765
1.62971,0.913353,0.0821043,23,32765
1.60662,0.893291,0.0799774,21,32765
1.63593,0.902314,0.0803686,21,32765
1.58637,0.868097,0.0771079,20,32765
1.61558,0.87721,0.0775786,21,32765
1.6097,0.867126,0.0766211,20,32765
1.58617,0.847656,0.0743948,20,32765
1.61552,0.856379,0.0750061,20,32765
1.60959,0.84626,0.0738331,20,32765
1.60357,0.836263,0.0730792,19,32765
1.5975,0.826359,0.0716377,20,32765
1.60029,0.821007,0.0709229,20,32765
1.61195,0.820194,0.0707942,21,32765
1.57905,0.796745,0.0685541,20,32765
1.59068,0.795922,0.0681978,20,32765
1.6023,0.795051,0.0680702,21,32765
1.58707,0.780819,0.0665757,20,32765
1.58973,0.77545,0.0658659,20,32765
1.57438,0.761375,0.0643368,20,32765
1.58595,0.760431,0.0640756,20,32765
1.59753,0.759411,0.0639398,20,32765
1.59105,0.749803,0.0628499,21,32765
1.55734,0.727606,0.0607454,20,32765
1.56884,0.726609,0.0605574,21,32765
1.57127,0.721394,0.0600872,21,32765
1.56458,0.712047,0.0590639,22,32765
1.55787,0.702698,0.0580125,21,32765
1.56936,0.701577,0.0575637,21,32765
1.57168,0.696397,0.0570915,20,32765
1.57403,0.691129,0.0563046,20,32765
1.56718,0.681887,0.0554828,20,32765
1.55115,0.668653,0.054143,20,32765
1.55343,0.663388,0.0534554,20,32765
1.55568,0.658138,0.0529323,21,32765
1.58555,0.664546,0.0530469,22,32765
1.57853,0.655451,0.0521394,22,32765
1.56221,0.642648,0.0509405,23,32765
1.58287,0.645012,0.0508101,23,32765
1.57575,0.636039,0.0497971,23,32765
1.56857,0.627125,0.0488973,23,32765
1.57997,0.625582,0.0485165,23,32765
1.57273,0.616735,0.0476203,23,32765
1.56544,0.607952,0.0466797,23,32765
1.60477,0.61716,0.047054,18,32765
1.53208,0.58343,0.0441933,20,32765
1.56207,0.588944,0.0443577,23,32765
1.57338,0.587324,0.0437971,24,32765
1.57531,0.582196,0.0430793,24,32765
1.56781,0.573666,0.0421889,24,32765
1.57907,0.572005,0.0417265,24,32765
1.59036,0.570224,0.0413004,24,32765
1.58284,0.561607,0.040146,24,32765
1.57529,0.553028,0.0391353,24,32765
1.57708,0.547948,0.0384349,24,32765
1.57882,0.542957,0.0377685,24,32765
1.58054,0.538,0.0368161,24,32765
1.56332,0.526566,0.0356227,23,32765
1.56505,0.521457,0.0348027,24,32765
1.54775,0.510147,0.033582,23,32765
1.57786,0.514633,0.0334575,24,32765
1.57948,0.509684,0.0326195,24,32765
1.57157,0.501695,0.0313659,24,32765
1.55416,0.490524,0.029796,23,32765
1.54616,0.48267,0.0288186,23,32765
1.65791,1.21766,0.110562,16,32765
1.6619,1.21225,0.110191,17,32765
1.69016,1.22436,0.111427,18,32765
1.64559,1.18377,0.107809,17,32765
1.66585,1.18986,0.108118,16,32765
1.66163,1.17859,0.107286,17,32765
1.68999,1.19043,0.108191,17,32765
1.66121,1.16197,0.105351,18,32765
1.64868,1.14508,0.103605,17,32765
1.669,1.15089,0.103928,18,32765
1.68105,1.15105,0.103733,18,32765
1.67662,1.13987,0.102662,18,32765
1.68869,1.13993,0.102426,18,32765
1.66757,1.11771,0.100113,18,32765
1.66298,1.10665,0.0989982,19,32765
1.64167,1.08465,0.0967525,18,32765
1.66196,1.09022,0.0970481,19,32765
1.65721,1.0793,0.0958283,18,32765
1.64404,1.06296,0.0940671,18,32765
1.61402,1.03585,0.0913967,18,32765
1.62592,1.03585,0.091026,18,32765
1.62941,1.03043,0.0902909,18,32765
1.64977,1.03566,0.0904072,18,32765
1.64477,1.02488,0.089221,18,32765
1.63122,1.00888,0.087669,19,32765
1.61755,0.993055,0.0858785,18,32765
1.6123,0.982564,0.0846558,19,32765
1.6327,0.987526,0.0847893,18,32765
1.67027,1.00268,0.0857278,19,32765
1.61359,0.961262,0.0818145,19,32765
1.61684,0.95585,0.0810357,19,32765
1.61144,0.945409,0.0798527,18,32765
1.6664,0.970248,0.0814724,20,32765
1.61775,0.934695,0.078259,18,32765
1.59487,0.914442,0.0761416,18,32765
1.58924,0.904212,0.0748547,19,32765
1.60966,0.908772,0.074987,19,32765
1.63017,0.913142,0.0749287,19,32765
1.65073,0.917379,0.0749108,20,32765
1.67138,0.921406,0.0748196,19,32765
1.63066,0.891822,0.0721436,19,32765
1.57217,0.853028,0.0687408,17,32765
1.62783,0.876206,0.0703409,18,32765
1.58664,0.847348,0.0676958,18,32765
1.6248,0.860781,0.0684539,19,32765
1.58348,0.83208,0.0658159,18,32765
1.63947,0.854471,0.0671129,19,32765
1.6424,0.848902,0.0661781,19,32765
1.60079,0.820606,0.0637353,19,32765
1.59466,0.810706,0.0624834,19,32765
1.60632,0.809853,0.0622823,18,32765
1.60907,0.804442,0.061411,18,32765
1.61183,0.79897,0.0604872,19,32765
1.5607,0.767108,0.0579033,19,32765
1.62618,0.792529,0.059369,20,32765
1.58385,0.765337,0.057163,19,32765
1.5864,0.760098,0.0563912,19,32765
1.5619,0.741886,0.054547,20,32765
1.59152,0.749435,0.0549664,20,32765
1.55783,0.72715,0.0530946,18,32765
1.59656,0.738735,0.0535774,19,32765
1.58993,0.729293,0.0525199,18,32765
1.59235,0.724042,0.0518589,19,32765
1.56744,0.706402,0.0504275,19,32765
1.56066,0.697128,0.0495629,19,32765
1.54469,0.683885,0.0483745,18,32765
1.53781,0.67475,0.0474664,19,32765
1.54923,0.673625,0.0471382,19,32765
1.56982,0.67641,0.0471606,22,32765
1.57209,0.671164,0.0465979,22,32765
1.56517,0.661927,0.0458618,21,32765
1.61349,0.676001,0.0465717,22,32765
1.5696,0.651443,0.0446245,21,32765
1.59948,0.657669,0.0449861,23,32765
1.61092,0.656157,0.0447457,23,32765
1.56668,0.632268,0.0429657,21,32765
1.56875,0.627152,0.0425264,22,32765
1.59869,0.633063,0.0427621,23,32765
1.60077,0.627808,0.0423334,21,32765
1.58421,0.615265,0.0414593,22,32765
1.5489,0.595747,0.0400234,17,32765
1.53219,0.583494,0.0391841,18,32765
1.58088,0.596091,0.0400706,22,32765
1.62031,0.604849,0.0407624,24,32765
1.56605,0.578691,0.038913,21,32765
1.57733,0.577003,0.0386888,22,32765
1.5792,0.571868,0.0384968,23,32765
1.60928,0.576892,0.0388107,22,32765
1.57346,0.558303,0.0376915,22,32765
1.57527,0.553185,0.0374362,22,32765
1.59597,0.554601,0.037516,23,32765
1.59778,0.54936,0.0374299,23,32765
1.56168,0.531341,0.0365023,21,32765
1.59182,0.535875,0.0368931,21,32765
1.60302,0.53391,0.0369064,23,32765
1.55725,0.513113,0.0357172,21,32765
1.59691,0.520508,0.0365988,23,32765
1.58904,0.512375,0.0361885,22,32765
1.58111,0.504358,0.0361902,22,32765
1.58271,0.49933,0.036166,22,32765
1.5747,0.49144,0.0363384,22,32765
1.64909,1.21439,0.0908832,18,32765
1.67726,1.22669,0.0918364,19,32765
1.67323,1.21528,0.0910284,18,32765
1.62055,1.16882,0.0875344,17,32765
1.68137,1.20409,0.0898354,18,32765
1.6365,1.16379,0.0869297,18,32765
1.63216,1.15268,0.0858456,18,32765
1.63599,1.1473,0.0851054,18,32765
1.63982,1.14187,0.0843987,18,32765
1.6519,1.14204,0.0841174,20,32765
1.60626,1.10266,0.0809285,19,32765
1.66773,1.13673,0.0832724,19,32765
1.62186,1.09761,0.0800847,19,32765
1.62549,1.09228,0.0792959,19,32765
1.6042,1.07025,0.0774853,19,32765
1.65775,1.09805,0.079124,19,32765
1.63633,1.07613,0.0772531,19,32765
1.62317,1.0598,0.0757457,20,32765
1.62672,1.0544,0.0749587,20,32765
1.63029,1.04892,0.0741985,20,32765
1.6675,1.065,0.074858,21,32765
1.61201,1.02197,0.0714822,20,32765
1.63233,1.02727,0.0714182,21,32765
1.60188,1.00064,0.0692323,20,32765
1.61374,1.00055,0.0689713,20,32765
1.61707,0.995218,0.0680924,20,32765
1.62035,0.989914,0.067316,19,32765
1.59804,0.96895,0.0655052,20,32765
1.60985,0.968787,0.0650468,20,32765
1.60456,0.95823,0.0638678,20,32765
1.625,0.963026,0.0637662,20,32765
1.611,0.947466,0.0623379,20,32765
1.62279,0.947169,0.0617518,20,32765
1.60003,0.926711,0.0600915,20,32765
1.60312,0.921412,0.0592235,20,32765
1.62357,0.925986,0.0589701,21,32765
1.60056,0.905826,0.0573404,21,32765
1.63848,0.920022,0.0577119,21,32765
1.60667,0.895052,0.0556849,20,32765
1.60099,0.884733,0.0545339,20,32765
1.58645,0.869736,0.0532384,20,32765
1.63327,0.888313,0.053993,20,32765
1.60106,0.863872,0.0521377,20,32765
1.62153,0.868061,0.0519488,21,32765
1.58913,0.843899,0.0500881,20,32765
1.60083,0.843206,0.0495785,20,32765
1.59482,0.833184,0.0484187,21,32765
1.5888,0.823154,0.0472438,20,32765
1.60046,0.822389,0.0468521,19,32765
1.61215,0.821545,0.0462033,20,32765
1.58815,0.802594,0.0448921,19,32765
1.573,0.788274,0.0435345,20,32765
1.54884,0.769567,0.0419033,21,32765
1.5335,0.75552,0.0408598,21,32765
1.57198,0.767921,0.0409792,21,32765
1.56556,0.758283,0.0401842,21,32765
1.5771,0.75742,0.0396465,21,32765
1.59772,0.760687,0.0391949,22,32765
1.58219,0.746795,0.0382273,22,32765
1.56661,0.732965,0.0371631,22,32765
1.56001,0.723512,0.0362122,22,32765
1.58966,0.730876,0.0360896,22,32765
1.58299,0.721467,0.0352249,22,32765
1.55807,0.703819,0.0340772,22,32765
1.56041,0.698641,0.0335046,22,32765
1.56272,0.693479,0.0328877,22,32765
1.58333,0.696339,0.0326307,23,32765
1.56732,0.683075,0.0316345,22,32765
1.56041,0.673913,0.0309161,22,32765
1.57186,0.67262,0.0305341,22,32765
1.55574,0.65946,0.029715,22,32765
1.58561,0.665853,0.0296134,23,32765
1.56015,0.649015,0.0284828,22,32765
1.58078,0.651475,0.0283978,24,32765
1.56442,0.638683,0.0275786,23,32765
1.56648,0.633638,0.0270834,23,32765
1.56855,0.628511,0.0266431,23,32765
1.56132,0.61968,0.0259773,22,32765
1.55405,0.610878,0.0254054,21,32765
1.53744,0.598463,0.0247295,17,32765
1.63269,0.629407,0.0257419,13,32765
1.58807,0.606151,0.0246353,17,32765
1.58071,0.597382,0.0241812,23,32765
1.59205,0.595647,0.0240711,25,32765
1.56589,0.579943,0.0232098,23,32765
1.56779,0.57481,0.0227543,24,32765
1.57906,0.573105,0.0226975,23,32765
1.5715,0.564617,0.0221968,23,32765
1.55449,0.55281,0.0217213,21,32765
1.53742,0.541103,0.0212078,20,32765
1.53919,0.536068,0.0208515,20,32765
1.52204,0.524485,0.0205127,19,32765
1.52372,0.51958,0.0204712,19,32765
1.53487,0.517852,0.0203343,18,32765
1.56499,0.522398,0.0205087,17,32765
1.50969,0.498543,0.0196678,17,32765
1.51129,0.493686,0.0196768,16,32765
1.53188,0.495031,0.019738,15,32765
1.5239,0.487176,0.019825,16,32765
1.57311,0.497391,0.0204198,16,32765
1.54602,0.483542,0.0204308,14,32765
1.69107,1.24096,0.101474,17,32765
1.65497,1.20587,0.0972942,17,32765
1.70761,1.23552,0.098395,18,32765
1.70366,1.22405,0.0961733,17,32765
1.65894,1.18367,0.0918702,17,32765
1.64654,1.16675,0.0894121,18,32765
1.61774,1.13836,0.0862608,17,32765
1.66248,1.16166,0.0871221,17,32765
1.6419,1.13888,0.0844316,18,32765
1.66228,1.14464,0.0837952,18,32765
1.66615,1.13911,0.0823365,18,32765
1.66166,1.12804,0.0806982,19,32765
1.63219,1.10036,0.0779717,17,32765
1.66903,1.11728,0.0782227,18,32765
1.63116,1.0841,0.0750796,18,32765
1.63481,1.07868,0.0738948,18,32765
1.65518,1.08415,0.0734689,20,32765
1.65041,1.07325,0.0719004,19,32765
1.6456,1.06238,0.0703247,19,32765
1.66594,1.06777,0.0699625,20,32765
1.64416,1.04625,0.0677685,19,32765
1.68991,1.06747,0.068542,20,32765
1.60877,1.00884,0.0639189,18,32765
1.62911,1.01409,0.0635471,17,32765
1.62398,1.00345,0.0622328,17,32765
1.63583,1.00333,0.0616178,18,32765
1.59649,0.971922,0.0589518,17,32765
1.62542,0.982101,0.059022,18,32765
1.62016,0.971521,0.0577002,17,32765
1.60623,0.95592,0.0561513,17,32765
1.66965,0.986196,0.0573517,18,32765
1.62121,0.95031,0.0545941,19,32765
1.633,0.949994,0.0540429,18,32765
1.6708,0.964566,0.0542642,19,32765
1.60468,0.919163,0.0512517,18,32765
1.63385,0.928619,0.0510822,20,32765
1.59343,0.898598,0.0488809,18,32765
1.62261,0.907936,0.0487089,18,32765
1.63441,0.907345,0.0482133,18,32765
1.60239,0.882657,0.0463544,18,32765
1.61415,0.882041,0.0459202,19,32765
1.63466,0.886245,0.0454065,19,32765
1.59364,0.857044,0.0435737,18,32765
1.61414,0.861143,0.0433801,18,32765
1.63467,0.865145,0.0431486,17,32765
1.61991,0.850331,0.0417622,17,32765
1.61393,0.840237,0.0402882,18,32765
1.57229,0.811996,0.0384223,18,32765
1.54835,0.792987,0.0371786,18,32765
1.57779,0.801327,0.0369502,18,32765
1.58052,0.795951,0.0362721,19,32765
1.61005,0.804006,0.0362351,20,32765
1.60377,0.79421,0.0354397,20,32765
1.57951,0.775624,0.0341587,20,32765
1.59109,0.774729,0.03372,20,32765
1.5667,0.756309,0.0323799,20,32765
1.60533,0.768267,0.0327763,22,32765
1.55376,0.737061,0.0313965,21,32765
1.58338,0.744613,0.0309736,21,32765
1.57682,0.735079,0.0301612,21,32765
1.57927,0.729817,0.0293915,21,32765
1.56351,0.716248,0.028554,20,32765
1.5659,0.711039,0.0277837,21,32765
1.58652,0.713997,0.0274377,20,32765
1.57979,0.704597,0.0267488,21,32765
1.57301,0.695248,0.0259982,22,32765
1.62115,0.709993,0.0259604,21,32765
1.5685,0.680677,0.0244186,21,32765
1.56159,0.671479,0.0235815,20,32765
1.58222,0.67412,0.0231973,21,32765
1.58447,0.66883,0.0225622,21,32765
1.55901,0.652019,0.021448,19,32765
1.5889,0.658288,0.0210554,20,32765
1.58185,0.64919,0.0202241,18,32765
1.62105,0.659012,0.0200659,17,32765
1.60467,0.646194,0.019096,15,32765
1.67185,0.666739,0.0191087,16,32765
1.57174,0.620851,0.0170871,16,32765
1.48069,0.57915,0.0154188,16,32765
1.51989,0.588739,0.0152339,16,32765
1.52183,0.58372,0.0145576,18,32765
1.60789,0.610631,0.0146146,20,32765
1.53498,0.57729,0.0131557,15,32765
1.57434,0.586257,0.0128134,13,32765
1.53868,0.56739,0.0118956,12,32765
1.48415,0.541843,0.0106996,12,32765
1.58937,0.57436,0.0107063,12,32765
1.53475,0.548952,0.00956136,13,32765
1.48002,0.523795,0.0084311,15,32765
1.51005,0.528853,0.0079984,16,32765
1.49287,0.517398,0.00698184,17,32765
1.52292,0.522273,0.00647179,19,32765
1.56247,0.530251,0.00581186,22,32765
1.5452,0.518867,0.00491465,20,32765
1.54684,0.513967,0.0040529,21,32765
1.58649,0.521483,0.00330735,22,32765
1.56911,0.510272,0.00230173,22,32765
1.59929,0.514475,0.00141073,23,32765
1.58185,0.503354,0.000397418,23,32765
1.56433,0.492428,-0.00049405,21,32765
1.57539,0.490564,-0.00156131,22,32765
1.64187,1.20812,0.0795302,19,32765
1.69442,1.23796,0.0800606,20,32765
1.66624,1.20886,0.0768284,19,32765
1.6622,1.19749,0.0747402,18,32765
1.64993,1.18042,0.0724617,19,32765
1.62937,1.1577,0.0698472,18,32765
1.60872,1.13507,0.067424,18,32765
1.62886,1.14124,0.0668157,18,32765
1.65745,1.15276,0.0664042,19,32765
1.65319,1.14145,0.0646003,19,32765
1.60757,1.10202,0.0612621,18,32765
1.61123,1.09674,0.0600664,19,32765
1.63963,1.10834,0.0598625,18,32765
1.61839,1.08628,0.0576616,18,32765
1.60538,1.06982,0.0558895,19,32765
1.61732,1.06998,0.0550047,19,32765
1.62094,1.06455,0.053847,19,32765
1.6161,1.05374,0.0523946,20,32765
1.61962,1.04838,0.0512008,20,32765
1.61468,1.03766,0.0498868,20,32765
1.61809,1.03239,0.0487688,20,32765
1.6131,1.02165,0.0475923,20,32765
1.61647,1.01635,0.0463885,20,32765
1.61986,1.01099,0.0453477,19,32765
1.61472,1.00036,0.0441304,20,32765
1.61804,0.995034,0.0431977,21,32765
1.62136,0.989654,0.0421178,20,32765
1.61613,0.97905,0.0410236,20,32765
1.60229,0.963324,0.0395875,20,32765
1.60551,0.957992,0.0386476,21,32765
1.60869,0.952672,0.037777,20,32765
1.5774,0.927042,0.0360098,20,32765
1.59774,0.931905,0.035578,19,32765
1.58355,0.916572,0.0343173,20,32765
1.59533,0.916177,0.0337441,20,32765
1.61578,0.920733,0.0331195,21,32765
1.58406,0.895626,0.0315676,20,32765
1.57834,0.885446,0.0304456,20,32765
1.59879,0.889863,0.0300392,21,32765
1.59299,0.879739,0.0290506,21,32765
1.59597,0.874348,0.0283689,22,32765
1.62522,0.883393,0.0278279,22,32765
1.60181,0.863651,0.0267594,22,32765
1.57824,0.84415,0.0256566,21,32765
1.58105,0.838904,0.0249725,21,32765
1.55735,0.819581,0.0236679,20,32765
1.58672,0.828182,0.0228448,21,32765
1.58945,0.822956,0.0220759,21,32765
1.59225,0.817547,0.0214649,21,32765
1.5772,0.803069,0.0203543,21,32765
1.57102,0.793174,0.0195636,21,32765
1.5737,0.787848,0.018925,21,32765
1.6032,0.795937,0.0186521,22,32765
1.58792,0.781727,0.0177514,21,32765
1.56357,0.763255,0.0168273,21,32765
1.53915,0.744886,0.0157805,21,32765
1.59577,0.765613,0.0159868,21,32765
1.56227,0.74296,0.0153475,20,32765
1.53763,0.724913,0.0141375,20,32765
1.531,0.715511,0.0134359,19,32765
1.54246,0.714593,0.0127623,18,32765
1.5721,0.721982,0.0124837,18,32765
1.5745,0.716732,0.0117077,18,32765
1.57691,0.71144,0.0110413,18,32765
1.59755,0.714296,0.0106303,19,32765
1.57252,0.696764,0.00985094,19,32765
1.55656,0.683401,0.0089731,21,32765
1.57719,0.686152,0.00841188,21,32765
1.57948,0.680861,0.00770826,22,32765
1.56336,0.667736,0.00696362,22,32765
1.5748,0.666393,0.00637202,23,32765
1.577,0.661176,0.00564182,23,32765
1.58844,0.659726,0.00490039,23,32765
1.57214,0.646804,0.00413756,23,32765
1.57428,0.641582,0.00352334,23,32765
1.57639,0.636377,0.00279457,23,32765
1.57852,0.631076,0.00207574,24,32765
1.58059,0.625891,0.00121597,23,32765
1.59199,0.624223,0.00051526,23,32765
1.55675,0.604507,-8.46779e-05,21,32765
1.52141,0.585,-0.000759866,13,32765
1.53268,0.583506,-0.00147751,13,32765
1.63749,0.617362,-0.00240892,17,32765
1.57391,0.587543,-0.00297671,23,32765
1.57578,0.582505,-0.00360519,24,32765
1.55887,0.570529,-0.00436245,23,32765
1.58894,0.575623,-0.00518041,24,32765
1.59082,0.57041,-0.00597426,25,32765
1.59272,0.565071,-0.00681292,25,32765
1.57569,0.553205,-0.00735297,25,32765
1.57748,0.548075,-0.00832251,25,32765
1.5698,0.53968,-0.00893609,24,32765
1.59045,0.541083,-0.00988017,24,32765
1.5827,0.532774,-0.0106692,24,32765
1.58438,0.527743,-0.0115528,24,32765
1.56707,0.516377,-0.01225,24,32765
1.59721,0.5207,-0.013457,25,32765
1.57982,0.509477,-0.0142192,25,32765
1.60047,0.510549,-0.0153997,25,32765
1.58297,0.49954,-0.0161145,24,32765
1.55587,0.485695,-0.0168752,23,32765
1.69115,1.24365,0.0578381,18,32765
1.71141,1.24984,0.057956,18,32765
1.65083,1.19721,0.0552152,18,32765
1.67101,1.20344,0.0552778,18,32765
1.6507,1.18033,0.0538864,18,32765
1.68721,1.19803,0.0543299,17,32765
1.65843,1.16951,0.052544,18,32765
1.66226,1.16408,0.0519255,17,32765
1.61686,1.12435,0.0498855,17,32765
1.68649,1.16432,0.0508931,17,32765
1.68216,1.15302,0.0499247,18,32765
1.65296,1.1249,0.0483509,17,32765
1.61531,1.09138,0.0464118,18,32765
1.67705,1.12502,0.0472483,17,32765
1.63923,1.09168,0.0453021,17,32765
1.64282,1.0863,0.0444926,18,32765
1.65472,1.08645,0.0441842,19,32765
1.64151,1.07014,0.0429861,18,32765
1.65341,1.0702,0.0422879,18,32765
1.62336,1.04305,0.0407982,18,32765
1.61839,1.0323,0.0395749,18,32765
1.63877,1.03754,0.0394425,18,32765
1.62538,1.02132,0.0381081,18,32765
1.62882,1.01585,0.0371603,18,32765
1.61528,0.999798,0.0358641,18,32765
1.61007,0.989216,0.0349464,18,32765
1.65603,1.00991,0.0350686,20,32765
1.60806,0.97337,0.0331246,18,32765
1.65415,0.993775,0.0331511,18,32765
1.63175,0.972827,0.031856,16,32765
1.64359,0.972493,0.0312414,16,32765
1.59513,0.936588,0.0293783,17,32765
1.58099,0.921172,0.0283185,17,32765
1.60138,0.925908,0.0276675,19,32765
1.62187,0.930422,0.0271687,19,32765
1.58159,0.90017,0.0257231,19,32765
1.61064,0.909787,0.0251839,20,32765
1.57881,0.884822,0.0237663,18,32765
1.60794,0.894194,0.0236255,19,32765
1.57593,0.86946,0.0220819,19,32765
1.57011,0.859302,0.0210472,19,32765
1.59059,0.86355,0.0204193,20,32765
1.60232,0.862893,0.0197055,20,32765
1.58753,0.848164,0.0188299,20,32765
1.62567,0.861659,0.0181011,20,32765
1.61969,0.851596,0.0174402,20,32765
1.61366,0.841559,0.0163211,20,32765
1.58985,0.822347,0.0147236,19,32765
1.5837,0.812456,0.0140356,20,32765
1.58643,0.80713,0.0132588,21,32765
1.59804,0.80636,0.0122867,20,32765
1.56495,0.783133,0.0114247,19,32765
1.62135,0.804495,0.01095,19,32765
1.61509,0.794586,0.010123,18,32765
1.6178,0.789074,0.00931549,17,32765
1.65651,0.800941,0.00887561,17,32765
1.61408,0.773814,0.00772126,16,32765
1.58964,0.755377,0.00733915,16,32765
1.52884,0.720215,0.00630392,17,32765
1.50406,0.702401,0.00547788,17,32765
1.53366,0.709908,0.00495202,18,32765
1.58144,0.725682,0.00434938,20,32765
1.57481,0.716139,0.00359868,20,32765
1.5954,0.719155,0.00287317,21,32765
1.60694,0.717862,0.00213649,21,32765
1.60931,0.712542,0.00145839,22,32765
1.58418,0.695177,0.00081099,22,32765
1.57732,0.685897,0.000201756,22,32765
1.63469,0.704407,-0.000309128,23,32765
1.6095,0.68703,-0.00109824,22,32765
1.58417,0.669937,-0.00165496,21,32765
1.60482,0.672429,-0.00219204,22,32765
1.58859,0.659374,-0.00282118,21,32765
1.57227,0.646502,-0.00334222,21,32765
1.59293,0.648812,-0.0038883,22,32765
1.59504,0.643598,-0.00439323,21,32765
1.60643,0.642075,-0.00490175,21,32765
1.61783,0.640465,-0.00535689,22,32765
1.6013,0.627863,-0.00574692,21,32765
0,0,-0,0,32765
0,0,-0,0,32765
0,0,-0,0,32765
1.58132,0.596217,-0.00749393,16,32765
1.59262,0.594556,-0.00795985,21,32765
1.57583,0.582321,-0.00845589,22,32765
1.58713,0.580554,-0.00869607,22,32765
1.58903,0.575338,-0.00891239,23,32765
1.60032,0.573486,-0.00943739,24,32765
1.6022,0.568218,-0.00973529,23,32765
1.59461,0.559666,-0.00992883,24,32765
1.60584,0.557816,-0.0103036,23,32765
1.61707,0.555942,-0.0106462,23,32765
1.61884,0.550754,-0.0106817,24,32765
1.6206,0.545557,-0.010901,23,32765
1.6034,0.533938,-0.0110154,23,32765
1.59562,0.525627,-0.0111198,22,32765
1.61632,0.52666,-0.0111591,24,32765
1.618,0.521474,-0.0113009,23,32765
1.62917,0.519395,-0.0112554,24,32765
1.60222,0.505143,-0.0111534,23,32765
1.59424,0.497164,-0.0107873,22,32765
1.65756,1.22257,0.0375285,17,32765
1.63742,1.19934,0.0365649,18,32765
1.65758,1.20565,0.0363663,18,32765
1.63726,1.18259,0.0353623,18,32765
1.65753,1.18868,0.0351208,18,32765
1.58816,1.13099,0.0329867,18,32765
1.66531,1.17779,0.0337674,19,32765
1.661,1.16657,0.0329811,19,32765
1.61565,1.12676,0.0314989,18,32765
1.65235,1.14405,0.0311381,18,32765
1.64796,1.13284,0.0302751,18,32765
1.61872,1.10477,0.0290844,19,32765
1.62242,1.09934,0.0283483,19,32765
1.60948,1.08279,0.0272605,18,32765
1.58818,1.0607,0.0260839,18,32765
1.61667,1.07206,0.0256945,19,32765
1.60346,1.05579,0.0249096,18,32765
1.57343,1.02867,0.0236677,17,32765
1.61035,1.04528,0.0232753,17,32765
1.60545,1.03446,0.0225276,17,32765
1.60889,1.02913,0.0215193,17,32765
1.58704,1.00762,0.0206516,17,32765
1.59047,1.0022,0.0197413,18,32765
1.60233,1.00213,0.0189117,19,32765
1.61424,1.00195,0.0181009,20,32765
1.60905,0.991348,0.0172749,20,32765
1.61233,0.986005,0.0164916,21,32765
1.6156,0.980659,0.0156259,22,32765
1.60173,0.964959,0.0146309,21,32765
1.60499,0.959533,0.0138617,21,32765
1.60819,0.954182,0.0130942,21,32765
1.6114,0.948758,0.0122013,21,32765
1.60595,0.938296,0.0113801,21,32765
1.60043,0.927909,0.0103569,21,32765
1.58625,0.912488,0.00946244,21,32765
1.60672,0.916987,0.00883326,21,32765
1.6097,0.911756,0.00786863,21,32765
1.58661,0.891636,0.0068616,21,32765
1.60702,0.89613,0.00640059,21,32765
1.60129,0.885866,0.00531726,20,32765
1.58676,0.870785,0.00433551,19,32765
1.5897,0.865421,0.003471,18,32765
1.56623,0.845758,0.00260352,18,32765
1.59547,0.854726,0.00198319,19,32765
1.60712,0.854142,0.00085816,18,32765
1.60111,0.844117,0.000295503,19,32765
1.57735,0.82485,-0.000712037,19,32765
1.58899,0.824133,-0.0020456,20,32765
1.60064,0.82337,-0.00267104,20,32765
1.63013,0.831607,-0.00351565,22,32765
1.5972,0.808114,-0.00448655,22,32765
1.59988,0.802776,-0.00508892,22,32765
1.56679,0.77952,-0.00581414,21,32765
1.57839,0.778621,-0.00659822,22,32765
1.58104,0.77322,-0.0073891,22,32765
1.56568,0.759063,-0.00791826,22,32765
1.59524,0.766837,-0.00895896,21,32765
1.58884,0.757026,-0.00916263,22,32765
1.58233,0.747413,-0.00988155,22,32765
1.57577,0.73786,-0.0105749,21,32765
1.58733,0.736719,-0.011284,22,32765
1.58976,0.731449,-0.0120387,22,32765
1.56495,0.713558,-0.012555,22,32765
1.5673,0.708374,-0.0133102,22,32765
1.59705,0.715347,-0.0142923,23,32765
1.57199,0.697874,-0.0147112,23,32765
1.56513,0.688647,-0.0152422,22,32765
1.57659,0.687402,-0.0159371,23,32765
1.57886,0.682158,-0.0164388,24,32765
1.59957,0.684605,-0.0174209,23,32765
1.57424,0.667507,-0.0176939,22,32765
1.58565,0.666162,-0.0183105,22,32765
1.57864,0.656984,-0.0188557,20,32765
1.57157,0.647926,-0.0193004,20,32765
1.5552,0.63512,-0.0195694,19,32765
1.53873,0.622517,-0.0198249,18,32765
1.5222,0.610015,-0.020045,17,32765
1.5149,0.6013,-0.0203237,17,32765
1.53547,0.603641,-0.0210074,14,32765
0,0,-0,0,32765
0,0,-0,0,32765
0,0,-0,0,32765
1.55261,0.58693,-0.0229534,19,32765
1.59197,0.595874,-0.0239292,23,32765
1.58456,0.587087,-0.0243826,23,32765
1.58649,0.581843,-0.0245736,24,32765
1.5884,0.576617,-0.0247911,25,32765
1.58087,0.567999,-0.0251121,24,32765
1.59215,0.566133,-0.0255588,23,32765
1.54683,0.544317,-0.0250471,22,32765
1.54857,0.539328,-0.0253529,21,32765
1.57865,0.544148,-0.0260931,21,32765
1.52361,0.519702,-0.0251902,20,32765
1.51579,0.511602,-0.0252398,19,32765
1.50797,0.503466,-0.0253106,18,32765
1.4906,0.492309,-0.0251517,16,32765
1.5112,0.493684,-0.0253862,16,32765
1.49375,0.482675,-0.0251987,15,32765
1.47623,0.47185,-0.0247772,15,32765
1.4682,0.464085,-0.0247058,14,32765
1.44102,0.450538,-0.0239545,14,32765
1.64354,1.20762,0.0451541,17,32765
1.68793,1.23168,0.0442733,18,32765
1.67581,1.2144,0.0421381,18,32765
1.70423,1.22635,0.0409505,17,32765
1.67576,1.19748,0.0386961,18,32765
1.67163,1.18609,0.0367373,18,32765
1.6429,1.15749,0.0346977,18,32765
1.64676,1.15203,0.0331135,18,32765
1.68346,1.16937,0.0322419,17,32765
1.62966,1.12415,0.0299575,17,32765
1.65808,1.13579,0.0290757,18,32765
1.66182,1.13035,0.0277184,18,32765
1.63238,1.10253,0.0257363,18,32765
1.62786,1.09136,0.0243717,19,32765
1.63985,1.09145,0.023199,18,32765
1.66022,1.09694,0.0222335,16,32765
1.62203,1.06405,0.0204408,16,32765
1.60873,1.04786,0.0191114,16,32765
1.57022,1.01539,0.0175388,17,32765
1.60719,1.03186,0.01683,17,32765
1.61067,1.02645,0.0156733,19,32765
1.62255,1.02642,0.0145746,20,32765
1.62597,1.021,0.0135682,20,32765
1.62936,1.01559,0.0125311,20,32765
1.63269,1.01024,0.0113867,20,32765
1.63603,1.00483,0.0103329,21,32765
1.62228,0.989001,0.0092538,21,32765
1.58279,0.95772,0.00800417,20,32765
1.57743,0.947241,0.00699264,19,32765
1.60637,0.957309,0.00606179,20,32765
1.59237,0.941713,0.005046,19,32765
1.60417,0.941399,0.00417422,20,32765
1.62456,0.946148,0.00324375,20,32765
1.63634,0.945778,0.00225884,20,32765
1.64813,0.945335,0.0012882,20,32765
1.61653,0.920019,0.000449961,19,32765
1.67187,0.944065,-0.000543854,19,32765
1.65762,0.928594,-0.00126568,17,32765
1.61705,0.898692,-0.00213118,17,32765
1.63752,0.903,-0.00298308,16,32765
1.56158,0.854308,-0.00365947,16,32765
1.55562,0.844354,-0.00440637,17,32765
1.62006,0.872343,-0.00542739,19,32765
1.57006,0.838618,-0.00612858,19,32765
1.57284,0.833376,-0.00671538,21,32765
1.60218,0.842057,-0.00768976,21,32765
1.57835,0.82289,-0.00882411,21,32765
1.62548,0.840598,-0.0097527,21,32765
1.61051,0.825981,-0.010471,22,32765
1.6222,0.825076,-0.0115009,21,32765
1.5893,0.801488,-0.0120289,20,32765
1.60098,0.800504,-0.0128281,21,32765
1.60369,0.79505,-0.0134807,21,32765
1.61534,0.794017,-0.0144165,21,32765
1.582,0.771129,-0.0150806,20,32765
1.59357,0.770178,-0.0161272,21,32765
1.59613,0.76484,-0.0167328,21,32765
1.58969,0.755106,-0.0172084,22,32765
1.60131,0.753931,-0.0170397,21,32765
1.61288,0.752789,-0.0180479,22,32765
1.62448,0.751529,-0.0187865,22,32765
1.60883,0.737697,-0.0192758,22,32765
1.59308,0.724024,-0.0198077,21,32765
1.58639,0.714529,-0.0204822,21,32765
1.59789,0.7133,-0.0213488,21,32765
1.60025,0.707963,-0.0219714,22,32765
1.61179,0.706558,-0.0227607,20,32765
1.59578,0.693224,-0.0232703,21,32765
1.59809,0.687842,-0.0240432,18,32765
1.56357,0.66683,-0.024246,16,32765
0,0,-0,0,32765
0,0,-0,0,32765
0,0,-0,0,32765
0,0,-0,0,32765
0,0,-0,0,32765
0,0,-0,0,32765
0,0,-0,0,32765
0,0,-0,0,32765
0,0,-0,0,32765
0,0,-0,0,32765
0,0,-0,0,32765
0,0,-0,0,32765
1.60007,0.602251,-0.0341818,18,32765
1.62078,0.603931,-0.0353227,14,32765
1.57583,0.58132,-0.0351916,13,32765
0,0,-0,0,32765
0,0,-0,0,32765
0,0,-0,0,32765
0,0,-0,0,32765
0,0,-0,0,32765
0,0,-0,0,32765
0,0,-0,0,32765
0,0,-0,0,32765
0,0,-0,0,32765
0,0,-0,0,32765
0,0,-0,0,32765
0,0,-0,0,32765
0,0,-0,0,32765
0,0,-0,0,32765
0,0,-0,0,32765
0,0,-0,0,32765
1.64206,1.21019,0.0261399,18,32765
1.60572,1.17525,0.0236054,17,32765
1.65004,1.19935,0.0225103,19,32765
1.63784,1.18215,0.0205583,18,32765
1.60924,1.15342,0.0187323,18,32765
1.62126,1.15383,0.0171063,18,32765
1.64962,1.16572,0.0160331,18,32765
1.66168,1.16598,0.0145109,17,32765
1.68198,1.17187,0.0131216,18,32765
