x, y, z, intensity, ring
2.05994,-1.10382,-0.117588,17,32765
2.06506,-1.11548,-0.117143,19,32765
2.02629,-1.10324,-0.114429,17,32765
2.08403,-1.14349,-0.116791,18,32765
2.07155,-1.14555,-0.115352,17,32765
2.05904,-1.14759,-0.114032,18,32765
2.04644,-1.14974,-0.112645,17,32765
2.04257,-1.1567,-0.111534,18,32765
2.0561,-1.17344,-0.111326,18,32765
2.08679,-1.20032,-0.11241,18,32765
2.09149,-1.21226,-0.111828,18,32765
2.07019,-1.20922,-0.110047,18,32765
2.04894,-1.20606,-0.107887,17,32765
2.07928,-1.23336,-0.108644,18,32765
2.05802,-1.23013,-0.10647,18,32765
2.0283,-1.2215,-0.104122,18,32765
1.97306,-1.19709,-0.100688,17,32765
2.0715,-1.26603,-0.104624,19,32765
2.06737,-1.27287,-0.103393,18,32765
2.07167,-1.28503,-0.102486,19,32765
2.0166,-1.26013,-0.0989891,18,32765
2.05472,-1.29347,-0.0998041,18,32765
2.07587,-1.31622,-0.0997224,18,32765
2.03792,-1.3015,-0.096907,18,32765
2.02527,-1.30283,-0.0950008,17,32765
2.03783,-1.32032,-0.0944618,18,32765
2.06697,-1.34889,-0.0948892,17,32765
2.06259,-1.35568,-0.0934765,17,32765
2.08318,-1.37902,-0.0930488,17,32765
2.07863,-1.38596,-0.0916352,18,32765
2.04092,-1.37054,-0.0887065,17,32765
2.06954,-1.39968,-0.0887735,18,32765
2.08982,-1.42328,-0.0884485,18,32765
2.10998,-1.44703,-0.0876523,18,32765
2.07235,-1.43128,-0.0848573,17,32765
2.08418,-1.44941,-0.0837187,18,32765
2.0877,-1.46191,-0.0825026,17,32765
2.06662,-1.45724,-0.0802379,17,32765
2.03743,-1.44668,-0.0774212,16,32765
2.10582,-1.50582,-0.0782272,17,32765
2.06842,-1.48945,-0.0751467,18,32765
2.06362,-1.49621,-0.0731483,17,32765
2.04281,-1.49092,-0.0705064,16,32765
0,-0,-0,0,32765
0,-0,-0,0,32765
0,-0,-0,0,32765
0,-0,-0,0,32765
0,-0,-0,0,32765
0,-0,-0,0,32765
1.97966,-0.650351,-0.161549,15,32765
2.04379,-0.678953,-0.165987,20,32765
2.06047,-0.692158,-0.166696,20,32765
2.02987,-0.689506,-0.163487,19,32765
2.03706,-0.699526,-0.163264,20,32765
2.01596,-0.699685,-0.161041,19,32765
2.06073,-0.722947,-0.163834,20,32765
2.02076,-0.716488,-0.16019,19,32765
2.02777,-0.726731,-0.159995,19,32765
2.02534,-0.733645,-0.159288,20,32765
1.9948,-0.730243,-0.15623,19,32765
2.00171,-0.740513,-0.156227,19,32765
2.03663,-0.761226,-0.158337,20,32765
2.05276,-0.775158,-0.159032,20,32765
2.03155,-0.774966,-0.156942,20,32765
2.00111,-0.770966,-0.153862,19,32765
2.01715,-0.784928,-0.154559,20,32765
2.06096,-0.809951,-0.157574,20,32765
2.03044,-0.805907,-0.154658,21,32765
2.07404,-0.831339,-0.157567,21,32765
2.04354,-0.827135,-0.154571,21,32765
2.05003,-0.837757,-0.154664,21,32765
2.04724,-0.844708,-0.153851,20,32765
2.0536,-0.855544,-0.153906,20,32765
2.04154,-0.858652,-0.152367,20,32765
2.03864,-0.865646,-0.151607,20,32765
2.05409,-0.880387,-0.152448,21,32765
2.042,-0.883388,-0.150826,21,32765
2.06644,-0.902352,-0.152256,20,32765
2.03599,-0.897362,-0.149678,20,32765
2.04207,-0.908378,-0.149608,20,32765
2.03895,-0.915468,-0.148971,21,32765
2.03587,-0.922429,-0.148191,21,32765
2.01459,-0.921112,-0.146243,20,32765
2.0387,-0.940458,-0.147438,20,32765
2.04464,-0.951509,-0.147276,20,32765
2.05951,-0.966891,-0.148096,21,32765
2.03826,-0.96528,-0.146,20,32765
2.02595,-0.968031,-0.144775,21,32765
2.04063,-0.983665,-0.145327,20,32765
2.01934,-0.981973,-0.143186,20,32765
2.03393,-0.997689,-0.143683,21,32765
2.04849,-1.01341,-0.144138,20,32765
2.01827,-1.00702,-0.141702,20,32765
2.03273,-1.02281,-0.142309,20,32765
2.06488,-1.04786,-0.143836,19,32765
2.00798,-1.0277,-0.13939,19,32765
2.03999,-1.05289,-0.14099,20,32765
2.02759,-1.05522,-0.139592,18,32765
2.05062,-1.07591,-0.140655,19,32765
2.0647,-1.09213,-0.140953,19,32765
2.06101,-1.09917,-0.140252,19,32765
2.03974,-1.0967,-0.13819,19,32765
1.98344,-1.07502,-0.133703,19,32765
2.04997,-1.11993,-0.137705,19,32765
2.02888,-1.11701,-0.135448,18,32765
2.05141,-1.13827,-0.136257,18,32765
2.0215,-1.13051,-0.133696,19,32765
2.00897,-1.13255,-0.132228,19,32765
2.0746,-1.17886,-0.135676,18,32765
2.03606,-1.16597,-0.132256,18,32765
1.98889,-1.14793,-0.128681,19,32765
2.00238,-1.16459,-0.128792,18,32765
2.02433,-1.1865,-0.129616,18,32765
2.02039,-1.19334,-0.128387,18,32765
2.02498,-1.20528,-0.127901,19,32765
2.02952,-1.21728,-0.12718,19,32765
2.03407,-1.22919,-0.126693,18,32765
2.07269,-1.26188,-0.128512,19,32765
2.01756,-1.23732,-0.124074,18,32765
2.00502,-1.23875,-0.122353,18,32765
2.06029,-1.2824,-0.124653,20,32765
2.07299,-1.29987,-0.124671,20,32765
2.02649,-1.28013,-0.120875,19,32765
2.02236,-1.28676,-0.119592,19,32765
2.05183,-1.31495,-0.120379,20,32765
2.04754,-1.32176,-0.118852,19,32765
2.05165,-1.33391,-0.117999,19,32765
2.03892,-1.33524,-0.116401,19,32765
2.04292,-1.34745,-0.115474,19,32765
2.03022,-1.34868,-0.113475,18,32765
1.98426,-1.32769,-0.109796,17,32765
2.05449,-1.3845,-0.112454,19,32765
2.08302,-1.41375,-0.112879,18,32765
2.01248,-1.37545,-0.107953,18,32765
2.041,-1.40466,-0.107933,19,32765
2.05282,-1.42281,-0.107387,19,32765
2.0237,-1.41232,-0.104334,18,32765
2.04368,-1.43616,-0.104084,18,32765
2.01455,-1.42557,-0.101253,19,32765
2.0506,-1.46121,-0.101421,19,32765
2.0539,-1.47391,-0.0998864,20,32765
2.04096,-1.47491,-0.0976392,19,32765
2.07661,-1.51099,-0.0975606,19,32765
2.02354,-1.48213,-0.0932295,19,32765
0,-0,-0,0,32765
0,-0,-0,0,32765
0,-0,-0,0,32765
0,-0,-0,0,32765
0,-0,-0,0,32765
0,-0,-0,0,32765
1.95166,-0.639608,-0.159709,13,32765
2.04415,-0.677495,-0.167465,19,32765
2.10809,-0.706407,-0.172762,19,32765
2.04911,-0.694133,-0.168041,18,32765
2.07507,-0.710663,-0.17041,19,32765
2.08214,-0.720811,-0.170902,19,32765
2.05146,-0.718023,-0.168448,19,32765
2.03025,-0.718243,-0.166732,19,32765
2.04665,-0.73171,-0.167964,19,32765
2.02545,-0.731767,-0.166354,18,32765
2.05115,-0.748733,-0.168208,19,32765
2.0299,-0.748798,-0.166414,19,32765
2.00871,-0.74873,-0.164302,18,32765
2.01553,-0.759024,-0.164719,19,32765
2.01297,-0.765867,-0.164309,19,32765
2.02904,-0.779776,-0.165372,19,32765
2.01715,-0.782962,-0.164247,19,32765
1.99598,-0.78249,-0.162078,19,32765
2.01191,-0.796524,-0.163302,19,32765
2.03702,-0.814431,-0.165077,19,32765
2.01582,-0.813784,-0.163155,19,32765
2.02231,-0.824437,-0.163281,18,32765
2.02874,-0.835143,-0.163534,20,32765
2.03511,-0.845979,-0.163572,19,32765
2.03228,-0.852889,-0.162898,20,32765
2.02941,-0.859776,-0.162422,19,32765
2.03572,-0.870579,-0.162319,19,32765
2.04198,-0.881388,-0.162442,19,32765
2.02073,-0.880389,-0.160176,19,32765
2.06343,-0.907337,-0.163032,20,32765
2.01484,-0.89407,-0.158631,19,32765
2.03003,-0.909103,-0.159416,19,32765
2.01787,-0.911926,-0.158058,19,32765
2.00579,-0.914582,-0.156392,19,32765
2.00274,-0.921379,-0.15557,19,32765
1.97254,-0.915496,-0.152787,19,32765
2.05077,-0.960283,-0.158369,19,32765
2.00247,-0.945964,-0.153884,19,32765
2.10734,-1.00432,-0.161461,19,32765
2.02308,-0.972542,-0.154246,19,32765
1.97502,-0.957537,-0.149792,19,32765
1.99871,-0.97735,-0.151105,18,32765
2.02228,-0.997392,-0.152337,19,32765
2.0546,-1.02218,-0.154121,18,32765
1.98871,-0.997968,-0.148315,18,32765
2.03869,-1.03193,-0.15148,19,32765
2.00855,-1.02532,-0.148517,18,32765
2.00513,-1.03214,-0.147481,18,32765
2.02827,-1.05268,-0.148575,17,32765
1.99824,-1.04567,-0.145686,19,32765
2.01242,-1.06172,-0.146008,17,32765
2.0265,-1.0779,-0.146453,18,32765
2.06689,-1.10834,-0.148571,18,32765
2.03685,-1.10108,-0.145771,17,32765
2.0332,-1.10797,-0.144579,17,32765
2.10825,-1.15807,-0.149215,18,32765
2.04327,-1.13133,-0.143969,18,32765
2.02207,-1.12851,-0.1418,17,32765
2.00963,-1.13042,-0.140136,18,32765
2.05795,-1.16676,-0.142911,17,32765
2.01943,-1.15383,-0.139516,17,32765
2.02423,-1.16564,-0.139173,18,32765
2.02903,-1.1774,-0.13879,18,32765
2.02513,-1.18418,-0.138038,18,32765
2.02121,-1.191,-0.136849,18,32765
2.00866,-1.19269,-0.135563,18,32765
2.00466,-1.1995,-0.134567,18,32765
1.97503,-1.19077,-0.131933,17,32765
2.03077,-1.23373,-0.135175,17,32765
2.00965,-1.23012,-0.133099,18,32765
2.02262,-1.24726,-0.133242,18,32765
2.0355,-1.26447,-0.13357,18,32765
1.98061,-1.23937,-0.129341,18,32765
2.04414,-1.28849,-0.133038,19,32765
2.05679,-1.30595,-0.133175,19,32765
2.05256,-1.31269,-0.131997,19,32765
2.01462,-1.29793,-0.129165,18,32765
2.03548,-1.3209,-0.130113,19,32765
2.0061,-1.31122,-0.127563,19,32765
2.06846,-1.36187,-0.131093,18,32765
2.03903,-1.35216,-0.128572,18,32765
2.07603,-1.38675,-0.130539,18,32765
2.00521,-1.349,-0.125452,18,32765
2.05036,-1.38927,-0.127927,18,32765
2.0458,-1.39605,-0.126987,18,32765
2.06596,-1.41971,-0.127801,17,32765
2.02025,-1.39808,-0.124718,19,32765
2.0076,-1.39885,-0.123649,18,32765
2.03584,-1.42824,-0.124881,18,32765
2.00676,-1.41756,-0.122625,18,32765
2.03473,-1.44722,-0.124195,18,32765
2.02998,-1.45392,-0.123764,19,32765
2.05768,-1.48389,-0.125075,18,32765
1.98016,-1.43771,-0.120309,17,32765
2.00778,-1.46765,-0.122122,19,32765
0,-0,-0,0,32765
0,-0,-0,0,32765
0,-0,-0,0,32765
0,-0,-0,0,32765
0,-0,-0,0,32765
0,-0,-0,0,32765
1.89271,-0.622455,-0.173748,15,32765
2.0135,-0.669669,-0.185043,19,32765
2.03018,-0.682675,-0.186652,20,32765
2.02792,-0.689356,-0.186578,19,32765
1.98791,-0.683192,-0.183148,20,32765
2.0233,-0.702885,-0.186344,19,32765
2.01149,-0.706496,-0.185343,20,32765
1.99035,-0.706585,-0.183442,19,32765
2.03489,-0.730047,-0.187456,20,32765
2.00434,-0.726672,-0.184793,19,32765
1.98325,-0.726476,-0.182623,19,32765
1.95276,-0.722856,-0.179788,18,32765
2.01565,-0.753943,-0.185227,19,32765
2.02244,-0.764287,-0.185734,20,32765
2.01986,-0.771173,-0.185319,20,32765
1.98941,-0.767214,-0.182305,19,32765
2.04256,-0.795593,-0.187044,20,32765
2.04919,-0.806153,-0.187218,20,32765
2.00019,-0.794649,-0.182698,20,32765
1.99752,-0.80143,-0.182222,20,32765
2.02257,-0.81936,-0.184328,20,32765
2.00136,-0.818745,-0.182025,20,32765
1.98016,-0.817993,-0.179865,20,32765
2.03256,-0.847872,-0.184177,21,32765
1.97461,-0.831586,-0.178519,20,32765
1.96264,-0.834398,-0.177225,19,32765
2.01482,-0.864653,-0.181362,20,32765
1.99365,-0.863537,-0.179116,20,32765
1.99075,-0.870359,-0.178317,20,32765
2.00607,-0.885198,-0.179203,20,32765
2.01224,-0.896039,-0.179222,20,32765
1.96375,-0.882502,-0.174535,20,32765
2.00616,-0.909809,-0.177933,20,32765
1.9941,-0.912436,-0.176176,20,32765
2.00916,-0.927569,-0.17695,20,32765
2.01512,-0.938534,-0.177058,20,32765
1.9849,-0.932695,-0.173971,19,32765
2.04484,-0.969369,-0.178486,20,32765
2.01458,-0.963482,-0.175415,20,32765
2.01139,-0.970313,-0.174413,20,32765
1.99028,-0.968327,-0.171818,20,32765
1.96915,-0.966278,-0.169548,20,32765
1.97484,-0.977423,-0.169533,19,32765
1.96259,-0.979832,-0.167892,20,32765
1.99488,-1.00459,-0.169822,20,32765
2.00032,-1.01608,-0.169766,20,32765
2.02351,-1.0366,-0.171041,19,32765
2.04664,-1.05722,-0.17223,20,32765
1.99006,-1.03649,-0.166906,19,32765
2.00426,-1.05252,-0.167441,19,32765
2.02721,-1.0733,-0.168676,19,32765
1.99723,-1.06609,-0.165648,20,32765
1.99368,-1.07287,-0.164617,19,32765
1.97257,-1.07011,-0.162289,18,32765
2.00403,-1.09594,-0.163994,20,32765
1.99165,-1.0979,-0.162356,19,32765
2.03159,-1.12886,-0.165006,18,32765
2.00171,-1.12112,-0.161949,19,32765
1.998,-1.12788,-0.160898,19,32765
1.96821,-1.11986,-0.157969,19,32765
1.98183,-1.13638,-0.158392,19,32765
2.06441,-1.19302,-0.164344,19,32765
2.07773,-1.20997,-0.164714,20,32765
1.99627,-1.17149,-0.157818,18,32765
1.97522,-1.16807,-0.155291,19,32765
2.00561,-1.19516,-0.157286,18,32765
2.02726,-1.21739,-0.158291,18,32765
2.00615,-1.21389,-0.156028,18,32765
2.05319,-1.25185,-0.159243,19,32765
1.98952,-1.2222,-0.153683,18,32765
1.98552,-1.22881,-0.152712,19,32765
1.96456,-1.22483,-0.150639,19,32765
1.98594,-1.24722,-0.15169,19,32765
1.99029,-1.25911,-0.151625,18,32765
1.98617,-1.26571,-0.150692,19,32765
1.99887,-1.28303,-0.150818,19,32765
2.07003,-1.3385,-0.15583,20,32765
2.02381,-1.31814,-0.152009,19,32765
2.00282,-1.31388,-0.149806,19,32765
1.94848,-1.28759,-0.145376,19,32765
2.05227,-1.36596,-0.152507,19,32765
1.98137,-1.32841,-0.146936,18,32765
2.01839,-1.36289,-0.149089,20,32765
1.99737,-1.35839,-0.147244,19,32765
2.02586,-1.38758,-0.148741,19,32765
2.00491,-1.38289,-0.146827,19,32765
1.98398,-1.3781,-0.145091,18,32765
2.02047,-1.41309,-0.147519,19,32765
2.01596,-1.4196,-0.146735,19,32765
2.02766,-1.43771,-0.147159,19,32765
2.01488,-1.43851,-0.146144,19,32765
2.01825,-1.45099,-0.1463,19,32765
2.02163,-1.46342,-0.146225,19,32765
1.98464,-1.44644,-0.143545,19,32765
2.06046,-1.51191,-0.14922,20,32765
0,-0,-0,0,32765
0,-0,-0,0,32765
0,-0,-0,0,32765
0,-0,-0,0,32765
0,-0,-0,0,32765
0,-0,-0,0,32765
1.91085,-0.624902,-0.196327,15,32765
1.95611,-0.646822,-0.200358,17,32765
2.00128,-0.669045,-0.204109,19,32765
2.01802,-0.682036,-0.204954,19,32765
2.01579,-0.688897,-0.204011,19,32765
1.96652,-0.679405,-0.198218,18,32765
2.03008,-0.709057,-0.204036,19,32765
1.99019,-0.702743,-0.199284,18,32765
1.97852,-0.70611,-0.197405,18,32765
1.99491,-0.719604,-0.198457,18,32765
2.03933,-0.74339,-0.202208,19,32765
2.02755,-0.746864,-0.200293,19,32765
1.99712,-0.743226,-0.19681,18,32765
2.01333,-0.757,-0.197593,18,32765
2.02943,-0.770908,-0.198757,19,32765
1.9711,-0.756466,-0.192188,18,32765
2.00569,-0.777663,-0.195062,20,32765
1.96599,-0.769991,-0.190758,18,32765
1.97273,-0.780288,-0.190716,19,32765
1.97942,-0.790625,-0.19086,19,32765
2.00453,-0.808494,-0.192652,19,32765
1.98339,-0.807804,-0.189999,19,32765
1.96226,-0.80707,-0.187322,19,32765
2.00551,-0.832964,-0.191039,19,32765
1.99351,-0.836048,-0.189357,20,32765
1.98157,-0.838905,-0.187652,19,32765
1.96964,-0.8417,-0.18587,19,32765
1.97597,-0.852388,-0.185961,19,32765
1.99138,-0.867081,-0.187047,19,32765
1.98846,-0.873934,-0.186183,19,32765
2.01285,-0.892896,-0.187824,18,32765
1.96433,-0.879525,-0.182918,19,32765
1.99768,-0.902727,-0.185371,18,32765
1.97653,-0.901271,-0.182818,19,32765
2.01878,-0.928838,-0.18621,20,32765
1.99764,-0.927276,-0.18358,20,32765
1.98552,-0.929798,-0.182166,19,32765
1.97341,-0.932268,-0.180645,19,32765
1.98834,-0.947487,-0.181307,18,32765
1.97616,-0.949964,-0.179854,19,32765
1.99089,-0.965452,-0.180691,18,32765
1.97863,-0.968,-0.179193,19,32765
1.98429,-0.97924,-0.179088,19,32765
1.99883,-0.99494,-0.179873,19,32765
1.98656,-0.997293,-0.17853,20,32765
2.00994,-1.01758,-0.179647,19,32765
1.92655,-0.983723,-0.172008,18,32765
1.94982,-1.00405,-0.173451,19,32765
1.99953,-1.03825,-0.177485,18,32765
1.97844,-1.03572,-0.175093,18,32765
1.99267,-1.05163,-0.175831,18,32765
1.98039,-1.05368,-0.174127,18,32765
2.00323,-1.07455,-0.175569,18,32765
1.99083,-1.07669,-0.173905,18,32765
1.96093,-1.06919,-0.170863,17,32765
1.96614,-1.08059,-0.170638,17,32765
1.96258,-1.08719,-0.169716,18,32765
1.96772,-1.09859,-0.169692,17,32765
1.98149,-1.11495,-0.170234,17,32765
1.97781,-1.1216,-0.169344,17,32765
1.9481,-1.11345,-0.166211,18,32765
1.95303,-1.12503,-0.166082,18,32765
1.95794,-1.13661,-0.165806,17,32765
2.00585,-1.17339,-0.169176,17,32765
2.01056,-1.1852,-0.168951,17,32765
1.97243,-1.17147,-0.16483,17,32765
2.01992,-1.20881,-0.168243,18,32765
1.99036,-1.20007,-0.164987,18,32765
1.96936,-1.19637,-0.16261,17,32765
2.03354,-1.24455,-0.167059,17,32765
2.00401,-1.23559,-0.163796,18,32765
1.99148,-1.23704,-0.162003,17,32765
1.97055,-1.23306,-0.159412,18,32765
1.97496,-1.24494,-0.158916,18,32765
1.97089,-1.2515,-0.157923,18,32765
2.00889,-1.28489,-0.159793,18,32765
1.9963,-1.28617,-0.158034,17,32765
2.03399,-1.31994,-0.159891,19,32765
1.97958,-1.29392,-0.154707,18,32765
1.98366,-1.30603,-0.154133,18,32765
1.96281,-1.30156,-0.151338,18,32765
1.95861,-1.30803,-0.150069,17,32765
2.03727,-1.37009,-0.154854,18,32765
2.00807,-1.35999,-0.151617,18,32765
1.97889,-1.34981,-0.148385,18,32765
1.97448,-1.35642,-0.146737,18,32765
1.99471,-1.37998,-0.147215,18,32765
2.03126,-1.41502,-0.148624,18,32765
1.98593,-1.39292,-0.144096,17,32765
1.97333,-1.39364,-0.141843,18,32765
1.98513,-1.4117,-0.141269,18,32765
2.02924,-1.45318,-0.142974,17,32765
1.99225,-1.43642,-0.138646,17,32765
1.99577,-1.4488,-0.137062,18,32765
1.96701,-1.4376,-0.133307,19,32765
0,-0,-0,0,32765
0,-0,-0,0,32765
0,-0,-0,0,32765
0,-0,-0,0,32765
0,-0,-0,0,32765
1.89136,-0.613941,-0.214099,15,32765
1.96501,-0.645026,-0.221544,20,32765
1.93465,-0.642121,-0.217527,19,32765
1.93263,-0.648513,-0.216474,18,32765
1.93059,-0.654921,-0.215438,18,32765
1.96607,-0.67441,-0.218719,19,32765
1.93571,-0.671248,-0.214567,19,32765
1.95228,-0.684417,-0.215859,19,32765
1.96877,-0.697759,-0.216968,20,32765
1.99459,-0.714483,-0.219119,19,32765
1.96417,-0.711136,-0.215224,19,32765
1.9525,-0.714368,-0.213328,19,32765
1.97816,-0.731357,-0.215423,19,32765
1.95713,-0.731031,-0.212688,19,32765
1.99198,-0.751729,-0.215693,19,32765
1.98018,-0.754967,-0.214033,19,32765
1.9684,-0.758209,-0.211928,19,32765
1.96585,-0.765015,-0.211188,20,32765
1.96328,-0.771755,-0.210494,20,32765
1.95151,-0.774726,-0.208567,19,32765
2.00438,-0.803534,-0.213734,20,32765
1.95562,-0.791658,-0.207945,19,32765
1.99905,-0.817164,-0.211961,20,32765
1.95031,-0.805094,-0.206171,20,32765
1.98432,-0.82718,-0.209385,20,32765
1.91731,-0.807033,-0.201822,19,32765
1.94212,-0.825213,-0.203899,19,32765
1.99429,-0.85535,-0.208743,20,32765
2.00969,-0.870107,-0.209868,20,32765
1.96116,-0.857048,-0.204469,19,32765
1.96739,-0.867835,-0.204563,19,32765
1.94628,-0.866526,-0.201774,19,32765
1.97964,-0.889626,-0.204881,20,32765
1.95851,-0.888264,-0.202082,19,32765
1.95554,-0.894962,-0.201221,19,32765
1.99775,-0.922523,-0.205082,20,32765
1.98568,-0.925096,-0.203197,20,32765
1.96456,-0.923353,-0.200769,20,32765
1.97048,-0.934295,-0.200995,20,32765
1.96741,-0.940949,-0.200015,19,32765
2.00908,-0.96933,-0.203935,20,32765
1.96104,-0.954462,-0.198592,19,32765
1.98458,-0.974475,-0.200624,21,32765
1.99913,-0.990186,-0.201505,20,32765
1.98688,-0.992623,-0.199778,20,32765
1.98352,-0.999428,-0.199235,20,32765
1.95357,-0.992681,-0.195303,19,32765
2.00335,-1.02671,-0.200121,21,32765
1.9468,-1.00618,-0.193871,20,32765
1.99641,-1.04045,-0.19846,19,32765
1.98416,-1.04255,-0.196754,20,32765
1.96313,-1.03987,-0.194188,19,32765
1.95968,-1.04652,-0.193268,19,32765
1.97373,-1.06265,-0.194131,19,32765
1.97014,-1.06945,-0.193243,19,32765
1.95778,-1.07143,-0.191637,18,32765
1.92808,-1.0636,-0.188099,18,32765
1.94198,-1.07978,-0.188885,19,32765
1.94713,-1.09114,-0.188957,19,32765
1.92619,-1.08787,-0.186333,18,32765
1.94858,-1.10914,-0.187971,19,32765
1.96218,-1.12568,-0.188726,19,32765
1.94116,-1.12237,-0.186198,18,32765
1.96329,-1.14398,-0.187662,19,32765
1.96811,-1.15563,-0.187488,19,32765
1.96429,-1.16226,-0.186554,18,32765
1.9691,-1.17388,-0.186134,19,32765
1.95668,-1.17537,-0.184461,18,32765
1.98696,-1.20253,-0.186564,19,32765
1.92343,-1.17287,-0.180016,18,32765
1.98757,-1.22101,-0.185228,18,32765
1.93274,-1.19615,-0.17935,19,32765
1.9711,-1.22901,-0.182191,19,32765
1.95867,-1.23027,-0.1802,19,32765
1.92937,-1.22082,-0.176712,18,32765
1.9422,-1.23796,-0.177273,19,32765
1.92143,-1.23362,-0.174294,19,32765
1.94251,-1.25628,-0.175512,19,32765
1.89667,-1.23552,-0.170361,18,32765
1.9677,-1.29106,-0.175881,18,32765
1.98841,-1.31416,-0.176883,18,32765
1.99248,-1.32628,-0.176096,19,32765
2.00476,-1.34398,-0.17626,19,32765
2.03357,-1.37283,-0.177597,19,32765
2.01264,-1.36832,-0.174797,18,32765
1.9588,-1.34123,-0.169147,19,32765
1.99548,-1.37612,-0.17103,19,32765
1.99921,-1.38843,-0.17037,20,32765
1.97844,-1.38353,-0.16739,19,32765
1.93328,-1.36123,-0.162436,18,32765
1.97778,-1.40218,-0.16488,19,32765
1.91644,-1.36812,-0.158439,18,32765
1.98491,-1.42694,-0.162745,19,32765
1.95615,-1.41586,-0.158744,19,32765
1.96779,-1.43403,-0.157933,19,32765
1.97132,-1.44635,-0.15648,19,32765
0,-0,-0,0,32765
0,-0,-0,0,32765
0,-0,-0,0,32765
0,-0,-0,0,32765
0,-0,-0,0,32765
2.01498,-0.652693,-0.225308,12,32765
2.04114,-0.668747,-0.228347,19,32765
1.99171,-0.659924,-0.222883,19,32765
1.92353,-0.644425,-0.215296,18,32765
1.98733,-0.673099,-0.222588,19,32765
1.94749,-0.666781,-0.218121,18,32765
1.9829,-0.686277,-0.221924,19,32765
1.98998,-0.696215,-0.222846,19,32765
1.93142,-0.683034,-0.216014,18,32765
1.95722,-0.699589,-0.21901,17,32765
2.02029,-0.730006,-0.22613,18,32765
2.00851,-0.733484,-0.224479,18,32765
1.95939,-0.723115,-0.218853,18,32765
1.97562,-0.736669,-0.220561,18,32765
1.92666,-0.725723,-0.214947,17,32765
1.94286,-0.739264,-0.216527,18,32765
1.95898,-0.752935,-0.218168,18,32765
2.02137,-0.78478,-0.224913,19,32765
1.96317,-0.769916,-0.218197,18,32765
1.96059,-0.776591,-0.217741,18,32765
1.93024,-0.772306,-0.214063,18,32765
2.01066,-0.812416,-0.222782,19,32765
1.94347,-0.79297,-0.215034,18,32765
2.00522,-0.826077,-0.221558,19,32765
1.97495,-0.821305,-0.217982,19,32765
1.95391,-0.820224,-0.215373,19,32765
1.99702,-0.846151,-0.219895,20,32765
1.96676,-0.841231,-0.216045,19,32765
1.94566,-0.840122,-0.213297,19,32765
1.94282,-0.846852,-0.212592,18,32765
1.95819,-0.861557,-0.213801,20,32765
1.94624,-0.864123,-0.212199,19,32765
1.95248,-0.874728,-0.212519,19,32765
1.94955,-0.881391,-0.211897,19,32765
1.96476,-0.896237,-0.213019,19,32765
1.94367,-0.894661,-0.210269,19,32765
1.98579,-0.922295,-0.214479,19,32765
1.95568,-0.916447,-0.210592,20,32765
1.97957,-0.935933,-0.212894,19,32765
1.93158,-0.9212,-0.207139,18,32765
1.97332,-0.949395,-0.211293,19,32765
1.94335,-0.942993,-0.207465,18,32765
1.94023,-0.94958,-0.206654,19,32765
1.93706,-0.956177,-0.206009,18,32765
1.93389,-0.962777,-0.20501,18,32765
1.93953,-0.97392,-0.20518,18,32765
1.9984,-1.01212,-0.210974,19,32765
1.95952,-1.00092,-0.206241,18,32765
1.95613,-1.00769,-0.205478,18,32765
1.94395,-1.00975,-0.203599,18,32765
1.94938,-1.02106,-0.203642,18,32765
1.92837,-1.01835,-0.201073,19,32765
1.91624,-1.02022,-0.198921,17,32765
1.96545,-1.05503,-0.203766,17,32765
1.93571,-1.04742,-0.200135,19,32765
1.88851,-1.03016,-0.194656,18,32765
1.95495,-1.07489,-0.201005,18,32765
1.95142,-1.08143,-0.200165,18,32765
1.91303,-1.06864,-0.195793,17,32765
1.96157,-1.10445,-0.200115,18,32765
1.94052,-1.10134,-0.197514,17,32765
1.93689,-1.10788,-0.196671,18,32765
1.92459,-1.10945,-0.194855,18,32765
1.92092,-1.11596,-0.193924,18,32765
1.90867,-1.11734,-0.192169,18,32765
1.93923,-1.14411,-0.194985,17,32765
1.92688,-1.14558,-0.193118,17,32765
2.00853,-1.20332,-0.200815,17,32765
1.97894,-1.19469,-0.197309,17,32765
1.89838,-1.15476,-0.188681,18,32765
2.00499,-1.22888,-0.198697,17,32765
1.95009,-1.20416,-0.192725,17,32765
1.97996,-1.23176,-0.195296,18,32765
1.98435,-1.2437,-0.195061,18,32765
1.97188,-1.24494,-0.193412,17,32765
1.98458,-1.26229,-0.194054,18,32765
1.96368,-1.25813,-0.191466,18,32765
1.92608,-1.24301,-0.187429,17,32765
1.97213,-1.28205,-0.191424,18,32765
1.85954,-1.21761,-0.180176,17,32765
1.90546,-1.25676,-0.184086,17,32765
1.97604,-1.31279,-0.190417,18,32765
1.95524,-1.30818,-0.187898,18,32765
1.97573,-1.33142,-0.189454,18,32765
1.89715,-1.28757,-0.181605,17,32765
1.9917,-1.36138,-0.190201,18,32765
1.97083,-1.35668,-0.187713,18,32765
1.95,-1.35188,-0.185315,18,32765
1.96191,-1.36977,-0.186147,18,32765
1.94939,-1.37038,-0.184497,17,32765
1.97748,-1.39985,-0.186845,18,32765
1.94858,-1.38894,-0.184109,19,32765
1.95224,-1.40109,-0.183869,18,32765
1.97195,-1.42499,-0.185567,18,32765
1.92705,-1.40204,-0.181311,18,32765
1.94661,-1.42607,-0.182843,18,32765
0,-0,-0,0,32765
0,-0,-0,0,32765
0,-0,-0,0,32765
0,-0,-0,0,32765
0,-0,-0,0,32765
1.87989,-0.611292,-0.229023,18,32765
1.94389,-0.639348,-0.236949,19,32765
1.94175,-0.645857,-0.236772,19,32765
1.93961,-0.652324,-0.236576,18,32765
1.90924,-0.649147,-0.233037,19,32765
1.90711,-0.655474,-0.232792,18,32765
1.90496,-0.661844,-0.232394,19,32765
1.93085,-0.678131,-0.235699,19,32765
1.93797,-0.687987,-0.236314,18,32765
1.9824,-0.711318,-0.241868,20,32765
1.92392,-0.697858,-0.234815,18,32765
1.94957,-0.714698,-0.237645,19,32765
1.92853,-0.714461,-0.23497,18,32765
1.88893,-0.707049,-0.230066,18,32765
1.8866,-0.713363,-0.22966,19,32765
1.93066,-0.737441,-0.23482,19,32765
1.94675,-0.751107,-0.236647,20,32765
1.92572,-0.750514,-0.233921,19,32765
1.95093,-0.768052,-0.236769,19,32765
1.91142,-0.760019,-0.231833,18,32765
1.94572,-0.781483,-0.235709,19,32765
1.95231,-0.791861,-0.236338,20,32765
1.94966,-0.798543,-0.235739,20,32765
1.91945,-0.793771,-0.231816,19,32765
1.93519,-0.80785,-0.233515,19,32765
1.88673,-0.795059,-0.227418,19,32765
1.88412,-0.801373,-0.226911,19,32765
1.92713,-0.827433,-0.231608,20,32765
1.97906,-0.857814,-0.23744,20,32765
1.92152,-0.840773,-0.230174,19,32765
1.96416,-0.86749,-0.234836,20,32765
1.9522,-0.870088,-0.233136,20,32765
1.94934,-0.876664,-0.232463,19,32765
1.92829,-0.875119,-0.229681,20,32765
1.97965,-0.906488,-0.235293,20,32765
1.93148,-0.892454,-0.229135,19,32765
1.93749,-0.903307,-0.229539,20,32765
1.92547,-0.905751,-0.227521,19,32765
1.95834,-0.929444,-0.231167,20,32765
1.91044,-0.914614,-0.224955,19,32765
1.96109,-0.947128,-0.230629,20,32765
1.95799,-0.953741,-0.229672,20,32765
1.93698,-0.951628,-0.22676,20,32765
1.97835,-0.980313,-0.231323,20,32765
1.92173,-0.960397,-0.224074,20,32765
1.93624,-0.976004,-0.225372,20,32765
1.93293,-0.982723,-0.224601,20,32765
1.91191,-0.980356,-0.221578,20,32765
1.95276,-1.00984,-0.225941,19,32765
1.92296,-1.00269,-0.221932,19,32765
1.93719,-1.01859,-0.223086,19,32765
1.95139,-1.03448,-0.224376,19,32765
1.93044,-1.03174,-0.221107,19,32765
1.88317,-1.01477,-0.215475,19,32765
1.94104,-1.05436,-0.221582,19,32765
1.97244,-1.08011,-0.224577,19,32765
1.9776,-1.09156,-0.224696,20,32765
1.95663,-1.08853,-0.22187,19,32765
1.95299,-1.0952,-0.221051,19,32765
1.9407,-1.09694,-0.219058,19,32765
1.9716,-1.12333,-0.222122,19,32765
1.89883,-1.09034,-0.213498,19,32765
1.91246,-1.10675,-0.214502,18,32765
1.92599,-1.12327,-0.215496,19,32765
1.93947,-1.13981,-0.216517,18,32765
1.93563,-1.14645,-0.215868,18,32765
1.92328,-1.14792,-0.213905,18,32765
1.94505,-1.16986,-0.215894,18,32765
1.9071,-1.15584,-0.211194,19,32765
1.95426,-1.19343,-0.215844,18,32765
1.92486,-1.18442,-0.21208,19,32765
1.92098,-1.19087,-0.211169,18,32765
1.91704,-1.19733,-0.210409,19,32765
1.90467,-1.19849,-0.20845,19,32765
1.92601,-1.22079,-0.210413,18,32765
1.91357,-1.22196,-0.208514,18,32765
1.96821,-1.26604,-0.213965,18,32765
1.92229,-1.2455,-0.208646,18,32765
1.91819,-1.25195,-0.207771,18,32765
1.93905,-1.27475,-0.209743,18,32765
1.91825,-1.27026,-0.206993,18,32765
1.93892,-1.29329,-0.208789,18,32765
1.90994,-1.28301,-0.205211,19,32765
1.96346,-1.32848,-0.210597,19,32765
1.9262,-1.31255,-0.206326,17,32765
1.91368,-1.31334,-0.204595,17,32765
1.90939,-1.31971,-0.203703,18,32765
1.92141,-1.33746,-0.204624,18,32765
1.92517,-1.34958,-0.204778,19,32765
1.95343,-1.37881,-0.207368,18,32765
1.94893,-1.38527,-0.206632,18,32765
1.94442,-1.39165,-0.206199,18,32765
1.89147,-1.36305,-0.200063,18,32765
1.88705,-1.36925,-0.199492,18,32765
1.88264,-1.37538,-0.199044,17,32765
1.91025,-1.40522,-0.201711,18,32765
0,-0,-0,0,32765
0,-0,-0,0,32765
0,-0,-0,0,32765
0,-0,-0,0,32765
0,-0,-0,0,32765
1.79344,-0.580208,-0.238594,15,32765
1.9236,-0.629484,-0.255202,18,32765
1.94037,-0.642294,-0.256912,18,32765
1.93832,-0.648905,-0.25583,18,32765
1.94564,-0.658618,-0.256175,19,32765
1.91533,-0.655567,-0.251665,18,32765
1.92257,-0.665294,-0.252209,18,32765
1.88293,-0.658734,-0.246441,18,32765
1.9182,-0.678382,-0.250629,18,32765
1.916,-0.684874,-0.249752,18,32765
1.96044,-0.708287,-0.254991,19,32765
1.93947,-0.708149,-0.251747,18,32765
1.91855,-0.707783,-0.248634,18,32765
1.92552,-0.717761,-0.24922,18,32765
1.93249,-0.727734,-0.249564,18,32765
1.94864,-0.74146,-0.251048,18,32765
1.9091,-0.733898,-0.245619,17,32765
1.92518,-0.747622,-0.247307,18,32765
1.90421,-0.746981,-0.244131,18,32765
1.94798,-0.771654,-0.24907,18,32765
1.8993,-0.759874,-0.242587,18,32765
1.97049,-0.796007,-0.251279,20,32765
1.9035,-0.776406,-0.242434,18,32765
1.93768,-0.798051,-0.246163,19,32765
1.91664,-0.797184,-0.243046,18,32765
1.9322,-0.811684,-0.244696,18,32765
1.90203,-0.806754,-0.240497,18,32765
1.91758,-0.821146,-0.242108,19,32765
1.95133,-0.843482,-0.245881,19,32765
1.89392,-0.826281,-0.238207,18,32765
1.95481,-0.860798,-0.245486,19,32765
1.9338,-0.859419,-0.242353,20,32765
1.9581,-0.878244,-0.245202,19,32765
1.96428,-0.889,-0.245358,19,32765
1.91611,-0.875098,-0.238975,19,32765
1.92219,-0.885891,-0.239352,19,32765
1.92826,-0.896662,-0.239614,18,32765
1.89826,-0.890592,-0.235676,18,32765
1.92227,-0.909809,-0.238145,18,32765
1.95515,-0.933471,-0.241665,19,32765
1.90724,-0.918679,-0.235324,19,32765
1.93994,-0.94258,-0.238929,18,32765
1.89216,-0.927372,-0.232655,18,32765
1.92469,-0.951515,-0.236221,19,32765
1.89485,-0.944783,-0.231975,18,32765
1.91831,-0.964742,-0.234464,19,32765
1.90626,-0.966757,-0.232526,18,32765
1.8853,-0.964318,-0.229427,18,32765
1.95274,-1.00728,-0.23724,19,32765
1.92292,-1.00022,-0.233079,19,32765
1.91076,-1.00222,-0.231194,18,32765
1.89871,-1.004,-0.229079,19,32765
1.91298,-1.01974,-0.230337,18,32765
1.90087,-1.02148,-0.228361,19,32765
1.92377,-1.04207,-0.230597,18,32765
1.9116,-1.04387,-0.228489,18,32765
1.97785,-1.08876,-0.235843,18,32765
1.91339,-1.06168,-0.227512,18,32765
1.9186,-1.073,-0.227486,18,32765
1.92379,-1.08432,-0.227358,17,32765
1.92882,-1.09581,-0.227485,18,32765
1.91659,-1.09744,-0.225193,18,32765
1.92155,-1.10896,-0.225298,18,32765
1.95229,-1.13556,-0.227959,17,32765
1.84557,-1.08176,-0.214841,16,32765
1.9277,-1.13863,-0.223602,17,32765
1.90686,-1.13497,-0.22049,17,32765
1.91169,-1.14651,-0.220321,17,32765
1.99313,-1.20443,-0.228907,18,32765
1.9297,-1.17488,-0.220965,17,32765
1.89195,-1.16055,-0.215773,17,32765
1.92204,-1.18785,-0.218315,17,32765
1.90131,-1.18375,-0.215036,16,32765
1.88903,-1.18485,-0.212884,18,32765
1.91893,-1.2123,-0.215488,17,32765
1.96544,-1.25074,-0.219721,18,32765
1.88599,-1.20888,-0.210077,18,32765
1.9825,-1.27997,-0.219722,18,32765
1.97002,-1.28115,-0.217471,16,32765
1.89925,-1.24408,-0.208569,17,32765
1.91184,-1.2614,-0.209092,17,32765
1.97413,-1.31189,-0.214804,18,32765
1.91193,-1.27976,-0.206971,17,32765
1.91602,-1.29176,-0.206481,17,32765
1.92019,-1.30366,-0.205516,17,32765
1.88307,-1.28759,-0.200628,17,32765
1.93642,-1.33333,-0.205203,18,32765
1.91583,-1.32831,-0.201952,18,32765
1.9443,-1.3574,-0.203878,18,32765
1.91559,-1.34656,-0.199422,17,32765
1.92751,-1.36449,-0.199437,18,32765
1.94754,-1.38819,-0.20011,18,32765
1.91885,-1.37713,-0.195982,18,32765
1.92255,-1.38934,-0.194765,17,32765
1.94226,-1.41335,-0.195366,18,32765
1.93772,-1.41987,-0.193154,18,32765
0,-0,-0,0,32765
0,-0,-0,0,32765
0,-0,-0,0,32765
0,-0,-0,0,32765
0,-0,-0,0,32765
1.92247,-0.624525,-0.2751,20,32765
1.8734,-0.61559,-0.267407,19,32765
1.8902,-0.628263,-0.269321,19,32765
1.89758,-0.63788,-0.269599,19,32765
1.91431,-0.650672,-0.271383,19,32765
1.92157,-0.660396,-0.271911,19,32765
1.90069,-0.660412,-0.268573,19,32765
1.9266,-0.676762,-0.271673,19,32765
1.87767,-0.666756,-0.264375,19,32765
1.87552,-0.673129,-0.263514,18,32765
1.87331,-0.679559,-0.262697,19,32765
1.87109,-0.685953,-0.261908,19,32765
1.90605,-0.706024,-0.266429,19,32765
1.89444,-0.709037,-0.264515,19,32765
1.89215,-0.715426,-0.263671,19,32765
1.89905,-0.72551,-0.264067,19,32765
1.89663,-0.732048,-0.263422,19,32765
1.86648,-0.727752,-0.258888,19,32765
1.86407,-0.734182,-0.258104,19,32765
1.88937,-0.75145,-0.260977,19,32765
1.87765,-0.754235,-0.259127,18,32765
1.8752,-0.760558,-0.258431,19,32765
1.88187,-0.770669,-0.259076,19,32765
1.94352,-0.803667,-0.266961,20,32765
1.89502,-0.791355,-0.259886,19,32765
1.89228,-0.798105,-0.25922,19,32765
1.85307,-0.789143,-0.253507,19,32765
1.896,-0.815161,-0.259054,19,32765
1.86599,-0.809826,-0.254512,19,32765
1.86332,-0.81619,-0.253742,19,32765
1.8969,-0.838646,-0.257973,18,32765
1.85787,-0.828983,-0.252217,19,32765
1.85508,-0.83537,-0.251679,19,32765
1.90656,-0.866334,-0.258091,20,32765
1.89464,-0.868756,-0.256143,19,32765
1.89171,-0.875336,-0.255401,19,32765
1.8888,-0.881833,-0.254553,19,32765
1.8589,-0.875621,-0.250347,19,32765
1.87395,-0.89049,-0.251901,18,32765
1.88892,-0.905463,-0.253408,19,32765
1.87693,-0.907705,-0.251419,19,32765
1.9096,-0.93156,-0.255403,19,32765
1.86193,-0.916222,-0.248675,19,32765
1.85886,-0.92266,-0.247876,19,32765
1.89133,-0.94681,-0.251653,18,32765
1.93245,-0.975759,-0.256771,20,32765
1.87613,-0.955302,-0.248861,19,32765
1.89942,-0.975444,-0.251436,19,32765
1.93141,-1.00029,-0.255315,19,32765
1.90166,-0.993145,-0.250883,19,32765
1.88075,-0.99045,-0.247753,19,32765
1.8863,-1.00146,-0.247863,19,32765
1.91806,-1.02657,-0.251606,20,32765
1.88846,-1.01891,-0.247241,19,32765
1.92005,-1.04425,-0.250897,19,32765
1.92531,-1.0556,-0.250966,20,32765
1.90442,-1.05257,-0.247734,19,32765
1.90964,-1.06389,-0.247805,19,32765
1.93216,-1.08495,-0.250112,20,32765
1.91134,-1.08167,-0.246714,19,32765
1.91637,-1.09315,-0.246935,19,32765
1.87831,-1.07989,-0.241235,18,32765
1.90051,-1.10127,-0.243651,18,32765
1.93121,-1.12786,-0.24669,19,32765
1.87613,-1.10414,-0.239023,18,32765
1.88105,-1.1156,-0.238908,18,32765
1.87739,-1.12198,-0.237796,18,32765
1.91632,-1.15397,-0.242035,19,32765
1.89555,-1.15013,-0.238691,17,32765
1.91726,-1.17207,-0.240809,17,32765
1.87958,-1.15768,-0.235253,19,32765
1.86737,-1.15878,-0.232898,18,32765
1.87207,-1.17031,-0.232612,17,32765
1.90192,-1.19782,-0.235594,18,32765
1.87292,-1.18809,-0.231293,18,32765
1.8775,-1.19968,-0.230952,18,32765
1.88202,-1.2113,-0.230787,18,32765
1.88649,-1.22299,-0.230325,18,32765
1.88254,-1.2293,-0.229054,18,32765
1.92846,-1.26842,-0.233577,18,32765
1.91605,-1.2694,-0.231255,18,32765
1.89541,-1.26478,-0.227749,18,32765
1.86652,-1.25453,-0.223281,18,32765
1.90364,-1.28873,-0.226838,19,32765
1.9407,-1.32305,-0.229868,18,32765
1.87077,-1.28448,-0.220719,18,32765
1.94856,-1.34727,-0.228828,19,32765
1.90347,-1.32522,-0.222512,18,32765
1.90742,-1.33719,-0.221964,19,32765
1.92764,-1.36067,-0.222906,19,32765
1.8989,-1.34984,-0.218422,18,32765
1.92702,-1.37929,-0.220318,18,32765
1.91458,-1.3798,-0.217764,18,32765
1.84572,-1.33939,-0.208445,18,32765
1.8977,-1.38671,-0.212999,18,32765
1.89326,-1.3931,-0.210832,18,32765
0,-0,-0,0,32765
0,-0,-0,0,32765
0,-0,-0,0,32765
0,-0,-0,0,32765
1.87807,-0.601134,-0.267539,13,32765
1.92318,-0.622672,-0.274354,18,32765
1.89285,-0.619794,-0.27033,17,32765
1.90018,-0.629212,-0.271649,19,32765
1.87927,-0.629279,-0.268986,18,32765
1.89597,-0.641882,-0.27142,18,32765
1.8938,-0.648333,-0.271254,17,32765
1.88224,-0.651539,-0.269768,18,32765
1.88001,-0.658055,-0.269516,17,32765
1.92445,-0.681135,-0.275965,18,32765
1.91283,-0.684375,-0.274241,18,32765
1.86388,-0.674092,-0.267487,17,32765
1.89885,-0.694062,-0.272459,18,32765
1.90583,-0.703915,-0.273544,18,32765
1.94993,-0.727697,-0.279668,18,32765
1.88261,-0.709756,-0.270031,17,32765
1.93582,-0.737349,-0.277494,18,32765
1.90562,-0.733172,-0.273232,18,32765
1.85706,-0.721542,-0.266076,17,32765
1.91005,-0.749557,-0.273412,17,32765
1.8615,-0.737725,-0.266429,17,32765
1.88658,-0.755271,-0.269986,18,32765
1.9024,-0.769242,-0.27209,18,32765
1.89984,-0.775804,-0.271331,18,32765
1.85142,-0.763457,-0.264182,18,32765
1.84888,-0.769757,-0.263656,17,32765
1.88287,-0.791499,-0.268165,17,32765
1.90761,-0.809562,-0.271548,18,32765
1.85026,-0.792642,-0.262954,18,32765
1.90221,-0.82266,-0.270034,18,32765
1.8722,-0.817283,-0.265525,18,32765
1.87848,-0.827871,-0.266152,18,32765
1.89384,-0.84245,-0.267875,19,32765
1.88197,-0.844917,-0.26592,18,32765
1.87011,-0.847329,-0.263848,18,32765
1.88535,-0.862,-0.265504,18,32765
1.91852,-0.885087,-0.269786,18,32765
1.87062,-0.870695,-0.262783,18,32765
1.86779,-0.877045,-0.26186,18,32765
1.88282,-0.891942,-0.26348,18,32765
1.89774,-0.907,-0.265181,19,32765
1.90366,-0.917863,-0.265503,19,32765
1.90061,-0.924432,-0.26462,18,32765
1.88869,-0.926485,-0.262454,18,32765
1.89455,-0.937343,-0.26262,19,32765
1.90922,-0.952707,-0.264076,19,32765
1.88825,-0.950524,-0.260583,19,32765
1.88504,-0.957142,-0.259618,18,32765
1.87303,-0.959122,-0.257365,18,32765
1.87871,-0.970027,-0.257646,18,32765
1.89316,-0.985566,-0.259051,18,32765
1.86354,-0.978231,-0.254329,18,32765
1.86025,-0.98472,-0.253387,18,32765
1.91827,-1.02392,-0.260607,19,32765
1.9061,-1.02584,-0.258506,18,32765
1.9202,-1.0418,-0.259783,18,32765
1.89067,-1.034,-0.255185,18,32765
1.8786,-1.03562,-0.252901,19,32765
1.89257,-1.05161,-0.254334,18,32765
1.87178,-1.04839,-0.250877,19,32765
1.87696,-1.05966,-0.251068,17,32765
1.88206,-1.07104,-0.251224,18,32765
1.84405,-1.05774,-0.245483,17,32765
1.8922,-1.09384,-0.251144,18,32765
1.89717,-1.10528,-0.251404,18,32765
1.87644,-1.10159,-0.248089,17,32765
1.98399,-1.1737,-0.261933,18,32765
1.90331,-1.13462,-0.250877,17,32765
1.92523,-1.15634,-0.252945,17,32765
1.91292,-1.15772,-0.250827,18,32765
1.85821,-1.13314,-0.243191,17,32765
1.91378,-1.17585,-0.249825,18,32765
1.95216,-1.20849,-0.254383,17,32765
1.89766,-1.18345,-0.246642,17,32765
1.89382,-1.18978,-0.245746,17,32765
1.88158,-1.19075,-0.243627,17,32765
1.86095,-1.18634,-0.240587,17,32765
1.8654,-1.19799,-0.240811,17,32765
1.90324,-1.23125,-0.245117,17,32765
1.93251,-1.25939,-0.248462,17,32765
1.88682,-1.2386,-0.242233,16,32765
1.92424,-1.27234,-0.246703,17,32765
1.90351,-1.26776,-0.243777,18,32765
1.86638,-1.2519,-0.23869,17,32765
1.88706,-1.27479,-0.240871,17,32765
1.90763,-1.29779,-0.243078,17,32765
1.87869,-1.28738,-0.239315,17,32765
1.93995,-1.3389,-0.246648,18,32765
1.97641,-1.37377,-0.250902,18,32765
1.90674,-1.33469,-0.241971,17,32765
1.94313,-1.36954,-0.246451,17,32765
1.88196,-1.33559,-0.238415,17,32765
1.9262,-1.37645,-0.244014,18,32765
1.89749,-1.36539,-0.240289,17,32765
1.87688,-1.36005,-0.237664,17,32765
1.93669,-1.4132,-0.245349,18,32765
1.88401,-1.38421,-0.238704,18,32765
0,-0,-0,0,32765
0,-0,-0,0,32765
0,-0,-0,12,32765
0,-0,-0,12,32765
1.85602,-0.596607,-0.283098,19,32765
1.87282,-0.60895,-0.286059,20,32765
1.89898,-0.624449,-0.290379,19,32765
1.8875,-0.627669,-0.288914,19,32765
1.86662,-0.627698,-0.286063,19,32765
1.88329,-0.640294,-0.288681,20,32765
1.87176,-0.643504,-0.287078,19,32765
1.86957,-0.649897,-0.286933,19,32765
1.86734,-0.656389,-0.286679,19,32765
1.89305,-0.672856,-0.290725,19,32765
1.84422,-0.662615,-0.283191,19,32765
1.86984,-0.679105,-0.287414,19,32765
1.86756,-0.685506,-0.287039,19,32765
1.88382,-0.698723,-0.289645,19,32765
1.86298,-0.698177,-0.286264,19,32765
1.86993,-0.707943,-0.287373,19,32765
1.87682,-0.717881,-0.28829,19,32765
1.83749,-0.709933,-0.282338,19,32765
1.85364,-0.723242,-0.284649,19,32765
1.85127,-0.729539,-0.284058,19,32765
1.83045,-0.728467,-0.280856,19,32765
1.87388,-0.753337,-0.287512,18,32765
1.86215,-0.756127,-0.285581,18,32765
1.8688,-0.766327,-0.286237,18,32765
1.83878,-0.761426,-0.281434,19,32765
1.84539,-0.771522,-0.282306,18,32765
1.84281,-0.777903,-0.281606,18,32765
1.85843,-0.791994,-0.283881,19,32765
1.88312,-0.810094,-0.28724,19,32765
1.85315,-0.804794,-0.282399,19,32765
1.91396,-0.839006,-0.291439,19,32765
1.85674,-0.821712,-0.282494,18,32765
1.85399,-0.828175,-0.281659,18,32765
1.86025,-0.838658,-0.282364,19,32765
1.84843,-0.841006,-0.280206,19,32765
1.86366,-0.855642,-0.282052,19,32765
1.85183,-0.857889,-0.279915,19,32765
1.85796,-0.868415,-0.280604,18,32765
1.81928,-0.857839,-0.274279,19,32765
1.83434,-0.872609,-0.276102,19,32765
1.84036,-0.883251,-0.276661,19,32765
1.8731,-0.906901,-0.281116,19,32765
1.88789,-0.922085,-0.282912,20,32765
1.84932,-0.910967,-0.276666,19,32765
1.87297,-0.930541,-0.279592,19,32765
1.85218,-0.928108,-0.275959,18,32765
1.87557,-0.948086,-0.278885,19,32765
1.8547,-0.945674,-0.275301,19,32765
1.86038,-0.956628,-0.27558,19,32765
1.88366,-0.976649,-0.278559,19,32765
1.88047,-0.983058,-0.277548,20,32765
1.85091,-0.975671,-0.272552,19,32765
1.88266,-1.00076,-0.276762,19,32765
1.86183,-0.997961,-0.27307,19,32765
1.81486,-0.980834,-0.265788,19,32765
1.8552,-1.01075,-0.271115,19,32765
1.88669,-1.03615,-0.275149,19,32765
1.86595,-1.03297,-0.271508,19,32765
1.87989,-1.04895,-0.273126,19,32765
1.80726,-1.0165,-0.261968,18,32765
1.89021,-1.07163,-0.273521,20,32765
1.88664,-1.07817,-0.272513,19,32765
1.84867,-1.06486,-0.266395,18,32765
1.82804,-1.06121,-0.262733,18,32765
1.91874,-1.12257,-0.275405,19,32765
1.8638,-1.09879,-0.26699,18,32765
1.87725,-1.11525,-0.268599,19,32765
1.90764,-1.14201,-0.272582,19,32765
1.87848,-1.13304,-0.267651,19,32765
1.85778,-1.12912,-0.264253,19,32765
1.89641,-1.16134,-0.269315,20,32765
1.89261,-1.16778,-0.268183,18,32765
1.86346,-1.15849,-0.263662,18,32765
1.86814,-1.17,-0.263733,19,32765
1.87273,-1.18155,-0.26403,18,32765
1.89407,-1.20377,-0.266544,19,32765
1.89015,-1.21011,-0.26566,19,32765
1.86947,-1.20574,-0.262442,19,32765
1.8822,-1.22286,-0.263698,19,32765
1.86155,-1.21836,-0.260439,18,32765
1.84926,-1.21916,-0.258415,19,32765
1.87836,-1.24736,-0.2622,19,32765
1.85775,-1.24263,-0.259104,18,32765
1.86197,-1.25434,-0.259405,18,32765
1.88258,-1.27727,-0.261858,18,32765
1.87027,-1.27789,-0.259778,18,32765
1.83327,-1.26171,-0.254611,18,32765
1.87812,-1.30187,-0.26043,19,32765
1.86571,-1.30248,-0.258396,18,32765
1.87771,-1.32012,-0.26002,18,32765
1.86537,-1.3205,-0.258226,18,32765
1.83686,-1.30931,-0.254054,19,32765
1.84877,-1.32693,-0.255742,19,32765
1.85249,-1.33889,-0.256219,18,32765
1.8561,-1.35095,-0.256754,19,32765
1.85966,-1.36301,-0.257403,18,32765
1.85524,-1.36913,-0.256869,20,32765
0,-0,-0,0,32765
0,-0,-0,0,32765
0,-0,-0,0,32765
0,-0,-0,13,32765
0,-0,-0,17,32765
0,-0,-0,14,32765
1.85933,-0.609228,-0.30352,18,32765
1.83862,-0.60929,-0.299756,18,32765
1.86478,-0.624893,-0.303622,18,32765
1.85344,-0.62798,-0.30134,18,32765
1.85141,-0.634309,-0.300543,18,32765
1.84,-0.637444,-0.298243,18,32765
1.84725,-0.647036,-0.299026,18,32765
1.83584,-0.650083,-0.29664,19,32765
1.82443,-0.652966,-0.294433,17,32765
1.85951,-0.672683,-0.299537,18,32765
1.82944,-0.668856,-0.294391,18,32765
1.83657,-0.678521,-0.29501,17,32765
1.88069,-0.702073,-0.301676,17,32765
1.83215,-0.691008,-0.293463,18,32765
1.82985,-0.697373,-0.292753,17,32765
1.88295,-0.724985,-0.30084,18,32765
1.87135,-0.727932,-0.298411,18,32765
1.86899,-0.73436,-0.297474,17,32765
1.86662,-0.74071,-0.296634,17,32765
1.85503,-0.743401,-0.294331,17,32765
1.90764,-0.77196,-0.302273,18,32765
1.89599,-0.774709,-0.299886,18,32765
1.82942,-0.754805,-0.288951,17,32765
1.86344,-0.776402,-0.293945,18,32765
1.82432,-0.76765,-0.287355,17,32765
1.8217,-0.774165,-0.286524,17,32765
1.86457,-0.800112,-0.292725,18,32765
1.87098,-0.810547,-0.293351,17,32765
1.84111,-0.805085,-0.288178,17,32765
1.87468,-0.827403,-0.293061,18,32765
1.82673,-0.813721,-0.285177,18,32765
1.86015,-0.836222,-0.290107,18,32765
1.8033,-0.818107,-0.280741,17,32765
1.84559,-0.844939,-0.287005,18,32765
1.85175,-0.855525,-0.287575,18,32765
1.84887,-0.861998,-0.286776,17,32765
1.82806,-0.860002,-0.283159,18,32765
1.86991,-0.887603,-0.289287,18,32765
1.89376,-0.906875,-0.292641,18,32765
1.89075,-0.913431,-0.291731,19,32765
1.86987,-0.911304,-0.288274,19,32765
1.8491,-0.908954,-0.284637,18,32765
1.84607,-0.915321,-0.283938,18,32765
1.86968,-0.934879,-0.287061,19,32765
1.86656,-0.941341,-0.286214,18,32765
1.88107,-0.956805,-0.288081,19,32765
1.83373,-0.940799,-0.280562,18,32765
1.89215,-0.979122,-0.289121,18,32765
1.82741,-0.953561,-0.278711,17,32765
1.89439,-0.996816,-0.288542,19,32765
1.88228,-0.998736,-0.286472,19,32765
1.86153,-0.995815,-0.282756,18,32765
1.84081,-0.992752,-0.279213,18,32765
1.86372,-1.01318,-0.282172,18,32765
1.84301,-1.00997,-0.278707,18,32765
1.83104,-1.01145,-0.2763,18,32765
1.84508,-1.02727,-0.278068,17,32765
1.83303,-1.02874,-0.275815,17,32765
1.8383,-1.03985,-0.276145,17,32765
1.8607,-1.06091,-0.279068,18,32765
1.87439,-1.07718,-0.280612,17,32765
1.90517,-1.10348,-0.284682,18,32765
1.8502,-1.07992,-0.275936,18,32765
1.84673,-1.08615,-0.274704,18,32765
1.83464,-1.08737,-0.272422,18,32765
1.88214,-1.12413,-0.279267,18,32765
1.84452,-1.11002,-0.272941,19,32765
1.82397,-1.10595,-0.269256,18,32765
1.82888,-1.11729,-0.269213,18,32765
1.82527,-1.12344,-0.268092,18,32765
1.86376,-1.1558,-0.273184,17,32765
1.88526,-1.17785,-0.275802,19,32765
1.84789,-1.16306,-0.26946,18,32765
1.81899,-1.15335,-0.264481,17,32765
1.88223,-1.20214,-0.27306,17,32765
1.84496,-1.18701,-0.266931,18,32765
1.84951,-1.19856,-0.266812,18,32765
1.86234,-1.21555,-0.267819,17,32765
1.84188,-1.21084,-0.264073,18,32765
1.85462,-1.22792,-0.264969,18,32765
1.85066,-1.23417,-0.26357,17,32765
1.83845,-1.23486,-0.261005,17,32765
1.83452,-1.24096,-0.259722,17,32765
1.83059,-1.24708,-0.258134,17,32765
1.81843,-1.2476,-0.255395,17,32765
1.888,-1.30452,-0.264211,18,32765
1.82679,-1.27106,-0.254672,18,32765
1.84729,-1.29408,-0.256465,17,32765
1.83516,-1.2944,-0.25358,18,32765
1.87171,-1.32911,-0.25746,18,32765
1.82707,-1.30645,-0.250182,17,32765
1.83107,-1.31828,-0.249485,18,32765
1.89131,-1.37103,-0.256375,18,32765
1.82282,-1.33038,-0.245574,18,32765
1.8588,-1.36578,-0.248839,17,32765
0,-0,-0,0,32765
0,-0,-0,11,32765
0,-0,-0,14,32765
0,-0,-0,19,32765
0,-0,-0,17,32765
1.82019,-0.592256,-0.315809,19,32765
1.86512,-0.61388,-0.323409,19,32765
1.86315,-0.620199,-0.322698,20,32765
1.85182,-0.623335,-0.320357,20,32765
1.84049,-0.62639,-0.317984,20,32765
1.81048,-0.62306,-0.31236,19,32765
1.83641,-0.639041,-0.316407,19,32765
1.84363,-0.648648,-0.31728,20,32765
1.86014,-0.661619,-0.319595,21,32765
1.83013,-0.657916,-0.314094,19,32765
1.82801,-0.664219,-0.313202,19,32765
1.79803,-0.660279,-0.307788,19,32765
1.83293,-0.680171,-0.313257,19,32765
1.84922,-0.693372,-0.315647,19,32765
1.81927,-0.689174,-0.310133,18,32765
1.81698,-0.695515,-0.309424,19,32765
1.85155,-0.716028,-0.314932,19,32765
1.8676,-0.729662,-0.31711,19,32765
1.86523,-0.736098,-0.316171,19,32765
1.82615,-0.727825,-0.309116,19,32765
1.85128,-0.745145,-0.312932,19,32765
1.83056,-0.744004,-0.309062,20,32765
1.81902,-0.746502,-0.306619,19,32765
1.84395,-0.764119,-0.310437,19,32765
1.8414,-0.770565,-0.309658,19,32765
1.84789,-0.780956,-0.310349,19,32765
1.81795,-0.775936,-0.304931,19,32765
1.84257,-0.794112,-0.30855,19,32765
1.85804,-0.808443,-0.31079,20,32765
1.82824,-0.802931,-0.305344,19,32765
1.82559,-0.809237,-0.304565,19,32765
1.84096,-0.823622,-0.306765,19,32765
1.82021,-0.821819,-0.303052,19,32765
1.8355,-0.836329,-0.305116,19,32765
1.83272,-0.842685,-0.304363,19,32765
1.82989,-0.849094,-0.303538,18,32765
1.86286,-0.872286,-0.308682,19,32765
1.851,-0.874566,-0.30635,20,32765
1.81235,-0.86401,-0.299639,19,32765
1.8273,-0.878844,-0.301817,18,32765
1.85998,-0.902463,-0.306806,19,32765
1.84806,-0.904582,-0.304638,19,32765
1.80961,-0.8934,-0.297902,19,32765
1.8509,-0.921702,-0.304499,19,32765
1.83023,-0.919124,-0.300629,18,32765
1.84482,-0.934414,-0.302692,19,32765
1.80644,-0.922832,-0.296082,19,32765
1.81209,-0.933733,-0.296775,19,32765
1.80892,-0.940124,-0.295926,19,32765
1.84088,-0.964763,-0.300664,19,32765
1.8114,-0.957294,-0.295515,19,32765
1.84311,-0.982213,-0.300502,19,32765
1.8835,-1.01195,-0.306554,19,32765
1.83665,-0.994824,-0.298567,19,32765
1.88556,-1.02952,-0.30603,20,32765
1.85616,-1.02161,-0.30096,19,32765
1.85283,-1.02796,-0.29985,19,32765
1.84948,-1.03422,-0.298993,19,32765
1.80293,-1.01627,-0.29107,18,32765
1.84266,-1.04688,-0.297056,20,32765
1.83919,-1.05323,-0.296096,19,32765
1.87002,-1.07938,-0.300587,20,32765
1.86647,-1.0858,-0.299526,20,32765
1.82877,-1.07209,-0.292985,20,32765
1.84239,-1.08834,-0.294489,19,32765
1.82179,-1.0845,-0.290754,20,32765
1.8012,-1.08052,-0.287307,19,32765
1.84013,-1.11224,-0.29281,19,32765
1.85346,-1.12878,-0.294315,19,32765
1.84138,-1.12989,-0.291662,20,32765
1.82087,-1.12568,-0.287862,19,32765
1.85084,-1.15286,-0.292081,19,32765
1.8471,-1.15911,-0.291007,19,32765
1.85177,-1.17066,-0.290906,20,32765
1.83964,-1.1716,-0.288264,19,32765
1.83589,-1.17774,-0.287116,19,32765
1.84041,-1.18934,-0.287144,19,32765
1.82832,-1.19009,-0.284527,19,32765
1.82455,-1.19618,-0.283154,19,32765
1.86213,-1.2296,-0.288214,20,32765
1.83347,-1.21933,-0.2829,19,32765
1.85427,-1.24209,-0.285315,20,32765
1.84205,-1.2428,-0.28265,19,32765
1.82989,-1.24336,-0.280102,19,32765
1.82596,-1.24949,-0.278512,20,32765
1.83832,-1.26689,-0.279406,19,32765
1.83427,-1.27307,-0.277906,19,32765
1.81398,-1.26781,-0.273907,19,32765
1.82632,-1.28514,-0.274759,19,32765
1.81424,-1.2854,-0.271797,19,32765
1.80222,-1.28553,-0.268911,19,32765
1.82234,-1.30894,-0.270821,19,32765
1.8424,-1.33242,-0.272595,18,32765
1.81414,-1.32102,-0.267193,19,32765
1.81006,-1.32702,-0.265128,19,32765
0,-0,-0,0,32765
0,0,0,0,32765
0,0,0,0,32765
0,0,0,12,32765
0,-0,0,12,32765
0,-0,0,0,32765
0,-0,0,0,32765
0,-0,0,0,32765
0,-0,0,0,32765
0,-0,0,0,32765
0,-0,0,0,32765
0,-0,0,0,32765
0,-0,0,12,32765
0,-0,0,0,32765
0,-0,0,12,32765
0,-0,0,0,32765
0,-0,0,0,32765
0,-0,0,12,32765
