x, y, z, intensity, ring
0,-0,-0,0,32765
0,-0,-0,0,32765
0,-0,-0,0,32765
0,-0,-0,0,32765
0.975396,0.0186003,-0.0930379,16,32765
0.985439,0.0154377,-0.0936528,16,32765
0.995473,0.0122461,-0.0942512,16,32765
0.955708,0.00849582,-0.090278,15,32765
0.886067,0.0048842,-0.0834308,14,32765
0.93587,0.00200535,-0.0880005,14,32765
0.945855,-0.00118707,-0.0886434,16,32765
0.906033,-0.00416625,-0.084781,15,32765
0.925943,-0.00734182,-0.086464,16,32765
0.945849,-0.0106389,-0.0880742,16,32765
0.945822,-0.0138665,-0.0879093,16,32765
0.896001,-0.0161967,-0.0831886,15,32765
0.935774,-0.0201131,-0.086733,16,32765
0.895895,-0.0223311,-0.0829071,16,32765
0.905779,-0.0256509,-0.0837076,16,32765
0.895741,-0.0284215,-0.0827107,16,32765
0.905601,-0.0318239,-0.0835149,16,32765
0.895551,-0.0345073,-0.0824523,16,32765
0.875534,-0.0367007,-0.0805815,16,32765
0.885373,-0.0400987,-0.0812844,13,32765
0.875287,-0.0426087,-0.0803509,16,32765
0.895034,-0.0466987,-0.0820597,17,32765
0.89488,-0.0497672,-0.0819291,16,32765
0.884766,-0.0522521,-0.0809863,16,32765
0.884601,-0.0552214,-0.0808244,17,32765
0.844665,-0.055574,-0.0771514,17,32765
0.874281,-0.0605337,-0.0798062,17,32765
0.854213,-0.0620363,-0.0779199,17,32765
0.883793,-0.0672714,-0.0805285,17,32765
0.853779,-0.0679355,-0.0777577,16,32765
0.85355,-0.0708577,-0.0776659,17,32765
0.853308,-0.0737876,-0.0775992,17,32765
0.853059,-0.0766651,-0.0775436,17,32765
0.823046,-0.0767818,-0.0748373,17,32765
0.83271,-0.0805393,-0.0755507,17,32765
0.822519,-0.0824032,-0.0746428,15,32765
0.901484,-0.0934607,-0.0818019,13,32765
0.831844,-0.0891336,-0.0754369,17,32765
0.87113,-0.0964079,-0.0789771,14,32765
0,-0,-0,0,32765
0,-0,-0,0,32765
0,-0,-0,0,32765
0,-0,-0,0,32765
0,-0,-0,0,32765
0.730769,-0.0959077,-0.0661732,12,32765
0.819271,-0.11039,-0.0742256,14,32765
0.858358,-0.118658,-0.0777252,13,32765
0.848084,-0.120243,-0.0767817,14,32765
0.896953,-0.130343,-0.081159,15,32765
0.866951,-0.128998,-0.0784587,13,32765
0.896053,-0.136489,-0.0809875,13,32765
0.915263,-0.142636,-0.0827601,14,32765
0.865592,-0.137944,-0.0782378,13,32765
0.884776,-0.14415,-0.0799547,14,32765
0.894112,-0.148767,-0.080825,15,32765
0.873971,-0.148475,-0.0789304,14,32765
0.85385,-0.148016,-0.0770124,14,32765
0.863154,-0.152614,-0.0779342,15,32765
0.872436,-0.15733,-0.0787607,15,32765
0.901297,-0.165696,-0.0812946,15,32765
0.871351,-0.16331,-0.0785936,14,32765
0.909937,-0.173761,-0.0819873,14,32765
0.880021,-0.171085,-0.0793227,13,32765
0.840362,-0.166308,-0.0757243,13,32765
0.810516,-0.163222,-0.072955,15,32765
0.849007,-0.173968,-0.0763057,17,32765
0,-0,-0,0,32765
0,-0,-0,0,32765
0,-0,-0,0,32765
0,-0,-0,0,32765
0.875166,-0.194791,-0.0783678,11,32765
0,-0,-0,0,32765
0,-0,-0,0,32765
0,-0,-0,0,32765
0.950104,-0.224828,-0.0845817,11,32765
0.997804,-0.239624,-0.0886976,11,32765
1.1422,-0.278375,-0.101449,11,32765
1.13161,-0.279783,-0.100348,11,32765
0,-0,-0,0,32765
1.1491,-0.292183,-0.101437,12,32765
0,-0,-0,0,32765
1.11826,-0.292291,-0.0983296,11,32765
0,-0,-0,0,32765
0,-0,-0,0,32765
0,-0,-0,0,32765
0,-0,-0,0,32765
0,-0,-0,0,32765
0,-0,-0,0,32765
0,-0,-0,0,32765
0,-0,-0,0,32765
0,-0,-0,0,32765
0,-0,-0,0,32765
0,-0,-0,0,32765
0,-0,-0,0,32765
0,-0,-0,0,32765
0,-0,-0,0,32765
0,-0,-0,0,32765
0,-0,-0,0,32765
0,-0,-0,0,32765
0,-0,-0,0,32765
0,-0,-0,0,32765
0.964532,0.0183744,-0.101194,15,32765
0.964624,0.0150841,-0.100866,15,32765
0.954759,0.0117095,-0.0994928,15,32765
0.924976,0.00817959,-0.0961869,16,32765
0.994653,0.00542754,-0.10313,16,32765
0.964838,0.00200513,-0.0999149,15,32765
0.935029,-0.00124229,-0.0965348,15,32765
0.964875,-0.00451649,-0.0994771,14,32765
0.915138,-0.00733985,-0.0941712,15,32765
0.925081,-0.0104981,-0.0949509,16,32765
0.94495,-0.0139571,-0.096828,16,32765
0.93496,-0.0170118,-0.0957107,16,32765
0.944858,-0.020429,-0.0965745,16,32765
0.924906,-0.023181,-0.0944017,16,32765
0.934779,-0.0266088,-0.095292,16,32765
0.924747,-0.0294856,-0.0941987,16,32765
0.944538,-0.0333477,-0.0961045,16,32765
0.924552,-0.0357853,-0.0939315,17,32765
0.914489,-0.0385009,-0.0928811,17,32765
0.904438,-0.0411357,-0.091654,17,32765
0.904295,-0.0442027,-0.0916331,17,32765
0.884276,-0.0463236,-0.089503,16,32765
0.933794,-0.0521366,-0.0943948,15,32765
0.903816,-0.0535844,-0.0913488,17,32765
0.913578,-0.057248,-0.0921852,17,32765
0.913385,-0.0603214,-0.0921413,17,32765
0.903253,-0.0627718,-0.0910691,17,32765
0.89312,-0.0650996,-0.0899923,17,32765
0.90282,-0.0689687,-0.09088,18,32765
0.892665,-0.0712842,-0.0898222,18,32765
0.90234,-0.0751739,-0.0907229,18,32765
0.89217,-0.0774195,-0.089656,17,32765
0.891909,-0.0804363,-0.0895976,17,32765
0.881724,-0.0825407,-0.0886004,17,32765
0.861649,-0.0836246,-0.0864143,17,32765
0.871258,-0.087584,-0.0873983,17,32765
0.88085,-0.0916313,-0.0883566,17,32765
0.880536,-0.0946692,-0.0882794,17,32765
0.860426,-0.0955426,-0.0862439,15,32765
0.810678,-0.0927937,-0.0811804,12,32765
0,-0,-0,0,32765
0,-0,-0,0,32765
0,-0,-0,0,32765
0,-0,-0,0,32765
0,-0,-0,0,32765
0.857939,-0.115977,-0.085965,14,32765
0.936397,-0.129866,-0.0937848,14,32765
0.91624,-0.130327,-0.0917558,14,32765
0.886249,-0.129203,-0.0887099,15,32765
0.954701,-0.142511,-0.0955818,13,32765
0.934543,-0.142809,-0.0934584,13,32765
0.924214,-0.144492,-0.0924668,14,32765
0.904065,-0.144535,-0.0904229,15,32765
0.893741,-0.146075,-0.0893777,15,32765
0.883428,-0.147457,-0.0883772,16,32765
0.902552,-0.153817,-0.0902187,16,32765
0.892238,-0.155161,-0.0890867,17,32765
0.86231,-0.152947,-0.086186,16,32765
0.87158,-0.157672,-0.0871057,16,32765
0.87105,-0.160641,-0.0869884,14,32765
0.919396,-0.172857,-0.0918221,13,32765
0.938361,-0.179752,-0.0936322,13,32765
0.957295,-0.186692,-0.0955608,12,32765
0.898097,-0.178291,-0.0896316,12,32765
0.838974,-0.169483,-0.0836533,16,32765
0.857907,-0.176342,-0.0854313,17,32765
0.906015,-0.189462,-0.0902233,14,32765
0.954049,-0.202907,-0.0949693,11,32765
0,-0,-0,0,32765
0,-0,-0,0,32765
0.825707,-0.184355,-0.0819792,11,32765
0,-0,-0,0,32765
0,-0,-0,0,32765
0,-0,-0,0,32765
0.997556,-0.23679,-0.0985471,11,32765
0.987102,-0.23779,-0.0973923,12,32765
0,-0,-0,0,32765
1.02416,-0.254002,-0.100843,11,32765
0.907491,-0.228267,-0.0891887,12,32765
1.0418,-0.26572,-0.102176,15,32765
1.05056,-0.271706,-0.102912,15,32765
1.04005,-0.272691,-0.101663,15,32765
1.19312,-0.317043,-0.116385,11,32765
0,-0,-0,0,32765
0,-0,-0,0,32765
0,-0,-0,0,32765
0,-0,-0,0,32765
0,-0,-0,0,32765
0,-0,-0,0,32765
0,-0,-0,0,32765
0,-0,-0,0,32765
0,-0,-0,0,32765
0,-0,-0,0,32765
0,-0,-0,0,32765
0,-0,-0,0,32765
0,-0,-0,0,32765
0,-0,-0,0,32765
0,-0,-0,0,32765
0,-0,-0,0,32765
0,-0,-0,0,32765
0,-0,-0,0,32765
0.925103,0.0175214,-0.093692,16,32765
0.91517,0.0141922,-0.0930757,15,32765
0.954962,0.0115481,-0.097539,15,32765
0.93508,0.00813084,-0.0957048,16,32765
0.964909,0.00509328,-0.0991216,16,32765
0.974843,0.00181725,-0.100385,16,32765
0.935014,-0.00145073,-0.0966804,15,32765
0.974769,-0.0048048,-0.101007,13,32765
0.925,-0.00765076,-0.0960061,15,32765
0.944838,-0.0109918,-0.0982877,16,32765
0.89505,-0.0134174,-0.0933077,15,32765
0.885047,-0.0162384,-0.0923477,16,32765
0.865076,-0.0187703,-0.090508,16,32765
0.894818,-0.0224479,-0.0937895,16,32765
0.894723,-0.0255291,-0.0939127,16,32765
0.884683,-0.0282978,-0.0929231,16,32765
0.874627,-0.0309792,-0.0920199,16,32765
0.874507,-0.0339656,-0.092107,16,32765
0.894252,-0.0377297,-0.0942864,16,32765
0.884174,-0.0403259,-0.0933284,16,32765
0.874091,-0.0427806,-0.092381,16,32765
0.864008,-0.0452059,-0.0913606,16,32765
0.893622,-0.049803,-0.0946539,16,32765
0.873598,-0.0516533,-0.0925116,14,32765
0.853551,-0.053434,-0.0905301,15,32765
0.84344,-0.0556935,-0.0894804,16,32765
0.833315,-0.0578897,-0.0885111,17,32765
0.872787,-0.0636301,-0.0927,17,32765
0.842818,-0.0642852,-0.0895862,17,32765
0.852509,-0.067902,-0.0906521,17,32765
0.852273,-0.070735,-0.090707,17,32765
0.83222,-0.0718809,-0.0885607,17,32765
0.84187,-0.0756032,-0.0896621,17,32765
0.831714,-0.0775598,-0.088524,17,32765
0.841327,-0.0814136,-0.0896649,17,32765
0.84105,-0.0842699,-0.0896271,17,32765
0.840764,-0.0871153,-0.0895922,17,32765
0.840464,-0.0899666,-0.0895917,17,32765
0.820399,-0.0905952,-0.0874001,17,32765
0.849724,-0.0967688,-0.0905838,17,32765
0.829642,-0.0973494,-0.0884178,17,32765
0.770075,-0.0930331,-0.0820324,14,32765
0,-0,-0,0,32765
0,-0,-0,0,32765
0,-0,-0,0,32765
0,-0,-0,0,32765
0.7684,-0.106143,-0.0818261,11,32765
0.817266,-0.115719,-0.0870974,14,32765
0.816889,-0.118493,-0.0868988,14,32765
0.855818,-0.127143,-0.0911593,14,32765
0.835721,-0.127106,-0.0889596,13,32765
0.83529,-0.12998,-0.0888565,14,32765
0.874125,-0.139152,-0.092963,15,32765
0.824571,-0.134161,-0.0876517,16,32765
0.843729,-0.140275,-0.0896941,16,32765
0.843253,-0.143136,-0.0896479,16,32765
0.823177,-0.142621,-0.0873977,16,32765
0.832477,-0.147184,-0.0884268,16,32765
0.822198,-0.14824,-0.0872619,17,32765
0.841254,-0.154659,-0.0892896,17,32765
0.870067,-0.162973,-0.0923207,15,32765
0.85975,-0.164047,-0.0912017,14,32765
0.917776,-0.178358,-0.0973413,13,32765
0.848878,-0.167939,-0.0900181,12,32765
0.780056,-0.157109,-0.0826382,12,32765
0.867217,-0.177743,-0.091877,13,32765
0.808193,-0.1685,-0.0856273,17,32765
0.817356,-0.173313,-0.0865565,17,32765
0.855672,-0.184457,-0.0905599,13,32765
0.85505,-0.187364,-0.0904639,11,32765
0,-0,-0,0,32765
0,-0,-0,0,32765
0,-0,-0,0,32765
0,-0,-0,0,32765
0,-0,-0,0,32765
0,-0,-0,0,32765
0.879411,-0.214679,-0.092996,11,32765
0.965591,-0.239191,-0.102092,11,32765
0.984089,-0.247244,-0.10411,11,32765
0.992895,-0.253026,-0.105055,12,32765
1.11728,-0.288667,-0.118165,12,32765
1.04895,-0.274752,-0.11095,11,32765
0.999959,-0.265497,-0.105794,11,32765
0,-0,-0,0,32765
0,-0,-0,0,32765
0,-0,-0,0,32765
0,-0,-0,0,32765
0,-0,-0,0,32765
0,-0,-0,0,32765
0,-0,-0,0,32765
0,-0,-0,0,32765
0,-0,-0,0,32765
0,-0,-0,0,32765
0,-0,-0,0,32765
0,-0,-0,0,32765
0,-0,-0,0,32765
0,-0,-0,0,32765
0,-0,-0,0,32765
0,-0,-0,0,32765
0,-0,-0,0,32765
0,-0,-0,0,32765
0.944053,0.0178582,-0.104619,16,32765
0.934126,0.0144552,-0.103917,16,32765
0.91425,0.0110166,-0.102104,16,32765
0.924198,0.00798787,-0.10341,16,32765
0.963931,0.00502836,-0.10822,16,32765
0.944041,0.00169225,-0.106222,15,32765
0.914186,-0.00149274,-0.103252,16,32765
0.943963,-0.00473867,-0.106824,16,32765
0.943924,-0.00790184,-0.10698,16,32765
0.943868,-0.011084,-0.107196,14,32765
0.874259,-0.0132099,-0.0994862,13,32765
0.923871,-0.0170694,-0.105219,16,32765
0.903914,-0.0197377,-0.103202,17,32765
0.903823,-0.0228071,-0.103364,16,32765
0.913655,-0.026213,-0.104626,17,32765
0.893693,-0.0287352,-0.102405,17,32765
0.903501,-0.0321616,-0.103689,17,32765
0.903375,-0.0352551,-0.103778,17,32765
0.913168,-0.0387065,-0.105006,17,32765
0.922944,-0.0422837,-0.106241,17,32765
0.893018,-0.0438988,-0.102917,17,32765
0.88294,-0.0463946,-0.101804,17,32765
0.912517,-0.0510697,-0.105381,17,32765
0.892509,-0.0529889,-0.10305,17,32765
0.90222,-0.0567095,-0.104323,17,32765
0.90202,-0.059799,-0.104326,17,32765
0.872069,-0.0608201,-0.100974,15,32765
0.881766,-0.064534,-0.102095,16,32765
0.871634,-0.066738,-0.100995,17,32765
0.871403,-0.06967,-0.101007,17,32765
0.881059,-0.0733987,-0.102211,17,32765
0.890709,-0.0772187,-0.10332,17,32765
0.880541,-0.0793674,-0.102221,17,32765
0.870383,-0.0814623,-0.100985,17,32765
0.870082,-0.0845014,-0.101075,17,32765
0.85991,-0.0864697,-0.0998874,17,32765
0.839855,-0.0873322,-0.097556,17,32765
0.84943,-0.0912494,-0.0987029,17,32765
0.849129,-0.094099,-0.0986161,17,32765
0.858669,-0.0981309,-0.0997874,17,32765
0.84847,-0.0999065,-0.0985793,17,32765
0.848131,-0.102819,-0.098502,17,32765
0.837909,-0.10453,-0.0973729,17,32765
0.857267,-0.109925,-0.0995524,18,32765
0.837191,-0.110263,-0.0972273,16,32765
0.856508,-0.115754,-0.0994759,12,32765
0,-0,-0,0,32765
0,-0,-0,0,32765
0,-0,-0,0,32765
0.786086,-0.117177,-0.0913161,12,32765
0.81515,-0.124394,-0.0946385,15,32765
0.83436,-0.13027,-0.0968155,14,32765
0.873149,-0.139461,-0.101296,15,32765
0.853065,-0.13926,-0.0989276,17,32765
0.862382,-0.143853,-0.100019,17,32765
0.881482,-0.150122,-0.102243,17,32765
0.871194,-0.15144,-0.100932,18,32765
0.860885,-0.152709,-0.0997853,16,32765
0.870153,-0.157404,-0.100787,15,32765
0.869612,-0.160398,-0.100735,16,32765
0.869077,-0.163322,-0.100651,15,32765
0.85877,-0.164398,-0.0994376,14,32765
0.867965,-0.169231,-0.100493,14,32765
0.896634,-0.177967,-0.103801,12,32765
0.886294,-0.179089,-0.102516,13,32765
0.827287,-0.170112,-0.095701,13,32765
0.846163,-0.176991,-0.097894,14,32765
0.826128,-0.175743,-0.0955394,16,32765
0.825541,-0.17854,-0.0954247,17,32765
0.873464,-0.192021,-0.100939,18,32765
0.853421,-0.190653,-0.0986111,13,32765
0,-0,-0,0,32765
0,-0,-0,0,32765
0,-0,-0,0,32765
0,-0,-0,0,32765
0.83077,-0.20051,-0.0960075,12,32765
0.916972,-0.224573,-0.105967,11,32765
0.858347,-0.213313,-0.099183,11,32765
1.00218,-0.252604,-0.115874,12,32765
0.924302,-0.236308,-0.10689,12,32765
0.962005,-0.249353,-0.111214,12,32765
1.03807,-0.272779,-0.120027,11,32765
0.998741,-0.266031,-0.115514,12,32765
1.05543,-0.284875,-0.122082,12,32765
0,-0,-0,0,32765
0,-0,-0,0,32765
0,-0,-0,0,32765
0,-0,-0,0,32765
0,-0,-0,0,32765
0,-0,-0,0,32765
0,-0,-0,0,32765
0,-0,-0,11,32765
0,-0,-0,0,32765
0,-0,-0,0,32765
0,-0,-0,0,32765
0,-0,-0,0,32765
0,-0,-0,0,32765
0,-0,-0,0,32765
0,-0,-0,0,32765
0,-0,-0,0,32765
0,-0,-0,0,32765
0.912625,0.0183308,-0.114805,14,32765
0.902798,0.0150034,-0.113276,15,32765
0.912796,0.0120367,-0.114278,15,32765
0.922773,0.00902564,-0.115366,16,32765
0.912913,0.00580875,-0.113826,16,32765
0.893086,0.00262779,-0.111309,15,32765
0.833577,-0.000433918,-0.103678,15,32765
0.8832,-0.00351566,-0.109749,15,32765
0.903039,-0.0067026,-0.112139,15,32765
0.903027,-0.00978103,-0.112009,15,32765
0.87323,-0.0124235,-0.108239,16,32765
0.863271,-0.0152456,-0.106913,15,32765
0.863234,-0.0181949,-0.106756,15,32765
0.823483,-0.0201904,-0.101827,13,32765
0.843254,-0.0235451,-0.10425,14,32765
0.863021,-0.0270456,-0.1066,16,32765
0.872851,-0.0303322,-0.107756,16,32765
0.862841,-0.0329015,-0.106407,16,32765
0.852806,-0.0354152,-0.105206,16,32765
0.862593,-0.0387568,-0.106446,16,32765
0.84265,-0.0407415,-0.10383,17,32765
0.852413,-0.0441542,-0.105082,17,32765
0.852263,-0.0470907,-0.105028,16,32765
0.862002,-0.0505891,-0.106267,17,32765
0.881652,-0.0547223,-0.108605,17,32765
0.851752,-0.0557678,-0.104925,17,32765
0.861467,-0.059315,-0.106096,17,32765
0.861273,-0.0622403,-0.105999,17,32765
0.821462,-0.0621774,-0.101163,17,32765
0.801455,-0.0634877,-0.0986907,15,32765
0.801233,-0.0662844,-0.0986532,15,32765
0.830673,-0.0716529,-0.102219,17,32765
0.820526,-0.0736372,-0.101065,17,32765
0.820281,-0.0764482,-0.100972,17,32765
0.829902,-0.0801856,-0.102145,17,32765
0.829626,-0.0830308,-0.10211,17,32765
0.829347,-0.0858469,-0.102045,18,32765
0.799444,-0.0855154,-0.0983659,17,32765
0.818879,-0.0904368,-0.100787,17,32765
0.81857,-0.093234,-0.10075,17,32765
0.808395,-0.094891,-0.0994687,18,32765
0.827776,-0.10004,-0.101874,17,32765
0.817584,-0.101642,-0.100622,18,32765
0.817252,-0.10444,-0.100456,18,32765
0.816894,-0.10723,-0.100427,18,32765
0.806691,-0.108695,-0.0991736,18,32765
0.816152,-0.112823,-0.100333,18,32765
0.815768,-0.115643,-0.100243,16,32765
0.726954,-0.105612,-0.0893549,12,32765
0,-0,-0,0,32765
0,-0,-0,0,32765
0,-0,-0,0,32765
0.78429,-0.124954,-0.096309,12,32765
0.823058,-0.134066,-0.101006,13,32765
0.783437,-0.130375,-0.0960668,13,32765
0.822145,-0.13971,-0.100792,14,32765
0.821681,-0.142502,-0.100663,16,32765
0.811429,-0.143531,-0.0994055,17,32765
0.810945,-0.146285,-0.0993406,15,32765
0.839767,-0.154404,-0.102718,14,32765
0.858769,-0.160934,-0.104957,14,32765
0.789957,-0.150845,-0.096504,13,32765
0.828443,-0.161108,-0.101129,13,32765
0.857126,-0.169697,-0.104588,13,32765
0.885776,-0.178466,-0.107938,13,32765
0.79764,-0.163558,-0.0970515,13,32765
0.729039,-0.152095,-0.0887105,12,32765
0.757675,-0.160794,-0.0920526,13,32765
0.795966,-0.171777,-0.0965924,14,32765
0.785701,-0.172339,-0.0952576,17,32765
0.814208,-0.181498,-0.0986086,17,32765
0.813617,-0.184236,-0.0984113,16,32765
0.813016,-0.186988,-0.0981829,14,32765
0.870428,-0.203304,-0.104985,12,32765
0.73447,-0.17414,-0.0884815,12,32765
0.830473,-0.199859,-0.0998546,11,32765
0.762274,-0.18617,-0.0915386,12,32765
0.790592,-0.195891,-0.0948206,11,32765
0.789962,-0.198535,-0.0945708,11,32765
0.90485,-0.230574,-0.108086,12,32765
1.04839,-0.270824,-0.125057,12,32765
0,-0,-0,0,32765
0,-0,-0,0,32765
1.05535,-0.283869,-0.125145,11,32765
1.0161,-0.276941,-0.12018,11,32765
0,-0,-0,0,32765
0,-0,-0,0,32765
0,-0,-0,0,32765
0,-0,-0,0,32765
0,-0,-0,0,32765
0,-0,-0,0,32765
0,-0,-0,0,32765
0,-0,-0,0,32765
0,-0,-0,0,32765
0,-0,-0,0,32765
0,-0,-0,0,32765
0,-0,-0,0,32765
0,-0,-0,0,32765
0,-0,-0,0,32765
0,-0,-0,0,32765
0,-0,-0,0,32765
0.951133,0.0190706,-0.128776,16,32765
0.911598,0.0151086,-0.123127,15,32765
0.941406,0.0123625,-0.126891,15,32765
0.911734,0.008859,-0.122732,16,32765
0.901888,0.00567196,-0.121102,16,32765
0.911819,0.00260665,-0.12239,16,32765
0.882119,-0.000541541,-0.118176,16,32765
0.921772,-0.00376429,-0.123382,16,32765
0.951498,-0.00716975,-0.127281,17,32765
0.901929,-0.00987972,-0.120522,17,32765
0.872168,-0.0125237,-0.116472,16,32765
0.901865,-0.0160552,-0.120342,16,32765
0.901826,-0.0191451,-0.120178,16,32765
0.891849,-0.0220106,-0.118834,16,32765
0.862047,-0.0242174,-0.114842,16,32765
0.881788,-0.0277933,-0.117377,15,32765
0.832164,-0.029077,-0.110716,14,32765
0.89151,-0.0341733,-0.118496,16,32765
0.871578,-0.0363778,-0.115885,16,32765
0.901155,-0.0406875,-0.119852,17,32765
0.901034,-0.0437712,-0.119672,17,32765
0.861275,-0.0448196,-0.114442,17,32765
0.890816,-0.0494432,-0.118331,17,32765
0.890639,-0.0525008,-0.11835,17,32765
0.880576,-0.0548925,-0.116929,17,32765
0.870495,-0.0572379,-0.115596,17,32765
0.880193,-0.0608585,-0.11686,17,32765
0.879994,-0.063856,-0.11676,17,32765
0.859995,-0.0653594,-0.114175,17,32765
0.859765,-0.068381,-0.114138,17,32765
0.849647,-0.0705692,-0.112786,17,32765
0.849405,-0.0735569,-0.112695,17,32765
0.888631,-0.0800599,-0.118005,15,32765
0.839011,-0.0784955,-0.111353,15,32765
0.868347,-0.0842212,-0.115238,17,32765
0.868057,-0.0872068,-0.115201,17,32765
0.848043,-0.0881127,-0.112516,17,32765
0.867455,-0.0931375,-0.115095,18,32765
0.847423,-0.0939369,-0.112471,17,32765
0.856952,-0.0979659,-0.113739,17,32765
0.846772,-0.0997606,-0.112361,17,32765
0.846427,-0.102668,-0.11234,18,32765
0.836238,-0.104338,-0.110992,17,32765
0.8654,-0.110993,-0.114734,17,32765
0.835529,-0.110071,-0.110793,17,32765
0.844979,-0.114262,-0.11205,17,32765
0.834767,-0.115807,-0.110696,17,32765
0.844188,-0.120097,-0.111904,17,32765
0.83396,-0.121586,-0.110581,17,32765
0.823753,-0.122971,-0.109132,18,32765
0.80373,-0.122801,-0.106479,17,32765
0.764125,-0.119469,-0.101193,14,32765
0.871412,-0.139319,-0.11546,11,32765
0,-0,-0,0,32765
0,-0,-0,0,32765
0.772218,-0.13168,-0.102173,12,32765
0.781551,-0.13601,-0.103344,14,32765
0.859205,-0.152505,-0.113615,12,32765
0.77087,-0.139534,-0.101933,14,32765
0.858189,-0.158332,-0.113327,17,32765
0.85766,-0.161276,-0.113177,16,32765
0.847375,-0.162362,-0.111779,15,32765
0.866304,-0.169045,-0.1142,14,32765
0.885194,-0.17585,-0.116653,14,32765
0.85546,-0.172944,-0.112598,14,32765
0.893747,-0.183887,-0.117479,14,32765
0.883411,-0.184925,-0.116133,13,32765
0.873097,-0.185915,-0.114619,13,32765
0.843394,-0.182627,-0.110606,13,32765
0.794356,-0.174825,-0.10409,13,32765
0.842178,-0.188365,-0.110253,13,32765
0.793198,-0.180217,-0.103724,15,32765
0.840941,-0.19406,-0.109811,17,32765
0.830643,-0.194662,-0.108347,17,32765
0.849312,-0.202044,-0.110667,15,32765
0.810084,-0.195605,-0.105373,13,32765
0.83835,-0.205435,-0.108929,12,32765
0.818425,-0.203465,-0.106223,11,32765
0.837012,-0.211062,-0.108457,12,32765
0.807509,-0.206456,-0.104427,12,32765
0.826061,-0.214103,-0.106695,12,32765
0,-0,-0,0,32765
0,-0,-0,0,32765
1.0156,-0.274087,-0.130485,11,32765
0.947722,-0.259163,-0.121481,12,32765
0.985152,-0.272933,-0.12603,12,32765
0.955611,-0.268192,-0.121989,12,32765
0,-0,-0,0,32765
0,-0,-0,0,32765
0.981613,-0.286085,-0.124466,11,32765
0.923576,-0.272482,-0.116884,11,32765
0,-0,-0,0,32765
0,-0,-0,0,32765
0,-0,-0,0,32765
0,-0,-0,0,32765
0,-0,-0,0,32765
0,-0,-0,0,32765
0,-0,-0,0,32765
0,-0,-0,0,32765
0,-0,-0,0,32765
0,-0,-0,0,32765
0.901976,0.0180357,-0.119223,15,32765
0.92179,0.0153403,-0.12234,14,32765
0.882125,0.0116777,-0.117554,15,32765
0.931667,0.00916728,-0.124548,16,32765
0.891987,0.00574778,-0.119695,16,32765
0.882047,0.00271201,-0.118682,15,32765
0.872105,-0.000238426,-0.117614,15,32765
0.872061,-0.00321953,-0.117893,16,32765
0.852191,-0.00600265,-0.115475,16,32765
0.862046,-0.00899916,-0.117029,16,32765
0.852073,-0.01179,-0.115903,16,32765
0.871818,-0.015058,-0.11877,15,32765
0.871732,-0.0181125,-0.118975,16,32765
0.822111,-0.0199576,-0.112408,15,32765
0.822007,-0.0228208,-0.11262,16,32765
0.831804,-0.025948,-0.114144,15,32765
0.841599,-0.02911,-0.115603,15,32765
0.851368,-0.0323594,-0.117157,13,32765
0.801757,-0.0331896,-0.110382,15,32765
0.851108,-0.0381436,-0.117303,16,32765
0.850954,-0.0410224,-0.117449,17,32765
0.831005,-0.0428545,-0.114869,16,32765
0.840745,-0.0461951,-0.11625,17,32765
0.830689,-0.0484387,-0.114934,17,32765
0.840399,-0.0518908,-0.116348,16,32765
0.830318,-0.0541384,-0.11507,16,32765
0.830119,-0.0569937,-0.115128,16,32765
0.829908,-0.0598632,-0.115195,17,32765
0.800063,-0.0604776,-0.11109,17,32765
0.82947,-0.0655767,-0.115233,17,32765
0.799632,-0.0659601,-0.111074,17,32765
0.838882,-0.0721054,-0.116524,17,32765
0.799153,-0.0714477,-0.111132,17,32765
0.818636,-0.0759995,-0.113841,17,32765
0.769059,-0.0740821,-0.10705,15,32765
0.818083,-0.0816584,-0.113895,14,32765
0.798104,-0.0824695,-0.111039,16,32765
0.807655,-0.0863049,-0.112453,17,32765
0.827067,-0.091259,-0.115028,17,32765
0.826744,-0.0941029,-0.115064,18,32765
0.806756,-0.0946105,-0.11222,17,32765
0.816263,-0.0985361,-0.113598,17,32765
0.806101,-0.100099,-0.112165,18,32765
0.805773,-0.102843,-0.112041,17,32765
0.775956,-0.101774,-0.107861,17,32765
0.814885,-0.109745,-0.113219,18,32765
0.814519,-0.112521,-0.113131,17,32765
0.794528,-0.112542,-0.110271,18,32765
0.794161,-0.115226,-0.110145,17,32765
0.783969,-0.116538,-0.108681,17,32765
0.803158,-0.122263,-0.111304,17,32765
0.773385,-0.120498,-0.107033,17,32765
0.782757,-0.124757,-0.108295,18,32765
0.772562,-0.125816,-0.106858,16,32765
0.840568,-0.139817,-0.116176,12,32765
0.664267,-0.112834,-0.0917475,11,32765
0.644362,-0.111754,-0.088929,11,32765
0.839111,-0.14859,-0.11582,11,32765
0.750858,-0.135638,-0.103509,13,32765
0.760149,-0.140009,-0.104743,13,32765
0.759697,-0.142566,-0.104571,12,32765
0.78843,-0.15073,-0.108435,15,32765
0.797655,-0.155304,-0.10967,17,32765
0.787414,-0.156119,-0.108195,17,32765
0.767454,-0.154922,-0.105421,15,32765
0.834894,-0.171524,-0.114594,15,32765
0.834319,-0.174385,-0.114466,14,32765
0.82404,-0.17519,-0.112992,15,32765
0.804079,-0.173814,-0.110206,14,32765
0.880959,-0.193559,-0.120605,13,32765
0.870634,-0.194367,-0.119236,13,32765
0.773323,-0.175375,-0.105903,13,32765
0.801719,-0.184679,-0.109731,13,32765
0.772156,-0.180604,-0.10563,15,32765
0.7812,-0.185535,-0.106786,16,32765
0.770935,-0.185848,-0.105447,17,32765
0.779949,-0.190796,-0.106657,16,32765
0.788943,-0.19583,-0.107796,15,32765
0.778688,-0.196029,-0.106385,12,32765
0.77804,-0.198636,-0.106293,11,32765
0.777382,-0.201223,-0.106234,11,32765
0,-0,-0,0,32765
0,-0,-0,0,32765
0,-0,-0,0,32765
0.774638,-0.211676,-0.105968,11,32765
0,-0,-0,0,32765
0,-0,-0,0,32765
0,-0,-0,0,32765
0.886139,-0.254789,-0.121408,11,32765
0.951936,-0.277157,-0.130388,11,32765
0.99856,-0.294325,-0.136935,12,32765
0.997569,-0.297667,-0.136932,11,32765
0,-0,-0,0,32765
0,-0,-0,0,32765
0,-0,-0,0,32765
0,-0,-0,0,32765
0,-0,-0,0,32765
0.887667,-0.283886,-0.122701,13,32765
0.87731,-0.283721,-0.121366,13,32765
0.932901,-0.305071,-0.129335,13,32765
1.0731,-0.354693,-0.149167,12,32765
0.930509,0.0185694,-0.131939,16,32765
0.910697,0.0151105,-0.129623,16,32765
0.890876,0.0117403,-0.127285,16,32765
0.94035,0.00918699,-0.13475,15,32765
0.910614,0.00579488,-0.130951,15,32765
0.920479,0.00274721,-0.132705,17,32765
0.851162,-0.000317887,-0.122975,16,32765
0.87091,-0.00331131,-0.126114,17,32765
0.880751,-0.00630974,-0.127816,17,32765
0.880693,-0.00930862,-0.128033,16,32765
0.860834,-0.0120321,-0.125377,16,32765
0.880551,-0.0153415,-0.128433,16,32765
0.880461,-0.0184357,-0.128639,17,32765
0.890253,-0.0217645,-0.130293,16,32765
0.900028,-0.0251506,-0.131973,16,32765
0.89991,-0.0282456,-0.132154,17,32765
0.860242,-0.0299289,-0.126447,17,32765
0.869991,-0.0332522,-0.128098,17,32765
0.879753,-0.0366142,-0.129594,17,32765
0.869723,-0.0391804,-0.128247,16,32765
0.859681,-0.041652,-0.126937,14,32765
0.879272,-0.0455663,-0.130015,16,32765
0.859356,-0.0474438,-0.127107,17,32765
0.869059,-0.0509136,-0.128622,17,32765
0.878746,-0.0545077,-0.13013,17,32765
0.839054,-0.0549546,-0.124374,17,32765
0.848719,-0.058529,-0.125896,17,32765
0.868234,-0.062901,-0.128894,17,32765
0.858146,-0.0651471,-0.127439,17,32765
0.828329,-0.0657643,-0.123072,17,32765
0.837964,-0.0694117,-0.124491,17,32765
0.857436,-0.0740055,-0.127384,17,32765
0.857162,-0.0769483,-0.127482,17,32765
0.827352,-0.0771205,-0.12305,17,32765
0.846761,-0.0818952,-0.126053,17,32765
0.836632,-0.083843,-0.12457,18,32765
0.836351,-0.0867634,-0.124452,17,32765
0.816365,-0.087578,-0.121568,15,32765
0.796417,-0.0882194,-0.118476,14,32765
0.825589,-0.094335,-0.1229,17,32765
0.825277,-0.0971545,-0.122793,17,32765
0.844582,-0.102344,-0.125726,17,32765
0.844237,-0.105233,-0.125659,18,32765
0.824267,-0.105601,-0.122609,18,32765
0.833715,-0.10976,-0.123981,18,32765
0.833346,-0.112651,-0.123874,18,32765
0.823169,-0.11414,-0.122328,17,32765
0.822792,-0.116978,-0.122189,18,32765
0.832201,-0.121191,-0.123511,18,32765
0.831788,-0.124101,-0.1234,18,32765
0.831362,-0.12702,-0.123303,18,32765
0.840718,-0.131467,-0.124536,18,32765
0.840268,-0.13441,-0.124436,18,32765
0.810523,-0.132477,-0.120007,17,32765
0.81985,-0.136863,-0.121305,18,32765
0.819394,-0.139686,-0.121166,18,32765
0.799427,-0.139146,-0.118132,17,32765
0.798936,-0.141983,-0.118077,14,32765
0.749781,-0.135927,-0.110687,11,32765
0,-0,-0,0,32765
0.641896,-0.120888,-0.0946349,11,32765
0.787294,-0.151047,-0.115984,13,32765
0.78679,-0.15373,-0.115882,13,32765
0.805689,-0.160307,-0.118602,13,32765
0.795443,-0.161138,-0.117066,14,32765
0.823988,-0.169879,-0.121182,17,32765
0.842792,-0.176775,-0.123903,18,32765
0.832519,-0.177614,-0.122334,17,32765
0.822252,-0.178365,-0.120781,17,32765
0.831337,-0.183295,-0.12199,17,32765
0.869357,-0.19476,-0.12762,17,32765
0.849404,-0.193301,-0.124691,15,32765
0.916277,-0.211803,-0.134445,13,32765
0.819204,-0.192275,-0.120149,13,32765
0.847455,-0.20197,-0.124211,13,32765
0.856392,-0.207167,-0.125598,13,32765
0.798018,-0.195894,-0.117019,13,32765
0.806979,-0.201002,-0.118247,14,32765
0.80632,-0.20369,-0.118146,15,32765
0.796054,-0.20394,-0.116645,15,32765
0.776213,-0.201617,-0.113775,14,32765
0,-0,-0,0,32765
0,-0,-0,0,32765
0,-0,-0,0,32765
0.868946,-0.238268,-0.127519,11,32765
0,-0,-0,0,32765
0,-0,-0,0,32765
0.752296,-0.214363,-0.110452,11,32765
0.732552,-0.211358,-0.107684,11,32765
0,-0,-0,0,32765
0.930539,-0.275226,-0.136922,11,32765
0.939096,-0.28119,-0.138315,11,32765
0.966606,-0.292951,-0.142311,12,32765
0.927773,-0.284484,-0.136768,12,32765
1.00251,-0.310964,-0.147931,12,32765
0.973146,-0.305299,-0.143807,12,32765
0.991033,-0.31444,-0.146563,11,32765
0,-0,-0,0,32765
0.979501,-0.31787,-0.145386,12,32765
0.99725,-0.327249,-0.14833,11,32765
0,-0,-0,0,32765
0,0,-0,0,32765
0.859554,0.0149907,-0.133576,15,32765
0.899117,0.0126906,-0.13974,15,32765
0.899149,0.00960842,-0.139782,15,32765
0.810243,0.00584008,-0.125983,15,32765
0.820127,0.00310063,-0.127601,15,32765
0.82014,0.000276354,-0.127552,15,32765
0.770739,-0.00237118,-0.119818,14,32765
0.810247,-0.0052531,-0.125984,15,32765
0.829997,-0.00822953,-0.128985,16,32765
0.82997,-0.0110796,-0.128944,16,32765
0.829929,-0.0139343,-0.128935,16,32765
0.829889,-0.0168039,-0.128848,17,32765
0.810075,-0.0192166,-0.125736,16,32765
0.819895,-0.0222882,-0.127185,17,32765
0.829708,-0.0253848,-0.128608,16,32765
0.849373,-0.0288786,-0.13165,16,32765
0.819655,-0.0306841,-0.12698,17,32765
0.809676,-0.0330912,-0.125418,17,32765
0.849056,-0.0376141,-0.131491,16,32765
0.819323,-0.0391322,-0.126801,16,32765
0.819201,-0.0419633,-0.126682,17,32765
0.799325,-0.043713,-0.123569,15,32765
0.789314,-0.0458791,-0.121979,15,32765
0.799019,-0.0491882,-0.123486,16,32765
0.79886,-0.0518996,-0.123407,17,32765
0.818423,-0.0559523,-0.126304,17,32765
0.818251,-0.0587389,-0.126156,17,32765
0.808178,-0.0607841,-0.124715,17,32765
0.827684,-0.0651754,-0.127638,17,32765
0.827458,-0.0680866,-0.127582,17,32765
0.837079,-0.0718605,-0.128973,18,32765
0.817141,-0.0730684,-0.125864,17,32765
0.816889,-0.0759228,-0.12581,18,32765
0.806785,-0.0777921,-0.124282,17,32765
0.806526,-0.0805523,-0.124203,17,32765
0.816091,-0.0843347,-0.125632,17,32765
0.805976,-0.0860762,-0.124068,17,32765
0.805685,-0.0888574,-0.124003,18,32765
0.766093,-0.0871841,-0.1179,14,32765
0.775608,-0.0909906,-0.119383,13,32765
0.794924,-0.0960581,-0.12235,17,32765
0.784786,-0.0976079,-0.120762,18,32765
0.794256,-0.10159,-0.122215,17,32765
0.784106,-0.103065,-0.120648,18,32765
0.803337,-0.108401,-0.123692,18,32765
0.783385,-0.108456,-0.120607,18,32765
0.78301,-0.11115,-0.120587,18,32765
0.782634,-0.113823,-0.120531,18,32765
0.7627,-0.113613,-0.117394,17,32765
0.781867,-0.119208,-0.120307,18,32765
0.781449,-0.121919,-0.120302,18,32765
0.77126,-0.12311,-0.118748,17,32765
0.770836,-0.125824,-0.118663,17,32765
0.789904,-0.131772,-0.121602,18,32765
0.76997,-0.131192,-0.118467,18,32765
0.789005,-0.137234,-0.121397,18,32765
0.76907,-0.13648,-0.118338,18,32765
0.74916,-0.135609,-0.115192,18,32765
0.738972,-0.136372,-0.113679,16,32765
0.699647,-0.131557,-0.107643,12,32765
0.553554,-0.106029,-0.0850602,11,32765
0.65995,-0.128735,-0.101456,11,32765
0.746805,-0.148329,-0.114805,12,32765
0.707556,-0.143064,-0.108614,13,32765
0.745809,-0.153475,-0.11452,12,32765
0.784006,-0.164139,-0.120389,12,32765
0.764121,-0.162703,-0.117245,15,32765
0.773244,-0.167416,-0.118599,16,32765
0.792012,-0.174292,-0.121403,18,32765
0.791448,-0.176975,-0.121202,17,32765
0.790863,-0.179667,-0.12106,17,32765
0.780639,-0.180113,-0.119423,16,32765
0.828194,-0.194074,-0.126611,14,32765
0.808315,-0.192284,-0.123504,14,32765
0.846145,-0.204311,-0.12921,13,32765
0.826263,-0.202472,-0.126072,13,32765
0.739206,-0.183772,-0.112707,13,32765
0.805768,-0.203212,-0.122648,13,32765
0.766764,-0.19612,-0.116658,14,32765
0.785289,-0.203659,-0.119347,15,32765
0.746374,-0.196207,-0.113266,15,32765
0.784004,-0.208887,-0.118759,13,32765
0.706906,-0.19088,-0.106997,12,32765
0.830377,-0.227175,-0.125563,12,32765
0.810587,-0.224649,-0.122397,12,32765
0,-0,-0,0,32765
0,-0,-0,0,32765
0,-0,-0,0,32765
0,-0,-0,0,32765
0,-0,-0,0,32765
0,-0,-0,0,32765
1.09925,-0.332184,-0.164015,11,32765
0.918354,-0.280785,-0.136695,12,32765
0.898589,-0.277897,-0.133459,12,32765
0.878861,-0.274885,-0.130161,12,32765
0.972447,-0.307602,-0.143626,12,32765
0.943241,-0.301701,-0.13883,12,32765
0.998867,-0.323043,-0.146655,12,32765
0,-0,-0,0,32765
0,-0,-0,0,32765
0,0,-0,0,32765
0.947042,0.0164583,-0.156337,15,32765
0.89776,0.0126074,-0.148216,15,32765
0.868194,0.00920666,-0.14337,15,32765
0.868216,0.00617788,-0.143397,16,32765
0.878084,0.00322967,-0.145115,16,32765
0.868232,0.000194548,-0.143432,16,32765
0.818905,-0.00262017,-0.135229,16,32765
0.878085,-0.00581003,-0.145028,16,32765
0.85834,-0.00863385,-0.141695,16,32765
0.88791,-0.0119897,-0.146536,16,32765
0.858269,-0.0145511,-0.141642,17,32765
0.848364,-0.0173261,-0.139926,17,32765
0.877898,-0.020988,-0.144759,17,32765
0.877835,-0.0240348,-0.144668,17,32765
0.848179,-0.0261243,-0.13968,17,32765
0.867811,-0.0296929,-0.142907,16,32765
0.867717,-0.0326796,-0.142825,17,32765
0.867605,-0.035664,-0.14279,17,32765
0.84777,-0.0377665,-0.1395,17,32765
0.847651,-0.0407033,-0.139393,17,32765
0.857381,-0.0441485,-0.140889,17,32765
0.837527,-0.0460351,-0.137587,17,32765
0.837375,-0.0489144,-0.137518,17,32765
0.837205,-0.0517893,-0.137499,17,32765
0.856732,-0.0559244,-0.140649,14,32765
0.836872,-0.057481,-0.137262,16,32765
0.836696,-0.060339,-0.13711,17,32765
0.826631,-0.0624534,-0.135578,17,32765
0.836263,-0.0661446,-0.137072,17,32765
0.836034,-0.0690948,-0.137015,17,32765
0.865303,-0.074606,-0.141718,18,32765
0.855215,-0.0768011,-0.140029,17,32765
0.825469,-0.0770459,-0.135146,18,32765
0.8252,-0.0799021,-0.135133,17,32765
0.834755,-0.0837187,-0.13666,17,32765
0.834476,-0.0865905,-0.136571,18,32765
0.85381,-0.0915579,-0.139732,18,32765
0.814258,-0.0901678,-0.133241,18,32765
0.843369,-0.0963653,-0.137997,18,32765
0.823428,-0.0969874,-0.134757,17,32765
0.823095,-0.0998579,-0.134699,17,32765
0.783575,-0.0978426,-0.128207,14,32765
0.763657,-0.0980601,-0.124947,13,32765
0.802464,-0.105891,-0.131295,16,32765
0.821653,-0.111304,-0.134525,18,32765
0.811499,-0.112783,-0.132852,18,32765
0.840425,-0.11976,-0.137633,18,32765
0.810717,-0.11836,-0.132773,17,32765
0.820087,-0.122628,-0.134239,18,32765
0.809919,-0.123955,-0.13254,18,32765
0.809483,-0.126772,-0.132534,18,32765
0.80904,-0.129628,-0.132482,18,32765
0.808592,-0.132484,-0.132391,18,32765
0.81787,-0.136949,-0.133919,18,32765
0.80768,-0.138132,-0.132184,18,32765
0.807209,-0.140924,-0.132113,18,32765
0.797011,-0.141965,-0.130457,18,32765
0.786828,-0.142956,-0.128708,18,32765
0.786337,-0.14565,-0.128689,18,32765
0.795551,-0.150142,-0.130217,18,32765
0.804768,-0.154715,-0.131576,18,32765
0.765481,-0.14987,-0.125213,17,32765
0.774659,-0.154425,-0.126715,14,32765
0.754807,-0.153177,-0.123304,11,32765
0.967026,-0.199724,-0.158023,11,32765
0.724762,-0.152289,-0.118442,12,32765
0.811172,-0.17335,-0.132473,14,32765
0.820243,-0.178238,-0.133911,13,32765
0.838945,-0.185291,-0.136891,13,32765
0.7998,-0.179491,-0.130393,15,32765
0.799206,-0.18222,-0.130249,17,32765
0.837099,-0.193837,-0.136353,18,32765
0.817228,-0.192195,-0.133036,18,32765
0.826208,-0.197249,-0.134434,17,32765
0.84476,-0.204711,-0.137385,16,32765
0.853684,-0.209944,-0.138737,14,32765
0.824249,-0.205651,-0.133869,13,32765
0.785289,-0.198758,-0.127344,13,32765
0.851619,-0.218605,-0.138049,13,32765
0.812675,-0.211516,-0.131608,13,32765
0.802458,-0.211705,-0.12978,13,32765
0.773161,-0.206735,-0.124833,13,32765
0.791566,-0.214504,-0.127718,14,32765
0.790882,-0.217142,-0.127497,14,32765
0.818758,-0.227724,-0.131823,12,32765
0,-0,-0,0,32765
0,-0,-0,0,32765
0,-0,-0,0,32765
0,-0,-0,0,32765
0,-0,-0,11,32765
0,-0,-0,0,32765
0.851433,-0.258209,-0.135608,11,32765
0,-0,-0,0,32765
1.06705,-0.331165,-0.169235,11,32765
1.04719,-0.328696,-0.165656,11,32765
0,-0,-0,0,32765
0,-0,-0,0,32765
1.03481,-0.335851,-0.162399,12,32765
0,-0,-0,0,32765
0,-0,-0,0,32765
7.40805,2.40535,1.43578,18,32765
7.33156,2.35502,1.41811,20,32765
7.40492,2.35278,1.42882,18,32765
7.37517,2.31692,1.42066,17,32765
7.31753,2.27212,1.40548,20,32765
7.42858,2.28016,1.42377,17,32765
7.41771,2.25009,1.41741,17,32765
7.33128,2.19749,1.39706,17,32765
7.31076,2.16482,1.38884,21,32765
7.31826,2.14079,1.38658,22,32765
7.32551,2.11731,1.38432,22,32765
7.33258,2.09399,1.38237,21,32765
7.3587,2.07597,1.38307,17,32765
7.35631,2.04949,1.3791,17,32765
7.36361,2.02544,1.37567,16,32765
7.31356,1.9861,1.36282,16,32765
7.30145,1.95721,1.35666,16,32765
7.27007,1.92356,1.34745,16,32765
7.24825,1.89249,1.3392,16,32765
7.19762,1.85419,1.32618,16,32765
7.20399,1.83061,1.32436,16,32765
7.17211,1.7975,1.31528,16,32765
7.14019,1.76466,1.30556,16,32765
7.13652,1.73934,1.30246,15,32765
7.14258,1.71603,1.30014,16,32765
7.14849,1.69276,1.29817,16,32765
7.09699,1.65565,1.28515,16,32765
7.10275,1.63207,1.28348,16,32765
7.08906,1.60439,1.27888,17,32765
7.09458,1.58097,1.27745,17,32765
7.04237,1.54504,1.26502,17,32765
7.01885,1.5157,1.25799,16,32765
7.04323,1.49694,1.26021,17,32765
6.99057,1.46195,1.24784,17,32765
7.03417,1.447,1.25331,17,32765
7.00039,1.41634,1.24538,17,32765
6.98588,1.38951,1.24083,17,32765
6.97148,1.36268,1.23519,17,32765
6.96633,1.33787,1.233,16,32765
6.98065,1.3168,1.23318,17,32765
3.68145,0.68204,0.649442,13,32765
2.61745,0.475869,0.460964,15,32765
2.60945,0.465338,0.458606,20,32765
2.61106,0.456601,0.458238,20,32765
2.64177,0.452949,0.462938,16,32765
2.64327,0.444431,0.462593,13,32765
2.48919,0.410338,0.434937,12,32765
2.50027,0.403798,0.436446,14,32765
2.38486,0.377054,0.415673,14,32765
2.41538,0.373548,0.420468,14,32765
2.39716,0.362486,0.41694,14,32765
2.3399,0.345729,0.406643,13,32765
2.32158,0.335092,0.40296,14,32765
2.2935,0.323215,0.397367,14,32765
2.31415,0.318234,0.400443,14,32765
2.24679,0.301512,0.388624,14,32765
2.19897,0.287714,0.379824,14,32765
2.17062,0.276726,0.374493,13,32765
2.17158,0.269625,0.374112,14,32765
2.13334,0.257696,0.367209,14,32765
2.11462,0.24845,0.363696,15,32765
2.07634,0.236941,0.356486,14,32765
2.09675,0.232293,0.359544,14,32765
2.01912,0.216929,0.345962,14,32765
2.11794,0.220441,0.362375,12,32765
0,0,0,0,32765
0,0,0,0,32765
0,0,0,0,32765
0,0,0,0,32765
0,0,0,0,32765
0,0,0,0,32765
0,0,0,0,32765
0,0,0,12,32765
0,0,0,12,32765
0,0,0,0,32765
0,0,0,12,32765
0,0,0,0,32765
0,0,0,0,32765
0,0,0,0,32765
0,0,0,0,32765
0,0,0,0,32765
0,0,0,11,32765
0,0,0,0,32765
10.4068,0.43072,1.73984,12,32765
10.369,0.395387,1.73155,12,32765
10.41,0.362991,1.7358,12,32765
10.3721,0.32757,1.72675,13,32765
10.4228,0.295275,1.73264,14,32765
10.4143,0.261122,1.72856,12,32765
10.3661,0.226251,1.71811,16,32765
0,0,0,0,32765
1.46991,0.0226626,0.242771,13,32765
1.48975,0.0181576,0.245775,15,32765
1.47016,0.0131415,0.241989,16,32765
1.45053,0.00831537,0.23829,15,32765
1.47035,0.00374076,0.241132,16,32765
1.4211,-0.000887317,0.232531,15,32765
1.44092,-0.00545657,0.235193,15,32765
1.41136,-0.0098148,0.229943,16,32765
1.36208,-0.0138159,0.221245,16,32765
1.42134,-0.0189143,0.230323,16,32765
7.13875,2.32051,1.31068,21,32765
7.16501,2.30408,1.3128,23,32765
7.14442,2.27253,1.30574,22,32765
7.16134,2.25223,1.30656,24,32765
7.13157,2.21682,1.29723,20,32765
7.12016,2.18788,1.29232,20,32765
7.06179,2.14445,1.27773,20,32765
7.06921,2.12123,1.27545,19,32765
7.02946,2.08376,1.26421,18,32765
6.98938,2.04677,1.25356,18,32765
6.97737,2.01884,1.24801,18,32765
6.94619,1.98575,1.23939,18,32765
6.93401,1.95822,1.2333,18,32765
6.94069,1.93572,1.23123,19,32765
6.90954,1.90253,1.22128,19,32765
6.92556,1.88269,1.22086,19,32765
6.894,1.8499,1.21168,18,32765
6.90031,1.8276,1.20964,18,32765
6.83039,1.78521,1.19349,18,32765
6.82703,1.7605,1.18948,19,32765
6.84262,1.74053,1.18942,19,32765
6.78166,1.70135,1.17584,18,32765
6.76848,1.67446,1.16995,18,32765
6.73574,1.64328,1.16205,19,32765
6.77022,1.62816,1.16481,19,32765
6.72783,1.59469,1.15471,19,32765
6.7335,1.57236,1.15226,19,32765
6.73897,1.54996,1.15067,18,32765
6.71535,1.52124,1.14468,19,32765
6.7302,1.50117,1.14496,19,32765
6.71616,1.47483,1.13973,19,32765
6.70198,1.4486,1.1347,20,32765
6.70686,1.42674,1.13353,19,32765
6.65386,1.39278,1.12182,19,32765
6.65861,1.37096,1.12047,19,32765
6.64386,1.34538,1.11622,19,32765
6.60972,1.31583,1.10866,18,32765
6.62406,1.29587,1.10819,19,32765
6.60899,1.27031,1.1045,19,32765
6.61338,1.24855,1.10305,19,32765
3.80364,0.705252,0.633491,14,32765
3.57307,0.650125,0.594048,13,32765
2.76898,0.494174,0.459374,14,32765
2.54709,0.445758,0.421942,19,32765
2.5778,0.442316,0.426373,14,32765
2.50141,0.420889,0.413174,13,32765
2.43465,0.401637,0.401486,14,32765
2.36777,0.382668,0.390064,13,32765
2.30084,0.364021,0.378447,15,32765
2.26308,0.350228,0.371757,15,32765
2.15691,0.326369,0.354006,15,32765
2.24591,0.33205,0.368301,15,32765
2.14935,0.310422,0.352015,15,32765
2.16023,0.304613,0.35313,14,32765
2.12217,0.291997,0.346459,15,32765
2.09376,0.281127,0.341677,15,32765
2.04579,0.267809,0.333366,15,32765
2.10546,0.268549,0.342677,15,32765
2.0574,0.255565,0.334348,14,32765
2.10727,0.254655,0.342148,13,32765
1.97084,0.231649,0.319734,15,32765
1.92263,0.21948,0.311341,14,32765
1.99208,0.220769,0.322171,15,32765
1.9241,0.20678,0.310926,14,32765
1.94447,0.202437,0.313749,15,32765
0,0,0,0,32765
0,0,0,0,32765
0,0,0,0,32765
0,0,0,0,32765
0,0,0,0,32765
9.91899,0.834151,1.58879,11,32765
0,0,0,0,32765
0,0,0,0,32765
0,0,0,11,32765
0,0,0,0,32765
0,0,0,0,32765
0,0,0,0,32765
0,0,0,11,32765
0,0,0,0,32765
0,0,0,0,32765
0,0,0,0,32765
10.3697,0.496119,1.63834,11,32765
10.2532,0.45708,1.61726,12,32765
10.3833,0.429037,1.63529,13,32765
10.3849,0.395232,1.63359,14,32765
10.4161,0.362389,1.63592,15,32765
10.3979,0.32752,1.63034,16,32765
10.3992,0.293693,1.62802,16,32765
10.3906,0.259565,1.62404,13,32765
10.3325,0.224509,1.61252,16,32765
1.3633,0.0252827,0.212514,13,32765
1.37334,0.0210266,0.213532,15,32765
1.36356,0.0164667,0.211762,16,32765
1.37356,0.0121177,0.212801,15,32765
1.37366,0.00770773,0.212374,16,32765
1.35397,0.00327365,0.20895,16,32765
1.34416,-0.00101534,0.206943,16,32765
1.32447,-0.00519521,0.203378,16,32765
1.33439,-0.00946686,0.204501,16,32765
1.30479,-0.0134241,0.199327,16,32765
1.30482,-0.0175591,0.19883,17,32765
6.79514,2.21332,1.15968,16,32765
6.80176,2.19204,1.1613,16,32765
6.81808,2.1734,1.16302,16,32765
6.82485,2.1517,1.16367,16,32765
6.76577,2.1088,1.15314,16,32765
6.77258,2.08675,1.15325,15,32765
6.79818,2.07075,1.1562,16,32765
6.76694,2.03776,1.14962,16,32765
6.77344,2.01623,1.14933,17,32765
6.77996,1.9944,1.14896,17,32765
6.75788,1.96429,1.14435,16,32765
6.75484,1.93948,1.14236,16,32765
6.75172,1.91469,1.1403,16,32765
6.75811,1.89236,1.13975,16,32765
6.7454,1.86499,1.13554,16,32765
6.6944,1.82737,1.12548,16,32765
6.70037,1.80574,1.12482,16,32765
6.74456,1.79401,1.13021,16,32765
6.69325,1.75689,1.11974,16,32765
6.69917,1.73475,1.11889,17,32765
6.65714,1.70068,1.10985,16,32765
6.64362,1.6741,1.10603,16,32765
6.64925,1.65222,1.10508,16,32765
6.65475,1.63059,1.10414,16,32765
6.66021,1.60869,1.10331,16,32765
6.60806,1.57281,1.09279,16,32765
6.61332,1.55099,1.09218,16,32765
6.59939,1.52436,1.08811,16,32765
6.59499,1.50046,1.08498,16,32765
6.60002,1.47898,1.08391,16,32765
6.58575,1.45332,1.0792,16,32765
6.57148,1.42725,1.07456,17,32765
6.55695,1.40124,1.07099,17,32765
6.59074,1.38542,1.0748,18,32765
6.58604,1.36133,1.07094,17,32765
6.60984,1.34394,1.07365,18,32765
6.49813,1.29926,1.05371,17,32765
6.60924,1.29886,1.06929,17,32765
6.61357,1.27704,1.06875,17,32765
6.61807,1.25488,1.06717,17,32765
3.7191,0.692246,0.598345,13,32765
3.71173,0.678102,0.596353,14,32765
2.58621,0.463647,0.414888,18,32765
2.61702,0.460182,0.418978,18,32765
2.66731,0.459865,0.426131,13,32765
2.45459,0.414833,0.391546,13,32765
2.41707,0.40029,0.384633,13,32765
2.38917,0.387632,0.379614,12,32765
2.39051,0.37984,0.379083,13,32765
2.28442,0.355274,0.361683,14,32765
2.3052,0.350635,0.364274,14,32765
2.24778,0.334216,0.354634,14,32765
2.22937,0.323791,0.351402,14,32765
2.22076,0.3149,0.349233,14,32765
2.14352,0.296577,0.336849,14,32765
2.14458,0.289492,0.336288,14,32765
2.14559,0.28241,0.335853,15,32765
2.1171,0.271729,0.331106,14,32765
2.10819,0.2636,0.329472,14,32765
2.01105,0.244762,0.313456,14,32765
2.0511,0.242933,0.319499,12,32765
2.08142,0.239482,0.32365,14,32765
1.94469,0.217326,0.302241,14,32765
1.92578,0.208791,0.298985,14,32765
1.92654,0.202408,0.298481,14,32765
1.92719,0.19613,0.298432,14,32765
1.90821,0.187835,0.295026,15,32765
1.93835,0.184367,0.299522,13,32765
0,0,0,0,32765
0,0,0,0,32765
0,0,0,0,32765
9.96953,0.8161,1.53518,11,32765
0,0,0,0,32765
0,0,0,0,32765
0,0,0,0,32765
0,0,0,0,32765
0,0,0,0,32765
0,0,0,0,32765
0,0,0,0,32765
0,0,0,0,32765
0,0,0,0,32765
10.3172,0.507219,1.58147,12,32765
10.4273,0.478767,1.59898,12,32765
10.3893,0.442884,1.5928,12,32765
10.4301,0.410463,1.59936,13,32765
10.4412,0.377267,1.6012,14,32765
10.4817,0.34446,1.60838,14,32765
10.4827,0.310412,1.60908,14,32765
10.3749,0.273035,1.5929,12,32765
10.425,0.239989,1.60116,14,32765
10.5639,0.208978,1.62353,12,32765
0,0,0,0,32765
1.45277,0.0195091,0.223558,15,32765
1.46267,0.0149725,0.225342,16,32765
1.43302,0.010011,0.221018,15,32765
1.45277,0.0053662,0.224369,16,32765
1.4033,0.000540811,0.217156,16,32765
1.42304,-0.004089,0.220327,16,32765
1.41306,-0.00860443,0.2193,15,32765
1.38334,-0.0129285,0.21492,16,32765
1.36344,-0.0171125,0.21248,16,32765
6.44725,2.10271,1.03494,18,32765
6.46298,2.08553,1.03798,19,32765
6.46957,2.06494,1.03809,19,32765
6.46659,2.04134,1.0372,19,32765
6.44483,2.0113,1.03333,18,32765
6.46079,1.99317,1.03495,19,32765
6.43884,1.96374,1.03016,19,32765
6.45454,1.9461,1.03152,19,32765
6.42286,1.91423,1.0252,19,32765
6.42906,1.89349,1.02484,19,32765
6.41612,1.86722,1.02201,19,32765
6.41275,1.84349,1.02013,18,32765
6.38079,1.81168,1.01365,19,32765
6.40587,1.79588,1.01616,19,32765
6.38329,1.76698,1.01068,18,32765
6.39863,1.7487,1.01175,19,32765
6.40436,1.728,1.01112,19,32765
6.39102,1.70196,1.00715,19,32765
6.37757,1.67597,1.00329,19,32765
6.36407,1.64988,0.999484,19,32765
6.38875,1.63398,1.00147,19,32765
6.35581,1.6034,0.994862,19,32765
6.3612,1.58243,0.993945,19,32765
6.38567,1.56641,0.996042,19,32765
6.32365,1.5291,0.984768,19,32765
6.30961,1.50344,0.980839,19,32765
6.31464,1.48256,0.980253,18,32765
6.27155,1.45021,0.971934,19,32765
6.2958,1.43394,0.973441,19,32765
6.29096,1.41123,0.970937,20,32765
6.27642,1.38653,0.966481,20,32765
6.28122,1.36565,0.965062,20,32765
6.26645,1.34056,0.961702,20,32765
6.28072,1.32161,0.962301,21,32765
6.24671,1.29251,0.95421,21,32765
6.25093,1.27225,0.953795,20,32765
6.1873,1.23835,0.94242,21,32765
6.24011,1.22753,0.948203,22,32765
6.2345,1.20502,0.946219,21,32765
6.22902,1.18225,0.943256,22,32765
6.20402,1.15588,0.937241,18,32765
3.70725,0.677924,0.55927,18,32765
2.71645,0.487449,0.409152,13,32765
2.58175,0.454397,0.388039,14,32765
2.48586,0.42897,0.372805,12,32765
2.45806,0.415789,0.368048,13,32765
2.32288,0.385029,0.34693,14,32765
2.29489,0.372657,0.342205,13,32765
2.25709,0.358944,0.335879,14,32765
2.11167,0.328681,0.313717,14,32765
2.11282,0.321634,0.313258,16,32765
2.13351,0.317478,0.315799,15,32765
2.07584,0.301728,0.306969,15,32765
2.01816,0.286388,0.297711,16,32765
2.01912,0.27957,0.297639,15,32765
2.03973,0.275535,0.299995,15,32765
2.0505,0.270081,0.301021,16,32765
1.94341,0.249603,0.285044,15,32765
1.92459,0.240798,0.282073,15,32765
1.87635,0.228509,0.274231,15,32765
1.89674,0.224784,0.277035,16,32765
1.9172,0.220712,0.279505,14,32765
1.94742,0.217747,0.283769,14,32765
1.84977,0.20065,0.269242,15,32765
1.79144,0.188302,0.26018,16,32765
1.8019,0.183457,0.261564,16,32765
1.81239,0.178472,0.262651,15,32765
1.78342,0.169689,0.258307,16,32765
1.75442,0.161073,0.253917,15,32765
0,0,0,0,32765
0,0,0,0,32765
0,0,0,0,32765
10.0751,0.791442,1.45257,11,32765
10.0185,0.754524,1.44339,12,32765
0,0,0,0,32765
0,0,0,0,32765
0,0,0,0,32765
0,0,0,0,32765
0,0,0,0,32765
10.259,0.571052,1.47323,12,32765
10.2706,0.538484,1.47552,13,32765
10.3415,0.507988,1.48538,12,32765
10.4023,0.477136,1.49476,13,32765
10.4039,0.442963,1.49463,14,32765
10.4151,0.409273,1.49656,15,32765
10.4361,0.376427,1.49972,15,32765
10.4569,0.342931,1.50369,15,32765
10.4282,0.308031,1.50011,14,32765
10.3499,0.271561,1.48924,14,32765
10.4694,0.240128,1.507,14,32765
10.5392,0.207545,1.51809,12,32765
0,0,0,0,32765
0,0,0,0,32765
1.47463,0.0149395,0.212963,12,32765
1.34597,0.00925376,0.194612,17,32765
1.32616,0.00474431,0.192026,17,32765
1.33601,0.000352011,0.193858,17,32765
1.34588,-0.00403854,0.1954,16,32765
1.34579,-0.00837346,0.19588,16,32765
1.32594,-0.0125751,0.193211,17,32765
1.28623,-0.0163282,0.188037,17,32765
6.64337,2.15848,1.09158,16,32765
6.59432,2.11953,1.07824,17,32765
6.58299,2.09226,1.07087,17,32765
6.57148,2.06527,1.06356,17,32765
6.51294,2.02312,1.04812,16,32765
6.62377,2.03414,1.06211,16,32765
6.47938,1.96696,1.03498,16,32765
6.47677,1.94335,1.02975,17,32765
6.47388,1.91985,1.02562,17,32765
6.44263,1.88772,1.01644,17,32765
6.45876,1.86945,1.0147,17,32765
0,0,0,0,32765
6.38605,1.8028,0.996152,17,32765
6.47805,1.80588,1.00681,17,32765
6.28412,1.72951,0.972992,17,32765
0,0,0,0,32765
6.41052,1.71948,0.986241,17,32765
6.34957,1.68084,0.973338,17,32765
6.36481,1.6627,0.973177,17,32765
6.2461,1.60976,0.951495,18,32765
6.15573,1.56503,0.934929,16,32765
6.30506,1.58105,0.954705,19,32765
6.25303,1.54584,0.943458,17,32765
6.26787,1.52772,0.943514,18,32765
6.17696,1.48392,0.92713,18,32765
6.23975,1.47746,0.934357,18,32765
