x, y, z, intensity, ring
5.65668,-3.25531,-0.213974,40,32765
5.66313,-3.28426,-0.21228,35,32765
5.72112,-3.34372,-0.212663,32,32765
0,-0,-0,0,32765
0,-0,-0,0,32765
0,-0,-0,0,32765
5.96711,-3.59571,-0.213116,13,32765
5.92105,-3.59471,-0.209995,12,32765
5.85814,-3.58289,-0.204851,12,32765
5.94006,-3.6597,-0.206478,12,32765
5.98745,-3.71624,-0.206251,11,32765
5.94981,-3.72012,-0.202102,15,32765
5.92881,-3.73489,-0.199819,16,32765
5.9164,-3.75464,-0.197417,13,32765
5.89574,-3.76861,-0.19442,15,32765
5.93369,-3.82063,-0.194139,16,32765
5.85418,-3.79644,-0.189581,15,32765
5.85842,-3.8267,-0.187807,15,32765
5.82079,-3.82952,-0.18454,16,32765
5.82477,-3.85988,-0.183135,16,32765
5.72875,-3.82382,-0.178734,16,32765
5.7577,-3.87052,-0.177664,15,32765
5.7698,-3.90631,-0.176125,16,32765
5.70763,-3.89121,-0.171884,16,32765
5.67054,-3.89238,-0.169507,15,32765
5.67441,-3.92208,-0.168389,15,32765
5.66162,-3.94057,-0.167092,15,32765
5.63214,-3.94796,-0.164261,15,32765
5.59456,-3.94936,-0.161242,15,32765
5.58998,-3.97317,-0.160087,16,32765
5.57721,-3.99112,-0.158962,16,32765
5.53216,-3.98536,-0.156365,16,32765
5.48707,-3.97951,-0.154721,17,32765
5.47434,-3.99707,-0.153071,17,32765
0.782443,-0.240772,-0.0470293,18,32765
0.800712,-0.249255,-0.0482955,20,32765
0.809409,-0.254871,-0.0489717,21,32765
0.808568,-0.257499,-0.0491065,20,32765
0.788705,-0.25404,-0.0480483,19,32765
0.778376,-0.253537,-0.0474288,17,32765
0.805979,-0.265482,-0.0491657,16,32765
0.833492,-0.277663,-0.0509338,15,32765
0.917719,-0.309095,-0.0561415,15,32765
0.888351,-0.302446,-0.0543883,16,32765
0.868483,-0.298845,-0.0531872,15,32765
0.876932,-0.304977,-0.0536608,15,32765
0.894717,-0.314599,-0.0548454,15,32765
0.91245,-0.324361,-0.0559066,15,32765
0.892556,-0.32072,-0.0546119,15,32765
0.891476,-0.32373,-0.0544954,16,32765
0.937267,-0.34388,-0.0572487,15,32765
0.992288,-0.367816,-0.0606227,15,32765
0.972381,-0.364083,-0.0593166,14,32765
0.952501,-0.360241,-0.0580385,14,32765
0.969943,-0.370577,-0.0590236,14,32765
0.996653,-0.384593,-0.0605809,15,32765
0.995364,-0.387946,-0.0604057,15,32765
0.994067,-0.391299,-0.0601277,15,32765
1.00203,-0.398351,-0.0605103,14,32765
1.09336,-0.438904,-0.0658275,14,32765
1.01786,-0.412579,-0.0611967,14,32765
1.0904,-0.446277,-0.0653257,14,32765
1.08888,-0.450004,-0.0651203,14,32765
5.84226,-2.4377,-0.348176,11,32765
5.75118,-2.42273,-0.341749,12,32765
5.75238,-2.44579,-0.3403,14,32765
5.74407,-2.46537,-0.339438,17,32765
5.80001,-2.5125,-0.340748,23,32765
5.71825,-2.50033,-0.335316,23,32765
5.66412,-2.49969,-0.330602,22,32765
4.51544,-2.01107,-0.2625,21,32765
4.54502,-2.04294,-0.263192,25,32765
4.46544,-2.02524,-0.257555,24,32765
4.38599,-2.00707,-0.252328,17,32765
6.3016,-2.90901,-0.360621,21,32765
0,-0,-0,14,32765
4.36588,-2.05104,-0.247505,21,32765
4.39517,-2.08278,-0.24777,22,32765
4.33419,-2.07169,-0.242984,20,32765
5.48775,-2.64586,-0.306652,34,32765
5.4699,-2.66001,-0.304316,40,32765
5.46086,-2.67882,-0.30174,41,32765
5.51438,-2.72866,-0.302628,42,32765
5.42461,-2.70753,-0.296394,39,32765
5.46898,-2.75302,-0.296707,40,32765
5.44191,-2.76252,-0.293556,34,32765
5.3969,-2.76301,-0.290005,30,32765
5.3255,-2.74924,-0.284247,19,32765
5.41368,-2.81809,-0.287419,20,32765
5.42197,-2.84558,-0.286017,18,32765
5.45663,-2.88718,-0.285892,17,32765
5.46446,-2.91524,-0.284671,17,32765
5.50754,-2.96201,-0.284835,17,32765
5.48891,-2.97573,-0.281798,18,32765
5.47024,-2.98933,-0.279343,20,32765
5.39032,-2.96909,-0.273193,20,32765
5.52008,-3.0649,-0.278481,24,32765
5.48367,-3.06889,-0.274603,21,32765
5.4908,-3.09721,-0.272963,21,32765
5.52397,-3.14024,-0.272424,27,32765
5.57437,-3.1933,-0.272376,31,32765
5.52032,-3.18721,-0.268527,29,32765
5.57879,-3.24593,-0.269571,34,32765
5.63681,-3.30524,-0.270722,37,32765
5.57417,-3.29371,-0.265529,31,32765
5.546,-3.30224,-0.262095,28,32765
5.51775,-3.3107,-0.25948,25,32765
5.50671,-3.32922,-0.256897,23,32765
5.50424,-3.35269,-0.255523,22,32765
5.46773,-3.35517,-0.251221,19,32765
5.48227,-3.38885,-0.250859,16,32765
5.58136,-3.47569,-0.253763,15,32765
5.80696,-3.64288,-0.261358,19,32765
5.88757,-3.72128,-0.263557,18,32765
5.90892,-3.76241,-0.26266,16,32765
5.91348,-3.79259,-0.260674,19,32765
5.9009,-3.81226,-0.258727,19,32765
5.87176,-3.82063,-0.255614,18,32765
5.84245,-3.82911,-0.252563,18,32765
5.81317,-3.83741,-0.24937,18,32765
5.81709,-3.86782,-0.248143,18,32765
5.78757,-3.87617,-0.245622,18,32765
5.73343,-3.86729,-0.241491,18,32765
5.70416,-3.87501,-0.238502,18,32765
5.71638,-3.91047,-0.236798,19,32765
5.67102,-3.90602,-0.233789,18,32765
5.64195,-3.91301,-0.231498,18,32765
5.48988,-3.83417,-0.224501,18,32765
5.35449,-3.76627,-0.217232,18,32765
5.29306,-3.74943,-0.213052,18,32765
5.28096,-3.76653,-0.211728,18,32765
5.26071,-3.77771,-0.21033,18,32765
5.31357,-3.84122,-0.211311,17,32765
5.32552,-3.87584,-0.21156,18,32765
5.3131,-3.89294,-0.209948,17,32765
0.696379,-0.212748,-0.0519041,17,32765
0.724289,-0.223917,-0.0535427,18,32765
0.752117,-0.235316,-0.0551974,16,32765
0.722818,-0.228805,-0.0527426,17,32765
0.731589,-0.234244,-0.0529784,17,32765
0.768801,-0.248945,-0.0554213,17,32765
0.8249,-0.270085,-0.0591075,18,32765
0.833497,-0.275963,-0.0593912,19,32765
0.823131,-0.275583,-0.0583864,20,32765
0.803321,-0.271961,-0.056683,18,32765
0.811877,-0.277869,-0.0569587,18,32765
0.820411,-0.283793,-0.0573324,18,32765
0.791226,-0.276654,-0.0549837,18,32765
0.856179,-0.30256,-0.0592906,19,32765
0.826981,-0.295396,-0.0569533,18,32765
0.863536,-0.311763,-0.0592418,18,32765
0.890624,-0.324951,-0.0607969,16,32765
0.861443,-0.317626,-0.058561,15,32765
0.879098,-0.327489,-0.0594856,15,32765
0.924712,-0.34803,-0.0623092,15,32765
0.867583,-0.329857,-0.0582591,14,32765
0.931731,-0.357779,-0.0622164,15,32765
0.911937,-0.353685,-0.0606412,14,32765
0.975816,-0.382224,-0.0647154,14,32765
0.955978,-0.378184,-0.0631136,14,32765
1.0196,-0.407333,-0.0670982,14,32765
0.953446,-0.384636,-0.0624161,14,32765
1.00764,-0.410415,-0.0657554,14,32765
1.02473,-0.421415,-0.066556,14,32765
1.03253,-0.428736,-0.0668364,13,32765
1.07713,-0.451531,-0.0693736,13,32765
1.0848,-0.459101,-0.0695634,13,32765
1.07408,-0.458831,-0.0687008,13,32765
1.08172,-0.466414,-0.0687909,12,32765
0,-0,-0,0,32765
0,-0,-0,0,32765
0,-0,-0,0,32765
0,-0,-0,0,32765
0,-0,-0,0,32765
0,-0,-0,0,32765
4.2726,-1.96441,-0.264686,15,32765
4.13024,-1.91569,-0.254611,14,32765
4.34087,-2.03115,-0.267001,18,32765
4.30704,-2.03293,-0.263653,19,32765
4.30007,-2.0478,-0.26243,18,32765
4.88712,-2.34793,-0.29699,21,32765
5.43624,-2.63474,-0.32859,37,32765
5.49908,-2.68841,-0.330846,39,32765
5.50802,-2.71577,-0.329753,38,32765
5.44521,-2.7078,-0.325067,39,32765
5.4183,-2.71718,-0.322283,40,32765
5.44475,-2.75376,-0.32186,35,32765
5.38196,-2.74529,-0.316762,37,32765
5.34605,-2.74995,-0.312928,35,32765
5.34566,-2.7727,-0.311387,30,32765
5.3542,-2.79977,-0.310428,30,32765
5.27425,-2.78042,-0.303997,27,32765
5.17668,-2.75148,-0.29715,24,32765
5.32592,-2.85389,-0.304019,24,32765
5.2725,-2.84802,-0.299088,19,32765
5.28064,-2.87512,-0.298209,19,32765
5.14003,-2.82029,-0.288052,19,32765
5.14828,-2.84695,-0.286677,19,32765
0,-0,-0,0,32765
4.9724,-2.79363,-0.273703,17,32765
0,-0,-0,0,32765
5.05784,-2.88655,-0.273854,15,32765
0,-0,-0,0,32765
5.33243,-3.09075,-0.285114,15,32765
0,-0,-0,0,32765
5.5442,-3.26346,-0.29193,21,32765
5.5247,-3.27707,-0.288671,27,32765
5.49662,-3.28548,-0.284363,26,32765
5.50294,-3.31402,-0.282491,27,32765
5.47502,-3.32178,-0.279398,26,32765
5.41319,-3.30835,-0.273399,28,32765
5.44493,-3.3524,-0.27231,25,32765
5.42539,-3.3653,-0.268395,20,32765
5.51599,-3.44682,-0.270764,21,32765
5.74984,-3.61957,-0.279287,17,32765
5.92382,-3.75603,-0.284574,14,32765
5.92006,-3.78081,-0.281511,17,32765
5.91613,-3.80578,-0.277513,17,32765
5.87867,-3.80881,-0.272501,16,32765
5.86619,-3.82824,-0.269301,16,32765
5.83706,-3.83651,-0.264535,16,32765
5.8329,-3.86126,-0.260537,16,32765
5.80354,-3.86961,-0.255846,15,32765
5.77431,-3.87762,-0.250975,15,32765
5.76989,-3.90231,-0.2475,16,32765
0,-0,-0,0,32765
5.61287,-3.84933,-0.233169,16,32765
0,-0,-0,0,32765
5.62073,-3.90883,-0.225777,14,32765
0,-0,-0,0,32765
5.45653,-3.84758,-0.211853,16,32765
0,-0,-0,0,32765
5.45562,-3.90118,-0.202666,17,32765
0,-0,-0,0,32765
5.49488,-3.98402,-0.194775,18,32765
0,-0,-0,0,32765
0.733799,-0.224945,-0.0619542,18,32765
0.761644,-0.236266,-0.0638474,18,32765
0.73234,-0.229906,-0.0610057,17,32765
0.779099,-0.247455,-0.0645797,17,32765
0.787804,-0.253095,-0.0648731,18,32765
0.749063,-0.243372,-0.0614448,18,32765
0.776708,-0.255162,-0.0633828,17,32765
0.738035,-0.245177,-0.0599398,17,32765
0.803394,-0.269878,-0.0649961,18,32765
0.774181,-0.262975,-0.0623533,17,32765
0.782759,-0.2688,-0.0627358,17,32765
0.763051,-0.264834,-0.0609549,17,32765
0.809236,-0.283897,-0.0643365,17,32765
0.845901,-0.299925,-0.0670562,17,32765
0.807354,-0.289347,-0.0637015,17,32765
0.815761,-0.295496,-0.0641577,17,32765
0.824144,-0.301697,-0.0645456,17,32765
0.813778,-0.30105,-0.0635127,17,32765
0.840811,-0.314268,-0.0653686,17,32765
0.849098,-0.320634,-0.0657812,17,32765
0.87599,-0.33416,-0.0676724,18,32765
0.846981,-0.326316,-0.0651228,18,32765
0.89238,-0.347249,-0.0683762,18,32765
0.900509,-0.353898,-0.0688499,18,32765
0.899328,-0.356954,-0.0685016,18,32765
0.870357,-0.348866,-0.0661218,17,32765
0.906185,-0.366784,-0.0685426,18,32765
0.932673,-0.381142,-0.0703652,18,32765
0.940625,-0.388109,-0.0706882,18,32765
0.920895,-0.383652,-0.0690162,17,32765
0.956399,-0.402251,-0.0713792,17,32765
0.955041,-0.405528,-0.071023,16,32765
0.917004,-0.39303,-0.068057,16,32765
0.93401,-0.404061,-0.0689878,15,32765
0.923498,-0.403263,-0.0680435,15,32765
1.01343,-0.446669,-0.0745035,15,32765
0.993688,-0.442023,-0.0728005,14,32765
0.928451,-0.416865,-0.067835,14,32765
1.00885,-0.457097,-0.0734339,14,32765
1.09804,-0.502047,-0.0797092,13,32765
4.31299,-1.98959,-0.311913,19,32765
4.35164,-2.02511,-0.313449,24,32765
4.37195,-2.05252,-0.31438,26,32765
4.36513,-2.06724,-0.312672,24,32765
4.31301,-2.06083,-0.308209,20,32765
4.35994,-2.10166,-0.310501,20,32765
5.4208,-2.63605,-0.384374,37,32765
5.43875,-2.66783,-0.384209,41,32765
5.46563,-2.70391,-0.384577,41,32765
5.46541,-2.72698,-0.383723,40,32765
5.43846,-2.73646,-0.380738,40,32765
5.4292,-2.75514,-0.37819,42,32765
5.38424,-2.7557,-0.373763,40,32765
5.39267,-2.78328,-0.372705,40,32765
5.401,-2.81086,-0.37184,42,32765
5.33868,-2.80108,-0.366188,40,32765
5.3294,-2.81899,-0.363829,40,32765
5.3551,-2.85595,-0.364414,44,32765
5.31037,-2.8552,-0.359772,35,32765
5.35354,-2.90161,-0.360881,42,32765
5.24758,-2.86683,-0.3525,19,32765
0,-0,-0,0,32765
4.89719,-2.71732,-0.325278,21,32765
4.92306,-2.75318,-0.325596,26,32765
4.87023,-2.74556,-0.320554,26,32765
4.93044,-2.80164,-0.322443,26,32765
4.90386,-2.80825,-0.31854,27,32765
4.99818,-2.88479,-0.32338,27,32765
5.04049,-2.93155,-0.3242,25,32765
5.09098,-2.98392,-0.325971,28,32765
5.13264,-3.03159,-0.326157,35,32765
5.07102,-3.01832,-0.320294,26,32765
5.08665,-3.0509,-0.318754,20,32765
0,-0,-0,0,32765
5.00687,-3.04825,-0.310439,13,32765
0,-0,-0,0,32765
0,-0,-0,0,32765
5.13801,-3.1981,-0.310863,14,32765
5.24594,-3.28946,-0.315494,18,32765
5.44619,-3.44034,-0.324853,21,32765
5.82272,-3.70478,-0.344324,23,32765
5.83594,-3.74008,-0.342388,24,32765
5.83214,-3.76484,-0.338534,22,32765
5.80323,-3.77307,-0.333768,22,32765
5.841,-3.82513,-0.333459,21,32765
5.78689,-3.81687,-0.327098,20,32765
5.77448,-3.83599,-0.322753,20,32765
5.73692,-3.83863,-0.317445,19,32765
5.59185,-3.7683,-0.306075,18,32765
5.19928,-3.52877,-0.28175,25,32765
5.19616,-3.55136,-0.27873,29,32765
5.11072,-3.51733,-0.270268,24,32765
5.091,-3.52857,-0.26632,24,32765
5.09612,-3.55654,-0.262737,30,32765
5.10102,-3.58465,-0.259794,34,32765
5.08123,-3.59566,-0.255388,31,32765
4.96376,-3.53706,-0.245503,31,32765
4.96832,-3.56536,-0.241622,33,32765
4.94042,-3.57021,-0.236349,27,32765
4.96931,-3.61579,-0.233462,29,32765
4.88552,-3.57836,-0.225088,26,32765
0.724601,-0.221674,-0.0584358,18,32765
0.723869,-0.224014,-0.0585748,18,32765
0.742145,-0.232352,-0.0602755,19,32765
0.75088,-0.237799,-0.0610799,16,32765
0.731093,-0.234196,-0.0596267,17,32765
0.730294,-0.236665,-0.0596631,17,32765
0.748454,-0.245287,-0.0612476,17,32765
0.757093,-0.250924,-0.0620241,17,32765
0.708999,-0.237581,-0.0581037,17,32765
0.755431,-0.255901,-0.0619506,17,32765
0.782868,-0.268114,-0.0642909,17,32765
0.725453,-0.251142,-0.0595452,17,32765
0.743417,-0.260201,-0.0610431,17,32765
0.789543,-0.279317,-0.0648403,17,32765
0.769842,-0.27523,-0.0631791,17,32765
0.787675,-0.284576,-0.0646932,16,32765
0.796107,-0.290604,-0.0652862,16,32765
0.76706,-0.282956,-0.0628845,16,32765
0.812826,-0.302975,-0.0664848,16,32765
0.858465,-0.323288,-0.070158,17,32765
0.820099,-0.31202,-0.0669406,16,32765
0.856292,-0.32908,-0.0697899,17,32765
0.883084,-0.342771,-0.0719054,17,32765
0.863378,-0.338473,-0.0701081,17,32765
0.88079,-0.348709,-0.0714916,17,32765
0.879622,-0.351686,-0.0712831,18,32765
0.887701,-0.358364,-0.0718481,17,32765
0.877258,-0.357633,-0.0708295,17,32765
0.876048,-0.36063,-0.070617,17,32765
0.87482,-0.363656,-0.0703139,18,32765
0.90119,-0.378204,-0.0722353,18,32765
0.927468,-0.392929,-0.074229,18,32765
0.93533,-0.399996,-0.0745789,18,32765
0.915684,-0.395241,-0.0728437,18,32765
0.960076,-0.418284,-0.0761017,17,32765
0.958675,-0.42155,-0.0757449,16,32765
0.939043,-0.416693,-0.0739323,16,32765
0.955843,-0.428053,-0.0750615,16,32765
1.04529,-0.472394,-0.081877,16,32765
0.934824,-0.426253,-0.0728886,15,32765
1.05121,-0.48362,-0.0816565,14,32765
1.04961,-0.487145,-0.0812994,14,32765
1.07508,-0.503408,-0.0830218,13,32765
0,-0,-0,0,32765
0,-0,-0,0,32765
0,-0,-0,0,32765
0,-0,-0,0,32765
0,-0,-0,0,32765
5.49415,-2.70973,-0.413871,41,32765
5.46704,-2.71988,-0.410096,39,32765
5.47564,-2.74777,-0.408366,39,32765
5.44838,-2.75783,-0.404828,38,32765
5.39463,-2.75386,-0.398894,36,32765
5.43868,-2.79957,-0.400025,40,32765
5.44711,-2.82706,-0.399012,41,32765
5.37579,-2.81312,-0.391934,38,32765
5.33997,-2.81728,-0.387435,37,32765
5.37462,-2.85877,-0.388419,37,32765
5.32113,-2.85338,-0.382491,33,32765
5.31162,-2.87136,-0.380137,36,32765
5.38973,-2.93707,-0.383258,19,32765
0,-0,-0,0,32765
5.18677,-2.87184,-0.365459,23,32765
5.10746,-2.85046,-0.358168,24,32765
4.88054,-2.7453,-0.34033,22,32765
4.98423,-2.82582,-0.346122,26,32765
5.05292,-2.88705,-0.349088,26,32765
5.06059,-2.91409,-0.347931,26,32765
5.12007,-2.97105,-0.350224,28,32765
5.12746,-2.99825,-0.349501,30,32765
5.14334,-3.03071,-0.348237,34,32765
5.08173,-3.01741,-0.342963,30,32765
5.0545,-3.02439,-0.339294,26,32765
5.09575,-3.0723,-0.340399,23,32765
5.07693,-3.08433,-0.337937,21,32765
0,-0,-0,0,32765
5.00556,-3.0867,-0.329747,13,32765
0,-0,-0,0,32765
0,-0,-0,0,32765
0,-0,-0,0,32765
5.68988,-3.61276,-0.368415,18,32765
5.71184,-3.65295,-0.36732,19,32765
5.73328,-3.69368,-0.367582,19,32765
5.72113,-3.71265,-0.365709,19,32765
5.72574,-3.74244,-0.364086,19,32765
5.72997,-3.77259,-0.363149,18,32765
5.73424,-3.80261,-0.361577,19,32765
5.72983,-3.82743,-0.360289,20,32765
5.73391,-3.85746,-0.358731,19,32765
5.2251,-3.5404,-0.326009,21,32765
5.13101,-3.50139,-0.318491,30,32765
5.09494,-3.50119,-0.315175,30,32765
5.10812,-3.53497,-0.315344,23,32765
5.04767,-3.5171,-0.310889,24,32765
5.03645,-3.53331,-0.308941,28,32765
5.00874,-3.53814,-0.306063,28,32765
4.94846,-3.51964,-0.302043,32,32765
4.8963,-3.50685,-0.298519,30,32765
4.88496,-3.52277,-0.296931,30,32765
4.8332,-3.50918,-0.293652,29,32765
4.87834,-3.56598,-0.296722,30,32765
0.761924,-0.233905,-0.068993,18,32765
0.751635,-0.233418,-0.0682741,18,32765
0.741341,-0.232911,-0.0675682,18,32765
0.759556,-0.241387,-0.069332,18,32765
0.768228,-0.246951,-0.0702957,18,32765
0.767383,-0.249553,-0.0703331,18,32765
0.757085,-0.248982,-0.0694992,18,32765
0.756246,-0.251519,-0.0694995,18,32765
0.7743,-0.260369,-0.0711883,18,32765
0.764009,-0.259711,-0.0702923,18,32765
0.781976,-0.268744,-0.0720442,18,32765
0.752854,-0.261539,-0.0693374,17,32765
0.789559,-0.277316,-0.0727516,18,32765
0.798017,-0.283301,-0.0735498,18,32765
0.778323,-0.279234,-0.0716997,17,32765
0.805484,-0.292027,-0.0742628,17,32765
0.813881,-0.298129,-0.0749442,17,32765
0.803526,-0.297443,-0.0739797,17,32765
0.821193,-0.307162,-0.0754627,17,32765
0.810841,-0.306419,-0.0744646,17,32765
0.781883,-0.298518,-0.0717365,17,32765
0.818075,-0.31549,-0.0749667,17,32765
0.807739,-0.314621,-0.0739672,17,32765
0.862327,-0.339241,-0.0787842,17,32765
0.842672,-0.334783,-0.07697,17,32765
0.850798,-0.34135,-0.077613,17,32765
0.858898,-0.347947,-0.0782761,16,32765
0.848501,-0.347118,-0.077172,17,32765
0.828905,-0.342416,-0.0752921,16,32765
0.85533,-0.356797,-0.0775044,16,32765
0.881688,-0.371313,-0.0797108,16,32765
0.898781,-0.382107,-0.0811593,16,32765
0.906667,-0.389094,-0.0816129,17,32765
0.896226,-0.388195,-0.0805202,16,32765
0.940583,-0.411225,-0.0842506,17,32765
0.96656,-0.426504,-0.0863434,17,32765
0.95604,-0.42572,-0.0851509,17,32765
0.981877,-0.441251,-0.0872676,17,32765
0.962232,-0.436379,-0.0853434,18,32765
0.969856,-0.443776,-0.0856857,19,32765
0.968377,-0.447071,-0.0852866,19,32765
0.957859,-0.446119,-0.0841621,19,32765
0.956359,-0.449389,-0.0838225,19,32765
0.990891,-0.469738,-0.0864908,17,32765
1.00729,-0.481741,-0.0877076,16,32765
0.987734,-0.476493,-0.0856491,15,32765
1.12962,-0.549591,-0.0975185,15,32765
1.07408,-0.527061,-0.0924809,14,32765
1.16167,-0.574955,-0.0997254,13,32765
5.43279,-2.71235,-0.464754,18,32765
5.36125,-2.69984,-0.456397,23,32765
5.36974,-2.7276,-0.455729,27,32765
5.38715,-2.75973,-0.45536,25,32765
5.3691,-2.77349,-0.451824,27,32765
5.32451,-2.77319,-0.446567,30,32765
5.33292,-2.80054,-0.445525,27,32765
5.30599,-2.80925,-0.441491,27,32765
5.32301,-2.84133,-0.441486,28,32765
5.35747,-2.88303,-0.442362,21,32765
5.31278,-2.88216,-0.437097,19,32765
5.18071,-2.83318,-0.42395,23,32765
5.20624,-2.86995,-0.424404,34,32765
5.14437,-2.85848,-0.417825,41,32765
5.15223,-2.88568,-0.416843,43,32765
5.02975,-2.83931,-0.405043,32,32765
5.04625,-2.87118,-0.405012,41,32765
5.12333,-2.93772,-0.409466,43,32765
5.23445,-3.02498,-0.416704,43,32765
5.18138,-3.01739,-0.410761,42,32765
5.14557,-3.01962,-0.40679,34,32765
5.15274,-3.04715,-0.405108,39,32765
5.15115,-3.06962,-0.403969,37,32765
5.10665,-3.06659,-0.398734,37,32765
5.08793,-3.07863,-0.395713,36,32765
4.98389,-3.03873,-0.386544,27,32765
5.00782,-3.07639,-0.386835,18,32765
4.93835,-3.05627,-0.379823,17,32765
4.89447,-3.05151,-0.375298,20,32765
4.95216,-3.11008,-0.378257,20,32765
4.95042,-3.13178,-0.377136,17,32765
4.96543,-3.16427,-0.376731,16,32765
5.07277,-3.25608,-0.382748,17,32765
5.28822,-3.41941,-0.398092,17,32765
5.36059,-3.49143,-0.402634,15,32765
5.40761,-3.54748,-0.404475,12,32765
5.43743,-3.59315,-0.405686,13,32765
5.4007,-3.59463,-0.401334,15,32765
5.32234,-3.56837,-0.394698,16,32765
5.17006,-3.49101,-0.381888,16,32765
5.12548,-3.48579,-0.377845,21,32765
4.99876,-3.42383,-0.367016,18,32765
4.97119,-3.42888,-0.364059,15,32765
0,-0,-0,0,32765
4.96529,-3.47266,-0.362526,20,32765
4.85626,-3.41969,-0.35347,24,32765
4.86151,-3.44705,-0.352827,27,32765
4.8747,-3.48027,-0.353574,36,32765
4.85515,-3.49053,-0.351941,35,32765
4.8681,-3.52393,-0.35211,35,32765
4.86479,-3.54555,-0.351861,34,32765
4.84529,-3.55534,-0.3509,35,32765
0.713697,-0.217854,-0.0753354,18,32765
0.722534,-0.223141,-0.0758513,17,32765
0.683847,-0.213632,-0.0715109,18,32765
0.721138,-0.227901,-0.0749766,18,32765
0.710932,-0.227283,-0.0736042,18,32765
0.719667,-0.23273,-0.0742743,18,32765
0.709475,-0.232018,-0.0728937,18,32765
0.737086,-0.24373,-0.0754974,18,32765
0.71744,-0.239846,-0.0731711,17,32765
0.735541,-0.248593,-0.074703,17,32765
0.734726,-0.251093,-0.0743593,18,32765
0.733918,-0.253558,-0.0739761,17,32765
0.75188,-0.262614,-0.0755691,17,32765
0.741626,-0.261871,-0.0742613,17,32765
0.731396,-0.261026,-0.0729745,17,32765
0.777361,-0.280409,-0.077333,16,32765
0.748379,-0.272804,-0.0742049,17,32765
0.756829,-0.278783,-0.0747637,17,32765
0.765251,-0.284788,-0.075413,17,32765
0.773642,-0.290884,-0.0759271,17,32765
0.781983,-0.297047,-0.0765854,16,32765
0.827489,-0.317573,-0.0806829,16,32765
0.789276,-0.306025,-0.0767607,16,32765
0.778978,-0.305091,-0.0755834,16,32765
0.805765,-0.318709,-0.0778982,16,32765
0.786216,-0.314033,-0.0758089,16,32765
0.83137,-0.33532,-0.0799018,16,32765
0.802583,-0.326879,-0.0768832,16,32765
0.847547,-0.348593,-0.080909,16,32765
0.864762,-0.359168,-0.0823745,16,32765
0.900293,-0.37757,-0.0855162,16,32765
0.889872,-0.37673,-0.0842695,16,32765
0.861146,-0.367999,-0.081264,16,32765
0.86906,-0.374893,-0.0817885,16,32765
0.895206,-0.389789,-0.0840851,16,32765
0.848288,-0.372825,-0.0794268,15,32765
0.910791,-0.404026,-0.0849881,17,32765
0.918504,-0.411259,-0.0855311,16,32765
0.935277,-0.422641,-0.0867873,16,32765
0.970134,-0.442367,-0.0897319,16,32765
0.968654,-0.445676,-0.0893475,19,32765
0.958143,-0.444757,-0.088052,19,32765
0.929585,-0.435314,-0.0852867,20,32765
0.946155,-0.446978,-0.0866108,20,32765
0.953683,-0.454451,-0.0869618,19,32765
1.02401,-0.492254,-0.0931973,17,32765
1.10306,-0.534913,-0.100112,16,32765
1.08332,-0.529991,-0.0981104,14,32765
1.05471,-0.520497,-0.0951908,14,32765
1.11542,-0.555212,-0.100376,14,32765
1.13136,-0.567965,-0.101674,13,32765
0,-0,-0,0,32765
0,-0,-0,0,32765
0,-0,-0,0,32765
0,-0,-0,0,32765
0,-0,-0,0,32765
0,-0,-0,0,32765
0,-0,-0,0,32765
5.33315,-2.86076,-0.467414,18,32765
0,-0,-0,0,32765
5.20872,-2.84002,-0.453854,16,32765
5.04206,-2.7711,-0.437593,26,32765
5.05037,-2.79771,-0.436737,36,32765
5.08472,-2.83883,-0.438496,43,32765
5.04064,-2.83627,-0.433051,40,32765
4.9879,-2.82859,-0.427074,30,32765
5.06507,-2.89497,-0.432148,44,32765
5.08998,-2.93205,-0.432843,43,32765
5.17517,-3.00426,-0.438254,35,32765
5.19971,-3.04176,-0.438551,40,32765
5.09514,-3.00352,-0.428153,30,32765
5.12832,-3.04583,-0.428559,37,32765
5.05835,-3.02716,-0.421319,29,32765
5.02287,-3.02849,-0.416362,27,32765
4.98733,-3.02976,-0.411806,23,32765
4.97749,-3.04629,-0.40891,20,32765
4.77227,-2.94239,-0.390056,16,32765
0,-0,-0,0,32765
4.92214,-3.08,-0.398188,19,32765
4.8952,-3.08576,-0.393895,19,32765
5.13779,-3.26245,-0.411681,19,32765
0,-0,-0,0,32765
5.13333,-3.30729,-0.406372,18,32765
0,-0,-0,0,32765
0,-0,-0,0,32765
0,-0,-0,0,32765
5.36447,-3.55723,-0.413613,13,32765
0,-0,-0,0,32765
5.07662,-3.41408,-0.385876,16,32765
0,-0,-0,0,32765
5.02143,-3.42513,-0.376527,18,32765
0,-0,-0,0,32765
5.01551,-3.46984,-0.370158,14,32765
0,-0,-0,0,32765
4.91987,-3.45078,-0.356979,19,32765
4.88441,-3.44955,-0.351092,22,32765
4.88148,-3.47138,-0.347383,32,32765
4.85395,-3.476,-0.341994,31,32765
4.86725,-3.50931,-0.338725,33,32765
4.86418,-3.53108,-0.334055,34,32765
4.86109,-3.55277,-0.329443,31,32765
0.731766,-0.224221,-0.0845223,19,32765
0.731078,-0.226637,-0.0840272,19,32765
0.720889,-0.226058,-0.082568,19,32765
0.739141,-0.234473,-0.0842203,19,32765
0.709996,-0.22784,-0.0805949,18,32765
0.747087,-0.242507,-0.0845693,19,32765
0.736878,-0.241885,-0.0830791,19,32765
0.754984,-0.250584,-0.0848888,19,32765
0.754198,-0.253078,-0.0844775,19,32765
0.743982,-0.252384,-0.0830225,19,32765
0.743156,-0.254921,-0.0826739,18,32765
0.73294,-0.254162,-0.0812438,17,32765
0.779033,-0.273109,-0.086136,18,32765
0.759383,-0.269136,-0.0836877,18,32765
0.758507,-0.271705,-0.083327,18,32765
0.766962,-0.277682,-0.0840397,17,32765
0.784738,-0.287115,-0.0857394,18,32765
0.774468,-0.286333,-0.0843402,18,32765
0.792172,-0.295893,-0.0860882,17,32765
0.781898,-0.295071,-0.0846645,17,32765
0.790213,-0.301278,-0.0854122,17,32765
0.798503,-0.307575,-0.0859709,17,32765
0.797466,-0.310336,-0.0856707,17,32765
0.787166,-0.30943,-0.0843963,17,32765
0.813901,-0.323108,-0.0869854,17,32765
0.822074,-0.32956,-0.0876606,17,32765
0.82099,-0.332347,-0.0872976,16,32765
0.838313,-0.342682,-0.0888871,17,32765
0.864761,-0.356976,-0.0914154,17,32765
0.863547,-0.359976,-0.0911212,16,32765
0.880677,-0.370695,-0.0927028,16,32765
0.870292,-0.369789,-0.09137,16,32765
0.869072,-0.372744,-0.0909659,16,32765
0.904362,-0.391548,-0.0944408,16,32765
0.875682,-0.382682,-0.0912977,16,32765
0.865286,-0.381687,-0.0899697,16,32765
0.85491,-0.380624,-0.0886297,16,32765
0.880851,-0.395843,-0.0911626,16,32765
0.897649,-0.407121,-0.092621,16,32765
0.923451,-0.422621,-0.0950209,15,32765
0.922037,-0.42578,-0.0946535,16,32765
0.929657,-0.433113,-0.0951332,16,32765
0.946235,-0.444734,-0.0967007,16,32765
0.962746,-0.456482,-0.0982032,16,32765
0.94328,-0.45114,-0.0958974,17,32765
0.950726,-0.458701,-0.0965049,18,32765
0.940223,-0.457619,-0.0952155,17,32765
0.96547,-0.474069,-0.0976009,17,32765
1.02634,-0.508355,-0.103451,15,32765
1.01571,-0.50744,-0.102129,15,32765
1.0051,-0.506437,-0.100958,16,32765
1.00343,-0.509877,-0.100315,15,32765
1.06373,-0.545154,-0.106259,14,32765
1.04419,-0.539679,-0.103985,15,32765
1.10421,-0.575472,-0.109768,16,32765
1.07585,-0.565294,-0.106684,15,32765
0,-0,-0,0,32765
0,-0,-0,0,32765
4.88607,-2.63064,-0.480583,18,32765
4.84216,-2.62847,-0.474948,18,32765
4.96438,-2.71684,-0.485937,21,32765
4.90307,-2.70472,-0.478333,17,32765
4.89415,-2.72124,-0.476024,18,32765
4.8939,-2.74246,-0.474924,20,32765
4.89357,-2.76377,-0.473388,24,32765
4.90177,-2.79011,-0.472852,26,32765
4.87519,-2.79684,-0.468906,25,32765
4.85722,-2.80842,-0.465908,19,32765
4.94266,-2.88002,-0.472448,25,32765
4.97615,-2.92188,-0.474041,18,32765
4.93217,-2.91835,-0.468421,18,32765
4.86282,-2.89899,-0.45967,18,32765
4.9216,-2.95639,-0.463971,20,32765
4.91198,-2.97277,-0.461204,17,32765
4.92772,-3.00483,-0.461193,16,32765
4.867,-2.9899,-0.453572,17,32765
4.91661,-3.04283,-0.456241,20,32765
4.80508,-2.99605,-0.44414,20,32765
4.84601,-3.04385,-0.445839,24,32765
4.8782,-3.08669,-0.446797,23,32765
4.80925,-3.06542,-0.438961,25,32765
4.81617,-3.09212,-0.436877,24,32765
4.88978,-3.16236,-0.441806,26,32765
4.79599,-3.12417,-0.43078,24,32765
4.85254,-3.18389,-0.433741,19,32765
4.892,-3.23317,-0.435177,18,32765
4.93139,-3.28254,-0.435836,18,32765
4.86278,-3.25998,-0.42754,26,32765
4.86072,-3.2814,-0.4245,36,32765
4.88314,-3.31987,-0.424098,40,32765
4.88053,-3.34181,-0.421447,37,32765
4.83679,-3.33553,-0.414554,31,32765
4.85874,-3.37433,-0.414054,29,32765
4.87252,-3.40738,-0.412251,30,32765
4.86991,-3.42892,-0.409173,33,32765
4.89969,-3.47371,-0.408467,39,32765
4.88855,-3.48986,-0.404153,38,32765
4.88531,-3.51201,-0.400553,37,32765
4.84997,-3.5104,-0.39358,36,32765
4.85496,-3.53806,-0.389655,35,32765
4.81163,-3.53026,-0.381939,31,32765
0.713252,-0.217933,-0.0792279,18,32765
0.712516,-0.220304,-0.0792914,18,32765
0.721259,-0.225653,-0.0804162,18,32765
0.701546,-0.222035,-0.078314,18,32765
0.719743,-0.230445,-0.0804114,19,32765
0.709499,-0.229821,-0.0793337,19,32765
0.727627,-0.238396,-0.0814016,18,32765
0.745713,-0.247081,-0.083449,18,32765
0.688322,-0.230603,-0.0770422,18,32765
0.725235,-0.245633,-0.0812289,18,32765
0.724429,-0.24803,-0.0811368,18,32765
0.704821,-0.243937,-0.078883,18,32765
0.694616,-0.243019,-0.0777858,18,32765
0.72194,-0.255309,-0.0807432,18,32765
0.749175,-0.267785,-0.0838317,17,32765
0.748254,-0.270372,-0.0837518,18,32765
0.728669,-0.266101,-0.0814388,18,32765
0.765095,-0.282359,-0.085457,18,32765
0.754836,-0.281463,-0.0842708,17,32765
0.707373,-0.266449,-0.0789177,17,32765
0.743678,-0.282972,-0.082881,17,32765
0.779877,-0.299747,-0.0868535,17,32765
0.778876,-0.302392,-0.0866636,17,32765
0.787118,-0.308693,-0.0874844,18,32765
0.767588,-0.304043,-0.0852475,17,32765
0.757318,-0.30301,-0.0839863,17,32765
0.820865,-0.331674,-0.0909523,17,32765
0.801334,-0.326959,-0.0886632,17,32765
0.79105,-0.325884,-0.0874035,17,32765
0.77161,-0.320882,-0.0851651,16,32765
0.816421,-0.342723,-0.0899915,16,32765
0.833617,-0.35321,-0.091791,16,32765
0.832444,-0.356056,-0.0914421,16,32765
0.822111,-0.354981,-0.0901257,16,32765
0.875637,-0.38168,-0.0958161,17,32765
0.874355,-0.384695,-0.0954646,16,32765
0.873081,-0.387644,-0.0951921,16,32765
0.89905,-0.402782,-0.0978578,16,32765
0.888633,-0.40175,-0.0965854,15,32765
0.887311,-0.404752,-0.0962023,16,32765
0.885954,-0.407799,-0.0958435,15,32765
0.893606,-0.415033,-0.0965157,16,32765
0.937283,-0.439219,-0.100929,16,32765
0.9268,-0.438187,-0.0996731,15,32765
0.916375,-0.437035,-0.0982708,15,32765
0.914904,-0.440174,-0.0979631,16,32765
0.940332,-0.456287,-0.100386,18,32765
0.947762,-0.46385,-0.100946,18,32765
0.928359,-0.45826,-0.0987324,17,32765
0.953577,-0.474734,-0.101088,16,32765
1.06763,-0.536103,-0.112943,14,32765
1.01252,-0.512806,-0.106894,16,32765
1.03739,-0.529897,-0.109186,15,32765
1.04445,-0.538044,-0.109712,14,32765
1.08685,-0.564541,-0.113831,16,32765
1.04084,-0.54518,-0.108732,17,32765
1.06545,-0.562651,-0.111095,16,32765
1.0636,-0.566267,-0.11041,14,32765
0,-0,-0,0,32765
0,-0,-0,0,32765
0,-0,-0,0,32765
0,-0,-0,0,32765
0,-0,-0,0,32765
4.76517,-2.66189,-0.487702,17,32765
0,-0,-0,0,32765
4.91195,-2.78777,-0.499958,24,32765
4.89409,-2.79937,-0.496946,23,32765
4.88484,-2.8159,-0.494565,18,32765
0,-0,-0,0,32765
4.87485,-2.85374,-0.490809,14,32765
0,-0,-0,0,32765
4.76152,-2.83086,-0.477215,15,32765
0,-0,-0,0,32765
4.87911,-2.94552,-0.486468,14,32765
0,-0,-0,0,32765
4.78308,-2.93161,-0.474009,14,32765
0,-0,-0,0,32765
4.86528,-3.02676,-0.479894,17,32765
4.80467,-3.01135,-0.472295,21,32765
4.82859,-3.0485,-0.473612,21,32765
4.88577,-3.10759,-0.477734,20,32765
4.86725,-3.11844,-0.474573,22,32765
4.85707,-3.13455,-0.472648,22,32765
4.87184,-3.1671,-0.472881,23,32765
4.88649,-3.19963,-0.473466,25,32765
4.71788,-3.11172,-0.455793,19,32765
0,-0,-0,0,32765
4.90466,-3.28154,-0.471337,17,32765
4.8856,-3.29235,-0.468483,31,32765
4.85011,-3.29169,-0.464276,42,32765
4.82288,-3.29656,-0.460569,41,32765
4.82033,-3.31821,-0.459116,31,32765
4.80945,-3.33425,-0.457058,22,32765
4.8312,-3.37305,-0.458387,29,32765
4.82861,-3.39442,-0.456998,39,32765
4.82569,-3.41609,-0.455962,40,32765
4.82272,-3.43763,-0.45567,41,32765
4.80364,-3.4475,-0.452425,34,32765
4.79248,-3.46319,-0.450988,24,32765
4.86196,-3.53736,-0.457449,23,32765
4.85848,-3.55928,-0.456352,22,32765
0.740765,-0.227219,-0.0896623,19,32765
0.702046,-0.21791,-0.085126,18,32765
0.729735,-0.229191,-0.0886445,19,32765
0.700568,-0.222585,-0.085204,18,32765
0.747105,-0.240132,-0.0909402,19,32765
0.755733,-0.245745,-0.0920694,19,32765
0.74547,-0.245187,-0.0908689,18,32765
0.772931,-0.257089,-0.0942492,19,32765
0.743833,-0.250163,-0.0907257,18,32765
0.743005,-0.252624,-0.0906891,18,32765
0.742175,-0.255086,-0.0905938,18,32765
0.722569,-0.251044,-0.0881493,18,32765
0.749845,-0.263352,-0.0915337,18,32765
0.73025,-0.259241,-0.089046,17,32765
0.757428,-0.271777,-0.0924119,18,32765
0.765831,-0.277788,-0.0934699,17,32765
0.792888,-0.290667,-0.09665,18,32765
0.791909,-0.293378,-0.0964851,18,32765
0.772321,-0.289089,-0.0940664,18,32765
0.789957,-0.298699,-0.0961631,17,32765
0.798253,-0.304903,-0.0970891,18,32765
0.76016,-0.293289,-0.092405,17,32765
0.814729,-0.317525,-0.0989665,17,32765
0.795167,-0.313045,-0.096503,17,32765
0.775648,-0.308413,-0.0940772,17,32765
0.802264,-0.322223,-0.0971879,17,32765
0.782764,-0.317491,-0.0947583,17,32765
0.800094,-0.327704,-0.0967419,16,32765
0.799006,-0.330422,-0.0964976,17,32765
0.779578,-0.325437,-0.0940702,16,32765
0.805983,-0.339637,-0.0971493,17,32765
0.804867,-0.342334,-0.0969329,17,32765
0.840263,-0.360776,-0.100985,16,32765
0.848168,-0.367635,-0.10176,17,32765
0.837817,-0.366593,-0.10036,16,32765
0.854772,-0.377519,-0.102197,16,32765
0.853521,-0.38041,-0.101929,16,32765
0.870402,-0.391441,-0.103797,17,32765
0.878143,-0.398528,-0.104596,16,32765
0.885871,-0.405643,-0.105291,17,32765
0.884511,-0.408694,-0.104931,16,32765
0.874121,-0.407538,-0.10356,16,32765
0.899754,-0.423248,-0.106318,17,32765
0.916288,-0.434878,-0.108161,16,32765
0.914858,-0.437984,-0.107725,17,32765
0.886518,-0.428154,-0.104257,16,32765
0.938763,-0.457273,-0.110117,17,32765
0.9551,-0.469236,-0.111813,16,32765
0.95353,-0.472493,-0.111494,17,32765
0.934172,-0.46686,-0.108925,19,32765
0.914829,-0.46114,-0.106483,19,32765
0.939864,-0.477838,-0.10921,19,32765
0.929401,-0.476562,-0.107711,16,32765
1.01614,-0.52548,-0.117571,15,32765
0.952657,-0.496746,-0.109948,15,32765
0.986207,-0.518554,-0.113571,16,32765
1.02843,-0.5452,-0.118252,15,32765
1.02665,-0.548701,-0.117589,15,32765
1.04231,-0.561664,-0.119263,15,32765
1.03172,-0.560427,-0.117778,17,32765
1.10841,-0.606965,-0.126201,17,32765
1.08028,-0.59627,-0.122741,14,32765
4.53068,-2.52054,-0.513752,18,32765
4.6785,-2.62362,-0.52954,19,32765
4.63516,-2.61993,-0.523196,20,32765
4.61769,-2.63096,-0.520233,21,32765
4.53994,-2.60691,-0.510453,19,32765
4.57439,-2.64722,-0.513066,18,32765
4.54842,-2.65273,-0.508918,18,32765
4.56549,-2.68308,-0.509676,19,32765
4.54787,-2.69365,-0.507193,19,32765
4.5133,-2.6938,-0.501963,19,32765
4.59817,-2.76559,-0.510382,19,32765
4.50382,-2.72964,-0.498757,19,32765
4.69872,-2.86942,-0.518964,21,32765
4.58744,-2.82277,-0.505442,20,32765
4.61203,-2.85913,-0.506991,20,32765
4.5688,-2.85354,-0.501458,19,32765
4.60998,-2.90076,-0.504523,19,32765
4.52485,-2.86806,-0.494333,19,32765
4.62446,-2.95306,-0.50391,19,32765
4.59808,-2.95769,-0.49986,20,32765
4.59677,-2.97838,-0.498937,20,32765
4.57863,-2.98836,-0.49594,19,32765
4.57716,-3.00906,-0.495101,20,32765
4.48422,-2.96945,-0.48388,18,32765
4.56557,-3.04532,-0.491636,19,32765
4.55575,-3.06034,-0.489485,17,32765
4.55392,-3.08118,-0.488443,22,32765
4.57678,-3.11871,-0.490245,28,32765
4.58298,-3.14525,-0.489973,28,32765
4.57271,-3.1605,-0.487837,31,32765
4.54598,-3.16438,-0.484131,33,32765
4.609,-3.23099,-0.490252,35,32765
4.54986,-3.21148,-0.482994,32,32765
4.52314,-3.21499,-0.479559,26,32765
4.52888,-3.2414,-0.480272,24,32765
4.5266,-3.262,-0.478784,21,32765
4.60473,-3.3412,-0.486795,20,32765
4.48937,-3.27974,-0.474643,21,32765
4.51879,-3.32411,-0.477157,20,32765
0.69244,-0.211337,-0.0936164,18,32765
0.663363,-0.204878,-0.0893032,18,32765
0.681655,-0.213012,-0.0914987,18,32765
0.680995,-0.215275,-0.0911163,18,32765
0.689768,-0.220568,-0.0920277,18,32765
0.67962,-0.219868,-0.0904146,18,32765
0.697775,-0.228342,-0.0925732,17,32765
0.715866,-0.236963,-0.094783,17,32765
0.67747,-0.226802,-0.0894164,18,32765
0.70494,-0.23863,-0.0928171,17,32765
0.704166,-0.241017,-0.092524,18,32765
0.703379,-0.2434,-0.0922715,18,32765
0.721323,-0.252351,-0.0944076,18,32765
0.711137,-0.251498,-0.0929159,17,32765
0.710324,-0.253904,-0.092591,17,32765
0.737497,-0.266451,-0.0959252,18,32765
0.736626,-0.26896,-0.0956156,18,32765
0.72644,-0.267995,-0.0941429,17,32765
0.725556,-0.270461,-0.0939089,18,32765
0.715393,-0.269401,-0.0923868,17,32765
0.733061,-0.27893,-0.0944418,17,32765
0.732131,-0.281446,-0.0941938,17,32765
0.749708,-0.291141,-0.0963069,17,32765
0.748743,-0.293716,-0.0959934,17,32765
0.747802,-0.296227,-0.0956145,17,32765
0.746813,-0.298785,-0.0953861,17,32765
0.764256,-0.308732,-0.0974588,17,32765
0.781631,-0.318814,-0.0995502,17,32765
0.7714,-0.317708,-0.0979987,16,32765
0.724473,-0.301328,-0.0918691,16,32765
0.824161,-0.346216,-0.104373,16,32765
0.841282,-0.356834,-0.106374,16,32765
0.812688,-0.34801,-0.102608,16,32765
0.838889,-0.362618,-0.105706,17,32765
0.819483,-0.357526,-0.103071,16,32765
0.827383,-0.364338,-0.103903,17,32765
0.87157,-0.387344,-0.109229,16,32765
0.834006,-0.374067,-0.104438,16,32765
0.841832,-0.381,-0.105153,17,32765
0.84056,-0.383887,-0.104834,16,32765
0.866338,-0.399275,-0.107877,16,32765
0.892045,-0.414811,-0.110849,16,32765
0.845672,-0.396757,-0.104993,15,32765
0.889276,-0.420893,-0.11017,16,32765
0.887891,-0.423916,-0.109747,16,32765
0.850645,-0.409739,-0.104957,16,32765
0.840341,-0.408307,-0.103499,16,32765
0.883601,-0.433065,-0.108646,16,32765
0.953433,-0.471352,-0.117017,15,32765
0.925187,-0.461302,-0.113265,15,32765
0.914748,-0.460039,-0.111804,17,32765
0.91323,-0.463144,-0.111396,18,32765
0.90282,-0.461786,-0.109867,18,32765
0.918937,-0.474016,-0.111642,18,32765
0.970282,-0.504699,-0.117609,15,32765
1.01262,-0.531129,-0.122522,15,32765
0.966936,-0.511298,-0.11666,16,32765
0.974038,-0.519225,-0.117282,15,32765
1.03366,-0.555461,-0.124178,15,32765
1.13678,-0.615771,-0.136262,15,32765
1.03873,-0.567216,-0.124156,15,32765
1.03685,-0.570757,-0.123636,16,32765
1.08715,-0.603228,-0.129268,16,32765
1.06782,-0.597189,-0.12661,13,32765
0,-0,-0,0,32765
0,-0,-0,0,32765
0,-0,-0,0,32765
4.54967,-2.6257,-0.533442,18,32765
4.60981,-2.68132,-0.538264,18,32765
0,-0,-0,0,32765
4.60078,-2.71753,-0.533664,17,32765
0,-0,-0,0,32765
4.66829,-2.79973,-0.538016,18,32765
4.49731,-2.71768,-0.516509,20,32765
4.50546,-2.74311,-0.515908,17,32765
0,-0,-0,0,32765
4.65693,-2.87805,-0.528957,17,32765
0,-0,-0,0,32765
4.51174,-2.82988,-0.508451,16,32765
4.61216,-2.91378,-0.517927,19,32765
4.53564,-2.88633,-0.507049,19,32765
0,-0,-0,0,32765
4.58401,-2.95958,-0.50805,17,32765
4.60784,-2.99658,-0.50866,19,32765
4.56488,-2.99015,-0.501299,17,32765
0,-0,-0,0,32765
4.56207,-3.03168,-0.496395,16,32765
0,-0,-0,0,32765
4.55054,-3.06793,-0.490392,18,32765
4.62329,-3.13886,-0.494826,27,32765
4.58845,-3.13744,-0.488865,30,32765
4.63591,-3.19209,-0.491271,32,32765
4.60127,-3.19021,-0.485029,35,32765
4.61567,-3.22239,-0.483996,34,32765
4.56482,-3.20883,-0.475218,34,32765
4.56259,-3.22986,-0.472085,31,32765
4.53614,-3.23332,-0.46609,28,32765
4.51781,-3.24236,-0.461426,23,32765
4.67713,-3.37995,-0.473819,23,32765
0,-0,-0,0,32765
4.6232,-3.38765,-0.460844,18,32765
0.672383,-0.206076,-0.0976395,18,32765
0.690677,-0.214207,-0.0999039,18,32765
0.699459,-0.219487,-0.100906,18,32765
0.698781,-0.221816,-0.100513,18,32765
0.698086,-0.224154,-0.100154,18,32765
0.70679,-0.229605,-0.10114,17,32765
0.696643,-0.228913,-0.0994378,17,32765
0.724106,-0.240678,-0.103173,18,32765
0.713943,-0.239994,-0.101433,18,32765
0.731941,-0.248787,-0.103764,18,32765
0.721761,-0.248051,-0.102132,18,32765
0.730315,-0.253754,-0.103196,18,32765
0.738842,-0.259535,-0.104185,18,32765
0.747331,-0.265376,-0.105224,18,32765
0.699819,-0.251168,-0.0983262,18,32765
0.736276,-0.26709,-0.103249,18,32765
0.744712,-0.273016,-0.104242,18,32765
0.753124,-0.278966,-0.105272,18,32765
0.752204,-0.281529,-0.105028,18,32765
0.751296,-0.284066,-0.104693,18,32765
0.759621,-0.290204,-0.105627,18,32765
0.712394,-0.274964,-0.0989438,17,32765
0.766921,-0.299027,-0.106375,17,32765
0.747474,-0.2944,-0.103497,17,32765
0.764964,-0.304246,-0.105664,17,32765
0.773151,-0.310567,-0.106699,17,32765
0.781332,-0.316899,-0.107679,17,32765
0.74357,-0.304508,-0.102366,17,32765
0.760904,-0.314643,-0.104518,17,32765
0.787305,-0.328776,-0.107972,17,32765
0.7496,-0.316158,-0.102686,17,32765
0.785047,-0.334317,-0.107397,16,32765
0.856845,-0.36839,-0.117072,17,32765
0.801009,-0.347633,-0.109254,16,32765
0.83622,-0.36629,-0.113875,16,32765
0.816846,-0.36114,-0.111089,17,32765
0.824712,-0.367988,-0.11196,16,32765
0.805375,-0.362673,-0.109265,17,32765
0.813223,-0.369526,-0.110086,17,32765
0.848076,-0.388872,-0.114655,16,32765
0.828748,-0.383481,-0.11189,16,32765
0.863452,-0.403124,-0.116367,16,32765
0.89802,-0.423005,-0.12094,16,32765
0.869726,-0.41329,-0.116911,16,32765
0.859414,-0.411964,-0.115295,16,32765
0.840149,-0.406306,-0.11254,15,32765
0.874489,-0.426602,-0.11696,16,32765
0.899786,-0.442767,-0.120173,16,32765
0.871618,-0.432635,-0.116229,16,32765
0.896827,-0.448957,-0.119328,16,32765
0.859852,-0.434168,-0.114251,15,32765
0.911516,-0.464133,-0.120909,16,32765
0.945292,-0.485454,-0.125133,17,32765
0.934837,-0.484158,-0.123577,17,32765
0.924419,-0.482779,-0.121957,18,32765
0.91401,-0.48134,-0.120403,18,32765
0.921218,-0.489086,-0.12105,19,32765
0.963408,-0.515629,-0.126377,17,32765
0.961718,-0.518888,-0.12591,15,32765
0.977479,-0.53162,-0.127729,15,32765
0.932165,-0.511082,-0.121508,16,32765
1.00873,-0.557527,-0.13122,15,32765
1.04162,-0.580302,-0.135166,15,32765
1.03972,-0.583831,-0.13459,15,32765
1.02918,-0.582435,-0.132846,16,32765
1.07903,-0.61551,-0.13904,16,32765
1.0684,-0.614248,-0.137216,13,32765
4.26539,-2.47164,-0.546837,19,32765
4.26583,-2.49132,-0.544911,19,32765
4.24912,-2.5007,-0.541349,19,32765
4.24947,-2.52023,-0.539714,18,32765
4.25827,-2.54486,-0.539366,19,32765
4.31811,-2.60027,-0.545386,21,32765
4.24162,-2.57362,-0.534111,18,32765
4.23323,-2.58788,-0.531698,20,32765
4.29256,-2.64389,-0.537266,20,32765
4.26707,-2.6479,-0.532187,21,32765
4.18265,-2.61476,-0.51971,16,32765
4.29195,-2.70305,-0.53165,22,32765
4.35056,-2.75978,-0.537263,20,32765
4.28305,-2.73678,-0.526859,20,32765
4.29937,-2.76714,-0.52722,19,32765
4.29052,-2.78149,-0.523836,19,32765
4.33151,-2.82847,-0.527027,21,32765
4.32241,-2.843,-0.523535,20,32765
4.30489,-2.85202,-0.519573,18,32765
4.2957,-2.86646,-0.516165,20,32765
4.31117,-2.89762,-0.515721,18,32765
4.33469,-2.9345,-0.516524,17,32765
4.39946,-2.99928,-0.521099,18,32765
4.34873,-2.98585,-0.513075,18,32765
4.29012,-2.96626,-0.503806,18,32765
4.37062,-3.04289,-0.510918,18,32765
4.32023,-3.02868,-0.50274,19,32765
4.31075,-3.04285,-0.498483,19,32765
4.3334,-3.0804,-0.49845,21,32765
4.32365,-3.09472,-0.494328,19,32765
4.34618,-3.13221,-0.494332,19,32765
4.35235,-3.1584,-0.49153,19,32765
4.42261,-3.23174,-0.496397,20,32765
4.46039,-3.28204,-0.496706,21,32765
0.691852,-0.211389,-0.0977531,18,32765
0.681663,-0.210734,-0.0965755,19,32765
0.680964,-0.212963,-0.0966166,18,32765
0.670783,-0.212252,-0.095387,18,32765
0.707817,-0.226558,-0.100831,18,32765
0.70705,-0.228923,-0.100865,18,32765
0.687453,-0.225099,-0.0981794,18,32765
0.696107,-0.230503,-0.0995151,18,32765
0.704726,-0.23598,-0.10087,18,32765
0.713337,-0.2415,-0.102119,18,32765
0.721895,-0.247137,-0.103399,17,32765
0.692963,-0.23987,-0.0993176,18,32765
0.673435,-0.235721,-0.0965429,17,32765
0.681965,-0.241373,-0.0977933,18,32765
0.709147,-0.25372,-0.10167,17,32765
0.726913,-0.262896,-0.10432,18,32765
0.726032,-0.265377,-0.104175,18,32765
0.697254,-0.25753,-0.100077,18,32765
0.714976,-0.266822,-0.102545,18,32765
0.723368,-0.272714,-0.103756,17,32765
0.75951,-0.289295,-0.108873,16,32765
0.749299,-0.288286,-0.107436,17,32765
0.711412,-0.276412,-0.101929,17,32765
0.719731,-0.282442,-0.103025,17,32765
0.737227,-0.292168,-0.105516,17,32765
0.71782,-0.287371,-0.102726,17,32765
0.735228,-0.297292,-0.105156,16,32765
0.679171,-0.277341,-0.0969974,16,32765
0.76073,-0.313698,-0.10855,17,32765
0.723077,-0.301043,-0.103113,16,32765
0.767774,-0.322747,-0.109349,17,32765
0.784949,-0.333121,-0.111737,16,32765
0.774741,-0.331894,-0.110104,16,32765
0.737221,-0.31883,-0.104654,15,32765
0.736158,-0.321359,-0.104405,16,32765
0.816731,-0.359944,-0.115718,16,32765
0.851774,-0.378901,-0.12048,16,32765
0.832409,-0.373713,-0.117618,16,32765
0.813092,-0.368404,-0.114717,16,32765
0.811875,-0.371196,-0.114332,17,32765
0.864687,-0.398912,-0.121594,16,32765
0.836385,-0.389301,-0.117494,16,32765
0.835115,-0.39214,-0.117082,15,32765
0.833821,-0.395003,-0.116684,15,32765
0.841452,-0.40216,-0.11758,15,32765
0.875864,-0.422303,-0.122156,14,32765
0.892303,-0.434006,-0.124235,14,32765
0.846346,-0.41517,-0.117609,15,32765
0.880565,-0.435666,-0.122063,15,32765
0.843608,-0.420964,-0.116685,15,32765
0.851044,-0.428405,-0.117446,14,32765
0.902696,-0.458349,-0.124324,15,32765
0.883506,-0.452416,-0.121398,15,32765
0.864385,-0.446304,-0.118541,16,32765
0.871734,-0.453819,-0.119284,16,32765
0.94056,-0.49373,-0.128364,16,32765
0.895025,-0.47378,-0.121913,17,32765
0.91096,-0.486247,-0.123759,19,32765
0.909332,-0.489393,-0.123324,17,32765
0.960101,-0.520898,-0.129891,16,32765
0.967116,-0.528912,-0.130532,15,32765
0.939298,-0.517812,-0.12645,16,32765
0.981013,-0.5451,-0.131834,15,32765
1.02254,-0.572729,-0.137053,15,32765
1.0293,-0.581107,-0.137683,15,32765
1.036,-0.589565,-0.138289,15,32765
1.0599,-0.607956,-0.141095,16,32765
1.07512,-0.621503,-0.142696,14,32765
0,-0,-0,0,32765
0,-0,-0,0,32765
0,-0,-0,0,32765
4.22484,-2.51855,-0.55688,16,32765
4.18268,-2.51222,-0.54954,16,32765
4.24243,-2.56757,-0.556278,17,32765
4.14916,-2.53016,-0.543015,16,32765
4.17476,-2.56501,-0.544973,16,32765
4.20856,-2.60532,-0.548411,17,32765
4.19172,-2.61411,-0.544804,16,32765
4.17481,-2.6228,-0.541734,18,32765
4.24196,-2.68451,-0.549249,17,32765
4.12426,-2.62918,-0.533192,16,32765
4.32472,-2.7774,-0.558292,18,32765
4.13204,-2.67311,-0.532161,17,32765
4.24819,-2.7685,-0.546187,19,32765
4.0895,-2.68453,-0.525016,16,32765
4.03095,-2.66532,-0.516801,15,32765
4.12979,-2.7505,-0.52889,16,32765
3.99703,-2.68106,-0.511178,14,32765
0,-0,-0,0,32765
4.06194,-2.76339,-0.517588,14,32765
0,-0,-0,0,32765
4.25644,-2.93766,-0.541169,17,32765
0,-0,-0,0,32765
4.24535,-2.97168,-0.538746,18,32765
4.21959,-2.97401,-0.53518,18,32765
4.11272,-2.91873,-0.521018,19,32765
0,-0,-0,0,32765
4.23908,-3.05034,-0.536815,19,32765
0,-0,-0,0,32765
4.23501,-3.09027,-0.536509,17,32765
0,-0,-0,0,32765
0.690694,-0.211937,-0.104519,18,32765
0.699419,-0.217147,-0.106116,18,32765
0.689254,-0.216475,-0.104722,18,32765
0.697938,-0.221786,-0.106273,18,32765
0.687764,-0.221078,-0.104904,19,32765
0.724658,-0.235624,-0.110686,19,32765
0.705069,-0.23185,-0.107814,18,32765
0.68551,-0.22796,-0.104929,18,32765
0.703499,-0.23657,-0.107813,18,32765
0.71209,-0.242101,-0.109153,18,32765
0.692552,-0.238096,-0.106219,18,32765
0.710438,-0.246961,-0.109035,18,32765
0.7376,-0.259274,-0.113238,18,32765
0.708729,-0.251907,-0.108843,18,32765
0.745139,-0.267723,-0.114421,18,32765
0.734913,-0.266912,-0.112964,18,32765
0.7526,-0.276249,-0.115672,18,32765
0.714554,-0.265033,-0.109865,18,32765
0.722948,-0.270934,-0.111088,18,32765
0.740566,-0.280373,-0.113811,18,32765
0.739632,-0.282909,-0.113612,18,32765
0.738691,-0.2854,-0.113503,18,32765
0.737769,-0.287857,-0.113293,17,32765
0.727612,-0.286734,-0.111645,17,32765
0.745058,-0.296512,-0.114318,18,32765
0.74404,-0.299119,-0.114159,17,32765
0.72468,-0.294256,-0.111137,17,32765
0.751184,-0.308033,-0.115056,17,32765
0.750151,-0.310632,-0.114814,17,32765
0.803931,-0.336109,-0.122985,17,32765
0.748073,-0.315783,-0.114315,17,32765
0.737906,-0.314468,-0.112717,17,32765
0.782359,-0.336561,-0.119336,16,32765
0.753977,-0.327441,-0.114898,17,32765
0.752884,-0.330035,-0.114642,17,32765
0.769868,-0.34071,-0.117132,16,32765
0.786817,-0.35147,-0.119533,17,32765
0.785639,-0.35419,-0.119251,16,32765
0.811506,-0.369222,-0.123017,17,32765
0.774274,-0.355484,-0.117181,17,32765
0.818041,-0.37897,-0.123652,16,32765
0.843711,-0.394353,-0.127424,17,32765
0.788654,-0.371871,-0.118899,16,32765
0.760582,-0.361813,-0.114481,16,32765
0.77724,-0.373023,-0.116842,16,32765
0.820596,-0.397309,-0.123155,16,32765
0.854893,-0.417548,-0.128111,16,32765
0.862425,-0.424826,-0.129022,16,32765
0.869911,-0.432194,-0.129858,16,32765
0.806451,-0.404105,-0.120154,16,32765
0.83162,-0.420378,-0.123657,16,32765
0.839031,-0.427805,-0.124541,16,32765
0.881697,-0.453378,-0.130607,16,32765
0.862609,-0.44725,-0.127565,15,32765
0.887511,-0.463967,-0.130992,16,32765
0.885982,-0.467027,-0.130463,16,32765
0.893167,-0.474777,-0.131301,16,32765
0.909062,-0.487267,-0.13333,16,32765
0.90743,-0.490417,-0.132894,16,32765
0.897117,-0.488767,-0.131103,17,32765
0.912912,-0.501364,-0.133137,17,32765
0.919955,-0.509278,-0.13386,19,32765
0.918289,-0.512391,-0.133417,18,32765
0.916601,-0.515548,-0.132864,17,32765
0.940789,-0.53337,-0.136136,16,32765
0.93901,-0.536622,-0.135634,15,32765
0.954432,-0.549767,-0.137534,15,32765
1.00413,-0.582916,-0.144318,14,32765
1.03646,-0.60639,-0.148768,14,32765
1.0687,-0.630042,-0.153091,14,32765
1.04102,-0.618459,-0.148951,13,32765
4.11336,-2.46247,-0.587755,17,32765
4.00346,-2.41476,-0.570423,18,32765
3.99551,-2.42838,-0.568326,19,32765
3.97907,-2.43674,-0.56508,18,32765
4.03024,-2.48674,-0.571087,17,32765
3.97145,-2.46899,-0.561922,16,32765
3.93824,-2.46649,-0.555977,18,32765
3.95541,-2.49556,-0.557661,18,32765
3.92222,-2.49277,-0.551957,16,32765
4.00611,-2.56479,-0.563057,16,32765
3.95593,-2.55144,-0.555345,18,32765
3.97261,-2.581,-0.556567,17,32765
4.03059,-2.63797,-0.563897,18,32765
4.01364,-2.64607,-0.560864,17,32765
3.90567,-2.59362,-0.545191,17,32765
3.9632,-2.65095,-0.552755,16,32765
3.93815,-2.65299,-0.548654,17,32765
3.9789,-2.69957,-0.553446,17,32765
3.92101,-2.67908,-0.544623,18,32765
3.9939,-2.74873,-0.554688,17,32765
3.93588,-2.72826,-0.545772,18,32765
4.00842,-2.79835,-0.555156,18,32765
3.99114,-2.80596,-0.552682,18,32765
3.99027,-2.82471,-0.552379,17,32765
3.88411,-2.76859,-0.537206,16,32765
3.93166,-2.82191,-0.543871,17,32765
4.00299,-2.89317,-0.553656,18,32765
