x, y, z, intensity, ring
2.05946,-0.153847,0.140925,16,32765
2.0291,-0.158388,0.1388,15,32765
1.98881,-0.161825,0.135836,16,32765
2.01809,-0.170981,0.137718,16,32765
2.02747,-0.178523,0.138224,16,32765
2.02687,-0.185278,0.138095,16,32765
1.96664,-0.186445,0.134038,16,32765
1.97595,-0.193932,0.134612,16,32765
2.015,-0.204589,0.137233,16,32765
1.94485,-0.203996,0.132475,16,32765
2.00367,-0.216903,0.136556,16,32765
1.99301,-0.222521,0.135981,16,32765
2.00218,-0.230235,0.136674,16,32765
1.98159,-0.234551,0.135256,16,32765
2.0006,-0.243557,0.136716,16,32765
2.00968,-0.251399,0.137464,15,32765
1.99893,-0.25689,0.13675,16,32765
2.01785,-0.266079,0.138119,16,32765
2.01695,-0.272829,0.13818,16,32765
1.94685,-0.269908,0.133455,16,32765
2.00523,-0.284742,0.137366,16,32765
1.98451,-0.288583,0.13611,16,32765
1.98353,-0.295132,0.136453,16,32765
1.97265,-0.300294,0.135985,16,32765
1.97163,-0.306935,0.135871,16,32765
1.9607,-0.31209,0.135432,17,32765
1.9596,-0.318843,0.135635,17,32765
1.96835,-0.327039,0.136573,17,32765
1.96723,-0.333654,0.136619,17,32765
1.90713,-0.329987,0.132564,17,32765
1.93549,-0.341465,0.1348,17,32765
1.9245,-0.346183,0.134425,17,32765
1.97242,-0.36149,0.137818,17,32765
1.9908,-0.37176,0.139291,16,32765
1.94053,-0.369046,0.13619,17,32765
1.94909,-0.377387,0.136906,17,32765
1.9478,-0.383939,0.13699,17,32765
1.96608,-0.394265,0.138543,17,32765
1.95496,-0.398884,0.137886,17,32765
1.96339,-0.407415,0.138669,17,32765
1.93271,-0.407842,0.136764,16,32765
1.95082,-0.418588,0.138208,16,32765
1.99814,-0.435709,0.14181,16,32765
2.01613,-0.446751,0.14329,17,32765
1.97573,-0.444561,0.140555,16,32765
1.93535,-0.442133,0.138035,16,32765
1.95332,-0.45302,0.13928,16,32765
1.98095,-0.466249,0.141659,16,32765
1.9794,-0.472791,0.141601,16,32765
1.97784,-0.479252,0.141626,16,32765
1.97623,-0.485802,0.141796,16,32765
1.98428,-0.494796,0.142483,17,32765
1.96329,-0.496442,0.141234,16,32765
1.96166,-0.502884,0.141083,16,32765
2.02758,-0.52688,0.14595,17,32765
1.98728,-0.52326,0.143242,16,32765
1.97592,-0.527193,0.142505,16,32765
2.0031,-0.54131,0.144765,16,32765
1.99171,-0.545218,0.143962,16,32765
1.96108,-0.543703,0.1419,16,32765
2.02654,-0.568965,0.146683,17,32765
1.99589,-0.567436,0.144346,17,32765
1.98446,-0.571085,0.143849,16,32765
2.00176,-0.583086,0.145102,17,32765
1.93293,-0.569674,0.140252,16,32765
1.97892,-0.590059,0.143534,17,32765
1.94838,-0.587755,0.141244,16,32765
1.95606,-0.596839,0.14178,16,32765
1.97321,-0.608963,0.143163,16,32765
2.0094,-0.627081,0.14554,17,32765
1.96939,-0.621352,0.142597,16,32765
1.95795,-0.624515,0.141503,16,32765
1.96553,-0.633634,0.141829,16,32765
1.97301,-0.642981,0.142109,16,32765
1.96159,-0.645902,0.140972,16,32765
2.07619,0.0271538,0.122847,16,32765
2.07623,0.0203607,0.123467,16,32765
2.04631,0.0133039,0.122149,15,32765
2.06629,0.00658669,0.123715,16,32765
2.0463,-0.000358969,0.123135,16,32765
2.07621,-0.00729942,0.125269,16,32765
2.02625,-0.0138373,0.122542,16,32765
2.04615,-0.0206293,0.123952,16,32765
2.02608,-0.0271191,0.12315,16,32765
2.06589,-0.0343675,0.125789,17,32765
2.02583,-0.0405135,0.123655,16,32765
1.98575,-0.0463584,0.121458,16,32765
1.9756,-0.05268,0.120886,16,32765
2.00534,-0.0600871,0.122921,16,32765
2.0151,-0.0670445,0.123648,15,32765
2.04477,-0.0748406,0.125694,16,32765
1.97469,-0.0788933,0.121484,15,32765
2.00432,-0.0867554,0.123522,15,32765
1.99404,-0.092942,0.123086,15,32765
1.97378,-0.098504,0.121949,15,32765
1.97345,-0.104957,0.121928,16,32765
2.02291,-0.114239,0.125295,15,32765
1.99263,-0.119069,0.123532,15,32765
1.99223,-0.125615,0.123431,16,32765
2.05154,-0.136213,0.127375,16,32765
2.03117,-0.141633,0.126106,16,32765
1.91123,-0.13974,0.118583,16,32765
1.98041,-0.151458,0.123057,16,32765
1.98983,-0.158984,0.123641,16,32765
1.95943,-0.163156,0.122081,15,32765
1.939,-0.167986,0.120702,15,32765
1.94837,-0.175348,0.121326,15,32765
1.9577,-0.182813,0.122081,15,32765
1.97693,-0.191316,0.123553,16,32765
1.99613,-0.199859,0.12499,16,32765
1.92596,-0.199345,0.120569,16,32765
1.92529,-0.205783,0.12046,16,32765
1.93452,-0.213293,0.121061,15,32765
1.96353,-0.223146,0.123048,15,32765
1.98262,-0.231868,0.124388,16,32765
1.97192,-0.237276,0.123842,16,32765
1.95132,-0.241392,0.122454,16,32765
1.8911,-0.240427,0.118512,15,32765
1.95954,-0.255819,0.123085,15,32765
1.98834,-0.266313,0.125192,16,32765
1.9281,-0.264819,0.121649,16,32765
1.96674,-0.276834,0.124072,15,32765
1.90654,-0.274841,0.120228,15,32765
1.94508,-0.287181,0.122836,16,32765
1.96385,-0.296564,0.124289,15,32765
1.93326,-0.298483,0.122459,16,32765
2.00128,-0.315812,0.126725,16,32765
1.9214,-0.309717,0.121613,15,32765
1.90065,-0.31296,0.120394,15,32765
1.9291,-0.324288,0.1225,15,32765
1.94767,-0.3342,0.12366,16,32765
1.91703,-0.335549,0.122003,16,32765
1.94539,-0.34711,0.123933,17,32765
1.88532,-0.342824,0.120094,16,32765
1.88417,-0.349018,0.120358,16,32765
1.90259,-0.359027,0.121796,16,32765
1.90136,-0.365483,0.121801,16,32765
1.95891,-0.383238,0.125708,16,32765
1.89888,-0.378081,0.122063,16,32765
1.87806,-0.380341,0.120912,16,32765
1.91589,-0.394564,0.123614,16,32765
1.89501,-0.396848,0.122622,17,32765
1.92296,-0.409309,0.124788,17,32765
1.91183,-0.413589,0.124313,17,32765
1.92995,-0.424114,0.125794,17,32765
1.88956,-0.421794,0.123475,16,32765
1.86866,-0.423645,0.122557,16,32765
1.91585,-0.441049,0.126053,16,32765
1.90466,-0.44509,0.125549,15,32765
1.91287,-0.453669,0.126598,16,32765
1.96957,-0.47391,0.130792,16,32765
1.9098,-0.466213,0.127294,16,32765
1.97606,-0.489221,0.132114,17,32765
1.93571,-0.485983,0.129767,16,32765
1.92442,-0.489779,0.129755,16,32765
1.97107,-0.508586,0.133537,16,32765
1.93078,-0.504891,0.131113,16,32765
1.9291,-0.511113,0.131645,16,32765
1.98524,-0.532901,0.135804,16,32765
1.91607,-0.520972,0.131812,16,32765
1.9624,-0.540541,0.13568,16,32765
1.96057,-0.547036,0.136089,16,32765
1.98754,-0.561515,0.138881,15,32765
1.90892,-0.54604,0.133983,15,32765
1.9263,-0.557657,0.135931,16,32765
1.96278,-0.575009,0.139164,15,32765
1.93213,-0.572918,0.137968,16,32765
1.95891,-0.587722,0.140618,16,32765
1.99515,-0.605578,0.144053,16,32765
1.98365,-0.608913,0.144096,16,32765
2.01978,-0.626974,0.147619,16,32765
1.97011,-0.618476,0.145133,16,32765
1.9871,-0.630758,0.147293,15,32765
1.9945,-0.640127,0.14908,16,32765
1.97343,-0.640237,0.148542,15,32765
1.93341,-0.633955,0.147035,16,32765
2.01734,0.026517,0.100276,16,32765
2.01738,0.0199036,0.100879,17,32765
2.0274,0.0132883,0.101836,17,32765
1.98747,0.00642762,0.10019,16,32765
2.01741,-0.0002736,0.102307,16,32765
2.06731,-0.00719956,0.10517,16,32765
2.04729,-0.0139265,0.104441,16,32765
2.03724,-0.0204986,0.104133,16,32765
2.00718,-0.0268389,0.103005,16,32765
2.00707,-0.0333748,0.103211,16,32765
2.00693,-0.0401348,0.103505,16,32765
1.95685,-0.0456961,0.101167,17,32765
1.97666,-0.0527336,0.102238,17,32765
1.97646,-0.0592604,0.102438,17,32765
1.97625,-0.0658036,0.102551,17,32765
1.95605,-0.0716573,0.101716,17,32765
1.96577,-0.0786146,0.102317,17,32765
1.92558,-0.0834359,0.100429,17,32765
1.96518,-0.0917007,0.102686,18,32765
1.93494,-0.0966808,0.101214,18,32765
1.92465,-0.102489,0.100673,17,32765
1.91431,-0.108246,0.100423,17,32765
1.92391,-0.115116,0.101032,17,32765
1.92353,-0.121448,0.100935,16,32765
1.93307,-0.128526,0.101685,16,32765
1.94259,-0.13565,0.102179,16,32765
1.94213,-0.142205,0.102072,17,32765
1.92172,-0.147188,0.101171,17,32765
1.93116,-0.154529,0.101662,17,32765
1.91071,-0.159342,0.100902,16,32765
1.93007,-0.167471,0.101814,16,32765
1.90961,-0.17213,0.100769,16,32765
1.9289,-0.18041,0.101953,16,32765
1.88851,-0.183052,0.100073,16,32765
1.93756,-0.194309,0.102896,17,32765
1.90711,-0.197715,0.101247,16,32765
1.91637,-0.205166,0.101666,17,32765
1.93553,-0.213758,0.1027,16,32765
1.93479,-0.220247,0.102823,17,32765
1.9043,-0.223083,0.101334,17,32765
1.93329,-0.23302,0.102992,17,32765
1.91268,-0.237016,0.101796,17,32765
1.91188,-0.243486,0.101581,17,32765
1.91104,-0.249917,0.101806,17,32765
1.89039,-0.253632,0.100981,17,32765
1.9192,-0.264054,0.10276,16,32765
1.90842,-0.269094,0.102161,17,32765
1.89763,-0.274037,0.101529,17,32765
1.90655,-0.28199,0.102172,17,32765
1.91547,-0.289772,0.102902,17,32765
1.90463,-0.294586,0.102416,17,32765
1.93324,-0.30562,0.103904,17,32765
1.9125,-0.308836,0.102727,17,32765
1.91145,-0.315305,0.102755,17,32765
1.91036,-0.321719,0.102989,17,32765
1.8699,-0.321438,0.10078,17,32765
1.8688,-0.327702,0.100991,17,32765
1.86771,-0.333858,0.101042,17,32765
1.90589,-0.3472,0.103085,16,32765
1.88509,-0.349831,0.102287,16,32765
1.89371,-0.358009,0.103004,16,32765
1.91209,-0.368225,0.104077,17,32765
1.88146,-0.368769,0.10261,17,32765
1.91938,-0.382874,0.104877,16,32765
1.87896,-0.381233,0.102844,17,32765
1.84834,-0.381366,0.101414,16,32765
1.89591,-0.397782,0.104367,17,32765
1.90434,-0.406108,0.105173,16,32765
1.91273,-0.414564,0.105871,16,32765
1.91135,-0.420821,0.106082,16,32765
1.8807,-0.420611,0.10468,17,32765
1.90848,-0.433494,0.106671,17,32765
1.88755,-0.435361,0.105882,17,32765
1.89582,-0.443869,0.106564,17,32765
1.90403,-0.452437,0.107517,17,32765
1.88311,-0.453975,0.106744,18,32765
1.87188,-0.457833,0.106555,18,32765
1.89943,-0.471155,0.108497,17,32765
1.88818,-0.474963,0.108182,16,32765
1.89627,-0.483546,0.109365,17,32765
1.94296,-0.502303,0.11267,16,32765
1.91233,-0.501036,0.111182,16,32765
1.89137,-0.502089,0.110581,16,32765
1.88971,-0.508245,0.110781,16,32765
1.90729,-0.519595,0.112532,16,32765
1.92478,-0.531212,0.114215,16,32765
1.92298,-0.537596,0.114617,16,32765
1.89236,-0.535671,0.113651,16,32765
1.93856,-0.555604,0.117013,16,32765
1.8888,-0.547874,0.114707,17,32765
1.88701,-0.553899,0.115215,16,32765
1.90428,-0.565769,0.117214,16,32765
1.95021,-0.586265,0.120758,16,32765
1.89097,-0.57509,0.117863,17,32765
1.90819,-0.586907,0.119759,17,32765
1.92535,-0.598843,0.121673,17,32765
1.91384,-0.602001,0.122039,16,32765
1.92139,-0.611108,0.12338,17,32765
1.92886,-0.620288,0.125038,16,32765
1.96481,-0.638704,0.128382,17,32765
1.94375,-0.638609,0.128499,17,32765
2.05695,0.026259,0.108851,16,32765
2.02712,0.0192002,0.106307,16,32765
2.02722,0.0123031,0.105424,16,32765
2.00732,0.00538128,0.103646,16,32765
2.05729,-0.00124128,0.10553,15,32765
2.02736,-0.00779912,0.103213,16,32765
2.02735,-0.0144546,0.102619,16,32765
1.95742,-0.0204111,0.0984814,16,32765
2.0073,-0.0276364,0.100484,16,32765
2.00723,-0.0343052,0.0998323,16,32765
1.98716,-0.0405196,0.0983398,16,32765
1.94708,-0.046202,0.0962147,16,32765
1.91699,-0.0518959,0.0942017,16,32765
1.95675,-0.0595085,0.0958506,16,32765
1.91663,-0.0646887,0.0934906,17,32765
1.97632,-0.0732424,0.0959189,17,32765
1.94614,-0.0785184,0.0941846,17,32765
1.92592,-0.0841083,0.0929821,17,32765
1.92565,-0.0904205,0.0926409,17,32765
1.88545,-0.0948498,0.0904534,16,32765
1.89512,-0.101579,0.0906039,17,32765
1.89479,-0.107821,0.0903556,17,32765
1.91436,-0.115249,0.091312,17,32765
1.914,-0.121444,0.0909443,17,32765
1.87372,-0.125149,0.0888926,16,32765
1.89323,-0.132774,0.0896279,15,32765
1.88283,-0.138379,0.0889828,15,32765
1.88236,-0.144648,0.0887667,16,32765
1.90179,-0.152476,0.0896218,15,32765
1.88137,-0.157104,0.088606,16,32765
1.8709,-0.162432,0.0880589,16,32765
1.92009,-0.173141,0.0904315,16,32765
1.87972,-0.175862,0.088381,16,32765
1.899,-0.184082,0.0894184,16,32765
1.88844,-0.189434,0.0889063,16,32765
1.90768,-0.197766,0.089641,16,32765
1.86728,-0.199803,0.0879698,16,32765
1.87653,-0.207196,0.0883737,17,32765
1.84604,-0.210134,0.0869635,16,32765
1.85525,-0.217559,0.0873283,17,32765
1.86443,-0.22492,0.0879088,16,32765
1.85377,-0.229786,0.0874096,16,32765
1.86289,-0.237174,0.0881629,16,32765
1.83239,-0.239467,0.0865306,17,32765
1.83157,-0.245601,0.0867186,17,32765
1.86042,-0.255876,0.0881661,17,32765
1.82986,-0.257898,0.0872558,17,32765
1.9081,-0.275365,0.0907133,16,32765
1.82811,-0.270068,0.0870306,16,32765
1.87657,-0.283626,0.0896883,16,32765
1.91508,-0.296055,0.0916986,15,32765
1.85488,-0.293107,0.0888991,17,32765
1.88346,-0.304064,0.0906318,16,32765
1.843,-0.303906,0.088783,16,32765
1.84196,-0.310125,0.0888626,16,32765
1.88028,-0.323101,0.0907439,16,32765
1.83983,-0.322473,0.0890034,15,32765
1.84856,-0.330373,0.0897966,16,32765
1.78849,-0.325802,0.0869734,16,32765
1.8365,-0.340826,0.0894416,16,32765
1.84516,-0.34879,0.0901709,16,32765
1.86359,-0.358678,0.0914658,16,32765
1.83299,-0.359072,0.0901003,16,32765
1.84157,-0.36714,0.0906273,16,32765
1.88929,-0.383191,0.0929883,16,32765
1.81953,-0.375279,0.0899322,16,32765
1.83782,-0.385455,0.0908569,16,32765
1.87558,-0.399894,0.0930961,15,32765
1.84493,-0.399888,0.0917116,16,32765
1.89234,-0.416867,0.0942138,16,32765
1.85192,-0.414506,0.0925431,16,32765
1.85054,-0.420647,0.0924508,16,32765
1.82967,-0.422267,0.0916472,15,32765
1.85744,-0.435097,0.0932789,16,32765
1.83656,-0.436605,0.0923115,16,32765
1.85453,-0.447327,0.0933113,16,32765
1.84334,-0.451045,0.0929724,16,32765
1.84183,-0.45715,0.0930577,17,32765
1.81126,-0.455863,0.0917281,16,32765
1.81944,-0.464247,0.0922955,16,32765
1.80824,-0.467691,0.0918088,16,32765
1.81636,-0.476127,0.0923415,16,32765
1.82444,-0.484662,0.0929302,16,32765
1.84214,-0.495793,0.0937864,16,32765
1.87907,-0.512268,0.0957521,16,32765
1.8389,-0.507675,0.0938805,15,32765
1.86612,-0.521646,0.0953533,16,32765
1.86441,-0.527698,0.0954159,16,32765
1.84347,-0.528337,0.0942163,16,32765
1.88968,-0.548348,0.0966196,15,32765
1.86874,-0.548772,0.0956502,15,32765
1.85743,-0.551801,0.0951971,16,32765
1.86528,-0.560467,0.0953642,15,32765
1.84439,-0.560576,0.0943161,15,32765
1.8712,-0.575367,0.0956466,15,32765
1.82167,-0.566532,0.0930783,16,32765
1.81039,-0.56916,0.0925189,16,32765
1.86573,-0.592948,0.0952548,16,32765
1.90194,-0.610969,0.096722,16,32765
1.88097,-0.610985,0.0951378,16,32765
1.88856,-0.619955,0.0954632,16,32765
2.03791,0.0261404,0.0885731,16,32765
1.98807,0.0189377,0.0854618,16,32765
1.99815,0.01222,0.0850207,16,32765
1.97823,0.00538135,0.0834417,17,32765
1.99825,-0.00114083,0.0836095,16,32765
2.00826,-0.00767449,0.0832551,16,32765
1.96828,-0.0139971,0.0810217,17,32765
1.96825,-0.0205016,0.0804192,17,32765
1.92823,-0.0265394,0.0782972,17,32765
1.92815,-0.0329592,0.0776707,17,32765
1.98799,-0.0405563,0.079586,17,32765
1.97786,-0.0469659,0.0790353,16,32765
1.92778,-0.0522343,0.0765037,16,32765
2.02748,-0.0617225,0.0801427,16,32765
1.92741,-0.0651262,0.0757886,16,32765
1.90723,-0.0707685,0.0745274,17,32765
1.91698,-0.0774423,0.0746409,17,32765
1.90674,-0.0833838,0.074018,17,32765
1.93642,-0.0910544,0.0748376,17,32765
1.90617,-0.0960323,0.07341,17,32765
1.92581,-0.103379,0.0738454,20,32765
1.96538,-0.11201,0.0751184,19,32765
1.8852,-0.113672,0.0720733,18,32765
1.86489,-0.118518,0.0709524,17,32765
1.90437,-0.127403,0.0723107,18,32765
1.86407,-0.130945,0.0705894,18,32765
1.89353,-0.139398,0.0715476,18,32765
1.87313,-0.144183,0.0705796,17,32765
1.89257,-0.151997,0.0712469,17,32765
1.8821,-0.157436,0.0707947,16,32765
1.85171,-0.161047,0.0695937,17,32765
1.87106,-0.169016,0.070372,17,32765
1.87049,-0.175309,0.0701969,17,32765
1.85,-0.179652,0.0695498,16,32765
1.90904,-0.191845,0.0717491,16,32765
1.87858,-0.195102,0.0704303,17,32765
1.86798,-0.200242,0.0702543,17,32765
1.87723,-0.207653,0.0705642,17,32765
1.85666,-0.211731,0.0698103,18,32765
1.84601,-0.216876,0.069335,17,32765
1.89488,-0.229018,0.0713145,18,32765
1.85445,-0.230299,0.0697898,17,32765
1.86358,-0.237705,0.0704492,18,32765
1.85288,-0.242599,0.0698468,18,32765
1.85205,-0.248815,0.0700373,18,32765
1.84129,-0.253726,0.069704,17,32765
1.86021,-0.262673,0.0709587,18,32765
1.84945,-0.26741,0.0702755,18,32765
1.85842,-0.275071,0.0707305,18,32765
1.83772,-0.278287,0.0702776,17,32765
1.84664,-0.286023,0.0707736,17,32765
1.82593,-0.289089,0.070053,17,32765
1.82494,-0.295187,0.0703578,16,32765
1.83379,-0.302974,0.0707875,17,32765
1.84261,-0.310837,0.0712482,17,32765
1.8317,-0.315366,0.0708487,17,32765
1.84047,-0.323216,0.07139,17,32765
1.82953,-0.327612,0.0713227,17,32765
1.83825,-0.335525,0.0717505,18,32765
1.83713,-0.341614,0.0718298,17,32765
1.85561,-0.351456,0.072851,17,32765
1.83479,-0.353833,0.072411,17,32765
1.83361,-0.359905,0.0724902,17,32765
1.83239,-0.366035,0.0725357,17,32765
1.83116,-0.372141,0.0724884,16,32765
1.87884,-0.388286,0.074754,17,32765
1.85798,-0.390463,0.0739332,17,32765
1.81756,-0.388301,0.0726738,17,32765
1.84553,-0.400821,0.0739168,17,32765
1.85392,-0.409225,0.0743829,17,32765
1.80376,-0.404541,0.0726908,16,32765
1.84138,-0.419412,0.0741713,17,32765
1.83998,-0.425506,0.0743425,17,32765
1.82884,-0.429266,0.0741164,17,32765
1.84685,-0.439943,0.0749149,17,32765
1.84538,-0.446028,0.0749383,17,32765
1.8439,-0.452103,0.0750887,17,32765
1.83269,-0.455812,0.0747791,17,32765
1.84087,-0.464264,0.0753174,17,32765
1.81997,-0.465337,0.0746022,17,32765
1.82811,-0.473804,0.0750039,18,32765
1.84588,-0.484863,0.0758408,17,32765
1.80564,-0.480661,0.0743497,18,32765
1.83301,-0.494358,0.0754167,18,32765
1.85067,-0.505575,0.0762129,18,32765
1.8394,-0.50887,0.0759092,17,32765
1.80889,-0.506704,0.0747159,17,32765
1.83607,-0.520762,0.0759706,18,32765
1.82474,-0.524066,0.0753599,17,32765
1.84218,-0.535691,0.0761051,17,32765
1.8117,-0.533141,0.0749278,17,32765
1.83874,-0.5474,0.076155,17,32765
1.81789,-0.547384,0.0750471,17,32765
1.81615,-0.553164,0.0749789,17,32765
1.84299,-0.567897,0.0760301,17,32765
1.86024,-0.579761,0.0766878,18,32765
1.83938,-0.579511,0.0758288,17,32765
1.81853,-0.579185,0.0748629,17,32765
1.82624,-0.587913,0.0747978,17,32765
1.84334,-0.600054,0.0749732,17,32765
1.82248,-0.599558,0.0740515,17,32765
2.00897,0.0288726,0.0573756,16,32765
1.94907,0.0216026,0.0562463,15,32765
1.98909,0.0154545,0.0580119,15,32765
1.94914,0.00864874,0.0573799,15,32765
1.99913,0.00211312,0.0590382,16,32765
1.94913,-0.00440947,0.0582222,15,32765
2.00907,-0.0111304,0.0602688,15,32765
1.93905,-0.0171636,0.0583261,15,32765
1.96896,-0.0239871,0.0594309,15,32765
1.95886,-0.0304768,0.0593522,16,32765
1.90878,-0.0360117,0.0580401,15,32765
1.93862,-0.0430304,0.0593198,15,32765
1.93846,-0.0494577,0.0594895,16,32765
1.89832,-0.0546988,0.0583405,16,32765
1.88812,-0.0606993,0.0583232,16,32765
1.91788,-0.0680259,0.0593673,17,32765
1.90765,-0.0739591,0.0592597,16,32765
1.88741,-0.0794333,0.0587892,15,32765
1.8472,-0.0839071,0.0576235,17,32765
1.86687,-0.0911192,0.0583684,17,32765
1.87653,-0.0978738,0.0586897,17,32765
1.86621,-0.103607,0.0585139,17,32765
1.85588,-0.109217,0.0582447,17,32765
1.88542,-0.117291,0.0593395,17,32765
1.86506,-0.122303,0.0589588,17,32765
1.81479,-0.125035,0.0573354,17,32765
1.83431,-0.132433,0.0580253,17,32765
1.82389,-0.137821,0.0578055,17,32765
1.87324,-0.147826,0.0594134,17,32765
1.84284,-0.151692,0.0584748,17,32765
1.84232,-0.157892,0.0585448,17,32765
1.85173,-0.164934,0.058951,17,32765
1.83128,-0.16923,0.0582189,17,32765
1.82074,-0.174406,0.058072,17,32765
1.82016,-0.180436,0.058016,18,32765
1.84938,-0.189544,0.058896,18,32765
1.81892,-0.192528,0.0580948,17,32765
1.8282,-0.199725,0.0583783,17,32765
1.77785,-0.200278,0.0568229,16,32765
1.78709,-0.207496,0.0571259,17,32765
1.81615,-0.217063,0.0582085,17,32765
1.78565,-0.219469,0.0573795,16,32765
1.8444,-0.232942,0.0594287,17,32765
1.81389,-0.235124,0.0585202,17,32765
1.823,-0.242486,0.0589226,16,32765
1.78256,-0.243212,0.0576731,17,32765
1.81143,-0.253361,0.0585506,16,32765
1.79077,-0.256683,0.0578104,16,32765
1.78001,-0.261234,0.0576631,16,32765
1.80878,-0.271663,0.0585198,17,32765
1.77821,-0.273183,0.0578502,17,32765
1.77728,-0.279175,0.0577867,17,32765
1.80593,-0.289972,0.0586352,17,32765
1.79507,-0.294416,0.0585664,17,32765
1.79408,-0.30043,0.0585125,17,32765
1.82261,-0.311492,0.0597406,17,32765
1.76249,-0.307221,0.0578157,16,32765
1.78113,-0.316656,0.0583479,16,32765
1.78005,-0.322611,0.0586493,17,32765
1.77895,-0.328618,0.058834,17,32765
1.81713,-0.341949,0.0601801,16,32765
1.77672,-0.340423,0.0589081,15,32765
1.75597,-0.342457,0.0583894,16,32765
1.7548,-0.348315,0.0586541,17,32765
1.79282,-0.362038,0.0601907,17,32765
1.78182,-0.365935,0.0600306,16,32765
1.80995,-0.377958,0.0611752,17,32765
1.81845,-0.386038,0.0616826,16,32765
1.78785,-0.38572,0.0609538,16,32765
1.81583,-0.398103,0.0622,16,32765
1.8047,-0.402088,0.0622402,16,32765
1.79359,-0.405911,0.0620776,17,32765
1.80196,-0.414135,0.0625939,16,32765
1.83951,-0.429147,0.0643561,16,32765
1.77,-0.419088,0.0622853,16,32765
1.8075,-0.434102,0.0639405,16,32765
1.77694,-0.43289,0.0632679,16,32765
1.79491,-0.443479,0.0642395,17,32765
1.79343,-0.44936,0.0646289,16,32765
1.81129,-0.460204,0.0657775,17,32765
1.79042,-0.461102,0.0653991,16,32765
1.80821,-0.472068,0.0665701,16,32765
1.78731,-0.47288,0.0663796,17,32765
1.80503,-0.483943,0.0676967,17,32765
1.77447,-0.482039,0.0669794,16,32765
1.79215,-0.493122,0.0680462,17,32765
1.80014,-0.501614,0.0690642,17,32765
1.77927,-0.501971,0.0687565,17,32765
1.79683,-0.513202,0.0701223,17,32765
1.79514,-0.51902,0.0706945,16,32765
1.78383,-0.522051,0.0707597,17,32765
1.79167,-0.53072,0.0719227,16,32765
1.81864,-0.545058,0.0739036,16,32765
1.79773,-0.545093,0.0736712,16,32765
1.80551,-0.55378,0.0746907,16,32765
1.82278,-0.565474,0.0762403,16,32765
1.81139,-0.568301,0.0767259,16,32765
1.77147,-0.56193,0.0757266,16,32765
1.83626,-0.588803,0.0797079,16,32765
1.80584,-0.585366,0.0793005,16,32765
1.81346,-0.594046,0.081038,16,32765
1.96944,0.0283994,0.0376553,16,32765
1.95951,0.0217993,0.0380507,16,32765
1.92957,0.0150584,0.0380617,15,32765
1.92959,0.0086149,0.0385904,16,32765
1.92961,0.00207857,0.0387709,16,32765
1.95959,-0.00440715,0.0400371,16,32765
1.95956,-0.0108438,0.0402859,16,32765
1.94951,-0.0172577,0.0402374,16,32765
1.91944,-0.023399,0.0398161,16,32765
1.90935,-0.0297353,0.0398261,16,32765
1.91924,-0.0362515,0.0402377,16,32765
1.93909,-0.0430974,0.0410251,15,32765
1.89895,-0.0485186,0.0403455,17,32765
1.90877,-0.0550828,0.0406359,17,32765
1.90857,-0.0614529,0.0409289,17,32765
1.88837,-0.0670881,0.0406169,17,32765
1.86816,-0.0725486,0.0403846,17,32765
1.8679,-0.0787459,0.0405331,18,32765
1.87761,-0.0854368,0.0408298,18,32765
1.85734,-0.0908142,0.0405169,18,32765
1.87699,-0.0980731,0.0409619,18,32765
1.86667,-0.103821,0.0408805,18,32765
1.86631,-0.110032,0.0409246,17,32765
1.85595,-0.115671,0.0408589,18,32765
1.86552,-0.122561,0.041326,18,32765
1.85513,-0.128054,0.0410572,17,32765
1.87464,-0.135601,0.04156,17,32765
1.85424,-0.140382,0.0412152,17,32765
1.86372,-0.147357,0.0414654,18,32765
1.83332,-0.151199,0.0408099,18,32765
1.84276,-0.158236,0.0411019,18,32765
1.8223,-0.162629,0.0407461,18,32765
1.83171,-0.169601,0.0408708,18,32765
1.82118,-0.17479,0.0408184,17,32765
1.82059,-0.180835,0.0407627,17,32765
1.85976,-0.190985,0.0415825,18,32765
1.78952,-0.189793,0.0401726,17,32765
1.82862,-0.200169,0.0410316,18,32765
1.75839,-0.198482,0.0395015,17,32765
1.7875,-0.20796,0.0401569,18,32765
1.80663,-0.216361,0.0407332,18,32765
1.79598,-0.221184,0.0406357,18,32765
1.7853,-0.225935,0.0405438,17,32765
1.79447,-0.233079,0.0408188,18,32765
1.8135,-0.241712,0.0413524,17,32765
1.78295,-0.243762,0.0407063,17,32765
1.76232,-0.246997,0.040173,17,32765
1.80106,-0.258687,0.0409753,16,32765
1.79028,-0.263282,0.0409236,17,32765
1.78939,-0.269305,0.0408208,17,32765
1.7687,-0.272284,0.0406583,16,32765
1.7974,-0.28292,0.041276,17,32765
1.76682,-0.284281,0.040484,17,32765
1.78558,-0.293467,0.041187,17,32765
1.8043,-0.302771,0.0415884,17,32765
1.81312,-0.310516,0.0420784,17,32765
1.79239,-0.313084,0.0416343,17,32765
1.79132,-0.319135,0.0415204,17,32765
1.76072,-0.319777,0.0411346,17,32765
1.76946,-0.327552,0.0415487,17,32765
1.79782,-0.339029,0.0422871,18,32765
1.78687,-0.34309,0.042086,17,32765
1.7661,-0.345162,0.041757,17,32765
1.76493,-0.351067,0.0420237,17,32765
1.79315,-0.362871,0.0429507,18,32765
1.75277,-0.360732,0.0421785,17,32765
1.7907,-0.374734,0.0432751,17,32765
1.76988,-0.376527,0.0429747,17,32765
1.79793,-0.388723,0.0439552,18,32765
1.75756,-0.38615,0.0432393,17,32765
1.80501,-0.403017,0.0448158,18,32765
1.7549,-0.398004,0.0437753,17,32765
1.78278,-0.410605,0.0446825,17,32765
1.7522,-0.409656,0.0443401,17,32765
1.76056,-0.41775,0.0448982,18,32765
1.8078,-0.435107,0.0464255,18,32765
1.77722,-0.433892,0.0460361,17,32765
1.75638,-0.434895,0.0458078,17,32765
1.76463,-0.443097,0.0464448,17,32765
1.78251,-0.453871,0.0473987,17,32765
1.76166,-0.454677,0.0472041,17,32765
1.79881,-0.470633,0.0487039,17,32765
1.80691,-0.479102,0.0494937,18,32765
1.79564,-0.482473,0.0498262,18,32765
1.78438,-0.485784,0.0499299,18,32765
1.78278,-0.49161,0.0502677,18,32765
1.7619,-0.492025,0.0503634,17,32765
1.818,-0.514018,0.0524557,18,32765
1.8067,-0.517147,0.052805,18,32765
1.76659,-0.511882,0.0522453,17,32765
1.78408,-0.523267,0.0532574,17,32765
1.78234,-0.529112,0.0540368,17,32765
1.79975,-0.540578,0.0554372,18,32765
1.79799,-0.546364,0.0559837,18,32765
1.83442,-0.563883,0.0578135,17,32765
1.78485,-0.554924,0.0570522,17,32765
1.79258,-0.563632,0.0582338,18,32765
1.80981,-0.575356,0.0594836,18,32765
1.83652,-0.59018,0.0615552,17,32765
1.78708,-0.580559,0.0607845,17,32765
1.80422,-0.59232,0.0627455,17,32765
1.91933,0.0271423,0.0428498,14,32765
1.91943,0.0206472,0.0419386,15,32765
1.9295,0.0143105,0.0413033,15,32765
1.98955,0.00813331,0.0416873,15,32765
1.91959,0.00153213,0.0395073,15,32765
1.9196,-0.00472493,0.0387672,15,32765
1.90959,-0.0109965,0.0380058,15,32765
1.95954,-0.017757,0.0385405,15,32765
1.8895,-0.023646,0.0366503,16,32765
1.84943,-0.0294599,0.0352944,16,32765
1.84933,-0.0356517,0.0347198,16,32765
1.90918,-0.0431076,0.0354825,15,32765
1.84907,-0.0477274,0.0340899,17,32765
1.88889,-0.0549427,0.0343516,17,32765
1.84873,-0.0599292,0.0332865,17,32765
1.84852,-0.0661148,0.0329689,17,32765
1.82831,-0.0715579,0.0323236,18,32765
1.88801,-0.0801547,0.0330431,17,32765
1.84779,-0.0845947,0.0319938,17,32765
1.85749,-0.0911712,0.0319626,17,32765
1.83722,-0.0962028,0.0313351,17,32765
1.86683,-0.104004,0.0317907,17,32765
1.84653,-0.108963,0.0310701,16,32765
1.8761,-0.116959,0.0313812,17,32765
1.78591,-0.117291,0.0297559,17,32765
1.83538,-0.126629,0.0305082,17,32765
1.81501,-0.131295,0.0299459,17,32765
1.82453,-0.138129,0.0301074,18,32765
1.79416,-0.141891,0.0294623,18,32765
1.81361,-0.149509,0.0296976,18,32765
1.84299,-0.158086,0.0301677,18,32765
1.76278,-0.157136,0.0287337,16,32765
1.81203,-0.167565,0.0295643,17,32765
1.81146,-0.173595,0.0295228,18,32765
1.82081,-0.18073,0.0297978,17,32765
1.79036,-0.183767,0.029165,17,32765
1.77979,-0.18872,0.0290065,18,32765
1.79903,-0.196834,0.0292015,18,32765
1.78842,-0.201762,0.0291587,18,32765
1.78774,-0.207676,0.0291666,18,32765
1.76717,-0.211347,0.0290284,17,32765
1.79624,-0.220848,0.0293387,17,32765
1.77563,-0.224421,0.0292737,17,32765
1.78479,-0.231635,0.0296231,18,32765
1.76418,-0.23492,0.0294477,18,32765
1.77329,-0.242238,0.0295427,17,32765
1.73286,-0.242692,0.0284604,17,32765
1.76174,-0.252649,0.0290009,17,32765
1.74108,-0.255727,0.0289296,17,32765
1.75998,-0.264598,0.029215,17,32765
1.74918,-0.269078,0.0292267,17,32765
1.74826,-0.274995,0.0294368,16,32765
1.7572,-0.282402,0.0298593,16,32765
1.75624,-0.28828,0.0300046,17,32765
1.72569,-0.289184,0.0297035,17,32765
1.75426,-0.300076,0.0302671,17,32765
1.76308,-0.307734,0.0309799,17,32765
1.77185,-0.315518,0.0317785,17,32765
1.75111,-0.317887,0.031251,17,32765
1.7402,-0.321935,0.031271,17,32765
1.73911,-0.327738,0.0313123,17,32765
1.73801,-0.333503,0.0316437,17,32765
1.73689,-0.339286,0.031673,17,32765
1.79458,-0.3568,0.0329101,18,32765
1.71497,-0.346956,0.0317774,17,32765
1.704,-0.350693,0.0318254,16,32765
1.76152,-0.368728,0.0329648,17,32765
1.75049,-0.372539,0.0329364,17,32765
1.74924,-0.378385,0.0330483,17,32765
1.7675,-0.388487,0.0335728,17,32765
1.70764,-0.381311,0.0326435,17,32765
1.74538,-0.395786,0.0334558,17,32765
1.76353,-0.406095,0.0338619,18,32765
1.75243,-0.409688,0.0337737,17,32765
1.75106,-0.41548,0.0339717,18,32765
1.74969,-0.42124,0.0340344,18,32765
1.70941,-0.417602,0.0333658,17,32765
1.71775,-0.425591,0.0334644,17,32765
1.7357,-0.436213,0.0339503,17,32765
1.72457,-0.439421,0.0339664,17,32765
1.7328,-0.447597,0.0342474,17,32765
1.71196,-0.448252,0.0339204,17,32765
1.72984,-0.458875,0.0342573,17,32765
1.738,-0.467074,0.0345658,17,32765
1.7365,-0.472603,0.0347085,17,32765
1.75425,-0.483503,0.035038,18,32765
1.74303,-0.486545,0.0348902,17,32765
1.74144,-0.492226,0.0348709,18,32765
1.73978,-0.498032,0.0348213,17,32765
1.72854,-0.500934,0.0348017,17,32765
1.7557,-0.514967,0.0351407,18,32765
1.71568,-0.509271,0.0344839,17,32765
1.74278,-0.523366,0.0349713,17,32765
1.7411,-0.528935,0.0348648,17,32765
1.73942,-0.534429,0.0347066,17,32765
1.72815,-0.537028,0.0344152,17,32765
1.736,-0.545471,0.0343384,17,32765
1.7438,-0.553984,0.0343205,18,32765
1.76109,-0.565582,0.0343954,17,32765
1.7308,-0.56177,0.0336443,17,32765
1.71957,-0.563977,0.0330638,18,32765
1.90965,0.0270887,0.0246117,16,32765
1.93974,0.0209353,0.0240774,17,32765
1.92981,0.0143674,0.0230993,16,32765
1.92986,0.00792918,0.0222262,17,32765
1.94988,0.001582,0.0217317,16,32765
1.86989,-0.00459183,0.0201192,17,32765
1.89986,-0.0109438,0.0198853,17,32765
1.88982,-0.0171425,0.0193368,17,32765
1.88976,-0.0236814,0.018823,17,32765
1.85968,-0.0296693,0.0179408,17,32765
1.83958,-0.0355234,0.0171764,17,32765
1.86944,-0.0422848,0.0171007,18,32765
1.8593,-0.0480792,0.0167297,17,32765
1.87913,-0.0547615,0.0164368,18,32765
1.85895,-0.0603761,0.0159221,18,32765
1.84875,-0.0662518,0.015519,17,32765
1.83852,-0.0720998,0.0151447,17,32765
1.82829,-0.0777744,0.014733,17,32765
1.85799,-0.0852336,0.0146227,17,32765
1.81775,-0.0894023,0.0141086,17,32765
1.81745,-0.095363,0.013828,17,32765
1.78717,-0.0997708,0.0135473,17,32765
1.82676,-0.10802,0.0134737,17,32765
1.81641,-0.113475,0.0132136,17,32765
1.826,-0.120176,0.0131607,17,32765
1.81562,-0.125529,0.0130109,17,32765
1.79524,-0.13014,0.01264,17,32765
1.82471,-0.138435,0.0128478,18,32765
1.82424,-0.144577,0.0126939,18,32765
1.77391,-0.146549,0.0122573,17,32765
1.81327,-0.155869,0.0125139,17,32765
1.79282,-0.160156,0.0122451,17,32765
1.79228,-0.166095,0.012264,18,32765
1.79171,-0.172072,0.0122232,18,32765
1.77122,-0.176187,0.0121974,17,32765
1.77062,-0.182134,0.0120551,17,32765
1.71033,-0.181748,0.0116523,16,32765
1.76936,-0.194008,0.0119322,16,32765
1.7985,-0.20334,0.0122528,16,32765
1.77795,-0.206988,0.0121257,16,32765
1.77724,-0.213014,0.012313,18,32765
1.73682,-0.21401,0.0118651,18,32765
1.75593,-0.222415,0.0122574,18,32765
1.74526,-0.227,0.0123703,18,32765
1.72467,-0.230161,0.0123805,18,32765
1.7536,-0.240074,0.0125246,17,32765
1.74287,-0.244632,0.0120297,17,32765
1.70247,-0.244687,0.0118076,17,32765
1.74119,-0.256308,0.0123372,17,32765
1.72054,-0.259239,0.0121551,18,32765
1.72952,-0.266641,0.0123993,18,32765
1.72861,-0.272505,0.0126075,18,32765
1.72769,-0.278273,0.0128598,18,32765
1.71687,-0.282443,0.0129289,18,32765
1.73564,-0.291498,0.0132838,18,32765
1.72479,-0.295689,0.0132623,18,32765
1.71392,-0.299819,0.0137146,17,32765
1.70303,-0.303939,0.0142376,17,32765
1.74135,-0.316821,0.0143939,18,32765
1.73045,-0.320846,0.0145077,17,32765
1.69006,-0.319205,0.0142186,18,32765
1.69881,-0.326709,0.0146258,18,32765
1.70752,-0.334296,0.0147397,19,32765
1.70639,-0.340026,0.0148957,19,32765
1.75423,-0.355696,0.0156374,18,32765
1.76282,-0.363614,0.0159629,18,32765
1.74201,-0.365463,0.0158277,17,32765
1.76033,-0.375475,0.0161618,18,32765
1.70043,-0.368655,0.0157325,18,32765
1.70895,-0.376467,0.0159736,18,32765
1.69792,-0.379998,0.0160656,18,32765
1.70641,-0.387825,0.0162233,18,32765
1.71484,-0.395779,0.0163481,18,32765
1.69404,-0.396936,0.0162586,18,32765
1.76081,-0.418742,0.0171125,18,32765
1.7011,-0.410474,0.016607,17,32765
1.69971,-0.416177,0.0166949,17,32765
1.77598,-0.441022,0.0173648,18,32765
1.7454,-0.439652,0.0171893,18,32765
1.74394,-0.445373,0.0173981,18,32765
1.70374,-0.4411,0.017101,18,32765
1.6926,-0.444198,0.0170596,18,32765
1.73948,-0.462492,0.0175012,18,32765
1.73797,-0.46814,0.0176191,18,32765
1.73646,-0.473682,0.0177626,18,32765
1.70601,-0.471294,0.0174127,17,32765
1.75261,-0.49035,0.0179504,18,32765
1.71251,-0.485172,0.0175378,18,32765
1.75894,-0.504684,0.0179812,18,32765
1.71886,-0.499287,0.0177608,18,32765
1.69805,-0.499218,0.0173302,18,32765
1.74434,-0.518987,0.0179338,19,32765
1.71395,-0.515912,0.01755,18,32765
1.76012,-0.535966,0.0179335,18,32765
1.7393,-0.535646,0.0175813,18,32765
1.71848,-0.535277,0.0172889,18,32765
1.71678,-0.540705,0.0170258,18,32765
1.74365,-0.555244,0.0171039,17,32765
1.71334,-0.551547,0.0165324,17,32765
1.73064,-0.563047,0.0165238,17,32765
1.7004,-0.559013,0.0158611,17,32765
1.87976,0.0294479,-0.004234,16,32765
1.86985,0.0230565,-0.00362927,15,32765
1.85992,0.0167134,-0.00317475,16,32765
1.88997,0.01069,-0.00270283,17,32765
1.85999,0.00417204,-0.00224277,17,32765
1.86,-0.00201267,-0.00187448,17,32765
1.80998,-0.00786914,-0.00161828,17,32765
1.79995,-0.0137591,-0.00127474,17,32765
1.82989,-0.0200662,-0.000846234,17,32765
1.84981,-0.026576,-0.000892825,18,32765
1.81971,-0.0322788,-0.000620669,17,32765
1.7896,-0.0377693,-0.000243807,17,32765
1.79946,-0.0440352,-3.74978e-05,17,32765
1.8093,-0.0503025,8.49579e-05,17,32765
1.80912,-0.0564203,0.000257382,17,32765
1.78894,-0.0616933,0.000365849,16,32765
1.84868,-0.0698084,0.000786138,17,32765
1.80848,-0.074215,0.00093119,17,32765
1.8282,-0.0810481,0.000937796,16,32765
1.77798,-0.0848165,0.00121434,17,32765
1.82762,-0.0932784,0.00112767,16,32765
1.80732,-0.09838,0.00152461,16,32765
1.80698,-0.104561,0.00152398,16,32765
1.78665,-0.109447,0.00147437,17,32765
1.78627,-0.115535,0.0014808,17,32765
1.78587,-0.121473,0.00165294,17,32765
1.73559,-0.123852,0.00171893,16,32765
1.76508,-0.131847,0.0017735,17,32765
1.75466,-0.136952,0.00182124,17,32765
1.76415,-0.143712,0.00197113,17,32765
1.76367,-0.149597,0.00209719,18,32765
1.77311,-0.156428,0.00211173,18,32765
1.76262,-0.161478,0.00224197,17,32765
1.78198,-0.169266,0.00217611,17,32765
1.78139,-0.175333,0.00228948,17,32765
1.79073,-0.182426,0.00248307,17,32765
1.78018,-0.18721,0.00235083,16,32765
1.77954,-0.193205,0.00234214,17,32765
1.7292,-0.193525,0.00262658,17,32765
1.74841,-0.201649,0.0024727,17,32765
1.75764,-0.208785,0.00243643,18,32765
1.73707,-0.212295,0.00241579,18,32765
1.76611,-0.221939,0.0025157,18,32765
1.75544,-0.226516,0.00271107,17,32765
1.7646,-0.233627,0.0024217,17,32765
1.73408,-0.235469,0.00270776,17,32765
1.70357,-0.237135,0.00249675,17,32765
1.72256,-0.245697,0.00201826,17,32765
1.70194,-0.248582,0.00225988,18,32765
1.73076,-0.258744,0.00238487,17,32765
1.69035,-0.258457,0.00212259,17,32765
1.71912,-0.268726,0.0024319,17,32765
1.7182,-0.274558,0.0024441,17,32765
1.71726,-0.280381,0.00255767,17,32765
1.69656,-0.282951,0.00260395,17,32765
1.69558,-0.288764,0.00286805,18,32765
1.74388,-0.302964,0.00288561,18,32765
1.71328,-0.303733,0.00350787,18,32765
1.70241,-0.307697,0.00356465,17,32765
1.67187,-0.30796,0.00359539,17,32765
1.68065,-0.315463,0.00383374,17,32765
1.71888,-0.328533,0.00400809,18,32765
1.6883,-0.328667,0.004072,17,32765
1.69702,-0.336182,0.00416284,17,32765
1.71548,-0.345841,0.00431657,17,32765
1.73392,-0.355529,0.00453965,18,32765
1.65442,-0.344914,0.00454449,17,32765
1.68261,-0.356652,0.00486559,17,32765
1.71074,-0.368543,0.00530429,18,32765
1.68994,-0.370113,0.00531529,18,32765
1.72773,-0.384468,0.00572328,18,32765
1.70694,-0.385759,0.00599605,17,32765
1.70564,-0.391476,0.00618974,17,32765
1.70433,-0.397117,0.00647584,17,32765
1.72247,-0.407379,0.00690255,17,32765
1.7114,-0.410668,0.00720076,17,32765
1.69062,-0.411539,0.00748157,17,32765
1.72809,-0.426679,0.00809256,17,32765
1.75578,-0.43961,0.00863649,17,32765
1.70586,-0.433091,0.00852859,17,32765
1.66569,-0.428706,0.0087125,17,32765
1.65461,-0.431588,0.00919835,17,32765
1.70153,-0.449776,0.00990443,17,32765
1.74835,-0.468241,0.010616,17,32765
1.66958,-0.453088,0.0103843,17,32765
1.697,-0.466529,0.0112484,17,32765
1.72436,-0.48013,0.0121009,17,32765
1.71315,-0.483064,0.0124051,18,32765
1.69233,-0.483188,0.0128266,17,32765
1.70995,-0.494252,0.0135844,17,32765
1.75634,-0.513766,0.0145063,18,32765
1.68757,-0.49948,0.014503,17,32765
1.70512,-0.510606,0.0155025,17,32765
1.72262,-0.52185,0.0163145,17,32765
1.70178,-0.521595,0.0167515,17,32765
1.71919,-0.532988,0.017634,17,32765
1.73654,-0.544504,0.0188325,17,32765
1.72525,-0.547023,0.0194525,18,32765
1.72351,-0.552449,0.0204475,18,32765
1.74075,-0.564116,0.0214548,18,32765
1.71997,-0.563294,0.0224194,17,32765
1.89964,0.0298181,-0.0222021,17,32765
1.88973,0.0233461,-0.0214969,16,32765
1.9098,0.0171923,-0.0212776,17,32765
1.89986,0.0107622,-0.0206404,18,32765
1.87989,0.00421834,-0.0200015,17,32765
1.90989,-0.00207926,-0.0199425,17,32765
1.83988,-0.00802491,-0.0190024,17,32765
1.84985,-0.0141802,-0.0187618,17,32765
1.8198,-0.0200081,-0.0180102,17,32765
1.81972,-0.0262104,-0.0180469,17,32765
1.81963,-0.0323579,-0.0177892,17,32765
1.8395,-0.0389179,-0.0176077,18,32765
1.81937,-0.0446307,-0.0172063,18,32765
1.81921,-0.0507002,-0.0170829,18,32765
1.80904,-0.056553,-0.0168165,18,32765
1.79885,-0.0621832,-0.0166115,18,32765
1.79864,-0.06808,-0.0162144,18,32765
1.81839,-0.0747984,-0.0162315,18,32765
1.81813,-0.080792,-0.016235,18,32765
1.76791,-0.084535,-0.0154884,17,32765
1.79758,-0.091961,-0.0158696,18,32765
1.74734,-0.0953378,-0.0150329,16,32765
1.77695,-0.103064,-0.015291,17,32765
1.76661,-0.108472,-0.0152373,17,32765
1.77621,-0.115153,-0.0153168,17,32765
1.76584,-0.120391,-0.0150603,17,32765
1.7754,-0.126989,-0.0150304,17,32765
1.77497,-0.132896,-0.0150051,17,32765
1.77452,-0.138825,-0.0149464,17,32765
1.74414,-0.142413,-0.0145563,17,32765
1.75361,-0.149092,-0.0145139,17,32765
1.74314,-0.154142,-0.0144285,17,32765
1.77248,-0.162761,-0.0145326,17,32765
1.78188,-0.169652,-0.0147051,17,32765
1.72159,-0.169842,-0.0141023,18,32765
1.75084,-0.178778,-0.0141698,18,32765
1.73036,-0.182395,-0.0141235,18,32765
1.73967,-0.189317,-0.0142128,19,32765
1.7291,-0.193966,-0.0137814,19,32765
1.70857,-0.197515,-0.0138025,18,32765
1.71781,-0.20453,-0.0139316,17,32765
1.71711,-0.210346,-0.0139244,17,32765
1.70646,-0.214945,-0.0137869,18,32765
1.70574,-0.220617,-0.013583,18,32765
1.71491,-0.22758,-0.0139576,18,32765
1.72405,-0.234655,-0.0137129,18,32765
1.71335,-0.239055,-0.0137992,18,32765
1.70263,-0.243424,-0.0142206,18,32765
1.74138,-0.25494,-0.0142798,18,32765
1.72073,-0.257849,-0.014032,18,32765
1.72974,-0.265102,-0.0143248,18,32765
1.71897,-0.269335,-0.0139703,18,32765
1.6983,-0.272017,-0.0137972,18,32765
1.69736,-0.277786,-0.0136844,18,32765
1.70627,-0.285241,-0.0136873,18,32765
1.70528,-0.291101,-0.0134211,18,32765
1.69445,-0.295072,-0.0134069,18,32765
1.68358,-0.299171,-0.0126689,19,32765
1.71208,-0.310176,-0.0128132,19,32765
1.7012,-0.314103,-0.0126448,19,32765
1.6903,-0.318025,-0.0123526,19,32765
1.68923,-0.323631,-0.0122688,19,32765
1.69793,-0.331325,-0.0122061,19,32765
1.68702,-0.334993,-0.0120681,19,32765
1.67608,-0.338699,-0.0118941,19,32765
1.71413,-0.352305,-0.0119999,18,32765
1.69338,-0.353875,-0.0116472,19,32765
1.67263,-0.355379,-0.0112728,18,32765
1.70076,-0.367264,-0.0111181,18,32765
1.67019,-0.366659,-0.0108549,18,32765
1.68847,-0.376627,-0.0107025,18,32765
1.68722,-0.38221,-0.0103683,18,32765
1.67618,-0.385632,-0.0101173,19,32765
1.68463,-0.393463,-0.00989254,18,32765
1.66386,-0.394456,-0.00943671,19,32765
1.69172,-0.406916,-0.00926817,18,32765
1.69038,-0.412466,-0.00890479,18,32765
1.69872,-0.420433,-0.00852364,17,32765
1.72644,-0.433298,-0.0082682,18,32765
1.69592,-0.4316,-0.00799811,18,32765
1.67513,-0.432169,-0.007526,18,32765
1.70274,-0.445207,-0.00710356,18,32765
1.71094,-0.45335,-0.0067035,17,32765
1.68048,-0.451146,-0.00617558,18,32765
1.68862,-0.459358,-0.00596989,18,32765
1.69674,-0.46758,-0.00531922,18,32765
1.70483,-0.475835,-0.00469527,19,32765
1.70326,-0.481432,-0.00432463,18,32765
1.67283,-0.478772,-0.00369598,19,32765
1.70007,-0.492582,-0.00315023,19,32765
1.68889,-0.495226,-0.00261193,18,32765
1.70648,-0.506294,-0.00208292,17,32765
1.71443,-0.51463,-0.0012544,18,32765
1.72234,-0.523026,-0.00062275,18,32765
1.7015,-0.52277,3.35619e-06,18,32765
1.70936,-0.531221,0.000694741,17,32765
1.67901,-0.52774,0.00165348,17,32765
1.70591,-0.542198,0.00239802,18,32765
1.70419,-0.547576,0.00338294,17,32765
1.72144,-0.559209,0.00419453,17,32765
1.71019,-0.561446,0.00536468,17,32765
1.88971,0.0289975,-0.0161179,16,32765
1.86979,0.0224874,-0.0169903,17,32765
1.86984,0.0162978,-0.017762,16,32765
1.82988,0.00982031,-0.0181865,16,32765
1.8099,0.00369496,-0.0184922,16,32765
1.82989,-0.00242748,-0.0195075,16,32765
1.86987,-0.00875177,-0.0203175,16,32765
1.81983,-0.0145973,-0.0204256,17,32765
1.80976,-0.0205775,-0.0208696,17,32765
1.81968,-0.0266603,-0.0212496,17,32765
1.81958,-0.0326212,-0.0216554,18,32765
1.83945,-0.0390539,-0.0223173,19,32765
1.77933,-0.0436402,-0.0221058,18,32765
1.81914,-0.0508986,-0.0228783,19,32765
1.79897,-0.0564002,-0.022983,18,32765
1.78877,-0.0621592,-0.0230877,18,32765
1.74858,-0.0665567,-0.0228886,18,32765
1.73836,-0.0718562,-0.0229769,17,32765
1.75809,-0.0785299,-0.023429,18,32765
1.74783,-0.0838291,-0.0234788,17,32765
1.77749,-0.0912783,-0.024116,17,32765
1.76719,-0.0966999,-0.0242392,18,32765
1.73691,-0.100889,-0.0239019,17,32765
1.73656,-0.106697,-0.0240098,17,32765
1.74617,-0.113061,-0.0243824,17,32765
1.78569,-0.12159,-0.0250716,17,32765
1.72543,-0.123254,-0.0242851,17,32765
1.74495,-0.130507,-0.0246806,17,32765
1.73453,-0.135626,-0.0246064,17,32765
1.70417,-0.139024,-0.0243148,17,32765
1.72361,-0.146482,-0.0246399,17,32765
1.73307,-0.153198,-0.0247614,16,32765
1.70267,-0.156219,-0.0243995,16,32765
1.74196,-0.165654,-0.0250608,17,32765
1.69165,-0.16654,-0.0244063,17,32765
1.74082,-0.177297,-0.0250142,17,32765
1.73026,-0.182141,-0.024931,17,32765
1.66005,-0.180485,-0.0237085,17,32765
1.73892,-0.195034,-0.0248232,18,32765
1.72833,-0.199652,-0.0245992,18,32765
1.71772,-0.204283,-0.0243961,18,32765
1.71704,-0.209996,-0.0242922,17,32765
1.7064,-0.214495,-0.0240934,17,32765
1.69575,-0.218971,-0.023951,17,32765
1.71484,-0.227268,-0.0239205,18,32765
1.72398,-0.234374,-0.024026,18,32765
1.70338,-0.237323,-0.0241773,18,32765
1.69268,-0.241591,-0.023812,18,32765
1.68196,-0.245867,-0.0235953,18,32765
1.75034,-0.261908,-0.0246404,18,32765
1.69013,-0.258847,-0.0236772,17,32765
1.70899,-0.267747,-0.0237687,18,32765
1.6982,-0.271989,-0.0233703,18,32765
1.67753,-0.274525,-0.0230575,18,32765
1.66674,-0.278447,-0.0230532,18,32765
1.67566,-0.285713,-0.0232815,18,32765
1.68455,-0.293039,-0.023132,18,32765
1.68354,-0.298782,-0.0227947,18,32765
1.67269,-0.302754,-0.0214358,18,32765
1.65199,-0.304734,-0.021217,18,32765
1.68044,-0.315861,-0.0213276,18,32765
1.68918,-0.323423,-0.0212561,18,32765
1.67828,-0.327172,-0.0210081,17,32765
1.67716,-0.332842,-0.0209215,17,32765
1.68585,-0.340423,-0.0209205,17,32765
1.66511,-0.342022,-0.0204223,17,32765
1.68353,-0.351742,-0.0204318,18,32765
1.65301,-0.351105,-0.0199832,17,32765
1.63227,-0.352449,-0.0196485,18,32765
1.63109,-0.357875,-0.0195618,18,32765
1.63964,-0.36551,-0.0196358,18,32765
1.66766,-0.377657,-0.0197168,18,32765
1.6469,-0.378754,-0.0194085,18,32765
1.68456,-0.393395,-0.0197799,18,32765
1.68324,-0.399023,-0.0196331,18,32765
1.64302,-0.395238,-0.0190001,17,32765
1.67084,-0.407805,-0.0193727,17,32765
1.66951,-0.413233,-0.0191671,17,32765
1.66813,-0.418785,-0.0191903,17,32765
1.67645,-0.426663,-0.0192003,18,32765
1.70409,-0.439636,-0.0195877,18,32765
1.69296,-0.442732,-0.0193089,17,32765
1.67216,-0.443193,-0.0190043,17,32765
1.65137,-0.443525,-0.0186673,18,32765
1.64992,-0.448915,-0.0187455,18,32765
1.71591,-0.472944,-0.019399,18,32765
1.62766,-0.454399,-0.0184355,17,32765
1.64544,-0.465078,-0.0185683,17,32765
1.69196,-0.484243,-0.0191212,18,32765
1.67119,-0.484131,-0.0188753,17,32765
1.6984,-0.497964,-0.0192413,16,32765
1.66803,-0.494892,-0.0189659,17,32765
1.68561,-0.505915,-0.0192272,17,32765
1.66484,-0.505524,-0.0192103,17,32765
1.63454,-0.502004,-0.0188745,17,32765
1.67112,-0.519127,-0.019469,17,32765
1.65991,-0.521462,-0.0195499,17,32765
1.64875,-0.52358,-0.0196984,18,32765
1.65663,-0.53178,-0.0200737,18,32765
1.66443,-0.540133,-0.0204903,18,32765
1.66268,-0.545479,-0.0208872,18,32765
1.94946,0.0299654,-0.0350232,16,32765
1.91953,0.0231204,-0.0355551,16,32765
1.87959,0.0164018,-0.0355901,17,32765
1.88962,0.0101447,-0.0366101,17,32765
1.92962,0.00392788,-0.0379227,14,32765
0,-0,-0,0,32765
1.8196,-0.00855678,-0.036941,14,32765
1.81955,-0.0146501,-0.0375922,16,32765
1.84947,-0.0210998,-0.0387803,17,32765
1.8194,-0.02674,-0.038416,16,32765
1.81929,-0.0327143,-0.0388216,17,32765
1.82916,-0.0389487,-0.0394565,17,32765
1.79903,-0.0442491,-0.0393314,18,32765
1.77887,-0.0499108,-0.039164,19,32765
1.7487,-0.0549752,-0.03885,18,32765
1.79846,-0.0626657,-0.0401934,18,32765
1.75827,-0.0671055,-0.0396187,18,32765
1.76803,-0.0732773,-0.0400665,19,32765
1.75778,-0.078724,-0.0400279,19,32765
1.72755,-0.0830742,-0.0395262,19,32765
1.75721,-0.0904725,-0.0404435,20,32765
1.74691,-0.0958387,-0.0404692,19,32765
1.72661,-0.100551,-0.0400796,19,32765
1.7562,-0.108182,-0.0408835,19,32765
1.70594,-0.11074,-0.039951,18,32765
1.73548,-0.118474,-0.0407799,18,32765
1.70516,-0.122117,-0.0401297,18,32765
1.71471,-0.128572,-0.0404769,18,32765
1.7342,-0.135945,-0.0410142,17,32765
1.7138,-0.140165,-0.0406757,18,32765
1.71331,-0.145975,-0.040716,17,32765
1.69289,-0.150025,-0.0402217,19,32765
1.70233,-0.156582,-0.0405231,19,32765
1.73166,-0.16509,-0.0413237,19,32765
1.7112,-0.16889,-0.0409106,18,32765
1.70068,-0.173645,-0.0405649,17,32765
1.71996,-0.181511,-0.0410983,18,32765
1.69946,-0.185233,-0.0403982,18,32765
1.69882,-0.191014,-0.0403772,18,32765
1.68825,-0.195509,-0.0400604,19,32765
1.70743,-0.203567,-0.0404699,18,32765
1.70675,-0.209259,-0.0403662,19,32765
1.71595,-0.216235,-0.0405418,19,32765
1.7053,-0.220754,-0.0403046,19,32765
1.69465,-0.225152,-0.0397628,19,32765
1.69388,-0.230857,-0.0397301,19,32765
1.69309,-0.236479,-0.0401546,18,32765
1.6824,-0.240723,-0.0396959,18,32765
1.68158,-0.246424,-0.0396179,18,32765
1.70051,-0.255086,-0.0401549,19,32765
1.68974,-0.259433,-0.039793,18,32765
1.67896,-0.263699,-0.0393776,19,32765
1.65832,-0.266263,-0.0386589,19,32765
1.66727,-0.273526,-0.0388476,19,32765
1.66634,-0.279075,-0.0389784,19,32765
1.6851,-0.288041,-0.0395315,19,32765
1.68413,-0.293698,-0.0392445,20,32765
1.68313,-0.299454,-0.0389066,19,32765
1.69196,-0.307004,-0.0378937,19,32765
1.68108,-0.310872,-0.0377068,19,32765
1.68985,-0.318421,-0.0376568,18,32765
1.65931,-0.318494,-0.0368067,18,32765
1.68767,-0.329822,-0.0373342,19,32765
1.67674,-0.333587,-0.0370298,19,32765
1.69521,-0.343168,-0.0373382,19,32765
1.66468,-0.342786,-0.0364352,19,32765
1.6733,-0.350479,-0.0364194,19,32765
1.67213,-0.356054,-0.0363254,18,32765
1.67092,-0.361696,-0.0362241,19,32765
1.65018,-0.362969,-0.0357119,19,32765
1.67822,-0.375046,-0.0363009,18,32765
1.6867,-0.382925,-0.0362385,19,32765
1.67566,-0.386335,-0.0359492,19,32765
1.65488,-0.387433,-0.0354439,19,32765
1.64385,-0.390664,-0.0350913,19,32765
1.67171,-0.403148,-0.0355312,20,32765
1.67036,-0.408711,-0.0355656,19,32765
1.65932,-0.411742,-0.0351537,19,32765
1.66763,-0.419714,-0.0353815,20,32765
1.66626,-0.425137,-0.0352798,20,32765
1.66485,-0.430596,-0.035332,19,32765
1.66342,-0.436107,-0.0351666,19,32765
1.67164,-0.444174,-0.0352862,19,32765
1.6412,-0.441907,-0.0345568,19,32765
1.63009,-0.444646,-0.03443,19,32765
1.66717,-0.460675,-0.0351332,19,32765
1.64638,-0.460792,-0.0347437,19,32765
1.6545,-0.46883,-0.0348601,19,32765
1.63373,-0.468766,-0.0344634,19,32765
1.63221,-0.474044,-0.0344345,18,32765
1.65944,-0.487783,-0.0350808,18,32765
1.64827,-0.49028,-0.0349272,18,32765
1.64671,-0.495505,-0.0349685,18,32765
1.67379,-0.509547,-0.03578,18,32765
1.68172,-0.517817,-0.0359787,18,32765
1.66094,-0.517294,-0.0357209,19,32765
1.64974,-0.519603,-0.0357056,19,32765
1.63858,-0.521694,-0.0357574,19,32765
1.65597,-0.532945,-0.0364335,19,32765
1.64475,-0.535129,-0.0365207,19,32765
1.64301,-0.540424,-0.0369118,19,32765
1.8987,0.0319076,-0.0626933,17,32765
1.81886,0.0244071,-0.0594836,16,32765
1.92889,0.0194813,-0.062607,16,32765
1.85899,0.0127709,-0.0600234,16,32765
1.86903,0.00655199,-0.0599052,16,32765
1.979,0.000194139,-0.0630596,16,32765
0,-0,-0,0,32765
2.19886,-0.0145158,-0.0693462,12,32765
2.11885,-0.0209154,-0.0665519,12,32765
2.13878,-0.0282091,-0.0666726,13,32765
2.02874,-0.0334499,-0.0631515,15,32765
