x, y, z, intensity, ring
3.15907,-1.30109,-0.401328,17,32765
3.15467,-1.31211,-0.400038,17,32765
3.21423,-1.35024,-0.407053,19,32765
3.15481,-1.33813,-0.398901,17,32765
3.22336,-1.38031,-0.406971,18,32765
3.18231,-1.37559,-0.400993,16,32765
3.15956,-1.37846,-0.397394,15,32765
3.16406,-1.39329,-0.397344,16,32765
3.18668,-1.41623,-0.39937,16,32765
3.18192,-1.42715,-0.398453,18,32765
3.13198,-1.41748,-0.391215,17,32765
3.14532,-1.43648,-0.39228,15,32765
3.14048,-1.44737,-0.391054,17,32765
3.12666,-1.45393,-0.388533,16,32765
3.13078,-1.46884,-0.388698,17,32765
3.09899,-1.46675,-0.383925,17,32765
3.13901,-1.49869,-0.387994,16,32765
3.25036,-1.56564,-0.401046,17,32765
3.11999,-1.51595,-0.384269,17,32765
3.15062,-1.54416,-0.387393,17,32765
3.14544,-1.55502,-0.386047,17,32765
3.1314,-1.56133,-0.383359,17,32765
3.21494,-1.61684,-0.392944,16,32765
3.2362,-1.64124,-0.394753,18,32765
3.16872,-1.62078,-0.38561,16,32765
3.16326,-1.63171,-0.384307,17,32765
3.2725,-1.70221,-0.396661,16,32765
3.10829,-1.63034,-0.37609,16,32765
3.16452,-1.67334,-0.381798,16,32765
3.13272,-1.66994,-0.377203,17,32765
3.16228,-1.69933,-0.379899,16,32765
3.18297,-1.72416,-0.381534,15,32765
3.15109,-1.72071,-0.376642,16,32765
3.20638,-1.76503,-0.382336,16,32765
3.13101,-1.7373,-0.372292,16,32765
3.21214,-1.79642,-0.380859,17,32765
3.11099,-1.75347,-0.367664,16,32765
3.11379,-1.76902,-0.36724,17,32765
3.20295,-1.83402,-0.376336,16,32765
3.18822,-1.83998,-0.373813,16,32765
3.13055,-1.8209,-0.365537,16,32765
1.2361,-0.724528,-0.143894,15,32765
1.28513,-0.759086,-0.149068,15,32765
1.18858,-0.707449,-0.137436,15,32765
1.21188,-0.726805,-0.139668,14,32765
1.20951,-0.730891,-0.13891,14,32765
1.19862,-0.72977,-0.137251,14,32765
1.10293,-0.676556,-0.125787,15,32765
1.1092,-0.6855,-0.125988,14,32765
1.15769,-0.720772,-0.130933,14,32765
0,-0,-0,0,32765
0,-0,-0,0,32765
0,-0,-0,0,32765
0,-0,-0,0,32765
0,-0,-0,0,32765
1.11857,-0.727431,-0.123479,12,32765
0.916307,-0.600213,-0.100626,19,32765
0.939296,-0.619733,-0.102728,20,32765
0.945593,-0.628385,-0.102889,20,32765
0.943551,-0.631569,-0.102142,20,32765
0.908456,-0.612473,-0.0979004,20,32765
0.906527,-0.615464,-0.0970246,20,32765
0.929203,-0.635359,-0.0989996,19,32765
0.910773,-0.627119,-0.0965152,19,32765
0.88423,-0.613065,-0.0932085,18,32765
0.906796,-0.633071,-0.0950859,18,32765
0.896661,-0.630305,-0.0933463,18,32765
0.894626,-0.633305,-0.0925656,18,32765
0.900735,-0.642036,-0.092551,18,32765
0.882511,-0.633364,-0.0901351,18,32765
0.888573,-0.642133,-0.0900173,18,32765
0.902626,-0.656828,-0.0907924,18,32765
0.900518,-0.659855,-0.0897644,17,32765
2.98311,-0.914282,-0.433189,18,32765
3.03709,-0.941922,-0.439304,18,32765
3.02469,-0.949135,-0.436351,18,32765
3.02176,-0.959205,-0.434651,18,32765
3.05648,-0.981431,-0.438511,18,32765
3.07218,-0.998015,-0.43962,18,32765
3.00309,-0.9868,-0.428658,18,32765
3.05629,-1.01585,-0.435469,19,32765
3.07183,-1.03261,-0.43643,19,32765
3.09668,-1.05256,-0.439002,19,32765
3.10264,-1.0663,-0.439037,20,32765
3.05234,-1.06056,-0.431305,18,32765
3.0863,-1.08413,-0.435204,20,32765
3.12011,-1.10794,-0.43931,18,32765
3.11653,-1.11853,-0.437879,21,32765
3.01034,-1.09203,-0.422145,18,32765
3.05332,-1.11937,-0.427391,18,32765
3.08688,-1.14342,-0.431484,19,32765
3.06453,-1.14697,-0.427892,19,32765
3.09794,-1.17133,-0.431696,19,32765
3.04775,-1.16435,-0.423796,18,32765
3.09012,-1.1927,-0.429185,18,32765
3.07692,-1.19971,-0.42678,19,32765
3.0914,-1.21758,-0.428044,18,32765
3.04142,-1.20965,-0.42011,18,32765
3.04658,-1.22378,-0.420446,18,32765
3.07018,-1.24523,-0.423117,18,32765
3.13952,-1.2857,-0.432214,19,32765
3.08946,-1.27753,-0.424367,20,32765
3.05767,-1.27687,-0.419333,19,32765
3.08067,-1.29933,-0.422016,19,32765
3.05803,-1.30228,-0.418349,17,32765
3.09011,-1.32856,-0.422208,18,32765
3.09481,-1.34313,-0.422118,17,32765
3.11765,-1.36562,-0.424554,19,32765
3.10401,-1.37233,-0.422138,19,32765
3.07228,-1.37085,-0.41708,18,32765
3.06767,-1.38142,-0.416191,18,32765
3.10832,-1.41241,-0.420773,17,32765
3.03142,-1.39001,-0.409829,18,32765
3.10781,-1.43805,-0.419587,19,32765
3.09404,-1.44453,-0.416982,18,32765
3.06225,-1.44245,-0.412407,18,32765
3.04852,-1.44864,-0.409792,18,32765
3.09747,-1.48479,-0.415542,18,32765
3.16397,-1.53013,-0.423821,19,32765
3.03394,-1.48005,-0.40578,18,32765
3.16262,-1.55626,-0.42239,19,32765
3.06845,-1.52305,-0.409173,18,32765
3.14333,-1.57357,-0.41824,18,32765
3.0671,-1.54868,-0.407536,18,32765
3.09739,-1.57715,-0.410856,19,32765
3.05674,-1.56978,-0.404637,18,32765
3.08673,-1.59863,-0.408037,18,32765
3.10781,-1.62306,-0.410008,19,32765
3.11994,-1.64304,-0.410992,19,32765
3.13214,-1.66289,-0.411569,18,32765
3.10042,-1.65939,-0.406706,19,32765
3.0775,-1.66044,-0.402912,18,32765
3.1419,-1.70878,-0.410559,18,32765
3.10141,-1.70042,-0.404271,19,32765
3.11316,-1.72064,-0.404972,19,32765
3.10751,-1.73123,-0.403246,19,32765
3.14517,-1.76609,-0.407133,19,32765
3.05296,-1.72773,-0.394073,17,32765
3.10762,-1.77267,-0.400435,18,32765
3.12765,-1.79816,-0.401689,18,32765
3.11305,-1.8039,-0.399103,16,32765
1.15873,-0.676716,-0.148014,15,32765
1.25075,-0.736092,-0.159349,15,32765
1.15428,-0.684571,-0.146603,15,32765
1.1947,-0.713989,-0.151325,15,32765
1.19238,-0.718023,-0.1506,14,32765
1.11353,-0.675639,-0.140217,15,32765
1.0265,-0.627523,-0.128929,19,32765
1.03292,-0.636203,-0.129283,18,32765
1.01396,-0.629204,-0.12646,17,32765
1.11312,-0.695862,-0.13831,13,32765
0,-0,-0,0,32765
0,-0,-0,0,32765
0,-0,-0,0,32765
0,-0,-0,0,32765
1.13523,-0.735957,-0.138603,12,32765
0.916281,-0.598331,-0.111486,18,32765
0.939294,-0.617806,-0.113768,21,32765
0.945584,-0.626456,-0.114126,21,32765
0.935288,-0.624104,-0.112383,21,32765
0.94152,-0.632815,-0.112629,20,32765
0.939457,-0.635994,-0.111946,20,32765
0.937456,-0.639098,-0.111038,20,32765
0.943592,-0.647874,-0.111328,20,32765
0.900597,-0.622687,-0.105761,18,32765
0.898632,-0.62564,-0.105049,18,32765
0.904803,-0.634308,-0.105291,18,32765
0.902818,-0.637276,-0.104399,19,32765
0.868302,-0.617233,-0.0998768,19,32765
0.898737,-0.643284,-0.102754,19,32765
0.888624,-0.640415,-0.101072,19,32765
0.878529,-0.637528,-0.0992161,19,32765
0.868439,-0.634596,-0.0974743,19,32765
0.850362,-0.625713,-0.0946957,18,32765
2.95696,-0.90347,-0.417794,16,32765
3.02961,-0.936594,-0.429224,17,32765
3.08325,-0.964248,-0.437458,16,32765
3.00435,-0.95065,-0.427226,16,32765
3.03889,-0.972688,-0.432903,17,32765
3.05446,-0.98895,-0.435738,17,32765
3.02291,-0.98982,-0.43172,17,32765
2.98197,-0.987427,-0.426301,17,32765
3.04442,-1.01943,-0.435757,17,32765
2.98475,-1.01049,-0.427286,17,32765
2.97196,-1.01743,-0.425681,17,32765
3.03406,-1.05024,-0.43485,17,32765
2.97434,-1.0411,-0.426398,17,32765
2.99878,-1.06138,-0.430023,17,32765
3.03254,-1.08498,-0.434772,17,32765
2.99153,-1.08192,-0.429317,17,32765
3.06237,-1.11935,-0.439407,17,32765
3.03073,-1.1194,-0.435002,17,32765
3.00847,-1.12273,-0.431487,17,32765
2.96767,-1.11883,-0.425665,16,32765
3.00099,-1.14307,-0.430182,16,32765
3.08045,-1.18518,-0.441681,18,32765
3.02119,-1.17385,-0.432869,18,32765
2.98965,-1.17322,-0.427949,16,32765
3.09635,-1.22711,-0.443169,17,32765
2.9449,-1.17896,-0.421441,17,32765
3.03281,-1.22633,-0.433767,19,32765
3.01956,-1.23304,-0.431245,17,32765
3.03376,-1.25101,-0.432892,17,32765
2.98384,-1.24228,-0.425505,17,32765
3.05282,-1.2833,-0.434792,17,32765
3.04852,-1.29375,-0.433956,17,32765
3.00782,-1.28853,-0.427463,18,32765
2.96709,-1.28319,-0.421201,17,32765
3.02643,-1.32114,-0.429222,17,32765
2.95838,-1.3038,-0.419158,17,32765
2.94496,-1.31003,-0.416551,16,32765
3.0582,-1.37299,-0.432119,17,32765
3.08072,-1.39584,-0.434649,18,32765
2.94079,-1.34456,-0.414135,16,32765
3.05343,-1.40866,-0.429378,16,32765
3.06674,-1.42744,-0.430812,17,32765
2.98127,-1.3999,-0.417969,17,32765
3.08424,-1.46109,-0.431605,18,32765
3.0525,-1.4589,-0.426541,17,32765
2.98509,-1.43928,-0.416329,17,32765
3.0606,-1.48864,-0.426125,17,32765
3.02012,-1.4815,-0.41968,16,32765
3.04195,-1.50503,-0.421671,17,32765
3.06363,-1.52876,-0.42375,17,32765
3.08503,-1.55297,-0.425741,17,32765
3.05323,-1.5503,-0.420509,17,32765
3.04809,-1.56083,-0.418824,17,32765
3.06063,-1.58028,-0.419734,17,32765
2.9322,-1.52648,-0.401229,16,32765
3.11176,-1.63346,-0.424681,18,32765
3.01852,-1.59785,-0.411156,17,32765
3.06573,-1.63641,-0.416496,17,32765
3.069,-1.6517,-0.416219,18,32765
2.9414,-1.59584,-0.39794,16,32765
3.0059,-1.64392,-0.405709,16,32765
2.98314,-1.64453,-0.401597,16,32765
2.98645,-1.65942,-0.401334,17,32765
3.0763,-1.72304,-0.412321,17,32765
3.07925,-1.73844,-0.411891,17,32765
3.03029,-1.72448,-0.404494,16,32765
3.10214,-1.77938,-0.412961,17,32765
3.02752,-1.75015,-0.401831,15,32765
1.25333,-0.730188,-0.166086,15,32765
1.21669,-0.714275,-0.160861,15,32765
1.17158,-0.693093,-0.154676,15,32765
1.19491,-0.712317,-0.157502,14,32765
1.11595,-0.670267,-0.146619,14,32765
1.10524,-0.668905,-0.144922,14,32765
0.992744,-0.605375,-0.129924,19,32765
1.02464,-0.629547,-0.133756,20,32765
1.04791,-0.648713,-0.136552,22,32765
1.10486,-0.689032,-0.1436,19,32765
1.10262,-0.692716,-0.143079,12,32765
0,-0,-0,0,32765
0,-0,-0,0,32765
0,-0,-0,0,32765
0.918231,-0.594025,-0.118258,11,32765
0.899617,-0.58627,-0.115663,14,32765
0.897696,-0.589288,-0.115247,20,32765
0.945531,-0.6252,-0.121225,21,32765
0.935202,-0.622858,-0.119769,18,32765
0.949707,-0.637028,-0.121458,18,32765
0.95589,-0.645746,-0.122013,18,32765
0.929149,-0.632111,-0.118396,18,32765
0.886021,-0.607147,-0.112865,18,32765
0.9004,-0.621429,-0.114478,19,32765
0.906536,-0.630118,-0.115083,18,32765
0.904479,-0.633121,-0.114781,18,32765
0.886195,-0.6246,-0.112398,17,32765
0.884194,-0.627497,-0.112014,17,32765
0.865981,-0.618824,-0.109704,18,32765
0.85589,-0.615877,-0.108385,19,32765
0.869969,-0.630411,-0.110162,18,32765
0.859859,-0.627437,-0.108931,18,32765
0.841792,-0.618475,-0.106655,19,32765
2.93308,-0.900007,-0.443849,19,32765
2.9489,-0.915537,-0.447407,18,32765
2.92697,-0.919279,-0.444712,18,32765
2.95209,-0.938096,-0.449506,19,32765
2.97717,-0.956994,-0.454106,18,32765
3.02098,-0.982276,-0.461432,19,32765
2.98949,-0.983044,-0.457132,18,32765
3.03315,-1.00864,-0.464275,18,32765
2.9547,-0.993592,-0.452813,18,32765
2.95143,-1.00345,-0.452411,18,32765
2.93866,-1.0103,-0.450712,17,32765
2.99132,-1.03983,-0.459093,17,32765
2.93173,-1.03053,-0.450086,18,32765
3.02142,-1.07392,-0.464015,19,32765
2.89673,-1.04077,-0.44481,19,32765
3.02338,-1.09806,-0.464724,17,32765
2.95465,-1.08453,-0.454122,16,32765
2.90461,-1.07734,-0.446595,18,32765
2.98448,-1.11847,-0.458593,19,32765
2.93449,-1.11098,-0.450977,17,32765
2.96777,-1.13517,-0.455867,18,32765
2.95476,-1.1416,-0.45401,18,32765
2.90496,-1.13344,-0.446091,18,32765
2.98413,-1.17597,-0.457885,19,32765
2.99863,-1.19337,-0.460095,19,32765
2.9486,-1.1854,-0.452408,19,32765
2.97211,-1.20682,-0.455804,19,32765
2.98641,-1.22462,-0.457418,20,32765
2.93656,-1.21601,-0.449454,18,32765
2.96906,-1.24131,-0.454205,18,32765
2.91931,-1.23232,-0.446108,18,32765
2.94251,-1.25399,-0.449478,18,32765
2.94749,-1.26797,-0.449593,17,32765
2.94324,-1.2782,-0.448516,18,32765
2.97525,-1.30424,-0.453042,19,32765
2.94361,-1.30271,-0.447856,19,32765
2.9483,-1.317,-0.447906,18,32765
2.97098,-1.33941,-0.450959,19,32765
2.92142,-1.3292,-0.442862,18,32765
2.96205,-1.35993,-0.448286,18,32765
2.93956,-1.36179,-0.44433,18,32765
2.99787,-1.40121,-0.452761,19,32765
2.93953,-1.38607,-0.44317,18,32765
2.97969,-1.41746,-0.448498,19,32765
2.92135,-1.40205,-0.439166,18,32765
2.97912,-1.4424,-0.447108,19,32765
2.9476,-1.43967,-0.441716,19,32765
2.9518,-1.45404,-0.441602,19,32765
2.95592,-1.46858,-0.441252,19,32765
2.9688,-1.48764,-0.442326,19,32765
2.99029,-1.51157,-0.444638,19,32765
2.99401,-1.52659,-0.444415,19,32765
2.93605,-1.50975,-0.43492,19,32765
2.93111,-1.51974,-0.433459,19,32765
2.97009,-1.55268,-0.43837,19,32765
2.99129,-1.57679,-0.440475,18,32765
2.97722,-1.58259,-0.437669,19,32765
2.94571,-1.57893,-0.432041,19,32765
2.91425,-1.57499,-0.426795,18,32765
3.01362,-1.64188,-0.440403,18,32765
2.97349,-1.63301,-0.433645,19,32765
2.94212,-1.62873,-0.428098,19,32765
2.96278,-1.65319,-0.430457,19,32765
2.98328,-1.67796,-0.432435,19,32765
2.97773,-1.68819,-0.430889,19,32765
2.89456,-1.65417,-0.418101,17,32765
2.98367,-1.71864,-0.42995,14,32765
1.20153,-0.697506,-0.172688,15,32765
1.15639,-0.676551,-0.16598,16,32765
1.17129,-0.690527,-0.167787,18,32765
1.19461,-0.709707,-0.170927,15,32765
1.13266,-0.678071,-0.161846,16,32765
1.13049,-0.681874,-0.161075,15,32765
1.04341,-0.634163,-0.148416,18,32765
1.01593,-0.622146,-0.144276,21,32765
1.05614,-0.651662,-0.149656,20,32765
1.09615,-0.681463,-0.155095,14,32765
0,-0,-0,0,32765
0,-0,-0,0,32765
0,-0,-0,0,32765
0,-0,-0,0,32765
1.13503,-0.732059,-0.15934,12,32765
1.09934,-0.714238,-0.154018,12,32765
0.864291,-0.565668,-0.120918,14,32765
0.93707,-0.617781,-0.130946,19,32765
0.918495,-0.609941,-0.128212,18,32765
0.883463,-0.59094,-0.123218,16,32765
0.89803,-0.60497,-0.125111,14,32765
0.945399,-0.641426,-0.131501,13,32765
0.91873,-0.627735,-0.12761,15,32765
0.900264,-0.61959,-0.125032,16,32765
0.906395,-0.628292,-0.125686,17,32765
0.912487,-0.637022,-0.126377,18,32765
0.886018,-0.622912,-0.122693,17,32765
0.900244,-0.637283,-0.124622,18,32765
0.882016,-0.628701,-0.121991,18,32765
0.863835,-0.620008,-0.119495,17,32765
0.869865,-0.628697,-0.120312,19,32765
0.843683,-0.614067,-0.116706,19,32765
0.865705,-0.634505,-0.119826,20,32765
0.871642,-0.643254,-0.120684,19,32765
0,-0,-0,0,32765
2.85987,-0.88439,-0.468954,17,32765
2.86656,-0.896704,-0.469432,17,32765
2.85423,-0.903336,-0.467205,17,32765
2.85134,-0.912951,-0.466165,17,32765
2.82016,-0.913497,-0.46069,17,32765
2.789,-0.913843,-0.455281,16,32765
2.86111,-0.94813,-0.466457,17,32765
2.90494,-0.973451,-0.472979,17,32765
2.85504,-0.967343,-0.464185,17,32765
2.85192,-0.977092,-0.462958,18,32765
2.82072,-0.977199,-0.457205,16,32765
2.89216,-1.01304,-0.468171,16,32765
2.93548,-1.03947,-0.474324,17,32765
2.87627,-1.02942,-0.464182,17,32765
2.89154,-1.04602,-0.46578,17,32765
2.78596,-1.01856,-0.448312,17,32765
2.92181,-1.07947,-0.469334,18,32765
2.8164,-1.05138,-0.451771,17,32765
2.77599,-1.04698,-0.444642,17,32765
2.87417,-1.09537,-0.459829,17,32765
2.85211,-1.09814,-0.455684,17,32765
2.83008,-1.10086,-0.451291,16,32765
2.88174,-1.13229,-0.458667,17,32765
2.8505,-1.13113,-0.452988,17,32765
2.80091,-1.12246,-0.44441,16,32765
2.90732,-1.1765,-0.460675,17,32765
2.86689,-1.17142,-0.453451,17,32765
2.87219,-1.18504,-0.453653,16,32765
2.87737,-1.19886,-0.453886,17,32765
2.94628,-1.23976,-0.464078,17,32765
2.87828,-1.22318,-0.452709,17,32765
2.97422,-1.27628,-0.466933,17,32765
2.87004,-1.24336,-0.449995,16,32765
2.89317,-1.26513,-0.452852,16,32765
2.87088,-1.26709,-0.448795,15,32765
2.88478,-1.28503,-0.450353,17,32765
2.86247,-1.28681,-0.446426,17,32765
2.88528,-1.30897,-0.449186,17,32765
2.82691,-1.2942,-0.439607,17,32765
2.9664,-1.3705,-0.460678,17,32765
2.86306,-1.33484,-0.444086,17,32765
2.93028,-1.37853,-0.453888,17,32765
2.88987,-1.37175,-0.44708,17,32765
2.90318,-1.39026,-0.448624,18,32765
2.85396,-1.37876,-0.440348,16,32765
2.88495,-1.40601,-0.444766,17,32765
2.84478,-1.39839,-0.437903,17,32765
2.86673,-1.42139,-0.440923,17,32765
2.90642,-1.45327,-0.446236,18,32765
2.91927,-1.47224,-0.447633,17,32765
2.91434,-1.48237,-0.446322,18,32765
2.87403,-1.47452,-0.439727,16,32765
2.88663,-1.49373,-0.441078,16,32765
2.88169,-1.50369,-0.439507,16,32765
2.84158,-1.49522,-0.432814,17,32765
2.92409,-1.55152,-0.445031,17,32765
2.92776,-1.56619,-0.444711,17,32765
2.91389,-1.57147,-0.441977,16,32765
2.89137,-1.57185,-0.437762,16,32765
2.9123,-1.59594,-0.440409,17,32765
2.82033,-1.55792,-0.42558,17,32765
2.86723,-1.59636,-0.432116,18,32765
2.89654,-1.62561,-0.435839,18,32765
2.87396,-1.62568,-0.43172,18,32765
2.85135,-1.62574,-0.427647,16,32765
1.21234,-0.696707,-0.181497,13,32765
1.14139,-0.661094,-0.170553,15,32765
1.18207,-0.689948,-0.176293,15,32765
1.12856,-0.663756,-0.167875,19,32765
1.18612,-0.703,-0.176124,17,32765
1.13269,-0.676514,-0.168066,16,32765
1.14751,-0.690563,-0.169802,16,32765
1.04348,-0.632707,-0.15404,15,32765
1.00757,-0.615544,-0.148317,19,32765
1.11544,-0.686548,-0.163834,21,32765
1.19753,-0.74264,-0.17553,14,32765
0,-0,-0,0,32765
0,-0,-0,0,32765
0,-0,-0,0,32765
0,-0,-0,0,32765
1.1938,-0.768062,-0.17272,12,32765
1.14969,-0.745048,-0.165856,12,32765
0,-0,-0,0,32765
0.896051,-0.589058,-0.128468,18,32765
0.935588,-0.619442,-0.133668,18,32765
0.917069,-0.611576,-0.130608,16,32765
0.9893,-0.664499,-0.140451,14,32765
0.937826,-0.634392,-0.132773,12,32765
0.985071,-0.671074,-0.138906,13,32765
0.95017,-0.651897,-0.13345,15,32765
0.890872,-0.615551,-0.124671,18,32765
0.921549,-0.641204,-0.128473,18,32765
0.895162,-0.627089,-0.124278,19,32765
0.8851,-0.624292,-0.122302,18,32765
0.866981,-0.615648,-0.119256,18,32765
0.865029,-0.618542,-0.118449,19,32765
0.863101,-0.621391,-0.117599,17,32765
0.837004,-0.606755,-0.113459,17,32765
0.867247,-0.632955,-0.116837,19,32765
0.865303,-0.635793,-0.115839,20,32765
0,-0,-0,0,32765
2.85441,-0.88673,-0.496915,19,32765
2.80461,-0.881318,-0.487665,17,32765
2.81115,-0.893742,-0.488624,18,32765
2.85525,-0.918346,-0.495749,21,32765
2.80535,-0.912806,-0.486736,19,32765
2.79299,-0.919278,-0.484301,20,32765
2.81813,-0.938089,-0.488101,19,32765
2.83384,-0.953891,-0.490243,20,32765
2.77476,-0.944354,-0.479398,18,32765
2.81837,-0.969917,-0.486252,19,32765
2.77792,-0.966671,-0.478625,19,32765
2.82132,-0.992628,-0.485534,19,32765
2.84601,-1.01228,-0.48898,20,32765
2.76843,-0.995224,-0.475127,18,32765
2.79305,-1.01487,-0.478547,19,32765
2.77118,-1.01765,-0.474374,19,32765
2.79568,-1.03743,-0.477795,20,32765
2.80156,-1.05046,-0.478205,19,32765
2.81664,-1.067,-0.480154,20,32765
2.80387,-1.07328,-0.477487,19,32765
2.82798,-1.09364,-0.481015,19,32765
2.8152,-1.09988,-0.478008,18,32765
2.80244,-1.10596,-0.475036,19,32765
2.84475,-1.1338,-0.481538,18,32765
2.82274,-1.13616,-0.477145,18,32765
2.81906,-1.14577,-0.475956,19,32765
2.84278,-1.16664,-0.479188,18,32765
2.79331,-1.15753,-0.470266,18,32765
2.80767,-1.17492,-0.472152,18,32765
2.8401,-1.20029,-0.47699,18,32765
2.82691,-1.20658,-0.474167,20,32765
2.85917,-1.23224,-0.478785,18,32765
2.88223,-1.25407,-0.482103,18,32765
2.86907,-1.26005,-0.479178,18,32765
2.81068,-1.2459,-0.46891,18,32765
2.77949,-1.24351,-0.463154,18,32765
2.81142,-1.26934,-0.46808,18,32765
2.87022,-1.30779,-0.477118,19,32765
2.86586,-1.31773,-0.47594,18,32765
2.85248,-1.32359,-0.473163,19,32765
2.82115,-1.32101,-0.467475,18,32765
2.81673,-1.33086,-0.466185,17,32765
2.80334,-1.33645,-0.463481,18,32765
2.85238,-1.37185,-0.471128,19,32765
2.80332,-1.36017,-0.462411,18,32765
2.84317,-1.39166,-0.468674,18,32765
2.84748,-1.40579,-0.468758,19,32765
2.85163,-1.42004,-0.469133,18,32765
2.8647,-1.43863,-0.470549,18,32765
2.84225,-1.43962,-0.466348,18,32765
2.77575,-1.41801,-0.454956,18,32765
2.8061,-1.44593,-0.459569,17,32765
2.86266,-1.48777,-0.46831,18,32765
2.82268,-1.4793,-0.461019,18,32765
2.84398,-1.503,-0.463973,18,32765
2.82144,-1.50358,-0.46001,18,32765
2.76421,-1.48514,-0.449897,17,32765
2.82896,-1.53231,-0.459878,18,32765
2.82399,-1.54191,-0.458339,18,32765
2.81893,-1.55152,-0.457066,18,32765
2.87449,-1.59477,-0.465188,19,32765
2.81744,-1.57549,-0.455476,18,32765
2.87262,-1.61923,-0.463762,19,32765
2.78983,-1.58499,-0.449748,17,32765
1.22899,-0.703796,-0.197859,14,32765
1.18378,-0.683275,-0.19028,15,32765
1.1216,-0.652478,-0.17999,15,32765
1.13657,-0.666299,-0.182089,18,32765
1.18561,-0.70037,-0.189509,17,32765
1.08967,-0.648674,-0.173909,16,32765
1.13,-0.677876,-0.180245,17,32765
1.10238,-0.666322,-0.175416,17,32765
1.10869,-0.675208,-0.176051,15,32765
1.08118,-0.663421,-0.171251,13,32765
0,-0,-0,0,32765
0,-0,-0,0,32765
0,-0,-0,0,32765
0,-0,-0,0,32765
0,-0,-0,0,32765
1.15995,-0.744117,-0.181405,11,32765
1.04096,-0.672702,-0.162412,12,32765
0,-0,-0,0,32765
0,-0,-0,0,32765
1.09245,-0.721364,-0.169086,12,32765
0,-0,-0,0,32765
0,-0,-0,0,32765
0.970367,-0.65469,-0.148896,12,32765
1.02572,-0.696951,-0.157008,11,32765
1.00714,-0.689178,-0.153619,11,32765
0.898735,-0.619368,-0.136598,12,32765
0.896755,-0.622392,-0.135865,19,32765
0.911058,-0.636748,-0.137568,19,32765
0.876632,-0.616866,-0.131884,18,32765
0.874725,-0.619745,-0.131045,17,32765
0.856663,-0.611057,-0.127823,18,32765
0.854728,-0.613927,-0.127022,19,32765
0.852816,-0.616752,-0.12618,20,32765
0.858907,-0.62544,-0.126503,19,32765
0.872994,-0.640024,-0.127872,19,32765
0,-0,-0,0,32765
6.46205,0.0431041,1.12856,12,32765
0,0,0,0,32765
6.52139,0.00129562,1.13836,12,32765
0,-0,0,0,32765
6.42308,-0.04163,1.11925,12,32765
0,-0,0,0,32765
0,-0,0,0,32765
0,-0,0,0,32765
0,-0,0,0,32765
0,-0,0,0,32765
0,-0,0,0,32765
0,-0,0,0,32765
0,-0,0,0,32765
0,-0,0,0,32765
6.14443,-0.242286,1.06063,14,32765
0,-0,0,0,32765
6.26115,-0.288105,1.07918,13,32765
0,-0,0,0,32765
6.16104,-0.323671,1.06037,20,32765
6.20928,-0.346441,1.06815,23,32765
6.22796,-0.368162,1.07045,20,32765
6.17761,-0.38554,1.06157,16,32765
0,-0,0,0,32765
0,-0,0,0,32765
6.05606,-0.43723,1.03853,20,32765
6.03498,-0.455666,1.03488,23,32765
5.98437,-0.47176,1.02607,17,32765
6.07121,-0.498685,1.04119,21,32765
6.09922,-0.52149,1.0448,23,32765
5.99931,-0.532723,1.02788,22,32765
6.10567,-0.562368,1.04544,17,32765
0,-0,0,0,32765
6.2001,-0.611919,1.0615,13,32765
0,-0,0,0,32765
6.27448,-0.660585,1.07448,13,32765
0,-0,0,0,32765
6.15265,-0.688558,1.0532,13,32765
6.42448,-0.740414,1.10067,16,32765
6.28507,-0.745284,1.0765,14,32765
0,-0,0,0,32765
6.4367,-0.805953,1.10262,15,32765
6.58064,-0.846253,1.12783,15,32765
6.57762,-0.868356,1.12861,15,32765
6.65288,-0.901028,1.14169,14,32765
6.64985,-0.922809,1.14192,15,32765
6.66624,-0.947034,1.14597,15,32765
6.71193,-0.975614,1.15437,15,32765
6.78675,-1.0089,1.16779,15,32765
6.78333,-1.03145,1.16797,15,32765
6.79924,-1.05702,1.17196,14,32765
6.80545,-1.08156,1.17312,16,32765
7.08394,-1.15043,1.22176,12,32765
7.81895,-1.29682,1.35052,13,32765
7.77552,-1.31667,1.34451,12,32765
7.80995,-1.34898,1.35146,12,32765
7.80549,-1.37468,1.35138,12,32765
0,-0,0,0,32765
0,-0,0,0,32765
0,-0,0,0,32765
0,-0,0,0,32765
7.15242,-1.38149,1.24358,11,32765
7.10902,-1.39759,1.23735,11,32765
7.13337,-1.42672,1.24256,16,32765
7.12855,-1.45037,1.24282,20,32765
7.14299,-1.47789,1.24643,20,32765
7.12843,-1.49943,1.24468,21,32765
7.14265,-1.52731,1.24822,21,32765
7.14714,-1.5528,1.25046,19,32765
7.12282,-1.57227,1.24637,20,32765
7.14621,-1.60242,1.2525,21,32765
7.1505,-1.62821,1.25414,19,32765
7.14502,-1.6518,1.25453,20,32765
7.15879,-1.67982,1.25759,19,32765
7.15332,-1.7035,1.25684,19,32765
7.18586,-1.73625,1.26446,20,32765
7.16112,-1.75505,1.26038,19,32765
7.1553,-1.77829,1.26087,19,32765
7.16864,-1.80617,1.26425,19,32765
7.17241,-1.83198,1.2651,19,32765
7.16653,-1.85506,1.26482,20,32765
7.16041,-1.87848,1.26488,19,32765
7.19232,-1.91205,1.27164,17,32765
7.16726,-1.92999,1.26745,19,32765
7.18953,-1.96115,1.27207,18,32765
7.18314,-1.98427,1.27231,11,32765
7.49952,-2.09778,1.32911,11,32765
7.62556,-2.15984,1.35186,12,32765
7.58059,-2.17342,1.34571,12,32765
7.57366,-2.1981,1.34463,12,32765
7.60461,-2.23303,1.35096,12,32765
7.52202,-2.23487,1.33648,12,32765
7.59061,-2.28149,1.34872,12,32765
7.48916,-2.27687,1.33113,12,32765
7.45371,-2.29222,1.32516,12,32765
7.45601,-2.3184,1.32641,12,32765
7.44885,-2.34208,1.32502,12,32765
7.46051,-2.37116,1.32742,12,32765
7.3879,-2.37277,1.31373,12,32765
7.41836,-2.40787,1.31841,12,32765
7.41121,-2.43067,1.3168,12,32765
7.36679,-2.44105,1.30715,13,32765
5.95935,0.0405588,0.982932,18,32765
5.95945,0.0212255,0.982883,18,32765
5.93983,0.00192659,0.979201,18,32765
5.90043,-0.0179622,0.972119,18,32765
5.8512,-0.0372488,0.962814,18,32765
5.83146,-0.0566631,0.958637,17,32765
5.87079,-0.0766042,0.964578,17,32765
5.84107,-0.0957643,0.95873,18,32765
5.72253,-0.113147,0.938033,17,32765
5.78145,-0.133476,0.946889,19,32765
5.75163,-0.151455,0.940578,18,32765
5.71184,-0.168839,0.933023,17,32765
5.72119,-0.187694,0.934239,17,32765
5.71087,-0.206161,0.931441,17,32765
5.65118,-0.222477,0.920633,18,32765
5.68996,-0.242774,0.926464,19,32765
5.70902,-0.262395,0.928593,17,32765
5.55064,-0.273024,0.901519,17,32765
5.68776,-0.298563,0.923679,19,32765
5.57844,-0.311033,0.905454,19,32765
5.63666,-0.333024,0.914072,18,32765
5.67501,-0.354018,0.920073,17,32765
5.70347,-0.374493,0.924249,17,32765
5.72206,-0.394423,0.926579,18,32765
5.70124,-0.411546,0.922273,18,32765
5.71958,-0.431814,0.925196,17,32765
5.73786,-0.452319,0.928014,17,32765
5.77571,-0.474434,0.934334,16,32765
5.77431,-0.493762,0.932972,17,32765
5.80218,-0.515301,0.937642,16,32765
5.85959,-0.539817,0.946269,16,32765
0,-0,0,0,32765
5.94448,-0.586869,0.959842,17,32765
5.96219,-0.608317,0.962883,17,32765
5.9995,-0.631877,0.968927,18,32765
6.01711,-0.653587,0.971641,16,32765
5.96596,-0.66797,0.963067,17,32765
6.0225,-0.694425,0.973059,18,32765
6.07912,-0.721236,0.98191,18,32765
6.0473,-0.737508,0.977319,16,32765
6.3585,-0.79662,1.02714,17,32765
6.42435,-0.826652,1.03828,17,32765
6.57802,-0.868953,1.06439,17,32765
6.5849,-0.892402,1.06564,17,32765
6.61124,-0.918069,1.07062,17,32765
6.64723,-0.944988,1.07766,17,32765
6.67345,-0.970713,1.08242,16,32765
6.71911,-0.999574,1.09033,16,32765
6.76452,-1.02937,1.09844,17,32765
6.78047,-1.05492,1.10224,17,32765
6.82569,-1.08563,1.10965,18,32765
7.20206,-1.17056,1.17145,13,32765
7.81152,-1.29665,1.27252,15,32765
7.8459,-1.3297,1.27959,14,32765
7.77333,-1.3438,1.26871,13,32765
7.79804,-1.37456,1.27338,12,32765
0,-0,0,0,32765
0,-0,0,0,32765
0,-0,0,0,32765
0,-0,0,0,32765
7.08583,-1.36991,1.1621,11,32765
7.13928,-1.40487,1.17214,13,32765
7.14428,-1.43027,1.17389,23,32765
7.15879,-1.45793,1.17734,26,32765
7.14423,-1.47959,1.17599,25,32765
7.14897,-1.50524,1.17752,27,32765
7.14387,-1.5291,1.17768,26,32765
7.15802,-1.55673,1.18142,25,32765
7.16256,-1.58266,1.1823,26,32765
7.14744,-1.60435,1.18178,25,32765
7.1806,-1.63677,1.18811,25,32765
7.14623,-1.65382,1.18372,25,32765
7.1504,-1.67963,1.185,25,32765
7.15452,-1.70561,1.18585,24,32765
7.17751,-1.7361,1.1915,26,32765
7.19108,-1.76431,1.19398,25,32765
7.17564,-1.7853,1.19288,24,32765
7.16984,-1.80847,1.19289,24,32765
7.20229,-1.84166,1.19842,25,32765
7.17725,-1.85992,1.19496,25,32765
7.19021,-1.88842,1.1982,24,32765
7.18397,-1.912,1.19823,23,32765
7.19699,-1.94022,1.20059,25,32765
7.20021,-1.96633,1.20175,20,32765
7.16525,-1.98162,1.19722,12,32765
7.6247,-2.13529,1.2747,13,32765
7.58932,-2.15211,1.26913,13,32765
7.53482,-2.16286,1.26177,13,32765
7.52791,-2.18743,1.2607,13,32765
7.53051,-2.21393,1.26189,13,32765
7.5141,-2.23522,1.25927,13,32765
7.45986,-2.24492,1.25017,13,32765
7.47172,-2.27435,1.25252,13,32765
7.42678,-2.28675,1.24525,13,32765
7.41966,-2.30996,1.24484,13,32765
7.44076,-2.34245,1.24819,14,32765
7.39596,-2.35359,1.24093,14,32765
7.40788,-2.38219,1.2421,14,32765
7.3726,-2.39606,1.23539,13,32765
7.37483,-2.42184,1.23536,14,32765
7.33034,-2.4321,1.2261,14,32765
6.03032,0.0525692,0.917855,15,32765
6.13888,0.0335788,0.936523,15,32765
5.99045,0.0132656,0.915405,16,32765
5.90139,-0.00633126,0.902454,15,32765
6.07899,-0.0267534,0.931515,15,32765
5.93045,-0.0458909,0.909777,15,32765
5.99926,-0.0660521,0.92164,16,32765
5.90989,-0.0842274,0.909113,15,32765
5.92928,-0.103492,0.912637,15,32765
5.87943,-0.121831,0.905491,16,32765
5.87893,-0.141071,0.905942,16,32765
5.819,-0.158908,0.897796,15,32765
5.78878,-0.177143,0.893435,16,32765
5.79796,-0.196733,0.895435,15,32765
5.7577,-0.214569,0.889775,16,32765
5.75695,-0.233645,0.889865,16,32765
5.89431,-0.258331,0.91174,15,32765
5.8835,-0.27724,0.910586,16,32765
5.66536,-0.285524,0.877367,15,32765
5.67425,-0.304896,0.878885,16,32765
5.75213,-0.328239,0.891123,15,32765
5.68191,-0.342799,0.880916,15,32765
6.02596,-0.383409,0.934286,14,32765
5.9951,-0.401101,0.929655,15,32765
6.05287,-0.425018,0.938996,15,32765
5.95281,-0.438015,0.923995,15,32765
6.02022,-0.463133,0.935196,13,32765
5.90047,-0.473646,0.916636,14,32765
5.93836,-0.496239,0.922211,14,32765
5.93671,-0.515781,0.922131,14,32765
6.01364,-0.542222,0.934998,14,32765
6.03145,-0.563861,0.938414,13,32765
6.04929,-0.585903,0.940933,13,32765
6.1062,-0.611949,0.950764,15,32765
6.06489,-0.628343,0.944034,15,32765
6.09231,-0.651347,0.948428,14,32765
6.11962,-0.674208,0.953221,15,32765
6.30393,-0.715442,0.982332,16,32765
6.23289,-0.728076,0.971352,16,32765
6.25008,-0.751517,0.973974,14,32765
6.15917,-0.761639,0.960674,16,32765
6.56841,-0.834154,1.02477,15,32765
6.67338,-0.870171,1.0416,14,32765
6.65101,-0.889373,1.03788,15,32765
6.68718,-0.916963,1.04387,15,32765
6.70372,-0.941967,1.04661,15,32765
6.72023,-0.966673,1.04926,15,32765
6.78543,-0.998818,1.06012,15,32765
6.80175,-1.02367,1.06296,14,32765
6.79848,-1.04614,1.06198,15,32765
6.83395,-1.07483,1.06859,15,32765
6.96682,-1.11976,1.09046,13,32765
7.88936,-1.29547,1.23605,13,32765
7.86552,-1.31863,1.23276,13,32765
7.88058,-1.34857,1.23526,12,32765
7.82731,-1.36632,1.22797,12,32765
0,-0,0,0,32765
0,-0,0,0,32765
0,-0,0,0,32765
0,-0,0,0,32765
0,-0,0,0,32765
7.11005,-1.38537,1.12107,12,32765
7.1734,-1.42224,1.13117,16,32765
7.1589,-1.44389,1.13026,21,32765
7.17346,-1.47149,1.13327,21,32765
7.14913,-1.49108,1.1308,21,32765
7.16337,-1.51861,1.13494,21,32765
7.15819,-1.54231,1.13565,21,32765
7.17235,-1.5699,1.13917,21,32765
7.1768,-1.59592,1.14025,20,32765
7.18089,-1.62173,1.14339,21,32765
7.17556,-1.64513,1.14342,21,32765
7.16983,-1.66873,1.14513,21,32765
7.18355,-1.69631,1.14893,21,32765
7.18759,-1.72223,1.15017,20,32765
7.18175,-1.74538,1.15173,20,32765
7.17586,-1.76852,1.15318,20,32765
7.1699,-1.79186,1.15418,19,32765
7.18307,-1.81993,1.15817,20,32765
7.18651,-1.84573,1.16083,19,32765
7.18976,-1.87169,1.16385,19,32765
7.18343,-1.89488,1.16537,18,32765
7.22477,-1.93111,1.17405,19,32765
7.18009,-1.94404,1.16957,19,32765
7.22103,-1.9806,1.17911,12,32765
7.44282,-2.06725,1.2179,11,32765
7.64507,-2.14991,1.25398,12,32765
7.6378,-2.17476,1.25538,12,32765
7.59256,-2.18853,1.25037,12,32765
7.58501,-2.21331,1.25256,12,32765
7.53954,-2.22661,1.24869,12,32765
7.49428,-2.23883,1.2449,12,32765
7.50572,-2.26811,1.2504,12,32765
7.49814,-2.29159,1.25307,12,32765
7.44324,-2.30103,1.24723,12,32765
7.43525,-2.32515,1.25014,12,32765
7.44626,-2.35499,1.25513,12,32765
7.46631,-2.38778,1.26344,12,32765
7.39247,-2.38987,1.25568,12,32765
7.38429,-2.4131,1.2594,12,32765
7.42293,-2.45155,1.2714,13,32765
5.99911,0.053032,0.855285,16,32765
5.98905,0.033463,0.855939,18,32765
5.93942,0.0138205,0.850355,16,32765
5.98883,-0.0057829,0.858094,17,32765
5.89944,-0.0253609,0.847125,18,32765
5.88928,-0.0450019,0.846678,17,32765
5.80975,-0.0634324,0.836504,16,32765
5.86873,-0.083132,0.846185,18,32765
5.80898,-0.100919,0.838096,17,32765
5.77887,-0.119305,0.834264,17,32765
5.7487,-0.137536,0.830419,18,32765
5.80743,-0.158208,0.839982,18,32765
5.81674,-0.177646,0.841626,16,32765
5.71714,-0.193674,0.827781,18,32765
5.68673,-0.211639,0.82392,18,32765
5.73542,-0.232514,0.831175,18,32765
5.73457,-0.251102,0.831667,17,32765
5.69412,-0.268119,0.826293,19,32765
5.60419,-0.282277,0.813771,17,32765
5.59334,-0.300414,0.812325,17,32765
5.69111,-0.324651,0.826687,18,32765
5.71959,-0.344996,0.831488,16,32765
5.98511,-0.380762,0.870105,20,32765
5.81598,-0.389101,0.845654,18,32765
5.92323,-0.41593,0.861611,17,32765
5.87241,-0.432146,0.854718,15,32765
5.95967,-0.458554,0.868134,17,32765
5.85949,-0.470467,0.85357,16,32765
5.84814,-0.488841,0.851596,15,32765
5.86622,-0.50983,0.854389,15,32765
5.90386,-0.532529,0.860754,15,32765
5.96114,-0.557527,0.869727,15,32765
5.99872,-0.58128,0.87494,17,32765
6.03605,-0.605226,0.88133,17,32765
5.99469,-0.62141,0.87498,17,32765
6.08121,-0.650539,0.887716,17,32765
5.97085,-0.658221,0.872114,17,32765
6.05715,-0.687876,0.885084,17,32765
6.01558,-0.703163,0.879076,17,32765
6.11148,-0.735365,0.893013,17,32765
6.1089,-0.75597,0.893471,16,32765
6.53836,-0.830961,0.956522,17,32765
6.60423,-0.861821,0.966579,17,32765
6.60147,-0.883452,0.96593,17,32765
6.6181,-0.908233,0.968678,17,32765
6.65428,-0.935806,0.974103,16,32765
6.71982,-0.967444,0.983735,17,32765
6.72636,-0.99099,0.985337,17,32765
6.74272,-1.01569,0.988,17,32765
6.83728,-1.05307,1.00135,17,32765
6.8239,-1.07424,1.00042,18,32765
7.03513,-1.13181,1.03245,13,32765
7.83196,-1.28728,1.15054,15,32765
7.86667,-1.32011,1.15605,14,32765
7.83297,-1.34175,1.15119,13,32765
7.81865,-1.36618,1.1501,13,32765
0,-0,0,0,32765
0,-0,0,0,32765
0,-0,0,0,32765
0,-0,0,0,32765
7.14386,-1.36907,1.05516,11,32765
7.13926,-1.39255,1.05558,13,32765
7.14442,-1.41803,1.05641,22,32765
7.16872,-1.44746,1.06134,27,32765
7.17359,-1.47315,1.06272,26,32765
7.17829,-1.49883,1.06475,27,32765
7.17317,-1.5224,1.06583,27,32765
7.16798,-1.54617,1.06655,26,32765
7.19182,-1.57596,1.07132,27,32765
7.18659,-1.59994,1.07087,25,32765
7.18103,-1.62365,1.07248,27,32765
7.16604,-1.64487,1.07106,26,32765
7.16032,-1.66848,1.07277,26,32765
7.16443,-1.69381,1.07494,25,32765
7.17811,-1.72201,1.07754,25,32765
7.17227,-1.74518,1.0791,25,32765
7.20481,-1.7778,1.08634,25,32765
7.17963,-1.79647,1.08445,25,32765
7.19281,-1.82462,1.08825,25,32765
7.20582,-1.85296,1.09227,25,32765
7.18992,-1.87404,1.09229,24,32765
7.19316,-1.8998,1.09527,22,32765
7.20587,-1.92847,1.09911,26,32765
7.18025,-1.94652,1.09793,22,32765
7.14494,-1.9622,1.0953,12,32765
7.54818,-2.09917,1.15966,12,32765
7.56018,-2.12873,1.16439,13,32765
7.60055,-2.16692,1.17311,13,32765
7.58379,-2.1888,1.17288,13,32765
7.51929,-2.19695,1.16624,13,32765
7.54022,-2.22969,1.17305,13,32765
7.5044,-2.24475,1.17111,13,32765
7.47798,-2.26267,1.1705,13,32765
7.49881,-2.29478,1.17762,13,32765
7.46274,-2.31007,1.17522,14,32765
7.43586,-2.3284,1.17516,14,32765
7.44689,-2.35829,1.17997,13,32765
7.41991,-2.37607,1.18051,14,32765
7.41189,-2.39932,1.1839,14,32765
7.35672,-2.40728,1.18009,13,32765
7.33915,-2.4271,1.18254,14,32765
5.93702,0.0487341,0.865694,15,32765
6.01678,0.0298485,0.873983,16,32765
5.90838,0.00991077,0.855474,15,32765
5.93842,-0.00990776,0.857373,15,32765
6.07728,-0.0301479,0.874866,17,32765
5.88947,-0.0487472,0.845107,15,32765
6.03793,-0.0696599,0.865176,15,32765
5.87958,-0.0869477,0.840595,14,32765
5.82999,-0.105029,0.832038,15,32765
5.80006,-0.12364,0.826784,14,32765
5.77021,-0.142226,0.820611,16,32765
5.89853,-0.165144,0.837628,16,32765
5.80913,-0.181624,0.823354,15,32765
5.8483,-0.202361,0.827377,15,32765
5.78842,-0.219154,0.817692,15,32765
5.77793,-0.2378,0.8152,16,32765
5.75753,-0.255818,0.811063,15,32765
5.70732,-0.272316,0.803252,14,32765
5.71644,-0.291494,0.803579,15,32765
5.60678,-0.304326,0.787589,15,32765
5.71469,-0.328976,0.80156,15,32765
5.78293,-0.352103,0.810109,15,32765
5.84107,-0.374994,0.818175,18,32765
5.79049,-0.390956,0.810576,14,32765
5.7694,-0.408518,0.807906,14,32765
5.76817,-0.427356,0.80697,14,32765
5.8854,-0.455462,0.822328,16,32765
5.83453,-0.470633,0.81537,15,32765
5.94158,-0.498739,0.830261,13,32765
0,-0,0,0,32765
5.95806,-0.53946,0.831961,15,32765
0,-0,0,0,32765
0,-0,0,0,32765
5.95243,-0.599734,0.830971,16,32765
5.94062,-0.61812,0.829395,14,32765
6.00757,-0.644649,0.838765,15,32765
5.98574,-0.661903,0.836211,15,32765
6.05244,-0.689097,0.845956,15,32765
6.05017,-0.709006,0.845731,16,32765
6.14608,-0.740766,0.8599,15,32765
6.34023,-0.78561,0.887015,15,32765
6.61274,-0.841499,0.925429,15,32765
6.60008,-0.861977,0.924287,14,32765
6.62657,-0.888041,0.928668,15,32765
6.68258,-0.917791,0.936417,15,32765
6.71867,-0.945434,0.942375,15,32765
6.71553,-0.96751,0.942379,15,32765
6.74165,-0.993836,0.94701,15,32765
6.81671,-1.02776,0.958015,14,32765
6.85231,-1.0563,0.96437,15,32765
6.84874,-1.07915,0.964498,15,32765
6.94286,-1.11795,0.978238,14,32765
7.85777,-1.29233,1.10765,12,32765
7.9021,-1.32701,1.11531,13,32765
7.80969,-1.33833,1.10343,12,32765
7.80517,-1.36423,1.10369,12,32765
7.97612,-1.42159,1.1283,11,32765
0,-0,0,0,32765
0,-0,0,0,32765
0,-0,0,0,32765
0,-0,0,0,32765
7.14442,-1.39536,1.01622,12,32765
7.19799,-1.43051,1.02504,14,32765
7.15435,-1.44651,1.01969,22,32765
7.17857,-1.47622,1.02415,23,32765
7.16401,-1.4979,1.02243,21,32765
7.15887,-1.52197,1.02286,22,32765
7.17304,-1.54982,1.02646,21,32765
7.16781,-1.57376,1.02656,22,32765
7.18183,-1.60197,1.02954,21,32765
7.1959,-1.62994,1.03193,21,32765
7.18073,-1.65127,1.03155,20,32765
7.20426,-1.6814,1.03561,21,32765
7.17947,-1.70034,1.03274,21,32765
7.17391,-1.7236,1.03284,21,32765
7.20659,-1.75688,1.03854,21,32765
7.21038,-1.78313,1.03967,20,32765
7.19489,-1.8045,1.03799,21,32765
7.1985,-1.83056,1.03954,20,32765
7.19258,-1.85373,1.03949,20,32765
7.19608,-1.8794,1.04138,19,32765
7.23806,-1.9151,1.04712,18,32765
7.26055,-1.94596,1.05151,20,32765
7.18738,-1.95117,1.04162,19,32765
7.248,-1.99257,1.05085,12,32765
7.56591,-2.10633,1.09786,11,32765
7.62572,-2.14997,1.10725,12,32765
7.61877,-2.17462,1.10697,12,32765
7.5738,-2.18816,1.10049,12,32765
7.5668,-2.21252,1.09997,12,32765
7.59771,-2.24806,1.10497,12,32765
7.53349,-2.25566,1.09641,12,32765
7.58322,-2.29688,1.10416,12,32765
7.47191,-2.28896,1.08777,12,32765
7.53119,-2.33269,1.09608,12,32765
7.43897,-2.32931,1.08305,12,32765
7.4318,-2.35269,1.0817,12,32765
7.46226,-2.38804,1.08628,12,32765
7.43617,-2.40537,1.08152,12,32765
7.41014,-2.42203,1.07729,13,32765
7.38454,-2.43806,1.07098,13,32765
6.07372,0.0505674,0.827194,16,32765
6.06439,0.0307599,0.822565,17,32765
5.86664,0.0104602,0.793006,17,32765
5.98588,-0.0093898,0.80666,18,32765
5.92669,-0.0288437,0.796197,18,32765
5.88728,-0.04821,0.788186,17,32765
5.91698,-0.0677758,0.790954,17,32765
5.77823,-0.0850043,0.770551,18,32765
5.80785,-0.104216,0.773039,18,32765
5.84725,-0.124262,0.777291,17,32765
5.86689,-0.144257,0.777954,17,32765
5.75753,-0.160885,0.762247,16,32765
5.81664,-0.181576,0.768492,17,32765
5.73695,-0.198264,0.756461,17,32765
5.73644,-0.216974,0.755187,18,32765
5.74574,-0.236294,0.755403,18,32765
5.7253,-0.254239,0.75146,20,32765
5.65522,-0.269717,0.741525,18,32765
5.71386,-0.29128,0.748251,17,32765
5.61395,-0.304666,0.734586,17,32765
5.61309,-0.32311,0.7333,17,32765
5.69132,-0.346542,0.742506,17,32765
5.67038,-0.364083,0.739688,16,32765
5.73849,-0.387527,0.748054,17,32765
5.69761,-0.403546,0.74299,16,32765
5.70627,-0.422914,0.743354,17,32765
5.77421,-0.447038,0.751172,18,32765
5.88146,-0.474635,0.765261,19,32765
5.80086,-0.487173,0.754693,15,32765
5.85861,-0.511175,0.76179,18,32765
5.85693,-0.530619,0.761368,18,32765
5.85515,-0.550308,0.761088,18,32765
5.92243,-0.576808,0.769469,16,32765
5.95992,-0.600914,0.7745,18,32765
6.00727,-0.625518,0.780709,20,32765
5.9954,-0.643838,0.77917,17,32765
5.99325,-0.663262,0.779366,16,32765
6.03047,-0.687161,0.784611,19,32765
6.05775,-0.710498,0.788232,17,32765
6.15379,-0.742342,0.801468,17,32765
6.29895,-0.781195,0.820304,17,32765
6.60133,-0.840819,0.859946,17,32765
6.58866,-0.861293,0.858897,18,32765
6.64468,-0.891321,0.866845,17,32765
6.62214,-0.910379,0.86378,18,32765
6.67795,-0.940639,0.871925,17,32765
6.67481,-0.962618,0.871929,18,32765
6.74023,-0.994649,0.881409,17,32765
6.75654,-1.01975,0.883969,17,32765
6.79222,-1.04815,0.889943,17,32765
6.85724,-1.08165,0.899062,18,32765
6.89272,-1.11108,0.904161,15,32765
7.88707,-1.29858,1.03507,14,32765
7.86298,-1.32192,1.03326,15,32765
7.82913,-1.34317,1.02994,14,32765
7.80505,-1.36577,1.02763,13,32765
0,-0,0,0,32765
0,-0,0,0,32765
0,-0,0,0,32765
0,-0,0,0,32765
7.11888,-1.36762,0.94196,11,32765
7.10453,-1.38924,0.941078,12,32765
7.15819,-1.42433,0.949338,20,32765
7.21171,-1.4599,0.957267,28,32765
7.19706,-1.48185,0.95628,28,32765
7.20187,-1.5077,0.957232,28,32765
7.1967,-1.53193,0.957666,27,32765
7.18178,-1.55367,0.957208,26,32765
7.1959,-1.58193,0.959897,27,32765
7.21958,-1.61245,0.963984,27,32765
7.19494,-1.63183,0.961017,27,32765
7.19908,-1.65764,0.963322,26,32765
7.2033,-1.68337,0.964516,27,32765
7.18812,-1.70463,0.963127,26,32765
7.20182,-1.73259,0.96581,26,32765
7.21524,-1.76132,0.968553,26,32765
7.21902,-1.78765,0.969594,25,32765
7.19387,-1.80667,0.966715,25,32765
7.20709,-1.83522,0.969463,25,32765
7.20114,-1.85846,0.969421,25,32765
7.20463,-1.8842,0.971212,25,32765
7.23705,-1.91746,0.975198,23,32765
7.24998,-1.94581,0.978022,26,32765
7.21498,-1.96138,0.973947,22,32765
7.21827,-1.98717,0.974779,12,32765
7.56522,-2.1091,1.02249,12,32765
7.62509,-2.15283,1.03123,13,32765
7.60858,-2.17478,1.02965,13,32765
7.56355,-2.18831,1.02355,13,32765
7.58508,-2.22103,1.0269,13,32765
7.55894,-2.2398,1.0238,13,32765
7.51366,-2.25297,1.01838,13,32765
7.47803,-2.26831,1.01399,13,32765
7.47097,-2.29201,1.01278,13,32765
7.50186,-2.32701,1.01659,13,32765
7.4474,-2.33538,1.00954,13,32765
7.44964,-2.36182,1.00947,13,32765
7.44232,-2.38519,1.00856,13,32765
7.40674,-2.39943,1.00271,13,32765
7.3901,-2.4191,0.999957,14,32765
7.40211,-2.44755,0.99893,14,32765
6.08551,0.0622515,0.734571,17,32765
6.12515,0.041817,0.741434,16,32765
6.03568,0.021178,0.732492,15,32765
6.0554,0.00184148,0.736258,15,32765
5.9957,-0.0171029,0.730005,16,32765
5.93597,-0.0364004,0.723419,15,32765
6.00514,-0.0567258,0.733162,16,32765
5.99489,-0.0765545,0.732824,15,32765
5.95483,-0.0956877,0.728617,16,32765
5.80552,-0.11225,0.711195,15,32765
5.93403,-0.13423,0.727804,15,32765
5.90374,-0.15277,0.724595,15,32765
5.8734,-0.171379,0.721219,16,32765
5.87274,-0.19093,0.721728,16,32765
5.8224,-0.208691,0.716278,16,32765
5.81174,-0.227922,0.715088,22,32765
5.82079,-0.247612,0.716902,26,32765
5.79014,-0.265227,0.713791,22,32765
5.71978,-0.280743,0.705823,23,32765
5.70888,-0.298717,0.705028,22,32765
5.73756,-0.31915,0.708947,17,32765
5.71666,-0.336833,0.706577,16,32765
5.79474,-0.36054,0.716554,15,32765
5.77372,-0.378246,0.714121,16,32765
5.82189,-0.400545,0.720767,16,32765
5.80072,-0.41856,0.718383,16,32765
5.89827,-0.44548,0.730485,19,32765
5.91647,-0.466942,0.733316,21,32765
5.84569,-0.480843,0.724405,20,32765
5.96268,-0.510201,0.739635,21,32765
5.89172,-0.523498,0.731539,21,32765
5.92958,-0.546245,0.736005,22,32765
6.01662,-0.574364,0.747291,21,32765
5.94557,-0.587684,0.73843,22,32765
5.97312,-0.610801,0.742461,21,32765
6.05985,-0.640181,0.75364,20,32765
6.08738,-0.663355,0.756735,16,32765
6.04566,-0.678931,0.752261,16,32765
6.06314,-0.700934,0.754634,15,32765
6.10034,-0.725569,0.758647,16,32765
6.1569,-0.753061,0.766828,16,32765
6.59746,-0.829335,0.822069,15,32765
6.64389,-0.857584,0.828126,15,32765
6.66062,-0.882321,0.831019,15,32765
6.71671,-0.91229,0.838147,15,32765
6.7137,-0.934519,0.83773,15,32765
6.7499,-0.96215,0.842631,15,32765
6.81537,-0.994638,0.851501,15,32765
6.7727,-1.01159,0.84689,15,32765
6.84774,-1.04629,0.856778,14,32765
6.86384,-1.07234,0.85896,15,32765
6.95828,-1.11086,0.870837,14,32765
7.87537,-1.28392,0.985756,12,32765
7.90035,-1.31475,0.990323,13,32765
7.86658,-1.33601,0.986726,12,32765
7.74476,-1.34192,0.971751,12,32765
0,-0,0,0,32765
0,-0,0,0,32765
0,-0,0,0,32765
0,-0,0,0,32765
0,-0,0,0,32765
7.20017,-1.39467,0.908023,11,32765
7.15658,-1.41081,0.903069,14,32765
7.19071,-1.44223,0.908755,21,32765
7.20521,-1.47037,0.911598,21,32765
7.20015,-1.49456,0.912249,22,32765
7.19504,-1.51842,0.913189,22,32765
7.17069,-1.53764,0.910464,22,32765
7.18496,-1.56513,0.913667,21,32765
7.19905,-1.59309,0.916865,21,32765
7.1742,-1.61276,0.915369,21,32765
7.22676,-1.64993,0.923322,21,32765
7.20171,-1.66956,0.922234,21,32765
7.19615,-1.69297,0.922957,21,32765
7.20984,-1.7209,0.926095,21,32765
7.20405,-1.74415,0.927601,21,32765
7.21752,-1.77233,0.930814,21,32765
7.2309,-1.80043,0.934174,21,32765
7.22483,-1.82379,0.93576,21,32765
7.22836,-1.84971,0.937961,21,32765
7.21247,-1.87073,0.938498,20,32765
7.25426,-1.90648,0.94586,17,32765
7.25741,-1.9327,0.948439,21,32765
7.2509,-1.95609,0.950305,20,32765
7.23476,-1.97702,0.950379,12,32765
7.58173,-2.09866,0.998945,11,32765
7.6798,-2.15255,1.01431,12,32765
7.59623,-2.15577,1.00575,12,32765
7.54124,-2.16647,1.00212,12,32765
7.65762,-2.22693,1.02139,12,32765
7.55501,-2.2237,1.01028,12,32765
7.52848,-2.24233,1.01015,12,32765
7.53996,-2.27205,1.01505,12,32765
7.53243,-2.29584,1.01744,12,32765
7.54359,-2.32563,1.02334,12,32765
7.51692,-2.34372,1.02298,12,32765
7.48079,-2.35852,1.02139,12,32765
7.52015,-2.39675,1.03179,12,32765
7.44624,-2.39863,1.02578,12,32765
7.45691,-2.42826,1.03252,12,32765
7.42963,-2.4463,1.0336,12,32765
6.02259,0.0622266,0.6694,18,32765
6.02254,0.0417008,0.671434,18,32765
5.99263,0.0215748,0.66997,19,32765
5.8832,0.00229493,0.659066,17,32765
6.01226,-0.0166657,0.67453,17,32765
5.92266,-0.035875,0.665159,18,32765
5.83293,-0.0546949,0.656353,16,32765
5.89224,-0.0748689,0.663921,18,32765
5.87202,-0.0940169,0.662318,18,32765
5.97094,-0.115136,0.674341,17,32765
5.77175,-0.13029,0.652682,18,32765
5.75138,-0.148591,0.650867,18,32765
5.80049,-0.169046,0.656761,18,32765
5.77997,-0.187743,0.655012,19,32765
5.77924,-0.207007,0.655653,17,32765
5.76858,-0.226126,0.654557,18,32765
5.72802,-0.243595,0.650635,18,32765
5.72713,-0.262302,0.651182,19,32765
5.76587,-0.282999,0.656288,18,32765
5.60612,-0.293366,0.638635,16,32765
5.67454,-0.315703,0.646792,17,32765
5.73297,-0.337887,0.653655,18,32765
5.70206,-0.354898,0.650441,18,32765
5.70086,-0.37363,0.650457,16,32765
5.72928,-0.394364,0.654365,16,32765
5.72792,-0.413532,0.654432,16,32765
5.72652,-0.432767,0.654278,17,32765
5.81413,-0.459162,0.664839,20,32765
5.83241,-0.480084,0.666779,23,32765
5.81094,-0.497583,0.665022,22,32765
5.83892,-0.519206,0.668908,22,32765
5.93619,-0.547295,0.679801,22,32765
5.9442,-0.567927,0.681177,21,32765
5.90275,-0.583961,0.676374,21,32765
5.98965,-0.613045,0.686924,18,32765
5.86898,-0.620594,0.673452,16,32765
5.98549,-0.652876,0.68648,18,32765
6.10174,-0.685901,0.700509,19,32765
6.10934,-0.706984,0.701561,19,32765
6.00842,-0.715372,0.689346,17,32765
6.14398,-0.752269,0.706019,17,32765
6.59489,-0.829898,0.758179,18,32765
6.5921,-0.851824,0.758103,17,32765
6.61872,-0.877739,0.761939,18,32765
6.64534,-0.903611,0.765107,17,32765
6.68172,-0.931128,0.769226,16,32765
6.7278,-0.960109,0.774886,17,32765
6.72453,-0.982531,0.775168,17,32765
6.8096,-1.01831,0.785666,17,32765
6.82578,-1.04419,0.788003,17,32765
6.83207,-1.06867,0.788866,18,32765
6.94624,-1.1103,0.802075,15,32765
7.87414,-1.28531,0.909323,13,32765
7.90895,-1.31782,0.914744,14,32765
7.86533,-1.33749,0.910296,13,32765
7.88042,-1.36717,0.912312,13,32765
7.75831,-1.37292,0.899207,11,32765
0,-0,0,0,32765
0,-0,0,0,32765
0,-0,0,0,32765
0,-0,0,0,32765
7.12013,-1.38101,0.828607,12,32765
7.1545,-1.4123,0.833108,19,32765
7.21789,-1.44964,0.84183,28,32765
7.23239,-1.47793,0.844488,28,32765
7.21757,-1.50023,0.844005,28,32765
7.22216,-1.52625,0.846088,28,32765
7.20747,-1.54767,0.844689,28,32765
7.19261,-1.56898,0.844291,27,32765
7.2067,-1.59702,0.847303,27,32765
7.2109,-1.62329,0.849423,28,32765
7.21505,-1.64959,0.851106,26,32765
7.21901,-1.67595,0.853637,27,32765
7.23276,-1.70402,0.856654,27,32765
7.23677,-1.72981,0.858463,26,32765
7.23097,-1.75319,0.859976,27,32765
7.22512,-1.77676,0.860708,26,32765
7.23851,-1.80494,0.863884,27,32765
7.2517,-1.83324,0.867777,27,32765
7.22633,-1.8519,0.866429,26,32765
7.23927,-1.88044,0.870529,24,32765
7.23305,-1.90371,0.871641,23,32765
7.24582,-1.93247,0.875284,27,32765
7.22014,-1.95068,0.874824,23,32765
7.24233,-1.98204,0.879643,12,32765
7.63751,-2.11726,0.930581,12,32765
7.63045,-2.14193,0.932077,13,32765
7.59461,-2.15855,0.930117,14,32765
7.5682,-2.1775,0.930472,13,32765
7.57981,-2.20763,0.935589,13,32765
7.56289,-2.2294,0.93601,13,32765
7.55536,-2.25376,0.938436,13,32765
7.48129,-2.25781,0.932493,13,32765
7.5023,-2.29015,0.938435,13,32765
7.46609,-2.30526,0.938174,13,32765
7.45843,-2.32905,0.940375,13,32765
7.47913,-2.36163,0.946235,14,32765
7.42398,-2.36974,0.944135,13,32765
7.42568,-2.3957,0.948404,14,32765
7.41754,-2.41918,0.952521,14,32765
7.40914,-2.44333,0.956199,14,32765
6.12966,0.0604051,0.701764,15,32765
6.01099,0.0388174,0.68483,16,32765
6.09088,0.0185948,0.691186,15,32765
6.04148,-0.00144739,0.683348,15,32765
6.10128,-0.021207,0.688115,16,32765
5.9624,-0.0400168,0.669488,16,32765
5.97236,-0.0597842,0.668894,16,32765
5.9425,-0.0790211,0.663984,15,32765
5.96223,-0.098758,0.664889,16,32765
5.86274,-0.116351,0.651697,16,32765
5.87233,-0.135894,0.652176,15,32765
5.85219,-0.154673,0.648067,15,32765
5.84188,-0.173762,0.645527,16,32765
5.87123,-0.194187,0.647354,15,32765
5.91038,-0.215284,0.650819,16,32765
5.8998,-0.234634,0.648731,14,32765
5.85931,-0.252585,0.643987,16,32765
5.75932,-0.267107,0.631605,16,32765
5.86771,-0.291265,0.642876,16,32765
