x, y, z, intensity, ring
7.8209,-0.878291,0.973153,14,32765
7.75885,-0.896967,0.965686,12,32765
7.70673,-0.916631,0.95842,12,32765
7.71336,-0.943435,0.960682,12,32765
7.81848,-0.982824,0.974213,13,32765
0,-0,0,0,32765
7.23125,-0.957911,0.902214,11,32765
7.12974,-0.96839,0.889688,13,32765
7.16587,-0.997459,0.894151,16,32765
7.14291,-1.01817,0.891693,16,32765
7.17872,-1.04767,0.896899,16,32765
7.17513,-1.0717,0.897212,16,32765
7.17149,-1.09576,0.897285,16,32765
7.16781,-1.11983,0.897,16,32765
7.18369,-1.14685,0.899047,16,32765
7.17991,-1.17054,0.898705,16,32765
7.17591,-1.19419,0.899513,16,32765
7.17189,-1.21803,0.89959,15,32765
7.16782,-1.24196,0.899361,16,32765
7.19286,-1.27122,0.903499,16,32765
7.18862,-1.29509,0.903352,16,32765
7.18437,-1.31859,0.903153,16,32765
7.17997,-1.34197,0.903732,16,32765
7.19501,-1.36912,0.906459,16,32765
7.19043,-1.39279,0.906794,16,32765
7.20526,-1.42041,0.909212,16,32765
7.21017,-1.44613,0.911215,15,32765
7.21494,-1.47236,0.912828,16,32765
7.171,-1.48851,0.908556,17,32765
7.2533,-1.53072,0.920583,12,32765
7.5006,-1.60839,0.952353,11,32765
7.6116,-1.65806,0.96792,12,32765
7.66413,-1.69601,0.976097,12,32765
7.61957,-1.71287,0.972194,13,32765
7.59439,-1.73386,0.970292,13,32765
7.58837,-1.7592,0.97175,12,32765
7.58252,-1.78386,0.972512,13,32765
7.59591,-1.81305,0.975685,13,32765
7.55124,-1.82821,0.972305,13,32765
7.5066,-1.84331,0.968096,13,32765
7.50049,-1.86755,0.969003,12,32765
7.47496,-1.88693,0.968156,13,32765
7.43983,-1.90382,0.965402,12,32765
7.48138,-1.94048,0.973488,12,32765
7.42698,-1.95187,0.96838,12,32765
7.46833,-1.98886,0.976003,12,32765
7.33711,-1.97934,0.961603,12,32765
7.36874,-2.01364,0.967979,13,32765
7.28535,-2.01662,0.959894,13,32765
7.31682,-2.05082,0.966366,13,32765
7.34811,-2.08535,0.972903,12,32765
6.98828,-2.00762,0.92864,11,32765
6.63851,-1.93056,0.885456,11,32765
6.66058,-1.96044,0.890673,11,32765
6.53038,-1.94505,0.876227,11,32765
6.48589,-1.95442,0.873144,12,32765
6.46992,-1.97199,0.873922,14,32765
6.558,-2.02178,0.889636,12,32765
6.4566,-2.01312,0.878683,11,32765
6.57288,-2.07228,0.89743,11,32765
6.65099,-2.11974,0.912534,11,32765
6.97436,-2.24662,0.960779,11,32765
7.13639,-2.32389,0.988139,13,32765
7.0153,-2.30988,0.975956,15,32765
5.48593,0.0566816,0.60975,17,32765
5.45607,0.0377785,0.608279,18,32765
5.5156,0.0198574,0.616639,16,32765
5.46581,0.00213211,0.612308,16,32765
5.56506,-0.0154261,0.624358,16,32765
5.62454,-0.0340692,0.631678,17,32765
5.59445,-0.0524586,0.629517,17,32765
5.69351,-0.0723438,0.641529,16,32765
5.6733,-0.0908352,0.639905,17,32765
5.66295,-0.109197,0.639558,17,32765
5.68235,-0.128272,0.642572,15,32765
5.75138,-0.148591,0.650867,17,32765
5.78063,-0.168467,0.654512,17,32765
5.8197,-0.189034,0.659514,17,32765
5.78918,-0.207362,0.65678,16,32765
5.8083,-0.227683,0.659064,17,32765
5.84715,-0.248661,0.664166,16,32765
5.91572,-0.27094,0.672624,16,32765
6.00405,-0.294689,0.683398,17,32765
6.03278,-0.315693,0.687239,16,32765
5.992,-0.333365,0.682976,19,32765
5.97102,-0.351917,0.680797,18,32765
6.28714,-0.391314,0.717182,17,32765
6.56343,-0.430162,0.748874,20,32765
6.61147,-0.455088,0.755123,17,32765
6.66936,-0.481501,0.761994,23,32765
6.61819,-0.500153,0.756156,19,32765
6.67584,-0.527215,0.763376,20,32765
6.75332,-0.555886,0.772059,25,32765
7.24635,-0.620495,0.829296,20,32765
7.2838,-0.647688,0.834434,21,32765
7.33119,-0.67591,0.839555,21,32765
7.38822,-0.705893,0.846654,22,32765
7.43528,-0.735576,0.851983,21,32765
7.51177,-0.768835,0.861489,22,32765
7.49925,-0.792981,0.860522,21,32765
7.51643,-0.819866,0.862065,21,32765
7.49388,-0.842393,0.860334,21,32765
7.4911,-0.866884,0.860234,21,32765
7.47846,-0.890397,0.858004,20,32765
7.49507,-0.917696,0.861275,20,32765
7.51166,-0.945265,0.863577,22,32765
7.37054,-0.952413,0.847625,14,32765
7.17028,-0.950884,0.825434,12,32765
7.1179,-0.967867,0.819515,12,32765
7.13439,-0.994209,0.821339,12,32765
7.44583,-1.06258,0.857586,19,32765
7.52086,-1.09888,0.866964,23,32765
7.53675,-1.12705,0.869561,23,32765
7.52309,-1.15086,0.868504,22,32765
7.52902,-1.17769,0.869339,22,32765
7.5251,-1.20283,0.868914,22,32765
7.52112,-1.22769,0.868557,22,32765
7.52673,-1.25414,0.870537,22,32765
7.55189,-1.28419,0.87402,21,32765
7.528,-1.30603,0.871513,21,32765
7.56264,-1.33829,0.876529,21,32765
7.55817,-1.36343,0.876374,22,32765
7.53414,-1.3846,0.8739,21,32765
7.51975,-1.40732,0.873374,20,32765
7.55411,-1.43936,0.878197,20,32765
7.54929,-1.46425,0.87855,20,32765
7.59313,-1.49889,0.884184,21,32765
7.56856,-1.52007,0.882729,19,32765
7.29079,-1.48986,0.851307,12,32765
7.19812,-1.49619,0.84173,11,32765
7.34852,-1.55295,0.860891,12,32765
7.54744,-1.62068,0.884532,19,32765
7.59058,-1.65579,0.891007,21,32765
7.56558,-1.67654,0.889498,20,32765
7.55981,-1.70184,0.890524,20,32765
7.53464,-1.72266,0.888806,18,32765
7.53835,-1.75009,0.891398,18,32765
7.58086,-1.78603,0.897883,17,32765
7.51697,-1.79678,0.891701,16,32765
7.49163,-1.81639,0.890977,15,32765
7.47593,-1.83844,0.890586,14,32765
7.46983,-1.86263,0.891491,14,32765
7.4443,-1.88194,0.890826,14,32765
7.38991,-1.89382,0.886042,14,32765
7.39309,-1.9204,0.889026,14,32765
7.37714,-1.94163,0.889004,14,32765
7.38018,-1.9683,0.891514,14,32765
7.3352,-1.98177,0.888766,14,32765
7.31897,-2.00302,0.888951,14,32765
7.34082,-2.03501,0.894431,14,32765
7.29578,-2.04799,0.891197,14,32765
7.2507,-2.0608,0.887998,13,32765
6.7188,-1.93311,0.826043,11,32765
6.60731,-1.92439,0.815551,11,32765
6.54371,-1.92896,0.809872,11,32765
6.46107,-1.92733,0.802516,12,32765
6.48315,-1.95658,0.808082,15,32765
6.43868,-1.96547,0.805391,16,32765
6.40357,-1.97719,0.80466,12,32765
6.51072,-2.03311,0.820887,11,32765
6.504,-2.05372,0.822865,11,32765
6.53499,-2.08598,0.83108,11,32765
7.00055,-2.25854,0.894106,13,32765
7.10612,-2.31761,0.912529,15,32765
6.99438,-2.30655,0.902672,21,32765
5.6528,0.0557059,0.64717,16,32765
5.48441,0.0354169,0.624837,15,32765
5.69343,0.0173814,0.646084,15,32765
5.63407,-0.00134978,0.637267,14,32765
5.69387,-0.0197909,0.642166,15,32765
5.60465,-0.0376158,0.629319,14,32765
5.71399,-0.0571979,0.639957,14,32765
5.704,-0.0758497,0.637336,15,32765
5.82311,-0.0964537,0.649375,14,32765
5.79318,-0.11497,0.643965,16,32765
5.87233,-0.135894,0.652176,15,32765
5.95155,-0.157299,0.65907,16,32765
5.87168,-0.174649,0.648821,15,32765
6.06992,-0.200759,0.669261,16,32765
5.96005,-0.217093,0.656288,15,32765
6.17791,-0.245694,0.679311,16,32765
5.98841,-0.258151,0.658176,15,32765
6.17637,-0.28645,0.677342,17,32765
6.13577,-0.304572,0.672246,17,32765
6.1548,-0.325375,0.672736,16,32765
6.02472,-0.338082,0.658332,14,32765
6.04352,-0.358918,0.659667,15,32765
6.5286,-0.409141,0.711594,15,32765
6.67612,-0.440253,0.726961,20,32765
6.65488,-0.460906,0.724029,14,32765
6.69292,-0.485956,0.728777,23,32765
6.81028,-0.51726,0.741245,18,32765
6.91765,-0.548431,0.752183,17,32765
6.83654,-0.564641,0.743577,22,32765
7.0922,-0.609451,0.771234,17,32765
7.25865,-0.647907,0.788126,19,32765
7.20703,-0.66736,0.782182,18,32765
7.18503,-0.689424,0.779473,18,32765
7.20251,-0.714825,0.78189,18,32765
7.20015,-0.73862,0.781476,18,32765
7.13838,-0.755998,0.774885,18,32765
7.17545,-0.783846,0.778521,18,32765
7.13334,-0.803222,0.773727,18,32765
7.17005,-0.831316,0.779005,18,32765
7.1674,-0.854898,0.777874,18,32765
7.20392,-0.883285,0.783171,18,32765
7.20097,-0.906823,0.783435,18,32765
7.20777,-0.931921,0.784684,17,32765
7.09625,-0.941372,0.772729,15,32765
7.13237,-0.970485,0.777816,14,32765
7.14883,-0.996914,0.779723,15,32765
7.17489,-1.02502,0.78382,17,32765
7.22064,-1.0563,0.788822,17,32765
7.18743,-1.07621,0.786563,17,32765
7.21324,-1.10481,0.790061,17,32765
7.21932,-1.13046,0.791201,17,32765
7.17615,-1.14858,0.787208,17,32765
7.20166,-1.17712,0.791239,17,32765
7.21725,-1.20425,0.794161,17,32765
7.20338,-1.22649,0.793416,18,32765
7.22873,-1.25526,0.796339,16,32765
7.22447,-1.27953,0.796357,17,32765
7.22012,-1.30339,0.797173,16,32765
7.23523,-1.33101,0.7999,16,32765
7.21121,-1.35134,0.797967,16,32765
7.26519,-1.38639,0.805288,16,32765
7.24113,-1.4065,0.802577,16,32765
7.25585,-1.4343,0.805586,17,32765
7.27056,-1.46211,0.807965,16,32765
7.25596,-1.48432,0.806436,15,32765
7.12439,-1.482,0.793157,14,32765
7.13881,-1.50999,0.795597,14,32765
7.25029,-1.55877,0.809364,16,32765
7.30338,-1.59547,0.815745,18,32765
7.29795,-1.6198,0.816417,18,32765
7.29255,-1.64408,0.816166,18,32765
7.32572,-1.67729,0.821084,18,32765
7.35888,-1.71069,0.824856,18,32765
7.33379,-1.73021,0.82362,19,32765
7.32812,-1.7541,0.823542,19,32765
7.34173,-1.78261,0.82543,19,32765
7.3551,-1.81113,0.82868,18,32765
7.34913,-1.83513,0.828871,18,32765
7.34309,-1.85907,0.829003,18,32765
7.35635,-1.8878,0.830581,18,32765
7.33092,-1.90676,0.82845,18,32765
7.3535,-1.93813,0.831972,18,32765
7.30881,-1.9516,0.827438,17,32765
7.33123,-1.98303,0.830784,17,32765
7.31513,-2.00445,0.829463,17,32765
7.3181,-2.03125,0.830126,16,32765
7.30187,-2.05254,0.828658,16,32765
7.31443,-2.08136,0.830429,15,32765
6.95419,-2.00326,0.790288,11,32765
6.63294,-1.9336,0.753522,11,32765
6.64577,-1.96045,0.755844,11,32765
6.5919,-1.96744,0.749938,11,32765
6.52868,-1.97091,0.742597,12,32765
6.55118,-1.99969,0.74521,13,32765
6.53544,-2.0173,0.743626,12,32765
6.59542,-2.05891,0.750848,11,32765
6.55097,-2.06829,0.745012,11,32765
6.60137,-2.10708,0.750349,11,32765
6.9926,-2.25502,0.794039,12,32765
7.07103,-2.30376,0.80222,14,32765
7.06414,-2.32553,0.800156,16,32765
5.5592,0.0553267,0.58338,18,32765
5.54973,0.0363452,0.579303,18,32765
5.81863,0.0182574,0.604754,20,32765
6.08744,-0.00097929,0.630448,23,32765
6.09756,-0.020751,0.629503,24,32765
6.20719,-0.041247,0.637742,24,32765
6.25694,-0.0622552,0.64106,25,32765
6.19718,-0.0820717,0.633306,24,32765
6.23681,-0.103006,0.635996,26,32765
6.19688,-0.122722,0.629707,26,32765
6.20645,-0.143402,0.630057,27,32765
6.15642,-0.16253,0.623007,24,32765
6.22562,-0.185029,0.628519,27,32765
6.16546,-0.203812,0.620955,25,32765
6.10518,-0.222311,0.613998,25,32765
6.07468,-0.241558,0.609975,22,32765
6.06393,-0.261413,0.608587,23,32765
6.03338,-0.279862,0.604058,22,32765
6.02257,-0.299033,0.602337,24,32765
6.11117,-0.323187,0.609608,24,32765
6.08032,-0.341356,0.606334,25,32765
6.16865,-0.366543,0.6144,24,32765
6.44561,-0.404183,0.640967,24,32765
6.54363,-0.431802,0.650006,22,32765
6.64152,-0.460312,0.659099,24,32765
6.71931,-0.488248,0.667414,27,32765
6.70777,-0.50989,0.665948,25,32765
6.68629,-0.530546,0.663078,24,32765
6.69442,-0.553401,0.664078,24,32765
6.69258,-0.57565,0.663737,23,32765
6.70068,-0.598685,0.663409,24,32765
6.73834,-0.624589,0.666804,24,32765
6.72637,-0.646083,0.6653,23,32765
6.744,-0.670032,0.667512,23,32765
6.72199,-0.69032,0.665166,24,32765
6.75928,-0.716647,0.668943,24,32765
6.71736,-0.73464,0.66441,24,32765
6.72482,-0.7581,0.664914,23,32765
6.72219,-0.780308,0.665844,23,32765
6.73945,-0.804818,0.66674,22,32765
6.7663,-0.830637,0.670623,22,32765
6.75364,-0.851541,0.669892,21,32765
6.76064,-0.875203,0.671037,20,32765
6.74785,-0.896288,0.669918,21,32765
6.77431,-0.922945,0.673611,20,32765
6.76137,-0.944103,0.672403,20,32765
6.75809,-0.966736,0.673228,20,32765
6.76468,-0.990908,0.673859,20,32765
6.79073,-1.01817,0.677715,20,32765
6.78725,-1.04096,0.67797,20,32765
6.77389,-1.06216,0.677048,19,32765
6.77022,-1.08509,0.677344,19,32765
6.78615,-1.11073,0.680065,19,32765
6.82162,-1.13982,0.684727,19,32765
6.77852,-1.15577,0.681101,20,32765
6.81393,-1.1849,0.684748,19,32765
6.8393,-1.21303,0.687722,20,32765
6.80579,-1.23035,0.685536,19,32765
6.82117,-1.25665,0.688045,20,32765
6.81693,-1.27931,0.688262,20,32765
6.83212,-1.30564,0.691022,19,32765
6.82783,-1.32816,0.690508,19,32765
6.82331,-1.35079,0.691304,19,32765
6.83831,-1.37722,0.693484,19,32765
6.84346,-1.40203,0.694055,18,32765
6.85819,-1.42876,0.696797,20,32765
6.83385,-1.44766,0.69508,20,32765
6.84838,-1.47459,0.69778,19,32765
6.84347,-1.49727,0.69766,21,32765
6.85779,-1.52443,0.700275,19,32765
6.83328,-1.5429,0.698058,19,32765
6.84743,-1.5702,0.700581,19,32765
6.83251,-1.59078,0.699059,20,32765
6.85622,-1.62006,0.702909,21,32765
6.88961,-1.65171,0.706808,20,32765
6.88422,-1.67415,0.706543,21,32765
6.90763,-1.70362,0.710534,20,32765
6.902,-1.7262,0.710715,20,32765
6.89632,-1.74872,0.71084,22,32765
6.89066,-1.77111,0.710282,20,32765
6.91372,-1.80112,0.713305,20,32765
6.90781,-1.82359,0.713551,21,32765
6.90189,-1.84592,0.71338,21,32765
6.92467,-1.87609,0.716442,21,32765
6.91849,-1.89885,0.716223,21,32765
6.91221,-1.92172,0.715824,21,32765
6.92506,-1.94981,0.71745,21,32765
6.93794,-1.97747,0.719056,19,32765
6.56817,-1.89518,0.681391,11,32765
6.56218,-1.91614,0.680461,11,32765
6.56553,-1.94,0.681605,12,32765
6.52121,-1.94959,0.677166,12,32765
6.49607,-1.96435,0.674353,15,32765
6.50909,-1.99018,0.675702,14,32765
6.45532,-1.99593,0.670269,12,32765
6.43943,-2.01362,0.668948,11,32765
6.55636,-2.07352,0.680261,11,32765
6.6826,-2.13665,0.692899,11,32765
6.92252,-2.23624,0.716945,21,32765
6.96321,-2.27253,0.720385,25,32765
6.94692,-2.29089,0.717378,25,32765
5.52729,0.0652963,0.497293,18,32765
5.61696,0.0474323,0.507048,18,32765
5.78629,0.0297168,0.523492,19,32765
5.846,0.0105277,0.530156,23,32765
5.83589,-0.00881341,0.530918,25,32765
5.85566,-0.0284496,0.533738,24,32765
5.81565,-0.0473597,0.530584,23,32765
5.85524,-0.0664997,0.534924,25,32765
5.80513,-0.0850143,0.531193,22,32765
5.86449,-0.105237,0.537365,24,32765
5.89386,-0.125553,0.541366,23,32765
5.86355,-0.144492,0.5385,24,32765
5.91273,-0.165223,0.544035,26,32765
5.90216,-0.184509,0.543472,24,32765
5.92144,-0.204323,0.545282,25,32765
5.87086,-0.221928,0.542038,23,32765
5.90989,-0.242932,0.545688,24,32765
5.98862,-0.266274,0.553106,26,32765
5.94786,-0.284572,0.549885,24,32765
6.01647,-0.308099,0.556423,25,32765
6.02531,-0.328554,0.557992,25,32765
5.97449,-0.345469,0.553373,22,32765
6.03298,-0.368453,0.558816,24,32765
6.10129,-0.392483,0.5655,25,32765
6.08015,-0.410868,0.56338,22,32765
6.16804,-0.437638,0.572561,22,32765
6.46437,-0.480456,0.600996,20,32765
6.48259,-0.503453,0.602888,20,32765
6.39151,-0.517915,0.594952,18,32765
6.38976,-0.539052,0.595003,21,32765
6.48716,-0.568797,0.60405,19,32765
6.515,-0.593157,0.606482,20,32765
6.51292,-0.614563,0.607496,20,32765
6.54062,-0.639028,0.609843,19,32765
6.56813,-0.663571,0.613362,19,32765
6.60549,-0.689693,0.617068,19,32765
6.43488,-0.693725,0.600927,19,32765
6.45233,-0.717638,0.602307,20,32765
6.47955,-0.742685,0.605254,20,32765
6.53634,-0.771198,0.61126,19,32765
6.46458,-0.784351,0.604686,19,32765
6.41262,-0.799485,0.599361,18,32765
6.6174,-0.846995,0.618612,20,32765
6.49609,-0.853336,0.607491,19,32765
6.52281,-0.878854,0.610493,20,32765
6.50008,-0.897873,0.608993,17,32765
6.41819,-0.908317,0.601594,18,32765
6.50376,-0.942648,0.610296,17,32765
6.5597,-0.973261,0.615402,17,32765
6.58588,-0.999558,0.619039,17,32765
6.56276,-1.01875,0.617394,19,32765
6.56909,-1.04232,0.618892,18,32765
6.48699,-1.05144,0.611121,18,32765
6.56205,-1.08604,0.618412,18,32765
6.49956,-1.09745,0.612932,18,32765
6.59392,-1.13632,0.622406,18,32765
6.55079,-1.15174,0.618935,17,32765
6.54688,-1.17351,0.61942,18,32765
6.58209,-1.20237,0.623506,18,32765
6.6173,-1.23088,0.627624,16,32765
6.61319,-1.25269,0.627707,17,32765
6.50142,-1.2538,0.618087,17,32765
6.55587,-1.28664,0.623865,17,32765
6.67842,-1.33391,0.636427,16,32765
6.56662,-1.334,0.626765,16,32765
6.64005,-1.37205,0.635088,17,32765
6.59645,-1.38608,0.631271,16,32765
6.6599,-1.42244,0.638756,16,32765
6.67457,-1.44861,0.641338,16,32765
6.66002,-1.46819,0.641137,15,32765
6.6648,-1.49242,0.642459,16,32765
6.62093,-1.50564,0.63934,17,32765
6.50916,-1.50247,0.630445,17,32765
6.61076,-1.54883,0.641377,16,32765
6.60558,-1.57025,0.642671,16,32765
6.67774,-1.6107,0.650696,18,32765
6.68198,-1.63503,0.652628,16,32765
6.73451,-1.67115,0.659201,17,32765
6.76751,-1.70292,0.664066,17,32765
6.7232,-1.715,0.66201,16,32765
6.76558,-1.74949,0.668321,17,32765
6.77896,-1.77677,0.671103,17,32765
6.77292,-1.79892,0.67309,18,32765
6.7573,-1.81832,0.673392,20,32765
6.78976,-1.85034,0.678412,18,32765
6.81228,-1.88029,0.683598,19,32765
6.74856,-1.88622,0.678765,18,32765
6.80922,-1.92694,0.688138,17,32765
6.75482,-1.93564,0.685078,13,32765
0,-0,0,0,32765
6.64633,-1.95101,0.679308,12,32765
6.60157,-1.96138,0.677305,12,32765
6.5474,-1.96818,0.674344,13,32765
6.59794,-2.0064,0.682955,14,32765
6.52476,-2.00659,0.678721,12,32765
6.67015,-2.07471,0.696485,11,32765
6.55877,-2.06317,0.688423,11,32765
0,-0,0,0,32765
6.96182,-2.23833,0.73854,14,32765
7.04912,-2.29054,0.752281,21,32765
7.0509,-2.31562,0.75783,19,32765
5.47193,0.0651037,0.440316,27,32765
5.55172,0.0473154,0.448403,27,32765
5.55176,0.0289124,0.449517,27,32765
5.54176,0.0103452,0.449902,26,32765
5.59147,-0.00810934,0.455543,27,32765
5.6013,-0.0269129,0.457319,26,32765
5.68087,-0.0459917,0.464294,27,32765
5.65074,-0.0639419,0.462532,26,32765
5.65043,-0.082548,0.463328,27,32765
5.6999,-0.102115,0.468099,25,32765
5.72932,-0.121915,0.471783,28,32765
5.74881,-0.141567,0.473303,27,32765
5.79805,-0.161955,0.478349,29,32765
5.83729,-0.182454,0.481985,28,32765
5.82671,-0.201063,0.481141,26,32765
5.85578,-0.221402,0.484943,28,32765
5.88489,-0.241985,0.487392,29,32765
5.88404,-0.261742,0.48746,27,32765
5.91295,-0.283058,0.490386,25,32765
5.94182,-0.30447,0.492963,26,32765
5.94072,-0.324172,0.493603,26,32765
5.96947,-0.345448,0.496068,25,32765
6.00811,-0.367243,0.499294,25,32765
6.0566,-0.389955,0.503667,27,32765
6.03544,-0.40823,0.501736,26,32765
6.10354,-0.433488,0.50841,26,32765
6.07217,-0.451769,0.506653,22,32765
6.11038,-0.475051,0.510014,21,32765
6.09879,-0.494737,0.509541,20,32765
6.16662,-0.520814,0.5154,21,32765
6.10532,-0.535938,0.51024,19,32765
6.03405,-0.55002,0.504118,19,32765
6.10158,-0.576445,0.510872,19,32765
6.19884,-0.606384,0.518775,19,32765
6.04803,-0.611793,0.507013,19,32765
6.16488,-0.644511,0.516993,20,32765
6.08345,-0.656691,0.509953,20,32765
6.09113,-0.678359,0.510341,21,32765
6.1086,-0.701104,0.512167,22,32765
6.1062,-0.721423,0.512599,21,32765
6.11369,-0.742794,0.513335,20,32765
6.09148,-0.7605,0.511008,19,32765
6.07908,-0.779184,0.510047,19,32765
6.07647,-0.799343,0.51001,17,32765
6.12314,-0.826183,0.514375,20,32765
6.11045,-0.845268,0.513873,19,32765
6.14706,-0.871211,0.517188,19,32765
6.14408,-0.89182,0.517553,19,32765
6.1115,-0.908102,0.514649,19,32765
6.12808,-0.93146,0.517116,20,32765
6.17411,-0.959852,0.521467,18,32765
6.10191,-0.969649,0.516177,19,32765
6.03965,-0.98042,0.510849,19,32765
6.10518,-1.01197,0.516565,20,32765
6.2394,-1.05514,0.528284,20,32765
6.19649,-1.06949,0.525159,20,32765
6.15355,-1.08358,0.522051,19,32765
6.16949,-1.1076,0.524174,20,32765
6.15594,-1.12629,0.523695,18,32765
6.22081,-1.15896,0.529915,20,32765
6.14841,-1.1665,0.524153,19,32765
6.26188,-1.20953,0.534741,19,32765
6.21874,-1.22243,0.531591,19,32765
6.22434,-1.24521,0.532871,20,32765
6.29829,-1.28155,0.540115,21,32765
6.23534,-1.29052,0.535911,20,32765
6.18223,-1.30116,0.531638,19,32765
6.21678,-1.32997,0.535887,19,32765
6.22204,-1.35261,0.537395,20,32765
6.25645,-1.3815,0.54145,19,32765
6.2518,-1.40226,0.541813,19,32765
6.25678,-1.42519,0.543251,20,32765
6.20346,-1.43429,0.540384,18,32765
6.26656,-1.47064,0.546872,19,32765
6.23256,-1.48405,0.545554,19,32765
6.26633,-1.51401,0.549406,19,32765
6.29025,-1.54177,0.552886,18,32765
6.2271,-1.54785,0.548623,18,32765
6.32817,-1.59507,0.559007,19,32765
6.30351,-1.61067,0.558926,20,32765
6.29806,-1.63137,0.560382,19,32765
6.30221,-1.65464,0.562058,19,32765
6.29659,-1.67527,0.563908,20,32765
6.3872,-1.72168,0.573721,22,32765
6.35273,-1.73422,0.572243,22,32765
6.38527,-1.76546,0.57787,20,32765
6.34107,-1.77539,0.575283,22,32765
6.4405,-1.82575,0.587341,22,32765
6.44386,-1.84974,0.589914,21,32765
6.43771,-1.87038,0.592056,22,32765
6.46013,-1.89965,0.596371,22,32765
6.46325,-1.92363,0.599117,23,32765
6.45687,-1.94436,0.601025,22,32765
6.46944,-1.97076,0.605472,22,32765
6.49152,-1.99987,0.610801,22,32765
6.4754,-2.01768,0.611784,21,32765
6.48764,-2.04438,0.616404,21,32765
6.51882,-2.077,0.622832,20,32765
6.62574,-2.13404,0.636827,24,32765
6.68506,-2.17608,0.646709,24,32765
6.70619,-2.2063,0.653776,25,32765
5.57014,0.0631621,0.466471,23,32765
5.63035,0.0448365,0.468695,22,32765
5.58086,0.0258432,0.461845,24,32765
5.62093,0.00763019,0.463406,23,32765
5.67098,-0.0109841,0.464673,24,32765
5.67104,-0.0299594,0.463194,24,32765
5.65114,-0.0485927,0.459485,22,32765
5.72083,-0.068163,0.463677,23,32765
5.73071,-0.0868922,0.462555,25,32765
5.74047,-0.106026,0.461924,24,32765
5.83987,-0.127197,0.468344,24,32765
5.79963,-0.145664,0.464194,24,32765
5.81915,-0.165451,0.464414,25,32765
5.81869,-0.18447,0.463031,25,32765
5.81816,-0.203522,0.461685,24,32765
5.85741,-0.223985,0.463701,25,32765
5.86667,-0.243799,0.463521,24,32765
5.87589,-0.26371,0.463049,23,32765
5.91486,-0.285068,0.465618,23,32765
5.97369,-0.307995,0.469275,22,32765
5.87316,-0.322107,0.460731,19,32765
6.0612,-0.352395,0.4751,21,32765
5.95065,-0.36561,0.465333,18,32765
5.93952,-0.384237,0.46409,17,32765
5.93829,-0.403761,0.463291,17,32765
5.94695,-0.423862,0.463206,18,32765
5.89578,-0.439885,0.459503,18,32765
5.93406,-0.462613,0.462359,18,32765
5.88288,-0.478055,0.457771,16,32765
5.98064,-0.506029,0.465041,17,32765
5.8598,-0.515267,0.455272,17,32765
5.84815,-0.533848,0.454128,17,32765
6.01506,-0.569452,0.467248,17,32765
5.97348,-0.585443,0.463852,17,32765
6.05086,-0.613478,0.469763,17,32765
5.8009,-0.60757,0.450432,16,32765
5.86824,-0.634314,0.455897,16,32765
5.88587,-0.656182,0.457733,16,32765
5.9233,-0.680109,0.460865,15,32765
5.82201,-0.688076,0.452966,16,32765
5.90874,-0.718239,0.460217,16,32765
0,-0,0,0,32765
5.85438,-0.751198,0.456459,16,32765
5.94084,-0.782143,0.463443,17,32765
6.01722,-0.812654,0.469793,17,32765
5.98488,-0.828411,0.467527,18,32765
6.02164,-0.8537,0.470153,18,32765
6.0286,-0.875249,0.471218,17,32765
6.01574,-0.89364,0.471486,17,32765
5.99294,-0.910814,0.470579,17,32765
6.03913,-0.938605,0.474098,16,32765
5.91769,-0.940381,0.465543,17,32765
6.00294,-0.975111,0.473136,15,32765
5.98975,-0.993537,0.473139,18,32765
5.98637,-1.01363,0.473278,18,32765
5.9142,-1.0216,0.46797,17,32765
5.88131,-1.03585,0.466202,16,32765
6.03474,-1.08371,0.479625,17,32765
6.02136,-1.10168,0.478732,16,32765
6.09602,-1.13642,0.48528,17,32765
6.05296,-1.14917,0.483188,17,32765
6.00017,-1.15977,0.479363,16,32765
5.87884,-1.1568,0.47023,17,32765
5.92385,-1.18588,0.474674,16,32765
6.1152,-1.24556,0.490438,16,32765
5.9841,-1.23957,0.480537,17,32765
5.99937,-1.26378,0.482614,15,32765
6.10227,-1.30707,0.491441,16,32765
6.01018,-1.30826,0.484815,17,32765
6.0252,-1.33275,0.486674,16,32765
6.02082,-1.35235,0.486777,15,32765
5.99687,-1.36756,0.485974,16,32765
5.99238,-1.38729,0.485535,16,32765
5.99746,-1.40908,0.48723,17,32765
6.08007,-1.44965,0.494146,18,32765
6.06562,-1.46712,0.493433,16,32765
6.18655,-1.51805,0.504211,17,32765
6.10408,-1.51934,0.49787,16,32765
6.03136,-1.52233,0.492779,16,32765
5.98774,-1.5322,0.489158,16,32765
6.06954,-1.57432,0.496261,18,32765
6.05478,-1.59133,0.495692,16,32765
6.04956,-1.61111,0.495561,15,32765
6.14059,-1.65635,0.503985,18,32765
6.06787,-1.65797,0.498129,16,32765
6.03363,-1.6697,0.495834,15,32765
6.05698,-1.69738,0.497941,16,32765
6.1953,-1.75805,0.508995,16,32765
6.15126,-1.76689,0.506452,17,32765
6.04026,-1.75614,0.497361,16,32765
6.14944,-1.80896,0.506849,17,32765
6.06729,-1.80568,0.499958,16,32765
6.10927,-1.83945,0.503235,16,32765
0,-0,0,0,32765
6.15467,-1.89581,0.507456,16,32765
0,-0,0,0,32765
6.00017,-1.88946,0.493944,17,32765
6.10831,-1.94459,0.502071,16,32765
5.95051,-1.91459,0.488482,15,32765
0,-0,0,0,32765
5.96709,-1.961,0.488207,15,32765
5.49452,0.0627395,0.40798,28,32765
5.54476,0.0445561,0.408942,26,32765
5.575,0.0261817,0.408448,25,32765
5.6051,0.00793985,0.408907,26,32765
5.5654,-0.0104882,0.403208,25,32765
5.64523,-0.029565,0.407517,27,32765
5.67518,-0.0485777,0.407587,26,32765
5.62522,-0.0668412,0.402549,25,32765
5.57524,-0.0843905,0.397103,23,32765
5.62489,-0.103783,0.399248,24,32765
5.64457,-0.122872,0.399117,22,32765
5.67411,-0.142477,0.4003,21,32765
5.65376,-0.160751,0.397558,20,32765
5.69318,-0.180531,0.399009,20,32765
5.60292,-0.196069,0.391424,19,32765
5.62227,-0.215107,0.391716,18,32765
5.60165,-0.232936,0.389403,18,32765
5.6109,-0.252005,0.388893,19,32765
5.63,-0.271564,0.389732,18,32765
5.51953,-0.284837,0.381178,18,32765
5.55845,-0.305144,0.383246,18,32765
5.58733,-0.325178,0.384875,18,32765
5.59626,-0.344208,0.384447,16,32765
5.58519,-0.361722,0.383326,17,32765
5.5442,-0.377408,0.379847,17,32765
5.69227,-0.406201,0.389252,19,32765
5.66102,-0.422895,0.387374,19,32765
5.58997,-0.436344,0.38238,17,32765
5.55872,-0.452302,0.379663,18,32765
5.49756,-0.465776,0.375163,17,32765
5.53578,-0.487437,0.377405,17,32765
5.67325,-0.518597,0.386531,18,32765
5.48275,-0.519786,0.373681,18,32765
5.58032,-0.547688,0.38016,19,32765
5.54868,-0.563376,0.377898,18,32765
5.57656,-0.584927,0.379852,17,32765
5.5349,-0.599167,0.37722,18,32765
5.65182,-0.63103,0.385617,17,32765
5.60015,-0.643975,0.382282,18,32765
5.53854,-0.655571,0.378041,17,32765
5.58582,-0.68003,0.381722,17,32765
5.58354,-0.698469,0.38192,17,32765
5.57127,-0.715986,0.381139,17,32765
5.5392,-0.730413,0.37915,16,32765
5.65536,-0.764992,0.387446,17,32765
5.5342,-0.767252,0.379363,17,32765
5.66009,-0.803731,0.387738,18,32765
5.62772,-0.81837,0.385984,17,32765
5.64466,-0.839878,0.388315,18,32765
5.57272,-0.848332,0.384157,17,32765
5.54028,-0.862488,0.381796,17,32765
5.55697,-0.884516,0.383838,17,32765
5.58339,-0.908464,0.386459,17,32765
5.68853,-0.945144,0.394697,18,32765
5.66563,-0.960923,0.393463,18,32765
5.64274,-0.976353,0.392225,17,32765
5.53138,-0.975862,0.38524,17,32765
5.60657,-1.00852,0.391616,17,32765
5.61305,-1.02872,0.392198,19,32765
5.63897,-1.05301,0.394543,18,32765
5.69418,-1.08291,0.399629,19,32765
5.69055,-1.10182,0.39971,19,32765
5.63785,-1.1113,0.396512,18,32765
5.69282,-1.1416,0.401155,19,32765
5.62052,-1.14679,0.396422,19,32765
5.58735,-1.15941,0.39462,18,32765
5.66147,-1.19469,0.400622,18,32765
5.64761,-1.21181,0.400112,17,32765
5.702,-1.24336,0.404677,20,32765
5.7562,-1.27551,0.409103,18,32765
5.68387,-1.27893,0.404356,17,32765
5.67961,-1.29752,0.405088,19,32765
5.61702,-1.30271,0.400516,18,32765
5.66123,-1.33247,0.404839,17,32765
5.69562,-1.36043,0.40745,18,32765
5.72023,-1.38607,0.409605,17,32765
5.63807,-1.38596,0.404537,18,32765
5.64311,-1.40715,0.405207,17,32765
5.74479,-1.45264,0.413266,17,32765
5.74003,-1.47149,0.412825,17,32765
5.6193,-1.46021,0.404489,17,32765
5.73996,-1.51136,0.413734,17,32765
5.74463,-1.53272,0.414307,18,32765
5.64336,-1.52504,0.407846,17,32765
5.72497,-1.56717,0.413805,17,32765
5.72944,-1.58847,0.414571,17,32765
5.77228,-1.62061,0.417802,17,32765
5.72859,-1.62865,0.4143,17,32765
5.79998,-1.66911,0.420428,19,32765
5.70838,-1.66277,0.413784,18,32765
5.70309,-1.68082,0.413814,18,32765
5.72644,-1.70746,0.415347,19,32765
5.75919,-1.73733,0.4175,19,32765
5.77277,-1.7614,0.418424,18,32765
5.71946,-1.76511,0.414966,19,32765
5.6187,-1.75345,0.40696,17,32765
5.79399,-1.82804,0.419526,17,32765
5.64573,-1.80079,0.408024,19,32765
5.72566,-1.8458,0.413154,19,32765
5.75778,-1.87639,0.414713,19,32765
5.73315,-1.88778,0.412018,19,32765
0,0,0,0,32765
5.30038,0.0519786,0.315197,15,32765
5.30045,0.0344602,0.316395,16,32765
5.37036,0.017119,0.32154,16,32765
5.35032,-0.000938574,0.321954,16,32765
5.40015,-0.0189855,0.32582,16,32765
5.37006,-0.0366722,0.324767,16,32765
5.44973,-0.0549443,0.330137,15,32765
5.33967,-0.0714716,0.324557,15,32765
5.32939,-0.0886582,0.324498,15,32765
0,-0,0,0,32765
5.47827,-0.127893,0.335077,16,32765
0,-0,0,0,32765
5.38748,-0.161428,0.330237,15,32765
5.33701,-0.177568,0.327484,15,32765
5.46603,-0.200062,0.336002,16,32765
5.44537,-0.217554,0.335002,15,32765
5.51438,-0.238685,0.33984,15,32765
5.36398,-0.250014,0.331101,16,32765
5.38305,-0.268647,0.332588,16,32765
0,-0,0,0,32765
5.41103,-0.305575,0.335149,14,32765
0,-0,0,0,32765
5.45871,-0.344184,0.338202,15,32765
0,-0,0,0,32765
5.34675,-0.372828,0.331957,15,32765
5.44502,-0.398112,0.337839,16,32765
5.45359,-0.417081,0.33887,15,32765
0,-0,0,0,32765
5.37103,-0.44723,0.33464,15,32765
5.44908,-0.472083,0.339204,16,32765
5.36795,-0.483102,0.334265,15,32765
0,-0,0,0,32765
5.48373,-0.530686,0.342719,14,32765
5.43225,-0.543895,0.340146,17,32765
5.36092,-0.554877,0.335605,16,32765
0,-0,0,0,32765
5.48609,-0.604876,0.343317,16,32765
0,-0,0,0,32765
5.56124,-0.650389,0.34891,15,32765
0,-0,0,0,32765
5.1903,-0.642079,0.325715,14,32765
5.42577,-0.68981,0.340023,16,32765
5.49266,-0.717069,0.345012,15,32765
0,-0,0,0,32765
5.38879,-0.740134,0.339992,15,32765
5.45548,-0.767902,0.34416,15,32765
5.46279,-0.787499,0.344489,15,32765
0,-0,0,0,32765
5.43759,-0.821139,0.344136,14,32765
0,-0,0,0,32765
5.50104,-0.868094,0.348338,16,32765
5.53758,-0.892621,0.350496,16,32765
5.52468,-0.909691,0.349952,17,32765
5.5314,-0.929845,0.35125,16,32765
5.52823,-0.948587,0.350996,16,32765
5.43651,-0.951582,0.345989,16,32765
5.54142,-0.988738,0.353022,16,32765
5.55778,-1.01062,0.354026,17,32765
5.51513,-1.02161,0.352297,16,32765
5.42337,-1.02341,0.347181,15,32765
5.48847,-1.055,0.351592,15,32765
5.5731,-1.09031,0.357639,16,32765
5.50089,-1.09527,0.353606,17,32765
5.55594,-1.12517,0.357698,16,32765
5.52285,-1.13739,0.356336,15,32765
5.4506,-1.14145,0.352698,16,32765
5.60295,-1.19261,0.363597,16,32765
5.61844,-1.21545,0.365329,16,32765
5.56566,-1.22308,0.362768,16,32765
5.48363,-1.22407,0.358331,16,32765
5.53786,-1.25549,0.363204,16,32765
5.63085,-1.29628,0.370479,16,32765
5.59737,-1.30802,0.368961,15,32765
5.5444,-1.31495,0.36694,16,32765
5.61764,-1.35169,0.373046,16,32765
5.52582,-1.34894,0.368312,16,32765
5.56009,-1.37653,0.371731,16,32765
5.51678,-1.38505,0.369836,16,32765
5.63786,-1.43488,0.380136,16,32765
5.57503,-1.4385,0.377701,16,32765
5.66683,-1.48186,0.384817,15,32765
5.71014,-1.5129,0.389669,16,32765
5.63769,-1.51334,0.385657,15,32765
5.72894,-1.55768,0.39411,16,32765
5.67556,-1.56333,0.392407,14,32765
0,-0,0,0,32765
5.62656,-1.5896,0.393159,15,32765
5.74596,-1.64361,0.403295,16,32765
5.75974,-1.66742,0.40644,16,32765
5.79259,-1.69698,0.410702,17,32765
5.81552,-1.72443,0.415269,15,32765
5.80983,-1.7431,0.417051,17,32765
5.8518,-1.77617,0.422509,17,32765
5.84604,-1.79454,0.424668,17,32765
5.8021,-1.80107,0.424055,14,32765
5.86274,-1.84049,0.431893,16,32765
5.82818,-1.85002,0.432013,16,32765
5.85052,-1.8777,0.4373,16,32765
5.86337,-1.90224,0.441343,16,32765
0,-0,0,0,32765
4.96344,0.0652423,0.24672,17,32765
5.0035,0.0493649,0.250199,18,32765
5.04353,0.033057,0.253336,18,32765
5.01361,0.0162144,0.252741,18,32765
4.9836,-0.000675873,0.252729,17,32765
5.0035,-0.017425,0.254541,16,32765
5.00338,-0.0340351,0.255243,17,32765
4.99323,-0.0502416,0.255229,17,32765
5.06289,-0.0676982,0.259818,16,32765
4.98273,-0.0828558,0.256231,16,32765
5.14214,-0.102833,0.2652,17,32765
5.09181,-0.118903,0.26324,17,32765
5.10137,-0.136095,0.263856,17,32765
5.04097,-0.151144,0.26127,17,32765
5.1103,-0.170159,0.265183,18,32765
5.00987,-0.18353,0.260518,17,32765
5.08905,-0.20352,0.264881,18,32765
5.0085,-0.21702,0.26122,17,32765
5.14738,-0.240191,0.268964,18,32765
5.06676,-0.253164,0.265035,15,32765
5.08585,-0.270826,0.266026,17,32765
5.00513,-0.283018,0.262565,17,32765
5.10385,-0.305386,0.268023,18,32765
5.13273,-0.324072,0.269334,16,32765
5.08177,-0.337878,0.267316,17,32765
5.07066,-0.354082,0.266712,16,32765
5.14913,-0.377027,0.270621,17,32765
5.06816,-0.388179,0.266819,17,32765
5.10663,-0.408625,0.268829,17,32765
5.10519,-0.425743,0.269598,17,32765
5.12365,-0.444576,0.27028,17,32765
4.97295,-0.448254,0.26242,17,32765
5.12054,-0.478922,0.270649,19,32765
4.99959,-0.484607,0.264931,17,32765
5.16684,-0.518156,0.274391,19,32765
5.10548,-0.529299,0.271046,16,32765
4.98455,-0.533645,0.264436,17,32765
5.1217,-0.565636,0.271759,16,32765
5.09991,-0.580548,0.27103,18,32765
5.10789,-0.598374,0.271809,17,32765
5.14551,-0.620192,0.274118,18,32765
5.08397,-0.629996,0.270576,17,32765
5.171,-0.658547,0.274742,17,32765
5.08951,-0.665582,0.27113,18,32765
5.1862,-0.695827,0.277037,18,32765
5.13435,-0.706413,0.274909,18,32765
5.12207,-0.722232,0.274193,18,32765
5.14929,-0.743611,0.275504,17,32765
5.12695,-0.758305,0.274753,18,32765
5.17376,-0.782682,0.277943,18,32765
5.15139,-0.796757,0.277001,19,32765
5.14872,-0.813948,0.276725,17,32765
5.20516,-0.840545,0.279588,18,32765
5.12346,-0.845148,0.275427,18,32765
5.1698,-0.870631,0.278706,17,32765
5.18651,-0.891567,0.279531,18,32765
5.12445,-0.898593,0.276928,18,32765
5.14111,-0.918988,0.278132,19,32765
5.1577,-0.939588,0.278967,17,32765
5.14472,-0.954746,0.279158,17,32765
5.22977,-0.988699,0.284461,19,32765
5.25579,-1.01215,0.286079,19,32765
5.17401,-1.01412,0.282179,17,32765
5.16077,-1.02946,0.28199,17,32765
5.15735,-1.0464,0.282285,17,32765
5.23208,-1.07953,0.287071,18,32765
5.27728,-1.10723,0.290507,17,32765
5.16614,-1.1017,0.285316,16,32765
5.18193,-1.12313,0.286825,18,32765
5.27571,-1.16155,0.292807,17,32765
5.20359,-1.16376,0.289632,18,32765
5.15095,-1.16999,0.287902,18,32765
5.24428,-1.20959,0.294177,16,32765
5.21107,-1.22007,0.292915,17,32765
5.27495,-1.25344,0.297867,16,32765
5.20283,-1.25428,0.294922,17,32765
5.25678,-1.28573,0.299238,17,32765
5.32035,-1.31971,0.303903,18,32765
5.27721,-1.32746,0.302356,17,32765
5.28245,-1.34702,0.30466,17,32765
5.26823,-1.36197,0.305499,16,32765
5.30237,-1.38924,0.308277,17,32765
5.38461,-1.42942,0.314817,18,32765
5.34133,-1.43657,0.313126,18,32765
5.33656,-1.45382,0.314862,18,32765
5.31239,-1.46615,0.315233,18,32765
5.31704,-1.48645,0.316916,19,32765
5.3697,-1.52,0.322491,17,32765
5.40301,-1.54854,0.32613,17,32765
5.44589,-1.57966,0.330729,18,32765
5.44073,-1.59703,0.332194,18,32765
5.36833,-1.59496,0.330438,17,32765
5.39175,-1.62085,0.333861,18,32765
5.48191,-1.66718,0.341683,16,32765
5.47651,-1.68442,0.343708,18,32765
5.41386,-1.68388,0.342131,18,32765
5.54158,-1.74311,0.353367,18,32765
5.4788,-1.74256,0.351817,17,32765
5.51103,-1.77225,0.357252,18,32765
5.54323,-1.80195,0.362197,19,32765
5.56576,-1.8286,0.367945,20,32765
5.30215,0.0676871,0.280583,17,32765
4.933,0.0467236,0.258699,15,32765
5.15294,0.031273,0.267975,16,32765
4.96337,0.0133059,0.256279,15,32765
4.89357,-0.00295256,0.251017,16,32765
5.19324,-0.019978,0.264388,16,32765
4.88362,-0.0348191,0.247196,15,32765
5.07331,-0.0529023,0.255248,16,32765
4.95333,-0.0681973,0.247962,14,32765
4.97313,-0.0849949,0.247346,15,32765
4.90298,-0.0999754,0.242638,15,32765
5.16225,-0.122495,0.255092,16,32765
4.98217,-0.134875,0.244826,14,32765
4.90186,-0.149075,0.240115,15,32765
4.93133,-0.166439,0.240543,15,32765
4.98072,-0.184586,0.241735,15,32765
4.92024,-0.198511,0.238118,15,32765
4.97946,-0.217461,0.240404,14,32765
4.96878,-0.233313,0.239042,15,32765
4.82835,-0.242896,0.231637,14,32765
4.89738,-0.262501,0.23414,14,32765
4.89652,-0.278631,0.233498,15,32765
4.90555,-0.295325,0.233987,15,32765
4.82486,-0.30614,0.229255,15,32765
4.9534,-0.330846,0.234998,15,32765
4.91245,-0.344514,0.232561,15,32765
4.83159,-0.355098,0.228342,14,32765
4.92004,-0.378076,0.232015,15,32765
4.92873,-0.395161,0.232266,15,32765
4.87764,-0.407306,0.229719,14,32765
4.91608,-0.426817,0.231389,15,32765
4.86489,-0.438682,0.229124,15,32765
5.19162,-0.485714,0.2441,17,32765
4.81214,-0.46647,0.226589,14,32765
5.13855,-0.515459,0.241919,17,32765
5.18651,-0.537676,0.243712,16,32765
4.88672,-0.522888,0.230219,15,32765
4.88493,-0.539368,0.230052,15,32765
4.84339,-0.55132,0.228162,15,32765
4.83158,-0.566583,0.227427,15,32765
4.90899,-0.59221,0.231462,15,32765
4.94669,-0.613171,0.233248,16,32765
4.93469,-0.628259,0.233538,15,32765
4.87318,-0.636852,0.230124,15,32765
4.84129,-0.649183,0.229218,15,32765
4.85886,-0.668272,0.230264,16,32765
4.92578,-0.694234,0.234883,15,32765
5.14099,-0.741917,0.244409,15,32765
5.02978,-0.743052,0.239452,15,32765
4.84945,-0.732949,0.231773,15,32765
4.81732,-0.744715,0.230664,15,32765
4.89373,-0.773305,0.234542,17,32765
4.89109,-0.789612,0.235358,16,32765
5.01652,-0.827209,0.241661,16,32765
5.13188,-0.864038,0.24758,16,32765
4.91237,-0.844122,0.237074,15,32765
4.87999,-0.85533,0.236073,15,32765
0,-0,0,0,32765
5.0117,-0.912961,0.243717,16,32765
5.13631,-0.953219,0.25015,16,32765
4.98586,-0.942474,0.243653,16,32765
5.14941,-0.991085,0.252734,16,32765
5.09708,-0.998489,0.250546,16,32765
5.07412,-1.01159,0.249707,15,32765
5.15884,-1.04633,0.253911,15,32765
5.12598,-1.05724,0.253357,17,32765
5.07355,-1.0641,0.250823,16,32765
4.87457,-1.03931,0.241953,15,32765
5.18338,-1.1235,0.257666,15,32765
5.15028,-1.13457,0.256417,17,32765
5.19513,-1.1628,0.259608,15,32765
5.09386,-1.15789,0.254483,16,32765
4.85641,-1.1208,0.243255,15,32765
5.08608,-1.19139,0.255418,16,32765
5.1793,-1.23127,0.260328,16,32765
5.22376,-1.26001,0.262835,16,32765
5.04494,-1.23444,0.254451,15,32765
5.14744,-1.27762,0.260072,16,32765
5.07541,-1.27739,0.257035,17,32765
5.20669,-1.32854,0.264122,16,32765
5.20232,-1.34555,0.264134,15,32765
5.28484,-1.38533,0.268674,17,32765
5.16441,-1.37193,0.263056,15,32765
5.19851,-1.39912,0.264664,16,32765
5.05904,-1.37918,0.257794,16,32765
5.16047,-1.42468,0.263455,16,32765
5.16549,-1.44394,0.263942,16,32765
5.1896,-1.46885,0.265591,16,32765
5.18476,-1.48595,0.264983,15,32765
5.07431,-1.47247,0.259451,15,32765
5.18456,-1.52249,0.265368,17,32765
5.05528,-1.50181,0.259093,16,32765
5.05061,-1.51757,0.258217,16,32765
5.17001,-1.57136,0.264378,16,32765
5.1649,-1.58813,0.264004,16,32765
5.29333,-1.6462,0.270463,17,32765
5.12625,-1.61162,0.261974,16,32765
5.18786,-1.64876,0.264867,16,32765
5.04964,-1.62212,0.256797,16,32765
5.20591,-1.69101,0.263311,17,32765
5.20065,-1.70721,0.262884,16,32765
4.82505,0.0618912,0.20971,16,32765
4.88527,0.0465353,0.210004,17,32765
4.84552,0.0296335,0.206175,17,32765
4.85566,0.0132088,0.204811,17,32765
4.78581,-0.00273228,0.200245,16,32765
4.86579,-0.0185944,0.201718,18,32765
4.83578,-0.0343887,0.199058,16,32765
4.87567,-0.0507857,0.199211,17,32765
4.76562,-0.0655923,0.193512,16,32765
4.71549,-0.0806048,0.189951,16,32765
4.79516,-0.0978241,0.191966,16,32765
4.80481,-0.114094,0.192,16,32765
4.81445,-0.13045,0.191061,17,32765
4.69416,-0.142904,0.185552,17,32765
4.73364,-0.159947,0.186134,16,32765
4.73313,-0.175624,0.184953,16,32765
4.73256,-0.191186,0.18427,17,32765
4.79181,-0.209551,0.186014,17,32765
4.75121,-0.223412,0.183622,17,32765
4.77042,-0.240332,0.183717,16,32765
4.74968,-0.254966,0.182126,16,32765
4.62911,-0.26382,0.176929,16,32765
4.67809,-0.282074,0.178848,16,32765
4.71708,-0.29978,0.179468,16,32765
4.72604,-0.316173,0.179452,16,32765
4.77482,-0.335415,0.180814,16,32765
4.73382,-0.348495,0.178869,18,32765
4.84225,-0.372728,0.182456,17,32765
4.78123,-0.383992,0.179992,16,32765
4.73015,-0.395673,0.177923,16,32765
4.70891,-0.409544,0.176977,16,32765
4.88666,-0.441421,0.183791,17,32765
4.75583,-0.445732,0.178479,17,32765
4.67472,-0.453958,0.175744,17,32765
4.84221,-0.486606,0.181989,17,32765
4.8207,-0.500657,0.180734,17,32765
4.80907,-0.515516,0.180867,17,32765
4.68811,-0.518583,0.176224,16,32765
4.71612,-0.53782,0.177326,16,32765
4.69443,-0.551517,0.17632,17,32765
4.73224,-0.571947,0.1781,16,32765
4.78984,-0.594836,0.180259,18,32765
4.71843,-0.60185,0.178371,17,32765
4.6867,-0.613634,0.176671,17,32765
4.88267,-0.655967,0.184644,18,32765
4.76163,-0.65614,0.180256,17,32765
4.76925,-0.67345,0.181926,17,32765
4.80658,-0.69498,0.182641,18,32765
4.83387,-0.715478,0.183974,18,32765
4.81167,-0.728633,0.184006,18,32765
4.78942,-0.741825,0.183557,17,32765
4.70794,-0.745381,0.180623,16,32765
4.76458,-0.770676,0.183691,17,32765
4.8704,-0.804672,0.188006,18,32765
4.82822,-0.814493,0.186693,18,32765
4.82545,-0.830804,0.186644,17,32765
4.77342,-0.838287,0.185156,17,32765
4.8099,-0.861304,0.18751,17,32765
4.82664,-0.880978,0.188393,17,32765
4.89246,-0.909752,0.19129,18,32765
4.73228,-0.896307,0.185789,17,32765
4.74887,-0.915803,0.187417,17,32765
4.79483,-0.941142,0.18956,17,32765
4.79165,-0.957172,0.189679,18,32765
4.81782,-0.97911,0.190718,18,32765
4.77539,-0.986894,0.19,17,32765
4.77206,-1.00287,0.189891,17,32765
4.85661,-1.03756,0.194188,17,32765
4.85306,-1.05401,0.194374,18,32765
4.82994,-1.06614,0.193787,17,32765
4.82629,-1.08242,0.194497,17,32765
4.83241,-1.10068,0.194651,17,32765
4.78978,-1.10767,0.193526,17,32765
4.84447,-1.1371,0.19633,17,32765
4.84068,-1.15311,0.196356,17,32765
4.83685,-1.16906,0.196417,18,32765
4.80384,-1.17785,0.195626,18,32765
4.85808,-1.20826,0.198224,18,32765
4.80563,-1.21197,0.196618,18,32765
4.87907,-1.2475,0.199997,19,32765
4.85561,-1.25846,0.199217,18,32765
4.79348,-1.25912,0.196948,17,32765
4.8086,-1.28005,0.198001,17,32765
4.88159,-1.31655,0.200847,19,32765
4.79054,-1.3087,0.19728,18,32765
4.79592,-1.32679,0.19792,17,32765
4.94557,-1.38535,0.204277,19,32765
4.83529,-1.37143,0.200069,18,32765
4.9268,-1.41498,0.203472,18,32765
4.82614,-1.4034,0.199379,18,32765
4.79285,-1.41043,0.198222,18,32765
4.88415,-1.45403,0.202287,18,32765
4.88918,-1.47217,0.201837,19,32765
4.91315,-1.49646,0.202838,18,32765
4.82233,-1.48595,0.198939,17,32765
4.85571,-1.51332,0.200175,17,32765
4.90819,-1.54636,0.202341,18,32765
4.81767,-1.53438,0.198328,18,32765
4.82242,-1.55246,0.197513,18,32765
4.93142,-1.6053,0.200573,18,32765
4.78402,-1.57384,0.194385,17,32765
4.28781,0.0616236,0.122458,14,32765
4.47786,0.0496306,0.129222,14,32765
4.49795,0.0349474,0.131183,14,32765
4.52799,0.0200917,0.133298,15,32765
4.25814,0.00450094,0.125751,14,32765
4.468,-0.0101079,0.133463,14,32765
4.40795,-0.0244205,0.132232,13,32765
4.50778,-0.0399009,0.135593,14,32765
4.50761,-0.0549146,0.136057,15,32765
4.43743,-0.0690394,0.134451,13,32765
4.44715,-0.0839016,0.135224,14,32765
4.54675,-0.100922,0.139126,16,32765
4.54638,-0.115996,0.139524,14,32765
4.44606,-0.12811,0.13664,14,32765
4.53549,-0.145807,0.140099,15,32765
4.515,-0.160144,0.139761,15,32765
4.33465,-0.168054,0.134653,15,32765
4.55376,-0.191649,0.141841,16,32765
4.55309,-0.20682,0.142034,15,32765
4.55236,-0.222194,0.142332,15,32765
4.51166,-0.235314,0.141105,15,32765
4.52082,-0.250985,0.141748,15,32765
4.52994,-0.266583,0.142167,15,32765
4.55893,-0.283609,0.143482,16,32765
4.52802,-0.296928,0.143141,15,32765
4.53699,-0.312586,0.143339,15,32765
4.50602,-0.325325,0.14254,14,32765
4.57467,-0.345683,0.144987,15,32765
4.6532,-0.367206,0.147585,15,32765
4.51248,-0.371441,0.143184,15,32765
4.56099,-0.390889,0.144938,15,32765
4.52978,-0.403467,0.144208,14,32765
4.56824,-0.422155,0.145231,14,32765
4.41754,-0.423149,0.140896,14,32765
4.49569,-0.445667,0.143296,16,32765
4.52402,-0.46367,0.144074,15,32765
4.48269,-0.474483,0.143174,15,32765
4.47113,-0.488457,0.142773,14,32765
4.46946,-0.503491,0.142851,15,32765
4.65636,-0.540643,0.148845,14,32765
4.56518,-0.545623,0.146316,15,32765
4.603,-0.565743,0.147912,16,32765
4.66058,-0.588618,0.150169,14,32765
4.5595,-0.591023,0.1471,14,32765
4.54759,-0.604896,0.146986,14,32765
4.49601,-0.613434,0.145464,15,32765
4.59292,-0.642402,0.148456,14,32765
4.55114,-0.652345,0.146922,14,32765
4.57858,-0.671953,0.148322,14,32765
4.53677,-0.681385,0.146779,14,32765
4.58383,-0.704206,0.149125,15,32765
4.58143,-0.719651,0.148961,15,32765
4.5691,-0.733646,0.14835,15,32765
4.50741,-0.739275,0.14706,14,32765
4.65277,-0.779138,0.151747,15,32765
4.69938,-0.803144,0.154034,15,32765
4.65731,-0.811817,0.152776,15,32765
4.54631,-0.808261,0.148932,15,32765
4.6124,-0.835936,0.15197,15,32765
4.65868,-0.860579,0.154074,15,32765
4.65577,-0.876129,0.154191,15,32765
4.71175,-0.902778,0.15622,15,32765
4.6793,-0.912582,0.155596,15,32765
4.6468,-0.922354,0.155319,15,32765
4.6437,-0.937738,0.155904,15,32765
4.7091,-0.967113,0.158652,16,32765
4.66673,-0.974519,0.157733,16,32765
4.60479,-0.977549,0.156196,15,32765
4.64059,-1.00119,0.158213,16,32765
4.65673,-1.02094,0.159513,15,32765
4.57516,-1.01935,0.157787,14,32765
4.65945,-1.05449,0.161267,16,32765
4.60718,-1.05884,0.160037,15,32765
4.69123,-1.09444,0.164125,16,32765
4.6584,-1.10298,0.163927,15,32765
4.65481,-1.11793,0.164664,15,32765
4.63169,-1.12835,0.164911,15,32765
4.67647,-1.15544,0.16737,15,32765
4.62415,-1.15862,0.166638,14,32765
4.67837,-1.18866,0.169896,16,32765
4.6551,-1.19887,0.170038,16,32765
4.68007,-1.22182,0.172299,15,32765
4.75328,-1.25761,0.176534,15,32765
4.70079,-1.26032,0.176301,15,32765
4.62906,-1.25749,0.174729,15,32765
4.65381,-1.28053,0.176701,16,32765
4.78434,-1.33317,0.183556,15,32765
4.71266,-1.32955,0.182112,16,32765
4.90045,-1.39964,0.191243,17,32765
4.77104,-1.37943,0.187888,15,32765
5.00624,-1.46511,0.198584,16,32765
4.77139,-1.41336,0.191537,14,32765
4.9869,-1.49461,0.202652,16,32765
4.71427,-1.42942,0.193191,15,32765
4.97708,-1.52656,0.205894,16,32765
4.94346,-1.53359,0.206767,15,32765
4.96703,-1.55834,0.210391,17,32765
4.92392,-1.56192,0.210487,16,32765
5.03307,-1.61387,0.218474,15,32765
5.01833,-1.6267,0.220372,15,32765
5.00363,-1.63907,0.223597,16,32765
4.38874,0.0632859,0.0839122,16,32765
4.3789,0.0487148,0.0850316,16,32765
4.28903,0.0334717,0.0846036,16,32765
4.34909,0.019417,0.0869785,16,32765
4.41911,0.00476025,0.0887914,17,32765
4.31909,-0.00971371,0.0882449,16,32765
4.35901,-0.024122,0.0896156,17,32765
4.39889,-0.0389405,0.0907921,17,32765
4.39873,-0.0536228,0.0912452,17,32765
4.37852,-0.0681889,0.0913289,17,32765
4.42824,-0.0836428,0.0928401,17,32765
4.40793,-0.0979688,0.0932581,16,32765
4.47753,-0.114402,0.0951304,16,32765
4.41716,-0.127469,0.094037,17,32765
4.42669,-0.142532,0.0949294,17,32765
4.47614,-0.159024,0.0962771,18,32765
4.48557,-0.174194,0.0969663,18,32765
4.43502,-0.186969,0.0962391,17,32765
4.37444,-0.19905,0.0951248,17,32765
4.44364,-0.217271,0.0969357,17,32765
4.44288,-0.232141,0.0969576,15,32765
4.34225,-0.241508,0.0950964,16,32765
4.4013,-0.259487,0.096512,17,32765
4.50018,-0.280472,0.0990719,17,32765
4.4992,-0.295588,0.0996687,17,32765
4.37851,-0.302235,0.0969039,16,32765
4.36752,-0.315922,0.0968259,17,32765
4.39634,-0.332841,0.0977199,17,32765
4.3653,-0.345147,0.0971221,17,32765
4.37407,-0.360742,0.0973671,17,32765
4.48239,-0.384898,0.0999775,17,32765
4.41137,-0.393686,0.0986367,17,32765
4.42995,-0.410177,0.0988451,17,32765
4.35888,-0.41835,0.0976966,17,32765
4.5067,-0.44764,0.100904,17,32765
4.43557,-0.455505,0.0991753,17,32765
4.37437,-0.463938,0.0981996,17,32765
4.41254,-0.483017,0.099011,17,32765
4.41088,-0.497886,0.0990885,16,32765
4.40916,-0.512969,0.0990537,17,32765
4.43717,-0.531391,0.100043,16,32765
4.41552,-0.543795,0.0999055,16,32765
4.53269,-0.573625,0.102936,17,32765
4.54069,-0.58978,0.103287,18,32765
4.48914,-0.598337,0.102364,17,32765
4.54653,-0.621592,0.103801,17,32765
4.46521,-0.625817,0.101787,16,32765
4.52243,-0.649559,0.102888,17,32765
4.46087,-0.656023,0.10197,16,32765
4.50807,-0.67847,0.102841,17,32765
4.50574,-0.693639,0.103577,17,32765
4.47375,-0.70419,0.102736,16,32765
4.51081,-0.72579,0.103358,16,32765
4.5182,-0.742584,0.104219,17,32765
4.61428,-0.774301,0.106357,19,32765
4.50324,-0.771228,0.10451,17,32765
4.47111,-0.780991,0.103857,17,32765
4.43893,-0.790824,0.102889,16,32765
4.48542,-0.814628,0.10479,17,32765
4.48263,-0.829798,0.105257,16,32765
4.48965,-0.846646,0.105602,17,32765
4.52609,-0.869035,0.106602,18,32765
4.50356,-0.880164,0.10648,17,32765
4.52019,-0.899121,0.107627,17,32765
4.50737,-0.912136,0.107963,17,32765
4.49453,-0.925005,0.108156,17,32765
4.55014,-0.952192,0.109961,18,32765
4.58605,-0.975642,0.111354,18,32765
4.62186,-0.999271,0.112994,18,32765
4.52084,-0.993264,0.111221,18,32765
4.57595,-1.0217,0.113614,18,32765
4.54324,-1.03039,0.113329,18,32765
4.55924,-1.05007,0.11427,17,32765
4.62387,-1.08104,0.117008,16,32765
4.54244,-1.07784,0.115842,18,32765
4.53893,-1.09244,0.116563,17,32765
4.53532,-1.10725,0.11748,19,32765
4.58017,-1.13409,0.119455,18,32765
4.557,-1.14426,0.11994,18,32765
4.58222,-1.16675,0.121845,18,32765
4.59774,-1.18666,0.123197,16,32765
4.61309,-1.20695,0.124902,18,32765
4.58974,-1.21697,0.125719,18,32765
4.576,-1.22953,0.126976,18,32765
4.55259,-1.23941,0.127389,17,32765
4.59667,-1.26756,0.129609,17,32765
4.58285,-1.2798,0.131,17,32765
4.56905,-1.29184,0.131833,17,32765
4.62247,-1.32313,0.135102,17,32765
4.66611,-1.35204,0.137996,18,32765
4.72878,-1.38694,0.141161,20,32765
4.70498,-1.39674,0.142645,18,32765
4.6334,-1.3917,0.142721,18,32765
4.68624,-1.42403,0.145915,19,32765
4.71025,-1.44789,0.148448,19,32765
4.70552,-1.46298,0.15041,17,32765
4.68167,-1.47204,0.152089,18,32765
