x, y, z, intensity, ring
1.62423,0.975611,0.141667,20,32765
1.61897,0.965106,0.140039,20,32765
1.6308,0.964849,0.139885,20,32765
1.59966,0.93923,0.136092,20,32765
1.61148,0.938883,0.136072,21,32765
1.60601,0.928566,0.134519,20,32765
1.60052,0.918228,0.132982,20,32765
1.62095,0.922792,0.133651,21,32765
1.63275,0.922319,0.133635,21,32765
1.60108,0.89734,0.130129,20,32765
1.6128,0.896915,0.130115,21,32765
1.6333,0.901195,0.130718,20,32765
1.61008,0.881396,0.12797,19,32765
1.58673,0.861803,0.12522,20,32765
1.61603,0.870664,0.126518,20,32765
1.62773,0.870052,0.126483,21,32765
1.63068,0.86461,0.125785,21,32765
1.59826,0.840643,0.122355,21,32765
1.64532,0.858454,0.124868,21,32765
1.62164,0.839191,0.122193,21,32765
1.62443,0.833841,0.121742,22,32765
1.62727,0.828384,0.121171,21,32765
1.61229,0.813912,0.119016,21,32765
1.5794,0.790548,0.115848,20,32765
1.5911,0.789541,0.115924,20,32765
1.59377,0.784212,0.115407,21,32765
1.60541,0.783229,0.115363,21,32765
1.59009,0.769198,0.113397,21,32765
1.58365,0.759643,0.112203,20,32765
1.57721,0.750046,0.111105,20,32765
1.57069,0.740609,0.109748,20,32765
1.60937,0.752246,0.111627,21,32765
1.60283,0.742703,0.110555,21,32765
1.5872,0.729041,0.108622,21,32765
1.59877,0.727832,0.10859,21,32765
1.5921,0.718463,0.107414,21,32765
1.55811,0.696799,0.104283,21,32765
1.57871,0.699694,0.104875,22,32765
1.57196,0.690357,0.103695,21,32765
1.57434,0.68501,0.103033,21,32765
1.60415,0.691614,0.104234,21,32765
1.58816,0.678359,0.102406,21,32765
1.58121,0.66928,0.101157,22,32765
1.58343,0.664097,0.100668,21,32765
1.58566,0.658863,0.0998625,22,32765
1.56014,0.642274,0.0976759,22,32765
1.58079,0.644646,0.0980962,21,32765
1.58294,0.63947,0.0974323,21,32765
1.58508,0.634212,0.0968707,22,32765
1.58724,0.628916,0.0961659,21,32765
1.58005,0.620022,0.0950266,22,32765
1.58212,0.614819,0.094225,22,32765
1.55622,0.598854,0.0918906,21,32765
1.57685,0.600926,0.0923768,20,32765
1.55083,0.58517,0.0900371,19,32765
1.57143,0.587188,0.090593,17,32765
1.57339,0.582034,0.0898371,20,32765
1.56595,0.573459,0.0886514,20,32765
1.55846,0.564935,0.0873903,21,32765
1.56037,0.559794,0.08653,21,32765
1.59042,0.564787,0.0875745,21,32765
1.57345,0.552994,0.0857682,22,32765
1.55637,0.541433,0.0841037,22,32765
1.56757,0.539723,0.0838186,22,32765
1.55043,0.528235,0.0819994,22,32765
1.55215,0.523298,0.0812376,22,32765
1.55385,0.518321,0.0805884,23,32765
1.56502,0.516519,0.0801455,23,32765
1.56667,0.511603,0.0793665,23,32765
1.55882,0.503579,0.0779388,22,32765
1.55091,0.495688,0.0765664,22,32765
1.57159,0.496745,0.0765469,23,32765
1.54455,0.482962,0.0741988,23,32765
1.68734,1.23894,0.167079,16,32765
1.70749,1.24521,0.168351,17,32765
1.65509,1.19867,0.162348,16,32765
1.69145,1.21651,0.164983,16,32765
1.65497,1.18189,0.160711,16,32765
1.67519,1.18793,0.161717,16,32765
1.69545,1.19389,0.162684,16,32765
0,0,0,0,32765
1.67873,1.16577,0.159202,16,32765
1.66613,1.14903,0.157012,17,32765
1.58774,1.08713,0.148718,16,32765
1.65736,1.1267,0.154259,17,32765
1.66114,1.12123,0.153468,18,32765
1.63173,1.09358,0.149782,17,32765
1.62708,1.08269,0.148317,18,32765
1.61406,1.06632,0.146177,17,32765
1.63434,1.07188,0.146942,17,32765
1.66301,1.08279,0.148541,18,32765
1.61638,1.04482,0.143418,18,32765
1.67021,1.07185,0.147147,18,32765
1.6317,1.03962,0.142646,17,32765
1.63513,1.03429,0.142098,19,32765
1.59632,1.00244,0.137742,17,32765
1.65891,1.03416,0.141958,19,32765
1.62845,1.00766,0.138464,18,32765
1.65733,1.01794,0.139797,19,32765
1.6012,0.976035,0.133902,19,32765
1.61303,0.975862,0.133954,18,32765
1.62494,0.975532,0.133832,18,32765
1.65393,0.98543,0.135397,19,32765
1.62293,0.959606,0.131685,19,32765
1.64339,0.964306,0.13229,19,32765
1.59493,0.928687,0.127474,18,32765
1.6499,0.953286,0.131006,19,32765
1.64444,0.942866,0.129699,18,32765
1.59561,0.907776,0.124779,19,32765
1.61607,0.912262,0.125268,18,32765
1.65397,0.926391,0.127155,18,32765
1.57861,0.877247,0.120478,17,32765
1.6252,0.8962,0.123129,19,32765
1.5932,0.871641,0.119786,18,32765
1.62247,0.880623,0.120871,19,32765
1.59913,0.860962,0.117962,19,32765
1.61966,0.865002,0.118677,19,32765
1.61374,0.854947,0.117467,19,32765
1.5813,0.830982,0.114309,18,32765
1.62837,0.84876,0.116672,19,32765
1.60465,0.829589,0.113928,19,32765
1.60752,0.824113,0.113249,21,32765
1.58357,0.805253,0.110803,19,32765
1.55953,0.786539,0.108246,19,32765
1.58005,0.790275,0.108659,20,32765
1.60953,0.798361,0.109656,19,32765
1.56748,0.770902,0.10589,20,32765
1.57906,0.770027,0.105945,20,32765
1.62665,0.786398,0.10811,21,32765
1.5663,0.750754,0.103372,19,32765
1.5688,0.745602,0.102694,19,32765
1.58034,0.74467,0.102487,19,32765
1.55567,0.726796,0.100233,19,32765
1.58531,0.734169,0.101394,21,32765
1.57877,0.724618,0.100075,20,32765
1.58119,0.719415,0.0994632,19,32765
1.56542,0.705923,0.0976981,20,32765
1.60422,0.717084,0.0993318,19,32765
1.57922,0.699671,0.0970682,19,32765
1.61814,0.710462,0.0987938,20,32765
1.58388,0.689199,0.0960598,20,32765
1.59537,0.687878,0.096013,20,32765
1.61601,0.690505,0.0965627,21,32765
1.60912,0.681261,0.095467,20,32765
1.58378,0.664326,0.0934018,20,32765
1.57679,0.655218,0.0923822,19,32765
1.59744,0.657612,0.092852,21,32765
1.58114,0.644791,0.0913915,20,32765
1.59252,0.643364,0.0914806,20,32765
1.57612,0.630671,0.0899993,20,32765
1.54106,0.610802,0.0874197,20,32765
1.60816,0.631273,0.0905822,22,32765
1.58229,0.615201,0.0888189,21,32765
1.59365,0.613556,0.0890331,22,32765
1.55835,0.59413,0.0864131,20,32765
1.53225,0.578506,0.084596,19,32765
1.61834,0.604982,0.0886894,19,32765
1.58284,0.58588,0.0864404,19,32765
1.59416,0.584072,0.0866727,19,32765
1.54917,0.56175,0.0837394,19,32765
1.57919,0.56684,0.0851718,21,32765
1.55282,0.55164,0.0833328,20,32765
1.58285,0.556621,0.0846411,20,32765
1.56577,0.544991,0.0833633,20,32765
1.577,0.543098,0.0838247,20,32765
1.57875,0.538009,0.0836043,20,32765
1.59941,0.539316,0.0844453,21,32765
1.58216,0.527946,0.0833345,21,32765
1.55537,0.513555,0.0817317,20,32765
1.57599,0.514768,0.0828102,21,32765
1.58714,0.512814,0.0832096,21,32765
1.57925,0.504695,0.0828502,21,32765
1.55226,0.490673,0.0813583,21,32765
1.55377,0.485806,0.0817363,20,32765
1.66304,1.22395,0.145355,18,32765
1.65094,1.20676,0.14364,18,32765
1.663,1.20719,0.143893,19,32765
1.62656,1.17254,0.139885,18,32765
1.6305,1.16709,0.139564,18,32765
1.65068,1.17322,0.140389,18,32765
1.63013,1.15052,0.137733,18,32765
1.65841,1.16242,0.139152,19,32765
1.62132,1.12846,0.135255,18,32765
1.65784,1.1459,0.137352,19,32765
1.63704,1.12341,0.134733,18,32765
1.62433,1.10672,0.132767,19,32765
1.61151,1.09017,0.130649,18,32765
1.66483,1.11825,0.134024,19,32765
1.61875,1.07955,0.12932,20,32765
1.63901,1.0852,0.130008,18,32765
1.63434,1.07425,0.128604,20,32765
1.61287,1.05247,0.126004,19,32765
1.62476,1.05255,0.126007,20,32765
1.61147,1.03642,0.124003,18,32765
1.62332,1.03654,0.123848,20,32765
1.62674,1.03123,0.1233,20,32765
1.59636,1.00465,0.12005,20,32765
1.6251,1.01528,0.121087,20,32765
1.61154,0.99936,0.119233,19,32765
1.6234,0.999251,0.119046,20,32765
1.60978,0.983384,0.116916,20,32765
1.62163,0.983181,0.11687,20,32765
1.61647,0.972529,0.115426,20,32765
1.62831,0.972242,0.115496,21,32765
1.6402,0.971889,0.115187,20,32765
1.63488,0.96136,0.113798,21,32765
1.60365,0.935753,0.110737,19,32765
1.59819,0.925362,0.109557,20,32765
1.60994,0.925037,0.109539,20,32765
1.62175,0.924595,0.10929,20,32765
1.62489,0.919173,0.108416,21,32765
1.6367,0.918643,0.108196,22,32765
1.62236,0.90345,0.106371,22,32765
1.61661,0.893328,0.105125,21,32765
1.59335,0.873543,0.102724,21,32765
1.61385,0.877773,0.102966,21,32765
1.64323,0.886542,0.103668,21,32765
1.59341,0.852752,0.0997689,21,32765
1.60509,0.852127,0.0997573,20,32765
1.61681,0.8514,0.0997002,21,32765
1.62855,0.850605,0.0994135,21,32765
1.6137,0.835985,0.0974852,22,32765
1.64323,0.844155,0.098397,22,32765
1.61935,0.825135,0.0962181,22,32765
1.59537,0.806262,0.0939257,21,32765
1.64274,0.82331,0.0956911,22,32765
1.60079,0.795646,0.0922495,21,32765
1.5856,0.7814,0.0904898,20,32765
1.59722,0.780462,0.0904437,21,32765
1.59091,0.770682,0.0891078,20,32765
1.61152,0.773996,0.0895405,20,32765
1.60509,0.764389,0.0883459,20,32765
1.59862,0.754806,0.0870416,20,32765
1.59208,0.745302,0.0860404,19,32765
1.57648,0.731546,0.0844779,20,32765
1.59715,0.734525,0.0846992,19,32765
1.63596,0.745824,0.0859902,21,32765
1.57476,0.711554,0.0820195,19,32765
1.568,0.702292,0.0809205,20,32765
1.54295,0.684961,0.0789508,20,32765
1.57268,0.691873,0.0798472,20,32765
1.56583,0.682691,0.0788863,20,32765
1.56812,0.677466,0.0782936,21,32765
1.57036,0.672324,0.0777544,21,32765
1.56341,0.663212,0.0767673,21,32765
1.57484,0.661875,0.0767918,21,32765
1.56784,0.652777,0.0758678,21,32765
1.58849,0.655205,0.0761522,22,32765
1.57217,0.642387,0.074881,22,32765
1.57429,0.637237,0.0744399,22,32765
1.56714,0.628295,0.0735859,21,32765
1.54136,0.6121,0.0718168,21,32765
1.55269,0.610674,0.0717428,22,32765
1.59191,0.620132,0.0732666,21,32765
1.53804,0.593282,0.0703976,17,32765
1.46532,0.559736,0.0664783,12,32765
1.56059,0.590334,0.0704421,17,32765
1.58125,0.592243,0.0707485,23,32765
1.5738,0.583642,0.0701318,22,32765
1.57574,0.578418,0.0698551,22,32765
1.55889,0.566345,0.0686362,23,32765
1.57013,0.564651,0.0689593,24,32765
1.57199,0.5595,0.0686365,24,32765
1.55493,0.547828,0.0676106,23,32765
1.55669,0.542844,0.0673414,23,32765
1.58681,0.547494,0.068524,24,32765
1.55075,0.529449,0.0666752,24,32765
1.57139,0.530848,0.0673303,23,32765
1.55411,0.519542,0.0664089,23,32765
1.56524,0.517761,0.0667067,24,32765
1.55739,0.509623,0.0663826,22,32765
1.56852,0.507723,0.0666884,23,32765
1.56062,0.499647,0.0664209,24,32765
1.5622,0.494703,0.0664256,23,32765
1.56373,0.489794,0.0668054,23,32765
1.71289,1.25615,0.15807,17,32765
1.73326,1.2623,0.157796,17,32765
1.68109,1.21554,0.150993,17,32765
1.64479,1.1808,0.145856,16,32765
1.64063,1.16964,0.143716,16,32765
1.63638,1.1586,0.141518,17,32765
1.6729,1.17621,0.142967,17,32765
1.63596,1.14218,0.138119,18,32765
1.63164,1.13106,0.136152,17,32765
1.68479,1.15962,0.13882,18,32765
1.66397,1.1372,0.135505,17,32765
1.61827,1.09807,0.13052,17,32765
1.63856,1.10384,0.130535,17,32765
1.62571,1.08731,0.128112,17,32765
1.65434,1.09848,0.128865,18,32765
1.64971,1.08754,0.126955,18,32765
1.65333,1.08216,0.125878,17,32765
1.63186,1.06038,0.122937,18,32765
1.64378,1.06047,0.122445,19,32765
1.63897,1.04962,0.120746,18,32765
1.64247,1.04426,0.119633,18,32765
1.63752,1.03355,0.117979,18,32765
1.61557,1.01229,0.115355,18,32765
1.63585,1.01762,0.115439,18,32765
1.62229,1.00171,0.113288,18,32765
1.65971,1.01721,0.114639,19,32765
1.65463,1.00649,0.113061,19,32765
1.65803,1.00099,0.112036,20,32765
1.62712,0.974998,0.108844,18,32765
1.6218,0.96453,0.107398,18,32765
1.61642,0.954133,0.105965,19,32765
1.66269,0.974005,0.107983,19,32765
1.65737,0.963423,0.106435,18,32765
1.63468,0.942922,0.104046,19,32765
1.64653,0.942431,0.103738,19,32765
1.62366,0.922181,0.101125,19,32765
1.61802,0.911938,0.0999653,18,32765
1.57755,0.882124,0.0964353,18,32765
1.62421,0.901037,0.0982823,19,32765
1.60981,0.885908,0.0963287,19,32765
1.64784,0.89971,0.0977159,20,32765
1.65081,0.894332,0.0968924,19,32765
1.64499,0.884156,0.0958308,19,32765
1.59509,0.850515,0.0917818,19,32765
1.61561,0.85452,0.0921687,20,32765
1.63622,0.858343,0.0924018,20,32765
1.60365,0.83445,0.0900569,20,32765
1.61533,0.83373,0.0895065,20,32765
1.60925,0.823779,0.0882973,19,32765
1.62092,0.822939,0.0882608,19,32765
1.63264,0.821969,0.0880487,19,32765
1.59967,0.79866,0.0853776,19,32765
1.64711,0.81549,0.0872387,20,32765
1.57815,0.774728,0.0827173,18,32765
1.6257,0.791259,0.0843426,18,32765
1.56542,0.755388,0.0803015,18,32765
1.63104,0.780344,0.0828866,18,32765
1.57951,0.749208,0.079646,18,32765
1.54587,0.726929,0.0771187,18,32765
1.57547,0.734478,0.0777889,18,32765
1.55072,0.71666,0.075914,18,32765
1.58036,0.723999,0.076774,20,32765
1.55549,0.706381,0.0747794,19,32765
1.57609,0.709385,0.0749389,20,32765
1.60585,0.716347,0.0754331,21,32765
1.56253,0.690858,0.0728218,19,32765
1.58317,0.69365,0.0728831,20,32765
1.63132,0.708274,0.074476,21,32765
1.57867,0.679059,0.0712636,20,32765
1.60857,0.685463,0.0717956,21,32765
1.58328,0.668382,0.0700336,20,32765
1.56709,0.655408,0.0684048,20,32765
1.5785,0.654044,0.0682091,21,32765
1.57142,0.645063,0.0672187,20,32765
1.54581,0.628573,0.0653174,20,32765
1.53863,0.619742,0.0642282,19,32765
1.60566,0.640592,0.0663163,20,32765
1.58922,0.627914,0.0648766,19,32765
1.67505,0.655471,0.0676416,14,32765
1.48154,0.574152,0.0591275,12,32765
1.48344,0.569293,0.0584469,14,32765
1.55071,0.589282,0.0603407,20,32765
1.59008,0.598242,0.06114,21,32765
1.57333,0.586068,0.0595954,22,32765
1.61276,0.594784,0.0602804,21,32765
1.56776,0.572441,0.057895,21,32765
1.59782,0.577578,0.0582123,21,32765
1.56207,0.558906,0.056181,20,32765
1.61105,0.570416,0.0569479,22,32765
1.5941,0.558457,0.0555017,22,32765
1.58647,0.550054,0.0544695,23,32765
1.57876,0.5418,0.0534797,21,32765
1.55209,0.527209,0.0515845,21,32765
1.58221,0.531813,0.0517673,22,32765
1.56499,0.520346,0.0503282,21,32765
1.58568,0.521552,0.0501205,22,32765
1.59682,0.519724,0.0496698,21,32765
1.58895,0.511662,0.0485319,22,32765
1.562,0.497592,0.0466102,21,32765
1.55411,0.489479,0.0451369,20,32765
1.57475,0.490561,0.0448822,21,32765
1.69649,1.24711,0.136875,19,32765
1.65234,1.20625,0.131304,18,32765
1.64846,1.19479,0.129028,19,32765
1.64449,1.18341,0.126887,18,32765
1.68906,1.20704,0.128546,19,32765
1.6605,1.17848,0.124564,19,32765
1.61549,1.13855,0.119578,18,32765
1.66838,1.16759,0.121812,20,32765
1.63136,1.13355,0.117548,20,32765
1.67628,1.1565,0.119069,20,32765
1.65546,1.13406,0.116039,19,32765
1.61801,1.10048,0.112191,19,32765
1.62175,1.0951,0.110886,18,32765
1.62545,1.0897,0.10978,18,32765
1.64577,1.09536,0.109696,19,32765
1.62446,1.07342,0.106789,19,32765
1.61133,1.05715,0.104643,19,32765
1.62325,1.05726,0.104154,20,32765
1.63515,1.05738,0.103572,20,32765
1.61352,1.03574,0.10092,20,32765
1.6254,1.03582,0.100342,20,32765
1.62041,1.02513,0.0987916,20,32765
1.62381,1.01982,0.0979862,20,32765
1.62716,1.01457,0.0968664,20,32765
1.6051,0.993396,0.0944064,20,32765
1.63398,1.00375,0.0948978,20,32765
1.60326,0.977491,0.0919596,20,32765
1.60656,0.972158,0.0909647,20,32765
1.60981,0.966844,0.0900899,20,32765
1.62162,0.966639,0.0896952,21,32765
1.60765,0.951132,0.0878836,20,32765
1.63668,0.96096,0.0885046,20,32765
1.61405,0.940383,0.0861431,20,32765
1.62587,0.939981,0.0858797,20,32765
1.61172,0.924604,0.0841246,20,32765
1.62351,0.924193,0.0836005,20,32765
1.59178,0.899186,0.0812016,20,32765
1.61228,0.903585,0.0812262,20,32765
1.59789,0.888436,0.0795428,20,32765
1.60094,0.883013,0.0786495,21,32765
1.6039,0.877689,0.0779599,21,32765
1.62436,0.881977,0.0780002,21,32765
1.5921,0.85765,0.0757837,20,32765
1.62142,0.866493,0.0760481,20,32765
1.62434,0.861058,0.075416,21,32765
1.60959,0.84626,0.0738331,20,32765
1.60357,0.836263,0.0730792,20,32765
1.57975,0.817178,0.0708417,19,32765
1.60918,0.825569,0.0713169,21,32765
1.60304,0.815663,0.070403,21,32765
1.61473,0.81475,0.0701033,21,32765
1.61749,0.809336,0.0693472,21,32765
1.59335,0.790609,0.0676899,21,32765
1.5781,0.776408,0.0661996,20,32765
1.58973,0.77545,0.0658659,20,32765
1.61036,0.778778,0.0658073,20,32765
1.58595,0.760431,0.0640756,20,32765
1.57948,0.75083,0.0632173,20,32765
1.61817,0.762583,0.0639212,21,32765
1.59355,0.744527,0.0621581,20,32765
1.56884,0.726609,0.0605574,21,32765
1.58943,0.729734,0.0607819,20,32765
1.58277,0.720326,0.0597507,21,32765
1.57609,0.710917,0.058691,21,32765
1.56023,0.697499,0.057229,21,32765
1.5534,0.6883,0.0564277,20,32765
1.58318,0.695147,0.0566319,20,32765
1.57634,0.685875,0.0558073,19,32765
1.56951,0.676566,0.0547838,20,32765
1.57182,0.671239,0.054088,21,32765
1.56489,0.662033,0.0532456,21,32765
1.53946,0.645228,0.0515049,21,32765
1.5693,0.651618,0.0518345,22,32765
1.56221,0.642648,0.0509405,23,32765
1.57361,0.64124,0.050513,23,32765
1.55721,0.628557,0.0492112,23,32765
1.57786,0.630836,0.0491866,25,32765
1.55208,0.614542,0.0476603,24,32765
1.58203,0.620385,0.047902,23,32765
1.58408,0.61519,0.0472354,23,32765
1.56745,0.602807,0.0459597,17,32765
1.52273,0.579872,0.0439238,20,32765
1.56207,0.588944,0.0443577,23,32765
1.56402,0.583828,0.0435364,23,32765
1.57531,0.582196,0.0430793,23,32765
1.56781,0.573666,0.0421889,24,32765
1.56967,0.5686,0.0414781,24,32765
1.57154,0.563476,0.0408116,24,32765
1.59226,0.56495,0.040385,25,32765
1.56585,0.549716,0.038901,24,32765
1.58652,0.551229,0.0386651,24,32765
1.55046,0.533204,0.03709,24,32765
1.57107,0.534778,0.0365957,23,32765
1.57279,0.529758,0.0358386,24,32765
1.55556,0.518297,0.0345918,23,32765
1.55724,0.513276,0.0337881,23,32765
1.57786,0.514633,0.0334575,24,32765
1.57948,0.509684,0.0326195,25,32765
1.57157,0.501695,0.0313659,24,32765
1.57322,0.496543,0.0301616,23,32765
1.54616,0.48267,0.0288186,22,32765
1.7062,1.25313,0.113782,17,32765
1.69417,1.23579,0.11233,18,32765
1.70633,1.23607,0.112494,17,32765
1.64559,1.18377,0.107809,17,32765
1.67397,1.19566,0.108645,17,32765
1.68607,1.19592,0.108864,17,32765
1.6655,1.17318,0.106623,18,32765
1.70213,1.19059,0.107946,18,32765
1.64048,1.13939,0.10309,19,32765
1.64433,1.13388,0.102392,17,32765
1.67281,1.1454,0.103224,17,32765
1.62707,1.10618,0.0996276,17,32765
1.63074,1.10081,0.0989116,18,32765
1.62609,1.08991,0.0976225,17,32765
1.62141,1.07899,0.0965232,17,32765
1.675,1.10667,0.0987171,18,32765
1.6536,1.08474,0.0965605,18,32765
1.6321,1.06294,0.0943764,18,32765
1.66082,1.0738,0.0950269,18,32765
1.68127,1.07901,0.0952049,17,32765
1.64277,1.04659,0.0919693,19,32765
1.68006,1.06246,0.0930978,19,32765
1.599,1.0038,0.0876255,18,32765
1.66172,1.03545,0.0901408,18,32765
1.63122,1.00888,0.087669,19,32765
1.60052,0.982601,0.0849745,18,32765
1.62936,0.992962,0.0855516,18,32765
1.62415,0.982355,0.0843454,19,32765
1.62744,0.976966,0.0835297,19,32765
1.63934,0.976601,0.0831201,19,32765
1.61684,0.95585,0.0810357,19,32765
1.62005,0.950464,0.0802797,18,32765
1.64913,0.960194,0.0806281,19,32765
1.61775,0.934695,0.078259,19,32765
1.62087,0.929351,0.077383,19,32765
1.6153,0.919035,0.0760819,19,32765
1.65317,0.933333,0.0770136,20,32765
1.62145,0.908259,0.074528,19,32765
1.62453,0.902818,0.0737218,20,32765
1.64513,0.906933,0.0736444,19,32765
1.63943,0.896617,0.0725315,19,32765
1.64243,0.891152,0.071813,19,32765
1.59263,0.857261,0.06882,17,32765
1.63953,0.875593,0.0699523,18,32765
1.6248,0.860781,0.0684539,18,32765
1.59233,0.836729,0.0661836,19,32765
1.62175,0.845234,0.0663874,19,32765
1.58914,0.82137,0.0640318,19,32765
1.63637,0.838842,0.0651516,19,32765
1.55012,0.78806,0.060738,18,32765
1.57062,0.791856,0.0608983,19,32765
1.55543,0.777627,0.0593639,18,32765
1.58496,0.785654,0.059479,19,32765
1.60555,0.789152,0.0595672,19,32765
1.57228,0.766257,0.057401,19,32765
1.56586,0.75664,0.0565134,19,32765
1.57739,0.755779,0.0560708,19,32765
1.5619,0.741886,0.054547,18,32765
1.53726,0.723887,0.0530925,18,32765
1.54877,0.722922,0.052786,19,32765
1.60563,0.742932,0.0538818,19,32765
1.59901,0.73346,0.05282,18,32765
1.58325,0.719904,0.0515626,18,32765
1.57655,0.710509,0.0507207,19,32765
1.56066,0.697128,0.0495629,20,32765
1.54469,0.683885,0.0483745,18,32765
1.57442,0.690815,0.0485965,21,32765
1.5859,0.689568,0.0482539,21,32765
1.60654,0.692232,0.0482638,22,32765
1.58128,0.675089,0.0468704,20,32765
1.57437,0.665821,0.0461316,21,32765
1.57661,0.660549,0.0455072,21,32765
1.57883,0.655275,0.044887,21,32765
1.58099,0.650066,0.044466,21,32765
1.57389,0.641072,0.043717,20,32765
1.61303,0.650974,0.0442369,23,32765
1.5409,0.616019,0.0417715,21,32765
1.5708,0.622021,0.0420163,21,32765
1.57285,0.616858,0.0415951,21,32765
1.57489,0.611646,0.0412154,21,32765
1.53024,0.58857,0.0395412,17,32765
1.59759,0.608399,0.0408566,19,32765
1.56217,0.589037,0.0395964,21,32765
1.61094,0.601352,0.0405267,23,32765
1.5848,0.585621,0.0393791,22,32765
1.55855,0.570134,0.0382282,22,32765
1.6168,0.585484,0.0394133,23,32765
1.57164,0.563398,0.0379029,22,32765
1.56404,0.55496,0.0374658,21,32765
1.59414,0.55981,0.0378845,23,32765
1.57708,0.548038,0.037072,21,32765
1.58833,0.546109,0.0372084,22,32765
1.57114,0.534561,0.0367236,22,32765
1.59182,0.535875,0.0368931,23,32765
1.58405,0.527591,0.0364697,21,32765
1.59524,0.525628,0.0365884,23,32765
1.59691,0.520508,0.0365988,22,32765
1.5605,0.503171,0.0355384,22,32765
1.58111,0.504358,0.0361902,23,32765
1.53504,0.48429,0.0350767,21,32765
1.60333,0.500375,0.0369991,23,32765
1.66518,1.22624,0.0917699,19,32765
1.6692,1.22079,0.0913949,19,32765
1.66515,1.20941,0.0905886,18,32765
1.65296,1.1922,0.0892851,18,32765
1.69762,1.21572,0.0907033,19,32765
1.64464,1.16958,0.0873622,18,32765
1.65665,1.16997,0.0871333,19,32765
1.63599,1.1473,0.0851054,19,32765
1.63982,1.14187,0.0843987,19,32765
1.64368,1.13635,0.083699,19,32765
1.63921,1.12528,0.0825886,19,32765
1.6347,1.11422,0.0816234,19,32765
1.62186,1.09761,0.0800847,19,32765
1.65867,1.11457,0.0809142,19,32765
1.63745,1.09243,0.0790912,19,32765
1.63276,1.08149,0.0779312,19,32765
1.61963,1.06515,0.0764648,19,32765
1.61481,1.05434,0.0753552,19,32765
1.62672,1.0544,0.0749587,19,32765
1.62189,1.04352,0.073816,20,32765
1.60855,1.02735,0.0722115,20,32765
1.66264,1.05408,0.0737277,21,32765
1.64925,1.03792,0.0721582,21,32765
1.60188,1.00064,0.0692323,21,32765
1.62223,1.00581,0.0693343,21,32765
1.60856,0.98998,0.067734,20,32765
1.63741,1.00033,0.0680246,20,32765
1.59804,0.96895,0.0655052,20,32765
1.61841,0.97394,0.0653928,20,32765
1.62172,0.968479,0.0645508,20,32765
1.6164,0.957931,0.0634288,20,32765
1.611,0.947466,0.0623379,19,32765
1.61416,0.942131,0.0614233,20,32765
1.61733,0.936729,0.0607412,20,32765
1.60312,0.921412,0.0592235,20,32765
1.61489,0.921035,0.0586548,21,32765
1.61796,0.915672,0.0579637,20,32765
1.60362,0.900447,0.056484,21,32765
1.60667,0.895052,0.0556849,21,32765
1.60099,0.884733,0.0545339,20,32765
1.60398,0.879346,0.0538267,20,32765
1.61571,0.878762,0.0534124,21,32765
1.59227,0.859125,0.0518513,20,32765
1.5951,0.853908,0.0511018,20,32765
1.58913,0.843899,0.0500881,21,32765
1.60967,0.847864,0.0498524,21,32765
1.60368,0.837813,0.0486877,20,32765
1.57992,0.818556,0.0469799,20,32765
1.58268,0.813251,0.0463316,19,32765
1.60324,0.817006,0.045948,20,32765
1.58815,0.802594,0.0448921,20,32765
1.58194,0.792752,0.0437818,21,32765
1.59361,0.791809,0.0431143,21,32765
1.58731,0.782029,0.0422934,21,32765
1.58096,0.772309,0.0412134,21,32765
1.56556,0.758283,0.0401842,21,32765
1.55006,0.744435,0.0389669,21,32765
1.57967,0.752092,0.0387521,22,32765
1.60028,0.75533,0.0386642,22,32765
1.55756,0.728728,0.0369483,21,32765
1.56908,0.727719,0.0364227,23,32765
1.55332,0.71417,0.0352646,23,32765
1.57389,0.71732,0.0350225,22,32765
1.57629,0.712051,0.0344758,22,32765
1.57866,0.706812,0.0338965,23,32765
1.57186,0.697535,0.03308,23,32765
1.57418,0.692314,0.0324421,23,32765
1.58566,0.691064,0.0320045,22,32765
1.56041,0.673913,0.0309161,22,32765
1.56267,0.668686,0.0303555,22,32765
1.54654,0.655558,0.0295392,23,32765
1.56717,0.65811,0.029269,22,32765
1.56938,0.652855,0.0286514,23,32765
1.56229,0.643856,0.0280657,23,32765
1.57368,0.642462,0.0277418,23,32765
1.57575,0.637388,0.0272437,23,32765
1.57784,0.632231,0.0268007,23,32765
1.55203,0.615992,0.0258227,22,32765
1.54475,0.60722,0.0252533,21,32765
1.54676,0.60209,0.0248794,18,32765
1.57671,0.607828,0.0248593,13,32765
1.52268,0.581192,0.0236209,17,32765
1.57136,0.593847,0.0240381,23,32765
1.59205,0.595647,0.0240711,25,32765
1.57527,0.583416,0.0233487,24,32765
1.56779,0.57481,0.0227543,24,32765
1.59786,0.579928,0.0229678,23,32765
1.58091,0.567998,0.0223297,23,32765
1.55449,0.55281,0.0217213,22,32765
1.55628,0.547742,0.021468,21,32765
1.53919,0.536068,0.0208515,20,32765
1.51258,0.521228,0.0203853,19,32765
1.51425,0.516353,0.0203441,18,32765
1.50644,0.508263,0.0199578,17,32765
1.52705,0.509734,0.0200115,16,32765
1.53818,0.50795,0.0200388,17,32765
1.5303,0.499896,0.0199243,15,32765
1.56994,0.50733,0.0202284,15,32765
1.59057,0.50849,0.0206924,16,32765
1.54451,0.488347,0.0200485,16,32765
1.53647,0.480557,0.0203047,15,32765
1.72328,1.26459,0.103407,18,32765
1.67919,1.22352,0.098718,17,32765
1.69142,1.22381,0.0974623,17,32765
1.69555,1.21822,0.0957154,17,32765
1.65081,1.17787,0.0914198,17,32765
1.69545,1.2014,0.0920679,18,32765
1.61774,1.13836,0.0862608,18,32765
1.63791,1.1445,0.0858346,17,32765
1.63369,1.13319,0.0840095,18,32765
1.62936,1.12198,0.0821359,18,32765
1.66615,1.13911,0.0823365,18,32765
1.6534,1.12242,0.0802967,18,32765
1.66533,1.1227,0.0795548,19,32765
1.65242,1.10616,0.0774444,19,32765
1.63948,1.08964,0.0754626,19,32765
1.65983,1.09519,0.0750258,18,32765
1.62174,1.06225,0.0719847,18,32765
1.67555,1.0896,0.0729953,18,32765
1.62881,1.05154,0.0696071,19,32765
1.67436,1.07316,0.0703158,19,32765
1.63573,1.04088,0.067421,18,32765
1.60542,1.0141,0.0651149,18,32765
1.65111,1.03539,0.065601,19,32765
1.62062,1.00881,0.0632161,17,32765
1.64949,1.01921,0.0632102,19,32765
1.61879,0.992882,0.0609759,18,32765
1.58796,0.966724,0.0586365,17,32765
1.61687,0.976932,0.0587113,17,32765
1.61159,0.966381,0.0573949,17,32765
1.64058,0.976367,0.0573524,18,32765
1.62662,0.960778,0.0558735,18,32765
1.60397,0.9402,0.0540133,19,32765
1.633,0.949994,0.0540429,19,32765
1.62751,0.939578,0.0528584,18,32765
1.61336,0.924131,0.0515288,18,32765
1.64254,0.933559,0.0513539,19,32765
1.61085,0.908418,0.0494151,19,32765
1.62261,0.907936,0.0487089,19,32765
1.64315,0.912197,0.0484712,19,32765
1.57613,0.868187,0.0455945,18,32765
1.57029,0.858073,0.0446723,17,32765
1.5995,0.867186,0.04443,18,32765
1.63766,0.88072,0.0447774,19,32765
1.5965,0.851732,0.042906,18,32765
1.63467,0.865145,0.0431486,18,32765
1.57565,0.827098,0.0406212,17,32765
1.61393,0.840237,0.0402882,18,32765
1.52787,0.789059,0.037337,18,32765
1.55725,0.797545,0.0373923,18,32765
1.57779,0.801327,0.0369502,19,32765
1.58945,0.800448,0.036477,20,32765
1.61005,0.804006,0.0362351,21,32765
1.53209,0.758714,0.0338558,20,32765
1.60643,0.788845,0.0347409,20,32765
1.5821,0.770352,0.0335295,21,32765
1.5757,0.760655,0.032566,21,32765
1.56926,0.751003,0.0320398,21,32765
1.60796,0.762772,0.0324918,22,32765
1.55624,0.731848,0.0304426,20,32765
1.58588,0.739304,0.0303345,22,32765
1.6065,0.7424,0.0298982,22,32765
1.56351,0.716248,0.028554,21,32765
1.61142,0.731709,0.0285913,22,32765
1.58652,0.713997,0.0274377,21,32765
1.57066,0.700524,0.0265942,20,32765
1.5913,0.703332,0.0263005,21,32765
1.57536,0.689936,0.0252271,20,32765
1.58684,0.688638,0.0247042,21,32765
1.58915,0.683328,0.0239976,21,32765
1.57302,0.670201,0.0230625,20,32765
1.57526,0.664941,0.022431,20,32765
1.57746,0.659736,0.0217019,20,32765
1.57967,0.654461,0.020933,19,32765
1.58185,0.64919,0.0202241,18,32765
1.59326,0.647714,0.019722,16,32765
1.62322,0.653664,0.0193168,16,32765
1.57897,0.629698,0.0180471,16,32765
1.56244,0.617177,0.016986,16,32765
1.46207,0.571865,0.0152249,15,32765
1.51056,0.585127,0.0151404,17,32765
1.51249,0.580139,0.0144683,18,32765
1.63594,0.621281,0.0148695,22,32765
1.56306,0.58785,0.0133964,14,32765
1.66805,0.621153,0.0135761,14,32765
1.6325,0.601987,0.012621,12,32765
0,0,0,0,32765
1.48592,0.536976,0.0100094,12,32765
1.53475,0.548952,0.00956136,14,32765
1.53658,0.543812,0.00875331,16,32765
1.49117,0.522242,0.00789842,16,32765
1.51176,0.523947,0.00707022,19,32765
1.5513,0.532005,0.00659238,19,32765
1.57194,0.533464,0.00584708,20,32765
1.58312,0.5316,0.00503525,22,32765
1.59429,0.529733,0.00417722,23,32765
1.58649,0.521483,0.00330735,21,32765
1.58813,0.516457,0.00232963,21,32765
1.6088,0.517537,0.00141912,22,32765
1.57232,0.500322,0.000395024,22,32765
1.56433,0.492428,-0.00049405,22,32765
1.55629,0.484617,-0.00154238,22,32765
1.67406,1.23181,0.0810896,19,32765
1.67021,1.22028,0.0789169,19,32765
1.67433,1.21472,0.0772014,18,32765
1.6541,1.19165,0.0743757,18,32765
1.66618,1.19205,0.0731756,18,32765
1.61308,1.14612,0.0691487,18,32765
1.65772,1.16964,0.0694775,19,32765
1.62886,1.14124,0.0668157,18,32765
1.65745,1.15276,0.0664042,19,32765
1.62029,1.11873,0.0633147,19,32765
1.65704,1.13593,0.0631471,19,32765
1.61123,1.09674,0.0600664,19,32765
1.6562,1.11954,0.0604672,18,32765
1.61009,1.08071,0.0573659,19,32765
1.63034,1.08645,0.0567583,19,32765
1.60064,1.05895,0.0544376,19,32765
1.63765,1.07553,0.0544021,19,32765
1.63285,1.06466,0.0529375,20,32765
1.6364,1.05925,0.0517314,19,32765
1.62309,1.04306,0.0501466,19,32765
1.62651,1.03776,0.0490228,19,32765
1.58776,1.0056,0.0468447,19,32765
1.61647,1.01635,0.0463885,20,32765
1.61138,1.0057,0.0451102,20,32765
1.60623,0.995093,0.0438981,20,32765
1.61804,0.995034,0.0431977,19,32765
1.62989,0.994863,0.0423395,20,32765
1.59903,0.968689,0.0405895,19,32765
1.61943,0.973627,0.0400109,20,32765
1.61409,0.963115,0.0388542,20,32765
1.60869,0.952672,0.037777,20,32765
1.6205,0.952371,0.0369937,20,32765
1.61502,0.94198,0.0359626,20,32765
1.60085,0.926589,0.0346923,20,32765
1.59533,0.916177,0.0337441,19,32765
1.59841,0.910833,0.0327633,21,32765
1.62758,0.920231,0.0324348,21,32765
1.62194,0.909906,0.0312866,22,32765
1.59006,0.885,0.0298751,21,32765
1.57548,0.870071,0.0287313,21,32765
1.61351,0.883956,0.0286807,22,32765
1.59008,0.864293,0.0272262,22,32765
1.60181,0.863651,0.0267594,22,32765
1.57824,0.84415,0.0256566,21,32765
1.60755,0.852964,0.025391,22,32765
1.59274,0.838208,0.0242058,21,32765
1.60445,0.837436,0.0231001,21,32765
1.58945,0.822956,0.0220759,21,32765
1.60114,0.822114,0.0215848,22,32765
1.60393,0.81668,0.0206993,22,32765
1.59779,0.806694,0.0198971,22,32765
1.55582,0.778896,0.01871,21,32765
1.57633,0.782597,0.0183395,21,32765
1.60586,0.79056,0.017952,22,32765
1.61749,0.789574,0.0174075,23,32765
1.58416,0.766666,0.0162419,21,32765
1.59577,0.765613,0.0159868,22,32765
1.54421,0.734371,0.0151701,20,32765
1.56476,0.737706,0.014387,19,32765
1.55818,0.728212,0.0136744,19,32765
1.56968,0.727203,0.0129875,18,32765
1.55392,0.713635,0.0123394,18,32765
1.5836,0.720875,0.0117754,19,32765
1.56779,0.707328,0.0109774,19,32765
1.55191,0.693888,0.0103266,19,32765
1.60909,0.712967,0.01008,20,32765
1.56572,0.687421,0.00902588,20,32765
1.57719,0.686152,0.00841188,21,32765
1.57948,0.680861,0.00770826,21,32765
1.57255,0.671664,0.00700458,22,32765
1.5748,0.666393,0.00637202,23,32765
1.577,0.661176,0.00564182,23,32765
1.56997,0.652055,0.0048434,23,32765
1.58139,0.650609,0.0041619,23,32765
1.57428,0.641582,0.00352334,23,32765
1.58567,0.64012,0.00281101,23,32765
1.57852,0.631076,0.00207574,23,32765
1.58059,0.625891,0.00121597,22,32765
1.57337,0.616922,0.000509234,23,32765
1.57539,0.611747,-8.5692e-05,21,32765
1.58674,0.610122,-0.000792499,14,32765
1.60745,0.611969,-0.00154958,14,32765
1.55327,0.585612,-0.00228503,16,32765
1.57391,0.587543,-0.00297671,23,32765
1.57578,0.582505,-0.00360519,24,32765
1.57765,0.577403,-0.00441501,25,32765
1.57954,0.572217,-0.00514976,24,32765
1.5814,0.567035,-0.00593891,25,32765
1.58329,0.561727,-0.0067726,25,32765
1.59456,0.559831,-0.00744103,25,32765
1.58693,0.551357,-0.00837234,25,32765
1.57925,0.542931,-0.00898992,24,32765
1.58098,0.537862,-0.00982136,24,32765
1.5827,0.532774,-0.0106692,25,32765
1.57489,0.524583,-0.0114836,24,32765
1.57657,0.519507,-0.0123243,25,32765
1.58771,0.517601,-0.0133769,24,32765
1.56079,0.503338,-0.0140479,24,32765
1.59094,0.50751,-0.015308,24,32765
1.59251,0.50255,-0.0162116,25,32765
1.57496,0.491654,-0.0170823,23,32765
1.6831,1.23773,0.0575627,17,32765
1.65491,1.20857,0.0560423,18,32765
1.67511,1.21482,0.0560272,19,32765
1.69535,1.22096,0.0560828,17,32765
1.70762,1.22103,0.0557446,19,32765
1.70351,1.2096,0.0548548,18,32765
1.63392,1.15223,0.0517675,16,32765
1.6377,1.14688,0.0511581,17,32765
1.71535,1.19284,0.0529242,18,32765
1.62891,1.12457,0.0491553,18,32765
1.64917,1.13041,0.0489458,17,32765
1.67775,1.14177,0.0490762,18,32765
1.63188,1.10258,0.0468878,18,32765
1.64384,1.10275,0.0463127,17,32765
1.65588,1.10276,0.045762,18,32765
1.66784,1.10285,0.0451701,19,32765
1.67979,1.10291,0.0448537,19,32765
1.59963,1.04284,0.0418895,18,32765
1.63663,1.05934,0.0418585,18,32765
1.64018,1.05386,0.041221,18,32765
1.64368,1.04843,0.0401932,18,32765
1.65566,1.04824,0.0398492,19,32765
1.62538,1.02132,0.0381081,19,32765
1.64579,1.02643,0.0375474,18,32765
1.63228,1.01032,0.0362416,18,32765
1.62711,0.999684,0.0353162,18,32765
1.6475,1.00471,0.0348879,19,32765
1.5824,0.957838,0.032596,17,32765
1.61987,0.973179,0.032464,16,32765
1.64892,0.983067,0.0321913,17,32765
1.60917,0.952126,0.0305872,17,32765
1.59513,0.936588,0.0293783,18,32765
1.57235,0.916139,0.0281638,18,32765
1.58407,0.915898,0.0273684,18,32765
1.53514,0.880667,0.0257158,17,32765
1.5729,0.895224,0.0255818,19,32765
1.63676,0.924541,0.0255923,21,32765
1.59625,0.894599,0.0240289,19,32765
1.5992,0.889334,0.0234971,19,32765
1.63721,0.903273,0.0229406,21,32765
1.59643,0.873703,0.0214,21,32765
1.62574,0.882634,0.0208706,20,32765
1.5671,0.843929,0.0192724,19,32765
1.58753,0.848164,0.0188299,20,32765
1.62567,0.861659,0.0181011,19,32765
1.60198,0.842288,0.0172496,20,32765
1.59593,0.832311,0.0161417,20,32765
1.60762,0.831535,0.0148881,19,32765
1.6015,0.821584,0.0141933,20,32765
1.59534,0.811665,0.0133333,20,32765
1.58911,0.801855,0.0122181,21,32765
1.60072,0.801033,0.0116858,21,32765
1.57656,0.782271,0.0106475,18,32765
1.61509,0.794586,0.010123,19,32765
1.6178,0.789074,0.00931549,16,32765
1.6205,0.78353,0.00868266,16,32765
1.57801,0.756522,0.00754871,15,32765
1.55351,0.738209,0.00717235,16,32765
1.53789,0.724476,0.00634122,17,32765
1.54937,0.723557,0.00564287,19,32765
1.57903,0.730911,0.00509853,19,32765
1.58144,0.725682,0.00434938,20,32765
1.59302,0.724418,0.00364029,21,32765
1.60452,0.723265,0.00288958,22,32765
1.59781,0.713783,0.00212435,21,32765
1.59102,0.704445,0.00144182,22,32765
1.61165,0.707232,0.000825053,22,32765
1.58649,0.689885,0.000202929,21,32765
1.60714,0.692535,-0.000303918,23,32765
1.57271,0.671327,-0.00107314,21,32765
1.58417,0.669937,-0.00165496,22,32765
1.61404,0.676293,-0.00220464,22,32765
1.57012,0.651707,-0.00278838,21,32765
1.59076,0.654108,-0.00338154,22,32765
1.59293,0.648812,-0.0038883,22,32765
1.60432,0.64734,-0.00441877,23,32765
1.60643,0.642075,-0.00490175,22,32765
1.58994,0.629422,-0.00526453,21,32765
1.6013,0.627863,-0.00574692,21,32765
0,0,-0,0,32765
0,0,-0,0,32765
0,0,-0,0,32765
1.55325,0.585633,-0.0073609,16,32765
1.58325,0.591058,-0.00791303,22,32765
1.59459,0.589253,-0.00855655,23,32765
1.59652,0.58399,-0.00874752,23,32765
1.57962,0.571934,-0.00885965,23,32765
1.58149,0.566739,-0.00932636,23,32765
1.58335,0.561533,-0.00962075,22,32765
1.59461,0.559666,-0.00992883,23,32765
1.60584,0.557816,-0.0103036,23,32765
1.62653,0.559193,-0.0107085,24,32765
1.59044,0.541091,-0.0104943,22,32765
1.6206,0.545557,-0.010901,24,32765
1.58442,0.527619,-0.010885,22,32765
1.62411,0.535013,-0.0113184,23,32765
1.5878,0.517366,-0.0109622,22,32765
1.59897,0.515339,-0.011168,23,32765
1.61012,0.51332,-0.0111237,23,32765
1.57361,0.496123,-0.0109543,22,32765
1.5847,0.494187,-0.0107227,22,32765
1.62538,1.19883,0.0367998,17,32765
1.67775,1.22888,0.0374655,18,32765
1.6495,1.19977,0.0361889,18,32765
1.64537,1.18845,0.0355373,18,32765
1.6819,1.20616,0.0356373,19,32765
1.63703,1.16579,0.0340017,19,32765
1.66531,1.17779,0.0337674,18,32765
1.65282,1.16083,0.0328186,18,32765
1.58284,1.10388,0.0308593,18,32765
1.63591,1.13267,0.0308283,19,32765
1.62324,1.11585,0.0298209,19,32765
1.62698,1.1104,0.0292328,18,32765
1.62242,1.09934,0.0283483,19,32765
1.60118,1.07721,0.0271199,18,32765
1.5965,1.06626,0.0262204,19,32765
1.60834,1.06653,0.0255621,17,32765
1.59511,1.05029,0.0247799,17,32765
1.61528,1.05603,0.0242972,16,32765
1.61035,1.04528,0.0232753,17,32765
1.59705,1.02905,0.0224097,16,32765
1.64258,1.05069,0.0219699,17,32765
1.63769,1.03977,0.0213107,18,32765
1.60739,1.01286,0.0199513,19,32765
1.59386,0.99683,0.0188116,19,32765
1.58875,0.986133,0.017815,20,32765
1.61756,0.996594,0.0173663,21,32765
1.61233,0.986005,0.0164916,21,32765
1.60705,0.97547,0.0155432,20,32765
1.60173,0.964959,0.0146309,21,32765
1.60499,0.959533,0.0138617,22,32765
1.60819,0.954182,0.0130942,21,32765
1.62002,0.953831,0.0122666,21,32765
1.60595,0.938296,0.0113801,21,32765
1.60043,0.927909,0.0103569,21,32765
1.60358,0.922461,0.00956586,21,32765
1.60672,0.916987,0.00883326,22,32765
1.6184,0.916684,0.00791116,21,32765
1.60405,0.901434,0.006937,21,32765
1.59829,0.89126,0.00636581,20,32765
1.62754,0.900388,0.00540443,21,32765
1.58676,0.870785,0.00433551,19,32765
1.58091,0.86064,0.00345182,19,32765
1.60143,0.864764,0.00266203,19,32765
1.60429,0.859448,0.00199415,18,32765
1.59829,0.849449,0.000853445,19,32765
1.58342,0.834789,0.000292238,18,32765
1.57735,0.82485,-0.000712037,19,32765
1.60675,0.833341,-0.00206846,20,32765
1.61843,0.832518,-0.00270072,21,32765
1.61231,0.822518,-0.00347722,22,32765
1.58827,0.803599,-0.00446148,21,32765
1.59988,0.802776,-0.00508892,22,32765
1.57574,0.783974,-0.00584736,21,32765
1.58736,0.783045,-0.00663571,22,32765
1.57205,0.768827,-0.00734712,21,32765
1.57468,0.763426,-0.00796377,22,32765
1.58622,0.762505,-0.00890835,21,32765
1.56176,0.744122,-0.00900645,21,32765
1.57329,0.743142,-0.00982508,22,32765
1.58483,0.7421,-0.0106357,22,32765
1.5964,0.740928,-0.0113485,22,32765
1.57159,0.723089,-0.0119011,22,32765
1.57405,0.717706,-0.012628,22,32765
1.5673,0.708374,-0.0133102,23,32765
1.56055,0.698996,-0.0139657,22,32765
1.57199,0.697874,-0.0147112,23,32765
1.58344,0.696701,-0.0154205,23,32765
1.56742,0.683406,-0.0158444,23,32765
1.59722,0.69009,-0.0166299,23,32765
1.58118,0.676736,-0.0172206,22,32765
1.56503,0.663603,-0.0175904,22,32765
1.59487,0.670035,-0.0184169,22,32765
1.53248,0.637774,-0.0183043,20,32765
1.54383,0.636492,-0.0189598,20,32765
1.53668,0.627559,-0.0193365,19,32765
1.49238,0.603767,-0.0192278,18,32765
1.55004,0.621174,-0.0204117,17,32765
1.49631,0.593922,-0.0200743,15,32765
1.60061,0.62925,-0.0218986,14,32765
0,0,-0,0,32765
0,0,-0,0,32765
0,0,-0,0,32765
1.59002,0.601073,-0.0235065,19,32765
1.60133,0.599379,-0.0240699,22,32765
1.57519,0.583613,-0.0242383,24,32765
1.58649,0.581843,-0.0245736,25,32765
1.59779,0.580029,-0.0249378,25,32765
1.6091,0.578141,-0.0255605,23,32765
1.58273,0.562783,-0.0254076,23,32765
1.54683,0.544317,-0.0250471,21,32765
1.56746,0.545905,-0.0256621,22,32765
1.55974,0.537631,-0.0257806,20,32765
1.53307,0.52293,-0.0253466,19,32765
1.51579,0.511602,-0.0252398,19,32765
1.50797,0.503466,-0.0253106,16,32765
1.48111,0.489173,-0.0249915,16,32765
1.49219,0.487474,-0.0250668,15,32765
1.50326,0.485749,-0.0253592,15,32765
1.5048,0.480983,-0.0252567,15,32765
1.44913,0.458058,-0.024385,14,32765
1.45056,0.453522,-0.0241132,14,32765
1.68382,1.23722,0.0462608,18,32765
1.67985,1.22579,0.0440614,17,32765
1.64343,1.19094,0.0413239,17,32765
1.64742,1.18547,0.0395855,17,32765
1.63508,1.16841,0.0377568,17,32765
1.64717,1.16873,0.0361996,18,32765
1.6429,1.15749,0.0346977,18,32765
1.62218,1.13484,0.0326192,17,32765
1.58491,1.10092,0.0303546,17,32765
1.70374,1.17524,0.0313192,18,32765
1.66633,1.14144,0.0292204,18,32765
1.64528,1.11911,0.0274426,18,32765
1.6241,1.09693,0.0256057,18,32765
1.61956,1.08579,0.0242474,18,32765
1.66482,1.10807,0.0235523,18,32765
1.71028,1.13001,0.0229039,16,32765
1.63875,1.07502,0.0206515,16,32765
1.5836,1.03149,0.0188128,17,32765
1.6038,1.03711,0.017914,16,32765
1.59036,1.02106,0.0166537,18,32765
1.6191,1.03183,0.0157553,19,32765
1.631,1.03176,0.0146505,20,32765
1.6175,1.01568,0.0134975,20,32765
1.64634,1.02616,0.0126617,20,32765
1.6582,1.02603,0.0115646,20,32765
1.61047,0.989131,0.0101715,19,32765
1.63082,0.994206,0.0093025,20,32765
1.62556,0.983604,0.00822049,20,32765
1.64601,0.988425,0.00729667,21,32765
1.64073,0.977786,0.00619145,20,32765
1.6268,0.962074,0.0051551,19,32765
1.62142,0.951522,0.0042191,20,32765
1.62456,0.946148,0.00324375,20,32765
1.60171,0.925762,0.00221103,20,32765
1.62211,0.930409,0.00126786,20,32765
1.61653,0.920019,0.000449961,19,32765
1.61091,0.909646,-0.000524026,18,32765
1.66635,0.933481,-0.00127234,17,32765
1.65201,0.918123,-0.00217726,17,32765
1.62877,0.898171,-0.00296712,16,32765
1.62299,0.887905,-0.00380339,17,32765
1.54683,0.839584,-0.00438148,17,32765
1.57603,0.848638,-0.00527991,19,32765
1.57006,0.838618,-0.00612858,19,32765
1.58168,0.838058,-0.0067531,20,32765
1.61103,0.84671,-0.00773224,21,32765
1.57835,0.82289,-0.00882411,22,32765
1.58995,0.822224,-0.00953953,21,32765
1.60161,0.821417,-0.0104132,22,32765
1.63111,0.82961,-0.0115641,22,32765
1.61609,0.814996,-0.0122317,22,32765
1.59203,0.796031,-0.0127565,21,32765
1.59473,0.790609,-0.0134053,21,32765
1.62432,0.798429,-0.0144966,21,32765
1.59998,0.779892,-0.015252,21,32765
1.62058,0.783232,-0.0164006,21,32765
1.61417,0.773482,-0.0169219,22,32765
1.60776,0.763687,-0.017404,21,32765
1.58322,0.745412,-0.0168471,22,32765
1.59476,0.74433,-0.0178451,21,32765
1.58818,0.734735,-0.0183667,22,32765
1.59974,0.733529,-0.0191668,22,32765
1.58397,0.719887,-0.0196945,21,32765
1.59551,0.718635,-0.0205999,21,32765
1.57963,0.705148,-0.0211048,22,32765
1.57282,0.695826,-0.0215947,22,32765
1.61179,0.706558,-0.0227607,21,32765
1.61412,0.701192,-0.0235378,20,32765
1.64401,0.707608,-0.0247341,17,32765
1.62795,0.694287,-0.0252444,16,32765
0,0,-0,0,32765
0,0,-0,0,32765
0,0,-0,0,32765
0,0,-0,0,32765
0,0,-0,0,32765
0,0,-0,0,32765
0,0,-0,0,32765
0,0,-0,0,32765
0,0,-0,0,32765
0,0,-0,0,32765
0,0,-0,0,32765
0,0,-0,0,32765
1.68428,0.633948,-0.0359808,18,32765
1.56457,0.582986,-0.0340976,14,32765
0,0,-0,0,32765
0,0,-0,0,32765
0,0,-0,0,32765
0,0,-0,0,32765
0,0,-0,0,32765
0,0,-0,0,32765
0,0,-0,0,32765
0,0,-0,0,32765
0,0,-0,0,32765
0,0,-0,0,32765
0,0,-0,0,32765
0,0,-0,0,32765
0,0,-0,0,32765
0,0,-0,0,32765
0,0,-0,0,32765
0,0,-0,0,32765
0,0,-0,0,32765
1.65815,1.22206,0.0263962,18,32765
1.67834,1.2284,0.024673,18,32765
1.64196,1.19347,0.0224,19,32765
1.62973,1.17629,0.0204565,18,32765
1.64988,1.18255,0.0192053,19,32765
1.62941,1.15962,0.0171923,17,32765
1.61695,1.14264,0.0157156,17,32765
1.6535,1.16023,0.0144394,18,32765
1.62455,1.13185,0.0126736,17,32765
1.63646,1.13223,0.0115463,17,32765
1.61543,1.1099,0.0100682,19,32765
1.61908,1.10459,0.00874303,18,32765
1.59786,1.08245,0.00720629,20,32765
1.61817,1.08811,0.00605153,20,32765
1.60518,1.07157,0.00471709,20,32765
1.62547,1.07718,0.00358732,20,32765
1.62066,1.06632,0.00233319,20,32765
1.59901,1.04463,0.00118273,21,32765
1.62764,1.05565,8.44344e-05,21,32765
1.62268,1.0449,-0.00101302,21,32765
1.60091,1.02327,-0.00214955,21,32765
1.60433,1.0179,-0.00331956,21,32765
1.59926,1.0072,-0.00429446,21,32765
1.62805,1.01776,-0.00540136,22,32765
1.61438,1.00186,-0.00647916,21,32765
1.60918,0.991253,-0.00748397,21,32765
1.61246,0.985907,-0.00845201,20,32765
1.62428,0.985716,-0.00953165,20,32765
1.61902,0.975071,-0.0104777,21,32765
1.60511,0.959367,-0.0114132,19,32765
1.63414,0.969244,-0.0125747,20,32765
1.62016,0.953569,-0.0133527,21,32765
1.60604,0.938098,-0.0141771,21,32765
1.60913,0.932771,-0.0151649,21,32765
1.62088,0.932414,-0.0162151,22,32765
1.60662,0.917046,-0.01685,22,32765
1.61841,0.916536,-0.0179195,21,32765
1.62152,0.911007,-0.0186334,22,32765
1.59838,0.890896,-0.0192235,21,32765
1.60132,0.885594,-0.0200361,21,32765
1.62181,0.889825,-0.0211089,22,32765
1.5984,0.870085,-0.0215572,21,32765
1.62769,0.878983,-0.0227654,23,32765
1.63063,0.873486,-0.0236796,22,32765
1.60705,0.853951,-0.0238972,22,32765
1.60105,0.843884,-0.0246286,22,32765
1.62154,0.847841,-0.0261991,23,32765
1.59772,0.828614,-0.0264406,22,32765
1.58271,0.814056,-0.0269595,22,32765
1.60326,0.817784,-0.0282251,22,32765
1.5882,0.803232,-0.0286937,21,32765
1.58201,0.793284,-0.0292574,21,32765
1.55783,0.774527,-0.0293973,20,32765
1.56941,0.773645,-0.0304042,19,32765
1.52704,0.746466,-0.0304876,17,32765
1.50253,0.728253,-0.0308573,16,32765
1.50495,0.723206,-0.03143,15,32765
1.49838,0.713761,-0.031781,14,32765
1.53698,0.7257,-0.0322928,13,32765
1.53034,0.716292,-0.0329698,12,32765
1.68693,0.782632,-0.0369499,12,32765
1.65322,0.7602,-0.0368755,11,32765
1.66485,0.758786,-0.0378635,11,32765
1.52161,0.687291,-0.0353102,11,32765
0,0,-0,0,32765
0,0,-0,0,32765
1.61994,0.712139,-0.039483,11,32765
0,0,-0,0,32765
0,0,-0,0,32765
0,0,-0,0,32765
0,0,-0,0,32765
0,0,-0,0,32765
0,0,-0,0,32765
0,0,-0,0,32765
0,0,-0,0,32765
0,0,-0,0,32765
0,0,-0,0,32765
0,0,-0,0,32765
0,0,-0,0,32765
0,0,-0,0,32765
0,0,-0,0,32765
0,0,-0,0,32765
1.58979,0.600072,-0.0499355,13,32765
1.69474,0.633278,-0.053943,13,32765
0,0,-0,0,32765
0,0,-0,0,32765
0,0,-0,0,32765
0,0,-0,0,32765
0,0,-0,0,32765
0,0,-0,0,32765
0,0,-0,0,32765
0,0,-0,0,32765
0,0,-0,0,32765
0,0,-0,0,32765
0,0,-0,0,32765
0,0,-0,0,32765
0,0,-0,0,32765
0,0,-0,0,32765
0,0,-0,0,32765
0,0,-0,0,32765
0,0,-0,0,32765
1.62622,1.19824,0.0029053,16,32765
1.62217,1.18687,0.00241268,18,32765
1.60179,1.16389,0.0018096,18,32765
1.66227,1.19973,0.0011803,18,32765
1.64188,1.1767,0.000556811,18,32765
1.62956,1.15955,-0.000145845,18,32765
1.66607,1.1772,-0.000803816,17,32765
1.63723,1.14869,-0.00158341,17,32765
1.66556,1.16052,-0.00237327,18,32765
1.63648,1.13227,-0.00290575,19,32765
1.6072,1.10426,-0.00372958,19,32765
1.65214,1.12713,-0.0044758,18,32765
1.66421,1.12716,-0.00565248,18,32765
1.60993,1.08245,-0.00617846,19,32765
1.60531,1.07137,-0.00682343,18,32765
1.6256,1.07696,-0.00781095,19,32765
1.6542,1.08809,-0.00876398,18,32765
1.65779,1.08261,-0.009653,20,32765
1.64459,1.06622,-0.0105217,19,32765
1.63132,1.04989,-0.0112769,19,32765
1.63481,1.04443,-0.0120854,20,32765
1.65519,1.04966,-0.0130036,19,32765
1.65019,1.03883,-0.0139289,18,32765
1.66209,1.03867,-0.0146055,19,32765
1.62305,1.00677,-0.0151202,19,32765
1.64343,1.01181,-0.0162026,19,32765
1.63828,1.00107,-0.0168671,19,32765
1.6331,0.990347,-0.0176512,19,32765
1.61927,0.974544,-0.0184797,19,32765
1.61394,0.963958,-0.0192931,19,32765
1.62576,0.963642,-0.02023,20,32765
1.65485,0.973358,-0.0213908,21,32765
1.61494,0.942544,-0.0216187,20,32765
1.63541,0.947107,-0.022718,20,32765
1.6386,0.941557,-0.0236239,20,32765
1.59831,0.911276,-0.0239632,19,32765
1.60132,0.905953,-0.0247522,18,32765
1.66537,0.934854,-0.026557,21,32765
1.64225,0.914712,-0.0270355,20,32765
1.64529,0.909188,-0.0280302,20,32765
1.63957,0.898832,-0.0286413,20,32765
1.6162,0.879008,-0.0291286,20,32765
1.61038,0.86873,-0.0297549,21,32765
1.64857,0.882125,-0.0312376,21,32765
1.59852,0.848445,-0.031074,19,32765
1.63675,0.861673,-0.0325852,20,32765
1.62189,0.84691,-0.0333214,20,32765
1.61584,0.836851,-0.0339555,19,32765
1.63643,0.840508,-0.0350641,18,32765
1.61252,0.821345,-0.0354311,16,32765
0,0,-0,0,32765
0,0,-0,0,32765
0,0,-0,0,32765
0,0,-0,0,32765
0,0,-0,0,32765
0,0,-0,0,32765
0,0,-0,0,32765
0,0,-0,0,32765
0,0,-0,0,32765
0,0,-0,0,32765
0,0,-0,0,32765
0,0,-0,0,32765
0,0,-0,0,32765
0,0,-0,0,32765
0,0,-0,0,32765
0,0,-0,0,32765
0,0,-0,0,32765
0,0,-0,0,32765
0,0,-0,0,32765
0,0,-0,0,32765
0,0,-0,0,32765
0,0,-0,0,32765
0,0,-0,0,32765
0,0,-0,0,32765
0,0,-0,0,32765
0,0,-0,0,32765
0,0,-0,0,32765
0,0,-0,0,32765
0,0,-0,0,32765
0,0,-0,0,32765
0,0,-0,0,32765
0,0,-0,0,32765
0,0,-0,0,32765
0,0,-0,0,32765
0,0,-0,0,32765
0,0,-0,0,32765
0,0,-0,0,32765
0,0,-0,0,32765
0,0,-0,0,32765
0,0,-0,0,32765
0,0,-0,0,32765
0,0,-0,0,32765
0,0,-0,0,32765
0,0,-0,0,32765
0,0,-0,0,32765
0,0,-0,0,32765
0,0,-0,0,32765
0,0,-0,0,32765
0,0,-0,0,32765
0,0,-0,0,32765
0,0,-0,0,32765
1.64038,1.21264,-0.0160425,19,32765
1.63638,1.2012,-0.0164496,19,32765
1.66457,1.21346,-0.0172853,19,32765
1.64416,1.19052,-0.0177225,19,32765
1.62377,1.1675,-0.0180633,19,32765
1.64399,1.17361,-0.0189506,19,32765
1.65604,1.1739,-0.0196987,19,32765
1.6354,1.15111,-0.0202052,19,32765
1.65552,1.15724,-0.0211719,20,32765
1.6429,1.14036,-0.0215468,19,32765
1.60545,1.10659,-0.0218924,20,32765
1.6256,1.11257,-0.0227601,19,32765
1.62107,1.10144,-0.023772,20,32765
1.62479,1.09592,-0.0245046,20,32765
1.61193,1.0792,-0.0249371,19,32765
1.6239,1.07924,-0.0259845,20,32765
1.6191,1.06836,-0.0266693,20,32765
1.62262,1.06298,-0.0275424,21,32765
1.6429,1.06848,-0.0287944,22,32765
1.61286,1.04127,-0.0290624,21,32765
1.61632,1.03586,-0.0298645,21,32765
1.60291,1.01969,-0.0303247,21,32765
1.64009,1.0357,-0.0319515,22,32765
1.61809,1.01433,-0.0320493,22,32765
1.62994,1.0142,-0.0331108,22,32765
1.62481,1.00346,-0.0338547,22,32765
1.62817,0.997983,-0.0346012,22,32765
1.62298,0.987267,-0.0352893,22,32765
1.61771,0.976627,-0.0361186,22,32765
1.62956,0.976297,-0.0372323,22,32765
1.61562,0.960596,-0.0376719,22,32765
1.61023,0.950041,-0.0382912,21,32765
1.63069,0.954667,-0.039496,22,32765
