x, y, z, intensity, ring
0.803395,-0.357471,-0.0342222,18,32765
0.765727,-0.343818,-0.0324243,18,32765
0.782781,-0.354626,-0.0330784,19,32765
0.781584,-0.357285,-0.0327811,18,32765
0.789457,-0.364119,-0.0327951,19,32765
0.779171,-0.362573,-0.0321374,18,32765
0.777938,-0.365234,-0.0318832,18,32765
0.785725,-0.372173,-0.0319954,18,32765
0.766432,-0.36623,-0.0309551,19,32765
0.78321,-0.37749,-0.0313682,19,32765
0.772948,-0.375772,-0.0307854,19,32765
0.771677,-0.378399,-0.0304805,19,32765
0.770397,-0.381015,-0.0302602,19,32765
0.769098,-0.383653,-0.0299747,19,32765
0.76781,-0.386245,-0.0297107,19,32765
0.766508,-0.388846,-0.0293922,19,32765
0.756293,-0.386899,-0.0288087,19,32765
0.746101,-0.384886,-0.0282042,18,32765
0.753661,-0.392038,-0.0283068,19,32765
0.752361,-0.394552,-0.0279618,19,32765
0.751037,-0.397091,-0.0276092,19,32765
0.740892,-0.394899,-0.0270762,19,32765
0.739585,-0.397363,-0.0267792,19,32765
0.720675,-0.390331,-0.0258571,18,32765
0.754463,-0.411904,-0.0268382,19,32765
0.74432,-0.409637,-0.0261593,19,32765
0.742939,-0.412157,-0.0258392,18,32765
0.724091,-0.40493,-0.0249815,18,32765
0.705311,-0.397565,-0.0240448,16,32765
0.703992,-0.399917,-0.0236972,16,32765
0.728692,-0.417158,-0.0242425,16,32765
0.701329,-0.404604,-0.0230981,15,32765
0.682704,-0.396889,-0.0222306,15,32765
0.672748,-0.394133,-0.0216683,16,32765
0.697269,-0.411616,-0.0220971,18,32765
0.713077,-0.424175,-0.022289,18,32765
0.720256,-0.431667,-0.0222338,19,32765
0.710293,-0.428856,-0.0216048,20,32765
0.725968,-0.441585,-0.0217607,19,32765
0.707477,-0.43352,-0.0208907,19,32765
0.680513,-0.420132,-0.0197716,18,32765
0.704598,-0.438219,-0.0201528,19,32765
0.694679,-0.435246,-0.019539,19,32765
0.710147,-0.448225,-0.0196493,18,32765
0.691806,-0.439832,-0.018755,19,32765
0.715619,-0.458287,-0.0190457,19,32765
0.688924,-0.444366,-0.0179425,19,32765
0.687469,-0.44663,-0.0175506,19,32765
0.686005,-0.448891,-0.0171612,19,32765
0.692883,-0.456648,-0.0169038,19,32765
0.674715,-0.447886,-0.0160662,19,32765
0.664925,-0.444564,-0.0154342,19,32765
0.671758,-0.452339,-0.0151769,18,32765
0.678534,-0.460184,-0.0149067,19,32765
0.668783,-0.456755,-0.0142899,19,32765
0.675522,-0.464624,-0.0139789,19,32765
0.657566,-0.455448,-0.0131653,19,32765
0.6561,-0.457572,-0.0126909,19,32765
0.638224,-0.448252,-0.0118781,18,32765
0.661264,-0.467642,-0.0118745,19,32765
0.676034,-0.481398,-0.0116048,19,32765
0.650137,-0.466056,-0.0106502,19,32765
0.648624,-0.468171,-0.0101166,19,32765
0.663219,-0.482126,-0.00973117,19,32765
0.637431,-0.466589,-0.00872462,19,32765
0.926278,-0.284153,-0.0465331,17,32765
0.925343,-0.287162,-0.0466716,18,32765
0.886276,-0.278212,-0.0448586,18,32765
0.961523,-0.305261,-0.0488786,18,32765
0.912959,-0.293151,-0.0465721,16,32765
0.959496,-0.311564,-0.0489486,14,32765
0,-0,-0,0,32765
0,-0,-0,0,32765
0.861656,-0.289311,-0.044139,16,32765
0.879624,-0.298545,-0.0450932,19,32765
0.869202,-0.298163,-0.0445652,19,32765
0.868225,-0.301011,-0.0444626,18,32765
0.89547,-0.313884,-0.0459439,19,32765
0.84732,-0.300271,-0.0434399,18,32765
0.865106,-0.309889,-0.0442684,18,32765
0.84528,-0.305999,-0.0431965,18,32765
0.844269,-0.308794,-0.0430939,18,32765
0.852611,-0.315055,-0.0435212,18,32765
0.814146,-0.303885,-0.0414732,18,32765
0.841182,-0.317146,-0.0427828,18,32765
0.830783,-0.316418,-0.0421773,18,32765
0.811087,-0.312007,-0.0411122,18,32765
0.819352,-0.318347,-0.0414414,18,32765
0.855484,-0.335695,-0.0430868,18,32765
0.807921,-0.32018,-0.0406014,18,32765
0.797582,-0.319169,-0.0399273,18,32765
0.796512,-0.321847,-0.0397967,18,32765
0.795433,-0.324533,-0.039563,18,32765
0.822037,-0.33866,-0.040789,18,32765
0.793225,-0.329937,-0.0391832,18,32765
0.764476,-0.321031,-0.0376199,19,32765
0.791012,-0.335264,-0.0387061,18,32765
0.771505,-0.33009,-0.0376911,18,32765
0.797922,-0.344563,-0.0386963,18,32765
0.778433,-0.339301,-0.0376545,18,32765
0.749852,-0.329882,-0.0360574,18,32765
0.757872,-0.336475,-0.0362551,19,32765
0.793196,-0.355408,-0.0377539,18,32765
0.801113,-0.362186,-0.0379345,18,32765
0.781718,-0.35659,-0.0368896,18,32765
0.762392,-0.35083,-0.0357352,18,32765
0.76123,-0.353373,-0.0354519,19,32765
0.778145,-0.364406,-0.0360331,19,32765
0.758868,-0.358472,-0.034888,18,32765
0.775717,-0.369607,-0.0354094,19,32765
0.765471,-0.367891,-0.0347898,19,32765
0.737266,-0.357392,-0.0333158,18,32765
0.754003,-0.368699,-0.0337738,19,32765
0.770667,-0.380133,-0.0342184,19,32765
0.76042,-0.378331,-0.0335676,20,32765
0.75914,-0.380924,-0.0332054,19,32765
0.766776,-0.388003,-0.0332895,18,32765
0.756551,-0.386087,-0.0326752,19,32765
0.710828,-0.365784,-0.0304321,18,32765
0.736203,-0.382003,-0.031297,19,32765
0.708366,-0.370575,-0.0298608,19,32765
0.742487,-0.391599,-0.0310205,19,32765
0.714689,-0.380055,-0.0296331,19,32765
0.748654,-0.401338,-0.0307453,19,32765
0.729735,-0.394341,-0.0296798,18,32765
0.728424,-0.396779,-0.0294141,19,32765
0.718347,-0.394402,-0.0287185,18,32765
0.673301,-0.372627,-0.0267479,17,32765
0.680782,-0.379761,-0.0267791,16,32765
0.696935,-0.391847,-0.0271478,16,32765
0.721724,-0.40895,-0.0278141,15,32765
0.720384,-0.411334,-0.0274215,15,32765
0.693008,-0.398813,-0.0262143,16,32765
0.700326,-0.406145,-0.0262515,16,32765
0.690331,-0.403466,-0.0256607,18,32765
0.663148,-0.390565,-0.0243772,18,32765
0.696225,-0.413195,-0.0253166,18,32765
0.703414,-0.42067,-0.0254004,19,32765
0.702013,-0.423025,-0.0250724,19,32765
0.683527,-0.414973,-0.0242418,19,32765
0.682171,-0.417221,-0.0238546,18,32765
0.68932,-0.424693,-0.0239609,19,32765
0.662441,-0.411158,-0.0228193,19,32765
0.694992,-0.434544,-0.0236074,19,32765
0.685069,-0.431564,-0.0230889,19,32765
0.683636,-0.433846,-0.0228114,19,32765
0.699067,-0.446849,-0.0230526,19,32765
0.689182,-0.443756,-0.0225487,19,32765
0.670967,-0.435123,-0.0217285,19,32765
0.677903,-0.442804,-0.021732,19,32765
0.684799,-0.450532,-0.0217106,19,32765
0.649974,-0.430716,-0.0204357,19,32765
0.656852,-0.438435,-0.0204935,19,32765
0.663712,-0.446169,-0.02048,19,32765
0.6788,-0.459566,-0.0207206,19,32765
0.644276,-0.43924,-0.0194023,19,32765
0.634639,-0.43563,-0.018971,18,32765
0.649679,-0.44905,-0.0192793,19,32765
0.64001,-0.445456,-0.0188887,19,32765
0.663086,-0.464804,-0.0193389,19,32765
0.661546,-0.467004,-0.0190665,19,32765
0.619298,-0.440177,-0.0177356,19,32765
0.634144,-0.453801,-0.0180744,19,32765
0.648934,-0.467491,-0.018342,19,32765
0.655535,-0.475428,-0.0184843,19,32765
0.645939,-0.471631,-0.0180614,20,32765
0.925573,-0.284815,-0.0556322,17,32765
1.03902,-0.323439,-0.0626692,12,32765
1.21887,-0.383805,-0.0737456,12,32765
1.24615,-0.396851,-0.0756818,11,32765
1.1498,-0.370347,-0.0700463,11,32765
1.18655,-0.386489,-0.0723,11,32765
0,-0,-0,0,32765
0,-0,-0,0,32765
0.879875,-0.296349,-0.0538264,15,32765
0.897802,-0.305664,-0.0549669,19,32765
0.877923,-0.302093,-0.0537654,19,32765
0.858073,-0.298419,-0.0525068,18,32765
0.866463,-0.304665,-0.0531134,19,32765
0.846603,-0.300953,-0.0518721,19,32765
0.873765,-0.313968,-0.0534621,19,32765
0.85394,-0.3101,-0.0522009,19,32765
0.852913,-0.312931,-0.0520963,19,32765
0.833148,-0.308827,-0.0509002,18,32765
0.850833,-0.318573,-0.051902,19,32765
0.840442,-0.317859,-0.0512104,19,32765
0.839373,-0.320692,-0.0510781,19,32765
0.838307,-0.323489,-0.0509559,19,32765
0.818617,-0.319059,-0.0496794,19,32765
0.80826,-0.318159,-0.0488889,18,32765
0.853577,-0.339336,-0.0515459,19,32765
0.806119,-0.323598,-0.0485339,19,32765
0.823539,-0.333814,-0.0495137,19,32765
0.803938,-0.329035,-0.0481639,19,32765
0.821272,-0.33941,-0.0491161,19,32765
0.810913,-0.338356,-0.0483273,18,32765
0.791362,-0.333368,-0.0470247,19,32765
0.790264,-0.336003,-0.0467505,18,32765
0.77077,-0.330816,-0.0455476,18,32765
0.797158,-0.345319,-0.0468327,19,32765
0.777683,-0.340044,-0.045603,18,32765
0.794804,-0.350763,-0.0463909,18,32765
0.802745,-0.357524,-0.0466667,19,32765
0.774202,-0.347996,-0.0448323,18,32765
0.791229,-0.358851,-0.045636,19,32765
0.780942,-0.357366,-0.0449279,19,32765
0.770699,-0.355778,-0.0441047,19,32765
0.787626,-0.366788,-0.0448484,19,32765
0.7864,-0.369442,-0.0445817,19,32765
0.794199,-0.376355,-0.0447716,20,32765
0.792949,-0.379019,-0.0444544,19,32765
0.773683,-0.373023,-0.043233,19,32765
0.772433,-0.375634,-0.042974,19,32765
0.780123,-0.382688,-0.0431058,19,32765
0.760913,-0.37652,-0.0417587,19,32765
0.777497,-0.388064,-0.0424815,19,32765
0.776185,-0.390723,-0.0421101,19,32765
0.748151,-0.37979,-0.0403579,19,32765
0.746853,-0.382361,-0.0401324,19,32765
0.745569,-0.384893,-0.0397946,19,32765
0.75313,-0.392041,-0.0399846,19,32765
0.725288,-0.380648,-0.03826,18,32765
0.759338,-0.401776,-0.0397844,19,32765
0.74916,-0.39967,-0.0390275,19,32765
0.739031,-0.397458,-0.0382206,19,32765
0.728927,-0.395177,-0.0374227,19,32765
0.718845,-0.392829,-0.0367085,18,32765
0.717542,-0.395235,-0.0363666,18,32765
0.724947,-0.402511,-0.0365726,19,32765
0.7236,-0.404957,-0.0362354,18,32765
0.722245,-0.407398,-0.0359048,19,32765
0.71221,-0.404873,-0.0351239,18,32765
0.728222,-0.417165,-0.0355825,19,32765
0.718161,-0.414638,-0.0349338,19,32765
0.716779,-0.417046,-0.0346353,19,32765
0.723994,-0.424527,-0.0347716,19,32765
0.696771,-0.411713,-0.0331911,18,32765
0.686811,-0.408947,-0.0324576,18,32765
0.719706,-0.43183,-0.0338452,19,32765
0.684064,-0.413568,-0.0319127,18,32765
0.69123,-0.421036,-0.0320889,17,32765
0.698371,-0.428542,-0.0320874,16,32765
0.688471,-0.425576,-0.0315032,17,32765
0.687067,-0.427859,-0.0312384,16,32765
0.660266,-0.414205,-0.0297171,16,32765
0.667315,-0.421781,-0.0298723,16,32765
0.682771,-0.434744,-0.0303501,17,32765
0.66453,-0.426194,-0.0292934,18,32765
0.671511,-0.433827,-0.0294426,19,32765
0.670101,-0.436021,-0.0291714,19,32765
0.702097,-0.460151,-0.030351,19,32765
0.683903,-0.45146,-0.0293377,19,32765
0.682405,-0.453736,-0.0291097,19,32765
0.664283,-0.444897,-0.0281919,19,32765
0.671109,-0.452674,-0.028267,19,32765
0.677885,-0.460509,-0.0283437,19,32765
0.676397,-0.462711,-0.0280194,19,32765
0.650233,-0.44786,-0.026806,19,32765
0.656996,-0.455664,-0.0269575,19,32765
0.630926,-0.440643,-0.0258008,19,32765
0.653983,-0.460003,-0.0265322,19,32765
0.644302,-0.456402,-0.0259339,19,32765
0.634691,-0.45268,-0.0254465,19,32765
0.641352,-0.460554,-0.0256421,19,32765
0.647996,-0.468442,-0.0257697,19,32765
0.630335,-0.458749,-0.0250405,19,32765
0.628865,-0.460773,-0.0248497,19,32765
0,-0,-0,0,32765
0,-0,-0,0,32765
1.45663,-0.455739,-0.106901,11,32765
0,-0,-0,0,32765
0,-0,-0,0,32765
1.35727,-0.439495,-0.0978426,12,32765
1.01453,-0.332173,-0.0726955,12,32765
0.985042,-0.326138,-0.0701897,13,32765
0.860976,-0.288254,-0.0610708,18,32765
0.850575,-0.287959,-0.0600173,18,32765
0.87796,-0.300486,-0.0615948,18,32765
0.895851,-0.309889,-0.0626043,18,32765
0.838323,-0.293122,-0.0582565,18,32765
0.865587,-0.305884,-0.0599421,18,32765
0.864571,-0.308823,-0.0595421,19,32765
0.825991,-0.298208,-0.0566661,18,32765
0.824999,-0.301007,-0.0563171,17,32765
0.842716,-0.310721,-0.0572879,18,32765
0.804281,-0.299617,-0.054423,18,32765
0.859329,-0.323422,-0.0579035,18,32765
0.839597,-0.319216,-0.0563797,18,32765
0.819924,-0.314846,-0.0547504,19,32765
0.828188,-0.321204,-0.0550721,18,32765
0.817827,-0.32034,-0.0542376,19,32765
0.83532,-0.330452,-0.0551478,18,32765
0.815677,-0.325867,-0.0536785,18,32765
0.805338,-0.324887,-0.0527204,18,32765
0.813507,-0.331344,-0.0530869,19,32765
0.775474,-0.318909,-0.0503667,19,32765
0.802054,-0.333036,-0.0519175,19,32765
0.773324,-0.324176,-0.0498067,18,32765
0.763036,-0.322927,-0.0489302,18,32765
0.761956,-0.325495,-0.0487364,18,32765
0.788375,-0.339929,-0.0501357,18,32765
0.77807,-0.338634,-0.0493281,18,32765
0.786061,-0.345309,-0.0496946,18,32765
0.784896,-0.347989,-0.0494109,18,32765
0.756363,-0.338472,-0.0474518,18,32765
0.773421,-0.349265,-0.0483,18,32765
0.772237,-0.35191,-0.0480617,18,32765
0.752921,-0.34617,-0.0466431,18,32765
0.760834,-0.352891,-0.046902,18,32765
0.741565,-0.346988,-0.0456126,18,32765
0.758472,-0.358001,-0.0464294,19,32765
0.775274,-0.369204,-0.0473144,19,32765
0.765019,-0.367539,-0.0464901,19,32765
0.745798,-0.36146,-0.0450794,18,32765
0.744574,-0.36401,-0.0447965,19,32765
0.743359,-0.366519,-0.0445033,19,32765
0.742122,-0.369043,-0.044303,18,32765
0.731961,-0.367066,-0.0435374,19,32765
0.748541,-0.378586,-0.0442492,19,32765
0.747248,-0.381165,-0.0439802,18,32765
0.719319,-0.37001,-0.0421049,19,32765
0.744669,-0.386247,-0.0433773,18,32765
0.725693,-0.379473,-0.0420746,19,32765
0.715602,-0.377243,-0.0412458,18,32765
0.714328,-0.379676,-0.0410037,18,32765
0.730663,-0.391525,-0.0417084,18,32765
0.738151,-0.398723,-0.0418723,18,32765
0.701746,-0.382076,-0.0396291,19,32765
0.709271,-0.389171,-0.0397482,18,32765
0.716739,-0.39635,-0.0399109,19,32765
0.706703,-0.393876,-0.0391381,19,32765
0.687951,-0.38651,-0.0378678,18,32765
0.695343,-0.393771,-0.037969,18,32765
0.668016,-0.381243,-0.0361693,18,32765
0.718687,-0.413388,-0.0387139,19,32765
0.700044,-0.405755,-0.0374299,19,32765
0.690062,-0.403074,-0.0366824,19,32765
0.69733,-0.410466,-0.0367179,18,32765
0.687366,-0.407723,-0.0359155,19,32765
0.686006,-0.410044,-0.0354899,19,32765
0.641868,-0.386549,-0.0329499,18,32765
0.691851,-0.419757,-0.0353062,19,32765
0.656402,-0.40117,-0.0331524,17,32765
0.655093,-0.403336,-0.0327623,16,32765
0.679234,-0.421321,-0.0336018,16,32765
0.660903,-0.412984,-0.0324418,16,32765
0.667996,-0.420509,-0.0324466,16,32765
0.666641,-0.422687,-0.0320247,17,32765
0.673691,-0.430249,-0.0320354,18,32765
0.655481,-0.421663,-0.0307471,19,32765
0.67089,-0.434672,-0.0310985,19,32765
0.669465,-0.436889,-0.0307333,20,32765
0.668047,-0.439086,-0.0302758,19,32765
0.658285,-0.435771,-0.0294034,19,32765
0.665162,-0.443508,-0.0293233,19,32765
0.663714,-0.445704,-0.0288476,19,32765
0.662254,-0.447898,-0.0284075,19,32765
0.636031,-0.433174,-0.0269191,19,32765
0.642884,-0.440893,-0.0267066,19,32765
0.641441,-0.443016,-0.0262653,19,32765
0.640024,-0.445093,-0.0257089,19,32765
0.630404,-0.441441,-0.0249126,19,32765
0.620802,-0.437748,-0.0241031,18,32765
0.660127,-0.468726,-0.0250845,19,32765
0.634186,-0.45349,-0.0235588,19,32765
0.600249,-0.432234,-0.0218073,18,32765
0.639316,-0.463531,-0.0226616,19,32765
0.629799,-0.459653,-0.0217371,19,32765
0.895807,-0.274608,-0.0756324,18,32765
0.904452,-0.280566,-0.0758188,18,32765
0.894025,-0.280664,-0.0744745,18,32765
0.883612,-0.28065,-0.0732429,19,32765
0.88272,-0.283588,-0.0726892,20,32765
0.900772,-0.292662,-0.0738893,21,32765
0.899844,-0.295614,-0.0734312,21,32765
0.927274,-0.308043,-0.075309,20,32765
0.869555,-0.292103,-0.0703488,19,32765
0.868593,-0.295045,-0.0699574,19,32765
0.848774,-0.291469,-0.0680268,18,32765
0.866676,-0.300799,-0.0692327,19,32765
0.837466,-0.2938,-0.0665808,18,32765
0.845901,-0.299925,-0.0670562,18,32765
0.863681,-0.309534,-0.0681458,19,32765
0.87202,-0.315875,-0.0685824,20,32765
0.85224,-0.311982,-0.066746,19,32765
0.851193,-0.314891,-0.0664328,19,32765
0.850153,-0.31776,-0.0660949,18,32765
0.839767,-0.31711,-0.0650584,19,32765
0.829394,-0.316385,-0.0640728,18,32765
0.819059,-0.315558,-0.0629759,18,32765
0.836607,-0.325546,-0.0641027,19,32765
0.844807,-0.332007,-0.0645911,19,32765
0.815885,-0.323835,-0.0621458,18,32765
0.824061,-0.330309,-0.0626047,19,32765
0.832211,-0.336842,-0.0629473,18,32765
0.821861,-0.335858,-0.062005,19,32765
0.829963,-0.342449,-0.0623719,19,32765
0.819597,-0.34145,-0.0614245,19,32765
0.818457,-0.344234,-0.0610841,19,32765
0.789745,-0.33534,-0.0587306,19,32765
0.788623,-0.338006,-0.058529,19,32765
0.796656,-0.34464,-0.0588425,19,32765
0.795488,-0.347366,-0.0586117,18,32765
0.794308,-0.350092,-0.0583946,19,32765
0.793127,-0.352807,-0.0581068,19,32765
0.77371,-0.347387,-0.0565291,18,32765
0.77254,-0.350029,-0.0562331,19,32765
0.771351,-0.352678,-0.0559941,18,32765
0.770176,-0.355284,-0.0556987,19,32765
0.778048,-0.362079,-0.0560429,19,32765
0.794899,-0.373186,-0.05716,20,32765
0.766603,-0.363048,-0.0549114,19,32765
0.79237,-0.378608,-0.056623,20,32765
0.791082,-0.381333,-0.0563383,20,32765
0.771836,-0.375332,-0.0547288,20,32765
0.770564,-0.377979,-0.0544348,19,32765
0.769303,-0.380583,-0.0541303,19,32765
0.741225,-0.369835,-0.0520408,19,32765
0.766733,-0.385796,-0.0536778,19,32765
0.738727,-0.374879,-0.0514586,18,32765
0.755215,-0.386526,-0.0524255,19,32765
0.73617,-0.379954,-0.0508791,18,32765
0.73489,-0.382461,-0.0505946,19,32765
0.742465,-0.389554,-0.0509269,19,32765
0.688234,-0.364042,-0.0469845,18,32765
0.731042,-0.389875,-0.0497473,19,32765
0.720944,-0.387627,-0.0488432,19,32765
0.728433,-0.394809,-0.0491035,19,32765
0.718367,-0.392454,-0.0482555,19,32765
0.708357,-0.389992,-0.04729,18,32765
0.71581,-0.397184,-0.047545,19,32765
0.69707,-0.389831,-0.0461021,19,32765
0.721837,-0.406932,-0.0475106,19,32765
0.685748,-0.389664,-0.0448468,18,32765
0.693125,-0.396926,-0.0450233,18,32765
0.709084,-0.409262,-0.0458774,18,32765
0.725001,-0.421662,-0.0466315,19,32765
0.697748,-0.408963,-0.0446762,18,32765
0.696388,-0.411321,-0.0442525,18,32765
0.686433,-0.408571,-0.0433562,18,32765
0.693634,-0.416032,-0.0434665,19,32765
0.68372,-0.413175,-0.0425858,18,32765
0.690897,-0.420627,-0.0428375,19,32765
0.681032,-0.417662,-0.0418816,19,32765
0.696661,-0.430414,-0.0425125,19,32765
0.712199,-0.4433,-0.0430899,19,32765
0.70228,-0.440363,-0.0422355,19,32765
0.667053,-0.421375,-0.0397882,19,32765
0.682548,-0.43428,-0.0403621,19,32765
0.68114,-0.436522,-0.0399618,18,32765
0.662934,-0.427946,-0.0384808,19,32765
0.6783,-0.441008,-0.0390118,19,32765
0.668498,-0.437784,-0.0381641,19,32765
0.658739,-0.434485,-0.0372345,18,32765
0.640684,-0.425607,-0.0358098,17,32765
0.664188,-0.444414,-0.0367519,16,32765
0.613032,-0.413117,-0.0335549,16,32765
0.644743,-0.43759,-0.0349388,16,32765
0.618591,-0.422781,-0.0331821,17,32765
0.650156,-0.447454,-0.0343819,18,32765
0.640481,-0.443917,-0.0335047,18,32765
0.639063,-0.445997,-0.0329477,19,32765
0.629453,-0.442336,-0.0320579,19,32765
0.628018,-0.444407,-0.0315648,18,32765
0.642848,-0.458078,-0.0317947,19,32765
0.649454,-0.46606,-0.0315846,18,32765
0.656023,-0.474077,-0.031384,19,32765
0.606013,-0.44095,-0.028471,18,32765
0.628829,-0.460581,-0.0289717,19,32765
0.905751,-0.277092,-0.0730448,16,32765
0.885788,-0.274122,-0.071677,16,32765
0.89438,-0.280014,-0.0726397,15,32765
0.912462,-0.288971,-0.0742237,15,32765
0.82604,-0.264611,-0.0673705,16,32765
0.825138,-0.267401,-0.0674116,18,32765
0.900039,-0.294965,-0.0736522,19,32765
0.889584,-0.294836,-0.0728783,19,32765
0.812985,-0.272426,-0.0666256,18,32765
0.84986,-0.287889,-0.0696944,17,32765
0.877189,-0.300416,-0.0720368,18,32765
0.904461,-0.313112,-0.0742381,18,32765
0.80929,-0.283257,-0.066452,17,32765
0.845939,-0.299268,-0.0694717,17,32765
0.844949,-0.302082,-0.069343,18,32765
0.862691,-0.311679,-0.0708544,20,32765
0.833571,-0.30428,-0.0683585,18,32765
0.841895,-0.310562,-0.0690196,18,32765
0.840854,-0.313422,-0.0687774,18,32765
0.830472,-0.312746,-0.0678703,18,32765
0.820099,-0.31202,-0.0669406,18,32765
0.837677,-0.321926,-0.0682727,18,32765
0.808719,-0.313906,-0.0658502,18,32765
0.826243,-0.323915,-0.0670927,18,32765
0.806618,-0.319344,-0.0654713,18,32765
0.814808,-0.325772,-0.0660306,18,32765
0.813726,-0.3285,-0.0658607,18,32765
0.812618,-0.331281,-0.0656105,18,32765
0.811497,-0.334057,-0.0654136,18,32765
0.773525,-0.321549,-0.0621723,18,32765
0.800036,-0.335753,-0.0641273,18,32765
0.789725,-0.334574,-0.0632049,19,32765
0.788611,-0.337251,-0.0628803,18,32765
0.769175,-0.332003,-0.0611887,19,32765
0.786348,-0.342595,-0.0623309,18,32765
0.75781,-0.333226,-0.0598745,18,32765
0.774938,-0.343873,-0.0610121,17,32765
0.764675,-0.342443,-0.0600492,18,32765
0.772609,-0.349161,-0.0605178,18,32765
0.771457,-0.351762,-0.0601508,18,32765
0.770284,-0.354376,-0.0598345,19,32765
0.769111,-0.356959,-0.0595728,19,32765
0.740808,-0.346886,-0.0572083,19,32765
0.75769,-0.357932,-0.0582265,19,32765
0.774492,-0.369109,-0.0593405,20,32765
0.746293,-0.35876,-0.0568997,19,32765
0.763074,-0.369958,-0.0578743,19,32765
0.743916,-0.363767,-0.056241,19,32765
0.742694,-0.366299,-0.0559467,19,32765
0.741444,-0.368873,-0.0556176,18,32765
0.722356,-0.362491,-0.0538723,19,32765
0.75672,-0.383032,-0.0562261,19,32765
0.719877,-0.367483,-0.0532297,19,32765
0.736396,-0.379061,-0.0541632,19,32765
0.717424,-0.372345,-0.0525528,19,32765
0.716183,-0.374774,-0.0522149,19,32765
0.714939,-0.37719,-0.0518714,19,32765
0.72249,-0.384293,-0.0522137,19,32765
0.703621,-0.377306,-0.0505773,19,32765
0.719922,-0.389176,-0.0515227,18,32765
0.683576,-0.372506,-0.0486083,19,32765
0.71733,-0.394031,-0.0507702,18,32765
0.698555,-0.38678,-0.0492201,18,32765
0.714696,-0.39887,-0.0501191,19,32765
0.704676,-0.39638,-0.0491385,19,32765
0.70335,-0.398765,-0.048843,19,32765
0.702035,-0.401116,-0.0485011,18,32765
0.683395,-0.393526,-0.0469856,18,32765
0.6821,-0.395806,-0.0466572,19,32765
0.680789,-0.398086,-0.0464044,18,32765
0.67087,-0.39531,-0.0454222,19,32765
0.695305,-0.412855,-0.0469257,19,32765
0.668222,-0.399835,-0.0448558,19,32765
0.683994,-0.412389,-0.0456911,18,32765
0.682613,-0.414699,-0.045437,19,32765
0.681237,-0.416989,-0.0451184,19,32765
0.679873,-0.419246,-0.0447873,18,32765
0.686983,-0.426758,-0.0450799,19,32765
0.677133,-0.423717,-0.044219,19,32765
0.692641,-0.436596,-0.0450789,20,32765
0.682785,-0.433532,-0.0442098,19,32765
0.672971,-0.430392,-0.0432778,19,32765
0.671541,-0.432642,-0.0430551,19,32765
0.636612,-0.413121,-0.0406939,19,32765
0.6687,-0.437073,-0.042521,19,32765
0.658905,-0.43382,-0.0417595,18,32765
0.624192,-0.413927,-0.0393589,17,32765
0.64772,-0.432666,-0.0407283,16,32765
0.629736,-0.423652,-0.0393982,16,32765
0.669673,-0.453754,-0.0417827,17,32765
0.62694,-0.427823,-0.0389153,16,32765
0.633781,-0.435528,-0.0392059,18,32765
0.632356,-0.437609,-0.0390377,18,32765
0.622765,-0.433928,-0.0383565,19,32765
0.637733,-0.4474,-0.0391192,19,32765
0.660763,-0.466757,-0.0403764,19,32765
0.618558,-0.439956,-0.0377554,18,32765
0.633353,-0.453622,-0.0386144,19,32765
0.631885,-0.455682,-0.038409,19,32765
0.630417,-0.457719,-0.0383024,19,32765
0.628943,-0.459747,-0.038255,19,32765
0.952405,-0.292382,-0.0862412,18,32765
0.884836,-0.274783,-0.0803732,18,32765
0.893411,-0.280688,-0.0814283,17,32765
0.882984,-0.280612,-0.0805984,20,32765
0.910492,-0.292683,-0.0833134,20,32765
0.918965,-0.298847,-0.0842261,18,32765
0.889575,-0.292554,-0.0816616,18,32765
0.888589,-0.295535,-0.0816619,19,32765
0.878169,-0.295297,-0.080738,18,32765
0.877195,-0.298187,-0.080706,18,32765
0.87619,-0.301123,-0.0807242,18,32765
0.894015,-0.310577,-0.0823382,17,32765
0.902353,-0.316933,-0.0831447,17,32765
0.844959,-0.299965,-0.0778762,17,32765
0.872097,-0.312877,-0.0803382,16,32765
0.824217,-0.298818,-0.0759898,17,32765
0.832591,-0.304983,-0.0766671,17,32765
0.850243,-0.314736,-0.0782809,19,32765
0.849188,-0.317633,-0.0780353,19,32765
0.838801,-0.316985,-0.0770323,18,32765
0.84704,-0.323395,-0.0777146,18,32765
0.827371,-0.319075,-0.0758186,18,32765
0.826308,-0.321854,-0.0756676,19,32765
0.825238,-0.32465,-0.0753956,18,32765
0.805632,-0.320067,-0.0735867,18,32765
0.823054,-0.330219,-0.0750821,19,32765
0.79425,-0.321758,-0.0723844,18,32765
0.81161,-0.332026,-0.0738167,19,32765
0.819694,-0.338611,-0.0744556,18,32765
0.800147,-0.333778,-0.0725041,18,32765
0.799029,-0.336502,-0.0722379,18,32765
0.807069,-0.343117,-0.0728777,19,32765
0.778452,-0.33407,-0.0700717,18,32765
0.786484,-0.340661,-0.0706606,19,32765
0.794473,-0.347345,-0.0711631,18,32765
0.775072,-0.342008,-0.0692376,19,32765
0.755727,-0.336521,-0.0673098,19,32765
0.772773,-0.347281,-0.0686828,18,32765
0.771601,-0.349927,-0.0684357,18,32765
0.788575,-0.360827,-0.0696696,19,32765
0.778321,-0.359328,-0.0685481,19,32765
0.777131,-0.361946,-0.0682825,19,32765
0.766892,-0.360359,-0.0672161,19,32765
0.765689,-0.36298,-0.0668338,19,32765
0.782448,-0.37421,-0.06813,20,32765
0.736311,-0.355204,-0.0638475,19,32765
0.744114,-0.362032,-0.0642384,19,32765
0.751858,-0.368943,-0.0647366,19,32765
0.759555,-0.375932,-0.0652051,19,32765
0.749351,-0.374118,-0.0641041,19,32765
0.756987,-0.381206,-0.0644414,19,32765
0.764566,-0.388367,-0.0648885,19,32765
0.736629,-0.37736,-0.0622651,19,32765
0.735371,-0.379868,-0.0618835,19,32765
0.725266,-0.377743,-0.060828,19,32765
0.724006,-0.380206,-0.0604852,19,32765
0.731557,-0.387322,-0.0608701,19,32765
0.730264,-0.389803,-0.0605675,19,32765
0.728967,-0.392282,-0.0601902,19,32765
0.727659,-0.394752,-0.0598664,19,32765
0.735101,-0.402005,-0.0601551,19,32765
0.716294,-0.394858,-0.0583911,19,32765
0.71498,-0.397281,-0.0580707,18,32765
0.722357,-0.40458,-0.0584425,19,32765
0.721018,-0.407016,-0.0580632,19,32765
0.728325,-0.414397,-0.0584554,19,32765
0.700996,-0.401952,-0.056025,19,32765
0.708292,-0.40932,-0.0563857,19,32765
0.715566,-0.416711,-0.0567274,19,32765
0.679765,-0.398912,-0.0537398,19,32765
0.704208,-0.416444,-0.0553648,19,32765
0.694248,-0.413709,-0.0544451,19,32765
0.692863,-0.416071,-0.0540996,19,32765
0.700017,-0.423571,-0.0544438,19,32765
0.673038,-0.410359,-0.0522,19,32765
0.697184,-0.428293,-0.0538548,19,32765
0.661841,-0.409604,-0.0509041,18,32765
0.685904,-0.427633,-0.0525937,19,32765
0.676063,-0.424585,-0.0516391,18,32765
0.657807,-0.416148,-0.0501135,19,32765
0.681694,-0.434417,-0.0517207,19,32765
0.671891,-0.431269,-0.0506951,18,32765
0.670455,-0.433523,-0.0504713,19,32765
0.635577,-0.413961,-0.0477382,18,32765
0.667606,-0.43796,-0.0499352,19,32765
0.641167,-0.423694,-0.0478374,18,32765
0.648084,-0.431356,-0.04816,18,32765
0.679801,-0.455773,-0.0504131,19,32765
0.661767,-0.446849,-0.0488817,19,32765
0.652034,-0.443442,-0.0480672,19,32765
0.658815,-0.451246,-0.0483712,19,32765
0.649131,-0.447738,-0.0475383,19,32765
0.639465,-0.444182,-0.0467649,19,32765
0.662584,-0.463402,-0.0483767,19,32765
0.652943,-0.45979,-0.0475254,19,32765
0.643315,-0.456142,-0.046689,19,32765
0.633712,-0.452435,-0.0459647,19,32765
0.648434,-0.466181,-0.0470039,18,32765
0.63075,-0.456588,-0.0456222,17,32765
0.629276,-0.458629,-0.0455143,17,32765
0.619746,-0.454753,-0.0448826,17,32765
0.913533,-0.278854,-0.0964293,17,32765
0.922181,-0.284798,-0.0968102,17,32765
0.883303,-0.275942,-0.0923682,17,32765
0.901422,-0.284876,-0.0937207,19,32765
0.94791,-0.303044,-0.098139,17,32765
0.842767,-0.272539,-0.0869791,17,32765
0.889208,-0.290796,-0.0913602,19,32765
0.869384,-0.287476,-0.0890482,19,32765
0.87792,-0.293496,-0.0895384,18,32765
0.876992,-0.296399,-0.089069,18,32765
0.847761,-0.289723,-0.0857991,18,32765
0.83742,-0.289316,-0.0844086,18,32765
0.808271,-0.28231,-0.0812367,16,32765
0.854278,-0.301649,-0.0855416,16,32765
0.862672,-0.307877,-0.0860724,16,32765
0.833556,-0.30068,-0.0829233,16,32765
0.841927,-0.306904,-0.0834806,17,32765
0.859608,-0.316643,-0.0849167,18,32765
0.830577,-0.309099,-0.0818507,18,32765
0.820247,-0.308407,-0.080501,18,32765
0.81922,-0.311192,-0.0802324,17,32765
0.818191,-0.314005,-0.0797763,18,32765
0.798562,-0.309625,-0.0776637,18,32765
0.778978,-0.305091,-0.0755834,18,32765
0.833549,-0.329699,-0.0805844,18,32765
0.804716,-0.321422,-0.0775927,18,32765
0.766708,-0.30924,-0.0736873,17,32765
0.784133,-0.319364,-0.0751158,18,32765
0.810697,-0.333437,-0.0773912,17,32765
0.763566,-0.317138,-0.072735,18,32765
0.77168,-0.323631,-0.0732996,18,32765
0.779785,-0.330125,-0.0738444,17,32765
0.760374,-0.324935,-0.0717544,18,32765
0.750136,-0.323592,-0.0705964,18,32765
0.76732,-0.334104,-0.072073,18,32765
0.775317,-0.340754,-0.0725944,19,32765
0.755957,-0.335341,-0.0705401,19,32765
0.754811,-0.337965,-0.0702879,18,32765
0.75367,-0.340574,-0.0699354,18,32765
0.770667,-0.351413,-0.0712824,19,32765
0.778544,-0.358207,-0.071812,19,32765
0.723127,-0.335665,-0.0664544,19,32765
0.776158,-0.363466,-0.0712103,19,32765
0.765935,-0.361839,-0.0701135,19,32765
0.746752,-0.355843,-0.0680927,19,32765
0.745552,-0.358396,-0.0678542,19,32765
0.744343,-0.360957,-0.0675555,19,32765
0.707292,-0.346027,-0.0640556,19,32765
0.750813,-0.370523,-0.067763,19,32765
0.71387,-0.355336,-0.0642404,19,32765
0.75721,-0.380134,-0.0680495,19,32765
0.72927,-0.36921,-0.0651816,18,32765
0.719128,-0.367196,-0.0642057,19,32765
0.717889,-0.369671,-0.0638614,19,32765
0.716647,-0.372116,-0.063612,19,32765
0.72425,-0.379148,-0.0640965,19,32765
0.696554,-0.367607,-0.061463,19,32765
0.695337,-0.369958,-0.0611379,19,32765
0.711673,-0.381748,-0.0623732,19,32765
0.692843,-0.374707,-0.060522,19,32765
0.691578,-0.377079,-0.0602597,19,32765
0.707811,-0.389011,-0.0614298,19,32765
0.706528,-0.391389,-0.0610979,19,32765
0.696537,-0.388881,-0.0600679,18,32765
0.68657,-0.386319,-0.0589845,19,32765
0.702644,-0.398463,-0.0601617,19,32765
0.701317,-0.400841,-0.0598359,19,32765
0.69998,-0.403219,-0.0595251,19,32765
0.681397,-0.395561,-0.0577034,18,32765
0.705921,-0.412954,-0.0595384,19,32765
0.670187,-0.395066,-0.0563169,18,32765
0.668911,-0.397283,-0.0558989,18,32765
0.676159,-0.404645,-0.0563185,19,32765
0.674842,-0.406889,-0.0559398,19,32765
0.673503,-0.409147,-0.0556114,19,32765
0.655157,-0.400965,-0.0538224,18,32765
0.662344,-0.408375,-0.0541359,19,32765
0.694898,-0.431649,-0.0565288,19,32765
0.642753,-0.4022,-0.0519971,19,32765
0.641439,-0.404341,-0.0516138,18,32765
0.673809,-0.427863,-0.0539909,19,32765
0.664026,-0.424711,-0.0528186,19,32765
0.637472,-0.410709,-0.0504645,19,32765
0.669625,-0.434548,-0.052639,19,32765
0.659859,-0.431308,-0.0515689,19,32765
0.683447,-0.449978,-0.0531047,19,32765
0.64041,-0.424661,-0.0493771,19,32765
0.614139,-0.410145,-0.0470557,19,32765
0.654246,-0.439987,-0.0497295,20,32765
0.661092,-0.447735,-0.0499151,19,32765
0.667875,-0.45556,-0.05008,19,32765
0.625253,-0.429534,-0.0464667,19,32765
0.656695,-0.454316,-0.0484659,20,32765
0.655246,-0.456458,-0.0479434,19,32765
0.629286,-0.441378,-0.04566,19,32765
0.619725,-0.437672,-0.0445459,18,32765
0.602049,-0.428137,-0.0428439,17,32765
0.641241,-0.459204,-0.0451798,17,32765
0.623591,-0.449612,-0.0433973,17,32765
0.614083,-0.445785,-0.042173,18,32765
0.612675,-0.447778,-0.0415219,19,32765
0.883821,-0.270812,-0.102085,18,32765
0.873496,-0.270788,-0.100396,17,32765
0.891625,-0.279598,-0.102124,17,32765
0.947617,-0.300607,-0.107975,16,32765
1.06026,-0.34024,-0.120355,13,32765
0.879482,-0.285482,-0.0995563,14,32765
0.888033,-0.291502,-0.100121,19,32765
0.877669,-0.291304,-0.0986832,19,32765
0.923893,-0.310021,-0.103485,19,32765
0.894662,-0.3035,-0.0998372,18,32765
0.865447,-0.29687,-0.0962785,19,32765
0.87389,-0.303039,-0.0968677,19,32765
0.844734,-0.296142,-0.0934004,19,32765
0.843759,-0.29904,-0.0929863,18,32765
0.842786,-0.301894,-0.0925855,18,32765
0.85114,-0.308159,-0.0932636,19,32765
0.850133,-0.311041,-0.0928843,19,32765
0.849115,-0.313932,-0.0924694,19,32765
0.83877,-0.313299,-0.0911522,19,32765
0.819132,-0.309122,-0.0886961,19,32765
0.827399,-0.315456,-0.0894316,19,32765
0.826357,-0.318305,-0.0889699,18,32765
0.825285,-0.321162,-0.0886592,17,32765
0.796427,-0.31307,-0.0853892,17,32765
0.82315,-0.32678,-0.0879739,17,32765
0.831311,-0.333263,-0.0886456,17,32765
0.793316,-0.321144,-0.084355,17,32765
0.792252,-0.323853,-0.0840032,18,32765
0.791164,-0.326595,-0.0836353,18,32765
0.808427,-0.336999,-0.0853049,18,32765
0.798113,-0.335942,-0.0840119,19,32765
0.797004,-0.338649,-0.0836757,19,32765
0.795887,-0.341355,-0.0833056,18,32765
0.785608,-0.340133,-0.0820395,18,32765
0.793587,-0.346806,-0.0827385,19,32765
0.755987,-0.333474,-0.0786051,18,32765
0.782151,-0.34823,-0.0810868,19,32765
0.78096,-0.350953,-0.0808246,19,32765
0.770709,-0.349548,-0.0795231,18,32765
0.796703,-0.364614,-0.0819788,19,32765
0.786443,-0.363165,-0.0807338,19,32765
0.749141,-0.349013,-0.0766607,19,32765
0.775011,-0.364258,-0.0792025,19,32765
0.773796,-0.366892,-0.0789297,19,32765
0.763607,-0.365209,-0.0776312,19,32765
0.753406,-0.363499,-0.0764755,19,32765
0.770087,-0.374812,-0.0779861,19,32765
0.7688,-0.377499,-0.0777192,19,32765
0.749674,-0.37132,-0.0755642,19,32765
0.748421,-0.373903,-0.0752528,20,32765
0.747155,-0.376466,-0.0750483,19,32765
0.754789,-0.383536,-0.0754579,20,32765
0.753474,-0.386151,-0.0752669,20,32765
0.743322,-0.384178,-0.0740234,19,32765
0.74203,-0.386717,-0.0737638,19,32765
0.723115,-0.379951,-0.0717058,19,32765
0.73067,-0.387037,-0.0722763,19,32765
0.694237,-0.370739,-0.0684672,18,32765
0.719314,-0.387275,-0.0707501,19,32765
0.718005,-0.389755,-0.0704263,19,32765
0.725429,-0.397003,-0.0710085,19,32765
0.715395,-0.394639,-0.0697924,19,32765
0.705384,-0.392207,-0.0686084,19,32765
0.704096,-0.394563,-0.0683284,19,32765
0.702801,-0.396925,-0.0679865,19,32765
0.692829,-0.394362,-0.0668342,19,32765
0.682872,-0.391755,-0.0656801,19,32765
0.707446,-0.409042,-0.0678587,19,32765
0.680261,-0.396379,-0.0650233,19,32765
0.696145,-0.40876,-0.0663166,19,32765
0.660482,-0.390805,-0.0627277,18,32765
0.684904,-0.408308,-0.0647423,18,32765
0.6921,-0.415742,-0.065246,19,32765
0.699275,-0.423207,-0.0656576,19,32765
0.68937,-0.420364,-0.0645192,19,32765
0.671017,-0.412221,-0.0625343,18,32765
0.669676,-0.414454,-0.0621431,19,32765
0.676772,-0.421979,-0.0625549,18,32765
0.675402,-0.424229,-0.0621379,18,32765
0.674017,-0.426486,-0.0617336,19,32765
0.672623,-0.42873,-0.0613932,18,32765
0.662853,-0.425571,-0.0601277,19,32765
0.686578,-0.44403,-0.0620343,19,32765
0.668431,-0.435425,-0.060039,19,32765
0.667016,-0.437648,-0.0596208,19,32765
0.657258,-0.434388,-0.0584676,19,32765
0.639254,-0.425515,-0.0564973,19,32765
0.654446,-0.438736,-0.0575394,19,32765
0.661322,-0.44645,-0.0577552,19,32765
0.659883,-0.448631,-0.0573105,19,32765
0.666649,-0.45647,-0.0575669,19,32765
0.656949,-0.453043,-0.0563062,19,32765
0.663673,-0.460912,-0.0565572,19,32765
0.654029,-0.457367,-0.0553357,19,32765
0.652584,-0.459486,-0.0548306,19,32765
0.642982,-0.455852,-0.0536028,19,32765
0.6334,-0.452175,-0.0523654,19,32765
0.631931,-0.45429,-0.0518128,19,32765
0.630496,-0.456352,-0.0511654,19,32765
0.653243,-0.476052,-0.0524286,19,32765
0.643696,-0.472276,-0.0510955,20,32765
0.941492,-0.287672,-0.104581,18,32765
0.931021,-0.287865,-0.103607,17,32765
0.854122,-0.267221,-0.0952297,17,32765
0.957516,-0.303048,-0.106888,17,32765
1.0512,-0.33657,-0.117443,13,32765
0.889238,-0.288043,-0.0994315,15,32765
0.888272,-0.291029,-0.0993734,19,32765
0.896743,-0.297122,-0.10035,19,32765
0.839187,-0.281146,-0.0939282,17,32765
0.866515,-0.293484,-0.0970528,18,32765
0.856144,-0.293126,-0.095889,18,32765
0.845785,-0.292725,-0.0946596,18,32765
0.82603,-0.288995,-0.0925021,17,32765
0.825075,-0.291781,-0.092278,18,32765
0.852187,-0.304606,-0.0953586,18,32765
0.860492,-0.310928,-0.0963146,18,32765
0.812746,-0.296805,-0.0908356,18,32765
0.802417,-0.296133,-0.0896256,18,32765
0.829387,-0.309262,-0.0925939,18,32765
0.828371,-0.312026,-0.0924168,19,32765
0.818046,-0.311269,-0.0911691,18,32765
0.817014,-0.31402,-0.0909894,18,32765
0.806693,-0.313192,-0.0897587,17,32765
0.833419,-0.326851,-0.0926306,17,32765
0.795332,-0.315032,-0.0883287,16,32765
0.785025,-0.314096,-0.0870589,15,32765
0.830088,-0.335401,-0.0919742,16,32765
0.773702,-0.315685,-0.0856059,16,32765
0.781852,-0.322094,-0.0863872,18,32765
0.799167,-0.332342,-0.0882067,18,32765
0.798074,-0.335021,-0.0879692,18,32765
0.769493,-0.32604,-0.0847301,19,32765
0.740966,-0.316929,-0.0813935,18,32765
0.776438,-0.33526,-0.0851187,18,32765
0.775303,-0.337946,-0.0848371,18,32765
0.76506,-0.336608,-0.0835315,18,32765
0.77304,-0.343227,-0.0842847,19,32765
0.76283,-0.341754,-0.0830308,19,32765
0.761685,-0.344357,-0.0827875,19,32765
0.769607,-0.35106,-0.0834408,18,32765
0.77747,-0.357864,-0.0841075,19,32765
0.758212,-0.352149,-0.0818921,19,32765
0.757037,-0.354754,-0.0815196,19,32765
0.746839,-0.353102,-0.0803191,18,32765
0.763646,-0.364195,-0.0818923,19,32765
0.735511,-0.353866,-0.0787547,19,32765
0.770177,-0.373721,-0.0822212,19,32765
0.742116,-0.363204,-0.0790427,20,32765
0.740902,-0.365727,-0.0787961,20,32765
0.730779,-0.363814,-0.077469,19,32765
0.747342,-0.375272,-0.0790602,20,32765
0.719425,-0.364362,-0.0759508,20,32765
0.727063,-0.371381,-0.0765238,19,32765
0.725803,-0.373895,-0.0762406,19,32765
0.742237,-0.38554,-0.077738,19,32765
0.732119,-0.383474,-0.0764808,19,32765
0.72204,-0.381301,-0.0752876,19,32765
0.685628,-0.365031,-0.0711736,18,32765
0.719494,-0.386217,-0.074593,19,32765
0.674432,-0.364937,-0.0697302,18,32765
0.699448,-0.381542,-0.072095,19,32765
0.706922,-0.388687,-0.0726848,19,32765
0.688223,-0.381399,-0.0705938,19,32765
0.695646,-0.388597,-0.0711973,19,32765
0.694361,-0.390954,-0.0708372,19,32765
0.684381,-0.38842,-0.0696591,19,32765
0.700391,-0.400617,-0.0711177,19,32765
0.664546,-0.383082,-0.0672818,19,32765
0.646049,-0.375323,-0.0652209,19,32765
0.68781,-0.402644,-0.06925,19,32765
0.686452,-0.404993,-0.0690214,19,32765
0.667984,-0.397135,-0.0669474,19,32765
0.658114,-0.394279,-0.0657988,19,32765
0.673862,-0.406811,-0.067187,19,32765
0.64698,-0.39355,-0.0643037,19,32765
0.645674,-0.395741,-0.063987,19,32765
0.669813,-0.413604,-0.0661967,19,32765
0.659986,-0.410586,-0.0650986,18,32765
0.650192,-0.407511,-0.0639134,18,32765
0.674148,-0.425619,-0.0661238,19,32765
0.647512,-0.41185,-0.0633142,19,32765
0.654562,-0.419376,-0.0638219,19,32765
0.644818,-0.416139,-0.0627481,19,32765
0.61838,-0.401999,-0.0600227,19,32765
0.65042,-0.425889,-0.0630211,19,32765
0.632379,-0.417091,-0.061094,18,32765
0.647609,-0.430242,-0.0624054,19,32765
0.646222,-0.432366,-0.0621019,18,32765
0.6448,-0.434523,-0.0618303,18,32765
0.643382,-0.436653,-0.0615877,19,32765
0.658413,-0.450043,-0.0628763,19,32765
0.632309,-0.435268,-0.0602247,19,32765
0.647268,-0.448732,-0.0615121,20,32765
0.65397,-0.456588,-0.062049,19,32765
0.636202,-0.447237,-0.0602125,20,32765
0.61847,-0.437813,-0.058437,20,32765
0.649525,-0.46298,-0.0613697,20,32765
0.631844,-0.453466,-0.0595095,19,32765
0.622295,-0.449689,-0.05856,19,32765
0.620848,-0.451703,-0.0584139,19,32765
0.635464,-0.465535,-0.0596884,20,32765
0.883219,-0.270915,-0.106905,16,32765
0.882301,-0.27386,-0.106983,16,32765
1.00457,-0.315509,-0.12203,16,32765
1.06979,-0.339894,-0.130109,13,32765
0.926789,-0.297885,-0.112812,13,32765
0.87854,-0.285679,-0.107031,19,32765
0.905888,-0.297949,-0.110423,19,32765
0.904895,-0.300982,-0.110341,19,32765
0.866236,-0.291329,-0.105655,18,32765
0.865272,-0.294195,-0.105613,19,32765
0.864305,-0.297062,-0.105502,19,32765
0.853946,-0.296688,-0.104176,18,32765
0.852949,-0.299563,-0.10412,18,32765
0.870682,-0.309096,-0.10617,18,32765
0.86964,-0.312041,-0.106103,19,32765
0.849886,-0.308277,-0.103729,19,32765
0.839529,-0.307765,-0.102335,18,32765
0.857125,-0.317538,-0.104431,19,32765
0.856066,-0.320436,-0.104266,19,32765
0.827131,-0.312755,-0.100688,19,32765
0.835381,-0.319085,-0.101605,18,32765
0.843592,-0.325479,-0.102547,19,32765
0.805471,-0.313917,-0.0978419,18,32765
0.804413,-0.316685,-0.0976252,18,32765
0.831052,-0.330443,-0.100797,19,32765
0.820706,-0.32963,-0.0994221,19,32765
0.810391,-0.328697,-0.0981027,18,32765
0.827684,-0.339004,-0.100078,19,32765
0.799006,-0.330422,-0.0964976,19,32765
0.816264,-0.340752,-0.098497,19,32765
0.778506,-0.328058,-0.0938374,18,32765
0.786575,-0.334554,-0.0947298,18,32765
0.758064,-0.325483,-0.0911064,18,32765
0.802568,-0.347869,-0.0962892,16,32765
0.783177,-0.342685,-0.0938151,16,32765
0.745652,-0.329325,-0.0891506,16,32765
0.753641,-0.335894,-0.0900014,15,32765
0.770669,-0.346588,-0.0919038,16,32765
0.760454,-0.345117,-0.0905783,16,32765
0.7322,-0.335276,-0.087026,17,32765
0.767177,-0.354479,-0.0910115,18,32765
0.765982,-0.357121,-0.090748,19,32765
0.755793,-0.355528,-0.0893071,19,32765
0.763573,-0.362398,-0.0901338,18,32765
0.762382,-0.364987,-0.0897708,19,32765
0.743243,-0.358957,-0.0874073,19,32765
0.759951,-0.370174,-0.0891419,19,32765
0.758724,-0.372758,-0.0888232,19,32765
0.7753,-0.384177,-0.0906537,19,32765
0.756235,-0.377934,-0.0881774,19,32765
0.737192,-0.371598,-0.0858069,19,32765
0.753665,-0.383172,-0.0875737,19,32765
0.708115,-0.363095,-0.0820658,19,32765
0.733391,-0.379259,-0.0848555,19,32765
0.732134,-0.381759,-0.0844969,19,32765
0.73085,-0.384285,-0.0841642,19,32765
0.738362,-0.391425,-0.0848989,19,32765
0.745853,-0.398629,-0.0854278,20,32765
0.709472,-0.382309,-0.081179,19,32765
0.708216,-0.3847,-0.0808474,19,32765
0.706937,-0.38712,-0.0804901,19,32765
0.705664,-0.389499,-0.0801778,20,32765
0.704385,-0.39187,-0.0798731,19,32765
0.703076,-0.394273,-0.0795784,19,32765
0.701772,-0.396663,-0.0792129,19,32765
0.691788,-0.394151,-0.0779376,19,32765
0.707747,-0.406401,-0.0795764,19,32765
0.671945,-0.388858,-0.0753656,19,32765
0.687852,-0.401168,-0.076963,19,32765
0.712285,-0.418601,-0.0795171,19,32765
0.685178,-0.405824,-0.0764133,19,32765
0.683834,-0.408151,-0.076055,19,32765
0.665412,-0.400215,-0.0738586,19,32765
0.655566,-0.39732,-0.072598,19,32765
0.654253,-0.399539,-0.0722608,19,32765
0.644446,-0.396545,-0.0710047,18,32765
0.668533,-0.414442,-0.0734905,19,32765
0.667163,-0.416691,-0.0732259,18,32765
0.64051,-0.40303,-0.0700982,19,32765
0.67284,-0.426477,-0.0735067,19,32765
0.663035,-0.423397,-0.0722484,19,32765
0.661654,-0.425605,-0.0719288,19,32765
0.651906,-0.422388,-0.0707583,19,32765
0.642176,-0.419132,-0.0695581,19,32765
0.657447,-0.432211,-0.0711144,19,32765
0.656025,-0.434419,-0.0707899,18,32765
0.646306,-0.431098,-0.0695964,19,32765
0.653183,-0.438778,-0.0701802,18,32765
0.626988,-0.424221,-0.0672494,18,32765
0.642066,-0.437517,-0.0687753,19,32765
0.657059,-0.450932,-0.0702471,18,32765
0.622806,-0.430462,-0.0664438,19,32765
0.654097,-0.455307,-0.0696592,19,32765
0.668916,-0.468923,-0.0711517,19,32765
0.643003,-0.453859,-0.0682585,19,32765
0.649643,-0.461758,-0.0688774,18,32765
0.623836,-0.446489,-0.0661556,19,32765
0.638574,-0.460176,-0.0675427,19,32765
0.629017,-0.456416,-0.0664973,19,32765
0.611455,-0.446703,-0.0646467,19,32765
0.634076,-0.466439,-0.0669546,19,32765
0,-0,-0,0,32765
1.09929,-0.339513,-0.147988,12,32765
1.02248,-0.319518,-0.137248,12,32765
0.889077,-0.281054,-0.118957,14,32765
0.869297,-0.277976,-0.11598,18,32765
0.887281,-0.28705,-0.118041,18,32765
0.895792,-0.293142,-0.118844,18,32765
0.875995,-0.289968,-0.115984,18,32765
0.846838,-0.283502,-0.11177,17,32765
0.892924,-0.302264,-0.117568,18,32765
0.873166,-0.298861,-0.11473,18,32765
0.862812,-0.298571,-0.113186,17,32765
0.824369,-0.288401,-0.107894,17,32765
0.832779,-0.294517,-0.108809,18,32765
0.831826,-0.297335,-0.108429,18,32765
0.821516,-0.296806,-0.106853,17,32765
0.82987,-0.303006,-0.107719,18,32765
0.856827,-0.316097,-0.11104,18,32765
0.818576,-0.305135,-0.105948,17,32765
0.799011,-0.30089,-0.103185,18,32765
0.807295,-0.307176,-0.104006,18,32765
0.797003,-0.306385,-0.10254,18,32765
0.823753,-0.319896,-0.105819,18,32765
0.813449,-0.319099,-0.104289,18,32765
0.803194,-0.31817,-0.102697,18,32765
0.811352,-0.324606,-0.103629,18,32765
0.801087,-0.32361,-0.102156,18,32765
0.790827,-0.322565,-0.100721,19,32765
0.7714,-0.317708,-0.0979987,18,32765
0.761155,-0.316585,-0.0965208,18,32765
0.760059,-0.319288,-0.0962547,18,32765
0.758982,-0.321926,-0.0959675,18,32765
0.739637,-0.316728,-0.0933844,18,32765
0.747705,-0.323203,-0.094216,16,32765
0.728429,-0.317801,-0.0916183,16,32765
0.781922,-0.344319,-0.0981943,15,32765
0.762624,-0.338926,-0.0955758,15,32765
0.725223,-0.325276,-0.0908156,15,32765
0.796573,-0.360516,-0.0994998,15,32765
0.750177,-0.342609,-0.0935611,17,32765
0.730973,-0.336888,-0.0910211,17,32765
0.738866,-0.343581,-0.0918147,19,32765
0.755707,-0.354549,-0.0938238,19,32765
0.736572,-0.348618,-0.0912516,19,32765
0.726457,-0.34684,-0.0897928,19,32765
0.75215,-0.362296,-0.092804,20,32765
0.742004,-0.360526,-0.0913877,19,32765
0.749722,-0.367449,-0.0921841,19,32765
0.739579,-0.365629,-0.0907702,19,32765
0.720578,-0.359284,-0.088216,19,32765
0.728246,-0.366245,-0.0890094,18,32765
0.718171,-0.36422,-0.0876027,19,32765
0.725796,-0.37124,-0.0883241,18,32765
0.706874,-0.364628,-0.0858787,18,32765
0.705659,-0.367054,-0.0855335,19,32765
0.713233,-0.3741,-0.0862983,19,32765
0.712016,-0.376501,-0.0859044,19,32765
0.693234,-0.369539,-0.0834708,19,32765
0.700783,-0.376584,-0.0841882,19,32765
0.708299,-0.383673,-0.0849017,19,32765
0.689574,-0.376555,-0.0824231,19,32765
0.705753,-0.388499,-0.0841555,19,32765
0.695779,-0.386066,-0.0827316,19,32765
0.677153,-0.378705,-0.0802893,19,32765
0.675926,-0.380977,-0.0798824,19,32765
0.683304,-0.388202,-0.0805888,19,32765
0.664762,-0.380645,-0.0781074,19,32765
0.663494,-0.382915,-0.0777936,19,32765
0.688032,-0.400197,-0.0803379,19,32765
0.660973,-0.387421,-0.0769431,19,32765
0.676837,-0.399785,-0.0785092,19,32765
0.666974,-0.396986,-0.0771222,19,32765
0.665679,-0.399231,-0.076719,19,32765
0.647341,-0.391181,-0.074346,19,32765
0.688571,-0.419229,-0.0788464,19,32765
0.653273,-0.400729,-0.0745045,19,32765
0.626569,-0.387229,-0.0711688,19,32765
0.633772,-0.394583,-0.0716787,19,32765
0.666219,-0.41787,-0.0750796,19,32765
0.673309,-0.425369,-0.0756097,19,32765
0.613151,-0.390189,-0.0685455,18,32765
0.653811,-0.41908,-0.0728265,19,32765
0.660834,-0.426655,-0.0732408,19,32765
0.634413,-0.412573,-0.0700329,19,32765
0.624755,-0.409236,-0.0686084,19,32765
0.656676,-0.433265,-0.0718186,19,32765
0.613806,-0.407899,-0.0667877,18,32765
0.620757,-0.415506,-0.0671985,19,32765
0.644178,-0.434299,-0.0694203,19,32765
0.64281,-0.43642,-0.0687993,19,32765
0.608504,-0.416076,-0.0648316,18,32765
0.640002,-0.440678,-0.0678215,19,32765
0.646798,-0.448446,-0.0681803,19,32765
0.629039,-0.439157,-0.0659605,18,32765
0.635814,-0.446944,-0.066191,19,32765
0.618105,-0.437556,-0.0639545,20,32765
0.649179,-0.462729,-0.0667034,19,32765
0.615329,-0.441612,-0.0628465,20,32765
0.613923,-0.443655,-0.0621938,19,32765
0.628614,-0.457434,-0.0632305,19,32765
0.635187,-0.465434,-0.063316,19,32765
0,-0,-0,0,32765
0.860981,-0.267025,-0.124538,18,32765
0.916859,-0.287706,-0.132269,19,32765
0.887641,-0.281767,-0.127679,18,32765
0.877324,-0.281707,-0.125869,18,32765
0.866996,-0.281648,-0.124065,17,32765
0.847268,-0.278407,-0.120938,16,32765
0.846358,-0.281312,-0.120591,15,32765
0.995762,-0.334729,-0.141473,15,32765
0.910235,-0.309388,-0.12904,15,32765
0.843617,-0.28993,-0.119376,15,32765
0.814582,-0.283034,-0.115103,16,32765
0.823014,-0.289102,-0.116054,17,32765
0.850089,-0.301865,-0.119692,18,32765
0.830452,-0.298052,-0.11668,18,32765
0.829476,-0.300899,-0.116318,18,32765
0.837801,-0.307143,-0.117272,19,32765
0.846102,-0.313406,-0.118268,18,32765
0.826495,-0.309335,-0.115401,18,32765
0.825498,-0.312122,-0.115033,18,32765
0.824467,-0.314977,-0.114644,18,32765
0.832668,-0.321387,-0.115649,19,32765
0.813121,-0.317041,-0.112783,18,32765
0.830527,-0.327111,-0.114997,19,32765
0.811046,-0.322574,-0.112029,18,32765
0.809968,-0.325356,-0.11178,18,32765
0.827293,-0.33554,-0.114014,19,32765
0.789469,-0.323305,-0.108685,19,32765
0.797575,-0.329807,-0.109555,19,32765
0.805614,-0.336422,-0.110483,19,32765
0.786166,-0.33158,-0.107695,19,32765
0.794175,-0.338204,-0.108646,19,32765
0.765691,-0.3292,-0.104618,18,32765
0.782804,-0.339732,-0.106771,19,32765
0.754416,-0.330457,-0.102735,18,32765
0.789618,-0.349102,-0.107386,19,32765
0.788461,-0.351812,-0.107038,19,32765
0.769179,-0.346373,-0.104355,19,32765
0.795151,-0.361315,-0.10764,20,32765
0.766877,-0.351639,-0.103677,19,32765
0.774699,-0.358471,-0.104593,19,32765
0.782504,-0.365331,-0.105458,19,32765
0.745357,-0.351094,-0.100381,18,32765
0.762131,-0.362161,-0.102448,17,32765
0.743035,-0.356177,-0.099682,16,32765
0.732896,-0.354437,-0.0981732,15,32765
0.785255,-0.383071,-0.105025,14,32765
0.757246,-0.372626,-0.101136,15,32765
0.729313,-0.362001,-0.0972527,16,32765
0.728117,-0.3645,-0.0968804,17,32765
0.709156,-0.358077,-0.094228,18,32765
0.743372,-0.378516,-0.0986054,19,32765
0.742098,-0.381104,-0.0982356,19,32765
0.714356,-0.36997,-0.0944315,19,32765
0.721927,-0.377027,-0.0952425,18,32765
0.703085,-0.370262,-0.092618,19,32765
0.728201,-0.386611,-0.0956868,19,32765
0.709419,-0.379691,-0.0930597,19,32765
0.72566,-0.391525,-0.0950047,19,32765
0.706927,-0.384475,-0.0923757,19,32765
0.714369,-0.39167,-0.0931186,19,32765
0.721767,-0.39892,-0.0938901,19,32765
0.703096,-0.391704,-0.0912372,19,32765
0.701814,-0.394086,-0.0908479,19,32765
0.700537,-0.396448,-0.0904247,19,32765
0.707847,-0.403774,-0.0912101,19,32765
0.672056,-0.386382,-0.0863133,19,32765
0.670768,-0.388685,-0.0859945,19,32765
0.695236,-0.40603,-0.0888085,19,32765
0.668209,-0.393255,-0.0851314,18,32765
0.69257,-0.410742,-0.0879615,19,32765
0.665621,-0.397794,-0.0843096,19,32765
0.681358,-0.410299,-0.086057,19,32765
