x, y, z, intensity, ring
1.04759,0.0107235,0.161394,14,32765
1.01794,0.00711128,0.156999,14,32765
1.03769,0.003833,0.160263,14,32765
0.988237,0.000380853,0.152927,14,32765
1.02775,-0.00295316,0.159125,14,32765
1.0178,-0.0061976,0.157957,13,32765
0.968341,-0.00904996,0.150444,15,32765
0.928718,-0.0116564,0.144733,15,32765
2.29319,0.747904,0.368113,18,32765
2.29544,0.740712,0.368657,19,32765
2.28836,0.730393,0.367185,18,32765
2.27179,0.717145,0.36438,18,32765
2.28353,0.712642,0.366129,18,32765
2.29528,0.7081,0.36768,18,32765
2.29756,0.700718,0.367589,18,32765
2.28086,0.687698,0.364512,18,32765
2.31147,0.688897,0.36895,18,32765
2.22836,0.656299,0.355218,17,32765
2.2874,0.665681,0.364355,18,32765
2.26109,0.650001,0.35969,18,32765
2.2347,0.634492,0.355005,18,32765
2.26537,0.635094,0.359354,18,32765
2.27702,0.630309,0.360525,18,32765
2.25049,0.615041,0.355845,18,32765
2.28113,0.615486,0.360147,14,32765
2.24498,0.597848,0.353781,17,32765
2.23741,0.587972,0.35198,18,32765
2.22025,0.575597,0.348692,18,32765
2.21259,0.565891,0.346835,18,32765
2.24323,0.565905,0.351128,18,32765
2.24513,0.558503,0.350804,18,32765
2.21818,0.544122,0.345994,18,32765
2.22961,0.539135,0.347213,18,32765
2.25069,0.536286,0.349872,18,32765
2.1851,0.513021,0.339203,18,32765
2.22539,0.51459,0.34488,17,32765
2.21751,0.505063,0.342866,18,32765
2.22885,0.49999,0.343998,18,32765
2.2402,0.494885,0.344959,18,32765
2.21292,0.481128,0.339999,19,32765
2.17585,0.465471,0.333924,18,32765
2.24519,0.472441,0.343997,18,32765
2.15003,0.444863,0.328426,18,32765
2.19025,0.445781,0.334198,18,32765
2.18204,0.436723,0.332358,18,32765
2.19326,0.43145,0.333272,19,32765
2.14614,0.414812,0.325723,18,32765
2.1476,0.40761,0.32521,18,32765
2.18794,0.407638,0.330532,18,32765
2.16013,0.395011,0.325874,18,32765
2.16147,0.387863,0.325562,19,32765
2.19205,0.385809,0.329467,18,32765
2.17391,0.375138,0.326021,18,32765
2.18494,0.369591,0.327154,19,32765
2.1472,0.355909,0.320691,18,32765
2.13864,0.347284,0.318906,19,32765
2.18869,0.348067,0.325701,19,32765
2.141,0.333246,0.318074,18,32765
2.15195,0.32759,0.319059,18,32765
2.15309,0.320391,0.318697,18,32765
2.17376,0.31596,0.321449,18,32765
2.14551,0.304461,0.316499,19,32765
2.13674,0.295856,0.314977,19,32765
2.1476,0.290107,0.31586,18,32765
2.1388,0.281711,0.313984,19,32765
2.13972,0.274815,0.313836,18,32765
2.15044,0.269055,0.315173,19,32765
2.14159,0.260811,0.312996,19,32765
2.15226,0.255065,0.314356,19,32765
2.1335,0.245613,0.311039,19,32765
2.11463,0.236443,0.308132,18,32765
2.12527,0.230534,0.309342,18,32765
2.09657,0.220375,0.304496,19,32765
2.10713,0.214534,0.305873,19,32765
1.98969,0.195931,0.288345,14,32765
0,0,0,0,32765
0,0,0,12,32765
1.30145,0.115136,0.188041,14,32765
1.30183,0.110892,0.188026,14,32765
1.25287,0.102574,0.180805,15,32765
1.18415,0.0930197,0.170724,15,32765
1.18445,0.0892048,0.170647,15,32765
1.20448,0.0867377,0.173515,15,32765
1.20477,0.0828759,0.173381,16,32765
1.18527,0.0776448,0.170586,16,32765
1.15589,0.071961,0.166246,15,32765
1.14623,0.0676092,0.164857,16,32765
1.14648,0.063817,0.164638,15,32765
1.11701,0.0585646,0.160475,16,32765
1.14686,0.0563352,0.164726,16,32765
1.0877,0.0498907,0.156296,16,32765
1.07797,0.0458964,0.154862,16,32765
1.04843,0.0411994,0.150651,17,32765
1.06834,0.0385347,0.153526,15,32765
1.07833,0.0353638,0.155064,15,32765
1.06854,0.0315629,0.153712,15,32765
1.06863,0.0280388,0.153765,15,32765
1.04892,0.0240582,0.150985,15,32765
1.01928,0.0200724,0.14682,16,32765
1.01933,0.0168124,0.14689,15,32765
1.01936,0.0135869,0.147033,15,32765
0.999579,0.0101267,0.144358,15,32765
0.950098,0.00653207,0.137373,15,32765
0.979776,0.00350512,0.14187,15,32765
0.999532,0.000263356,0.145035,15,32765
0.959932,-0.00288043,0.139366,15,32765
0.940077,-0.00584911,0.136828,15,32765
0.930136,-0.00882136,0.135536,14,32765
0.959722,-0.0121834,0.140305,13,32765
2.39612,0.778519,0.393711,17,32765
2.39879,0.771014,0.392225,17,32765
2.34501,0.745313,0.381469,16,32765
2.36649,0.743735,0.383003,17,32765
2.35032,0.730081,0.378235,16,32765
2.30556,0.708032,0.369694,16,32765
2.3742,0.720739,0.379241,17,32765
2.33884,0.701766,0.371853,16,32765
2.33174,0.691484,0.369402,16,32765
2.33415,0.683915,0.368255,16,32765
2.32705,0.673552,0.365591,17,32765
2.31991,0.663209,0.363022,16,32765
2.27462,0.642131,0.354814,16,32765
2.38164,0.663925,0.370152,17,32765
2.33628,0.642989,0.361735,16,32765
2.30988,0.627638,0.356297,16,32765
2.39798,0.643203,0.368922,13,32765
2.32371,0.615125,0.356206,16,32765
2.33536,0.610072,0.357075,17,32765
2.35666,0.607362,0.359,17,32765
2.28203,0.580182,0.346594,16,32765
2.30322,0.577552,0.348751,17,32765
2.26684,0.560397,0.342022,16,32765
2.27835,0.555322,0.342964,16,32765
2.2899,0.550112,0.343702,16,32765
2.29176,0.542649,0.343175,16,32765
2.28396,0.532996,0.341086,17,32765
2.28582,0.525472,0.34032,17,32765
2.2393,0.507158,0.332727,18,32765
2.22171,0.495511,0.329385,17,32765
2.25243,0.494548,0.332984,17,32765
2.31218,0.499594,0.341055,17,32765
2.25589,0.479341,0.331828,18,32765
2.26722,0.473818,0.332866,17,32765
2.23006,0.458395,0.326687,18,32765
2.27038,0.459091,0.331949,18,32765
2.2137,0.440179,0.322763,17,32765
2.25402,0.44057,0.328145,17,32765
2.20694,0.42384,0.320433,17,32765
2.23756,0.422001,0.324398,16,32765
2.25842,0.418207,0.327154,17,32765
2.23066,0.405426,0.322283,17,32765
2.2613,0.403219,0.326075,18,32765
2.23343,0.390623,0.321443,17,32765
2.22501,0.381541,0.319643,17,32765
2.2458,0.377488,0.322328,17,32765
2.21776,0.365328,0.31775,17,32765
2.22879,0.359558,0.3188,18,32765
2.22023,0.35072,0.316986,18,32765
2.25078,0.347937,0.320851,18,32765
2.21281,0.334473,0.314929,18,32765
2.21394,0.32709,0.314737,16,32765
2.23468,0.322416,0.317278,17,32765
2.26522,0.319125,0.320995,17,32765
2.22706,0.306133,0.315238,16,32765
2.19866,0.294765,0.310783,17,32765
2.20948,0.288779,0.311951,18,32765
2.24976,0.286441,0.317194,17,32765
2.22125,0.275356,0.312751,17,32765
2.16319,0.260956,0.30419,17,32765
2.23294,0.261934,0.313504,17,32765
2.19445,0.250178,0.307703,17,32765
2.20517,0.243968,0.308722,18,32765
2.19614,0.235654,0.307155,18,32765
2.1674,0.225264,0.302708,18,32765
2.1879,0.220081,0.305053,17,32765
2.07034,0.201347,0.288377,13,32765
0,0,0,0,32765
0,0,0,0,32765
1.42108,0.123855,0.196982,13,32765
1.3524,0.113399,0.187204,14,32765
1.28366,0.10343,0.177536,15,32765
1.28403,0.0992273,0.177256,15,32765
1.24484,0.0921387,0.171714,15,32765
1.24518,0.0880485,0.171407,15,32765
1.28502,0.0866013,0.176733,15,32765
1.25567,0.0804309,0.172381,15,32765
1.2362,0.0750537,0.169373,15,32765
1.20679,0.0693234,0.165093,16,32765
1.20705,0.065381,0.164819,15,32765
1.20726,0.0615055,0.164759,15,32765
1.17778,0.0562261,0.160556,16,32765
1.21759,0.0541841,0.165671,16,32765
1.16827,0.0482008,0.158789,15,32765
1.19818,0.0455033,0.16245,15,32765
1.13893,0.0395465,0.154185,16,32765
1.13909,0.035832,0.153946,15,32765
1.17887,0.0331807,0.158946,15,32765
1.11956,0.0279088,0.150684,14,32765
1.11968,0.0242357,0.150401,15,32765
1.09007,0.0200331,0.14614,14,32765
1.12979,0.0171198,0.151298,14,32765
1.09023,0.0129611,0.145681,14,32765
1.06058,0.00921342,0.141402,14,32765
1.05073,0.00576814,0.139732,14,32765
1.03097,0.00240939,0.136726,15,32765
1.05085,-0.000876832,0.138967,14,32765
1.02114,-0.00415393,0.134709,14,32765
0.9716,-0.00706176,0.127845,15,32765
1.00138,-0.010497,0.131292,15,32765
0.981564,-0.0133253,0.128273,15,32765
2.2487,0.731595,0.346735,18,32765
2.28887,0.736665,0.35112,18,32765
2.27261,0.723263,0.346749,18,32765
2.25626,0.710036,0.342412,18,32765
2.27774,0.708474,0.343613,18,32765
2.2423,0.689516,0.33699,18,32765
2.25412,0.685192,0.337406,18,32765
2.26598,0.680803,0.33752,17,32765
2.26829,0.673552,0.336601,18,32765
2.24213,0.657814,0.331273,18,32765
2.23492,0.647731,0.328748,18,32765
2.26575,0.64857,0.331892,18,32765
2.21081,0.624929,0.322778,18,32765
2.20343,0.615043,0.320468,18,32765
2.23423,0.615694,0.323659,18,32765
2.21724,0.603241,0.319924,18,32765
2.22884,0.5986,0.320721,18,32765
2.24049,0.593851,0.321175,16,32765
2.27124,0.594075,0.324711,16,32765
2.21576,0.571772,0.315548,18,32765
2.20812,0.562097,0.313474,18,32765
2.18122,0.547645,0.308669,18,32765
2.19277,0.542762,0.309142,18,32765
2.18498,0.533225,0.3073,18,32765
2.15793,0.519047,0.30257,18,32765
2.19824,0.521145,0.307466,18,32765
2.17106,0.507268,0.302805,19,32765
2.16316,0.497879,0.300735,18,32765
2.16482,0.49088,0.300335,18,32765
2.15681,0.481614,0.298534,18,32765
2.16816,0.476613,0.299201,19,32765
2.16012,0.467289,0.297394,18,32765
2.13271,0.4537,0.292765,19,32765
2.17307,0.454672,0.297717,19,32765
2.12608,0.437529,0.290606,20,32765
2.15667,0.436599,0.294187,19,32765
2.14844,0.42769,0.292208,19,32765
2.14013,0.418782,0.290618,19,32765
2.13185,0.409878,0.288679,19,32765
2.12349,0.400933,0.287105,19,32765
2.14431,0.397512,0.289676,19,32765
2.12619,0.386858,0.286433,19,32765
2.11777,0.378031,0.284716,18,32765
2.13859,0.374435,0.286942,18,32765
2.12033,0.363974,0.283944,19,32765
2.13131,0.358617,0.285139,19,32765
2.11296,0.34842,0.282167,18,32765
2.12393,0.342989,0.283139,19,32765
2.10551,0.332931,0.280135,19,32765
2.11644,0.327492,0.281133,19,32765
2.10777,0.318902,0.279506,18,32765
2.11865,0.313308,0.280622,19,32765
2.10011,0.303283,0.277794,19,32765
2.11098,0.297668,0.278665,19,32765
2.11199,0.290575,0.278477,19,32765
2.12282,0.284845,0.279492,18,32765
2.13361,0.2791,0.280575,19,32765
2.12473,0.270746,0.278996,19,32765
2.10596,0.261275,0.276139,19,32765
2.08715,0.251982,0.27331,19,32765
2.12741,0.249745,0.278119,19,32765
2.10854,0.24056,0.275278,19,32765
2.09952,0.232443,0.273648,19,32765
2.08058,0.223405,0.2709,19,32765
2.10108,0.218511,0.273162,19,32765
2.10184,0.211553,0.272771,19,32765
2.09268,0.203637,0.271301,18,32765
0,0,0,0,32765
0,0,0,0,32765
1.82798,0.159391,0.235769,13,32765
1.34422,0.112757,0.17312,13,32765
1.29516,0.104393,0.166652,15,32765
1.2263,0.0947939,0.157479,15,32765
1.16726,0.0864168,0.149777,16,32765
1.20716,0.0853743,0.154556,16,32765
1.18765,0.0800471,0.151916,16,32765
1.16814,0.0748254,0.149129,16,32765
1.15852,0.0703326,0.147591,16,32765
1.16867,0.0671224,0.148644,15,32765
1.19864,0.0649074,0.152151,16,32765
1.18894,0.0605478,0.150834,16,32765
1.14951,0.0548468,0.145659,15,32765
1.11007,0.0493648,0.140379,15,32765
1.11024,0.0457659,0.140239,16,32765
1.0906,0.0413721,0.137392,16,32765
1.10067,0.0381661,0.138439,16,32765
1.10082,0.0345704,0.138208,15,32765
1.05138,0.0295314,0.131666,16,32765
1.06141,0.0263922,0.132673,15,32765
1.05161,0.0226901,0.131167,15,32765
1.01202,0.0185241,0.125969,15,32765
1.02202,0.0154058,0.127063,15,32765
1.04194,0.0122989,0.129235,15,32765
0.992395,0.00853203,0.122796,15,32765
1.02223,0.00551461,0.12614,15,32765
0.992514,0.00222023,0.122111,15,32765
1.01241,-0.000951219,0.124178,15,32765
0.982666,-0.00410592,0.120214,15,32765
0.933057,-0.00688954,0.113831,15,32765
0.923156,-0.00978857,0.112189,15,32765
0.913243,-0.0125126,0.110593,15,32765
2.33768,0.762024,0.323961,17,32765
2.31181,0.745255,0.320342,17,32765
2.31415,0.737835,0.320636,17,32765
2.32587,0.7336,0.322108,16,32765
2.31873,0.723365,0.32055,17,32765
2.31155,0.71304,0.319208,17,32765
2.33276,0.711365,0.322135,17,32765
2.23069,0.67225,0.307595,17,32765
2.27091,0.676316,0.312484,16,32765
2.28263,0.671718,0.313654,16,32765
2.29434,0.667144,0.314647,17,32765
2.28692,0.657043,0.313512,16,32765
2.27,0.644189,0.310678,16,32765
2.26264,0.634015,0.308851,17,32765
2.22651,0.615922,0.303614,16,32765
2.29556,0.626792,0.312337,17,32765
2.24016,0.603822,0.304444,18,32765
2.27089,0.604149,0.308126,17,32765
2.27289,0.59681,0.307702,15,32765
2.25564,0.584463,0.304969,14,32765
2.26719,0.579536,0.305894,17,32765
2.22103,0.560016,0.299145,17,32765
2.22292,0.552763,0.298651,17,32765
2.25363,0.552618,0.302272,17,32765
2.22657,0.538153,0.298086,17,32765
2.20909,0.526166,0.295215,17,32765
2.2688,0.532393,0.302633,18,32765
2.21268,0.511363,0.294388,17,32765
2.24337,0.510651,0.298229,18,32765
2.25477,0.505429,0.299066,17,32765
2.22744,0.491633,0.294662,17,32765
2.22904,0.484452,0.294407,17,32765
2.25014,0.481181,0.296233,18,32765
2.22266,0.467525,0.292046,18,32765
2.20488,0.455957,0.288968,17,32765
2.21615,0.450558,0.289977,18,32765
2.19818,0.439407,0.287236,17,32765
2.18024,0.428353,0.284057,17,32765
2.22062,0.42875,0.288822,19,32765
2.17335,0.412161,0.2821,17,32765
2.20403,0.410364,0.285369,18,32765
2.23469,0.408473,0.288771,18,32765
2.20682,0.395685,0.284542,17,32765
2.17888,0.383209,0.280251,17,32765
2.19973,0.379337,0.282508,17,32765
2.23037,0.377014,0.285813,18,32765
2.21207,0.366491,0.282874,17,32765
2.18395,0.354353,0.278731,17,32765
2.18518,0.347052,0.278295,18,32765
2.18639,0.339655,0.277941,17,32765
2.16794,0.32934,0.27508,17,32765
2.18869,0.325093,0.277229,18,32765
2.18001,0.316385,0.27546,17,32765
2.21056,0.313427,0.278766,17,32765
2.19197,0.303297,0.276043,17,32765
2.17333,0.29336,0.273247,17,32765
2.11533,0.278374,0.265298,16,32765
2.18519,0.280156,0.273629,17,32765
2.19597,0.274283,0.274578,17,32765
2.20678,0.268264,0.275249,17,32765
2.10912,0.249434,0.262669,17,32765
2.12965,0.24484,0.265052,17,32765
2.16007,0.241103,0.268479,17,32765
2.17079,0.235014,0.269131,18,32765
2.1716,0.22771,0.268919,17,32765
2.18227,0.221455,0.269726,17,32765
2.17311,0.213307,0.268528,17,32765
2.14418,0.203402,0.264605,15,32765
1.97683,0.18106,0.243657,13,32765
1.95767,0.172769,0.241003,13,32765
0,0,0,0,32765
1.46416,0.119424,0.179929,13,32765
1.34582,0.10525,0.165236,14,32765
1.27688,0.0956685,0.15664,15,32765
1.24749,0.0893558,0.152884,16,32765
1.26759,0.0866823,0.155214,15,32765
1.21834,0.0793883,0.149159,15,32765
1.26814,0.0784706,0.1551,15,32765
1.27831,0.0749434,0.156263,15,32765
1.20917,0.0669319,0.147734,15,32765
1.21929,0.0635455,0.14894,15,32765
1.2195,0.0595954,0.148929,16,32765
1.21968,0.0556199,0.148969,15,32765
1.22977,0.0520554,0.150197,15,32765
1.19026,0.0464466,0.145358,16,32765
1.17055,0.0418547,0.143031,15,32765
1.17067,0.0380613,0.14311,15,32765
1.17077,0.0342534,0.143287,15,32765
1.17088,0.0304227,0.143255,15,32765
1.12135,0.0254202,0.137237,15,32765
1.14126,0.022174,0.139797,15,32765
1.12146,0.0181391,0.137493,14,32765
1.03217,0.0133418,0.126636,14,32765
1.11159,0.0107964,0.136583,14,32765
1.04212,0.00672412,0.128189,14,32765
1.12151,0.0036355,0.138194,15,32765
1.06195,2.77024e-05,0.131038,14,32765
1.00235,-0.00313801,0.123997,14,32765
1.01224,-0.00638151,0.125452,15,32765
1.01218,-0.00972621,0.12568,15,32765
0.982316,-0.0126711,0.122453,15,32765
2.20804,0.720859,0.283798,18,32765
2.2009,0.710577,0.282871,18,32765
2.20314,0.703501,0.28315,18,32765
2.17691,0.687648,0.279657,18,32765
2.22646,0.69562,0.285497,18,32765
2.19074,0.67678,0.280605,18,32765
2.23085,0.681296,0.28576,19,32765
2.16657,0.653893,0.277116,17,32765
2.19727,0.655346,0.280426,18,32765
2.20893,0.650982,0.281507,18,32765
2.22059,0.646639,0.282416,17,32765
2.14632,0.617543,0.272879,17,32765
2.17699,0.618688,0.276304,17,32765
2.16953,0.608801,0.274592,18,32765
2.20981,0.612179,0.279405,19,32765
2.14486,0.586482,0.270566,18,32765
2.17553,0.587235,0.274106,18,32765
2.14869,0.572446,0.270274,18,32765
2.16978,0.570538,0.272282,19,32765
2.16203,0.560994,0.270946,18,32765
2.14467,0.548981,0.268185,18,32765
2.13686,0.53954,0.266724,15,32765
2.23501,0.556537,0.278242,16,32765
2.15006,0.527948,0.267202,16,32765
2.14219,0.518467,0.265704,17,32765
2.13428,0.50904,0.264226,17,32765
2.13601,0.50191,0.263927,18,32765
2.08938,0.48352,0.257467,16,32765
2.1297,0.485426,0.262219,13,32765
2.18947,0.491444,0.268935,12,32765
2.12326,0.469262,0.260077,14,32765
2.1248,0.462405,0.259834,17,32765
2.13612,0.457399,0.260323,19,32765
2.11825,0.446144,0.257617,20,32765
2.1101,0.436921,0.25593,18,32765
2.11158,0.42985,0.255677,19,32765
2.09352,0.419021,0.253133,18,32765
2.11446,0.415956,0.25487,19,32765
2.11584,0.409034,0.254576,20,32765
2.11723,0.40202,0.254198,20,32765
2.13815,0.398591,0.256029,20,32765
2.11995,0.387977,0.253325,19,32765
2.11153,0.379061,0.251731,19,32765
2.09327,0.368599,0.248906,19,32765
2.09452,0.361627,0.248661,19,32765
2.08596,0.353022,0.247067,18,32765
2.09695,0.347826,0.247818,19,32765
2.08834,0.339235,0.246289,20,32765
2.09932,0.333801,0.247025,19,32765
2.06122,0.320575,0.242074,19,32765
2.09179,0.318129,0.245177,19,32765
2.06339,0.306823,0.241403,19,32765
2.06446,0.299944,0.240905,19,32765
2.05564,0.291778,0.23937,18,32765
2.07632,0.287601,0.241428,19,32765
2.06745,0.279361,0.239979,19,32765
2.08813,0.275077,0.24174,19,32765
2.05951,0.26431,0.23803,19,32765
2.05053,0.256372,0.236627,19,32765
2.07115,0.252021,0.238376,19,32765
2.05226,0.24294,0.235821,19,32765
2.05305,0.236252,0.235752,18,32765
2.05385,0.229453,0.23551,18,32765
2.04478,0.221566,0.233837,18,32765
2.03566,0.213636,0.232509,18,32765
2.01663,0.204814,0.229868,19,32765
2.04696,0.201083,0.233269,18,32765
2.05753,0.195329,0.234145,19,32765
2.0186,0.185019,0.229418,15,32765
1.86085,0.164337,0.211219,16,32765
0,0,0,0,32765
1.7728,0.144684,0.200847,14,32765
1.41665,0.11085,0.160343,13,32765
1.25847,0.0943355,0.142313,15,32765
1.20923,0.0866521,0.136601,15,32765
1.1996,0.0820627,0.135389,16,32765
1.18994,0.0775609,0.134278,16,32765
1.14061,0.0705946,0.128573,16,32765
1.16068,0.0680564,0.130765,16,32765
1.17082,0.0648117,0.131834,15,32765
1.18095,0.061543,0.132947,15,32765
1.19107,0.0581953,0.134053,16,32765
1.16147,0.0529479,0.13074,15,32765
1.1517,0.048727,0.129639,15,32765
1.15186,0.0449175,0.129645,15,32765
1.13213,0.040444,0.127502,15,32765
1.11238,0.0361235,0.12534,15,32765
1.08267,0.0316282,0.122147,16,32765
1.08277,0.0280796,0.122117,16,32765
1.07292,0.0242626,0.121047,16,32765
1.09285,0.0211663,0.123414,15,32765
1.03329,0.0166434,0.116799,15,32765
1.0532,0.0135366,0.119141,15,32765
1.08302,0.0104334,0.122713,15,32765
1.01348,0.00645341,0.114971,15,32765
1.01347,0.0031935,0.115186,15,32765
1.02339,-7.18914e-05,0.116491,15,32765
0.983609,-0.00317977,0.112268,15,32765
0.983568,-0.00630687,0.112489,15,32765
0.963648,-0.00936953,0.110434,15,32765
0.973492,-0.0126741,0.112038,15,32765
2.27384,0.739778,0.300797,17,32765
2.25754,0.72632,0.296771,16,32765
2.3358,0.742892,0.305049,17,32765
2.24369,0.705624,0.291303,16,32765
2.25552,0.701475,0.291489,17,32765
2.29589,0.705951,0.294839,17,32765
2.2508,0.684154,0.287599,16,32765
2.25316,0.67685,0.286408,17,32765
2.27447,0.675252,0.287956,16,32765
2.24821,0.659513,0.283185,16,32765
2.24088,0.649497,0.281256,17,32765
2.27176,0.650408,0.283663,17,32765
2.22624,0.629416,0.276773,17,32765
2.22842,0.622074,0.275791,17,32765
2.24017,0.61728,0.276059,17,32765
2.23271,0.607263,0.274142,18,32765
2.20603,0.592215,0.269614,17,32765
2.20805,0.585006,0.268844,18,32765
2.22923,0.582928,0.270445,17,32765
2.22158,0.57327,0.268375,17,32765
2.24277,0.570966,0.269994,17,32765
2.20615,0.554065,0.264618,16,32765
2.31409,0.573151,0.276602,12,32765
0,0,0,0,32765
0,0,0,0,32765
0,0,0,0,32765
0,0,0,0,32765
0,0,0,0,32765
0,0,0,0,32765
0,0,0,0,32765
0,0,0,0,32765
0,0,0,0,32765
2.23535,0.475703,0.25872,16,32765
2.20776,0.462275,0.254917,17,32765
2.17039,0.446999,0.24998,17,32765
2.18165,0.441784,0.250678,17,32765
2.18314,0.434611,0.25027,18,32765
2.18461,0.427363,0.249864,17,32765
2.17635,0.418242,0.247973,17,32765
2.19726,0.414736,0.250097,17,32765
2.16934,0.40212,0.246258,17,32765
2.16091,0.393269,0.244794,18,32765
2.15247,0.384331,0.243196,17,32765
2.13417,0.373793,0.240821,17,32765
2.17465,0.373421,0.24467,17,32765
2.10729,0.354582,0.23685,17,32765
2.12812,0.350799,0.238676,17,32765
2.14894,0.346799,0.240641,17,32765
2.15015,0.339556,0.240086,17,32765
2.18077,0.336905,0.243163,17,32765
2.15245,0.325122,0.239512,17,32765
2.18302,0.322359,0.242713,17,32765
2.10543,0.303679,0.233515,17,32765
2.1852,0.307789,0.24205,18,32765
2.1567,0.296553,0.238325,17,32765
2.16757,0.29069,0.239024,17,32765
2.13896,0.279683,0.235654,18,32765
2.10048,0.267507,0.23096,18,32765
2.11123,0.261805,0.231872,18,32765
2.12201,0.255996,0.232419,18,32765
2.14264,0.251268,0.234192,17,32765
2.11383,0.240899,0.230804,17,32765
2.085,0.230605,0.227337,18,32765
2.1451,0.230111,0.23347,17,32765
2.10632,0.218873,0.228899,18,32765
2.11696,0.212889,0.229658,18,32765
2.1078,0.204916,0.228217,18,32765
2.15804,0.202493,0.232979,17,32765
2.0894,0.189105,0.225231,15,32765
1.98109,0.172671,0.213262,15,32765
0,0,0,0,32765
1.89306,0.152321,0.203035,13,32765
1.5466,0.119231,0.165537,12,32765
1.38834,0.102435,0.148363,14,32765
1.25973,0.0888362,0.134478,15,32765
1.26996,0.085403,0.135296,16,32765
1.26032,0.0806748,0.134074,16,32765
1.27053,0.0771538,0.134872,16,32765
1.25096,0.0718686,0.132462,15,32765
1.27106,0.06886,0.134425,15,32765
1.24151,0.0631775,0.130993,16,32765
1.23179,0.0587084,0.12976,15,32765
1.25188,0.0555602,0.131532,15,32765
1.24215,0.05104,0.1302,15,32765
1.25228,0.0473203,0.131004,14,32765
1.22263,0.0421429,0.127628,15,32765
1.23274,0.0384512,0.128343,14,32765
1.18317,0.0330551,0.122943,15,32765
1.17335,0.0289493,0.121747,16,32765
1.14364,0.0245075,0.118296,15,32765
1.16362,0.0211568,0.120125,15,32765
1.17366,0.0175906,0.120842,15,32765
1.13396,0.0133567,0.116395,15,32765
1.15394,0.00995053,0.118031,15,32765
1.11419,0.00608652,0.113796,14,32765
1.0645,0.00230348,0.108294,14,32765
1.04464,-0.00114429,0.105977,14,32765
1.10436,-0.00478508,0.111614,14,32765
1.08449,-0.00805219,0.109207,14,32765
1.07455,-0.0113097,0.107765,15,32765
1.02481,-0.0140762,0.102299,14,32765
2.20054,0.717052,0.269017,18,32765
2.22195,0.71599,0.26982,18,32765
2.15824,0.687496,0.260252,18,32765
2.17956,0.686528,0.261178,18,32765
2.16287,0.673711,0.257906,18,32765
2.13669,0.658026,0.253071,17,32765
2.15794,0.656948,0.254218,19,32765
2.15068,0.647069,0.251961,18,32765
2.19095,0.651466,0.255583,18,32765
2.15504,0.63316,0.250029,18,32765
2.13806,0.620655,0.24712,18,32765
2.14976,0.616428,0.247103,18,32765
2.13276,0.603915,0.244014,18,32765
2.13485,0.596867,0.243072,18,32765
2.14651,0.592378,0.243285,19,32765
2.12936,0.580038,0.240408,18,32765
2.13136,0.573041,0.239444,19,32765
2.10448,0.558413,0.235473,18,32765
2.10634,0.55163,0.234777,18,32765
2.10821,0.544836,0.233918,18,32765
2.11967,0.540442,0.23432,19,32765
2.14077,0.538454,0.23573,18,32765
2.2005,0.545834,0.24141,12,32765
0,0,0,0,32765
0,0,0,0,32765
0,0,0,0,32765
0,0,0,0,32765
0,0,0,0,32765
0,0,0,0,32765
0,0,0,0,32765
0,0,0,0,32765
0,0,0,0,32765
0,0,0,0,32765
0,0,0,0,32765
0,0,0,0,32765
2.22274,0.450745,0.233779,12,32765
2.08768,0.416196,0.219033,16,32765
2.09885,0.411164,0.219667,18,32765
2.11006,0.40607,0.219937,19,32765
2.08207,0.39354,0.216787,19,32765
2.06384,0.383092,0.21427,19,32765
2.09448,0.381702,0.216973,19,32765
2.0664,0.369466,0.213461,19,32765
2.04803,0.359192,0.211279,18,32765
2.07869,0.357424,0.213768,19,32765
2.07008,0.348785,0.212655,19,32765
2.07127,0.34188,0.212287,19,32765
2.07243,0.334892,0.212061,19,32765
2.07361,0.327894,0.211525,19,32765
2.07472,0.320933,0.211323,19,32765
2.07582,0.313948,0.210971,18,32765
2.06701,0.305614,0.209896,18,32765
2.07792,0.300085,0.210449,19,32765
2.07893,0.293183,0.210264,19,32765
2.03064,0.279559,0.204853,18,32765
2.03159,0.272783,0.204488,18,32765
2.04236,0.267369,0.205375,19,32765
2.04328,0.260527,0.205034,18,32765
2.03427,0.252552,0.203878,19,32765
2.06479,0.249376,0.206325,19,32765
2.02611,0.237867,0.202008,18,32765
2.017,0.230115,0.200879,19,32765
2.03756,0.2256,0.202622,18,32765
2.04822,0.21995,0.203289,18,32765
1.98957,0.206954,0.197144,18,32765
2.02989,0.204337,0.200764,19,32765
1.98106,0.192782,0.195522,18,32765
2.00157,0.187989,0.196925,17,32765
2.01212,0.182277,0.197642,18,32765
2.01273,0.175584,0.197411,15,32765
1.90424,0.159713,0.186464,14,32765
1.79567,0.144601,0.175419,14,32765
0,0,0,12,32765
1.29041,0.0952776,0.125566,13,32765
1.31058,0.0924834,0.127384,15,32765
1.29104,0.0868732,0.12521,14,32765
1.19199,0.0763429,0.115422,16,32765
1.15252,0.0700212,0.11134,16,32765
1.20246,0.0691107,0.115849,15,32765
1.21263,0.0657161,0.116673,16,32765
1.1731,0.0597101,0.112582,16,32765
1.13353,0.0540319,0.108595,15,32765
1.16356,0.0516408,0.111155,15,32765
1.14386,0.0469948,0.108989,15,32765
1.17387,0.0443442,0.111609,15,32765
1.14419,0.0394191,0.108532,15,32765
1.13439,0.0353573,0.107291,15,32765
1.09471,0.0305521,0.103319,15,32765
1.1844,0.0291807,0.111608,15,32765
1.10489,0.0236324,0.103761,14,32765
1.08507,0.0196784,0.101679,16,32765
1.06524,0.0159103,0.0995319,16,32765
1.06532,0.0124868,0.0992022,15,32765
1.03552,0.0088641,0.0960568,15,32765
1.04551,0.00563948,0.0968254,15,32765
1.05552,0.00220539,0.0973289,15,32765
1.01572,-0.00119417,0.0933723,15,32765
1.01574,-0.00448842,0.0929866,15,32765
1.0058,-0.00755989,0.0917083,15,32765
0.985892,-0.010472,0.0894879,15,32765
0.975936,-0.0135049,0.0881301,15,32765
2.23185,0.729011,0.23874,17,32765
2.21524,0.715705,0.236788,17,32765
2.21751,0.708575,0.236985,17,32765
2.21979,0.701407,0.237,17,32765
2.17458,0.679315,0.232013,17,32765
2.21483,0.683953,0.235895,17,32765
2.18845,0.668156,0.232932,17,32765
2.19056,0.661215,0.232919,17,32765
2.20226,0.656999,0.233435,17,32765
2.19487,0.646966,0.232311,17,32765
2.197,0.639682,0.232421,17,32765
2.23738,0.643506,0.235848,17,32765
2.21078,0.628011,0.232727,17,32765
2.23199,0.626188,0.234579,17,32765
2.22447,0.616238,0.23316,18,32765
2.18808,0.598504,0.229096,17,32765
2.17087,0.586192,0.226535,17,32765
2.18244,0.581529,0.227332,17,32765
2.20366,0.579279,0.228925,17,32765
2.2056,0.571918,0.228786,17,32765
2.1979,0.562081,0.227388,18,32765
2.18042,0.550127,0.225204,17,32765
2.22088,0.552645,0.228651,14,32765
0,0,0,0,32765
0,0,0,0,32765
0,0,0,0,32765
0,0,0,0,32765
0,0,0,0,32765
0,0,0,0,32765
0,0,0,0,32765
0,0,0,0,32765
0,0,0,0,32765
0,0,0,0,32765
0,0,0,0,32765
0,0,0,0,32765
0,0,0,0,32765
2.11776,0.423807,0.210637,11,32765
2.20714,0.433868,0.218805,14,32765
2.12068,0.409484,0.209566,18,32765
2.16118,0.40988,0.213076,18,32765
2.11363,0.393575,0.208032,17,32765
2.13454,0.390286,0.209317,17,32765
2.14568,0.384958,0.2097,18,32765
2.10777,0.370987,0.205361,18,32765
2.10902,0.364003,0.204999,18,32765
2.11027,0.356932,0.204617,18,32765
2.07218,0.343429,0.200516,18,32765
2.11267,0.342887,0.203873,18,32765
2.13349,0.338936,0.205546,17,32765
2.11499,0.328715,0.203159,18,32765
2.09642,0.318631,0.201021,17,32765
2.11719,0.314518,0.202738,17,32765
2.08873,0.303168,0.199284,17,32765
2.06018,0.292144,0.196035,17,32765
2.12034,0.293471,0.201363,17,32765
2.12133,0.286397,0.201069,17,32765
2.06309,0.271496,0.195074,18,32765
2.09367,0.26835,0.197303,18,32765
2.10444,0.262695,0.19807,18,32765
2.12507,0.258225,0.199714,17,32765
2.0765,0.245436,0.194668,17,32765
2.09712,0.240937,0.196091,17,32765
2.06824,0.23067,0.193032,17,32765
2.04922,0.221692,0.190866,17,32765
2.07967,0.218005,0.193465,18,32765
2.0507,0.208081,0.19032,17,32765
2.06129,0.202266,0.191227,17,32765
2.09171,0.198228,0.193794,17,32765
2.08245,0.190484,0.192695,18,32765
2.06327,0.181839,0.190417,17,32765
1.99441,0.169161,0.183841,13,32765
2.00489,0.163509,0.184571,13,32765
1.96573,0.153767,0.180681,13,32765
0,0,0,0,32765
1.47007,0.105338,0.134929,14,32765
1.33133,0.0909735,0.122016,15,32765
1.33162,0.0866303,0.122033,14,32765
1.2822,0.0791927,0.117435,16,32765
1.25263,0.0732782,0.114677,16,32765
1.26281,0.0697133,0.115568,15,32765
1.27298,0.0660647,0.116482,16,32765
1.2334,0.0599795,0.112821,16,32765
1.22364,0.0554722,0.111963,16,32765
1.23377,0.0519015,0.1128,15,32765
1.22398,0.0474803,0.111911,15,32765
1.21417,0.0431642,0.111071,15,32765
1.21429,0.0392441,0.111184,15,32765
1.22435,0.0355633,0.112219,15,32765
1.20456,0.0310269,0.110362,15,32765
1.21459,0.0272956,0.111427,14,32765
1.20471,0.0231119,0.110679,14,32765
1.15498,0.0184008,0.106246,15,32765
1.1152,0.0141304,0.1026,15,32765
1.165,0.0109846,0.107471,15,32765
1.10528,0.0068539,0.102032,14,32765
1.15506,0.00340481,0.106876,14,32765
1.10525,-0.000283484,0.10261,14,32765
1.10523,-0.00388766,0.102745,14,32765
1.0554,-0.00709083,0.0984181,14,32765
1.04539,-0.0103792,0.0977704,14,32765
1.03535,-0.0136302,0.0972522,14,32765
2.10101,0.687478,0.203764,18,32765
2.12216,0.68683,0.205667,18,32765
2.12434,0.679987,0.205855,19,32765
2.12653,0.673107,0.205869,18,32765
2.0812,0.65127,0.201347,18,32765
2.11188,0.653285,0.203941,19,32765
2.09491,0.640696,0.202175,18,32765
2.10646,0.63692,0.203081,18,32765
2.10855,0.630117,0.202604,18,32765
2.10107,0.620372,0.201578,19,32765
2.11267,0.616173,0.202599,19,32765
2.09559,0.603745,0.200189,18,32765
2.10715,0.599583,0.201009,18,32765
2.10911,0.59271,0.200855,19,32765
2.08229,0.577816,0.19773,19,32765
2.10337,0.576294,0.199509,19,32765
2.09568,0.566832,0.198066,18,32765
2.07833,0.554707,0.196052,18,32765
2.09948,0.552805,0.197476,19,32765
2.09169,0.543275,0.196438,18,32765
2.05494,0.526385,0.192443,18,32765
2.10493,0.531948,0.196777,19,32765
2.06804,0.515452,0.192664,19,32765
2.08906,0.513514,0.194209,19,32765
2.09077,0.506704,0.193756,17,32765
2.13122,0.509004,0.196983,14,32765
2.29774,0.540689,0.211961,11,32765
0,0,0,0,32765
0,0,0,0,32765
0,0,0,0,32765
0,0,0,0,32765
0,0,0,0,32765
0,0,0,0,32765
0,0,0,0,32765
0,0,0,0,32765
0,0,0,0,32765
2.12926,0.426767,0.19114,12,32765
2.08188,0.409875,0.18622,15,32765
2.04417,0.395316,0.182216,19,32765
2.02592,0.384815,0.180142,19,32765
2.06639,0.385364,0.183404,20,32765
2.05789,0.37684,0.181916,20,32765
2.06898,0.371757,0.182225,19,32765
2.031,0.358009,0.178281,19,32765
2.0322,0.351267,0.177931,19,32765
2.0334,0.34444,0.177562,19,32765
2.0149,0.334427,0.175561,19,32765
1.99638,0.324488,0.173428,19,32765
2.01715,0.32092,0.174924,18,32765
2.07733,0.323329,0.17956,19,32765
2.00948,0.305855,0.173366,18,32765
2.01051,0.299094,0.173203,18,32765
2.00169,0.290945,0.171754,18,32765
1.97307,0.280184,0.168805,18,32765
2.02337,0.280439,0.172739,19,32765
2.01444,0.27234,0.171617,18,32765
2.01538,0.265579,0.171242,18,32765
2.00642,0.257514,0.169855,18,32765
1.9875,0.248428,0.168027,17,32765
1.98832,0.241926,0.167825,18,32765
1.97924,0.234244,0.166607,17,32765
1.95032,0.224361,0.163707,18,32765
2.0006,0.223409,0.167587,18,32765
1.97163,0.213564,0.164791,17,32765
1.96243,0.205967,0.163805,18,32765
1.99288,0.202458,0.165916,17,32765
1.95387,0.191952,0.162603,18,32765
2.01404,0.191089,0.167371,18,32765
1.99482,0.182675,0.165548,18,32765
1.98553,0.17518,0.164299,17,32765
2.02583,0.17201,0.167414,17,32765
1.98666,0.162191,0.163949,13,32765
1.89778,0.148601,0.156344,14,32765
0,0,0,0,32765
1.79932,0.12905,0.148004,12,32765
1.59094,0.108809,0.130654,14,32765
1.3327,0.0867721,0.10944,14,32765
1.2733,0.078703,0.104495,15,32765
1.2437,0.072807,0.102019,16,32765
1.29369,0.0714633,0.10608,16,32765
1.25411,0.0651212,0.10282,16,32765
1.17468,0.05715,0.0962716,16,32765
1.22464,0.055537,0.100404,16,32765
1.17503,0.049442,0.0962524,15,32765
1.17518,0.0455916,0.0962723,15,32765
1.12552,0.0400097,0.0922575,15,32765
1.13559,0.0366906,0.0931795,15,32765
1.14566,0.0332601,0.0941121,15,32765
1.15573,0.0297445,0.0948995,15,32765
1.11595,0.0250478,0.0917677,15,32765
1.12598,0.0215632,0.0927422,15,32765
1.14596,0.0182109,0.094523,14,32765
1.08622,0.0137127,0.089608,14,32765
1.05634,0.00990418,0.0874055,15,32765
1.05636,0.00648819,0.0874749,15,32765
1.0165,0.0029299,0.0843925,15,32765
1.03641,-0.000340128,0.0863668,15,32765
1.02643,-0.00369047,0.0856613,15,32765
1.04631,-0.00711791,0.0876234,15,32765
1.01637,-0.010183,0.0853929,15,32765
0.926623,-0.0122885,0.0782279,15,32765
2.21464,0.721958,0.223044,17,32765
2.20766,0.711673,0.220537,17,32765
2.20063,0.701541,0.217827,17,32765
2.20298,0.694509,0.216646,17,32765
2.1863,0.681521,0.213577,18,32765
2.21718,0.683166,0.21514,17,32765
2.18142,0.664331,0.210163,18,32765
2.18369,0.657255,0.208888,17,32765
2.18589,0.650209,0.207882,18,32765
2.18807,0.643131,0.206942,17,32765
2.18073,0.633121,0.204918,18,32765
2.15415,0.617744,0.201325,18,32765
2.19457,0.621571,0.203968,17,32765
2.15829,0.603721,0.199507,17,32765
2.1891,0.604708,0.201376,18,32765
2.17197,0.592283,0.198354,17,32765
2.18356,0.587795,0.198639,17,32765
2.18556,0.580621,0.197734,17,32765
2.1779,0.570855,0.196156,17,32765
2.17021,0.561184,0.194298,17,32765
2.1142,0.539211,0.188422,17,32765
2.15465,0.54205,0.191221,18,32765
2.15647,0.535062,0.190407,18,32765
2.12923,0.520914,0.187124,17,32765
2.14065,0.51633,0.18738,18,32765
2.12304,0.504623,0.184812,16,32765
2.20232,0.515875,0.191163,13,32765
0,0,0,0,32765
0,0,0,0,32765
0,0,0,0,32765
0,0,0,0,32765
0,0,0,11,32765
0,0,0,0,32765
0,0,0,0,32765
2.10828,0.435113,0.177289,12,32765
0,0,0,0,32765
2.16986,0.432718,0.181302,14,32765
2.12241,0.415975,0.176755,17,32765
2.07488,0.399472,0.172295,18,32765
2.11539,0.400014,0.175213,17,32765
2.09716,0.389291,0.173085,18,32765
2.08865,0.380607,0.171998,17,32765
2.08992,0.373641,0.171826,16,32765
2.06175,0.361529,0.168732,17,32765
2.11208,0.363157,0.172402,17,32765
2.04451,0.344493,0.166444,17,32765
2.09486,0.345896,0.169785,17,32765
2.07634,0.33575,0.167821,18,32765
2.06761,0.327308,0.166888,17,32765
2.09826,0.325025,0.169033,16,32765
2.06982,0.313416,0.166196,17,32765
2.06103,0.304915,0.165134,17,32765
2.06208,0.297954,0.164784,17,32765
2.04333,0.288182,0.163234,17,32765
2.08381,0.286844,0.166023,17,32765
2.10455,0.282534,0.167116,17,32765
2.07583,0.271698,0.164668,18,32765
2.03717,0.259838,0.161256,17,32765
2.06772,0.256801,0.163365,16,32765
2.0686,0.24996,0.16282,17,32765
2.06944,0.243052,0.162643,17,32765
2.03064,0.231639,0.159252,16,32765
2.06113,0.228255,0.161345,17,32765
2.10155,0.225653,0.164277,18,32765
2.0428,0.212511,0.159378,17,32765
2.02369,0.203702,0.157439,17,32765
2.04425,0.198842,0.158474,17,32765
2.0747,0.194778,0.160576,16,32765
2.03565,0.184192,0.157116,17,32765
2.05614,0.179204,0.158369,17,32765
2.09649,0.175738,0.161112,16,32765
2.01758,0.162463,0.154479,13,32765
1.98829,0.153618,0.152066,14,32765
0,0,0,0,32765
0,0,0,0,32765
1.61173,0.108557,0.122175,13,32765
1.41308,0.0904821,0.106845,13,32765
1.42334,0.0864234,0.107372,13,32765
1.28426,0.073683,0.096674,15,32765
1.27456,0.0689482,0.0956279,15,32765
1.29471,0.0657876,0.0968859,15,32765
1.28498,0.0610783,0.0958938,16,32765
1.2553,0.0555835,0.0934748,16,32765
1.24552,0.0511256,0.092492,16,32765
1.2457,0.0470913,0.0922213,15,32765
1.2359,0.0426494,0.0912758,15,32765
1.20616,0.0376406,0.0886581,15,32765
1.21626,0.0339555,0.089159,15,32765
1.20642,0.0297343,0.0880631,15,32765
1.20653,0.0258449,0.0878969,15,32765
1.20663,0.0219494,0.0875739,15,32765
1.20671,0.0180618,0.0872765,15,32765
1.18685,0.0139266,0.0854366,14,32765
1.20685,0.0102672,0.0867032,14,32765
1.1271,0.00596958,0.0806354,14,32765
1.1471,0.00238759,0.0816323,15,32765
1.13714,-0.00128047,0.0806344,15,32765
1.13717,-0.00490316,0.0801866,15,32765
1.1272,-0.00846833,0.079105,14,32765
1.10725,-0.0119136,0.0772038,14,32765
1.04738,-0.0146414,0.0726219,14,32765
2.11198,0.689729,0.191642,20,32765
2.09539,0.676695,0.188448,19,32765
2.09771,0.669934,0.186766,19,32765
2.11895,0.669218,0.187319,19,32765
2.09266,0.6535,0.183648,18,32765
2.06632,0.637823,0.180003,18,32765
2.07803,0.633978,0.17961,19,32765
2.08973,0.630101,0.179212,19,32765
2.06318,0.614805,0.175807,19,32765
2.06524,0.60811,0.174919,19,32765
2.0769,0.604052,0.174661,19,32765
2.0502,0.588981,0.171392,19,32765
2.06178,0.584997,0.171313,18,32765
2.08294,0.583677,0.172039,18,32765
2.09448,0.579596,0.172074,18,32765
2.05801,0.562199,0.167727,18,32765
2.05988,0.55548,0.167167,18,32765
2.09067,0.55639,0.168644,19,32765
2.06363,0.541855,0.165642,18,32765
2.03652,0.52754,0.16239,18,32765
2.08662,0.53311,0.165553,18,32765
2.04006,0.514119,0.161111,18,32765
2.06113,0.5123,0.161859,18,32765
2.05316,0.503179,0.160403,19,32765
2.04514,0.494151,0.159078,19,32765
2.03714,0.485046,0.157486,19,32765
2.05816,0.48294,0.158612,18,32765
2.03064,0.469385,0.155843,18,32765
2.03224,0.462642,0.155078,18,32765
2.04352,0.458111,0.155469,17,32765
2.06457,0.455582,0.15613,14,32765
2.03688,0.442381,0.153397,16,32765
2.03838,0.435611,0.152803,18,32765
2.01057,0.422609,0.150362,18,32765
2.00224,0.413928,0.148992,18,32765
2.03297,0.413135,0.150844,18,32765
1.99525,0.398567,0.147426,18,32765
2.01616,0.395814,0.14843,18,32765
2.04688,0.39474,0.150209,19,32765
2.0188,0.382385,0.147735,17,32765
2.06914,0.384726,0.150821,17,32765
2.03117,0.370744,0.147692,16,32765
2.02259,0.362198,0.146811,14,32765
2.04348,0.358912,0.147568,15,32765
2.02502,0.348756,0.145816,17,32765
2.0262,0.341964,0.145474,18,32765
2.00768,0.332038,0.143428,18,32765
1.99895,0.323756,0.142369,18,32765
2.00003,0.317116,0.142235,18,32765
1.97151,0.305879,0.139908,18,32765
1.9923,0.302157,0.140868,18,32765
2.01307,0.298288,0.141998,18,32765
2.00422,0.290048,0.140962,18,32765
1.99531,0.281847,0.140293,18,32765
1.99626,0.275218,0.139943,18,32765
1.97743,0.265876,0.138105,18,32765
1.95852,0.256735,0.136635,18,32765
1.95938,0.250292,0.13637,18,32765
1.98001,0.246276,0.137518,17,32765
1.97095,0.238514,0.13631,17,32765
1.97175,0.231919,0.136141,18,32765
1.9527,0.223074,0.134506,18,32765
1.96336,0.217741,0.134962,18,32765
1.92441,0.206927,0.132079,17,32765
1.98464,0.20675,0.135921,17,32765
1.95556,0.197118,0.133504,18,32765
1.96618,0.19151,0.133692,17,32765
1.94696,0.183032,0.132148,18,32765
1.92771,0.174657,0.130434,18,32765
1.94818,0.170016,0.131513,18,32765
1.93881,0.162728,0.130548,18,32765
1.91947,0.154757,0.12871,17,32765
1.86029,0.143905,0.124587,13,32765
0,0,0,0,32765
0,0,0,0,32765
1.74223,0.117478,0.115512,13,32765
0,0,0,0,32765
0,0,0,12,32765
1.32496,0.0760926,0.0871563,14,32765
1.20565,0.0652809,0.0790119,16,32765
1.21584,0.061833,0.0794431,16,32765
1.19612,0.0568992,0.0779109,17,32765
1.20628,0.0534505,0.0783786,16,32765
1.18652,0.048733,0.0768535,16,32765
1.1468,0.0433738,0.0740211,17,32765
1.13697,0.0392496,0.0731863,17,32765
1.17702,0.0367385,0.0753547,16,32765
1.14722,0.0320278,0.0732202,15,32765
1.17727,0.0290084,0.0747741,15,32765
1.14744,0.0245648,0.072715,15,32765
1.12757,0.0204902,0.0711486,15,32765
1.10769,0.0165521,0.0696163,15,32765
1.10776,0.0129643,0.0692454,14,32765
1.13775,0.00963698,0.0709573,15,32765
1.09787,0.00576719,0.068141,14,32765
1.13783,0.00231211,0.0701921,15,32765
1.08795,-0.0012855,0.0668379,15,32765
1.04804,-0.00458337,0.0639725,15,32765
1.04804,-0.00794454,0.0636209,15,32765
1.03806,-0.0112457,0.0625452,15,32765
1.02806,-0.0144533,0.0615427,15,32765
2.1803,0.713665,0.164276,18,32765
2.15407,0.697507,0.162444,18,32765
2.15628,0.690635,0.162477,17,32765
2.13945,0.677676,0.161253,17,32765
2.15117,0.673675,0.16189,17,32765
2.17245,0.672469,0.163268,17,32765
2.12697,0.650763,0.159341,17,32765
2.15767,0.652661,0.161524,17,32765
2.12155,0.634269,0.158465,18,32765
2.13315,0.630269,0.159141,17,32765
2.09695,0.612038,0.155868,17,32765
2.12775,0.613367,0.15771,17,32765
2.14896,0.611842,0.158777,18,32765
2.16054,0.607567,0.159445,18,32765
2.14331,0.595123,0.15794,17,32765
2.09719,0.574842,0.154172,17,32765
2.14726,0.580907,0.157219,17,32765
2.12992,0.568638,0.155477,18,32765
2.12215,0.559116,0.154441,17,32765
2.13362,0.554723,0.155072,17,32765
2.10649,0.540263,0.152366,17,32765
2.12761,0.53828,0.153427,17,32765
2.08098,0.519278,0.149623,17,32765
2.14081,0.526765,0.153477,17,32765
2.11347,0.512654,0.151076,16,32765
2.12491,0.507883,0.151412,17,32765
2.10722,0.496151,0.149461,17,32765
2.1089,0.489099,0.149119,17,32765
2.12027,0.484226,0.149547,17,32765
2.09271,0.470605,0.147011,16,32765
2.09431,0.463565,0.146599,17,32765
2.05687,0.448074,0.14352,17,32765
2.07791,0.445363,0.144394,17,32765
2.05989,0.434289,0.142585,17,32765
2.07111,0.429471,0.143093,16,32765
2.05302,0.418526,0.141224,17,32765
2.08379,0.417523,0.142813,18,32765
2.07541,0.408658,0.141663,17,32765
2.07678,0.401786,0.141242,18,32765
2.06831,0.393098,0.140287,18,32765
2.06966,0.38613,0.139699,18,32765
2.07097,0.379241,0.139188,16,32765
2.20976,0.396954,0.148003,12,32765
0,0,0,0,32765
2.12392,0.366913,0.141267,12,32765
2.16451,0.366424,0.143619,13,32765
2.06732,0.342853,0.136578,16,32765
2.06847,0.335967,0.136192,18,32765
2.06962,0.328994,0.135821,18,32765
2.03127,0.316024,0.132888,18,32765
2.05207,0.312239,0.133869,17,32765
2.04325,0.304021,0.132733,17,32765
2.0344,0.295751,0.131679,17,32765
2.0453,0.290337,0.131781,18,32765
2.04629,0.283431,0.131463,18,32765
2.04727,0.276511,0.130927,17,32765
2.04819,0.269712,0.130626,17,32765
2.0788,0.266748,0.132119,17,32765
2.04007,0.25503,0.129171,16,32765
2.02108,0.245907,0.127867,16,32765
2.03184,0.240268,0.128002,17,32765
2.08223,0.239174,0.130804,17,32765
2.03345,0.226687,0.127202,16,32765
2.04413,0.221056,0.127622,17,32765
2.09447,0.219566,0.130672,16,32765
2.06543,0.209592,0.128262,16,32765
2.04625,0.200865,0.126913,15,32765
1.99724,0.189405,0.123595,16,32765
2.04756,0.187361,0.126514,17,32765
2.04817,0.180676,0.126301,16,32765
1.9891,0.16878,0.122456,17,32765
2.02944,0.165452,0.12486,17,32765
1.99018,0.155641,0.122308,15,32765
2.01062,0.150479,0.123136,13,32765
0,0,0,0,32765
0,0,0,0,32765
1.74308,0.11324,0.106572,13,32765
1.58405,0.0977154,0.0966536,12,32765
1.38507,0.0808786,0.0845058,14,32765
1.41523,0.0779872,0.0863021,14,32765
1.28589,0.0666268,0.0783851,16,32765
1.25619,0.0609899,0.0765883,17,32765
1.24641,0.0564597,0.0759357,17,32765
1.26654,0.0532292,0.0771236,15,32765
1.25672,0.0487517,0.0766468,16,32765
1.23693,0.0438407,0.0754052,17,32765
1.2271,0.0394049,0.0746983,17,32765
1.23718,0.0356746,0.0756113,16,32765
1.22731,0.0313931,0.0749658,15,32765
1.23737,0.0276473,0.0757657,15,32765
1.22747,0.0234168,0.0752545,16,32765
1.19759,0.0189141,0.073573,15,32765
1.22758,0.0153526,0.0755101,14,32765
1.19767,0.0110951,0.0738613,15,32765
1.16775,0.00709761,0.0721651,15,32765
1.18772,0.00342903,0.0736298,14,32765
1.13781,-0.000419008,0.0705798,14,32765
1.1278,-0.00408709,0.0704093,14,32765
1.14772,-0.00789476,0.0719206,14,32765
1.06782,-0.0108115,0.067333,14,32765
1.11766,-0.0149536,0.0707939,14,32765
2.04848,0.671847,0.133985,19,32765
2.03161,0.659153,0.133036,19,32765
2.0432,0.655708,0.133689,19,32765
2.03578,0.646104,0.133263,19,32765
2.04741,0.642435,0.133809,18,32765
2.03999,0.632703,0.133135,18,32765
2.0707,0.634783,0.134663,19,32765
2.06316,0.625288,0.134079,19,32765
2.0365,0.610023,0.132024,18,32765
2.04803,0.60629,0.132607,19,32765
2.04047,0.596703,0.131579,18,32765
2.0137,0.581609,0.129447,18,32765
2.00602,0.572243,0.1285,18,32765
2.02709,0.571132,0.12969,18,32765
2.02896,0.564451,0.129607,18,32765
2.00196,0.549789,0.127547,18,32765
2.03271,0.550965,0.128923,19,32765
2.02491,0.541629,0.127996,19,32765
2.03635,0.537525,0.128285,18,32765
2.01877,0.525856,0.127001,18,32765
1.99153,0.511742,0.12461,19,32765
2.02224,0.512586,0.126104,19,32765
2.04329,0.510831,0.126999,20,32765
2.02559,0.499348,0.125489,19,32765
2.01754,0.4903,0.124585,18,32765
2.00949,0.481194,0.123648,18,32765
2.00142,0.472117,0.122511,18,32765
1.96412,0.456368,0.119812,17,32765
1.98512,0.454201,0.120755,19,32765
1.98665,0.447582,0.120301,18,32765
1.97843,0.438724,0.119321,18,32765
1.99941,0.436358,0.120155,18,32765
1.99113,0.427548,0.119102,18,32765
1.97305,0.416741,0.117499,17,32765
1.98421,0.412202,0.117921,18,32765
1.98561,0.405521,0.117418,18,32765
1.98699,0.39885,0.117008,18,32765
1.96875,0.388358,0.1154,18,32765
1.97005,0.381825,0.115001,18,32765
1.9615,0.37347,0.114154,19,32765
1.96278,0.366848,0.113595,19,32765
1.97384,0.362103,0.113677,19,32765
1.97508,0.35543,0.113301,19,32765
1.92711,0.340155,0.110202,18,32765
1.96762,0.340514,0.11198,18,32765
1.92939,0.327199,0.109504,18,32765
1.9305,0.320728,0.109026,18,32765
1.971,0.320698,0.110882,16,32765
1.98196,0.31561,0.111081,15,32765
2.00274,0.312128,0.111845,15,32765
1.93469,0.29489,0.107696,15,32765
1.95543,0.291458,0.108323,18,32765
1.93666,0.282026,0.106836,18,32765
1.92774,0.274118,0.105784,19,32765
1.93856,0.268969,0.106025,19,32765
1.93949,0.262399,0.105517,19,32765
1.92057,0.253333,0.104157,18,32765
1.94122,0.249514,0.104858,18,32765
1.94205,0.243183,0.104446,17,32765
1.92302,0.234364,0.103332,18,32765
1.92382,0.22787,0.102867,18,32765
1.91467,0.220288,0.102043,19,32765
1.92535,0.214986,0.102109,19,32765
1.89627,0.205398,0.100344,20,32765
1.90687,0.20022,0.100826,20,32765
1.90755,0.193879,0.100316,20,32765
1.90818,0.187607,0.100207,18,32765
1.93863,0.184133,0.101543,17,32765
1.95912,0.179546,0.102435,17,32765
1.92987,0.1705,0.100674,16,32765
1.93044,0.164049,0.100512,17,32765
1.92102,0.156845,0.0999516,18,32765
1.91157,0.149712,0.0993333,17,32765
1.97184,0.147788,0.10205,14,32765
0,0,0,0,32765
0,0,0,0,32765
1.81375,0.11799,0.0936939,13,32765
1.7344,0.10713,0.089384,12,32765
1.50543,0.088018,0.0775796,13,32765
1.35614,0.0748221,0.0698465,13,32765
1.35638,0.0703609,0.0698294,13,32765
1.29675,0.0630287,0.0667756,15,32765
1.15728,0.0524765,0.0595428,18,32765
1.1774,0.0495305,0.0605442,18,32765
1.19751,0.046495,0.0616947,16,32765
1.18768,0.042127,0.0611565,17,32765
1.1978,0.0384882,0.0615741,16,32765
1.16796,0.033694,0.0603233,17,32765
1.12813,0.0288636,0.0582281,17,32765
1.16814,0.0261003,0.060469,16,32765
1.13826,0.0217071,0.0590111,16,32765
1.14831,0.01812,0.0596764,15,32765
1.14836,0.0143384,0.0597678,15,32765
1.12842,0.010423,0.0589101,15,32765
1.10846,0.00670001,0.0580102,15,32765
1.09848,0.00312722,0.0577014,15,32765
1.06852,-0.000443546,0.0561688,15,32765
1.0685,-0.00392961,0.0565939,15,32765
1.07845,-0.00748351,0.0573719,14,32765
1.04844,-0.0106859,0.0561863,15,32765
1.01843,-0.0137015,0.0548677,14,32765
2.14351,0.700697,0.148341,18,32765
2.13636,0.690748,0.146125,17,32765
2.1292,0.680707,0.144059,17,32765
2.13153,0.673677,0.142556,18,32765
2.07658,0.649027,0.137738,17,32765
2.12641,0.657109,0.139533,18,32765
2.15724,0.658978,0.140178,17,32765
2.10209,0.634716,0.135488,17,32765
2.10423,0.627803,0.134392,17,32765
2.09674,0.61816,0.132869,17,32765
2.07008,0.602864,0.13013,17,32765
2.14886,0.618124,0.133871,18,32765
2.14132,0.608364,0.132507,18,32765
2.08571,0.58509,0.128013,17,32765
2.11655,0.586215,0.128694,17,32765
2.07037,0.566067,0.124963,17,32765
2.10118,0.567102,0.125918,17,32765
2.08377,0.555083,0.124049,17,32765
2.06632,0.543177,0.122029,17,32765
2.09713,0.543885,0.123073,17,32765
2.11831,0.54188,0.12335,18,32765
2.04268,0.515392,0.118056,18,32765
2.08312,0.518446,0.119648,17,32765
2.06546,0.506866,0.117777,18,32765
2.06715,0.500103,0.116977,17,32765
2.1077,0.502445,0.118494,16,32765
2.07052,0.486281,0.115694,17,32765
2.04297,0.472639,0.113498,16,32765
2.03483,0.463654,0.112257,18,32765
2.05585,0.461341,0.112807,18,32765
2.05741,0.454518,0.112226,18,32765
2.02966,0.441316,0.110072,18,32765
2.0409,0.436664,0.110197,18,32765
2.05216,0.431831,0.110264,18,32765
2.05361,0.425013,0.109714,18,32765
2.03548,0.414178,0.108138,18,32765
2.04667,0.409326,0.108079,18,32765
2.01866,0.396719,0.106044,18,32765
2.02981,0.391804,0.106139,18,32765
2.03114,0.384932,0.105749,18,32765
2.0128,0.374483,0.104359,17,32765
2.02386,0.369679,0.104554,17,32765
2.00543,0.359487,0.102964,17,32765
2.03614,0.358046,0.10419,18,32765
2.03735,0.351211,0.103648,18,32765
2.03854,0.344358,0.103332,18,32765
2.03968,0.337539,0.103316,17,32765
2.03098,0.329095,0.10212,17,32765
2.02221,0.320785,0.101272,15,32765
2.2108,0.343196,0.110343,13,32765
2.02433,0.307289,0.100814,13,32765
2.12415,0.315206,0.105414,13,32765
2.02638,0.29366,0.100221,16,32765
2.00759,0.28407,0.0988389,17,32765
2.01845,0.278687,0.0990354,17,32765
2.02929,0.273255,0.0990863,18,32765
2.01039,0.26391,0.0978021,18,32765
1.99147,0.254627,0.0965527,18,32765
2.02205,0.251705,0.0978675,18,32765
2.02289,0.245022,0.0973232,18,32765
1.98403,0.233653,0.0951362,18,32765
2.0245,0.231597,0.0968376,18,32765
1.96568,0.218334,0.0939676,18,32765
2.00616,0.216001,0.0953147,18,32765
1.99695,0.208384,0.094251,18,32765
1.96781,0.198755,0.0927523,18,32765
1.98835,0.194188,0.0935432,18,32765
1.99895,0.188519,0.0936661,18,32765
2.00954,0.182634,0.0936809,17,32765
2.01016,0.17594,0.0933127,16,32765
1.99085,0.16742,0.0921049,16,32765
1.99141,0.160822,0.0918148,16,32765
2.01185,0.155829,0.092533,17,32765
1.97253,0.146265,0.0901976,14,32765
1.98298,0.140513,0.0903448,12,32765
0,0,0,0,32765
1.82439,0.117105,0.0824708,12,32765
1.77492,0.108092,0.0799476,12,32765
1.4262,0.082129,0.0639953,14,32765
1.38657,0.0753364,0.0619699,15,32765
1.40678,0.0717547,0.0625195,14,32765
1.36711,0.0651935,0.0605078,14,32765
1.28748,0.0572012,0.0566705,17,32765
1.30764,0.0537806,0.0572904,17,32765
1.27787,0.0484065,0.0557267,17,32765
1.2381,0.042848,0.0536879,17,32765
