x, y, z, intensity, ring
8.62293,5.01637,0.285369,14,32765
8.70893,5.02774,0.282849,15,32765
8.69999,4.98335,0.277867,16,32765
8.77759,4.98886,0.274431,17,32765
8.79436,4.95947,0.26978,17,32765
8.82842,4.93995,0.265018,17,32765
8.84505,4.91034,0.260919,17,32765
8.8263,4.86185,0.255329,18,32765
8.83399,4.82726,0.251313,18,32765
8.8588,4.80287,0.246074,20,32765
8.88386,4.77767,0.242905,24,32765
8.89983,4.74805,0.239183,25,32765
8.88026,4.69984,0.234402,25,32765
8.8962,4.66985,0.22935,23,32765
8.92984,4.64901,0.222913,19,32765
19.0362,9.83112,0.465193,21,32765
18.8828,9.6708,0.453409,26,32765
9.02102,4.5816,0.211263,16,32765
9.00093,4.53287,0.206566,19,32765
9.01628,4.50243,0.202917,20,32765
9.05816,4.48573,0.200165,21,32765
9.02832,4.4334,0.195248,20,32765
9.00717,4.38576,0.19089,22,32765
8.94099,4.31618,0.184789,19,32765
8.89246,4.25568,0.181559,18,32765
8.92506,4.23382,0.180348,18,32765
8.95741,4.21238,0.175222,17,32765
8.91717,4.157,0.170567,17,32765
8.93106,4.12724,0.166214,17,32765
8.94475,4.09761,0.163356,18,32765
8.98573,4.08021,0.159433,20,32765
8.96294,4.03367,0.155007,20,32765
8.97648,4.00358,0.151989,27,32765
9.01736,3.98555,0.149036,23,32765
9.02167,3.95109,0.144469,14,32765
9.06243,3.9328,0.141085,11,32765
0,0,0,0,32765
0,0,0,0,32765
0,0,0,0,32765
0,0,0,0,32765
0,0,0,0,32765
0,0,0,0,32765
2.10273,0.854832,0.0260284,13,32765
2.14265,0.862837,0.0254981,14,32765
2.08053,0.82972,0.0237797,14,32765
2.00885,0.793513,0.0218392,15,32765
2.06738,0.808624,0.0215282,15,32765
2.04206,0.791004,0.0204676,14,32765
1.96997,0.755614,0.0188445,14,32765
1.92573,0.731337,0.0175035,15,32765
1.97488,0.742733,0.0169259,16,32765
1.86484,0.694435,0.0151777,15,32765
1.83891,0.6781,0.0142167,15,32765
1.82231,0.665301,0.0131375,15,32765
1.88091,0.679716,0.0126702,15,32765
0,0,0,0,32765
0,0,0,0,32765
0,0,0,0,32765
0,0,0,0,32765
8.93888,3.06552,0.0379866,12,32765
8.91079,3.02404,0.0331452,13,32765
9.00579,3.02407,0.0286436,12,32765
8.84452,2.93876,0.0231736,11,32765
8.89193,2.9228,0.018537,11,32765
8.69194,2.8266,0.0127502,11,32765
8.58664,2.76224,0.00757426,11,32765
0,0,0,0,32765
8.41302,2.6483,-0.00265702,11,32765
8.27794,2.57769,-0.00820396,11,32765
8.30591,6.11166,0.402329,55,32765
8.32684,6.08369,0.393441,54,32765
8.3393,6.05015,0.384515,55,32765
8.35967,6.02252,0.375889,55,32765
8.36342,5.98351,0.367306,55,32765
8.36682,5.9448,0.358665,48,32765
8.20692,5.79057,0.343965,20,32765
7.84965,5.49976,0.321991,14,32765
7.9098,5.5013,0.316899,14,32765
7.92872,5.47439,0.309824,14,32765
8.04612,5.51576,0.306625,13,32765
8.34535,5.68053,0.311113,18,32765
8.41347,5.68724,0.307173,34,32765
8.41561,5.64864,0.29984,28,32765
8.42618,5.61519,0.293348,19,32765
8.39504,5.55399,0.285514,15,32765
8.41382,5.52579,0.279505,16,32765
8.41546,5.48708,0.272832,15,32765
8.43377,5.45921,0.266616,15,32765
8.47705,5.4477,0.261906,16,32765
8.49495,5.42002,0.256036,16,32765
8.4962,5.38102,0.250669,17,32765
8.51398,5.35314,0.244329,17,32765
8.51485,5.31433,0.238372,17,32765
8.53254,5.2861,0.233194,17,32765
8.5245,5.24226,0.227584,17,32765
8.54201,5.21392,0.221894,16,32765
8.56806,5.19052,0.21749,16,32765
8.63695,5.19268,0.213391,18,32765
8.67146,5.17418,0.208738,18,32765
8.71446,5.16073,0.204642,19,32765
8.73174,5.13166,0.199333,20,32765
8.78328,5.12296,0.195583,20,32765
8.81767,5.10375,0.191089,21,32765
8.84368,5.07881,0.18706,22,32765
8.83468,5.03433,0.181089,21,32765
8.86031,5.0096,0.17657,21,32765
8.87707,4.98002,0.171235,21,32765
8.91131,4.95989,0.167432,22,32765
8.90149,4.9159,0.162332,21,32765
8.88305,4.86656,0.1579,19,32765
8.86404,4.81807,0.151775,19,32765
8.87156,4.7833,0.148206,17,32765
18.8948,10.1062,0.307163,39,32765
18.9284,10.0434,0.298972,39,32765
18.9625,9.97933,0.288183,31,32765
18.9964,9.91506,0.2735,29,32765
19.0201,9.84788,0.26417,25,32765
19.0714,9.7923,0.257099,20,32765
18.9353,9.64136,0.244366,21,32765
8.98871,4.53822,0.111935,15,32765
9.00408,4.50775,0.108281,25,32765
9.06388,4.49993,0.105452,28,32765
9.07895,4.46954,0.101494,27,32765
9.07591,4.43039,0.0976755,29,32765
9.04591,4.37784,0.0927451,30,32765
9.04269,4.33848,0.0905919,29,32765
8.94917,4.25591,0.0879157,25,32765
8.93633,4.21303,0.0821636,23,32765
8.96859,4.19145,0.0787073,23,32765
8.98258,4.16145,0.0743214,24,32765
8.97821,4.12323,0.0712941,22,32765
8.99196,4.09324,0.0668624,22,32765
9.0148,4.06714,0.0631203,25,32765
9.00106,4.02455,0.0598942,28,32765
8.98714,3.98208,0.0562992,42,32765
9.06468,3.97981,0.0522551,45,32765
9.09635,3.95734,0.0485151,25,32765
9.0453,3.89912,0.0441432,13,32765
2.33584,0.997676,0.0104045,13,32765
2.20103,0.931391,0.00890592,14,32765
2.14877,0.900901,0.0076874,14,32765
2.08713,0.86685,0.00643888,15,32765
2.11777,0.871283,0.00557354,17,32765
2.0373,0.830283,0.00455961,16,32765
2.02149,0.81606,0.00358362,16,32765
2.00565,0.801837,0.00263741,17,32765
1.98038,0.784205,0.00152354,17,32765
1.88991,0.741036,0.000611683,16,32765
1.94827,0.756539,-0.000105974,17,32765
1.87609,0.72138,-0.000937013,17,32765
1.85044,0.704476,-0.00178382,17,32765
1.89948,0.716139,-0.00279434,18,32765
1.81749,0.678473,-0.00343739,18,32765
1.84779,0.683056,-0.00422751,17,32765
1.7279,0.632393,-0.00483549,15,32765
1.76758,0.640338,-0.00576283,12,32765
0,0,-0,0,32765
8.8966,3.15637,-0.0380556,13,32765
8.88804,3.12048,-0.041476,13,32765
8.92646,3.10138,-0.0470944,11,32765
8.81356,3.03001,-0.0501713,11,32765
8.70014,2.95985,-0.0540469,11,32765
8.54847,2.87762,-0.0576263,11,32765
8.59549,2.86309,-0.0626756,11,32765
8.38619,2.7634,-0.0655562,11,32765
8.32833,2.71508,-0.0701687,11,32765
8.20364,2.6456,-0.0738372,11,32765
8.3072,2.64999,-0.0799318,11,32765
8.09604,2.55488,-0.082417,11,32765
7.94159,2.47913,-0.086136,11,32765
8.31081,6.11164,0.284233,47,32765
8.31489,6.07234,0.281579,45,32765
8.31889,6.033,0.278241,45,32765
8.33074,5.99965,0.275584,43,32765
8.3511,5.97141,0.272618,40,32765
8.33824,5.92068,0.2685,35,32765
8.23496,5.80722,0.260908,17,32765
7.84458,5.49354,0.245047,12,32765
7.88734,5.48477,0.24335,13,32765
7.84837,5.41836,0.236839,13,32765
7.89954,5.41468,0.23445,13,32765
8.09949,5.51199,0.23692,11,32765
8.34163,5.63601,0.239675,14,32765
8.39354,5.63069,0.236476,14,32765
8.35427,5.56367,0.23088,13,32765
8.38923,5.54732,0.227206,13,32765
8.41565,5.52551,0.224715,13,32765
8.45042,5.50904,0.221291,13,32765
8.4685,5.48139,0.216591,13,32765
8.46164,5.43683,0.212658,13,32765
8.4797,5.40882,0.207356,14,32765
8.48104,5.36954,0.204125,14,32765
8.48244,5.33002,0.198877,14,32765
8.46649,5.28031,0.193156,14,32765
8.51846,5.27262,0.189136,14,32765
8.53594,5.24441,0.185272,14,32765
8.58747,5.23697,0.181851,14,32765
8.65615,5.23963,0.178309,16,32765
8.65643,5.20059,0.173485,16,32765
8.69119,5.18158,0.169675,16,32765
8.74286,5.17305,0.166185,17,32765
8.76028,5.14364,0.161342,17,32765
8.79482,5.12434,0.157532,17,32765
8.79462,5.08499,0.151947,17,32765
8.8119,5.05513,0.147612,18,32765
8.79434,5.00534,0.143032,17,32765
8.84545,4.99645,0.138308,17,32765
8.86224,4.96673,0.133406,17,32765
8.8786,4.93751,0.130454,16,32765
8.85147,4.88347,0.124027,14,32765
18.8151,10.2972,0.252214,19,32765
18.8498,10.2338,0.241986,29,32765
18.9109,10.184,0.232568,35,32765
18.9269,10.112,0.224494,37,32765
18.9515,10.0449,0.211016,21,32765
18.976,9.97716,0.204327,16,32765
19.0093,9.91375,0.192266,17,32765
19.0249,9.84059,0.17619,16,32765
19.1112,9.80424,0.169374,15,32765
18.7876,9.5586,0.15702,14,32765
8.99902,4.54084,0.0691902,12,32765
9.00518,4.50637,0.0657409,19,32765
9.01147,4.47139,0.0608604,20,32765
9.04453,4.44968,0.0566887,21,32765
9.06867,4.4232,0.0522185,22,32765
9.02976,4.366,0.0483817,23,32765
9.04425,4.33595,0.0432649,23,32765
8.96881,4.26187,0.0414078,18,32765
8.91974,4.20196,0.0367791,18,32765
8.89753,4.15517,0.0324053,18,32765
8.94785,4.14183,0.0288917,18,32765
8.96152,4.1122,0.0246465,17,32765
8.99372,4.08986,0.020552,17,32765
8.98895,4.05193,0.0161882,18,32765
9.01167,4.02574,0.0119813,19,32765
9.0158,3.99186,0.00817032,24,32765
9.02891,3.96211,0.00462217,29,32765
8.9137,3.87612,0.00114016,21,32765
2.32346,1.00121,-0.000439379,13,32765
2.21651,0.946139,-0.00151244,14,32765
2.09994,0.888056,-0.00219378,13,32765
2.04752,0.857926,-0.00279674,14,32765
1.9765,0.820384,-0.00351008,14,32765
2.0162,0.829043,-0.00428591,14,32765
1.97264,0.803471,-0.00481517,15,32765
1.95671,0.789531,-0.00538936,15,32765
1.96857,0.78682,-0.00600677,16,32765
1.91536,0.758251,-0.00634207,15,32765
1.87128,0.733723,-0.00671588,16,32765
1.7898,0.694962,-0.00719557,15,32765
1.78273,0.685494,-0.00767113,15,32765
1.77561,0.67613,-0.0079671,15,32765
1.76846,0.666775,-0.00838079,15,32765
0,0,-0,0,32765
0,0,-0,0,32765
0,0,-0,0,32765
0,0,-0,0,32765
9.01828,3.23176,-0.0531825,12,32765
8.86863,3.14526,-0.0538877,12,32765
8.79393,3.08644,-0.0547555,11,32765
8.71879,3.02861,-0.0559425,11,32765
8.56763,2.94552,-0.0564063,11,32765
0,0,-0,0,32765
0,0,-0,0,32765
0,0,-0,0,32765
8.32,2.74077,-0.057982,11,32765
0,0,-0,0,32765
0,0,-0,0,32765
0,0,-0,0,32765
0,0,-0,0,32765
8.18124,2.55131,-0.0553576,11,32765
8.32806,6.14251,0.188553,57,32765
8.31616,6.09124,0.185706,56,32765
8.32834,6.05767,0.182718,50,32765
8.26735,5.97151,0.178562,24,32765
7.93014,5.68703,0.168029,13,32765
7.79422,5.55057,0.161889,14,32765
7.82861,5.53677,0.15874,31,32765
7.84679,5.51106,0.155807,35,32765
7.97983,5.56517,0.155576,22,32765
7.89184,5.46414,0.148719,15,32765
7.91019,5.43763,0.14532,15,32765
7.96145,5.43364,0.143048,15,32765
7.9714,5.40133,0.139283,14,32765
8.23821,5.54232,0.139534,13,32765
8.38163,5.59784,0.137657,17,32765
8.41669,5.58134,0.13377,17,32765
8.41818,5.54289,0.130775,17,32765
8.42789,5.50995,0.126773,16,32765
8.45436,5.48774,0.122195,16,32765
8.45595,5.44853,0.118653,16,32765
8.49089,5.43124,0.113568,16,32765
8.47545,5.3811,0.110288,18,32765
8.49381,5.35216,0.105427,18,32765
8.51187,5.3235,0.100462,16,32765
8.63192,5.35781,0.0967919,17,32765
8.66671,5.33964,0.0930469,23,32765
8.69296,5.31608,0.0889148,21,32765
8.72766,5.29763,0.0844129,22,32765
8.75384,5.27373,0.0799615,21,32765
8.77168,5.24408,0.0757577,21,32765
8.78053,5.20973,0.0714932,22,32765
8.78945,5.17504,0.0665528,21,32765
8.81545,5.15054,0.0624684,22,32765
8.79804,5.10099,0.0569349,20,32765
8.8327,5.08101,0.0526898,17,32765
8.81526,5.03104,0.0484636,14,32765
18.6899,10.5862,0.0913612,28,32765
18.7517,10.538,0.081095,41,32765
18.7689,10.4662,0.0747548,41,32765
18.7954,10.398,0.0624124,36,32765
18.822,10.3291,0.0514273,26,32765
18.8568,10.2655,0.0411726,24,32765
18.8916,10.2014,0.0314031,21,32765
18.8989,10.1245,0.0234915,16,32765
18.9146,10.0526,0.0100999,15,32765
18.8772,9.95218,0.003484,14,32765
18.999,9.93527,-0.00857645,13,32765
0,0,-0,13,32765
0,0,-0,12,32765
19.1072,9.74752,-0.041208,12,32765
18.8005,9.51227,-0.0528109,13,32765
18.7606,9.41356,-0.059674,15,32765
9.06049,4.50785,-0.0336223,18,32765
9.04882,4.4638,-0.0378273,25,32765
9.09096,4.44602,-0.0424873,27,32765
9.08815,4.40606,-0.0459623,28,32765
9.08474,4.36707,-0.0510205,30,32765
9.06364,4.31849,-0.0522687,32,32765
9.03286,4.26666,-0.0564095,29,32765
8.94748,4.18969,-0.0600459,24,32765
8.97069,4.16351,-0.0637708,24,32765
8.9935,4.13791,-0.0681045,23,32765
8.98028,4.09466,-0.0720455,21,32765
9.01197,4.07315,-0.0765334,21,32765
9.00737,4.03456,-0.0806088,19,32765
9.1669,4.06958,-0.0857868,14,32765
2.17837,0.958468,-0.0212143,18,32765
2.12656,0.927194,-0.0214965,16,32765
2.12044,0.916154,-0.0220777,16,32765
2.05002,0.877396,-0.0223268,16,32765
1.9701,0.835359,-0.0221432,16,32765
1.98207,0.832702,-0.0228881,16,32765
1.95715,0.814506,-0.0233766,16,32765
1.89512,0.781322,-0.023274,16,32765
1.86994,0.763656,-0.0235299,17,32765
1.92804,0.780021,-0.0248408,18,32765
1.86562,0.74764,-0.0245673,17,32765
1.8216,0.723036,-0.0244383,17,32765
1.81465,0.713394,-0.0248269,17,32765
1.79835,0.700126,-0.0253579,17,32765
1.82863,0.704996,-0.0262798,15,32765
1.78421,0.681194,-0.0259486,13,32765
0,0,-0,0,32765
10.2448,3.83462,-0.153991,16,32765
10.22,3.78654,-0.157261,13,32765
0,0,-0,0,32765
0,0,-0,0,32765
0,0,-0,0,32765
8.6579,3.07856,-0.138985,11,32765
8.50758,2.99374,-0.137759,11,32765
8.51716,2.9663,-0.139441,11,32765
8.29971,2.86085,-0.137184,11,32765
8.41295,2.86966,-0.139094,11,32765
8.26107,2.78823,-0.137557,11,32765
8.32704,2.78015,-0.139766,11,32765
8.1461,2.69045,-0.137453,11,32765
7.99321,2.61125,-0.134275,11,32765
8.00155,2.58554,-0.134982,11,32765
8.04781,2.57235,-0.135076,11,32765
7.85583,2.48316,-0.132192,11,32765
7.93993,2.48244,-0.131988,11,32765
8.29824,6.09731,0.227984,46,32765
8.30235,6.05822,0.217765,45,32765
8.3224,6.03095,0.209266,45,32765
8.25332,5.93905,0.198318,22,32765
7.86629,5.62116,0.181646,12,32765
7.7792,5.51964,0.170963,13,32765
7.7813,5.48222,0.16434,26,32765
7.81597,5.46787,0.157165,23,32765
7.9492,5.52173,0.152245,16,32765
7.96724,5.49582,0.146459,13,32765
7.90269,5.41338,0.13858,13,32765
7.9205,5.38745,0.132111,13,32765
7.90504,5.33914,0.124632,12,32765
8.28051,5.55145,0.123973,12,32765
8.41567,5.60128,0.119057,14,32765
8.40122,5.55083,0.112508,14,32765
8.43623,5.53415,0.106313,14,32765
8.41233,5.47944,0.0999369,14,32765
8.41367,5.44075,0.093978,14,32765
8.46512,5.43484,0.0886437,14,32765
8.46654,5.39561,0.0823872,14,32765
8.48456,5.36731,0.076213,14,32765
8.48553,5.32834,0.070809,15,32765
8.50325,5.30009,0.0653969,14,32765
8.5206,5.27221,0.0594244,14,32765
8.62326,5.2963,0.0544632,18,32765
8.64077,5.26773,0.0492886,18,32765
8.69248,5.2597,0.043958,18,32765
8.74445,5.25101,0.0387635,18,32765
8.72765,5.20121,0.0329346,16,32765
8.76235,5.18197,0.0277666,17,32765
8.77979,5.15239,0.022846,18,32765
8.8141,5.13336,0.0175991,16,32765
8.7531,5.05916,0.012083,12,32765
18.6759,10.7121,0.0145973,16,32765
18.7031,10.6445,0.005206,30,32765
18.7214,10.5716,-0.00609003,35,32765
18.7486,10.5029,-0.0143155,25,32765
18.8364,10.4685,-0.0248254,16,32765
18.8271,10.3821,-0.0342974,17,32765
18.7565,10.2613,-0.0439548,18,32765
18.8256,10.2181,-0.0533246,15,32765
18.974,10.2168,-0.0635654,12,32765
18.629,9.95035,-0.0727166,12,32765
18.8123,9.96774,-0.0803204,12,32765
18.9606,9.96512,-0.0910025,12,32765
19.1441,9.98101,-0.107029,12,32765
18.8574,9.75185,-0.113142,12,32765
0,0,-0,12,32765
19.092,9.71051,-0.135357,12,32765
19.0091,9.58633,-0.143874,11,32765
18.8092,9.4048,-0.150713,13,32765
9.04874,4.48604,-0.076064,12,32765
9.04591,4.4465,-0.0807326,18,32765
9.04258,4.4077,-0.0861996,21,32765
9.07525,4.3861,-0.0918431,21,32765
9.05377,4.33841,-0.0949137,22,32765
9.0775,4.31183,-0.0982641,24,32765
9.0741,4.27227,-0.0965582,24,32765
8.96145,4.18263,-0.100277,19,32765
8.93013,4.13131,-0.103273,19,32765
8.96218,4.10943,-0.107378,19,32765
8.97586,4.07936,-0.111602,18,32765
8.95307,4.03257,-0.115595,18,32765
2.35574,1.05161,-0.0314742,13,32765
2.13062,0.942602,-0.0292534,14,32765
2.13379,0.935386,-0.030132,15,32765
2.0635,0.89641,-0.0300909,15,32765
2.01139,0.865732,-0.0302613,15,32765
1.93147,0.823731,-0.029951,15,32765
1.96183,0.828929,-0.0313844,15,32765
1.90004,0.795283,-0.0310823,14,32765
1.87497,0.777424,-0.0315504,15,32765
1.82207,0.748305,-0.0315092,16,32765
0,0,-0,0,32765
0,0,-0,0,32765
0,0,-0,0,32765
0,0,-0,0,32765
10.1856,3.98725,-0.19907,11,32765
10.1518,3.93603,-0.202824,15,32765
10.2018,3.91708,-0.209201,17,32765
10.196,3.87618,-0.213214,16,32765
10.218,3.84595,-0.218284,13,32765
0,0,-0,0,32765
0,0,-0,0,32765
0,0,-0,0,32765
0,0,-0,0,32765
0,0,-0,0,32765
0,0,-0,0,32765
0,0,-0,0,32765
0,0,-0,0,32765
7.90495,2.71294,-0.203092,11,32765
0,0,-0,0,32765
8.00721,2.69093,-0.21448,11,32765
0,0,-0,0,32765
0,0,-0,0,32765
8.03236,2.61374,-0.228209,11,32765
7.81195,2.51519,-0.226728,11,32765
7.63868,2.43305,-0.226392,11,32765
0,0,-0,0,32765
7.77788,2.42259,-0.241003,11,32765
8.28272,6.10437,0.131853,41,32765
8.27067,6.0534,0.121586,28,32765
8.29875,6.03203,0.113214,19,32765
8.1081,5.85221,0.101774,13,32765
7.78614,5.58071,0.0906341,28,32765
7.82932,5.57199,0.0826088,40,32765
7.82343,5.52853,0.0760382,38,32765
7.83364,5.49675,0.0684083,40,32765
7.90941,5.51064,0.0617037,39,32765
8.09186,5.59858,0.0570933,32,32765
7.98649,5.48722,0.0497759,17,32765
7.91366,5.39895,0.0427338,15,32765
7.94791,5.38419,0.0358448,16,32765
7.96639,5.35685,0.0297921,16,32765
8.06751,5.38561,0.0237077,14,32765
8.35243,5.53507,0.0184333,14,32765
8.42077,5.54048,0.012123,17,32765
8.47225,5.53491,0.00626662,17,32765
8.457,5.48504,0.000438711,17,32765
8.4581,5.44647,-0.00528029,17,32765
8.51011,5.43947,-0.0114265,16,32765
8.51138,5.40024,-0.0176111,16,32765
8.49554,5.35041,-0.0228129,18,32765
8.48788,5.30615,-0.0281602,18,32765
8.53073,5.29406,-0.0342372,18,32765
8.53973,5.26046,-0.0397165,17,32765
8.62536,5.27382,-0.0452116,19,32765
8.71125,5.28655,-0.0511197,25,32765
8.72044,5.25197,-0.0564354,23,32765
8.76374,5.23804,-0.0623151,24,32765
8.83295,5.23902,-0.0679693,21,32765
8.78163,5.16855,-0.0723743,21,32765
8.80733,5.14441,-0.0777456,22,32765
8.84158,5.12522,-0.0833255,19,32765
8.82381,5.07592,-0.0882724,13,32765
18.6021,10.6179,-0.195096,17,32765
18.6987,10.5894,-0.207037,17,32765
18.7346,10.5256,-0.215286,16,32765
18.709,10.4279,-0.225009,15,32765
18.7871,10.39,-0.235069,14,32765
18.7955,10.3123,-0.244635,15,32765
18.812,10.2402,-0.253712,14,32765
18.8108,10.1582,-0.263094,14,32765
18.8624,10.1041,-0.273915,13,32765
18.9137,10.0503,-0.281252,13,32765
18.9826,10.0054,-0.292005,13,32765
18.8648,9.86368,-0.304797,14,32765
19.0128,9.8605,-0.314644,14,32765
19.0281,9.78696,-0.32412,14,32765
19.0431,9.71346,-0.335252,13,32765
14.6954,7.43215,-0.265498,14,32765
19.136,9.59559,-0.353899,12,32765
19.0611,9.47683,-0.359695,14,32765
19.1378,9.43405,-0.370758,15,32765
9.0365,4.41732,-0.180415,18,32765
9.06016,4.39132,-0.186068,25,32765
9.10181,4.37388,-0.190086,27,32765
9.09858,4.33416,-0.192984,28,32765
9.11341,4.30297,-0.191477,30,32765
9.10054,4.25961,-0.196063,33,32765
9.08764,4.21611,-0.199053,30,32765
9.00187,4.13933,-0.200789,26,32765
8.97925,4.09247,-0.204214,27,32765
8.98385,4.0579,-0.208478,18,32765
1.99839,0.894608,-0.0472436,15,32765
1.93738,0.859536,-0.0464894,15,32765
1.92196,0.844911,-0.0468443,17,32765
1.93391,0.842489,-0.0480004,18,32765
1.89083,0.816141,-0.0477794,18,32765
1.87513,0.801965,-0.0482235,18,32765
1.85938,0.78786,-0.0487057,18,32765
1.86202,0.781568,-0.0494221,17,32765
1.79076,0.744604,-0.048346,16,32765
1.83022,0.753773,-0.05024,14,32765
9.67267,3.9458,-0.269526,13,32765
10.112,4.08591,-0.285688,15,32765
10.0883,4.03731,-0.290213,17,32765
10.1106,4.00804,-0.294536,19,32765
10.1516,3.98519,-0.300885,16,32765
10.1551,3.94845,-0.305283,13,32765
10.2705,3.95458,-0.314043,11,32765
10.1153,3.85637,-0.313278,11,32765
0,0,-0,0,32765
0,0,-0,0,32765
0,0,-0,0,32765
0,0,-0,0,32765
0,0,-0,0,32765
0,0,-0,0,32765
0,0,-0,0,32765
0,0,-0,0,32765
0,0,-0,0,32765
0,0,-0,0,32765
7.83321,2.66817,-0.283011,11,32765
7.80374,2.63004,-0.286522,11,32765
7.79301,2.59875,-0.28973,11,32765
7.65885,2.52654,-0.289014,11,32765
7.58124,2.47402,-0.290456,11,32765
7.62678,2.46263,-0.296799,11,32765
7.5391,2.40825,-0.297951,11,32765
7.51798,2.37506,-0.301894,11,32765
7.4491,2.32689,-0.304301,11,32765
8.20358,6.0446,0.0146559,13,32765
8.29646,6.07018,0.0123395,13,32765
8.34875,6.06636,0.00943187,13,32765
8.23029,5.9401,0.00584394,13,32765
7.80301,5.59222,0.00264623,19,32765
7.79743,5.54843,-0.000697868,33,32765
7.78318,5.49937,-0.00375508,34,32765
7.81776,5.48499,-0.00756078,29,32765
7.8191,5.44817,-0.0111415,34,32765
8.01791,5.54756,-0.0142367,31,32765
8.08547,5.55527,-0.0187627,20,32765
7.95505,5.42713,-0.021551,13,32765
7.93189,5.37222,-0.0269407,13,32765
7.95835,5.35087,-0.030542,14,32765
7.97666,5.32352,-0.033905,14,32765
8.27808,5.48423,-0.0397758,12,32765
8.40469,5.52836,-0.0445281,14,32765
8.42292,5.50051,-0.0490451,14,32765
8.44109,5.47253,-0.0540041,15,32765
8.4425,5.43345,-0.0583606,15,32765
8.46058,5.40521,-0.0625449,14,32765
8.49551,5.38752,-0.0667429,13,32765
8.47946,5.33798,-0.0715729,14,32765
8.53094,5.33114,-0.074965,15,32765
8.53162,5.29214,-0.07948,15,32765
8.53223,5.25303,-0.0841192,14,32765
8.59245,5.25041,-0.0884643,15,32765
8.61864,5.22654,-0.093154,19,32765
8.68749,5.22851,-0.0991453,18,32765
8.74792,5.22486,-0.104573,20,32765
8.77392,5.20061,-0.109178,17,32765
8.79137,5.17096,-0.113639,18,32765
8.77424,5.12099,-0.117458,17,32765
8.79142,5.09133,-0.122124,18,32765
8.9126,5.12127,-0.128494,12,32765
18.6759,10.6481,-0.280005,16,32765
18.7372,10.6006,-0.289628,12,32765
18.3016,10.2736,-0.291849,12,32765
18.7461,10.4413,-0.308607,12,32765
18.7633,10.3686,-0.319664,13,32765
18.7016,10.2525,-0.326695,13,32765
18.8849,10.271,-0.340361,13,32765
18.7966,10.1399,-0.347303,13,32765
18.769,10.043,-0.355641,12,32765
18.9173,10.0407,-0.367737,12,32765
19.0483,10.028,-0.379221,12,32765
18.9043,9.87136,-0.388386,12,32765
18.9373,9.80771,-0.397952,12,32765
18.9702,9.7435,-0.406477,12,32765
19.0296,9.69278,-0.418126,13,32765
14.7876,7.46878,-0.330935,12,32765
14.6338,7.32922,-0.335655,11,32765
19.3323,9.60128,-0.452955,12,32765
16.5123,8.13132,-0.393637,12,32765
9.0199,4.40395,-0.219642,13,32765
9.03456,4.37356,-0.224444,20,32765
9.08511,4.36057,-0.229267,20,32765
9.09952,4.3302,-0.233439,21,32765
9.07762,4.28281,-0.23649,21,32765
9.08269,4.24825,-0.24087,24,32765
9.04246,4.19222,-0.245233,24,32765
8.96572,4.11979,-0.245021,20,32765
9.12525,4.15532,-0.253135,18,32765
1.96812,0.888268,-0.0556149,13,32765
1.97112,0.881527,-0.0563872,14,32765
1.95579,0.866769,-0.0567045,14,32765
1.78472,0.78391,-0.0525434,15,32765
1.75981,0.765973,-0.0524722,15,32765
1.81738,0.783914,-0.0548365,17,32765
1.77404,0.758111,-0.0541705,16,32765
1.76736,0.74825,-0.0545708,16,32765
10.0289,4.20684,-0.312994,11,32765
10.0796,4.18884,-0.318253,12,32765
9.97298,4.10642,-0.317851,13,32765
10.0697,4.10734,-0.324466,13,32765
10.0089,4.0443,-0.325344,15,32765
10.0593,4.02587,-0.329624,14,32765
10.2119,4.04753,-0.337194,12,32765
10.1228,3.97365,-0.336829,12,32765
10.257,3.9868,-0.344565,11,32765
0,0,-0,0,32765
0,0,-0,0,32765
0,0,-0,0,32765
0,0,-0,0,32765
0,0,-0,0,32765
0,0,-0,0,32765
0,0,-0,0,32765
0,0,-0,0,32765
0,0,-0,0,32765
0,0,-0,0,32765
0,0,-0,0,32765
0,0,-0,0,32765
7.71074,2.62473,-0.278883,11,32765
7.71908,2.60001,-0.279839,11,32765
7.88868,2.62837,-0.287589,11,32765
7.6123,2.50918,-0.277962,11,32765
7.62023,2.48494,-0.27838,11,32765
0,0,-0,0,32765
7.63584,2.43656,-0.278486,11,32765
7.48181,2.36015,-0.273211,11,32765
7.65153,2.38679,-0.278819,11,32765
8.29838,6.13455,-0.0811562,14,32765
8.25447,6.05925,-0.0829774,15,32765
8.27439,6.03197,-0.0859232,15,32765
8.29368,6.00537,-0.0893982,15,32765
8.28122,5.95423,-0.092123,15,32765
7.87811,5.62401,-0.0908126,20,32765
7.81522,5.53986,-0.0929623,44,32765
7.81722,5.50231,-0.096581,44,32765
7.83503,5.47684,-0.1002,38,32765
7.84483,5.44523,-0.102886,41,32765
7.92847,5.46485,-0.108115,36,32765
8.128,5.56284,-0.113801,30,32765
8.04745,5.46787,-0.118011,17,32765
7.94159,5.3566,-0.119772,16,32765
7.98486,5.34592,-0.123529,17,32765
8.00292,5.31874,-0.128057,17,32765
8.04542,5.30878,-0.132522,15,32765
8.36403,5.4793,-0.141971,14,32765
8.46596,5.50596,-0.148379,16,32765
8.45069,5.45584,-0.152275,18,32765
8.46885,5.42749,-0.156478,18,32765
8.48698,5.39898,-0.160562,17,32765
8.4879,5.36002,-0.165357,17,32765
8.50555,5.33188,-0.168468,17,32765
8.51474,5.29813,-0.17297,18,32765
8.5324,5.26949,-0.177781,18,32765
8.55854,5.24594,-0.181883,20,32765
8.55053,5.20134,-0.185919,17,32765
8.61924,5.20351,-0.192441,21,32765
8.731,5.2309,-0.199487,27,32765
8.74842,5.20152,-0.20399,24,32765
8.81754,5.20236,-0.20968,25,32765
8.81781,5.16228,-0.213571,21,32765
8.82648,5.12736,-0.218061,22,32765
8.81775,5.08235,-0.222308,22,32765
8.84339,5.05753,-0.227875,18,32765
18.6853,10.6037,-0.489808,17,32765
18.6596,10.5066,-0.497911,18,32765
18.6855,10.4395,-0.507897,12,32765
18.6066,10.3134,-0.516089,13,32765
18.7287,10.2987,-0.527226,15,32765
18.833,10.274,-0.540258,17,32765
18.8503,10.1999,-0.548966,15,32765
18.9023,10.1451,-0.559048,15,32765
18.9626,10.0953,-0.569805,14,32765
18.9433,10.0031,-0.577783,13,32765
18.9854,9.9438,-0.590821,14,32765
19.0185,9.87969,-0.600454,14,32765
19.0517,9.81503,-0.609042,13,32765
19.0846,9.75025,-0.620177,14,32765
19.064,9.65783,-0.626943,13,32765
19.0963,9.59318,-0.638339,13,32765
14.7622,7.35372,-0.500498,13,32765
9.05132,4.4707,-0.310432,11,32765
16.6424,8.15017,-0.579034,16,32765
16.6246,8.07212,-0.586329,26,32765
9.05063,4.35712,-0.322617,21,32765
9.11012,4.34831,-0.328411,28,32765
9.10638,4.30931,-0.331761,27,32765
9.12058,4.27881,-0.336407,29,32765
9.11672,4.23937,-0.341603,32,32765
9.12192,4.20416,-0.34356,34,32765
9.02707,4.12297,-0.343567,22,32765
1.94835,0.881987,-0.0751341,15,32765
1.85103,0.830304,-0.0719996,15,32765
1.83553,0.815917,-0.0720801,16,32765
1.78332,0.785648,-0.0708032,17,32765
1.80423,0.787664,-0.0722872,17,32765
1.79763,0.77772,-0.0726389,17,32765
1.72675,0.740114,-0.0703756,13,32765
10.0073,4.24953,-0.411147,14,32765
10.0397,4.22398,-0.415677,14,32765
10.0351,4.18282,-0.419015,14,32765
10.0855,4.16519,-0.423991,13,32765
10.0806,4.1241,-0.427193,13,32765
10.1959,4.13219,-0.43484,11,32765
10.0982,4.05352,-0.433198,11,32765
0,0,-0,0,32765
0,0,-0,0,32765
0,0,-0,0,32765
0,0,-0,0,32765
0,0,-0,0,32765
0,0,-0,0,32765
0,0,-0,0,32765
0,0,-0,0,32765
0,0,-0,0,32765
0,0,-0,0,32765
0,0,-0,0,32765
0,0,-0,0,32765
0,0,-0,0,32765
0,0,-0,0,32765
0,0,-0,0,32765
0,0,-0,0,32765
0,0,-0,0,32765
7.68445,2.56794,-0.356435,11,32765
7.56933,2.50243,-0.351466,11,32765
7.52028,2.45964,-0.349242,11,32765
7.45199,2.41116,-0.346071,11,32765
7.50722,2.40263,-0.348035,11,32765
7.47702,2.36564,-0.346904,11,32765
7.35111,2.29988,-0.340427,11,32765
8.20502,6.04254,-0.0369128,13,32765
8.24936,6.03277,-0.0471186,13,32765
8.24473,5.9881,-0.0559362,13,32765
8.30502,5.99,-0.064837,13,32765
8.20265,5.87533,-0.0714534,13,32765
7.79017,5.54085,-0.0760435,24,32765
7.79223,5.50325,-0.0831345,36,32765
7.80235,5.47139,-0.0898866,36,32765
7.82033,5.44553,-0.0973917,28,32765
7.8297,5.41435,-0.104678,33,32765
7.94617,5.45669,-0.112414,26,32765
8.13756,5.54867,-0.121778,22,32765
7.9822,5.40356,-0.125166,14,32765
7.98413,5.36476,-0.132208,14,32765
7.97711,5.32115,-0.13866,14,32765
8.01979,5.31095,-0.145638,14,32765
7.93706,5.21828,-0.150299,13,32765
8.3475,5.44916,-0.163429,12,32765
8.46595,5.48691,-0.171869,14,32765
8.42504,5.42106,-0.176853,15,32765
8.47635,5.41491,-0.183837,15,32765
8.47745,5.37571,-0.190105,15,32765
8.49509,5.3476,-0.195524,14,32765
8.49598,5.3083,-0.201738,14,32765
8.53042,5.29064,-0.206679,15,32765
8.56496,5.27249,-0.214138,15,32765
8.51418,5.2021,-0.217747,15,32765
8.56554,5.19433,-0.225541,15,32765
8.60866,5.1807,-0.231959,16,32765
8.67738,5.18253,-0.237913,21,32765
8.70324,5.15835,-0.243837,19,32765
8.7979,5.17472,-0.251782,21,32765
8.80636,5.14024,-0.256734,18,32765
8.82342,5.11063,-0.262093,18,32765
8.84033,5.08105,-0.267189,18,32765
8.78787,5.01143,-0.270659,18,32765
8.83068,4.99648,-0.277072,13,32765
18.7057,10.5011,-0.596133,17,32765
18.7405,10.4382,-0.608159,14,32765
18.7923,10.3854,-0.618818,12,32765
18.774,10.2937,-0.626733,13,32765
18.7727,10.212,-0.636812,14,32765
18.8764,10.1879,-0.649099,13,32765
18.8748,10.1057,-0.657083,13,32765
18.9432,10.0619,-0.667663,14,32765
18.9764,9.99837,-0.677987,13,32765
18.8592,9.85531,-0.683316,12,32765
18.9723,9.83231,-0.694647,12,32765
19.0412,9.78526,-0.705846,13,32765
18.9584,9.66125,-0.710607,12,32765
19.0714,9.63652,-0.72315,12,32765
19.059,9.54915,-0.731788,11,32765
19.1715,9.52435,-0.745498,12,32765
14.891,7.33527,-0.585235,12,32765
16.6035,8.10986,-0.659802,12,32765
16.6216,8.04916,-0.667423,19,32765
16.5403,7.94094,-0.67118,20,32765
9.07745,4.32044,-0.370459,19,32765
9.10987,4.2983,-0.375843,22,32765
9.13305,4.27202,-0.3813,23,32765
9.12906,4.2328,-0.385395,24,32765
9.10687,4.18517,-0.387518,25,32765
2.04599,0.93203,-0.0880197,14,32765
1.82143,0.82229,-0.0790417,14,32765
1.77854,0.795756,-0.0778856,15,32765
1.72637,0.765447,-0.0763347,16,32765
0,0,-0,0,32765
0,0,-0,0,32765
0,0,-0,0,32765
9.83947,4.2055,-0.450085,12,32765
9.97303,4.22266,-0.461937,13,32765
10.0423,4.21228,-0.468219,12,32765
10.1116,4.20131,-0.475987,12,32765
10.1069,4.15977,-0.480127,12,32765
10.0649,4.10359,-0.482224,11,32765
0,0,-0,0,32765
0,0,-0,0,32765
0,0,-0,0,32765
0,0,-0,0,32765
0,0,-0,0,32765
0,0,-0,0,32765
0,0,-0,0,32765
0,0,-0,0,32765
0,0,-0,0,32765
0,0,-0,0,32765
0,0,-0,0,32765
0,0,-0,0,32765
0,0,-0,0,32765
0,0,-0,0,32765
0,0,-0,0,32765
0,0,-0,0,32765
0,0,-0,0,32765
0,0,-0,0,32765
0,0,-0,0,32765
0,0,-0,0,32765
0,0,-0,0,32765
7.40499,2.41279,-0.429559,11,32765
7.45983,2.40479,-0.436399,11,32765
7.37188,2.3512,-0.435525,11,32765
7.30273,2.30414,-0.435874,11,32765
7.29059,2.27517,-0.439702,11,32765
8.26712,6.10865,-0.132814,14,32765
8.22291,6.03354,-0.141864,15,32765
8.24252,6.00651,-0.150835,14,32765
8.29468,6.00253,-0.16006,15,32765
8.28179,5.9518,-0.167092,15,32765
8.27699,5.90674,-0.175483,15,32765
7.83973,5.55524,-0.173131,25,32765
7.8173,5.50012,-0.179099,44,32765
7.83535,5.47413,-0.186635,48,32765
7.84479,5.44281,-0.193858,36,32765
7.86241,5.41709,-0.200223,41,32765
7.93793,5.43049,-0.208452,38,32765
8.18761,5.56097,-0.220674,40,32765
8.19007,5.52134,-0.227736,33,32765
8.0922,5.41575,-0.231488,20,32765
7.97694,5.3,-0.234211,16,32765
7.99441,5.27331,-0.240751,16,32765
8.01151,5.24705,-0.24623,16,32765
8.07888,5.25327,-0.253965,14,32765
8.41518,5.43251,-0.27016,15,32765
8.46648,5.42636,-0.277526,18,32765
8.48448,5.39781,-0.284181,19,32765
8.48528,5.35892,-0.289043,18,32765
8.50315,5.33017,-0.295669,18,32765
8.51218,5.29658,-0.299918,18,32765
8.5382,5.27318,-0.307258,18,32765
8.55565,5.24449,-0.312611,19,32765
8.58148,5.22096,-0.319871,20,32765
8.57331,5.17622,-0.324651,20,32765
8.59909,5.15247,-0.329518,18,32765
8.67637,5.15913,-0.337504,23,32765
8.76233,5.17053,-0.345945,29,32765
8.77078,5.13607,-0.350797,25,32765
8.82238,5.12658,-0.357551,26,32765
8.83068,5.09193,-0.362305,22,32765
8.85639,5.06684,-0.368284,21,32765
8.86458,5.03187,-0.373571,22,32765
8.8726,4.99701,-0.378115,20,32765
18.7291,10.4655,-0.808726,16,32765
18.7373,10.3884,-0.817688,21,32765
18.7804,10.3303,-0.827746,13,32765
18.7879,10.2532,-0.837875,14,32765
18.839,10.2003,-0.848571,15,32765
18.8199,10.1086,-0.855392,14,32765
18.8,10.0179,-0.862302,14,32765
18.9214,10.0013,-0.876669,14,32765
18.9371,9.92771,-0.886623,15,32765
18.9528,9.85365,-0.894257,14,32765
18.933,9.76074,-0.901619,13,32765
19.0192,9.72321,-0.913259,14,32765
19.0789,9.67107,-0.924111,12,32765
19.1202,9.61036,-0.934932,13,32765
19.1523,9.54516,-0.945572,13,32765
0,0,-0,12,32765
16.5332,8.10125,-0.829836,17,32765
16.5423,8.03625,-0.836899,18,32765
16.542,7.96704,-0.84365,22,32765
16.5777,7.91527,-0.84906,37,32765
9.092,4.30349,-0.469579,19,32765
9.13325,4.28568,-0.476075,27,32765
9.12932,4.24636,-0.479995,29,32765
9.15256,4.21952,-0.484155,31,32765
1.86234,0.851063,-0.0993601,14,32765
1.81059,0.819993,-0.0972515,17,32765
1.78597,0.801613,-0.096611,16,32765
1.68824,0.750914,-0.092018,16,32765
0,0,-0,0,32765
0,0,-0,0,32765
0,0,-0,0,32765
0,0,-0,0,32765
10.0373,4.26336,-0.567494,12,32765
10.1711,4.27984,-0.578036,12,32765
10.1392,4.22613,-0.580636,11,32765
0,0,-0,0,32765
0,0,-0,0,32765
0,0,-0,0,32765
0,0,-0,0,32765
0,0,-0,0,32765
0,0,-0,0,32765
0,0,-0,0,32765
0,0,-0,0,32765
0,0,-0,0,32765
0,0,-0,0,32765
0,0,-0,0,32765
0,0,-0,0,32765
0,0,-0,0,32765
0,0,-0,0,32765
0,0,-0,0,32765
0,0,-0,0,32765
0,0,-0,0,32765
0,0,-0,0,32765
0,0,-0,0,32765
0,0,-0,0,32765
0,0,-0,0,32765
0,0,-0,0,32765
0,0,-0,0,32765
0,0,-0,0,32765
0,0,-0,0,32765
0,0,-0,0,32765
7.1917,2.27653,-0.500453,11,32765
7.24612,2.26871,-0.508703,11,32765
8.26403,6.10912,-0.250677,13,32765
8.28481,6.08079,-0.253485,13,32765
8.23304,5.99905,-0.253988,14,32765
8.25315,5.97122,-0.257285,13,32765
8.27294,5.94362,-0.260611,13,32765
8.29261,5.91601,-0.263779,14,32765
8.20591,5.81345,-0.265241,14,32765
7.82448,5.50426,-0.255884,28,32765
7.81007,5.45502,-0.2579,36,32765
7.81995,5.42313,-0.26141,32,32765
7.82963,5.39132,-0.265936,31,32765
7.83904,5.35976,-0.269178,34,32765
8.12137,5.51325,-0.282619,33,32765
8.18096,5.51414,-0.288122,28,32765
8.15772,5.45887,-0.291118,23,32765
8.05963,5.35347,-0.291629,14,32765
8.02747,5.29317,-0.294154,14,32765
7.97836,5.22202,-0.2966,14,32765
7.99553,5.19546,-0.300447,13,32765
8.41586,5.42872,-0.320511,13,32765
8.46747,5.4221,-0.326234,14,32765
8.48536,5.39379,-0.330678,15,32765
8.48618,5.35483,-0.334901,15,32765
8.4867,5.31609,-0.339938,15,32765
8.52129,5.29812,-0.345227,15,32765
8.5048,5.24851,-0.348517,15,32765
8.50524,5.20933,-0.35254,15,32765
8.56512,5.20678,-0.359329,16,32765
8.5737,5.17299,-0.363551,15,32765
8.52229,5.10296,-0.366009,15,32765
8.63386,5.13018,-0.37436,17,32765
8.70257,5.1314,-0.382276,22,32765
8.75406,5.12228,-0.388844,20,32765
8.78822,5.10296,-0.394776,21,32765
8.79655,5.06816,-0.399976,18,32765
8.8481,5.05824,-0.406552,18,32765
8.81284,4.99853,-0.41004,18,32765
8.84708,4.97812,-0.416021,17,32765
18.7396,10.4607,-0.890164,14,32765
18.7217,10.3686,-0.89845,17,32765
18.7558,10.3058,-0.9099,12,32765
18.8424,10.2714,-0.924262,12,32765
18.8586,10.1986,-0.933723,13,32765
18.8572,10.1161,-0.942245,13,32765
18.8377,10.0242,-0.951762,13,32765
18.96,10.0058,-0.967376,13,32765
18.8787,9.8803,-0.971848,13,32765
18.9917,9.85694,-0.986846,13,32765
18.9708,9.76558,-0.995708,12,32765
18.9409,9.66974,-1.00192,12,32765
18.8927,9.56494,-1.00934,12,32765
18.9515,9.51364,-1.02146,13,32765
19.0731,9.49282,-1.03581,13,32765
19.2212,9.48523,-1.05174,12,32765
16.4085,8.02899,-0.905504,14,32765
16.435,7.97364,-0.913857,15,32765
16.5423,7.95709,-0.928153,16,32765
16.4874,7.86255,-0.933617,22,32765
16.4955,7.79803,-0.940025,18,32765
9.12417,4.27599,-0.522999,21,32765
9.13811,4.24554,-0.527621,24,32765
9.13366,4.20702,-0.531092,23,32765
9.01102,4.11462,-0.527061,15,32765
1.80127,0.815214,-0.106063,16,32765
1.68556,0.755935,-0.0997928,15,32765
1.70634,0.758253,-0.10179,16,32765
1.66316,0.732349,-0.0998427,16,32765
1.66559,0.726711,-0.100552,14,32765
0,0,-0,0,32765
0,0,-0,0,32765
0,0,-0,0,32765
0,0,-0,0,32765
0,0,-0,0,32765
0,0,-0,0,32765
0,0,-0,0,32765
0,0,-0,0,32765
0,0,-0,0,32765
0,0,-0,0,32765
0,0,-0,0,32765
0,0,-0,0,32765
0,0,-0,0,32765
0,0,-0,0,32765
0,0,-0,0,32765
0,0,-0,0,32765
0,0,-0,0,32765
0,0,-0,0,32765
0,0,-0,0,32765
0,0,-0,0,32765
0,0,-0,0,32765
0,0,-0,0,32765
0,0,-0,0,32765
0,0,-0,0,32765
0,0,-0,0,32765
0,0,-0,0,32765
0,0,-0,0,32765
0,0,-0,0,32765
0,0,-0,0,32765
0,0,-0,0,32765
7.20632,2.30201,-0.475458,11,32765
7.17556,2.26698,-0.47307,11,32765
7.18265,2.24462,-0.472037,11,32765
8.25129,6.12168,-0.345989,15,32765
8.248,6.07552,-0.347794,16,32765
8.27703,6.0527,-0.350891,15,32765
8.28116,6.0129,-0.353534,15,32765
8.30923,5.99096,-0.357239,16,32765
8.29657,5.93987,-0.359033,16,32765
8.29157,5.89497,-0.362875,15,32765
8.26206,5.83265,-0.364516,16,32765
7.82328,5.48354,-0.347454,28,32765
7.83329,5.45151,-0.350894,45,32765
7.84307,5.41956,-0.355353,44,32765
7.8526,5.38787,-0.358526,36,32765
7.87864,5.3672,-0.363161,43,32765
8.07841,5.46405,-0.375567,41,32765
8.21268,5.51482,-0.385457,33,32765
8.19809,5.46441,-0.388658,29,32765
8.13305,5.38143,-0.389124,17,32765
8.01751,5.26586,-0.387678,15,32765
8.03484,5.23909,-0.39156,16,32765
8.05216,5.21207,-0.39631,16,32765
8.13663,5.22824,-0.403899,14,32765
8.44028,5.38364,-0.422523,16,32765
8.47486,5.36609,-0.428256,21,32765
8.5008,5.34324,-0.434413,20,32765
8.49308,5.29871,-0.437728,19,32765
8.5361,5.28589,-0.443738,20,32765
8.56221,5.26218,-0.448948,18,32765
8.53693,5.20739,-0.451739,18,32765
8.56262,5.18395,-0.45678,20,32765
8.59695,5.16523,-0.463116,19,32765
8.57992,5.11549,-0.465561,20,32765
8.65709,5.12196,-0.474487,19,32765
8.69128,5.10284,-0.480465,26,32765
8.7685,5.1088,-0.488968,33,32765
8.79415,5.08397,-0.495052,26,32765
8.82838,5.06407,-0.501031,27,32765
8.86263,5.0438,-0.507943,22,32765
8.85351,4.9986,-0.511642,22,32765
8.89641,4.98291,-0.518209,23,32765
8.89542,4.94315,-0.522328,18,32765
18.7504,10.3375,-1.11047,17,32765
18.8106,10.2887,-1.12385,16,32765
8.97903,4.87215,-0.540419,11,32765
18.7553,10.0953,-1.13704,12,32765
18.9295,10.107,-1.15781,13,32765
18.902,10.0087,-1.1652,14,32765
18.918,9.93421,-1.17449,15,32765
18.9868,9.88756,-1.18761,15,32765
18.9838,9.80513,-1.19706,15,32765
18.9985,9.73175,-1.20548,14,32765
19.0218,9.66266,-1.21668,13,32765
19.0542,9.59728,-1.22746,13,32765
19.0955,9.53587,-1.23761,14,32765
19.1453,9.47942,-1.24838,13,32765
19.1944,9.42363,-1.26025,13,32765
16.4072,7.98679,-1.08387,13,32765
16.5413,7.98328,-1.10081,20,32765
16.5856,7.93589,-1.1121,22,32765
16.612,7.87941,-1.1196,24,32765
16.6289,7.81913,-1.12603,34,32765
9.12781,4.25495,-0.621777,21,32765
9.15059,4.22892,-0.626931,28,32765
9.20964,4.21938,-0.634013,13,32765
1.74474,0.79227,-0.12077,15,32765
1.73829,0.782193,-0.120859,16,32765
1.69534,0.755884,-0.11861,17,32765
1.67958,0.742055,-0.118119,18,32765
1.60891,0.70433,-0.113671,18,32765
0,0,-0,0,32765
0,0,-0,0,32765
0,0,-0,0,32765
0,0,-0,0,32765
0,0,-0,0,32765
0,0,-0,0,32765
0,0,-0,0,32765
0,0,-0,0,32765
0,0,-0,0,32765
0,0,-0,0,32765
0,0,-0,0,32765
0,0,-0,0,32765
0,0,-0,0,32765
0,0,-0,0,32765
0,0,-0,0,32765
0,0,-0,0,32765
0,0,-0,0,32765
0,0,-0,0,32765
0,0,-0,0,32765
0,0,-0,0,32765
0,0,-0,0,32765
0,0,-0,0,32765
0,0,-0,0,32765
0,0,-0,0,32765
0,0,-0,0,32765
0,0,-0,0,32765
0,0,-0,0,32765
0,0,-0,0,32765
0,0,-0,0,32765
0,0,-0,0,32765
0,0,-0,0,32765
0,0,-0,0,32765
7.195,2.25601,-0.544082,11,32765
8.29574,6.13084,-0.309773,13,32765
8.25136,6.05578,-0.316615,13,32765
8.23056,5.99899,-0.325667,13,32765
8.25009,5.97166,-0.333781,13,32765
8.31036,5.97304,-0.343827,14,32765
8.31371,5.93344,-0.353352,14,32765
8.30891,5.88798,-0.360215,13,32765
8.24642,5.80275,-0.364421,13,32765
7.81454,5.46082,-0.352243,25,32765
7.82402,5.42919,-0.359877,36,32765
7.82525,5.39184,-0.365566,36,32765
7.83468,5.35996,-0.372407,28,32765
7.86073,5.33899,-0.37971,36,32765
8.01074,5.40207,-0.393093,31,32765
8.16118,5.46435,-0.406089,22,32765
8.21232,5.45927,-0.413617,20,32765
8.23006,5.43186,-0.421802,20,32765
8.08916,5.30022,-0.418893,14,32765
7.9894,5.19663,-0.419607,13,32765
8.04862,5.19663,-0.427566,14,32765
8.03224,5.14769,-0.432327,14,32765
8.29353,5.27625,-0.451754,13,32765
8.47114,5.34997,-0.467352,16,32765
8.50557,5.33228,-0.473792,16,32765
8.50585,5.29349,-0.479898,16,32765
8.4808,5.23856,-0.483534,15,32765
8.53211,5.23089,-0.491258,15,32765
8.53247,5.19153,-0.494989,15,32765
8.53261,5.15217,-0.500221,16,32765
8.59253,5.14888,-0.50832,17,32765
8.6097,5.11955,-0.513886,16,32765
8.59219,5.07016,-0.517646,16,32765
8.64337,5.06139,-0.524835,17,32765
8.72033,5.06766,-0.533597,25,32765
8.76302,5.05312,-0.540624,22,32765
8.80573,5.03836,-0.547425,22,32765
8.82229,5.00867,-0.553146,18,32765
8.87376,4.99821,-0.560521,17,32765
8.85539,4.94882,-0.562923,18,32765
8.83675,4.8996,-0.565955,17,32765
8.84408,4.8651,-0.570192,14,32765
18.6928,10.2018,-1.21225,14,32765
18.8408,10.2001,-1.23049,13,32765
8.95366,4.8081,-0.588675,11,32765
18.926,10.0812,-1.25135,12,32765
18.9239,9.99853,-1.26019,13,32765
18.9921,9.95359,-1.27119,13,32765
18.9715,9.86224,-1.27839,13,32765
18.951,9.77037,-1.28443,14,32765
19.0553,9.74097,-1.29749,14,32765
19.1862,9.72429,-1.31514,12,32765
19.1034,9.59908,-1.31612,13,32765
19.1359,9.53301,-1.32538,13,32765
19.0507,9.41131,-1.32689,12,32765
9.05252,4.43403,-0.633536,11,32765
19.2654,9.35617,-1.35636,13,32765
16.5626,7.97489,-1.17313,14,32765
16.6434,7.94411,-1.18335,19,32765
16.5613,7.83675,-1.18316,16,32765
16.6595,7.81427,-1.19655,21,32765
9.09361,4.22816,-0.656873,18,32765
1.72182,0.793526,-0.125068,13,32765
1.7426,0.795974,-0.127134,19,32765
1.64525,0.744811,-0.120492,14,32765
1.71141,0.767825,-0.12617,16,32765
1.641,0.729618,-0.121581,16,32765
1.59776,0.703905,-0.119085,15,32765
1.61835,0.706503,-0.121231,16,32765
1.51993,0.657515,-0.114406,15,32765
0,0,-0,0,32765
0,0,-0,0,32765
0,0,-0,0,32765
0,0,-0,0,32765
0,0,-0,0,32765
0,0,-0,0,32765
0,0,-0,0,32765
0,0,-0,0,32765
0,0,-0,0,32765
0,0,-0,0,32765
0,0,-0,0,32765
0,0,-0,0,32765
0,0,-0,0,32765
0,0,-0,0,32765
0,0,-0,0,32765
0,0,-0,0,32765
0,0,-0,0,32765
0,0,-0,0,32765
0,0,-0,0,32765
0,0,-0,0,32765
0,0,-0,0,32765
0,0,-0,0,32765
0,0,-0,0,32765
0,0,-0,0,32765
0,0,-0,0,32765
0,0,-0,0,32765
0,0,-0,0,32765
0,0,-0,0,32765
0,0,-0,0,32765
0,0,-0,0,32765
0,0,-0,0,32765
0,0,-0,0,32765
8.25022,6.11958,-0.403807,15,32765
8.26218,6.08596,-0.412691,15,32765
8.27375,6.05258,-0.422964,15,32765
8.28535,6.01914,-0.430721,16,32765
8.32137,6.00284,-0.440002,16,32765
8.25982,5.91655,-0.445869,15,32765
8.31196,5.91167,-0.455546,16,32765
8.33125,5.88385,-0.463387,16,32765
8.29287,5.81622,-0.468387,16,32765
7.88544,5.49177,-0.452453,24,32765
7.83759,5.42001,-0.455163,43,32765
7.86357,5.3993,-0.462911,48,32765
7.87322,5.36691,-0.469367,39,32765
7.87421,5.32929,-0.475276,40,32765
7.96617,5.35313,-0.486124,42,32765
8.19965,5.4706,-0.505162,41,32765
8.26735,5.47623,-0.516473,37,32765
8.26868,5.43744,-0.520778,43,32765
8.22807,5.37121,-0.524092,27,32765
8.07829,5.23461,-0.519239,16,32765
8.06207,5.18544,-0.523671,15,32765
8.06222,5.14757,-0.528721,16,32765
8.12952,5.1527,-0.538647,14,32765
8.43369,5.30624,-0.563124,15,32765
8.5101,5.31517,-0.574144,21,32765
8.54457,5.2969,-0.581379,20,32765
8.54499,5.25758,-0.586037,20,32765
8.55399,5.22327,-0.590195,20,32765
8.57132,5.19407,-0.596463,20,32765
8.57143,5.1546,-0.600871,19,32765
8.60576,5.13549,-0.607651,20,32765
8.6141,5.10123,-0.612887,21,32765
8.6223,5.06706,-0.617397,20,32765
8.65608,5.04825,-0.623708,20,32765
8.69867,5.03387,-0.630991,26,32765
8.7932,5.04908,-0.641839,35,32765
8.80979,5.01935,-0.647569,28,32765
8.87862,5.01871,-0.65661,30,32765
8.88647,4.98381,-0.6606,22,32765
8.89414,4.9489,-0.665253,23,32765
8.87545,4.89964,-0.667473,22,32765
8.92652,4.88899,-0.674539,21,32765
8.92518,4.84905,-0.678375,14,32765
18.8313,10.1481,-1.4392,16,32765
18.865,10.0841,-1.44844,13,32765
18.9863,10.0669,-1.46643,12,32765
18.931,9.95657,-1.46827,14,32765
18.9105,9.86518,-1.47492,14,32765
18.9609,9.80994,-1.48596,16,32765
19.012,9.75307,-1.49561,15,32765
19.0095,9.66862,-1.50374,15,32765
19.0603,9.61108,-1.51407,14,32765
19.0749,9.53603,-1.52192,15,32765
19.0436,9.44081,-1.52652,13,32765
19.1376,9.40671,-1.54015,14,32765
9.02838,4.4,-0.730227,15,32765
9.05182,4.37373,-0.735837,31,32765
9.07545,4.34703,-0.740074,44,32765
9.08975,4.31633,-0.744198,46,32765
9.08601,4.2768,-0.747231,40,32765
9.07294,4.23334,-0.749747,32,32765
16.608,7.68086,-1.37885,33,32765
1.77665,0.81437,-0.148045,14,32765
1.66133,0.754724,-0.138876,17,32765
1.67289,0.753172,-0.140632,17,32765
1.68447,0.751569,-0.1422,18,32765
1.63224,0.721614,-0.138491,18,32765
1.56154,0.684093,-0.133061,17,32765
1.5912,0.69076,-0.136139,18,32765
0,0,-0,0,32765
0,0,-0,0,32765
0,0,-0,0,32765
0,0,-0,0,32765
0,0,-0,0,32765
0,0,-0,0,32765
0,0,-0,0,32765
0,0,-0,0,32765
0,0,-0,0,32765
0,0,-0,0,32765
0,0,-0,0,32765
0,0,-0,0,32765
0,0,-0,0,32765
0,0,-0,0,32765
0,0,-0,0,32765
0,0,-0,0,32765
0,0,-0,0,32765
0,0,-0,0,32765
0,0,-0,0,32765
0,0,-0,0,32765
0,0,-0,0,32765
0,0,-0,0,32765
0,0,-0,0,32765
0,0,-0,0,32765
0,0,-0,0,32765
0,0,-0,0,32765
0,0,-0,0,32765
0,0,-0,0,32765
0,0,-0,0,32765
0,0,-0,0,32765
0,0,-0,0,32765
0,0,-0,0,32765
8.1728,6.06381,-0.521246,14,32765
8.23322,6.06583,-0.52661,14,32765
8.21293,6.00886,-0.526675,14,32765
8.27336,6.01039,-0.533181,13,32765
8.25275,5.95344,-0.533672,14,32765
8.2723,5.92583,-0.538257,14,32765
8.29203,5.89792,-0.541279,13,32765
8.35204,5.89919,-0.548337,14,32765
8.33035,5.84288,-0.549571,14,32765
8.17727,5.69557,-0.541465,14,32765
7.81846,5.4066,-0.520452,30,32765
7.8282,5.37441,-0.52442,37,32765
7.82961,5.33659,-0.527344,36,32765
7.86401,5.32107,-0.532615,29,32765
7.88159,5.29456,-0.536857,35,32765
8.15664,5.43958,-0.559164,35,32765
8.22465,5.445,-0.56707,30,32765
8.24263,5.4173,-0.571224,30,32765
8.2437,5.37867,-0.575211,29,32765
8.1106,5.25337,-0.568088,14,32765
8.04388,5.17209,-0.567393,13,32765
8.0362,5.12806,-0.570044,14,32765
8.10393,5.13269,-0.577864,13,32765
8.35765,5.25373,-0.60001,13,32765
8.49341,5.29979,-0.612484,17,32765
8.51068,5.27141,-0.617644,17,32765
8.52824,5.24235,-0.622664,16,32765
8.52837,5.20334,-0.626273,16,32765
8.56304,5.18416,-0.632219,16,32765
8.53755,5.12918,-0.634177,15,32765
8.56319,5.10517,-0.639547,17,32765
8.59739,5.08604,-0.645847,16,32765
8.61404,5.05715,-0.650881,16,32765
8.60477,5.01297,-0.654538,16,32765
8.70781,5.03374,-0.664791,21,32765
8.73318,5.00891,-0.671113,26,32765
8.78464,4.99857,-0.679243,21,32765
8.83608,4.98805,-0.686963,21,32765
8.84419,4.95253,-0.691631,19,32765
8.89531,4.94216,-0.698896,18,32765
8.85921,4.88298,-0.700298,18,32765
8.92785,4.88161,-0.709562,17,32765
8.93495,4.84688,-0.714579,13,32765
18.7623,10.0969,-1.50965,14,32765
18.8831,10.0811,-1.52716,13,32765
18.9165,10.0163,-1.53957,12,32765
18.9852,9.96997,-1.55304,12,32765
18.948,9.86721,-1.55857,12,32765
18.9988,9.8108,-1.5706,14,32765
18.8979,9.67803,-1.57118,13,32765
18.9659,9.63093,-1.58335,13,32765
19.078,9.60617,-1.60219,14,32765
18.994,9.48273,-1.60312,12,32765
8.94543,4.42757,-0.75894,12,32765
8.98667,4.41061,-0.7667,13,32765
9.00123,4.38002,-0.771218,28,32765
9.02455,4.35404,-0.776149,36,32765
9.05655,4.33238,-0.783735,30,32765
9.03481,4.28436,-0.78576,19,32765
16.6994,7.84998,-1.45843,17,32765
16.6081,7.73746,-1.45792,20,32765
16.6338,7.68068,-1.46597,23,32765
0,0,-0,0,32765
0,0,-0,0,32765
1.7544,0.788945,-0.15673,15,32765
1.62954,0.726196,-0.14607,15,32765
1.58634,0.700503,-0.142883,16,32765
1.57038,0.687107,-0.142058,16,32765
1.56349,0.67783,-0.141902,16,32765
1.51989,0.652957,-0.138473,17,32765
1.43951,0.612684,-0.131673,12,32765
0,0,-0,0,32765
0,0,-0,0,32765
0,0,-0,0,32765
0,0,-0,0,32765
0,0,-0,0,32765
0,0,-0,0,32765
0,0,-0,0,32765
0,0,-0,0,32765
0,0,-0,0,32765
0,0,-0,0,32765
0,0,-0,0,32765
0,0,-0,0,32765
0,0,-0,0,32765
0,0,-0,0,32765
0,0,-0,0,32765
0,0,-0,0,32765
0,0,-0,0,32765
0,0,-0,0,32765
0,0,-0,0,32765
0,0,-0,0,32765
0,0,-0,0,32765
0,0,-0,0,32765
0,0,-0,0,32765
0,0,-0,0,32765
0,0,-0,0,32765
0,0,-0,0,32765
0,0,-0,0,32765
0,0,-0,0,32765
0,0,-0,0,32765
0,0,-0,0,32765
8.26925,6.15949,-0.623761,15,32765
8.26575,6.11367,-0.624789,15,32765
8.27791,6.08008,-0.626863,16,32765
8.25787,6.02254,-0.627753,15,32765
8.28591,6.00062,-0.631495,16,32765
8.33804,5.99612,-0.638603,15,32765
8.26868,5.90409,-0.634812,15,32765
8.30423,5.88809,-0.640457,15,32765
8.33156,5.86627,-0.645018,16,32765
8.35064,5.83871,-0.648326,16,32765
8.27993,5.7477,-0.64554,16,32765
7.85534,5.41372,-0.615576,28,32765
7.85692,5.37569,-0.618349,44,32765
7.87492,5.34881,-0.622535,43,32765
7.86778,5.30544,-0.62483,34,32765
7.88538,5.27869,-0.629498,44,32765
8.04419,5.34577,-0.64516,41,32765
8.28672,5.46693,-0.667352,42,32765
8.2546,5.40618,-0.668497,30,32765
8.30588,5.40019,-0.67468,41,32765
8.24816,5.32347,-0.673889,23,32765
8.04783,5.15485,-0.660536,15,32765
8.0819,5.138,-0.666161,16,32765
8.08215,5.09965,-0.669927,16,32765
8.1834,5.12551,-0.680773,15,32765
8.46271,5.26135,-0.707724,17,32765
8.53117,5.26379,-0.717015,23,32765
8.56542,5.24549,-0.723333,21,32765
8.56612,5.2054,-0.726612,21,32765
8.55785,5.16056,-0.729583,19,32765
8.56647,5.12616,-0.73361,18,32765
8.59214,5.10185,-0.739378,19,32765
8.60884,5.07289,-0.744427,21,32765
8.6513,5.05881,-0.752312,22,32765
8.64224,5.01437,-0.753751,20,32765
8.67617,4.99467,-0.760899,19,32765
8.77947,5.01414,-0.773962,29,32765
8.79621,4.98393,-0.778995,35,32765
8.86515,4.98264,-0.78898,29,32765
8.8902,4.95758,-0.79431,27,32765
8.89784,4.92239,-0.799087,23,32765
8.8966,4.88248,-0.802639,22,32765
8.91246,4.85253,-0.808355,22,32765
8.9195,4.8177,-0.813172,19,32765
18.784,10.0652,-1.71993,25,32765
18.8526,10.0192,-1.73555,20,32765
8.94039,4.71229,-0.826599,12,32765
19.0342,9.94862,-1.76812,13,32765
8.90116,4.61339,-0.830367,12,32765
8.90745,4.57849,-0.83501,14,32765
8.91393,4.54315,-0.838531,16,32765
8.91119,4.50347,-0.842555,16,32765
8.97071,4.49508,-0.851806,15,32765
8.96792,4.45502,-0.855339,13,32765
8.97345,4.42031,-0.859982,13,32765
19.1399,9.34775,-1.84096,13,32765
19.1705,9.28308,-1.84983,13,32765
19.2542,9.24447,-1.8679,13,32765
19.2667,9.16995,-1.87715,14,32765
19.1707,9.0448,-1.87448,13,32765
16.7196,7.818,-1.64207,22,32765
16.7093,7.74391,-1.64664,23,32765
0,0,-0,0,32765
0,0,-0,0,32765
1.67928,0.757944,-0.167436,16,32765
1.52723,0.683106,-0.152718,15,32765
1.5841,0.702087,-0.159066,16,32765
1.57729,0.692668,-0.158975,18,32765
