x, y, z, intensity, ring
0.683073,-0.152873,0.00646317,17,32765
0.702065,-0.159562,0.00667472,17,32765
0.711271,-0.164158,0.00678074,17,32765
0.720455,-0.168812,0.00691458,17,32765
0.680977,-0.161944,0.00661811,17,32765
0.69988,-0.168881,0.00683259,17,32765
0.709022,-0.173605,0.00696415,17,32765
0.689041,-0.171107,0.00673718,17,32765
0.698159,-0.175861,0.0068757,17,32765
0.726643,-0.185572,0.00724922,17,32765
0.687305,-0.177944,0.00689868,17,32765
0.706056,-0.185294,0.0071163,17,32765
0.666801,-0.177288,0.00670879,17,32765
0.695187,-0.187256,0.00704765,17,32765
0.684939,-0.186841,0.00700635,17,32765
0.693971,-0.191713,0.00708314,17,32765
0.68371,-0.19129,0.00700265,17,32765
0.683081,-0.193524,0.00699541,17,32765
0.663207,-0.190291,0.00677981,17,32765
0.681784,-0.198041,0.0070448,17,32765
0.690733,-0.203072,0.00704958,17,32765
0.670901,-0.19961,0.00689762,17,32765
0.68941,-0.207518,0.00705923,17,32765
0.66961,-0.2039,0.00682253,17,32765
0.640293,-0.197188,0.00647225,17,32765
0.658751,-0.20519,0.00662742,17,32765
0.677176,-0.213278,0.00671573,18,32765
0.676498,-0.215423,0.00663595,17,32765
0.666298,-0.214491,0.00642928,17,32765
0.684648,-0.222744,0.00653688,17,32765
0.674459,-0.221731,0.00629127,17,32765
0.739907,0.0115912,-0.00166657,17,32765
0.759941,0.00937055,-0.001475,17,32765
0.72997,0.00655957,-0.001246,17,32765
0.739987,0.0041855,-0.00105825,17,32765
0.729998,0.00163741,-0.000880228,17,32765
0.749999,-0.00081156,-0.000755837,17,32765
0.699993,-0.00304331,-0.000625856,16,32765
0.67998,-0.00519789,-0.000481568,17,32765
0.679959,-0.00745629,-0.000314447,16,32765
0.699928,-0.0100558,-0.000337826,16,32765
0.709888,-0.0125923,-0.000242129,17,32765
0.709842,-0.0149811,-9.67055e-05,16,32765
0.719785,-0.0176141,-1.49991e-05,17,32765
0.739714,-0.0205657,3.47342e-05,17,32765
0.729645,-0.0227551,0.000103806,17,32765
0.699584,-0.0241259,0.000143069,17,32765
0.679516,-0.0256593,0.000288959,17,32765
0.719394,-0.029522,0.000370418,17,32765
0.669343,-0.0296733,0.000343346,17,32765
0.669239,-0.0319253,0.000457081,17,32765
0.679116,-0.0346608,0.000419024,17,32765
0.678995,-0.0369604,0.000572783,17,32765
0.688847,-0.0398601,0.000580966,17,32765
0.728634,-0.0446346,0.00060128,17,32765
0.678582,-0.0438904,0.000562538,17,32765
0.688409,-0.0468249,0.000637166,17,32765
0.718173,-0.051249,0.00071128,17,32765
0.698055,-0.052143,0.000701386,17,32765
0.687907,-0.0536915,0.00071401,17,32765
0.707655,-0.0576472,0.000790679,17,32765
0.687531,-0.0583175,0.000817548,17,32765
0.697291,-0.0615165,0.000830454,17,32765
0.716997,-0.0656859,0.000911987,17,32765
0.706818,-0.0671389,0.000863149,17,32765
0.696633,-0.0685658,0.000895328,17,32765
0.686447,-0.06993,0.000951843,17,32765
0.69616,-0.0732107,0.000919318,17,32765
0.685968,-0.0744756,0.000902837,17,32765
0.685718,-0.0767428,0.00104157,17,32765
0.675521,-0.07791,0.000955363,17,32765
0.675252,-0.080211,0.000936029,17,32765
0.684903,-0.0837049,0.00095251,17,32765
0.674693,-0.0847858,0.000961054,17,32765
0.704161,-0.0908622,0.00108749,17,32765
0.68403,-0.0905632,0.000938749,17,32765
0.673815,-0.0914967,0.00105216,17,32765
0.732933,-0.102023,0.00107418,18,32765
0.683086,-0.0974314,0.000800345,17,32765
0.662965,-0.0968314,0.000880303,17,32765
0.692306,-0.103498,0.000953949,17,32765
0.652417,-0.0997552,0.000819246,17,32765
0.671841,-0.10502,0.000950399,17,32765
0.671481,-0.107298,0.000955165,17,32765
0.671113,-0.109574,0.000999549,17,32765
0.660871,-0.110219,0.00101433,17,32765
0.670347,-0.114163,0.00113388,17,32765
0.660111,-0.114681,0.00109229,17,32765
0.679405,-0.120446,0.00139105,17,32765
0.678997,-0.122723,0.00142174,17,32765
0.668748,-0.123184,0.00143816,17,32765
0.638842,-0.119913,0.00145727,17,32765
0.67773,-0.129536,0.00158033,17,32765
0.696915,-0.135671,0.00168089,17,32765
0.686654,-0.136027,0.00168439,17,32765
0.656784,-0.132408,0.00165263,17,32765
0.646546,-0.13257,0.00169275,17,32765
0.665685,-0.138782,0.00182855,18,32765
0.655435,-0.138928,0.00189532,17,32765
0.645195,-0.138993,0.00200047,17,32765
0.664253,-0.145478,0.00208925,17,32765
0.654,-0.145533,0.00216644,17,32765
0.653515,-0.147691,0.00229563,17,32765
0.682256,-0.15659,0.00247589,17,32765
0.662256,-0.154308,0.00251633,17,32765
0.690933,-0.163412,0.00276882,17,32765
0.6515,-0.156334,0.0027412,17,32765
0.6607,-0.160831,0.00292383,17,32765
0.679584,-0.167795,0.00318247,17,32765
0.659631,-0.165157,0.00324465,17,32765
0.668775,-0.169791,0.0033436,17,32765
0.639162,-0.164503,0.00334317,17,32765
0.648299,-0.169102,0.00360403,17,32765
0.638074,-0.168666,0.00371416,17,32765
0.637521,-0.17074,0.00387101,17,32765
0.63695,-0.172854,0.00396165,17,32765
0.655661,-0.18025,0.00434597,17,32765
0.664699,-0.185078,0.00466458,17,32765
0.654463,-0.184541,0.00473903,17,32765
0.673084,-0.192177,0.0051015,17,32765
0.634027,-0.183262,0.00503693,17,32765
0.652629,-0.190908,0.00539034,17,32765
0.652018,-0.192981,0.00560344,17,32765
0.622657,-0.186457,0.00566103,17,32765
0.650766,-0.197143,0.00616324,17,32765
0.640558,-0.196331,0.00630533,17,32765
0.639921,-0.19839,0.00656377,17,32765
0.639275,-0.200449,0.00693285,17,32765
0.64816,-0.205512,0.00730811,17,32765
0.637984,-0.204498,0.00756897,17,32765
0.627812,-0.203452,0.00773781,17,32765
0.665182,-0.217849,0.00867049,17,32765
0.72986,0.0114564,-0.00853028,17,32765
0.729897,0.00901728,-0.00830303,17,32765
0.709927,0.00639084,-0.00790948,16,32765
0.729945,0.00413495,-0.00793025,17,32765
0.719957,0.00161553,-0.00766015,17,32765
0.739959,-0.000805576,-0.00772641,16,32765
0.719955,-0.00314018,-0.00743572,17,32765
0.719942,-0.0055188,-0.00730188,17,32765
0.689925,-0.00758548,-0.00682805,17,32765
0.689894,-0.00993693,-0.00684196,17,32765
0.709854,-0.0126231,-0.00693973,17,32765
0.729803,-0.0154402,-0.00698568,17,32765
0.719751,-0.0176561,-0.00680689,17,32765
0.709693,-0.0197786,-0.0066642,17,32765
0.719617,-0.0224962,-0.00668943,17,32765
0.709546,-0.0245278,-0.00655233,17,32765
0.699471,-0.0264755,-0.00630561,17,32765
0.679398,-0.0279467,-0.00606452,17,32765
0.719262,-0.0319617,-0.00642265,17,32765
0.699174,-0.0334319,-0.00612536,17,32765
0.699059,-0.0357626,-0.00617149,17,32765
0.718904,-0.0392247,-0.00618495,17,32765
0.708783,-0.0411098,-0.00609922,17,32765
0.698658,-0.0428986,-0.00602605,17,32765
0.688529,-0.044638,-0.0059374,17,32765
0.718306,-0.0489728,-0.00612622,17,32765
0.71814,-0.0513664,-0.00607972,17,32765
0.707993,-0.0530089,-0.00598518,17,32765
0.687874,-0.0538142,-0.00579384,17,32765
0.697654,-0.0569652,-0.00582252,17,32765
0.707424,-0.0601449,-0.00585502,17,32765
0.697255,-0.0616568,-0.00577139,17,32765
0.71696,-0.0658357,-0.00587836,17,32765
0.70678,-0.067292,-0.00583276,17,32765
0.706546,-0.0697038,-0.00578766,17,32765
0.706304,-0.0721208,-0.00571621,18,32765
0.706065,-0.0744256,-0.00576305,17,32765
0.70581,-0.0768087,-0.00576635,17,32765
0.71549,-0.0802616,-0.00570266,17,32765
0.715214,-0.0826806,-0.0057778,17,32765
0.704997,-0.0839402,-0.00571758,17,32765
0.704709,-0.0863268,-0.00571462,17,32765
0.684569,-0.0862281,-0.00553081,18,32765
0.71403,-0.0923512,-0.00568589,18,32765
0.683981,-0.0907688,-0.00556691,17,32765
0.693583,-0.0944016,-0.00551667,17,32765
0.683359,-0.0953455,-0.00550371,17,32765
0.722627,-0.103313,-0.00603547,18,32765
0.692594,-0.101397,-0.00567948,18,32765
0.692248,-0.103732,-0.00564506,18,32765
0.682013,-0.104526,-0.00564805,17,32765
0.701419,-0.109901,-0.00570054,17,32765
0.691168,-0.110704,-0.00561514,18,32765
0.690788,-0.113052,-0.00556923,18,32765
0.70026,-0.117064,-0.00561733,17,32765
0.689998,-0.117786,-0.00543051,17,32765
0.689601,-0.120087,-0.00545631,17,32765
0.689184,-0.122468,-0.00518609,18,32765
0.718288,-0.130131,-0.00537564,17,32765
0.688347,-0.127094,-0.00511637,17,32765
0.678085,-0.12758,-0.0049554,17,32765
0.6973,-0.133592,-0.00506444,18,32765
0.696839,-0.135977,-0.00500943,17,32765
0.686578,-0.136334,-0.00491145,17,32765
0.686114,-0.138649,-0.00486894,18,32765
0.675856,-0.138909,-0.0047314,17,32765
0.665606,-0.139095,-0.00457807,17,32765
0.674919,-0.143398,-0.00454868,17,32765
0.684215,-0.14775,-0.00447281,17,32765
0.683705,-0.150095,-0.00444354,17,32765
0.683197,-0.152392,-0.00433051,17,32765
0.68269,-0.154652,-0.00419526,18,32765
0.691912,-0.159185,-0.00417631,17,32765
0.681643,-0.159205,-0.00400276,17,32765
0.68111,-0.161473,-0.00386298,17,32765
0.680579,-0.163702,-0.00372857,17,32765
0.670324,-0.163564,-0.00353121,17,32765
0.689197,-0.170576,-0.00345816,17,32765
0.659538,-0.16553,-0.00315864,17,32765
0.68806,-0.175106,-0.00324495,17,32765
0.687483,-0.177364,-0.0030887,18,32765
0.677228,-0.177071,-0.00282528,17,32765
0.666978,-0.17673,-0.00261323,18,32765
0.656741,-0.17631,-0.00241345,17,32765
0.67545,-0.183743,-0.00238796,18,32765
0.665201,-0.183313,-0.00208537,18,32765
0.674228,-0.188183,-0.00185689,18,32765
0.673607,-0.190397,-0.00171031,17,32765
0.672978,-0.19261,-0.00148689,17,32765
0.691556,-0.200372,-0.00128145,18,32765
0.690909,-0.202593,-0.00106852,17,32765
0.680673,-0.201949,-0.000830827,17,32765
0.660868,-0.198377,-0.000483539,17,32765
0.669798,-0.203399,-0.00024218,18,32765
0.688248,-0.211457,1.35756e-06,17,32765
0.678013,-0.210708,0.000275568,18,32765
0.66779,-0.209897,0.000657636,18,32765
0.667114,-0.212033,0.000937774,17,32765
0.656921,-0.211077,0.00130404,18,32765
0.665752,-0.216269,0.00162219,17,32765
0.674575,-0.221459,0.00211607,17,32765
0.669897,0.0102796,-0.00571375,16,32765
0.69992,0.00841773,-0.00636002,17,32765
0.679943,0.00592648,-0.00645892,17,32765
0.719954,0.00386373,-0.00715533,17,32765
0.689963,0.00140857,-0.0070495,17,32765
0.69996,-0.000928545,-0.00746189,17,32765
0.659954,-0.00308886,-0.00717088,17,32765
0.709933,-0.00569454,-0.00796822,17,32765
0.68991,-0.00784445,-0.00795583,17,32765
0.689879,-0.0101075,-0.00805616,17,32765
0.68984,-0.0123674,-0.00821001,17,32765
0.679797,-0.014433,-0.00824771,17,32765
0.709732,-0.0174071,-0.00881747,16,32765
0.689676,-0.0192967,-0.00867363,16,32765
0.699599,-0.0219334,-0.00893784,17,32765
0.66954,-0.0232663,-0.00864175,17,32765
0.689442,-0.0262423,-0.00902466,17,32765
0.66937,-0.0276688,-0.00884744,17,32765
0.669273,-0.0298949,-0.008919,17,32765
0.679158,-0.0325736,-0.00912319,17,32765
0.659071,-0.0338448,-0.0089419,17,32765
0.668936,-0.0366039,-0.0091753,17,32765
0.678792,-0.039428,-0.00934097,17,32765
0.668675,-0.0410845,-0.00924517,17,32765
0.648579,-0.0419939,-0.00905632,17,32765
0.688338,-0.0468699,-0.00966449,17,32765
0.688178,-0.0491591,-0.00968596,17,32765
0.668067,-0.0499656,-0.00944915,17,32765
0.677863,-0.0530033,-0.00961631,17,32765
0.67768,-0.0552844,-0.00966902,16,32765
0.677489,-0.0575766,-0.00968506,17,32765
0.68725,-0.0607511,-0.00981917,17,32765
0.677087,-0.0621221,-0.00970274,17,32765
0.696785,-0.0662617,-0.0100243,16,32765
0.69656,-0.0685754,-0.0100497,16,32765
0.686379,-0.0699058,-0.00986274,17,32765
0.686138,-0.0722282,-0.00988641,17,32765
0.685889,-0.0745716,-0.00979575,17,32765
0.685632,-0.0768992,-0.00978744,17,32765
0.645642,-0.0745825,-0.00918936,17,32765
0.704962,-0.0838387,-0.0100123,17,32765
0.635204,-0.0776862,-0.0089867,17,32765
0.674625,-0.0848004,-0.00952531,17,32765
0.674334,-0.0870763,-0.00952437,16,32765
0.693866,-0.0919582,-0.00967881,17,32765
0.673738,-0.0915946,-0.00938945,17,32765
0.653621,-0.0910657,-0.00927734,17,32765
0.673113,-0.0960713,-0.00946912,17,32765
0.643103,-0.094008,-0.00902172,17,32765
0.662559,-0.0991404,-0.00932715,17,32765
0.642447,-0.0983923,-0.0090001,17,32765
0.651985,-0.102146,-0.00906782,18,32765
0.681254,-0.109112,-0.00937528,17,32765
0.651276,-0.10658,-0.00895174,17,32765
0.66078,-0.11039,-0.00913945,17,32765
0.650549,-0.110924,-0.00903871,17,32765
0.679729,-0.118244,-0.00933397,17,32765
0.659633,-0.117067,-0.00893126,17,32765
0.659235,-0.119321,-0.00844821,17,32765
0.678498,-0.125158,-0.00871414,17,32765
0.638764,-0.120064,-0.00810697,18,32765
0.638355,-0.122224,-0.00803284,17,32765
0.647757,-0.126277,-0.0081084,17,32765
0.647326,-0.128465,-0.00807495,18,32765
0.637093,-0.128648,-0.00790599,17,32765
0.656251,-0.134797,-0.00804879,17,32765
0.626428,-0.130881,-0.00760253,17,32765
0.655333,-0.139196,-0.00792234,17,32765
0.635313,-0.137181,-0.00764763,18,32765
0.664155,-0.145722,-0.00796527,17,32765
0.644144,-0.143593,-0.00771406,17,32765
0.633905,-0.143554,-0.00749469,17,32765
0.652912,-0.150157,-0.00769451,17,32765
0.652403,-0.152355,-0.00766041,17,32765
0.642161,-0.152229,-0.00749009,18,32765
0.651376,-0.156692,-0.0075326,17,32765
0.631424,-0.154112,-0.00732107,17,32765
0.63092,-0.156164,-0.00724338,17,32765
0.649794,-0.163131,-0.00747528,17,32765
0.658952,-0.167706,-0.00754694,17,32765
0.629353,-0.162366,-0.00723408,17,32765
0.609466,-0.159384,-0.00695121,18,32765
0.637934,-0.169079,-0.00725018,17,32765
0.618058,-0.165998,-0.00698658,17,32765
0.656107,-0.178516,-0.00745436,18,32765
0.636236,-0.175361,-0.00719288,17,32765
0.635655,-0.177458,-0.00719966,17,32765
0.625458,-0.176784,-0.00705812,17,32765
0.6441,-0.184342,-0.00727909,17,32765
0.633898,-0.183636,-0.00715959,17,32765
0.623706,-0.182868,-0.007066,17,32765
0.623114,-0.184873,-0.00708497,17,32765
0.622526,-0.186844,-0.00710095,17,32765
0.641057,-0.194656,-0.00739705,17,32765
0.621318,-0.19082,-0.0071745,17,32765
0.611151,-0.189852,-0.0071201,17,32765
0.620081,-0.194799,-0.00730314,17,32765
0.648064,-0.2058,-0.00774271,16,32765
0.637896,-0.204766,-0.00772953,17,32765
0.618218,-0.200621,-0.00761069,17,32765
0.627069,-0.205724,-0.00787745,16,32765
0.629824,0.00968113,-0.0113152,16,32765
0.669837,0.00806805,-0.0124073,16,32765
0.679852,0.00593256,-0.012873,16,32765
0.689861,0.00370361,-0.0133656,16,32765
0.709861,0.00144497,-0.0139508,17,32765
0.699858,-0.000938305,-0.0140645,17,32765
0.709846,-0.00333808,-0.0144111,18,32765
0.719823,-0.00579563,-0.0148716,17,32765
0.719795,-0.00821182,-0.0150929,17,32765
0.709765,-0.0104316,-0.0149865,17,32765
0.709724,-0.0127622,-0.0151447,17,32765
0.71967,-0.0153241,-0.0155239,17,32765
0.699621,-0.017208,-0.0152956,17,32765
0.699555,-0.0196278,-0.0154016,17,32765
0.689489,-0.0216759,-0.015318,17,32765
0.699401,-0.02437,-0.0156308,17,32765
0.679333,-0.0259271,-0.0153072,17,32765
0.709209,-0.0293937,-0.0160719,17,32765
0.709106,-0.031758,-0.0161476,17,32765
0.718981,-0.0345743,-0.0164502,18,32765
0.708874,-0.0364974,-0.0163153,18,32765
0.698762,-0.0383355,-0.0161877,17,32765
0.678668,-0.0395229,-0.0157538,17,32765
0.698487,-0.043027,-0.0162605,17,32765
0.678387,-0.0440369,-0.015887,18,32765
0.698183,-0.0476621,-0.0164057,18,32765
0.69802,-0.0499896,-0.0164274,17,32765
0.697847,-0.052326,-0.0164732,17,32765
0.707632,-0.0554718,-0.0167357,18,32765
0.697475,-0.0570438,-0.0165541,18,32765
0.677355,-0.0577111,-0.016097,18,32765
0.697072,-0.0617752,-0.0165619,18,32765
0.706817,-0.0650136,-0.0168254,18,32765
0.666788,-0.0635691,-0.015912,17,32765
0.676521,-0.0667703,-0.0161739,18,32765
0.646456,-0.0660055,-0.0154194,17,32765
0.676054,-0.0713455,-0.0161543,17,32765
0.685746,-0.0747433,-0.016301,18,32765
0.685488,-0.0770759,-0.0162926,18,32765
0.685229,-0.0793538,-0.0162598,18,32765
0.684958,-0.0816637,-0.016235,18,32765
0.684683,-0.083947,-0.0161934,18,32765
0.704236,-0.0887438,-0.0166385,18,32765
0.684102,-0.0885583,-0.0161687,17,32765
0.683805,-0.0908509,-0.0160446,17,32765
0.683495,-0.0931529,-0.0160315,17,32765
0.693079,-0.0968043,-0.0164376,18,32765
0.672961,-0.0962894,-0.0158784,18,32765
0.672631,-0.0985698,-0.0158472,18,32765
0.672293,-0.100848,-0.0158752,18,32765
0.671942,-0.103166,-0.0158241,18,32765
0.681461,-0.107031,-0.0159827,18,32765
0.690965,-0.110943,-0.0161079,18,32765
0.670852,-0.110058,-0.015631,17,32765
0.680341,-0.113942,-0.0159143,18,32765
0.679954,-0.116227,-0.0159513,18,32765
0.669713,-0.116792,-0.015606,18,32765
0.669313,-0.119081,-0.0154716,18,32765
0.668913,-0.121374,-0.0149812,18,32765
0.707824,-0.130893,-0.0158766,18,32765
0.66808,-0.125887,-0.0148876,18,32765
0.677469,-0.130036,-0.0150276,18,32765
0.67703,-0.132312,-0.0149771,18,32765
0.676578,-0.134605,-0.0149419,18,32765
0.695723,-0.140838,-0.0153238,18,32765
0.685458,-0.141147,-0.0150027,17,32765
0.675192,-0.141421,-0.0146955,18,32765
0.694275,-0.147835,-0.0150825,17,32765
0.654687,-0.141717,-0.0141931,17,32765
0.67374,-0.148194,-0.0145806,17,32765
0.673239,-0.150455,-0.0145626,17,32765
0.66298,-0.150514,-0.014244,18,32765
0.672214,-0.154983,-0.0144215,18,32765
0.681423,-0.159531,-0.0145945,18,32765
0.661432,-0.15719,-0.0141196,18,32765
0.660908,-0.159384,-0.0140472,18,32765
0.679796,-0.166336,-0.0144744,18,32765
0.679253,-0.168549,-0.0143904,18,32765
0.668991,-0.168374,-0.0141938,18,32765
0.66844,-0.170549,-0.0141529,18,32765
0.658198,-0.170236,-0.0139685,18,32765
0.667303,-0.17495,-0.0141075,18,32765
0.666722,-0.177156,-0.0140737,18,32765
0.666132,-0.179362,-0.014026,18,32765
0.665541,-0.181542,-0.0140572,18,32765
0.664939,-0.183737,-0.0140127,18,32765
0.6547,-0.183239,-0.0138162,18,32765
0.654106,-0.185352,-0.0137819,18,32765
0.663102,-0.190264,-0.0139881,18,32765
0.643281,-0.186829,-0.0135712,18,32765
0.661857,-0.194549,-0.0139918,18,32765
0.632477,-0.188131,-0.0134023,18,32765
0.641451,-0.193016,-0.0136214,17,32765
0.650388,-0.197996,-0.0139031,18,32765
0.649754,-0.200066,-0.0139009,18,32765
0.639558,-0.199188,-0.0137546,18,32765
0.638916,-0.201233,-0.0138282,18,32765
0.647812,-0.206251,-0.0141366,18,32765
0.637644,-0.205214,-0.014029,18,32765
0.655999,-0.213433,-0.0145661,18,32765
0.664801,-0.218669,-0.0149354,18,32765
0.679534,0.0114196,-0.0224376,17,32765
0.689569,0.00925323,-0.0225515,17,32765
0.649625,0.00656106,-0.0210853,17,32765
0.659641,0.00453162,-0.0212986,16,32765
0.649662,0.00227743,-0.0208227,17,32765
0.679655,6.66739e-05,-0.0216568,17,32765
0.689651,-0.00224577,-0.0218311,17,32765
0.659658,-0.00435474,-0.0208038,17,32765
0.669637,-0.00661006,-0.0210329,17,32765
0.669616,-0.00883181,-0.0208741,17,32765
0.669585,-0.0110401,-0.0208431,17,32765
0.659555,-0.0130668,-0.0204015,17,32765
0.67949,-0.0157719,-0.0210722,17,32765
0.669444,-0.0178261,-0.0206559,17,32765
0.649401,-0.0195384,-0.0199151,17,32765
0.649331,-0.0217546,-0.0198853,17,32765
0.62928,-0.0231728,-0.0192189,17,32765
0.639188,-0.0256699,-0.019488,17,32765
0.669057,-0.0291073,-0.0203966,17,32765
0.658972,-0.0308903,-0.0200478,18,32765
0.668849,-0.0336067,-0.0202854,17,32765
0.658753,-0.0353273,-0.0199073,18,32765
0.648652,-0.0369576,-0.0196123,18,32765
0.678462,-0.0409171,-0.020371,17,32765
0.658371,-0.04192,-0.0197439,17,32765
0.658227,-0.0441378,-0.0197245,18,32765
0.658077,-0.0463597,-0.0196374,18,32765
0.657917,-0.0485933,-0.0195983,17,32765
0.667714,-0.0515833,-0.0199183,18,32765
0.657573,-0.0530385,-0.0196041,18,32765
0.687274,-0.0577634,-0.0204454,17,32765
0.657203,-0.0574805,-0.0195032,17,32765
0.647051,-0.0588114,-0.0191408,17,32765
0.6568,-0.0619438,-0.0193982,18,32765
0.646638,-0.0632064,-0.0190809,18,32765
0.636476,-0.0643842,-0.0187994,18,32765
0.6462,-0.0675484,-0.0190396,18,32765
0.655909,-0.0707896,-0.0192934,18,32765
0.635801,-0.0707671,-0.0186903,18,32765
0.625628,-0.0717711,-0.0184138,18,32765
0.66509,-0.0785765,-0.0195061,18,32765
0.664823,-0.0808089,-0.0195129,18,32765
0.654625,-0.0818477,-0.0191569,18,32765
0.654344,-0.0840766,-0.0191066,18,32765
0.644148,-0.084977,-0.0187842,17,32765
0.643857,-0.0871572,-0.0187373,18,32765
0.623757,-0.0865776,-0.0182216,18,32765
0.653151,-0.0929031,-0.0190448,18,32765
0.633052,-0.0922373,-0.0183873,18,32765
0.652508,-0.0973352,-0.0189663,18,32765
0.632411,-0.0965467,-0.0183067,18,32765
0.651833,-0.101771,-0.018894,18,32765
0.621873,-0.0992429,-0.0180111,18,32765
0.641267,-0.104565,-0.0185034,18,32765
0.65077,-0.108381,-0.0187749,18,32765
0.640547,-0.108898,-0.0184675,18,32765
0.650029,-0.112753,-0.0186655,18,32765
0.639808,-0.113185,-0.0183163,18,32765
0.649266,-0.11709,-0.0185189,18,32765
0.639041,-0.117451,-0.0182052,18,32765
0.658288,-0.123297,-0.0188153,18,32765
0.638234,-0.121783,-0.0180487,18,32765
0.628003,-0.122063,-0.0176957,18,32765
0.637396,-0.126109,-0.0179725,18,32765
0.646763,-0.130263,-0.0181317,17,32765
0.63653,-0.130438,-0.0177713,18,32765
0.645882,-0.134582,-0.018005,18,32765
0.625873,-0.132595,-0.0173727,18,32765
0.625434,-0.13466,-0.0172778,18,32765
0.624978,-0.136777,-0.0171782,18,32765
0.644034,-0.143214,-0.0176028,18,32765
0.633808,-0.143145,-0.0172237,18,32765
0.613845,-0.140778,-0.0166053,18,32765
0.632858,-0.147313,-0.0170034,18,32765
0.622642,-0.147107,-0.0166448,18,32765
0.631881,-0.151478,-0.0167659,18,32765
0.631379,-0.153573,-0.0166097,18,32765
0.630868,-0.155675,-0.0164452,18,32765
0.640054,-0.160178,-0.0165376,18,32765
0.639518,-0.162317,-0.0164146,18,32765
0.619624,-0.159424,-0.0157999,18,32765
0.619104,-0.161451,-0.0156234,18,32765
0.637905,-0.168593,-0.0159417,18,32765
0.637362,-0.170649,-0.0157549,18,32765
0.617503,-0.167517,-0.015118,18,32765
0.626591,-0.1722,-0.0152124,18,32765
0.616393,-0.171585,-0.014762,18,32765
0.635076,-0.179032,-0.0150179,18,32765
0.624877,-0.178373,-0.0145643,18,32765
0.614685,-0.177655,-0.0141796,18,32765
0.642894,-0.188076,-0.0146334,18,32765
0.613528,-0.181644,-0.0137408,18,32765
0.641675,-0.192234,-0.0141012,18,32765
0.621928,-0.188482,-0.0134241,18,32765
0.611754,-0.187583,-0.0130343,18,32765
0.601607,-0.186576,-0.0125658,17,32765
0.601019,-0.188481,-0.0122773,18,32765
0.619489,-0.196418,-0.0123663,18,32765
0.609351,-0.195325,-0.0118273,18,32765
0.61822,-0.200416,-0.0117212,18,32765
0.617585,-0.202384,-0.0113609,18,32765
0.679292,0.0114249,-0.0288478,17,32765
0.689326,0.00925402,-0.029056,17,32765
0.68936,0.00696097,-0.0288874,17,32765
0.679393,0.00466067,-0.0283544,17,32765
0.689402,0.00240446,-0.0286087,17,32765
0.699403,5.04511e-05,-0.0288928,17,32765
0.669431,-0.00220267,-0.0275145,17,32765
0.679415,-0.00451372,-0.0278447,17,32765
0.689391,-0.00683944,-0.0281655,17,32765
0.699362,-0.00926454,-0.0284079,17,32765
0.699329,-0.0115765,-0.0283754,18,32765
0.689302,-0.0137069,-0.0278336,18,32765
0.689249,-0.016055,-0.0278868,18,32765
0.689195,-0.0184142,-0.0277771,17,32765
0.69912,-0.0211032,-0.0280459,17,32765
0.689058,-0.0231591,-0.0276136,18,32765
0.678995,-0.0250815,-0.0271545,18,32765
0.668925,-0.0269464,-0.0267175,18,32765
0.678813,-0.0296208,-0.0271112,18,32765
0.678711,-0.0319102,-0.0270654,18,32765
0.678603,-0.0341969,-0.0269982,18,32765
0.668509,-0.0359545,-0.0265246,18,32765
0.658408,-0.0376213,-0.0261354,18,32765
0.688207,-0.0416231,-0.0271747,18,32765
0.678093,-0.0432979,-0.0267519,18,32765
0.677943,-0.0455876,-0.0267319,18,32765
0.687756,-0.0485858,-0.0270338,18,32765
0.667658,-0.0494496,-0.0262105,18,32765
0.677449,-0.0524799,-0.026625,18,32765
0.687227,-0.0555828,-0.0269986,18,32765
0.677081,-0.0570626,-0.0265582,18,32765
0.686839,-0.0602364,-0.0268929,18,32765
0.656779,-0.0598578,-0.0256557,18,32765
0.686418,-0.0649123,-0.0267829,18,32765
0.696138,-0.0682286,-0.0271457,18,32765
0.695902,-0.0705853,-0.0271587,18,32765
0.675788,-0.0708311,-0.0263267,18,32765
0.665613,-0.0720295,-0.0258996,18,32765
0.6753,-0.0753646,-0.0262665,18,32765
0.665114,-0.0765046,-0.0258965,18,32765
0.654931,-0.0775824,-0.0254341,18,32765
0.694342,-0.0846216,-0.0269825,18,32765
0.664305,-0.0832785,-0.0257602,18,32765
0.67393,-0.0868228,-0.0260927,18,32765
0.68354,-0.0904125,-0.0264413,18,32765
0.673329,-0.0913878,-0.0260088,18,32765
0.682911,-0.0950388,-0.0264576,18,32765
0.672695,-0.0959357,-0.0260282,18,32765
0.672368,-0.0982243,-0.0259426,18,32765
0.691795,-0.103468,-0.0267101,18,32765
0.681563,-0.104325,-0.0262368,18,32765
0.681204,-0.106636,-0.0262524,18,32765
0.661106,-0.105782,-0.0254656,18,32765
0.680471,-0.11125,-0.0261412,18,32765
0.65052,-0.108624,-0.0249912,18,32765
0.669852,-0.114179,-0.0257243,18,32765
0.669468,-0.11643,-0.0256353,18,32765
0.678916,-0.120418,-0.0259416,18,32765
0.658846,-0.11913,-0.025109,18,32765
0.668272,-0.123146,-0.0254489,18,32765
0.667848,-0.125416,-0.0254994,18,32765
0.667425,-0.127687,-0.0252847,18,32765
0.657177,-0.128068,-0.0248337,18,32765
0.656743,-0.130277,-0.0248338,18,32765
0.666092,-0.134508,-0.0250833,18,32765
0.675425,-0.138771,-0.025361,18,32765
0.655399,-0.136923,-0.0245853,18,32765
0.645165,-0.137041,-0.0241287,18,32765
0.65448,-0.141283,-0.0243946,17,32765
0.673523,-0.147788,-0.0250152,18,32765
0.653518,-0.145704,-0.0241759,18,32765
0.662782,-0.150081,-0.0244189,18,32765
0.662282,-0.152285,-0.0243231,18,32765
0.652053,-0.152179,-0.023832,17,32765
0.651549,-0.154341,-0.0237302,18,32765
0.651043,-0.156481,-0.0235867,18,32765
0.660234,-0.161014,-0.023775,18,32765
0.659699,-0.163217,-0.0236027,18,32765
0.659163,-0.165394,-0.0234369,18,32765
0.668295,-0.170067,-0.0236526,18,32765
0.648384,-0.167262,-0.0228439,18,32765
0.657507,-0.171917,-0.0229971,18,32765
0.647283,-0.171521,-0.0224861,19,32765
0.656384,-0.176204,-0.0226289,18,32765
0.665448,-0.180998,-0.0227894,18,32765
0.64558,-0.177886,-0.0219823,18,32765
0.644996,-0.18002,-0.0217555,18,32765
0.644407,-0.182141,-0.0215467,18,32765
0.643812,-0.184261,-0.0213134,18,32765
0.643205,-0.186387,-0.0211449,18,32765
0.661782,-0.194112,-0.0215586,19,32765
0.641993,-0.190572,-0.0206849,18,32765
0.650954,-0.195527,-0.0207054,18,32765
0.640769,-0.194704,-0.0201365,18,32765
0.611471,-0.18799,-0.0190513,18,32765
0.649053,-0.201821,-0.0199559,18,32765
0.638883,-0.200884,-0.0193552,18,32765
0.619202,-0.196845,-0.0184765,18,32765
0.656651,-0.211042,-0.0192372,18,32765
0.636946,-0.207031,-0.0183794,18,32765
0.645789,-0.212184,-0.0182765,18,32765
0.659411,0.0109056,-0.0256548,17,32765
0.679412,0.00894168,-0.0268122,17,32765
0.649451,0.00640172,-0.0259173,17,32765
0.649459,0.00423058,-0.0261724,17,32765
0.649462,0.0020771,-0.0263599,17,32765
0.649454,-9.98573e-05,-0.0266356,17,32765
0.669425,-0.0023586,-0.0276488,17,32765
0.659416,-0.004549,-0.0273933,17,32765
0.629416,-0.00644288,-0.026353,17,32765
0.659353,-0.00891401,-0.0278195,17,32765
0.649325,-0.010915,-0.027522,18,32765
0.669257,-0.0134812,-0.0285194,18,32765
0.669204,-0.0157481,-0.0286001,17,32765
0.649163,-0.0175404,-0.027917,17,32765
0.649094,-0.0197456,-0.0280647,17,32765
0.659003,-0.0222731,-0.0286217,17,32765
0.658919,-0.0244839,-0.02875,17,32765
0.668815,-0.0270573,-0.0292374,18,32765
0.638774,-0.0279619,-0.0280271,18,32765
0.648654,-0.0305541,-0.0285451,18,32765
0.658523,-0.0331988,-0.0290735,18,32765
0.618499,-0.0332761,-0.0274128,17,32765
0.638332,-0.0364766,-0.0283179,18,32765
0.6382,-0.0386426,-0.0284189,18,32765
0.638069,-0.0407705,-0.028375,18,32765
0.657858,-0.0442623,-0.0293991,18,32765
0.637774,-0.0450666,-0.0285192,18,32765
0.647576,-0.0479475,-0.0290932,18,32765
0.647407,-0.0501558,-0.0291276,18,32765
0.637279,-0.0515336,-0.0286305,18,32765
0.657009,-0.0553691,-0.0295555,18,32765
0.636913,-0.055839,-0.0286932,18,32765
0.646671,-0.058883,-0.0291356,18,32765
0.636523,-0.0601246,-0.0286911,18,32765
0.656203,-0.0642099,-0.0295733,18,32765
0.65598,-0.0664432,-0.0295915,18,32765
0.635879,-0.0665865,-0.0287157,18,32765
0.625719,-0.0676605,-0.0282379,18,32765
0.645343,-0.0719834,-0.0291632,18,32765
0.625251,-0.0718576,-0.0282327,18,32765
0.625009,-0.0739548,-0.0281841,18,32765
0.654509,-0.0796627,-0.0295331,18,32765
0.64433,-0.0805927,-0.0290478,18,32765
0.63415,-0.0814831,-0.0285357,18,32765
0.623974,-0.0822838,-0.0280342,18,32765
0.623695,-0.0843783,-0.0280066,18,32765
0.623406,-0.0864963,-0.0279897,18,32765
0.623111,-0.0886273,-0.0278946,18,32765
0.63269,-0.0922157,-0.0282856,18,32765
0.612612,-0.0914284,-0.0273288,18,32765
0.622172,-0.0950484,-0.0277073,18,32765
0.631716,-0.0987122,-0.0281149,18,32765
0.611647,-0.0977096,-0.0272137,18,32765
0.631036,-0.102999,-0.0280232,18,32765
0.620834,-0.103476,-0.0275353,18,32765
0.630331,-0.107259,-0.0279042,19,32765
0.620123,-0.107685,-0.0274079,18,32765
0.609926,-0.108039,-0.0267966,18,32765
0.639054,-0.115426,-0.0280467,18,32765
0.628839,-0.115757,-0.0276028,18,32765
0.608807,-0.114194,-0.0267103,18,32765
0.608422,-0.116256,-0.0265988,18,32765
0.617839,-0.120192,-0.027003,18,32765
0.59783,-0.118407,-0.0260597,18,32765
0.636607,-0.128313,-0.0276943,18,32765
0.626386,-0.128455,-0.0272126,18,32765
0.625955,-0.130563,-0.0270943,18,32765
0.625515,-0.132669,-0.0270241,18,32765
0.625065,-0.134778,-0.0269862,18,32765
0.624615,-0.136868,-0.0268876,18,32765
0.614393,-0.136818,-0.0265071,18,32765
0.62368,-0.141086,-0.0267999,18,32765
0.623201,-0.143192,-0.0267616,18,32765
0.61299,-0.143009,-0.0262978,18,32765
0.602793,-0.142737,-0.0258237,18,32765
0.612036,-0.147065,-0.0261592,18,32765
0.62126,-0.151429,-0.0265708,18,32765
0.620759,-0.153482,-0.0264853,18,32765
0.610552,-0.153132,-0.0260154,18,32765
0.600357,-0.152703,-0.0255688,19,32765
0.609516,-0.157217,-0.0259406,19,32765
0.608997,-0.159228,-0.0258784,18,32765
0.598811,-0.158669,-0.0254765,18,32765
0.607944,-0.163214,-0.0257989,18,32765
0.617047,-0.167829,-0.0261963,18,32765
0.61649,-0.169863,-0.0262032,19,32765
0.606303,-0.169225,-0.0256861,18,32765
0.605742,-0.171223,-0.0256813,18,32765
0.595564,-0.170482,-0.0252918,18,32765
0.614203,-0.177965,-0.0261398,19,32765
0.584859,-0.171522,-0.0248906,19,32765
0.603467,-0.179072,-0.0257035,18,32765
0.602896,-0.180993,-0.0256527,18,32765
0.602306,-0.182941,-0.0256942,18,32765
0.601701,-0.184914,-0.0257456,19,32765
0.591546,-0.183924,-0.0254071,19,32765
0.600483,-0.188821,-0.0258151,18,32765
0.599888,-0.190703,-0.0258302,19,32765
0.608803,-0.195619,-0.0263158,18,32765
0.598685,-0.194425,-0.0259958,18,32765
0.60756,-0.199418,-0.0265094,18,32765
0.679114,0.0112379,-0.0328409,17,32765
0.679129,0.00893852,-0.0332207,17,32765
0.67914,0.0066892,-0.0335219,17,32765
0.679146,0.004413,-0.0337886,17,32765
0.669159,0.00212369,-0.0334849,17,32765
0.679136,-0.000126907,-0.034273,17,32765
0.689109,-0.00245665,-0.0349763,18,32765
0.679101,-0.0047189,-0.0346312,18,32765
0.689057,-0.00709384,-0.0353647,18,32765
0.669047,-0.00908996,-0.0345544,18,32765
0.678992,-0.0114649,-0.0351997,18,32765
0.678941,-0.0137333,-0.0353524,18,32765
0.678887,-0.0160388,-0.0354343,18,32765
0.6888,-0.0186812,-0.0361363,18,32765
0.668761,-0.0204175,-0.035241,18,32765
0.668681,-0.0226796,-0.035368,17,32765
0.668594,-0.0249285,-0.035498,18,32765
0.688461,-0.0279455,-0.0366109,18,32765
0.668406,-0.0293553,-0.0356531,18,32765
0.658326,-0.0311101,-0.0352022,18,32765
0.688133,-0.0348023,-0.0368955,18,32765
0.678034,-0.0365942,-0.0364717,18,32765
0.667938,-0.0382874,-0.0359571,18,32765
0.667798,-0.0405596,-0.0360626,18,32765
0.677626,-0.0434304,-0.0365541,18,32765
0.667505,-0.0450476,-0.0361558,18,32765
0.667349,-0.0472983,-0.0361672,18,32765
0.657221,-0.0488071,-0.0357576,18,32765
0.676959,-0.052601,-0.0368769,18,32765
0.666827,-0.0540821,-0.0362832,18,32765
0.656688,-0.0555045,-0.0357718,18,32765
0.646548,-0.0568493,-0.0352636,18,32765
0.666241,-0.0608414,-0.0363423,18,32765
0.666032,-0.0630941,-0.036346,18,32765
0.665816,-0.0653384,-0.0363313,18,32765
0.665588,-0.0676101,-0.0363496,18,32765
0.665353,-0.0698726,-0.0363713,18,32765
0.655187,-0.0710492,-0.0357978,18,32765
0.674789,-0.0754822,-0.0369126,18,32765
0.664615,-0.0765984,-0.0363343,18,32765
0.664356,-0.0788332,-0.0362824,18,32765
0.664088,-0.0810569,-0.0362892,18,32765
0.673725,-0.084507,-0.036791,18,32765
0.653633,-0.0842227,-0.0356416,18,32765
0.653352,-0.0863997,-0.0355831,18,32765
0.653059,-0.0885984,-0.035554,18,32765
0.662645,-0.0921977,-0.0360745,18,32765
0.632674,-0.0902387,-0.0343624,18,32765
0.632361,-0.0924246,-0.0343104,18,32765
0.651796,-0.097547,-0.0353049,18,32765
0.6712,-0.102823,-0.0363073,18,32765
0.660981,-0.103572,-0.0357393,18,32765
0.650765,-0.104247,-0.0351816,18,32765
0.650411,-0.106456,-0.035111,19,32765
0.650052,-0.108646,-0.0350582,18,32765
0.649682,-0.110857,-0.0349877,18,32765
0.659143,-0.114777,-0.0354535,18,32765
0.648928,-0.115264,-0.0347365,18,32765
0.658363,-0.119242,-0.0352146,18,32765
0.657959,-0.121452,-0.0352013,18,32765
0.637918,-0.119984,-0.034119,18,32765
0.647321,-0.124029,-0.034525,18,32765
0.646904,-0.126192,-0.0344986,18,32765
0.666066,-0.132285,-0.0354478,18,32765
0.665621,-0.13453,-0.0353699,18,32765
0.665164,-0.136782,-0.0353104,18,32765
0.65493,-0.136982,-0.0346671,18,32765
0.634932,-0.135037,-0.0335607,18,32765
0.653996,-0.141403,-0.0345533,18,32765
0.653524,-0.143596,-0.0344498,18,32765
0.643282,-0.143645,-0.0339768,18,32765
0.652541,-0.148021,-0.0343573,18,32765
0.66177,-0.152471,-0.0348291,18,32765
0.651532,-0.152418,-0.034268,18,32765
0.641309,-0.152274,-0.0336959,18,32765
0.640805,-0.154402,-0.0336107,18,32765
0.649997,-0.158869,-0.0341158,18,32765
0.659165,-0.163427,-0.0345338,19,32765
0.668301,-0.168078,-0.0349798,18,32765
0.65806,-0.167841,-0.0344356,19,32765
0.647824,-0.167559,-0.0338857,19,32765
0.65693,-0.172234,-0.0343239,19,32765
0.646706,-0.171833,-0.0338283,19,32765
0.646146,-0.173948,-0.0337339,19,32765
0.645571,-0.176072,-0.0337208,19,32765
0.644985,-0.178206,-0.0337275,18,32765
0.644393,-0.180354,-0.0336126,19,32765
0.643794,-0.182483,-0.0336071,19,32765
0.623983,-0.179112,-0.0326226,18,32765
0.632989,-0.183917,-0.0331571,18,32765
0.64197,-0.188794,-0.0336328,19,32765
0.631791,-0.187998,-0.0331271,18,32765
0.621626,-0.187136,-0.0325724,18,32765
0.630569,-0.192059,-0.0331165,18,32765
0.639476,-0.197071,-0.0336723,18,32765
0.629284,-0.196205,-0.033244,18,32765
0.638174,-0.201234,-0.0337453,18,32765
0.628022,-0.200205,-0.033257,18,32765
0.60838,-0.196031,-0.0323243,18,32765
0.626754,-0.204112,-0.0334295,18,32765
0.63559,-0.209205,-0.0340412,19,32765
0.648584,0.0117406,-0.0412381,17,32765
0.638655,0.00935412,-0.0404012,18,32765
0.618738,0.00689835,-0.0389336,17,32765
0.618767,0.00479172,-0.0387801,18,32765
0.658711,0.00288207,-0.0411255,17,32765
0.648747,0.000657847,-0.0403375,18,32765
0.638767,-0.00147996,-0.0396841,18,32765
0.668707,-0.00379441,-0.0414229,18,32765
0.668701,-0.00606049,-0.0412601,18,32765
0.638742,-0.00794521,-0.0393132,18,32765
0.628733,-0.00993689,-0.038681,18,32765
0.648662,-0.012413,-0.0397936,18,32765
0.618684,-0.0139182,-0.0378973,18,32765
0.638595,-0.0165057,-0.0390346,18,32765
0.638539,-0.0186633,-0.0389769,18,32765
0.638474,-0.0208647,-0.0389317,18,32765
0.638403,-0.0230387,-0.0388686,18,32765
0.648295,-0.0256204,-0.0394557,18,32765
0.648212,-0.0277897,-0.0393632,18,32765
0.648116,-0.0299735,-0.0393355,18,32765
0.628076,-0.0311647,-0.0380612,18,32765
0.63794,-0.0338026,-0.038601,18,32765
0.657757,-0.0370633,-0.0397753,18,32765
0.647664,-0.0386582,-0.0392055,18,32765
0.647533,-0.0408447,-0.0391509,18,32765
0.627475,-0.0417044,-0.0378991,18,32765
0.627332,-0.0438337,-0.037854,18,32765
0.667004,-0.0488616,-0.0402341,18,32765
0.636981,-0.0488109,-0.0383796,18,32765
0.626861,-0.0501739,-0.0377825,18,32765
0.636639,-0.0531399,-0.0383019,18,32765
0.636454,-0.0553029,-0.0383198,18,32765
0.616381,-0.0556577,-0.0370968,18,32765
0.616192,-0.0577311,-0.0370796,18,32765
0.625927,-0.0607923,-0.0376859,18,32765
0.635651,-0.0639146,-0.0382501,18,32765
0.61557,-0.0640196,-0.0370819,18,32765
0.625273,-0.0672017,-0.0376547,18,32765
0.625041,-0.0693426,-0.0376205,18,32765
0.624805,-0.0714529,-0.0375973,18,32765
0.614647,-0.0723859,-0.0370012,18,32765
0.624309,-0.0756572,-0.0376087,18,32765
0.614147,-0.0765242,-0.0369745,18,32765
0.623789,-0.0798662,-0.0375303,18,32765
0.613617,-0.0806766,-0.036956,18,32765
0.603443,-0.0814639,-0.0363393,19,32765
0.632825,-0.0876519,-0.0380809,19,32765
0.632521,-0.0898259,-0.0380538,18,32765
0.632215,-0.0919574,-0.0380592,18,32765
0.641778,-0.0955641,-0.0385865,19,32765
0.611844,-0.0932298,-0.036812,19,32765
0.641112,-0.0999405,-0.0385621,19,32765
0.640768,-0.102152,-0.0384877,18,32765
0.610862,-0.0995222,-0.0366455,18,32765
0.600678,-0.0999396,-0.0360284,19,32765
0.620024,-0.105309,-0.0371525,18,32765
0.619665,-0.107403,-0.037148,18,32765
0.629128,-0.111233,-0.037743,19,32765
0.618929,-0.111598,-0.0370587,18,32765
0.608738,-0.111874,-0.0363638,19,32765
0.608364,-0.113904,-0.0363124,18,32765
0.607988,-0.115912,-0.0362582,19,32765
0.607608,-0.11792,-0.0361645,19,32765
0.617006,-0.121897,-0.0366772,19,32765
0.616593,-0.124004,-0.0365582,19,32765
0.606385,-0.124119,-0.0359378,19,32765
0.605966,-0.126172,-0.0358583,19,32765
0.625075,-0.132359,-0.0369081,18,32765
0.595357,-0.128138,-0.0350847,18,32765
0.604685,-0.132263,-0.0355376,19,32765
0.604236,-0.134325,-0.0354422,19,32765
0.594042,-0.134177,-0.0348018,19,32765
0.613061,-0.140645,-0.0357106,19,32765
0.602869,-0.140422,-0.0350861,18,32765
0.602412,-0.142396,-0.0349753,18,32765
0.621363,-0.149047,-0.0359538,18,32765
0.611173,-0.148742,-0.035261,19,32765
0.581604,-0.143591,-0.0334334,19,32765
0.600501,-0.150382,-0.0344065,19,32765
0.609687,-0.154836,-0.0347507,19,32765
0.609181,-0.156853,-0.0345856,19,32765
0.608675,-0.158841,-0.0344115,19,32765
0.598507,-0.158283,-0.0337019,19,32765
0.597997,-0.160244,-0.0334941,19,32765
0.597475,-0.162211,-0.0333353,19,32765
0.59695,-0.164172,-0.0331338,18,32765
0.606032,-0.168828,-0.0334984,19,32765
0.586259,-0.165416,-0.0322202,19,32765
0.595333,-0.170059,-0.0325411,19,32765
0.604379,-0.17478,-0.0328258,19,32765
0.613402,-0.179569,-0.0330569,19,32765
0.593678,-0.175876,-0.0318489,19,32765
0.593117,-0.177802,-0.0315986,19,32765
0.592558,-0.1797,-0.0313528,19,32765
0.601541,-0.18454,-0.0315096,19,32765
0.591417,-0.183523,-0.0307397,18,32765
0.590827,-0.185463,-0.0304536,19,32765
0.58071,-0.184381,-0.0296604,18,32765
0.618167,-0.198478,-0.0312517,19,32765
0.579547,-0.188106,-0.0290092,19,32765
0.597964,-0.196128,-0.0295372,19,32765
0.648166,0.0117316,-0.0473556,18,32765
0.658191,0.00963311,-0.0478755,18,32765
0.688156,0.00765879,-0.0498236,18,32765
0.668243,0.005156,-0.0482137,18,32765
0.658294,0.00285607,-0.0473375,18,32765
0.688235,0.000666791,-0.0493143,18,32765
0.658313,-0.0015606,-0.0471363,18,32765
0.668287,-0.0038336,-0.0477291,18,32765
0.658307,-0.00601286,-0.0468565,18,32765
0.668264,-0.00836544,-0.0474624,18,32765
0.668234,-0.01062,-0.0474432,18,32765
0.678176,-0.0130431,-0.0480307,18,32765
0.688106,-0.0155521,-0.0486706,18,32765
0.668112,-0.0173445,-0.0471707,18,32765
0.668054,-0.0196075,-0.0471103,18,32765
0.677956,-0.0222437,-0.0477653,19,32765
0.647974,-0.0234746,-0.0455938,18,32765
0.677794,-0.0268869,-0.047677,18,32765
0.657774,-0.0283029,-0.0461807,18,32765
0.667641,-0.0309872,-0.0468518,18,32765
0.687464,-0.0342313,-0.0481802,19,32765
0.657465,-0.0349575,-0.046019,18,32765
0.667306,-0.0377293,-0.0466838,18,32765
0.677132,-0.0405528,-0.0474147,18,32765
0.676995,-0.0428446,-0.0473575,19,32765
0.676849,-0.0451335,-0.0473065,18,32765
0.656793,-0.0460411,-0.0458678,18,32765
0.676533,-0.049719,-0.0472339,19,32765
0.666419,-0.0512295,-0.0464837,19,32765
0.666241,-0.0534946,-0.0464863,18,32765
0.66606,-0.0557702,-0.0464021,18,32765
0.655927,-0.0571728,-0.0457278,18,32765
0.645796,-0.0584945,-0.0450081,18,32765
0.665461,-0.0625394,-0.0463743,18,32765
0.655314,-0.0638418,-0.0456905,18,32765
0.655096,-0.0660709,-0.0456553,19,32765
0.654864,-0.0683131,-0.045684,18,32765
0.654626,-0.0705694,-0.0456573,18,32765
0.654382,-0.0728166,-0.0456213,18,32765
0.654134,-0.0750317,-0.0455968,18,32765
0.663785,-0.0784067,-0.0462883,19,32765
0.663515,-0.0806485,-0.0462994,18,32765
0.643444,-0.0804132,-0.0448781,18,32765
0.653065,-0.0838627,-0.0455258,18,32765
0.652775,-0.0860792,-0.0455484,18,32765
0.672246,-0.0910203,-0.0469054,19,32765
0.671931,-0.0933428,-0.0468568,19,32765
0.651855,-0.0928437,-0.0454504,19,32765
0.67128,-0.0979262,-0.0468332,19,32765
0.661083,-0.098727,-0.0460748,18,32765
0.650881,-0.0994681,-0.0453937,18,32765
0.67025,-0.104788,-0.0467364,18,32765
0.650186,-0.103955,-0.0452861,19,32765
0.639986,-0.104571,-0.0445306,18,32765
0.649472,-0.108372,-0.0451872,18,32765
0.658941,-0.112244,-0.0458109,19,32765
0.658557,-0.114475,-0.0458058,19,32765
0.658165,-0.116704,-0.0458111,19,32765
0.638136,-0.115394,-0.0443458,19,32765
0.647563,-0.119354,-0.0449143,19,32765
0.647164,-0.121519,-0.0448592,18,32765
0.646762,-0.12366,-0.0448012,19,32765
0.646356,-0.125801,-0.0447013,19,32765
0.65572,-0.129919,-0.0453032,19,32765
0.6455,-0.130192,-0.0445021,19,32765
0.645051,-0.132413,-0.0444591,19,32765
0.65437,-0.136642,-0.0450465,18,32765
0.63439,-0.134718,-0.0435929,18,32765
0.643697,-0.13894,-0.0441623,18,32765
0.643236,-0.1411,-0.0440319,18,32765
0.633018,-0.141127,-0.0432645,18,32765
0.632538,-0.143282,-0.0431909,18,32765
0.632066,-0.145421,-0.0429511,18,32765
0.641298,-0.149801,-0.0435502,18,32765
0.660229,-0.15651,-0.044748,18,32765
0.630611,-0.151699,-0.0426215,18,32765
0.630114,-0.153791,-0.042486,18,32765
0.639295,-0.158287,-0.0429759,18,32765
0.648451,-0.162855,-0.043474,19,32765
0.638249,-0.162553,-0.0426041,19,32765
0.637717,-0.164671,-0.0424309,19,32765
0.627532,-0.164231,-0.0416081,18,32765
0.636647,-0.168851,-0.042074,19,32765
0.636103,-0.170943,-0.0418525,18,32765
0.645176,-0.175662,-0.0423148,18,32765
0.634987,-0.175132,-0.0414684,19,32765
0.634414,-0.17724,-0.0412902,18,32765
0.624232,-0.176634,-0.0404354,18,32765
0.623668,-0.178662,-0.0402178,19,32765
0.632681,-0.183488,-0.0405847,18,32765
0.632093,-0.18557,-0.0402854,18,32765
0.621932,-0.184773,-0.0394913,18,32765
0.621344,-0.186796,-0.0392286,18,32765
0.630307,-0.191694,-0.0395702,18,32765
0.639248,-0.196668,-0.0397985,18,32765
0.619562,-0.192806,-0.0383274,18,32765
0.637987,-0.200839,-0.0391972,19,32765
0.618317,-0.196882,-0.0377051,18,32765
0.636701,-0.205012,-0.0385005,18,32765
0.636065,-0.20704,-0.0381494,18,32765
0.616477,-0.202777,-0.036574,18,32765
0.638329,0.0113886,-0.0447892,18,32765
0.618397,0.00894749,-0.0436547,18,32765
0.628371,0.00699158,-0.0447322,18,32765
0.598454,0.00465585,-0.0427857,18,32765
0.608427,0.00266932,-0.0436975,18,32765
0.618383,0.000614686,-0.0447426,18,32765
0.648291,-0.0015647,-0.0470815,19,32765
0.628322,-0.00362756,-0.0458007,18,32765
0.618319,-0.00561684,-0.0452718,18,32765
0.628253,-0.0078061,-0.0462242,19,32765
0.618245,-0.00975139,-0.0455914,19,32765
0.638138,-0.0122195,-0.0472241,18,32765
0.628113,-0.014173,-0.0466159,19,32765
0.628052,-0.0162876,-0.0467483,19,32765
0.618019,-0.0180984,-0.0460933,19,32765
0.598018,-0.0195198,-0.0446449,19,32765
0.627831,-0.0226038,-0.0470863,19,32765
0.627752,-0.0247207,-0.0470826,19,32765
0.617692,-0.0264267,-0.0464507,19,32765
0.627557,-0.0289924,-0.0472366,19,32765
0.617488,-0.0306437,-0.0465815,19,32765
0.647249,-0.034308,-0.0489068,19,32765
0.627211,-0.0353518,-0.0475061,19,32765
0.627088,-0.0374567,-0.04751,18,32765
0.607048,-0.0382923,-0.0461154,19,32765
0.63676,-0.0423324,-0.0484241,19,32765
0.626664,-0.0437904,-0.0476889,19,32765
0.63646,-0.0466562,-0.0483867,19,32765
0.616409,-0.0473043,-0.0469239,19,32765
0.626184,-0.0502009,-0.0476844,19,32765
0.616072,-0.0515144,-0.0469271,18,32765
0.605958,-0.052739,-0.0461919,19,32765
0.605778,-0.0547878,-0.0461651,19,32765
0.605593,-0.056816,-0.0461383,19,32765
0.625247,-0.060801,-0.047641,18,32765
0.615118,-0.0619235,-0.0468571,18,32765
0.614904,-0.0640028,-0.0468665,19,32765
0.614684,-0.0661033,-0.0468343,19,32765
0.604552,-0.0670803,-0.0460124,19,32765
0.604323,-0.0691238,-0.0459909,19,32765
0.623897,-0.0734915,-0.0474465,19,32765
0.613754,-0.0743863,-0.0466151,19,32765
0.623395,-0.0777084,-0.0473328,19,32765
0.613238,-0.0785751,-0.0465329,19,32765
0.603087,-0.0793561,-0.0456982,19,32765
0.612699,-0.0827321,-0.0464256,19,32765
0.612425,-0.0847902,-0.0463251,19,32765
0.612139,-0.0868477,-0.0462934,19,32765
0.611846,-0.0889287,-0.0462213,19,32765
0.601679,-0.089585,-0.0453522,19,32765
0.611225,-0.0931835,-0.0460552,19,32765
0.610904,-0.0953179,-0.0459488,19,32765
0.610577,-0.0974321,-0.0458573,19,32765
0.610251,-0.0994825,-0.0457888,19,32765
0.609917,-0.101557,-0.045683,19,32765
0.619406,-0.105291,-0.0463672,19,32765
0.609224,-0.10568,-0.0455837,19,32765
0.60887,-0.107761,-0.0454385,19,32765
0.588881,-0.106272,-0.0438774,19,32765
0.59833,-0.110081,-0.0445346,19,32765
0.597959,-0.112103,-0.0444794,19,32765
0.59758,-0.114129,-0.0444189,19,32765
0.597197,-0.116156,-0.0443082,19,32765
0.616378,-0.12205,-0.0456228,19,32765
0.615962,-0.124137,-0.0456133,19,32765
0.615546,-0.126215,-0.0455304,19,32765
0.605351,-0.126277,-0.0447697,19,32765
0.595171,-0.126245,-0.0439749,19,32765
0.585001,-0.126132,-0.0431739,19,32765
0.604063,-0.132378,-0.0445462,19,32765
0.603621,-0.134407,-0.0444617,19,32765
0.593443,-0.134243,-0.0436384,19,32765
0.592981,-0.136275,-0.0436177,19,32765
0.582814,-0.135987,-0.0428388,19,32765
0.592056,-0.140274,-0.0435128,18,32765
0.591587,-0.142253,-0.0434686,19,32765
0.600808,-0.146579,-0.044092,19,32765
0.590637,-0.146181,-0.0433464,19,32765
0.599838,-0.150532,-0.043983,19,32765
0.599341,-0.152508,-0.0439509,19,32765
0.598837,-0.154489,-0.0439034,19,32765
0.598326,-0.15647,-0.0438552,19,32765
0.588165,-0.155904,-0.0430852,19,32765
0.587648,-0.157845,-0.0430681,19,32765
0.587118,-0.159806,-0.043061,19,32765
0.605821,-0.167052,-0.0444274,19,32765
0.586046,-0.163704,-0.0430299,19,32765
0.585506,-0.16564,-0.0429723,19,32765
0.594547,-0.170311,-0.0436739,20,32765
0.584397,-0.169515,-0.0429434,19,32765
0.602978,-0.177052,-0.0443779,19,32765
0.583276,-0.173341,-0.0429219,19,32765
0.592267,-0.178087,-0.0436438,19,32765
0.582153,-0.177063,-0.0429697,19,32765
0.581582,-0.178924,-0.0429934,19,32765
0.581002,-0.180793,-0.0430142,19,32765
0.599443,-0.188652,-0.0444774,20,32765
0.570309,-0.181514,-0.0424368,19,32765
0.579221,-0.186366,-0.0432511,19,32765
0.588108,-0.191278,-0.0440649,20,32765
0.578018,-0.190006,-0.0435079,19,32765
0.637878,0.0113761,-0.0508097,17,32765
0.647859,0.00936338,-0.0518814,16,32765
0.647855,0.00719208,-0.0522664,16,32765
0.607991,0.00470933,-0.0492365,16,32765
0.637889,0.00277104,-0.0518663,16,32765
0.647834,0.000610002,-0.0530211,16,32765
0.627885,-0.00155408,-0.0515581,16,32765
0.647794,-0.00378567,-0.0533679,16,32765
0.637796,-0.00584444,-0.0527511,16,32765
0.657683,-0.00822997,-0.0546322,16,32765
0.667608,-0.010595,-0.0555689,16,32765
0.65759,-0.012662,-0.0549063,16,32765
0.647569,-0.0146869,-0.0542081,16,32765
0.647504,-0.0168728,-0.0543445,16,32765
0.627515,-0.0184604,-0.0527606,17,32765
0.637406,-0.0208964,-0.053639,17,32765
0.65723,-0.0237621,-0.0555341,16,32765
0.627276,-0.0248028,-0.053006,17,32765
0.637133,-0.0273667,-0.0539664,17,32765
0.627079,-0.0290826,-0.0531597,17,32765
0.646871,-0.0322238,-0.0549464,17,32765
0.646753,-0.0344094,-0.0550176,17,32765
0.646624,-0.0365796,-0.0551248,17,32765
0.656443,-0.0393516,-0.0559768,17,32765
0.646354,-0.040917,-0.0552496,17,32765
0.646208,-0.0431117,-0.0552908,18,32765
0.646056,-0.0453024,-0.0553128,18,32765
0.655839,-0.0482421,-0.0561026,18,32765
0.655666,-0.0504883,-0.0561548,18,32765
0.635626,-0.0511299,-0.0544568,18,32765
0.645375,-0.0541454,-0.0553071,18,32765
0.655112,-0.0572065,-0.0561811,18,32765
0.63507,-0.0576265,-0.0544504,18,32765
0.644796,-0.0606922,-0.0552725,18,32765
0.66442,-0.0648208,-0.0569624,18,32765
0.634458,-0.0640773,-0.0543831,18,32765
0.634236,-0.0662277,-0.0543926,18,32765
0.634008,-0.0684,-0.0543592,18,32765
0.643682,-0.07165,-0.0551375,18,32765
0.643437,-0.0738315,-0.0551143,18,32765
0.643189,-0.0760036,-0.0550603,18,32765
0.623154,-0.0757634,-0.0532864,18,32765
0.652556,-0.0815988,-0.0557878,18,32765
0.632511,-0.081298,-0.0540469,18,32765
0.632238,-0.0834511,-0.0539584,18,32765
0.641827,-0.0869345,-0.0547786,18,32765
0.651409,-0.090467,-0.0555141,18,32765
0.641238,-0.0912574,-0.0546395,18,32765
0.65079,-0.0948807,-0.0554032,18,32765
0.640612,-0.0956749,-0.0544318,18,32765
0.640277,-0.0979119,-0.0543892,18,32765
0.62025,-0.0970721,-0.0526074,18,32765
0.629757,-0.100799,-0.0533477,18,32765
0.639254,-0.104528,-0.0541092,18,32765
0.638904,-0.106707,-0.0539981,18,32765
0.628719,-0.107198,-0.0531136,18,32765
0.638174,-0.111038,-0.0538935,18,32765
0.62799,-0.111481,-0.0529142,18,32765
0.627618,-0.113605,-0.0528123,18,32765
0.637034,-0.117555,-0.0535583,18,32765
0.626842,-0.117872,-0.0526761,18,32765
0.626444,-0.120002,-0.0526123,18,32765
0.626041,-0.122132,-0.0524959,18,32765
0.625635,-0.124255,-0.0523554,18,32765
0.625211,-0.126379,-0.0523454,18,32765
0.634549,-0.130502,-0.0530775,18,32765
0.624347,-0.13063,-0.0522213,18,32765
0.633657,-0.134811,-0.0529595,18,32765
0.64295,-0.139042,-0.0536859,18,32765
0.632747,-0.139079,-0.052802,18,32765
0.6031,-0.134693,-0.0502802,18,32765
0.651251,-0.14776,-0.0542182,18,32765
0.631316,-0.145519,-0.0525772,18,32765
