x, y, z, intensity, ring
9.94463,3.68913,0.839236,14,32765
9.93793,3.64989,0.836818,13,32765
9.99679,3.63468,0.838025,13,32765
9.9241,3.57193,0.830586,12,32765
9.93599,3.53911,0.828972,13,32765
9.94737,3.50721,0.828131,14,32765
9.95883,3.47491,0.826554,14,32765
9.97028,3.44222,0.825207,14,32765
9.93423,3.39402,0.820113,15,32765
9.99226,3.3782,0.823944,14,32765
9.94612,3.32775,0.819233,14,32765
9.92846,3.28641,0.815669,13,32765
9.90104,3.24212,0.812696,14,32765
9.91127,3.21068,0.812849,13,32765
9.95923,3.19171,0.816514,13,32765
9.93097,3.14878,0.81451,13,32765
9.97867,3.12955,0.819825,14,32765
9.82662,7.23573,1.17869,23,32765
9.80279,7.16752,1.17131,29,32765
9.83468,7.14107,1.16969,43,32765
9.83438,7.09095,1.16437,44,32765
9.84979,7.05272,1.16174,45,32765
9.85734,7.00834,1.15693,45,32765
9.83184,6.94164,1.14749,45,32765
9.83806,6.89873,1.14237,46,32765
9.83642,6.84945,1.13642,47,32765
9.85925,6.81711,1.13309,46,32765
9.84941,6.76159,1.1269,47,32765
9.85593,6.7176,1.12019,46,32765
9.87002,6.67961,1.11639,48,32765
9.85941,6.62478,1.10872,47,32765
9.87296,6.5874,1.10329,48,32765
9.87815,6.54399,1.09927,50,32765
9.86683,6.4896,1.09102,49,32765
9.88894,6.45661,1.08656,48,32765
9.8943,6.4125,1.0809,49,32765
9.86593,6.34703,1.07103,48,32765
9.87879,6.30908,1.06673,49,32765
9.88306,6.26603,1.06044,50,32765
9.89529,6.22878,1.05501,51,32765
9.87357,6.17036,1.04654,48,32765
9.85162,6.11223,1.03725,44,32765
9.89781,6.09484,1.03687,19,32765
3.77362,2.30625,0.393234,28,32765
3.73031,2.26274,0.386266,23,32765
9.89972,5.95961,1.01909,49,32765
9.91124,5.92178,1.01386,52,32765
9.91401,5.87899,1.0074,52,32765
9.91688,5.83581,1.00067,52,32765
9.91045,5.78817,0.995253,53,32765
9.9128,5.74538,0.988457,53,32765
9.90606,5.69783,0.982644,54,32765
9.90819,5.65479,0.976496,55,32765
9.91027,5.6117,0.969694,55,32765
9.89489,5.55873,0.961112,52,32765
9.91388,5.52552,0.956946,52,32765
9.91508,5.48294,0.951587,53,32765
9.91605,5.44065,0.945408,52,32765
9.92568,5.40319,0.939139,53,32765
9.92618,5.36124,0.93296,52,32765
9.94429,5.32835,0.928535,52,32765
9.94467,5.286,0.922888,53,32765
9.94497,5.24351,0.917406,52,32765
9.90976,5.18269,0.908168,53,32765
9.90971,5.14029,0.902766,53,32765
9.9274,5.10695,0.897708,54,32765
9.93574,5.06934,0.893864,54,32765
9.95319,5.03572,0.889762,54,32765
9.93472,4.98439,0.883074,46,32765
9.90708,4.92904,0.874252,18,32765
9.89703,4.88275,0.867405,39,32765
9.94907,4.86799,0.866423,54,32765
9.93894,4.82122,0.860021,54,32765
9.95558,4.7875,0.855982,54,32765
9.94478,4.74144,0.850088,54,32765
9.96079,4.70837,0.846357,55,32765
9.95821,4.66769,0.841258,55,32765
9.97392,4.63476,0.837117,56,32765
9.97139,4.59336,0.832226,55,32765
9.96863,4.55224,0.826781,55,32765
9.98414,4.5188,0.823162,55,32765
9.98102,4.47778,0.818292,55,32765
9.95977,4.4281,0.812297,56,32765
9.97494,4.39464,0.807868,57,32765
9.97141,4.35356,0.803548,57,32765
9.96769,4.31265,0.798894,57,32765
9.96365,4.2722,0.794331,58,32765
9.95973,4.23126,0.789198,58,32765
9.97398,4.19816,0.785889,58,32765
9.96934,4.15799,0.782408,58,32765
9.96483,4.11747,0.777652,59,32765
9.97834,4.08504,0.775417,59,32765
9.9736,4.04447,0.770488,55,32765
9.96861,4.00407,0.766308,57,32765
9.97259,3.96778,0.762761,55,32765
9.99507,3.9386,0.760847,57,32765
9.98008,3.89517,0.7571,56,32765
9.993,3.86228,0.755165,55,32765
9.97798,3.81856,0.750141,31,32765
9.90661,3.75395,0.74253,21,32765
9.90964,3.71809,0.739531,29,32765
9.96844,3.70367,0.740671,23,32765
9.9618,3.66427,0.738435,18,32765
9.9926,3.63871,0.737089,15,32765
9.96683,3.59277,0.733947,15,32765
9.94121,3.54633,0.729564,15,32765
9.94322,3.51102,0.728031,15,32765
9.9547,3.47867,0.726451,15,32765
10.0039,3.45897,0.727845,16,32765
9.9962,3.42026,0.725268,15,32765
9.98821,3.38181,0.723832,17,32765
9.94207,3.33126,0.719682,16,32765
9.9907,3.31183,0.721182,16,32765
10.0392,3.29212,0.724052,16,32765
10.0117,3.24787,0.721469,16,32765
9.9553,3.19501,0.717233,16,32765
9.99362,3.17313,0.7204,16,32765
9.98434,3.13573,0.721224,16,32765
9.78763,7.17975,1.22208,23,32765
9.79675,7.13524,1.21014,35,32765
9.80535,7.09117,1.19838,35,32765
9.82119,7.05349,1.18953,34,32765
9.79676,6.98669,1.1738,34,32765
9.80454,6.94262,1.16442,33,32765
9.81205,6.89888,1.15398,34,32765
9.80292,6.84375,1.14279,35,32765
9.8095,6.80077,1.13283,34,32765
9.79981,6.74595,1.12182,35,32765
9.80634,6.70247,1.11246,34,32765
9.8292,6.66996,1.10607,35,32765
9.82713,6.62087,1.0962,35,32765
9.81625,6.56678,1.08549,35,32765
9.83833,6.53481,1.07851,35,32765
9.84351,6.49198,1.07011,37,32765
9.83219,6.43771,1.06017,37,32765
9.82905,6.38896,1.05064,35,32765
9.81713,6.33499,1.04147,36,32765
9.82213,6.29145,1.03324,38,32765
9.84319,6.25941,1.02741,37,32765
9.8473,6.21657,1.02029,36,32765
9.85139,6.17373,1.01195,37,32765
9.82949,6.11563,1.00232,30,32765
3.67045,2.26689,0.37129,13,32765
3.77147,2.31224,0.378427,26,32765
9.91627,6.03429,0.988612,36,32765
9.86849,5.96017,0.976797,39,32765
9.8714,5.91763,0.969338,40,32765
9.85722,5.86452,0.960612,39,32765
9.85121,5.81691,0.952712,40,32765
9.87093,5.78424,0.94749,39,32765
9.87343,5.74117,0.94124,42,32765
9.86687,5.69367,0.933713,43,32765
9.86033,5.64587,0.926257,41,32765
9.87937,5.61326,0.921578,40,32765
9.86356,5.56097,0.913936,40,32765
9.88246,5.52799,0.909857,40,32765
9.88353,5.48584,0.903843,40,32765
9.8759,5.43865,0.896599,39,32765
9.87673,5.39634,0.891027,40,32765
9.89478,5.36384,0.886894,41,32765
9.89557,5.32121,0.880569,41,32765
9.89576,5.27935,0.874619,40,32765
9.87842,5.22768,0.867288,41,32765
9.87832,5.18584,0.861359,40,32765
9.89575,5.15336,0.856152,43,32765
9.86894,5.09744,0.848308,41,32765
9.89477,5.0695,0.846333,42,32765
9.88532,5.02278,0.840594,41,32765
9.89364,4.98509,0.834746,19,32765
9.84838,4.92022,0.826138,22,32765
9.87446,4.89079,0.8233,42,32765
9.88205,4.85339,0.81936,43,32765
9.88965,4.81587,0.814361,40,32765
9.91489,4.78738,0.810877,41,32765
9.91285,4.74617,0.805956,43,32765
9.91088,4.70445,0.801602,42,32765
9.90856,4.66347,0.795596,43,32765
9.92441,4.63031,0.791634,42,32765
9.8856,4.57229,0.784569,42,32765
9.90104,4.53948,0.780305,42,32765
9.89838,4.49797,0.774844,43,32765
9.91337,4.46544,0.771366,44,32765
9.91954,4.42804,0.766365,44,32765
9.92538,4.39101,0.761722,46,32765
9.91296,4.3456,0.756005,44,32765
9.91881,4.30798,0.751141,46,32765
9.93336,4.27496,0.747457,46,32765
9.91128,4.22586,0.740732,45,32765
9.90692,4.18579,0.735245,45,32765
9.92077,4.15338,0.732188,45,32765
9.90713,4.10919,0.725123,44,32765
9.92069,4.07685,0.7223,45,32765
9.93444,4.04405,0.717682,44,32765
9.93863,4.00786,0.712851,43,32765
9.93358,3.96751,0.708008,44,32765
9.9285,3.92705,0.702284,44,32765
9.93235,3.89066,0.698005,38,32765
9.90821,3.84359,0.690378,16,32765
9.90244,3.80389,0.684812,22,32765
9.84965,3.74705,0.67647,20,32765
9.94623,3.74641,0.677752,16,32765
9.94904,3.7111,0.673771,14,32765
9.94272,3.67163,0.667732,13,32765
9.91742,3.6255,0.661099,13,32765
9.89196,3.57954,0.653968,13,32765
9.94162,3.56044,0.650973,14,32765
10.0097,3.54845,0.6514,13,32765
9.88017,3.46641,0.637387,13,32765
9.97623,3.46456,0.638774,14,32765
10.0253,3.4458,0.63611,13,32765
9.96102,3.38788,0.626122,14,32765
9.95311,3.34985,0.620052,14,32765
9.93562,3.30854,0.614137,13,32765
9.90848,3.26457,0.605883,13,32765
9.91896,3.23351,0.600955,14,32765
9.96748,3.21446,0.597205,14,32765
9.97775,3.18351,0.591437,14,32765
9.33123,2.94434,0.546843,23,32765
9.3215,2.90971,0.539958,41,32765
9.82944,7.22541,1.11268,25,32765
9.81452,7.16304,1.09818,28,32765
9.83929,7.13049,1.08837,43,32765
9.85523,7.09261,1.07957,45,32765
9.86328,7.04871,1.06787,47,32765
9.85499,6.99279,1.05687,45,32765
9.84634,6.93729,1.04484,46,32765
9.84547,6.88763,1.03484,46,32765
9.85215,6.84441,1.02503,47,32765
9.86718,6.8063,1.01688,48,32765
9.87388,6.76249,1.00765,48,32765
9.86396,6.70727,0.997868,47,32765
9.87024,6.66353,0.989068,47,32765
9.87603,6.62027,0.980334,48,32765
9.87337,6.57146,0.97086,48,32765
9.87864,6.52841,0.962616,49,32765
9.88408,6.48484,0.954623,49,32765
9.88943,6.44125,0.946133,49,32765
9.87767,6.38695,0.937295,49,32765
9.88281,6.34311,0.929198,49,32765
9.88721,6.30008,0.921762,51,32765
9.89144,6.257,0.914796,50,32765
9.87876,6.20331,0.905049,52,32765
9.89923,6.17137,0.899715,53,32765
9.88604,6.11789,0.890682,43,32765
9.8215,6.03345,0.877058,22,32765
3.77156,2.29965,0.334454,28,32765
9.83654,5.95268,0.865467,36,32765
9.90779,5.95123,0.86417,50,32765
9.92796,5.91829,0.858755,52,32765
9.93069,5.87542,0.851826,53,32765
9.899,5.81212,0.842163,52,32765
9.92743,5.78392,0.838263,53,32765
9.921,5.73614,0.830982,52,32765
9.91459,5.68805,0.823771,51,32765
9.91643,5.64531,0.817629,51,32765
9.9094,5.59769,0.811049,53,32765
9.90231,5.54986,0.804822,52,32765
9.9296,5.52209,0.801089,52,32765
9.91333,5.46982,0.793397,52,32765
9.93176,5.43687,0.789382,52,32765
9.92365,5.38984,0.783142,52,32765
9.94207,5.35648,0.77836,53,32765
9.94236,5.31437,0.77257,54,32765
9.94276,5.27179,0.766946,52,32765
9.96045,5.23893,0.762521,53,32765
9.92497,5.17842,0.753236,54,32765
9.92481,5.13603,0.747845,54,32765
9.9419,5.10329,0.745089,55,32765
9.95034,5.06536,0.740933,53,32765
9.93207,5.01388,0.733166,51,32765
9.92258,4.9666,0.727813,26,32765
9.88625,4.9058,0.720289,30,32765
9.94761,4.89472,0.720323,53,32765
9.9374,4.84814,0.714094,54,32765
9.95376,4.81509,0.709849,54,32765
9.95181,4.77366,0.705096,54,32765
9.95894,4.73601,0.701547,56,32765
9.9567,4.69478,0.695701,57,32765
9.9817,4.66562,0.692341,57,32765
9.9611,4.61567,0.687066,57,32765
9.97668,4.58254,0.682764,57,32765
9.97415,4.54068,0.677454,58,32765
9.98927,4.50784,0.673944,58,32765
9.96824,4.45788,0.667169,58,32765
9.96505,4.41656,0.661988,58,32765
9.97097,4.37895,0.657739,58,32765
9.96777,4.33707,0.65234,57,32765
9.98241,4.30381,0.648633,57,32765
9.96959,4.25837,0.64285,56,32765
9.96531,4.21802,0.637522,56,32765
9.97007,4.18149,0.633856,57,32765
9.96571,4.14088,0.627624,56,32765
9.96091,4.10067,0.623623,57,32765
9.95623,4.06014,0.617834,57,32765
9.96972,4.02754,0.613653,57,32765
9.98325,3.99442,0.610115,57,32765
9.98752,3.95739,0.605114,57,32765
9.98217,3.91708,0.600344,57,32765
9.986,3.88059,0.594726,47,32765
9.92442,3.81904,0.586009,21,32765
9.92762,3.78335,0.581591,24,32765
9.91222,3.74015,0.575478,29,32765
9.97112,3.72585,0.574834,23,32765
9.96482,3.68622,0.568968,16,32765
9.93953,3.63992,0.562698,15,32765
9.96103,3.61082,0.558561,15,32765
9.97318,3.57796,0.553062,16,32765
9.98485,3.5458,0.549802,16,32765
9.95889,3.50009,0.542856,16,32765
9.95131,3.46189,0.537754,16,32765
9.96256,3.43017,0.532703,16,32765
9.97383,3.39809,0.527496,16,32765
10.0038,3.37272,0.523586,17,32765
10.0148,3.34064,0.519402,16,32765
10.0066,3.30259,0.512446,16,32765
9.97923,3.25876,0.505541,16,32765
9.97077,3.22106,0.498523,17,32765
9.95248,3.18092,0.49134,16,32765
9.78194,3.09186,0.476447,17,32765
9.34359,2.92162,0.448857,42,32765
9.78656,7.18586,0.96906,36,32765
9.77779,7.13057,0.964046,35,32765
9.76908,7.07508,0.958251,34,32765
9.76831,7.02547,0.952794,33,32765
9.77566,6.98124,0.949298,35,32765
9.76654,6.92574,0.942824,35,32765
9.7733,6.8821,0.93778,36,32765
9.77949,6.83909,0.932415,35,32765
9.80213,6.80699,0.929585,34,32765
9.79157,6.75268,0.922736,37,32765
9.80615,6.71432,0.918506,36,32765
9.79577,6.65928,0.911741,34,32765
9.81809,6.62697,0.907062,35,32765
9.82352,6.58368,0.901736,36,32765
9.84547,6.5514,0.897468,37,32765
9.8175,6.48585,0.889115,38,32765
9.79773,6.42581,0.8809,37,32765
9.81926,6.39339,0.877061,37,32765
9.81553,6.34471,0.870909,40,32765
9.81142,6.29642,0.864398,36,32765
9.79862,6.24305,0.856613,37,32765
9.81079,6.20574,0.852586,38,32765
9.80596,6.15787,0.846127,29,32765
3.67329,2.28992,0.314336,13,32765
3.69794,2.28823,0.314429,28,32765
3.68863,2.26556,0.311139,21,32765
9.79455,5.97043,0.819083,42,32765
9.82324,5.94295,0.815776,40,32765
9.84371,5.90967,0.810741,39,32765
9.84647,5.86663,0.806067,40,32765
9.84065,5.81857,0.798471,39,32765
9.8431,5.77574,0.792352,39,32765
9.84544,5.73276,0.786894,41,32765
9.83032,5.67979,0.78055,40,32765
9.84933,5.64727,0.776829,41,32765
9.83382,5.59466,0.769021,40,32765
9.8702,5.57167,0.765077,40,32765
9.8455,5.51446,0.756908,40,32765
9.84672,5.47189,0.751487,41,32765
9.86477,5.43984,0.74738,40,32765
9.8656,5.39747,0.741753,41,32765
9.88388,5.36466,0.736333,40,32765
9.84961,5.30296,0.726568,41,32765
9.87638,5.27463,0.72367,42,32765
9.85882,5.22312,0.717641,40,32765
9.88532,5.1948,0.71459,43,32765
9.88528,5.15253,0.708274,42,32765
9.87613,5.10587,0.701191,41,32765
9.8849,5.06761,0.696387,42,32765
9.85727,5.01247,0.689716,22,32765
9.88297,4.98441,0.68597,19,32765
9.90879,4.95596,0.681419,41,32765
9.88074,4.90105,0.673164,42,32765
9.88857,4.86329,0.668015,43,32765
9.88708,4.82142,0.663362,43,32765
9.90369,4.7879,0.658216,45,32765
9.90187,4.74615,0.6535,44,32765
9.89967,4.705,0.648036,45,32765
9.89742,4.66376,0.64186,45,32765
9.92194,4.63544,0.639277,45,32765
9.90141,4.58541,0.63328,45,32765
9.91721,4.55177,0.628632,45,32765
9.91422,4.51082,0.623646,45,32765
9.92037,4.47359,0.619133,44,32765
9.93523,4.44103,0.61518,45,32765
9.92262,4.3962,0.609902,45,32765
9.90084,4.34706,0.604484,44,32765
9.89697,4.3065,0.600235,43,32765
9.92063,4.27749,0.597046,45,32765
9.88886,4.22542,0.590898,44,32765
9.91218,4.19657,0.588077,44,32765
9.91702,4.15976,0.584848,44,32765
9.92177,4.12289,0.581305,44,32765
9.92631,4.08632,0.57697,45,32765
9.9214,4.04597,0.573468,45,32765
9.93472,4.01354,0.57069,44,32765
9.9481,3.98064,0.568054,45,32765
9.94265,3.94078,0.564015,47,32765
9.92785,3.89711,0.559201,35,32765
9.91258,3.85405,0.556424,16,32765
9.91605,3.81768,0.553984,19,32765
9.90996,3.77824,0.549525,21,32765
9.95025,3.75676,0.549358,17,32765
9.91585,3.70683,0.543415,14,32765
9.90912,3.66781,0.541147,13,32765
9.9213,3.63499,0.53941,13,32765
9.93346,3.60201,0.536947,14,32765
9.94513,3.56974,0.53638,13,32765
9.91922,3.52381,0.53232,14,32765
9.91165,3.48551,0.530014,14,32765
9.9417,3.46037,0.529307,14,32765
9.99079,3.44071,0.531057,14,32765
9.91683,3.37947,0.525155,13,32765
9.88983,3.33482,0.522162,14,32765
9.98561,3.33206,0.525955,14,32765
9.94869,3.28487,0.522784,14,32765
9.95914,3.25296,0.523301,14,32765
9.89346,3.19664,0.51869,14,32765
9.85602,3.14979,0.517065,14,32765
9.34215,2.95307,0.489647,28,32765
9.32264,2.91484,0.490418,39,32765
9.79347,7.20772,0.855981,36,32765
9.81703,7.17583,0.854131,45,32765
9.82464,7.13181,0.850085,46,32765
9.81599,7.07606,0.844183,46,32765
9.80733,7.01995,0.839465,47,32765
9.83088,6.98733,0.836109,47,32765
9.83786,6.94338,0.831217,48,32765
9.82792,6.8886,0.824633,48,32765
9.81799,6.83347,0.819046,47,32765
9.82395,6.79033,0.813913,47,32765
9.83045,6.74612,0.809077,48,32765
9.83667,6.70211,0.804015,49,32765
9.83435,6.65281,0.797296,49,32765
9.83988,6.60937,0.79214,50,32765
9.86192,6.57695,0.787855,49,32765
9.859,6.52772,0.782026,51,32765
9.83103,6.46193,0.773594,52,32765
9.84434,6.42386,0.769079,52,32765
9.86583,6.39127,0.765136,51,32765
9.83671,6.32651,0.756936,51,32765
9.83241,6.2783,0.750145,49,32765
9.8447,6.24079,0.746191,49,32765
9.85688,6.20333,0.741259,49,32765
9.85215,6.15514,0.734088,36,32765
9.85584,6.11188,0.729205,22,32765
3.66327,2.25485,0.268632,23,32765
3.74763,2.28936,0.272186,27,32765
9.8749,5.98705,0.711676,51,32765
9.90407,5.95867,0.707216,53,32765
9.89843,5.91021,0.702093,52,32765
9.89274,5.86186,0.69474,54,32765
9.87812,5.80864,0.687577,52,32765
9.88919,5.77048,0.682878,53,32765
9.89148,5.72724,0.678068,54,32765
9.89334,5.6845,0.673138,53,32765
9.89529,5.64151,0.666842,54,32765
9.91444,5.60843,0.66151,55,32765
9.89856,5.55583,0.654354,53,32765
9.89991,5.51299,0.649091,53,32765
9.90936,5.47586,0.644386,53,32765
9.9103,5.43325,0.638918,53,32765
9.91115,5.39067,0.632346,53,32765
9.91209,5.3477,0.625337,53,32765
9.93021,5.31439,0.621764,54,32765
9.94806,5.28131,0.618276,53,32765
9.91291,5.22006,0.611277,55,32765
9.92179,5.18222,0.605666,55,32765
9.93046,5.14452,0.599909,56,32765
9.93047,5.10143,0.594637,56,32765
9.92964,5.05962,0.589997,56,32765
9.92875,5.01774,0.584543,31,32765
9.89217,4.95776,0.576227,23,32765
9.90882,4.925,0.57102,50,32765
9.93463,4.89589,0.566967,57,32765
9.94222,4.85816,0.562986,55,32765
9.94097,4.81567,0.556798,57,32765
9.94824,4.77802,0.55275,55,32765
9.94613,4.73663,0.547447,56,32765
9.94397,4.69515,0.541428,56,32765
9.95955,4.66237,0.538241,57,32765
9.95722,4.62051,0.53357,56,32765
9.97313,4.58661,0.528889,56,32765
9.97024,4.54538,0.524062,56,32765
9.9583,4.49966,0.518667,57,32765
9.96412,4.46282,0.514222,56,32765
9.9607,4.42185,0.509676,57,32765
9.97557,4.38857,0.506473,58,32765
9.94437,4.33569,0.500997,56,32765
9.95896,4.3025,0.497233,56,32765
9.96399,4.26592,0.493354,57,32765
9.95985,4.22505,0.489053,58,32765
9.97399,4.19187,0.486348,58,32765
9.9604,4.14705,0.481984,53,32765
9.89113,4.0798,0.47418,33,32765
9.9047,4.04704,0.47175,25,32765
9.88098,3.9996,0.46722,28,32765
9.91286,3.97424,0.465463,33,32765
9.92595,3.94178,0.462483,40,32765
9.97623,3.92367,0.460958,54,32765
9.97967,3.88761,0.459309,45,32765
9.96462,3.84375,0.456091,24,32765
9.94928,3.8005,0.451375,33,32765
9.94293,3.76117,0.448805,25,32765
9.98338,3.73919,0.446678,21,32765
9.95803,3.69293,0.443751,16,32765
9.94216,3.64954,0.440752,15,32765
9.96376,3.61983,0.438693,16,32765
9.99431,3.59416,0.438945,15,32765
9.96848,3.54797,0.435246,16,32765
9.99868,3.5227,0.434757,15,32765
10.01,3.49065,0.433025,16,32765
9.98366,3.44465,0.43113,16,32765
9.97589,3.40591,0.428917,16,32765
9.98685,3.37376,0.427912,16,32765
9.99749,3.34218,0.427204,16,32765
9.95113,3.29171,0.424093,16,32765
9.98062,3.26594,0.425415,16,32765
9.9435,3.21866,0.422764,16,32765
9.92517,3.17763,0.422421,19,32765
9.73515,3.08285,0.413945,25,32765
9.36329,2.93279,0.400018,48,32765
9.77876,7.17128,0.902409,35,32765
9.7869,7.12757,0.890995,35,32765
9.76327,7.05946,0.87692,34,32765
9.77963,7.0208,0.867234,36,32765
9.78695,6.97733,0.857316,35,32765
9.81012,6.94581,0.848403,35,32765
9.78442,6.8794,0.836185,35,32765
9.77485,6.8245,0.825263,35,32765
9.78166,6.78069,0.816229,36,32765
9.79644,6.74274,0.807186,36,32765
9.80262,6.69936,0.79827,36,32765
9.80872,6.65564,0.79111,35,32765
9.83138,6.62306,0.783211,38,32765
9.82064,6.56824,0.773903,38,32765
9.79304,6.50253,0.762827,38,32765
9.81492,6.47034,0.755318,39,32765
9.81975,6.42737,0.747641,39,32765
9.82465,6.38405,0.740141,39,32765
9.82912,6.34119,0.732169,38,32765
9.83381,6.29772,0.724476,39,32765
9.81271,6.23878,0.714728,37,32765
9.82511,6.20127,0.707877,38,32765
9.81184,6.14791,0.700588,24,32765
9.82359,6.11102,0.693234,17,32765
3.7627,2.32335,0.262757,25,32765
3.69392,2.26394,0.255146,17,32765
9.82544,5.97666,0.671375,42,32765
9.81997,5.92857,0.663555,40,32765
9.83982,5.89617,0.658218,39,32765
9.83379,5.84842,0.651209,40,32765
9.83607,5.806,0.644806,40,32765
9.85556,5.77338,0.640065,40,32765
9.84066,5.72033,0.631959,40,32765
9.84266,5.67749,0.626477,40,32765
9.84452,5.63475,0.620246,40,32765
9.84612,5.59226,0.613241,40,32765
9.85598,5.55498,0.608929,41,32765
9.85749,5.51206,0.602588,41,32765
9.87627,5.47889,0.59762,41,32765
9.86008,5.42619,0.590014,41,32765
9.8695,5.38869,0.585256,43,32765
9.89609,5.36124,0.580839,41,32765
9.86993,5.30493,0.574985,42,32765
9.86134,5.25816,0.567425,41,32765
9.87907,5.22518,0.563589,42,32765
9.86153,5.17325,0.556908,45,32765
9.8611,5.13117,0.553776,45,32765
9.8606,5.08942,0.546383,43,32765
9.85111,5.0428,0.540516,31,32765
9.85021,5.00094,0.536354,16,32765
9.85829,4.96325,0.53166,35,32765
9.88401,4.93474,0.527529,46,32765
9.8916,4.89737,0.523906,45,32765
9.8993,4.85966,0.518863,44,32765
9.87993,4.80876,0.512579,43,32765
9.89634,4.77544,0.507653,44,32765
9.89438,4.7338,0.502815,43,32765
9.89223,4.69218,0.498812,45,32765
9.90806,4.65914,0.494281,44,32765
9.8874,4.60948,0.488193,44,32765
9.90285,4.57656,0.484784,44,32765
9.89994,4.5354,0.480941,45,32765
9.89689,4.4944,0.47579,45,32765
9.90294,4.45723,0.470859,44,32765
9.89971,4.41611,0.465028,43,32765
9.89605,4.37543,0.461205,44,32765
9.89254,4.33431,0.455414,44,32765
9.91622,4.30535,0.452714,46,32765
9.91258,4.26386,0.447469,45,32765
9.90877,4.22245,0.442261,44,32765
9.89547,4.17739,0.43771,36,32765
9.84499,4.11751,0.429743,17,32765
9.84949,4.08108,0.425609,17,32765
9.88149,4.05631,0.422687,24,32765
9.90429,4.02738,0.4185,29,32765
9.92697,3.99846,0.414388,38,32765
9.9124,3.95464,0.409398,43,32765
9.92564,3.92171,0.405194,20,32765
9.92,3.88184,0.400589,28,32765
9.91419,3.84212,0.395671,19,32765
9.9549,3.82035,0.392219,18,32765
9.92082,3.76998,0.386035,14,32765
9.95206,3.74429,0.382665,13,32765
9.9457,3.70479,0.376728,14,32765
9.92036,3.65861,0.370794,13,32765
9.93225,3.6266,0.366784,14,32765
9.85946,3.564,0.359204,13,32765
9.89939,3.54198,0.356039,14,32765
9.9301,3.5159,0.351012,14,32765
9.89472,3.4664,0.344505,14,32765
9.95319,3.45093,0.341731,14,32765
9.94526,3.41301,0.33689,14,32765
9.88985,3.35935,0.328694,14,32765
9.93857,3.34055,0.325173,14,32765
9.87369,3.28291,0.317525,14,32765
9.88437,3.25111,0.312428,21,32765
9.62842,3.13381,0.299497,20,32765
9.30532,2.99644,0.284217,40,32765
9.32435,2.97038,0.27824,44,32765
9.32469,2.93687,0.270821,28,32765
9.31488,2.90174,0.265485,41,32765
9.79302,7.19896,0.790112,34,32765
9.82538,7.17275,0.780779,46,32765
9.83419,7.12777,0.769742,46,32765
9.83454,7.07711,0.758822,48,32765
9.81765,7.01594,0.747176,47,32765
9.83277,6.97846,0.737613,48,32765
9.83163,6.92907,0.727737,49,32765
9.83855,6.88533,0.718331,48,32765
9.82915,6.82981,0.70824,48,32765
9.83585,6.78593,0.698655,50,32765
9.84214,6.74232,0.689884,50,32765
9.84838,6.69836,0.682875,50,32765
9.84633,6.6488,0.673235,49,32765
9.83566,6.5938,0.664279,49,32765
9.86631,6.56661,0.657621,51,32765
9.86338,6.51758,0.648401,49,32765
9.85166,6.4634,0.639783,49,32765
9.84829,6.41442,0.631903,50,32765
9.85285,6.37137,0.624091,49,32765
9.86603,6.33311,0.617084,50,32765
9.85345,6.2793,0.608291,52,32765
9.8744,6.2469,0.602012,51,32765
9.85283,6.18795,0.594552,49,32765
9.86469,6.15083,0.587252,36,32765
9.89388,6.12331,0.581923,26,32765
3.69347,2.2689,0.214509,25,32765
3.71821,2.26695,0.213268,26,32765
9.87863,5.97774,0.559336,48,32765
9.9072,5.95021,0.554436,52,32765
9.8756,5.88678,0.546239,52,32765
9.8694,5.83903,0.539521,52,32765
9.89761,5.81128,0.53522,53,32765
9.90008,5.76802,0.528375,54,32765
9.8936,5.71989,0.522587,52,32765
9.90426,5.68184,0.516959,53,32765
9.88864,5.62918,0.509203,53,32765
9.88993,5.58675,0.504515,53,32765
9.89154,5.54362,0.498333,54,32765
9.90168,5.50539,0.492904,55,32765
9.91182,5.46696,0.486939,55,32765
9.90384,5.41961,0.481392,53,32765
9.93052,5.39198,0.476856,55,32765
9.93086,5.34965,0.472706,56,32765
9.9312,5.30727,0.465794,56,32765
9.91379,5.25526,0.460283,56,32765
9.91404,5.2124,0.454763,55,32765
9.92262,5.17467,0.452203,56,32765
9.92223,5.13261,0.44495,55,32765
9.91289,5.08568,0.439328,54,32765
9.92104,5.04805,0.435717,44,32765
9.91144,5.00104,0.430303,24,32765
9.89259,4.94992,0.424129,46,32765
9.91814,4.92132,0.421351,55,32765
9.93487,4.88784,0.416757,55,32765
9.92458,4.84109,0.411197,55,32765
9.94108,4.80754,0.406241,56,32765
9.93922,4.76566,0.401564,56,32765
9.93719,4.72379,0.397727,56,32765
9.95311,4.69053,0.393169,56,32765
9.96877,4.65753,0.388841,56,32765
9.96624,4.61586,0.384697,57,32765
9.96347,4.57439,0.381016,56,32765
9.94234,4.52481,0.375331,56,32765
9.94848,4.48741,0.370466,57,32765
9.95446,4.45012,0.365128,57,32765
9.96919,4.41726,0.362133,57,32765
9.96581,4.37581,0.356486,57,32765
9.96213,4.33457,0.352689,57,32765
9.95858,4.29283,0.347605,56,32765
9.92727,4.2394,0.341608,29,32765
9.29728,3.93325,0.316341,11,32765
9.23674,3.87137,0.309029,12,32765
9.24042,3.83688,0.305214,18,32765
9.28084,3.81786,0.302629,16,32765
9.29358,3.78709,0.298324,12,32765
9.78816,3.95093,0.309328,13,32765
9.94977,3.97798,0.310165,43,32765
9.97238,3.94853,0.306224,54,32765
9.96681,3.90842,0.301783,25,32765
9.9238,3.85398,0.295916,22,32765
9.91788,3.81419,0.290805,29,32765
9.95849,3.79229,0.287256,22,32765
9.94303,3.74879,0.282349,15,32765
9.96476,3.71972,0.277381,15,32765
9.95819,3.68031,0.272322,15,32765
9.97953,3.65154,0.268544,15,32765
9.97259,3.61248,0.263523,15,32765
9.96562,3.57318,0.258799,16,32765
9.95871,3.53345,0.252585,16,32765
9.92336,3.48375,0.246529,26,32765
9.92521,3.44846,0.241887,16,32765
9.99289,3.43656,0.239049,18,32765
10.0038,3.40518,0.233022,17,32765
9.99575,3.36683,0.227769,16,32765
9.9499,3.3152,0.221261,16,32765
9.96066,3.28309,0.21612,17,32765
9.9424,3.24281,0.210822,16,32765
9.34367,3.01512,0.192966,33,32765
9.36272,2.98889,0.186865,51,32765
9.35353,2.95217,0.179324,49,32765
9.34375,2.91687,0.174157,34,32765
9.73823,7.15229,0.649416,38,32765
9.7213,7.09107,0.644562,37,32765
9.72852,7.04737,0.641374,37,32765
9.75193,7.01517,0.638887,37,32765
9.72692,6.94761,0.631302,37,32765
9.73358,6.90398,0.628465,37,32765
9.7399,6.86079,0.623538,39,32765
9.75449,6.82302,0.618615,37,32765
9.76085,6.77934,0.613384,37,32765
9.76733,6.73526,0.608208,37,32765
9.75668,6.68059,0.602056,35,32765
9.77891,6.6483,0.598777,37,32765
9.7679,6.59371,0.592465,37,32765
9.78144,6.55612,0.587229,39,32765
9.77835,6.50712,0.582109,40,32765
9.78335,6.46384,0.576586,39,32765
9.77965,6.41533,0.571072,38,32765
9.79258,6.37767,0.566258,40,32765
9.75521,6.30724,0.558163,38,32765
9.78499,6.27985,0.554092,38,32765
9.78081,6.23122,0.547571,32,32765
9.76799,6.17724,0.541277,15,32765
9.78015,6.13963,0.535953,29,32765
3.71344,2.31391,0.201437,30,32765
3.62776,2.24371,0.194972,16,32765
9.85854,6.05241,0.523407,43,32765
9.79321,5.96817,0.514205,39,32765
9.81329,5.9355,0.509624,41,32765
9.81603,5.89265,0.503816,40,32765
9.81888,5.84938,0.49785,41,32765
9.82147,5.80628,0.492249,41,32765
9.80649,5.75334,0.485948,40,32765
9.8257,5.72094,0.480392,41,32765
9.81897,5.67315,0.474994,42,32765
9.8379,5.64072,0.469678,42,32765
9.8481,5.60315,0.463854,44,32765
9.84939,5.5607,0.458839,42,32765
9.85077,5.51792,0.452778,42,32765
9.85196,5.47515,0.447087,43,32765
9.85327,5.43195,0.441083,42,32765
9.83655,5.3797,0.435189,43,32765
9.85461,5.34691,0.430878,44,32765
9.84614,5.29986,0.425467,44,32765
9.8636,5.26768,0.420842,45,32765
9.88125,5.23486,0.416304,42,32765
9.84589,5.17377,0.409235,43,32765
9.8457,5.13145,0.40304,43,32765
9.87217,5.10259,0.397784,31,32765
9.84489,5.04673,0.391972,18,32765
9.85306,5.00916,0.386071,38,32765
9.85209,4.9671,0.381998,42,32765
9.87789,4.93838,0.376995,44,32765
9.86797,4.89147,0.370316,44,32765
9.88445,4.85835,0.366721,44,32765
9.86492,4.80771,0.36015,44,32765
9.89908,4.78336,0.357269,43,32765
9.88797,4.73765,0.351484,45,32765
9.89504,4.70004,0.345569,44,32765
9.87464,4.64991,0.341041,45,32765
9.87229,4.6081,0.336472,44,32765
9.89685,4.57932,0.332119,45,32765
9.90298,4.54245,0.327124,46,32765
9.89076,4.49733,0.322118,44,32765
9.91494,4.4684,0.318983,45,32765
9.91155,4.42738,0.314768,45,32765
9.88966,4.37848,0.309712,45,32765
9.89507,4.34169,0.305423,43,32765
9.88206,4.29685,0.300681,31,32765
9.63009,4.14944,0.289307,12,32765
9.16593,3.91316,0.271685,11,32765
9.18845,3.8859,0.269236,13,32765
9.20151,3.85513,0.265592,15,32765
9.20522,3.82052,0.26171,12,32765
9.13462,3.75594,0.256915,11,32765
9.87844,4.02367,0.274389,15,32765
9.91923,4.00312,0.272031,42,32765
9.92303,3.96702,0.268998,39,32765
9.91744,3.9272,0.265274,15,32765
9.86521,3.86905,0.260892,20,32765
9.87803,3.83636,0.258511,21,32765
9.95587,3.82929,0.257259,17,32765
9.92185,3.77848,0.253741,13,32765
9.93426,3.74585,0.251804,13,32765
9.94663,3.713,0.250229,13,32765
9.92142,3.6662,0.246527,13,32765
9.87709,3.61314,0.242266,13,32765
9.94522,3.60141,0.242438,13,32765
9.9192,3.55582,0.239219,14,32765
9.87417,3.50361,0.236531,23,32765
9.95157,3.49467,0.236498,15,32765
9.99132,3.472,0.234863,14,32765
9.94595,3.41968,0.232996,13,32765
9.9285,3.37804,0.232066,13,32765
9.93937,3.34603,0.230362,14,32765
9.95012,3.31403,0.229082,14,32765
9.92274,3.26953,0.227588,14,32765
9.31533,3.0363,0.213493,26,32765
9.32493,3.00675,0.212364,39,32765
9.31522,2.97146,0.213217,40,32765
9.31509,2.93883,0.212857,25,32765
9.27639,2.89503,0.214066,39,32765
9.78191,7.20342,0.539093,48,32765
9.79746,7.1655,0.536448,46,32765
9.77264,7.09796,0.531658,47,32765
9.78814,7.05969,0.528708,48,32765
9.78769,7.00929,0.522955,49,32765
9.79459,6.96536,0.520281,48,32765
9.78482,6.91033,0.514644,48,32765
9.7914,6.86658,0.509356,48,32765
9.78153,6.81125,0.503438,49,32765
9.80457,6.77836,0.499264,50,32765
9.80232,6.72908,0.493872,50,32765
9.80822,6.68531,0.489741,50,32765
9.82218,6.64729,0.485003,51,32765
9.81931,6.59828,0.479012,50,32765
9.79976,6.53794,0.473343,51,32765
9.82153,6.50552,0.46878,51,32765
9.81799,6.45677,0.463518,51,32765
9.82271,6.41342,0.458378,51,32765
9.81063,6.35903,0.452071,52,32765
9.81538,6.31516,0.446721,52,32765
9.81973,6.27169,0.44083,50,32765
9.82395,6.22815,0.43563,44,32765
9.78553,6.15833,0.428139,19,32765
9.79775,6.12033,0.423453,33,32765
3.7116,2.30126,0.158634,25,32765
3.78734,2.3309,0.15948,27,32765
9.85003,6.01764,0.40921,52,32765
9.84464,5.96915,0.40354,53,32765
9.86462,5.9364,0.398584,54,32765
9.86762,5.89286,0.39277,54,32765
9.86175,5.8444,0.386983,54,32765
9.88137,5.81147,0.382362,54,32765
9.84897,5.74851,0.374781,54,32765
9.86829,5.71555,0.370619,56,32765
9.86135,5.66793,0.364305,56,32765
9.87164,5.6302,0.358551,54,32765
9.87302,5.58757,0.353703,54,32765
9.88319,5.54949,0.348113,54,32765
9.90196,5.51625,0.343189,55,32765
9.8859,5.4631,0.336739,54,32765
9.88683,5.42023,0.331784,54,32765
9.90502,5.38719,0.327441,55,32765
9.90549,5.34461,0.322566,55,32765
9.88783,5.29329,0.316775,54,32765
9.8879,5.25093,0.311659,54,32765
9.90567,5.21763,0.306784,54,32765
9.90562,5.175,0.300734,55,32765
9.92334,5.14127,0.295076,55,32765
9.90509,5.08967,0.289963,42,32765
9.85995,5.02458,0.28258,19,32765
9.89472,5.00043,0.279693,46,32765
9.90275,4.96254,0.274069,55,32765
9.91975,4.92879,0.268375,55,32765
9.91842,4.88658,0.264274,54,32765
9.92593,4.84887,0.258754,56,32765
9.92424,4.80682,0.254731,56,32765
9.94023,4.77391,0.249887,56,32765
9.94741,4.73603,0.244027,57,32765
9.93618,4.68987,0.240068,57,32765
9.95208,4.65623,0.236082,56,32765
9.95864,4.6187,0.231168,57,32765
9.92856,4.56484,0.225405,55,32765
9.9528,4.53612,0.221472,57,32765
9.94066,4.49045,0.217417,56,32765
9.96472,4.4615,0.21396,57,32765
9.97036,4.42448,0.209827,57,32765
9.94846,4.37526,0.205027,58,32765
9.94472,4.33413,0.200722,57,32765
9.93156,4.28926,0.196772,42,32765
9.60582,4.11045,0.186597,12,32765
9.24239,3.91774,0.176532,11,32765
9.23711,3.87898,0.172515,15,32765
9.26858,3.85569,0.169212,19,32765
9.29056,3.82885,0.166899,13,32765
9.31249,3.80186,0.164166,11,32765
9.86235,3.9893,0.170513,20,32765
9.96821,3.99421,0.169317,51,32765
9.96271,3.95415,0.16576,45,32765
9.9385,3.90669,0.162473,23,32765
9.90486,3.85555,0.159318,24,32765
9.92677,3.8268,0.156511,25,32765
9.96749,3.80449,0.154623,20,32765
9.95194,3.76103,0.152241,15,32765
9.96437,3.72805,0.150657,15,32765
9.96734,3.6915,0.147736,15,32765
9.94188,3.64505,0.144292,15,32765
9.95373,3.61261,0.143076,15,32765
9.98421,3.58718,0.141023,16,32765
10.0147,3.56144,0.139938,15,32765
9.98851,3.51551,0.137786,15,32765
9.98111,3.47622,0.135215,15,32765
9.9925,3.44336,0.134671,16,32765
10.0225,3.41761,0.134652,16,32765
9.93874,3.35325,0.131671,16,32765
10.0254,3.34651,0.13138,17,32765
10.0171,3.30794,0.1305,16,32765
9.68554,3.16394,0.126105,17,32765
9.334,3.01631,0.120267,43,32765
9.37198,2.99613,0.121924,52,32765
9.36241,2.96023,0.121529,46,32765
9.33336,2.91916,0.123342,37,32765
9.7438,7.15028,0.584684,38,32765
9.74412,7.09992,0.572849,38,32765
9.73578,7.0442,0.560991,37,32765
9.75954,7.01204,0.550936,38,32765
9.75035,6.95696,0.539963,36,32765
9.75699,6.91385,0.529833,36,32765
9.73915,6.85316,0.519308,37,32765
9.76196,6.8212,0.511574,37,32765
9.76928,6.77633,0.502368,37,32765
9.77617,6.73186,0.492816,37,32765
9.76593,6.67678,0.482606,37,32765
9.75503,6.6223,0.47375,38,32765
9.76826,6.58539,0.466643,39,32765
9.78169,6.54804,0.45844,39,32765
9.78695,6.50463,0.450478,40,32765
9.77548,6.45005,0.44186,39,32765
9.78061,6.40635,0.434134,40,32765
9.77681,6.35779,0.425927,38,32765
9.78965,6.32007,0.41836,38,32765
9.78532,6.2718,0.410941,39,32765
9.79752,6.23457,0.403831,32,32765
9.78459,6.18067,0.396858,15,32765
9.79657,6.14333,0.389233,33,32765
3.80973,2.37149,0.148608,27,32765
3.64758,2.25382,0.139779,16,32765
9.79791,6.00955,0.369065,44,32765
9.80094,5.96666,0.361907,41,32765
9.82097,5.93396,0.356617,41,32765
9.79811,5.87539,0.348949,42,32765
9.81774,5.84287,0.343213,42,32765
9.80274,5.79009,0.336719,43,32765
9.80489,5.74735,0.330178,42,32765
9.82392,5.71504,0.325115,43,32765
9.82568,5.67245,0.319119,43,32765
9.81894,5.62428,0.313605,42,32765
9.83785,5.59147,0.30758,42,32765
9.83053,5.54381,0.301566,41,32765
9.84037,5.50619,0.295396,42,32765
9.85891,5.47318,0.290827,43,32765
9.85079,5.42617,0.284966,41,32765
9.84283,5.37854,0.280013,43,32765
9.83432,5.33176,0.273171,43,32765
9.83476,5.28905,0.268905,43,32765
9.83479,5.24686,0.264311,43,32765
9.83456,5.2049,0.259591,43,32765
9.85221,5.17169,0.253996,42,32765
9.84321,5.12452,0.245714,38,32765
9.82457,5.07383,0.240085,15,32765
9.82402,5.03137,0.235892,33,32765
9.84111,4.99811,0.230469,44,32765
9.85817,4.96457,0.226239,43,32765
9.87497,4.93124,0.222242,44,32765
9.85556,4.88062,0.217786,44,32765
9.88089,4.85206,0.213686,45,32765
9.87912,4.81032,0.209369,46,32765
9.88642,4.77257,0.204328,44,32765
9.88452,4.73045,0.201814,44,32765
9.84647,4.67091,0.198966,43,32765
9.87124,4.64213,0.193098,46,32765
9.86869,4.60058,0.188767,44,32765
9.89315,4.57184,0.184119,46,32765
9.88104,4.52652,0.180455,43,32765
9.87793,4.48534,0.175263,44,32765
9.89298,4.45222,0.171091,44,32765
9.88052,4.40679,0.167296,45,32765
9.90446,4.37764,0.163698,44,32765
9.85514,4.31611,0.157816,18,32765
9.18167,3.98455,0.142942,11,32765
9.21338,3.96173,0.139131,12,32765
9.21736,3.92714,0.135138,15,32765
9.24891,3.9041,0.1317,13,32765
9.25258,3.86968,0.127292,11,32765
9.82903,4.0722,0.13025,12,32765
9.91661,4.06978,0.126785,36,32765
9.92082,4.03315,0.122804,40,32765
9.88774,3.98175,0.117667,21,32765
9.87322,3.93747,0.112847,17,32765
9.85822,3.89409,0.107174,20,32765
9.89922,3.87192,0.103083,17,32765
9.96784,3.86111,0.099908,13,32765
9.89655,3.79597,0.094669,13,32765
9.96519,3.78449,0.0905764,14,32765
9.93993,3.7383,0.0851912,14,32765
9.83024,3.66062,0.0800072,13,32765
9.92634,3.66036,0.0767414,13,32765
9.88179,3.60772,0.0712405,13,32765
9.86538,3.56511,0.0664551,13,32765
9.98059,3.56987,0.0621782,14,32765
9.97366,3.52978,0.056816,13,32765
9.92858,3.47721,0.0525895,14,32765
9.9115,3.43513,0.0463541,14,32765
9.8848,3.38991,0.0420063,13,32765
9.89562,3.35825,0.0368084,14,32765
9.50821,3.19278,0.0302417,17,32765
9.30003,3.09011,0.0243671,41,32765
9.29093,3.05395,0.0193688,41,32765
9.27203,3.01524,0.0136011,26,32765
9.30061,2.99192,0.00820405,38,32765
9.28143,2.95342,0.00233184,33,32765
9.80565,3.08668,-0.00309685,33,32765
9.83424,3.06231,-0.00974634,40,32765
9.78681,7.20133,0.474062,48,32765
9.79533,7.15659,0.462827,49,32765
9.77098,7.08883,0.450528,48,32765
9.78673,7.05062,0.440056,49,32765
9.77764,6.9953,0.429416,50,32765
9.78437,6.952,0.419432,50,32765
9.79114,6.90835,0.410362,47,32765
9.78137,6.8532,0.40123,49,32765
9.78878,6.80814,0.392179,49,32765
9.80398,6.76917,0.383102,50,32765
9.81033,6.72516,0.373856,49,32765
9.81611,6.68165,0.365943,49,32765
9.82124,6.63885,0.358571,49,32765
9.83481,6.60123,0.350405,52,32765
9.82361,6.54644,0.341998,51,32765
9.82061,6.49711,0.333998,51,32765
9.82588,6.45315,0.326412,51,32765
9.81385,6.39887,0.318168,52,32765
9.81842,6.35549,0.310388,51,32765
9.82261,6.31241,0.303478,51,32765
9.8265,6.26959,0.296169,52,32765
9.83059,6.22615,0.290039,45,32765
9.78346,6.15132,0.28076,24,32765
9.84635,6.14536,0.275647,45,32765
3.69687,2.29029,0.101035,27,32765
9.81041,6.03305,0.261915,40,32765
9.85616,6.01606,0.256032,53,32765
9.8507,5.96754,0.250048,55,32765
9.85367,5.92418,0.243452,54,32765
9.86486,5.88627,0.237465,55,32765
9.86722,5.8434,0.231712,53,32765
9.8523,5.79021,0.224914,53,32765
9.87147,5.75766,0.219814,53,32765
9.87337,5.7148,0.213967,55,32765
9.8581,5.66138,0.208517,54,32765
9.85975,5.61845,0.2021,55,32765
9.86994,5.58044,0.19669,53,32765
9.88861,5.54749,0.190747,53,32765
9.87233,5.49478,0.185488,54,32765
9.89054,5.46211,0.180369,54,32765
9.90903,5.42864,0.176137,55,32765
9.89188,5.37676,0.169374,53,32765
9.91009,5.34324,0.165556,54,32765
9.88386,5.28655,0.160676,55,32765
9.8926,5.24901,0.156252,55,32765
9.89269,5.2062,0.150345,57,32765
9.90151,5.16804,0.142557,54,32765
9.8919,5.12163,0.137388,50,32765
9.89151,5.07884,0.133346,20,32765
9.8642,5.02258,0.127301,40,32765
9.89026,4.99339,0.123162,56,32765
9.90717,4.95986,0.119142,56,32765
9.90578,4.91791,0.115247,55,32765
9.92225,4.88469,0.110921,56,32765
9.91161,4.83833,0.106669,56,32765
9.937,4.80909,0.101881,57,32765
9.93524,4.7667,0.0995336,57,32765
9.95154,4.73261,0.0977629,58,32765
9.94936,4.69062,0.0914777,59,32765
9.94698,4.6487,0.0872936,59,32765
9.92621,4.59861,0.0821289,58,32765
9.92329,4.55725,0.0787987,57,32765
9.93848,4.52411,0.0739006,58,32765
9.9263,4.47837,0.0695025,59,32765
9.95046,4.44905,0.0662117,60,32765
9.93797,4.40338,0.0622556,59,32765
9.94368,4.36573,0.0573223,54,32765
9.88494,4.30041,0.052721,21,32765
9.27487,3.99808,0.0452636,11,32765
9.18701,3.92393,0.0409215,13,32765
9.24617,3.91262,0.0374123,19,32765
9.26831,3.88586,0.0331581,15,32765
9.29052,3.85863,0.0286616,12,32765
9.78427,4.02541,0.0257503,13,32765
9.92723,4.04574,0.0222178,45,32765
9.96837,4.02415,0.0176715,54,32765
9.90756,3.96093,0.0130283,26,32765
9.93911,3.93575,0.00764631,35,32765
9.92436,3.89135,0.00321209,25,32765
9.90913,3.84785,-0.000538998,16,32765
9.98714,3.84018,-0.00498808,17,32765
9.93441,3.78211,-0.00957679,15,32765
9.94656,3.75003,-0.0146324,15,32765
9.93997,3.71062,-0.0187993,16,32765
9.97993,3.6892,-0.0228329,16,32765
9.94484,3.6397,-0.0278303,15,32765
9.91913,3.59338,-0.0323393,15,32765
9.94966,3.56759,-0.0373656,16,32765
9.96155,3.5342,-0.042611,16,32765
9.9731,3.50143,-0.0465394,16,32765
9.92774,3.44926,-0.052377,16,32765
9.9389,3.41689,-0.0565773,17,32765
9.93085,3.37855,-0.0616922,16,32765
9.9132,3.33701,-0.066826,16,32765
9.30703,3.1001,-0.0678639,35,32765
9.34543,3.07948,-0.0730548,51,32765
9.32658,3.04052,-0.0785793,49,32765
9.31713,3.00468,-0.0838592,32,32765
9.33607,2.9782,-0.0898317,53,32765
9.39293,2.96414,-0.0956193,30,32765
9.88881,3.08699,-0.107256,48,32765
9.69594,7.13025,0.331605,40,32765
9.71954,7.09815,0.329146,39,32765
9.68649,7.0248,0.323983,37,32765
9.67728,6.96941,0.320128,37,32765
9.70093,6.93661,0.316682,37,32765
9.69942,6.88721,0.312331,37,32765
9.72182,6.85575,0.308017,37,32765
9.72793,6.81244,0.303879,37,32765
9.7176,6.75751,0.299819,38,32765
9.71585,6.70764,0.293194,39,32765
9.71363,6.65813,0.288291,37,32765
9.72766,6.62002,0.284545,37,32765
9.725,6.57069,0.279423,39,32765
9.7136,6.51622,0.273666,40,32765
9.73555,6.48356,0.269053,39,32765
9.72351,6.42959,0.263342,39,32765
9.72772,6.38698,0.25975,39,32765
9.74017,6.34987,0.255066,41,32765
9.75262,6.31257,0.249434,34,32765
9.72331,6.24749,0.244367,17,32765
9.74407,6.2153,0.238274,29,32765
9.75657,6.17711,0.234825,31,32765
3.68249,2.31393,0.0863387,26,32765
9.84929,6.14272,0.224704,40,32765
9.74267,6.03036,0.216317,42,32765
9.77969,6.00857,0.212267,41,32765
9.76548,5.95536,0.206796,41,32765
9.77665,5.91789,0.201391,42,32765
9.77063,5.86997,0.195815,42,32765
9.7733,5.82672,0.190801,41,32765
9.77548,5.78404,0.185813,41,32765
9.78634,5.74609,0.18024,42,32765
9.78834,5.70321,0.175327,41,32765
9.79008,5.66055,0.169146,40,32765
9.79196,5.61736,0.164029,41,32765
9.80239,5.57908,0.159427,42,32765
9.80312,5.53741,0.153282,43,32765
9.82174,5.50447,0.14785,43,32765
9.80491,5.45264,0.144064,42,32765
9.82329,5.41964,0.137644,43,32765
9.82418,5.37664,0.131692,42,32765
9.81594,5.3292,0.126013,44,32765
9.83401,5.29589,0.12094,43,32765
9.81625,5.24448,0.116432,43,32765
9.81589,5.20273,0.109296,44,32765
9.82432,5.16542,0.105785,30,32765
9.77065,5.09559,0.0988232,16,32765
9.82333,5.08109,0.0909737,37,32765
9.83142,5.04361,0.0871313,44,32765
9.83944,5.00602,0.0822343,43,32765
9.865,4.97781,0.0758483,44,32765
9.87261,4.94045,0.0720734,44,32765
9.86245,4.89364,0.0666076,46,32765
9.85208,4.84697,0.0617502,44,32765
9.87757,4.81773,0.0568763,45,32765
9.87602,4.77518,0.052916,48,32765
9.8558,4.72502,0.0471471,47,32765
9.85395,4.68248,0.0454944,46,32765
9.86961,4.64943,0.0406957,46,32765
9.87607,4.61215,0.0359692,47,32765
9.86441,4.56609,0.0318512,44,32765
9.8704,4.52926,0.0271461,47,32765
9.88581,4.49553,0.0225906,48,32765
9.88238,4.45465,0.0177972,47,32765
9.86992,4.40914,0.0131224,44,32765
9.86617,4.36837,0.00894095,26,32765
9.68823,4.25143,0.00495969,11,32765
9.21633,4.00771,0.00117887,11,32765
9.16528,3.94943,-0.0017332,14,32765
9.21553,3.93374,-0.00628822,14,32765
9.09974,3.84824,-0.00950638,11,32765
0,0,-0,0,32765
9.84556,4.08659,-0.0174848,19,32765
9.92378,4.08057,-0.0210953,45,32765
9.90951,4.03622,-0.0241889,34,32765
9.91338,4.00004,-0.0273044,23,32765
9.89858,3.95637,-0.0302039,21,32765
9.79067,3.87592,-0.0324184,17,32765
9.93363,3.89494,-0.035651,13,32765
9.88118,3.83677,-0.0397255,14,32765
9.91237,3.81149,-0.0426531,14,32765
9.9621,3.79345,-0.0446996,13,32765
9.93705,3.74664,-0.047092,14,32765
9.93046,3.70723,-0.049632,14,32765
9.86768,3.64644,-0.05295,13,32765
9.936,3.63448,-0.0544405,14,32765
9.91026,3.58821,-0.0555837,13,32765
9.95964,3.5691,-0.0587339,13,32765
9.93362,3.52295,-0.0603588,14,32765
9.94507,3.49046,-0.061923,14,32765
9.909,3.44205,-0.0635793,13,32765
9.91992,3.41043,-0.0653093,14,32765
9.9308,3.3786,-0.0655272,14,32765
9.28766,3.12658,-0.0624736,28,32765
9.28833,3.09305,-0.063811,42,32765
9.28877,3.0599,-0.0647333,39,32765
9.28911,3.02675,-0.0641323,24,32765
9.26069,2.98467,-0.0646812,42,32765
9.32725,2.97361,-0.0644386,25,32765
9.81359,3.094,-0.0683148,39,32765
9.85185,3.07229,-0.0666616,41,32765
9.72009,7.16923,0.22007,48,32765
9.73579,7.13106,0.217408,48,32765
9.71909,7.06924,0.21323,47,32765
9.73441,7.03116,0.210248,48,32765
9.73392,6.9806,0.206249,46,32765
9.74888,6.94256,0.202488,49,32765
9.73066,6.88199,0.197308,50,32765
9.73689,6.83854,0.193337,50,32765
9.7677,6.81204,0.190432,52,32765
9.77437,6.76756,0.184195,52,32765
9.78062,6.7234,0.179683,52,32765
9.7536,6.65677,0.175249,52,32765
9.75937,6.61284,0.170524,51,32765
9.77303,6.57487,0.16553,53,32765
9.76193,6.51971,0.160327,53,32765
9.7917,6.49315,0.155624,54,32765
9.7711,6.43371,0.151793,52,32765
9.77534,6.39089,0.147042,52,32765
9.77954,6.34792,0.141349,49,32765
9.79243,6.30968,0.137407,46,32765
9.77126,6.25023,0.130693,23,32765
9.77547,6.20649,0.127205,34,32765
9.77973,6.16245,0.121388,47,32765
3.70487,2.3171,0.043727,28,32765
3.71275,2.30449,0.041632,23,32765
9.80752,6.0425,0.105295,54,32765
9.80197,5.99428,0.100258,53,32765
9.82182,5.96178,0.0949955,53,32765
9.82452,5.91876,0.0897415,54,32765
9.82737,5.87522,0.0848754,55,32765
9.81252,5.82204,0.0798959,54,32765
9.81489,5.7788,0.0743173,53,32765
9.82564,5.74076,0.0696269,55,32765
9.81886,5.69285,0.0635409,54,32765
9.83819,5.65942,0.0586878,54,32765
9.84877,5.62088,0.0541455,54,32765
9.83223,5.5691,0.0480625,54,32765
9.86838,5.54578,0.0426776,54,32765
9.85172,5.49367,0.0392384,54,32765
9.87897,5.46526,0.0328043,56,32765
9.87124,5.41715,0.0269712,55,32765
9.86314,5.36944,0.0215356,56,32765
9.86375,5.32638,0.0163963,57,32765
9.87255,5.28891,0.0122717,55,32765
9.87232,5.24687,0.00527156,56,32765
9.87206,5.20461,0.001822,55,32765
9.87171,5.16226,-0.00445623,44,32765
9.87129,5.11975,-0.0127079,20,32765
9.86173,5.07287,-0.0164566,46,32765
9.87875,5.03963,-0.0213052,58,32765
9.89547,5.00669,-0.0277966,58,32765
9.89425,4.96466,-0.0314717,57,32765
9.90208,4.92656,-0.0367454,58,32765
9.90079,4.88407,-0.0413888,58,32765
9.91741,4.8502,-0.0463498,57,32765
9.91599,4.8074,-0.050149,57,32765
9.93193,4.77432,-0.0557784,58,32765
9.93028,4.73141,-0.0572665,57,32765
9.94609,4.69802,-0.0621126,57,32765
9.9346,4.65191,-0.0666704,56,32765
9.91401,4.60133,-0.0704767,56,32765
9.93827,4.5726,-0.0752589,58,32765
9.93563,4.53026,-0.0797099,58,32765
9.94142,4.49323,-0.0844267,57,32765
9.93823,4.4515,-0.0889392,59,32765
9.93462,4.4104,-0.0929713,57,32765
9.90334,4.3574,-0.0964448,37,32765
9.53285,4.15639,-0.0963638,12,32765
9.23448,3.98983,-0.0961478,12,32765
9.22049,3.94631,-0.10042,16,32765
9.21527,3.90745,-0.103577,19,32765
9.22813,3.87691,-0.106563,12,32765
9.40724,3.91501,-0.112362,11,32765
9.88238,4.07431,-0.121365,25,32765
9.9329,4.05645,-0.124988,55,32765
9.94611,4.02386,-0.128145,45,32765
9.91284,3.97254,-0.130537,18,32765
9.89797,3.92874,-0.13279,22,32765
9.88286,3.88525,-0.135211,20,32765
9.93288,3.86702,-0.14006,17,32765
9.92685,3.82712,-0.142662,16,32765
9.92992,3.79115,-0.144415,15,32765
9.92358,3.7514,-0.146708,15,32765
9.93575,3.71895,-0.149346,16,32765
9.92929,3.67884,-0.152788,15,32765
9.96016,3.65287,-0.154276,15,32765
9.99091,3.62688,-0.155934,15,32765
9.9463,3.57366,-0.157997,16,32765
9.93916,3.53414,-0.159553,16,32765
9.96953,3.50819,-0.161431,16,32765
9.98075,3.47603,-0.163403,16,32765
9.93507,3.42455,-0.164215,16,32765
9.9271,3.38614,-0.164127,16,32765
9.56844,3.22949,-0.159327,17,32765
9.31339,3.10946,-0.156321,47,32765
9.32339,3.07928,-0.157319,52,32765
9.33334,3.04904,-0.156788,42,32765
9.30502,3.00672,-0.156971,40,32765
9.32403,2.98027,-0.156496,50,32765
9.59098,3.03162,-0.16139,27,32765
9.89628,3.0941,-0.164509,52,32765
9.67591,7.10958,0.265833,37,32765
9.69953,7.07774,0.254412,36,32765
9.67438,7.01068,0.243261,38,32765
9.68162,6.96685,0.232638,36,32765
9.72101,6.94652,0.224475,38,32765
9.70361,6.88509,0.213255,38,32765
9.71846,6.84701,0.205252,39,32765
9.74128,6.81477,0.19588,38,32765
9.7312,6.75955,0.186374,39,32765
9.72036,6.70513,0.178686,40,32765
9.7175,6.65654,0.170404,41,32765
9.72287,6.61341,0.162173,39,32765
9.71143,6.5592,0.153112,42,32765
9.73396,6.52588,0.145733,41,32765
9.72256,6.47112,0.137546,39,32765
9.74442,6.4383,0.130496,40,32765
9.74891,6.39526,0.122855,40,32765
9.74456,6.34721,0.115764,40,32765
9.74037,6.29867,0.108797,35,32765
9.75255,6.26142,0.102125,18,32765
9.74832,6.21247,0.0948602,35,32765
3.64228,2.3041,0.032717,19,32765
3.70924,2.32915,0.0309525,25,32765
9.72527,6.06178,0.0747953,40,32765
9.75362,6.03515,0.0680237,43,32765
9.78212,6.00805,0.0617824,41,32765
9.76783,5.95483,0.0557176,42,32765
9.77049,5.91198,0.0494095,41,32765
9.75606,5.85848,0.043248,41,32765
9.77566,5.82576,0.0368894,41,32765
9.76082,5.77245,0.0309306,41,32765
9.78024,5.7395,0.0254493,42,32765
9.78192,5.69702,0.0195315,42,32765
9.80071,5.66466,0.0135291,43,32765
9.8194,5.63221,0.00767494,44,32765
9.82084,5.58936,0.00273363,42,32765
9.82222,5.54638,-0.00319514,43,32765
9.7887,5.48359,-0.00747417,43,32765
9.80719,5.45045,-0.0129253,43,32765
9.80762,5.40834,-0.0178666,43,32765
9.81692,5.37062,-0.0230053,43,32765
9.81709,5.3285,-0.0278075,42,32765
9.8172,5.28621,-0.0328888,44,32765
9.80845,5.23901,-0.0382864,46,32765
9.80818,5.1969,-0.0418768,39,32765
9.79012,5.14539,-0.0469882,16,32765
9.80702,5.11301,-0.0548284,32,32765
9.82397,5.08033,-0.0589425,46,32765
9.84102,5.04715,-0.0639832,46,32765
9.83121,5.00032,-0.0697007,46,32765
9.83937,4.96202,-0.0744713,44,32765
9.84735,4.92377,-0.0789038,46,32765
9.8461,4.88134,-0.0827667,47,32765
9.86256,4.84792,-0.0880209,46,32765
9.86055,4.80641,-0.0939969,45,32765
9.83152,4.75161,-0.0994967,43,32765
9.85635,4.723,-0.103327,45,32765
9.85428,4.6808,-0.106673,46,32765
9.86118,4.64285,-0.104934,46,32765
9.84944,4.59708,-0.110214,45,32765
9.87396,4.56796,-0.114188,46,32765
9.87112,4.52621,-0.118268,46,32765
9.86798,4.48481,-0.122694,47,32765
9.85567,4.43911,-0.127249,41,32765
9.86126,4.40208,-0.131752,14,32765
9.23574,4.08596,-0.126806,11,32765
9.16704,4.01855,-0.129451,12,32765
9.21698,4.00397,-0.134406,16,32765
9.25791,3.98474,-0.139285,12,32765
9.32623,3.97744,-0.144621,11,32765
9.7447,4.1174,-0.155891,14,32765
9.86915,4.13084,-0.161447,43,32765
9.89209,4.10158,-0.166455,40,32765
9.83179,4.03781,-0.170022,15,32765
9.84518,4.00487,-0.174461,17,32765
9.85832,3.97221,-0.178642,15,32765
9.91781,3.95792,-0.184951,15,32765
9.85619,3.89621,-0.18751,14,32765
9.92488,3.8852,-0.193975,14,32765
9.91873,3.84567,-0.198168,13,32765
9.89383,3.79881,-0.202885,14,32765
9.8315,3.73761,-0.205592,13,32765
9.93728,3.7403,-0.212287,13,32765
9.91204,3.69341,-0.21602,13,32765
9.92395,3.66093,-0.221623,13,32765
