x, y, z, intensity, ring
6.79931,-2.6675,0.822405,14,32765
6.83669,-2.70807,0.828306,14,32765
6.76303,-2.70506,0.820321,14,32765
6.74477,-2.72356,0.820211,14,32765
6.73564,-2.74592,0.820668,14,32765
6.70812,-2.76039,0.81937,14,32765
6.69906,-2.78214,0.819947,14,32765
6.68978,-2.80429,0.820237,14,32765
6.6988,-2.83372,0.823711,14,32765
6.65275,-2.84014,0.82028,14,32765
6.65238,-2.86609,0.821864,15,32765
6.65175,-2.89226,0.824073,14,32765
6.6235,-2.9071,0.822465,14,32765
6.59536,-2.92127,0.821603,15,32765
6.53113,-2.91869,0.815843,15,32765
6.5759,-2.96418,0.823842,14,32765
6.51195,-2.96079,0.817471,14,32765
6.53816,-2.9986,0.823637,14,32765
6.52819,-3.0201,0.824213,15,32765
6.51786,-3.04187,0.825918,15,32765
6.45352,-3.03808,0.821336,14,32765
6.44333,-3.05947,0.821948,14,32765
6.43293,-3.08094,0.823192,14,32765
6.39568,-3.08929,0.821007,14,32765
6.38521,-3.11053,0.822318,14,32765
6.40137,-3.14475,0.827868,14,32765
5.90132,-2.92319,0.765689,20,32765
5.85587,-2.92501,0.762398,25,32765
5.81062,-2.92632,0.758889,26,32765
5.77417,-2.932,0.756794,24,32765
5.76411,-2.95138,0.758152,24,32765
5.74516,-2.96606,0.758726,23,32765
5.77009,-3.00389,0.765037,25,32765
5.69835,-2.99079,0.757921,26,32765
5.65293,-2.99132,0.754958,24,32765
5.80044,-3.0943,0.777558,25,32765
5.67624,-3.05234,0.763929,24,32765
5.69206,-3.08539,0.768912,24,32765
5.65549,-3.08991,0.766836,25,32765
5.68861,-3.13239,0.774261,25,32765
5.66075,-3.14142,0.773155,22,32765
5.6243,-3.14529,0.77105,25,32765
5.59632,-3.15424,0.769955,24,32765
5.57704,-3.16774,0.770462,23,32765
5.54903,-3.17644,0.76946,23,32765
5.54694,-3.19973,0.771793,25,32765
5.53611,-3.21803,0.773472,25,32765
5.54229,-3.24666,0.776586,25,32765
5.49706,-3.24485,0.773472,22,32765
5.49461,-3.26817,0.775869,18,32765
5.69655,-3.41374,0.807366,12,32765
5.94011,-3.58615,0.845419,14,32765
5.90276,-3.59008,0.842808,14,32765
5.90776,-3.61956,0.847124,14,32765
5.87883,-3.6285,0.845552,15,32765
5.84971,-3.63738,0.844934,15,32765
5.8711,-3.67785,0.850864,15,32765
5.84193,-3.68674,0.849368,15,32765
5.77947,-3.67376,0.84329,15,32765
5.76732,-3.69259,0.844246,15,32765
5.78853,-3.73257,0.851133,15,32765
5.77636,-3.75103,0.852643,15,32765
5.73089,-3.7479,0.848636,15,32765
5.70195,-3.75547,0.847719,15,32765
5.71439,-3.79053,0.851865,16,32765
5.68539,-3.79801,0.850613,16,32765
5.68108,-3.82203,0.852911,15,32765
5.65193,-3.82961,0.851,16,32765
5.62308,-3.83652,0.849486,16,32765
5.61038,-3.85489,0.850313,16,32765
5.62215,-3.89007,0.854897,16,32765
5.56055,-3.87409,0.848912,15,32765
5.45847,-3.82947,0.835871,16,32765
5.41372,-3.82396,0.831453,16,32765
5.36912,-3.81819,0.826778,16,32765
5.32481,-3.81193,0.821925,15,32765
5.36103,-3.86354,0.829472,16,32765
5.43683,-3.94489,0.843602,18,32765
5.46424,-3.99146,0.850146,17,32765
5.4515,-4.00894,0.849706,16,32765
5.46309,-4.04342,0.853155,17,32765
7.27789,-2.29623,0.767159,13,32765
7.23201,-2.30804,0.76677,13,32765
7.19574,-2.32219,0.767276,13,32765
7.17864,-2.34165,0.769323,12,32765
7.11435,-2.34554,0.765075,12,32765
7.16314,-2.38723,0.773705,12,32765
7.09842,-2.39138,0.771125,12,32765
7.12792,-2.42758,0.7775,12,32765
7.13859,-2.45732,0.781185,12,32765
7.11147,-2.47413,0.781388,12,32765
7.06572,-2.4839,0.778956,12,32765
7.05733,-2.50666,0.782075,12,32765
7.01144,-2.51626,0.779899,12,32765
6.95618,-2.52256,0.775806,13,32765
7.03148,-2.57655,0.787819,13,32765
6.93872,-2.56896,0.779918,12,32765
6.89275,-2.57772,0.778078,13,32765
6.88403,-2.60032,0.780041,12,32765
6.83824,-2.60845,0.777156,12,32765
6.86659,-2.64499,0.783566,13,32765
6.82062,-2.65311,0.780841,13,32765
6.76542,-2.65725,0.777314,13,32765
6.78428,-2.6904,0.781621,12,32765
6.77526,-2.71251,0.78344,12,32765
6.766,-2.73504,0.78514,12,32765
6.77506,-2.76506,0.789043,13,32765
6.71962,-2.76876,0.785388,12,32765
6.69175,-2.78377,0.784347,13,32765
6.78302,-2.84827,0.798768,13,32765
6.69104,-2.83574,0.790338,13,32765
6.66331,-2.84986,0.789118,13,32765
6.67211,-2.87925,0.793069,13,32765
6.62596,-2.88561,0.789205,13,32765
6.61606,-2.90781,0.790777,13,32765
6.62416,-2.93837,0.794054,13,32765
6.55962,-2.93618,0.789346,12,32765
6.58595,-2.97406,0.795689,13,32765
6.53986,-2.97925,0.791977,13,32765
6.58407,-3.02553,0.800205,13,32765
6.48366,-3.00553,0.790637,12,32765
6.50948,-3.04399,0.796082,13,32765
6.44532,-3.03994,0.790899,13,32765
6.52461,-3.10437,0.803254,13,32765
6.51414,-3.12601,0.804314,13,32765
6.41402,-3.10437,0.795065,12,32765
6.37676,-3.11252,0.792958,13,32765
5.93841,-2.92268,0.740828,16,32765
5.86616,-2.91153,0.734357,22,32765
5.83847,-2.92223,0.733319,21,32765
5.82836,-2.94198,0.734761,19,32765
5.86257,-2.98405,0.741737,21,32765
5.78177,-2.9671,0.734191,19,32765
5.79823,-3.00002,0.738498,19,32765
5.6825,-2.96383,0.726198,18,32765
5.75148,-3.02447,0.738034,19,32765
5.66221,-3.00166,0.729335,20,32765
5.6521,-3.02044,0.7302,19,32765
5.66806,-3.05338,0.73511,20,32765
5.62299,-3.0528,0.732084,23,32765
5.66513,-3.09986,0.739737,20,32765
5.62004,-3.09904,0.736649,20,32765
5.63573,-3.13176,0.742142,18,32765
5.54714,-3.10666,0.733454,19,32765
5.57133,-3.14452,0.738825,22,32765
5.63821,-3.20742,0.750947,23,32765
5.53252,-3.17186,0.739523,19,32765
5.63358,-3.2546,0.756867,22,32765
5.54548,-3.22795,0.748036,22,32765
5.52623,-3.24085,0.748492,18,32765
5.54092,-3.27424,0.753643,21,32765
5.76022,-3.42968,0.787184,11,32765
5.86777,-3.52034,0.805343,12,32765
5.96623,-3.60664,0.822572,13,32765
5.92875,-3.61053,0.821061,13,32765
5.93358,-3.64027,0.825317,13,32765
5.88777,-3.63847,0.822549,13,32765
5.89263,-3.66777,0.827349,13,32765
5.89721,-3.69749,0.831583,13,32765
5.86815,-3.70591,0.831398,13,32765
5.85576,-3.72496,0.833586,13,32765
5.84341,-3.74377,0.835977,13,32765
5.78091,-3.73031,0.831143,13,32765
5.80169,-3.7707,0.83857,13,32765
5.7558,-3.7678,0.836257,13,32765
5.70988,-3.76484,0.83389,13,32765
5.73027,-3.80533,0.841634,14,32765
5.71756,-3.82379,0.844433,13,32765
5.70466,-3.84227,0.847741,13,32765
5.69179,-3.86083,0.849992,14,32765
5.67863,-3.87956,0.852714,13,32765
5.66564,-3.89783,0.855788,14,32765
5.57912,-3.86529,0.847708,13,32765
5.46851,-3.81516,0.835682,13,32765
5.38271,-3.78128,0.827805,13,32765
5.41855,-3.83308,0.838396,13,32765
5.38958,-3.83885,0.839376,13,32765
5.37678,-3.85605,0.842625,13,32765
5.41229,-3.90773,0.854217,14,32765
5.5117,-4.00642,0.875613,15,32765
5.48192,-4.01277,0.876775,14,32765
5.46796,-4.03065,0.881943,15,32765
7.23625,-2.28562,0.690642,14,32765
7.24731,-2.31549,0.696076,14,32765
7.21103,-2.32972,0.696873,14,32765
7.19391,-2.34926,0.699021,14,32765
7.16738,-2.36569,0.69903,13,32765
7.15949,-2.38871,0.701565,13,32765
7.13247,-2.40558,0.703268,13,32765
7.10542,-2.42268,0.703681,14,32765
7.10671,-2.44917,0.706239,14,32765
7.0232,-2.44625,0.700992,14,32765
7.08081,-2.49211,0.709262,14,32765
6.988,-2.48494,0.703886,14,32765
7.02647,-2.52463,0.710595,14,32765
6.97114,-2.53098,0.706975,14,32765
6.96238,-2.55426,0.709579,14,32765
6.9163,-2.56372,0.707281,14,32765
6.92625,-2.59337,0.711556,14,32765
6.89887,-2.60908,0.71161,14,32765
6.89022,-2.63148,0.712953,14,32765
6.84423,-2.63961,0.711286,14,32765
6.8168,-2.65489,0.710868,14,32765
6.80787,-2.67723,0.712658,14,32765
6.78043,-2.69221,0.711837,14,32765
6.78988,-2.72177,0.715604,14,32765
6.76213,-2.73691,0.715359,14,32765
6.74357,-2.75569,0.71614,14,32765
6.71572,-2.77067,0.71589,14,32765
6.72458,-2.801,0.718967,14,32765
6.71496,-2.82331,0.721529,14,32765
6.68713,-2.83773,0.720844,14,32765
6.67766,-2.85971,0.72179,14,32765
6.66817,-2.8813,0.723577,15,32765
6.65846,-2.90357,0.724058,14,32765
6.61206,-2.90989,0.721664,14,32765
6.62017,-2.9405,0.724755,15,32765
6.5919,-2.95456,0.724602,14,32765
6.58193,-2.97622,0.72658,14,32765
6.55389,-2.98967,0.725249,14,32765
6.50772,-2.9945,0.722879,14,32765
6.48856,-3.01189,0.723288,15,32765
6.52339,-3.05466,0.729369,14,32765
6.52213,-3.08039,0.73182,15,32765
6.46662,-3.08103,0.728088,14,32765
6.41138,-3.08098,0.724078,14,32765
6.42773,-3.11534,0.728937,15,32765
6.3904,-3.12356,0.727116,14,32765
6.06769,-2.99052,0.692729,16,32765
5.83482,-2.90007,0.668572,23,32765
5.82493,-2.9196,0.669763,23,32765
5.80595,-2.93486,0.670179,25,32765
5.77817,-2.94532,0.669496,24,32765
5.75054,-2.95533,0.668855,24,32765
5.72288,-2.96533,0.667726,26,32765
5.79234,-3.02552,0.678215,25,32765
5.75555,-3.03104,0.676824,25,32765
5.7189,-3.03617,0.675195,27,32765
5.64729,-3.02232,0.668801,26,32765
5.68951,-3.06948,0.676555,24,32765
5.67931,-3.08797,0.678085,22,32765
5.68647,-3.1162,0.681009,25,32765
5.58907,-3.0866,0.672023,23,32765
5.63957,-3.13863,0.681427,24,32765
5.62897,-3.15726,0.683057,26,32765
5.60972,-3.171,0.6828,23,32765
5.53831,-3.15541,0.677192,22,32765
5.55346,-3.18875,0.681595,25,32765
5.55126,-3.21198,0.684991,24,32765
5.52337,-3.22006,0.684432,22,32765
5.52128,-3.24298,0.687112,21,32765
5.48464,-3.24604,0.685567,24,32765
5.55903,-3.31506,0.69833,13,32765
5.75226,-3.45647,0.725874,12,32765
5.91904,-3.58376,0.750478,14,32765
5.92405,-3.61339,0.754641,15,32765
5.91194,-3.63276,0.756544,15,32765
5.89995,-3.65181,0.758493,14,32765
5.85416,-3.64966,0.756574,15,32765
5.85881,-3.67932,0.760612,15,32765
5.84659,-3.69825,0.762795,15,32765
5.81746,-3.7066,0.76278,15,32765
5.75499,-3.69311,0.758544,15,32765
5.82618,-3.76565,0.771933,15,32765
5.78856,-3.76832,0.771243,16,32765
5.73436,-3.75992,0.768188,15,32765
5.70503,-3.76784,0.768423,15,32765
5.75026,-3.8249,0.779158,16,32765
5.6797,-3.80476,0.774094,15,32765
5.69159,-3.83983,0.780775,16,32765
5.66228,-3.84721,0.780758,16,32765
5.64917,-3.86589,0.78347,16,32765
5.6117,-3.8672,0.783107,16,32765
5.61502,-3.8967,0.788448,16,32765
5.54497,-3.87503,0.783315,15,32765
5.39395,-3.79558,0.767087,16,32765
5.38116,-3.81308,0.770169,16,32765
5.36843,-3.83028,0.773646,15,32765
5.35567,-3.84745,0.776886,15,32765
5.40734,-3.91082,0.790259,18,32765
5.48274,-3.99218,0.806805,17,32765
5.50106,-4.03368,0.815259,17,32765
5.45511,-4.02807,0.815672,17,32765
7.20549,-2.27475,0.717315,13,32765
7.17925,-2.2922,0.713531,12,32765
7.20966,-2.32839,0.715247,12,32765
7.20226,-2.35164,0.713697,12,32765
7.20425,-2.37765,0.714139,13,32765
7.14956,-2.38498,0.707542,12,32765
7.20795,-2.43028,0.713301,12,32765
7.09641,-2.41845,0.702169,12,32765
7.05088,-2.42841,0.698549,12,32765
7.13706,-2.48404,0.707097,12,32765
6.98804,-2.4576,0.693621,12,32765
6.98005,-2.48042,0.692831,12,32765
7.01866,-2.52033,0.697424,12,32765
6.99158,-2.53677,0.695347,12,32765
6.98304,-2.56017,0.695383,13,32765
6.97445,-2.58335,0.695923,12,32765
7.02188,-2.62723,0.701208,12,32765
6.92937,-2.61858,0.693211,12,32765
6.92083,-2.64094,0.693677,12,32765
6.91226,-2.66328,0.693631,13,32765
6.86638,-2.67132,0.690498,12,32765
6.82061,-2.67894,0.687194,12,32765
6.81176,-2.7012,0.687801,13,32765
6.83987,-2.73827,0.691362,13,32765
6.77526,-2.73857,0.686779,13,32765
6.78444,-2.76861,0.689779,12,32765
6.72915,-2.77194,0.686241,12,32765
6.72894,-2.79828,0.688082,13,32765
6.75629,-2.83591,0.692693,13,32765
6.70082,-2.83895,0.689536,13,32765
6.69134,-2.86119,0.689648,13,32765
6.68174,-2.8832,0.691084,13,32765
6.69942,-2.91742,0.694297,13,32765
6.68966,-2.93939,0.695713,13,32765
6.6343,-2.94123,0.692321,13,32765
6.64253,-2.97135,0.695664,13,32765
6.61441,-2.98501,0.695224,13,32765
6.56806,-2.99049,0.692903,13,32765
6.57614,-3.02059,0.695196,13,32765
6.54779,-3.03397,0.695674,13,32765
6.51967,-3.04695,0.694896,13,32765
6.50953,-3.0682,0.696476,13,32765
6.46318,-3.07277,0.693841,13,32765
6.48866,-3.11133,0.699876,13,32765
6.47816,-3.13291,0.700881,13,32765
6.43157,-3.13718,0.699384,13,32765
6.19766,-3.04876,0.676553,14,32765
5.86619,-2.91039,0.643299,20,32765
5.93634,-2.97022,0.653078,20,32765
5.87284,-2.9632,0.64911,20,32765
5.76512,-2.93327,0.639771,21,32765
5.81712,-2.98411,0.648879,21,32765
5.70088,-2.94876,0.638217,20,32765
5.77027,-3.00904,0.649031,23,32765
5.73381,-3.01407,0.647224,21,32765
5.72359,-3.03313,0.648611,21,32765
5.75722,-3.0754,0.655707,24,32765
5.72922,-3.08518,0.655185,21,32765
5.62262,-3.05182,0.64607,20,32765
5.66475,-3.09907,0.65305,18,32765
5.663,-3.12264,0.655423,21,32765
5.66126,-3.1459,0.658396,22,32765
5.58116,-3.12575,0.652056,20,32765
5.666,-3.19784,0.66472,19,32765
5.62057,-3.19695,0.66234,20,32765
5.54938,-3.18088,0.656738,21,32765
5.52144,-3.18925,0.656083,19,32765
5.56222,-3.23773,0.663073,19,32765
5.54277,-3.25098,0.663701,20,32765
5.53176,-3.26932,0.665444,16,32765
0,-0,0,0,32765
5.94458,-3.56691,0.721115,12,32765
5.97502,-3.61247,0.727749,12,32765
5.97991,-3.6424,0.731538,12,32765
5.96785,-3.66173,0.733557,13,32765
5.91347,-3.65493,0.729729,12,32765
5.9437,-3.70018,0.736677,13,32765
5.90616,-3.70369,0.734852,13,32765
5.86033,-3.70162,0.731727,13,32765
5.83124,-3.70999,0.731495,13,32765
5.80221,-3.71828,0.73056,13,32765
5.80677,-3.74764,0.734256,13,32765
5.77773,-3.7557,0.733131,13,32765
5.79854,-3.79636,0.738516,13,32765
5.80247,-3.82632,0.742057,13,32765
5.75652,-3.82344,0.739118,13,32765
5.76044,-3.85323,0.742215,13,32765
5.71478,-3.84962,0.739335,14,32765
5.70203,-3.86815,0.741033,14,32765
5.68944,-3.88652,0.741681,14,32765
5.69307,-3.91614,0.745171,13,32765
5.63145,-3.90024,0.739631,14,32765
5.54549,-3.86701,0.730599,13,32765
5.44378,-3.82155,0.71912,14,32765
5.44778,-3.85011,0.722791,14,32765
5.4189,-3.85643,0.72083,13,32765
5.40626,-3.87397,0.721671,14,32765
5.49048,-3.96115,0.734873,15,32765
5.52652,-4.01305,0.741587,15,32765
5.49807,-4.01833,0.739411,14,32765
5.50928,-4.05352,0.742397,15,32765
7.27735,-2.30015,0.652009,14,32765
7.21301,-2.30574,0.645001,14,32765
7.20545,-2.32984,0.642949,14,32765
7.19801,-2.35313,0.641402,14,32765
7.19999,-2.37917,0.641752,14,32765
7.16412,-2.39282,0.637309,14,32765
7.13754,-2.40958,0.634854,14,32765
7.12971,-2.43289,0.633989,14,32765
7.10294,-2.44947,0.632425,14,32765
7.05736,-2.45947,0.628302,14,32765
7.09628,-2.49891,0.632999,14,32765
7.0412,-2.50543,0.628012,14,32765
7.0141,-2.52202,0.626276,14,32765
7.02444,-2.55208,0.627737,14,32765
6.96906,-2.55847,0.62359,14,32765
6.96981,-2.58511,0.62497,14,32765
6.97993,-2.61509,0.626344,14,32765
6.9433,-2.62743,0.624219,14,32765
6.86026,-2.62142,0.61798,14,32765
6.89822,-2.66155,0.622129,14,32765
6.88017,-2.68042,0.62189,14,32765
6.83432,-2.68809,0.618965,14,32765
6.86248,-2.72515,0.622938,14,32765
6.79803,-2.72538,0.61772,14,32765
6.7796,-2.74423,0.617906,15,32765
6.76109,-2.76304,0.618192,15,32765
6.74264,-2.7815,0.6185,14,32765
6.74238,-2.80793,0.620252,14,32765
6.68704,-2.81093,0.616866,14,32765
6.71418,-2.84877,0.62181,14,32765
6.68634,-2.86325,0.620226,14,32765
6.64014,-2.86948,0.618257,14,32765
6.64873,-2.89965,0.620336,15,32765
6.62079,-2.91346,0.620037,14,32765
6.62923,-2.94338,0.623093,14,32765
6.62837,-2.96947,0.625393,15,32765
6.58208,-2.97491,0.62342,15,32765
6.56292,-2.99269,0.624056,14,32765
6.58005,-3.027,0.627027,15,32765
6.51552,-3.02364,0.624233,15,32765
6.53254,-3.05765,0.627977,15,32765
6.45929,-3.04922,0.623475,15,32765
6.47594,-3.08361,0.627308,14,32765
6.44753,-3.09641,0.62773,14,32765
6.43706,-3.1179,0.628732,14,32765
6.42631,-3.13953,0.631113,14,32765
6.33523,-3.12134,0.624726,15,32765
5.87844,-2.92107,0.582517,23,32765
5.85064,-2.93198,0.581718,26,32765
5.80501,-2.93364,0.580064,25,32765
5.8482,-2.9803,0.586881,24,32765
5.74948,-2.95414,0.58017,24,32765
5.79245,-3.00095,0.586746,25,32765
5.76461,-3.01095,0.586864,25,32765
5.81624,-3.06236,0.594345,25,32765
5.72668,-3.03972,0.587632,25,32765
5.71641,-3.05859,0.589734,26,32765
5.69722,-3.07298,0.5903,25,32765
5.6431,-3.06798,0.587675,25,32765
5.6328,-3.08669,0.588624,24,32765
5.60493,-3.09575,0.588154,25,32765
5.6468,-3.1431,0.595605,24,32765
5.61009,-3.14721,0.594616,24,32765
5.62555,-3.18035,0.598879,25,32765
5.60612,-3.1941,0.59964,24,32765
5.56943,-3.19778,0.598404,24,32765
5.58452,-3.23117,0.602594,25,32765
5.53916,-3.22981,0.599724,23,32765
5.51113,-3.23796,0.599508,23,32765
5.5173,-3.26638,0.603117,23,32765
5.54041,-3.30514,0.608531,13,32765
5.75968,-3.46195,0.635195,13,32765
5.94376,-3.59983,0.658296,15,32765
5.93171,-3.61935,0.660003,15,32765
5.91972,-3.63856,0.662009,15,32765
5.89077,-3.6473,0.661493,14,32765
5.87881,-3.66625,0.663206,14,32765
5.90037,-3.70661,0.668334,15,32765
5.87132,-3.71517,0.667499,15,32765
5.85896,-3.73429,0.669379,15,32765
5.84658,-3.75344,0.670563,15,32765
5.80087,-3.75058,0.66831,15,32765
5.78848,-3.7695,0.669304,15,32765
5.74267,-3.76662,0.666593,15,32765
5.7633,-3.80743,0.671874,15,32765
5.70082,-3.79338,0.667364,15,32765
5.68829,-3.81197,0.668326,15,32765
5.67574,-3.83039,0.669701,15,32765
5.65481,-3.84325,0.670416,15,32765
5.67514,-3.88398,0.67497,16,32765
5.69516,-3.92492,0.680232,16,32765
5.63347,-3.90898,0.675257,16,32765
5.50665,-3.84718,0.662165,15,32765
5.40495,-3.8015,0.651715,15,32765
5.42525,-3.84151,0.657161,16,32765
5.39637,-3.84776,0.655391,15,32765
5.38374,-3.86526,0.656233,15,32765
5.45187,-3.9409,0.666345,17,32765
5.52014,-4.01622,0.676447,17,32765
5.50772,-4.03325,0.676433,16,32765
5.49482,-4.05084,0.676187,17,32765
7.25371,-2.26924,0.546477,13,32765
7.29363,-2.30777,0.553206,13,32765
7.23836,-2.31616,0.553105,12,32765
7.18313,-2.32432,0.552408,12,32765
7.21312,-2.36032,0.558503,12,32765
7.1294,-2.35893,0.555004,12,32765
7.15937,-2.39448,0.561032,13,32765
7.15148,-2.41729,0.563816,12,32765
7.10577,-2.42755,0.562154,13,32765
7.09753,-2.45094,0.564704,12,32765
7.08906,-2.47459,0.567979,12,32765
7.0432,-2.48456,0.565974,12,32765
7.07234,-2.52115,0.571593,13,32765
7.02634,-2.53074,0.570924,13,32765
7.01787,-2.55378,0.57254,12,32765
7.00927,-2.57669,0.575256,12,32765
6.95398,-2.58223,0.57255,12,32765
6.94513,-2.60545,0.574816,12,32765
6.93619,-2.62878,0.576485,13,32765
6.88989,-2.63776,0.575856,13,32765
6.84367,-2.64647,0.574415,13,32765
6.90918,-2.6976,0.582878,12,32765
6.82604,-2.69089,0.577801,12,32765
6.85417,-2.72774,0.58292,13,32765
6.78961,-2.72779,0.579552,12,32765
6.78035,-2.75038,0.581278,12,32765
6.8263,-2.79564,0.588198,13,32765
6.7799,-2.80328,0.586659,13,32765
6.75199,-2.81819,0.586564,13,32765
6.7424,-2.84061,0.588687,13,32765
6.71447,-2.85528,0.587965,13,32765
6.72321,-2.88519,0.591438,13,32765
6.69514,-2.89965,0.591226,13,32765
6.65794,-2.90979,0.590786,13,32765
6.62993,-2.92372,0.59056,13,32765
6.58349,-2.92976,0.589118,13,32765
6.59164,-2.96,0.592617,13,32765
6.58139,-2.98248,0.593821,13,32765
6.58936,-3.01284,0.596684,13,32765
6.54297,-3.01798,0.595133,13,32765
6.53269,-3.03977,0.597251,13,32765
6.4866,-3.04407,0.594734,13,32765
6.54842,-3.09972,0.60241,13,32765
6.50208,-3.10412,0.60031,13,32765
6.52751,-3.14295,0.605321,13,32765
6.40024,-3.10824,0.596128,13,32765
6.31814,-3.09437,0.591279,13,32765
5.86985,-2.89923,0.551561,19,32765
5.82425,-2.90111,0.550137,22,32765
5.78765,-2.90723,0.548799,20,32765
5.87547,-2.97614,0.55997,21,32765
5.86524,-2.99585,0.562076,20,32765
5.77542,-2.97433,0.555213,21,32765
5.76555,-2.99319,0.556487,20,32765
5.826,-3.04933,0.565044,19,32765
5.69227,-3.00364,0.554769,18,32765
5.68205,-3.02268,0.556218,20,32765
5.68932,-3.05118,0.558908,20,32765
5.68782,-3.0746,0.561805,22,32765
5.75631,-3.13603,0.571502,21,32765
5.68478,-3.12124,0.566781,23,32765
5.63088,-3.11562,0.563701,21,32765
5.63775,-3.14395,0.567156,20,32765
5.60982,-3.15278,0.566999,22,32765
5.62514,-3.18607,0.571676,22,32765
5.57115,-3.18002,0.568699,22,32765
5.60353,-3.22323,0.575578,22,32765
5.61845,-3.25679,0.580232,20,32765
5.54739,-3.23994,0.575957,19,32765
5.48503,-3.22794,0.57185,20,32765
5.6027,-3.32211,0.587286,13,32765
5.80549,-3.46788,0.611742,12,32765
5.96447,-3.58973,0.631711,14,32765
5.95252,-3.60904,0.63438,13,32765
5.95746,-3.63887,0.638306,13,32765
5.92826,-3.64805,0.638477,13,32765
5.94146,-3.68304,0.643955,13,32765
5.92068,-3.69717,0.645487,13,32765
5.93368,-3.73223,0.65077,12,32765
5.86227,-3.71432,0.646862,13,32765
5.86653,-3.74427,0.651407,13,32765
5.83731,-3.75254,0.652069,13,32765
5.79123,-3.74999,0.651224,13,32765
5.82881,-3.8014,0.659138,13,32765
5.76617,-3.78756,0.656203,13,32765
5.7536,-3.80612,0.659143,13,32765
5.77411,-3.84666,0.66611,13,32765
5.72813,-3.84324,0.665508,14,32765
5.73174,-3.8731,0.669904,13,32765
5.7022,-3.8806,0.671358,13,32765
5.72191,-3.92173,0.678705,13,32765
5.64328,-3.89499,0.674221,13,32765
5.58944,-3.88487,0.671986,13,32765
5.43781,-3.80586,0.65921,14,32765
5.44149,-3.83475,0.664049,13,32765
5.42861,-3.85232,0.667788,13,32765
5.44008,-3.88694,0.675036,13,32765
5.45128,-3.92198,0.68128,14,32765
5.51883,-3.99765,0.695564,14,32765
5.49751,-4.00936,0.698637,14,32765
5.45992,-4.00933,0.700418,14,32765
7.27639,-2.27972,0.476074,14,32765
7.24972,-2.29729,0.477954,13,32765
7.2515,-2.32383,0.482095,13,32765
7.23421,-2.34435,0.484418,13,32765
7.20727,-2.36195,0.486323,14,32765
7.14246,-2.36681,0.484862,13,32765
7.19137,-2.40881,0.491817,14,32765
7.12673,-2.41257,0.49071,14,32765
7.16598,-2.45183,0.495295,14,32765
7.14824,-2.47221,0.497212,14,32765
7.11146,-2.48619,0.498533,14,32765
7.03731,-2.48629,0.494924,14,32765
7.02889,-2.50951,0.497507,14,32765
6.9923,-2.52237,0.49787,14,32765
6.98386,-2.54534,0.499481,14,32765
6.99402,-2.57507,0.503535,14,32765
6.96677,-2.59101,0.503325,13,32765
6.92053,-2.60028,0.502883,14,32765
6.91161,-2.62358,0.504549,14,32765
6.90258,-2.64678,0.507027,14,32765
6.88422,-2.66636,0.508027,15,32765
6.8475,-2.67775,0.50817,14,32765
6.83862,-2.70013,0.509366,14,32765
6.82967,-2.72232,0.51134,14,32765
6.80212,-2.7372,0.511316,14,32765
6.77433,-2.75236,0.511652,14,32765
6.76494,-2.77498,0.513804,14,32765
6.77388,-2.80533,0.516848,14,32765
6.74595,-2.82025,0.516942,15,32765
6.70879,-2.83106,0.516942,14,32765
6.7084,-2.85737,0.518535,15,32765
6.68965,-2.8755,0.519685,14,32765
6.6616,-2.88989,0.519657,14,32765
6.66098,-2.91593,0.522358,15,32765
6.66943,-2.94602,0.525197,15,32765
6.62289,-2.95221,0.524145,15,32765
6.60368,-2.97036,0.5253,14,32765
6.61155,-3.00117,0.52796,14,32765
6.56505,-3.00679,0.526282,15,32765
6.56394,-3.03277,0.528751,15,32765
6.54456,-3.05046,0.530147,14,32765
6.50744,-3.05905,0.528743,15,32765
6.52417,-3.09352,0.532001,14,32765
6.47782,-3.09784,0.530276,14,32765
6.45837,-3.11502,0.531214,15,32765
6.43876,-3.13235,0.53212,14,32765
6.3655,-3.12297,0.52878,15,32765
5.89011,-2.9143,0.491434,21,32765
5.89798,-2.94296,0.494887,23,32765
5.86122,-2.94934,0.493849,26,32765
5.80666,-2.94646,0.491962,25,32765
5.83204,-2.98414,0.497073,25,32765
5.80425,-2.99446,0.496358,25,32765
5.76776,-2.99966,0.495362,24,32765
5.76641,-3.02351,0.497836,26,32765
5.72086,-3.02412,0.49651,25,32765
5.78095,-3.08081,0.504109,22,32765
5.72653,-3.07668,0.50125,24,32765
5.71619,-3.09552,0.503298,24,32765
5.67962,-3.09986,0.502866,23,32765
5.69554,-3.13284,0.506556,27,32765
5.70261,-3.16107,0.509403,25,32765
5.63971,-3.15081,0.506444,25,32765
5.68993,-3.20368,0.513534,25,32765
5.61838,-3.18811,0.510092,23,32765
5.63358,-3.22161,0.5139,23,32765
5.58811,-3.22032,0.513204,24,32765
5.56857,-3.23389,0.51439,24,32765
5.46315,-3.19669,0.50756,25,32765
5.51253,-3.2502,0.514416,21,32765
5.52734,-3.28358,0.51881,16,32765
5.70465,-3.41407,0.53848,12,32765
5.95775,-3.59247,0.565459,15,32765
5.96284,-3.62215,0.569758,15,32765
5.95073,-3.64168,0.571871,15,32765
5.92151,-3.65085,0.572231,15,32765
5.92625,-3.68064,0.576606,15,32765
5.86323,-3.66832,0.574094,15,32765
5.88476,-3.70859,0.579908,15,32765
5.87232,-3.72787,0.582479,15,32765
5.84295,-3.73644,0.583493,15,32765
5.83051,-3.75544,0.586021,15,32765
5.80114,-3.76371,0.587244,15,32765
5.78864,-3.78256,0.589508,15,32765
5.72605,-3.76857,0.587121,15,32765
5.71354,-3.78704,0.590044,15,32765
5.75071,-3.83861,0.598345,15,32765
5.74609,-3.8629,0.602443,16,32765
5.6754,-3.84261,0.598831,15,32765
5.71181,-3.89484,0.607446,15,32765
5.6658,-3.89098,0.607388,15,32765
5.62823,-3.89233,0.608049,15,32765
5.59891,-3.89922,0.608947,15,32765
5.43091,-3.80863,0.595982,16,32765
5.43459,-3.83756,0.600635,15,32765
5.38112,-3.8263,0.59985,15,32765
5.38461,-3.85505,0.605875,15,32765
5.40401,-3.89581,0.612727,16,32765
5.5281,-4.01244,0.632501,17,32765
5.4987,-4.01834,0.634752,16,32765
5.5012,-4.04782,0.641495,17,32765
7.29391,-2.28417,0.507024,12,32765
7.26747,-2.30209,0.503839,12,32765
7.23165,-2.31648,0.499297,12,32765
7.22422,-2.33971,0.498535,12,32765
7.17876,-2.35057,0.495078,12,32765
7.18999,-2.38044,0.495592,12,32765
7.1633,-2.39766,0.493239,12,32765
7.16496,-2.42421,0.492855,13,32765
7.14764,-2.4442,0.492004,12,32765
7.10192,-2.45441,0.489423,13,32765
7.09376,-2.47799,0.488932,13,32765
7.08556,-2.50131,0.489077,13,32765
7.02092,-2.50441,0.485249,12,32765
7.06905,-2.54757,0.489264,12,32765
7.09822,-2.58413,0.492346,13,32765
7.0991,-2.61096,0.492048,13,32765
0,-0,0,0,32765
0,-0,0,0,32765
0,-0,0,0,32765
0,-0,0,0,32765
6.93378,-2.68117,0.486381,13,32765
6.87844,-2.68566,0.484042,12,32765
6.8325,-2.69339,0.481807,12,32765
6.86995,-2.73422,0.485747,13,32765
6.85166,-2.75288,0.486149,13,32765
6.84245,-2.77565,0.486379,13,32765
0,-0,0,0,32765
0,-0,0,0,32765
6.75912,-2.82027,0.485826,13,32765
6.74963,-2.84259,0.487623,12,32765
6.75843,-2.87294,0.489294,12,32765
6.66624,-2.85995,0.484544,13,32765
6.67494,-2.89002,0.486897,13,32765
6.69246,-2.92442,0.491065,13,32765
6.65529,-2.93449,0.489877,13,32765
6.62698,-2.9488,0.490443,13,32765
6.61707,-2.97079,0.491667,13,32765
6.62528,-3.00087,0.494502,12,32765
6.57879,-3.0064,0.493501,13,32765
6.58677,-3.03654,0.496747,13,32765
6.59454,-3.06702,0.499492,13,32765
6.58426,-3.08871,0.501524,13,32765
6.53765,-3.09361,0.501163,13,32765
6.50926,-3.10674,0.500569,13,32765
6.49881,-3.12826,0.502396,13,32765
6.48815,-3.15001,0.504233,13,32765
6.44186,-3.15377,0.502272,13,32765
5.9303,-2.92788,0.464763,20,32765
5.88466,-2.92974,0.464207,21,32765
5.83909,-2.93135,0.463351,22,32765
5.98027,-3.02777,0.476816,19,32765
5.79211,-2.95738,0.464541,20,32765
5.87064,-3.02257,0.473366,22,32765
5.75391,-2.98729,0.467523,20,32765
5.77036,-3.02022,0.471275,25,32765
5.7425,-3.03016,0.471134,21,32765
5.73227,-3.0491,0.47347,22,32765
5.73967,-3.07731,0.476727,19,32765
5.70301,-3.08199,0.476456,20,32765
5.6314,-3.06743,0.472386,18,32765
5.67341,-3.11499,0.478917,21,32765
5.67159,-3.13867,0.481477,20,32765
5.63497,-3.1427,0.48116,22,32765
5.50261,-3.093,0.472833,20,32765
5.65706,-3.20453,0.488922,20,32765
5.53366,-3.15907,0.480648,17,32765
5.68716,-3.27206,0.496153,20,32765
5.56385,-3.22607,0.488394,19,32765
5.53562,-3.23469,0.488416,19,32765
5.60211,-3.29843,0.497062,17,32765
5.59963,-3.32197,0.499555,11,32765
5.87107,-3.50906,0.52594,12,32765
5.97053,-3.59488,0.538238,13,32765
5.97562,-3.62472,0.541694,12,32765
5.94664,-3.63372,0.541963,12,32765
5.97697,-3.67948,0.546614,12,32765
5.92229,-3.67289,0.544449,13,32765
5.91001,-3.69235,0.546259,13,32765
5.89754,-3.71195,0.548182,13,32765
5.86846,-3.72045,0.547939,13,32765
5.87295,-3.7503,0.551155,13,32765
5.84378,-3.75863,0.551158,13,32765
5.84816,-3.78834,0.554558,13,32765
5.80243,-3.78532,0.552915,13,32765
5.80672,-3.81496,0.555909,13,32765
5.76078,-3.81195,0.554455,13,32765
5.74816,-3.83084,0.555166,13,32765
5.73545,-3.84961,0.556766,14,32765
5.75584,-3.89057,0.560899,13,32765
5.72667,-3.8978,0.561165,13,32765
5.71402,-3.91617,0.562262,13,32765
5.70132,-3.93446,0.563484,13,32765
5.56579,-3.86746,0.55201,13,32765
5.44701,-3.81102,0.543249,13,32765
5.47547,-3.85709,0.548204,13,32765
5.46307,-3.87457,0.548644,13,32765
5.42624,-3.87459,0.547331,13,32765
5.54339,-3.98483,0.560742,14,32765
5.55484,-4.01997,0.563881,14,32765
5.54184,-4.03788,0.563914,14,32765
5.54493,-4.06737,0.565938,14,32765
7.33523,-2.3007,0.437252,11,32765
7.24208,-2.29766,0.43029,11,32765
7.23474,-2.32115,0.427727,11,32765
7.15129,-2.3198,0.422479,11,32765
7.14381,-2.34288,0.421648,11,32765
7.21191,-2.39156,0.425335,11,32765
7.18514,-2.40889,0.423169,11,32765
7.24349,-2.45479,0.426028,11,32765
7.15047,-2.4492,0.420823,11,32765
7.16132,-2.47903,0.421958,11,32765
7.20018,-2.51934,0.424242,11,32765
7.08827,-2.50645,0.418282,11,32765
7.04239,-2.51629,0.416131,12,32765
7.10926,-2.56638,0.420698,12,32765
7.00705,-2.55526,0.41562,12,32765
7.05484,-2.5991,0.418018,12,32765
0,-0,0,13,32765
0,-0,0,17,32765
0,-0,0,17,32765
0,-0,0,15,32765
6.92686,-2.68316,0.415807,12,32765
6.84359,-2.67673,0.412259,13,32765
6.84409,-2.7027,0.413204,13,32765
6.83514,-2.72516,0.413872,13,32765
6.82614,-2.74747,0.414928,14,32765
6.85392,-2.78524,0.417413,14,32765
2.21689,-0.90938,0.135752,14,32765
6.75219,-2.79605,0.415275,13,32765
6.74281,-2.81852,0.415737,14,32765
6.71493,-2.83307,0.416392,14,32765
6.73294,-2.86728,0.418447,15,32765
6.69577,-2.87783,0.417978,14,32765
6.68609,-2.90012,0.419003,14,32765
6.67615,-2.92261,0.421166,14,32765
6.66636,-2.94476,0.421996,15,32765
6.64713,-2.9632,0.423337,15,32765
6.60984,-2.97301,0.422821,15,32765
6.62714,-3.00726,0.426054,15,32765
6.626,-3.03359,0.428367,14,32765
6.56139,-3.03046,0.426728,15,32765
6.56013,-3.0567,0.428692,15,32765
6.54988,-3.07833,0.430718,15,32765
6.49428,-3.07884,0.430126,15,32765
6.46592,-3.09186,0.429719,14,32765
6.52744,-3.14797,0.436345,14,32765
6.47183,-3.14804,0.435177,15,32765
6.4076,-3.14296,0.432384,14,32765
5.91385,-2.92531,0.401339,24,32765
5.90394,-2.94495,0.403598,25,32765
5.86723,-2.95111,0.403741,24,32765
5.83924,-2.96205,0.403923,24,32765
5.79343,-2.96375,0.40338,25,32765
5.80099,-2.99249,0.406301,27,32765
5.78175,-3.00756,0.408435,25,32765
5.73627,-3.0082,0.407522,24,32765
5.75254,-3.04138,0.410714,24,32765
5.75109,-3.06509,0.413692,23,32765
5.70568,-3.06508,0.412954,25,32765
5.71294,-3.09342,0.416153,25,32765
5.69382,-3.10754,0.416591,24,32765
5.70948,-3.14099,0.420654,26,32765
5.70757,-3.16484,0.423137,22,32765
5.6273,-3.14466,0.419867,26,32765
5.65141,-3.18296,0.424613,25,32765
5.6407,-3.20165,0.426508,25,32765
5.65586,-3.23531,0.429988,25,32765
5.60166,-3.22935,0.427895,24,32765
5.56475,-3.23309,0.427962,24,32765
5.61398,-3.28712,0.434169,26,32765
5.52562,-3.26,0.429966,22,32765
5.57472,-3.31393,0.436374,15,32765
5.89757,-3.53211,0.463706,14,32765
5.97988,-3.60789,0.473448,15,32765
5.98492,-3.63783,0.476725,14,32765
5.93887,-3.63646,0.475826,14,32765
5.92673,-3.65611,0.476599,14,32765
5.91448,-3.67567,0.478319,15,32765
5.88527,-3.68455,0.478757,15,32765
5.87282,-3.70412,0.480676,15,32765
5.84376,-3.71256,0.48062,15,32765
5.84826,-3.7424,0.483648,15,32765
5.81911,-3.75067,0.483836,15,32765
5.84024,-3.79123,0.488446,15,32765
5.79448,-3.78817,0.487181,15,32765
5.78209,-3.80688,0.488584,15,32765
5.76941,-3.82584,0.490327,15,32765
5.72356,-3.82264,0.488215,15,32765
5.71086,-3.84138,0.489814,15,32765
5.68171,-3.84879,0.489307,15,32765
5.71859,-3.90075,0.495452,15,32765
5.67302,-3.89656,0.493692,15,32765
5.66857,-3.92043,0.495627,16,32765
5.54125,-3.85888,0.486276,15,32765
5.43066,-3.80796,0.479449,15,32765
5.45911,-3.85408,0.483939,15,32765
5.40605,-3.84266,0.480768,15,32765
5.41797,-3.87733,0.484078,15,32765
5.5189,-3.97613,0.494548,16,32765
5.53843,-4.01713,0.498135,16,32765
5.5254,-4.03502,0.498174,16,32765
5.5124,-4.05271,0.498562,16,32765
0,-0,0,0,32765
0,-0,0,0,32765
0,-0,0,0,32765
0,-0,0,0,32765
0,-0,0,0,32765
0,-0,0,0,32765
0,-0,0,0,32765
0,-0,0,0,32765
0,-0,0,0,32765
0,-0,0,0,32765
0,-0,0,0,32765
0,-0,0,0,32765
0,-0,0,0,32765
0,-0,0,0,32765
0,-0,0,0,32765
0,-0,0,0,32765
0,-0,0,0,32765
0,-0,0,0,32765
0,-0,0,16,32765
0,-0,0,15,32765
0,-0,0,12,32765
0,-0,0,0,32765
6.91814,-2.71138,0.375953,12,32765
6.83479,-2.7047,0.373942,12,32765
6.8257,-2.72728,0.375993,13,32765
0,-0,0,0,32765
2.34914,-0.957072,0.130903,13,32765
2.27199,-0.934559,0.127454,12,32765
0,-0,0,0,32765
6.7047,-2.81073,0.380997,14,32765
0,-0,0,0,32765
0,-0,0,0,32765
0,-0,0,0,32765
6.69341,-2.91249,0.389456,13,32765
6.71096,-2.9468,0.393582,13,32765
6.63702,-2.94106,0.391238,13,32765
0,-0,0,0,32765
0,-0,0,0,32765
0,-0,0,0,32765
0,-0,0,0,32765
6.47785,-3.00093,0.392873,15,32765
0,-0,0,0,32765
6.52963,-3.07839,0.40051,13,32765
6.51919,-3.10015,0.40259,13,32765
6.5087,-3.12193,0.404065,13,32765
6.44408,-3.11775,0.402952,13,32765
6.43352,-3.13931,0.404368,13,32765
5.9123,-2.90946,0.373872,19,32765
5.90235,-2.92938,0.375601,20,32765
5.87467,-2.93991,0.376182,20,32765
5.85578,-2.95503,0.377474,19,32765
5.84595,-2.97427,0.378764,19,32765
5.83587,-2.9938,0.380327,19,32765
5.808,-3.00416,0.38038,19,32765
5.73575,-2.99142,0.378158,20,32765
5.7697,-3.03402,0.382315,19,32765
5.75948,-3.05315,0.384175,19,32765
5.73164,-3.06276,0.38458,19,32765
5.7655,-3.10504,0.388971,19,32765
5.67614,-3.08111,0.386156,19,32765
5.70067,-3.11937,0.38989,19,32765
5.67262,-3.12873,0.39052,19,32765
5.64461,-3.13794,0.390644,19,32765
5.66894,-3.17601,0.395178,19,32765
5.64097,-3.18471,0.396492,19,32765
5.63898,-3.20831,0.398262,20,32765
5.63694,-3.23172,0.401219,18,32765
5.59156,-3.23029,0.400743,18,32765
5.59799,-3.25872,0.404222,19,32765
5.58719,-3.27693,0.406275,18,32765
5.69638,-3.3666,0.417312,14,32765
5.99376,-3.56917,0.442722,12,32765
5.98179,-3.58887,0.44528,13,32765
5.98675,-3.61911,0.448268,13,32765
5.95776,-3.62803,0.450144,13,32765
5.94559,-3.64772,0.451872,13,32765
5.93341,-3.6671,0.455192,13,32765
5.93822,-3.69693,0.45867,13,32765
5.90896,-3.70573,0.460267,13,32765
5.87975,-3.71434,0.461678,13,32765
5.90944,-3.76033,0.467784,13,32765
5.87178,-3.76331,0.468746,13,32765
5.84261,-3.77145,0.470004,13,32765
5.86356,-3.81218,0.475419,13,32765
5.80092,-3.79822,0.474772,13,32765
5.82132,-3.83948,0.480289,13,32765
5.79176,-3.8477,0.48131,13,32765
5.74566,-3.84436,0.482858,13,32765
5.76606,-3.88524,0.488286,13,32765
5.72019,-3.88136,0.489191,13,32765
5.74022,-3.92243,0.49533,13,32765
5.71063,-3.92984,0.497512,13,32765
5.5745,-3.86326,0.490013,13,32765
5.48809,-3.82984,0.487156,13,32765
5.44299,-3.82427,0.487624,13,32765
5.48749,-3.88182,0.496534,13,32765
5.43402,-3.87063,0.495764,13,32765
5.55067,-3.98117,0.512723,14,32765
5.54547,-4.00493,0.517589,14,32765
5.54012,-4.02865,0.52339,14,32765
5.54275,-4.05831,0.529339,14,32765
7.2237,-2.24894,0.255609,12,32765
7.2163,-2.2721,0.259664,11,32765
7.22789,-2.30135,0.263536,12,32765
7.26782,-2.34007,0.269065,11,32765
7.15546,-2.32991,0.26806,11,32765
7.0906,-2.33495,0.268884,11,32765
7.21552,-2.40253,0.275964,11,32765
7.18872,-2.41926,0.278423,11,32765
7.18073,-2.44262,0.28088,11,32765
0,-0,0,0,32765
0,-0,0,0,32765
0,-0,0,0,32765
0,-0,0,0,32765
0,-0,0,0,32765
0,-0,0,0,32765
0,-0,0,0,32765
0,-0,0,0,32765
0,-0,0,0,32765
0,-0,0,11,32765
0,-0,0,0,32765
0,-0,0,0,32765
0,-0,0,0,32765
0,-0,0,0,32765
0,-0,0,0,32765
0,-0,0,0,32765
0,-0,0,0,32765
2.32178,-0.947771,0.105766,13,32765
2.27236,-0.936539,0.104335,13,32765
2.20457,-0.917346,0.102114,14,32765
2.21989,-0.932448,0.103481,15,32765
2.2259,-0.943846,0.104505,15,32765
2.25943,-0.967034,0.106886,14,32765
2.29282,-0.990481,0.10915,12,32765
6.66688,-2.90672,0.319466,11,32765
6.60216,-2.9048,0.319324,12,32765
6.70183,-2.97571,0.326059,12,32765
0,-0,0,0,32765
2.25753,-1.02058,0.111274,19,32765
2.19956,-1.00321,0.109148,16,32765
2.21436,-1.0188,0.11075,15,32765
2.229,-1.0347,0.112071,13,32765
2.28884,-1.07179,0.115757,12,32765
6.53936,-3.08925,0.333089,15,32765
6.52889,-3.11109,0.335177,14,32765
6.46433,-3.10699,0.333868,14,32765
6.45369,-3.1288,0.336117,14,32765
6.4341,-3.14605,0.337069,15,32765
6.29804,-3.10567,0.33225,15,32765
6.28741,-3.12694,0.334096,14,32765
6.29479,-3.15668,0.336894,14,32765
6.25733,-3.16422,0.337456,14,32765
6.00654,-3.06233,0.325807,18,32765
6.00503,-3.08702,0.327902,19,32765
5.87929,-3.0474,0.322827,19,32765
5.86884,-3.06727,0.324717,26,32765
6.0174,-3.17094,0.33483,15,32765
5.90087,-3.13471,0.330841,19,32765
5.89917,-3.15895,0.332968,18,32765
5.8536,-3.15919,0.332444,16,32765
5.76405,-3.1355,0.330517,25,32765
5.86721,-3.21735,0.338448,16,32765
6.13601,-3.39155,0.356595,15,32765
5.76685,-3.21277,0.337129,21,32765
5.96509,-3.34912,0.351605,15,32765
5.64971,-3.19652,0.336176,19,32765
5.62165,-3.20537,0.336302,23,32765
5.95731,-3.4228,0.359544,14,32765
5.74709,-3.32735,0.349574,14,32765
5.60655,-3.27082,0.343937,19,32765
5.63015,-3.30935,0.348128,15,32765
5.79078,-3.42988,0.36109,14,32765
6.01934,-3.59227,0.378858,15,32765
5.99018,-3.60182,0.380346,15,32765
5.97801,-3.6218,0.382063,14,32765
5.9831,-3.65152,0.386329,14,32765
5.95384,-3.66088,0.386964,14,32765
5.92464,-3.66982,0.38918,14,32765
5.89556,-3.67855,0.39023,15,32765
5.91708,-3.71911,0.395388,14,32765
5.88783,-3.72777,0.396996,14,32765
5.85855,-3.73632,0.398635,15,32765
5.84618,-3.75533,0.401589,15,32765
5.81704,-3.76341,0.403028,15,32765
5.82128,-3.79324,0.406894,15,32765
5.7921,-3.80103,0.409148,15,32765
5.79583,-3.83135,0.413105,14,32765
5.73306,-3.81737,0.411921,15,32765
5.72025,-3.83608,0.416218,15,32765
5.75721,-3.88814,0.42248,15,32765
5.72786,-3.89546,0.424985,15,32765
5.7149,-3.91409,0.428292,15,32765
5.65249,-3.89877,0.428163,15,32765
5.59846,-3.8888,0.428309,15,32765
5.43019,-3.79818,0.419992,15,32765
5.43417,-3.8269,0.424629,16,32765
5.42982,-3.84993,0.429025,15,32765
5.41707,-3.86751,0.431936,15,32765
5.47702,-3.93748,0.442805,16,32765
5.54473,-4.01372,0.453479,16,32765
5.54744,-4.04337,0.459861,16,32765
5.51786,-4.04951,0.462937,16,32765
0,-0,0,0,32765
0,-0,0,0,32765
0,-0,0,0,32765
0,-0,0,0,32765
0,-0,0,0,32765
0,-0,0,0,32765
0,-0,0,0,32765
0,-0,0,0,32765
0,-0,0,0,32765
0,-0,0,0,32765
0,-0,0,0,32765
0,-0,0,0,32765
0,-0,0,0,32765
0,-0,0,0,32765
0,-0,0,0,32765
0,-0,0,0,32765
0,-0,0,0,32765
0,-0,0,0,32765
0,-0,0,0,32765
0,-0,0,0,32765
0,-0,0,0,32765
0,-0,0,0,32765
0,-0,0,0,32765
0,-0,0,0,32765
0,-0,0,0,32765
0,-0,0,0,32765
0,-0,0,0,32765
0,-0,0,0,32765
0,-0,0,0,32765
0,-0,0,0,32765
0,-0,0,0,32765
0,-0,0,0,32765
0,-0,0,0,32765
0,-0,0,0,32765
2.25989,-0.992093,0.0978007,12,32765
2.25654,-0.999642,0.0982904,12,32765
2.21667,-0.990887,0.0971362,18,32765
2.28618,-1.03116,0.100881,19,32765
2.16444,-0.985065,0.0962556,16,32765
2.13382,-0.979888,0.0956701,15,32765
2.26648,-1.05003,0.102451,13,32765
2.20868,-1.03209,0.100691,12,32765
0,-0,0,132,32765
0,-0,0,0,32765
6.48652,-3.1103,0.301938,15,32765
0,-0,0,0,32765
6.53708,-3.18881,0.310567,14,32765
0,-0,0,0,32765
0,-0,0,0,32765
0,-0,0,0,32765
0,-0,0,0,32765
6.01056,-3.05735,0.297156,16,32765
6.0178,-3.08688,0.300153,15,32765
5.86537,-3.03359,0.294741,17,32765
5.90819,-3.081,0.299465,17,32765
6.2426,-3.28208,0.318691,13,32765
5.89615,-3.12502,0.303473,19,32765
6.14104,-3.2813,0.318786,13,32765
5.81335,-3.13116,0.3048,17,32765
5.8117,-3.1551,0.306507,18,32765
6.09031,-3.33253,0.323896,13,32765
6.06159,-3.34308,0.325334,13,32765
5.77106,-3.20765,0.313054,17,32765
5.92576,-3.31976,0.323351,13,32765
5.67995,-3.20656,0.311566,19,32765
5.75599,-3.27472,0.318906,13,32765
6.00497,-3.44274,0.33585,13,32765
5.65612,-3.26776,0.31876,13,32765
5.61903,-3.27183,0.318863,16,32765
5.74586,-3.37136,0.328493,13,32765
5.99217,-3.54337,0.345459,13,32765
6.05753,-3.60916,0.352037,13,32765
6.02842,-3.61869,0.353409,13,32765
6.01645,-3.63841,0.354816,13,32765
5.94472,-3.62166,0.353283,12,32765
5.96661,-3.66222,0.35749,12,32765
5.99683,-3.70819,0.361828,13,32765
5.94219,-3.70135,0.361297,13,32765
5.89602,-3.69965,0.361214,13,32765
5.88392,-3.71868,0.363098,13,32765
5.88836,-3.74882,0.365647,12,32765
5.87584,-3.76822,0.367572,13,32765
5.86352,-3.78723,0.369067,13,32765
5.85095,-3.80644,0.370835,13,32765
5.82182,-3.81436,0.371497,13,32765
5.82595,-3.84428,0.374052,13,32765
5.83013,-3.87398,0.376745,13,32765
5.78423,-3.87065,0.376354,13,32765
5.80432,-3.91227,0.379605,13,32765
5.7748,-3.92013,0.380045,13,32765
5.74545,-3.9276,0.380445,13,32765
5.69995,-3.92319,0.379482,13,32765
5.49058,-3.80454,0.367525,13,32765
5.49457,-3.83365,0.36996,13,32765
5.482,-3.85151,0.371054,13,32765
5.43666,-3.8464,0.369926,13,32765
5.457,-3.88666,0.372982,14,32765
5.57467,-3.99669,0.382604,14,32765
5.65084,-4.07884,0.389204,14,32765
5.5968,-4.06826,0.387302,14,32765
5.59173,-4.09218,0.387493,14,32765
7.29122,-2.27179,0.216066,11,32765
7.23621,-2.28035,0.212784,11,32765
7.22868,-2.30425,0.211431,11,32765
7.22101,-2.32831,0.209829,11,32765
7.26103,-2.36696,0.211034,11,32765
7.18693,-2.36849,0.207844,12,32765
7.17919,-2.3919,0.207104,11,32765
7.17139,-2.4152,0.20711,11,32765
7.2296,-2.4615,0.208682,12,32765
7.17426,-2.46882,0.207517,11,32765
7.10935,-2.47296,0.206078,12,32765
7.04454,-2.47663,0.204235,12,32765
7.00806,-2.48979,0.204166,12,32765
7.08438,-2.54356,0.206842,12,32765
6.99134,-2.53635,0.204091,11,32765
6.98286,-2.55955,0.20466,11,32765
6.93689,-2.56863,0.204191,12,32765
6.89091,-2.57746,0.203939,12,32765
6.95717,-2.62844,0.206486,12,32765
6.84566,-2.61229,0.204468,11,32765
6.86487,-2.64589,0.205784,12,32765
6.84678,-2.6649,0.206075,11,32765
6.9497,-2.73098,0.210483,11,32765
6.86632,-2.72435,0.208926,11,32765
6.82018,-2.73207,0.208355,11,32765
6.79238,-2.74751,0.208847,11,32765
0,-0,0,0,32765
0,-0,0,0,32765
0,-0,0,0,32765
0,-0,0,0,32765
0,-0,0,0,32765
0,-0,0,0,32765
0,-0,0,0,32765
0,-0,0,0,32765
2.07686,-0.913711,0.0685567,11,32765
0,-0,0,0,32765
0,-0,0,0,32765
0,-0,0,0,32765
2.1007,-0.958141,0.0717299,12,32765
0,-0,0,0,32765
2.11226,-0.980727,0.0736051,11,32765
2.0728,-0.970715,0.0729986,12,32765
2.05149,-0.969022,0.0727481,12,32765
2.13847,-1.01881,0.0766713,12,32765
2.14402,-1.03033,0.0774646,12,32765
2.19447,-1.06372,0.0801453,14,32765
2.18187,-1.06668,0.0808561,15,32765
2.17826,-1.07402,0.0811684,17,32765
2.18359,-1.08572,0.0821742,18,32765
2.20675,-1.1064,0.0839319,18,32765
0,-0,0,0,32765
6.05452,-3.08662,0.235555,13,32765
5.99945,-3.08438,0.235939,15,32765
5.84703,-3.03092,0.232027,17,32765
5.83671,-3.0506,0.234056,21,32765
6.03856,-3.18199,0.244246,15,32765
5.88664,-3.12706,0.240461,19,32765
5.9553,-3.18929,0.245785,16,32765
5.80384,-3.13315,0.242447,18,32765
5.80217,-3.15712,0.244064,26,32765
5.98435,-3.28204,0.254266,15,32765
6.10448,-3.37446,0.262242,15,32765
5.77024,-3.21456,0.251089,21,32765
5.90745,-3.31714,0.258847,14,32765
5.67906,-3.21348,0.250361,23,32765
5.70299,-3.25209,0.254445,18,32765
5.83071,-3.3506,0.263088,15,32765
5.68975,-3.29485,0.259052,19,32765
5.65257,-3.29904,0.259451,15,32765
5.73621,-3.37357,0.265604,16,32765
6.01683,-3.5663,0.28137,14,32765
5.98773,-3.57597,0.282665,14,32765
6.0101,-3.6162,0.286653,14,32765
6.00667,-3.64109,0.288472,14,32765
5.9861,-3.65552,0.290077,14,32765
5.95681,-3.6649,0.291433,14,32765
5.94454,-3.68463,0.293212,14,32765
5.9493,-3.71464,0.29609,15,32765
5.90309,-3.71297,0.29639,14,32765
5.90782,-3.74276,0.299137,14,32765
5.87847,-3.75156,0.299794,15,32765
5.88274,-3.78177,0.302587,15,32765
5.85359,-3.78999,0.303221,15,32765
5.77405,-3.76556,0.301498,15,32765
5.81185,-3.81713,0.305846,15,32765
5.79929,-3.83606,0.307335,14,32765
5.73697,-3.82144,0.306288,15,32765
5.75761,-3.86233,0.309822,15,32765
5.74458,-3.88159,0.310909,15,32765
5.73167,-3.9005,0.312428,14,32765
5.66941,-3.88527,0.3112,15,32765
5.67338,-3.91466,0.313327,15,32765
5.51332,-3.82987,0.30635,15,32765
5.47627,-3.83049,0.30632,15,32765
5.46369,-3.84834,0.307418,15,32765
5.47539,-3.88362,0.309895,15,32765
5.47119,-3.90668,0.311203,16,32765
5.55629,-3.99367,0.317484,15,32765
5.57575,-4.03495,0.319813,16,32765
5.54607,-4.04175,0.31977,16,32765
5.51689,-4.04784,0.318483,15,32765
7.35611,-2.27262,0.113419,11,32765
7.31049,-2.28442,0.11749,11,32765
7.23631,-2.28681,0.120015,11,32765
7.20971,-2.30433,0.122678,11,32765
7.22103,-2.33427,0.126533,11,32765
7.31784,-2.3921,0.130834,11,32765
7.27193,-2.4035,0.1332,11,32765
7.26404,-2.42709,0.136328,11,32765
7.18958,-2.42877,0.138295,11,32765
7.16259,-2.4459,0.140676,11,32765
7.19216,-2.48282,0.143442,11,32765
7.10837,-2.48016,0.144211,11,32765
7.01521,-2.47371,0.145349,11,32765
7.05413,-2.51338,0.149078,11,32765
6.96113,-2.50605,0.149465,11,32765
6.95274,-2.52915,0.150932,11,32765
6.98179,-2.56597,0.154895,11,32765
7.02008,-2.60643,0.158396,11,32765
6.92708,-2.59816,0.158669,11,32765
6.95575,-2.63535,0.161566,11,32765
7.03081,-2.69096,0.165317,11,32765
6.90045,-2.66769,0.164984,11,32765
0,-0,0,0,32765
6.87311,-2.70999,0.168583,11,32765
0,-0,0,0,32765
0,-0,0,0,32765
0,-0,0,0,32765
0,-0,0,0,32765
0,-0,0,0,32765
0,-0,0,0,32765
0,-0,0,0,32765
0,-0,0,0,32765
0,-0,0,0,32765
0,-0,0,0,32765
0,-0,0,0,32765
0,-0,0,0,32765
0,-0,0,0,32765
0,-0,0,0,32765
0,-0,0,0,32765
0,-0,0,0,32765
0,-0,0,0,32765
0,-0,0,0,32765
0,-0,0,0,32765
0,-0,0,0,32765
0,-0,0,0,32765
0,-0,0,0,32765
0,-0,0,0,32765
2.20768,-1.08289,0.0714515,16,32765
2.15921,-1.06812,0.0708713,16,32765
2.15565,-1.07524,0.0715253,17,32765
2.14308,-1.07799,0.0718042,14,32765
6.06156,-3.07494,0.205666,13,32765
5.97095,-3.05457,0.203517,14,32765
5.87177,-3.02875,0.20273,17,32765
5.94134,-3.0899,0.207391,16,32765
0,-0,0,0,32765
5.84985,-3.09195,0.20869,19,32765
0,-0,0,0,32765
5.78487,-3.10742,0.210168,18,32765
5.89736,-3.19338,0.218245,20,32765
0,-0,0,0,32765
5.9547,-3.27585,0.224352,14,32765
5.83015,-3.23249,0.22177,20,32765
5.85428,-3.27121,0.2251,14,32765
5.68657,-3.20231,0.221364,21,32765
5.78028,-3.28004,0.228373,17,32765
5.70851,-3.26456,0.227851,14,32765
5.68034,-3.27336,0.229007,17,32765
5.78181,-3.35725,0.235924,13,32765
5.77919,-3.38143,0.238576,14,32765
6.07763,-3.58346,0.254728,13,32765
6.00521,-3.56834,0.254046,13,32765
6.05324,-3.62418,0.259288,13,32765
5.99828,-3.61837,0.261046,13,32765
6.02919,-3.66363,0.265192,13,32765
6.00011,-3.67273,0.267113,13,32765
5.94542,-3.6661,0.268091,13,32765
5.93336,-3.68536,0.270896,13,32765
5.96348,-3.7313,0.275524,13,32765
5.90891,-3.72403,0.276698,13,32765
5.89651,-3.74341,0.279678,13,32765
5.86711,-3.75213,0.281833,13,32765
5.88828,-3.7929,0.286783,13,32765
5.82524,-3.77978,0.286808,13,32765
5.81271,-3.79875,0.290489,13,32765
5.83335,-3.83987,0.29572,13,32765
5.7707,-3.82572,0.296286,13,32765
5.7914,-3.86651,0.301183,13,32765
5.77864,-3.88524,0.305171,13,32765
5.78232,-3.91524,0.30942,13,32765
5.7528,-3.92286,0.312093,13,32765
5.72308,-3.93061,0.314829,13,32765
5.51294,-3.81273,0.307749,13,32765
5.50039,-3.83051,0.311374,13,32765
5.49605,-3.85385,0.315661,13,32765
5.44242,-3.84299,0.31683,13,32765
5.46218,-3.88386,0.322903,14,32765
5.62809,-4.0293,0.337977,14,32765
5.58259,-4.0238,0.34032,14,32765
5.56947,-4.04154,0.345022,14,32765
5.55599,-4.05961,0.350266,14,32765
7.35536,-2.27751,0.0409495,11,32765
7.26204,-2.27439,0.0451037,11,32765
7.34045,-2.32493,0.0492916,11,32765
7.33279,-2.34893,0.0523257,11,32765
7.20128,-2.33311,0.0549669,11,32765
7.19356,-2.35676,0.057396,11,32765
7.27119,-2.40866,0.0611278,11,32765
7.17795,-2.40372,0.0635046,11,32765
7.18884,-2.43398,0.0668884,11,32765
7.18076,-2.45762,0.0696452,11,32765
7.15359,-2.47507,0.0714773,11,32765
7.1076,-2.48548,0.0733806,11,32765
7.22186,-2.55232,0.0775974,11,32765
7.12868,-2.54568,0.0794717,11,32765
7.08262,-2.55555,0.0812721,11,32765
6.98951,-2.54827,0.08178,11,32765
6.98097,-2.57147,0.0849307,11,32765
6.97238,-2.59458,0.0873782,11,32765
7.0479,-2.64948,0.0906546,11,32765
6.91748,-2.62681,0.0911218,11,32765
6.90854,-2.65017,0.0928917,12,32765
6.85293,-2.65535,0.094773,11,32765
6.80675,-2.66363,0.0963508,11,32765
6.82567,-2.69743,0.0984483,11,32765
6.77953,-2.70517,0.10041,12,32765
6.75187,-2.72035,0.101747,12,32765
6.56675,-2.67127,0.10089,11,32765
6.45606,-2.65131,0.101488,11,32765
6.43784,-2.66916,0.103598,11,32765
6.42881,-2.69075,0.105362,11,32765
6.46566,-2.73206,0.107352,11,32765
6.55755,-2.79699,0.111195,11,32765
0,-0,0,0,32765
0,-0,0,0,32765
0,-0,0,0,32765
0,-0,0,0,32765
0,-0,0,0,32765
0,-0,0,0,32765
0,-0,0,0,32765
0,-0,0,0,32765
0,-0,0,0,32765
0,-0,0,0,32765
0,-0,0,0,32765
0,-0,0,0,32765
0,-0,0,0,32765
0,-0,0,0,32765
0,-0,0,0,32765
0,-0,0,0,32765
2.14974,-1.06597,0.0480583,12,32765
2.08359,-1.04178,0.0472906,11,32765
0,-0,0,0,32765
0,-0,0,0,32765
0,-0,0,0,32765
0,-0,0,0,32765
0,-0,0,0,32765
0,-0,0,0,32765
2.1202,-1.12336,0.0531539,13,32765
2.08992,-1.11638,0.0530214,14,32765
2.11258,-1.13757,0.0542736,16,32765
2.13508,-1.15895,0.0562567,16,32765
2.15751,-1.18044,0.0574245,17,32765
2.17105,-1.19729,0.0585781,17,32765
2.16706,-1.20447,0.0592147,16,32765
2.15432,-1.20675,0.0597144,14,32765
5.74569,-3.24359,0.161893,19,32765
5.622,-3.19811,0.161571,16,32765
5.68061,-3.25666,0.165447,18,32765
5.65246,-3.26539,0.166788,20,32765
5.73663,-3.33932,0.171964,13,32765
5.75131,-3.37352,0.175036,16,32765
6.04968,-3.5759,0.187807,14,32765
6.03741,-3.59647,0.189668,14,32765
6.04247,-3.62682,0.192907,14,32765
6.00463,-3.63132,0.195691,15,32765
5.97573,-3.64029,0.197404,14,32765
5.96377,-3.65971,0.200067,14,32765
5.96865,-3.68974,0.203532,14,32765
5.93955,-3.69856,0.205767,14,32765
5.9188,-3.71276,0.208151,14,32765
