x, y, z, intensity, ring
2.27028,-0.704492,-0.118001,17,32765
2.24895,-0.705957,-0.11592,15,32765
2.18004,-0.692184,-0.111348,19,32765
2.15883,-0.693146,-0.109141,22,32765
2.18518,-0.709252,-0.109379,22,32765
2.17355,-0.71291,-0.107365,22,32765
3.02145,0.0546875,-0.22075,21,32765
2.99178,0.0437869,-0.217616,21,32765
2.97204,0.0330771,-0.21518,21,32765
3.01208,0.0232405,-0.217321,21,32765
2.9723,0.0128956,-0.213736,19,32765
2.95243,0.00286044,-0.211551,20,32765
2.94246,-0.00697542,-0.210685,20,32765
2.93248,-0.016822,-0.209438,20,32765
2.96238,-0.0270579,-0.210854,21,32765
2.96231,-0.0370826,-0.210393,21,32765
2.94222,-0.0467595,-0.208892,21,32765
2.91217,-0.0560087,-0.206249,20,32765
2.92196,-0.0660401,-0.206674,21,32765
2.87189,-0.0745554,-0.202764,21,32765
2.84172,-0.083405,-0.200394,21,32765
2.84143,-0.0932275,-0.200193,19,32765
2.84112,-0.102927,-0.199911,20,32765
2.85072,-0.113083,-0.200524,21,32765
2.84039,-0.122217,-0.199417,21,32765
2.82004,-0.130886,-0.197896,22,32765
2.79967,-0.139406,-0.196212,21,32765
2.80917,-0.149364,-0.196627,22,32765
2.80866,-0.158801,-0.19649,22,32765
2.8081,-0.168175,-0.196632,22,32765
2.76771,-0.175159,-0.193609,22,32765
2.77707,-0.18518,-0.194096,22,32765
2.76649,-0.193931,-0.193201,22,32765
2.76583,-0.203263,-0.193103,22,32765
2.7552,-0.2118,-0.192179,22,32765
2.70474,-0.217172,-0.188721,21,32765
2.71395,-0.227243,-0.189071,21,32765
2.73303,-0.23822,-0.190533,22,32765
2.70241,-0.244777,-0.188342,21,32765
2.75123,-0.258558,-0.191727,21,32765
2.70069,-0.263106,-0.1883,22,32765
2.65016,-0.267287,-0.184696,21,32765
2.67899,-0.279463,-0.186889,20,32765
2.6681,-0.287624,-0.186088,21,32765
2.69685,-0.300093,-0.188015,22,32765
2.66609,-0.305811,-0.185842,21,32765
2.61551,-0.308946,-0.18239,20,32765
2.61445,-0.317779,-0.182433,22,32765
2.64307,-0.330313,-0.184345,21,32765
2.55289,-0.327827,-0.177964,18,32765
2.60121,-0.343012,-0.181503,21,32765
2.59013,-0.350696,-0.180724,20,32765
2.56915,-0.356899,-0.179158,21,32765
2.52841,-0.360121,-0.176292,20,32765
2.55679,-0.372984,-0.178379,22,32765
2.54566,-0.380173,-0.177422,22,32765
2.52463,-0.385816,-0.176072,20,32765
2.52329,-0.394495,-0.175949,22,32765
2.53179,-0.404796,-0.176341,21,32765
2.54025,-0.415065,-0.176752,21,32765
2.51916,-0.420352,-0.175272,21,32765
2.51774,-0.428872,-0.175039,21,32765
2.51628,-0.437399,-0.175019,22,32765
2.50496,-0.444174,-0.174356,21,32765
2.49364,-0.450925,-0.17329,22,32765
2.44308,-0.450289,-0.169449,21,32765
2.47099,-0.463981,-0.171281,22,32765
2.49885,-0.477777,-0.173096,19,32765
2.44832,-0.47652,-0.169323,22,32765
2.44672,-0.484771,-0.169042,22,32765
2.44507,-0.49315,-0.168569,22,32765
2.44337,-0.501564,-0.168406,21,32765
2.46121,-0.513937,-0.169429,23,32765
2.44972,-0.520219,-0.168336,23,32765
2.43824,-0.526287,-0.167281,22,32765
2.44624,-0.536607,-0.167455,21,32765
2.38599,-0.531942,-0.163074,22,32765
2.42311,-0.548882,-0.165454,23,32765
2.40185,-0.552601,-0.163214,22,32765
2.38058,-0.556079,-0.161664,20,32765
2.39818,-0.568501,-0.16254,23,32765
2.38662,-0.574122,-0.161306,22,32765
2.39443,-0.584406,-0.161447,23,32765
2.34408,-0.580384,-0.157578,20,32765
2.34216,-0.588223,-0.157026,22,32765
2.34992,-0.598491,-0.156861,22,32765
2.32863,-0.601297,-0.154937,22,32765
2.31704,-0.606391,-0.15363,21,32765
2.36331,-0.626795,-0.156184,21,32765
2.33238,-0.626792,-0.153459,22,32765
2.31108,-0.629238,-0.151575,22,32765
2.27056,-0.626231,-0.148281,21,32765
2.30696,-0.64451,-0.150146,21,32765
2.25684,-0.638599,-0.14619,21,32765
2.28359,-0.654179,-0.147259,21,32765
2.25273,-0.653329,-0.144506,22,32765
2.26021,-0.663553,-0.144051,20,32765
2.24852,-0.668025,-0.142776,21,32765
2.1986,-0.660972,-0.138809,22,32765
2.25383,-0.685452,-0.141493,22,32765
2.2326,-0.68687,-0.138998,22,32765
2.22089,-0.691135,-0.137389,13,32765
2.22819,-0.701438,-0.136898,19,32765
2.1974,-0.699689,-0.133998,22,32765
2.19519,-0.706834,-0.13274,24,32765
2.193,-0.713824,-0.13153,24,32765
2.20035,-0.723757,-0.130541,23,32765
2.96225,0.0528503,-0.20785,19,32765
2.96232,0.0428613,-0.20912,20,32765
3.01219,0.0335152,-0.21443,21,32765
2.93243,0.0228137,-0.20965,19,32765
2.95237,0.0129528,-0.21204,19,32765
2.95228,0.00293463,-0.21361,19,32765
2.93227,-0.00707724,-0.212953,19,32765
2.89228,-0.0166983,-0.210829,18,32765
2.88217,-0.0261817,-0.211025,19,32765
2.92188,-0.0363045,-0.214979,19,32765
2.94165,-0.0463977,-0.216927,21,32765
2.94142,-0.0563241,-0.217674,20,32765
2.89131,-0.0652407,-0.214581,19,32765
2.88106,-0.0747161,-0.214449,20,32765
2.8409,-0.0831942,-0.21188,19,32765
2.88045,-0.0940205,-0.21504,19,32765
2.89002,-0.104049,-0.216746,21,32765
2.80994,-0.110655,-0.210751,19,32765
2.78958,-0.119346,-0.209777,18,32765
2.7991,-0.129315,-0.21069,20,32765
2.76874,-0.137402,-0.208865,20,32765
2.79811,-0.148316,-0.211428,19,32765
2.77765,-0.156558,-0.210384,21,32765
2.78706,-0.166474,-0.211155,21,32765
2.73669,-0.172629,-0.207897,20,32765
2.75598,-0.18322,-0.209586,20,32765
2.72549,-0.190453,-0.207409,21,32765
2.72485,-0.199747,-0.207156,20,32765
2.72413,-0.209055,-0.207373,20,32765
2.70352,-0.21674,-0.205876,21,32765
2.68289,-0.224337,-0.20436,19,32765
2.71191,-0.236028,-0.206727,21,32765
2.69124,-0.243401,-0.205094,21,32765
2.69042,-0.252412,-0.204975,20,32765
2.67963,-0.260576,-0.204176,21,32765
2.63905,-0.265672,-0.201032,21,32765
2.67781,-0.278722,-0.204096,20,32765
2.63719,-0.283604,-0.200934,21,32765
2.64615,-0.293614,-0.201399,20,32765
2.63525,-0.301425,-0.20055,20,32765
2.62433,-0.309131,-0.199577,18,32765
2.6134,-0.316741,-0.19849,21,32765
2.61232,-0.325635,-0.198347,21,32765
2.58153,-0.330776,-0.195888,19,32765
2.55076,-0.335637,-0.193281,20,32765
2.54962,-0.344272,-0.193191,20,32765
2.55836,-0.354204,-0.193519,20,32765
2.57691,-0.365601,-0.19488,19,32765
2.54607,-0.370058,-0.19234,20,32765
2.54481,-0.3789,-0.191817,20,32765
2.55334,-0.389266,-0.192392,20,32765
2.53229,-0.395108,-0.190465,20,32765
2.53094,-0.403872,-0.190086,20,32765
2.51975,-0.410766,-0.189063,20,32765
2.48886,-0.414418,-0.186416,19,32765
2.47762,-0.421164,-0.185469,21,32765
2.53516,-0.439766,-0.189687,21,32765
2.48458,-0.439735,-0.185418,20,32765
2.49293,-0.449886,-0.185748,20,32765
2.46198,-0.452956,-0.183249,21,32765
2.44085,-0.457602,-0.181564,21,32765
2.45889,-0.469613,-0.182773,18,32765
2.42795,-0.47224,-0.180138,21,32765
2.42638,-0.480452,-0.179594,21,32765
2.41496,-0.486696,-0.178833,21,32765
2.41333,-0.494843,-0.178508,20,32765
2.39211,-0.498998,-0.176912,21,32765
2.41971,-0.513257,-0.178783,22,32765
2.38876,-0.51504,-0.176294,21,32765
2.35779,-0.5167,-0.173874,18,32765
2.39501,-0.533292,-0.176412,21,32765
2.35431,-0.53257,-0.173123,21,32765
2.38165,-0.547336,-0.175186,21,32765
2.37982,-0.555281,-0.174925,20,32765
2.35852,-0.558796,-0.173338,21,32765
2.35665,-0.566679,-0.173162,22,32765
2.3354,-0.569768,-0.17139,21,32765
2.37223,-0.58712,-0.174096,20,32765
2.35098,-0.589988,-0.172385,22,32765
2.29103,-0.582976,-0.168006,21,32765
2.30842,-0.59553,-0.16924,21,32765
2.3547,-0.615785,-0.172591,21,32765
2.32373,-0.61595,-0.170222,21,32765
2.31206,-0.621029,-0.169448,21,32765
2.32922,-0.633983,-0.170832,22,32765
2.28866,-0.631087,-0.167837,21,32765
2.29615,-0.641396,-0.168593,20,32765
2.28443,-0.646267,-0.167663,21,32765
2.26312,-0.648282,-0.166243,21,32765
2.23221,-0.647493,-0.16403,20,32765
2.23006,-0.654813,-0.164128,20,32765
2.24705,-0.667791,-0.165355,20,32765
2.24488,-0.675007,-0.165424,21,32765
2.195,-0.667613,-0.162017,20,32765
2.24052,-0.689296,-0.16563,20,32765
2.14304,-0.66686,-0.158659,13,32765
2.23602,-0.703701,-0.165908,12,32765
2.17668,-0.692778,-0.161967,19,32765
2.21243,-0.711858,-0.165205,20,32765
2.22912,-0.725006,-0.16702,21,32765
2.20784,-0.725759,-0.166186,21,32765
3.00999,0.0536811,-0.239758,20,32765
3.05989,0.044224,-0.24504,21,32765
3.02997,0.0336368,-0.244446,21,32765
3.00009,0.0232378,-0.242954,20,32765
2.9901,0.0129893,-0.243123,20,32765
2.99997,0.00282478,-0.245528,21,32765
2.99989,-0.00742506,-0.246333,21,32765
3.00975,-0.0175888,-0.247955,20,32765
2.95977,-0.0271219,-0.244798,21,32765
2.92968,-0.0366608,-0.243362,20,32765
2.87968,-0.0457009,-0.239693,20,32765
2.94919,-0.0567871,-0.246247,20,32765
2.87919,-0.0653002,-0.241017,21,32765
2.92871,-0.0763172,-0.245804,21,32765
2.8786,-0.0846833,-0.242029,21,32765
2.91812,-0.0956662,-0.245566,20,32765
2.82808,-0.102249,-0.238965,21,32765
2.83768,-0.112203,-0.239789,21,32765
2.87705,-0.123578,-0.243692,20,32765
2.84674,-0.132026,-0.241328,22,32765
2.81638,-0.140297,-0.239228,21,32765
2.82581,-0.150343,-0.240384,21,32765
2.82525,-0.159825,-0.240853,22,32765
2.79486,-0.167542,-0.238326,22,32765
2.81413,-0.178146,-0.240548,21,32765
2.76378,-0.184385,-0.236475,21,32765
2.77307,-0.194452,-0.237419,22,32765
2.76247,-0.203202,-0.236311,21,32765
2.75181,-0.211898,-0.23568,22,32765
2.761,-0.222096,-0.236547,22,32765
2.79001,-0.234075,-0.239097,21,32765
2.71971,-0.237494,-0.233237,22,32765
2.71889,-0.246714,-0.233116,21,32765
2.72798,-0.256775,-0.233845,21,32765
2.71718,-0.265088,-0.232951,22,32765
2.71627,-0.274331,-0.232828,22,32765
2.73514,-0.285607,-0.234568,22,32765
2.65491,-0.286425,-0.227629,20,32765
2.69356,-0.299828,-0.230729,22,32765
2.69254,-0.308956,-0.230632,21,32765
2.59255,-0.306353,-0.221935,19,32765
2.66077,-0.323498,-0.227524,21,32765
2.63,-0.328868,-0.224842,21,32765
2.64864,-0.340436,-0.226321,20,32765
2.5981,-0.342932,-0.221735,21,32765
2.58706,-0.350413,-0.2208,21,32765
2.60564,-0.361868,-0.222057,21,32765
2.62414,-0.373453,-0.223602,20,32765
2.55386,-0.372335,-0.217415,22,32765
2.5723,-0.384171,-0.218565,21,32765
2.58081,-0.39466,-0.21923,21,32765
2.53022,-0.395993,-0.214605,22,32765
2.55839,-0.409498,-0.216725,21,32765
2.54718,-0.416504,-0.215604,21,32765
2.53596,-0.423544,-0.214331,21,32765
2.5247,-0.430469,-0.213284,22,32765
2.52324,-0.439026,-0.213086,22,32765
2.51196,-0.445926,-0.211657,20,32765
2.53009,-0.457971,-0.2129,22,32765
2.48933,-0.45937,-0.209289,22,32765
2.46819,-0.464123,-0.207412,22,32765
2.50577,-0.480008,-0.210449,18,32765
2.45526,-0.478987,-0.205883,21,32765
2.46344,-0.489255,-0.206149,23,32765
2.46177,-0.497617,-0.20611,22,32765
2.43081,-0.499922,-0.203328,20,32765
2.43885,-0.510273,-0.20399,22,32765
2.42739,-0.516429,-0.202876,22,32765
2.44516,-0.528779,-0.204169,22,32765
2.42391,-0.532778,-0.202272,20,32765
2.4124,-0.53877,-0.201121,22,32765
2.42032,-0.549137,-0.201498,22,32765
2.42814,-0.559688,-0.20222,22,32765
2.41657,-0.565538,-0.201145,21,32765
2.38554,-0.566887,-0.198559,22,32765
2.36426,-0.570208,-0.196766,21,32765
2.41079,-0.589918,-0.200439,22,32765
2.36045,-0.585949,-0.196275,19,32765
2.32955,-0.586357,-0.193573,21,32765
2.33727,-0.596519,-0.194249,21,32765
2.32565,-0.601766,-0.19326,22,32765
2.35258,-0.617067,-0.195475,21,32765
2.35053,-0.624914,-0.195223,22,32765
2.30995,-0.622318,-0.191954,21,32765
2.32709,-0.635296,-0.193523,22,32765
2.3442,-0.648335,-0.194945,21,32765
2.28442,-0.640031,-0.1902,21,32765
2.27272,-0.644879,-0.189175,21,32765
2.28016,-0.655122,-0.189961,22,32765
2.25882,-0.657178,-0.188262,21,32765
2.24708,-0.661789,-0.187561,21,32765
2.26401,-0.674854,-0.188973,20,32765
2.26182,-0.682144,-0.18904,22,32765
2.2501,-0.686429,-0.188357,22,32765
2.31455,-0.714215,-0.194036,18,32765
2.2932,-0.715736,-0.192519,14,32765
2.22432,-0.702132,-0.187121,13,32765
2.19352,-0.700247,-0.185018,21,32765
2.21023,-0.7133,-0.187027,22,32765
2.22688,-0.726473,-0.189027,22,32765
2.22454,-0.733467,-0.189617,22,32765
3.01577,0.0575091,-0.287658,19,32765
2.99613,0.0469369,-0.284742,18,32765
3.06606,0.037718,-0.290294,20,32765
2.99654,0.0266379,-0.283059,20,32765
2.96683,0.0163538,-0.279353,19,32765
2.96691,0.0063574,-0.27898,18,32765
2.94708,-0.00369867,-0.276194,20,32765
2.95705,-0.0135975,-0.276703,19,32765
2.93713,-0.0232886,-0.274268,19,32765
2.94707,-0.0331486,-0.274421,20,32765
2.9669,-0.043497,-0.275757,19,32765
2.93689,-0.0530891,-0.272674,20,32765
2.90687,-0.0624788,-0.269426,19,32765
2.89673,-0.0722039,-0.268066,20,32765
2.87659,-0.0814628,-0.265841,19,32765
2.91613,-0.0925278,-0.269269,20,32765
2.84617,-0.100018,-0.262475,18,32765
2.90556,-0.111957,-0.267512,20,32765
2.84549,-0.119277,-0.26189,19,32765
2.76555,-0.125252,-0.253899,19,32765
2.85463,-0.138963,-0.262054,20,32765
2.76466,-0.144247,-0.253473,19,32765
2.75424,-0.153172,-0.25216,19,32765
2.79347,-0.164976,-0.255698,20,32765
2.79295,-0.174351,-0.255187,19,32765
2.7228,-0.179144,-0.2487,20,32765
2.76193,-0.191231,-0.252115,20,32765
2.75136,-0.199815,-0.250975,20,32765
2.71096,-0.206349,-0.247014,20,32765
2.72018,-0.216446,-0.24774,20,32765
2.75915,-0.229052,-0.25106,20,32765
2.71868,-0.235091,-0.247235,20,32765
2.66829,-0.239801,-0.242549,20,32765
2.70713,-0.252547,-0.246152,20,32765
2.68648,-0.259835,-0.243741,21,32765
2.72521,-0.273023,-0.247311,21,32765
2.67473,-0.277301,-0.242709,21,32765
2.63417,-0.282256,-0.238883,19,32765
2.67279,-0.295797,-0.242316,20,32765
2.65201,-0.302552,-0.240172,20,32765
2.64108,-0.310438,-0.239203,19,32765
2.68947,-0.32541,-0.243484,21,32765
2.61917,-0.325849,-0.237218,20,32765
2.6477,-0.338469,-0.23987,20,32765
2.56757,-0.336973,-0.2325,19,32765
2.64536,-0.35644,-0.239668,21,32765
2.60467,-0.360065,-0.235856,21,32765
2.62314,-0.371916,-0.237488,20,32765
2.57258,-0.37384,-0.232775,21,32765
2.591,-0.385527,-0.234485,20,32765
2.55031,-0.38847,-0.230503,20,32765
2.52927,-0.394165,-0.228703,20,32765
2.50825,-0.399725,-0.226712,20,32765
2.55602,-0.416433,-0.23098,21,32765
2.52513,-0.420145,-0.228264,19,32765
2.49425,-0.423737,-0.225262,21,32765
2.48304,-0.430438,-0.223956,20,32765
2.47176,-0.437032,-0.223175,20,32765
2.48007,-0.447242,-0.223893,20,32765
2.46877,-0.453864,-0.222677,22,32765
2.44762,-0.458735,-0.220769,20,32765
2.49499,-0.476442,-0.224804,19,32765
2.4445,-0.475236,-0.220341,21,32765
2.45268,-0.485387,-0.221009,22,32765
2.41202,-0.485734,-0.217107,21,32765
2.43967,-0.499908,-0.219269,20,32765
2.41847,-0.504162,-0.217351,21,32765
2.38752,-0.506197,-0.214461,21,32765
2.41506,-0.52056,-0.216608,21,32765
2.41334,-0.52859,-0.216268,19,32765
2.41157,-0.536756,-0.215947,22,32765
2.39035,-0.540459,-0.213825,21,32765
2.37885,-0.546249,-0.212566,21,32765
2.35764,-0.549671,-0.210491,19,32765
2.35587,-0.557481,-0.209728,21,32765
2.3831,-0.572306,-0.211841,21,32765
2.38119,-0.58034,-0.211496,21,32765
2.35995,-0.583479,-0.209272,19,32765
2.35806,-0.591302,-0.208656,21,32765
2.32718,-0.591731,-0.205431,21,32765
2.32523,-0.599512,-0.204967,21,32765
2.35219,-0.614819,-0.206831,21,32765
2.31168,-0.612377,-0.202785,21,32765
2.33853,-0.627803,-0.205017,22,32765
2.31729,-0.630308,-0.20238,21,32765
2.33444,-0.643331,-0.203531,22,32765
2.27477,-0.635035,-0.197624,20,32765
2.27276,-0.642415,-0.196932,20,32765
2.27072,-0.649832,-0.196122,21,32765
2.24954,-0.651641,-0.19349,21,32765
2.27613,-0.667434,-0.195363,20,32765
2.25484,-0.669404,-0.1929,21,32765
2.26226,-0.67965,-0.192767,21,32765
2.25059,-0.68407,-0.191041,20,32765
2.26757,-0.697001,-0.191651,19,32765
2.33199,-0.725071,-0.196401,13,32765
2.32971,-0.732683,-0.195237,12,32765
2.21343,-0.704003,-0.184368,16,32765
2.19229,-0.705005,-0.181415,20,32765
2.24706,-0.730425,-0.184698,21,32765
2.20696,-0.725077,-0.180282,20,32765
3.07258,0.0585328,-0.322359,21,32765
3.06293,0.047896,-0.320276,20,32765
3.04329,0.0373242,-0.317133,22,32765
3.01363,0.0266496,-0.313383,22,32765
3.0138,0.0164455,-0.312484,21,32765
3.01388,0.00626344,-0.312105,20,32765
3.00403,-0.00399117,-0.310144,21,32765
2.9742,-0.013922,-0.306636,21,32765
2.98415,-0.0239343,-0.30708,20,32765
2.99408,-0.0339776,-0.307314,21,32765
2.96416,-0.0437812,-0.303734,21,32765
2.96402,-0.0539311,-0.303423,21,32765
2.96387,-0.0640827,-0.302939,20,32765
2.94379,-0.0737803,-0.300461,21,32765
2.90378,-0.0826571,-0.296014,20,32765
2.85379,-0.0909931,-0.290699,20,32765
2.9231,-0.103202,-0.297418,19,32765
2.87307,-0.111204,-0.291895,22,32765
2.85281,-0.120106,-0.289749,21,32765
2.8624,-0.130188,-0.29007,20,32765
2.84207,-0.138923,-0.28799,21,32765
2.85154,-0.149381,-0.288622,21,32765
2.83118,-0.158074,-0.286197,20,32765
2.84057,-0.168408,-0.287096,21,32765
2.84004,-0.177967,-0.286576,21,32765
2.79972,-0.184898,-0.282433,21,32765
2.80902,-0.195213,-0.283215,22,32765
2.76867,-0.201809,-0.278976,22,32765
2.73822,-0.20918,-0.275636,21,32765
2.76726,-0.220981,-0.278449,22,32765
2.76652,-0.230478,-0.27815,21,32765
2.7459,-0.23828,-0.275941,21,32765
2.75501,-0.248459,-0.276757,22,32765
2.73433,-0.255969,-0.274761,22,32765
2.7236,-0.264331,-0.273149,21,32765
2.71278,-0.272705,-0.272127,21,32765
2.71183,-0.282101,-0.272019,22,32765
2.70097,-0.29039,-0.27079,20,32765
2.70985,-0.300904,-0.271619,22,32765
2.69897,-0.308935,-0.270271,22,32765
2.68802,-0.317004,-0.269206,20,32765
2.6573,-0.322581,-0.26604,21,32765
2.63645,-0.329079,-0.264061,21,32765
2.63533,-0.337993,-0.264027,20,32765
2.6046,-0.34295,-0.260847,20,32765
2.61326,-0.353262,-0.261847,22,32765
2.63177,-0.364992,-0.263585,21,32765
2.62064,-0.372763,-0.262441,20,32765
2.58982,-0.377559,-0.25923,21,32765
2.58852,-0.386397,-0.259155,21,32765
2.58721,-0.395355,-0.258732,20,32765
2.55634,-0.399657,-0.255759,21,32765
2.54514,-0.406898,-0.25456,22,32765
2.56337,-0.418961,-0.256347,22,32765
2.55213,-0.425987,-0.255312,20,32765
2.54088,-0.433028,-0.253985,22,32765
2.52964,-0.439906,-0.252576,22,32765
2.49874,-0.4432,-0.249743,22,32765
2.51681,-0.4553,-0.25153,21,32765
2.50549,-0.462067,-0.250214,22,32765
2.47454,-0.465242,-0.247138,22,32765
2.53162,-0.484957,-0.252612,19,32765
2.46162,-0.480066,-0.245728,22,32765
2.47953,-0.492239,-0.247461,22,32765
2.45839,-0.496624,-0.245124,22,32765
2.46648,-0.506983,-0.245615,21,32765
2.42578,-0.507269,-0.241566,22,32765
2.44353,-0.51969,-0.243238,22,32765
2.46126,-0.532176,-0.244686,22,32765
2.44007,-0.53611,-0.242407,20,32765
2.42855,-0.542221,-0.241115,22,32765
2.40734,-0.545994,-0.238802,22,32765
2.40552,-0.554093,-0.238406,22,32765
2.40369,-0.562151,-0.238057,22,32765
2.43094,-0.577032,-0.240149,23,32765
2.40001,-0.578157,-0.236797,22,32765
2.40775,-0.588634,-0.237402,22,32765
2.3865,-0.591873,-0.234983,20,32765
2.317,-0.582808,-0.227716,21,32765
2.38264,-0.607712,-0.233681,22,32765
2.32281,-0.600744,-0.227539,21,32765
2.35937,-0.618605,-0.230625,21,32765
2.33813,-0.621302,-0.228077,22,32765
2.29763,-0.618731,-0.224024,20,32765
2.30526,-0.628973,-0.224015,21,32765
2.34158,-0.647295,-0.227216,21,32765
2.29155,-0.641697,-0.22167,21,32765
2.29909,-0.651868,-0.221895,22,32765
2.28746,-0.656645,-0.220153,21,32765
2.29497,-0.666854,-0.220075,21,32765
2.27371,-0.668784,-0.217643,20,32765
2.25243,-0.670757,-0.214992,21,32765
2.24078,-0.675274,-0.213138,22,32765
2.28629,-0.697067,-0.216743,22,32765
2.30321,-0.710142,-0.217523,17,32765
2.31048,-0.720598,-0.217541,14,32765
2.23222,-0.704189,-0.209262,12,32765
2.20157,-0.702388,-0.205289,19,32765
2.19942,-0.709477,-0.203911,22,32765
2.20676,-0.719536,-0.203385,22,32765
2.21405,-0.729647,-0.202954,22,32765
3.04389,0.057651,-0.308277,19,32765
3.05388,0.0473587,-0.310589,19,32765
3.0141,0.0364487,-0.307857,20,32765
2.97435,0.025863,-0.304423,21,32765
2.97431,0.0156999,-0.30554,19,32765
2.99416,0.00558155,-0.308325,20,32765
2.97414,-0.00461454,-0.307526,20,32765
2.97404,-0.0146596,-0.308175,20,32765
2.95403,-0.0244331,-0.3066,18,32765
2.93397,-0.0341324,-0.305209,20,32765
2.92383,-0.0438302,-0.304805,19,32765
2.87392,-0.0527292,-0.299871,19,32765
2.95319,-0.0640779,-0.308976,20,32765
2.89325,-0.0725814,-0.303253,19,32765
2.9327,-0.0836786,-0.307825,20,32765
2.90256,-0.0928421,-0.304871,21,32765
2.88229,-0.102091,-0.303248,19,32765
2.8819,-0.111932,-0.303534,19,32765
2.88148,-0.121573,-0.303812,19,32765
2.85121,-0.13004,-0.300958,19,32765
2.80106,-0.137092,-0.296039,19,32765
2.85023,-0.149128,-0.301385,19,32765
2.81987,-0.157156,-0.298686,19,32765
2.83919,-0.167873,-0.300663,20,32765
2.8187,-0.176456,-0.29896,20,32765
2.76847,-0.182806,-0.293706,19,32765
2.78764,-0.193655,-0.296091,19,32765
2.80681,-0.204629,-0.298115,20,32765
2.78626,-0.212519,-0.296161,19,32765
2.7657,-0.220287,-0.294092,20,32765
2.79466,-0.231945,-0.297434,20,32765
2.6849,-0.231901,-0.285714,19,32765
2.78312,-0.249935,-0.296412,21,32765
2.73277,-0.254839,-0.290864,21,32765
2.73184,-0.264355,-0.291147,21,32765
2.68147,-0.268672,-0.285752,20,32765
2.70034,-0.279794,-0.287749,21,32765
2.66971,-0.285776,-0.284585,19,32765
2.68853,-0.29689,-0.28642,21,32765
2.65786,-0.302684,-0.283338,20,32765
2.65683,-0.31175,-0.283147,20,32765
2.6459,-0.319652,-0.281855,20,32765
2.61517,-0.325121,-0.278752,21,32765
2.61408,-0.334045,-0.278412,20,32765
2.63265,-0.34555,-0.2804,19,32765
2.61178,-0.351769,-0.278181,20,32765
2.62044,-0.361974,-0.279048,20,32765
2.61919,-0.370858,-0.279131,21,32765
2.54909,-0.369756,-0.271166,20,32765
2.56745,-0.38143,-0.273478,20,32765
2.58582,-0.393282,-0.275252,20,32765
2.56483,-0.399115,-0.272842,20,32765
2.57327,-0.409639,-0.273666,21,32765
2.53261,-0.412067,-0.269216,20,32765
2.58024,-0.428981,-0.274297,20,32765
2.51995,-0.427745,-0.267901,20,32765
2.48913,-0.43126,-0.264274,20,32765
2.47784,-0.438089,-0.2632,20,32765
2.51554,-0.453545,-0.26698,20,32765
2.49442,-0.458581,-0.264754,21,32765
2.49289,-0.466945,-0.264514,20,32765
2.44247,-0.466044,-0.259096,19,32765
2.47018,-0.48005,-0.261993,20,32765
2.45882,-0.486444,-0.260742,21,32765
2.49618,-0.50275,-0.264442,21,32765
2.48472,-0.509263,-0.263243,19,32765
2.45379,-0.511589,-0.259977,20,32765
2.39369,-0.507558,-0.253487,21,32765
2.40172,-0.517738,-0.254185,20,32765
2.45827,-0.538672,-0.260084,19,32765
2.41762,-0.538346,-0.255733,21,32765
2.40608,-0.544376,-0.254596,21,32765
2.38484,-0.548147,-0.252344,21,32765
2.37332,-0.553936,-0.251059,20,32765
2.39078,-0.566662,-0.252879,22,32765
2.35987,-0.567729,-0.249577,21,32765
2.38697,-0.582701,-0.252418,21,32765
2.34639,-0.581234,-0.248083,19,32765
2.36374,-0.593871,-0.250068,21,32765
2.38102,-0.606772,-0.251927,22,32765
2.35014,-0.607196,-0.248553,21,32765
2.33849,-0.61252,-0.247348,20,32765
2.31721,-0.615239,-0.245157,21,32765
2.30559,-0.620302,-0.243931,21,32765
2.3419,-0.638502,-0.247835,21,32765
2.31104,-0.638294,-0.244523,20,32765
2.29931,-0.643328,-0.243486,21,32765
2.30676,-0.653657,-0.24435,21,32765
2.30461,-0.661273,-0.244076,21,32765
2.30243,-0.668847,-0.244066,21,32765
2.28113,-0.670815,-0.241987,20,32765
2.25985,-0.672652,-0.239838,21,32765
2.26713,-0.683041,-0.240752,21,32765
2.24588,-0.68461,-0.238563,21,32765
2.28164,-0.703669,-0.242878,14,32765
2.2794,-0.710972,-0.242585,13,32765
2.29608,-0.724253,-0.244732,12,32765
2.20841,-0.704437,-0.235827,20,32765
2.20617,-0.711496,-0.235586,21,32765
2.20381,-0.718575,-0.236169,21,32765
2.18263,-0.719299,-0.234135,21,32765
3.08059,0.058274,-0.341387,20,32765
2.99119,0.0462874,-0.332754,21,32765
3.06075,0.0368817,-0.341828,22,32765
3.03097,0.0261968,-0.339139,22,32765
3.01104,0.0157072,-0.338047,22,32765
3.05074,0.00546865,-0.343264,21,32765
3.01085,-0.00491632,-0.340057,22,32765
3.02068,-0.0151637,-0.341837,22,32765
3.02056,-0.0252859,-0.342335,21,32765
2.99057,-0.0351188,-0.339643,22,32765
3.0003,-0.0453339,-0.341418,21,32765
2.95043,-0.0545121,-0.336021,20,32765
2.98987,-0.0652864,-0.34136,21,32765
2.92004,-0.0736846,-0.333945,20,32765
2.89986,-0.0831977,-0.332072,21,32765
2.89954,-0.0932297,-0.332248,20,32765
2.92893,-0.10426,-0.336133,20,32765
2.84911,-0.111189,-0.327301,21,32765
2.88839,-0.12243,-0.33214,20,32765
2.85815,-0.130943,-0.329005,21,32765
2.89735,-0.142427,-0.33391,20,32765
2.86708,-0.150652,-0.330576,21,32765
2.82682,-0.158205,-0.326452,21,32765
2.82628,-0.167798,-0.326326,22,32765
2.8058,-0.17636,-0.324433,20,32765
2.80518,-0.185968,-0.324442,21,32765
2.81441,-0.196283,-0.325869,21,32765
2.80382,-0.205204,-0.324638,21,32765
2.8031,-0.214623,-0.324791,21,32765
2.76274,-0.220886,-0.320239,22,32765
2.76197,-0.230092,-0.320416,22,32765
2.7612,-0.239378,-0.320293,19,32765
2.76035,-0.248803,-0.320446,22,32765
2.75951,-0.258272,-0.320169,22,32765
2.72889,-0.265027,-0.317008,22,32765
2.76753,-0.278293,-0.321477,22,32765
2.71718,-0.282545,-0.315622,21,32765
2.73595,-0.293908,-0.317915,20,32765
2.70536,-0.299804,-0.314195,22,32765
2.70431,-0.309056,-0.314273,22,32765
2.723,-0.32063,-0.316371,20,32765
2.66274,-0.322804,-0.30925,20,32765
2.64188,-0.329578,-0.307011,21,32765
2.6999,-0.3462,-0.313533,22,32765
2.67901,-0.35284,-0.311127,20,32765
2.65813,-0.359235,-0.308718,21,32765
2.63723,-0.365534,-0.306246,21,32765
2.59662,-0.368909,-0.301757,20,32765
2.61509,-0.380611,-0.303406,21,32765
2.60391,-0.388149,-0.302485,21,32765
2.57312,-0.392666,-0.298739,20,32765
2.57179,-0.401538,-0.29842,20,32765
2.54096,-0.405848,-0.294783,21,32765
2.53958,-0.414578,-0.294509,21,32765
2.56755,-0.428289,-0.297783,20,32765
2.5465,-0.433685,-0.295369,21,32765
2.54506,-0.442409,-0.294856,22,32765
2.52396,-0.447715,-0.292552,22,32765
2.5518,-0.461599,-0.295566,21,32765
2.51113,-0.463172,-0.290886,23,32765
2.52911,-0.475286,-0.292904,22,32765
2.51776,-0.481984,-0.291533,20,32765
2.49662,-0.486775,-0.289057,21,32765
2.456,-0.487475,-0.284324,21,32765
2.49331,-0.503812,-0.288397,23,32765
2.46239,-0.506332,-0.284851,20,32765
2.46068,-0.514697,-0.28468,22,32765
2.44923,-0.521025,-0.283246,22,32765
2.4572,-0.53142,-0.284029,22,32765
2.41658,-0.531257,-0.279265,21,32765
2.46328,-0.550295,-0.284627,22,32765
2.43233,-0.552099,-0.281153,23,32765
2.41108,-0.555975,-0.27871,22,32765
2.41889,-0.566402,-0.279563,21,32765
2.41696,-0.574719,-0.27933,23,32765
2.42469,-0.58521,-0.280208,22,32765
2.39378,-0.586253,-0.276629,21,32765
2.3918,-0.5944,-0.276375,21,32765
2.38018,-0.599934,-0.275202,22,32765
2.39741,-0.612923,-0.277245,22,32765
2.37615,-0.615902,-0.274698,21,32765
2.3741,-0.623857,-0.274507,21,32765
2.38161,-0.634381,-0.275457,23,32765
2.35074,-0.634494,-0.27191,22,32765
2.3582,-0.645023,-0.272855,22,32765
2.33692,-0.647529,-0.270367,21,32765
2.2869,-0.641923,-0.264802,21,32765
2.33257,-0.663109,-0.270188,22,32765
2.29219,-0.659835,-0.265484,22,32765
2.32817,-0.678513,-0.269897,21,32765
2.29732,-0.677764,-0.266522,22,32765
2.26652,-0.676822,-0.263078,21,32765
2.25474,-0.681509,-0.261873,22,32765
2.29055,-0.700486,-0.266122,21,32765
2.27871,-0.705047,-0.265287,14,32765
2.21956,-0.694553,-0.258367,12,32765
2.20783,-0.698679,-0.257382,15,32765
2.22447,-0.711866,-0.259786,21,32765
2.2222,-0.718998,-0.259542,21,32765
2.21981,-0.726148,-0.260127,21,32765
2.2175,-0.733171,-0.260118,22,32765
3.09499,0.0621653,-0.389338,19,32765
3.0457,0.050616,-0.382151,18,32765
2.98643,0.039381,-0.373886,19,32765
3.00645,0.0294061,-0.37587,20,32765
2.97689,0.0189416,-0.371173,19,32765
3.02657,0.0089053,-0.377215,18,32765
2.95721,-0.00153938,-0.367812,19,32765
2.97708,-0.0118505,-0.36994,20,32765
2.95721,-0.0219492,-0.367223,18,32765
2.93732,-0.0318152,-0.364336,20,32765
2.967,-0.0422116,-0.367767,20,32765
2.91726,-0.0515195,-0.361293,20,32765
2.9469,-0.0621135,-0.364443,21,32765
2.89707,-0.0710312,-0.358233,20,32765
2.92659,-0.0817152,-0.361808,21,32765
2.91642,-0.0913956,-0.360235,22,32765
2.9062,-0.100992,-0.358779,20,32765
2.89597,-0.110428,-0.357136,19,32765
2.88566,-0.119835,-0.355988,20,32765
2.92489,-0.131417,-0.360936,21,32765
2.83527,-0.137083,-0.349359,19,32765
2.85459,-0.147865,-0.351903,20,32765
2.864,-0.158247,-0.352942,19,32765
2.80398,-0.16456,-0.345673,20,32765
2.81336,-0.174619,-0.346558,20,32765
2.79295,-0.182867,-0.344056,20,32765
2.78244,-0.191581,-0.342679,19,32765
2.76201,-0.199598,-0.339928,20,32765
2.78109,-0.210504,-0.342491,20,32765
2.77046,-0.219464,-0.341153,20,32765
2.78948,-0.230768,-0.343459,20,32765
2.74913,-0.237137,-0.338296,19,32765
2.7285,-0.244866,-0.336071,21,32765
2.72768,-0.254213,-0.335761,20,32765
2.6873,-0.259649,-0.330754,20,32765
2.71604,-0.271827,-0.334289,20,32765
2.74474,-0.284112,-0.337721,20,32765
2.74377,-0.293497,-0.337601,20,32765
2.70329,-0.29855,-0.332719,20,32765
2.71213,-0.308908,-0.333809,20,32765
2.67165,-0.313603,-0.328732,21,32765
2.66071,-0.321558,-0.327453,19,32765
2.66946,-0.331866,-0.328536,21,32765
2.66838,-0.341004,-0.327996,21,32765
2.618,-0.343654,-0.321851,18,32765
2.64634,-0.356573,-0.325338,21,32765
2.62545,-0.362935,-0.322758,20,32765
2.62422,-0.372009,-0.32247,20,32765
2.60328,-0.378204,-0.319987,20,32765
2.59222,-0.38561,-0.318314,20,32765
2.56146,-0.389992,-0.314524,20,32765
2.60918,-0.406513,-0.320236,18,32765
2.49992,-0.398291,-0.306985,20,32765
2.55736,-0.416562,-0.313841,19,32765
2.56576,-0.426977,-0.314619,20,32765
2.51537,-0.427447,-0.308376,20,32765
2.52374,-0.437684,-0.30918,20,32765
2.49295,-0.440969,-0.305402,20,32765
2.52077,-0.454717,-0.308794,19,32765
2.5193,-0.463212,-0.308154,20,32765
2.48848,-0.466343,-0.304138,20,32765
2.4869,-0.474883,-0.303809,19,32765
2.44634,-0.475743,-0.298627,19,32765
2.46424,-0.487878,-0.300691,20,32765
2.46265,-0.496176,-0.30009,20,32765
2.49019,-0.510622,-0.30299,19,32765
2.43985,-0.509011,-0.296884,21,32765
2.4673,-0.52361,-0.299761,20,32765
2.43643,-0.525806,-0.295667,21,32765
2.4444,-0.536165,-0.296357,19,32765
2.39416,-0.53369,-0.289956,20,32765
2.40211,-0.543935,-0.290548,20,32765
2.42937,-0.558738,-0.29338,21,32765
2.40819,-0.562474,-0.290459,20,32765
2.41602,-0.572829,-0.291057,21,32765
2.40451,-0.578661,-0.289114,21,32765
2.37366,-0.579718,-0.285044,21,32765
2.38142,-0.590062,-0.285618,18,32765
2.36025,-0.593184,-0.282559,21,32765
2.33913,-0.596059,-0.279413,21,32765
2.34685,-0.606248,-0.279944,21,32765
2.36414,-0.619084,-0.28141,20,32765
2.31414,-0.614194,-0.274987,21,32765
2.34095,-0.629673,-0.277594,21,32765
2.34853,-0.640099,-0.277775,21,32765
2.33691,-0.645288,-0.27579,20,32765
2.33484,-0.653105,-0.274889,21,32765
2.30405,-0.652805,-0.270746,21,32765
2.30195,-0.660544,-0.26986,21,32765
2.28082,-0.662533,-0.266514,19,32765
2.30731,-0.678478,-0.269032,21,32765
2.28612,-0.680406,-0.265863,22,32765
2.25545,-0.679216,-0.261705,21,32765
2.27238,-0.692305,-0.262875,21,32765
2.32725,-0.717228,-0.26828,15,32765
0,-0,-0,0,32765
2.24694,-0.708558,-0.257144,11,32765
2.19742,-0.700615,-0.250754,19,32765
2.23312,-0.720004,-0.25374,21,32765
2.21201,-0.72112,-0.25022,20,32765
2.20983,-0.728247,-0.24885,21,32765
3.08127,0.0617809,-0.417181,20,32765
3.07169,0.0509094,-0.414884,20,32765
3.07196,0.0403408,-0.414065,21,32765
3.08206,0.0299473,-0.414888,21,32765
3.06246,0.0192597,-0.411215,21,32765
3.0427,0.00869828,-0.408409,20,32765
3.02299,-0.00185584,-0.404985,20,32765
3.03293,-0.0123857,-0.405966,21,32765
2.98334,-0.0224802,-0.39908,19,32765
2.99322,-0.0327876,-0.399974,19,32765
2.93366,-0.0421253,-0.391769,19,32765
2.97318,-0.0529293,-0.396732,21,32765
2.96314,-0.0629052,-0.39487,20,32765
2.93319,-0.0723905,-0.390832,20,32765
2.92303,-0.0821165,-0.389406,20,32765
2.88315,-0.0908748,-0.383783,20,32765
2.93239,-0.102462,-0.390143,20,32765
2.92217,-0.112012,-0.388402,21,32765
2.90196,-0.121122,-0.385844,20,32765
2.90152,-0.131005,-0.385898,20,32765
2.88133,-0.139972,-0.382688,21,32765
2.85112,-0.148368,-0.378843,21,32765
2.8803,-0.159866,-0.382605,20,32765
2.90942,-0.171503,-0.386609,23,32765
2.82972,-0.176396,-0.375751,22,32765
2.82911,-0.186023,-0.375687,22,32765
2.80871,-0.1942,-0.372901,22,32765
2.82785,-0.2052,-0.375206,22,32765
2.82711,-0.21486,-0.375334,22,32765
2.78683,-0.221649,-0.369964,22,32765
2.79593,-0.232222,-0.371144,22,32765
2.80501,-0.242909,-0.372157,21,32765
2.75476,-0.248186,-0.365815,21,32765
2.77367,-0.259497,-0.368121,22,32765
2.76292,-0.267977,-0.366665,22,32765
2.77187,-0.278467,-0.367858,23,32765
2.76107,-0.286878,-0.366332,21,32765
2.74037,-0.29423,-0.363595,22,32765
2.72949,-0.302564,-0.362261,21,32765
2.71861,-0.310788,-0.360827,22,32765
2.69785,-0.317842,-0.357987,21,32765
2.69676,-0.327104,-0.357919,20,32765
2.65629,-0.331427,-0.352564,21,32765
2.70437,-0.346852,-0.358544,22,32765
2.71301,-0.357406,-0.35975,21,32765
2.65284,-0.358729,-0.351785,22,32765
2.63197,-0.365133,-0.349016,21,32765
2.66999,-0.379841,-0.35393,21,32765
2.62943,-0.383354,-0.348657,21,32765
2.60855,-0.389408,-0.345584,20,32765
2.60722,-0.398353,-0.345407,20,32765
2.62546,-0.410482,-0.347688,19,32765
2.61424,-0.417957,-0.34638,21,32765
2.56388,-0.419079,-0.339524,21,32765
2.6016,-0.434445,-0.344276,21,32765
2.58058,-0.440046,-0.34144,20,32765
2.55958,-0.445432,-0.338451,21,32765
2.53856,-0.450584,-0.33568,21,32765
2.53704,-0.459225,-0.335475,20,32765
2.51605,-0.464201,-0.332255,21,32765
2.54374,-0.478331,-0.335674,22,32765
2.49342,-0.477755,-0.328912,21,32765
2.51131,-0.490041,-0.331052,21,32765
2.48049,-0.492767,-0.326884,22,32765
2.50805,-0.50704,-0.330116,22,32765
2.51609,-0.517682,-0.330728,21,32765
2.4852,-0.520229,-0.326704,22,32765
2.45437,-0.522628,-0.322205,22,32765
2.5011,-0.541583,-0.328003,22,32765
2.46057,-0.541531,-0.322425,20,32765
2.42005,-0.541278,-0.316819,21,32765
2.44731,-0.556034,-0.320025,22,32765
2.42616,-0.559875,-0.316812,22,32765
2.42432,-0.568142,-0.316223,21,32765
2.43212,-0.57858,-0.316909,22,32765
2.41096,-0.582157,-0.313611,23,32765
2.43796,-0.597413,-0.31677,22,32765
2.40713,-0.598427,-0.312421,20,32765
2.39559,-0.604075,-0.310411,22,32765
2.39369,-0.611996,-0.30955,22,32765
2.38213,-0.617414,-0.307677,22,32765
2.38976,-0.627878,-0.308078,22,32765
2.35898,-0.628179,-0.303647,22,32765
2.35697,-0.636089,-0.302823,22,32765
2.34537,-0.641362,-0.300635,22,32765
2.35289,-0.651859,-0.301003,21,32765
2.3508,-0.659752,-0.300094,22,32765
2.32957,-0.662227,-0.29688,22,32765
2.29883,-0.661836,-0.292343,22,32765
2.3635,-0.688825,-0.299685,20,32765
2.3137,-0.68261,-0.292811,22,32765
2.29253,-0.684571,-0.28945,22,32765
2.31891,-0.700636,-0.292193,22,32765
2.29776,-0.702355,-0.288745,21,32765
2.27665,-0.703952,-0.285189,15,32765
0,-0,-0,0,32765
2.24386,-0.709927,-0.279247,14,32765
2.26062,-0.723146,-0.280608,22,32765
2.21116,-0.715278,-0.273411,21,32765
2.2373,-0.73177,-0.275529,22,32765
2.24452,-0.742119,-0.275297,22,32765
2.97355,0.0594582,-0.393043,18,32765
3.06272,0.0509693,-0.406485,17,32765
3.02301,0.0400189,-0.402852,19,32765
3.01305,0.0296474,-0.402794,19,32765
3.03275,0.0195424,-0.406964,20,32765
3.00292,0.00923302,-0.404051,18,32765
3.01273,-0.000823655,-0.406303,19,32765
2.95312,-0.0109025,-0.399228,18,32765
3.03221,-0.0213583,-0.410875,17,32765
2.96266,-0.0309281,-0.402204,19,32765
2.94262,-0.0407165,-0.40027,18,32765
2.93248,-0.0506496,-0.399501,18,32765
2.92228,-0.0607181,-0.398836,19,32765
2.92196,-0.0709336,-0.399522,19,32765
2.87207,-0.0797352,-0.393491,18,32765
2.92122,-0.091127,-0.400864,19,32765
2.91094,-0.100687,-0.39985,18,32765
2.86099,-0.108743,-0.393702,19,32765
2.87049,-0.118827,-0.395196,19,32765
2.85022,-0.127737,-0.392829,19,32765
2.87939,-0.138808,-0.397415,21,32765
2.80959,-0.144889,-0.388366,20,32765
2.86842,-0.157607,-0.396617,20,32765
2.79863,-0.163192,-0.387218,20,32765
2.76837,-0.170934,-0.383263,20,32765
2.83692,-0.184973,-0.393155,20,32765
2.77694,-0.190657,-0.385131,20,32765
2.76636,-0.199544,-0.383984,20,32765
2.76565,-0.209058,-0.384016,21,32765
2.81427,-0.222492,-0.39097,21,32765
2.76416,-0.22801,-0.38396,21,32765
2.77325,-0.238372,-0.385215,20,32765
2.70331,-0.241687,-0.375927,20,32765
2.76166,-0.256384,-0.384041,22,32765
2.72129,-0.262137,-0.378792,20,32765
2.74009,-0.273507,-0.38148,23,32765
2.71946,-0.281007,-0.378354,21,32765
2.71845,-0.29049,-0.3785,21,32765
2.62889,-0.290073,-0.365624,18,32765
2.68692,-0.305834,-0.373958,21,32765
2.66623,-0.312676,-0.370874,21,32765
2.67498,-0.322913,-0.372274,19,32765
2.68373,-0.333256,-0.373429,21,32765
2.67281,-0.341137,-0.371648,21,32765
2.71094,-0.355564,-0.376832,21,32765
2.64101,-0.355678,-0.366937,21,32765
2.61038,-0.360611,-0.362564,20,32765
2.63862,-0.373751,-0.36621,21,32765
2.62759,-0.381242,-0.364431,20,32765
2.6165,-0.388946,-0.362724,21,32765
2.58578,-0.393628,-0.358346,21,32765
2.61385,-0.407252,-0.361745,19,32765
2.5831,-0.411698,-0.357374,21,32765
2.57195,-0.418857,-0.355743,20,32765
2.5999,-0.432457,-0.359334,20,32765
2.55938,-0.434744,-0.353498,20,32765
2.54816,-0.441937,-0.351674,20,32765
2.55636,-0.452682,-0.352847,20,32765
2.52561,-0.456236,-0.348166,19,32765
2.49485,-0.459515,-0.343771,20,32765
2.51284,-0.471566,-0.345889,20,32765
2.47236,-0.472661,-0.34003,19,32765
2.50969,-0.488638,-0.345059,19,32765
2.49834,-0.49534,-0.343285,20,32765
2.4578,-0.496142,-0.337614,20,32765
2.48527,-0.510583,-0.341117,19,32765
2.49325,-0.521127,-0.342066,21,32765
2.44304,-0.519387,-0.334987,20,32765
2.43161,-0.52563,-0.333274,20,32765
2.4783,-0.544518,-0.339284,19,32765
2.4281,-0.542069,-0.332536,21,32765
2.41663,-0.548048,-0.330947,20,32765
2.38584,-0.549586,-0.32655,21,32765
2.45159,-0.573417,-0.335375,19,32765
2.36289,-0.561185,-0.322995,20,32765
2.38026,-0.573806,-0.325568,22,32765
2.37836,-0.58181,-0.325238,20,32765
2.41493,-0.599431,-0.329962,19,32765
2.39374,-0.602608,-0.327034,21,32765
2.39175,-0.610622,-0.326752,21,32765
2.37054,-0.613607,-0.323949,21,32765
2.33016,-0.611507,-0.31833,20,32765
2.32809,-0.619358,-0.318245,21,32765
2.32602,-0.627208,-0.318024,21,32765
2.36217,-0.645481,-0.323137,22,32765
2.29318,-0.634805,-0.31357,21,32765
2.31019,-0.647766,-0.315957,21,32765
2.31759,-0.658109,-0.317135,21,32765
2.29634,-0.66026,-0.314616,21,32765
2.31321,-0.673491,-0.316842,19,32765
2.29193,-0.675547,-0.314299,21,32765
2.28016,-0.680383,-0.312987,21,32765
2.29692,-0.693728,-0.315135,21,32765
2.29464,-0.701178,-0.315231,20,32765
2.31131,-0.714458,-0.317834,14,32765
2.16703,-0.6775,-0.298436,11,32765
2.23102,-0.705421,-0.307479,14,32765
2.26638,-0.724814,-0.313279,21,32765
2.22629,-0.719979,-0.307983,21,32765
2.23331,-0.730321,-0.30962,21,32765
2.21209,-0.731166,-0.307493,21,32765
3.1083,0.0620297,-0.440732,20,32765
3.10825,0.0515729,-0.442407,19,32765
3.06857,0.0404387,-0.438425,19,32765
3.09821,0.0302687,-0.443965,20,32765
3.04858,0.0194002,-0.438401,21,32765
3.07816,0.00918691,-0.443775,22,32765
3.02855,-0.00113108,-0.437563,20,32765
3.04819,-0.0115896,-0.441398,20,32765
2.98862,-0.0214106,-0.433714,20,32765
3.00821,-0.0317957,-0.437326,19,32765
2.97829,-0.0416283,-0.433775,19,32765
3.00772,-0.0524023,-0.438691,20,32765
2.96785,-0.0621429,-0.433614,20,32765
2.9774,-0.0727902,-0.435758,20,32765
2.92756,-0.0818086,-0.429274,20,32765
2.94696,-0.0924965,-0.432767,21,32765
2.96635,-0.103203,-0.436023,20,32765
2.8769,-0.109959,-0.423597,19,32765
2.96546,-0.123419,-0.436834,21,32765
2.9452,-0.132679,-0.434291,21,32765
2.85572,-0.138361,-0.421664,20,32765
2.87492,-0.148986,-0.425104,20,32765
2.83489,-0.15651,-0.419306,19,32765
2.83432,-0.166048,-0.419482,20,32765
2.84358,-0.176384,-0.421096,20,32765
2.85278,-0.186846,-0.42287,21,32765
2.80275,-0.193282,-0.41575,21,32765
2.79216,-0.202284,-0.414511,21,32765
2.80131,-0.212664,-0.416007,21,32765
2.7611,-0.219214,-0.410242,21,32765
2.77021,-0.229467,-0.411554,21,32765
2.73985,-0.236477,-0.407044,19,32765
2.76854,-0.248534,-0.411752,23,32765
2.76769,-0.257987,-0.411632,22,32765
2.7372,-0.264731,-0.407475,22,32765
2.73628,-0.274216,-0.407418,22,32765
2.72552,-0.282747,-0.405568,21,32765
2.79334,-0.299665,-0.415966,21,32765
2.73338,-0.302778,-0.406622,22,32765
2.72248,-0.311081,-0.405277,23,32765
2.71163,-0.319222,-0.403463,22,32765
2.67124,-0.323693,-0.397646,20,32765
2.72905,-0.340171,-0.406199,23,32765
2.69849,-0.345717,-0.401397,23,32765
2.72674,-0.358981,-0.405491,20,32765
2.69612,-0.364458,-0.40077,23,32765
2.7243,-0.377749,-0.404847,22,32765
2.68387,-0.38157,-0.398569,22,32765
2.61409,-0.380683,-0.38797,21,32765
2.60301,-0.388363,-0.38617,22,32765
2.67992,-0.409453,-0.39747,23,32765
2.64924,-0.414273,-0.392434,20,32765
2.5892,-0.41417,-0.383437,21,32765
2.62688,-0.429352,-0.38894,21,32765
2.57667,-0.430141,-0.381246,21,32765
2.59475,-0.442338,-0.383694,20,32765
2.58351,-0.449678,-0.381768,22,32765
2.54295,-0.451921,-0.37583,21,32765
2.57068,-0.466035,-0.379497,22,32765
2.51073,-0.464087,-0.370506,21,32765
2.54813,-0.479887,-0.375672,21,32765
2.49796,-0.479248,-0.368,20,32765
2.47693,-0.483966,-0.364813,21,32765
2.50443,-0.498302,-0.368665,22,32765
2.50274,-0.506995,-0.368329,21,32765
2.50105,-0.515634,-0.367824,21,32765
2.49931,-0.52423,-0.367437,22,32765
2.49756,-0.532841,-0.367002,22,32765
2.4861,-0.539291,-0.365185,22,32765
2.48434,-0.547754,-0.364553,21,32765
2.46318,-0.551821,-0.36159,22,32765
2.47099,-0.562331,-0.362736,21,32765
2.44984,-0.566295,-0.359464,22,32765
2.43834,-0.572302,-0.357619,22,32765
2.4268,-0.578369,-0.355694,22,32765
2.44408,-0.59124,-0.358449,23,32765
2.44213,-0.599483,-0.358108,21,32765
2.40172,-0.598221,-0.351927,21,32765
2.39976,-0.606219,-0.351625,22,32765
2.39775,-0.614277,-0.35134,23,32765
2.39572,-0.622274,-0.351158,22,32765
2.37451,-0.625306,-0.347966,22,32765
2.35327,-0.628223,-0.345072,22,32765
2.37028,-0.641354,-0.34765,22,32765
2.34902,-0.64411,-0.344723,22,32765
2.35646,-0.65458,-0.345701,23,32765
2.34477,-0.659738,-0.34407,22,32765
2.34259,-0.667511,-0.343939,22,32765
2.3689,-0.683482,-0.348225,22,32765
2.30962,-0.674776,-0.339447,20,32765
2.29786,-0.67964,-0.338113,22,32765
2.30505,-0.690194,-0.3395,21,32765
2.31227,-0.700785,-0.340431,21,32765
2.3289,-0.714113,-0.343316,18,32765
2.27928,-0.707003,-0.336333,13,32765
2.23918,-0.702484,-0.330895,12,32765
2.22746,-0.706742,-0.329417,18,32765
2.29104,-0.735245,-0.33978,22,32765
2.25097,-0.73049,-0.334109,21,32765
2.2297,-0.731678,-0.331643,22,32765
2.23669,-0.741872,-0.33353,21,32765
0,0,-0,0,32765
0,0,-0,0,32765
0,0,-0,0,32765
3.10256,0.0331543,-0.482325,11,32765
3.09276,0.022292,-0.480885,13,32765
3.07301,0.011618,-0.478121,14,32765
3.04341,0.00102551,-0.473327,14,32765
0,-0,-0,0,32765
2.94456,-0.0190905,-0.457843,16,32765
2.96428,-0.0293912,-0.460661,18,32765
3.0037,-0.0400976,-0.466653,17,32765
2.95415,-0.0495995,-0.458945,18,32765
2.92437,-0.0592136,-0.454037,18,32765
2.95381,-0.0700704,-0.458477,18,32765
2.96347,-0.0805596,-0.459704,18,32765
2.8941,-0.0885444,-0.448598,19,32765
2.92342,-0.0993961,-0.453119,20,32765
2.88361,-0.107949,-0.446725,18,32765
2.89311,-0.118241,-0.448141,20,32765
2.92233,-0.129463,-0.452574,20,32765
2.86269,-0.136727,-0.443041,19,32765
2.90175,-0.148641,-0.448728,21,32765
2.89138,-0.158122,-0.446984,20,32765
2.8514,-0.165738,-0.440649,18,32765
2.82123,-0.173677,-0.436012,19,32765
2.86998,-0.186454,-0.44335,20,32765
2.74123,-0.187406,-0.423042,18,32765
2.75051,-0.197448,-0.424065,19,32765
2.72021,-0.204591,-0.419774,19,32765
2.74909,-0.216475,-0.42394,20,32765
2.7976,-0.230197,-0.431349,19,32765
2.69835,-0.231644,-0.415748,17,32765
2.72708,-0.243855,-0.420052,20,32765
2.74593,-0.25521,-0.422905,20,32765
2.69584,-0.259939,-0.415283,21,32765
2.74416,-0.274074,-0.422592,21,32765
2.72358,-0.281454,-0.419277,21,32765
2.73246,-0.291819,-0.420622,20,32765
2.69217,-0.296914,-0.414352,21,32765
2.68133,-0.305144,-0.412649,22,32765
2.69009,-0.315588,-0.414061,22,32765
2.69881,-0.326123,-0.415385,20,32765
2.63884,-0.328207,-0.406061,20,32765
2.66713,-0.341142,-0.410401,22,32765
2.66596,-0.350421,-0.410204,20,32765
2.63534,-0.355609,-0.405769,21,32765
2.66351,-0.36875,-0.410063,21,32765
2.64266,-0.375132,-0.406982,21,32765
2.60226,-0.378461,-0.400767,20,32765
2.61078,-0.388906,-0.401848,21,32765
2.62903,-0.400838,-0.404534,21,32765
2.60809,-0.406906,-0.401508,20,32765
2.57738,-0.411405,-0.39683,21,32765
2.60523,-0.425253,-0.401051,21,32765
2.58425,-0.431107,-0.397835,21,32765
2.55357,-0.435093,-0.392889,19,32765
2.53261,-0.440505,-0.389669,20,32765
2.57979,-0.457814,-0.396956,21,32765
2.57828,-0.466706,-0.396439,19,32765
2.53779,-0.468331,-0.390397,21,32765
2.49735,-0.469584,-0.384224,20,32765
2.52499,-0.483642,-0.387994,20,32765
2.50393,-0.488436,-0.384937,19,32765
2.48289,-0.493144,-0.381691,21,32765
2.52006,-0.509544,-0.386844,20,32765
2.47957,-0.510253,-0.380742,19,32765
2.45849,-0.514707,-0.377515,20,32765
2.4568,-0.523121,-0.376965,20,32765
2.48405,-0.537824,-0.380999,20,32765
2.48228,-0.546258,-0.380495,18,32765
2.47086,-0.552508,-0.378387,21,32765
2.44975,-0.556531,-0.374992,20,32765
2.40938,-0.555904,-0.368589,21,32765
2.37865,-0.557398,-0.363639,19,32765
2.38645,-0.567696,-0.36463,21,32765
2.39421,-0.578107,-0.365604,21,32765
2.40193,-0.588581,-0.366487,22,32765
2.42882,-0.603822,-0.370322,18,32765
2.37893,-0.599959,-0.362103,21,32765
2.37697,-0.607973,-0.361641,21,32765
2.3846,-0.618427,-0.362409,21,32765
2.35395,-0.618807,-0.357224,21,32765
2.34245,-0.624114,-0.35483,21,32765
2.34999,-0.634549,-0.355694,20,32765
2.33842,-0.639745,-0.353596,20,32765
2.34593,-0.650162,-0.354232,21,32765
2.33434,-0.655268,-0.352085,21,32765
2.33229,-0.66305,-0.35111,21,32765
2.33021,-0.670831,-0.350142,21,32765
2.33759,-0.681363,-0.35071,18,32765
2.30701,-0.680709,-0.345316,22,32765
2.28594,-0.682641,-0.34141,21,32765
2.27431,-0.687278,-0.339342,21,32765
2.31009,-0.706306,-0.343851,20,32765
2.34579,-0.725457,-0.348398,13,32765
2.14518,-0.670956,-0.317704,11,32765
2.17148,-0.686878,-0.320717,13,32765
2.25435,-0.721065,-0.331804,21,32765
2.23332,-0.722275,-0.327899,20,32765
2.2594,-0.738749,-0.330713,21,32765
2.2291,-0.736616,-0.324686,21,32765
0,0,-0,11,32765
0,0,-0,0,32765
0,0,-0,0,32765
0,0,-0,0,32765
3.25581,0.023167,-0.53774,11,32765
3.11769,0.0114671,-0.51524,12,32765
0,0,-0,0,32765
0,-0,-0,0,32765
0,-0,-0,0,32765
2.99926,-0.0301689,-0.495117,12,32765
3.01889,-0.0407651,-0.498222,11,32765
3.12726,-0.0530197,-0.516098,12,32765
3.06792,-0.062656,-0.50601,13,32765
2.93948,-0.0702745,-0.484697,13,32765
2.96886,-0.0812862,-0.489269,15,32765
2.95876,-0.0911312,-0.487255,17,32765
2.97817,-0.101901,-0.490429,19,32765
2.93841,-0.110665,-0.483657,19,32765
2.94789,-0.121177,-0.485163,18,32765
2.95734,-0.131744,-0.486627,21,32765
2.94707,-0.141515,-0.484635,20,32765
2.91706,-0.150206,-0.479345,20,32765
2.91656,-0.160311,-0.479125,20,32765
2.87663,-0.168035,-0.472414,18,32765
2.90559,-0.179739,-0.477202,20,32765
2.87547,-0.1877,-0.472064,20,32765
2.79614,-0.192054,-0.458617,20,32765
2.80539,-0.202313,-0.459723,20,32765
2.80464,-0.211896,-0.459998,20,32765
2.83346,-0.224114,-0.464431,19,32765
2.81301,-0.232484,-0.461015,21,32765
2.84173,-0.245013,-0.465415,17,32765
2.76225,-0.248059,-0.452279,20,32765
2.78104,-0.259571,-0.455315,20,32765
2.76049,-0.267291,-0.452052,21,32765
2.74978,-0.275779,-0.450173,21,32765
2.72923,-0.283202,-0.446669,21,32765
2.72827,-0.292564,-0.4465,19,32765
2.70765,-0.299835,-0.443067,21,32765
2.73604,-0.312627,-0.447687,22,32765
2.74476,-0.323291,-0.449189,19,32765
2.72405,-0.330482,-0.44579,22,32765
2.70333,-0.337557,-0.442314,22,32765
2.72175,-0.349496,-0.445325,21,32765
2.69119,-0.355121,-0.440319,21,32765
2.68994,-0.364389,-0.440409,22,32765
2.63982,-0.366885,-0.43217,22,32765
2.68741,-0.382954,-0.440105,21,32765
2.61774,-0.382173,-0.428714,21,32765
2.63599,-0.394162,-0.431482,22,32765
2.62492,-0.401735,-0.429559,21,32765
2.62351,-0.410863,-0.429539,19,32765
2.62207,-0.42012,-0.429368,22,32765
2.59139,-0.424587,-0.42429,22,32765
2.57045,-0.430413,-0.420888,21,32765
2.62739,-0.449346,-0.429997,22,32765
2.58696,-0.451636,-0.423399,21,32765
2.58543,-0.46052,-0.423191,23,32765
2.56448,-0.465929,-0.419492,20,32765
2.53375,-0.469318,-0.414665,22,32765
2.58069,-0.487046,-0.422411,21,32765
2.54035,-0.488377,-0.415338,23,32765
2.52899,-0.495139,-0.413677,20,32765
2.50796,-0.499952,-0.41024,22,32765
2.49667,-0.506661,-0.407852,23,32765
2.48526,-0.513292,-0.406118,22,32765
2.52217,-0.529967,-0.412178,22,32765
2.50111,-0.534497,-0.408457,22,32765
2.51863,-0.547295,-0.411185,21,32765
2.49755,-0.551612,-0.407525,20,32765
2.47649,-0.555774,-0.403747,23,32765
2.48428,-0.566419,-0.404871,23,32765
2.46319,-0.570372,-0.401222,22,32765
2.44207,-0.574325,-0.397544,22,32765
2.45941,-0.58716,-0.400176,23,32765
2.47668,-0.600175,-0.402787,23,32765
2.44595,-0.601524,-0.397505,18,32765
2.38649,-0.59543,-0.387597,20,32765
2.41333,-0.610817,-0.39135,22,32765
2.42089,-0.621428,-0.392431,22,32765
2.4189,-0.629571,-0.391728,22,32765
2.41693,-0.637636,-0.390885,22,32765
2.42448,-0.648279,-0.391453,22,32765
2.39377,-0.648681,-0.386232,22,32765
2.38217,-0.654043,-0.384027,22,32765
2.38011,-0.661987,-0.383206,22,32765
2.35899,-0.664546,-0.379423,22,32765
2.35691,-0.672435,-0.378435,22,32765
2.33581,-0.674836,-0.374411,21,32765
2.31471,-0.677092,-0.370511,20,32765
2.34105,-0.69321,-0.37393,22,32765
2.32946,-0.698106,-0.37133,22,32765
2.30833,-0.700035,-0.367648,22,32765
