x, y, z, intensity, ring
8.16746,-2.42011,1.10622,36,32765
8.1121,-2.43241,1.09949,36,32765
8.08539,-2.45254,1.09635,35,32765
8.05879,-2.47234,1.09247,36,32765
8.01335,-2.48567,1.08591,36,32765
7.96786,-2.49859,1.08009,36,32765
7.92233,-2.51169,1.07353,33,32765
7.87677,-2.52443,1.06743,22,32765
7.78416,-2.52169,1.05381,19,32765
7.85199,-2.5703,1.06245,35,32765
7.83531,-2.59079,1.05739,37,32765
12.4887,0.127753,1.50749,12,32765
12.6375,0.0862773,1.52973,12,32765
12.6074,0.044237,1.53004,12,32765
12.6369,0.00384297,1.53649,12,32765
12.6366,-0.0360463,1.53857,12,32765
12.676,-0.0777312,1.54483,13,32765
12.6356,-0.119359,1.54267,13,32765
12.5456,-0.160207,1.53359,11,32765
12.5448,-0.201582,1.53495,11,32765
11.4026,-0.220471,1.39686,23,32765
11.2429,-0.254319,1.37893,20,32765
11.2022,-0.289877,1.3749,20,32765
12.1536,-0.354627,1.49239,12,32765
12.0034,-0.390246,1.47515,12,32765
11.5357,-0.413472,1.41913,21,32765
11.5144,-0.451566,1.41675,24,32765
11.2747,-0.479616,1.38862,25,32765
11.5803,-0.530453,1.42758,16,32765
0,-0,0,0,32765
0,-0,0,0,32765
10.3157,-0.573809,1.27463,12,32765
10.3237,-0.608285,1.276,16,32765
10.3513,-0.644042,1.28,12,32765
10.2996,-0.674744,1.2739,11,32765
0,-0,0,0,32765
11.2352,-0.810693,1.39141,11,32765
11.1335,-0.840881,1.37885,11,32765
11.1503,-0.880006,1.38202,12,32765
11.0781,-0.911243,1.37281,12,32765
11.0552,-0.945945,1.37133,12,32765
10.9531,-0.973215,1.35998,11,32765
10.8017,-0.995076,1.34076,13,32765
10.7687,-1.02801,1.33752,32,32765
10.785,-1.06603,1.33948,24,32765
10.7121,-1.0954,1.33152,17,32765
10.6195,-1.12188,1.32071,23,32765
10.5469,-1.14931,1.3111,25,32765
10.5232,-1.18176,1.3094,25,32765
10.47,-1.21039,1.30312,26,32765
10.3873,-1.23546,1.29178,25,32765
10.3633,-1.26755,1.29072,25,32765
10.3294,-1.29847,1.28709,25,32765
10.2464,-1.32258,1.27715,26,32765
10.2025,-1.3515,1.27292,27,32765
10.139,-1.37712,1.2652,26,32765
10.0755,-1.40246,1.25721,26,32765
10.0413,-1.43132,1.25352,27,32765
9.99718,-1.45899,1.24903,27,32765
9.93329,-1.48367,1.2421,26,32765
9.88901,-1.51098,1.2373,27,32765
9.82509,-1.53498,1.22954,26,32765
9.81019,-1.56616,1.22776,16,32765
9.73646,-1.58733,1.21871,23,32765
9.6821,-1.61126,1.21367,28,32765
9.61797,-1.63346,1.20641,28,32765
9.57339,-1.65877,1.20119,29,32765
9.54814,-1.68748,1.19935,28,32765
9.50344,-1.71212,1.19424,27,32765
9.4783,-1.73961,1.19152,27,32765
9.41396,-1.75951,1.18492,27,32765
9.35937,-1.78097,1.17913,28,32765
9.29494,-1.80043,1.1722,27,32765
9.25,-1.8235,1.16723,26,32765
9.22434,-1.85011,1.16576,28,32765
9.17911,-1.87319,1.16133,27,32765
9.15323,-1.89997,1.1597,28,32765
9.08847,-1.91801,1.1535,27,32765
9.05312,-1.9413,1.14948,27,32765
9.00787,-1.96222,1.14548,28,32765
8.9431,-1.97903,1.13899,27,32765
8.89756,-2.00017,1.13526,27,32765
8.85206,-2.021,1.13098,25,32765
8.85472,-2.05277,1.13391,16,32765
8.78026,-2.06565,1.12613,25,32765
8.74446,-2.08719,1.12322,28,32765
8.68923,-2.10372,1.11883,27,32765
8.66295,-2.12727,1.11722,27,32765
8.61738,-2.14565,1.1133,27,32765
8.57167,-2.16378,1.1102,27,32765
8.54523,-2.18669,1.10884,27,32765
8.50898,-2.20701,1.1072,28,32765
8.4825,-2.22927,1.10601,28,32765
8.43662,-2.24673,1.10255,28,32765
8.39074,-2.26358,1.09969,27,32765
8.35443,-2.28299,1.09746,28,32765
8.30835,-2.29979,1.09468,28,32765
8.27202,-2.31855,1.09252,28,32765
8.24516,-2.33993,1.09167,28,32765
8.19907,-2.35546,1.08954,28,32765
8.18146,-2.37927,1.09126,29,32765
8.13543,-2.39454,1.08789,28,32765
8.10832,-2.41503,1.08795,28,32765
8.08125,-2.43516,1.08791,28,32765
8.03523,-2.44909,1.08536,28,32765
7.97953,-2.46003,1.08248,29,32765
7.95241,-2.4795,1.08225,28,32765
7.9442,-2.50462,1.08466,25,32765
7.89805,-2.51719,1.08363,16,32765
7.8143,-2.51719,1.07649,15,32765
7.82457,-2.54799,1.08343,29,32765
7.78746,-2.56412,1.08338,29,32765
12.562,0.129793,1.39624,13,32765
12.542,0.0868423,1.39827,13,32765
12.6014,0.0453679,1.40883,13,32765
12.6807,0.00494651,1.42055,13,32765
12.6605,-0.0350943,1.42041,13,32765
12.6204,-0.076445,1.41737,14,32765
12.6993,-0.11908,1.42899,16,32765
12.6191,-0.160343,1.42189,13,32765
12.3302,-0.19742,1.39076,12,32765
11.4153,-0.220118,1.28921,28,32765
11.3647,-0.256543,1.28514,28,32765
11.2644,-0.291023,1.27475,32,32765
12.0877,-0.352276,1.36863,15,32765
12.0366,-0.39097,1.36405,22,32765
11.767,-0.421483,1.33496,28,32765
11.4875,-0.450306,1.30348,34,32765
11.327,-0.481702,1.28661,32,32765
11.5535,-0.529151,1.31365,28,32765
11.7104,-0.574766,1.33291,15,32765
10.3688,-0.542597,1.18119,11,32765
10.2777,-0.571798,1.17146,12,32765
10.3253,-0.608547,1.17726,19,32765
10.3331,-0.643137,1.17871,13,32765
10.5193,-0.689429,1.20023,11,32765
10.5863,-0.728686,1.2091,11,32765
11.1883,-0.807748,1.27829,12,32765
11.2252,-0.848314,1.28252,12,32765
11.1627,-0.88156,1.27645,12,32765
11.0905,-0.912892,1.2679,12,32765
11.0081,-0.94261,1.2598,13,32765
10.9158,-0.970652,1.25052,12,32765
10.8039,-0.996077,1.23724,13,32765
10.7906,-1.03096,1.23655,25,32765
10.7871,-1.06717,1.23605,33,32765
10.7043,-1.09559,1.22762,27,32765
10.7104,-1.13253,1.22899,36,32765
10.6178,-1.15815,1.21777,34,32765
10.5744,-1.18867,1.21399,33,32765
10.5112,-1.21638,1.20705,33,32765
10.4481,-1.24397,1.19872,34,32765
10.3945,-1.2727,1.19445,34,32765
10.3409,-1.30129,1.18883,34,32765
10.2971,-1.33058,1.18418,34,32765
10.2433,-1.35841,1.17919,34,32765
10.1994,-1.38688,1.1743,35,32765
10.1357,-1.41246,1.16687,35,32765
10.0819,-1.43876,1.1612,35,32765
10.0376,-1.46661,1.15709,34,32765
9.99331,-1.4944,1.15299,35,32765
9.94894,-1.52196,1.14856,35,32765
9.8751,-1.54466,1.14023,35,32765
9.80127,-1.56665,1.13174,28,32765
9.73726,-1.58943,1.12448,27,32765
9.72203,-1.61993,1.12444,35,32765
9.66759,-1.64396,1.11888,37,32765
9.6425,-1.67287,1.11631,36,32765
9.59761,-1.6984,1.11239,35,32765
9.55282,-1.72325,1.10766,35,32765
9.49829,-1.74556,1.10173,35,32765
9.4534,-1.76921,1.09796,35,32765
9.39872,-1.79084,1.09264,35,32765
9.36345,-1.81613,1.08967,35,32765
9.29891,-1.83561,1.08281,34,32765
9.28293,-1.86438,1.08268,34,32765
9.2376,-1.88769,1.07863,34,32765
9.17274,-1.90663,1.07264,35,32765
9.13705,-1.93092,1.07042,35,32765
9.07247,-1.94815,1.06326,35,32765
9.02716,-1.96916,1.05964,35,32765
8.9817,-1.99036,1.05599,34,32765
8.94578,-2.01384,1.05379,34,32765
8.90986,-2.03707,1.05103,33,32765
8.84474,-2.05337,1.04588,17,32765
8.79922,-2.07307,1.04219,30,32765
8.802,-2.10395,1.04414,34,32765
8.73701,-2.11834,1.03909,33,32765
8.71066,-2.14208,1.03768,35,32765
8.65536,-2.15824,1.03298,35,32765
8.62884,-2.18139,1.03257,35,32765
8.60232,-2.20453,1.03141,35,32765
8.56599,-2.22506,1.03007,34,32765
8.52981,-2.24501,1.02791,35,32765
8.46466,-2.25753,1.02252,35,32765
8.44747,-2.28227,1.02353,36,32765
8.37274,-2.29141,1.01694,34,32765
8.35533,-2.31625,1.01804,35,32765
8.30935,-2.33251,1.01501,35,32765
8.28242,-2.35404,1.01435,35,32765
8.2458,-2.37246,1.01378,35,32765
8.21861,-2.39369,1.01444,35,32765
8.19154,-2.41471,1.01381,35,32765
8.1263,-2.42407,1.00935,35,32765
8.09918,-2.44429,1.00951,35,32765
8.0626,-2.46119,1.00852,36,32765
8.01632,-2.47515,1.00732,35,32765
7.98914,-2.49478,1.00729,35,32765
7.96196,-2.51409,1.00732,35,32765
7.89684,-2.52068,1.00427,23,32765
7.79413,-2.51457,0.995462,16,32765
7.86108,-2.56384,1.00948,33,32765
7.8239,-2.58011,1.00973,35,32765
12.5176,0.123356,1.4331,12,32765
12.5585,0.0810995,1.43079,12,32765
12.619,0.0385243,1.43198,12,32765
12.5997,-0.00301856,1.42514,12,32765
12.6,-0.0437957,1.42106,12,32765
12.6999,-0.0852358,1.42601,13,32765
12.6801,-0.12693,1.42015,13,32765
12.6005,-0.167557,1.40791,12,32765
12.1331,-0.200973,1.35305,12,32765
11.4174,-0.226588,1.26915,23,32765
11.2975,-0.26144,1.25469,20,32765
11.2275,-0.296741,1.24332,21,32765
12.0613,-0.358754,1.33277,17,32765
12.0107,-0.397246,1.32428,22,32765
11.7314,-0.427312,1.29179,25,32765
11.4718,-0.456232,1.26142,23,32765
11.2717,-0.485905,1.23886,26,32765
11.5881,-0.537438,1.27083,20,32765
11.656,-0.578588,1.27705,12,32765
10.4532,-0.552612,1.14257,11,32765
10.372,-0.582035,1.13337,12,32765
10.3802,-0.616466,1.13302,15,32765
10.3684,-0.649776,1.13012,12,32765
10.2771,-0.677715,1.11907,11,32765
10.751,-0.744594,1.16967,11,32765
11.254,-0.817127,1.22543,12,32765
11.2513,-0.85457,1.22462,11,32765
11.1693,-0.885504,1.21448,12,32765
11.0375,-0.911608,1.2005,12,32765
11.0345,-0.948224,1.19994,12,32765
10.9028,-0.973186,1.1838,11,32765
10.8105,-1.00104,1.17327,13,32765
10.7973,-1.03603,1.17136,28,32765
10.784,-1.07027,1.17069,33,32765
10.7013,-1.09778,1.16148,19,32765
10.6285,-1.12562,1.15374,25,32765
10.5853,-1.15633,1.14848,26,32765
10.5321,-1.18592,1.14237,26,32765
10.5082,-1.21835,1.14168,25,32765
10.4056,-1.24113,1.12931,26,32765
10.3717,-1.27169,1.12755,25,32765
10.3082,-1.29812,1.12149,26,32765
10.2644,-1.32713,1.11745,25,32765
10.2206,-1.35584,1.11294,26,32765
10.1863,-1.38602,1.11086,26,32765
10.093,-1.40749,1.10085,26,32765
10.0488,-1.43559,1.09778,26,32765
10.0243,-1.46644,1.09511,26,32765
9.92082,-1.48549,1.08569,25,32765
9.87644,-1.51271,1.08176,26,32765
9.86149,-1.5442,1.08077,26,32765
9.77763,-1.56496,1.07258,15,32765
9.74285,-1.59248,1.07044,26,32765
9.66876,-1.61331,1.06392,27,32765
9.63391,-1.64033,1.06113,29,32765
9.58933,-1.66518,1.05639,28,32765
9.54453,-1.69043,1.0521,27,32765
9.49964,-1.71489,1.04885,26,32765
9.47424,-1.74291,1.04744,27,32765
9.40975,-1.76334,1.04125,28,32765
9.35491,-1.78516,1.03692,27,32765
9.31003,-1.80835,1.03188,26,32765
9.24536,-1.82758,1.02647,27,32765
9.21002,-1.85214,1.02349,27,32765
9.18439,-1.87881,1.02076,27,32765
9.13908,-1.90109,1.01745,27,32765
9.09371,-1.92349,1.01347,27,32765
9.03857,-1.94324,1.00899,27,32765
9.00298,-1.96676,1.00558,27,32765
8.93805,-1.98382,0.999893,27,32765
8.90234,-2.007,0.996331,27,32765
8.85675,-2.02784,0.992686,19,32765
8.83066,-2.05283,0.989828,18,32765
8.79474,-2.07489,0.987692,26,32765
8.72994,-2.08964,0.98108,26,32765
8.70381,-2.11333,0.978569,28,32765
8.63886,-2.12725,0.973319,27,32765
8.61256,-2.15061,0.971368,27,32765
8.56694,-2.16891,0.96717,27,32765
8.55032,-2.1942,0.965387,28,32765
8.50463,-2.21204,0.961088,27,32765
8.47815,-2.23455,0.959215,27,32765
8.41329,-2.24652,0.952478,28,32765
8.37718,-2.26595,0.949312,27,32765
8.35056,-2.28817,0.946871,28,32765
8.32386,-2.31041,0.944214,26,32765
8.278,-2.32693,0.939436,27,32765
8.24188,-2.34527,0.935725,28,32765
8.19601,-2.36098,0.93141,27,32765
8.16949,-2.38153,0.928078,28,32765
8.14273,-2.40204,0.926099,28,32765
8.11604,-2.42234,0.923335,27,32765
8.08947,-2.44209,0.920127,27,32765
8.02496,-2.44955,0.912855,27,32765
8.00781,-2.47178,0.911158,27,32765
7.95247,-2.48255,0.905339,27,32765
7.92563,-2.50231,0.901346,21,32765
7.8042,-2.49101,0.88707,13,32765
7.84421,-2.52965,0.890742,27,32765
7.83675,-2.55323,0.889092,29,32765
7.80077,-2.56803,0.883594,30,32765
12.6101,0.1255,1.3233,13,32765
12.6709,0.0829816,1.32264,13,32765
12.6021,0.0395421,1.30978,13,32765
12.6523,-0.00203539,1.31034,14,32765
12.6925,-0.0431946,1.31035,13,32765
12.673,-0.0842126,1.30206,14,32765
12.683,-0.126193,1.29945,16,32765
12.5237,-0.165856,1.27983,14,32765
12.3045,-0.203218,1.25475,13,32765
11.4786,-0.227321,1.16642,27,32765
11.3984,-0.263364,1.15712,28,32765
11.2785,-0.297754,1.14134,34,32765
12.0733,-0.358827,1.21888,20,32765
12.0028,-0.396775,1.20886,43,32765
11.8723,-0.432312,1.194,42,32765
11.5429,-0.459,1.15905,38,32765
11.3326,-0.488542,1.13736,29,32765
11.5002,-0.533444,1.15139,33,32765
11.7072,-0.581288,1.17088,16,32765
10.3443,-0.547053,1.03187,11,32765
10.3524,-0.581198,1.03235,12,32765
10.3606,-0.615627,1.03191,19,32765
10.3587,-0.649557,1.03009,14,32765
10.3765,-0.684725,1.03074,11,32765
10.5828,-0.733473,1.05022,11,32765
11.3742,-0.826488,1.12977,12,32765
11.2425,-0.854594,1.11615,12,32765
11.1306,-0.883194,1.10382,12,32765
11.1474,-0.921516,1.10581,12,32765
11.0651,-0.951741,1.09738,13,32765
10.9729,-0.980392,1.08638,12,32765
10.8408,-1.00485,1.07277,13,32765
10.8177,-1.03906,1.06997,27,32765
10.8637,-1.07933,1.07527,33,32765
10.7512,-1.10411,1.06387,22,32765
10.6585,-1.13006,1.05483,31,32765
10.6251,-1.16201,1.05092,33,32765
10.6114,-1.19624,1.0492,33,32765
10.5479,-1.2244,1.04479,33,32765
10.4847,-1.25207,1.03726,33,32765
10.4211,-1.2793,1.03286,34,32765
10.3576,-1.30595,1.02736,33,32765
10.3137,-1.33516,1.0237,34,32765
10.25,-1.36147,1.01761,33,32765
10.2354,-1.39449,1.01777,34,32765
10.1421,-1.41615,1.0086,34,32765
10.0977,-1.44447,1.00592,34,32765
10.0535,-1.47266,1.00147,34,32765
9.97942,-1.49626,0.995946,34,32765
9.93496,-1.52373,0.992391,33,32765
9.9003,-1.55238,0.989531,32,32765
9.81633,-1.57331,0.9821,17,32765
9.75203,-1.59618,0.977286,34,32765
9.72694,-1.62527,0.976352,37,32765
9.6724,-1.64919,0.971876,36,32765
9.64735,-1.67762,0.969485,36,32765
9.60245,-1.70311,0.965569,34,32765
9.52811,-1.72249,0.95975,35,32765
9.48309,-1.74704,0.95655,34,32765
9.44786,-1.77305,0.953889,35,32765
9.40272,-1.7969,0.95102,35,32765
9.33821,-1.81649,0.944385,35,32765
9.32226,-1.8455,0.944486,35,32765
9.27707,-1.86838,0.940804,34,32765
9.23185,-1.89134,0.936282,35,32765
9.15724,-1.90772,0.930382,34,32765
9.13127,-1.93434,0.928754,34,32765
9.06632,-1.95216,0.923765,35,32765
9.02093,-1.97368,0.919643,34,32765
8.98507,-1.9973,0.917498,35,32765
8.95898,-2.02287,0.915209,34,32765
8.90359,-2.0417,0.910953,26,32765
8.82896,-2.05561,0.903324,22,32765
8.82205,-2.08457,0.90445,35,32765
8.78618,-2.10639,0.901379,35,32765
8.7213,-2.1209,0.895087,35,32765
8.68525,-2.14204,0.893385,35,32765
8.64922,-2.16318,0.890631,35,32765
8.62281,-2.18652,0.888799,35,32765
8.59646,-2.20955,0.886114,35,32765
8.55068,-2.22757,0.882193,35,32765
8.48563,-2.24011,0.876535,35,32765
8.46875,-2.26498,0.875331,35,32765
8.43254,-2.28462,0.87245,37,32765
8.37703,-2.29916,0.867216,35,32765
8.35026,-2.32152,0.864747,36,32765
8.3139,-2.34085,0.861337,36,32765
8.28725,-2.36206,0.8589,36,32765
8.24129,-2.37794,0.854962,35,32765
8.21467,-2.39867,0.851814,35,32765
8.1592,-2.4109,0.847053,36,32765
8.12291,-2.42844,0.843488,35,32765
8.1058,-2.45112,0.841458,35,32765
8.06023,-2.46445,0.836725,35,32765
8.01448,-2.47801,0.83216,35,32765
8.00655,-2.50366,0.831745,35,32765
7.95113,-2.51463,0.824976,24,32765
7.82006,-2.50034,0.810839,16,32765
7.89792,-2.55134,0.817964,34,32765
7.86199,-2.56586,0.81337,36,32765
7.84482,-2.587,0.8101,37,32765
12.5883,0.148711,1.13257,12,32765
12.5884,0.106302,1.13636,12,32765
12.6482,0.0649575,1.14429,12,32765
12.5485,0.0225978,1.13798,12,32765
12.6278,-0.0190707,1.14881,12,32765
12.508,-0.0607698,1.14009,14,32765
12.3881,-0.100883,1.13022,15,32765
12.5868,-0.142952,1.14991,11,32765
11.4908,-0.168279,1.05145,15,32765
11.4203,-0.204934,1.04645,23,32765
11.2401,-0.239442,1.03244,25,32765
11.5579,-0.284814,1.06146,12,32765
11.9847,-0.334896,1.10272,26,32765
11.874,-0.371196,1.09336,25,32765
11.5344,-0.398,1.06215,26,32765
11.473,-0.433701,1.05927,17,32765
11.3621,-0.467051,1.04912,28,32765
11.6589,-0.518393,1.07681,19,32765
0,-0,0,0,32765
10.3424,-0.529624,0.956496,11,32765
10.3504,-0.564397,0.958531,14,32765
10.3485,-0.598392,0.958504,14,32765
10.5055,-0.641607,0.973094,11,32765
0,-0,0,0,32765
11.1767,-0.755272,1.03562,11,32765
11.2733,-0.79987,1.04647,11,32765
11.2704,-0.837661,1.04782,12,32765
11.2279,-0.871984,1.04421,11,32765
11.1157,-0.900722,1.0347,12,32765
11.0729,-0.934133,1.03109,12,32765
10.9607,-0.961041,1.02061,11,32765
10.8187,-0.984983,1.00711,15,32765
10.8251,-1.02147,1.00972,27,32765
10.792,-1.0544,1.00624,16,32765
10.7289,-1.08393,1.00192,22,32765
10.646,-1.11157,0.994525,25,32765
10.5829,-1.14091,0.988294,26,32765
10.5296,-1.17112,0.982906,26,32765
10.486,-1.2019,0.979495,26,32765
10.4028,-1.22738,0.972837,26,32765
10.369,-1.25808,0.969901,26,32765
10.3254,-1.28731,0.965073,25,32765
10.2619,-1.31347,0.959309,25,32765
10.1884,-1.33836,0.952783,26,32765
10.174,-1.3708,0.952222,26,32765
10.1101,-1.39654,0.94722,26,32765
10.0463,-1.42177,0.941665,26,32765
10.002,-1.44968,0.938561,25,32765
9.94789,-1.47597,0.933267,26,32765
9.90343,-1.50307,0.930872,26,32765
9.84907,-1.52888,0.926554,22,32765
9.74546,-1.54631,0.918146,16,32765
9.73048,-1.57716,0.916682,27,32765
9.67607,-1.60142,0.91188,29,32765
9.63153,-1.62627,0.908288,29,32765
9.59651,-1.65376,0.905823,28,32765
9.57121,-1.68278,0.904313,29,32765
9.51649,-1.70581,0.900384,27,32765
9.45196,-1.72662,0.895362,27,32765
9.41692,-1.75164,0.893157,27,32765
9.36217,-1.77341,0.888633,28,32765
9.31707,-1.7968,0.885769,27,32765
9.27202,-1.8197,0.882337,27,32765
9.25605,-1.84875,0.882065,28,32765
9.18156,-1.86522,0.876354,26,32765
9.15566,-1.89186,0.875694,27,32765
9.09083,-1.91021,0.869979,27,32765
9.05513,-1.93402,0.868484,27,32765
8.99996,-1.95329,0.864778,27,32765
8.94484,-1.97188,0.86109,27,32765
8.90907,-1.99497,0.858797,27,32765
8.88292,-2.02002,0.857766,19,32765
8.79853,-2.03091,0.852181,20,32765
8.78204,-2.05754,0.852035,28,32765
8.77516,-2.08599,0.853754,28,32765
8.71978,-2.10325,0.849676,28,32765
8.674,-2.12246,0.847188,28,32765
8.62829,-2.14109,0.844572,27,32765
8.60178,-2.16449,0.844055,28,32765
8.54628,-2.18004,0.841522,28,32765
8.53889,-2.20804,0.843494,28,32765
8.49296,-2.22601,0.840785,28,32765
8.46615,-2.24865,0.841363,28,32765
8.4202,-2.26579,0.839106,28,32765
8.37436,-2.28217,0.836741,28,32765
8.32826,-2.29872,0.835722,28,32765
8.30149,-2.32027,0.834957,28,32765
8.23619,-2.33075,0.832347,29,32765
8.22825,-2.35787,0.834514,29,32765
8.19171,-2.37585,0.834325,29,32765
8.16467,-2.39671,0.834494,28,32765
8.1184,-2.41204,0.832929,29,32765
8.07226,-2.42657,0.831396,29,32765
8.04511,-2.44647,0.832752,28,32765
8.02755,-2.46875,0.835045,28,32765
7.97187,-2.47961,0.832408,27,32765
7.94456,-2.49909,0.833879,21,32765
7.8699,-2.50306,0.830303,13,32765
7.86165,-2.52764,0.833998,28,32765
7.84391,-2.5488,0.837102,29,32765
7.80703,-2.56394,0.839098,30,32765
12.3891,0.147402,0.996927,12,32765
12.3892,0.105589,1.00066,11,32765
12.4591,0.0648842,1.00879,11,32765
12.16,0.0226999,0.987194,11,32765
11.9404,-0.0173173,0.972799,12,32765
12.2491,-0.0588539,1.00008,16,32765
12.4282,-0.100617,1.01574,18,32765
12.5472,-0.14198,1.02703,15,32765
11.6098,-0.169609,0.951987,16,32765
11.4596,-0.205302,0.941108,36,32765
11.2892,-0.240225,0.929617,34,32765
11.388,-0.280436,0.937582,21,32765
12.0145,-0.335598,0.991218,22,32765
11.9336,-0.373003,0.985356,40,32765
11.5538,-0.398688,0.954057,30,32765
11.5323,-0.436027,0.955041,26,32765
11.3416,-0.466364,0.939323,36,32765
11.5391,-0.513297,0.955949,23,32765
10.492,-0.502261,0.870146,11,32765
10.4007,-0.532949,0.862891,11,32765
10.339,-0.564179,0.859052,15,32765
10.3769,-0.600504,0.862332,18,32765
10.4048,-0.635986,0.864672,11,32765
10.3529,-0.666573,0.860947,11,32765
10.8479,-0.733739,0.901802,11,32765
11.2627,-0.799905,0.938156,12,32765
11.2201,-0.834775,0.936189,13,32765
11.1477,-0.866678,0.930465,12,32765
11.1646,-0.905675,0.932775,12,32765
11.082,-0.935956,0.926226,13,32765
10.9896,-0.964688,0.918432,12,32765
10.8176,-0.986056,0.903765,17,32765
10.8836,-1.02823,0.911264,34,32765
10.8405,-1.06044,0.907234,24,32765
10.7377,-1.08618,0.900156,27,32765
10.7142,-1.12012,0.898503,34,32765
10.6411,-1.14867,0.892002,33,32765
10.5976,-1.18023,0.887911,34,32765
10.5638,-1.21244,0.885709,33,32765
10.4706,-1.23706,0.878978,33,32765
10.4368,-1.26804,0.876324,34,32765
10.3535,-1.2926,0.868548,33,32765
10.3196,-1.32271,0.865837,34,32765
10.246,-1.34784,0.859968,33,32765
10.2316,-1.38052,0.859505,34,32765
10.1479,-1.40377,0.853411,33,32765
10.0938,-1.43058,0.849251,34,32765
10.0495,-1.45869,0.846527,33,32765
9.99527,-1.48519,0.841701,33,32765
9.95074,-1.5125,0.839689,34,32765
9.92585,-1.54311,0.838339,30,32765
9.81227,-1.55926,0.830046,17,32765
9.78739,-1.58879,0.827842,34,32765
9.74272,-1.61491,0.824342,37,32765
9.68826,-1.63837,0.820296,37,32765
9.66299,-1.66779,0.818949,37,32765
9.61799,-1.69363,0.815966,37,32765
9.54358,-1.71334,0.810845,35,32765
9.48877,-1.73607,0.807223,35,32765
9.44388,-1.75943,0.80447,35,32765
9.41842,-1.7869,0.802922,35,32765
9.36346,-1.80863,0.799605,34,32765
9.33788,-1.83556,0.798223,35,32765
9.29254,-1.85902,0.795542,35,32765
9.24725,-1.88159,0.793006,35,32765
9.18225,-1.90043,0.78919,35,32765
9.14658,-1.92506,0.786556,35,32765
9.10106,-1.94701,0.784512,35,32765
9.04581,-1.96647,0.781284,35,32765
9.00034,-1.98738,0.778913,34,32765
8.95476,-2.00852,0.776065,35,32765
8.8994,-2.02713,0.772698,23,32765
8.82464,-2.04033,0.768715,22,32765
8.8372,-2.07392,0.771207,35,32765
8.78181,-2.09106,0.768697,35,32765
8.74574,-2.11306,0.76679,36,32765
8.6999,-2.13239,0.764684,35,32765
8.66379,-2.15353,0.763301,34,32765
8.63723,-2.17709,0.76298,35,32765
8.60096,-2.19771,0.762639,35,32765
8.56458,-2.21846,0.762052,36,32765
8.51859,-2.23654,0.759724,35,32765
8.48211,-2.25674,0.759637,36,32765
8.45534,-2.27915,0.75949,36,32765
8.40943,-2.29567,0.757508,36,32765
8.37287,-2.31501,0.757749,36,32765
8.33644,-2.33406,0.75631,35,32765
8.29981,-2.35283,0.7569,36,32765
8.27265,-2.37471,0.757334,35,32765
8.23605,-2.39286,0.757444,36,32765
8.17073,-2.40266,0.754286,37,32765
8.1435,-2.42372,0.75487,36,32765
8.09731,-2.43835,0.753723,36,32765
8.07012,-2.45837,0.755279,35,32765
8.02398,-2.47198,0.754993,36,32765
7.97777,-2.4858,0.753725,34,32765
7.94094,-2.50235,0.754486,25,32765
7.82828,-2.49421,0.747942,16,32765
7.90539,-2.54619,0.759819,35,32765
7.86868,-2.56136,0.761211,36,32765
7.86014,-2.58594,0.766273,36,32765
12.3759,0.140335,1.03642,11,32765
12.6558,0.100783,1.05353,11,32765
12.4274,0.0575473,1.02843,11,32765
12.1687,0.0165186,1.00323,11,32765
12.1293,-0.0234933,0.993862,11,32765
12.249,-0.0647103,1.00047,14,32765
12.4186,-0.106784,1.00973,15,32765
12.5181,-0.149151,1.0146,14,32765
11.5611,-0.175296,0.933155,15,32765
11.451,-0.211499,0.921442,24,32765
11.2711,-0.245495,0.90392,26,32765
11.5195,-0.289326,0.922007,16,32765
11.9671,-0.340251,0.955072,16,32765
11.8964,-0.377152,0.946677,30,32765
11.5168,-0.402862,0.913884,22,32765
11.5056,-0.43997,0.910841,19,32765
11.325,-0.470627,0.894777,26,32765
11.4829,-0.515351,0.904907,15,32765
10.5253,-0.507267,0.82855,11,32765
10.3942,-0.535912,0.816538,11,32765
10.4025,-0.570511,0.816041,13,32765
10.4006,-0.604684,0.815237,14,32765
10.3888,-0.638289,0.812388,11,32765
0,-0,0,0,32765
11.2897,-0.76762,0.880796,11,32765
11.2873,-0.804488,0.879161,12,32765
11.205,-0.836004,0.873288,12,32765
11.2022,-0.873308,0.872829,11,32765
11.0702,-0.899582,0.861413,12,32765
11.0274,-0.933044,0.857468,12,32765
10.935,-0.961541,0.849584,12,32765
10.7828,-0.98431,0.837323,13,32765
10.849,-1.02708,0.842742,23,32765
10.8356,-1.06197,0.841406,17,32765
10.6932,-1.08415,0.830171,22,32765
10.6796,-1.11855,0.829257,25,32765
10.6164,-1.14755,0.824772,26,32765
10.5728,-1.1787,0.822224,26,32765
10.5193,-1.20782,0.81846,26,32765
10.436,-1.23339,0.81195,25,32765
10.4022,-1.26444,0.810197,26,32765
10.3385,-1.29129,0.805937,26,32765
10.2847,-1.31967,0.801888,27,32765
10.221,-1.34565,0.797337,26,32765
10.1868,-1.37577,0.79533,26,32765
10.1229,-1.40119,0.790783,26,32765
10.0887,-1.4303,0.787699,26,32765
10.0246,-1.45541,0.783564,26,32765
9.96048,-1.47963,0.780658,27,32765
9.89624,-1.50404,0.777075,25,32765
9.88132,-1.53576,0.775726,21,32765
9.76764,-1.55218,0.768417,18,32765
9.76216,-1.58575,0.769427,26,32765
9.68786,-1.60695,0.765258,29,32765
9.64307,-1.63279,0.762373,30,32765
9.60811,-1.65968,0.760257,29,32765
9.5829,-1.68779,0.759622,29,32765
9.52801,-1.71102,0.757261,27,32765
9.46353,-1.73146,0.752405,26,32765
9.40865,-1.75396,0.748985,28,32765
9.38307,-1.7814,0.74902,27,32765
9.31837,-1.80115,0.744459,27,32765
9.2829,-1.82664,0.74251,28,32765
9.22791,-1.8473,0.739426,28,32765
9.21187,-1.87629,0.738791,27,32765
9.19579,-1.90486,0.738443,28,32765
9.11124,-1.9193,0.732946,27,32765
9.05592,-1.93972,0.729311,28,32765
9.01041,-1.96133,0.72683,27,32765
8.95506,-1.98083,0.723327,27,32765
8.9291,-2.00558,0.721908,25,32765
8.87382,-2.02363,0.719116,13,32765
8.84774,-2.04833,0.716892,26,32765
8.8215,-2.07258,0.716654,26,32765
8.76616,-2.09009,0.712453,27,32765
8.71084,-2.10693,0.708621,28,32765
8.66504,-2.12621,0.706212,27,32765
8.61924,-2.14538,0.703014,28,32765
8.58309,-2.1664,0.701263,28,32765
8.55668,-2.18956,0.699023,27,32765
8.53017,-2.21256,0.697448,28,32765
8.51333,-2.23749,0.696969,29,32765
8.43855,-2.24734,0.691261,28,32765
8.40241,-2.26645,0.689621,28,32765
8.35655,-2.28332,0.686013,27,32765
8.32026,-2.30248,0.683745,28,32765
8.29356,-2.32414,0.681808,28,32765
8.23803,-2.33772,0.676821,27,32765
8.21126,-2.35861,0.676059,28,32765
8.20364,-2.38513,0.675496,28,32765
8.17694,-2.40538,0.67396,29,32765
8.13113,-2.4199,0.670023,28,32765
8.06614,-2.42865,0.664428,29,32765
8.04894,-2.45125,0.662995,28,32765
8.00298,-2.46514,0.65985,28,32765
7.97626,-2.48443,0.656729,25,32765
7.9305,-2.49732,0.652852,13,32765
7.88475,-2.51012,0.648085,23,32765
7.87708,-2.53447,0.646635,28,32765
7.83119,-2.54715,0.641909,30,32765
7.82352,-2.57109,0.640093,31,32765
12.4649,0.142331,0.925544,12,32765
12.376,0.0994498,0.912763,11,32765
12.247,0.0575155,0.89727,12,32765
11.9981,0.0169958,0.875294,12,32765
11.829,-0.0222921,0.856999,13,32765
12.228,-0.0640401,0.882713,17,32765
12.2081,-0.104498,0.876777,12,32765
12.3476,-0.146719,0.883609,14,32765
11.6192,-0.175876,0.827593,16,32765
11.4692,-0.211613,0.814069,36,32765
11.2891,-0.245744,0.798235,29,32765
11.4878,-0.28846,0.81045,26,32765
11.9656,-0.340215,0.841392,19,32765
11.9647,-0.3794,0.838548,34,32765
11.5648,-0.404698,0.807921,23,32765
11.5436,-0.441655,0.804269,31,32765
11.3827,-0.473332,0.791277,28,32765
11.3613,-0.510276,0.787457,25,32765
10.5027,-0.506599,0.72704,11,32765
10.511,-0.542425,0.725889,11,32765
10.3897,-0.570367,0.716354,14,32765
10.4078,-0.605724,0.716924,18,32765
10.4656,-0.643706,0.718957,12,32765
10.4536,-0.67702,0.717454,11,32765
10.8595,-0.739231,0.744009,11,32765
11.2751,-0.80459,0.771018,12,32765
11.2723,-0.842073,0.771345,13,32765
11.1899,-0.873464,0.76544,12,32765
11.0976,-0.902986,0.757967,12,32765
11.0945,-0.939974,0.75711,12,32765
10.9622,-0.965247,0.747358,13,32765
10.8696,-0.9936,0.740569,14,32765
10.8562,-1.02921,0.739915,28,32765
10.8727,-1.06712,0.740702,23,32765
10.75,-1.09148,0.732136,27,32765
10.7264,-1.1251,0.730641,35,32765
10.6631,-1.15431,0.726723,34,32765
10.6294,-1.18678,0.72523,34,32765
10.5659,-1.215,0.721261,35,32765
10.4925,-1.24195,0.716181,34,32765
10.4487,-1.27204,0.714038,35,32765
10.385,-1.2991,0.710345,35,32765
10.3311,-1.32769,0.706766,35,32765
10.2871,-1.35648,0.704136,34,32765
10.2133,-1.38153,0.699705,35,32765
10.1691,-1.40983,0.69708,35,32765
10.1151,-1.43634,0.692922,36,32765
10.041,-1.46014,0.688677,35,32765
9.99658,-1.48741,0.687697,35,32765
9.98159,-1.51949,0.688084,34,32765
9.9173,-1.54388,0.683429,27,32765
9.80352,-1.56045,0.67716,22,32765
9.80786,-1.59582,0.678858,36,32765
9.73348,-1.61721,0.675355,37,32765
9.7083,-1.64658,0.674216,38,32765
9.66343,-1.67205,0.671702,39,32765
9.61851,-1.69693,0.669893,38,32765
9.55375,-1.71855,0.667325,36,32765
9.49901,-1.74091,0.66372,35,32765
9.47347,-1.76907,0.662832,36,32765
9.40863,-1.78932,0.660317,36,32765
9.36345,-1.81298,0.657698,36,32765
9.33769,-1.84059,0.656724,37,32765
9.31197,-1.86737,0.656185,36,32765
9.22742,-1.88273,0.650821,36,32765
9.16247,-1.90127,0.647122,36,32765
9.13644,-1.92798,0.64652,35,32765
9.08105,-1.94853,0.643358,36,32765
9.03547,-1.97025,0.641258,36,32765
9.01902,-1.99851,0.640998,36,32765
8.96378,-2.01695,0.637692,32,32765
8.88898,-2.0307,0.63399,16,32765
8.86284,-2.05549,0.631956,33,32765
8.84628,-2.08212,0.632604,37,32765
8.79086,-2.09975,0.628876,37,32765
8.75486,-2.1214,0.626905,37,32765
8.71867,-2.14324,0.625573,37,32765
8.68244,-2.16503,0.623449,37,32765
8.63653,-2.18386,0.621291,37,32765
8.61004,-2.20724,0.619238,37,32765
8.54482,-2.22042,0.615073,37,32765
8.51829,-2.24291,0.613996,37,32765
8.482,-2.26307,0.611729,38,32765
8.45541,-2.28495,0.611074,37,32765
8.3902,-2.29676,0.60645,37,32765
8.34422,-2.3134,0.603772,36,32765
8.33667,-2.34058,0.603414,37,32765
8.30022,-2.35977,0.600283,37,32765
8.28295,-2.38366,0.600412,38,32765
8.22734,-2.39651,0.596377,37,32765
8.18144,-2.41124,0.593642,37,32765
8.15469,-2.4315,0.591471,38,32765
8.09916,-2.44322,0.587132,37,32765
8.08188,-2.46596,0.585793,37,32765
8.04537,-2.48292,0.583719,37,32765
7.98998,-2.49346,0.578711,29,32765
7.87755,-2.48541,0.570389,15,32765
7.92684,-2.52838,0.572882,31,32765
7.90009,-2.54678,0.570056,38,32765
7.90154,-2.57502,0.569121,38,32765
7.82741,-2.57737,0.562524,38,32765
11.8183,0.154568,0.699283,14,32765
11.7287,0.115019,0.697469,17,32765
11.6889,0.0759942,0.697737,21,32765
11.679,0.0372291,0.699261,23,32765
11.6889,-0.0020505,0.703374,26,32765
11.6687,-0.0410241,0.704036,24,32765
11.6984,-0.0798882,0.707484,20,32765
11.698,-0.117939,0.708645,18,32765
11.5077,-0.154031,0.699465,23,32765
11.4372,-0.190266,0.696395,18,32765
11.2867,-0.225718,0.688933,27,32765
11.9345,-0.278616,0.729968,14,32765
11.9434,-0.318474,0.730812,28,32765
11.8824,-0.356038,0.728355,12,32765
11.5419,-0.384012,0.708222,26,32765
11.5305,-0.422028,0.708793,15,32765
11.3595,-0.453836,0.698842,26,32765
11.318,-0.489887,0.697502,11,32765
10.4089,-0.485157,0.642508,11,32765
10.3674,-0.517395,0.640539,11,32765
10.3855,-0.552351,0.641664,14,32765
10.4135,-0.588078,0.644992,12,32765
10.551,-0.630473,0.654102,11,32765
10.4891,-0.661361,0.649866,11,32765
11.3532,-0.7538,0.70489,11,32765
11.3506,-0.791478,0.704712,12,32765
11.2584,-0.823153,0.698529,12,32765
11.2157,-0.857756,0.69691,11,32765
11.163,-0.891901,0.693627,11,32765
10.9907,-0.915164,0.684772,11,32765
11.0175,-0.954503,0.685836,12,32765
10.8055,-0.972467,0.672863,15,32765
10.8319,-1.0115,0.675473,19,32765
10.7191,-1.03734,0.669917,17,32765
10.7453,-1.07586,0.67283,28,32765
10.6722,-1.10462,0.668102,26,32765
10.5891,-1.13181,0.662531,26,32765
10.5555,-1.16381,0.66056,26,32765
10.5118,-1.19462,0.658744,26,32765
10.4286,-1.21962,0.654283,26,32765
10.4046,-1.25196,0.653439,27,32765
10.3212,-1.27681,0.647701,27,32765
10.2971,-1.30913,0.6453,27,32765
10.2431,-1.33724,0.6434,27,32765
10.1791,-1.36336,0.64091,27,32765
10.1151,-1.38928,0.638187,27,32765
10.0808,-1.41895,0.635947,27,32765
10.0168,-1.44399,0.631666,27,32765
9.95249,-1.46944,0.628521,27,32765
9.91793,-1.49772,0.627689,26,32765
9.87346,-1.5244,0.625417,20,32765
9.78949,-1.54483,0.619892,23,32765
9.76466,-1.574,0.618045,28,32765
9.71004,-1.59885,0.615067,28,32765
9.65535,-1.62309,0.613125,30,32765
9.62031,-1.65074,0.610808,29,32765
9.57534,-1.67602,0.60939,30,32765
9.55011,-1.704,0.6084,30,32765
9.45608,-1.71948,0.602344,27,32765
9.43067,-1.74691,0.602416,28,32765
9.38548,-1.77108,0.600818,28,32765
9.34021,-1.79539,0.598334,28,32765
9.29502,-1.81847,0.596484,28,32765
9.2595,-1.84363,0.595216,28,32765
9.21425,-1.86605,0.593224,28,32765
9.14936,-1.88425,0.590319,28,32765
9.11365,-1.90856,0.589725,28,32765
9.04867,-1.92604,0.587203,28,32765
9.00315,-1.94767,0.585414,28,32765
8.97719,-1.97277,0.585131,27,32765
8.92185,-1.99156,0.583004,22,32765
8.84696,-2.0057,0.580233,17,32765
8.86932,-2.04181,0.583553,28,32765
8.8042,-2.05741,0.580344,29,32765
8.77782,-2.08181,0.580935,29,32765
8.72238,-2.09875,0.57922,28,32765
8.6862,-2.12044,0.578961,29,32765
8.64041,-2.13914,0.577673,29,32765
8.61392,-2.16263,0.577464,29,32765
8.57768,-2.18309,0.578355,29,32765
8.55096,-2.20637,0.579316,29,32765
8.52437,-2.22909,0.578864,29,32765
8.45911,-2.24123,0.577263,30,32765
8.42281,-2.26095,0.576178,29,32765
8.37678,-2.27762,0.576262,30,32765
8.31133,-2.28935,0.574644,30,32765
8.28437,-2.3115,0.575043,30,32765
8.25741,-2.33286,0.576991,29,32765
8.24962,-2.35977,0.579021,30,32765
8.19397,-2.37212,0.578213,30,32765
8.17665,-2.3954,0.579735,30,32765
8.14938,-2.41647,0.581923,30,32765
8.08407,-2.42543,0.580305,30,32765
8.04742,-2.4426,0.581036,30,32765
8.02042,-2.462,0.582619,30,32765
7.98385,-2.47832,0.583511,25,32765
7.96609,-2.50079,0.586842,12,32765
7.89134,-2.50492,0.584944,24,32765
7.88301,-2.53002,0.58922,30,32765
7.85577,-2.54864,0.591313,30,32765
7.82842,-2.5669,0.595349,30,32765
12.2239,0.160677,0.607615,12,32765
11.7947,0.116367,0.58979,18,32765
11.7649,0.0771112,0.590951,25,32765
11.7151,0.0378874,0.590568,26,32765
11.7249,-0.00159013,0.594598,28,32765
11.7248,-0.0408323,0.59647,28,32765
11.7445,-0.0798908,0.599134,26,32765
11.784,-0.11857,0.602341,22,32765
11.5238,-0.15409,0.59138,27,32765
11.5032,-0.191282,0.591539,26,32765
11.3227,-0.226432,0.583954,36,32765
11.791,-0.275342,0.609581,20,32765
11.9697,-0.319331,0.619106,30,32765
12.0085,-0.360052,0.622391,12,32765
11.568,-0.385184,0.600287,29,32765
11.6165,-0.425557,0.604069,24,32765
11.4454,-0.45772,0.595723,37,32765
11.324,-0.490672,0.590606,18,32765
10.5142,-0.490622,0.549396,11,32765
10.3928,-0.519285,0.543635,12,32765
10.4011,-0.553865,0.54405,18,32765
10.3592,-0.585768,0.543437,15,32765
10.5167,-0.629262,0.552274,11,32765
10.415,-0.657583,0.546513,11,32765
11.16,-0.742007,0.587047,12,32765
11.2869,-0.788162,0.593684,12,32765
11.2843,-0.82625,0.593064,13,32765
11.1719,-0.855671,0.588155,12,32765
11.149,-0.892125,0.586917,12,32765
11.0165,-0.918708,0.581763,12,32765
11.0631,-0.959939,0.583594,12,32765
10.8609,-0.978988,0.573125,17,32765
10.9172,-1.02108,0.577034,35,32765
10.8739,-1.054,0.576211,22,32765
10.7808,-1.08115,0.572526,32,32765
10.7275,-1.11215,0.569512,33,32765
10.6641,-1.1417,0.565746,32,32765
10.6206,-1.17293,0.563532,34,32765
10.5372,-1.1995,0.559988,34,32765
10.4935,-1.22928,0.558395,34,32765
10.4497,-1.2595,0.556686,33,32765
10.386,-1.28701,0.552755,33,32765
10.3222,-1.31457,0.548431,34,32765
10.2978,-1.3467,0.54859,34,32765
10.2239,-1.37174,0.546143,35,32765
10.1797,-1.40058,0.545051,34,32765
10.1354,-1.42913,0.542564,34,32765
10.0515,-1.45154,0.537789,34,32765
10.0168,-1.48154,0.536801,35,32765
9.97232,-1.5086,0.535729,35,32765
9.89817,-1.53093,0.532245,22,32765
9.82399,-1.55305,0.528004,27,32765
9.79911,-1.58239,0.526345,33,32765
9.74443,-1.60741,0.523841,33,32765
9.70938,-1.63513,0.523437,38,32765
9.68411,-1.66471,0.521932,37,32765
9.63907,-1.69025,0.520901,37,32765
9.54497,-1.70619,0.51638,36,32765
9.51964,-1.73421,0.514893,34,32765
9.46471,-1.75644,0.513566,35,32765
9.41947,-1.78077,0.512351,35,32765
9.37413,-1.80525,0.510245,35,32765
9.33869,-1.8304,0.509311,35,32765
9.29331,-1.85381,0.507795,35,32765
9.22843,-1.87241,0.505113,35,32765
9.19282,-1.89674,0.504386,35,32765
9.14728,-1.91919,0.503546,35,32765
9.10177,-1.94099,0.502673,35,32765
9.05618,-1.96283,0.501269,35,32765
9.0204,-1.98602,0.50064,34,32765
8.99422,-2.01152,0.500619,31,32765
8.9095,-2.02371,0.497978,18,32765
8.91236,-2.05562,0.499937,33,32765
8.84715,-2.07139,0.497299,33,32765
8.80129,-2.09137,0.496993,35,32765
8.76521,-2.11309,0.496856,35,32765
8.71927,-2.1326,0.496337,35,32765
8.68312,-2.15385,0.495987,36,32765
8.64688,-2.17508,0.49542,35,32765
8.61059,-2.19569,0.496606,36,32765
8.58383,-2.21913,0.497767,35,32765
8.51856,-2.23189,0.495264,36,32765
8.48221,-2.25171,0.495921,36,32765
8.4555,-2.27414,0.495689,36,32765
8.40942,-2.29094,0.496163,36,32765
8.36316,-2.30812,0.496264,35,32765
8.34573,-2.33317,0.497438,36,32765
8.2995,-2.34934,0.498448,36,32765
8.28206,-2.37369,0.499912,36,32765
8.24554,-2.39173,0.500752,36,32765
8.18025,-2.40117,0.499461,36,32765
8.15298,-2.42229,0.501842,36,32765
8.12587,-2.44277,0.50316,37,32765
8.07961,-2.4572,0.503595,36,32765
8.03349,-2.47088,0.504184,37,32765
8.00642,-2.49024,0.505969,33,32765
7.91246,-2.48887,0.50455,16,32765
7.93285,-2.52309,0.509402,32,32765
7.92449,-2.54838,0.513703,37,32765
7.9067,-2.57024,0.516627,38,32765
7.88878,-2.59182,0.521517,39,32765
12.1919,0.155642,0.645183,12,32765
11.7733,0.111512,0.617421,16,32765
11.704,0.0710309,0.608657,21,32765
11.6944,0.0313506,0.60383,22,32765
11.6946,-0.00705602,0.599879,23,32765
11.7147,-0.0450658,0.596398,22,32765
11.7746,-0.0839505,0.596,21,32765
11.7845,-0.122883,0.592898,18,32765
11.5045,-0.158394,0.575911,21,32765
11.5041,-0.196615,0.572173,19,32765
11.2739,-0.229882,0.557918,27,32765
11.8123,-0.280292,0.583703,16,32765
11.9812,-0.324349,0.588761,19,32765
12.0999,-0.367981,0.592709,12,32765
11.5597,-0.390154,0.563865,23,32765
11.6084,-0.430207,0.563403,20,32765
11.4573,-0.462252,0.554482,27,32765
11.336,-0.495062,0.547293,16,32765
10.5662,-0.496142,0.508325,11,32765
10.5146,-0.528951,0.504433,11,32765
10.4331,-0.559217,0.498798,15,32765
10.4213,-0.593014,0.496956,13,32765
10.4991,-0.632068,0.500789,11,32765
10.4971,-0.666044,0.498772,11,32765
11.4616,-0.765539,0.543758,11,32765
11.4391,-0.802235,0.541541,11,32765
11.3069,-0.831004,0.534368,12,32765
11.1747,-0.858707,0.526964,12,32765
11.132,-0.892505,0.524593,12,32765
11.129,-0.929322,0.524135,12,32765
11.0264,-0.957314,0.518986,11,32765
10.844,-0.97784,0.510727,14,32765
10.8606,-1.01609,0.510646,24,32765
10.8671,-1.05341,0.511698,17,32765
10.7442,-1.07778,0.50583,24,32765
10.681,-1.10728,0.501896,26,32765
10.6574,-1.14036,0.502083,26,32765
10.5642,-1.16644,0.497511,26,32765
10.5502,-1.20093,0.497001,27,32765
10.4568,-1.22624,0.492214,26,32765
10.4031,-1.25501,0.490512,26,32765
10.3494,-1.28287,0.487998,26,32765
10.2856,-1.3095,0.486772,27,32765
10.2416,-1.33843,0.483636,26,32765
10.1974,-1.3674,0.482812,26,32765
10.1432,-1.39507,0.480693,27,32765
10.0889,-1.42193,0.481086,27,32765
10.0249,-1.44674,0.476597,26,32765
9.9805,-1.47443,0.47514,27,32765
9.92606,-1.50023,0.474404,28,32765
9.88143,-1.52758,0.473146,16,32765
9.84666,-1.55596,0.471922,23,32765
9.76245,-1.57604,0.469767,26,32765
9.71765,-1.60241,0.468128,27,32765
9.64322,-1.6236,0.465222,29,32765
9.62785,-1.65441,0.464647,28,32765
9.58288,-1.67962,0.463579,29,32765
9.5673,-1.70986,0.464745,27,32765
9.48292,-1.72747,0.46115,27,32765
9.43785,-1.75152,0.459644,28,32765
9.38283,-1.77363,0.458529,27,32765
9.33759,-1.79717,0.458292,27,32765
9.30217,-1.82224,0.457247,28,32765
9.23726,-1.84156,0.454583,27,32765
9.21151,-1.8683,0.453378,27,32765
9.14655,-1.88648,0.452078,27,32765
9.11088,-1.91087,0.450418,27,32765
9.07509,-1.93491,0.450449,28,32765
9.04896,-1.96136,0.449824,28,32765
9.00324,-1.98334,0.448244,27,32765
8.95746,-2.0049,0.447616,18,32765
8.8826,-2.01911,0.443764,18,32765
8.87584,-2.04844,0.444587,27,32765
8.80097,-2.06158,0.441976,26,32765
8.7844,-2.08831,0.441532,28,32765
8.72893,-2.10548,0.439198,27,32765
8.68312,-2.12466,0.437949,28,32765
8.63723,-2.14379,0.436392,28,32765
8.60108,-2.16474,0.435586,28,32765
8.55523,-2.18295,0.433985,28,32765
8.53838,-2.2084,0.433514,29,32765
8.52145,-2.23375,0.433219,28,32765
8.45612,-2.24637,0.430724,28,32765
8.40056,-2.26092,0.427686,28,32765
8.39319,-2.28813,0.427693,28,32765
8.33763,-2.30181,0.425657,28,32765
8.31096,-2.32321,0.424666,28,32765
8.27453,-2.342,0.423469,28,32765
8.24761,-2.36376,0.42152,29,32765
8.22057,-2.38545,0.42032,28,32765
8.17455,-2.40053,0.418408,28,32765
8.10951,-2.40915,0.415629,28,32765
8.0829,-2.42869,0.413245,28,32765
8.0656,-2.45143,0.41245,27,32765
8.02899,-2.46879,0.410402,27,32765
7.99245,-2.48562,0.408375,15,32765
7.92758,-2.49232,0.405135,19,32765
7.9103,-2.51398,0.403861,30,32765
7.89304,-2.53552,0.401396,31,32765
7.85637,-2.55194,0.397368,33,32765
7.83893,-2.57328,0.396244,33,32765
12.4372,0.159533,0.540557,12,32765
11.8086,0.112484,0.507617,16,32765
11.7591,0.0719147,0.500347,24,32765
11.7595,0.0319892,0.496014,29,32765
11.7297,-0.00669664,0.490788,30,32765
11.7298,-0.0448251,0.486276,29,32765
11.7498,-0.083556,0.483662,27,32765
11.8095,-0.12301,0.482515,22,32765
11.5794,-0.159374,0.470189,23,32765
11.5689,-0.197755,0.466024,31,32765
11.3885,-0.232332,0.45592,34,32765
11.6774,-0.277288,0.466628,27,32765
12.0061,-0.325314,0.476464,16,32765
12.1649,-0.370335,0.480856,12,32765
11.5844,-0.391432,0.455517,23,32765
11.6431,-0.432021,0.454968,33,32765
11.462,-0.463041,0.44629,27,32765
11.4005,-0.498556,0.442558,29,32765
10.6104,-0.498922,0.410064,11,32765
10.439,-0.525915,0.402025,12,32765
10.3774,-0.557069,0.397923,17,32765
10.4155,-0.593596,0.398089,17,32765
10.5232,-0.634516,0.402314,11,32765
10.5212,-0.668642,0.400293,11,32765
11.1271,-0.744408,0.422506,12,32765
11.3838,-0.799675,0.431086,12,32765
11.2914,-0.831253,0.42665,13,32765
11.2488,-0.865865,0.423853,12,32765
11.196,-0.89918,0.421481,12,32765
11.1731,-0.934621,0.420273,12,32765
11.0704,-0.962817,0.416065,12,32765
10.888,-0.983532,0.409505,14,32765
10.9046,-1.02201,0.409233,25,32765
10.9011,-1.05859,0.40982,22,32765
10.808,-1.08612,0.406205,30,32765
10.7348,-1.11487,0.402459,33,32765
10.6714,-1.14393,0.401346,33,32765
10.6277,-1.1756,0.39949,34,32765
10.584,-1.20698,0.397956,34,32765
10.5004,-1.23363,0.39439,34,32765
10.4466,-1.2626,0.393163,34,32765
10.3829,-1.28943,0.390748,34,32765
10.3389,-1.31876,0.390843,33,32765
10.3048,-1.34922,0.388453,34,32765
10.2209,-1.37314,0.386516,35,32765
10.1865,-1.40368,0.385621,34,32765
10.1223,-1.42933,0.386121,35,32765
10.078,-1.45717,0.382945,34,32765
10.0335,-1.48509,0.381869,35,32765
9.99878,-1.51412,0.382371,35,32765
9.92446,-1.53718,0.380361,20,32765
9.84028,-1.55796,0.377529,29,32765
9.81523,-1.58763,0.378411,35,32765
9.75065,-1.61097,0.376392,34,32765
9.71557,-1.63896,0.375672,37,32765
9.67059,-1.665,0.374051,38,32765
9.64525,-1.69386,0.374129,37,32765
9.57061,-1.7138,0.373102,35,32765
9.51566,-1.73684,0.371414,35,32765
9.49019,-1.7647,0.371057,35,32765
9.4253,-1.78518,0.370037,35,32765
9.37019,-1.80701,0.369799,35,32765
9.34453,-1.83417,0.369429,35,32765
9.29914,-1.85758,0.368109,35,32765
9.23415,-1.87663,0.365543,34,32765
9.19849,-1.90098,0.365983,35,32765
9.15297,-1.92354,0.364218,36,32765
9.10737,-1.94568,0.36415,35,32765
9.06165,-1.96805,0.362935,34,32765
9.02564,-1.99228,0.362127,35,32765
8.95057,-2.0074,0.360704,24,32765
8.87566,-2.02161,0.357513,22,32765
8.86889,-2.05099,0.358339,35,32765
8.83288,-2.07326,0.357966,35,32765
8.81626,-2.10015,0.35762,35,32765
8.76072,-2.11746,0.35576,35,32765
8.71485,-2.13678,0.354893,35,32765
8.6689,-2.15606,0.353717,36,32765
8.64238,-2.1796,0.353595,36,32765
8.61582,-2.20293,0.35317,35,32765
8.55052,-2.2161,0.350812,36,32765
8.53355,-2.24154,0.350615,37,32765
8.49713,-2.26193,0.349881,37,32765
8.43184,-2.27404,0.346917,37,32765
8.41477,-2.29879,0.34653,36,32765
8.37842,-2.31789,0.345765,37,32765
8.34204,-2.33677,0.344568,37,32765
8.29594,-2.35297,0.34326,36,32765
8.26895,-2.37485,0.341499,36,32765
8.24186,-2.39666,0.340491,36,32765
8.1766,-2.40619,0.338166,36,32765
8.1594,-2.42909,0.337938,36,32765
8.10398,-2.44018,0.334552,36,32765
8.05795,-2.4543,0.33267,36,32765
8.03085,-2.47462,0.331302,35,32765
7.94657,-2.47662,0.327595,15,32765
7.92935,-2.4982,0.326889,27,32765
7.94058,-2.52901,0.326888,38,32765
7.91372,-2.54762,0.324124,38,32765
7.88647,-2.56724,0.320762,38,32765
7.84997,-2.58247,0.318962,38,32765
0,0,0,12,32765
0,0,0,12,32765
0,0,0,0,32765
0,0,0,12,32765
0,0,0,0,32765
0,-0,0,0,32765
0,-0,0,0,32765
0,-0,0,0,32765
0,-0,0,0,32765
0,-0,0,12,32765
0,-0,0,0,32765
0,-0,0,0,32765
0,-0,0,11,32765
0,-0,0,0,32765
0,-0,0,0,32765
0,-0,0,0,32765
0,-0,0,0,32765
0,-0,0,0,32765
10.554,-0.479405,0.329233,11,32765
10.4824,-0.511632,0.327737,12,32765
10.4607,-0.545595,0.327164,17,32765
10.4288,-0.578982,0.326989,12,32765
10.4667,-0.615959,0.328487,11,32765
0,-0,0,0,32765
11.35,-0.744282,0.358797,11,32765
11.2777,-0.777001,0.356299,12,32765
11.3448,-0.81907,0.358874,12,32765
11.1427,-0.841991,0.35315,12,32765
11.2095,-0.884597,0.355532,12,32765
11.1367,-0.916713,0.353378,12,32765
11.0041,-0.943084,0.349686,12,32765
10.8914,-0.970095,0.346733,14,32765
10.8682,-1.00434,0.345517,20,32765
10.8349,-1.03786,0.345576,17,32765
10.7519,-1.06585,0.342707,25,32765
10.7085,-1.09752,0.341027,25,32765
10.6253,-1.12466,0.339363,26,32765
10.5916,-1.1571,0.338214,26,32765
10.5281,-1.186,0.336493,26,32765
10.4644,-1.21501,0.334504,26,32765
10.3908,-1.24188,0.333029,26,32765
10.3468,-1.2717,0.332482,26,32765
10.283,-1.29872,0.331331,27,32765
10.2589,-1.3298,0.330975,27,32765
10.2147,-1.35871,0.330159,27,32765
10.121,-1.3809,0.327455,26,32765
10.0965,-1.41218,0.326348,27,32765
10.0323,-1.43799,0.323866,26,32765
9.97794,-1.46436,0.323234,25,32765
9.94333,-1.49341,0.321699,25,32765
9.87893,-1.51769,0.32139,14,32765
9.8639,-1.54942,0.320716,26,32765
9.76978,-1.5687,0.317207,27,32765
9.72496,-1.59502,0.317288,27,32765
9.66042,-1.6177,0.315067,26,32765
9.6352,-1.6467,0.315818,27,32765
9.60016,-1.67341,0.314918,27,32765
9.54528,-1.697,0.312693,28,32765
9.49033,-1.72,0.312688,28,32765
9.43529,-1.74294,0.312048,28,32765
9.39012,-1.76704,0.310985,27,32765
9.34497,-1.79051,0.309837,27,32765
9.30956,-1.8156,0.309562,28,32765
9.27399,-1.84082,0.309982,27,32765
9.22862,-1.86361,0.309834,28,32765
9.20282,-1.88999,0.310048,27,32765
9.128,-1.90614,0.308521,28,32765
9.08249,-1.92812,0.308081,28,32765
9.03694,-1.94968,0.3081,28,32765
8.97177,-1.96697,0.307321,28,32765
8.93572,-1.99088,0.308173,16,32765
8.88024,-2.0097,0.307352,21,32765
8.8832,-2.04157,0.308571,27,32765
8.85689,-2.06626,0.309863,28,32765
8.7819,-2.07932,0.309031,28,32765
8.73626,-2.09816,0.309046,28,32765
8.69048,-2.11714,0.309425,28,32765
8.62527,-2.1311,0.308697,28,32765
8.60847,-2.15693,0.310219,28,32765
8.58185,-2.18043,0.311652,31,32765
8.53595,-2.19834,0.311795,28,32765
8.50922,-2.2215,0.313271,28,32765
8.47282,-2.24171,0.314675,29,32765
8.43632,-2.26185,0.316401,29,32765
8.39017,-2.2792,0.316696,29,32765
8.3441,-2.29593,0.316817,29,32765
8.31724,-2.31762,0.319099,29,32765
8.2712,-2.33349,0.319625,29,32765
8.2539,-2.35744,0.322113,29,32765
8.18852,-2.36751,0.322473,29,32765
8.18069,-2.39414,0.324505,29,32765
8.11519,-2.40385,0.325767,29,32765
8.08816,-2.42407,0.328677,28,32765
8.06111,-2.44422,0.330345,27,32765
8.04357,-2.46711,0.332749,28,32765
7.9687,-2.4721,0.333302,14,32765
7.9034,-2.47959,0.334767,23,32765
7.91446,-2.51056,0.338327,31,32765
7.87785,-2.52606,0.341959,31,32765
7.87917,-2.55404,0.346001,32,32765
7.83301,-2.56591,0.350033,33,32765
0.929733,0.0134068,0.0177764,12,32765
1.03974,0.011567,0.0201902,12,32765
1.01977,0.00795832,0.0201155,12,32765
1.06978,0.00477614,0.0213947,12,32765
1.03979,0.00112006,0.0208921,12,32765
1.03978,-0.00233849,0.0212442,12,32765
1.19973,-0.00663907,0.0246649,12,32765
1.1997,-0.0106201,0.0247615,12,32765
1.12967,-0.0137713,0.0234334,12,32765
1.32955,-0.0207058,0.0277323,12,32765
0,-0,0,12,32765
1.25941,-0.0279911,0.0266452,12,32765
1.23932,-0.0316648,0.0263307,12,32765
1.31915,-0.0380677,0.0280835,12,32765
1.339,-0.0431135,0.0287145,12,32765
1.36882,-0.04863,0.0294419,12,32765
0,-0,0,0,32765
1.31852,-0.0555854,0.0286116,12,32765
0,-0,0,0,32765
0,-0,0,0,32765
10.3334,-0.539924,0.225508,11,32765
0,-0,0,0,32765
0,-0,0,0,32765
0,-0,0,0,32765
11.1832,-0.734711,0.247735,11,32765
11.2605,-0.777274,0.249213,12,32765
11.1681,-0.807837,0.247591,13,32765
11.0955,-0.840026,0.246626,15,32765
10.9232,-0.863655,0.243027,17,32765
10.8704,-0.896514,0.241976,20,32765
10.8872,-0.934874,0.242834,15,32765
10.884,-0.971328,0.243363,15,32765
10.9106,-1.01023,0.243448,23,32765
10.8375,-1.04014,0.242903,21,32765
10.8041,-1.07315,0.241903,32,32765
10.7408,-1.10302,0.240155,33,32765
10.6874,-1.13348,0.239919,35,32765
10.6537,-1.1662,0.239054,35,32765
10.5901,-1.19538,0.237902,35,32765
10.5264,-1.22465,0.23648,34,32765
10.4725,-1.25418,0.236118,34,32765
10.4087,-1.28189,0.235508,34,32765
10.3548,-1.31042,0.235154,34,32765
10.2909,-1.33666,0.234088,35,32765
10.2666,-1.36838,0.234104,35,32765
10.1926,-1.3935,0.232704,35,32765
10.1482,-1.42231,0.231333,34,32765
10.074,-1.44694,0.229191,35,32765
10.0196,-1.47351,0.229037,35,32765
9.98498,-1.50275,0.227784,34,32765
9.8909,-1.52266,0.227369,22,32765
9.87583,-1.5545,0.226791,33,32765
9.82114,-1.58022,0.225037,34,32765
9.76641,-1.60515,0.225277,36,32765
9.71167,-1.62967,0.22385,34,32765
9.67655,-1.65721,0.224571,34,32765
9.64146,-1.68412,0.223956,35,32765
9.57667,-1.70615,0.221975,35,32765
9.52168,-1.7293,0.222449,35,32765
9.47643,-1.75422,0.222516,35,32765
9.41156,-1.77481,0.221372,35,32765
9.386,-1.80216,0.221067,35,32765
9.33091,-1.82361,0.220616,35,32765
9.30512,-1.8509,0.221559,35,32765
9.28909,-1.87979,0.222499,36,32765
9.22406,-1.89838,0.221967,36,32765
9.18834,-1.92281,0.222051,36,32765
9.11342,-1.9388,0.221284,35,32765
9.07761,-1.96263,0.221926,35,32765
9.03191,-1.98438,0.222202,35,32765
8.94701,-1.99765,0.222141,21,32765
8.911,-2.02098,0.222281,26,32765
8.87494,-2.04405,0.222436,35,32765
8.86809,-2.07332,0.22441,36,32765
8.82225,-2.09336,0.224987,36,32765
