x, y, z, intensity, ring
6.45083,-3.08494,0.528066,35,32765
6.45837,-3.11502,0.531214,34,32765
6.4836,-3.15416,0.535825,34,32765
6.52665,-3.20203,0.542166,33,32765
6.53365,-3.23271,0.545126,33,32765
6.58504,-3.28579,0.552537,33,32765
6.60055,-3.32137,0.556144,33,32765
6.62475,-3.36158,0.561274,32,32765
6.63983,-3.39747,0.565922,32,32765
6.64609,-3.42877,0.568349,33,32765
6.68777,-3.47813,0.574377,33,32765
6.72011,-3.52357,0.580174,33,32765
6.76102,-3.57396,0.586784,33,32765
6.78404,-3.61538,0.591579,33,32765
6.80685,-3.6571,0.595811,32,32765
6.81209,-3.68899,0.599789,31,32765
6.84355,-3.73512,0.605919,33,32765
6.88356,-3.78631,0.612218,34,32765
6.89719,-3.82325,0.616113,34,32765
6.89298,-3.85099,0.618987,25,32765
6.93215,-3.9031,0.62565,20,32765
6.97962,-3.96054,0.633679,32,32765
7.01818,-4.0134,0.640205,32,32765
7.04776,-4.06149,0.647255,31,32765
7.07708,-4.10994,0.653737,31,32765
7.115,-4.16325,0.661027,31,32765
7.13538,-4.20704,0.665856,30,32765
7.13841,-4.24065,0.670029,29,32765
7.20138,-4.30981,0.67976,30,32765
7.23807,-4.36449,0.686976,30,32765
7.27466,-4.41902,0.695104,30,32765
7.29389,-4.46365,0.70095,30,32765
7.32129,-4.51387,0.707501,29,32765
7.34008,-4.55873,0.714168,29,32765
7.4093,-4.63561,0.725476,30,32765
7.42762,-4.6809,0.731947,31,32765
7.47921,-4.74796,0.741868,30,32765
7.4548,-4.76719,0.744456,15,32765
7.53108,-4.85078,0.756943,25,32765
7.57325,-4.91343,0.766632,27,32765
7.62365,-4.98165,0.776384,28,32765
7.65692,-5.03936,0.785103,28,32765
7.67342,-5.08608,0.792443,27,32765
7.71457,-5.14949,0.802679,28,32765
7.74689,-5.20796,0.812215,27,32765
7.79542,-5.278,0.822522,28,32765
7.83523,-5.34278,0.833268,28,32765
7.85001,-5.39098,0.84154,27,32765
7.89754,-5.46173,0.853216,28,32765
7.96925,-5.54998,0.866749,26,32765
7.99958,-5.61001,0.877865,26,32765
8.03798,-5.67592,0.888364,26,32765
8.09198,-5.75388,0.902037,21,32765
8.08906,-5.79127,0.910179,18,32765
8.19083,-5.90486,0.928707,13,32765
8.2035,-5.95433,0.938609,12,32765
8.22393,-6.00988,0.949343,12,32765
8.33199,-6.13074,0.971594,12,32765
5.68468,-1.78022,0.395161,12,32765
5.59329,-1.77176,0.387772,12,32765
5.71119,-1.82944,0.39432,11,32765
5.66735,-1.83549,0.391098,12,32765
5.69939,-1.86617,0.393054,11,32765
5.73115,-1.89745,0.395037,12,32765
5.72496,-1.91623,0.3942,12,32765
5.766,-1.95088,0.396625,12,32765
5.7691,-1.9728,0.397112,12,32765
5.77208,-1.99482,0.397778,12,32765
5.79371,-2.02385,0.399327,24,32765
5.76819,-2.03626,0.398147,15,32765
5.6017,-1.99816,0.38716,18,32765
5.77352,-2.08068,0.399598,12,32765
5.85111,-2.13012,0.405844,26,32765
5.85348,-2.15283,0.405712,34,32765
5.84634,-2.17197,0.406644,33,32765
5.86716,-2.20176,0.408742,30,32765
5.88775,-2.23187,0.411375,32,32765
5.91762,-2.2656,0.413898,32,32765
5.95653,-2.30329,0.417831,31,32765
5.91174,-2.30822,0.416014,28,32765
5.94131,-2.34208,0.418962,34,32765
6.02627,-2.39844,0.426094,34,32765
6.03687,-2.42551,0.428337,35,32765
6.08424,-2.46808,0.432482,30,32765
6.02985,-2.46908,0.430709,32,32765
6.03999,-2.49667,0.433127,32,32765
6.12372,-2.55515,0.440156,32,32765
6.14271,-2.58699,0.443777,33,32765
6.11565,-2.5997,0.442757,18,32765
0,-0,0,0,32765
0,-0,0,0,32765
0,-0,0,0,32765
0,-0,0,0,32765
5.25966,-2.34038,0.389251,12,32765
5.20627,-2.3374,0.386841,14,32765
5.10756,-2.31343,0.381221,12,32765
0,-0,0,0,32765
0,-0,0,0,32765
0,-0,0,0,32765
0,-0,0,0,32765
6.37534,-3.0168,0.48872,21,32765
6.41023,-3.05948,0.492953,28,32765
6.41791,-3.08932,0.496142,27,32765
6.45225,-3.13259,0.501443,26,32765
6.49561,-3.18009,0.506464,27,32765
6.49381,-3.20609,0.508926,27,32765
6.55439,-3.26317,0.517038,26,32765
6.56118,-3.29385,0.520651,26,32765
6.57652,-3.32965,0.524356,26,32765
6.58275,-3.36107,0.527952,26,32765
6.61555,-3.4061,0.53343,25,32765
6.64798,-3.45147,0.540169,26,32765
6.67171,-3.49198,0.544889,25,32765
6.73927,-3.55613,0.552913,26,32765
6.76249,-3.5971,0.558563,26,32765
6.76806,-3.62869,0.562143,25,32765
6.79097,-3.66994,0.567349,25,32765
6.82249,-3.71622,0.5723,26,32765
6.83607,-3.75335,0.577061,25,32765
6.89316,-3.81469,0.58518,26,32765
6.88912,-3.84215,0.58825,24,32765
6.97171,-3.91877,0.599072,14,32765
6.94118,-3.93194,0.599904,25,32765
6.98851,-3.98962,0.607016,23,32765
7.02684,-4.04284,0.613028,24,32765
7.0648,-4.09635,0.620147,24,32765
7.10247,-4.15027,0.626661,24,32765
7.09716,-4.17869,0.629714,23,32765
7.12602,-4.22751,0.635728,23,32765
7.16339,-4.28147,0.641708,23,32765
7.16635,-4.31489,0.646039,23,32765
7.22871,-4.38483,0.655287,24,32765
7.28229,-4.44987,0.663692,23,32765
7.30991,-4.50005,0.668515,22,32765
7.32873,-4.54514,0.673746,23,32765
7.38963,-4.61676,0.68302,23,32765
7.40779,-4.66251,0.68856,24,32765
7.42609,-4.70795,0.693374,23,32765
7.46092,-4.76433,0.70018,14,32765
7.49547,-4.82097,0.706937,19,32765
7.54656,-4.88853,0.715609,22,32765
7.58072,-4.94542,0.722369,23,32765
7.63121,-5.01363,0.730578,22,32765
7.67272,-5.0771,0.738473,21,32765
7.72228,-5.14648,0.745829,22,32765
7.76314,-5.21059,0.753603,22,32765
7.79558,-5.2693,0.759668,21,32765
7.83607,-5.33353,0.767867,22,32765
7.85163,-5.38121,0.772605,22,32765
7.90801,-5.4573,0.781581,22,32765
7.95581,-5.52819,0.789049,21,32765
7.9786,-5.58226,0.795734,22,32765
8.0258,-5.65362,0.803544,23,32765
8.04827,-5.70807,0.80827,16,32765
8.04608,-5.74528,0.811588,16,32765
8.15728,-5.86381,0.825151,13,32765
8.17078,-5.9131,0.82943,12,32765
8.28859,-6.03921,0.843413,13,32765
8.30935,-6.09516,0.848087,15,32765
5.55382,-1.74196,0.331062,13,32765
5.5862,-1.77231,0.331905,13,32765
5.61857,-1.80263,0.332177,12,32765
5.66025,-1.83612,0.334392,13,32765
5.63535,-1.84817,0.332615,13,32765
5.68613,-1.88559,0.335349,12,32765
5.67996,-1.90426,0.334521,12,32765
5.71158,-1.93563,0.335928,12,32765
5.7336,-1.96389,0.337437,14,32765
5.7366,-1.98584,0.338011,12,32765
5.75826,-2.01482,0.339283,22,32765
5.72333,-2.0238,0.337736,15,32765
5.58502,-1.99556,0.330016,23,32765
5.71934,-2.06463,0.338448,15,32765
5.78762,-2.11057,0.343289,24,32765
5.87435,-2.16419,0.348071,37,32765
5.89524,-2.19389,0.350678,37,32765
5.90664,-2.22039,0.351941,38,32765
5.91784,-2.24714,0.353741,38,32765
5.91036,-2.26675,0.35366,38,32765
5.89342,-2.28285,0.353771,38,32765
6.01604,-2.35305,0.362407,38,32765
5.98974,-2.36532,0.361624,37,32765
6.06537,-2.41826,0.367262,38,32765
6.06665,-2.44178,0.368762,40,32765
6.09546,-2.47703,0.371222,39,32765
6.10568,-2.50458,0.373884,40,32765
6.11571,-2.53249,0.37613,38,32765
6.0888,-2.54514,0.375413,38,32765
6.13543,-2.58857,0.380457,33,32765
6.09915,-2.59737,0.379057,25,32765
0,-0,0,0,32765
5.19317,-2.25256,0.325445,11,32765
5.24947,-2.29805,0.331163,11,32765
5.2235,-2.3074,0.33066,11,32765
5.13352,-2.28845,0.326939,13,32765
5.18044,-2.33009,0.331384,17,32765
5.18171,-2.35135,0.333129,13,32765
5.23726,-2.39778,0.338586,11,32765
0,-0,0,0,32765
0,-0,0,11,32765
0,-0,0,0,32765
6.37703,-3.02325,0.42236,24,32765
6.45691,-3.08756,0.42912,35,32765
6.4645,-3.11762,0.432138,34,32765
6.48978,-3.15677,0.436384,33,32765
6.53306,-3.2045,0.44085,34,32765
6.54907,-3.23953,0.444448,34,32765
6.55596,-3.27019,0.448171,34,32765
6.60732,-3.32336,0.454669,33,32765
6.62255,-3.35939,0.458108,34,32765
6.62868,-3.39104,0.461536,33,32765
6.67026,-3.4409,0.467185,34,32765
6.69373,-3.48195,0.472859,33,32765
6.71735,-3.5227,0.477221,33,32765
6.78482,-3.58714,0.484416,33,32765
6.78153,-3.61427,0.487815,32,32765
6.78704,-3.64599,0.491218,32,32765
6.81867,-3.69215,0.496699,32,32765
6.85011,-3.73862,0.501191,33,32765
6.88985,-3.79035,0.507619,34,32765
6.90319,-3.82781,0.511776,34,32765
6.91652,-3.8651,0.51606,29,32765
6.9295,-3.9028,0.520641,16,32765
6.97712,-3.9602,0.527557,31,32765
7.04168,-4.02803,0.535345,31,32765
7.05394,-4.06659,0.53883,31,32765
7.08319,-4.1153,0.54474,31,32765
7.14663,-4.18452,0.5527,32,32765
7.15838,-4.22329,0.557016,31,32765
7.16994,-4.26222,0.561244,30,32765
7.22431,-4.3267,0.568023,31,32765
7.2442,-4.3707,0.573549,30,32765
7.28933,-4.43069,0.580627,31,32765
7.31723,-4.48045,0.586262,29,32765
7.35322,-4.53609,0.591311,30,32765
7.38039,-4.58669,0.596871,30,32765
7.42424,-4.64804,0.603949,29,32765
7.4676,-4.70998,0.611204,31,32765
7.50257,-4.76642,0.61705,30,32765
7.49518,-4.79629,0.619847,16,32765
7.53801,-4.85857,0.626756,24,32765
7.58897,-4.92642,0.6347,29,32765
7.64805,-4.99995,0.643022,29,32765
7.66502,-5.04659,0.64769,29,32765
7.70641,-5.11031,0.654947,28,32765
7.73924,-5.16887,0.660151,30,32765
7.78001,-5.23318,0.667282,29,32765
7.82061,-5.29767,0.673508,28,32765
7.83628,-5.34527,0.678926,24,32765
7.84356,-5.38741,0.682582,22,32765
7.9081,-5.46931,0.69144,19,32765
7.96402,-5.54607,0.698887,18,32765
7.98674,-5.60028,0.705115,17,32765
7.99311,-5.64307,0.708574,19,32765
8.03184,-5.70909,0.714285,23,32765
7.99718,-5.72312,0.714522,26,32765
8.03558,-5.78929,0.720068,23,32765
8.00892,-5.80902,0.720336,23,32765
7.94176,-5.7996,0.716035,22,32765
7.93914,-5.83685,0.718046,23,32765
5.6099,-1.74326,0.253885,12,32765
5.64227,-1.77319,0.25878,12,32765
5.72213,-1.81851,0.265234,12,32765
5.75412,-1.84923,0.27,11,32765
5.83342,-1.89589,0.276353,12,32765
5.78902,-1.90277,0.276967,12,32765
5.77317,-1.91867,0.278143,12,32765
5.76688,-1.93712,0.280695,12,32765
5.76993,-1.95902,0.283128,12,32765
5.7351,-1.96794,0.28411,12,32765
5.87946,-2.03936,0.293076,12,32765
5.77827,-2.0259,0.290178,13,32765
5.7244,-2.02827,0.289428,15,32765
5.76465,-2.06376,0.294216,17,32765
5.80465,-2.09977,0.298954,11,32765
5.78815,-2.11563,0.300442,15,32765
5.8747,-2.16951,0.306644,30,32765
5.84863,-2.18208,0.307399,32,32765
5.9161,-2.22949,0.313049,34,32765
5.89,-2.24169,0.314455,31,32765
6.0037,-2.30772,0.321944,31,32765
5.94946,-2.30931,0.321157,31,32765
5.99758,-2.35059,0.325927,29,32765
6.03616,-2.38866,0.330247,31,32765
6.04668,-2.41602,0.333081,31,32765
6.02916,-2.43261,0.334328,31,32765
6.02084,-2.45297,0.335502,30,32765
6.00324,-2.46936,0.336769,32,32765
6.09621,-2.53173,0.344532,33,32765
6.14291,-2.57521,0.349073,32,32765
6.1157,-2.58813,0.349656,29,32765
0,-0,0,0,32765
0,-0,0,0,32765
0,-0,0,0,32765
0,-0,0,0,32765
5.28588,-2.34233,0.311591,11,32765
5.17763,-2.31523,0.307008,13,32765
5.23352,-2.36123,0.311999,12,32765
0,-0,0,0,32765
0,-0,0,0,32765
0,-0,0,0,32765
0,-0,0,0,32765
6.38513,-3.01026,0.391647,18,32765
6.42001,-3.05299,0.396465,27,32765
6.45469,-3.09602,0.400712,27,32765
6.46206,-3.12645,0.404076,27,32765
6.48735,-3.16558,0.407752,27,32765
6.53936,-3.21804,0.413525,26,32765
6.56412,-3.25782,0.417714,26,32765
6.57106,-3.28841,0.420775,26,32765
6.58664,-3.32385,0.424586,26,32765
6.61118,-3.36359,0.428343,25,32765
6.63531,-3.40391,0.432426,26,32765
6.68585,-3.45822,0.437872,26,32765
6.72711,-3.50846,0.443518,26,32765
6.72395,-3.53582,0.445546,25,32765
6.74732,-3.57682,0.450067,25,32765
6.78817,-3.62732,0.45547,26,32765
6.78501,-3.65411,0.457752,25,32765
6.85172,-3.71924,0.466132,26,32765
6.85657,-3.75187,0.468946,26,32765
6.87008,-3.78918,0.472957,26,32765
6.92708,-3.85088,0.479399,26,32765
6.88807,-3.85903,0.480163,12,32765
6.99689,-3.95022,0.491797,22,32765
6.99234,-3.97831,0.493845,24,32765
7.0137,-4.02104,0.499212,24,32765
7.09532,-4.09902,0.508516,24,32765
7.08158,-4.12236,0.51135,24,32765
7.11098,-4.17064,0.517078,24,32765
7.13981,-4.21967,0.523056,23,32765
7.15993,-4.2636,0.528859,23,32765
7.27399,-4.36415,0.54147,24,32765
7.2678,-4.39353,0.544188,24,32765
7.28739,-4.43772,0.550606,24,32765
7.28952,-4.47224,0.554012,23,32765
7.35946,-4.54846,0.564594,23,32765
7.38677,-4.59875,0.570557,23,32765
7.44749,-4.6706,0.580107,24,32765
7.45724,-4.71087,0.585543,24,32765
7.44152,-4.73523,0.589062,17,32765
7.55184,-4.84008,0.602865,16,32765
7.56103,-4.88071,0.60824,22,32765
7.61176,-4.94876,0.617163,23,32765
7.64552,-5.006,0.625743,23,32765
7.67015,-5.05889,0.632828,23,32765
7.71957,-5.12842,0.641516,23,32765
7.77696,-5.20347,0.653565,22,32765
7.79286,-5.25093,0.659921,22,32765
7.83328,-5.31517,0.669903,22,32765
7.87324,-5.37997,0.679391,19,32765
7.93737,-5.46219,0.691506,18,32765
7.91908,-5.4881,0.696106,16,32765
7.94178,-5.54214,0.704961,14,32765
7.98903,-5.61313,0.715718,15,32765
8.06025,-5.70179,0.72933,17,32765
8.05762,-5.7394,0.735124,22,32765
8.07075,-5.78868,0.745506,18,32765
8.13228,-5.87312,0.75903,18,32765
8.14487,-5.92276,0.769467,18,32765
8.18943,-5.99616,0.782101,19,32765
5.60147,-1.74389,0.198206,13,32765
5.59573,-1.76185,0.201351,12,32765
5.58043,-1.7768,0.203468,12,32765
5.58405,-1.79793,0.206729,12,32765
5.70156,-1.8565,0.213593,13,32765
5.69526,-1.87546,0.215971,13,32765
5.72691,-1.90687,0.219031,12,32765
5.73961,-1.93158,0.222298,12,32765
5.76161,-1.95988,0.22537,13,32765
5.78349,-1.98829,0.228877,13,32765
5.82398,-2.02393,0.232213,12,32765
5.76997,-2.02682,0.232138,16,32765
5.74433,-2.0392,0.233004,17,32765
5.70933,-2.04783,0.234245,20,32765
5.76818,-2.09055,0.239273,13,32765
5.83617,-2.13725,0.244382,26,32765
5.89454,-2.181,0.248472,38,32765
5.92459,-2.21465,0.25181,39,32765
5.91718,-2.23418,0.253529,37,32765
5.94708,-2.26777,0.257553,37,32765
5.94882,-2.29104,0.258961,36,32765
5.94119,-2.31055,0.260674,37,32765
5.98932,-2.3519,0.264881,36,32765
6.0372,-2.3937,0.269146,35,32765
6.07553,-2.43226,0.273046,38,32765
6.095,-2.46397,0.276077,38,32765
6.08657,-2.48459,0.277268,35,32765
6.12428,-2.52409,0.281196,38,32765
6.13407,-2.55245,0.284125,38,32765
6.13465,-2.57681,0.285967,37,32765
6.16262,-2.61313,0.289331,34,32765
0,-0,0,0,32765
0,-0,0,0,32765
5.25658,-2.29183,0.251887,11,32765
5.24881,-2.30936,0.253867,11,32765
5.19528,-2.30678,0.252762,13,32765
5.17831,-2.32017,0.253658,15,32765
5.15226,-2.32923,0.253957,13,32765
5.23532,-2.38779,0.259791,11,32765
0,-0,0,0,32765
0,-0,0,11,32765
0,-0,0,0,32765
6.38581,-3.01671,0.325268,20,32765
6.43871,-3.06812,0.330547,33,32765
6.47333,-3.11132,0.334333,34,32765
6.48065,-3.14187,0.337521,34,32765
6.52384,-3.18993,0.34177,34,32765
6.57576,-3.24262,0.346901,33,32765
6.60044,-3.28262,0.35073,33,32765
6.61622,-3.31787,0.354097,33,32765
6.62279,-3.34903,0.357165,33,32765
6.65613,-3.39352,0.361043,33,32765
6.68015,-3.43408,0.364767,33,32765
6.70398,-3.47487,0.36811,33,32765
6.73633,-3.52065,0.372715,33,32765
6.77731,-3.57139,0.377114,33,32765
6.80055,-3.61265,0.381283,33,32765
6.80605,-3.64458,0.384156,33,32765
6.85557,-3.69995,0.389348,33,32765
6.87826,-3.7416,0.394406,33,32765
6.90054,-3.78399,0.398055,33,32765
6.94016,-3.83603,0.403328,34,32765
6.94465,-3.86894,0.405983,32,32765
6.93169,-3.89183,0.40858,14,32765
6.99695,-3.95877,0.416341,28,32765
7.04441,-4.01661,0.421415,31,32765
7.07431,-4.06458,0.426958,31,32765
7.09528,-4.10791,0.431579,30,32765
7.15051,-4.17155,0.438652,31,32765
7.17113,-4.21511,0.443411,30,32765
7.19981,-4.26445,0.448952,30,32765
7.23693,-4.31891,0.455493,31,32765
7.26523,-4.36849,0.461305,31,32765
7.31879,-4.43412,0.467754,30,32765
7.33825,-4.47857,0.473831,30,32765
7.34874,-4.51858,0.477625,31,32765
7.38458,-4.57413,0.485081,31,32765
7.42027,-4.6299,0.491152,31,32765
7.50624,-4.71796,0.501578,32,32765
7.49897,-4.74784,0.50563,30,32765
7.47471,-4.76702,0.508603,21,32765
7.55132,-4.85063,0.518719,17,32765
7.56047,-4.89135,0.523821,19,32765
7.59443,-4.94866,0.530832,17,32765
7.65324,-5.0224,0.540617,16,32765
7.61952,-5.03691,0.543091,15,32765
7.67732,-5.11196,0.551616,15,32765
7.77623,-5.21484,0.565815,17,32765
7.70109,-5.20095,0.565128,17,32765
7.74994,-5.27066,0.575016,18,32765
7.74888,-5.30714,0.580724,18,32765
7.7311,-5.33247,0.585612,18,32765
7.74603,-5.38055,0.59261,18,32765
7.74457,-5.41699,0.598994,18,32765
7.71064,-5.43006,0.602514,19,32765
7.75804,-5.50072,0.612985,20,32765
7.73983,-5.52585,0.617144,20,32765
7.75371,-5.57421,0.626871,20,32765
7.7513,-5.61102,0.633946,20,32765
7.74868,-5.64779,0.642336,20,32765
7.77809,-5.70828,0.652566,22,32765
5.61079,-1.74481,0.221636,12,32765
5.60518,-1.76292,0.220186,12,32765
5.72317,-1.82078,0.22398,12,32765
5.82178,-1.87345,0.226786,11,32765
5.74924,-1.87044,0.224049,12,32765
5.74322,-1.88895,0.223042,11,32765
5.775,-1.92023,0.223919,12,32765
5.79717,-1.94848,0.225024,12,32765
5.77178,-1.9612,0.224011,12,32765
5.77481,-1.98324,0.224537,12,32765
5.83428,-2.02533,0.227272,12,32765
5.85584,-2.05455,0.228205,15,32765
5.74542,-2.03706,0.224776,13,32765
5.71038,-2.04606,0.223833,17,32765
5.85393,-2.11937,0.229496,12,32765
5.90317,-2.15935,0.232185,22,32765
5.8679,-2.16833,0.231608,32,32765
5.90753,-2.20508,0.234185,34,32765
5.93763,-2.23861,0.235948,31,32765
5.97685,-2.27602,0.238706,35,32765
5.96923,-2.2959,0.239119,35,32765
5.9523,-2.31192,0.239238,30,32765
6.00057,-2.35307,0.242382,32,32765
6.03924,-2.39116,0.24487,31,32765
5.99422,-2.39615,0.243852,31,32765
6.03243,-2.43496,0.246676,30,32765
6.05197,-2.46645,0.24889,30,32765
6.03441,-2.48283,0.249699,29,32765
5.99841,-2.49136,0.24933,29,32765
6.17443,-2.58837,0.258321,32,32765
6.11052,-2.58553,0.25718,28,32765
6.05588,-2.58625,0.256454,13,32765
0,-0,0,0,32765
0,-0,0,0,32765
0,-0,0,0,32765
0,-0,0,0,32765
5.22695,-2.33654,0.22905,12,32765
5.20995,-2.34989,0.229895,13,32765
5.18373,-2.35919,0.230528,11,32765
0,-0,0,0,32765
0,-0,0,0,32765
0,-0,0,0,32765
0,-0,0,0,32765
6.43383,-3.05846,0.2976,26,32765
6.45048,-3.09302,0.30026,27,32765
6.45792,-3.12341,0.303235,27,32765
6.47423,-3.15814,0.307581,27,32765
6.56215,-3.22838,0.313209,27,32765
6.5513,-3.25016,0.31522,27,32765
6.55826,-3.28079,0.318297,26,32765
6.59167,-3.3253,0.323129,26,32765
6.61606,-3.36535,0.327092,26,32765
6.64003,-3.40606,0.331188,26,32765
6.68173,-3.45582,0.335764,27,32765
6.69653,-3.49211,0.339424,26,32765
6.75544,-3.55171,0.344873,26,32765
6.76115,-3.58348,0.347994,26,32765
6.76659,-3.61555,0.351259,24,32765
6.80716,-3.66644,0.356906,25,32765
6.8125,-3.69842,0.35929,25,32765
6.86146,-3.75449,0.364907,26,32765
6.91004,-3.81102,0.370871,26,32765
6.93225,-3.85306,0.376044,26,32765
6.93663,-3.88607,0.378511,15,32765
6.97598,-3.93823,0.382659,19,32765
7.01484,-3.99091,0.388651,24,32765
7.01879,-4.02398,0.392552,24,32765
7.08313,-4.0922,0.399181,24,32765
7.13816,-4.15638,0.405069,24,32765
7.12418,-4.18008,0.407292,23,32765
7.16997,-4.23984,0.413361,24,32765
7.22441,-4.30441,0.419851,25,32765
7.27006,-4.36401,0.426199,24,32765
7.28982,-4.40847,0.429912,25,32765
7.2923,-4.44264,0.433367,24,32765
7.32846,-4.49811,0.439086,24,32765
7.34739,-4.54333,0.443316,22,32765
7.38323,-4.59897,0.448916,21,32765
7.42712,-4.66039,0.455015,18,32765
7.47942,-4.72704,0.461556,15,32765
7.50576,-4.77854,0.466082,13,32765
7.54865,-4.841,0.472217,13,32765
7.5412,-4.87084,0.474665,13,32765
7.54178,-4.90644,0.478001,13,32765
7.55917,-4.95265,0.48236,14,32765
7.55957,-4.98821,0.485358,15,32765
7.49351,-4.97925,0.484232,15,32765
7.54357,-5.04795,0.490827,14,32765
7.51001,-5.06196,0.491158,14,32765
7.54276,-5.12028,0.496397,15,32765
7.49298,-5.12222,0.496161,15,32765
7.47656,-5.14601,0.497763,15,32765
7.47671,-5.18077,0.500472,15,32765
7.47622,-5.21628,0.503388,15,32765
7.42643,-5.21762,0.502665,15,32765
7.42548,-5.25348,0.505251,15,32765
7.39257,-5.26524,0.505277,15,32765
7.3761,-5.28819,0.50624,15,32765
7.35905,-5.31184,0.506857,15,32765
7.35741,-5.34803,0.509137,15,32765
7.32404,-5.35993,0.507538,15,32765
5.54476,-1.72763,0.164312,13,32765
5.59639,-1.76359,0.164564,13,32765
5.59056,-1.78208,0.163518,13,32765
5.67026,-1.82829,0.164767,13,32765
5.70238,-1.85887,0.165733,13,32765
5.71537,-1.88353,0.165287,13,32765
5.69025,-1.89583,0.164151,13,32765
5.78827,-1.94939,0.167166,13,32765
5.73447,-1.95244,0.165525,13,32765
5.71861,-1.9679,0.165412,14,32765
5.77812,-2.0099,0.167489,13,32765
5.762,-2.02573,0.167052,23,32765
5.76469,-2.04805,0.167943,15,32765
5.7296,-2.05714,0.167286,20,32765
5.72275,-2.07612,0.167058,13,32765
5.80028,-2.12608,0.17,22,32765
5.87761,-2.1764,0.17301,36,32765
5.92656,-2.21676,0.175398,39,32765
5.98467,-2.26102,0.177622,40,32765
5.96777,-2.27729,0.178247,40,32765
5.93215,-2.2864,0.177824,36,32765
5.98977,-2.33133,0.18028,38,32765
6.02866,-2.36904,0.182587,37,32765
6.09514,-2.41837,0.185461,37,32765
6.07785,-2.4347,0.185677,38,32765
6.08812,-2.46264,0.187193,37,32765
6.10756,-2.49438,0.189139,37,32765
6.11763,-2.52242,0.190922,39,32765
6.17377,-2.56965,0.193746,38,32765
6.13757,-2.57841,0.194192,36,32765
6.1473,-2.60666,0.195959,35,32765
6.12015,-2.6193,0.1966,18,32765
0,-0,0,0,32765
5.20435,-2.26894,0.170457,11,32765
5.29736,-2.33057,0.174865,11,32765
5.22553,-2.31991,0.173888,12,32765
5.16294,-2.31293,0.173087,13,32765
5.20066,-2.3508,0.175863,14,32765
5.20172,-2.37254,0.177617,12,32765
5.15726,-2.37349,0.177896,11,32765
5.2036,-2.41604,0.181328,11,32765
5.29513,-2.47977,0.186481,11,32765
6.3081,-2.97964,0.223692,12,32765
6.4515,-3.07362,0.231308,32,32765
6.46809,-3.10831,0.233696,32,32765
6.50246,-3.15191,0.23748,34,32765
6.53663,-3.19565,0.242236,32,32765
6.55269,-3.2309,0.244173,33,32765
6.60447,-3.28384,0.248543,32,32765
6.61131,-3.31472,0.251456,31,32765
6.60893,-3.34147,0.254472,30,32765
6.64217,-3.38621,0.258418,29,32765
6.65717,-3.42252,0.261804,28,32765
6.68993,-3.46785,0.265476,27,32765
6.68697,-3.495,0.268153,26,32765
6.74586,-3.5547,0.272854,23,32765
6.7692,-3.59588,0.276512,20,32765
6.74816,-3.6139,0.278507,19,32765
6.80632,-3.67434,0.284324,20,32765
6.8204,-3.71117,0.286896,22,32765
6.8693,-3.76738,0.291866,21,32765
6.92657,-3.8289,0.297559,21,32765
6.93127,-3.86137,0.301611,19,32765
6.90074,-3.87488,0.30237,13,32765
6.9836,-3.95164,0.307872,15,32765
7.01372,-3.99952,0.312925,17,32765
7.04364,-4.0476,0.317817,17,32765
7.08193,-4.10103,0.322437,16,32765
7.11964,-4.15528,0.32679,16,32765
7.10566,-4.17897,0.329014,15,32765
7.16003,-4.2439,0.33483,15,32765
7.18871,-4.29322,0.33936,16,32765
7.19157,-4.32708,0.343004,15,32765
7.21997,-4.37656,0.346741,13,32765
7.19697,-4.39495,0.348754,11,32765
0,-0,0,0,32765
0,-0,0,0,32765
0,-0,0,0,32765
0,-0,0,0,32765
0,-0,0,0,32765
0,-0,0,0,32765
0,-0,0,0,32765
0,-0,0,0,32765
0,-0,0,0,32765
0,-0,0,0,32765
0,-0,0,0,32765
0,-0,0,0,32765
0,-0,0,0,32765
0,-0,0,0,32765
0,-0,0,0,32765
0,-0,0,0,32765
0,-0,0,0,32765
0,-0,0,0,32765
0,-0,0,0,32765
0,-0,0,0,32765
0,-0,0,0,32765
0,-0,0,0,32765
0,-0,0,0,32765
0,-0,0,0,32765
0,-0,0,0,32765
0,-0,0,0,32765
5.57918,-1.72365,0.0860217,12,32765
5.64988,-1.76551,0.0908016,12,32765
5.6918,-1.79871,0.0943993,12,32765
5.76205,-1.84163,0.0980455,12,32765
5.75589,-1.86065,0.10086,12,32765
5.76874,-1.88572,0.103138,12,32765
5.78147,-1.91088,0.105899,11,32765
5.77519,-1.92963,0.108386,12,32765
5.85397,-1.97757,0.112604,12,32765
5.80009,-1.98063,0.113916,13,32765
5.88793,-2.03259,0.11743,12,32765
5.81508,-2.02892,0.117973,14,32765
5.85544,-2.06475,0.121319,16,32765
5.71677,-2.03688,0.120815,15,32765
5.63475,-2.02855,0.120986,15,32765
5.82527,-2.11901,0.126457,13,32765
5.90262,-2.16935,0.130953,28,32765
5.91411,-2.1958,0.133441,31,32765
5.85057,-2.19439,0.134011,31,32765
5.8993,-2.23509,0.137027,31,32765
5.95705,-2.27999,0.140069,32,32765
5.95863,-2.30359,0.142466,33,32765
6.02539,-2.3525,0.146099,33,32765
6.07326,-2.39462,0.148964,31,32765
6.00954,-2.39246,0.149806,33,32765
6.0757,-2.44233,0.153104,31,32765
6.11381,-2.48133,0.155944,35,32765
6.01299,-2.4637,0.155591,32,32765
6.1894,-2.56026,0.162543,32,32765
6.09772,-2.54631,0.162028,32,32765
6.16271,-2.59805,0.165161,34,32765
6.12629,-2.60702,0.166434,16,32765
0,-0,0,0,32765
0,-0,0,0,32765
0,-0,0,0,32765
0,-0,0,0,32765
5.31472,-2.36703,0.152708,12,32765
5.24283,-2.35629,0.152141,13,32765
0,-0,0,0,32765
0,-0,0,0,32765
0,-0,0,0,32765
0,-0,0,0,32765
0,-0,0,11,32765
0,-0,0,0,32765
0,-0,0,0,32765
0,-0,0,0,32765
0,-0,0,0,32765
0,-0,0,0,32765
0,-0,0,0,32765
0,-0,0,0,32765
0,-0,0,0,32765
1.53322,-0.777778,0.0520214,12,32765
1.62844,-0.833064,0.0555046,12,32765
1.54567,-0.79728,0.0533662,12,32765
1.52524,-0.793227,0.0532407,12,32765
1.60226,-0.840027,0.0566462,12,32765
1.5199,-0.803346,0.0542216,13,32765
1.56127,-0.831967,0.0561936,13,32765
1.63773,-0.879725,0.0594997,14,32765
1.44138,-0.780498,0.0533414,12,32765
1.44755,-0.790061,0.0539827,13,32765
1.35732,-0.7467,0.051139,13,32765
1.49469,-0.82872,0.0568555,13,32765
1.54427,-0.862899,0.0593781,13,32765
1.35851,-0.765023,0.0528832,14,32765
1.52982,-0.868101,0.0604416,14,32765
1.39676,-0.798776,0.0557508,13,32765
1.37679,-0.79339,0.0555062,13,32765
1.35687,-0.787876,0.0553663,13,32765
1.44911,-0.847882,0.0598221,13,32765
1.40319,-0.827342,0.0588112,13,32765
1.40895,-0.837206,0.0596045,13,32765
1.36326,-0.816211,0.058395,13,32765
1.36052,-0.820715,0.0592102,13,32765
1.29807,-0.788769,0.0570951,13,32765
1.32957,-0.813843,0.0591897,13,32765
1.42894,-0.881122,0.0644338,13,32765
1.40058,-0.869936,0.0639453,13,32765
1.30451,-0.816222,0.0602709,13,32765
1.35254,-0.852424,0.0633357,13,32765
1.29909,-0.824727,0.0616171,13,32765
1.30474,-0.834405,0.0626744,13,32765
1.36077,-0.876532,0.0662751,13,32765
1.29916,-0.842973,0.0639643,13,32765
1.22945,-0.803477,0.0614415,12,32765
1.28517,-0.845981,0.0651515,13,32765
1.28238,-0.850159,0.0658413,13,32765
1.35437,-0.904219,0.0704346,12,32765
1.35968,-0.914173,0.071805,13,32765
1.27393,-0.862585,0.0681698,13,32765
1.45264,-0.990564,0.078807,12,32765
1.36695,-0.938823,0.0751965,13,32765
1.33099,-0.92051,0.0743,13,32765
1.33616,-0.930511,0.0756392,12,32765
1.31676,-0.923319,0.0756272,13,32765
1.28921,-0.910333,0.0750512,12,32765
1.3106,-0.931896,0.0774774,12,32765
1.31566,-0.941914,0.0790076,13,32765
1.34501,-0.969449,0.0819929,12,32765
1.35801,-0.985455,0.0841272,12,32765
0,-0,0,0,32765
5.52129,-1.70961,0.0307387,13,32765
5.6016,-1.75436,0.0347909,13,32765
5.6817,-1.79956,0.0381529,13,32765
5.71386,-1.83033,0.0407732,13,32765
5.70775,-1.84923,0.0435669,13,32765
5.72064,-1.8742,0.0456439,13,32765
5.71443,-1.89297,0.0480404,12,32765
5.76512,-1.9306,0.051005,13,32765
5.7397,-1.94333,0.0534049,13,32765
5.76164,-1.97192,0.0558813,13,32765
5.78335,-2.00098,0.0577861,13,32765
5.82389,-2.03657,0.0601273,14,32765
5.79823,-2.04919,0.0623008,19,32765
5.72555,-2.04461,0.0638293,17,32765
5.82223,-2.10078,0.0668094,19,32765
5.79641,-2.11329,0.0678202,14,32765
5.75179,-2.1187,0.0699765,27,32765
5.96963,-2.22143,0.0748117,40,32765
5.91537,-2.22373,0.0760872,38,32765
5.97334,-2.26828,0.0786849,37,32765
5.97496,-2.29204,0.0803388,39,32765
5.98582,-2.31937,0.0827813,38,32765
6.00596,-2.35026,0.0850154,36,32765
6.04453,-2.38874,0.0871818,35,32765
6.05514,-2.41612,0.0896816,33,32765
6.00063,-2.41767,0.090426,29,32765
6.03882,-2.45651,0.0927789,30,32765
6.04908,-2.48418,0.0950901,27,32765
6.05914,-2.51215,0.0975042,22,32765
6.07832,-2.54405,0.0996179,20,32765
6.10645,-2.58028,0.101388,19,32765
6.09769,-2.60084,0.103397,12,32765
0,-0,0,0,32765
0,-0,0,0,32765
0,-0,0,0,32765
0,-0,0,0,32765
0,-0,0,0,32765
0,-0,0,0,32765
0,-0,0,0,32765
0,-0,0,0,32765
1.49717,-0.6929,0.0296313,13,32765
1.34988,-0.630226,0.0270995,13,32765
1.38395,-0.651748,0.0283909,14,32765
1.40889,-0.66917,0.0292054,14,32765
1.40663,-0.673877,0.0296616,14,32765
1.46735,-0.709088,0.0314781,14,32765
1.36606,-0.665881,0.0298007,14,32765
1.41761,-0.697007,0.0310655,14,32765
1.46003,-0.723973,0.0326396,14,32765
1.33243,-0.666204,0.0302416,14,32765
1.36587,-0.688694,0.0314217,14,32765
1.35459,-0.688816,0.0317139,14,32765
1.36113,-0.697993,0.0320544,14,32765
1.36765,-0.707155,0.0327885,14,32765
1.38299,-0.720984,0.033658,14,32765
1.31863,-0.693,0.0326589,15,32765
1.3693,-0.725501,0.0343286,15,32765
1.29628,-0.69244,0.0328867,14,32765
1.35557,-0.72994,0.0348256,14,32765
1.37067,-0.74402,0.0361154,14,32765
1.32433,-0.724579,0.0352483,14,32765
1.33065,-0.733821,0.0359027,15,32765
1.25829,-0.699369,0.0343828,14,32765
1.32574,-0.742612,0.0367473,14,32765
1.27972,-0.722436,0.0360579,14,32765
1.23389,-0.701905,0.0354607,14,32765
1.29223,-0.740828,0.0376361,14,32765
1.30708,-0.75509,0.038568,14,32765
1.27865,-0.744306,0.0383292,14,32765
1.24166,-0.728317,0.0377888,14,32765
1.27362,-0.75282,0.0395384,14,32765
1.27962,-0.762267,0.0401998,14,32765
1.25992,-0.756231,0.0402233,14,32765
1.24027,-0.750059,0.0404206,14,32765
1.27198,-0.774863,0.0420189,14,32765
1.26091,-0.773766,0.0422999,14,32765
1.24134,-0.767382,0.04233,14,32765
1.22185,-0.760847,0.0423292,14,32765
1.23626,-0.775483,0.0434764,14,32765
1.22525,-0.774169,0.0438292,14,32765
1.24797,-0.794298,0.0453682,14,32765
1.18641,-0.76067,0.0438215,14,32765
1.20068,-0.775392,0.0451242,14,32765
1.25672,-0.817533,0.0478695,14,32765
1.25401,-0.821636,0.0486653,14,32765
1.2596,-0.831283,0.0497599,14,32765
1.22356,-0.813259,0.0491015,13,32765
1.11292,-0.744943,0.0453732,13,32765
1.16848,-0.787655,0.0485513,14,32765
1.20721,-0.819533,0.0509788,14,32765
1.24574,-0.851685,0.053497,14,32765
1.21817,-0.838822,0.0532086,14,32765
1.18256,-0.81999,0.0525855,14,32765
1.18806,-0.829535,0.0537353,14,32765
1.17717,-0.827601,0.0541853,14,32765
1.23967,-0.877646,0.0579985,14,32765
1.17165,-0.835289,0.0558427,13,32765
1.21762,-0.874018,0.059142,14,32765
1.19859,-0.866187,0.059277,13,32765
1.20384,-0.875885,0.0606956,14,32765
1.20093,-0.879802,0.061831,13,32765
5.74158,-1.77519,0.055187,12,32765
5.61167,-1.7552,0.05275,12,32765
5.72985,-1.81278,0.0528895,12,32765
5.72398,-1.83125,0.0516927,11,32765
5.67997,-1.83746,0.05044,12,32765
5.76904,-1.88691,0.051344,12,32765
5.7439,-1.89935,0.0507835,12,32765
5.87046,-1.96244,0.0515822,12,32765
5.79747,-1.95989,0.0501231,12,32765
5.81918,-1.98922,0.0508887,12,32765
5.79357,-2.00221,0.0507526,12,32765
5.99473,-2.09355,0.052803,11,32765
5.85597,-2.06617,0.0512764,16,32765
5.78327,-2.06173,0.0509696,13,32765
5.75763,-2.07399,0.0512385,16,32765
5.85401,-2.13089,0.0529734,12,32765
5.8562,-2.154,0.0529176,20,32765
5.85842,-2.17681,0.0538337,33,32765
5.92607,-2.2243,0.0555466,34,32765
0,-0,0,0,32765
0,-0,0,0,32765
0,-0,0,0,32765
0,-0,0,0,32765
0,-0,0,0,32765
0,-0,0,0,32765
0,-0,0,0,32765
1.501,-0.609203,0.0160274,12,32765
1.47121,-0.602808,0.0159855,13,32765
1.49688,-0.619241,0.0166587,13,32765
1.51325,-0.631971,0.017136,14,32765
1.47426,-0.621506,0.0170935,13,32765
1.555,-0.66162,0.018452,14,32765
1.46092,-0.627298,0.0176381,13,32765
1.4955,-0.648095,0.0184199,13,32765
1.41084,-0.617096,0.0180109,13,32765
1.37215,-0.6057,0.0178869,13,32765
1.48885,-0.663205,0.0195653,13,32765
1.31333,-0.590308,0.017734,13,32765
1.36597,-0.619504,0.018803,13,32765
1.38208,-0.632349,0.01951,14,32765
1.37086,-0.632805,0.0197279,14,32765
1.33249,-0.620482,0.0196539,14,32765
1.36659,-0.641969,0.020495,14,32765
1.39152,-0.6594,0.0214663,14,32765
1.37124,-0.655457,0.021655,14,32765
1.36903,-0.660055,0.0222519,14,32765
1.33985,-0.651471,0.0220746,13,32765
1.38252,-0.678017,0.0228943,14,32765
1.3354,-0.660516,0.022642,13,32765
1.36894,-0.68289,0.0236456,14,32765
1.29516,-0.651566,0.0229841,14,32765
1.30185,-0.660474,0.0236012,13,32765
1.3085,-0.669427,0.0242341,14,32765
1.31515,-0.678338,0.025042,14,32765
1.35723,-0.705784,0.0263652,14,32765
1.3017,-0.682499,0.0257822,14,32765
1.29939,-0.686869,0.0264319,14,32765
1.26172,-0.672515,0.0264056,13,32765
1.29467,-0.695671,0.0277883,14,32765
1.26596,-0.685699,0.0274164,13,32765
1.27245,-0.694677,0.0280897,14,32765
1.37523,-0.756764,0.0309956,13,32765
1.30276,-0.722514,0.0298606,14,32765
1.24798,-0.697564,0.0291902,14,32765
1.25434,-0.706628,0.0299385,14,32765
1.31283,-0.745355,0.0318865,14,32765
1.24087,-0.710067,0.030599,14,32765
1.30779,-0.754131,0.032801,15,32765
1.22747,-0.713256,0.0313409,14,32765
1.26822,-0.742584,0.0329897,14,32765
1.28295,-0.75696,0.0338415,14,32765
1.27182,-0.756125,0.0340002,14,32765
1.26073,-0.755171,0.0343493,14,32765
1.24964,-0.754188,0.0344881,14,32765
1.2215,-0.742744,0.0342206,14,32765
1.22756,-0.751983,0.034808,14,32765
1.19952,-0.740313,0.0345117,14,32765
1.18009,-0.733684,0.0344553,14,32765
1.20308,-0.753481,0.0357125,14,32765
1.21748,-0.768119,0.0365861,14,32765
1.24869,-0.793553,0.0379893,14,32765
1.15344,-0.738394,0.0355083,13,32765
1.19304,-0.769205,0.0371959,14,32765
1.20732,-0.783914,0.0381749,13,32765
1.17132,-0.765904,0.0373835,14,32765
1.16883,-0.769683,0.0378076,14,32765
1.22461,-0.812183,0.0399858,14,32765
1.23024,-0.821742,0.0407359,14,32765
1.15283,-0.775624,0.03853,13,32765
1.22473,-0.829888,0.0414462,14,32765
1.19723,-0.816977,0.0409751,13,32765
1.18633,-0.815198,0.0410048,14,32765
1.15903,-0.80195,0.0403285,14,32765
1.11542,-0.777105,0.0392546,14,32765
1.15382,-0.809404,0.0409258,14,32765
1.15119,-0.813115,0.0411616,14,32765
1.1404,-0.811046,0.0411557,14,32765
1.16216,-0.832165,0.0422576,14,32765
1.14329,-0.824161,0.0419012,14,32765
1.13257,-0.821911,0.0416868,13,32765
1.10575,-0.80781,0.0407685,14,32765
5.60693,-1.73759,-0.00133825,13,32765
5.60119,-1.75601,-0.002576,13,32765
5.63352,-1.78648,-0.00359972,13,32765
5.67533,-1.81995,-0.00481346,13,32765
5.70744,-1.85069,-0.00575543,13,32765
5.72042,-1.87542,-0.0057127,13,32765
5.75225,-1.90662,-0.00613898,13,32765
5.72703,-1.91903,-0.00648255,12,32765
5.78678,-1.96093,-0.007428,12,32765
5.79901,-1.98705,-0.00693042,12,32765
5.83008,-2.01964,-0.00694229,12,32765
0,-0,-0,0,32765
5.84518,-2.06731,-0.0071068,11,32765
0,-0,-0,0,32765
5.83148,-2.10565,-0.00638472,11,32765
0,-0,-0,0,32765
0,-0,-0,0,32765
1.61182,-0.600354,-0.0013533,13,32765
1.46007,-0.549355,-0.000974113,14,32765
1.41152,-0.536398,-0.000973503,14,32765
1.48441,-0.56976,-0.000681304,14,32765
1.44521,-0.560238,-0.000512295,15,32765
1.43405,-0.561341,-0.000230517,14,32765
1.41358,-0.558735,-4.51018e-05,14,32765
1.46745,-0.585651,0.000252663,14,32765
1.39129,-0.560633,0.000504628,15,32765
1.36161,-0.553989,0.000733751,14,32765
1.39676,-0.573714,0.000996855,15,32765
1.39481,-0.57844,0.00134424,15,32765
1.32829,-0.556099,0.00152143,14,32765
1.32641,-0.560563,0.00186032,15,32765
1.37053,-0.58458,0.00227594,15,32765
1.32266,-0.569345,0.00245225,14,32765
1.3024,-0.565816,0.0027137,14,32765
1.35542,-0.594332,0.00341377,14,32765
1.34425,-0.594866,0.00372864,15,32765
1.28746,-0.574929,0.00368844,14,32765
1.3311,-0.599796,0.00427587,15,32765
1.31996,-0.600144,0.0045667,14,32765
1.29978,-0.596188,0.00493406,15,32765
1.34314,-0.621568,0.00544706,14,32765
1.30481,-0.609127,0.00574028,14,32765
1.27561,-0.600744,0.00590777,14,32765
1.28261,-0.609326,0.00647085,14,32765
1.21742,-0.583401,0.00656811,14,32765
1.24245,-0.600549,0.00725692,14,32765
1.23146,-0.600291,0.0074463,14,32765
1.22942,-0.604467,0.00751768,14,32765
1.27215,-0.630838,0.00826108,15,32765
1.24317,-0.621736,0.00844726,15,32765
1.23212,-0.621443,0.00893459,15,32765
1.28348,-0.652825,0.00977648,14,32765
1.21897,-0.625226,0.0097416,14,32765
1.22577,-0.633861,0.0104133,14,32765
1.21477,-0.633332,0.0107662,14,32765
1.22147,-0.642087,0.0112692,14,32765
1.26348,-0.669611,0.0123107,14,32765
1.18178,-0.63154,0.0121862,14,32765
1.18845,-0.640251,0.0128697,14,32765
1.20388,-0.653764,0.0132473,14,32765
1.16661,-0.638552,0.0133046,14,32765
1.19948,-0.661775,0.014213,14,32765
1.17106,-0.651169,0.0143026,14,32765
1.16016,-0.650172,0.0146918,15,32765
1.15797,-0.654047,0.0151954,14,32765
1.19053,-0.677696,0.0161006,15,32765
1.1969,-0.686706,0.0166072,15,32765
1.20326,-0.695685,0.01718,14,32765
1.15773,-0.674511,0.0170301,14,32765
1.19859,-0.703672,0.0181824,14,32765
1.17041,-0.692393,0.018159,15,32765
1.15091,-0.686063,0.0182425,15,32765
1.14863,-0.689858,0.0187713,15,32765
1.15487,-0.698855,0.0192571,15,32765
1.18669,-0.72351,0.0202577,14,32765
1.15021,-0.706489,0.0200024,14,32765
1.14783,-0.710323,0.0204143,14,32765
1.12852,-0.703512,0.0205276,14,32765
1.09231,-0.68596,0.0203779,14,32765
1.16608,-0.737684,0.022156,15,32765
1.16364,-0.741512,0.0225182,15,32765
1.18641,-0.761572,0.0233616,15,32765
1.15034,-0.743702,0.0230781,14,32765
1.12279,-0.731029,0.0229975,14,32765
1.07862,-0.707229,0.0223886,14,32765
1.05129,-0.694189,0.0222508,14,32765
1.09895,-0.730859,0.0235702,14,32765
1.09653,-0.734464,0.0239979,14,32765
1.11064,-0.749313,0.0246244,14,32765
1.10815,-0.752983,0.0250074,15,32765
1.10567,-0.756604,0.0253498,15,32765
1.0785,-0.743179,0.0250678,14,32765
1.10895,-0.769455,0.0260051,14,32765
1.09825,-0.767303,0.0261648,14,32765
1.07123,-0.753595,0.0257922,14,32765
1.0851,-0.768608,0.02641,15,32765
1.05003,-0.748906,0.0258806,15,32765
1.03949,-0.746454,0.0258783,14,32765
1.05331,-0.761474,0.0265004,15,32765
1.04279,-0.758936,0.0263743,14,32765
1.04844,-0.768157,0.0265566,14,32765
0,-0,-0,0,32765
0,-0,-0,0,32765
0,-0,-0,0,32765
1.68654,-0.536648,-0.0221421,11,32765
1.58006,-0.508532,-0.0199014,11,32765
0,-0,-0,0,32765
0,-0,-0,0,32765
0,-0,-0,0,32765
0,-0,-0,0,32765
1.54316,-0.524688,-0.0163456,11,32765
1.55085,-0.533123,-0.015729,12,32765
1.38848,-0.482536,-0.0134898,12,32765
1.43403,-0.503759,-0.0136635,12,32765
1.41351,-0.501831,-0.0128039,13,32765
1.42125,-0.509894,-0.0124903,14,32765
1.41958,-0.514547,-0.0117751,14,32765
1.36153,-0.498601,-0.0109422,13,32765
1.40679,-0.520404,-0.0108814,14,32765
1.45191,-0.542531,-0.0107451,14,32765
1.36591,-0.515556,-0.00961291,14,32765
1.42025,-0.541475,-0.00948145,14,32765
1.37174,-0.528338,-0.00877506,14,32765
1.41653,-0.551149,-0.00841356,14,32765
1.45187,-0.570608,-0.00826293,15,32765
1.31054,-0.520141,-0.00705116,14,32765
1.33664,-0.535667,-0.00673053,14,32765
1.3441,-0.543925,-0.00634366,14,32765
1.39784,-0.571058,-0.00625827,15,32765
1.33121,-0.549035,-0.00560786,15,32765
1.37552,-0.57272,-0.00528339,15,32765
1.29984,-0.546359,-0.00457525,14,32765
1.31639,-0.558564,-0.00436134,15,32765
1.3237,-0.566924,-0.00384377,14,32765
1.30341,-0.563482,-0.00335152,14,32765
1.33818,-0.583841,-0.00305486,15,32765
1.29043,-0.568229,-0.00273311,15,32765
1.34333,-0.596948,-0.0023062,15,32765
1.35047,-0.605487,-0.00190324,14,32765
1.31201,-0.593495,-0.00143763,14,32765
1.28269,-0.58549,-0.000948011,14,32765
1.39876,-0.64425,-0.000700477,14,32765
1.2696,-0.590018,-0.0002228,14,32765
1.23139,-0.5773,0.000130241,14,32765
1.22044,-0.577086,0.000647648,14,32765
1.28168,-0.611309,0.000781622,14,32765
1.18052,-0.56787,0.00110629,14,32765
1.28657,-0.624197,0.00174446,14,32765
1.24852,-0.610977,0.00162495,14,32765
1.2106,-0.597446,0.00189278,14,32765
1.17277,-0.583692,0.00245342,14,32765
1.24233,-0.623466,0.00283862,14,32765
1.15994,-0.586958,0.00300465,14,32765
1.18467,-0.604511,0.00350726,14,32765
1.20039,-0.6177,0.00392102,14,32765
1.18051,-0.612598,0.00423456,14,32765
1.19616,-0.62585,0.00484173,14,32765
1.19405,-0.629855,0.00531164,14,32765
1.20959,-0.643237,0.00579323,14,32765
1.19854,-0.642696,0.00649698,14,32765
1.15242,-0.62289,0.00660445,14,32765
1.19422,-0.65068,0.00736464,14,32765
1.15698,-0.635411,0.00754454,14,32765
1.16358,-0.644133,0.00803361,15,32765
1.16144,-0.647991,0.00843553,14,32765
1.08083,-0.607733,0.00827199,14,32765
1.14843,-0.650706,0.00925947,14,32765
1.2244,-0.699172,0.0103181,14,32765
1.17874,-0.678285,0.0105263,15,32765
1.15917,-0.672164,0.0108624,14,32765
1.1483,-0.670952,0.0112381,14,32765
1.15466,-0.679877,0.0117825,15,32765
1.10937,-0.658221,0.0119162,14,32765
1.14151,-0.682421,0.0127823,14,32765
1.13066,-0.681045,0.0132126,14,32765
1.12841,-0.684756,0.0137649,15,32765
1.21999,-0.745843,0.0154894,14,32765
1.13239,-0.697403,0.0149425,14,32765
1.12159,-0.69584,0.0154171,14,32765
1.11084,-0.694174,0.0159678,14,32765
1.15933,-0.729759,0.017298,14,32765
1.17383,-0.744235,0.0181839,15,32765
1.12078,-0.715841,0.0178744,14,32765
1.11843,-0.719492,0.0185708,14,32765
1.15802,-0.750332,0.0199373,14,32765
1.15554,-0.754117,0.0206138,14,32765
1.12798,-0.741437,0.0208411,14,32765
1.10883,-0.734125,0.0212611,14,32765
1.0648,-0.710049,0.021013,14,32765
1.11225,-0.74699,0.0227058,14,32765
1.10151,-0.74501,0.0232427,14,32765
1.12388,-0.765432,0.02452,14,32765
1.08015,-0.740795,0.0243424,14,32765
1.09419,-0.75564,0.0254258,14,32765
1.13277,-0.78771,0.027241,14,32765
1.15474,-0.808614,0.0287295,15,32765
1.05403,-0.743229,0.0269957,14,32765
1.08417,-0.769842,0.0287177,14,32765
1.10604,-0.790798,0.0302867,14,32765
1.09533,-0.788545,0.0309728,13,32765
1.13324,-0.821375,0.0331536,14,32765
1.08213,-0.789635,0.0327505,14,32765
0,-0,-0,0,32765
0,-0,-0,0,32765
0,-0,-0,0,32765
1.32392,-0.422372,-0.0304565,13,32765
1.38913,-0.448256,-0.0312293,14,32765
1.36867,-0.446587,-0.0302131,15,32765
1.3767,-0.454192,-0.0299204,15,32765
1.34679,-0.449161,-0.0285673,14,32765
1.33584,-0.450398,-0.0279491,15,32765
1.36272,-0.464551,-0.0279744,15,32765
1.38952,-0.478913,-0.0279139,15,32765
1.30293,-0.45399,-0.0256326,14,32765
1.27311,-0.448402,-0.0248213,15,32765
1.29988,-0.462699,-0.0247468,15,32765
1.31716,-0.473788,-0.0247347,15,32765
1.32501,-0.481525,-0.0242429,15,32765
1.24833,-0.45834,-0.0225317,15,32765
1.28432,-0.476344,-0.0228085,15,32765
1.31084,-0.491101,-0.0228564,14,32765
1.34662,-0.509606,-0.0230072,15,32765
1.2702,-0.485536,-0.0212571,14,32765
1.34316,-0.518686,-0.0221202,16,32765
1.25755,-0.490576,-0.0201507,15,32765
1.32099,-0.520532,-0.0208559,15,32765
1.2635,-0.502789,-0.0195714,15,32765
1.23398,-0.495825,-0.0187041,15,32765
1.26936,-0.515034,-0.018856,15,32765
1.26765,-0.519239,-0.0185394,14,32765
1.24743,-0.515839,-0.0179301,15,32765
1.23647,-0.516183,-0.0173295,15,32765
1.20708,-0.508711,-0.0165462,15,32765
1.23295,-0.524545,-0.0166629,16,32765
1.25875,-0.540534,-0.0165136,15,32765
1.22938,-0.532889,-0.0157369,15,32765
1.23675,-0.541022,-0.0154917,15,32765
1.23491,-0.545227,-0.0152827,15,32765
1.19653,-0.533124,-0.0143449,15,32765
1.21299,-0.545296,-0.0141867,15,32765
1.17474,-0.532821,-0.0133881,15,32765
1.22748,-0.561786,-0.0135697,16,32765
1.18924,-0.549214,-0.0128816,15,32765
1.16923,-0.544832,-0.0123025,15,32765
1.1493,-0.540258,-0.011787,15,32765
1.19268,-0.565477,-0.0117433,16,32765
1.13665,-0.543597,-0.0111193,15,32765
1.19789,-0.57778,-0.0113449,15,32765
1.15099,-0.559924,-0.0104369,15,32765
1.15805,-0.56824,-0.0105828,15,32765
1.15615,-0.572119,-0.0102811,15,32765
1.13632,-0.567084,-0.00952287,15,32765
1.08083,-0.543894,-0.00886701,15,32765
1.13252,-0.574643,-0.00896388,15,32765
1.16618,-0.596698,-0.00881836,15,32765
1.12859,-0.58234,-0.00820836,16,32765
1.1532,-0.600062,-0.00803787,15,32765
1.15116,-0.60396,-0.00751347,15,32765
1.16681,-0.617176,-0.00716849,16,32765
1.13826,-0.606971,-0.00662508,15,32765
1.10092,-0.591976,-0.00573301,15,32765
1.12533,-0.609926,-0.00553106,16,32765
1.12327,-0.613713,-0.00505175,15,32765
1.12121,-0.617471,-0.00466612,15,32765
1.05792,-0.587266,-0.00401692,16,32765
1.10833,-0.620078,-0.00383119,15,32765
1.08884,-0.61394,-0.00335918,15,32765
1.06943,-0.607631,-0.0028815,15,32765
1.08474,-0.621153,-0.00254843,15,32765
1.08267,-0.624751,-0.00201971,15,32765
1.07194,-0.623326,-0.00154814,15,32765
1.08713,-0.63699,-0.00113922,15,32765
1.08498,-0.640646,-0.000705628,16,32765
1.05704,-0.628939,-0.000141103,15,32765
1.09783,-0.658161,0.000332247,15,32765
1.06995,-0.646298,0.000824125,16,32765
1.09344,-0.665415,0.0013806,15,32765
1.09976,-0.674251,0.00191343,15,32765
1.07202,-0.662098,0.00237807,15,32765
1.05285,-0.655053,0.00289277,15,32765
1.02529,-0.642543,0.00344038,14,32765
1.09083,-0.688601,0.00423284,16,32765
1.0717,-0.681424,0.00474705,15,32765
1.05258,-0.674207,0.00512037,16,32765
1.06717,-0.688488,0.00586832,15,32765
1.07329,-0.697432,0.00653555,15,32765
1.06262,-0.695474,0.00710823,15,32765
1.04362,-0.687966,0.00762285,15,32765
1.06632,-0.70802,0.00850823,15,32765
1.06396,-0.711549,0.00906071,15,32765
1.06161,-0.71505,0.00973789,15,32765
1.05926,-0.718516,0.0104189,15,32765
1.0239,-0.699367,0.0107809,15,32765
1.03809,-0.714024,0.0116522,15,32765
1.01933,-0.705993,0.0121319,15,32765
1.05803,-0.737891,0.0134255,15,32765
1.03923,-0.729862,0.0140257,15,32765
1.00418,-0.710154,0.0142632,15,32765
1.02626,-0.730862,0.0154505,15,32765
1.04824,-0.751676,0.0166933,15,32765
0.99713,-0.719966,0.0167459,15,32765
1.03524,-0.752554,0.0183727,14,32765
1.05701,-0.773584,0.0197993,15,32765
1.61491,-0.497056,-0.0332428,11,32765
0,-0,-0,0,32765
0,-0,-0,0,32765
1.37181,-0.436919,-0.0289373,12,32765
1.41795,-0.456748,-0.0301493,13,32765
1.41643,-0.461425,-0.030189,13,32765
1.39591,-0.459835,-0.0299751,14,32765
1.3659,-0.455018,-0.0294452,15,32765
1.36441,-0.459491,-0.0292629,14,32765
1.36289,-0.463981,-0.0293392,14,32765
1.44647,-0.497659,-0.0310067,15,32765
1.32207,-0.459683,-0.0284807,14,32765
1.36772,-0.48063,-0.0290845,14,32765
1.32841,-0.471843,-0.0282357,15,32765
1.25152,-0.449311,-0.0265563,14,32765
1.23121,-0.446693,-0.0259939,14,32765
1.22974,-0.450748,-0.0258622,14,32765
1.32201,-0.489514,-0.0276865,14,32765
1.21739,-0.455322,-0.0253708,15,32765
1.29069,-0.487659,-0.0267776,15,32765
1.30774,-0.4991,-0.0269095,15,32765
1.26874,-0.489112,-0.0260184,15,32765
1.2671,-0.493367,-0.0256649,14,32765
1.24685,-0.490255,-0.025049,14,32765
1.21733,-0.48333,-0.0243064,14,32765
1.28998,-0.51712,-0.0253811,14,32765
1.23263,-0.498927,-0.0241451,15,32765
1.24022,-0.506827,-0.0240015,15,32765
1.2108,-0.499535,-0.0231695,14,32765
1.19986,-0.49982,-0.0228011,15,32765
1.22581,-0.515512,-0.0229985,16,32765
1.18726,-0.504026,-0.0219625,15,32765
1.23152,-0.527681,-0.0224913,15,32765
1.15635,-0.500021,-0.0209173,14,32765
1.20966,-0.527882,-0.0216345,15,32765
1.18044,-0.519851,-0.020656,16,32765
1.17867,-0.523854,-0.0203547,15,32765
1.16777,-0.52376,-0.0197376,15,32765
1.11135,-0.502959,-0.0183421,14,32765
1.15512,-0.527489,-0.0188229,15,32765
1.226,-0.564844,-0.0194759,14,32765
1.19692,-0.556263,-0.0188669,15,32765
1.19506,-0.560266,-0.0184394,14,32765
1.15701,-0.547185,-0.0175718,14,32765
1.11003,-0.529582,-0.0164085,15,32765
1.17132,-0.563661,-0.0169885,15,32765
1.15147,-0.558801,-0.0163265,15,32765
1.15857,-0.567053,-0.0163678,15,32765
1.11184,-0.548806,-0.0151954,15,32765
1.11892,-0.557038,-0.0150686,15,32765
1.13488,-0.56984,-0.014929,15,32765
1.13295,-0.573694,-0.0143261,14,32765
1.12207,-0.573029,-0.0136872,15,32765
1.12903,-0.581379,-0.0134967,15,32765
1.16257,-0.603604,-0.0135536,15,32765
1.12511,-0.588955,-0.0128552,15,32765
1.132,-0.597346,-0.0124961,15,32765
1.13881,-0.605862,-0.0121308,15,32765
1.1279,-0.605086,-0.0110999,15,32765
1.08191,-0.585034,-0.0101083,14,32765
1.07992,-0.588705,-0.00964918,15,32765
1.10424,-0.606759,-0.00942985,15,32765
1.08471,-0.600764,-0.00883203,15,32765
1.07396,-0.599529,-0.00835061,14,32765
1.02838,-0.578594,-0.00764454,14,32765
1.12215,-0.63626,-0.00787641,15,32765
1.08527,-0.620189,-0.00722829,15,32765
1.09187,-0.628786,-0.00688932,15,32765
1.07248,-0.622373,-0.00633192,15,32765
1.10492,-0.646146,-0.00618672,15,32765
1.07693,-0.634588,-0.00557638,15,32765
1.06621,-0.633072,-0.0050512,15,32765
1.07267,-0.641764,-0.00474503,15,32765
1.06195,-0.640194,-0.00428183,15,32765
1.04269,-0.633387,-0.00379661,15,32765
1.02355,-0.626373,-0.00339267,15,32765
1.06404,-0.655981,-0.00306687,15,32765
1.06186,-0.6595,-0.00279651,16,32765
1.05972,-0.662938,-0.00234892,15,32765
1.09137,-0.687758,-0.00203085,15,32765
1.03846,-0.65917,-0.00152378,14,32765
1.01943,-0.651811,-0.00124884,15,32765
1.0509,-0.67683,-0.000862178,14,32765
0.998345,-0.647617,-0.000457646,15,32765
1.06317,-0.694678,-0.000117589,14,32765
1.03582,-0.681666,0.000178725,15,32765
1.02524,-0.67955,0.000560782,15,32765
1.00638,-0.671792,0.000848369,15,32765
1.02077,-0.686243,0.00118045,15,32765
1.01852,-0.689582,0.00145986,15,32765
0.991489,-0.675979,0.00182496,15,32765
1.02227,-0.701824,0.0021889,15,32765
0.995323,-0.68806,0.00231647,15,32765
1.04235,-0.725529,0.00274797,15,32765
1.0318,-0.723175,0.00295212,15,32765
1.02945,-0.726507,0.00327752,15,32765
0.99448,-0.706681,0.00334355,15,32765
0.984092,-0.704024,0.00355166,15,32765
0.998095,-0.718812,0.00382732,15,32765
0.987629,-0.716222,0.00387239,14,32765
0.985296,-0.719427,0.00404549,15,32765
1.31807,-0.406793,-0.0401167,15,32765
1.33581,-0.417049,-0.0409657,15,32765
1.38209,-0.436456,-0.0427912,14,32765
1.28545,-0.41053,-0.0398155,15,32765
1.30311,-0.420904,-0.0405948,15,32765
1.2352,-0.403486,-0.0385543,15,32765
1.27182,-0.420106,-0.0399139,15,32765
1.23248,-0.411697,-0.0387954,15,32765
1.22165,-0.412546,-0.0383328,15,32765
1.25812,-0.429494,-0.0395908,15,32765
1.26618,-0.436829,-0.0397421,16,32765
1.2553,-0.437671,-0.0395475,15,32765
1.29156,-0.455121,-0.0403456,15,32765
1.21469,-0.432644,-0.0379461,15,32765
1.25084,-0.450308,-0.0390444,15,32765
1.23993,-0.4511,-0.0385856,16,32765
1.23843,-0.455194,-0.0384519,15,32765
1.22756,-0.455802,-0.0380204,15,32765
1.24478,-0.466858,-0.0384405,15,32765
1.21517,-0.460403,-0.0374268,15,32765
1.25097,-0.478763,-0.0383323,15,32765
1.21205,-0.468563,-0.0370702,15,32765
1.2291,-0.47991,-0.0372965,16,32765
1.19031,-0.469332,-0.0359375,16,32765
1.19803,-0.476995,-0.0360383,16,32765
