x, y, z, intensity, ring
1.4826,0.20906,0.195714,18,32765
1.47348,0.202727,0.194286,17,32765
1.48401,0.199128,0.195386,17,32765
1.48468,0.194213,0.195239,18,32765
1.4755,0.188018,0.193747,17,32765
1.49582,0.185579,0.196136,17,32765
1.51614,0.183043,0.198536,17,32765
1.49707,0.175746,0.195713,16,32765
1.4878,0.169741,0.194238,17,32765
1.49825,0.165875,0.195279,17,32765
1.51853,0.163054,0.197718,16,32765
1.49936,0.155933,0.194933,17,32765
1.49991,0.150967,0.194653,17,32765
1.48067,0.144083,0.191958,16,32765
1.50095,0.14095,0.194116,17,32765
1.49155,0.135065,0.192704,17,32765
1.47226,0.128374,0.189889,17,32765
1.48259,0.124365,0.190941,17,32765
1.483,0.119534,0.190822,18,32765
1.49332,0.115435,0.191769,18,32765
1.48381,0.109852,0.190394,18,32765
1.48421,0.104968,0.190028,18,32765
1.47467,0.0993918,0.188629,18,32765
1.48493,0.095117,0.189571,18,32765
1.47538,0.0895689,0.187957,18,32765
1.4757,0.0847562,0.187695,18,32765
1.48592,0.0804638,0.188617,18,32765
1.49609,0.0761894,0.1898,18,32765
1.47653,0.0704498,0.187096,17,32765
1.44706,0.0643506,0.182994,18,32765
1.45719,0.0600678,0.184064,18,32765
1.46735,0.0556643,0.184855,18,32765
1.47748,0.0512319,0.185833,18,32765
1.48759,0.0467168,0.186767,17,32765
1.46796,0.0412325,0.183836,18,32765
1.47804,0.0367518,0.18475,18,32765
1.46828,0.0316805,0.183139,18,32765
1.47835,0.0270597,0.184014,18,32765
1.48837,0.0224356,0.185043,18,32765
1.4488,0.0171013,0.179699,18,32765
1.48859,0.012798,0.184193,18,32765
1.45891,0.00787037,0.180025,17,32765
1.459,0.00326374,0.179503,18,32765
1.48884,-0.00139885,0.182615,18,32765
1.46904,-0.00613815,0.179714,17,32765
1.48892,-0.0109939,0.181644,18,32765
1.43933,-0.0152618,0.174918,18,32765
1.44928,-0.019857,0.175507,18,32765
1.60245,0.522355,0.22207,16,32765
1.59468,0.514074,0.220971,16,32765
1.61518,0.514979,0.223791,17,32765
1.63567,0.515905,0.226523,16,32765
1.60891,0.501927,0.222422,16,32765
1.60104,0.493868,0.221091,16,32765
1.59311,0.48581,0.219994,16,32765
1.5947,0.480587,0.219898,16,32765
1.6248,0.483891,0.223576,16,32765
1.63589,0.481398,0.224786,16,32765
1.64698,0.478904,0.225867,16,32765
1.6199,0.465406,0.222071,16,32765
1.61189,0.457429,0.220608,16,32765
1.62299,0.454779,0.221539,15,32765
1.58627,0.438812,0.216308,15,32765
1.64515,0.449201,0.223841,16,32765
1.58917,0.428353,0.215973,15,32765
1.60017,0.425708,0.217118,16,32765
1.61116,0.423055,0.218118,16,32765
1.59334,0.412855,0.215425,16,32765
1.57551,0.402728,0.212571,15,32765
1.56722,0.395163,0.211085,16,32765
1.59742,0.397223,0.214615,16,32765
1.57947,0.387305,0.211849,15,32765
1.57113,0.379735,0.210338,15,32765
1.58206,0.376818,0.21142,16,32765
1.54472,0.36248,0.206048,16,32765
1.61361,0.372915,0.214685,16,32765
1.5955,0.363179,0.212103,16,32765
1.6064,0.360091,0.213069,16,32765
1.59794,0.352693,0.211388,16,32765
1.57971,0.343329,0.208645,16,32765
1.60031,0.342219,0.210683,16,32765
1.60148,0.336863,0.210426,16,32765
1.56381,0.323388,0.204951,17,32765
1.56491,0.318157,0.204764,16,32765
1.57569,0.314973,0.205895,16,32765
1.54758,0.304054,0.20163,16,32765
1.57781,0.304638,0.205215,16,32765
1.58859,0.301266,0.206199,16,32765
1.59939,0.297786,0.207082,17,32765
1.56136,0.285396,0.201761,16,32765
1.58188,0.283633,0.203964,16,32765
1.57309,0.276667,0.202334,16,32765
1.55447,0.268065,0.199639,16,32765
1.58474,0.267878,0.203077,16,32765
1.58565,0.262706,0.202768,16,32765
1.55717,0.252655,0.198737,16,32765
1.55804,0.24745,0.198426,16,32765
1.5589,0.242175,0.198173,17,32765
1.55974,0.236946,0.197908,16,32765
1.58999,0.236166,0.201395,16,32765
1.57117,0.228025,0.19853,15,32765
1.5916,0.225668,0.200712,16,32765
1.6022,0.221692,0.201771,15,32765
1.59312,0.215042,0.200299,15,32765
1.58404,0.208457,0.198665,15,32765
1.53554,0.196866,0.19228,16,32765
1.55589,0.194335,0.194544,16,32765
1.55657,0.189222,0.194149,16,32765
1.53749,0.18183,0.191478,16,32765
1.5578,0.179096,0.193881,17,32765
1.53868,0.171744,0.191245,17,32765
1.55902,0.168783,0.193285,17,32765
1.5596,0.163537,0.193133,17,32765
1.5503,0.157323,0.191616,17,32765
1.57056,0.154163,0.194072,17,32765
1.54144,0.146225,0.190223,18,32765
1.55181,0.142132,0.19127,18,32765
1.57207,0.138739,0.193533,17,32765
1.54286,0.131024,0.189816,17,32765
1.5433,0.12588,0.189655,18,32765
1.55363,0.121502,0.19075,17,32765
1.54413,0.115692,0.189425,18,32765
1.56432,0.112049,0.191712,17,32765
1.55478,0.106321,0.190379,17,32765
1.5353,0.100042,0.187964,18,32765
1.55546,0.0962491,0.19024,17,32765
1.54586,0.0906292,0.188969,17,32765
1.56598,0.0866823,0.191327,17,32765
1.5266,0.079561,0.186478,17,32765
1.53676,0.0750999,0.187674,17,32765
1.56674,0.0714467,0.191359,17,32765
1.51738,0.0642297,0.185324,17,32765
1.53742,0.0599936,0.187754,17,32765
1.55743,0.0556881,0.190304,18,32765
1.52782,0.0496732,0.186771,17,32765
1.52795,0.0447035,0.187002,17,32765
1.52809,0.0397043,0.18696,17,32765
1.54805,0.0350933,0.18946,17,32765
1.53821,0.0298866,0.188422,18,32765
1.52836,0.0247205,0.18738,18,32765
1.53834,0.0198845,0.188736,18,32765
1.54828,0.0150378,0.19024,17,32765
1.53837,0.00992608,0.189231,17,32765
1.53836,0.00498675,0.189558,18,32765
1.53833,4.01297e-05,0.189821,17,32765
1.53827,-0.00481576,0.190292,18,32765
1.52828,-0.00963483,0.189408,17,32765
1.53812,-0.01478,0.190985,17,32765
1.54789,-0.0199666,0.192956,17,32765
1.52864,0.499056,0.196476,18,32765
1.52079,0.490999,0.19546,18,32765
1.53179,0.489129,0.196868,18,32765
1.54277,0.487333,0.198192,18,32765
1.53483,0.479534,0.19681,17,32765
1.51739,0.468765,0.194359,17,32765
1.50938,0.460962,0.193344,17,32765
1.5204,0.458872,0.194467,17,32765
1.50289,0.448245,0.191806,18,32765
1.5234,0.448953,0.194143,17,32765
1.52487,0.444044,0.193934,17,32765
1.52627,0.439142,0.194047,18,32765
1.51816,0.431454,0.192686,18,32765
1.51007,0.423747,0.191125,17,32765
1.53061,0.42402,0.193527,18,32765
1.51289,0.413679,0.190845,17,32765
1.49508,0.403562,0.188373,18,32765
1.51559,0.403779,0.19064,18,32765
1.53613,0.403921,0.192766,18,32765
1.49901,0.388956,0.187856,17,32765
1.52916,0.391426,0.191217,18,32765
1.5112,0.381567,0.188629,17,32765
1.50285,0.374223,0.187093,17,32765
1.50408,0.369327,0.186921,17,32765
1.51497,0.366664,0.187908,18,32765
1.4969,0.357019,0.185317,17,32765
1.5271,0.358832,0.18869,17,32765
1.48965,0.344732,0.183564,17,32765
1.51015,0.344211,0.185937,17,32765
1.50162,0.337052,0.184446,17,32765
1.51246,0.334269,0.18526,17,32765
1.52326,0.331496,0.186274,17,32765
1.505,0.322258,0.183409,17,32765
1.5061,0.317212,0.183168,17,32765
1.49749,0.310073,0.181627,16,32765
1.518,0.309016,0.183805,16,32765
1.51902,0.304034,0.183668,16,32765
1.51033,0.297111,0.18205,17,32765
1.53082,0.295937,0.184186,17,32765
1.51231,0.287157,0.18157,17,32765
1.5133,0.282108,0.181208,17,32765
1.50448,0.275339,0.179779,17,32765
1.48589,0.266746,0.177144,17,32765
1.50637,0.265253,0.179119,17,32765
1.47791,0.255167,0.175457,17,32765
1.48857,0.251922,0.176311,17,32765
1.48942,0.247054,0.17602,17,32765
1.50007,0.243676,0.176912,18,32765
1.49111,0.237092,0.175457,18,32765
1.50175,0.233562,0.176368,18,32765
1.48291,0.225528,0.173811,18,32765
1.51315,0.225003,0.177029,18,32765
1.49428,0.217103,0.174369,18,32765
1.49501,0.212202,0.174087,18,32765
1.49574,0.207182,0.173919,17,32765
1.50629,0.203534,0.174842,18,32765
1.49715,0.197225,0.173323,18,32765
1.48797,0.190961,0.171974,18,32765
1.48861,0.186116,0.171782,18,32765
1.49912,0.182415,0.172539,18,32765
1.48986,0.176365,0.171197,18,32765
1.5003,0.172646,0.17228,18,32765
1.48114,0.165471,0.169839,18,32765
1.4916,0.161626,0.170577,18,32765
1.48227,0.15556,0.169302,18,32765
1.48282,0.150598,0.16902,18,32765
1.48331,0.145712,0.169035,18,32765
1.49369,0.141801,0.16998,19,32765
1.47437,0.135136,0.167565,18,32765
1.50452,0.132868,0.170772,18,32765
1.48516,0.126204,0.168462,18,32765
1.47568,0.120435,0.167186,18,32765
1.46619,0.114725,0.16595,18,32765
1.49629,0.112163,0.169207,19,32765
1.49667,0.10725,0.169071,18,32765
1.47719,0.101052,0.166718,18,32765
1.44776,0.0943657,0.163371,17,32765
1.47783,0.091466,0.166586,17,32765
1.46821,0.0860884,0.165412,17,32765
1.47841,0.0818385,0.166468,17,32765
1.47867,0.077058,0.166463,16,32765
1.46898,0.0717742,0.165332,16,32765
1.48906,0.0678819,0.167616,17,32765
1.48927,0.0630091,0.167636,17,32765
1.44975,0.0565341,0.163173,16,32765
1.49957,0.0535706,0.168884,17,32765
1.47986,0.0480572,0.166747,17,32765
1.46012,0.0426546,0.16473,17,32765
1.47019,0.0381265,0.16581,17,32765
1.4703,0.0332488,0.165879,17,32765
1.45051,0.0280934,0.163803,17,32765
1.46051,0.0235248,0.165091,17,32765
1.51024,0.0194109,0.170844,17,32765
1.49039,0.0143579,0.168871,17,32765
1.48047,0.00942704,0.167948,17,32765
1.48046,0.00466501,0.168262,17,32765
1.4705,-0.0001033,0.167385,17,32765
1.47045,-0.0047536,0.167835,17,32765
1.45051,-0.00930104,0.165893,17,32765
1.45044,-0.0141026,0.16622,17,32765
1.46024,-0.0190111,0.168057,17,32765
1.60395,0.521835,0.21218,16,32765
1.63412,0.525747,0.214818,16,32765
1.60763,0.511302,0.209953,16,32765
1.59993,0.503167,0.207723,16,32765
1.61109,0.501054,0.208206,16,32765
1.60333,0.492999,0.2059,16,32765
1.6145,0.490743,0.206294,17,32765
1.6257,0.48836,0.206649,17,32765
1.60831,0.477479,0.203617,16,32765
1.59089,0.466689,0.200389,16,32765
1.60199,0.464322,0.201068,16,32765
1.6036,0.459112,0.200233,16,32765
1.57652,0.445724,0.195998,16,32765
1.61632,0.451204,0.200037,16,32765
1.56046,0.429985,0.192297,16,32765
1.60027,0.435248,0.196488,16,32765
1.63055,0.437724,0.19928,16,32765
1.60324,0.424765,0.195204,16,32765
1.56622,0.409557,0.190011,16,32765
1.56761,0.404515,0.189373,16,32765
1.56897,0.399431,0.18888,16,32765
1.57995,0.396797,0.189508,16,32765
1.57165,0.389265,0.187859,16,32765
1.60194,0.39121,0.190623,16,32765
1.61293,0.388234,0.191356,16,32765
1.60459,0.380591,0.189821,16,32765
1.62522,0.379853,0.191727,16,32765
1.62654,0.374426,0.191273,15,32765
1.59875,0.362474,0.187406,15,32765
1.57088,0.350673,0.183719,15,32765
1.61093,0.353999,0.187616,15,32765
1.60241,0.346606,0.186179,15,32765
1.57446,0.335061,0.182229,15,32765
1.56586,0.327869,0.1808,15,32765
1.56696,0.322721,0.180479,15,32765
1.58754,0.321477,0.182413,16,32765
1.55938,0.310437,0.178764,16,32765
1.56044,0.305259,0.178475,16,32765
1.55174,0.298209,0.176806,16,32765
1.58203,0.29861,0.18007,16,32765
1.58304,0.293439,0.179701,17,32765
1.56446,0.28472,0.177226,17,32765
1.59479,0.284754,0.180186,16,32765
1.55657,0.272629,0.175644,16,32765
1.54772,0.265768,0.174135,16,32765
1.53881,0.258927,0.172956,17,32765
1.5495,0.25542,0.173782,17,32765
1.55037,0.250202,0.173613,17,32765
1.55125,0.244977,0.173213,17,32765
1.58155,0.244332,0.176348,17,32765
1.54308,0.233079,0.171705,17,32765
1.54385,0.227975,0.171649,17,32765
1.57416,0.227049,0.174591,17,32765
1.56507,0.220444,0.17336,17,32765
1.55598,0.213951,0.171942,17,32765
1.56656,0.21009,0.172749,17,32765
1.57711,0.206218,0.173754,17,32765
1.57782,0.200944,0.173491,17,32765
1.53903,0.190848,0.169028,17,32765
1.54956,0.186937,0.16972,17,32765
1.54033,0.180635,0.168359,17,32765
1.54093,0.175608,0.16825,16,32765
1.57116,0.173774,0.171311,17,32765
1.5421,0.165426,0.16784,17,32765
1.54266,0.160301,0.167644,16,32765
1.53331,0.154196,0.166341,17,32765
1.57343,0.152966,0.170359,17,32765
1.54428,0.144903,0.166719,17,32765
1.56458,0.141605,0.168656,16,32765
1.57496,0.137273,0.169543,16,32765
1.58534,0.132854,0.170401,16,32765
1.5759,0.126802,0.169019,16,32765
1.56643,0.12076,0.16766,17,32765
1.56684,0.115606,0.167439,16,32765
1.55731,0.109821,0.166244,16,32765
1.53784,0.103418,0.163835,16,32765
1.52827,0.0978261,0.162578,17,32765
1.52861,0.0928257,0.162267,17,32765
1.53887,0.0884098,0.162949,17,32765
1.53917,0.0833852,0.16278,17,32765
1.53947,0.0783401,0.162431,16,32765
1.52981,0.072912,0.161153,17,32765
1.54002,0.0683478,0.161805,17,32765
1.54027,0.0632896,0.161448,18,32765
1.52062,0.0574604,0.159076,18,32765
1.55066,0.0534495,0.161869,17,32765
1.54093,0.048064,0.160428,18,32765
1.53116,0.0427772,0.159103,18,32765
1.53132,0.0377813,0.15889,17,32765
1.53148,0.0328187,0.158414,18,32765
1.54155,0.0280283,0.15914,18,32765
1.54168,0.0231063,0.158733,18,32765
1.54179,0.0181604,0.158256,18,32765
1.53195,0.0132102,0.156697,18,32765
1.53201,0.00836897,0.156469,17,32765
1.53209,0.00331528,0.155862,17,32765
1.51224,-0.0016565,0.153415,18,32765
1.53218,-0.00663876,0.154852,18,32765
1.54216,-0.0114504,0.155295,18,32765
1.55213,-0.0163362,0.15566,18,32765
1.55214,-0.0213193,0.154938,18,32765
1.52054,0.495474,0.185887,17,32765
1.51282,0.487483,0.183707,17,32765
1.52402,0.485469,0.183774,18,32765
1.53517,0.483554,0.18396,17,32765
1.52729,0.475734,0.182118,18,32765
1.50043,0.462081,0.177712,17,32765
1.53052,0.465941,0.180305,17,32765
1.5226,0.458102,0.178379,18,32765
1.51461,0.450361,0.176685,17,32765
1.51616,0.445454,0.175905,17,32765
1.5081,0.437783,0.174308,17,32765
1.52872,0.438349,0.175718,17,32765
1.5111,0.427886,0.172889,16,32765
1.50301,0.420216,0.171132,17,32765
1.51406,0.417838,0.171603,17,32765
1.53467,0.418045,0.173267,18,32765
1.50731,0.405258,0.169336,17,32765
1.54713,0.410523,0.17311,17,32765
1.52926,0.400498,0.170455,17,32765
1.50174,0.388103,0.166626,17,32765
1.53195,0.390592,0.169349,17,32765
1.52361,0.383224,0.167772,17,32765
1.52491,0.378254,0.167293,17,32765
1.53586,0.375634,0.167687,17,32765
1.50814,0.36355,0.164134,17,32765
1.51906,0.360837,0.164817,18,32765
1.5009,0.351315,0.162366,16,32765
1.53119,0.352996,0.165081,17,32765
1.5033,0.341333,0.161521,18,32765
1.50445,0.336334,0.161253,17,32765
1.49591,0.329203,0.159619,18,32765
1.4873,0.322173,0.158298,17,32765
1.50788,0.321353,0.159825,18,32765
1.51869,0.318449,0.160561,18,32765
1.51002,0.311437,0.159222,18,32765
1.49158,0.302474,0.156878,17,32765
1.50235,0.299505,0.157622,18,32765
1.4936,0.292595,0.156321,18,32765
1.50439,0.289513,0.156807,18,32765
1.50535,0.284531,0.156738,18,32765
1.52587,0.283234,0.158418,19,32765
1.50724,0.274683,0.156139,18,32765
1.50818,0.269658,0.155796,19,32765
1.51888,0.266387,0.15669,18,32765
1.48058,0.25458,0.152259,18,32765
1.51086,0.254564,0.155208,18,32765
1.50191,0.247904,0.153933,18,32765
1.50276,0.242836,0.15377,18,32765
1.51344,0.239316,0.154383,18,32765
1.51425,0.234236,0.154236,17,32765
1.50522,0.227649,0.152979,17,32765
1.50597,0.222662,0.152924,17,32765
1.49689,0.216175,0.151603,17,32765
1.50747,0.212592,0.152466,18,32765
1.49833,0.206277,0.151154,17,32765
1.51876,0.203925,0.15287,18,32765
1.50957,0.197621,0.151799,18,32765
1.50038,0.191305,0.150556,18,32765
1.49114,0.185123,0.149444,18,32765
1.50166,0.181364,0.150054,18,32765
1.46275,0.171729,0.14584,17,32765
1.4732,0.168074,0.14672,17,32765
1.48366,0.164272,0.14754,18,32765
1.50401,0.161509,0.149275,18,32765
1.47486,0.153413,0.146141,17,32765
1.45558,0.146525,0.143962,18,32765
1.4858,0.144587,0.146641,18,32765
1.49622,0.140527,0.147206,18,32765
1.48679,0.134687,0.146041,18,32765
1.47733,0.128877,0.144898,18,32765
1.48769,0.124776,0.145675,18,32765
1.4782,0.119036,0.144406,17,32765
1.49847,0.115608,0.146061,18,32765
1.4393,0.106271,0.140054,18,32765
1.44958,0.102292,0.140895,17,32765
1.4698,0.0989018,0.142546,18,32765
1.48006,0.0947924,0.143316,18,32765
1.48039,0.089941,0.143015,18,32765
1.47077,0.0845321,0.141699,17,32765
1.49094,0.0807985,0.14345,18,32765
1.48129,0.0753967,0.142159,18,32765
1.45171,0.0691987,0.139078,17,32765
1.47186,0.0653234,0.140606,17,32765
1.46215,0.0600716,0.139317,17,32765
1.48226,0.055994,0.140931,18,32765
1.46257,0.0503879,0.138732,18,32765
1.46276,0.0455923,0.138349,18,32765
1.45298,0.040551,0.137132,18,32765
1.47303,0.036292,0.138806,18,32765
1.47318,0.0315099,0.138348,18,32765
1.4733,0.0267192,0.138059,18,32765
1.45351,0.0217094,0.13581,17,32765
1.45361,0.0170381,0.13536,17,32765
1.46366,0.0125291,0.135773,17,32765
1.45376,0.00784156,0.134633,16,32765
1.45383,0.00303762,0.134057,16,32765
1.46383,-0.00172101,0.134566,15,32765
1.47382,-0.00651262,0.134922,15,32765
1.45393,-0.0109282,0.132568,15,32765
1.48382,-0.0157609,0.134684,15,32765
1.49378,-0.0206707,0.134893,15,32765
1.6266,0.531313,0.173997,15,32765
1.63776,0.529132,0.175061,15,32765
1.62049,0.517805,0.173182,15,32765
1.62215,0.512567,0.173192,15,32765
1.59533,0.498362,0.170211,16,32765
1.61597,0.499021,0.172112,16,32765
1.60803,0.49095,0.171154,15,32765
1.60006,0.482974,0.170132,16,32765
1.58258,0.472129,0.16775,16,32765
1.59367,0.469754,0.168678,16,32765
1.58566,0.461683,0.167747,16,32765
1.62545,0.467504,0.171343,16,32765
1.61741,0.459454,0.170263,16,32765
1.59975,0.448813,0.168132,16,32765
1.61083,0.446242,0.16884,16,32765
1.59308,0.435753,0.166798,16,32765
1.61374,0.435754,0.168398,16,32765
1.62481,0.432944,0.169247,16,32765
1.62628,0.427503,0.168945,17,32765
1.59882,0.414578,0.165845,16,32765
1.5713,0.401839,0.162563,16,32765
1.6112,0.40651,0.166411,16,32765
1.57393,0.391657,0.162044,16,32765
1.5752,0.386573,0.161852,16,32765
1.55714,0.376768,0.159529,16,32765
1.59713,0.38083,0.163222,17,32765
1.58872,0.373245,0.162065,16,32765
1.55121,0.358957,0.157823,16,32765
1.58153,0.360432,0.160459,16,32765
1.5536,0.348652,0.157337,16,32765
1.56452,0.345629,0.157855,16,32765
1.57539,0.342616,0.158611,16,32765
1.56682,0.335294,0.157289,17,32765
1.5582,0.328076,0.156118,16,32765
1.5788,0.326976,0.157731,16,32765
1.55065,0.315725,0.154566,17,32765
1.57124,0.314438,0.156279,17,32765
1.57235,0.309083,0.155874,17,32765
1.54409,0.29815,0.152587,16,32765
1.58421,0.300455,0.156192,16,32765
1.57544,0.29336,0.155061,16,32765
1.59601,0.29182,0.156508,16,32765
1.54802,0.277732,0.15129,16,32765
1.60779,0.282985,0.156648,16,32765
1.54989,0.2675,0.150651,15,32765
1.59988,0.270604,0.155128,16,32765
1.5615,0.258792,0.1511,16,32765
1.54274,0.250388,0.148875,16,32765
1.52392,0.242097,0.146818,17,32765
1.54443,0.240039,0.148353,17,32765
1.54525,0.23486,0.148171,16,32765
1.52634,0.226745,0.14616,17,32765
1.54684,0.224516,0.147583,17,32765
1.5476,0.219458,0.147261,18,32765
1.53848,0.212937,0.146105,17,32765
1.5392,0.207805,0.145892,18,32765
1.55966,0.205246,0.147472,17,32765
1.54063,0.197465,0.145186,17,32765
1.55116,0.193629,0.145995,17,32765
1.5518,0.188564,0.145838,18,32765
1.54255,0.182324,0.144611,17,32765
1.54316,0.177294,0.144294,17,32765
1.54376,0.172175,0.144081,18,32765
1.56414,0.169214,0.145685,18,32765
1.535,0.160908,0.142796,18,32765
1.53555,0.155809,0.14251,18,32765
1.55588,0.152672,0.14434,17,32765
1.55639,0.147497,0.144198,18,32765
1.56679,0.143316,0.14498,18,32765
1.52761,0.134631,0.140982,17,32765
1.52806,0.129606,0.140853,18,32765
1.54833,0.126274,0.14254,17,32765
1.53883,0.120373,0.141442,17,32765
1.52928,0.114626,0.140538,17,32765
1.55946,0.111744,0.143134,18,32765
1.5499,0.105909,0.142048,17,32765
1.53037,0.0995601,0.140247,17,32765
1.53069,0.0945401,0.140193,17,32765
1.56082,0.091307,0.142891,17,32765
1.53128,0.0845343,0.140138,18,32765
1.53155,0.0794841,0.140142,17,32765
1.52186,0.0740069,0.139206,17,32765
1.54198,0.069904,0.141092,17,32765
1.54221,0.0648769,0.141001,17,32765
1.55236,0.060219,0.141937,17,32765
1.51273,0.0537784,0.138384,17,32765
1.54274,0.0498593,0.141259,18,32765
1.55284,0.0451047,0.142326,17,32765
1.54303,0.0397452,0.141372,17,32765
1.53318,0.0344551,0.140653,17,32765
1.54322,0.0296061,0.141779,17,32765
1.54329,0.0245873,0.141967,17,32765
1.5334,0.0194294,0.141074,17,32765
1.52346,0.0143645,0.140539,17,32765
1.51354,0.00938552,0.13972,17,32765
1.53344,0.00452018,0.141888,17,32765
1.52345,-0.000390748,0.141436,17,32765
1.54334,-0.00542872,0.143473,17,32765
1.54327,-0.0103687,0.143913,17,32765
1.55315,-0.0154205,0.145259,17,32765
1.53312,-0.0201831,0.144008,17,32765
1.51424,0.49548,0.146857,17,32765
1.51583,0.490593,0.146905,17,32765
1.51739,0.485705,0.14704,18,32765
1.51895,0.480791,0.147049,17,32765
1.51101,0.47284,0.146183,17,32765
1.51256,0.467894,0.146066,17,32765
1.52357,0.46596,0.147036,17,32765
1.52504,0.461119,0.147027,18,32765
1.51701,0.453342,0.145765,18,32765
1.52805,0.45118,0.146602,18,32765
1.51042,0.440522,0.144845,18,32765
1.51189,0.435579,0.144429,17,32765
1.5229,0.433335,0.145275,18,32765
1.51473,0.425674,0.144251,18,32765
1.52573,0.423377,0.14488,18,32765
1.49829,0.410511,0.142116,17,32765
1.51889,0.410823,0.143552,18,32765
1.51064,0.40319,0.142501,17,32765
1.51201,0.398121,0.142219,17,32765
1.53262,0.398068,0.143934,17,32765
1.50503,0.385521,0.140944,17,32765
1.50628,0.38066,0.140813,16,32765
1.52687,0.380568,0.142248,16,32765
1.53778,0.378003,0.14296,17,32765
1.51968,0.368299,0.140832,16,32765
1.52092,0.363243,0.140574,17,32765
1.53183,0.36046,0.141307,17,32765
1.51365,0.350827,0.139236,16,32765
1.51484,0.345785,0.138927,17,32765
1.52571,0.342938,0.139651,17,32765
1.50744,0.333547,0.137424,18,32765
1.49881,0.326476,0.136323,18,32765
1.50966,0.32357,0.136878,18,32765
1.50099,0.316526,0.135806,17,32765
1.48255,0.307521,0.133725,17,32765
1.5324,0.312492,0.137883,18,32765
1.49439,0.29952,0.134149,18,32765
1.50521,0.296342,0.134638,19,32765
1.52579,0.295068,0.136008,18,32765
1.50721,0.286287,0.134018,18,32765
1.50817,0.281261,0.133859,18,32765
1.50912,0.276349,0.133405,18,32765
1.49045,0.267806,0.131271,18,32765
1.51098,0.266345,0.132634,18,32765
1.50206,0.259632,0.131514,18,32765
1.4833,0.251258,0.129526,18,32765
1.47432,0.244703,0.128459,18,32765
1.49483,0.242966,0.129857,19,32765
1.48581,0.236385,0.128847,18,32765
1.48662,0.231387,0.1285,18,32765
1.48741,0.226393,0.128325,18,32765
1.49803,0.222855,0.129053,18,32765
1.48894,0.216417,0.127758,19,32765
1.46994,0.208737,0.12576,18,32765
1.46077,0.202463,0.124709,18,32765
1.49108,0.201585,0.12703,18,32765
1.48189,0.195278,0.125913,18,32765
1.46281,0.187744,0.123835,17,32765
1.4931,0.18663,0.126229,18,32765
1.47393,0.179338,0.124407,18,32765
1.47453,0.174512,0.124122,18,32765
1.46522,0.168555,0.122988,17,32765
1.47569,0.164792,0.123616,17,32765
1.49606,0.162051,0.125042,18,32765
1.46687,0.153955,0.12244,17,32765
1.49714,0.152095,0.124643,17,32765
1.44805,0.142259,0.120508,16,32765
1.44852,0.137433,0.120375,15,32765
1.46883,0.134507,0.121896,15,32765
1.46929,0.129633,0.121581,15,32765
1.49951,0.127321,0.123919,14,32765
1.49993,0.122454,0.123781,15,32765
1.4904,0.116702,0.122783,15,32765
1.49078,0.111848,0.122791,15,32765
1.49115,0.106947,0.122655,15,32765
1.48156,0.101328,0.121671,15,32765
1.48188,0.0964855,0.121691,15,32765
1.51204,0.0934598,0.124087,15,32765
1.45264,0.0850386,0.119158,15,32765
1.49272,0.0824576,0.1224,16,32765
1.48303,0.0770084,0.121589,16,32765
1.47332,0.0716796,0.120747,16,32765
1.4835,0.0672766,0.121627,15,32765
1.49368,0.06285,0.122355,16,32765
1.464,0.0567964,0.119932,16,32765
1.46417,0.052048,0.120016,16,32765
1.47428,0.0476334,0.12097,16,32765
1.47441,0.0428043,0.121118,16,32765
1.47455,0.0379498,0.121079,17,32765
1.47465,0.0330989,0.121265,17,32765
1.47474,0.028242,0.121468,16,32765
1.45488,0.02312,0.120003,16,32765
1.44498,0.0182417,0.119203,16,32765
1.445,0.0135482,0.119564,17,32765
1.43506,0.00881414,0.118834,17,32765
1.46495,0.0042225,0.121625,17,32765
1.47489,-0.000484029,0.122907,17,32765
1.4649,-0.00526699,0.122254,17,32765
1.45487,-0.00989728,0.121838,17,32765
1.46477,-0.0146755,0.123066,17,32765
1.4547,-0.0192916,0.122809,17,32765
1.59,0.518329,0.160134,16,32765
1.61074,0.519247,0.160907,16,32765
1.6315,0.520108,0.161493,16,32765
1.60476,0.505914,0.157815,16,32765
1.58745,0.494843,0.155075,17,32765
1.57962,0.486719,0.153275,16,32765
1.62892,0.496073,0.156934,17,32765
1.62108,0.487919,0.15507,16,32765
1.59408,0.47417,0.1516,16,32765
1.59567,0.469008,0.150914,16,32765
1.60685,0.46651,0.150992,16,32765
1.61801,0.463994,0.151217,16,32765
1.61958,0.458714,0.150527,17,32765
1.61152,0.450778,0.148965,16,32765
1.61302,0.445575,0.148382,16,32765
1.59534,0.435039,0.145694,16,32765
1.60641,0.43243,0.146136,16,32765
1.62714,0.432268,0.147211,16,32765
1.62861,0.426878,0.146683,16,32765
1.61078,0.416523,0.144212,15,32765
1.6122,0.411179,0.143683,15,32765
1.62323,0.408361,0.144059,15,32765
1.57625,0.391099,0.139176,15,32765
1.57757,0.38595,0.138642,16,32765
1.57885,0.380823,0.138203,15,32765
1.55108,0.368675,0.135022,15,32765
1.5814,0.37043,0.137267,16,32765
1.56324,0.360722,0.135179,16,32765
1.57419,0.35775,0.135427,17,32765
1.57538,0.35256,0.135157,16,32765
1.5766,0.347308,0.134531,17,32765
1.63622,0.354756,0.139093,17,32765
1.55945,0.332694,0.132016,16,32765
1.57033,0.329512,0.132648,16,32765
1.61049,0.332378,0.135429,16,32765
1.57255,0.319031,0.131893,16,32765
1.55409,0.30992,0.129851,17,32765
1.55513,0.304793,0.129512,17,32765
1.56595,0.301488,0.130034,17,32765
1.57675,0.298159,0.130598,17,32765
1.51897,0.281963,0.125365,16,32765
1.57874,0.287689,0.130008,16,32765
1.57971,0.282423,0.129878,16,32765
1.54141,0.270286,0.126147,17,32765
1.55214,0.266878,0.126695,17,32765
1.54321,0.260026,0.125633,17,32765
1.53426,0.253332,0.12435,18,32765
1.5548,0.251415,0.125667,17,32765
1.55563,0.24626,0.125563,17,32765
1.5466,0.239572,0.124592,17,32765
1.55729,0.235809,0.125043,17,32765
1.57782,0.233428,0.126418,17,32765
1.54903,0.223822,0.123785,17,32765
1.58926,0.224142,0.12696,16,32765
1.59001,0.218872,0.126681,16,32765
1.53148,0.2056,0.12161,16,32765
1.55193,0.203127,0.123109,16,32765
1.61194,0.2056,0.127596,16,32765
1.6423,0.203966,0.129754,15,32765
1.6529,0.199729,0.1301,14,32765
1.64367,0.193046,0.12918,14,32765
1.57498,0.179662,0.123518,14,32765
1.53594,0.170094,0.120233,14,32765
1.57616,0.16924,0.123208,14,32765
1.50731,0.156804,0.117599,14,32765
1.48801,0.149781,0.115764,14,32765
1.49845,0.145753,0.116163,15,32765
1.5188,0.142589,0.117551,15,32765
1.51929,0.13747,0.117263,15,32765
1.54955,0.135052,0.11935,16,32765
1.51027,0.126598,0.116061,16,32765
1.54052,0.124048,0.117952,17,32765
1.54092,0.119054,0.117851,16,32765
1.55126,0.114736,0.118397,16,32765
1.55165,0.109682,0.118162,16,32765
1.53214,0.103196,0.116141,16,32765
1.54245,0.0987657,0.116626,17,32765
1.55274,0.0942801,0.117133,16,32765
1.53315,0.0879627,0.115409,17,32765
1.5235,0.0824146,0.114305,17,32765
1.51382,0.0769209,0.113282,17,32765
1.55393,0.0738621,0.115965,16,32765
1.54422,0.0683766,0.114989,17,32765
1.55441,0.0638047,0.11543,16,32765
1.51478,0.057263,0.112141,17,32765
1.52494,0.0526238,0.112623,17,32765
1.51518,0.047284,0.111372,16,32765
1.52531,0.0425835,0.111814,17,32765
1.54542,0.0380894,0.112808,17,32765
1.53558,0.0328936,0.111869,17,32765
1.54568,0.028117,0.112181,17,32765
1.51587,0.0226892,0.109637,17,32765
1.53592,0.0180227,0.110565,18,32765
1.53599,0.0130673,0.110349,17,32765
1.52608,0.00808271,0.109179,18,32765
1.51616,0.00315577,0.107897,18,32765
1.52617,-0.00171852,0.10822,18,32765
1.5262,-0.00658055,0.107619,18,32765
1.54615,-0.0116158,0.108507,18,32765
1.51623,-0.0163141,0.10572,18,32765
1.52619,-0.0213346,0.10582,18,32765
1.53426,0.501059,0.139219,18,32765
1.50755,0.486853,0.13558,17,32765
1.5282,0.488051,0.13606,18,32765
1.52032,0.480156,0.134399,17,32765
1.53144,0.478243,0.134397,17,32765
1.51403,0.467345,0.131892,16,32765
1.52516,0.465305,0.131824,16,32765
1.53628,0.463225,0.13175,16,32765
1.53783,0.458257,0.131041,17,32765
1.54893,0.456083,0.131189,17,32765
1.51221,0.439817,0.127173,17,32765
1.53286,0.44036,0.128144,16,32765
1.52476,0.432626,0.126692,18,32765
1.51661,0.424981,0.125263,17,32765
1.50841,0.417415,0.123925,17,32765
1.51946,0.415082,0.123836,18,32765
1.51122,0.407525,0.122641,17,32765
1.53187,0.407678,0.123569,18,32765
1.50433,0.394997,0.120749,17,32765
1.51533,0.39253,0.120831,18,32765
1.51666,0.387492,0.120332,17,32765
1.51796,0.382544,0.119879,17,32765
1.50956,0.375206,0.118545,17,32765
1.49145,0.365517,0.116519,18,32765
1.49266,0.36066,0.116104,17,32765
1.4939,0.3557,0.11549,18,32765
1.50478,0.353093,0.115966,17,32765
1.51569,0.350355,0.116323,18,32765
1.49744,0.340894,0.114268,17,32765
1.51804,0.340311,0.115492,18,32765
1.49,0.328793,0.112679,18,32765
1.50086,0.325965,0.113029,17,32765
1.50196,0.320976,0.112592,17,32765
1.49329,0.313879,0.111677,17,32765
1.50412,0.310951,0.111926,17,32765
1.48563,0.301906,0.110232,17,32765
1.52578,0.304786,0.112737,17,32765
1.51701,0.297821,0.111683,16,32765
1.46905,0.283306,0.107805,16,32765
1.4994,0.284004,0.109725,16,32765
1.49057,0.277149,0.108648,15,32765
1.51111,0.275819,0.109877,15,32765
1.52185,0.272527,0.110465,16,32765
1.51296,0.265733,0.109257,17,32765
1.52368,0.262414,0.109716,17,32765
1.49506,0.252323,0.10734,17,32765
1.52544,0.252284,0.108977,17,32765
1.48691,0.240824,0.1059,17,32765
1.49756,0.237447,0.106501,17,32765
1.48849,0.230938,0.105631,17,32765
1.47943,0.224374,0.104605,17,32765
1.49994,0.222254,0.105802,17,32765
1.48095,0.214321,0.104159,17,32765
1.47179,0.207897,0.103483,17,32765
1.46261,0.201645,0.102532,17,32765
1.4633,0.196748,0.102198,17,32765
1.49362,0.195793,0.104202,17,32765
1.49427,0.190879,0.103999,17,32765
1.48501,0.184707,0.103138,17,32765
1.47573,0.178586,0.102062,17,32765
1.46642,0.172482,0.101251,17,32765
1.467,0.167589,0.10105,17,32765
1.45764,0.161656,0.100199,17,32765
1.48794,0.159995,0.102123,17,32765
1.47855,0.154029,0.101261,17,32765
1.47908,0.149089,0.100975,17,32765
1.46967,0.143149,0.0999312,17,32765
1.47015,0.138208,0.0997851,17,32765
1.44082,0.130543,0.0974891,17,32765
1.48101,0.129247,0.0999764,18,32765
1.47151,0.123506,0.0990825,18,32765
1.46198,0.117872,0.0980327,18,32765
1.43252,0.110815,0.0959387,18,32765
1.46274,0.108318,0.0977346,18,32765
1.45315,0.102838,0.0968497,18,32765
1.44356,0.0973389,0.09571,18,32765
1.44389,0.0925549,0.095458,18,32765
1.47408,0.089597,0.0971995,18,32765
1.46443,0.0841024,0.0963307,19,32765
1.45475,0.0787687,0.0953367,19,32765
1.44505,0.0734901,0.0944201,19,32765
1.45527,0.0692273,0.0947916,18,32765
1.43557,0.0636105,0.093277,19,32765
1.45572,0.0597901,0.0942909,18,32765
1.43599,0.0543115,0.0926873,19,32765
1.47607,0.0509556,0.0950137,18,32765
1.44634,0.0451447,0.0925968,18,32765
1.45647,0.0406614,0.0929578,18,32765
1.47658,0.0363834,0.0937844,18,32765
1.43679,0.0307594,0.0910518,18,32765
1.44688,0.0262928,0.0912968,18,32765
1.45696,0.0217712,0.0915674,18,32765
1.45706,0.0170522,0.0910796,18,32765
1.45712,0.0123421,0.0908752,17,32765
1.4472,0.00760221,0.0898222,17,32765
1.44725,0.00294085,0.0892794,18,32765
1.45725,-0.00172186,0.089526,18,32765
1.45727,-0.00637307,0.0889523,19,32765
1.43731,-0.0108954,0.0872515,19,32765
1.42733,-0.0154628,0.0859996,19,32765
1.45725,-0.0204872,0.0872353,20,32765
1.59256,0.521286,0.119993,16,32765
1.60369,0.519289,0.120938,16,32765
1.60533,0.514173,0.120963,16,32765
1.59746,0.505998,0.120402,16,32765
1.5991,0.500785,0.120343,17,32765
1.61028,0.498453,0.121019,16,32765
1.60238,0.490261,0.120042,16,32765
1.62303,0.49094,0.1215,17,32765
1.57683,0.471416,0.117778,16,32765
1.6166,0.477648,0.120605,17,32765
1.60862,0.469509,0.11957,17,32765
1.61977,0.466933,0.120058,17,32765
1.61172,0.458882,0.119082,16,32765
1.6132,0.45365,0.119052,16,32765
1.59547,0.443007,0.11757,16,32765
1.58732,0.435087,0.11669,17,32765
1.58878,0.429819,0.116328,16,32765
1.60949,0.429695,0.117487,16,32765
1.60126,0.421878,0.116532,17,32765
1.61228,0.41918,0.117181,16,32765
1.56537,0.40148,0.113226,16,32765
1.59571,0.40371,0.115071,16,32765
1.60671,0.400931,0.115523,16,32765
1.57897,0.388519,0.113198,16,32765
1.58995,0.385666,0.113653,16,32765
1.55244,0.371056,0.11062,16,32765
1.58285,0.372685,0.112268,16,32765
1.61326,0.374149,0.114072,16,32765
1.60479,0.366501,0.113189,16,32765
1.57683,0.354596,0.110771,15,32765
1.60726,0.355759,0.112506,15,32765
1.62795,0.354637,0.113592,15,32765
1.68769,0.361727,0.117278,14,32765
1.58153,0.333435,0.109473,13,32765
1.62171,0.336284,0.112045,14,32765
1.56421,0.318877,0.107599,14,32765
1.5555,0.311672,0.106607,14,32765
1.47824,0.291073,0.100901,14,32765
1.5184,0.293759,0.103267,15,32765
1.54878,0.294358,0.105049,15,32765
1.53998,0.28731,0.103946,15,32765
1.54096,0.282184,0.103567,15,32765
1.54192,0.276985,0.103273,16,32765
1.57233,0.277039,0.105019,16,32765
1.54377,0.266691,0.10268,16,32765
1.56435,0.264825,0.103797,16,32765
1.54557,0.256324,0.102109,17,32765
1.52673,0.247975,0.100522,17,32765
1.51772,0.241262,0.0996021,16,32765
1.54811,0.240853,0.101279,16,32765
1.54892,0.23568,0.101045,16,32765
1.54971,0.230586,0.100672,16,32765
1.54062,0.223966,0.0997181,16,32765
1.51174,0.214597,0.097403,16,32765
1.52236,0.210862,0.0978035,16,32765
1.53298,0.207049,0.0980369,17,32765
1.56335,0.205867,0.0997046,16,32765
1.52445,0.195615,0.0968875,17,32765
1.54491,0.19313,0.0978187,16,32765
1.50591,0.183225,0.0952731,16,32765
1.52636,0.180494,0.0961578,17,32765
1.5468,0.177672,0.097169,18,32765
1.51765,0.169186,0.0949362,18,32765
1.54798,0.167401,0.0966458,18,32765
1.52867,0.160252,0.095372,18,32765
1.52922,0.155179,0.0949634,18,32765
1.52972,0.150161,0.0948764,18,32765
1.54016,0.146058,0.0953099,18,32765
1.54064,0.140976,0.0951925,18,32765
1.53116,0.135069,0.0944194,18,32765
1.53161,0.129961,0.0942908,18,32765
1.54198,0.125711,0.0948693,18,32765
1.51254,0.118287,0.0929538,18,32765
1.5229,0.113977,0.0932666,18,32765
1.5133,0.108335,0.0927384,18,32765
1.52362,0.103992,0.0930591,18,32765
1.55383,0.100946,0.0950014,18,32765
1.52427,0.0940281,0.0930062,18,32765
1.52457,0.0890246,0.0930172,18,32765
1.52486,0.0840285,0.0929875,18,32765
1.5351,0.079539,0.093576,17,32765
1.53534,0.0745433,0.0936079,17,32765
1.53558,0.0695583,0.0935528,17,32765
1.5358,0.0645456,0.0935199,17,32765
1.54597,0.0599723,0.0942877,17,32765
1.52621,0.0540938,0.0930402,17,32765
1.53637,0.0493362,0.0935248,17,32765
1.5365,0.0443055,0.0939044,17,32765
1.52666,0.03905,0.0932502,17,32765
1.52676,0.0341132,0.0934851,17,32765
1.51688,0.0289378,0.0929974,17,32765
1.52693,0.0241154,0.0938056,17,32765
1.51701,0.0189723,0.0933132,17,32765
1.50707,0.0139613,0.0929421,17,32765
1.52706,0.00928149,0.0943697,17,32765
1.52706,0.00440876,0.0946669,17,32765
1.53705,-0.000566028,0.0953447,17,32765
1.52702,-0.00553385,0.095333,17,32765
1.50701,-0.0103662,0.0944348,17,32765
1.52689,-0.0154595,0.0962798,17,32765
1.51682,-0.0202942,0.0960775,17,32765
1.51739,0.497665,0.099248,18,32765
1.51896,0.492825,0.0994664,17,32765
1.52052,0.487969,0.0994891,17,32765
1.51256,0.480049,0.0990132,17,32765
1.52365,0.478091,0.0995791,18,32765
1.51569,0.470092,0.0989178,17,32765
1.53633,0.470968,0.0999113,17,32765
1.50917,0.457386,0.0980761,17,32765
1.51065,0.452505,0.0979332,16,32765
1.52167,0.450468,0.0985259,16,32765
1.51359,0.442625,0.0976031,16,32765
1.51507,0.437591,0.0973938,15,32765
1.49732,0.427129,0.0959137,15,32765
1.53713,0.433086,0.0983434,15,32765
1.49047,0.414644,0.0952092,15,32765
1.5111,0.414985,0.0962736,15,32765
1.53176,0.415182,0.0971506,15,32765
1.51386,0.404932,0.0956923,15,32765
1.50555,0.397412,0.0948458,16,32765
1.50684,0.392505,0.0947952,16,32765
1.51782,0.390017,0.0949695,17,32765
1.52877,0.387505,0.0953321,17,32765
1.51068,0.377676,0.0938948,17,32765
1.52161,0.375109,0.0942672,17,32765
1.51316,0.367725,0.0934388,17,32765
1.5144,0.362639,0.0931838,17,32765
1.50593,0.355234,0.0921803,17,32765
1.4974,0.347924,0.0913421,17,32765
1.49857,0.342877,0.0911582,17,32765
1.49973,0.337881,0.0908154,17,32765
1.50088,0.332825,0.0905196,17,32765
1.51175,0.329929,0.0908487,17,32765
1.49335,0.320661,0.0893265,17,32765
1.49444,0.31565,0.0889971,17,32765
1.51504,0.314736,0.0900379,18,32765
1.49655,0.305639,0.0884972,18,32765
1.4878,0.298647,0.0876121,17,32765
1.4888,0.293683,0.087268,18,32765
1.47999,0.286844,0.0863937,18,32765
1.49074,0.283837,0.0867569,18,32765
1.4819,0.27697,0.0857646,17,32765
1.48284,0.272027,0.0853989,18,32765
1.48377,0.267015,0.0851164,18,32765
1.47483,0.260323,0.0843383,18,32765
1.50523,0.260494,0.0856644,19,32765
1.47657,0.250407,0.0838042,18,32765
1.47743,0.245455,0.0834379,18,32765
1.4684,0.23892,0.0826069,18,32765
1.47907,0.23553,0.0828961,18,32765
1.45026,0.226024,0.080991,18,32765
1.50038,0.22869,0.0835193,18,32765
1.45176,0.216386,0.0804216,17,32765
1.44261,0.210081,0.0795819,17,32765
1.47299,0.209455,0.0808296,16,32765
1.48359,0.205843,0.0811417,17,32765
1.45462,0.196799,0.0791374,16,32765
1.44537,0.190653,0.0783864,17,32765
1.45592,0.187136,0.0786434,17,32765
1.47635,0.184869,0.0794005,17,32765
1.48687,0.18121,0.0798962,17,32765
1.48749,0.176188,0.0795366,18,32765
1.45832,0.167784,0.0777216,18,32765
1.44897,0.161793,0.076845,17,32765
1.47929,0.160232,0.0782786,18,32765
1.46988,0.154336,0.0777197,18,32765
1.45053,0.147429,0.0762817,18,32765
1.45101,0.14266,0.076199,17,32765
1.45149,0.137864,0.0760268,17,32765
1.45194,0.133064,0.075916,18,32765
1.45238,0.128314,0.0757651,19,32765
1.44285,0.122614,0.0751249,19,32765
1.42334,0.116212,0.0740574,19,32765
1.44364,0.113064,0.0750173,18,32765
1.4739,0.110468,0.0762801,18,32765
1.46428,0.104974,0.0758434,18,32765
1.43475,0.0980605,0.0740229,18,32765
1.43506,0.0933545,0.0741314,18,32765
1.4553,0.0898903,0.0750004,19,32765
1.45559,0.0851035,0.0750107,19,32765
1.42594,0.0786732,0.0734416,18,32765
1.44614,0.0750171,0.0744505,18,32765
1.4364,0.0698164,0.0739669,19,32765
1.4466,0.0655957,0.0744286,18,32765
1.44681,0.0608638,0.0743976,18,32765
1.45697,0.0565689,0.0750618,19,32765
1.42721,0.0506232,0.0734906,18,32765
1.44734,0.0465066,0.074402,19,32765
1.4275,0.0411815,0.0737285,19,32765
1.4476,0.0370373,0.0747175,19,32765
1.43772,0.0321234,0.0744234,18,32765
1.43781,0.0274196,0.0745403,18,32765
1.43788,0.0226895,0.0747252,20,32765
1.43794,0.0179542,0.0748397,19,32765
1.43798,0.0132824,0.0750713,19,32765
1.42802,0.00863154,0.0747339,18,32765
1.42803,0.00406539,0.0750118,19,32765
1.43801,-0.000596921,0.0755917,18,32765
1.43797,-0.00528845,0.0761638,19,32765
1.43793,-0.00997801,0.0764959,19,32765
1.43786,-0.0146549,0.0770555,19,32765
1.4278,-0.019209,0.0769223,19,32765
1.60289,0.523973,0.110927,16,32765
1.61414,0.521898,0.110405,17,32765
1.6064,0.513569,0.108687,16,32765
1.61768,0.511272,0.10819,16,32765
1.62888,0.509099,0.108043,16,32765
1.6115,0.497988,0.105745,16,32765
1.59407,0.486944,0.103583,16,32765
1.61479,0.487577,0.10408,16,32765
1.64513,0.490828,0.10507,16,32765
1.62761,0.479851,0.10314,15,32765
1.61964,0.471685,0.101814,15,32765
1.60205,0.460834,0.0998055,14,32765
1.63239,0.463775,0.101014,14,32765
1.59552,0.44758,0.0979269,15,32765
1.57779,0.436997,0.0959357,15,32765
1.54074,0.421259,0.092996,15,32765
1.55179,0.418823,0.0929946,16,32765
1.57247,0.418882,0.0936113,16,32765
1.58353,0.416266,0.0935174,15,32765
1.58493,0.411047,0.0930137,16,32765
1.58632,0.405792,0.0923716,16,32765
1.58767,0.400589,0.0917588,16,32765
1.55992,0.388231,0.0895969,16,32765
1.55152,0.380744,0.0884712,16,32765
1.5819,0.382708,0.0895175,16,32765
1.55407,0.370466,0.0873691,16,32765
1.56504,0.367565,0.0874493,16,32765
1.52736,0.353354,0.0848532,16,32765
1.54803,0.352732,0.0854014,17,32765
1.57843,0.354205,0.0866102,16,32765
1.56012,0.344659,0.0851004,17,32765
1.57104,0.341596,0.0852002,16,32765
1.56241,0.334288,0.0843614,17,32765
1.53423,0.322845,0.0824354,17,32765
1.53532,0.317747,0.0820244,17,32765
1.56575,0.318598,0.0831828,17,32765
1.54725,0.309443,0.0817057,17,32765
1.53849,0.302354,0.0808197,16,32765
1.54932,0.299058,0.0810143,17,32765
1.56997,0.297532,0.0817386,17,32765
1.55133,0.288626,0.0804328,17,32765
1.54246,0.281745,0.0796845,17,32765
1.53357,0.274902,0.0787369,17,32765
1.55415,0.273291,0.0795271,17,32765
1.54524,0.266377,0.0786123,17,32765
1.54614,0.26118,0.0783728,17,32765
1.58642,0.262531,0.0803572,15,32765
1.54788,0.250815,0.0778296,16,32765
1.52899,0.242545,0.0765715,17,32765
1.53966,0.239012,0.0768459,16,32765
1.54047,0.233839,0.0767166,16,32765
1.52149,0.225776,0.0755055,17,32765
1.55191,0.2249,0.0767543,17,32765
1.54278,0.2183,0.075955,17,32765
1.54352,0.213114,0.075733,17,32765
1.53434,0.206607,0.0749189,17,32765
1.50532,0.197608,0.0732311,17,32765
1.53571,0.196354,0.074456,18,32765
1.52645,0.190013,0.0738803,18,32765
1.52709,0.184968,0.0734695,18,32765
1.5277,0.179913,0.0732549,19,32765
1.5283,0.174833,0.0731029,18,32765
1.52886,0.169815,0.0730859,18,32765
1.52945,0.164674,0.0726657,18,32765
1.52006,0.158621,0.0717433,17,32765
1.52058,0.153583,0.0716723,18,32765
1.53103,0.149524,0.0720283,18,32765
1.52159,0.1435,0.0712981,18,32765
1.51213,0.137428,0.0704925,18,32765
1.52255,0.133262,0.0706774,18,32765
1.49314,0.125565,0.0690787,18,32765
1.54334,0.124637,0.0711565,18,32765
1.54375,0.119572,0.071003,18,32765
1.53419,0.113762,0.0701537,18,32765
1.53456,0.108739,0.0699151,18,32765
1.54489,0.104313,0.0701609,19,32765
1.53528,0.098547,0.0694016,18,32765
1.51566,0.0923031,0.0682699,19,32765
1.52594,0.0878723,0.0684705,18,32765
1.54618,0.0840082,0.0691032,19,32765
1.51653,0.0773526,0.067397,18,32765
1.54673,0.0737591,0.0684577,18,32765
1.537,0.0682867,0.0676532,18,32765
1.52725,0.0628125,0.0669117,18,32765
1.53744,0.058239,0.0670462,19,32765
1.53764,0.0532145,0.0666769,19,32765
1.52783,0.0479508,0.0659197,18,32765
1.52799,0.0429728,0.0656232,18,32765
1.53813,0.0380907,0.0655595,19,32765
1.52828,0.032792,0.0647649,18,32765
1.52839,0.0278003,0.0643962,18,32765
1.5185,0.0227664,0.0635596,18,32765
1.50859,0.0178664,0.06274,18,32765
1.51865,0.01306,0.0627679,18,32765
1.53868,0.00819617,0.0631296,18,32765
1.52873,0.00309976,0.0622506,18,32765
1.54874,-0.00176255,0.0625519,17,32765
1.54874,-0.00660603,0.0620136,17,32765
1.54874,-0.0116078,0.0613821,16,32765
1.54871,-0.0167923,0.06083,16,32765
1.53869,-0.0216769,0.059588,15,32765
1.52759,0.50037,0.0905471,16,32765
1.51976,0.492379,0.0888744,16,32765
1.52143,0.487387,0.0878617,16,32765
1.50405,0.476322,0.085702,16,32765
1.5056,0.471523,0.0849771,17,32765
1.52624,0.472597,0.0850726,17,32765
1.51826,0.464726,0.0836732,17,32765
1.52935,0.462715,0.0834943,17,32765
1.51178,0.451953,0.0816625,17,32765
1.52285,0.449872,0.0815158,18,32765
1.51478,0.442035,0.0803301,17,32765
1.49707,0.431504,0.0785612,17,32765
1.50811,0.429329,0.0785244,17,32765
1.50957,0.42432,0.0778515,17,32765
1.511,0.419338,0.077074,17,32765
1.50277,0.411702,0.0759974,18,32765
1.4945,0.40417,0.0749485,18,32765
1.50549,0.401843,0.0749159,18,32765
1.50684,0.396897,0.0742795,18,32765
1.50816,0.39192,0.0737996,18,32765
1.51916,0.389389,0.0736571,18,32765
1.49141,0.37705,0.0716735,18,32765
1.51203,0.377061,0.0721353,18,32765
1.50358,0.369714,0.0711207,18,32765
1.4951,0.362428,0.0700824,17,32765
1.4769,0.35277,0.0686958,17,32765
1.49754,0.352409,0.0691533,17,32765
1.51819,0.351926,0.0696301,18,32765
1.51937,0.346887,0.0691066,18,32765
1.49128,0.33531,0.0673969,18,32765
1.51192,0.334668,0.0678504,18,32765
1.49352,0.32538,0.0665637,18,32765
1.51414,0.324597,0.0671333,19,32765
1.48592,0.313291,0.0655001,18,32765
1.50654,0.312401,0.0659582,18,32765
1.4978,0.305367,0.0651383,18,32765
1.47924,0.29642,0.0638683,18,32765
1.49004,0.293403,0.0639336,17,32765
1.49104,0.288367,0.063625,19,32765
1.4822,0.281445,0.0629217,19,32765
1.48315,0.276475,0.0626496,19,32765
1.48406,0.271602,0.0624191,18,32765
1.48497,0.266703,0.0619926,18,32765
1.45633,0.256582,0.0605551,18,32765
1.47689,0.255084,0.0609798,18,32765
1.4679,0.248439,0.0603456,19,32765
1.4983,0.248421,0.0615486,19,32765
1.47942,0.240179,0.0602307,18,32765
1.47035,0.233686,0.0595725,18,32765
1.46126,0.22727,0.0589638,18,32765
1.48178,0.225355,0.059636,18,32765
1.47264,0.218939,0.0590179,18,32765
1.47339,0.213922,0.0588067,18,32765
1.48401,0.210376,0.0589025,19,32765
1.48471,0.205377,0.0586886,18,32765
1.47551,0.199054,0.0579811,18,32765
1.45635,0.191534,0.0569725,18,32765
1.48673,0.190443,0.0579216,19,32765
1.4477,0.180541,0.0562863,18,32765
1.45823,0.17695,0.0562793,18,32765
1.45881,0.172114,0.0560741,18,32765
1.47924,0.169528,0.0566897,18,32765
1.45993,0.162451,0.0559124,17,32765
1.46048,0.157531,0.0555109,17,32765
1.46101,0.152731,0.0550776,18,32765
1.46151,0.147879,0.0550092,18,32765
1.46199,0.143034,0.0549016,17,32765
1.44257,0.136287,0.0539056,18,32765
1.45299,0.132283,0.0539509,18,32765
1.47335,0.129178,0.0544199,18,32765
1.47379,0.12415,0.0542097,18,32765
1.44432,0.116838,0.0529003,18,32765
1.48455,0.11518,0.0542118,18,32765
1.47497,0.109553,0.0534717,18,32765
1.44543,0.102591,0.0521629,18,32765
1.44577,0.0977786,0.051968,17,32765
1.45607,0.0936124,0.0520355,17,32765
1.46635,0.0894411,0.0521689,16,32765
1.45667,0.0840132,0.0515766,16,32765
1.46692,0.079823,0.0516809,16,32765
1.48715,0.0759665,0.0520224,16,32765
1.48741,0.0710325,0.0517631,16,32765
1.47766,0.0657422,0.0510669,16,32765
1.50783,0.0620976,0.0518036,16,32765
1.49805,0.05682,0.0511654,17,32765
1.46828,0.0508757,0.0497894,16,32765
1.48842,0.0467668,0.0501509,17,32765
1.4586,0.0410633,0.0488581,17,32765
1.48872,0.0368997,0.0493852,17,32765
1.45887,0.0313249,0.0480387,17,32765
1.43899,0.0261864,0.0470335,17,32765
1.46906,0.022028,0.0476112,18,32765
1.45914,0.0172742,0.046899,18,32765
1.43922,0.0123609,0.0458892,19,32765
1.43926,0.00764089,0.0454551,18,32765
1.44929,0.00290306,0.045326,18,32765
1.44931,-0.00169435,0.0448465,18,32765
1.44931,-0.00623605,0.0443428,18,32765
1.46929,-0.0110768,0.0443554,18,32765
1.44927,-0.0157875,0.0432353,18,32765
1.44923,-0.0204995,0.0424352,19,32765
1.62325,0.532956,0.0714632,16,32765
1.56793,0.50923,0.0692533,17,32765
1.55052,0.498109,0.0684824,16,32765
1.57117,0.499127,0.0692409,16,32765
1.5728,0.493967,0.0692749,16,32765
1.59349,0.494764,0.0699003,16,32765
1.5951,0.489573,0.069823,16,32765
1.57755,0.478622,0.0689364,17,32765
1.55041,0.464808,0.0676428,16,32765
1.55193,0.459743,0.0675071,16,32765
1.57264,0.460205,0.0680227,17,32765
1.55495,0.449498,0.0669513,16,32765
1.59485,0.455355,0.068499,16,32765
1.55786,0.439323,0.0667254,16,32765
1.56893,0.436911,0.0668827,16,32765
1.56075,0.429077,0.0660454,15,32765
1.59108,0.431776,0.0672294,16,32765
1.5732,0.42137,0.0662141,16,32765
1.5746,0.416157,0.065949,16,32765
1.56631,0.40842,0.0652463,16,32765
1.58705,0.408135,0.0656766,16,32765
1.53998,0.390542,0.0634871,15,32765
1.54128,0.385432,0.0632131,17,32765
1.55227,0.382692,0.0632385,16,32765
1.55353,0.377587,0.0630653,16,32765
1.54507,0.370092,0.0622839,16,32765
1.54631,0.364966,0.0619535,17,32765
1.56698,0.364377,0.0624977,17,32765
1.53898,0.352446,0.0611181,16,32765
1.54991,0.349504,0.0611679,17,32765
1.53159,0.339927,0.0599241,17,32765
1.54249,0.336922,0.0600525,17,32765
1.54362,0.331783,0.0597349,17,32765
1.53494,0.324602,0.059003,17,32765
1.55559,0.323575,0.0595678,17,32765
1.55667,0.318396,0.0590716,17,32765
1.53814,0.309282,0.0579981,18,32765
1.549,0.306029,0.0579686,18,32765
1.55984,0.302689,0.058161,17,32765
1.54123,0.293701,0.0569797,17,32765
1.53241,0.286616,0.0564274,18,32765
1.54319,0.283316,0.0564146,17,32765
1.55396,0.279976,0.056642,17,32765
1.53521,0.271397,0.0554545,18,32765
1.55581,0.269694,0.0558968,17,32765
1.55672,0.264441,0.0556273,17,32765
1.55762,0.259167,0.0553483,18,32765
1.51906,0.24744,0.0532683,17,32765
1.53962,0.245499,0.0538104,17,32765
1.54043,0.240416,0.0535164,17,32765
1.54125,0.23524,0.0531545,17,32765
1.55193,0.23147,0.0532712,17,32765
1.55273,0.22619,0.0526283,17,32765
1.55349,0.220982,0.052438,18,32765
1.51463,0.210281,0.0508223,17,32765
1.54503,0.209303,0.0516456,18,32765
1.54574,0.204131,0.0512641,18,32765
1.54643,0.198917,0.0508686,17,32765
1.52726,0.191281,0.0498655,17,32765
1.52789,0.186166,0.050016,17,32765
1.54836,0.183445,0.0502259,18,32765
1.53904,0.177143,0.0496101,17,32765
1.53963,0.172051,0.0492866,18,32765
1.55014,0.16804,0.0493531,17,32765
1.52087,0.159766,0.0482476,17,32765
1.55122,0.157827,0.0492021,17,32765
1.55174,0.152646,0.048921,16,32765
1.5423,0.14658,0.04833,16,32765
1.54278,0.141498,0.0481819,16,32765
1.61294,0.142535,0.0501745,15,32765
1.56361,0.132897,0.0486689,15,32765
1.5541,0.126761,0.0480228,15,32765
1.63423,0.127824,0.05037,15,32765
1.525,0.114193,0.0471121,15,32765
1.57522,0.112835,0.0484589,15,32765
1.53569,0.104983,0.0471367,16,32765
1.50611,0.0979994,0.0461736,16,32765
1.52637,0.0943296,0.0467281,16,32765
1.50672,0.0881389,0.0460203,16,32765
1.51698,0.0837739,0.0463474,16,32765
1.52723,0.0792922,0.04663,17,32765
1.5175,0.0737329,0.0462931,17,32765
1.51774,0.0687605,0.0463611,17,32765
1.52795,0.0641217,0.0465144,17,32765
1.50817,0.0583453,0.0460685,17,32765
1.52833,0.0540555,0.0467988,17,32765
1.53849,0.049378,0.0471281,17,32765
1.50866,0.0435247,0.0462558,17,32765
1.51878,0.0388707,0.0468062,18,32765
1.52889,0.0341211,0.0471986,18,32765
1.519,0.0289077,0.0470207,17,32765
1.51908,0.0238398,0.0471608,18,32765
1.53913,0.0191474,0.0480193,18,32765
1.51919,0.0139653,0.0475888,19,32765
1.51922,0.00906657,0.0478384,18,32765
1.52923,0.00409806,0.0483165,19,32765
1.53922,-0.000925703,0.0489676,18,32765
