x, y, z, intensity, ring
0,-0,-0,13,32765
2.14289,-0.696227,-0.175779,20,32765
2.17857,-0.715698,-0.177781,21,32765
2.17626,-0.722959,-0.176746,20,32765
2.15499,-0.723908,-0.174343,20,32765
2.21869,-0.753647,-0.178696,20,32765
2.21624,-0.761059,-0.177625,21,32765
2.16669,-0.751998,-0.173082,20,32765
2.16424,-0.759259,-0.172063,19,32765
2.18994,-0.776474,-0.173601,19,32765
2.20614,-0.790656,-0.174068,20,32765
2.16599,-0.784592,-0.17035,20,32765
2.2383,-0.819381,-0.1753,19,32765
2.17008,-0.802799,-0.169367,20,32765
2.21414,-0.827572,-0.172137,20,32765
2.17406,-0.820963,-0.168429,20,32765
2.18066,-0.831844,-0.168461,20,32765
2.20587,-0.849855,-0.169606,19,32765
2.14729,-0.835569,-0.16453,19,32765
2.20021,-0.864678,-0.168221,20,32765
2.16951,-0.861106,-0.165251,20,32765
2.24996,-0.901855,-0.170932,19,32765
2.21923,-0.898246,-0.167859,20,32765
2.22549,-0.909457,-0.167901,20,32765
2.19479,-0.905588,-0.164939,19,32765
2.1641,-0.901582,-0.162188,19,32765
2.19788,-0.924405,-0.164035,19,32765
2.19476,-0.931934,-0.163216,19,32765
2.20081,-0.943272,-0.163337,19,32765
2.18851,-0.94677,-0.161648,19,32765
2.21274,-0.966235,-0.163035,19,32765
2.11816,-0.933578,-0.155719,18,32765
2.21529,-0.985428,-0.162298,20,32765
2.16639,-0.972685,-0.158282,19,32765
2.22673,-1.00891,-0.162084,21,32765
2.16886,-0.991647,-0.157442,20,32765
2.17461,-1.00315,-0.157267,19,32765
2.18034,-1.01466,-0.157051,19,32765
2.19501,-1.0305,-0.15784,19,32765
2.19158,-1.03789,-0.156982,20,32765
2.19703,-1.04978,-0.157,20,32765
2.21143,-1.066,-0.157491,20,32765
2.18089,-1.06053,-0.154641,19,32765
2.17729,-1.06801,-0.15381,19,32765
2.16478,-1.07094,-0.15232,18,32765
2.19688,-1.09614,-0.154241,20,32765
2.17538,-1.09458,-0.152295,19,32765
2.20728,-1.12012,-0.153756,19,32765
2.18568,-1.11865,-0.151726,19,32765
2.20851,-1.13986,-0.152637,18,32765
2.16925,-1.12895,-0.149346,18,32765
2.19204,-1.15011,-0.150356,19,32765
2.16176,-1.14346,-0.14758,19,32765
2.20193,-1.17432,-0.149841,19,32765
2.18042,-1.17233,-0.147721,19,32765
2.17652,-1.17967,-0.146719,18,32765
2.16386,-1.18215,-0.145355,19,32765
2.18629,-1.20368,-0.145957,19,32765
2.19981,-1.22061,-0.146114,19,32765
2.16963,-1.21335,-0.143493,19,32765
2.17421,-1.2257,-0.143104,19,32765
2.17009,-1.23311,-0.14192,19,32765
2.19201,-1.25528,-0.142386,19,32765
2.16184,-1.24775,-0.13987,18,32765
2.175,-1.26498,-0.139894,19,32765
2.17077,-1.27233,-0.138993,19,32765
2.19233,-1.2949,-0.139313,19,32765
2.17942,-1.29721,-0.137656,19,32765
2.1751,-1.30459,-0.136302,18,32765
2.17081,-1.31183,-0.13521,20,32765
2.20063,-1.33977,-0.136445,19,32765
2.18781,-1.34174,-0.134545,19,32765
2.18344,-1.34898,-0.13324,19,32765
2.18747,-1.36157,-0.132347,19,32765
2.16607,-1.35823,-0.130269,18,32765
2.13626,-1.34947,-0.127423,19,32765
2.19089,-1.39399,-0.129557,18,32765
2.18638,-1.40118,-0.128272,19,32765
2.1902,-1.41385,-0.127133,18,32765
2.20238,-1.43191,-0.126668,18,32765
2.18097,-1.42827,-0.12451,18,32765
2.20135,-1.45195,-0.124429,18,32765
2.17167,-1.44264,-0.121381,18,32765
2.19182,-1.46657,-0.121281,18,32765
2.14561,-1.44591,-0.117442,18,32765
2.19047,-1.48669,-0.118702,18,32765
2.21043,-1.51074,-0.118571,18,32765
2.23028,-1.53494,-0.117943,19,32765
2.20884,-1.53094,-0.115548,18,32765
2.17937,-1.52096,-0.11236,17,32765
2.20717,-1.55105,-0.112411,19,32765
2.21845,-1.56985,-0.111502,19,32765
2.22149,-1.58298,-0.109873,19,32765
2.17567,-1.5613,-0.105808,18,32765
2.17054,-1.56855,-0.103839,17,32765
2.23821,-1.62858,-0.105153,17,32765
2.21703,-1.62384,-0.102144,18,32765
0,-0,-0,0,32765
0,-0,-0,0,32765
0,-0,-0,0,32765
0,-0,-0,0,32765
0,-0,-0,12,32765
2.1814,-0.706921,-0.178215,17,32765
2.17904,-0.714126,-0.178316,19,32765
2.13879,-0.70886,-0.175218,18,32765
2.15536,-0.722246,-0.176635,19,32765
2.20019,-0.745313,-0.180431,18,32765
2.18826,-0.749426,-0.179705,18,32765
2.17636,-0.753427,-0.178635,18,32765
2.19261,-0.767428,-0.180038,19,32765
2.18064,-0.771446,-0.179083,18,32765
2.21564,-0.792127,-0.181833,18,32765
2.19424,-0.792748,-0.180217,18,32765
2.19164,-0.800016,-0.179729,18,32765
2.20764,-0.814361,-0.180985,19,32765
2.19556,-0.81838,-0.179585,18,32765
2.18349,-0.822276,-0.178445,18,32765
2.218,-0.843872,-0.181044,19,32765
2.14073,-0.822699,-0.174475,18,32765
2.20306,-0.855125,-0.179385,17,32765
2.18165,-0.85528,-0.177155,18,32765
2.1788,-0.862595,-0.176848,18,32765
2.20369,-0.881066,-0.178583,18,32765
2.19151,-0.88471,-0.177375,20,32765
2.21623,-0.903493,-0.178938,19,32765
2.15784,-0.888288,-0.173941,18,32765
2.15482,-0.895743,-0.173194,18,32765
2.17021,-0.910778,-0.173955,18,32765
2.18552,-0.925913,-0.174916,18,32765
2.15493,-0.921559,-0.171824,17,32765
2.24343,-0.968342,-0.178467,19,32765
2.21275,-0.964046,-0.175396,18,32765
2.20952,-0.971573,-0.174574,18,32765
2.14248,-0.950708,-0.168681,18,32765
2.16658,-0.970254,-0.170139,17,32765
2.20875,-0.998189,-0.17301,18,32765
2.16915,-0.989073,-0.16913,19,32765
2.15679,-0.992254,-0.167537,17,32765
2.17161,-1.00789,-0.168206,18,32765
2.21339,-1.03643,-0.170927,19,32765
2.16483,-1.02266,-0.166361,19,32765
2.15237,-1.02578,-0.164911,18,32765
2.17594,-1.04602,-0.1659,19,32765
2.18149,-1.05764,-0.165452,18,32765
2.1959,-1.07377,-0.166013,18,32765
2.17439,-1.07242,-0.163796,18,32765
2.15287,-1.07106,-0.161492,18,32765
2.15815,-1.083,-0.160952,19,32765
2.16333,-1.09502,-0.160741,18,32765
2.17741,-1.11152,-0.161003,18,32765
2.20032,-1.13262,-0.161837,18,32765
2.22313,-1.15381,-0.162849,19,32765
2.21044,-1.15671,-0.161157,18,32765
2.15364,-1.13623,-0.156255,17,32765
2.15866,-1.14819,-0.156004,18,32765
2.16363,-1.16022,-0.155525,18,32765
2.19488,-1.18651,-0.157081,18,32765
2.18219,-1.18915,-0.155173,18,32765
2.18698,-1.20131,-0.154787,18,32765
2.18298,-1.20869,-0.153813,18,32765
2.22253,-1.24039,-0.155858,17,32765
2.14883,-1.20871,-0.149842,18,32765
2.16215,-1.22583,-0.150147,18,32765
2.17544,-1.24296,-0.150294,19,32765
2.14534,-1.23537,-0.147499,18,32765
2.19308,-1.27259,-0.150012,19,32765
2.18887,-1.27992,-0.149199,18,32765
2.18463,-1.28729,-0.147913,18,32765
2.21467,-1.31502,-0.149467,17,32765
2.1503,-1.28665,-0.144344,17,32765
2.20588,-1.32995,-0.147354,17,32765
2.16729,-1.31667,-0.144262,18,32765
2.17144,-1.32915,-0.143815,17,32765
2.22658,-1.37303,-0.146679,18,32765
2.18817,-1.3593,-0.143588,17,32765
2.13297,-1.33471,-0.13929,17,32765
2.19618,-1.38433,-0.142933,18,32765
2.09893,-1.33271,-0.135904,17,32765
2.18716,-1.39877,-0.140653,17,32765
2.21608,-1.42772,-0.142082,17,32765
2.20301,-1.42962,-0.140822,18,32765
2.12312,-1.38771,-0.135004,17,32765
2.20191,-1.44973,-0.139551,17,32765
2.17219,-1.44047,-0.136969,17,32765
2.18398,-1.45886,-0.137327,18,32765
2.22893,-1.4995,-0.139449,18,32765
2.24051,-1.51812,-0.139792,18,32765
2.19429,-1.49738,-0.136203,17,32765
2.18943,-1.50455,-0.135439,18,32765
2.20093,-1.52311,-0.135872,16,32765
2.16329,-1.50733,-0.133238,16,32765
2.1503,-1.50854,-0.131902,17,32765
2.2107,-1.56162,-0.135087,18,32765
2.20565,-1.56879,-0.134628,18,32765
2.16802,-1.55278,-0.13218,17,32765
2.16299,-1.55983,-0.131477,17,32765
2.1418,-1.55507,-0.13013,16,32765
2.16098,-1.57964,-0.13144,16,32765
0,-0,-0,0,32765
0,-0,-0,0,32765
0,-0,-0,11,32765
0,-0,-0,0,32765
1.98222,-0.637196,-0.18138,13,32765
2.15057,-0.699364,-0.197106,20,32765
2.14823,-0.706487,-0.197204,20,32765
2.14585,-0.713685,-0.197205,20,32765
2.14349,-0.720778,-0.19707,20,32765
2.17884,-0.740657,-0.200463,20,32765
2.1575,-0.741474,-0.198772,20,32765
2.14564,-0.745385,-0.197612,21,32765
2.13369,-0.749414,-0.196603,20,32765
2.13118,-0.75658,-0.196421,20,32765
2.14742,-0.770418,-0.197822,19,32765
2.13547,-0.774211,-0.196883,20,32765
2.13293,-0.781305,-0.196406,19,32765
2.14897,-0.795487,-0.197853,20,32765
2.17429,-0.813281,-0.199805,19,32765
2.17156,-0.820639,-0.199428,19,32765
2.15018,-0.820926,-0.197275,20,32765
2.15674,-0.831746,-0.19764,20,32765
2.1354,-0.831756,-0.195546,20,32765
2.19754,-0.864517,-0.200773,20,32765
2.14835,-0.853512,-0.196231,21,32765
2.16399,-0.868216,-0.197407,20,32765
2.1888,-0.886704,-0.199478,20,32765
2.15814,-0.882886,-0.196285,19,32765
2.12752,-0.878867,-0.19325,20,32765
2.14292,-0.893911,-0.194178,19,32765
2.12156,-0.893472,-0.191804,19,32765
2.11856,-0.900682,-0.191304,19,32765
2.14303,-0.919676,-0.192903,19,32765
2.13082,-0.922954,-0.191441,19,32765
2.12773,-0.930246,-0.190586,19,32765
2.1702,-0.957623,-0.193865,19,32765
2.1306,-0.948747,-0.189765,19,32765
2.15467,-0.9683,-0.191504,19,32765
2.11509,-0.95921,-0.187594,18,32765
2.14819,-0.982942,-0.18979,19,32765
2.18111,-1.00696,-0.192094,20,32765
2.15066,-1.00166,-0.188968,20,32765
2.15632,-1.01325,-0.188996,19,32765
2.12591,-1.0078,-0.185562,19,32765
2.18546,-1.04521,-0.190294,20,32765
2.22689,-1.07428,-0.1931,20,32765
2.20545,-1.07301,-0.190393,20,32765
2.12131,-1.04095,-0.18265,19,32765
2.18931,-1.08357,-0.187944,20,32765
2.14992,-1.07336,-0.183918,19,32765
2.1819,-1.09877,-0.185743,20,32765
2.15145,-1.09285,-0.182593,20,32765
2.17439,-1.1139,-0.183794,20,32765
2.14409,-1.10757,-0.180432,19,32765
2.12273,-1.10559,-0.178033,19,32765
2.21616,-1.1638,-0.185144,19,32765
2.15942,-1.1433,-0.179677,18,32765
2.1644,-1.15532,-0.179513,19,32765
2.16055,-1.16267,-0.178395,18,32765
2.13037,-1.15572,-0.175272,19,32765
2.09154,-1.1438,-0.171156,19,32765
2.16635,-1.19421,-0.176598,19,32765
2.11006,-1.17246,-0.171379,19,32765
2.14096,-1.19912,-0.173215,19,32765
2.14568,-1.21124,-0.17279,19,32765
2.15896,-1.22839,-0.173278,19,32765
2.17222,-1.24556,-0.173608,19,32765
2.15943,-1.24793,-0.171908,19,32765
2.1467,-1.25013,-0.170182,19,32765
2.11674,-1.24218,-0.167342,19,32765
2.14698,-1.26964,-0.168795,19,32765
2.14274,-1.27688,-0.16804,18,32765
2.16413,-1.29958,-0.168978,18,32765
2.1342,-1.29137,-0.165987,18,32765
2.11283,-1.28821,-0.163868,18,32765
2.12556,-1.30577,-0.164191,18,32765
2.13826,-1.32333,-0.164459,19,32765
2.13392,-1.33041,-0.163625,19,32765
2.12115,-1.33213,-0.162018,19,32765
2.14209,-1.35515,-0.16319,19,32765
2.13766,-1.36224,-0.162186,19,32765
2.15005,-1.38006,-0.162224,19,32765
2.11193,-1.3656,-0.158984,19,32765
2.1158,-1.37805,-0.158918,19,32765
2.14468,-1.40695,-0.160417,19,32765
2.15665,-1.42515,-0.160908,19,32765
2.15197,-1.43232,-0.159916,18,32765
2.15547,-1.44513,-0.159846,19,32765
2.12593,-1.4355,-0.157032,19,32765
2.08816,-1.42014,-0.153937,18,32765
2.15762,-1.47783,-0.158416,18,32765
2.1446,-1.47924,-0.157057,18,32765
2.09876,-1.45783,-0.153485,18,32765
2.11863,-1.48174,-0.154686,19,32765
2.12206,-1.49432,-0.154458,17,32765
2.10095,-1.48968,-0.152478,17,32765
2.16924,-1.54872,-0.157341,17,32765
2.13173,-1.53257,-0.154525,18,32765
2.11059,-1.52781,-0.152659,17,32765
2.12179,-1.5464,-0.153465,17,32765
2.12484,-1.55915,-0.153883,18,32765
0,-0,-0,0,32765
0,-0,-0,0,32765
0,-0,-0,0,32765
0,-0,-0,0,32765
0,-0,-0,0,32765
2.13059,-0.689004,-0.219891,17,32765
2.09058,-0.68368,-0.214794,18,32765
2.14511,-0.709316,-0.219717,18,32765
2.13344,-0.713228,-0.217588,18,32765
2.15947,-0.729843,-0.21932,19,32765
2.10998,-0.721089,-0.213545,20,32765
2.17353,-0.750922,-0.219083,19,32765
2.10526,-0.735319,-0.211593,19,32765
2.11223,-0.745835,-0.211504,19,32765
2.11917,-0.756307,-0.211439,19,32765
2.09794,-0.756767,-0.208706,19,32765
2.1703,-0.791131,-0.215194,18,32765
2.09296,-0.770956,-0.206754,18,32765
2.09977,-0.78143,-0.206926,18,32765
2.10654,-0.792046,-0.206741,18,32765
2.0946,-0.795662,-0.20514,17,32765
2.08267,-0.799285,-0.203067,18,32765
2.11712,-0.820866,-0.205899,17,32765
2.14219,-0.839,-0.207854,18,32765
2.12092,-0.838901,-0.205042,18,32765
2.10891,-0.842349,-0.203346,18,32765
2.15232,-0.868106,-0.206857,18,32765
2.1679,-0.882949,-0.207673,18,32765
2.13729,-0.879062,-0.204031,17,32765
2.11591,-0.878815,-0.201555,18,32765
2.16805,-0.90925,-0.205937,18,32765
2.11918,-0.897162,-0.200683,18,32765
2.15287,-0.919998,-0.20316,18,32765
2.13148,-0.919474,-0.200597,18,32765
2.16494,-0.942652,-0.203349,19,32765
2.18913,-0.962129,-0.204972,18,32765
2.16768,-0.961581,-0.202272,19,32765
2.1644,-0.969106,-0.201549,18,32765
2.15205,-0.972483,-0.199695,18,32765
2.1488,-0.979822,-0.198752,18,32765
2.11836,-0.974656,-0.195395,18,32765
2.13322,-0.990213,-0.19604,17,32765
2.10285,-0.98474,-0.19293,18,32765
2.10857,-0.996122,-0.193018,18,32765
2.15928,-1.02894,-0.196895,18,32765
2.13785,-1.02769,-0.19457,18,32765
2.11644,-1.02634,-0.192086,18,32765
2.06816,-1.0118,-0.187302,18,32765
2.13624,-1.05423,-0.192802,18,32765
2.13269,-1.06157,-0.191918,18,32765
2.09346,-1.05096,-0.188137,18,32765
2.09888,-1.06261,-0.187596,18,32765
2.13963,-1.09252,-0.191032,18,32765
2.16253,-1.11358,-0.192373,18,32765
2.1057,-1.09338,-0.186909,17,32765
2.10209,-1.10045,-0.186036,17,32765
2.09848,-1.10747,-0.185167,17,32765
2.13882,-1.13797,-0.188057,18,32765
2.07352,-1.11225,-0.181729,17,32765
2.15746,-1.16681,-0.188461,18,32765
2.14477,-1.16942,-0.186881,18,32765
2.09722,-1.15263,-0.182014,17,32765
2.10214,-1.1645,-0.181785,18,32765
2.13314,-1.19095,-0.183958,18,32765
2.12924,-1.19808,-0.182927,18,32765
2.12528,-1.20523,-0.181971,18,32765
2.16456,-1.23716,-0.184679,18,32765
2.09994,-1.20966,-0.178575,18,32765
2.13044,-1.23675,-0.180415,18,32765
2.12637,-1.2439,-0.179341,19,32765
2.11367,-1.24598,-0.177615,19,32765
2.09249,-1.24278,-0.174863,18,32765
2.08839,-1.24979,-0.173946,17,32765
2.14412,-1.29278,-0.177733,17,32765
2.10576,-1.27923,-0.173873,18,32765
2.15266,-1.31746,-0.176845,17,32765
2.11441,-1.30366,-0.172819,18,32765
2.10164,-1.30548,-0.170965,18,32765
2.08049,-1.30186,-0.168306,18,32765
2.12688,-1.34071,-0.171141,18,32765
2.08881,-1.32637,-0.167372,18,32765
2.07613,-1.32789,-0.165142,17,32765
2.09695,-1.35102,-0.166002,18,32765
2.13443,-1.38512,-0.167787,17,32765
2.13828,-1.39766,-0.167109,18,32765
2.13369,-1.40481,-0.16579,17,32765
2.12915,-1.41186,-0.164163,17,32765
2.14119,-1.42996,-0.164059,17,32765
2.12009,-1.42578,-0.161149,17,32765
2.17334,-1.47193,-0.164096,18,32765
2.15204,-1.46791,-0.161369,18,32765
2.13902,-1.46946,-0.158965,17,32765
2.15068,-1.48788,-0.158726,17,32765
2.12955,-1.48349,-0.155816,17,32765
2.14121,-1.50183,-0.155363,18,32765
2.17719,-1.53761,-0.156497,17,32765
2.12344,-1.51005,-0.151112,17,32765
2.16723,-1.55199,-0.152696,17,32765
2.10563,-1.51817,-0.146536,17,32765
2.15737,-1.56611,-0.14816,18,32765
2.16855,-1.5849,-0.146966,17,32765
0,-0,-0,0,32765
0,-0,-0,0,32765
0,-0,-0,0,32765
0,-0,-0,11,32765
0,-0,-0,13,32765
2.10887,-0.684544,-0.238721,20,32765
2.11616,-0.694644,-0.238586,20,32765
2.13283,-0.7079,-0.239811,20,32765
2.14946,-0.721273,-0.240761,21,32765
2.12835,-0.72201,-0.237507,21,32765
2.10718,-0.722813,-0.234417,20,32765
2.12365,-0.736418,-0.235399,20,32765
2.11184,-0.740354,-0.233501,20,32765
2.10002,-0.744277,-0.231433,20,32765
2.10696,-0.754735,-0.231464,20,32765
2.11382,-0.765317,-0.231622,20,32765
2.11132,-0.772475,-0.23068,20,32765
2.10879,-0.779654,-0.229649,21,32765
2.07829,-0.776285,-0.225855,19,32765
2.1223,-0.800907,-0.229804,20,32765
2.11963,-0.808134,-0.229106,19,32765
2.08911,-0.804703,-0.224924,20,32765
2.10494,-0.819143,-0.226131,20,32765
2.1022,-0.82636,-0.225388,20,32765
2.081,-0.826129,-0.222406,19,32765
2.08751,-0.83686,-0.222599,19,32765
2.09399,-0.847672,-0.222658,20,32765
2.13724,-0.87365,-0.226613,20,32765
2.08831,-0.862058,-0.220758,20,32765
2.09456,-0.873134,-0.221017,20,32765
2.11913,-0.891984,-0.223066,20,32765
2.11618,-0.899171,-0.222173,20,32765
2.12237,-0.910281,-0.222148,19,32765
2.07364,-0.897792,-0.216546,19,32765
2.11623,-0.924815,-0.220636,19,32765
2.0858,-0.920066,-0.216874,19,32765
2.07361,-0.923214,-0.214974,20,32765
2.05229,-0.922273,-0.2124,19,32765
2.08545,-0.945836,-0.21518,19,32765
2.10945,-0.965398,-0.217058,20,32765
2.09718,-0.968441,-0.21529,19,32765
2.13009,-0.992375,-0.217975,19,32765
2.13579,-1.00383,-0.218267,19,32765
2.14144,-1.01535,-0.218433,19,32765
2.12912,-1.01829,-0.216454,19,32765
2.11671,-1.02126,-0.21486,19,32765
2.09535,-1.01984,-0.212195,19,32765
2.10973,-1.03593,-0.213276,19,32765
2.10623,-1.04323,-0.212299,18,32765
2.11162,-1.05494,-0.21232,19,32765
2.08136,-1.04873,-0.209063,19,32765
2.13117,-1.08292,-0.213058,20,32765
2.08313,-1.06759,-0.208091,20,32765
2.10608,-1.08851,-0.209733,19,32765
2.09359,-1.09109,-0.208119,18,32765
2.0988,-1.10279,-0.208122,18,32765
2.06876,-1.09583,-0.204638,18,32765
2.0915,-1.11691,-0.206268,19,32765
2.12285,-1.14293,-0.208799,19,32765
2.11899,-1.15025,-0.207843,19,32765
2.08014,-1.13839,-0.203615,18,32765
2.08511,-1.15023,-0.203419,17,32765
2.13357,-1.18631,-0.207519,19,32765
2.12098,-1.18856,-0.205829,19,32765
2.11708,-1.19567,-0.204799,19,32765
2.06983,-1.17816,-0.199667,19,32765
2.1437,-1.22981,-0.206186,20,32765
2.13097,-1.23211,-0.204404,20,32765
2.05801,-1.19917,-0.196716,18,32765
2.04546,-1.20105,-0.194856,19,32765
2.11869,-1.25362,-0.201217,20,32765
2.1232,-1.26575,-0.200701,20,32765
2.11902,-1.27289,-0.199765,19,32765
2.10635,-1.27478,-0.197773,19,32765
2.1362,-1.30261,-0.19993,20,32765
2.13196,-1.30971,-0.198685,20,32765
2.1277,-1.31681,-0.197442,20,32765
2.12337,-1.32396,-0.196266,19,32765
2.13596,-1.34163,-0.196511,19,32765
2.13158,-1.34876,-0.195232,20,32765
2.10195,-1.33978,-0.191854,18,32765
2.08925,-1.34136,-0.189517,19,32765
2.12672,-1.37541,-0.192155,19,32765
2.11391,-1.37703,-0.189873,18,32765
2.13445,-1.40047,-0.190787,20,32765
2.10489,-1.39114,-0.187244,20,32765
2.10871,-1.40365,-0.186368,19,32765
2.09588,-1.40507,-0.184272,18,32765
2.0997,-1.41748,-0.183373,19,32765
2.08688,-1.41879,-0.181244,19,32765
2.09871,-1.43704,-0.181229,19,32765
2.06939,-1.42709,-0.177364,18,32765
2.12211,-1.47378,-0.180843,18,32765
2.10107,-1.46929,-0.177766,19,32765
2.08011,-1.46461,-0.174773,18,32765
2.09173,-1.48296,-0.174379,19,32765
2.08697,-1.48986,-0.172537,18,32765
2.08213,-1.49683,-0.170717,18,32765
2.1259,-1.53873,-0.172519,18,32765
2.12102,-1.5457,-0.170231,18,32765
2.14833,-1.57622,-0.170531,18,32765
0,-0,-0,0,32765
0,-0,-0,0,32765
0,-0,-0,0,32765
0,-0,-0,11,32765
0,-0,-0,12,32765
2.13796,-0.692529,-0.239059,19,32765
2.08838,-0.684228,-0.233633,18,32765
2.11443,-0.700583,-0.236615,18,32765
2.10268,-0.704445,-0.235348,18,32765
2.08152,-0.705,-0.233138,18,32765
2.07921,-0.711878,-0.232873,19,32765
2.14265,-0.741569,-0.239804,19,32765
2.14955,-0.752044,-0.240716,19,32765
2.09081,-0.739401,-0.233841,19,32765
2.0696,-0.739757,-0.231585,20,32765
2.09511,-0.757043,-0.234505,20,32765
2.11127,-0.771011,-0.235964,19,32765
2.06202,-0.760992,-0.230317,19,32765
2.13404,-0.795742,-0.238247,18,32765
2.1035,-0.792336,-0.234676,19,32765
2.073,-0.788785,-0.231031,19,32765
2.07967,-0.799325,-0.231609,19,32765
2.03991,-0.79198,-0.226976,18,32765
2.08355,-0.817128,-0.231576,18,32765
2.04382,-0.80956,-0.226984,18,32765
2.15189,-0.860992,-0.238644,18,32765
2.07522,-0.838503,-0.229935,18,32765
2.12768,-0.868133,-0.235416,19,32765
2.06961,-0.852603,-0.228672,18,32765
2.11274,-0.878605,-0.23319,18,32765
2.10068,-0.881837,-0.231551,19,32765
2.09778,-0.888846,-0.23099,18,32765
2.07654,-0.888183,-0.228103,18,32765
2.08268,-0.899286,-0.228318,19,32765
2.05227,-0.894562,-0.224569,18,32765
2.06748,-0.909644,-0.225734,19,32765
2.06447,-0.916617,-0.22509,18,32765
2.06146,-0.92355,-0.224381,18,32765
2.13997,-0.96748,-0.232593,19,32765
2.09152,-0.954058,-0.226763,19,32765
2.05216,-0.944595,-0.222005,18,32765
2.08508,-0.96841,-0.225203,18,32765
2.1179,-0.992466,-0.228061,18,32765
2.06055,-0.974221,-0.221603,18,32765
2.11126,-1.00689,-0.226408,18,32765
2.10787,-1.01413,-0.225699,18,32765
2.08664,-1.01252,-0.222762,18,32765
2.13694,-1.04585,-0.227605,18,32765
2.04417,-1.00905,-0.217401,17,32765
2.11213,-1.05151,-0.223904,19,32765
2.11747,-1.06327,-0.224004,19,32765
2.08722,-1.0571,-0.220351,18,32765
2.04819,-1.04621,-0.215573,17,32765
2.0889,-1.07609,-0.219424,17,32765
2.0765,-1.0786,-0.217481,17,32765
2.13461,-1.11808,-0.222992,18,32765
2.12209,-1.12065,-0.221272,19,32765
2.10084,-1.11849,-0.218083,17,32765
2.10584,-1.13039,-0.218321,18,32765
2.07585,-1.12325,-0.214624,17,32765
2.08086,-1.13509,-0.214483,17,32765
2.0684,-1.13727,-0.21267,17,32765
2.08209,-1.15385,-0.213569,17,32765
2.13042,-1.19008,-0.218042,18,32765
2.06572,-1.16309,-0.210741,17,32765
2.0878,-1.18493,-0.212504,18,32765
2.09253,-1.19691,-0.212475,19,32765
2.08857,-1.20397,-0.211457,19,32765
2.08458,-1.21104,-0.210446,19,32765
2.10642,-1.2331,-0.212078,18,32765
2.05936,-1.21498,-0.207064,18,32765
2.09815,-1.24741,-0.210284,19,32765
2.07691,-1.24428,-0.207651,18,32765
2.11542,-1.27708,-0.210916,18,32765
2.06012,-1.25315,-0.204757,17,32765
2.08145,-1.27574,-0.206274,18,32765
2.07727,-1.2827,-0.205294,18,32765
2.07303,-1.28966,-0.204476,18,32765
2.06879,-1.29663,-0.203361,18,32765
2.05615,-1.29814,-0.201678,17,32765
2.05185,-1.30508,-0.200632,17,32765
2.08117,-1.3334,-0.202921,17,32765
2.0517,-1.32408,-0.199653,18,32765
2.09748,-1.36354,-0.20359,17,32765
2.07634,-1.35957,-0.201183,18,32765
2.06355,-1.36103,-0.199359,18,32765
2.07567,-1.37898,-0.200017,18,32765
2.05466,-1.3747,-0.197452,17,32765
2.0584,-1.38713,-0.197381,17,32765
2.07037,-1.40513,-0.198186,17,32765
2.05754,-1.40638,-0.196488,17,32765
2.15149,-1.48104,-0.204921,17,32765
2.08109,-1.44276,-0.197773,17,32765
2.10905,-1.4725,-0.200108,18,32765
2.08805,-1.46786,-0.197621,18,32765
2.05885,-1.45746,-0.194534,18,32765
2.07036,-1.47575,-0.195616,17,32765
2.09805,-1.50574,-0.197602,18,32765
2.04468,-1.47755,-0.192411,17,32765
2.0238,-1.47243,-0.190414,17,32765
2.06727,-1.51446,-0.194176,17,32765
0,-0,-0,0,32765
0,-0,-0,0,32765
0,-0,-0,11,32765
0,-0,-0,0,32765
2.04272,-0.656564,-0.248647,16,32765
2.09716,-0.681943,-0.255493,19,32765
2.08543,-0.685903,-0.254203,20,32765
2.06429,-0.686615,-0.251714,19,32765
2.09968,-0.706156,-0.256099,20,32765
2.06913,-0.703509,-0.252552,20,32765
2.07621,-0.713595,-0.253433,19,32765
2.10202,-0.73031,-0.256434,20,32765
2.0527,-0.720926,-0.250574,19,32765
2.08777,-0.741165,-0.25458,21,32765
2.12267,-0.761647,-0.258981,19,32765
2.07335,-0.752061,-0.253053,20,32765
2.08017,-0.762572,-0.253564,20,32765
2.11486,-0.783491,-0.257672,20,32765
2.04711,-0.76626,-0.249333,19,32765
2.06318,-0.780131,-0.251155,20,32765
2.06989,-0.790622,-0.251754,20,32765
2.06726,-0.797604,-0.251296,20,32765
2.0646,-0.804638,-0.25079,20,32765
2.10812,-0.829933,-0.255845,20,32765
2.05916,-0.818764,-0.249753,19,32765
2.0656,-0.829631,-0.250231,19,32765
2.0444,-0.829213,-0.247486,20,32765
2.07841,-0.851277,-0.251307,20,32765
2.05721,-0.850741,-0.248454,20,32765
2.05442,-0.857623,-0.247903,21,32765
2.05159,-0.86453,-0.247289,20,32765
2.07619,-0.883067,-0.250043,20,32765
2.07326,-0.890177,-0.24917,21,32765
2.07938,-0.901298,-0.249477,20,32765
2.05812,-0.900543,-0.246537,20,32765
2.08237,-0.9197,-0.248969,21,32765
2.043,-0.910557,-0.24398,20,32765
2.04907,-0.921517,-0.244356,19,32765
2.06409,-0.936747,-0.245855,21,32765
2.07005,-0.94788,-0.246036,20,32765
2.07589,-0.95918,-0.246266,20,32765
2.05464,-0.957925,-0.243418,20,32765
2.06044,-0.969238,-0.243468,19,32765
2.05716,-0.976343,-0.242831,21,32765
2.06292,-0.987611,-0.242909,20,32765
2.05063,-0.990376,-0.24116,20,32765
2.08316,-1.01471,-0.244354,20,32765
2.05302,-1.00864,-0.240345,20,32765
2.06747,-1.02447,-0.241743,21,32765
2.03738,-1.0182,-0.23756,19,32765
2.01618,-1.0163,-0.234677,19,32765
2.02159,-1.0278,-0.234903,19,32765
2.05353,-1.05297,-0.237991,19,32765
2.0588,-1.06467,-0.238209,20,32765
2.04645,-1.06708,-0.236184,20,32765
2.05166,-1.07878,-0.236268,18,32765
2.05687,-1.0904,-0.236504,20,32765
2.05329,-1.0974,-0.235178,18,32765
2.07586,-1.11861,-0.237524,19,32765
2.08967,-1.1351,-0.23855,18,32765
2.03353,-1.11357,-0.231533,17,32765
2.05601,-1.13484,-0.233605,18,32765
2.06968,-1.15142,-0.234689,18,32765
2.10055,-1.17795,-0.237753,19,32765
2.09665,-1.18509,-0.236661,20,32765
2.01483,-1.14796,-0.226993,18,32765
2.05419,-1.17955,-0.230966,19,32765
2.01583,-1.16657,-0.226097,19,32765
2.03776,-1.18846,-0.228003,18,32765
2.07678,-1.2205,-0.231845,19,32765
2.10692,-1.24791,-0.234971,20,32765
2.11988,-1.26527,-0.235771,20,32765
2.05595,-1.23656,-0.228204,19,32765
2.06886,-1.25388,-0.229108,18,32765
1.98825,-1.21418,-0.219598,18,32765
2.05205,-1.26268,-0.226094,19,32765
2.08176,-1.29054,-0.228844,19,32765
2.08594,-1.30282,-0.228947,19,32765
2.08166,-1.30985,-0.227819,19,32765
2.06898,-1.31142,-0.226033,19,32765
2.08982,-1.3345,-0.22772,20,32765
2.11897,-1.36301,-0.230354,19,32765
2.07273,-1.34298,-0.224975,19,32765
2.03495,-1.32816,-0.220418,19,32765
2.08053,-1.36775,-0.225046,19,32765
2.06772,-1.36924,-0.223123,18,32765
2.06321,-1.3762,-0.222173,18,32765
2.04223,-1.37188,-0.219424,19,32765
2.05421,-1.38988,-0.22033,19,32765
2.06614,-1.40791,-0.221316,19,32765
2.08616,-1.43171,-0.223034,20,32765
2.04051,-1.41033,-0.217691,19,32765
2.0277,-1.41145,-0.215943,19,32765
2.09648,-1.46967,-0.223,20,32765
2.05924,-1.4535,-0.2186,20,32765
2.06262,-1.46608,-0.218686,20,32765
2.04975,-1.46704,-0.217368,21,32765
2.06122,-1.48538,-0.218018,20,32765
2.04027,-1.48043,-0.21569,19,32765
2.02746,-1.48117,-0.214355,19,32765
2.03065,-1.49378,-0.214424,19,32765
0,-0,-0,0,32765
0,-0,-0,0,32765
0,-0,-0,0,32765
0,-0,-0,0,32765
2.01261,-0.643576,-0.268519,16,32765
2.07662,-0.67182,-0.276267,19,32765
2.02732,-0.663427,-0.268963,18,32765
2.10992,-0.698416,-0.27936,18,32765
2.07005,-0.693005,-0.273217,19,32765
2.04903,-0.693617,-0.269788,19,32765
2.05617,-0.70377,-0.27017,18,32765
2.03511,-0.704238,-0.266972,18,32765
2.05155,-0.717725,-0.26851,18,32765
2.03048,-0.718093,-0.265299,18,32765
2.04685,-0.731646,-0.266808,19,32765
2.02578,-0.731896,-0.263491,19,32765
2.05136,-0.749004,-0.266271,19,32765
2.03031,-0.749013,-0.263117,19,32765
2.01854,-0.752436,-0.261259,19,32765
2.03469,-0.76622,-0.262762,19,32765
2.06927,-0.78736,-0.266589,19,32765
2.09445,-0.80515,-0.269466,19,32765
2.0455,-0.794348,-0.262763,20,32765
2.06135,-0.808625,-0.264278,20,32765
2.03107,-0.804568,-0.259694,19,32765
2.06526,-0.82627,-0.263784,19,32765
2.08099,-0.840642,-0.26537,19,32765
2.03224,-0.828916,-0.25883,19,32765
2.04788,-0.843438,-0.260163,20,32765
2.01752,-0.839141,-0.255838,20,32765
2.07872,-0.873233,-0.263251,19,32765
2.04834,-0.868812,-0.258997,19,32765
2.07281,-0.88762,-0.261707,19,32765
2.04251,-0.882897,-0.257371,19,32765
2.0396,-0.889842,-0.256531,19,32765
2.02754,-0.892828,-0.25462,19,32765
2.06998,-0.919941,-0.25942,19,32765
2.02156,-0.906706,-0.253148,18,32765
2.00048,-0.905387,-0.24988,19,32765
2.05169,-0.937016,-0.255884,20,32765
2.01243,-0.927482,-0.250589,19,32765
2.05441,-0.955322,-0.25529,19,32765
2.03321,-0.953905,-0.252431,19,32765
2.04803,-0.969329,-0.253724,18,32765
2.04484,-0.976291,-0.25275,19,32765
2.00573,-0.966122,-0.247477,19,32765
2.02934,-0.986017,-0.24994,18,32765
2.03496,-0.997363,-0.250214,19,32765
2.0227,-0.999972,-0.248251,18,32765
2.06388,-1.02906,-0.252668,18,32765
2.08705,-1.0496,-0.255088,19,32765
2.05698,-1.0432,-0.250911,18,32765
2.00922,-1.0277,-0.244507,18,32765
2.06761,-1.06654,-0.251195,18,32765
2.0817,-1.08281,-0.252324,19,32765
2.04284,-1.0715,-0.247175,19,32765
2.05694,-1.08767,-0.248168,18,32765
2.05338,-1.09458,-0.247243,19,32765
2.00599,-1.07797,-0.240989,17,32765
2.05494,-1.11312,-0.24632,18,32765
2.06872,-1.12967,-0.247269,18,32765
2.03013,-1.11753,-0.242077,18,32765
2.01776,-1.11959,-0.239922,17,32765
2.0575,-1.15068,-0.243956,17,32765
2.01045,-1.13316,-0.237599,17,32765
2.07586,-1.17935,-0.244827,18,32765
2.06335,-1.18148,-0.242437,18,32765
2.01633,-1.16366,-0.236412,17,32765
2.00389,-1.16557,-0.233984,18,32765
2.06017,-1.20755,-0.239823,18,32765
2.00481,-1.18417,-0.232546,17,32765
2.04368,-1.21641,-0.23631,18,32765
2.05678,-1.23352,-0.237042,18,32765
2.08682,-1.26104,-0.239668,18,32765
2.02321,-1.23181,-0.231672,18,32765
2.03617,-1.24903,-0.232222,18,32765
1.99825,-1.23495,-0.226971,18,32765
2.04497,-1.27319,-0.231283,18,32765
2.04926,-1.28535,-0.230941,18,32765
2.07884,-1.31333,-0.233445,19,32765
2.01584,-1.28281,-0.225355,18,32765
1.99496,-1.27873,-0.222214,17,32765
2.06615,-1.33397,-0.228993,18,32765
2.02845,-1.31915,-0.223921,18,32765
2.01588,-1.32047,-0.221376,17,32765
2.06146,-1.36012,-0.225456,18,32765
1.99902,-1.32843,-0.217511,17,32765
2.05264,-1.37394,-0.222203,17,32765
2.04816,-1.38085,-0.220721,17,32765
2.01908,-1.37081,-0.2161,18,32765
2.05576,-1.40566,-0.219026,18,32765
2.02667,-1.39548,-0.214768,18,32765
2.05502,-1.42481,-0.216623,19,32765
2.08318,-1.45435,-0.21844,17,32765
2.05417,-1.44397,-0.213848,18,32765
2.06577,-1.46236,-0.213743,18,32765
2.02057,-1.44024,-0.207614,17,32765
2.02411,-1.45267,-0.206732,19,32765
2.02756,-1.46523,-0.205403,18,32765
2.0712,-1.50719,-0.208336,18,32765
2.03421,-1.49057,-0.202771,18,32765
0,-0,-0,0,32765
0,-0,-0,0,32765
0,-0,-0,0,32765
0,-0,-0,12,32765
1.95275,-0.627026,-0.28016,17,32765
2.03556,-0.661262,-0.291282,20,32765
2.02403,-0.665085,-0.288907,19,32765
2.03126,-0.675148,-0.289419,19,32765
2.01971,-0.678931,-0.286949,19,32765
2.04568,-0.695326,-0.290007,19,32765
2.04343,-0.702275,-0.289154,19,32765
2.03177,-0.705957,-0.287096,19,32765
2.02012,-0.709615,-0.284861,19,32765
2.02714,-0.719831,-0.28542,19,32765
1.99682,-0.716665,-0.280557,19,32765
2.05039,-0.743796,-0.287529,20,32765
2.05727,-0.754207,-0.287968,20,32765
1.98974,-0.737021,-0.278125,20,32765
2.0616,-0.771599,-0.287854,20,32765
2.05911,-0.778551,-0.286936,20,32765
2.01022,-0.767979,-0.279525,20,32765
2.03541,-0.785613,-0.282697,21,32765
2.04204,-0.796204,-0.283239,20,32765
2.05786,-0.810507,-0.284937,20,32765
1.99997,-0.795437,-0.276254,20,32765
2.04333,-0.820785,-0.281991,21,32765
2.00389,-0.812753,-0.276166,20,32765
2.04711,-0.838337,-0.281824,20,32765
2.03519,-0.841576,-0.279553,21,32765
2.02319,-0.844877,-0.277463,21,32765
2.00198,-0.844372,-0.274248,20,32765
2.02652,-0.863004,-0.277234,21,32765
2.04184,-0.877865,-0.278981,20,32765
2.01162,-0.873032,-0.274377,20,32765
2.01784,-0.883874,-0.274784,20,32765
2.02396,-0.894824,-0.275254,20,32765
2.03006,-0.905815,-0.275593,21,32765
2.02701,-0.912795,-0.275005,20,32765
2.01499,-0.915604,-0.272769,20,32765
2.04801,-0.939084,-0.276879,21,32765
2.03584,-0.942028,-0.27486,21,32765
2.03271,-0.94902,-0.273948,21,32765
2.03851,-0.960222,-0.274535,21,32765
2.02637,-0.962922,-0.272391,20,32765
2.03216,-0.974123,-0.272624,21,32765
2.01099,-0.972541,-0.269378,20,32765
1.98991,-0.970738,-0.266144,20,32765
2.01338,-0.990747,-0.268902,20,32765
2.00116,-0.993294,-0.266852,19,32765
2.00676,-1.0046,-0.267012,19,32765
1.98564,-1.00261,-0.263838,19,32765
1.99118,-1.01388,-0.264122,19,32765
2.0231,-1.03896,-0.267809,19,32765
2.01078,-1.0414,-0.265807,19,32765
2.02492,-1.05752,-0.267144,20,32765
2.01258,-1.05987,-0.265119,19,32765
2.01791,-1.07133,-0.265156,19,32765
2.00564,-1.07345,-0.263095,19,32765
2.02835,-1.09438,-0.265555,19,32765
1.98987,-1.08223,-0.26002,19,32765
2.01243,-1.10336,-0.262322,19,32765
2.00877,-1.11025,-0.261309,20,32765
2.02249,-1.12675,-0.262448,19,32765
1.97548,-1.10928,-0.25572,20,32765
1.98918,-1.12572,-0.256761,19,32765
1.99406,-1.13746,-0.256946,18,32765
1.9817,-1.13933,-0.254514,18,32765
2.0381,-1.181,-0.261291,18,32765
2.01704,-1.17799,-0.257654,19,32765
1.97893,-1.16464,-0.25212,19,32765
2.04351,-1.21194,-0.259541,19,32765
1.98833,-1.18828,-0.251848,19,32765
1.99297,-1.20012,-0.251717,19,32765
1.98905,-1.20687,-0.250465,18,32765
2.04451,-1.24986,-0.256792,19,32765
2.02351,-1.24633,-0.253267,19,32765
1.98567,-1.23219,-0.247651,19,32765
1.97327,-1.23357,-0.245186,18,32765
2.0534,-1.29322,-0.254358,19,32765
2.0493,-1.29997,-0.253074,19,32765
2.00323,-1.28002,-0.246418,18,32765
1.99912,-1.28667,-0.245147,19,32765
2.0117,-1.30416,-0.245612,19,32765
2.00749,-1.31089,-0.244257,18,32765
2.01158,-1.32309,-0.243645,19,32765
2.02388,-1.34083,-0.24427,19,32765
2.06095,-1.37524,-0.24764,20,32765
2.04822,-1.37665,-0.245017,19,32765
2.02725,-1.37241,-0.241568,20,32765
2.0476,-1.39593,-0.24253,20,32765
2.02667,-1.39152,-0.239112,19,32765
1.99769,-1.38123,-0.234597,19,32765
2.05051,-1.4276,-0.239702,19,32765
2.02969,-1.42291,-0.236193,19,32765
2.00897,-1.41808,-0.232312,19,32765
2.03686,-1.4479,-0.23429,19,32765
2.03228,-1.45463,-0.232353,20,32765
2.05191,-1.47878,-0.233384,19,32765
2.03916,-1.47977,-0.230291,19,32765
2.04244,-1.49248,-0.229245,20,32765
2.04568,-1.50525,-0.227806,20,32765
0,-0,-0,49,32765
0,-0,-0,0,32765
0,-0,-0,40,32765
0,-0,-0,0,32765
1.97245,-0.631341,-0.280983,15,32765
2.01745,-0.653195,-0.287802,18,32765
2.05294,-0.672215,-0.293193,18,32765
1.99425,-0.660361,-0.285097,18,32765
2.03901,-0.682768,-0.29185,18,32765
2.01799,-0.683192,-0.288888,18,32765
2.03443,-0.696476,-0.291396,19,32765
2.00398,-0.693678,-0.287216,19,32765
2.06707,-0.723533,-0.296333,19,32765
1.99918,-0.707587,-0.286682,18,32765
2.00614,-0.717759,-0.287618,18,32765
2.05027,-0.741502,-0.294236,19,32765
2.04778,-0.748499,-0.293828,18,32765
2.03598,-0.751987,-0.292225,19,32765
2.01493,-0.751954,-0.28899,19,32765
2.04954,-0.77269,-0.293975,19,32765
2.00992,-0.765573,-0.288115,18,32765
2.02588,-0.77944,-0.290475,19,32765
2.03261,-0.789748,-0.291227,20,32765
2.00233,-0.785768,-0.28662,19,32765
2.00894,-0.796159,-0.287532,19,32765
2.00621,-0.803166,-0.287107,20,32765
2.02188,-0.817552,-0.289178,19,32765
2.0008,-0.81703,-0.285749,19,32765
2.00723,-0.827708,-0.286415,20,32765
1.99533,-0.830728,-0.28454,20,32765
2.01084,-0.84529,-0.28639,18,32765
1.99888,-0.848297,-0.28454,19,32765
2.03256,-0.870735,-0.288861,19,32765
1.95682,-0.846277,-0.277786,19,32765
2.03579,-0.888696,-0.288726,19,32765
1.99645,-0.879863,-0.282867,19,32765
1.98445,-0.882759,-0.280692,19,32765
2.00864,-0.901786,-0.283818,19,32765
1.98756,-0.900542,-0.280419,19,32765
2.01165,-0.919742,-0.283289,20,32765
1.98157,-0.914174,-0.278653,19,32765
2.03251,-0.946043,-0.285524,20,32765
2.0384,-0.957159,-0.28578,18,32765
1.98145,-0.938663,-0.277281,19,32765
1.99621,-0.954061,-0.27894,19,32765
2.02879,-0.978192,-0.282954,19,32765
2.0166,-0.980853,-0.280771,19,32765
1.96887,-0.965817,-0.273596,19,32765
2.01018,-0.994552,-0.278648,18,32765
1.98914,-0.992588,-0.275131,19,32765
2.0035,-1.00854,-0.276487,19,32765
1.97354,-1.00208,-0.271807,18,32765
1.97022,-1.00889,-0.270718,18,32765
2.06394,-1.06566,-0.283048,18,32765
1.98121,-1.03141,-0.2711,18,32765
1.9866,-1.04283,-0.271124,18,32765
2.00942,-1.06368,-0.273706,18,32765
1.9971,-1.066,-0.271317,17,32765
2.01102,-1.08231,-0.272736,18,32765
2.00748,-1.08915,-0.271591,17,32765
2.02136,-1.10547,-0.272824,17,32765
1.96557,-1.08357,-0.264609,18,32765
1.98807,-1.10467,-0.267167,17,32765
2.03642,-1.1406,-0.272945,18,32765
2.0067,-1.13291,-0.268423,18,32765
1.98566,-1.13,-0.265053,17,32765
2.04224,-1.17143,-0.271866,18,32765
2.02982,-1.1734,-0.269409,17,32765
2.03452,-1.18531,-0.269605,18,32765
2.0221,-1.18711,-0.267347,18,32765
2.0353,-1.20406,-0.268707,18,32765
1.94599,-1.16006,-0.256503,17,32765
1.95078,-1.17169,-0.256303,17,32765
2.03195,-1.22976,-0.266434,18,32765
2.04488,-1.24697,-0.267621,18,32765
2.03234,-1.24869,-0.265301,19,32765
1.96061,-1.21372,-0.255485,18,32765
2.04947,-1.27813,-0.266373,19,32765
2.00324,-1.25852,-0.259945,18,32765
2.04118,-1.29176,-0.264292,18,32765
1.96992,-1.25581,-0.254675,17,32765
2.00761,-1.28932,-0.259168,18,32765
1.98672,-1.28525,-0.255867,18,32765
2.0408,-1.32996,-0.262384,19,32765
1.95332,-1.28225,-0.25077,17,32765
1.9823,-1.31073,-0.254147,18,32765
1.98627,-1.32288,-0.254376,18,32765
1.99026,-1.33499,-0.254533,18,32765
1.96122,-1.32489,-0.250338,17,32765
1.98164,-1.34813,-0.252508,18,32765
2.01816,-1.38295,-0.257081,17,32765
1.9727,-1.36149,-0.250811,18,32765
2.01725,-1.40215,-0.256086,18,32765
1.99637,-1.39743,-0.253345,18,32765
1.95939,-1.381,-0.248513,19,32765
1.96307,-1.39316,-0.248691,18,32765
1.99904,-1.4285,-0.253241,17,32765
1.99439,-1.43511,-0.252559,18,32765
1.98965,-1.44177,-0.251944,19,32765
2.00098,-1.46011,-0.253493,19,32765
1.98823,-1.46078,-0.251908,19,32765
0,-0,-0,0,32765
0,-0,-0,0,32765
0,-0,-0,0,32765
1.92404,-0.611411,-0.292969,15,32765
2.02561,-0.65112,-0.308965,19,32765
1.96693,-0.63955,-0.300434,18,32765
2.0306,-0.667728,-0.310505,20,32765
1.96263,-0.652651,-0.300414,18,32765
1.97918,-0.665549,-0.303313,19,32765
2.0051,-0.681706,-0.307352,19,32765
1.98407,-0.682114,-0.304302,20,32765
1.9911,-0.69214,-0.305584,20,32765
1.97005,-0.692491,-0.302446,19,32765
2.02361,-0.71926,-0.310775,20,32765
1.9653,-0.70612,-0.301785,19,32765
1.95357,-0.709512,-0.300283,18,32765
1.92331,-0.705969,-0.295608,18,32765
1.97662,-0.733143,-0.303913,19,32765
1.9464,-0.729439,-0.299082,19,32765
1.99953,-0.757008,-0.30729,19,32765
1.97851,-0.756781,-0.303911,20,32765
1.99446,-0.770581,-0.306457,20,32765
1.98275,-0.773617,-0.304475,20,32765
1.98942,-0.783982,-0.305256,19,32765
1.98682,-0.790698,-0.304848,20,32765
1.99329,-0.801344,-0.305833,20,32765
1.99058,-0.808274,-0.305276,20,32765
1.95125,-0.800136,-0.298865,19,32765
1.94856,-0.806884,-0.298236,19,32765
1.98242,-0.828813,-0.303269,20,32765
1.96141,-0.827967,-0.299729,19,32765
2.00419,-0.854111,-0.306146,20,32765
1.99229,-0.857056,-0.303892,20,32765
1.98941,-0.86397,-0.303164,21,32765
1.95931,-0.858887,-0.298345,20,32765
1.97449,-0.873821,-0.300408,20,32765
1.98061,-0.884734,-0.300894,20,32765
1.98667,-0.895654,-0.301553,20,32765
1.96565,-0.894338,-0.297975,20,32765
1.9807,-0.909378,-0.299765,20,32765
1.99566,-0.924521,-0.301656,19,32765
1.9926,-0.931344,-0.300937,21,32765
1.97163,-0.929678,-0.297248,20,32765
1.99541,-0.949228,-0.300345,20,32765
2.00117,-0.960428,-0.300836,19,32765
1.99797,-0.967361,-0.299857,21,32765
1.98584,-0.969929,-0.297591,20,32765
1.99158,-0.981042,-0.297948,20,32765
1.96174,-0.974642,-0.292843,20,32765
1.97625,-0.990278,-0.294444,20,32765
1.99943,-1.0107,-0.297302,19,32765
1.94302,-0.990706,-0.288411,19,32765
2.00145,-1.02917,-0.296477,19,32765
1.97168,-1.02229,-0.291576,19,32765
2.02106,-1.05656,-0.298299,19,32765
1.95618,-1.03116,-0.288053,19,32765
1.97898,-1.05196,-0.290921,19,32765
2.03665,-1.09167,-0.298711,19,32765
1.98937,-1.07515,-0.291345,20,32765
1.95972,-1.0677,-0.286389,19,32765
1.97363,-1.0839,-0.287829,19,32765
1.97877,-1.09543,-0.287924,19,32765
2.02717,-1.13113,-0.294523,19,32765
1.96291,-1.10405,-0.28453,19,32765
1.95926,-1.11078,-0.283512,20,32765
1.95555,-1.11755,-0.282467,18,32765
1.95186,-1.1243,-0.281264,19,32765
1.97394,-1.1459,-0.283702,19,32765
1.96157,-1.14763,-0.281552,19,32765
1.9493,-1.1492,-0.279237,18,32765
1.97964,-1.17609,-0.28325,19,32765
1.96726,-1.1777,-0.2811,18,32765
1.98898,-1.19969,-0.283395,18,32765
1.96806,-1.19614,-0.27994,18,32765
1.9726,-1.208,-0.280135,18,32765
1.93485,-1.19385,-0.27417,19,32765
1.98994,-1.23712,-0.281557,19,32765
1.99436,-1.24906,-0.281553,18,32765
1.93991,-1.22394,-0.273502,18,32765
2.0114,-1.27834,-0.283055,19,32765
1.98215,-1.26901,-0.27859,19,32765
1.97796,-1.27572,-0.277673,19,32765
1.99047,-1.2932,-0.278867,18,32765
1.93634,-1.26731,-0.270903,17,32765
1.94877,-1.28477,-0.272321,17,32765
1.96111,-1.30231,-0.273751,18,32765
1.97334,-1.31995,-0.275226,18,32765
1.98555,-1.33759,-0.276622,18,32765
1.98945,-1.34978,-0.276723,19,32765
1.97691,-1.35075,-0.27459,19,32765
1.9724,-1.35746,-0.273934,19,32765
1.95161,-1.35281,-0.270621,18,32765
1.97977,-1.38211,-0.274193,18,32765
1.95899,-1.37726,-0.271276,19,32765
1.9708,-1.39513,-0.272821,19,32765
1.96633,-1.4016,-0.271961,19,32765
1.96179,-1.40806,-0.271377,19,32765
1.96525,-1.42039,-0.271815,19,32765
1.96859,-1.43282,-0.272315,19,32765
1.98792,-1.45701,-0.275155,19,32765
1.98319,-1.46355,-0.274584,19,32765
0,-0,-0,0,32765
0,-0,-0,0,32765
0,-0,-0,0,32765
1.85572,-0.587318,-0.30376,15,32765
2.01381,-0.64479,-0.329238,19,32765
1.96471,-0.636403,-0.320947,18,32765
1.96263,-0.643075,-0.320383,18,32765
1.95119,-0.646594,-0.318109,18,32765
1.97723,-0.662575,-0.321931,18,32765
2.00321,-0.678726,-0.32569,19,32765
1.98232,-0.679159,-0.321794,18,32765
1.97077,-0.682745,-0.319438,18,32765
1.96853,-0.689518,-0.318659,18,32765
1.98494,-0.702881,-0.320733,18,32765
1.98267,-0.709601,-0.31997,19,32765
1.96178,-0.70968,-0.316012,18,32765
1.9966,-0.729969,-0.32129,18,32765
1.99425,-0.736778,-0.320339,19,32765
1.9548,-0.729741,-0.313564,18,32765
1.95245,-0.736377,-0.312731,18,32765
1.93151,-0.736116,-0.309017,18,32765
1.96602,-0.756969,-0.314112,19,32765
1.97276,-0.767376,-0.314581,18,32765
1.95185,-0.766918,-0.310663,19,32765
1.98615,-0.788145,-0.31563,19,32765
1.98359,-0.794924,-0.31473,18,32765
1.93516,-0.783094,-0.306632,19,32765
1.97843,-0.808392,-0.312925,20,32765
1.96663,-0.811415,-0.310622,18,32765
1.95478,-0.814461,-0.308354,19,32765
1.97026,-0.829062,-0.310343,19,32765
2.00386,-0.851581,-0.315177,19,32765
1.95553,-0.839142,-0.307005,20,32765
1.97997,-0.857763,-0.31044,19,32765
1.94088,-0.848711,-0.303794,19,32765
1.9743,-0.871371,-0.308635,19,32765
2.00759,-0.894287,-0.313412,19,32765
1.97754,-0.888994,-0.308414,19,32765
1.97461,-0.895828,-0.307412,19,32765
1.93562,-0.886156,-0.301005,19,32765
1.95962,-0.905362,-0.304327,19,32765
1.9835,-0.924765,-0.307658,20,32765
1.92664,-0.906374,-0.298428,18,32765
1.95938,-0.930073,-0.303128,19,32765
1.95629,-0.936819,-0.302304,19,32765
1.97994,-0.956517,-0.305492,18,32765
1.96782,-0.959039,-0.303374,19,32765
1.99134,-0.978873,-0.306532,19,32765
1.96145,-0.972528,-0.301684,19,32765
1.96715,-0.983616,-0.302026,19,32765
1.99041,-1.0038,-0.305204,19,32765
1.94289,-0.988249,-0.297548,19,32765
1.90426,-0.976983,-0.291353,18,32765
1.96255,-1.01555,-0.299879,19,32765
1.97677,-1.0315,-0.301491,19,32765
1.99963,-1.05219,-0.304573,18,32765
1.9348,-1.02661,-0.294467,17,32765
1.94019,-1.03789,-0.294704,19,32765
1.96295,-1.05862,-0.297739,18,32765
1.96823,-1.07,-0.297994,17,32765
1.94733,-1.06714,-0.294482,17,32765
1.98725,-1.09774,-0.29987,18,32765
1.97501,-1.09961,-0.297651,17,32765
1.95408,-1.09668,-0.294029,18,32765
1.95913,-1.1082,-0.294296,17,32765
1.97269,-1.12476,-0.295864,17,32765
1.90878,-1.09694,-0.285761,18,32765
2.00816,-1.16313,-0.300071,18,32765
2.00438,-1.16991,-0.298931,18,32765
1.92368,-1.1314,-0.28615,18,32765
1.97117,-1.1683,-0.292695,17,32765
1.90769,-1.13939,-0.283058,17,32765
1.92102,-1.15605,-0.284261,17,32765
1.93426,-1.17282,-0.285537,17,32765
1.89661,-1.15867,-0.279184,17,32765
1.94357,-1.19626,-0.285469,18,32765
1.97339,-1.22379,-0.289254,18,32765
1.96101,-1.22517,-0.286883,17,32765
1.95708,-1.23178,-0.285383,17,32765
1.9615,-1.2437,-0.285201,17,32765
1.92406,-1.22885,-0.279128,18,32765
1.99522,-1.28368,-0.288671,18,32765
1.89949,-1.23095,-0.274023,18,32765
2.00368,-1.3078,-0.288145,18,32765
2.00782,-1.31993,-0.287864,19,32765
2.02021,-1.33756,-0.288627,19,32765
2.00764,-1.33886,-0.285927,18,32765
1.99509,-1.34007,-0.283243,18,32765
2.00728,-1.35782,-0.28418,18,32765
1.99477,-1.35893,-0.281285,18,32765
1.96587,-1.34875,-0.276103,18,32765
1.9779,-1.36664,-0.276793,19,32765
1.96543,-1.36752,-0.273999,18,32765
1.97749,-1.3853,-0.274542,18,32765
1.9326,-1.36313,-0.267045,18,32765
1.97704,-1.40391,-0.271949,18,32765
1.96451,-1.40473,-0.269001,19,32765
1.94399,-1.39958,-0.264872,18,32765
1.97179,-1.42937,-0.267284,19,32765
1.95934,-1.43001,-0.263965,18,32765
1.96296,-1.44231,-0.262783,18,32765
0,-0,-0,0,32765
0,-0,-0,0,32765
1.90111,-0.597403,-0.330565,13,32765
1.91798,-0.609778,-0.333376,19,32765
1.92542,-0.619279,-0.334305,19,32765
1.94216,-0.631943,-0.336971,19,32765
1.94947,-0.641644,-0.338035,19,32765
1.91932,-0.638898,-0.332428,19,32765
1.91729,-0.645372,-0.331682,19,32765
1.97129,-0.670905,-0.340582,19,32765
1.94113,-0.668023,-0.334902,19,32765
1.93895,-0.674723,-0.334074,19,32765
1.91813,-0.674856,-0.330099,19,32765
1.91594,-0.681467,-0.329183,18,32765
1.90445,-0.684634,-0.326849,19,32765
1.9672,-0.714794,-0.33705,19,32765
1.93705,-0.711332,-0.331586,19,32765
1.94402,-0.721393,-0.332242,19,32765
1.93243,-0.724573,-0.329851,18,32765
1.91162,-0.724158,-0.325875,19,32765
1.91844,-0.734351,-0.326701,18,32765
1.95287,-0.755214,-0.332167,20,32765
1.9504,-0.762011,-0.331169,19,32765
1.92036,-0.757855,-0.325516,19,32765
1.92709,-0.768057,-0.326203,19,32765
1.8971,-0.763589,-0.320678,19,32765
1.94039,-0.788644,-0.327606,20,32765
1.92871,-0.791517,-0.325108,20,32765
1.91698,-0.794381,-0.322732,20,32765
1.94167,-0.812526,-0.32652,20,32765
1.92981,-0.815579,-0.324109,20,32765
1.94521,-0.830252,-0.326276,19,32765
1.9515,-0.841055,-0.326789,20,32765
1.91243,-0.832105,-0.319886,19,32765
1.95495,-0.85858,-0.326506,20,32765
1.94308,-0.861316,-0.324166,19,32765
1.91316,-0.855921,-0.318795,19,32765
1.95538,-0.882845,-0.325555,20,32765
1.92547,-0.877326,-0.320073,19,32765
1.96747,-0.904647,-0.326742,20,32765
1.91959,-0.890716,-0.318418,19,32765
1.91659,-0.897448,-0.317586,19,32765
1.94042,-0.916816,-0.32115,20,32765
1.93734,-0.923597,-0.320303,19,32765
1.91644,-0.921715,-0.316539,19,32765
1.96677,-0.954279,-0.324422,20,32765
1.93691,-0.948071,-0.319284,19,32765
1.9338,-0.954712,-0.318347,19,32765
1.95718,-0.974622,-0.321982,19,32765
1.9098,-0.959086,-0.3137,20,32765
1.93309,-0.979122,-0.317175,20,32765
1.9298,-0.985855,-0.316303,19,32765
1.95283,-1.00626,-0.319825,20,32765
1.93186,-1.00402,-0.316038,20,32765
1.9636,-1.02908,-0.320709,20,32765
1.92516,-1.01741,-0.314074,19,32765
1.9392,-1.03342,-0.316168,19,32765
1.9271,-1.03538,-0.313651,19,32765
1.9411,-1.0514,-0.315547,19,32765
1.90294,-1.03901,-0.30885,19,32765
1.91688,-1.05503,-0.310805,18,32765
1.96539,-1.0904,-0.318065,20,32765
1.97048,-1.10188,-0.318554,19,32765
1.9237,-1.08435,-0.310568,18,32765
1.92877,-1.0958,-0.310937,19,32765
1.95092,-1.11721,-0.314083,18,32765
1.95581,-1.12889,-0.314376,18,32765
1.95209,-1.13561,-0.313266,18,32765
1.93986,-1.13722,-0.310784,17,32765
1.9618,-1.15889,-0.313576,18,32765
1.94949,-1.16052,-0.311134,19,32765
1.94564,-1.16717,-0.310346,19,32765
1.94189,-1.17375,-0.309002,19,32765
1.94656,-1.18548,-0.309098,18,32765
1.95963,-1.20245,-0.310392,19,32765
1.93046,-1.19343,-0.305187,19,32765
1.96021,-1.22098,-0.309341,18,32765
1.98144,-1.24341,-0.312172,18,32765
1.93556,-1.22363,-0.304069,18,32765
1.96506,-1.25148,-0.307919,18,32765
1.96941,-1.26339,-0.307997,18,32765
1.91536,-1.23777,-0.298837,19,32765
1.92804,-1.255,-0.300047,18,32765
1.93236,-1.26686,-0.299886,18,32765
1.92006,-1.26785,-0.297181,18,32765
1.94084,-1.29073,-0.299466,19,32765
1.9614,-1.31385,-0.3018,18,32765
1.95718,-1.32048,-0.300315,18,32765
1.95298,-1.32699,-0.298943,19,32765
1.96515,-1.34474,-0.299744,19,32765
1.92819,-1.32883,-0.293065,18,32765
1.95656,-1.35795,-0.296433,19,32765
1.9604,-1.37015,-0.296016,19,32765
1.92372,-1.35368,-0.289413,18,32765
1.96813,-1.39443,-0.294851,19,32765
1.97194,-1.40658,-0.294234,20,32765
2.0078,-1.44215,-0.298383,20,32765
1.9309,-1.39642,-0.285689,18,32765
1.93455,-1.4087,-0.284927,18,32765
1.9302,-1.4151,-0.282725,19,32765
0,-0,-0,0,32765
0,0,0,0,32765
0,0,0,0,32765
0,0,0,0,32765
0,-0,0,0,32765
0,-0,0,0,32765
0,-0,0,0,32765
0,-0,0,0,32765
0,-0,0,0,32765
0,-0,0,0,32765
0,-0,0,0,32765
0,-0,0,12,32765
0,-0,0,0,32765
0,-0,0,0,32765
0,-0,0,0,32765
0,-0,0,0,32765
0,-0,0,11,32765
0,-0,0,0,32765
0,-0,0,0,32765
0,-0,0,0,32765
0,-0,0,11,32765
0,-0,0,11,32765
0,-0,0,12,32765
0,-0,0,0,32765
0,-0,0,0,32765
0,-0,0,0,32765
0,-0,0,12,32765
0,-0,0,0,32765
0,-0,0,0,32765
0,-0,0,0,32765
0,-0,0,12,32765
0,-0,0,0,32765
0,-0,0,0,32765
0,-0,0,0,32765
0,-0,0,0,32765
0,-0,0,0,32765
0.578235,-0.0627823,0.0990095,11,32765
0.646616,-0.0723644,0.110686,13,32765
0.80306,-0.0925518,0.137584,14,32765
0.881084,-0.104479,0.150912,14,32765
0.812233,-0.0990031,0.139196,14,32765
0.763013,-0.0955385,0.130706,15,32765
0.801801,-0.10311,0.137417,13,32765
0.742792,-0.0980609,0.127451,13,32765
0.801081,-0.108494,0.137472,13,32765
0.790952,-0.109761,0.135823,13,32765
0.761298,-0.108153,0.130873,13,32765
0.770701,-0.112025,0.132552,14,32765
0.789837,-0.117415,0.135906,13,32765
0.760201,-0.115594,0.130893,12,32765
0,-0,0,0,32765
0.584159,-0.0928374,0.100697,11,32765
0.739532,-0.1201,0.127546,12,32765
0.923881,-0.153231,0.159576,12,32765
0.903904,-0.153062,0.156299,12,32765
0.757682,-0.130872,0.131112,12,32765
0.718415,-0.126525,0.12438,12,32765
0,-0,0,0,32765
0,-0,0,0,32765
0,-0,0,0,32765
0,-0,0,0,32765
0,-0,0,0,32765
0,-0,0,0,32765
0,-0,0,0,32765
0,-0,0,0,32765
0,-0,0,0,32765
0.771684,-0.16232,0.134743,11,32765
1.02175,-0.218481,0.178558,11,32765
0.943962,-0.205086,0.165154,12,32765
1.08767,-0.240089,0.190325,12,32765
0.99066,-0.22214,0.173631,12,32765
0.903423,-0.205715,0.158454,15,32765
0.989163,-0.228677,0.173679,12,32765
0,-0,0,0,32765
