x, y, z, intensity, ring
4.20507,-2.57335,-0.0139382,14,32765
0,-0,-0,0,32765
4.45133,-2.76462,-0.011723,15,32765
0,-0,-0,0,32765
4.37393,-2.75636,-0.00813915,17,32765
4.20448,-2.66883,-0.00616943,15,32765
4.17883,-2.67189,-0.00511921,15,32765
4.19521,-2.70191,-0.00344182,15,32765
4.31218,-2.79727,-0.00197672,16,32765
4.09361,-2.67479,-0.000452764,15,32765
4.09318,-2.69368,0.000706251,16,32765
4.1593,-2.75687,0.00227504,15,32765
4.31661,-2.88149,0.00363887,18,32765
0,-0,0,0,32765
4.11547,-2.78636,0.0058988,17,32765
4.08989,-2.78841,0.00752795,16,32765
4.03137,-2.76768,0.00863204,15,32765
0,-0,0,0,32765
4.03809,-2.81071,0.0106457,17,32765
4.0535,-2.84104,0.0115976,15,32765
3.97075,-2.80224,0.0126419,16,32765
3.97792,-2.82672,0.0133742,16,32765
3.95264,-2.82773,0.0142653,16,32765
3.94369,-2.84018,0.0151226,16,32765
3.95052,-2.86489,0.0154896,16,32765
3.98156,-2.90719,0.0163478,17,32765
7.59323,-2.34348,-0.231107,12,32765
7.60458,-2.3742,-0.233212,12,32765
7.59673,-2.399,-0.235204,12,32765
7.50321,-2.39628,-0.232404,11,32765
7.4572,-2.40868,-0.232309,12,32765
7.40168,-2.41782,-0.231029,11,32765
7.49802,-2.47675,-0.235313,12,32765
7.42331,-2.47969,-0.233668,11,32765
7.48144,-2.52645,-0.234751,11,32765
7.36899,-2.51561,-0.231889,11,32765
7.21909,-2.49057,-0.226589,12,32765
7.22978,-2.52072,-0.22777,11,32765
0,-0,-0,0,32765
0,-0,-0,0,32765
0,-0,-0,0,32765
1.04267,-0.379334,-0.0324469,12,32765
1.12585,-0.413813,-0.0349563,14,32765
1.10574,-0.41057,-0.0342474,16,32765
1.07631,-0.403674,-0.033238,16,32765
1.103,-0.417904,-0.0339721,16,32765
1.09226,-0.418024,-0.0334692,16,32765
1.04423,-0.403685,-0.0319374,16,32765
1.10806,-0.432646,-0.0336233,16,32765
1.05082,-0.414332,-0.0317261,15,32765
1.06801,-0.425228,-0.0321272,15,32765
1.05733,-0.425043,-0.031511,15,32765
1.06516,-0.432348,-0.031665,16,32765
1.05447,-0.432125,-0.0311123,16,32765
1.07149,-0.443304,-0.0313963,16,32765
1.0423,-0.435408,-0.030417,15,32765
1.05004,-0.442832,-0.0304034,15,32765
1.03014,-0.438558,-0.0295702,16,32765
1.04704,-0.449901,-0.0298231,15,32765
1.00886,-0.437476,-0.0285738,16,32765
1.02571,-0.448874,-0.0288559,16,32765
1.04249,-0.460401,-0.0289402,15,32765
0.986143,-0.439527,-0.0271639,16,32765
1.00289,-0.451082,-0.0272714,15,32765
0.992264,-0.450339,-0.0266025,15,32765
1.03618,-0.474519,-0.0275786,15,32765
1.04366,-0.482204,-0.0273659,16,32765
1.033,-0.481447,-0.0269747,16,32765
1.04948,-0.493417,-0.0270714,15,32765
1.04782,-0.496956,-0.0267905,15,32765
1.02809,-0.49189,-0.0258857,16,32765
1.00843,-0.486661,-0.0251258,15,32765
1.00682,-0.490003,-0.0247744,16,32765
0.987219,-0.484573,-0.0242572,15,32765
1.01248,-0.501196,-0.0244277,16,32765
0.992877,-0.495712,-0.0237729,16,32765
0.964389,-0.485627,-0.0228057,15,32765
0.989483,-0.502493,-0.0229114,15,32765
0.996659,-0.510449,-0.0226493,15,32765
1.00382,-0.518397,-0.0225843,14,32765
1.04641,-0.544867,-0.0232509,15,32765
0.991464,-0.520503,-0.0218167,16,32765
0.972064,-0.51444,-0.0210305,15,32765
0.996789,-0.531849,-0.0211975,15,32765
0.968533,-0.521105,-0.019829,15,32765
0.958019,-0.51955,-0.0191534,16,32765
0.956253,-0.522809,-0.0187455,15,32765
0.972016,-0.535663,-0.018688,15,32765
0.961479,-0.534068,-0.0181211,16,32765
1.0033,-0.561726,-0.0185602,16,32765
0.949177,-0.535599,-0.0172521,16,32765
0.956087,-0.543699,-0.0169995,15,32765
0.997627,-0.571784,-0.0173995,16,32765
0.935112,-0.540101,-0.0159992,16,32765
1.01109,-0.588483,-0.0169087,15,32765
1.00912,-0.591868,-0.0165881,15,32765
1.03297,-0.610492,-0.0165655,14,32765
1.01375,-0.603713,-0.015831,13,32765
1.13176,-0.679134,-0.0173416,13,32765
0,-0,-0,0,32765
4.15856,-2.53369,-0.0606389,16,32765
4.17577,-2.56308,-0.0596121,18,32765
4.20132,-2.5979,-0.0582478,19,32765
4.15026,-2.58539,-0.0565952,17,32765
4.10798,-2.57761,-0.0543909,16,32765
4.1417,-2.61791,-0.0534528,18,32765
4.15842,-2.64759,-0.0521212,17,32765
4.10758,-2.63431,-0.0505782,17,32765
4.10726,-2.65332,-0.0490026,17,32765
4.09854,-2.6668,-0.0475052,18,32765
4.10641,-2.69135,-0.0462604,17,32765
4.0141,-2.64974,-0.0441741,16,32765
4.06363,-2.70174,-0.0432902,18,32765
4.09632,-2.74286,-0.0425192,18,32765
3.95465,-2.66685,-0.0399004,17,32765
4.00379,-2.71914,-0.0393808,18,32765
4.02796,-2.75472,-0.0380715,18,32765
3.88724,-2.67703,-0.035664,16,32765
3.91965,-2.71809,-0.0353242,17,32765
3.8535,-2.69062,-0.0336285,17,32765
4.00013,-2.81245,-0.0341056,17,32765
3.89307,-2.75607,-0.0320312,17,32765
3.90035,-2.78036,-0.0314915,16,32765
3.95646,-2.83943,-0.0310636,17,32765
3.82588,-2.76409,-0.0292684,16,32765
3.80865,-2.77082,-0.0289056,17,32765
3.87221,-2.8364,-0.0287705,17,32765
7.64202,-2.34161,-0.341101,12,32765
7.67257,-2.37878,-0.3385,12,32765
7.62698,-2.39129,-0.333048,12,32765
7.58138,-2.40357,-0.32729,12,32765
7.44988,-2.38889,-0.318409,12,32765
7.44196,-2.41388,-0.315146,12,32765
0,-0,-0,0,32765
0,-0,-0,0,32765
0,-0,-0,0,32765
0,-0,-0,0,32765
0,-0,-0,0,32765
0,-0,-0,0,32765
1.01864,-0.356539,-0.0406044,12,32765
1.03628,-0.36668,-0.0407517,14,32765
0.987984,-0.353403,-0.0386665,15,32765
1.12778,-0.407675,-0.0436704,16,32765
1.06072,-0.387457,-0.0406888,16,32765
1.0313,-0.380616,-0.0393676,15,32765
1.06751,-0.397989,-0.0402898,16,32765
1.09424,-0.412144,-0.0409483,16,32765
1.02748,-0.39094,-0.0381905,15,32765
1.07281,-0.41233,-0.0395336,16,32765
1.00622,-0.390585,-0.036824,15,32765
1.08867,-0.426764,-0.0394967,15,32765
1.05009,-0.415684,-0.0377894,16,32765
1.03941,-0.415512,-0.037035,16,32765
1.04727,-0.422787,-0.036989,15,32765
1.09212,-0.445203,-0.0382004,16,32765
1.05366,-0.433659,-0.0366211,16,32765
1.07064,-0.444924,-0.036904,15,32765
1.06916,-0.448524,-0.0364707,16,32765
1.01242,-0.428746,-0.0342793,16,32765
1.03853,-0.444012,-0.0348622,16,32765
1.03703,-0.44753,-0.0344847,15,32765
1.02634,-0.447073,-0.0338256,16,32765
0.988245,-0.434436,-0.0322205,16,32765
0.968513,-0.429654,-0.0312978,15,32765
0.957942,-0.42884,-0.0307004,16,32765
0.983839,-0.444378,-0.0314306,15,32765
1.01872,-0.464293,-0.0322083,16,32765
0.989915,-0.455208,-0.0308864,15,32765
1.06093,-0.492202,-0.0327723,15,32765
1.01399,-0.474627,-0.0310418,15,32765
1.01237,-0.478087,-0.0307099,15,32765
0.974652,-0.464326,-0.0292267,15,32765
1.01815,-0.489249,-0.0301713,15,32765
0.980516,-0.475245,-0.0288227,15,32765
1.03279,-0.504913,-0.0300024,16,32765
0.95936,-0.473037,-0.0276422,15,32765
0.9846,-0.489668,-0.028053,15,32765
0.965086,-0.484014,-0.0272124,15,32765
1.04374,-0.527881,-0.0290479,15,32765
1.02414,-0.522334,-0.0282253,15,32765
0.977925,-0.502943,-0.0266514,15,32765
0.94072,-0.487853,-0.0253925,15,32765
0.956821,-0.500247,-0.0254341,15,32765
0.955143,-0.503466,-0.0249871,15,32765
1.00644,-0.534796,-0.0260938,15,32765
0.978226,-0.523973,-0.0250157,15,32765
1.02046,-0.551005,-0.0257412,15,32765
0.992274,-0.540076,-0.0247083,16,32765
0.937866,-0.51457,-0.0229355,15,32765
0.953629,-0.527414,-0.0229548,16,32765
0.951838,-0.530652,-0.0226279,15,32765
0.967482,-0.543662,-0.0225854,15,32765
0.983078,-0.556733,-0.0225084,15,32765
0.929133,-0.53026,-0.0208909,15,32765
0.962037,-0.553291,-0.0212912,15,32765
0.994807,-0.576535,-0.0216269,15,32765
0.958339,-0.559703,-0.020476,15,32765
0.999572,-0.588237,-0.02082,13,32765
0.997608,-0.591579,-0.0203268,13,32765
1.11583,-0.666656,-0.0222801,13,32765
1.25072,-0.752794,-0.0243828,13,32765
4.2321,-2.5662,-0.0805484,16,32765
4.12985,-2.52271,-0.0766759,16,32765
4.12996,-2.54173,-0.0746316,15,32765
4.13859,-2.56587,-0.0728306,15,32765
4.07923,-2.54776,-0.0697617,16,32765
4.11312,-2.5879,-0.0683724,17,32765
4.15532,-2.6335,-0.0666623,16,32765
4.12981,-2.63639,-0.0641164,17,32765
4.0119,-2.57954,-0.059912,15,32765
3.9447,-2.55463,-0.0567913,15,32765
4.02845,-2.62766,-0.0558408,15,32765
3.95298,-2.59694,-0.0522564,14,32765
4.06948,-2.69278,-0.0513259,17,32765
3.9857,-2.65631,-0.0477873,16,32765
3.98528,-2.67497,-0.0452231,15,32765
3.84386,-2.59858,-0.041131,15,32765
3.91808,-2.66733,-0.039476,17,32765
3.95881,-2.71412,-0.037127,16,32765
3.98286,-2.74977,-0.034581,15,32765
3.94937,-2.74547,-0.0315188,16,32765
3.97306,-2.78145,-0.0287036,17,32765
4.00492,-2.82311,-0.0262187,17,32765
3.84895,-2.73194,-0.0220586,15,32765
3.8322,-2.73825,-0.0188648,14,32765
3.872,-2.78572,-0.0159277,16,32765
3.96785,-2.87507,-0.0125509,16,32765
4.02303,-2.93523,-0.00865853,16,32765
7.54118,-2.3177,-0.410978,12,32765
7.63856,-2.37539,-0.412408,11,32765
7.49775,-2.35786,-0.40149,11,32765
0,-0,-0,0,32765
0,-0,-0,0,32765
0,-0,-0,0,32765
0,-0,-0,0,32765
1.03304,-0.343655,-0.0531989,15,32765
1.03194,-0.347008,-0.0527227,18,32765
1.04973,-0.356817,-0.053332,17,32765
1.04858,-0.36024,-0.0529089,17,32765
1.0474,-0.363723,-0.0525426,17,32765
1.01791,-0.357344,-0.050734,16,32765
1.02612,-0.364165,-0.0506041,16,32765
1.01547,-0.364318,-0.0498996,16,32765
0.995481,-0.360922,-0.0485157,17,32765
1.01304,-0.371143,-0.0490155,16,32765
1.00244,-0.371064,-0.0483264,16,32765
1.04801,-0.39188,-0.0500837,17,32765
1.02801,-0.38835,-0.0488109,17,32765
0.998708,-0.381125,-0.0471795,16,32765
1.03472,-0.398873,-0.0485633,17,32765
1.04271,-0.40595,-0.0486855,16,32765
1.02276,-0.402121,-0.0474431,16,32765
1.00286,-0.39817,-0.0462386,17,32765
0.992251,-0.39784,-0.0454085,16,32765
1.00943,-0.408721,-0.0458932,16,32765
0.989551,-0.404591,-0.0446647,16,32765
1.0159,-0.419363,-0.0456417,16,32765
1.01447,-0.422838,-0.0452999,16,32765
1.00385,-0.422383,-0.0444802,16,32765
0.993231,-0.421873,-0.0437719,16,32765
0.991785,-0.425295,-0.0434346,16,32765
0.95367,-0.412786,-0.0414777,16,32765
0.97058,-0.424046,-0.0419396,17,32765
0.978303,-0.431352,-0.0419411,16,32765
0.967726,-0.43059,-0.0412222,16,32765
0.984506,-0.442052,-0.0416884,16,32765
0.983028,-0.445344,-0.0415404,16,32765
0.972435,-0.444529,-0.0407858,16,32765
0.934644,-0.431083,-0.0388263,16,32765
0.978494,-0.455324,-0.0403585,16,32765
0.995037,-0.46716,-0.0407809,16,32765
0.966351,-0.45773,-0.0393507,17,32765
0.955785,-0.456711,-0.0386028,16,32765
0.945253,-0.455591,-0.0378581,16,32765
0.970678,-0.471899,-0.0386608,16,32765
0.951136,-0.466399,-0.037569,16,32765
0.967476,-0.478484,-0.0380012,16,32765
0.965844,-0.481797,-0.0376426,17,32765
0.937443,-0.471578,-0.0362747,16,32765
0.953679,-0.483797,-0.0365694,16,32765
0.943142,-0.482486,-0.0359261,16,32765
0.941509,-0.48569,-0.0355911,16,32765
0.904393,-0.470446,-0.0339681,16,32765
0.929387,-0.487388,-0.034541,17,32765
0.945423,-0.499867,-0.0347551,17,32765
0.917295,-0.488923,-0.0335229,16,32765
0.915676,-0.491974,-0.0331553,16,32765
0.940393,-0.509335,-0.0337404,15,32765
0.92992,-0.507695,-0.0330796,16,32765
0.945725,-0.52048,-0.0332377,16,32765
0.935229,-0.518833,-0.032527,16,32765
0.916019,-0.512261,-0.0316031,17,32765
0.923,-0.520271,-0.031466,17,32765
0.912582,-0.518411,-0.0307186,15,32765
0.90219,-0.516481,-0.0300145,13,32765
0.761937,-0.43957,-0.0250942,11,32765
0,-0,-0,12,32765
1.05225,-0.616465,-0.0338914,12,32765
1.07603,-0.63521,-0.0341005,13,32765
1.20278,-0.715475,-0.037596,12,32765
1.22615,-0.734862,-0.0378503,13,32765
1.30933,-0.790542,-0.0398257,12,32765
4.02272,-2.4469,-0.12058,12,32765
4.08291,-2.50188,-0.120562,18,32765
4.05756,-2.50504,-0.117888,18,32765
3.98989,-2.48148,-0.114118,17,32765
3.99864,-2.50532,-0.112468,19,32765
3.96499,-2.50259,-0.109709,17,32765
4.00741,-2.54781,-0.108642,19,32765
3.96537,-2.53945,-0.105536,19,32765
3.96551,-2.55782,-0.103279,17,32765
3.93199,-2.55451,-0.100381,17,32765
3.92361,-2.56744,-0.0981538,18,32765
3.90686,-2.57484,-0.0953128,18,32765
3.98998,-2.64861,-0.0950086,16,32765
3.89812,-2.60626,-0.090483,17,32765
3.89786,-2.62468,-0.0880632,18,32765
3.90571,-2.64887,-0.0858044,17,32765
3.88885,-2.65595,-0.0830929,18,32765
3.84718,-2.64609,-0.0796115,17,32765
3.84676,-2.66437,-0.0770169,17,32765
3.74797,-2.61388,-0.0724969,17,32765
3.85389,-2.70675,-0.0717253,17,32765
3.81247,-2.69616,-0.0684616,18,32765
3.87701,-2.76079,-0.066553,17,32765
3.7708,-2.70312,-0.0617712,17,32765
3.77824,-2.7271,-0.0589294,17,32765
3.75285,-2.72813,-0.0550642,17,32765
3.71163,-2.71685,-0.0508016,16,32765
7.8113,-2.39626,-0.392413,12,32765
7.67939,-2.38315,-0.387326,12,32765
0,-0,-0,0,32765
0,-0,-0,0,32765
0,-0,-0,0,32765
0,-0,-0,0,32765
0,-0,-0,0,32765
1.01427,-0.336838,-0.0519003,13,32765
1.02262,-0.343359,-0.0523848,16,32765
0.983665,-0.333856,-0.0504268,16,32765
1.02037,-0.350018,-0.0523157,15,32765
1.05697,-0.366448,-0.0541283,16,32765
1.01801,-0.356837,-0.052231,16,32765
1.07327,-0.380343,-0.0550238,16,32765
1.02496,-0.367151,-0.0524485,16,32765
0.98616,-0.356999,-0.0503959,17,32765
1.01312,-0.370553,-0.0517126,16,32765
1.02126,-0.377374,-0.0521298,16,32765
1.03874,-0.387716,-0.052914,16,32765
1.00942,-0.380575,-0.0513393,16,32765
0.998807,-0.380413,-0.0507076,16,32765
1.00687,-0.387319,-0.0510358,16,32765
0.968325,-0.376228,-0.0489761,16,32765
1.00426,-0.394076,-0.0505801,16,32765
0.975077,-0.386425,-0.0490017,16,32765
1.01089,-0.404528,-0.0506055,16,32765
1.0651,-0.430377,-0.0532165,16,32765
0.980417,-0.400006,-0.0487637,16,32765
1.016,-0.418569,-0.0504133,16,32765
0.996143,-0.414339,-0.0492068,16,32765
0.99474,-0.417727,-0.0489512,16,32765
0.96577,-0.409334,-0.0472575,16,32765
0.946012,-0.404754,-0.0462165,16,32765
0.953838,-0.411891,-0.0462577,17,32765
0.952435,-0.415144,-0.0460714,16,32765
0.960176,-0.42241,-0.0461711,15,32765
0.986147,-0.437822,-0.0471753,16,32765
0.966422,-0.433026,-0.045999,16,32765
0.94677,-0.428038,-0.0448317,16,32765
1.00896,-0.46025,-0.0476134,15,32765
0.95299,-0.438538,-0.044669,16,32765
0.951537,-0.441716,-0.0443149,16,32765
0.931965,-0.43644,-0.043156,16,32765
1.01182,-0.477963,-0.0465173,16,32765
0.938076,-0.446966,-0.0428207,16,32765
0.909559,-0.437142,-0.0413385,15,32765
0.935069,-0.453278,-0.0422542,16,32765
0.95148,-0.465263,-0.0426194,15,32765
0.967815,-0.477376,-0.042972,16,32765
0.957235,-0.476252,-0.0422556,16,32765
0.928831,-0.466072,-0.0406278,16,32765
0.93618,-0.473724,-0.0406442,15,32765
0.907861,-0.463305,-0.0392102,16,32765
0.888535,-0.45723,-0.0380401,16,32765
0.904731,-0.469449,-0.0384614,17,32765
0.867748,-0.453954,-0.0365795,16,32765
0.936949,-0.494161,-0.039145,16,32765
0.917625,-0.487971,-0.0380474,16,32765
0.916,-0.491049,-0.0376178,15,32765
0.940743,-0.508368,-0.0382619,16,32765
0.903947,-0.492389,-0.0365018,16,32765
0.911074,-0.500217,-0.0364235,16,32765
0.883161,-0.48877,-0.0350849,17,32765
0.898982,-0.50148,-0.0353621,16,32765
0.914727,-0.5143,-0.0356315,15,32765
0.982588,-0.556764,-0.0378673,13,32765
0.876611,-0.500539,-0.0333684,12,32765
0.866261,-0.498517,-0.0327678,12,32765
0.985644,-0.571612,-0.0369465,12,32765
1.07864,-0.630415,-0.0400948,12,32765
1.14544,-0.674612,-0.0421061,12,32765
1.15178,-0.683557,-0.0418818,12,32765
0,-0,-0,0,32765
0,-0,-0,0,32765
0,-0,-0,12,32765
0,-0,-0,0,32765
0,-0,-0,0,32765
3.93218,-2.44059,-0.135453,17,32765
3.93264,-2.45888,-0.133583,16,32765
3.94972,-2.48815,-0.133118,17,32765
3.95833,-2.51202,-0.132081,16,32765
3.8575,-2.46575,-0.127206,17,32765
3.86615,-2.48936,-0.126493,16,32765
3.86645,-2.50739,-0.12521,17,32765
3.82471,-2.49829,-0.122611,17,32765
3.70793,-2.43947,-0.117555,15,32765
3.83318,-2.54012,-0.120518,16,32765
3.79977,-2.53626,-0.118551,17,32765
3.71679,-2.49855,-0.114688,16,32765
3.83274,-2.59487,-0.116996,16,32765
3.75828,-2.56223,-0.11318,17,32765
3.65948,-2.51194,-0.109391,15,32765
3.79939,-2.62609,-0.112748,17,32765
3.73339,-2.59849,-0.110184,16,32765
3.74112,-2.62241,-0.10911,16,32765
3.69159,-2.606,-0.106396,15,32765
3.69949,-2.62948,-0.105947,16,32765
3.57722,-2.5599,-0.101958,14,32765
3.63403,-2.61795,-0.102715,15,32765
3.68233,-2.67061,-0.103832,16,32765
3.59304,-2.62345,-0.100467,15,32765
0,-0,-0,0,32765
0,-0,-0,0,32765
1.0189,-0.320837,-0.0616467,15,32765
1.01785,-0.324145,-0.0618165,17,32765
1.02627,-0.330558,-0.0625207,18,32765
1.07264,-0.349386,-0.0653592,17,32765
1.02407,-0.337318,-0.0624694,18,32765
1.04186,-0.347079,-0.0636672,17,32765
1.05017,-0.353707,-0.0642444,17,32765
1.02066,-0.347492,-0.0624887,17,32765
0.991203,-0.341073,-0.0607028,17,32765
1.01837,-0.354167,-0.0623158,17,32765
1.02657,-0.360961,-0.0629278,17,32765
1.00652,-0.3578,-0.0616701,17,32765
1.0147,-0.364609,-0.0620851,17,32765
0.985315,-0.357807,-0.0602318,17,32765
1.01225,-0.37139,-0.0618286,17,32765
0.992288,-0.367816,-0.0606227,17,32765
1.00043,-0.374586,-0.0610277,17,32765
0.961839,-0.363772,-0.0586075,16,32765
1.00725,-0.38483,-0.0612937,17,32765
0.996653,-0.384593,-0.0605809,16,32765
1.00467,-0.391572,-0.0609702,17,32765
0.975487,-0.383985,-0.0590039,17,32765
0.974191,-0.387286,-0.0588295,17,32765
0.982168,-0.394269,-0.0591332,17,32765
0.953085,-0.386324,-0.0573023,17,32765
0.979511,-0.400893,-0.0586824,17,32765
0.950461,-0.3928,-0.0568423,17,32765
0.958351,-0.399875,-0.0571141,17,32765
0.938593,-0.39539,-0.0557735,16,32765
0.955667,-0.406329,-0.0565354,16,32765
0.908407,-0.389891,-0.0536811,16,32765
0.97125,-0.420734,-0.0570606,17,32765
0.951517,-0.416054,-0.0557966,17,32765
0.931839,-0.411239,-0.0543893,17,32765
0.966942,-0.430654,-0.0562122,17,32765
0.956367,-0.429877,-0.0553811,17,32765
0.918553,-0.416597,-0.0529798,16,32765
0.953476,-0.436319,-0.0548539,17,32765
0.95204,-0.439491,-0.0544823,16,32765
0.914371,-0.425811,-0.0520654,16,32765
0.931025,-0.437385,-0.0527806,17,32765
0.920549,-0.43623,-0.0518943,16,32765
0.937122,-0.447932,-0.0525371,17,32765
0.935616,-0.451097,-0.0522817,17,32765
0.90716,-0.441151,-0.0504695,17,32765
0.914627,-0.448669,-0.0505378,16,32765
0.931,-0.460684,-0.051093,17,32765
0.920485,-0.459432,-0.0502942,16,32765
0.883245,-0.444615,-0.0479184,17,32765
0.899563,-0.456653,-0.0485256,17,32765
0.889111,-0.455191,-0.0477767,16,32765
0.896459,-0.462788,-0.0478483,16,32765
0.912616,-0.475062,-0.0484519,17,32765
0.911033,-0.478131,-0.0480583,16,32765
0.935928,-0.495212,-0.0490365,17,32765
0.898992,-0.479604,-0.046833,17,32765
0.897394,-0.482628,-0.0464108,17,32765
0.904572,-0.4904,-0.0464403,17,32765
0.87664,-0.479059,-0.0447665,17,32765
0.883802,-0.486814,-0.0447931,14,32765
0.908367,-0.504351,-0.0458259,12,32765
0.854371,-0.478142,-0.0427839,12,32765
1.0181,-0.574284,-0.0506127,13,32765
0.96409,-0.54806,-0.0475457,13,32765
0.936286,-0.536355,-0.045749,12,32765
0.865254,-0.499563,-0.0420889,12,32765
1.09676,-0.638131,-0.0529961,12,32765
1.05152,-0.616574,-0.0505016,11,32765
0,-0,-0,0,32765
1.26201,-0.75144,-0.0596409,12,32765
0,-0,-0,0,32765
0,-0,-0,0,32765
1.27152,-0.774498,-0.0590277,12,32765
1.25196,-0.76824,-0.0575225,13,32765
1.35994,-0.840644,-0.0622286,14,32765
3.79159,-2.36115,-0.172389,16,32765
3.7669,-2.36309,-0.16954,18,32765
3.75892,-2.37585,-0.168268,17,32765
3.77632,-2.40451,-0.167863,15,32765
3.79371,-2.43308,-0.167232,16,32765
3.81922,-2.46739,-0.167455,16,32765
3.73581,-2.43082,-0.162631,17,32765
3.69437,-2.42127,-0.159704,18,32765
3.70308,-2.44449,-0.158853,17,32765
3.73658,-2.48448,-0.159393,16,32765
3.67016,-2.45806,-0.15576,17,32765
3.6621,-2.47015,-0.154247,17,32765
3.71183,-2.52157,-0.155199,18,32765
3.65419,-2.49977,-0.151373,17,32765
3.67094,-2.52843,-0.151335,17,32765
3.61348,-2.50615,-0.148266,17,32765
3.65446,-2.5523,-0.149444,19,32765
3.57238,-2.51276,-0.144932,17,32765
3.58852,-2.54199,-0.144442,17,32765
3.64541,-2.60001,-0.146154,17,32765
3.55585,-2.55345,-0.142167,17,32765
3.55588,-2.57057,-0.141411,17,32765
3.53149,-2.57017,-0.140291,18,32765
3.49101,-2.55788,-0.137948,18,32765
0.982562,-0.300179,-0.0732345,17,32765
0.991132,-0.306413,-0.073269,16,32765
0.999649,-0.312762,-0.0733637,16,32765
0.979609,-0.310091,-0.0714801,16,32765
0.997622,-0.319423,-0.0722433,16,32765
0.96812,-0.313486,-0.0697898,16,32765
1.0335,-0.338382,-0.0740543,17,32765
0.97557,-0.323002,-0.0695148,17,32765
0.993434,-0.3326,-0.0704663,17,32765
0.954534,-0.323154,-0.0673528,16,32765
1.00069,-0.342489,-0.0702049,16,32765
1.02787,-0.355557,-0.0718302,16,32765
0.979614,-0.342525,-0.068075,16,32765
0.950265,-0.335808,-0.065806,16,32765
0.939751,-0.335677,-0.0647197,16,32765
0.957399,-0.34565,-0.0656812,16,32765
0.984373,-0.359157,-0.0671966,16,32765
0.983169,-0.362508,-0.0668359,16,32765
1.01003,-0.376264,-0.0683451,15,32765
0.952734,-0.358576,-0.0641973,16,32765
0.951543,-0.361778,-0.063897,16,32765
0.950366,-0.364935,-0.0634607,16,32765
0.958465,-0.37173,-0.0637352,17,32765
0.966522,-0.378584,-0.064099,16,32765
0.955978,-0.378184,-0.0631136,16,32765
0.936175,-0.374006,-0.0616083,16,32765
0.916419,-0.369699,-0.0599921,17,32765
0.924439,-0.376527,-0.060326,17,32765
0.969343,-0.398636,-0.0629584,17,32765
0.949559,-0.394284,-0.0614656,16,32765
0.939036,-0.393642,-0.0604795,16,32765
0.919321,-0.389069,-0.058952,16,32765
0.9272,-0.396085,-0.0593058,16,32765
0.935049,-0.403171,-0.0594633,16,32765
0.915377,-0.398393,-0.0580331,16,32765
0.932305,-0.409552,-0.0589402,16,32765
0.903544,-0.400592,-0.05688,16,32765
0.929506,-0.415954,-0.0583143,17,32765
0.909908,-0.4109,-0.0568235,16,32765
0.899429,-0.409872,-0.0559778,16,32765
0.925277,-0.425414,-0.0573205,15,32765
0.88764,-0.411706,-0.054719,16,32765
0.940522,-0.440082,-0.0578502,16,32765
0.884884,-0.417668,-0.0541677,17,32765
0.910496,-0.4336,-0.055567,17,32765
0.891022,-0.428075,-0.0541473,16,32765
0.898552,-0.435493,-0.0543125,17,32765
0.897077,-0.438567,-0.0539716,16,32765
0.886658,-0.437173,-0.0530823,16,32765
0.885181,-0.440184,-0.0528433,16,32765
0.901562,-0.452118,-0.0536253,16,32765
0.873298,-0.441684,-0.0516241,16,32765
0.889581,-0.453767,-0.0523573,16,32765
0.888048,-0.456802,-0.0519813,16,32765
0.859915,-0.446023,-0.0500905,16,32765
0.902691,-0.472027,-0.0523367,17,32765
0.892294,-0.470389,-0.0514299,17,32765
0.864249,-0.459361,-0.0496094,17,32765
0.88912,-0.476434,-0.0507536,18,32765
0.887538,-0.479417,-0.0503465,16,32765
0.885954,-0.482371,-0.0500318,17,32765
0.928182,-0.509286,-0.0520162,14,32765
0.847849,-0.468853,-0.0472117,12,32765
1.03824,-0.578658,-0.0574992,12,32765
0.992739,-0.557748,-0.0546446,12,32765
0.982172,-0.556202,-0.0536312,12,32765
0.980335,-0.559487,-0.0530797,13,32765
1.06504,-0.612612,-0.0573712,12,32765
0,-0,-0,0,32765
0,-0,-0,0,32765
0,-0,-0,0,32765
0,-0,-0,0,32765
0,-0,-0,0,32765
0,-0,-0,0,32765
0,-0,-0,0,32765
0,-0,-0,0,32765
1.30168,-0.801434,-0.0650991,13,32765
1.333,-0.826842,-0.0659436,14,32765
0,-0,-0,0,32765
3.80504,-2.39531,-0.184822,15,32765
3.68762,-2.33816,-0.177149,16,32765
3.68846,-2.35561,-0.175394,15,32765
3.76481,-2.42186,-0.176599,14,32765
3.67312,-2.37983,-0.170265,14,32765
3.70716,-2.41927,-0.170186,15,32765
3.72436,-2.44791,-0.168788,14,32765
3.71639,-2.46018,-0.165999,15,32765
3.67502,-2.45038,-0.162011,16,32765
3.74998,-2.51823,-0.162989,15,32765
3.67551,-2.48583,-0.157662,16,32765
3.70055,-2.52028,-0.15662,16,32765
3.6595,-2.5097,-0.152022,15,32765
3.70885,-2.56154,-0.151868,16,32765
3.62681,-2.52219,-0.145684,14,32765
3.57775,-2.50532,-0.141387,14,32765
3.64313,-2.56889,-0.141447,16,32765
3.65107,-2.59246,-0.138739,15,32765
3.57746,-2.55815,-0.132896,15,32765
3.56094,-2.5642,-0.12937,16,32765
3.56884,-2.58756,-0.126504,16,32765
3.51234,-2.56345,-0.121226,16,32765
0.972046,-0.297979,-0.0820692,17,32765
0.980617,-0.304193,-0.0822036,17,32765
0.979623,-0.307536,-0.081605,17,32765
0.959622,-0.304792,-0.0795433,17,32765
0.968144,-0.311032,-0.0797236,17,32765
0.967144,-0.314227,-0.0793337,17,32765
0.994565,-0.326732,-0.0811608,18,32765
0.965122,-0.320617,-0.0783828,17,32765
0.964072,-0.323854,-0.0779954,17,32765
0.991329,-0.336736,-0.0798427,18,32765
0.961944,-0.330332,-0.077097,17,32765
0.97972,-0.340034,-0.0782631,17,32765
0.978611,-0.343317,-0.0778023,16,32765
0.949289,-0.336583,-0.075252,17,32765
0.948172,-0.339814,-0.0748123,17,32765
0.909527,-0.329461,-0.0715322,16,32765
0.955258,-0.349694,-0.0748143,17,32765
0.963439,-0.356415,-0.0751932,17,32765
0.934234,-0.349186,-0.0726317,17,32765
0.961067,-0.362915,-0.0744557,17,32765
0.950542,-0.362599,-0.0734317,17,32765
0.893519,-0.344245,-0.068701,16,32765
0.95745,-0.37257,-0.073362,17,32765
0.946927,-0.37214,-0.0723989,17,32765
0.954957,-0.379034,-0.0727388,17,32765
0.925911,-0.371134,-0.0703424,17,32765
0.952419,-0.385497,-0.0720397,17,32765
0.941908,-0.384916,-0.0710619,16,32765
0.931403,-0.384304,-0.0699951,17,32765
0.902477,-0.375979,-0.0676359,17,32765
0.919614,-0.38678,-0.0686338,17,32765
0.936675,-0.397729,-0.0696572,17,32765
0.907834,-0.3891,-0.0673764,17,32765
0.888226,-0.384254,-0.065606,16,32765
0.914355,-0.399271,-0.0673698,16,32765
0.912998,-0.402404,-0.0671203,16,32765
0.902524,-0.401471,-0.0661215,16,32765
0.882939,-0.39643,-0.0645097,16,32765
0.899781,-0.407681,-0.0654951,17,32765
0.880248,-0.402468,-0.0638991,16,32765
0.897028,-0.413801,-0.0648726,16,32765
0.904707,-0.421022,-0.0651662,17,32765
0.867163,-0.407112,-0.0623564,16,32765
0.892868,-0.422844,-0.0639557,17,32765
0.90042,-0.430236,-0.0643443,17,32765
0.925926,-0.446333,-0.0659414,18,32765
0.879534,-0.427704,-0.0623653,17,32765
0.869124,-0.426325,-0.0613974,16,32765
0.912429,-0.451389,-0.064201,17,32765
0.875181,-0.436673,-0.0614458,16,32765
0.846973,-0.42617,-0.0592952,16,32765
0.881132,-0.447145,-0.0613784,17,32765
0.861833,-0.441094,-0.0598268,18,32765
0.851474,-0.439465,-0.0588481,17,32765
0.858848,-0.446973,-0.0591287,17,32765
0.85737,-0.449842,-0.0588084,16,32765
0.838234,-0.443384,-0.0572247,13,32765
0.871966,-0.465032,-0.0593372,12,32765
0.905576,-0.486897,-0.0613518,13,32765
0.921512,-0.499457,-0.0621189,12,32765
1.02499,-0.559965,-0.0688523,11,32765
0.857025,-0.471842,-0.0572151,11,32765
1.03007,-0.571557,-0.0684185,12,32765
0.923617,-0.516526,-0.0610852,12,32765
1.02623,-0.57853,-0.0675453,12,32765
1.03296,-0.586963,-0.0675541,12,32765
1.02236,-0.585465,-0.0664094,11,32765
0,-0,-0,0,32765
0,-0,-0,0,32765
0,-0,-0,0,32765
0,-0,-0,0,32765
0,-0,-0,0,32765
0,-0,-0,0,32765
0,-0,-0,0,32765
0,-0,-0,0,32765
0,-0,-0,0,32765
1.40182,-0.866078,-0.0855434,12,32765
1.40744,-0.876046,-0.0851538,13,32765
1.37918,-0.864809,-0.0829445,14,32765
1.47765,-0.933426,-0.0881383,14,32765
3.74137,-2.3805,-0.221244,17,32765
3.62434,-2.32273,-0.212636,18,32765
3.65873,-2.36183,-0.212375,17,32765
3.6176,-2.35204,-0.208063,17,32765
3.6266,-2.37498,-0.20704,17,32765
3.5772,-2.35942,-0.202198,17,32765
3.64441,-2.42099,-0.203697,17,32765
3.5202,-2.35539,-0.194785,17,32765
3.62849,-2.44521,-0.198609,18,32765
3.62875,-2.46285,-0.196643,18,32765
3.59608,-2.45777,-0.192899,18,32765
3.55528,-2.44684,-0.188013,16,32765
3.59655,-2.49276,-0.188142,17,32765
3.46569,-2.41867,-0.178678,17,32765
3.5233,-2.47593,-0.179441,18,32765
3.5642,-2.52215,-0.179141,18,32765
3.54787,-2.52813,-0.175475,17,32765
3.53141,-2.5342,-0.171741,17,32765
3.45829,-2.49915,-0.165444,18,32765
3.51488,-2.55751,-0.165132,19,32765
3.45856,-2.53319,-0.159344,17,32765
0.97249,-0.29751,-0.078427,16,32765
1.00008,-0.309492,-0.0809256,17,32765
0.951468,-0.297887,-0.0772762,16,32765
0.9885,-0.313052,-0.080409,17,32765
0.949471,-0.304151,-0.0774373,17,32765
0.967403,-0.313504,-0.0790343,16,32765
0.99478,-0.326014,-0.0814051,17,32765
0.946366,-0.313655,-0.0775301,17,32765
0.954785,-0.319942,-0.0782464,17,32765
0.972618,-0.329473,-0.0797614,17,32765
0.962078,-0.329489,-0.0790081,17,32765
0.913882,-0.316374,-0.0750114,16,32765
0.959855,-0.335956,-0.0788151,16,32765
0.958731,-0.33917,-0.0787346,16,32765
0.920055,-0.328934,-0.0755068,16,32765
0.918954,-0.332005,-0.0754754,16,32765
0.936597,-0.341887,-0.0768073,16,32765
0.935439,-0.345068,-0.0766884,17,32765
0.906254,-0.337799,-0.0741268,16,32765
0.914452,-0.344372,-0.0747336,17,32765
0.913292,-0.347477,-0.0745474,17,32765
0.930752,-0.357695,-0.0758586,17,32765
0.938858,-0.36442,-0.0764468,16,32765
0.91908,-0.36031,-0.0746312,16,32765
0.94569,-0.374403,-0.0767594,17,32765
0.888882,-0.355388,-0.0720334,16,32765
0.896948,-0.362097,-0.0725965,16,32765
0.914195,-0.372691,-0.0738118,17,32765
0.922155,-0.37961,-0.0743337,17,32765
0.930072,-0.386624,-0.0747548,17,32765
0.891994,-0.374345,-0.0714982,16,32765
0.899919,-0.381258,-0.0720242,17,32765
0.88031,-0.376467,-0.0701919,16,32765
0.897371,-0.387337,-0.0713869,16,32765
0.896071,-0.390399,-0.0710283,16,32765
0.867373,-0.381403,-0.0685311,16,32765
0.902575,-0.400511,-0.0710612,17,32765
0.937637,-0.4199,-0.0736318,17,32765
0.890772,-0.402562,-0.0697735,17,32765
0.889444,-0.405561,-0.0693503,16,32765
0.87903,-0.404406,-0.0682817,16,32765
0.832449,-0.386356,-0.0644788,17,32765
0.903425,-0.423032,-0.0697662,17,32765
0.856911,-0.404804,-0.0658514,17,32765
0.873555,-0.41632,-0.0669306,17,32765
0.890157,-0.427919,-0.0678683,17,32765
0.84387,-0.40913,-0.0640022,16,32765
0.860433,-0.420743,-0.0650498,16,32765
0.876916,-0.432498,-0.0660576,16,32765
0.87544,-0.435536,-0.0656689,17,32765
0.865044,-0.434094,-0.0645138,17,32765
0.854648,-0.432601,-0.0635025,18,32765
0.862075,-0.440073,-0.0637442,18,32765
0.860608,-0.442999,-0.0632992,16,32765
0.885709,-0.459685,-0.06488,15,32765
0.910702,-0.476565,-0.0663967,14,32765
0.926772,-0.48895,-0.0672407,12,32765
0.881086,-0.468651,-0.0636752,12,32765
0.905912,-0.485781,-0.0651182,12,32765
0,-0,-0,0,32765
0.955254,-0.520554,-0.067927,12,32765
1.02351,-0.562214,-0.0724404,12,32765
1.03037,-0.5705,-0.0725996,12,32765
0,-0,-0,0,32765
0,-0,-0,0,32765
0,-0,-0,0,32765
0,-0,-0,0,32765
0,-0,-0,0,32765
0,-0,-0,0,32765
0,-0,-0,0,32765
0,-0,-0,0,32765
0,-0,-0,0,32765
0,-0,-0,0,32765
0,-0,-0,0,32765
1.26283,-0.767194,-0.0840584,12,32765
1.19217,-0.729731,-0.0789572,11,32765
1.26626,-0.780845,-0.0834164,12,32765
1.37397,-0.853516,-0.0901598,11,32765
1.28655,-0.805063,-0.0840162,14,32765
1.36839,-0.862543,-0.0890583,14,32765
1.50044,-0.952699,-0.0971525,13,32765
1.48054,-0.946861,-0.0952111,14,32765
3.57595,-2.30382,-0.229268,16,32765
3.56,-2.31022,-0.227564,16,32765
3.51903,-2.3001,-0.223767,16,32765
3.56977,-2.35032,-0.226242,16,32765
3.45386,-2.2904,-0.217786,15,32765
3.45451,-2.30755,-0.217217,15,32765
3.43869,-2.31336,-0.215135,15,32765
3.44757,-2.33599,-0.215104,16,32765
3.36568,-2.29673,-0.208914,16,32765
3.39937,-2.33601,-0.210286,16,32765
3.38352,-2.34149,-0.208877,15,32765
3.50715,-2.4437,-0.216007,16,32765
3.36854,-2.36319,-0.20663,16,32765
3.48328,-2.46056,-0.212849,17,32765
3.35323,-2.38502,-0.204674,16,32765
3.41036,-2.44258,-0.207923,16,32765
3.34575,-2.41278,-0.203371,17,32765
3.30565,-2.40009,-0.200842,17,32765
3.40274,-2.48735,-0.206969,17,32765
0.952405,-0.292382,-0.0862412,17,32765
0.970465,-0.301375,-0.0881513,17,32765
0.969446,-0.304576,-0.0883584,17,32765
0.95894,-0.304751,-0.0875316,17,32765
0.938945,-0.30183,-0.0859169,17,32765
0.966334,-0.314252,-0.0885676,17,32765
0.965284,-0.317452,-0.0886115,17,32765
0.954761,-0.317543,-0.0877432,17,32765
0.953711,-0.320699,-0.0876832,17,32765
0.952653,-0.323837,-0.0876485,17,32765
0.960983,-0.330264,-0.0885362,17,32765
0.931657,-0.323654,-0.085805,17,32765
0.930551,-0.326837,-0.085743,17,32765
0.920067,-0.326629,-0.0847986,17,32765
0.90023,-0.32297,-0.0829298,17,32765
0.927244,-0.336171,-0.0854885,17,32765
0.870011,-0.31869,-0.0801128,16,32765
0.92499,-0.342405,-0.0851627,17,32765
0.905178,-0.338576,-0.0831805,17,32765
0.932001,-0.352206,-0.0855915,17,32765
0.912197,-0.348272,-0.0836926,17,32765
0.883149,-0.340586,-0.08093,16,32765
0.909867,-0.354401,-0.0833194,17,32765
0.890145,-0.350184,-0.0813256,17,32765
0.935273,-0.371572,-0.0854282,18,32765
0.878541,-0.352481,-0.0801438,17,32765
0.89584,-0.362913,-0.0816429,17,32765
0.885392,-0.36221,-0.0805273,16,32765
0.902585,-0.372853,-0.0819848,16,32765
0.892118,-0.372143,-0.0808379,17,32765
0.900056,-0.379048,-0.0813714,17,32765
0.88961,-0.378208,-0.0803311,17,32765
0.833401,-0.357652,-0.0750179,16,32765
0.8505,-0.368389,-0.076412,16,32765
0.831,-0.363315,-0.074435,16,32765
0.857138,-0.378221,-0.0765686,17,32765
0.901409,-0.401393,-0.0802852,17,32765
0.900054,-0.40448,-0.0799953,17,32765
0.862378,-0.391094,-0.076487,17,32765
0.852023,-0.389859,-0.0752752,17,32765
0.805472,-0.371863,-0.0709393,16,32765
0.849422,-0.395615,-0.0746343,16,32765
0.857114,-0.402755,-0.0751239,17,32765
0.828745,-0.392872,-0.0723378,16,32765
0.827417,-0.395716,-0.0720455,16,32765
0.862022,-0.415848,-0.0747483,17,32765
0.806871,-0.392565,-0.069656,17,32765
0.814513,-0.399688,-0.0701313,18,32765
0.831042,-0.411314,-0.071342,17,32765
0.811797,-0.405294,-0.0694461,15,32765
0.828233,-0.417084,-0.0705065,13,32765
0.951262,-0.483201,-0.0807334,12,32765
0.87863,-0.450105,-0.074268,12,32765
0.948009,-0.489709,-0.0797776,12,32765
0.893315,-0.465269,-0.0749223,12,32765
0.865275,-0.454393,-0.0722872,12,32765
1.02242,-0.541318,-0.0850714,13,32765
0.906231,-0.483731,-0.075162,12,32765
0.860708,-0.463176,-0.071068,12,32765
1.01697,-0.551701,-0.0836687,12,32765
1.04139,-0.569507,-0.0852197,12,32765
1.01329,-0.55858,-0.0826021,12,32765
1.00272,-0.557162,-0.0814406,11,32765
0,-0,-0,0,32765
0,-0,-0,0,32765
0,-0,-0,0,32765
0,-0,-0,0,32765
0,-0,-0,0,32765
0,-0,-0,0,32765
0,-0,-0,0,32765
0,-0,-0,0,32765
0,-0,-0,0,32765
0,-0,-0,0,32765
0,-0,-0,0,32765
1.19273,-0.727218,-0.0925063,11,32765
0,-0,-0,11,32765
1.34065,-0.82971,-0.103113,11,32765
0,-0,-0,0,32765
1.42818,-0.896935,-0.109088,12,32765
1.39995,-0.885648,-0.106652,12,32765
1.32972,-0.847381,-0.100887,13,32765
1.48656,-0.954183,-0.112163,13,32765
1.4331,-0.926655,-0.107882,13,32765
3.37859,-2.20053,-0.253766,16,32765
3.48824,-2.28834,-0.260911,18,32765
3.39735,-2.24503,-0.253476,18,32765
3.43152,-2.28397,-0.255001,18,32765
3.45704,-2.31777,-0.256369,19,32765
3.42465,-2.31245,-0.252963,18,32765
3.40048,-2.31264,-0.25068,18,32765
3.43407,-2.35212,-0.252135,18,32765
3.36891,-2.32371,-0.246718,18,32765
3.34489,-2.32341,-0.244617,18,32765
3.32928,-2.32845,-0.243078,18,32765
3.37082,-2.37367,-0.24535,18,32765
3.40387,-2.41351,-0.247038,19,32765
3.3473,-2.38978,-0.242788,18,32765
3.33943,-2.40083,-0.24207,19,32765
3.32357,-2.40587,-0.240394,19,32765
3.29966,-2.40486,-0.238658,18,32765
3.2597,-2.39188,-0.236071,18,32765
0.932565,-0.284663,-0.0984383,17,32765
0.912674,-0.281862,-0.0958122,16,32765
0.892801,-0.278909,-0.0933614,16,32765
0.910911,-0.287875,-0.0947073,16,32765
0.909993,-0.290922,-0.0942134,17,32765
0.918522,-0.297037,-0.0947975,17,32765
0.898668,-0.29389,-0.0923321,17,32765
0.907183,-0.299975,-0.0929198,17,32765
0.85904,-0.287185,-0.0876128,16,32765
0.905282,-0.30596,-0.0919422,17,32765
0.8666,-0.296162,-0.0877058,17,32765
0.865647,-0.299068,-0.0872538,17,32765
0.87406,-0.305288,-0.087849,17,32765
0.882441,-0.311594,-0.0883616,16,32765
0.890803,-0.317917,-0.0888791,17,32765
0.880385,-0.317572,-0.0875819,17,32765
0.898055,-0.327365,-0.0890459,17,32765
0.878296,-0.323526,-0.0867628,17,32765
0.905236,-0.336883,-0.0892081,17,32765
0.857531,-0.322426,-0.0841602,17,32765
0.884386,-0.335946,-0.0866145,17,32765
0.883275,-0.338982,-0.0861222,17,32765
0.863561,-0.334827,-0.0839852,17,32765
0.825346,-0.323251,-0.0800824,16,32765
0.842811,-0.333362,-0.0814798,16,32765
0.869463,-0.347284,-0.0838358,16,32765
0.840608,-0.339046,-0.0807896,15,32765
0.848708,-0.345665,-0.0813018,15,32765
0.85676,-0.352383,-0.0817884,16,32765
0.883161,-0.36681,-0.0841272,17,32765
0.845173,-0.354453,-0.0802805,17,32765
0.844003,-0.357311,-0.0799257,16,32765
0.851985,-0.364084,-0.0803995,16,32765
0.896504,-0.386732,-0.0843713,17,32765
0.840398,-0.365924,-0.0789371,16,32765
0.839167,-0.368816,-0.0785728,17,32765
0.856144,-0.379784,-0.0798888,16,32765
0.900316,-0.403115,-0.0838374,17,32765
0.862634,-0.389814,-0.0800465,17,32765
0.834134,-0.380353,-0.0771527,16,32765
0.869072,-0.399859,-0.0801622,17,32765
0.849674,-0.394407,-0.0780839,17,32765
0.848359,-0.397277,-0.0778345,16,32765
0.865056,-0.408665,-0.079187,17,32765
0.863713,-0.411578,-0.0787579,17,32765
0.80843,-0.388622,-0.0735768,17,32765
0.816087,-0.395748,-0.0740669,17,32765
0.841588,-0.411728,-0.076218,18,32765
0.813381,-0.4014,-0.0734099,16,32765
0.87449,-0.435286,-0.0786945,12,32765
0,-0,-0,0,32765
0,-0,-0,0,32765
0.932203,-0.475995,-0.0832297,11,32765
0.966048,-0.497459,-0.0859369,12,32765
0.92014,-0.477778,-0.0816746,12,32765
1.21886,-0.638078,-0.10787,13,32765
1.44601,-0.763133,-0.127594,13,32765
1.40828,-0.749282,-0.123824,14,32765
1.21248,-0.650386,-0.106266,12,32765
0,-0,-0,0,32765
0,-0,-0,0,32765
0,-0,-0,0,32765
0,-0,-0,0,32765
0,-0,-0,0,32765
0,-0,-0,0,32765
0,-0,-0,0,32765
0,-0,-0,0,32765
0,-0,-0,0,32765
0,-0,-0,0,32765
0,-0,-0,0,32765
0,-0,-0,0,32765
0,-0,-0,0,32765
0,-0,-0,0,32765
0,-0,-0,0,32765
0,-0,-0,0,32765
0,-0,-0,0,32765
1.23977,-0.764393,-0.101331,11,32765
1.44912,-0.900146,-0.117883,12,32765
0,-0,-0,0,32765
1.31664,-0.829963,-0.105944,12,32765
1.42342,-0.90386,-0.114056,13,32765
1.31965,-0.844046,-0.104969,13,32765
1.47625,-0.951117,-0.116865,12,32765
1.42295,-0.923414,-0.111858,13,32765
0,-0,-0,0,32765
3.49225,-2.29928,-0.271352,16,32765
3.38502,-2.24464,-0.260993,16,32765
3.38606,-2.26134,-0.259442,18,32765
3.41202,-2.29462,-0.259349,17,32765
3.39636,-2.30024,-0.256439,17,32765
3.36411,-2.29467,-0.252255,18,32765
3.38953,-2.32852,-0.251899,17,32765
3.39019,-2.34541,-0.250205,17,32765
3.33356,-2.32223,-0.243912,17,32765
3.43247,-2.40752,-0.249055,18,32765
3.34325,-2.36112,-0.240313,15,32765
3.33568,-2.37211,-0.237378,17,32765
3.23867,-2.31927,-0.228187,16,32765
3.32042,-2.39404,-0.231077,17,32765
3.28857,-2.38729,-0.225848,17,32765
3.32134,-2.42743,-0.225092,17,32765
0.874317,-0.2679,-0.100988,17,32765
0.88299,-0.273731,-0.101487,17,32765
0.901111,-0.282572,-0.10321,17,32765
0.900236,-0.285576,-0.102576,17,32765
0.908794,-0.291635,-0.103162,17,32765
0.907852,-0.294692,-0.102768,17,32765
0.888033,-0.291502,-0.100121,17,32765
0.868232,-0.288172,-0.0976221,16,32765
0.914465,-0.306857,-0.102429,17,32765
0.875827,-0.29711,-0.0977353,17,32765
0.874854,-0.300096,-0.097325,16,32765
0.892683,-0.309556,-0.0989508,17,32765
0.863506,-0.302723,-0.095476,17,32765
0.853134,-0.302362,-0.0940195,17,32765
0.880243,-0.315312,-0.0967004,17,32765
0.85114,-0.308159,-0.0932636,17,32765
0.896844,-0.328131,-0.0979879,18,32765
0.867777,-0.320831,-0.0945017,17,32765
0.866729,-0.323742,-0.0941906,17,32765
0.847057,-0.31966,-0.0917199,16,32765
0.873882,-0.333178,-0.0944558,16,32765
0.844927,-0.325458,-0.0909692,16,32765
0.862376,-0.335596,-0.0926439,17,32765
0.83347,-0.327632,-0.0893608,16,32765
0.841647,-0.334123,-0.0899509,17,32765
0.812837,-0.325857,-0.0866757,17,32765
0.857888,-0.347284,-0.0912211,16,32765
0.8291,-0.338916,-0.0879103,17,32765
0.837162,-0.345583,-0.0884979,17,32765
0.808427,-0.336999,-0.0853049,16,32765
0.816461,-0.343665,-0.0859432,16,32765
0.815326,-0.346434,-0.0855993,16,32765
0.805035,-0.345279,-0.0842631,17,32765
0.776473,-0.336178,-0.0810855,16,32765
0.820952,-0.358764,-0.0855916,16,32765
0.828853,-0.365616,-0.0861815,16,32765
0.85491,-0.380624,-0.0886297,17,32765
0.826365,-0.371358,-0.0855237,17,32765
0.816045,-0.37011,-0.0842009,16,32765
0.796703,-0.364614,-0.0819788,17,32765
0.804522,-0.371514,-0.0825898,17,32765
0.803296,-0.374243,-0.0822025,18,32765
0.802047,-0.376965,-0.0819653,18,32765
0.800789,-0.379691,-0.081683,17,32765
0.790558,-0.378098,-0.0803711,14,32765
0.870004,-0.419755,-0.088311,13,32765
0.877541,-0.427111,-0.0888678,12,32765
0.759861,-0.37311,-0.0768155,11,32765
0.847846,-0.419945,-0.0854595,12,32765
0.855338,-0.427318,-0.0860032,13,32765
0,-0,-0,0,32765
0,-0,-0,0,32765
0.983948,-0.504267,-0.0982897,12,32765
1.18578,-0.612856,-0.118085,13,32765
1.25438,-0.653736,-0.124696,13,32765
1.44623,-0.759903,-0.143412,12,32765
1.05639,-0.559571,-0.104496,12,32765
1.01939,-0.544376,-0.100534,11,32765
0,-0,-0,0,32765
0,-0,-0,0,32765
0,-0,-0,0,32765
0,-0,-0,0,32765
0,-0,-0,0,32765
0,-0,-0,0,32765
0,-0,-0,0,32765
0,-0,-0,0,32765
0,-0,-0,0,32765
0,-0,-0,0,32765
0,-0,-0,0,32765
0,-0,-0,0,32765
0,-0,-0,0,32765
0,-0,-0,0,32765
0,-0,-0,0,32765
0,-0,-0,0,32765
0,-0,-0,0,32765
0,-0,-0,0,32765
0,-0,-0,0,32765
1.29433,-0.807035,-0.119636,11,32765
1.32548,-0.83255,-0.121946,12,32765
0,-0,-0,0,32765
1.34525,-0.85746,-0.122786,12,32765
1.30893,-0.840368,-0.118733,13,32765
1.45689,-0.942209,-0.131634,13,32765
1.32015,-0.859964,-0.118577,15,32765
1.43408,-0.940942,-0.128185,16,32765
3.35285,-2.21593,-0.298259,16,32765
3.37061,-2.24362,-0.297895,19,32765
3.36336,-2.25477,-0.295709,19,32765
3.28181,-2.21551,-0.28661,18,32765
3.24992,-2.20951,-0.282254,18,32765
3.32502,-2.27672,-0.287124,17,32765
3.24368,-2.2369,-0.278012,18,32765
3.2692,-2.27042,-0.278596,18,32765
3.27832,-2.29255,-0.27737,18,32765
3.19766,-2.25148,-0.26867,18,32765
3.28002,-2.32542,-0.273442,18,32765
3.31317,-2.36522,-0.273911,18,32765
3.25687,-2.34134,-0.267035,18,32765
3.22523,-2.33442,-0.26173,17,32765
3.2017,-2.33324,-0.256965,17,32765
3.20239,-2.34957,-0.2542,17,32765
0.846392,-0.258614,-0.0940171,16,32765
0.88352,-0.273178,-0.0983213,17,32765
0.911064,-0.285035,-0.101578,17,32765
0.881673,-0.279044,-0.0984217,17,32765
0.871267,-0.278959,-0.0973401,17,32765
0.889238,-0.288043,-0.0994315,17,32765
0.878822,-0.287933,-0.0983163,16,32765
0.896743,-0.297122,-0.10035,17,32765
0.876903,-0.293782,-0.0981496,16,32765
0.866515,-0.293484,-0.0970528,17,32765
0.865552,-0.296347,-0.0969427,17,32765
0.873978,-0.302482,-0.097815,17,32765
0.82603,-0.288995,-0.0925021,17,32765
0.862578,-0.305044,-0.0964724,17,32765
0.89901,-0.321342,-0.100598,16,32765
0.869846,-0.314308,-0.0973615,17,32765
0.850113,-0.310451,-0.095012,17,32765
0.858399,-0.316793,-0.0958786,17,32765
0.875982,-0.326636,-0.0977958,17,32765
0.837679,-0.315532,-0.0934551,16,32765
0.836638,-0.318344,-0.0932411,16,32765
0.826298,-0.317589,-0.0920234,16,32765
0.843783,-0.327592,-0.0938856,16,32765
0.84268,-0.330483,-0.0936598,17,32765
0.832324,-0.329685,-0.092437,17,32765
0.849674,-0.339962,-0.0942285,17,32765
0.839312,-0.339128,-0.0929961,17,32765
0.819756,-0.334476,-0.0907014,16,32765
0.809447,-0.333462,-0.0894361,16,32765
0.835911,-0.347622,-0.0922622,17,32765
0.825594,-0.346574,-0.0910027,17,32765
0.842778,-0.357091,-0.0927997,17,32765
0.805001,-0.344318,-0.0884275,16,32765
0.794707,-0.343148,-0.0871215,16,32765
0.820909,-0.357825,-0.0898276,17,32765
0.847031,-0.372674,-0.0924813,17,32765
0.845797,-0.37553,-0.0922174,17,32765
0.817318,-0.366165,-0.0889616,16,32765
0.761685,-0.344357,-0.0827875,17,32765
0.778661,-0.355191,-0.0844224,17,32765
0.77747,-0.357864,-0.0841075,18,32765
0.803343,-0.37311,-0.0867666,18,32765
0.820123,-0.384317,-0.0883129,16,32765
0,-0,-0,0,32765
0,-0,-0,0,32765
0,-0,-0,0,32765
0,-0,-0,0,32765
0.849409,-0.415715,-0.0904705,12,32765
0.928359,-0.45826,-0.0987324,12,32765
0.953577,-0.474734,-0.101088,12,32765
0.996456,-0.500362,-0.105414,12,32765
1.09246,-0.553291,-0.115333,12,32765
1.16153,-0.593304,-0.122252,13,32765
1.24803,-0.642917,-0.131097,13,32765
0,-0,-0,0,32765
0,-0,-0,0,32765
0,-0,-0,0,32765
0,-0,-0,0,32765
0,-0,-0,0,32765
0,-0,-0,0,32765
0,-0,-0,0,32765
0,-0,-0,0,32765
0,-0,-0,0,32765
0,-0,-0,0,32765
0,-0,-0,0,32765
0,-0,-0,0,32765
0,-0,-0,0,32765
0,-0,-0,0,32765
0,-0,-0,0,32765
0,-0,-0,0,32765
0,-0,-0,0,32765
0,-0,-0,0,32765
0,-0,-0,0,32765
0,-0,-0,0,32765
0,-0,-0,0,32765
0,-0,-0,0,32765
0,-0,-0,0,32765
1.28613,-0.800117,-0.126859,11,32765
1.2835,-0.804437,-0.126167,12,32765
1.24717,-0.787396,-0.122329,12,32765
0,-0,-0,0,32765
0,-0,-0,0,32765
1.44037,-0.929558,-0.140165,12,32765
1.27854,-0.831159,-0.124101,13,32765
1.3342,-0.873619,-0.129274,15,32765
1.37293,-0.905526,-0.132638,15,32765
1.46127,-0.970802,-0.140812,14,32765
3.2394,-2.16737,-0.311306,18,32765
3.1248,-2.10576,-0.299639,17,32765
3.17567,-2.15528,-0.30399,16,32765
3.16038,-2.16021,-0.301806,16,32765
3.25187,-2.23852,-0.309727,17,32765
3.22815,-2.23798,-0.306782,16,32765
3.2535,-2.27153,-0.308694,16,32765
3.14023,-2.20752,-0.297203,16,32765
3.16559,-2.24091,-0.299105,16,32765
3.08524,-2.19916,-0.291506,14,32765
3.15922,-2.26733,-0.297548,16,32765
3.08723,-2.23092,-0.290518,15,32765
3.10424,-2.25852,-0.292069,16,32765
3.18536,-2.33357,-0.299198,16,32765
0.883219,-0.270915,-0.106905,17,32765
0.872814,-0.270915,-0.105832,17,32765
0.862415,-0.270862,-0.104762,17,32765
0.86151,-0.27372,-0.104778,16,32765
0.813305,-0.26141,-0.0989982,17,32765
0.840753,-0.273392,-0.102427,17,32765
0.830397,-0.27312,-0.101221,16,32765
0.848339,-0.282171,-0.103444,17,32765
0.85682,-0.288162,-0.104507,17,32765
0.846462,-0.287799,-0.103317,17,32765
0.845516,-0.290604,-0.103208,16,32765
0.835178,-0.290168,-0.101887,17,32765
0.843576,-0.296271,-0.102975,17,32765
0.833234,-0.295801,-0.101604,16,32765
0.794832,-0.285198,-0.0969755,16,32765
0.840546,-0.30489,-0.102589,17,32765
0.839529,-0.307765,-0.102335,18,32765
0.819859,-0.303732,-0.0998905,17,32765
0.790931,-0.296055,-0.0963331,17,32765
0.827131,-0.312755,-0.100688,17,32765
0.798253,-0.304903,-0.0970891,17,32765
0.815781,-0.314749,-0.0991663,17,32765
0.796212,-0.310309,-0.0967173,16,32765
0.804413,-0.316685,-0.0976252,17,32765
0.812584,-0.3231,-0.0985571,17,32765
0.857592,-0.344445,-0.10389,17,32765
0.8196,-0.332432,-0.0992175,17,32765
0.800094,-0.327704,-0.0967419,16,32765
0.780638,-0.322826,-0.0942793,17,32765
0.788749,-0.329266,-0.0951769,16,32765
0.815142,-0.343496,-0.0982532,17,32765
0.814014,-0.346224,-0.0980344,17,32765
0.794597,-0.341169,-0.095497,17,32765
0.793448,-0.343916,-0.095195,18,32765
0.764963,-0.334715,-0.0916334,18,32765
0.800212,-0.353422,-0.0956738,19,32765
0.789961,-0.352082,-0.0943388,18,32765
0.752535,-0.338433,-0.0897414,17,32765
0.751401,-0.341009,-0.0895,15,32765
0.849713,-0.389086,-0.100993,13,32765
0.839382,-0.387842,-0.0995773,12,32765
0.793017,-0.369726,-0.0939509,12,32765
0.809779,-0.380923,-0.0956862,12,32765
0,-0,-0,0,32765
0,-0,-0,0,32765
0,-0,-0,0,32765
0,-0,-0,0,32765
0.972952,-0.478007,-0.113903,12,32765
1.01591,-0.503404,-0.118788,12,32765
1.04093,-0.520215,-0.121374,13,32765
1.10135,-0.555159,-0.128193,13,32765
1.1438,-0.58152,-0.132906,12,32765
0.991362,-0.508332,-0.114892,12,32765
0.768735,-0.397537,-0.088945,11,32765
0,-0,-0,0,32765
0,-0,-0,0,32765
0,-0,-0,0,32765
0,-0,-0,0,32765
0,-0,-0,0,32765
0,-0,-0,0,32765
0,-0,-0,0,32765
0,-0,-0,0,32765
0,-0,-0,0,32765
0,-0,-0,0,32765
0,-0,-0,0,32765
0,-0,-0,0,32765
0,-0,-0,13,32765
0,-0,-0,0,32765
0,-0,-0,0,32765
0,-0,-0,0,32765
0,-0,-0,0,32765
0,-0,-0,0,32765
0,-0,-0,11,32765
0,-0,-0,0,32765
0,-0,-0,0,32765
0,-0,-0,0,32765
0,-0,-0,0,32765
1.16542,-0.727891,-0.127914,11,32765
0,-0,-0,0,32765
0,-0,-0,0,32765
1.21696,-0.777121,-0.132608,11,32765
1.19768,-0.770399,-0.1302,12,32765
1.29545,-0.839361,-0.140609,12,32765
1.38443,-0.903584,-0.149956,12,32765
1.30657,-0.85895,-0.141329,13,32765
1.29544,-0.85784,-0.139788,15,32765
1.40862,-0.939572,-0.151685,16,32765
1.40558,-0.944207,-0.151021,15,32765
1.46022,-0.987987,-0.15662,13,32765
3.16094,-2.15393,-0.338586,16,32765
3.17031,-2.17575,-0.338942,18,32765
3.13042,-2.16364,-0.333967,18,32765
3.15602,-2.19685,-0.336106,19,32765
3.10801,-2.17877,-0.330595,17,32765
3.09292,-2.18312,-0.328332,16,32765
3.06144,-2.17603,-0.324585,17,32765
3.06247,-2.19186,-0.324764,17,32765
3.05545,-2.20185,-0.323179,18,32765
3.06444,-2.22357,-0.323961,18,32765
3.02509,-2.21001,-0.319831,17,32765
3.04998,-2.24363,-0.32206,17,32765
0.806265,-0.246077,-0.109005,16,32765
0.796035,-0.245854,-0.107164,16,32765
0.842602,-0.263307,-0.113103,17,32765
0.794494,-0.251154,-0.106302,17,32765
0.831502,-0.265891,-0.110937,17,32765
0.783451,-0.253459,-0.104228,17,32765
0.801498,-0.262285,-0.106334,16,32765
0.80064,-0.265024,-0.106007,17,32765
0.856247,-0.286652,-0.113012,17,32765
0.836529,-0.283174,-0.110143,17,32765
0.835611,-0.286007,-0.109795,16,32765
0.797163,-0.275853,-0.104574,16,32765
0.796265,-0.278569,-0.104216,16,32765
0.814064,-0.287899,-0.106364,17,32765
0.803787,-0.287313,-0.104774,16,32765
0.830851,-0.300179,-0.108068,17,32765
0.792572,-0.289388,-0.102878,17,32765
0.800947,-0.295482,-0.103799,16,32765
0.83718,-0.31207,-0.108356,17,32765
0.771138,-0.290394,-0.0995857,16,32765
0.807295,-0.307176,-0.104006,17,32765
0.797003,-0.306385,-0.10254,16,32765
0.78673,-0.305519,-0.101063,16,32765
0.822693,-0.322725,-0.105474,16,32765
0.775498,-0.307199,-0.0991557,16,32765
0.774472,-0.309851,-0.0989189,16,32765
0.837919,-0.338489,-0.106852,17,32765
0.800023,-0.326315,-0.101893,17,32765
0.79895,-0.329054,-0.101499,17,32765
0.788667,-0.328028,-0.100009,16,32765
0.796689,-0.334675,-0.100894,17,32765
0.731549,-0.31029,-0.0924988,17,32765
0.785294,-0.336279,-0.0991488,17,32765
0.738587,-0.319262,-0.093067,17,32765
0.773956,-0.337663,-0.0973444,18,32765
0.754646,-0.332308,-0.0947689,18,32765
