x, y, z, intensity, ring
6.03002,3.17077,0.712425,13,32765
6.03196,3.14604,0.709564,12,32765
6.05165,3.13036,0.707714,12,32765
6.08006,3.11906,0.708003,12,32765
6.11733,3.11222,0.708733,12,32765
6.0747,3.06488,0.70006,12,32765
6.09418,3.0488,0.698752,14,32765
6.18464,3.06844,0.706042,12,32765
6.19499,3.04794,0.704114,12,32765
6.20531,3.02741,0.701819,12,32765
6.21554,3.007,0.69899,12,32765
6.22589,2.98612,0.696388,13,32765
6.23593,2.96555,0.694507,13,32765
6.264,2.95326,0.694389,13,32765
6.29206,2.94089,0.693977,13,32765
6.33808,2.93678,0.696055,12,32765
6.39326,2.93667,0.69792,13,32765
6.33976,2.88662,0.689127,12,32765
6.33135,2.85753,0.684751,13,32765
6.35933,2.84454,0.683702,12,32765
6.38712,2.83154,0.683732,13,32765
6.39684,2.81009,0.681315,12,32765
6.38811,2.78086,0.677402,13,32765
6.41585,2.76757,0.676605,12,32765
6.45272,2.75789,0.67742,12,32765
6.41635,2.71696,0.669768,12,32765
6.5266,2.73785,0.678106,12,32765
6.49925,2.70078,0.671135,12,32765
6.50826,2.67944,0.669316,13,32765
6.51725,2.65818,0.666639,12,32765
6.64617,2.68542,0.675992,13,32765
6.60881,2.64534,0.669606,13,32765
6.64544,2.63472,0.669923,13,32765
6.62646,2.60208,0.664592,12,32765
6.6816,2.59857,0.666064,12,32765
6.72748,2.59105,0.667119,13,32765
6.73612,2.56915,0.664675,12,32765
6.79126,2.56492,0.666421,13,32765
6.75316,2.52542,0.659255,12,32765
6.76172,2.50318,0.656339,13,32765
6.85444,2.51162,0.661356,12,32765
6.8536,2.48566,0.65737,12,32765
6.82434,2.45016,0.650755,12,32765
6.86069,2.43794,0.650745,13,32765
6.8688,2.41598,0.647148,13,32765
6.89558,2.40045,0.646382,12,32765
6.89411,2.37509,0.642339,12,32765
6.93961,2.36618,0.642347,12,32765
6.87167,2.31926,0.632161,12,32765
6.54849,2.18714,0.598792,12,32765
6.4706,2.13798,0.588179,11,32765
6.47788,2.11691,0.584211,11,32765
6.42799,2.078,0.575578,15,32765
6.41556,2.05256,0.57022,18,32765
6.42206,2.03317,0.566595,19,32765
6.4477,2.01924,0.564079,19,32765
5.03207,3.70204,0.732962,34,32765
5.09343,3.72018,0.73467,26,32765
5.0745,3.6796,0.725333,24,32765
5.2403,3.77326,0.742832,29,32765
5.15601,3.68703,0.72511,19,32765
5.26575,3.73945,0.733725,26,32765
5.29478,3.7336,0.732041,26,32765
5.33191,3.73336,0.731577,19,32765
5.06708,3.52312,0.690211,13,32765
0,0,0,0,32765
5.009,3.43368,0.672254,14,32765
5.1029,3.47319,0.679285,13,32765
5.09009,3.43964,0.672447,15,32765
5.25054,3.52245,0.68834,13,32765
5.42816,3.61514,0.706695,13,32765
5.42401,3.58609,0.701185,13,32765
5.50275,3.6117,0.706965,14,32765
5.52329,3.59921,0.704188,14,32765
5.54367,3.58668,0.702175,13,32765
5.57238,3.57962,0.700343,13,32765
5.58425,3.56159,0.697673,14,32765
5.60461,3.54873,0.695516,14,32765
5.60816,3.52514,0.691045,14,32765
5.61155,3.50161,0.686865,14,32765
5.64033,3.49359,0.685819,14,32765
5.66912,3.48525,0.685779,14,32765
5.69799,3.47677,0.684933,14,32765
5.6843,3.44248,0.678635,13,32765
5.69586,3.42379,0.676207,14,32765
5.72458,3.4151,0.675463,14,32765
5.76192,3.41141,0.674865,13,32765
5.76494,3.3873,0.670922,14,32765
5.79369,3.37816,0.669963,14,32765
5.77047,3.33933,0.663771,15,32765
5.78178,3.32026,0.660966,15,32765
5.80159,3.30619,0.659369,16,32765
5.75215,3.25277,0.649514,13,32765
5.6504,3.17035,0.633979,13,32765
5.661,3.15172,0.632372,13,32765
5.67169,3.13309,0.629076,13,32765
5.70831,3.1288,0.630379,13,32765
5.8674,3.19097,0.644528,13,32765
5.9395,3.20463,0.648887,14,32765
5.95036,3.18497,0.646254,14,32765
5.96119,3.16502,0.644377,14,32765
6.03362,3.17768,0.648277,14,32765
6.06206,3.16671,0.648336,14,32765
6.07297,3.14632,0.645435,14,32765
6.08373,3.12582,0.643654,14,32765
6.09443,3.1054,0.641298,14,32765
6.15838,3.11193,0.644351,13,32765
6.16912,3.09107,0.641988,14,32765
6.17952,3.07062,0.640096,14,32765
6.17201,3.0413,0.636325,14,32765
6.21809,3.03829,0.637706,14,32765
6.24627,3.02649,0.636695,14,32765
6.23873,2.99684,0.632257,14,32765
6.26678,2.98474,0.632184,14,32765
6.29493,2.97233,0.631865,14,32765
6.31404,2.95561,0.63035,14,32765
6.31496,2.93045,0.627555,14,32765
6.33394,2.91377,0.625386,14,32765
6.31657,2.88035,0.620827,14,32765
6.37166,2.88,0.622855,14,32765
6.39972,2.86685,0.621598,14,32765
6.4458,2.86177,0.623185,14,32765
6.41915,2.82404,0.617237,14,32765
6.42871,2.80263,0.61525,14,32765
6.43824,2.78129,0.612505,14,32765
6.48433,2.77543,0.613896,14,32765
6.53052,2.76932,0.614463,14,32765
6.53997,2.74742,0.612269,14,32765
6.54941,2.72555,0.609086,14,32765
6.57693,2.7116,0.608957,14,32765
6.59524,2.69384,0.607098,14,32765
6.62273,2.67977,0.6059,13,32765
6.61307,2.65081,0.602514,14,32765
6.67752,2.65118,0.605063,14,32765
6.68639,2.62931,0.602506,14,32765
6.6952,2.60753,0.599322,14,32765
6.74113,2.59995,0.599994,14,32765
6.71254,2.56374,0.594246,14,32765
6.777,2.5631,0.596351,14,32765
6.78553,2.54105,0.593741,14,32765
6.77544,2.51173,0.589183,13,32765
6.82143,2.50297,0.589305,14,32765
6.82991,2.48048,0.58623,14,32765
6.81936,2.45173,0.581599,14,32765
6.8745,2.44619,0.5829,14,32765
6.89201,2.42746,0.580085,14,32765
6.90942,2.40854,0.578332,14,32765
6.92681,2.38959,0.575943,14,32765
6.96292,2.37735,0.574777,14,32765
6.93273,2.34302,0.568428,13,32765
6.81742,2.28003,0.555259,13,32765
6.61671,2.18919,0.535415,13,32765
6.53885,2.1397,0.524513,12,32765
6.46051,2.0913,0.514145,13,32765
6.4101,2.05356,0.505957,19,32765
6.49262,2.05825,0.508286,22,32765
6.48979,2.03513,0.503321,23,32765
4.99225,3.66859,0.65713,12,32765
4.88409,3.56396,0.640507,13,32765
5.04088,3.65294,0.658156,12,32765
4.89166,3.52006,0.635915,13,32765
5.04086,3.60227,0.652899,12,32765
5.02056,3.56247,0.647235,12,32765
5.28442,3.72367,0.67765,12,32765
5.32908,3.72961,0.68008,12,32765
5.38228,3.74057,0.683584,12,32765
5.02635,3.4687,0.635211,13,32765
5.16112,3.53625,0.649461,12,32765
5.12379,3.48555,0.640763,12,32765
5.05295,3.41306,0.629012,13,32765
5.24617,3.51829,0.649494,12,32765
5.4896,3.65577,0.67564,12,32765
5.50168,3.63779,0.674434,12,32765
5.43904,3.57059,0.662774,12,32765
5.52623,3.60134,0.669404,13,32765
5.50512,3.56116,0.663242,12,32765
5.55076,3.56427,0.664803,12,32765
5.61303,3.57806,0.668895,12,32765
5.60818,3.54906,0.664356,12,32765
5.61989,3.53098,0.66179,12,32765
5.61463,3.5023,0.657549,13,32765
5.66003,3.50517,0.658743,12,32765
5.69736,3.50185,0.659944,13,32765
5.66676,3.4569,0.65315,12,32765
5.67844,3.43815,0.650638,13,32765
5.656,3.39869,0.644512,12,32765
5.74438,3.42593,0.650743,12,32765
5.67882,3.36143,0.639333,12,32765
5.79328,3.40302,0.647994,13,32765
5.82177,3.39406,0.648265,12,32765
5.77295,3.33994,0.638614,13,32765
5.78409,3.32097,0.636729,14,32765
5.79543,3.30165,0.634139,13,32765
5.71144,3.22835,0.620795,12,32765
5.64444,3.16528,0.609361,12,32765
5.65525,3.14638,0.606988,12,32765
5.66586,3.12763,0.604889,13,32765
5.75499,3.15203,0.610654,12,32765
5.87064,3.19015,0.618562,12,32765
5.93389,3.19934,0.621393,13,32765
5.97982,3.1985,0.622408,12,32765
5.99062,3.1787,0.619998,12,32765
6.03666,3.1773,0.621307,12,32765
6.04744,3.15725,0.618651,12,32765
6.02282,3.1187,0.612743,12,32765
6.11329,3.13943,0.61773,13,32765
6.12388,3.11911,0.615858,12,32765
6.09017,3.07597,0.608889,12,32765
6.10066,3.05555,0.606739,12,32765
6.15569,3.05739,0.60815,13,32765
6.12142,3.01489,0.600973,13,32765
6.212,3.03431,0.606302,12,32765
6.22246,3.01331,0.603762,12,32765
6.25083,3.00086,0.60297,13,32765
6.18902,2.94581,0.593816,13,32765
6.25304,2.95079,0.596656,13,32765
6.28078,2.93905,0.596129,13,32765
6.27261,2.90994,0.591815,13,32765
6.33671,2.91417,0.594791,13,32765
6.29208,2.86855,0.587213,13,32765
6.33817,2.86389,0.588304,13,32765
6.36592,2.85123,0.587842,13,32765
6.42114,2.85013,0.590103,13,32765
6.43091,2.8286,0.58725,13,32765
6.37646,2.77943,0.579605,13,32765
6.40407,2.76628,0.579225,13,32765
6.44072,2.75716,0.579709,13,32765
6.48675,2.75134,0.580619,13,32765
6.47765,2.72211,0.576831,12,32765
6.48657,2.70105,0.575512,13,32765
6.5509,2.70249,0.578235,12,32765
6.59667,2.6963,0.580014,12,32765
6.56879,2.65952,0.57447,12,32765
6.57768,2.63785,0.572657,12,32765
6.62347,2.6311,0.573999,12,32765
6.63222,2.60933,0.572261,12,32765
6.6036,2.57331,0.567985,13,32765
6.64934,2.56594,0.569896,13,32765
6.62068,2.52978,0.564776,12,32765
6.69427,2.53275,0.569455,12,32765
6.76797,2.53541,0.573439,13,32765
6.80422,2.52414,0.574214,12,32765
6.77501,2.48825,0.570486,12,32765
6.85815,2.49352,0.574915,12,32765
6.8662,2.47132,0.574658,12,32765
6.91199,2.46199,0.576676,12,32765
6.84469,2.41328,0.569829,13,32765
6.89023,2.40419,0.571869,12,32765
6.90758,2.38483,0.571717,13,32765
6.92471,2.36582,0.571665,13,32765
6.95114,2.35005,0.573178,13,32765
6.63705,2.22061,0.546675,12,32765
6.47385,2.1429,0.531857,12,32765
6.48068,2.12212,0.531946,12,32765
6.34511,2.05545,0.520379,12,32765
6.41796,2.05682,0.526181,18,32765
6.41474,2.0339,0.526119,18,32765
6.48756,2.03466,0.533003,19,32765
4.94537,3.64147,0.593192,14,32765
4.95764,3.62488,0.592374,14,32765
4.90526,3.56176,0.58341,14,32765
5.0383,3.6328,0.596526,13,32765
4.91275,3.51767,0.579436,15,32765
4.93273,3.50705,0.57894,13,32765
5.04197,3.55981,0.588454,13,32765
5.33065,3.738,0.618979,14,32765
5.40023,3.76037,0.623899,14,32765
5.33087,3.686,0.612658,14,32765
5.05603,3.47095,0.578473,13,32765
5.02669,3.42609,0.571317,14,32765
5.07106,3.43188,0.573583,14,32765
5.08259,3.41512,0.571551,14,32765
5.25122,3.5037,0.58682,14,32765
5.43713,3.60194,0.605061,14,32765
5.49914,3.61688,0.608066,15,32765
5.54481,3.62028,0.609242,14,32765
5.52376,3.57995,0.603443,14,32765
5.53597,3.56145,0.60098,14,32765
5.58147,3.5646,0.602699,14,32765
5.55975,3.52497,0.596552,14,32765
5.60509,3.52823,0.597599,14,32765
5.65049,3.5312,0.598918,14,32765
5.66214,3.51296,0.596152,14,32765
5.64014,3.47307,0.590847,14,32765
5.65193,3.45418,0.588965,14,32765
5.68063,3.44577,0.588218,14,32765
5.70941,3.43705,0.587733,15,32765
5.72954,3.42329,0.586096,14,32765
5.6982,3.37902,0.579014,14,32765
5.76982,3.39538,0.582206,14,32765
5.76389,3.36638,0.578837,14,32765
5.77528,3.34731,0.575884,14,32765
5.80373,3.33822,0.575708,15,32765
5.78915,3.30398,0.570546,15,32765
5.81784,3.29436,0.56926,15,32765
5.68153,3.19176,0.551859,13,32765
5.66632,3.15813,0.546946,13,32765
5.70313,3.15378,0.547351,14,32765
5.68753,3.12058,0.542256,13,32765
5.72433,3.11613,0.54162,13,32765
5.94519,3.21106,0.558787,14,32765
5.99117,3.21019,0.559418,14,32765
6.00201,3.19031,0.557,14,32765
6.01283,3.17028,0.554673,14,32765
6.02358,3.15026,0.552024,14,32765
6.07855,3.15302,0.55375,14,32765
6.07167,3.12345,0.549045,14,32765
6.13547,3.1304,0.551975,14,32765
6.14625,3.10963,0.549442,14,32765
6.17467,3.09792,0.548852,14,32765
6.16738,3.06844,0.544241,15,32765
6.21358,3.0655,0.544577,14,32765
6.22377,3.04523,0.542002,14,32765
6.21632,3.01544,0.537901,14,32765
6.22673,2.99435,0.535375,14,32765
6.21886,2.96501,0.531593,14,32765
6.28296,2.9699,0.533856,14,32765
6.31078,2.95804,0.533127,14,32765
6.30265,2.92877,0.528985,14,32765
6.33061,2.91622,0.528361,14,32765
6.36759,2.9078,0.528117,14,32765
6.35932,2.87822,0.524307,14,32765
6.38713,2.86545,0.523647,14,32765
6.37863,2.83593,0.520227,14,32765
6.42484,2.83058,0.520347,14,32765
6.41607,2.80128,0.51704,14,32765
6.48037,2.80382,0.519391,14,32765
6.48966,2.78263,0.517375,14,32765
6.53578,2.77664,0.517888,14,32765
6.54514,2.75492,0.515717,14,32765
6.53577,2.72592,0.512936,14,32765
6.56333,2.71197,0.5122,14,32765
6.59992,2.70195,0.51288,14,32765
6.63674,2.69132,0.512707,14,32765
6.61797,2.65822,0.508737,14,32765
6.71018,2.66977,0.513233,14,32765
6.6541,2.62208,0.506525,14,32765
6.71843,2.62217,0.509668,14,32765
6.67131,2.57845,0.504147,14,32765
6.73583,2.57779,0.506397,14,32765
6.79097,2.57333,0.509003,14,32765
6.77143,2.54064,0.505334,14,32765
6.77966,2.51891,0.50374,14,32765
6.83469,2.51402,0.506633,14,32765
6.86171,2.49862,0.506144,14,32765
6.85102,2.4696,0.504502,14,32765
6.83106,2.43684,0.501316,14,32765
6.90475,2.43811,0.505558,14,32765
6.89389,2.40907,0.503086,14,32765
6.9207,2.39292,0.503523,14,32765
6.91899,2.36737,0.502003,14,32765
6.98324,2.36439,0.506066,14,32765
6.92445,2.32016,0.501244,14,32765
6.60996,2.19115,0.477143,13,32765
6.56009,2.15123,0.473129,13,32765
6.54791,2.1242,0.471861,13,32765
6.43105,2.06395,0.463327,16,32765
6.47541,2.05604,0.466786,22,32765
6.49125,2.03867,0.468899,23,32765
4.87777,3.5781,0.609034,12,32765
4.97881,3.6262,0.615004,12,32765
4.90267,3.54558,0.599192,12,32765
4.97122,3.57029,0.602107,12,32765
4.98346,3.55402,0.597095,12,32765
4.99569,3.53746,0.593303,12,32765
5.26024,3.69848,0.61865,12,32765
5.36263,3.74383,0.625159,12,32765
5.35064,3.70951,0.617909,12,32765
5.29764,3.64676,0.60644,12,32765
5.0388,3.44393,0.571618,12,32765
5.02583,3.41046,0.565552,13,32765
5.22737,3.52186,0.583103,12,32765
5.04883,3.37752,0.558302,13,32765
5.42518,3.60351,0.594727,12,32765
5.46215,3.60239,0.593804,12,32765
5.52436,3.61712,0.59567,13,32765
5.50327,3.57717,0.588253,12,32765
5.55718,3.58605,0.589547,13,32765
5.60306,3.58897,0.589414,13,32765
5.58145,3.54932,0.582582,13,32765
5.53437,3.49383,0.573425,12,32765
5.60525,3.51273,0.575777,13,32765
5.57455,3.46833,0.568442,13,32765
5.64555,3.48672,0.571083,13,32765
5.66569,3.47356,0.568493,12,32765
5.70292,3.47036,0.568558,13,32765
5.71468,3.45144,0.565647,13,32765
5.70917,3.42249,0.560621,13,32765
5.73791,3.41375,0.559175,13,32765
5.76656,3.40502,0.557685,13,32765
5.75231,3.37078,0.552152,12,32765
5.75519,3.34651,0.548646,13,32765
5.78373,3.3375,0.547321,13,32765
5.79511,3.31819,0.544379,13,32765
5.8063,3.29902,0.541629,14,32765
5.81742,3.2798,0.539029,13,32765
5.68938,3.18249,0.523809,12,32765
5.66516,3.14444,0.518076,12,32765
5.71073,3.14489,0.518458,12,32765
5.68633,3.10684,0.512992,12,32765
5.75808,3.12138,0.516111,12,32765
5.86534,3.15401,0.521935,13,32765
5.99023,3.19577,0.529436,13,32765
5.93058,3.13848,0.520682,13,32765
5.95877,3.12819,0.519586,13,32765
6.02235,3.13623,0.521036,13,32765
6.06843,3.13442,0.521625,13,32765
6.07885,3.11445,0.519944,13,32765
6.08943,3.09407,0.517812,12,32765
6.06442,3.05567,0.511667,13,32765
6.11063,3.05286,0.512595,12,32765
6.12127,3.03185,0.510372,12,32765
6.15838,3.02458,0.510616,13,32765
6.2225,3.03011,0.51239,12,32765
6.26865,3.02681,0.512674,12,32765
6.1618,2.95021,0.50098,13,32765
6.21683,2.95097,0.502823,12,32765
6.26278,2.94759,0.502863,13,32765
6.27281,2.92663,0.500359,13,32765
6.31882,2.92258,0.501492,13,32765
6.36496,2.91824,0.501625,13,32765
6.30227,2.86384,0.493341,13,32765
6.38457,2.87591,0.496788,13,32765
6.37619,2.84631,0.492613,13,32765
6.33108,2.80088,0.485878,13,32765
6.37718,2.7956,0.486352,12,32765
6.45088,2.80178,0.488519,13,32765
6.47868,2.78819,0.487502,13,32765
6.48822,2.76638,0.484905,13,32765
6.49739,2.74522,0.482206,12,32765
6.48807,2.71627,0.478843,13,32765
6.46959,2.6834,0.473522,13,32765
6.5615,2.69641,0.477726,13,32765
6.51514,2.65215,0.470666,12,32765
6.50546,2.6234,0.466605,12,32765
6.58841,2.63144,0.469584,13,32765
6.59735,2.60947,0.466658,12,32765
6.64325,2.60227,0.46686,13,32765
6.73572,2.61292,0.469327,12,32765
6.66063,2.55859,0.460622,13,32765
6.69702,2.54771,0.459949,13,32765
6.67752,2.5152,0.455016,13,32765
6.71373,2.5043,0.454668,12,32765
6.75019,2.4927,0.453328,13,32765
6.79596,2.48439,0.453021,13,32765
6.81362,2.46561,0.450456,12,32765
6.84074,2.44991,0.447929,12,32765
6.87695,2.43789,0.447532,13,32765
6.90388,2.42219,0.445381,13,32765
6.89284,2.39376,0.441345,13,32765
6.91952,2.37832,0.439047,13,32765
6.8801,2.34001,0.432464,13,32765
6.96339,2.34362,0.433801,13,32765
6.93315,2.30872,0.428549,12,32765
6.68467,2.20241,0.408754,12,32765
6.49241,2.11648,0.393352,12,32765
6.5373,2.10825,0.391685,12,32765
6.43941,2.05456,0.381699,13,32765
6.43664,2.03099,0.37721,18,32765
6.45262,2.01418,0.373775,21,32765
4.99897,3.67464,0.565879,13,32765
4.89117,3.56978,0.547289,14,32765
4.9761,3.60616,0.550428,14,32765
4.93974,3.55503,0.541112,14,32765
4.91138,3.50987,0.531739,14,32765
4.90719,3.48198,0.526255,14,32765
5.04941,3.55758,0.535814,13,32765
5.34725,3.7408,0.562042,14,32765
5.35158,3.71781,0.556783,15,32765
5.3478,3.68887,0.551127,14,32765
5.35212,3.66559,0.546195,14,32765
5.25748,3.57497,0.531863,13,32765
5.00533,3.37916,0.501569,14,32765
5.10772,3.42389,0.507013,14,32765
5.06114,3.36856,0.497667,15,32765
5.34677,3.53348,0.521012,14,32765
5.52542,3.62517,0.533655,14,32765
5.47092,3.56336,0.52341,14,32765
5.53317,3.57778,0.525044,15,32765
5.54545,3.55925,0.521392,14,32765
5.57417,3.55183,0.519667,14,32765
5.5692,3.52289,0.51506,14,32765
5.53042,3.47279,0.506673,14,32765
5.44035,3.39161,0.494459,14,32765
5.46021,3.379,0.491938,15,32765
5.63292,3.46036,0.503019,14,32765
5.66159,3.45208,0.502058,14,32765
5.69035,3.44357,0.500665,15,32765
5.71899,3.43518,0.498818,15,32765
5.7392,3.42127,0.496433,14,32765
5.7507,3.40236,0.493279,14,32765
5.75363,3.3782,0.489493,14,32765
5.74792,3.34885,0.485348,14,32765
5.80236,3.35482,0.486005,14,32765
5.79649,3.32547,0.481611,14,32765
5.8077,3.30626,0.478856,15,32765
5.82752,3.2919,0.476962,17,32765
5.83001,3.26749,0.473841,16,32765
5.70145,3.17072,0.459976,14,32765
5.68597,3.13731,0.455067,14,32765
5.72279,3.13279,0.454851,13,32765
5.72451,3.10916,0.45176,13,32765
5.71757,3.08045,0.447625,13,32765
5.91263,3.1604,0.45944,14,32765
5.97623,3.16868,0.460983,14,32765
6.02219,3.16751,0.461028,14,32765
6.03283,3.14766,0.45785,14,32765
6.0435,3.12748,0.455384,14,32765
6.0539,3.10754,0.453706,14,32765
6.08224,3.09625,0.452903,14,32765
6.10176,3.08027,0.45042,14,32765
6.18376,3.0952,0.453574,14,32765
6.17667,3.06502,0.450018,14,32765
6.15122,3.02671,0.44542,14,32765
6.19742,3.02353,0.445342,14,32765
6.22559,3.0116,0.443976,14,32765
6.27162,3.00836,0.444351,14,32765
6.26377,2.97876,0.441245,14,32765
6.29177,2.96669,0.439622,14,32765
6.30185,2.94559,0.437103,14,32765
6.31172,2.92466,0.43535,14,32765
6.32159,2.90366,0.432624,14,32765
6.35875,2.89479,0.431893,14,32765
6.3411,2.86153,0.427814,14,32765
6.41466,2.86869,0.42933,14,32765
6.38785,2.83113,0.424352,14,32765
6.43406,2.82565,0.424426,14,32765
6.44381,2.80376,0.421715,14,32765
6.45328,2.78226,0.419318,14,32765
6.49951,2.77618,0.419096,14,32765
6.50871,2.75494,0.416389,14,32765
6.49942,2.72589,0.413206,14,32765
6.57313,2.73122,0.413965,15,32765
6.54521,2.69451,0.409777,15,32765
6.59126,2.68791,0.409021,14,32765
6.59094,2.66259,0.405683,14,32765
6.62769,2.65182,0.405044,14,32765
6.65525,2.63703,0.403222,14,32765
6.66407,2.61503,0.400788,14,32765
6.65423,2.58586,0.396299,14,32765
6.7281,2.58906,0.397275,14,32765
6.74593,2.57083,0.395198,14,32765
6.76386,2.55219,0.392692,14,32765
6.80019,2.54099,0.39203,14,32765
6.79931,2.51522,0.388225,14,32765
6.80764,2.493,0.385395,14,32765
6.8441,2.48095,0.38378,14,32765
6.81485,2.44488,0.377917,14,32765
6.85105,2.43293,0.377244,14,32765
6.84968,2.40735,0.373374,14,32765
6.89517,2.39871,0.372605,14,32765
6.92186,2.38324,0.370115,15,32765
6.91077,2.35451,0.365497,14,32765
6.95627,2.34527,0.364083,14,32765
7.0018,2.3356,0.363139,14,32765
6.92402,2.28521,0.354583,14,32765
6.68447,2.18284,0.338631,13,32765
6.55847,2.11871,0.327913,13,32765
6.50813,2.08006,0.321297,13,32765
6.47684,2.04719,0.315466,14,32765
6.46424,2.02129,0.310536,22,32765
4.90132,3.59883,0.485326,13,32765
4.96138,3.61815,0.48917,13,32765
5.07831,3.67787,0.498132,12,32765
4.92867,3.54475,0.480739,13,32765
5.10281,3.64415,0.495526,12,32765
4.96053,3.51765,0.47887,13,32765
5.0456,3.55298,0.484141,12,32765
5.34318,3.73664,0.50944,13,32765
5.38011,3.73617,0.510224,12,32765
5.39234,3.71879,0.508162,13,32765
5.4049,3.70076,0.506257,13,32765
5.39262,3.66597,0.501918,13,32765
5.14871,3.47525,0.475673,12,32765
0,0,0,0,32765
0,0,0,0,32765
0,0,0,0,32765
0,0,0,0,32765
0,0,0,0,32765
0,0,0,0,32765
0,0,0,0,32765
0,0,0,0,32765
5.04868,3.1935,0.438745,14,32765
0,0,0,0,32765
4.95133,3.08664,0.423701,15,32765
5.20764,3.22242,0.442797,18,32765
0,0,0,0,32765
5.65528,3.44727,0.472931,13,32765
5.70106,3.44908,0.473448,13,32765
5.67018,3.40409,0.467004,13,32765
5.74163,3.42092,0.47003,13,32765
5.77043,3.41193,0.468213,13,32765
5.76475,3.38264,0.464052,13,32765
5.79346,3.37339,0.463041,13,32765
5.79626,3.34898,0.460236,12,32765
5.81612,3.33477,0.458725,13,32765
5.79276,3.29562,0.453004,13,32765
5.8474,3.30082,0.453255,15,32765
5.88467,3.296,0.452404,12,32765
5.70394,3.16972,0.435317,13,32765
5.67945,3.13188,0.43029,12,32765
5.75128,3.14653,0.432415,12,32765
5.73563,3.11312,0.427295,12,32765
5.7727,3.10798,0.425829,13,32765
5.94168,3.17324,0.435363,12,32765
5.96997,3.16284,0.434564,13,32765
6.016,3.16145,0.434885,12,32765
6.02674,3.14133,0.431812,13,32765
6.03739,3.12127,0.428645,12,32765
6.04817,3.10067,0.426091,13,32765
6.12076,3.11244,0.428271,13,32765
6.10445,3.07874,0.423705,13,32765
6.11488,3.05841,0.420515,13,32765
6.12517,3.03821,0.417301,12,32765
6.13557,3.01753,0.414484,13,32765
6.17269,3.0101,0.41415,13,32765
6.23699,3.01525,0.414521,12,32765
6.16616,2.95556,0.406952,13,32765
6.2211,2.9567,0.407236,13,32765
6.18589,2.91485,0.401163,13,32765
6.27696,2.93254,0.404429,13,32765
6.2869,2.9115,0.402101,13,32765
6.29693,2.89014,0.39915,13,32765
6.34292,2.88593,0.398996,13,32765
6.31627,2.84832,0.3942,12,32765
6.36219,2.84389,0.393941,12,32765
6.37165,2.82295,0.391639,13,32765
6.39943,2.80974,0.39071,13,32765
6.40877,2.78867,0.388681,13,32765
6.41815,2.76732,0.386259,13,32765
6.45485,2.7581,0.385702,13,32765
6.43648,2.72504,0.381868,13,32765
6.49164,2.72296,0.382839,13,32765
6.50079,2.70134,0.380874,13,32765
6.50981,2.67986,0.378385,13,32765
6.49098,2.64704,0.375186,13,32765
6.54599,2.64453,0.376028,13,32765
6.59189,2.63769,0.376409,12,32765
6.60058,2.61615,0.37443,12,32765
6.60927,2.59442,0.372277,13,32765
6.65492,2.58746,0.373562,13,32765
6.62623,2.5511,0.37019,12,32765
6.67196,2.54373,0.369972,13,32765
6.68021,2.52214,0.368818,13,32765
6.78207,2.53533,0.371675,13,32765
6.79028,2.51339,0.370824,13,32765
6.78925,2.48746,0.369124,13,32765
6.86329,2.48872,0.370991,13,32765
6.85255,2.45968,0.369585,13,32765
6.85123,2.4339,0.367674,13,32765
6.88727,2.42196,0.368289,13,32765
6.87618,2.39337,0.366095,13,32765
6.91234,2.38053,0.367423,12,32765
6.92949,2.36144,0.366958,13,32765
6.96547,2.34874,0.367762,13,32765
6.97287,2.32675,0.367271,13,32765
6.9233,2.28594,0.363806,12,32765
6.62677,2.16451,0.348202,12,32765
6.5006,2.10039,0.34081,12,32765
6.4692,2.06743,0.339386,12,32765
6.40904,2.02591,0.335915,15,32765
6.43434,2.01177,0.338478,19,32765
4.77221,3.51221,0.417106,14,32765
4.89643,3.57908,0.426014,14,32765
4.90829,3.56297,0.424693,14,32765
5.02533,3.62261,0.432183,14,32765
4.89961,3.50707,0.419385,15,32765
5.00895,3.56013,0.426008,13,32765
4.923,3.47457,0.415953,15,32765
5.07327,3.55596,0.425683,14,32765
5.33889,3.71595,0.445386,14,32765
5.31823,3.67597,0.440615,15,32765
5.26484,3.61299,0.433313,15,32765
5.14508,3.50555,0.420541,15,32765
5.08246,3.43822,0.412048,16,32765
4.91994,3.30469,0.39607,18,32765
4.97246,3.31616,0.397243,22,32765
5.09173,3.37128,0.403882,22,32765
5.06978,3.33236,0.398935,22,32765
5.08095,3.31554,0.396944,24,32765
5.12554,3.32042,0.397507,24,32765
5.103,3.28201,0.392677,25,32765
5.08022,3.24388,0.387586,25,32765
5.09092,3.22726,0.385873,24,32765
5.16916,3.25316,0.388732,27,32765
5.18,3.23621,0.385964,24,32765
5.16541,3.20321,0.382174,24,32765
5.26118,3.23841,0.385809,20,32765
5.66404,3.46005,0.411372,14,32765
5.70986,3.46183,0.411505,14,32765
5.70467,3.43215,0.407352,15,32765
5.71624,3.41308,0.405451,14,32765
5.72783,3.39398,0.40225,14,32765
5.73929,3.37488,0.399489,15,32765
5.73349,3.34557,0.395914,15,32765
5.78803,3.35131,0.396773,14,32765
5.79059,3.32715,0.393989,14,32765
5.81056,3.31272,0.391573,15,32765
5.86524,3.31787,0.39134,15,32765
5.84163,3.27877,0.386167,18,32765
5.85272,3.25922,0.383736,15,32765
5.6887,3.14355,0.369925,14,32765
5.6993,3.1246,0.367435,14,32765
5.70987,3.1056,0.364299,14,32765
5.68539,3.06734,0.358682,14,32765
5.81023,3.10948,0.363798,13,32765
5.96178,3.16504,0.370527,14,32765
6.02549,3.17298,0.37156,14,32765
6.03627,3.15279,0.368478,14,32765
6.01147,3.11427,0.363159,14,32765
6.10217,3.13478,0.365399,14,32765
6.06811,3.09199,0.360554,14,32765
6.07847,3.0719,0.357862,14,32765
6.11565,3.06504,0.356241,14,32765
6.14383,3.05368,0.354053,14,32765
6.20802,3.05938,0.35429,14,32765
6.20043,3.02977,0.351104,15,32765
6.21086,3.00871,0.347873,14,32765
6.23903,2.99653,0.346657,14,32765
6.26705,2.98455,0.344946,14,32765
6.27708,2.96378,0.341774,14,32765
6.26882,2.93463,0.338784,14,32765
6.29688,2.92198,0.337426,14,32765
6.34324,2.91723,0.336391,14,32765
6.35296,2.89628,0.333928,14,32765
6.36275,2.87501,0.331397,14,32765
6.3723,2.85408,0.328857,14,32765
6.39092,2.83712,0.327015,14,32765
6.40046,2.81576,0.32496,14,32765
6.46475,2.8186,0.325694,14,32765
6.41922,2.77325,0.3205,14,32765
6.51103,2.78759,0.322385,15,32765
6.49276,2.75428,0.31881,14,32765
6.52039,2.74039,0.317945,14,32765
6.56649,2.73398,0.317752,14,32765
6.53868,2.69701,0.313464,14,32765
6.58464,2.69047,0.313619,14,32765
6.59349,2.6689,0.311772,14,32765
6.60239,2.64702,0.310019,14,32765
6.61111,2.62539,0.308033,14,32765
6.64772,2.61456,0.307162,14,32765
6.74,2.62559,0.310205,14,32765
6.67415,2.57449,0.305483,14,32765
6.74796,2.57764,0.306139,14,32765
6.70026,2.53455,0.302437,14,32765
6.74603,2.52667,0.301832,14,32765
6.80106,2.52217,0.30307,14,32765
6.81882,2.50303,0.30229,14,32765
6.80841,2.47349,0.299767,14,32765
6.80704,2.44795,0.298961,15,32765
6.84333,2.43567,0.298795,14,32765
6.8794,2.42373,0.299126,14,32765
6.89661,2.40496,0.298343,14,32765
6.91394,2.38551,0.298569,14,32765
6.95003,2.37284,0.298819,14,32765
6.95766,2.35044,0.298119,14,32765
6.94613,2.3221,0.296815,14,32765
6.97243,2.30639,0.297148,14,32765
6.88482,2.25291,0.29346,14,32765
6.59731,2.13552,0.280496,13,32765
6.50894,2.08389,0.277024,13,32765
6.50597,2.06026,0.276638,13,32765
6.48374,2.03086,0.276998,19,32765
4.86525,3.56795,0.448978,13,32765
4.99019,3.63424,0.454305,12,32765
4.96246,3.58817,0.445719,13,32765
4.96679,3.56566,0.440443,12,32765
4.97063,3.54367,0.435417,13,32765
4.97426,3.5219,0.430186,14,32765
0,0,0,0,32765
5.10419,3.56359,0.430932,14,32765
0,0,0,0,32765
0,0,0,0,32765
0,0,0,0,32765
5.12729,3.47908,0.413535,14,32765
0,0,0,0,32765
4.99326,3.33959,0.393488,19,32765
5.00459,3.32303,0.389832,19,32765
4.94912,3.26263,0.380865,20,32765
4.98503,3.26287,0.379542,19,32765
5.04622,3.27903,0.380158,22,32765
5.00681,3.23011,0.372956,21,32765
4.95053,3.17039,0.364715,19,32765
4.9611,3.1542,0.361352,21,32765
5.08137,3.20719,0.366101,21,32765
5.05818,3.16936,0.361165,20,32765
5.19574,3.23214,0.366654,23,32765
5.15566,3.18346,0.360031,20,32765
0,0,0,0,32765
5.62063,3.41894,0.384059,13,32765
5.6749,3.42608,0.383464,13,32765
5.72062,3.42789,0.382671,13,32765
5.73209,3.40903,0.379588,13,32765
5.72624,3.38007,0.375385,13,32765
5.77205,3.38126,0.374863,13,32765
5.80081,3.37198,0.372523,13,32765
5.743,3.3127,0.365537,13,32765
5.80619,3.32331,0.365814,13,32765
5.78264,3.28435,0.360158,13,32765
5.82834,3.28494,0.36009,13,32765
5.83083,3.26045,0.356438,15,32765
5.85067,3.24567,0.354028,13,32765
5.73057,3.15364,0.342909,13,32765
5.69732,3.1107,0.337847,12,32765
5.7076,3.09211,0.335,13,32765
5.79704,3.11582,0.337714,12,32765
5.80752,3.09663,0.334167,12,32765
5.97688,3.16126,0.340974,12,32765
6.02305,3.15963,0.340138,13,32765
6.03361,3.13956,0.338833,13,32765
6.04417,3.11961,0.334912,13,32765
6.0547,3.09941,0.332213,13,32765
6.06509,3.07924,0.330251,13,32765
6.11125,3.07677,0.329581,13,32765
6.08591,3.03848,0.324816,13,32765
6.1319,3.03593,0.324775,13,32765
6.14223,3.01528,0.321939,13,32765
6.1525,2.99454,0.319197,13,32765
6.18971,2.98682,0.317514,13,32765
6.21778,2.97479,0.315977,13,32765
6.22777,2.95402,0.314033,13,32765
6.23774,2.93322,0.311181,13,32765
6.22943,2.90414,0.307579,12,32765
6.29357,2.90855,0.308095,13,32765
6.30327,2.88767,0.306214,13,32765
6.31291,2.86683,0.303491,13,32765
6.3408,2.85394,0.301488,13,32765
6.36866,2.84097,0.299161,13,32765
6.37806,2.81999,0.297249,13,32765
6.4059,2.80668,0.294903,13,32765
6.4153,2.78535,0.292883,13,32765
6.47071,2.78335,0.292098,13,32765
6.43427,2.74185,0.287182,13,32765
6.42515,2.71239,0.284206,13,32765
6.51724,2.72573,0.284484,13,32765
6.50787,2.6965,0.281213,13,32765
6.53528,2.6827,0.279551,13,32765
6.59052,2.6799,0.278479,13,32765
6.62725,2.66937,0.276645,12,32765
6.56186,2.61791,0.271015,12,32765
6.53345,2.58142,0.266715,13,32765
6.57921,2.57454,0.265681,13,32765
6.58772,2.55299,0.262913,13,32765
6.59617,2.53138,0.259887,13,32765
6.6419,2.52397,0.258447,13,32765
6.78124,2.55133,0.260744,13,32765
6.73348,2.50823,0.255054,13,32765
6.75109,2.48979,0.252336,13,32765
6.80613,2.48515,0.251341,13,32765
6.74842,2.43942,0.245861,13,32765
6.81289,2.43764,0.24503,13,32765
6.83048,2.41843,0.241446,13,32765
6.79142,2.37923,0.236457,13,32765
6.90302,2.39339,0.237007,13,32765
6.84446,2.34888,0.231852,13,32765
6.89924,2.34351,0.229299,13,32765
6.9731,2.3438,0.228148,13,32765
6.98082,2.32106,0.224494,13,32765
7.00736,2.30482,0.221491,13,32765
6.96706,2.26761,0.216714,13,32765
6.68879,2.15388,0.204299,12,32765
6.60991,2.10567,0.197241,12,32765
6.5311,2.05701,0.189686,12,32765
6.49942,2.02468,0.185241,13,32765
4.75178,3.49309,0.383379,14,32765
4.83612,3.53048,0.384305,14,32765
4.95346,3.59024,0.387717,14,32765
4.86057,3.49775,0.375035,15,32765
4.88041,3.48766,0.371425,16,32765
4.85941,3.44879,0.364532,18,32765
4.8791,3.43866,0.361151,22,32765
4.91519,3.4398,0.358867,23,32765
4.86129,3.37788,0.350281,22,32765
4.93025,3.40147,0.350203,26,32765
4.90048,3.35705,0.343499,24,32765
4.87879,3.3183,0.338289,24,32765
4.94799,3.34116,0.338315,23,32765
4.98417,3.34138,0.336621,23,32765
5.02043,3.34139,0.334628,25,32765
5.00667,3.30833,0.329129,27,32765
4.96757,3.25908,0.322603,24,32765
5.05384,3.29168,0.324273,24,32765
5.06478,3.27515,0.320809,24,32765
5.1263,3.29063,0.320631,25,32765
5.06147,3.22552,0.312464,24,32765
5.16507,3.26761,0.314898,27,32765
5.17591,3.25066,0.312331,24,32765
5.12726,3.19695,0.30523,26,32765
5.21446,3.22722,0.306696,26,32765
5.17426,3.17855,0.30051,24,32765
5.31294,3.23924,0.304739,16,32765
5.68278,3.43875,0.321763,14,32765
5.69428,3.41996,0.318669,15,32765
5.70571,3.40114,0.315594,15,32765
5.73422,3.39254,0.313467,15,32765
5.74561,3.37348,0.310698,14,32765
5.77433,3.36426,0.30818,15,32765
5.78568,3.34493,0.305604,14,32765
5.79698,3.32559,0.302577,14,32765
5.77344,3.28657,0.297296,14,32765
5.82784,3.2921,0.297295,15,32765
5.83906,3.27244,0.29417,15,32765
5.86766,3.26245,0.292091,17,32765
5.83511,3.21842,0.286662,15,32765
5.71443,3.12707,0.277759,14,32765
5.68086,3.08454,0.27279,14,32765
5.69111,3.06574,0.270895,14,32765
5.76309,3.07982,0.270301,14,32765
5.79114,3.06986,0.268874,14,32765
5.97849,3.14325,0.274237,14,32765
6.02445,3.14176,0.274552,14,32765
6.07937,3.14476,0.272621,14,32765
6.08998,3.12439,0.269901,14,32765
6.07374,3.09046,0.266749,14,32765
6.06641,3.06094,0.263372,14,32765
6.11249,3.05849,0.262063,14,32765
6.1317,3.04251,0.260492,14,32765
6.15998,3.03064,0.258404,14,32765
6.22419,3.03608,0.257882,14,32765
6.23454,3.01505,0.254774,15,32765
6.24468,2.9942,0.252297,14,32765
6.27279,2.98187,0.251063,14,32765
6.28285,2.96087,0.248186,15,32765
6.29273,2.94004,0.245454,14,32765
6.30258,2.91904,0.24328,14,32765
6.3214,2.90225,0.241738,15,32765
6.34927,2.88959,0.23969,15,32765
6.3499,2.86422,0.23646,14,32765
6.37779,2.85118,0.233936,14,32765
6.39636,2.83418,0.232349,14,32765
6.39679,2.80871,0.228819,14,32765
6.43368,2.79933,0.227771,14,32765
6.41571,2.76561,0.223941,15,32765
6.4803,2.76739,0.222994,15,32765
6.46207,2.73381,0.219873,14,32765
6.49891,2.72387,0.217431,15,32765
6.50799,2.7023,0.214961,15,32765
6.5539,2.69608,0.213709,15,32765
6.59066,2.68566,0.21156,14,32765
6.60886,2.66762,0.208855,15,32765
6.60843,2.64209,0.206005,14,32765
6.64515,2.63112,0.204055,14,32765
6.66315,2.61291,0.201752,14,32765
6.66246,2.58742,0.198667,14,32765
6.699,2.57628,0.196423,15,32765
6.74487,2.56852,0.194558,14,32765
6.7534,2.54621,0.191774,15,32765
6.78053,2.53109,0.188744,14,32765
6.80758,2.51592,0.186164,14,32765
6.83452,2.50077,0.183913,14,32765
6.82385,2.47188,0.180318,15,32765
6.83195,2.4496,0.177421,15,32765
6.87782,2.44032,0.174444,14,32765
6.86712,2.4108,0.170602,14,32765
6.90326,2.3985,0.168239,14,32765
6.92979,2.38316,0.165774,14,32765
6.9184,2.35496,0.161153,15,32765
6.96387,2.34561,0.158683,14,32765
6.97157,2.32286,0.15503,14,32765
6.97911,2.30035,0.151428,14,32765
7.02432,2.29105,0.148946,14,32765
7.03154,2.26901,0.145216,14,32765
6.66725,2.1284,0.133068,14,32765
6.53127,2.0614,0.125216,13,32765
6.50913,2.03198,0.121323,13,32765
4.74034,3.48157,0.316121,15,32765
4.7114,3.43667,0.312385,17,32765
4.76317,3.45046,0.314023,19,32765
4.7341,3.40554,0.310149,21,32765
4.75376,3.39545,0.308531,20,32765
4.74868,3.36822,0.306607,20,32765
4.78423,3.37001,0.306281,21,32765
4.79541,3.35427,0.304118,21,32765
4.82301,3.34979,0.303084,20,32765
4.78501,3.2996,0.297961,21,32765
4.90306,3.35722,0.302553,22,32765
4.8812,3.31854,0.298883,21,32765
4.92534,3.3248,0.298743,21,32765
4.84509,3.24748,0.290875,21,32765
4.93075,3.28123,0.29353,21,32765
4.95834,3.27597,0.292222,21,32765
5.00257,3.28163,0.29212,21,32765
4.96325,3.23244,0.287001,19,32765
5.02439,3.24853,0.287481,24,32765
5.04381,3.23703,0.285615,20,32765
5.02098,3.1988,0.281096,23,32765
5.03174,3.18205,0.278826,23,32765
5.09312,3.19728,0.279103,22,32765
5.17169,3.22256,0.28054,21,32765
5.225,3.23157,0.280815,23,32765
5.09954,3.13074,0.270743,21,32765
0,0,0,0,32765
5.71017,3.45376,0.296541,13,32765
5.72174,3.43481,0.293673,13,32765
5.71624,3.40532,0.289832,13,32765
5.74496,3.39632,0.287935,13,32765
5.71327,3.3519,0.283114,13,32765
5.7849,3.36822,0.282832,13,32765
5.74432,3.31892,0.277882,13,32765
5.8334,3.34467,0.278496,13,32765
5.78381,3.29074,0.272422,13,32765
5.81218,3.2814,0.270764,13,32765
5.84072,3.27169,0.268461,14,32765
5.86052,3.25694,0.265953,15,32765
5.81921,3.20804,0.260497,12,32765
5.73361,3.13576,0.253666,13,32765
5.77048,3.13094,0.252306,12,32765
5.75458,3.09751,0.248664,12,32765
5.76478,3.0787,0.245961,13,32765
5.85457,3.10162,0.246657,12,32765
5.98892,3.14703,0.248924,13,32765
6.03504,3.14538,0.247048,13,32765
6.01031,3.10652,0.242176,13,32765
6.05634,3.10463,0.241132,13,32765
6.0134,3.05713,0.235622,13,32765
6.11293,3.08194,0.237019,13,32765
6.05189,3.02559,0.230974,13,32765
6.09808,3.02277,0.228843,13,32765
6.14414,3.01994,0.227953,13,32765
6.15434,2.99935,0.224684,13,32765
6.16443,2.97873,0.222481,13,32765
6.20139,2.97129,0.220438,12,32765
6.14829,2.92037,0.21472,13,32765
6.27564,2.95516,0.216742,13,32765
6.24943,2.91705,0.212996,13,32765
6.25924,2.89618,0.210048,13,32765
6.25069,2.86716,0.206478,13,32765
6.3148,2.87134,0.205658,13,32765
6.32442,2.85025,0.203469,13,32765
6.3339,2.82928,0.20115,13,32765
6.37984,2.82457,0.199795,13,32765
6.40754,2.81146,0.197777,13,32765
6.41692,2.79016,0.195247,13,32765
6.45372,2.7808,0.193883,13,32765
6.45384,2.75531,0.191297,13,32765
6.47243,2.73726,0.189652,13,32765
6.48163,2.71559,0.187085,13,32765
6.44458,2.67475,0.183223,13,32765
6.53662,2.6877,0.183845,13,32765
6.49922,2.64725,0.180526,12,32765
6.66535,2.68994,0.182795,13,32765
6.56275,2.62365,0.177906,13,32765
6.60853,2.6169,0.176767,13,32765
6.5613,2.57328,0.173518,13,32765
6.62574,2.57326,0.173397,13,32765
6.67146,2.56602,0.17239,13,32765
6.64259,2.52966,0.169877,13,32765
6.72574,2.53603,0.170478,13,32765
6.65918,2.48582,0.167526,13,32765
6.7612,2.49842,0.168002,13,32765
6.80693,2.49004,0.166961,13,32765
6.76802,2.45086,0.164986,13,32765
6.86062,2.45938,0.165456,13,32765
6.84973,2.43046,0.164082,13,32765
6.87649,2.4148,0.163419,13,32765
6.86549,2.38577,0.161385,13,32765
6.93002,2.38273,0.162344,13,32765
6.91872,2.354,0.161716,13,32765
6.94524,2.33807,0.160968,13,32765
6.96224,2.31887,0.160292,13,32765
6.98865,2.30275,0.160292,13,32765
6.996,2.28032,0.160337,13,32765
6.72727,2.16916,0.153205,12,32765
6.57209,2.09643,0.150429,12,32765
6.55965,2.06951,0.149893,13,32765
6.4992,2.02831,0.149978,13,32765
4.77833,3.51877,0.26334,12,32765
4.74149,3.46775,0.259615,15,32765
4.78528,3.47559,0.260332,25,32765
4.84545,3.49478,0.261728,23,32765
4.80043,3.43775,0.256486,24,32765
4.78738,3.40451,0.254302,25,32765
4.88833,3.45228,0.257108,23,32765
4.90797,3.44189,0.255316,23,32765
4.83747,3.36852,0.248976,23,32765
4.90639,3.39202,0.249841,24,32765
4.96706,3.40978,0.250256,25,32765
4.80504,3.27512,0.239923,13,32765
4.84903,3.28164,0.239437,16,32765
5.00918,3.36601,0.244361,20,32765
4.93728,3.29393,0.238478,20,32765
4.89827,3.24448,0.233794,18,32765
5.06762,3.3327,0.239248,20,32765
5.06196,3.30504,0.236217,20,32765
4.97239,3.223,0.229126,17,32765
5.05895,3.2549,0.230245,26,32765
5.06988,3.23804,0.227598,25,32765
5.17361,3.27994,0.229417,22,32765
5.20147,3.27344,0.227576,26,32765
5.11924,3.19782,0.22125,25,32765
5.1215,3.17542,0.218893,26,32765
5.14057,3.16374,0.216462,26,32765
5.21071,3.18336,0.216474,26,32765
5.41797,3.2851,0.222087,16,32765
5.69442,3.42683,0.230086,15,32765
5.7318,3.42298,0.228148,15,32765
5.73478,3.39862,0.225037,15,32765
5.74619,3.37947,0.22235,14,32765
5.77473,3.37051,0.219744,14,32765
5.76876,3.34117,0.216654,14,32765
5.79723,3.33203,0.214165,15,32765
5.81706,3.31771,0.211283,14,32765
5.80203,3.28362,0.207859,15,32765
5.82185,3.26901,0.205062,15,32765
5.85037,3.25916,0.202766,16,32765
5.87905,3.24885,0.200256,19,32765
5.82867,3.19544,0.1956,14,32765
5.72524,3.11387,0.189266,14,32765
5.72688,3.09,0.186493,14,32765
5.81637,3.1137,0.186338,14,32765
5.74734,3.0521,0.181152,14,32765
5.88149,3.09797,0.182153,14,32765
6.00717,3.13833,0.182377,14,32765
6.01791,3.11787,0.178946,14,32765
6.06398,3.11594,0.177518,14,32765
6.10123,3.10916,0.174858,14,32765
6.11171,3.08863,0.172759,14,32765
6.12219,3.068,0.169438,15,32765
6.1506,3.05603,0.166402,14,32765
6.21471,3.06184,0.16559,15,32765
6.15317,3.00586,0.160404,14,32765
6.21727,3.01134,0.159582,14,32765
6.19124,2.97341,0.155641,15,32765
6.25549,2.97828,0.153458,14,32765
6.2474,2.94877,0.150943,15,32765
6.30268,2.94881,0.149512,15,32765
6.31258,2.9277,0.146533,15,32765
6.31322,2.90262,0.143327,15,32765
6.35014,2.89416,0.141305,15,32765
6.36895,2.87701,0.139298,14,32765
6.37852,2.85585,0.136958,14,32765
6.39711,2.8388,0.134628,14,32765
6.3791,2.80548,0.131466,14,32765
6.40678,2.79222,0.129313,14,32765
6.44358,2.78286,0.127665,14,32765
6.50806,2.78488,0.126422,14,32765
6.46231,2.7393,0.123432,14,32765
6.50838,2.73309,0.121553,14,32765
6.49909,2.70359,0.11865,14,32765
6.545,2.69734,0.117577,14,32765
6.56318,2.67944,0.115699,15,32765
6.60889,2.67328,0.114263,15,32765
6.63619,2.65909,0.112721,14,32765
6.61702,2.62626,0.110094,14,32765
6.62567,2.60446,0.108315,14,32765
6.67157,2.59697,0.107311,15,32765
6.68004,2.57517,0.105321,15,32765
6.69793,2.55653,0.103903,14,32765
6.71569,2.53799,0.102734,14,32765
6.67725,2.49821,0.100957,15,32765
6.78867,2.51425,0.100622,15,32765
6.81568,2.49887,0.09892,14,32765
6.8238,2.47663,0.0980858,14,32765
6.83179,2.45456,0.0964962,14,32765
6.87743,2.44577,0.0961001,14,32765
6.88537,2.42334,0.0949797,15,32765
6.90273,2.40408,0.0935118,14,32765
6.90116,2.3781,0.0930081,14,32765
6.91825,2.35909,0.092947,14,32765
6.9448,2.34312,0.0920067,14,32765
6.9713,2.32705,0.091357,15,32765
6.99775,2.31086,0.0911644,14,32765
7.02416,2.29455,0.0914536,14,32765
6.99336,2.25993,0.0901082,14,32765
6.74325,2.15575,0.0877258,14,32765
6.62614,2.09507,0.0860105,14,32765
6.55626,2.05058,0.0866418,14,32765
4.74306,3.48059,0.284611,12,32765
4.755,3.46467,0.279543,18,32765
4.74245,3.43134,0.273268,20,32765
4.72157,3.39236,0.266538,21,32765
4.78166,3.41175,0.264802,20,32765
4.79291,3.39628,0.260269,21,32765
4.85323,3.41508,0.258783,20,32765
4.79908,3.35338,0.251495,20,32765
4.8436,3.3597,0.249073,22,32765
4.921,3.3886,0.248067,22,32765
0,0,0,0,32765
0,0,0,0,32765
4.91313,3.31224,0.234707,18,32765
4.92406,3.29626,0.230776,18,32765
4.99334,3.31869,0.229835,19,32765
4.98783,3.29106,0.225454,20,32765
4.94882,3.2415,0.219665,16,32765
0,0,0,0,32765
4.9536,3.19798,0.211692,17,32765
5.06515,3.24645,0.212714,23,32765
4.99151,3.1763,0.205738,20,32765
5.08664,3.21309,0.206311,21,32765
5.038,3.15928,0.200167,22,32765
5.11641,3.18487,0.199578,23,32765
5.12702,3.16796,0.196473,22,32765
5.12899,3.14587,0.193197,23,32765
5.13098,3.12366,0.189465,19,32765
0,0,0,0,32765
5.72628,3.43374,0.203935,13,32765
5.70339,3.39428,0.199382,13,32765
5.71468,3.37543,0.196296,13,32765
5.71736,3.35136,0.192531,13,32765
5.75438,3.3476,0.190437,13,32765
5.76555,3.3285,0.187254,13,32765
5.81156,3.32886,0.185614,13,32765
5.84014,3.31932,0.182592,13,32765
5.80776,3.27522,0.178161,13,32765
5.86235,3.28029,0.175981,14,32765
5.85591,3.25091,0.172743,14,32765
5.87545,3.23641,0.169966,15,32765
5.81622,3.17823,0.165462,12,32765
5.67736,3.07803,0.157702,13,32765
5.75822,3.09672,0.157443,13,32765
5.76857,3.07753,0.155031,13,32765
5.74345,3.0397,0.151603,13,32765
5.83343,3.06212,0.15039,13,32765
5.98574,3.11627,0.149421,13,32765
6.04931,3.12412,0.147828,13,32765
6.02433,3.08536,0.144655,13,32765
6.07047,3.08307,0.142164,13,32765
6.08099,3.06239,0.139555,13,32765
6.09136,3.04182,0.13709,13,32765
6.13733,3.03929,0.135621,13,32765
6.14751,3.01876,0.132947,12,32765
6.1576,2.99825,0.130498,13,32765
6.13174,2.96004,0.126728,13,32765
6.25899,2.99538,0.127791,13,32765
6.23309,2.95681,0.125951,13,32765
6.27923,2.95292,0.122832,13,32765
6.28914,2.93187,0.120298,13,32765
6.26263,2.8941,0.116552,13,32765
6.32677,2.89831,0.115544,13,32765
6.35465,2.8855,0.11275,13,32765
6.32786,2.84778,0.109435,13,32765
6.37394,2.84282,0.107923,13,32765
6.3469,2.80524,0.1049,13,32765
6.41134,2.80788,0.102668,13,32765
6.42075,2.7864,0.0999593,13,32765
6.44844,2.77281,0.0973777,13,32765
6.45767,2.75135,0.0946774,13,32765
6.46686,2.72976,0.0920852,13,32765
6.50356,2.71996,0.0894726,13,32765
6.48494,2.68673,0.0859354,13,32765
6.50315,2.66889,0.0831433,13,32765
6.54904,2.66241,0.0810664,13,32765
6.55782,2.6408,0.0780398,13,32765
6.52023,2.60028,0.0745238,13,32765
6.58455,2.60096,0.0715839,13,32765
6.62121,2.58978,0.0689483,13,32765
6.62969,2.56806,0.0664496,12,32765
6.63815,2.54617,0.0634997,13,32765
6.69332,2.54193,0.0608375,13,32765
6.69214,2.51684,0.0573557,13,32765
6.78465,2.52649,0.0552195,13,32765
6.76455,2.49444,0.0522973,13,32765
6.7632,2.46916,0.0487578,13,32765
6.78068,2.45038,0.045676,13,32765
6.76985,2.42145,0.0421756,13,32765
6.8345,2.4188,0.0389334,13,32765
6.88016,2.40959,0.0364427,13,32765
6.86908,2.38068,0.0321253,13,32765
6.91463,2.37132,0.0293843,13,32765
6.9222,2.34917,0.0257483,13,32765
6.94867,2.33331,0.0221008,13,32765
6.93707,2.30497,0.0181759,13,32765
6.99195,2.29827,0.0145761,13,32765
6.9992,2.27612,0.0102671,13,32765
7.06351,2.27226,0.00623071,13,32765
6.92772,2.20445,0.0017405,13,32765
6.61977,2.08381,-0.00209067,12,32765
6.54024,2.03658,-0.00648179,12,32765
4.82902,3.55329,0.233912,12,32765
4.73629,3.46039,0.223789,14,32765
4.75607,3.45052,0.219297,23,32765
4.79201,3.45229,0.215471,24,32765
4.77097,3.41334,0.209532,25,32765
4.7985,3.40943,0.2057,24,32765
4.86699,3.43401,0.203983,26,32765
4.85385,3.40079,0.199104,24,32765
4.81644,3.34986,0.192967,24,32765
4.89376,3.37891,0.19123,24,32765
4.89692,3.35693,0.186614,23,32765
4.90806,3.34082,0.182972,18,32765
4.89406,3.30823,0.178681,15,32765
5.05435,3.39253,0.180082,18,32765
4.99083,3.32588,0.17375,23,32765
4.99367,3.30371,0.169834,24,32765
4.99649,3.28145,0.165982,23,32765
5.00741,3.26495,0.162342,25,32765
5.0267,3.2538,0.158908,24,32765
5.12155,3.29132,0.158235,26,32765
5.04809,3.22083,0.152148,24,32765
5.06731,3.20936,0.149504,25,32765
5.09484,3.20337,0.146209,25,32765
5.114,3.19178,0.143166,26,32765
5.17562,3.20641,0.14145,25,32765
5.15217,3.1684,0.137551,27,32765
5.17982,3.16169,0.134555,28,32765
5.15623,3.12364,0.130885,23,32765
5.38096,3.23512,0.132946,17,32765
5.70943,3.40676,0.137436,15,32765
5.73795,3.39803,0.134745,15,32765
5.73209,3.36876,0.130855,15,32765
5.76052,3.35989,0.128273,15,32765
5.77172,3.34073,0.12508,15,32765
5.80042,3.3311,0.122689,15,32765
5.81161,3.31167,0.119123,15,32765
5.83144,3.29709,0.11621,15,32765
5.81631,3.26294,0.112194,14,32765
5.85351,3.25797,0.10998,15,32765
5.89056,3.2531,0.107423,15,32765
5.91034,3.23797,0.105059,18,32765
5.85958,3.18499,0.100331,15,32765
5.73835,3.09396,0.0958635,14,32765
5.7046,3.0512,0.0927366,13,32765
5.75007,3.05099,0.0908216,14,32765
5.72502,3.01289,0.0870064,14,32765
5.89481,3.07677,0.0848704,14,32765
6.02038,3.11712,0.083617,14,32765
6.03098,3.09663,0.0813029,15,32765
6.07713,3.09431,0.0784273,14,32765
6.08769,3.07355,0.0758091,14,32765
6.11598,3.06187,0.0735496,14,32765
6.15305,3.0548,0.0715865,14,32765
6.19916,3.05183,0.0693007,14,32765
6.20936,3.03109,0.0668255,14,32765
6.21962,3.01004,0.063768,14,32765
6.19375,2.97162,0.0620505,14,32765
6.24906,2.97184,0.0613902,15,32765
6.2681,2.95509,0.057631,14,32765
6.28707,2.93825,0.0551746,15,32765
6.29688,2.91722,0.0521001,15,32765
6.32473,2.90462,0.0502234,15,32765
6.30711,2.87107,0.0468984,15,32765
6.36231,2.87044,0.044548,15,32765
6.36282,2.84494,0.042339,15,32765
6.3998,2.83567,0.040091,15,32765
6.40937,2.814,0.0369481,14,32765
6.40962,2.78849,0.0341855,14,32765
6.42813,2.77095,0.0313708,15,32765
6.46493,2.76129,0.0287966,15,32765
6.45574,2.73182,0.0261216,15,32765
6.49242,2.72204,0.0232272,14,32765
6.54769,2.71945,0.0201998,14,32765
6.55675,2.69755,0.0172561,15,32765
6.54716,2.66823,0.0146529,15,32765
6.57449,2.65407,0.011655,15,32765
6.62052,2.64681,0.0087059,15,32765
6.62917,2.62506,0.00509992,15,32765
6.60073,2.58815,0.00213637,15,32765
6.66513,2.58816,-0.000362543,15,32765
6.68298,2.56969,-0.00333782,15,32765
6.71016,2.55462,-0.00646861,15,32765
6.7558,2.54706,-0.0099385,15,32765
6.72658,2.51105,-0.0127219,15,32765
6.77209,2.50338,-0.0154937,15,32765
6.78015,2.48146,-0.018974,15,32765
6.80706,2.46598,-0.022193,14,32765
6.8151,2.44365,-0.0255939,14,32765
6.84209,2.42746,-0.0292673,15,32765
6.88776,2.4182,-0.0321417,15,32765
6.87668,2.38921,-0.0362802,15,32765
6.90333,2.37329,-0.0392973,15,32765
6.91088,2.35113,-0.0429317,15,32765
6.91839,2.32889,-0.0466377,15,32765
6.99214,2.32902,-0.0509844,14,32765
6.96158,2.29397,-0.0544199,14,32765
6.98781,2.27806,-0.0588744,14,32765
7.03305,2.26809,-0.0633013,15,32765
7.00205,2.23365,-0.0673737,14,32765
6.9708,2.19978,-0.0709621,14,32765
6.67208,2.08283,-0.0723666,14,32765
5.09762,3.74871,0.174341,12,32765
4.85977,3.54908,0.164573,12,32765
4.734,3.43317,0.158338,16,32765
4.81836,3.4701,0.159393,19,32765
4.83014,3.45377,0.157678,19,32765
4.7519,3.37415,0.153016,20,32765
4.81189,3.39331,0.152455,18,32765
4.80665,3.36608,0.150149,21,32765
4.81776,3.35022,0.148644,22,32765
4.85381,3.35098,0.146473,20,32765
4.90629,3.36298,0.145614,21,32765
4.84317,3.29595,0.141668,20,32765
4.93705,3.33571,0.141853,23,32765
4.95642,3.32494,0.13964,21,32765
4.93435,3.28611,0.136366,21,32765
4.91179,3.24788,0.133026,22,32765
4.95579,3.25385,0.132329,21,32765
5.02503,3.27594,0.13159,23,32765
4.95185,3.20518,0.126649,22,32765
5.06352,3.25345,0.127257,23,32765
5.0069,3.19368,0.122435,20,32765
5.11059,3.23563,0.123004,23,32765
5.08777,3.19695,0.119286,25,32765
5.12401,3.1957,0.1169,26,32765
5.07537,3.14147,0.112689,24,32765
5.23912,3.21888,0.113715,23,32765
5.08761,3.10262,0.107737,23,32765
5.21764,3.15828,0.107479,24,32765
0,0,0,0,32765
5.70252,3.39977,0.111328,14,32765
5.71383,3.38081,0.108609,14,32765
5.75971,3.38184,0.106079,14,32765
5.77106,3.36253,0.10337,13,32765
5.78229,3.34328,0.099902,13,32765
5.7763,3.31369,0.0967611,13,32765
5.82234,3.31381,0.0946951,13,32765
5.81571,3.28507,0.0909345,13,32765
5.87036,3.28997,0.0883687,13,32765
5.87246,3.26575,0.0862844,14,32765
5.86596,3.23632,0.0821938,14,32765
5.86819,3.21158,0.0786625,15,32765
5.82629,3.16317,0.0747957,12,32765
5.75778,3.10073,0.0708099,13,32765
5.73276,3.06282,0.0679969,13,32765
5.74287,3.0439,0.0639443,12,32765
5.78838,3.04341,0.0623274,13,32765
5.94041,3.09805,0.0600831,13,32765
5.99525,3.10103,0.055522,13,32765
6.059,3.10833,0.0536981,13,32765
6.03379,3.06982,0.0504281,13,32765
6.07969,3.06777,0.0467445,13,32765
6.0899,3.04751,0.0444583,13,32765
6.10021,3.02686,0.0411987,13,32765
6.11044,3.00618,0.0382986,13,32765
6.15663,3.00286,0.0354506,13,32765
6.19389,2.99482,0.0331871,13,32765
6.17678,2.96124,0.0295478,13,32765
6.18695,2.93996,0.0285643,13,32765
6.24201,2.94052,0.0257379,13,32765
6.2337,2.91115,0.0227035,13,32765
6.26168,2.89844,0.0202183,13,32765
6.27125,2.8777,0.0172475,13,32765
6.31745,2.87284,0.0144363,13,32765
6.34514,2.86018,0.011427,13,32765
