x, y, z, intensity, ring
6.19662,-4.33435,0.346614,14,32765
6.16605,-4.34304,0.346937,14,32765
6.16796,-4.37485,0.349093,14,32765
6.15407,-4.39429,0.350045,14,32765
6.15653,-4.4251,0.351781,14,32765
6.14223,-4.44489,0.352304,14,32765
6.12732,-4.46534,0.353283,15,32765
6.11287,-4.48513,0.352889,14,32765
6.84978,-2.1162,0.105612,21,32765
6.8333,-2.13531,0.109821,20,32765
6.84542,-2.16328,0.113532,21,32765
6.80018,-2.17343,0.11571,20,32765
6.83096,-2.20817,0.119698,20,32765
6.80464,-2.22435,0.121659,21,32765
6.77828,-2.24034,0.124158,20,32765
6.73299,-2.24965,0.126362,20,32765
6.76332,-2.28477,0.130095,21,32765
6.76519,-2.31019,0.132871,21,32765
6.76687,-2.33601,0.13496,19,32765
6.74021,-2.3517,0.136742,19,32765
6.73234,-2.37396,0.139488,20,32765
6.75275,-2.406,0.142709,19,32765
6.75418,-2.43155,0.145021,19,32765
6.76483,-2.46079,0.146853,19,32765
6.72842,-2.47285,0.149274,19,32765
6.7389,-2.50203,0.152051,19,32765
6.71177,-2.51741,0.153738,17,32765
6.70332,-2.53972,0.155703,18,32765
6.69468,-2.5623,0.157413,18,32765
6.71395,-2.59559,0.160525,18,32765
6.67728,-2.60702,0.161906,18,32765
6.6964,-2.64032,0.164249,19,32765
6.65044,-2.64761,0.165783,17,32765
6.69718,-2.69215,0.168766,18,32765
6.66961,-2.7069,0.17012,18,32765
6.62353,-2.71386,0.171389,17,32765
6.64205,-2.74751,0.17443,16,32765
6.63277,-2.76974,0.176245,16,32765
6.63251,-2.79611,0.177751,18,32765
6.61381,-2.81448,0.179679,17,32765
6.61351,-2.8405,0.181814,18,32765
6.57648,-2.85051,0.182755,18,32765
6.56689,-2.87238,0.185175,18,32765
6.63955,-2.93059,0.188658,18,32765
6.6297,-2.95269,0.190492,18,32765
6.58317,-2.95868,0.191037,18,32765
6.60944,-2.9975,0.194662,18,32765
6.56291,-3.00311,0.194951,18,32765
6.57978,-3.03804,0.198266,17,32765
6.53332,-3.04308,0.19882,17,32765
6.5593,-3.08173,0.20259,17,32765
6.5491,-3.10326,0.203783,17,32765
6.53865,-3.12509,0.205898,17,32765
6.52799,-3.14716,0.208052,17,32765
6.51721,-3.16927,0.210178,17,32765
6.52432,-3.20024,0.211159,17,32765
6.51348,-3.22208,0.21379,17,32765
6.53852,-3.26142,0.21695,17,32765
6.5096,-3.27439,0.218105,17,32765
6.49834,-3.29651,0.220486,17,32765
6.46928,-3.30949,0.220502,16,32765
6.47582,-3.34033,0.223586,17,32765
6.4468,-3.35277,0.225035,16,32765
6.45331,-3.38332,0.228149,16,32765
6.4419,-3.40488,0.229811,16,32765
6.44797,-3.43597,0.232076,16,32765
6.43644,-3.45741,0.23384,16,32765
6.43348,-3.48368,0.238085,15,32765
6.40429,-3.49542,0.238833,15,32765
6.41882,-3.53117,0.241838,15,32765
6.39831,-3.54751,0.243381,15,32765
6.42138,-3.5881,0.246906,15,32765
6.35712,-3.57992,0.247466,14,32765
6.38873,-3.62531,0.252412,15,32765
6.3505,-3.6317,0.253476,15,32765
6.36441,-3.66756,0.256585,15,32765
6.40406,-3.71857,0.261315,14,32765
6.33985,-3.70948,0.261722,14,32765
6.32727,-3.73065,0.265192,14,32765
6.33167,-3.76232,0.267857,15,32765
6.31903,-3.78332,0.270674,14,32765
6.30632,-3.80419,0.274452,14,32765
6.32809,-3.84525,0.278339,14,32765
6.31546,-3.86576,0.281151,14,32765
6.30265,-3.88638,0.284199,14,32765
6.28988,-3.9068,0.287173,14,32765
6.24302,-3.90621,0.288439,14,32765
6.26395,-3.94779,0.293323,14,32765
6.28455,-3.98975,0.298083,13,32765
6.27116,-4.01053,0.301241,13,32765
6.22427,-4.00932,0.303147,14,32765
6.24433,-4.05171,0.307441,13,32765
6.23089,-4.07204,0.311387,14,32765
6.29234,-4.14201,0.318988,13,32765
6.22037,-4.12382,0.319373,13,32765
6.26502,-4.1827,0.325814,13,32765
6.25121,-4.20297,0.330128,13,32765
6.2373,-4.22331,0.333766,13,32765
6.17373,-4.2099,0.33493,13,32765
6.24186,-4.28691,0.343367,13,32765
6.13735,-4.24457,0.342606,13,32765
6.18077,-4.30433,0.349889,13,32765
6.19941,-4.34706,0.356058,13,32765
6.1523,-4.34425,0.358156,13,32765
6.12969,-4.35849,0.362363,13,32765
6.15598,-4.40723,0.369677,13,32765
6.15787,-4.43844,0.375389,13,32765
6.15956,-4.46974,0.381577,13,32765
6.14465,-4.48973,0.387377,13,32765
6.84908,-2.12075,0.0381309,27,32765
6.84216,-2.14288,0.0424958,27,32765
6.8352,-2.1649,0.0458988,28,32765
6.84711,-2.19335,0.0488599,28,32765
6.80174,-2.20367,0.0519172,26,32765
6.80395,-2.22912,0.0542874,26,32765
6.81555,-2.25773,0.0572974,27,32765
6.77022,-2.26718,0.0598974,29,32765
6.78156,-2.29609,0.0630989,30,32765
6.79287,-2.32486,0.0658831,29,32765
6.77559,-2.34429,0.0677004,31,32765
6.76779,-2.36665,0.0698724,29,32765
6.77874,-2.39572,0.0728362,28,32765
6.76142,-2.41453,0.0753774,27,32765
6.74401,-2.43337,0.0773866,26,32765
6.75465,-2.46265,0.079032,25,32765
6.75577,-2.48852,0.082191,24,32765
6.7381,-2.5074,0.0844421,25,32765
6.72967,-2.52985,0.0865613,25,32765
6.73052,-2.55581,0.088659,25,32765
6.72183,-2.57855,0.0903811,25,32765
6.69443,-2.59394,0.0925809,24,32765
6.67639,-2.61262,0.0945055,22,32765
6.67688,-2.63863,0.0963023,24,32765
6.6588,-2.65699,0.0986222,23,32765
6.67767,-2.69046,0.100629,24,32765
6.66864,-2.71271,0.102455,24,32765
6.65029,-2.73108,0.104541,22,32765
6.64104,-2.7534,0.106868,20,32765
6.63173,-2.77568,0.108688,23,32765
6.64986,-2.8099,0.11041,24,32765
6.63112,-2.82837,0.112442,23,32765
6.63077,-2.8545,0.114494,25,32765
6.6212,-2.87655,0.116209,25,32765
6.62985,-2.90665,0.118979,24,32765
6.62007,-2.9288,0.120139,24,32765
6.61935,-2.95495,0.122141,24,32765
6.60016,-2.97325,0.123577,24,32765
6.59907,-2.9998,0.126316,24,32765
6.57979,-3.0179,0.127512,23,32765
6.56939,-3.04036,0.130019,23,32765
6.5501,-3.05808,0.131496,23,32765
6.56698,-3.09261,0.134718,23,32765
6.55674,-3.11421,0.135918,23,32765
6.54624,-3.13612,0.138041,23,32765
6.52654,-3.15392,0.14001,22,32765
6.52472,-3.18046,0.142338,22,32765
6.54074,-3.21594,0.143334,21,32765
6.49401,-3.22012,0.145176,21,32765
6.51905,-3.25948,0.147961,21,32765
6.52585,-3.29043,0.150126,21,32765
6.51453,-3.31266,0.152519,21,32765
6.50318,-3.33485,0.153149,21,32765
6.483,-3.3521,0.155426,20,32765
6.48939,-3.38308,0.157934,20,32765
6.4604,-3.39524,0.160007,19,32765
6.44894,-3.41688,0.161676,19,32765
6.45495,-3.44807,0.163762,19,32765
6.43457,-3.46484,0.165308,19,32765
6.43159,-3.49117,0.169465,19,32765
6.44623,-3.52693,0.171573,19,32765
6.41686,-3.53876,0.173136,18,32765
6.40506,-3.55998,0.175018,18,32765
6.39319,-3.58115,0.177209,18,32765
6.39861,-3.61218,0.18029,17,32765
6.36928,-3.62321,0.183047,18,32765
6.35708,-3.64448,0.185149,18,32765
6.36227,-3.67544,0.187732,17,32765
6.35868,-3.70142,0.19061,18,32765
6.3549,-3.72757,0.193405,17,32765
6.34227,-3.74884,0.196891,17,32765
6.32941,-3.77041,0.198841,17,32765
6.32531,-3.79659,0.201937,17,32765
6.33822,-3.83306,0.206563,17,32765
6.30866,-3.84311,0.208402,17,32765
6.31307,-3.87406,0.211785,16,32765
6.28324,-3.88421,0.214259,17,32765
6.27047,-3.90463,0.217231,16,32765
6.24903,-3.91991,0.219764,15,32765
6.23611,-3.94025,0.223075,16,32765
6.26515,-3.98759,0.227761,16,32765
6.2686,-4.01914,0.231539,16,32765
6.26369,-4.04505,0.235403,15,32765
6.22496,-4.04951,0.237114,16,32765
6.23662,-4.08627,0.242029,15,32765
6.20624,-4.09586,0.245175,15,32765
6.20936,-4.12715,0.249182,15,32765
6.22075,-4.1639,0.253616,15,32765
6.18216,-4.16731,0.256874,15,32765
6.20971,-4.21554,0.262227,15,32765
6.1957,-4.23586,0.266068,15,32765
6.18141,-4.25645,0.269998,15,32765
6.16739,-4.27647,0.274248,15,32765
6.15333,-4.29642,0.278312,15,32765
6.13929,-4.31617,0.282591,15,32765
6.15756,-4.35936,0.288085,15,32765
6.09423,-4.34466,0.290459,15,32765
6.14491,-4.41088,0.29847,15,32765
6.1306,-4.43043,0.303194,15,32765
6.14849,-4.47348,0.309995,14,32765
6.11747,-4.48168,0.314964,15,32765
6.83067,-2.11191,0.0656551,21,32765
6.81418,-2.13132,0.0640536,21,32765
6.8167,-2.15664,0.0629218,21,32765
6.82877,-2.1847,0.06167,22,32765
6.80265,-2.20064,0.0604098,21,32765
6.8145,-2.22886,0.0606485,22,32765
6.78825,-2.24469,0.0600169,22,32765
6.76193,-2.26045,0.0594153,23,32765
6.81109,-2.30255,0.0588865,22,32765
6.76539,-2.31267,0.0591633,22,32765
6.74814,-2.3321,0.0591148,23,32765
6.74997,-2.3573,0.0594554,22,32765
6.73295,-2.3756,0.0589555,21,32765
6.76285,-2.41095,0.0596029,21,32765
6.75487,-2.43321,0.0601131,20,32765
6.69969,-2.43873,0.0606261,19,32765
6.71961,-2.47158,0.0607196,20,32765
6.70204,-2.49027,0.0615857,18,32765
6.72183,-2.52298,0.0630055,19,32765
6.71351,-2.54505,0.062855,19,32765
6.70501,-2.56732,0.064403,19,32765
6.66846,-2.57874,0.0648297,19,32765
6.70653,-2.61879,0.0665804,18,32765
6.69783,-2.64093,0.0674397,18,32765
6.66119,-2.65194,0.0685134,18,32765
6.68017,-2.68523,0.0700662,18,32765
6.64334,-2.69629,0.0709361,19,32765
6.63434,-2.71832,0.0720857,17,32765
6.61586,-2.73689,0.0736275,16,32765
6.64353,-2.7745,0.0752314,18,32765
6.63416,-2.79678,0.0769209,19,32765
6.59724,-2.80699,0.0782847,18,32765
6.61548,-2.8406,0.0798706,19,32765
6.59673,-2.85877,0.0812508,18,32765
6.59613,-2.88512,0.084207,18,32765
6.60464,-2.91544,0.0860955,19,32765
6.59479,-2.93763,0.0866633,19,32765
6.58487,-2.95974,0.0889164,19,32765
6.57485,-2.98188,0.090505,18,32765
6.5649,-3.00366,0.0926727,18,32765
6.55473,-3.02573,0.0943283,18,32765
6.54459,-3.04754,0.0965314,17,32765
6.53427,-3.06955,0.0979958,17,32765
6.50581,-3.08291,0.100362,17,32765
6.5134,-3.11342,0.102861,18,32765
6.47585,-3.12223,0.105257,16,32765
6.5284,-3.17428,0.107558,18,32765
6.50863,-3.19196,0.107782,17,32765
6.53362,-3.23165,0.110779,17,32765
6.52261,-3.25377,0.112664,17,32765
6.49365,-3.26682,0.115237,16,32765
6.50034,-3.29785,0.117844,17,32765
6.4713,-3.3107,0.119852,17,32765
6.46025,-3.3321,0.12301,16,32765
6.44906,-3.35363,0.125278,16,32765
6.45538,-3.38464,0.127859,16,32765
6.47927,-3.425,0.1318,15,32765
6.44975,-3.43782,0.134982,16,32765
6.4205,-3.44996,0.137807,16,32765
6.41774,-3.47611,0.138986,15,32765
6.40614,-3.49734,0.141417,15,32765
6.41188,-3.52835,0.144514,15,32765
6.40888,-3.55438,0.146898,15,32765
6.3708,-3.56099,0.149013,15,32765
6.37625,-3.59203,0.152187,14,32765
6.39028,-3.62805,0.155209,15,32765
6.37792,-3.64965,0.157275,15,32765
6.40037,-3.69075,0.16053,15,32765
6.35346,-3.69185,0.162222,14,32765
6.32384,-3.70282,0.1645,14,32765
6.34588,-3.74416,0.167391,14,32765
6.36768,-3.78574,0.170231,14,32765
6.30364,-3.77586,0.171746,14,32765
6.30814,-3.8071,0.174094,14,32765
6.36375,-3.86954,0.178282,14,32765
6.31683,-3.86958,0.179116,14,32765
6.33788,-3.91158,0.182349,14,32765
6.291,-3.91122,0.183679,13,32765
6.31191,-3.95312,0.187365,14,32765
6.29876,-3.97395,0.189282,14,32765
6.28564,-3.99458,0.19123,14,32765
6.20498,-3.97224,0.191019,13,32765
6.22564,-4.01395,0.1941,14,32765
6.28813,-4.08288,0.198828,13,32765
6.2331,-4.07571,0.198934,13,32765
6.24488,-4.1123,0.202,13,32765
6.20634,-4.11617,0.202649,14,32765
6.26755,-4.18644,0.207533,13,32765
6.2535,-4.20734,0.209004,14,32765
6.18986,-4.1943,0.209471,13,32765
6.27516,-4.28209,0.214766,13,32765
6.27765,-4.31376,0.216984,13,32765
6.24725,-4.32257,0.217374,13,32765
6.21684,-4.33122,0.218787,13,32765
6.20278,-4.35126,0.220012,13,32765
6.15603,-4.34815,0.220113,13,32765
6.18259,-4.39703,0.223123,13,32765
6.16026,-4.41106,0.223995,13,32765
6.18672,-4.45982,0.226742,13,32765
6.14826,-4.4618,0.2263,13,32765
6.15023,-4.49307,0.226756,13,32765
6.84867,-2.1224,-0.00163463,28,32765
6.82257,-2.13892,-0.00313771,28,32765
6.83458,-2.16735,-0.00436717,29,32765
6.83706,-2.19249,-0.00579877,27,32765
6.81088,-2.20849,-0.00686814,27,32765
6.80368,-2.23057,-0.00679451,24,32765
6.7869,-2.24955,-0.00724319,26,32765
6.78899,-2.27488,-0.00768462,30,32765
6.80017,-2.30433,-0.00872881,29,32765
6.77339,-2.32093,-0.00809491,30,32765
6.78444,-2.35025,-0.00807871,30,32765
6.77676,-2.37232,-0.00781552,30,32765
6.78796,-2.40075,-0.00825306,30,32765
6.76125,-2.41617,-0.00790859,29,32765
6.77204,-2.44527,-0.00741451,30,32765
6.73561,-2.45772,-0.00644241,28,32765
6.74606,-2.48731,-0.00661778,26,32765
6.71905,-2.50264,-0.00564136,25,32765
6.72007,-2.52844,-0.00448342,26,32765
6.71171,-2.55056,-0.00462897,26,32765
6.72186,-2.58004,-0.00308515,27,32765
6.72256,-2.60601,-0.002383,25,32765
6.67671,-2.61352,-0.00107325,23,32765
6.69592,-2.64664,-0.00021364,24,32765
6.7057,-2.6762,0.00115458,24,32765
6.6782,-2.69104,0.00242221,24,32765
6.69692,-2.72472,0.00360886,25,32765
6.63232,-2.72419,0.00473341,23,32765
6.66924,-2.76579,0.0064274,21,32765
6.64144,-2.7805,0.00760717,24,32765
6.63205,-2.80281,0.00930162,25,32765
6.62271,-2.82482,0.0109978,24,32765
6.63169,-2.85463,0.0122953,24,32765
6.62206,-2.87689,0.0137978,25,32765
6.63056,-2.90741,0.0166998,25,32765
6.62068,-2.92982,0.0183642,24,32765
6.61077,-2.95212,0.0189392,24,32765
6.6008,-2.97433,0.0212036,24,32765
6.59072,-2.99658,0.022802,24,32765
6.58072,-3.01846,0.0249808,23,32765
6.57049,-3.04064,0.0266464,23,32765
6.5603,-3.06255,0.0288608,22,32765
6.54088,-3.08041,0.030293,22,32765
6.55755,-3.11528,0.0330833,23,32765
6.54699,-3.1374,0.0353218,23,32765
6.53638,-3.15941,0.0381777,22,32765
6.5618,-3.19863,0.0396774,22,32765
6.50603,-3.19882,0.0397833,21,32765
6.50411,-3.22527,0.0422362,22,32765
6.51994,-3.26076,0.0443025,21,32765
6.50883,-3.28284,0.0471979,21,32765
6.51545,-3.31399,0.0496292,21,32765
6.49526,-3.3315,0.0519078,20,32765
6.47526,-3.34844,0.0550092,21,32765
6.49061,-3.38394,0.0575246,19,32765
6.46142,-3.39655,0.0596124,19,32765
6.46758,-3.42766,0.0630168,20,32765
6.43807,-3.44048,0.0663873,19,32765
6.44404,-3.47158,0.0697823,19,32765
6.43239,-3.4931,0.0707811,19,32765
6.42073,-3.51444,0.0732251,19,32765
6.41765,-3.54074,0.0760448,18,32765
6.38838,-3.55227,0.0780237,18,32765
6.37649,-3.5735,0.0807496,18,32765
6.3993,-3.61447,0.0839748,18,32765
6.39586,-3.64076,0.0864966,18,32765
6.37477,-3.65745,0.0884516,18,32765
6.36255,-3.67862,0.0908439,17,32765
6.32433,-3.68464,0.0930304,17,32765
6.33786,-3.72086,0.0961442,17,32765
6.32538,-3.74198,0.0981389,17,32765
6.31281,-3.7631,0.100062,17,32765
6.31745,-3.79422,0.103242,17,32765
6.30475,-3.81523,0.105129,17,32765
6.27492,-3.82575,0.107118,17,32765
6.33039,-3.88831,0.110087,16,32765
6.24932,-3.86731,0.111144,16,32765
6.29594,-3.92485,0.114522,15,32765
6.27444,-3.94028,0.117054,16,32765
6.26977,-3.96639,0.119129,16,32765
6.29882,-4.01384,0.121892,16,32765
6.25178,-4.01311,0.123104,16,32765
6.25548,-4.04422,0.125498,16,32765
6.25078,-4.06976,0.128031,15,32765
6.24598,-4.09535,0.129646,16,32765
6.19092,-4.088,0.131032,15,32765
6.21905,-4.136,0.133386,16,32765
6.19708,-4.15084,0.135624,15,32765
6.20799,-4.18833,0.13764,15,32765
6.24367,-4.24255,0.1409,15,32765
6.15545,-4.21214,0.141127,15,32765
6.18284,-4.26051,0.143709,15,32765
6.1526,-4.26905,0.14428,15,32765
6.19612,-4.32896,0.147616,15,32765
6.20658,-4.36625,0.149437,15,32765
6.15979,-4.36315,0.149921,15,32765
6.1781,-4.40635,0.152274,15,32765
6.16384,-4.42624,0.15345,15,32765
6.14969,-4.44584,0.154722,15,32765
6.15168,-4.47713,0.155588,14,32765
6.14548,-4.50258,0.155663,15,32765
6.83369,-2.10074,-0.100148,22,32765
6.80769,-2.11731,-0.0958992,22,32765
6.8008,-2.13948,-0.0925565,22,32765
6.80333,-2.16478,-0.0893191,21,32765
6.81521,-2.19343,-0.0858399,21,32765
6.78905,-2.20943,-0.0826863,20,32765
6.79133,-2.23469,-0.0803274,21,32765
6.80309,-2.26294,-0.0768488,21,32765
6.75774,-2.27253,-0.0743152,22,32765
6.76906,-2.30155,-0.0717,22,32765
6.75187,-2.32103,-0.0684788,21,32765
6.79127,-2.36016,-0.0659807,21,32765
6.7456,-2.36966,-0.0642725,22,32765
6.72829,-2.38872,-0.0609467,20,32765
6.72035,-2.41102,-0.05906,21,32765
6.71244,-2.43302,-0.0556785,20,32765
6.76073,-2.47581,-0.0543334,20,32765
6.73384,-2.491,-0.0520858,20,32765
6.72563,-2.51314,-0.0497741,21,32765
6.67986,-2.52128,-0.0470111,20,32765
6.71816,-2.56132,-0.0448497,18,32765
6.69075,-2.577,-0.0428008,18,32765
6.68193,-2.59983,-0.0396877,19,32765
6.67304,-2.6226,-0.0379777,18,32765
6.66421,-2.64497,-0.0358559,19,32765
6.65537,-2.66717,-0.0335124,18,32765
6.64634,-2.68962,-0.0313683,18,32765
6.65593,-2.71915,-0.0297993,17,32765
6.62833,-2.73374,-0.0279225,18,32765
6.63759,-2.76366,-0.025495,19,32765
6.65589,-2.79767,-0.0234279,19,32765
6.61878,-2.80844,-0.0219287,18,32765
6.63689,-2.84249,-0.0192722,18,32765
6.59048,-2.84916,-0.0169464,19,32765
6.59923,-2.87922,-0.015065,19,32765
6.58943,-2.9016,-0.0139563,18,32765
6.5796,-2.92383,-0.0112957,18,32765
6.56988,-2.94561,-0.00925902,19,32765
6.57826,-2.97572,-0.00720812,18,32765
6.56811,-2.99804,-0.00485436,17,32765
6.61234,-3.04555,-0.00331134,17,32765
6.5475,-3.04281,-0.00114901,18,32765
6.53724,-3.06479,0.000691427,17,32765
6.56325,-3.10344,0.00348291,18,32765
6.56183,-3.12973,0.00400169,17,32765
6.54241,-3.14713,0.00613102,18,32765
6.48686,-3.14718,0.00879551,17,32765
6.53004,-3.19554,0.00849882,17,32765
6.53725,-3.22621,0.010221,17,32765
6.52635,-3.24818,0.013653,17,32765
6.51553,-3.26983,0.0148874,16,32765
6.46892,-3.27342,0.0167567,16,32765
6.47563,-3.30436,0.0191713,16,32765
6.4821,-3.33558,0.0211735,16,32765
6.47062,-3.35777,0.0232105,16,32765
6.4681,-3.38422,0.0261812,15,32765
6.44787,-3.40122,0.0286828,16,32765
6.4541,-3.43216,0.0309113,16,32765
6.42453,-3.44504,0.0348257,16,32765
6.41307,-3.46631,0.036753,15,32765
6.41893,-3.49741,0.0395849,15,32765
6.41596,-3.52364,0.0418379,15,32765
6.38659,-3.53547,0.0440943,15,32765
6.35734,-3.5469,0.0461734,15,32765
6.38038,-3.58759,0.0488314,15,32765
6.37728,-3.61339,0.0514181,15,32765
6.35645,-3.62974,0.053566,14,32765
6.34437,-3.65077,0.056656,15,32765
6.34084,-3.67684,0.059419,14,32765
6.34588,-3.70789,0.0621055,15,32765
6.3506,-3.73932,0.0648038,14,32765
6.33803,-3.76053,0.0680793,15,32765
6.30833,-3.77127,0.0706389,14,32765
6.31288,-3.8025,0.0737705,14,32765
6.30031,-3.82322,0.0768542,14,32765
6.28765,-3.84396,0.0798301,14,32765
6.30903,-3.88553,0.0832509,14,32765
6.3302,-3.92728,0.0870129,14,32765
6.28346,-3.92659,0.0903217,14,32765
6.27055,-3.94709,0.0935605,14,32765
6.31674,-4.00495,0.0978528,13,32765
6.27806,-4.00979,0.100124,14,32765
6.26489,-4.03024,0.104024,14,32765
6.25162,-4.05071,0.107632,14,32765
6.23826,-4.07114,0.111285,14,32765
6.24984,-4.10811,0.115475,13,32765
6.25281,-4.1398,0.119893,14,32765
6.2224,-4.14935,0.122795,14,32765
6.22525,-4.18092,0.127084,13,32765
6.24464,-4.22359,0.131767,13,32765
6.15656,-4.19299,0.134319,13,32765
6.25004,-4.28643,0.140852,13,32765
6.20318,-4.28386,0.144143,13,32765
6.15636,-4.28104,0.148049,13,32765
6.14222,-4.30114,0.152816,13,32765
6.1526,-4.33838,0.157579,13,32765
6.19524,-4.3991,0.164101,13,32765
6.1808,-4.41917,0.169249,13,32765
6.16628,-4.43922,0.174366,13,32765
6.13571,-4.44716,0.179503,13,32765
6.1536,-4.49031,0.186238,13,32765
6.84049,-2.10837,-0.167611,27,32765
6.81449,-2.125,-0.163166,27,32765
6.8362,-2.15628,-0.160488,28,32765
6.82916,-2.17871,-0.157103,28,32765
6.81246,-2.1983,-0.153152,27,32765
6.83383,-2.22983,-0.150856,28,32765
6.79807,-2.24277,-0.147745,27,32765
6.79085,-2.26479,-0.144044,27,32765
6.79287,-2.29032,-0.142124,28,32765
6.77575,-2.30985,-0.139095,27,32765
6.77745,-2.33592,-0.136151,28,32765
6.76015,-2.35549,-0.132993,27,32765
6.75222,-2.37819,-0.131645,27,32765
6.782,-2.41408,-0.129114,27,32765
6.73634,-2.42309,-0.1265,27,32765
6.7472,-2.45202,-0.12345,24,32765
6.72969,-2.4709,-0.121468,25,32765
6.74971,-2.50341,-0.119869,27,32765
6.72273,-2.51864,-0.11722,26,32765
6.69567,-2.53387,-0.114397,24,32765
6.73392,-2.57406,-0.112694,23,32765
6.71579,-2.59343,-0.110601,24,32765
6.6883,-2.60914,-0.107172,24,32765
6.68867,-2.63565,-0.105602,22,32765
6.6798,-2.65813,-0.103469,25,32765
6.68947,-2.68789,-0.101396,26,32765
6.66184,-2.70299,-0.0989597,23,32765
6.67138,-2.73264,-0.0975689,22,32765
6.63449,-2.7435,-0.0953614,24,32765
6.66217,-2.78122,-0.0933721,24,32765
6.63433,-2.79597,-0.090941,25,32765
6.64323,-2.82628,-0.0897805,24,32765
6.6337,-2.84865,-0.0870278,25,32765
6.62399,-2.87124,-0.0847912,25,32765
6.61433,-2.89347,-0.082852,24,32765
6.62276,-2.92403,-0.0819608,24,32765
6.61286,-2.94643,-0.0792803,24,32765
6.60306,-2.96838,-0.077227,23,32765
6.58403,-2.98627,-0.0750355,23,32765
6.58294,-3.01284,-0.0727736,23,32765
6.59984,-3.04793,-0.0714881,23,32765
6.56221,-3.05782,-0.0690465,22,32765
6.55189,-3.0799,-0.0671952,22,32765
6.53266,-3.09727,-0.0643211,21,32765
6.54928,-3.13215,-0.0640682,22,32765
6.53886,-3.1539,-0.0619277,22,32765
6.51928,-3.17144,-0.0591152,21,32765
6.54436,-3.21122,-0.059805,22,32765
6.49772,-3.2154,-0.0577812,22,32765
6.48687,-3.23729,-0.0543628,22,32765
6.50286,-3.27235,-0.0533486,20,32765
6.50085,-3.29854,-0.0514541,21,32765
6.48075,-3.316,-0.0490059,20,32765
6.50494,-3.35648,-0.0473112,20,32765
6.47564,-3.36958,-0.0451357,20,32765
6.45537,-3.38682,-0.0421332,19,32765
6.44397,-3.4085,-0.0395896,19,32765
6.45898,-3.44421,-0.0375935,19,32765
6.42939,-3.45714,-0.0334808,19,32765
6.45304,-3.49754,-0.0317172,20,32765
6.43246,-3.51447,-0.0289292,19,32765
6.42067,-3.53599,-0.0267208,18,32765
6.42623,-3.56728,-0.0244003,19,32765
6.41433,-3.58864,-0.0221726,18,32765
6.38494,-3.60015,-0.0196982,18,32765
6.39918,-3.63591,-0.0172422,18,32765
6.36092,-3.64244,-0.014944,18,32765
6.37478,-3.67853,-0.0118921,18,32765
6.3625,-3.69974,-0.00918894,18,32765
6.35019,-3.72083,-0.00665449,18,32765
6.34625,-3.74727,-0.00412736,17,32765
6.33365,-3.76852,-0.00084547,17,32765
6.32108,-3.78957,0.00191301,17,32765
6.30844,-3.81057,0.00485904,17,32765
6.29585,-3.83134,0.00794921,16,32765
6.3002,-3.86257,0.0109614,17,32765
6.27896,-3.878,0.0139287,16,32765
6.3256,-3.9356,0.01738,16,32765
6.28734,-3.94022,0.0210972,15,32765
6.27439,-3.96079,0.024347,16,32765
6.28674,-3.99733,0.0278468,16,32765
6.27336,-4.01827,0.0305174,16,32765
6.26017,-4.03877,0.0344244,16,32765
6.22171,-4.04293,0.0378858,15,32765
6.24186,-4.08523,0.0417539,15,32765
6.21998,-4.10028,0.0454322,16,32765
6.22297,-4.13196,0.0496535,16,32765
6.2009,-4.147,0.0528069,15,32765
6.23694,-4.20092,0.0572101,16,32765
6.17348,-4.1876,0.0607224,15,32765
6.23422,-4.25824,0.065642,15,32765
6.22031,-4.27848,0.0698205,14,32765
6.20638,-4.29859,0.0738674,15,32765
6.19237,-4.31867,0.0785755,15,32765
6.19448,-4.35043,0.083602,15,32765
6.16387,-4.35908,0.0875507,15,32765
6.18197,-4.40257,0.0930712,15,32765
6.15129,-4.411,0.0979601,15,32765
6.16923,-4.45443,0.103607,14,32765
6.15484,-4.47417,0.109231,15,32765
6.12422,-4.48206,0.114715,15,32765
6.85142,-2.10881,-0.141036,22,32765
6.8254,-2.12515,-0.142014,21,32765
6.81841,-2.14736,-0.143808,22,32765
6.81142,-2.16943,-0.143682,22,32765
6.78521,-2.18565,-0.144271,21,32765
6.79697,-2.21422,-0.144866,21,32765
6.78011,-2.23348,-0.145593,21,32765
6.76312,-2.25297,-0.145795,21,32765
6.77467,-2.2815,-0.145298,22,32765
6.78604,-2.31024,-0.146085,22,32765
6.75019,-2.32241,-0.144698,20,32765
6.74258,-2.34438,-0.145251,21,32765
6.77256,-2.37995,-0.144018,21,32765
6.72683,-2.38933,-0.142981,20,32765
6.73753,-2.41885,-0.142965,20,32765
6.70119,-2.43124,-0.141478,19,32765
6.72132,-2.46363,-0.141354,20,32765
6.69443,-2.47882,-0.1402,21,32765
6.72374,-2.51478,-0.140125,20,32765
6.70596,-2.53371,-0.139127,19,32765
6.7255,-2.5668,-0.138392,18,32765
6.68885,-2.57863,-0.137171,19,32765
6.69883,-2.60832,-0.135684,18,32765
6.67155,-2.62323,-0.134031,18,32765
6.69069,-2.65647,-0.133593,20,32765
6.67262,-2.67489,-0.131288,19,32765
6.67291,-2.70096,-0.13071,18,32765
6.65462,-2.71947,-0.128784,18,32765
6.62703,-2.7341,-0.126813,19,32765
6.64537,-2.76823,-0.126283,19,32765
6.62677,-2.78687,-0.12433,19,32765
6.63575,-2.81707,-0.122751,19,32765
6.61713,-2.8353,-0.120849,19,32765
6.6077,-2.85726,-0.119527,19,32765
6.61646,-2.88736,-0.118334,19,32765
6.58848,-2.90149,-0.115289,18,32765
6.57862,-2.92383,-0.113608,18,32765
6.58695,-2.95433,-0.111332,19,32765
6.55878,-2.96828,-0.108249,17,32765
6.53052,-2.98218,-0.106416,17,32765
6.55682,-3.02087,-0.10416,19,32765
6.54678,-3.04259,-0.103196,18,32765
6.59092,-3.08995,-0.101696,18,32765
6.58051,-3.11212,-0.0999397,18,32765
6.56995,-3.13443,-0.0971171,18,32765
6.55941,-3.1565,-0.0951359,18,32765
6.54897,-3.17818,-0.092857,18,32765
6.5293,-3.19572,-0.0922431,17,32765
6.50962,-3.21317,-0.0889667,17,32765
6.50764,-3.23973,-0.0876391,16,32765
6.51441,-3.27097,-0.0856949,17,32765
6.46761,-3.27503,-0.0817828,16,32765
6.47419,-3.30628,-0.078973,16,32765
6.48083,-3.33721,-0.0774729,16,32765
6.46959,-3.35899,-0.0754242,16,32765
6.47601,-3.38997,-0.0739936,16,32765
6.46478,-3.4114,-0.0713644,16,32765
6.45325,-3.43322,-0.0687409,16,32765
6.44134,-3.45561,-0.0633907,15,32765
6.44749,-3.48642,-0.0602389,16,32765
6.42686,-3.50351,-0.0574244,15,32765
6.41513,-3.52498,-0.054783,15,32765
6.41206,-3.55129,-0.0522087,14,32765
6.39139,-3.56793,-0.0496963,15,32765
6.38817,-3.59415,-0.0474868,15,32765
6.39362,-3.6252,-0.0448772,15,32765
6.36403,-3.63679,-0.0423867,14,32765
6.35191,-3.65794,-0.0400783,15,32765
6.35703,-3.68907,-0.0375319,14,32765
6.34468,-3.71029,-0.0355253,15,32765
6.31509,-3.72122,-0.0326999,14,32765
6.33704,-3.76269,-0.0300221,15,32765
6.35877,-3.80438,-0.0281285,14,32765
6.31174,-3.80502,-0.0254493,14,32765
6.29888,-3.82628,-0.0229353,14,32765
6.32039,-3.86785,-0.0209497,14,32765
6.29911,-3.88341,-0.0181558,13,32765
6.29472,-3.90952,-0.0165777,14,32765
6.31594,-3.95111,-0.0139995,13,32765
6.26902,-3.95061,-0.0116656,14,32765
6.28984,-3.99253,-0.00922937,14,32765
6.27667,-4.01322,-0.00768914,13,32765
6.26339,-4.03391,-0.00513858,14,32765
6.27531,-4.07074,-0.00287663,13,32765
6.23668,-4.07508,-0.000689793,14,32765
6.24836,-4.11198,0.00107811,14,32765
6.23478,-4.13255,0.00341028,13,32765
6.22124,-4.1529,0.00524447,14,32765
6.2242,-4.18441,0.00719786,14,32765
6.24359,-4.22719,0.00894909,13,32765
6.18028,-4.2136,0.0113756,14,32765
6.21607,-4.26754,0.0133099,13,32765
6.20226,-4.28758,0.0144349,13,32765
6.20488,-4.31889,0.016358,14,32765
6.20717,-4.35053,0.0177596,13,32765
6.16039,-4.34751,0.0196131,13,32765
6.17882,-4.39069,0.0207738,13,32765
6.16481,-4.41033,0.0222492,13,32765
6.20767,-4.47066,0.0238041,13,32765
6.16864,-4.47345,0.0241866,13,32765
6.13791,-4.48168,0.0252014,13,32765
6.83869,-2.11061,-0.208142,27,32765
6.83172,-2.13291,-0.20951,26,32765
6.81514,-2.15218,-0.211005,26,32765
6.7986,-2.17125,-0.21058,27,32765
6.81041,-2.19976,-0.212159,26,32765
6.79359,-2.21918,-0.212048,28,32765
6.80517,-2.24788,-0.213569,28,32765
6.79759,-2.27067,-0.213972,28,32765
6.78065,-2.28979,-0.212762,27,32765
6.79196,-2.31862,-0.213731,26,32765
6.76554,-2.3341,-0.212353,26,32765
6.77674,-2.36276,-0.213497,26,32765
6.74064,-2.37527,-0.210563,26,32765
6.76085,-2.40805,-0.211204,24,32765
6.73384,-2.42421,-0.210194,24,32765
6.73506,-2.45029,-0.20959,23,32765
6.72695,-2.47253,-0.208864,25,32765
6.72814,-2.49821,-0.208386,24,32765
6.71992,-2.52033,-0.207521,24,32765
6.71146,-2.54284,-0.206711,24,32765
6.70294,-2.56531,-0.205392,24,32765
6.69427,-2.58791,-0.204741,24,32765
6.69489,-2.61405,-0.203153,23,32765
6.66759,-2.62899,-0.201306,22,32765
6.68668,-2.6623,-0.201144,24,32765
6.67787,-2.68448,-0.199017,24,32765
6.65032,-2.69936,-0.1977,21,32765
6.67829,-2.73679,-0.197044,24,32765
6.67835,-2.76301,-0.195686,25,32765
6.66889,-2.78584,-0.194615,26,32765
6.65023,-2.8046,-0.192555,25,32765
6.64074,-2.82713,-0.190622,25,32765
6.63128,-2.84937,-0.188879,24,32765
6.64013,-2.87939,-0.188068,24,32765
6.61216,-2.89363,-0.186017,24,32765
6.62075,-2.92395,-0.183795,24,32765
6.61994,-2.95053,-0.18235,24,32765
6.57347,-2.95664,-0.178751,23,32765
6.60902,-2.9995,-0.177187,22,32765
6.56248,-3.00529,-0.174664,21,32765
6.57053,-3.03579,-0.172286,22,32765
6.55137,-3.05339,-0.171076,22,32765
6.55924,-3.08386,-0.169196,22,32765
6.54885,-3.10598,-0.167441,22,32765
6.54733,-3.13256,-0.164851,22,32765
6.50977,-3.14157,-0.162196,21,32765
6.51735,-3.17189,-0.16037,21,32765
6.50667,-3.19378,-0.159877,22,32765
6.49597,-3.21564,-0.156727,21,32765
6.52079,-3.25562,-0.15613,21,32765
6.52748,-3.28698,-0.154361,21,32765
6.4985,-3.30015,-0.150472,21,32765
6.49608,-3.32704,-0.147625,20,32765
6.48485,-3.34894,-0.145898,20,32765
6.47357,-3.37079,-0.14384,19,32765
6.47107,-3.39721,-0.142393,19,32765
6.45981,-3.41869,-0.139757,18,32765
6.47472,-3.45466,-0.13769,19,32765
6.43634,-3.46298,-0.131773,19,32765
6.43367,-3.48909,-0.128626,19,32765
6.43058,-3.51577,-0.126059,18,32765
6.41881,-3.53731,-0.123408,18,32765
6.40695,-3.55884,-0.120752,18,32765
6.4037,-3.58528,-0.118462,17,32765
6.383,-3.60178,-0.116017,18,32765
6.37102,-3.62301,-0.113278,18,32765
6.35011,-3.63953,-0.110751,17,32765
6.36396,-3.67569,-0.108884,17,32765
6.36036,-3.70191,-0.106366,18,32765
6.34795,-3.7232,-0.104349,18,32765
6.34415,-3.74944,-0.10174,17,32765
6.3488,-3.78088,-0.0991451,17,32765
6.31898,-3.79183,-0.0968239,17,32765
6.32335,-3.8234,-0.094545,17,32765
6.27627,-3.82395,-0.0915187,16,32765
6.24661,-3.83416,-0.0891749,15,32765
6.31049,-3.90211,-0.0874895,15,32765
6.30601,-3.92832,-0.0859923,16,32765
6.2509,-3.92222,-0.0827638,16,32765
6.25482,-3.95357,-0.0807246,16,32765
6.28402,-4.00092,-0.0787633,16,32765
6.28763,-4.03244,-0.0774219,16,32765
6.27429,-4.05322,-0.0748568,16,32765
6.26096,-4.07382,-0.0725692,16,32765
6.21397,-4.07266,-0.070003,17,32765
6.25065,-4.1261,-0.0687868,16,32765
6.23701,-4.14673,-0.0664433,16,32765
6.24834,-4.18384,-0.0648569,16,32765
6.22629,-4.19874,-0.0628201,15,32765
6.20422,-4.21355,-0.0610239,16,32765
6.18226,-4.22804,-0.0584335,15,32765
6.18499,-4.25943,-0.056745,15,32765
6.15475,-4.26803,-0.0554671,15,32765
6.20659,-4.33361,-0.0541634,15,32765
6.2088,-4.36533,-0.0529369,15,32765
6.16198,-4.36233,-0.0506993,15,32765
6.14773,-4.3824,-0.0496369,15,32765
6.16622,-4.42532,-0.0484133,14,32765
6.16842,-4.45651,-0.047189,14,32765
6.13751,-4.46507,-0.0465803,15,32765
6.13907,-4.49687,-0.0456132,15,32765
6.83006,-2.09281,-0.304859,22,32765
6.8137,-2.1125,-0.300608,21,32765
6.82615,-2.14021,-0.298078,20,32765
6.80038,-2.15597,-0.293574,19,32765
6.77435,-2.17228,-0.289536,20,32765
6.80517,-2.20732,-0.28818,20,32765
6.80743,-2.23303,-0.285241,22,32765
6.7717,-2.24598,-0.28149,21,32765
6.75505,-2.26473,-0.277984,19,32765
6.75716,-2.29,-0.276075,19,32765
6.74979,-2.31198,-0.273357,20,32765
6.77995,-2.34742,-0.272523,19,32765
6.74379,-2.36042,-0.268816,19,32765
6.71701,-2.37675,-0.264145,18,32765
6.74652,-2.41324,-0.264037,18,32765
6.70091,-2.42227,-0.259475,19,32765
6.69284,-2.44475,-0.256736,19,32765
6.72221,-2.48092,-0.256605,18,32765
6.71409,-2.50314,-0.253402,19,32765
6.70573,-2.5257,-0.25094,19,32765
6.6786,-2.54111,-0.248238,19,32765
6.70739,-2.57796,-0.247171,17,32765
6.70816,-2.6039,-0.245493,18,32765
6.67162,-2.6153,-0.242044,18,32765
6.64434,-2.63021,-0.23911,17,32765
6.64481,-2.65631,-0.236759,17,32765
6.66363,-2.69012,-0.235355,17,32765
6.63604,-2.70517,-0.232116,19,32765
6.66394,-2.7427,-0.231612,20,32765
6.64538,-2.7616,-0.229059,19,32765
6.63615,-2.78394,-0.22637,19,32765
6.65439,-2.81803,-0.225309,19,32765
6.60797,-2.82517,-0.221823,18,32765
6.60761,-2.85152,-0.219726,19,32765
6.61625,-2.88202,-0.218055,19,32765
6.6432,-2.92037,-0.216593,18,32765
6.57858,-2.91841,-0.212589,18,32765
6.56875,-2.94062,-0.210517,18,32765
6.56804,-2.96664,-0.209829,17,32765
6.55802,-2.98889,-0.207341,17,32765
6.54797,-3.01106,-0.204304,17,32765
6.53784,-3.03314,-0.201956,17,32765
6.5728,-3.0766,-0.201217,18,32765
6.56232,-3.09903,-0.199066,18,32765
6.56085,-3.1256,-0.196739,17,32765
6.53237,-3.13898,-0.193577,17,32765
6.4858,-3.14359,-0.190653,17,32765
6.51109,-3.18315,-0.189146,17,32765
6.51827,-3.214,-0.187812,17,32765
6.50731,-3.23626,-0.185405,17,32765
6.51433,-3.26709,-0.183684,16,32765
6.50332,-3.2891,-0.180991,16,32765
6.49218,-3.31114,-0.178924,16,32765
6.48098,-3.33314,-0.176626,16,32765
6.46967,-3.35514,-0.174633,16,32765
6.47626,-3.38593,-0.172151,16,32765
6.4649,-3.40772,-0.169125,16,32765
6.45355,-3.42926,-0.167321,16,32765
6.45101,-3.45539,-0.164969,15,32765
6.42184,-3.46753,-0.161992,15,32765
6.43661,-3.50332,-0.160276,15,32765
6.41605,-3.52023,-0.156905,15,32765
6.38669,-3.53222,-0.153734,15,32765
6.39216,-3.56365,-0.15196,15,32765
6.42373,-3.60972,-0.149959,15,32765
6.39436,-3.62122,-0.146404,15,32765
6.39973,-3.65235,-0.143893,15,32765
6.37025,-3.66368,-0.140982,14,32765
6.39271,-3.70486,-0.138977,14,32765
6.36302,-3.71623,-0.135953,15,32765
6.33349,-3.72719,-0.13192,14,32765
6.33825,-3.75857,-0.129145,14,32765
6.32589,-3.77943,-0.126311,14,32765
6.34785,-3.82069,-0.123751,14,32765
6.28402,-3.81042,-0.119602,14,32765
6.26303,-3.82577,-0.116281,13,32765
6.27583,-3.86238,-0.113409,14,32765
6.29711,-3.90413,-0.110816,13,32765
6.31815,-3.94612,-0.108051,14,32765
6.30508,-3.96704,-0.10481,14,32765
6.29209,-3.98771,-0.100942,13,32765
6.279,-4.00839,-0.0974831,14,32765
6.23232,-4.0072,-0.0930708,14,32765
6.25276,-4.04937,-0.0900203,14,32765
6.28137,-4.09718,-0.0870699,14,32765
6.26794,-4.11777,-0.0828589,14,32765
6.21264,-4.1109,-0.0783561,14,32765
6.19906,-4.13142,-0.0743247,13,32765
6.26021,-4.20194,-0.071038,13,32765
6.19657,-4.18909,-0.0663061,14,32765
6.1995,-4.22046,-0.0624621,13,32765
6.21863,-4.26344,-0.0583204,14,32765
6.23762,-4.30645,-0.0541579,13,32765
6.22374,-4.32654,-0.04967,13,32765
6.16848,-4.31842,-0.0445646,13,32765
6.19536,-4.36718,-0.0405587,14,32765
6.16484,-4.37574,-0.0353311,13,32765
6.16732,-4.40678,-0.0303599,13,32765
6.16923,-4.43847,-0.0253774,13,32765
6.10563,-4.42408,-0.019313,13,32765
6.17996,-4.50893,-0.0133008,13,32765
6.82524,-2.09766,-0.371962,25,32765
6.81844,-2.12035,-0.368129,25,32765
6.80228,-2.13915,-0.364249,25,32765
6.8051,-2.16395,-0.36108,25,32765
6.79808,-2.18643,-0.357848,26,32765
6.81934,-2.21856,-0.356354,26,32765
6.79312,-2.23501,-0.352021,27,32765
6.78584,-2.2574,-0.349453,26,32765
6.76917,-2.27625,-0.345841,26,32765
6.75233,-2.2952,-0.343055,25,32765
6.77328,-2.32696,-0.341763,25,32765
6.77507,-2.35273,-0.33987,24,32765
6.74834,-2.36906,-0.336348,24,32765
6.7498,-2.39547,-0.332873,23,32765
6.7228,-2.41192,-0.330354,23,32765
6.73358,-2.44133,-0.328167,23,32765
6.72546,-2.46398,-0.325408,23,32765
6.72662,-2.48994,-0.324284,24,32765
6.7372,-2.51923,-0.321967,24,32765
6.71009,-2.53487,-0.318602,23,32765
6.71095,-2.56102,-0.317028,23,32765
6.70236,-2.58369,-0.314568,22,32765
6.68448,-2.60243,-0.312109,24,32765
6.68516,-2.62841,-0.310106,23,32765
6.695,-2.65816,-0.308686,22,32765
6.63973,-2.66218,-0.303855,21,32765
6.66777,-2.69981,-0.303148,24,32765
6.65866,-2.72248,-0.300548,24,32765
6.66799,-2.75255,-0.299576,24,32765
6.64019,-2.76767,-0.296509,24,32765
6.64935,-2.7978,-0.294631,24,32765
6.63073,-2.81639,-0.292218,23,32765
6.6119,-2.8353,-0.289564,22,32765
6.60233,-2.85775,-0.287153,22,32765
6.62925,-2.89632,-0.286455,22,32765
6.6104,-2.91465,-0.283396,23,32765
6.57323,-2.92476,-0.28,22,32765
6.58161,-2.9552,-0.278694,21,32765
6.57172,-2.97721,-0.277705,22,32765
6.57984,-3.00784,-0.275971,23,32765
6.57881,-3.03432,-0.273292,21,32765
6.55048,-3.04814,-0.270178,21,32765
6.59438,-3.096,-0.270266,21,32765
6.54771,-3.10144,-0.266628,21,32765
6.53721,-3.12373,-0.264029,22,32765
6.52675,-3.14575,-0.261401,21,32765
6.55208,-3.18532,-0.26096,21,32765
6.50541,-3.18999,-0.256958,21,32765
6.53046,-3.22977,-0.256508,21,32765
6.52839,-3.25659,-0.254436,20,32765
6.51746,-3.27859,-0.252195,20,32765
6.50641,-3.30067,-0.249492,19,32765
6.49522,-3.32278,-0.247416,20,32765
6.48397,-3.34485,-0.245108,19,32765
6.49035,-3.37614,-0.243771,19,32765
6.47915,-3.39779,-0.2408,19,32765
6.46775,-3.41965,-0.237764,19,32765
6.45635,-3.44127,-0.23595,19,32765
6.45376,-3.46747,-0.233681,18,32765
6.45971,-3.4987,-0.231768,18,32765
6.43048,-3.51076,-0.228749,18,32765
6.41867,-3.53252,-0.225585,18,32765
6.40676,-3.55425,-0.222825,18,32765
6.41213,-3.58583,-0.221222,18,32765
6.40875,-3.61244,-0.218481,18,32765
6.38808,-3.62888,-0.21503,17,32765
6.36738,-3.64517,-0.211833,17,32765
6.38988,-3.6864,-0.210449,17,32765
6.3431,-3.68755,-0.206548,17,32765
6.33935,-3.71395,-0.204182,17,32765
6.35289,-3.75028,-0.201329,17,32765
6.28023,-3.7358,-0.196305,19,32765
6.31082,-3.78223,-0.19481,18,32765
6.31561,-3.81321,-0.1921,17,32765
6.14938,-3.74048,-0.184326,18,32765
6.18829,-3.792,-0.182731,15,32765
6.29474,-3.88622,-0.182887,15,32765
6.30742,-3.92285,-0.180404,16,32765
6.29447,-3.94375,-0.177042,16,32765
6.28142,-3.96466,-0.173803,16,32765
6.28531,-3.99604,-0.170396,16,32765
6.24693,-4.00057,-0.166258,15,32765
6.23392,-4.02097,-0.162357,15,32765
6.25429,-4.06325,-0.159668,15,32765
6.26607,-4.10023,-0.156753,15,32765
6.2109,-4.09333,-0.151523,15,32765
6.23903,-4.14157,-0.148563,15,32765
6.20042,-4.14556,-0.143924,15,32765
6.2034,-4.17715,-0.140152,15,32765
6.22265,-4.22023,-0.136705,16,32765
6.17592,-4.21794,-0.131961,15,32765
6.21974,-4.27794,-0.128708,15,32765
6.17291,-4.27552,-0.123589,15,32765
6.15914,-4.29546,-0.119136,15,32765
6.17768,-4.33885,-0.114974,15,32765
6.16363,-4.35888,-0.110682,15,32765
6.18204,-4.40218,-0.106121,15,32765
6.15193,-4.41005,-0.100778,15,32765
6.15382,-4.44178,-0.0959816,15,32765
6.13882,-4.46261,-0.0900726,15,32765
6.12418,-4.4828,-0.0838226,14,32765
6.82772,-2.09453,-0.343002,21,32765
6.81129,-2.11375,-0.343542,20,32765
6.78525,-2.12997,-0.343433,20,32765
6.7973,-2.15799,-0.345538,19,32765
6.79013,-2.18031,-0.34638,20,32765
6.78297,-2.20254,-0.346032,21,32765
6.79464,-2.23115,-0.347022,21,32765
6.79657,-2.25713,-0.347781,21,32765
6.77962,-2.27634,-0.347292,20,32765
6.75324,-2.29205,-0.346199,20,32765
6.73632,-2.31076,-0.345381,19,32765
6.75706,-2.34265,-0.346035,19,32765
6.72074,-2.35578,-0.344821,19,32765
6.73148,-2.38548,-0.345106,19,32765
6.72338,-2.40838,-0.344043,18,32765
6.73407,-2.43779,-0.344132,18,32765
6.70724,-2.4532,-0.342357,18,32765
6.70846,-2.4789,-0.342431,19,32765
6.70969,-2.50443,-0.341796,18,32765
6.68273,-2.51955,-0.339885,18,32765
6.72094,-2.55979,-0.34121,18,32765
6.67515,-2.56778,-0.338348,17,32765
6.69448,-2.60104,-0.338595,19,32765
6.69509,-2.62717,-0.337201,18,32765
6.6491,-2.63505,-0.334145,17,32765
6.64033,-2.65727,-0.332418,16,32765
6.65921,-2.69079,-0.332719,19,32765
6.66868,-2.7208,-0.331685,20,32765
6.62248,-2.72831,-0.328603,19,32765
6.64096,-2.76226,-0.328045,19,32765
6.6316,-2.78484,-0.326342,18,32765
6.62242,-2.80686,-0.324051,18,32765
6.63127,-2.8372,-0.323964,18,32765
6.65852,-2.87532,-0.322914,17,32765
6.57547,-2.86609,-0.31807,17,32765
6.58406,-2.89652,-0.316602,17,32765
6.58344,-2.92287,-0.314938,17,32765
6.61908,-2.96582,-0.31505,17,32765
6.54546,-2.95923,-0.309942,17,32765
6.53552,-2.98126,-0.308415,17,32765
6.58924,-3.03218,-0.308854,18,32765
6.57014,-3.04995,-0.305984,17,32765
6.52375,-3.05508,-0.302092,17,32765
6.54975,-3.09396,-0.301116,17,32765
6.53947,-3.11587,-0.29851,17,32765
6.56504,-3.15521,-0.298374,17,32765
6.53649,-3.16859,-0.295373,17,32765
6.52572,-3.191,-0.292304,17,32765
6.51483,-3.21345,-0.289265,17,32765
6.50383,-3.23584,-0.287101,16,32765
6.51075,-3.26699,-0.284785,17,32765
6.49977,-3.289,-0.282187,16,32765
6.50634,-3.32035,-0.281007,16,32765
6.49519,-3.34235,-0.278073,16,32765
6.46617,-3.35518,-0.274886,16,32765
6.45499,-3.37686,-0.272107,16,32765
6.46141,-3.40785,-0.269953,16,32765
6.44102,-3.42518,-0.267064,15,32765
6.43842,-3.45151,-0.26441,15,32765
6.45332,-3.48731,-0.262469,16,32765
6.40662,-3.48975,-0.258702,15,32765
6.41256,-3.52076,-0.256365,15,32765
6.39198,-3.53753,-0.253931,15,32765
6.41506,-3.57852,-0.252341,15,32765
6.42052,-3.60989,-0.250099,15,32765
6.3477,-3.59679,-0.24463,14,32765
6.3793,-3.64253,-0.242829,14,32765
6.38434,-3.67407,-0.241499,15,32765
6.37211,-3.69542,-0.238856,15,32765
6.32516,-3.69676,-0.235116,15,32765
6.32143,-3.72305,-0.232375,16,32765
6.309,-3.74426,-0.229412,16,32765
6.27068,-3.75012,-0.226435,16,32765
6.22394,-3.75047,-0.222288,16,32765
6.20301,-3.76588,-0.219995,14,32765
6.2845,-3.84365,-0.21976,13,32765
6.306,-3.88515,-0.219198,14,32765
6.29319,-3.906,-0.216783,13,32765
6.31426,-3.94799,-0.214482,14,32765
6.26711,-3.94801,-0.211221,14,32765
6.31308,-4.00638,-0.210654,13,32765
6.24107,-3.98934,-0.205807,13,32765
6.22786,-4.01004,-0.203764,14,32765
6.24838,-4.05208,-0.202347,14,32765
6.32709,-4.13284,-0.202832,13,32765
6.2133,-4.08776,-0.196984,13,32765
6.24975,-4.1415,-0.196497,13,32765
6.21931,-4.15125,-0.194039,13,32765
6.27208,-4.2163,-0.193536,13,32765
6.19198,-4.19214,-0.189013,13,32765
6.24452,-4.25725,-0.188053,13,32765
6.21452,-4.26578,-0.185768,13,32765
6.25008,-4.31997,-0.185472,13,32765
6.21958,-4.32892,-0.183559,13,32765
6.20518,-4.34965,-0.180974,13,32765
6.19077,-4.37024,-0.178425,13,32765
6.17668,-4.39018,-0.176889,13,32765
6.20323,-4.4391,-0.176805,13,32765
6.16487,-4.44117,-0.174249,13,32765
6.17498,-4.47842,-0.174118,13,32765
6.15257,-4.49229,-0.172035,13,32765
6.81298,-2.09648,-0.409499,24,32765
6.83465,-2.12757,-0.412237,25,32765
6.8276,-2.14991,-0.413091,25,32765
6.811,-2.16905,-0.41365,26,32765
6.79426,-2.18842,-0.41391,25,32765
6.79655,-2.21381,-0.414134,26,32765
6.77971,-2.23317,-0.41357,26,32765
6.78159,-2.25917,-0.414416,24,32765
6.77409,-2.28157,-0.414405,23,32765
6.73824,-2.29409,-0.412541,23,32765
6.77794,-2.33229,-0.415092,24,32765
6.75143,-2.348,-0.413131,24,32765
6.76218,-2.37771,-0.414516,24,32765
6.7446,-2.3976,-0.413247,23,32765
6.75524,-2.42735,-0.413325,22,32765
6.7283,-2.44331,-0.411297,22,32765
6.72958,-2.46906,-0.411046,24,32765
6.73071,-2.4949,-0.411205,23,32765
6.72252,-2.51708,-0.410083,23,32765
6.73287,-2.54641,-0.410252,23,32765
6.72431,-2.5691,-0.409192,22,32765
6.65988,-2.56994,-0.404817,23,32765
6.68847,-2.60685,-0.405904,23,32765
6.67047,-2.62573,-0.403474,22,32765
6.68017,-2.65568,-0.403402,21,32765
6.67133,-2.67806,-0.40166,21,32765
6.65309,-2.69677,-0.400004,23,32765
6.66252,-2.72683,-0.399151,23,32765
6.68091,-2.76104,-0.399552,24,32765
6.64396,-2.77221,-0.395954,22,32765
6.63456,-2.79487,-0.394242,22,32765
6.64373,-2.82477,-0.39303,22,32765
6.6066,-2.83557,-0.390408,22,32765
6.62466,-2.86972,-0.389196,22,32765
6.58743,-2.88038,-0.386284,22,32765
6.59596,-2.91093,-0.384991,22,32765
6.59528,-2.93738,-0.383409,22,32765
6.58527,-2.96001,-0.381339,21,32765
6.57539,-2.98217,-0.379251,21,32765
6.56536,-3.00437,-0.377708,21,32765
6.55547,-3.02621,-0.37515,22,32765
6.56355,-3.05656,-0.373737,21,32765
6.55334,-3.07868,-0.371514,21,32765
6.57922,-3.11776,-0.370892,21,32765
6.52381,-3.1183,-0.365739,20,32765
6.52233,-3.14467,-0.364464,21,32765
6.54772,-3.18415,-0.36428,21,32765
6.49206,-3.18467,-0.358719,20,32765
6.517,-3.22478,-0.357651,20,32765
6.50595,-3.24725,-0.355478,20,32765
6.51281,-3.27848,-0.353338,20,32765
6.49289,-3.29604,-0.350249,19,32765
6.48162,-3.31834,-0.348292,18,32765
6.47048,-3.34032,-0.34536,18,32765
6.4592,-3.36233,-0.342927,19,32765
6.46568,-3.39334,-0.341074,18,32765
6.47203,-3.42444,-0.339092,18,32765
6.4604,-3.44656,-0.336555,18,32765
6.44892,-3.4683,-0.333521,18,32765
6.43739,-3.48994,-0.330492,18,32765
6.42577,-3.5115,-0.328138,18,32765
6.40537,-3.5282,-0.324639,17,32765
6.41097,-3.55955,-0.323425,17,32765
6.40778,-3.58607,-0.32088,17,32765
6.38708,-3.60277,-0.317519,17,32765
6.39252,-3.63399,-0.315258,17,32765
6.37194,-3.65019,-0.311347,17,32765
6.39423,-3.69177,-0.311037,16,32765
6.36466,-3.70317,-0.307545,17,32765
6.33495,-3.71461,-0.304252,17,32765
6.33976,-3.74608,-0.301998,17,32765
6.31866,-3.76231,-0.29861,17,32765
6.22889,-3.73739,-0.292922,24,32765
6.21643,-3.7583,-0.290007,28,32765
6.25521,-3.81012,-0.290385,18,32765
6.17462,-3.78894,-0.283699,21,32765
6.22174,-3.84595,-0.284696,17,32765
6.25146,-3.89299,-0.284231,16,32765
6.28946,-3.94556,-0.283075,16,32765
6.30148,-3.98289,-0.282085,15,32765
6.27138,-3.9932,-0.278772,16,32765
6.24154,-4.00299,-0.275135,15,32765
6.27863,-4.05628,-0.275288,15,32765
6.24869,-4.06589,-0.272023,15,32765
6.23529,-4.08658,-0.269546,15,32765
6.25521,-4.12921,-0.268333,16,32765
6.24983,-4.15556,-0.266602,16,32765
6.21105,-4.15979,-0.263594,15,32765
6.18083,-4.16907,-0.260336,15,32765
6.1919,-4.20636,-0.258895,15,32765
6.17831,-4.22647,-0.255933,15,32765
6.18133,-4.25751,-0.254827,14,32765
6.2004,-4.30033,-0.254412,14,32765
6.20274,-4.33204,-0.253652,15,32765
6.18831,-4.35277,-0.251061,15,32765
6.15757,-4.36182,-0.247849,15,32765
6.17603,-4.40493,-0.247614,15,32765
6.14562,-4.41316,-0.245709,14,32765
6.18026,-4.46776,-0.245778,14,32765
6.16597,-4.48751,-0.244948,15,32765
6.13546,-4.49549,-0.242444,15,32765
6.84932,-2.09251,-0.510509,20,32765
6.8045,-2.10364,-0.50302,20,32765
6.83569,-2.1387,-0.501668,20,32765
6.80971,-2.15558,-0.496891,20,32765
6.81233,-2.18121,-0.493319,19,32765
6.80531,-2.20362,-0.490582,18,32765
6.76039,-2.21345,-0.48441,18,32765
6.79111,-2.24847,-0.483904,18,32765
6.81212,-2.28069,-0.483197,18,32765
6.77625,-2.29407,-0.478138,18,32765
6.74991,-2.31019,-0.473552,18,32765
6.75189,-2.33558,-0.471839,17,32765
6.75368,-2.36144,-0.469325,18,32765
6.74594,-2.3839,-0.467158,18,32765
6.73802,-2.4068,-0.46404,19,32765
6.71118,-2.42294,-0.460412,19,32765
6.72186,-2.45253,-0.458857,18,32765
6.70428,-2.47196,-0.455757,17,32765
6.71481,-2.50146,-0.454369,17,32765
6.72518,-2.53113,-0.453158,18,32765
6.70744,-2.55018,-0.450411,18,32765
6.6712,-2.5617,-0.445469,17,32765
6.66272,-2.58407,-0.443052,16,32765
6.65414,-2.6064,-0.441297,17,32765
6.65472,-2.6326,-0.439344,17,32765
6.67372,-2.66618,-0.439188,18,32765
6.63709,-2.67752,-0.434488,18,32765
6.64672,-2.70723,-0.433744,17,32765
6.65616,-2.7373,-0.432314,17,32765
6.60082,-2.74085,-0.427275,17,32765
6.63769,-2.78251,-0.427507,17,32765
6.66507,-2.82075,-0.427402,17,32765
6.66482,-2.8471,-0.426297,17,32765
6.60951,-2.84987,-0.420324,17,32765
6.59987,-2.87242,-0.418418,17,32765
6.62668,-2.91103,-0.418937,17,32765
6.61686,-2.93363,-0.416545,16,32765
6.60678,-2.95653,-0.414489,17,32765
6.56043,-2.96259,-0.409698,16,32765
6.53221,-2.97674,-0.406546,16,32765
6.54044,-3.00709,-0.405177,17,32765
6.58484,-3.05419,-0.405926,17,32765
6.55652,-3.06788,-0.403282,16,32765
6.54633,-3.08989,-0.40073,16,32765
6.55377,-3.12106,-0.399972,17,32765
6.54316,-3.14354,-0.397627,16,32765
6.53247,-3.16604,-0.394852,16,32765
6.52175,-3.18838,-0.392374,16,32765
6.51111,-3.21035,-0.389806,16,32765
6.50027,-3.23246,-0.388052,16,32765
6.50731,-3.26331,-0.387058,16,32765
6.46063,-3.26756,-0.381913,16,32765
6.48504,-3.30796,-0.381685,15,32765
6.48275,-3.33466,-0.379464,15,32765
6.49812,-3.37046,-0.378519,15,32765
6.44274,-3.36898,-0.37354,15,32765
6.46693,-3.40916,-0.37274,15,32765
6.44659,-3.42646,-0.370045,15,32765
6.47033,-3.46712,-0.369346,15,32765
6.43246,-3.47459,-0.364888,15,32765
6.42975,-3.50077,-0.363102,15,32765
6.41847,-3.52176,-0.359697,14,32765
6.40694,-3.54298,-0.356765,15,32765
6.39523,-3.56434,-0.354176,15,32765
6.40056,-3.59601,-0.352314,15,32765
6.38847,-3.61778,-0.34884,14,32765
6.42857,-3.66885,-0.348071,15,32765
6.3816,-3.67069,-0.34376,14,32765
6.40411,-3.71191,-0.342414,15,32765
6.3917,-3.73347,-0.339771,14,32765
6.34484,-3.73474,-0.334088,14,32765
6.30658,-3.74086,-0.329525,16,32765
6.18263,-3.69553,-0.319852,21,32765
6.1876,-3.72634,-0.317637,20,32765
6.29499,-3.81927,-0.321243,15,32765
6.14631,-3.75641,-0.310427,17,32765
6.30421,-3.88145,-0.315284,14,32765
6.25745,-3.88142,-0.309557,14,32765
6.27857,-3.92334,-0.308197,13,32765
6.29946,-3.96556,-0.305984,13,32765
6.28667,-3.9861,-0.302005,13,32765
6.24007,-3.98518,-0.296728,13,32765
6.26068,-4.02742,-0.293675,14,32765
6.28959,-4.07505,-0.291549,13,32765
6.32645,-4.1286,-0.29043,14,32765
6.18779,-4.06703,-0.28043,14,32765
6.28287,-4.15913,-0.280635,14,32765
6.26915,-4.18007,-0.276372,14,32765
6.22232,-4.17847,-0.270447,13,32765
6.24175,-4.22144,-0.267741,14,32765
6.26119,-4.26423,-0.264996,13,32765
6.28049,-4.30718,-0.260903,13,32765
6.2006,-4.28249,-0.253898,13,32765
6.21152,-4.31968,-0.249508,13,32765
6.17305,-4.32268,-0.243949,13,32765
6.19169,-4.36596,-0.240396,13,32765
6.17748,-4.38635,-0.234741,13,32765
6.13046,-4.38374,-0.227735,13,32765
6.14849,-4.42747,-0.223377,13,32765
6.16657,-4.47102,-0.218584,13,32765
6.16073,-4.49635,-0.212634,13,32765
6.79479,-2.08293,-0.57368,23,32765
6.78815,-2.10572,-0.56904,23,32765
6.81932,-2.14081,-0.568066,22,32765
6.77436,-2.15165,-0.561529,23,32765
6.79599,-2.18332,-0.559629,24,32765
6.77949,-2.20267,-0.556114,23,32765
6.79146,-2.23111,-0.554213,23,32765
6.76532,-2.24746,-0.549448,22,32765
6.75796,-2.27015,-0.546732,22,32765
6.75048,-2.29301,-0.543691,22,32765
6.75247,-2.3188,-0.541191,22,32765
6.75442,-2.34427,-0.539564,22,32765
6.74677,-2.36691,-0.536387,22,32765
6.73901,-2.38941,-0.534215,22,32765
6.7123,-2.40561,-0.529612,22,32765
6.70424,-2.4285,-0.527273,23,32765
6.70553,-2.45471,-0.525167,22,32765
6.71601,-2.48453,-0.524162,21,32765
6.7078,-2.50716,-0.521496,21,32765
6.70881,-2.53336,-0.519744,22,32765
6.69107,-2.55241,-0.516902,22,32765
6.68277,-2.57467,-0.513826,21,32765
6.67426,-2.59714,-0.511397,21,32765
6.65634,-2.61592,-0.508921,20,32765
