x, y, z, intensity, ring
1.01255,-0.452627,0.0443709,19,32765
1.02013,-0.460117,0.0450144,19,32765
1.02765,-0.467699,0.0457012,20,32765
1.02605,-0.47118,0.0460031,18,32765
1.02445,-0.474614,0.0463079,18,32765
1.03192,-0.482204,0.0470441,19,32765
1.03032,-0.485604,0.0472378,19,32765
1.05576,-0.50188,0.0488347,20,32765
1.01802,-0.488144,0.0473874,17,32765
1.07032,-0.517668,0.0502577,15,32765
1.12244,-0.547529,0.0533255,14,32765
1.15645,-0.568936,0.0551967,14,32765
1.10978,-0.550574,0.0533978,14,32765
1.13474,-0.567657,0.0550731,15,32765
1.07929,-0.544467,0.0529075,14,32765
1.05073,-0.534471,0.0519473,15,32765
1.00445,-0.51524,0.0500995,17,32765
1.02045,-0.527781,0.0512788,18,32765
1.03637,-0.540445,0.0525299,19,32765
1.0257,-0.539265,0.0523629,19,32765
1.08567,-0.575415,0.0558789,19,32765
1.11896,-0.597884,0.0580858,16,32765
1.04658,-0.563703,0.0548732,16,32765
1.03592,-0.562389,0.0546342,16,32765
1.0428,-0.570605,0.0554584,16,32765
0.979651,-0.540296,0.0525792,15,32765
1.05643,-0.587179,0.0573064,16,32765
1.02829,-0.576076,0.056111,16,32765
1.0003,-0.564708,0.05487,19,32765
1.11126,-0.632224,0.0615685,16,32765
1.48175,-0.849508,0.082872,13,32765
1.53079,-0.884395,0.0862699,12,32765
1.54502,-0.899628,0.0876751,13,32765
0,-0,0,0,32765
0,-0,0,0,32765
1.59589,-0.950856,0.0927462,12,32765
1.25877,-0.755607,0.0737942,12,32765
1.50411,-0.909603,0.088704,13,32765
1.44993,-0.883331,0.0861666,13,32765
1.3959,-0.856782,0.0836353,14,32765
1.39303,-0.861394,0.0840507,14,32765
1.41561,-0.881777,0.0860722,13,32765
1.46343,-0.918277,0.0896556,13,32765
1.39289,-0.880318,0.0859557,13,32765
1.48262,-0.94391,0.0920656,14,32765
1.32816,-0.851758,0.083085,13,32765
1.35054,-0.872308,0.0850068,13,32765
1.34764,-0.876733,0.0854141,13,32765
1.37819,-0.902969,0.087944,12,32765
1.37522,-0.907448,0.0882956,12,32765
1.31407,-0.873165,0.0849153,12,32765
1.3444,-0.899635,0.087474,13,32765
1.30825,-0.881796,0.0855601,13,32765
1.36315,-0.925351,0.0897103,13,32765
1.28592,-0.879061,0.0851497,13,32765
1.26666,-0.871821,0.0843294,13,32765
1.20645,-0.835975,0.0807567,13,32765
1.21192,-0.845575,0.0816007,13,32765
1.09477,-0.769155,0.0741003,14,32765
1.16558,-0.824641,0.0793094,14,32765
1.08164,-0.770382,0.0739294,15,32765
1.08735,-0.779558,0.0746272,15,32765
1.08483,-0.783044,0.0747182,15,32765
1.08221,-0.786648,0.0748896,16,32765
1.08773,-0.79603,0.0753769,15,32765
0,-0,0,0,32765
1.60169,-0.504743,0.0470985,11,32765
1.36193,-0.434135,0.0398348,12,32765
1.63638,-0.527627,0.0475502,12,32765
1.73923,-0.566955,0.0505487,11,32765
1.50954,-0.497476,0.0436554,11,32765
1.32772,-0.44236,0.038302,13,32765
1.42102,-0.478573,0.0410391,12,32765
0,-0,0,0,32765
0,-0,0,0,32765
0,-0,0,0,32765
0,-0,0,0,32765
0,-0,0,0,32765
0,-0,0,0,32765
0,-0,0,0,32765
0,-0,0,0,32765
0,-0,0,0,32765
0,-0,0,0,32765
0,-0,0,0,32765
1.59701,-0.609416,0.0476998,12,32765
1.67891,-0.647094,0.0503276,12,32765
1.62087,-0.630874,0.048785,12,32765
1.45134,-0.570325,0.0439562,13,32765
1.51449,-0.600906,0.0460825,13,32765
1.28052,-0.51296,0.0391197,13,32765
1.13052,-0.457294,0.0347604,17,32765
1.11047,-0.453524,0.0343889,19,32765
1.08121,-0.445805,0.033743,18,32765
1.01512,-0.422514,0.0318566,17,32765
1.06901,-0.449092,0.0338233,19,32765
1.05829,-0.448751,0.0337354,21,32765
1.12111,-0.479812,0.0360138,20,32765
1.04608,-0.451842,0.0339414,18,32765
1.02621,-0.447396,0.0336113,20,32765
1.0247,-0.450818,0.0338253,20,32765
1.01405,-0.450193,0.0337441,20,32765
1.02164,-0.457683,0.0342505,20,32765
1.00188,-0.452869,0.0338791,19,32765
1.03671,-0.472849,0.0353992,19,32765
1.01692,-0.468011,0.0350781,19,32765
1.0516,-0.488259,0.0366446,19,32765
1.04998,-0.491716,0.0369775,19,32765
1.0393,-0.490914,0.0368548,19,32765
1.0557,-0.502956,0.0378504,19,32765
1.04498,-0.502179,0.0377559,19,32765
1.02528,-0.496982,0.0374449,19,32765
1.05951,-0.517977,0.0392635,18,32765
1.03086,-0.50828,0.038413,19,32765
1.0202,-0.507261,0.0383929,19,32765
1.03637,-0.519604,0.0394174,19,32765
1.02568,-0.518582,0.039493,19,32765
1.02393,-0.522003,0.0398365,19,32765
1.02213,-0.525488,0.0401969,19,32765
1.02922,-0.533516,0.0408425,19,32765
1.0274,-0.536979,0.0411996,19,32765
1.04326,-0.549743,0.0421976,20,32765
1.05907,-0.562589,0.0432613,16,32765
1.02192,-0.547275,0.042176,17,32765
0.993688,-0.536434,0.0415099,19,32765
0.983121,-0.534943,0.0413543,18,32765
1.01638,-0.557419,0.0431842,18,32765
0.988261,-0.546296,0.0424547,18,32765
0.98644,-0.54954,0.0429245,19,32765
1.002,-0.562641,0.0439048,19,32765
1.00884,-0.570848,0.0444746,17,32765
1.19789,-0.683087,0.0534451,13,32765
1.49017,-0.856319,0.067238,12,32765
1.47864,-0.856259,0.067322,12,32765
1.48434,-0.866313,0.0681307,12,32765
0,-0,0,0,32765
0,-0,0,0,32765
0,-0,0,0,32765
1.55817,-0.937534,0.0743175,12,32765
1.45254,-0.880492,0.0697586,12,32765
1.51784,-0.926898,0.0735524,12,32765
1.3956,-0.858634,0.0682786,12,32765
1.35026,-0.836937,0.066601,14,32765
1.34749,-0.841351,0.0670632,14,32765
1.31086,-0.824513,0.0658173,14,32765
1.35036,-0.855487,0.0683742,14,32765
1.31381,-0.838456,0.0670027,14,32765
1.37824,-0.886015,0.0708919,15,32765
1.43404,-0.928492,0.0742848,13,32765
1.33054,-0.867715,0.0694755,13,32765
1.34441,-0.882984,0.0707488,13,32765
1.30817,-0.865318,0.069327,13,32765
1.36357,-0.908284,0.072799,12,32765
1.37718,-0.923842,0.0741073,12,32765
1.30784,-0.883704,0.0707833,12,32765
1.28013,-0.87115,0.0697785,13,32765
1.26079,-0.86402,0.0692059,12,32765
1.2169,-0.839666,0.0672064,13,32765
1.22245,-0.849182,0.0679258,13,32765
1.10508,-0.772969,0.0618135,14,32765
1.12704,-0.793827,0.0634136,14,32765
1.05108,-0.745516,0.0594888,15,32765
1.09749,-0.783657,0.0624255,15,32765
1.06259,-0.763753,0.0607159,15,32765
1.0844,-0.784736,0.0621987,15,32765
1.08177,-0.788348,0.0623714,15,32765
1.06311,-0.780022,0.0613719,15,32765
0,-0,0,0,32765
0,-0,0,0,32765
0,-0,0,0,32765
0,-0,0,0,32765
0,-0,0,0,32765
1.60612,-0.52502,0.0287155,11,32765
0,-0,0,0,32765
0,-0,0,0,32765
0,-0,0,0,32765
0,-0,0,0,32765
0,-0,0,0,32765
0,-0,0,0,32765
0,-0,0,0,32765
0,-0,0,0,32765
0,-0,0,0,32765
0,-0,0,0,32765
0,-0,0,0,32765
0,-0,0,0,32765
0,-0,0,0,32765
0,-0,0,0,32765
1.662,-0.636109,0.0390789,11,32765
0,-0,0,0,32765
1.71356,-0.669027,0.0415491,12,32765
0,-0,0,0,32765
1.72763,-0.687786,0.0430664,12,32765
1.53052,-0.615242,0.0385683,12,32765
1.23203,-0.500025,0.031425,14,32765
1.11009,-0.454836,0.0287245,18,32765
1.15474,-0.477661,0.0303252,18,32765
1.0332,-0.431447,0.0274541,17,32765
1.04094,-0.438834,0.0278971,19,32765
1.05784,-0.45016,0.0287386,21,32765
1.15736,-0.497087,0.0318175,19,32765
1.01812,-0.441292,0.0282926,18,32765
1.03495,-0.45269,0.0291838,20,32765
1.02428,-0.452103,0.0291042,20,32765
1.04103,-0.463645,0.0299119,20,32765
1.03945,-0.467161,0.0301637,20,32765
1.01964,-0.462425,0.0300305,19,32765
1.03625,-0.474175,0.0307817,18,32765
1.03461,-0.477705,0.0311757,19,32765
1.05113,-0.489594,0.0319877,19,32765
1.03139,-0.484575,0.0318555,19,32765
1.03882,-0.492241,0.0323242,19,32765
1.0552,-0.504324,0.0332277,18,32765
1.12551,-0.542614,0.0358711,17,32765
1.09669,-0.533312,0.035368,17,32765
1.05897,-0.519434,0.0342735,17,32765
1.08409,-0.536275,0.0355827,17,32765
1.03758,-0.517544,0.0344271,17,32765
1.00903,-0.507553,0.0338078,18,32765
1.03403,-0.524548,0.0350842,19,32765
1.05003,-0.537167,0.0357898,19,32765
1.02156,-0.526938,0.0352708,19,32765
1.02865,-0.534967,0.0359065,19,32765
1.02686,-0.53836,0.0363036,19,32765
1.12225,-0.593168,0.0400357,20,32765
1.15552,-0.615749,0.0415896,17,32765
0.986157,-0.529727,0.0358278,18,32765
0.984358,-0.533023,0.0364283,19,32765
0.982577,-0.536284,0.0366428,18,32765
0.998289,-0.549186,0.0376119,18,32765
0.996458,-0.55248,0.0379036,18,32765
0.985892,-0.55089,0.0379081,18,32765
0.984047,-0.554151,0.0383064,18,32765
1.09521,-0.621482,0.0432707,16,32765
1.38809,-0.793815,0.0554045,12,32765
1.46338,-0.843289,0.0589972,12,32765
1.40872,-0.817986,0.0574822,12,32765
0,-0,0,0,32765
1.49789,-0.883175,0.0627801,13,32765
1.51204,-0.898465,0.0639658,12,32765
1.18321,-0.708409,0.0506824,12,32765
0,-0,0,0,32765
1.53719,-0.934069,0.0676126,12,32765
1.5256,-0.933833,0.0679164,12,32765
1.50549,-0.928325,0.0678856,12,32765
1.46,-0.906842,0.0666581,13,32765
1.31298,-0.821522,0.0606623,13,32765
1.29337,-0.81513,0.0605647,14,32765
1.33283,-0.846149,0.0632176,14,32765
1.3805,-0.882854,0.0663135,14,32765
1.41117,-0.908997,0.0687298,13,32765
1.42488,-0.924551,0.0701544,13,32765
1.32981,-0.869067,0.0664572,13,32765
1.3269,-0.873448,0.0672668,14,32765
1.30736,-0.866721,0.0671239,13,32765
1.30452,-0.870935,0.0678419,13,32765
1.31823,-0.886302,0.0696158,12,32765
1.29875,-0.879389,0.0694978,13,32765
1.30408,-0.889256,0.0707472,14,32765
1.2599,-0.8653,0.0693076,13,32765
1.19954,-0.829596,0.0669617,12,32765
1.19681,-0.833464,0.0677505,13,32765
1.09594,-0.768477,0.0629444,15,32765
1.19945,-0.846955,0.0698261,14,32765
1.08267,-0.769827,0.0640031,15,32765
1.09638,-0.784928,0.0658396,15,32765
1.09383,-0.788407,0.066681,15,32765
1.09934,-0.797749,0.068103,16,32765
1.06443,-0.777748,0.0671047,15,32765
1.2036,-0.372683,0.00670082,13,32765
1.3169,-0.412438,0.00817912,14,32765
1.25836,-0.39856,0.00844998,14,32765
1.31419,-0.420977,0.00937785,13,32765
1.36986,-0.443815,0.0104561,12,32765
1.59646,-0.523034,0.0127378,12,32765
1.29097,-0.427647,0.010853,12,32765
1.21371,-0.406441,0.0107379,13,32765
1.27865,-0.432921,0.0118971,14,32765
1.47589,-0.505123,0.0143144,12,32765
0,-0,0,0,32765
0,-0,0,0,32765
0,-0,0,0,32765
0,-0,0,0,32765
0,-0,0,0,32765
0,-0,0,0,32765
0,-0,0,0,32765
0,-0,0,0,32765
0,-0,0,0,32765
0,-0,0,0,32765
1.4844,-0.569429,0.0199592,12,32765
1.44518,-0.559972,0.0199861,13,32765
1.42467,-0.557504,0.0201665,13,32765
1.42279,-0.562272,0.0205212,13,32765
1.38377,-0.552151,0.0204947,13,32765
1.12222,-0.452146,0.0169112,17,32765
1.17627,-0.478492,0.018072,16,32765
1.10992,-0.455812,0.0174477,20,32765
1.17304,-0.486345,0.0188766,17,32765
1.06993,-0.447815,0.0175352,16,32765
1.0684,-0.451452,0.0177391,18,32765
1.09446,-0.466818,0.0185585,19,32765
1.05615,-0.454665,0.0182365,17,32765
1.04545,-0.454192,0.0183488,20,32765
1.03477,-0.453662,0.0185699,20,32765
1.05153,-0.465209,0.0190829,20,32765
1.03171,-0.460565,0.0190372,19,32765
1.03014,-0.464057,0.0192875,20,32765
1.02854,-0.467555,0.0196878,19,32765
1.02696,-0.471025,0.0199017,19,32765
1.03441,-0.478731,0.0204726,20,32765
1.05997,-0.494875,0.0212795,19,32765
1.06736,-0.502655,0.0218962,18,32765
1.21923,-0.579089,0.0252739,13,32765
1.17219,-0.561564,0.024718,14,32765
1.07125,-0.517678,0.0229809,14,32765
1.13239,-0.551981,0.0247032,15,32765
1.18433,-0.58231,0.0259535,14,32765
1.1734,-0.581843,0.0262318,14,32765
1.18935,-0.594666,0.0269942,13,32765
1.18733,-0.598669,0.0273143,14,32765
1.02486,-0.521144,0.0239941,17,32765
1.01418,-0.520073,0.0238837,19,32765
1.03906,-0.537254,0.0249107,19,32765
1.03724,-0.540738,0.0252435,20,32765
1.04428,-0.548819,0.0258641,19,32765
1.16611,-0.617846,0.0292346,17,32765
0.996461,-0.532284,0.0252803,17,32765
1.00348,-0.540345,0.02578,19,32765
1.01921,-0.553246,0.0268551,20,32765
0.999823,-0.547033,0.0266113,18,32765
0.98923,-0.545538,0.0266908,19,32765
0.996148,-0.553667,0.0272197,19,32765
1.00302,-0.561845,0.0278023,19,32765
1.03596,-0.584829,0.0291897,18,32765
1.25995,-0.716734,0.0362098,13,32765
1.36161,-0.780604,0.0396568,12,32765
1.4023,-0.810096,0.0413776,12,32765
1.36504,-0.794597,0.040919,13,32765
0,-0,0,0,32765
1.23059,-0.727387,0.0382026,12,32765
1.06492,-0.634369,0.0334549,13,32765
1.68846,-1.01345,0.0539046,12,32765
0,-0,0,0,32765
1.47686,-0.899673,0.048787,12,32765
1.37167,-0.841732,0.0460154,12,32765
1.47091,-0.909295,0.0501581,12,32765
1.55277,-0.96691,0.0537933,12,32765
1.34634,-0.844533,0.0473476,13,32765
1.30975,-0.827559,0.0468519,13,32765
1.33229,-0.847967,0.0484337,13,32765
1.33786,-0.857777,0.0494157,13,32765
1.32663,-0.856726,0.0498575,13,32765
1.29023,-0.839334,0.0491461,15,32765
1.32925,-0.870934,0.0515852,14,32765
1.34302,-0.886335,0.0530552,13,32765
1.2735,-0.846453,0.0511057,12,32765
1.26242,-0.845009,0.0514681,13,32765
1.2845,-0.865862,0.053372,13,32765
1.33951,-0.909344,0.0565655,12,32765
1.33649,-0.913728,0.0573941,12,32765
1.18525,-0.816151,0.0517705,12,32765
1.25647,-0.871239,0.0558721,13,32765
1.25361,-0.875302,0.0567,13,32765
1.1363,-0.798865,0.0523038,13,32765
1.07655,-0.762166,0.0503671,15,32765
1.05774,-0.75408,0.0504135,14,32765
1.04715,-0.751656,0.0508621,14,32765
1.0933,-0.790103,0.0540702,15,32765
1.08265,-0.787709,0.0545853,15,32765
1.08003,-0.791232,0.0556064,15,32765
1.71961,-0.531669,0.0165286,12,32765
1.52699,-0.477606,0.0143537,11,32765
1.59215,-0.503718,0.0146964,12,32765
1.75243,-0.560649,0.0158261,11,32765
1.71256,-0.554007,0.0152081,12,32765
1.65373,-0.540894,0.014718,12,32765
1.55702,-0.514866,0.0137661,12,32765
1.38463,-0.462869,0.0121664,12,32765
1.36411,-0.461151,0.0117937,14,32765
1.47609,-0.504583,0.0129084,13,32765
0,-0,0,0,32765
0,-0,0,12,32765
0,-0,0,0,32765
0,-0,0,0,32765
0,-0,0,0,32765
0,-0,0,0,32765
0,-0,0,0,32765
0,-0,0,0,32765
0,-0,0,0,32765
0,-0,0,0,32765
1.55018,-0.593559,0.0148898,12,32765
1.41763,-0.548209,0.013782,12,32765
1.42514,-0.556493,0.0141483,13,32765
1.40468,-0.553861,0.0141436,12,32765
1.48646,-0.591785,0.0152889,12,32765
1.09481,-0.44008,0.0114831,17,32765
1.25084,-0.507669,0.0133562,15,32765
1.15661,-0.473905,0.0125672,19,32765
1.21044,-0.500744,0.013471,18,32765
1.05189,-0.439297,0.0119116,17,32765
1.05041,-0.442823,0.0121791,18,32765
1.08574,-0.461959,0.0128837,20,32765
1.14852,-0.493159,0.0138664,17,32765
1.03676,-0.449293,0.0127696,19,32765
1.04439,-0.456811,0.0133328,19,32765
1.03369,-0.456294,0.0134748,19,32765
1.00475,-0.447562,0.0132036,19,32765
1.02147,-0.459128,0.0137931,20,32765
1.03813,-0.470823,0.0142903,19,32765
1.02747,-0.470101,0.0145042,19,32765
1.03496,-0.477747,0.0148939,19,32765
1.04242,-0.485411,0.0153755,19,32765
1.05888,-0.497419,0.0158802,19,32765
1.19273,-0.5652,0.0183997,15,32765
1.17277,-0.560588,0.0185207,14,32765
1.17088,-0.56452,0.0190312,14,32765
1.07008,-0.520303,0.0176301,15,32765
1.05934,-0.519519,0.0175424,16,32765
1.04861,-0.518661,0.0177793,16,32765
1.10052,-0.54899,0.0190092,16,32765
1.2237,-0.615618,0.021716,14,32765
1.15918,-0.588094,0.0210147,13,32765
1.03256,-0.528255,0.0191235,17,32765
1.0308,-0.53167,0.0196275,18,32765
1.02901,-0.535104,0.0199893,19,32765
1.0449,-0.547856,0.0206959,20,32765
1.14912,-0.607435,0.0233752,19,32765
1.02349,-0.545537,0.0214199,15,32765
0.995222,-0.534768,0.0213611,18,32765
1.00222,-0.542845,0.0217046,19,32765
1.00041,-0.54616,0.0220843,19,32765
0.989813,-0.544677,0.0223089,19,32765
0.987999,-0.547947,0.022646,19,32765
0.977438,-0.546344,0.0228623,19,32765
1.00173,-0.564321,0.0239092,17,32765
1.13025,-0.641696,0.0274519,15,32765
0,-0,0,0,32765
0,-0,0,0,32765
1.35713,-0.788599,0.0346515,13,32765
1.25096,-0.732481,0.0325408,12,32765
1.25712,-0.741719,0.0331602,12,32765
1.0398,-0.618184,0.0277975,15,32765
1.50944,-0.90415,0.0411257,12,32765
1.3438,-0.81101,0.0370865,12,32765
1.37525,-0.836237,0.0385281,12,32765
1.35543,-0.830315,0.0384338,12,32765
1.4122,-0.871574,0.0406307,12,32765
1.44328,-0.897311,0.0421396,12,32765
1.52503,-0.955117,0.0452693,12,32765
1.45421,-0.917476,0.0437,12,32765
1.34994,-0.857896,0.0410695,12,32765
1.33024,-0.851578,0.0409511,13,32765
1.28546,-0.828792,0.0400773,14,32765
1.3247,-0.860128,0.0418864,13,32765
1.26335,-0.826082,0.0403208,13,32765
1.28571,-0.846651,0.0415883,14,32765
1.29958,-0.861909,0.0424339,13,32765
1.2718,-0.849504,0.0421121,13,32765
1.29383,-0.870484,0.0432423,13,32765
1.32403,-0.897176,0.0448067,13,32765
1.26329,-0.862052,0.0432358,13,32765
1.21104,-0.832181,0.0418591,13,32765
1.24945,-0.864514,0.0434747,13,32765
1.29586,-0.902814,0.0456046,12,32765
0,-0,0,0,32765
0,-0,0,0,32765
0,-0,0,0,32765
0,-0,0,0,32765
0,-0,0,0,32765
0,-0,0,0,32765
0,-0,0,0,32765
1.13667,-0.352254,-0.000271298,17,32765
1.11642,-0.350006,-0.000513444,17,32765
1.15339,-0.36576,-0.000736998,18,32765
1.12364,-0.360326,-0.000953001,18,32765
1.13198,-0.367054,-0.00114149,18,32765
1.14028,-0.373839,-0.00113874,18,32765
1.22449,-0.405864,-0.00130681,15,32765
1.23264,-0.413037,-0.00139525,14,32765
1.16493,-0.394753,-0.00149533,13,32765
1.41901,-0.486228,-0.00169586,12,32765
0,-0,-0,0,32765
0,-0,-0,12,32765
0,-0,-0,12,32765
0,-0,-0,0,32765
0,-0,-0,0,32765
0,-0,-0,0,32765
0,-0,-0,0,32765
0,-0,-0,0,32765
0,-0,-0,0,32765
0,-0,-0,0,32765
1.47507,-0.566176,-0.000677019,12,32765
1.53845,-0.596382,-0.000545346,12,32765
1.50854,-0.590502,-0.000242492,12,32765
1.49728,-0.591818,-4.77723e-05,11,32765
1.38386,-0.552291,0.000238271,12,32765
1.23361,-0.497094,0.000447436,15,32765
1.14857,-0.467311,0.000618947,16,32765
1.10076,-0.452132,0.000785601,16,32765
1.09922,-0.455857,0.00105936,17,32765
1.07923,-0.45183,0.00123616,19,32765
1.07771,-0.455457,0.00151151,19,32765
1.06699,-0.455109,0.00177187,17,32765
1.03792,-0.446777,0.00192434,18,32765
1.04559,-0.454246,0.0021786,19,32765
1.02572,-0.449765,0.0025834,19,32765
1.03334,-0.457278,0.00286623,19,32765
1.02266,-0.456681,0.00292983,19,32765
1.03935,-0.468334,0.0033387,20,32765
1.04687,-0.475976,0.00362187,19,32765
1.06346,-0.48779,0.00403696,17,32765
1.01643,-0.470376,0.0041221,17,32765
1.0511,-0.490685,0.00462411,19,32765
1.06753,-0.50275,0.00494409,19,32765
1.0568,-0.50205,0.00533161,19,32765
1.06411,-0.509936,0.00574101,17,32765
1.11641,-0.539623,0.00652071,15,32765
1.18652,-0.578383,0.00717454,15,32765
1.1666,-0.573582,0.00713356,15,32765
1.17361,-0.58197,0.00762113,14,32765
1.16268,-0.581479,0.00790031,14,32765
1.0357,-0.522372,0.00751023,15,32765
1.04283,-0.530421,0.00794339,18,32765
1.04992,-0.538516,0.00839058,19,32765
1.057,-0.54659,0.00897955,19,32765
1.0463,-0.545498,0.0092731,19,32765
1.06215,-0.558337,0.00979931,18,32765
1.03375,-0.547864,0.0100724,17,32765
1.0054,-0.53728,0.0103673,19,32765
1.02119,-0.550142,0.0110584,19,32765
1.01934,-0.553552,0.0112167,19,32765
1.00872,-0.552131,0.0115039,20,32765
1.01562,-0.560335,0.0120344,20,32765
1.03123,-0.573417,0.0125948,19,32765
1.02931,-0.576844,0.0130348,18,32765
1.07961,-0.609788,0.0141672,16,32765
1.42516,-0.811256,0.0192737,11,32765
0,-0,0,0,32765
0,-0,0,0,32765
1.31325,-0.765117,0.0193178,12,32765
1.3538,-0.794795,0.0205369,11,32765
0.93805,-0.554933,0.0145539,16,32765
1.33127,-0.79358,0.0211014,12,32765
1.35435,-0.813414,0.0221333,12,32765
1.36018,-0.823096,0.0226806,12,32765
1.35743,-0.827612,0.0231725,12,32765
1.43137,-0.879186,0.0248919,12,32765
1.3859,-0.857649,0.0246483,12,32765
1.37458,-0.856909,0.0250035,12,32765
1.19392,-0.749771,0.0222735,13,32765
1.27592,-0.807175,0.0242432,13,32765
1.25639,-0.800618,0.0243131,13,32765
1.32104,-0.847992,0.0260126,13,32765
1.2427,-0.803415,0.0249311,14,32765
1.17307,-0.763762,0.0240273,13,32765
1.11207,-0.729158,0.0230828,14,32765
1.11804,-0.738264,0.0236635,14,32765
1.10727,-0.736396,0.0237488,14,32765
1.16299,-0.778977,0.0254523,15,32765
1.10235,-0.743721,0.0244407,15,32765
1.07507,-0.730505,0.0242609,15,32765
1.17993,-0.80742,0.0270524,14,32765
1.29255,-0.89068,0.030043,12,32765
1.20752,-0.837851,0.0283166,13,32765
1.22939,-0.858921,0.0292889,13,32765
0,-0,0,0,32765
0,-0,0,0,32765
0,-0,0,0,32765
0,-0,0,0,32765
0,-0,0,0,32765
0,-0,0,0,32765
0,-0,0,0,32765
0.755051,-0.23211,-0.0110653,17,32765
0.754289,-0.234597,-0.0106256,17,32765
0.763064,-0.240054,-0.010385,18,32765
0.771807,-0.245585,-0.0101328,18,32765
0.770995,-0.248139,-0.00971094,18,32765
0.760678,-0.247555,-0.00926458,18,32765
0.769368,-0.25316,-0.00910003,18,32765
0.759062,-0.25249,-0.00857448,18,32765
0.748753,-0.251795,-0.00823408,17,32765
0.738443,-0.251078,-0.00782182,17,32765
0.728143,-0.250308,-0.00738497,17,32765
0.74619,-0.259322,-0.00724962,16,32765
0.70758,-0.248565,-0.00674187,15,32765
0.744447,-0.264298,-0.0067434,15,32765
0.715331,-0.256635,-0.00628649,14,32765
0.742693,-0.2692,-0.00616051,14,32765
0.713632,-0.261336,-0.0057352,13,32765
0.909725,-0.336528,-0.00703666,12,32765
0.665069,-0.248514,-0.00492195,12,32765
0.888777,-0.335465,-0.00625497,11,32765
0,-0,-0,0,32765
1.20378,-0.463644,-0.00770056,12,32765
1.20219,-0.467752,-0.00714046,11,32765
1.58217,-0.621817,-0.00900448,11,32765
1.41278,-0.560719,-0.00760125,12,32765
1.40162,-0.561706,-0.00705771,12,32765
1.32556,-0.536423,-0.00625616,12,32765
1.17567,-0.480294,-0.00526358,13,32765
1.08161,-0.446091,-0.00455638,16,32765
1.18166,-0.492001,-0.00453875,17,32765
1.08781,-0.457236,-0.00382894,16,32765
1.06784,-0.453101,-0.00353787,18,32765
1.05712,-0.452752,-0.00306968,19,32765
1.03722,-0.448405,-0.00266706,18,32765
1.02655,-0.447878,-0.00234345,19,32765
1.03417,-0.455389,-0.00219037,19,32765
1.04177,-0.462939,-0.00178849,18,32765
1.03111,-0.462298,-0.00145315,19,32765
1.02045,-0.461607,-0.00111816,18,32765
1.02797,-0.469223,-0.000759754,18,32765
1.09903,-0.506197,-0.000550375,16,32765
1.08823,-0.50573,-0.000190972,16,32765
1.0322,-0.483913,0.000109173,18,32765
1.05771,-0.500141,0.000561295,19,32765
1.03798,-0.495074,0.000633004,19,32765
1.05436,-0.507182,0.000988057,19,32765
1.03466,-0.501977,0.00140289,18,32765
1.08684,-0.531857,0.00141452,16,32765
1.04022,-0.513361,0.00162638,15,32765
1.0743,-0.534679,0.00224741,15,32765
1.0457,-0.524788,0.00238934,16,32765
1.01718,-0.514717,0.00263485,18,32765
1.05997,-0.540879,0.00313808,18,32765
1.05812,-0.544491,0.00345631,18,32765
1.03849,-0.538902,0.00372514,19,32765
1.05439,-0.551675,0.00426789,18,32765
1.07907,-0.569202,0.00480015,17,32765
1.02418,-0.544638,0.00490522,16,32765
0.995847,-0.534004,0.00539822,19,32765
1.01166,-0.546812,0.0057978,19,32765
1.00104,-0.545423,0.0061733,18,32765
0.999208,-0.548764,0.00651574,18,32765
0.988609,-0.547271,0.00682555,20,32765
1.00425,-0.560293,0.00729388,18,32765
1.04596,-0.588129,0.00800515,18,32765
1.18323,-0.670424,0.00954006,16,32765
0,-0,0,0,32765
0,-0,0,0,32765
0,-0,0,0,32765
0,-0,0,0,32765
1.32699,-0.781351,0.0135411,11,32765
0.963175,-0.571478,0.0103458,16,32765
1.45049,-0.867136,0.0162421,12,32765
1.46473,-0.882263,0.0171164,12,32765
1.32503,-0.80407,0.0161634,12,32765
1.41621,-0.865804,0.0179807,12,32765
1.50701,-0.928123,0.0198858,12,32765
1.48696,-0.922515,0.0204393,12,32765
1.44155,-0.900837,0.0207216,12,32765
1.40474,-0.884234,0.0209596,13,32765
1.27517,-0.808485,0.0197537,12,32765
1.33988,-0.85578,0.0213687,12,32765
1.29502,-0.833096,0.021503,12,32765
1.28389,-0.83189,0.0221043,13,32765
1.12205,-0.732259,0.0200163,14,32765
1.07785,-0.708484,0.0199149,15,32765
1.07548,-0.712046,0.0206216,15,32765
1.11471,-0.743333,0.021998,14,32765
1.12885,-0.758139,0.0230447,15,32765
1.12635,-0.761815,0.023767,15,32765
1.14041,-0.776688,0.0248806,16,32765
1.2698,-0.870858,0.0286163,14,32765
1.29164,-0.891997,0.0300139,12,32765
1.27232,-0.884747,0.0305968,13,32765
1.25301,-0.877432,0.0311746,13,32765
1.4544,-1.02554,0.0372499,11,32765
0,-0,0,0,32765
0,-0,0,0,32765
0,-0,0,0,32765
0,-0,0,0,32765
0,-0,0,0,32765
0.783408,-0.241462,-0.0191957,19,32765
0.782617,-0.244048,-0.018739,18,32765
0.753221,-0.237581,-0.0176827,17,32765
0.742921,-0.237014,-0.0170907,18,32765
0.74214,-0.239479,-0.0166841,18,32765
0.731856,-0.2388,-0.0161556,17,32765
0.750066,-0.247456,-0.0163014,18,32765
0.730301,-0.243559,-0.0154907,18,32765
0.748448,-0.252351,-0.0156594,19,32765
0.738141,-0.251632,-0.0151528,18,32765
0.756201,-0.260633,-0.0151912,19,32765
0.755324,-0.263183,-0.0148595,19,32765
0.763868,-0.269041,-0.0148928,19,32765
0.753556,-0.268232,-0.014346,19,32765
0.762072,-0.27412,-0.0143108,19,32765
0.761175,-0.276621,-0.0139268,18,32765
0.732101,-0.268801,-0.0132141,17,32765
0.731218,-0.271203,-0.0129858,17,32765
0.758414,-0.284137,-0.013224,16,32765
0.757471,-0.286653,-0.0129416,17,32765
0.775194,-0.29632,-0.0129731,17,32765
0.736872,-0.284557,-0.0121354,16,32765
0.707954,-0.276176,-0.0113441,16,32765
0.744219,-0.293258,-0.0117498,16,32765
0.752523,-0.299455,-0.0116565,16,32765
0.751522,-0.301969,-0.0113912,16,32765
0.731969,-0.29699,-0.0108732,16,32765
0.758742,-0.310786,-0.0110966,17,32765
0.7577,-0.313325,-0.0108909,16,32765
0.719736,-0.300464,-0.0100873,16,32765
0.709504,-0.299014,-0.00972564,16,32765
0.754494,-0.32099,-0.0101967,16,32765
0.744224,-0.319586,-0.0097635,16,32765
0.761483,-0.330073,-0.00974747,16,32765
0.742051,-0.324613,-0.00929503,16,32765
0.777534,-0.343291,-0.00962247,16,32765
0.730702,-0.325572,-0.00876026,15,32765
0.73874,-0.332098,-0.00864004,14,32765
0.764949,-0.346953,-0.00871782,14,32765
0.754674,-0.345394,-0.00834284,13,32765
0.880584,-0.40667,-0.0095383,14,32765
0.761361,-0.354774,-0.00801092,13,32765
0.895908,-0.421146,-0.0091883,13,32765
1.01198,-0.479799,-0.00996399,14,32765
0.956231,-0.457312,-0.00935431,13,32765
0.990736,-0.477864,-0.00938299,14,32765
1.09704,-0.533677,-0.00994767,14,32765
1.07726,-0.528596,-0.00984444,13,32765
1.03964,-0.514464,-0.009245,14,32765
1.10948,-0.553688,-0.00929792,14,32765
1.08083,-0.543894,-0.00886701,14,32765
1.01659,-0.515822,-0.00804632,14,32765
1.05045,-0.537483,-0.00794326,14,32765
1.03084,-0.531901,-0.0074974,15,32765
1.04675,-0.544672,-0.00729591,15,32765
1.06261,-0.557502,-0.00693551,15,32765
1.03422,-0.547042,-0.00635389,15,32765
1.01473,-0.541098,-0.00590608,16,32765
1.01285,-0.544617,-0.00527436,17,32765
1.0462,-0.56704,-0.00514216,17,32765
1.00919,-0.551383,-0.00453868,17,32765
1.01609,-0.559583,-0.00422867,18,32765
1.03169,-0.572706,-0.00391733,19,32765
1.02978,-0.576135,-0.00355969,17,32765
1.10626,-0.623763,-0.00341293,17,32765
1.48677,-0.844756,-0.00400599,12,32765
0,-0,-0,0,32765
0,-0,-0,0,32765
0,-0,-0,0,32765
0,-0,-0,0,32765
0.947201,-0.559294,-0.000616024,14,32765
1.14298,-0.680073,-0.000152575,13,32765
1.53524,-0.920397,0.000464626,12,32765
1.32674,-0.80141,0.00102191,12,32765
1.52057,-0.925343,0.00191989,11,32765
1.4493,-0.888548,0.00252157,12,32765
0.621089,-0.383597,0.00137777,15,32765
0.662278,-0.412049,0.00181965,19,32765
0.627039,-0.39296,0.00210404,16,32765
0.634204,-0.400349,0.00246095,16,32765
0.616016,-0.391685,0.00272862,17,32765
0.614705,-0.393737,0.00299029,17,32765
0.630218,-0.406587,0.00346554,18,32765
0.637264,-0.414101,0.00388048,19,32765
0.652634,-0.427142,0.00436569,19,32765
0.634521,-0.418284,0.0046347,18,32765
0.624796,-0.414855,0.00498529,18,32765
0.615103,-0.411364,0.00523822,17,32765
0.622035,-0.418974,0.0057058,16,32765
0.620659,-0.421005,0.0061048,15,32765
0.553236,-0.377884,0.00582518,14,32765
0.683822,-0.470349,0.00767563,13,32765
0.789156,-0.546575,0.00939241,12,32765
0.967814,-0.67497,0.0122807,15,32765
1.30109,-0.913764,0.0175597,12,32765
1.27359,-0.900683,0.0180899,12,32765
0,-0,0,0,32765
0,-0,0,0,32765
0,-0,0,0,32765
0,-0,0,0,32765
0,-0,0,0,32765
0.783565,-0.241175,-0.0161296,20,32765
0.763681,-0.237779,-0.0158897,20,32765
0.73429,-0.231254,-0.015487,19,32765
0.743064,-0.236665,-0.0156744,19,32765
0.77083,-0.248299,-0.0163899,20,32765
0.7605,-0.247745,-0.0162088,19,32765
0.769173,-0.253378,-0.0165169,19,32765
0.758835,-0.252788,-0.0163585,19,32765
0.74853,-0.252082,-0.0160539,19,32765
0.73823,-0.251323,-0.0158921,19,32765
0.74687,-0.256961,-0.01601,18,32765
0.727141,-0.252826,-0.0156644,18,32765
0.726305,-0.255231,-0.0154449,19,32765
0.753707,-0.267712,-0.0160202,19,32765
0.752797,-0.270262,-0.0159737,19,32765
0.761285,-0.2762,-0.0160726,19,32765
0.750985,-0.275266,-0.0157937,19,32765
0.7407,-0.274267,-0.0155123,18,32765
0.721069,-0.269691,-0.0150273,18,32765
0.729518,-0.275634,-0.0151351,18,32765
0.728596,-0.27807,-0.0149924,18,32765
0.736987,-0.284117,-0.0151136,18,32765
0.736033,-0.286588,-0.0149083,18,32765
0.707166,-0.278055,-0.0142069,18,32765
0.724825,-0.287784,-0.0144725,17,32765
0.751714,-0.301343,-0.0147904,17,32765
0.741434,-0.300107,-0.0145233,16,32765
0.684899,-0.279889,-0.0132545,16,32765
0.730175,-0.301246,-0.0139724,16,32765
0.766063,-0.319116,-0.0145577,16,32765
0.718898,-0.30233,-0.0134878,16,32765
0.75469,-0.320388,-0.0139606,16,32765
0.762808,-0.326847,-0.0139312,16,32765
0.743367,-0.321442,-0.0134468,15,32765
0.74229,-0.323928,-0.0132757,15,32765
0.777806,-0.342537,-0.0136105,15,32765
0.758369,-0.337053,-0.0130964,16,32765
0.729856,-0.32735,-0.012336,16,32765
0.765191,-0.3463,-0.012629,15,32765
0.773111,-0.353044,-0.012598,16,32765
0.74468,-0.343091,-0.0118298,16,32765
0.716338,-0.332915,-0.0112915,17,32765
0.715224,-0.33531,-0.0110357,15,32765
0.705055,-0.333441,-0.0107078,16,32765
0.730998,-0.348749,-0.0108056,16,32765
0.720814,-0.346868,-0.0104545,16,32765
0.710671,-0.344885,-0.0100765,15,32765
0.718493,-0.351661,-0.0101505,15,32765
0.75318,-0.371772,-0.0102937,14,32765
0.734011,-0.365417,-0.00988502,15,32765
0.688079,-0.345493,-0.00905145,14,32765
0.811797,-0.411072,-0.0102651,13,32765
0.792576,-0.404758,-0.00966795,13,32765
0.906783,-0.466935,-0.0108398,13,32765
0.940709,-0.488413,-0.010967,12,32765
0.965643,-0.505481,-0.0110332,13,32765
1.10547,-0.583345,-0.0122032,12,32765
1.07701,-0.572986,-0.0114725,13,32765
1.28651,-0.690176,-0.0126608,12,32765
1.24024,-0.670649,-0.0115876,13,32765
1.15016,-0.626995,-0.0102768,14,32765
1.10424,-0.606759,-0.00942985,14,32765
1.14595,-0.634678,-0.00933061,14,32765
1.15254,-0.643397,-0.00896163,14,32765
1.17654,-0.661951,-0.00874587,14,32765
1.23523,-0.700379,-0.00867016,12,32765
1.47597,-0.843458,-0.00983048,12,32765
1.62047,-0.933198,-0.0102246,12,32765
1.54818,-0.898426,-0.00914043,12,32765
1.56243,-0.913691,-0.00874841,12,32765
1.13723,-0.670124,-0.00588866,11,32765
0.980221,-0.582018,-0.00464385,16,32765
1.50173,-0.89847,-0.00664304,12,32765
1.58436,-0.955128,-0.00638822,11,32765
1.65805,-1.00719,-0.00603723,11,32765
0.452066,-0.276648,-0.00149843,12,32765
0.646936,-0.398837,-0.00186465,16,32765
0.662602,-0.411528,-0.00174502,19,32765
0.864732,-0.540957,-0.00191672,12,32765
0.77834,-0.490494,-0.00144836,11,32765
0,-0,-0,0,32765
0,-0,-0,0,32765
0,-0,-0,0,32765
0,-0,-0,0,32765
0,-0,-0,0,32765
0,-0,0,0,32765
0,-0,0,0,32765
0.806765,-0.538544,0.000680098,12,32765
0.813296,-0.546763,0.000940521,12,32765
0.894307,-0.605487,0.00128183,12,32765
0.694042,-0.473185,0.00127747,12,32765
0.70075,-0.481089,0.00150046,12,32765
0.756774,-0.523153,0.00176128,13,32765
0.574525,-0.399898,0.00151463,13,32765
0.630544,-0.44194,0.00180407,13,32765
0.718984,-0.507402,0.00228906,13,32765
0.627664,-0.44602,0.00211027,13,32765
0.618108,-0.442197,0.00223079,14,32765
0.592366,-0.426612,0.0022715,14,32765
0.566673,-0.410947,0.00222186,14,32765
0.686477,-0.50124,0.00281858,14,32765
0.821406,-0.253509,-0.0250003,22,32765
0.801487,-0.250229,-0.0245794,22,32765
0.80066,-0.252843,-0.0247894,21,32765
0.818879,-0.261523,-0.0253639,21,32765
0.808498,-0.261145,-0.0251865,21,32765
0.798127,-0.260714,-0.024912,21,32765
0.806749,-0.266485,-0.0253185,21,32765
0.79637,-0.26602,-0.0250678,21,32765
0.786025,-0.265437,-0.0246637,20,32765
0.804062,-0.274488,-0.0253024,21,32765
0.803171,-0.277093,-0.0252095,21,32765
0.783383,-0.273133,-0.02468,21,32765
0.801335,-0.282375,-0.0250319,21,32765
0.809795,-0.28843,-0.0252974,20,32765
0.780599,-0.281019,-0.024366,20,32765
0.779651,-0.283646,-0.0242621,20,32765
0.788095,-0.289669,-0.0244694,20,32765
0.759024,-0.281832,-0.0235088,19,32765
0.776815,-0.291348,-0.0239892,20,32765
0.794532,-0.301033,-0.0244714,19,32765
0.765517,-0.292974,-0.0234571,18,32765
0.783173,-0.302764,-0.023953,18,32765
0.763534,-0.298126,-0.023169,19,32765
0.753242,-0.296999,-0.0227417,18,32765
0.761539,-0.303206,-0.0229081,18,32765
0.779085,-0.313189,-0.0232186,19,32765
0.740983,-0.300764,-0.0220279,17,32765
0.739977,-0.303245,-0.0218332,17,32765
0.73896,-0.305727,-0.0216526,18,32765
0.756361,-0.31596,-0.0220725,18,32765
0.736867,-0.310759,-0.0213357,17,32765
0.763409,-0.325003,-0.0219136,17,32765
0.743952,-0.319666,-0.0211901,16,32765
0.69703,-0.302256,-0.0197419,16,32765
0.714333,-0.312609,-0.0200961,16,32765
0.731575,-0.323088,-0.0203089,16,32765
0.748738,-0.333715,-0.0206244,15,32765
0.738489,-0.33216,-0.0200816,15,32765
0.728267,-0.330524,-0.0195248,15,32765
0.745323,-0.341321,-0.0198372,16,32765
0.735101,-0.339639,-0.0192751,16,32765
0.706787,-0.329411,-0.0184564,16,32765
0.696637,-0.327527,-0.0179698,16,32765
0.6865,-0.325592,-0.0175524,16,32765
0.721469,-0.345186,-0.0181654,16,32765
0.720307,-0.347615,-0.017947,16,32765
0.719156,-0.350002,-0.017696,16,32765
0.717977,-0.352417,-0.0176416,16,32765
0.734716,-0.3637,-0.0177263,16,32765
0.724532,-0.361736,-0.0173478,16,32765
0.723292,-0.364221,-0.0171043,16,32765
0.713141,-0.362157,-0.0165127,15,32765
0.747494,-0.382837,-0.016987,15,32765
0.701786,-0.362419,-0.015789,16,32765
0.744904,-0.387872,-0.0165515,15,32765
0.725893,-0.381083,-0.0159729,15,32765
0.733467,-0.388168,-0.0158685,15,32765
0.802724,-0.428303,-0.0170706,15,32765
0.748412,-0.402672,-0.0153224,14,32765
0.764658,-0.414686,-0.0152875,14,32765
0.772021,-0.422084,-0.015134,15,32765
0.73558,-0.405367,-0.0141422,14,32765
0.72548,-0.402979,-0.0136732,14,32765
0.732848,-0.410304,-0.013557,14,32765
0.7576,-0.427496,-0.01377,15,32765
0.695336,-0.395417,-0.0123632,15,32765
0.737377,-0.422623,-0.0128605,14,32765
0.761943,-0.440082,-0.0130364,15,32765
0.743194,-0.43256,-0.0124286,14,32765
0.741744,-0.435048,-0.0121929,14,32765
0.723078,-0.427345,-0.0115959,14,32765
0.756014,-0.450226,-0.0118062,14,32765
0.763079,-0.457901,-0.0116924,14,32765
0.667417,-0.403553,-0.00997904,14,32765
0.666053,-0.405807,-0.00971218,16,32765
0.647671,-0.397539,-0.00924596,18,32765
0.731405,-0.452266,-0.0101403,13,32765
0,-0,-0,0,32765
0,-0,-0,0,32765
0,-0,-0,0,32765
0,-0,-0,0,32765
0,-0,-0,0,32765
0,-0,-0,0,32765
0.96387,-0.627161,-0.011172,11,32765
0.735975,-0.482361,-0.00829107,11,32765
0.851224,-0.561899,-0.00936749,11,32765
0.782749,-0.520418,-0.00833868,12,32765
0.872441,-0.584179,-0.00905582,11,32765
0.688125,-0.464042,-0.00694284,12,32765
0.827229,-0.561806,-0.00813652,12,32765
0.701592,-0.479817,-0.0066313,12,32765
0.749447,-0.516123,-0.00687589,12,32765
0.739556,-0.512847,-0.00666494,12,32765
0,-0,-0,0,32765
0.801663,-0.56364,-0.00683507,11,32765
0,-0,-0,0,32765
0,-0,-0,0,32765
0,-0,-0,0,32765
0,-0,-0,0,32765
0,-0,-0,0,32765
0,-0,-0,0,32765
1.44243,-0.441979,-0.0643829,13,32765
1.37419,-0.426051,-0.0606269,12,32765
1.41099,-0.442389,-0.0616139,12,32765
1.41913,-0.449915,-0.0612641,12,32765
1.45572,-0.466795,-0.0622178,12,32765
1.24508,-0.403854,-0.0527256,12,32765
0,-0,-0,0,32765
0,-0,-0,0,32765
0.909515,-0.304928,-0.0374284,13,32765
0.984237,-0.333558,-0.0402126,13,32765
0.765732,-0.262283,-0.031011,14,32765
0.717655,-0.248474,-0.0288465,14,32765
0.716822,-0.250898,-0.0285735,14,32765
0.715978,-0.253343,-0.0281557,15,32765
0.74334,-0.265893,-0.029092,16,32765
0.742457,-0.268386,-0.0287497,17,32765
0.760337,-0.277735,-0.0291663,18,32765
0.750037,-0.276811,-0.028631,18,32765
0.739767,-0.275799,-0.0279201,17,32765
0.757551,-0.285331,-0.0283488,18,32765
0.737915,-0.280766,-0.0274277,17,32765
0.736974,-0.283253,-0.0271579,18,32765
0.736034,-0.285706,-0.0269361,17,32765
0.735088,-0.288157,-0.0266687,17,32765
0.762009,-0.301647,-0.0274224,17,32765
0.751718,-0.300504,-0.0267842,18,32765
0.750701,-0.303059,-0.0265142,18,32765
0.777444,-0.316924,-0.0271935,18,32765
0.748653,-0.308126,-0.0260202,18,32765
0.756835,-0.314516,-0.0260873,18,32765
0.774217,-0.324793,-0.0264098,18,32765
0.773124,-0.327406,-0.0261769,17,32765
0.781193,-0.333991,-0.0262238,18,32765
0.752534,-0.324756,-0.0250243,18,32765
0.75143,-0.327321,-0.0247652,18,32765
0.741183,-0.325827,-0.0241654,18,32765
0.785775,-0.348588,-0.0253926,18,32765
0.775477,-0.347156,-0.0248527,18,32765
0.746989,-0.337398,-0.023864,17,32765
0.718563,-0.327493,-0.0227184,17,32765
0.735625,-0.338274,-0.0229523,17,32765
0.725419,-0.336549,-0.0224084,17,32765
0.760489,-0.35597,-0.0232813,16,32765
0.750237,-0.354296,-0.0227582,17,32765
0.776112,-0.369741,-0.0232731,16,32765
0.747843,-0.35936,-0.0221612,16,32765
0.72864,-0.353164,-0.0214187,16,32765
0.727446,-0.355634,-0.0211321,15,32765
0.717279,-0.353673,-0.0206671,15,32765
0.698171,-0.347219,-0.0198921,15,32765
0.714878,-0.358529,-0.0201573,15,32765
0.722591,-0.365456,-0.0201101,15,32765
0.730259,-0.372447,-0.0201259,15,32765
0.720109,-0.370349,-0.0196251,15,32765
0.718852,-0.372793,-0.0194037,16,32765
0.682178,-0.356657,-0.0181336,16,32765
0.689825,-0.363614,-0.0180462,15,32765
0.732756,-0.389369,-0.0189981,16,32765
0.713841,-0.382358,-0.0182547,16,32765
0.71256,-0.384754,-0.0179744,16,32765
0.711276,-0.387134,-0.0177112,15,32765
0.683678,-0.375107,-0.0167193,16,32765
0.743655,-0.411286,-0.0179005,16,32765
0.6724,-0.374864,-0.0159849,15,32765
0.706001,-0.396726,-0.0164813,14,32765
0.722084,-0.408927,-0.0165327,14,32765
0.685995,-0.3915,-0.0154241,14,32765
0.797364,-0.458583,-0.0176467,15,32765
0.70934,-0.411094,-0.0154209,14,32765
0.725229,-0.423559,-0.0154954,14,32765
0.792764,-0.466533,-0.0165124,14,32765
0.739606,-0.438584,-0.0150699,14,32765
0.823996,-0.4923,-0.016453,14,32765
0.77956,-0.469207,-0.0151975,15,32765
0.692525,-0.419923,-0.0131807,15,32765
0.62289,-0.380492,-0.0115647,17,32765
0.655684,-0.403533,-0.0118487,17,32765
0,-0,-0,0,32765
0,-0,-0,0,32765
0,-0,-0,0,32765
0,-0,-0,12,32765
0,-0,-0,0,32765
0,-0,-0,0,32765
0,-0,-0,0,32765
0.820765,-0.535365,-0.0113771,12,32765
0,-0,-0,0,32765
0.900624,-0.595943,-0.011359,12,32765
0,-0,-0,0,32765
0.863478,-0.579577,-0.00979834,12,32765
0.77043,-0.520836,-0.00824394,12,32765
0,-0,-0,0,32765
0.577326,-0.39581,-0.00541436,12,32765
0,-0,-0,0,32765
0.845707,-0.587907,-0.00674935,12,32765
0.745461,-0.521881,-0.00538563,12,32765
0,-0,-0,0,32765
0,-0,-0,11,32765
0,-0,-0,0,32765
0,-0,-0,0,32765
0,-0,-0,0,32765
0,-0,-0,0,32765
1.38414,-0.4254,-0.0754328,13,32765
1.42091,-0.441863,-0.0767151,13,32765
1.43858,-0.452397,-0.077033,13,32765
1.38957,-0.44187,-0.073731,12,32765
1.35011,-0.434229,-0.071069,12,32765
1.32018,-0.429498,-0.0689878,13,32765
0,-0,-0,0,32765
0,-0,-0,0,32765
1.37277,-0.461616,-0.0701357,12,32765
1.42801,-0.4854,-0.0725508,13,32765
1.2753,-0.43813,-0.0643486,13,32765
1.42484,-0.494795,-0.0714769,13,32765
1.40433,-0.493002,-0.0699941,13,32765
1.41209,-0.501145,-0.0696387,13,32765
1.40097,-0.502623,-0.0688429,13,32765
1.34296,-0.486904,-0.0654504,12,32765
1.41638,-0.518913,-0.0685309,12,32765
1.36781,-0.506311,-0.0659407,12,32765
1.33808,-0.500346,-0.0639462,12,32765
1.3551,-0.511916,-0.0643417,13,32765
1.29739,-0.495106,-0.0612892,13,32765
1.42623,-0.549797,-0.0669386,13,32765
1.34993,-0.525561,-0.0630304,13,32765
1.32959,-0.522757,-0.0616761,12,32765
1.43929,-0.571448,-0.066361,12,32765
1.34464,-0.539129,-0.0615349,12,32765
1.33355,-0.539961,-0.0606295,13,32765
1.25775,-0.514246,-0.0567701,12,32765
1.27449,-0.52611,-0.0572596,12,32765
1.1897,-0.495874,-0.0531245,12,32765
1.17883,-0.496009,-0.0522337,12,32765
1.12198,-0.47656,-0.049446,12,32765
0.927503,-0.397729,-0.0406194,12,32765
0.880311,-0.381033,-0.0382871,13,32765
0.833234,-0.36404,-0.0360047,13,32765
0.722298,-0.318475,-0.0309658,13,32765
0.730359,-0.324974,-0.0311111,13,32765
0.774843,-0.347911,-0.0328103,14,32765
0.728169,-0.329884,-0.0307706,14,32765
0.690702,-0.31574,-0.0289693,15,32765
0.707789,-0.326451,-0.0294025,15,32765
0.68857,-0.320413,-0.0284005,15,32765
0.705572,-0.331259,-0.0289173,16,32765
0.722506,-0.342228,-0.029421,16,32765
0.730364,-0.348996,-0.0294984,16,32765
0.71119,-0.342778,-0.0284837,16,32765
0.745984,-0.362663,-0.0297115,16,32765
0.708866,-0.347599,-0.0279995,16,32765
0.716649,-0.354433,-0.028149,16,32765
0.733326,-0.365809,-0.0285805,16,32765
0.714242,-0.359297,-0.0276379,16,32765
0.730857,-0.37076,-0.0280252,16,32765
0.720703,-0.368692,-0.027453,16,32765
0.737219,-0.380304,-0.0278685,16,32765
0.727061,-0.378201,-0.0273077,16,32765
0.725807,-0.380627,-0.0269749,16,32765
0.72453,-0.383076,-0.0266348,16,32765
0.732072,-0.390198,-0.0267539,16,32765
0.757194,-0.406824,-0.0274168,17,32765
0.729464,-0.395091,-0.0261725,16,32765
0.736918,-0.402325,-0.026214,16,32765
0.74432,-0.409637,-0.0261593,17,32765
0.742939,-0.412157,-0.0258392,17,32765
0.758987,-0.424445,-0.0261854,15,32765
0.722726,-0.407382,-0.0246385,16,32765
0.703992,-0.399917,-0.0236972,15,32765
0.728692,-0.417158,-0.0242425,15,32765
0.709987,-0.409599,-0.0233832,15,32765
0.717271,-0.416985,-0.0233562,14,32765
0.715873,-0.419398,-0.0230573,15,32765
0.723094,-0.426861,-0.0229155,14,32765
0.747442,-0.444617,-0.0233632,14,32765
0.763129,-0.457362,-0.0235572,14,32765
0.650388,-0.392688,-0.0197827,15,32765
0.623478,-0.379243,-0.0186886,16,32765
0.656334,-0.402182,-0.0193806,17,32765
0,-0,-0,11,32765
0,-0,-0,0,32765
0,-0,-0,11,32765
0,-0,-0,11,32765
0,-0,-0,11,32765
0,-0,-0,0,32765
0,-0,-0,0,32765
0,-0,-0,0,32765
0,-0,-0,0,32765
0,-0,-0,0,32765
0,-0,-0,0,32765
0,-0,-0,0,32765
0,-0,-0,0,32765
0,-0,-0,0,32765
0,-0,-0,0,32765
0.72495,-0.49862,-0.0150017,11,32765
0,-0,-0,0,32765
0,-0,-0,0,32765
0,-0,-0,0,32765
0,-0,-0,0,32765
0,-0,-0,0,32765
0,-0,-0,0,32765
0,-0,-0,12,32765
0,-0,-0,0,32765
0,-0,-0,0,32765
1.41329,-0.433553,-0.0709989,12,32765
1.38324,-0.429263,-0.0697668,13,32765
1.35324,-0.424797,-0.0684938,13,32765
1.39944,-0.444291,-0.0711401,12,32765
1.40748,-0.451941,-0.0717987,13,32765
1.37749,-0.447294,-0.0702727,12,32765
0,-0,-0,0,32765
0,-0,-0,0,32765
1.42978,-0.480066,-0.0732417,13,32765
1.40929,-0.478314,-0.0722461,12,32765
1.37939,-0.473172,-0.0707231,13,32765
1.4439,-0.500594,-0.0739432,12,32765
1.42333,-0.498911,-0.0730266,12,32765
1.4122,-0.500451,-0.0723998,12,32765
1.4105,-0.505254,-0.0721768,12,32765
1.41819,-0.513398,-0.0724741,13,32765
1.38835,-0.507794,-0.0708655,13,32765
1.44288,-0.533171,-0.0736513,14,32765
1.44113,-0.537912,-0.0734123,13,32765
1.37393,-0.518005,-0.0698785,13,32765
1.39086,-0.529734,-0.0706115,13,32765
1.43572,-0.552288,-0.0727733,12,32765
1.33145,-0.517313,-0.0673422,13,32765
1.36691,-0.536381,-0.0688452,13,32765
1.43011,-0.566756,-0.0718692,12,32765
1.36331,-0.545556,-0.0682478,12,32765
1.40779,-0.568846,-0.0703384,12,32765
1.43363,-0.584914,-0.0713054,13,32765
1.45935,-0.601217,-0.0724119,13,32765
1.40198,-0.583144,-0.069254,13,32765
1.41843,-0.595647,-0.0698008,13,32765
1.35208,-0.573068,-0.0661604,13,32765
1.4879,-0.636603,-0.07269,13,32765
1.37573,-0.594074,-0.0667178,13,32765
1.41034,-0.614733,-0.068221,12,32765
1.38997,-0.611489,-0.0668381,13,32765
1.43357,-0.636464,-0.0685788,12,32765
1.44052,-0.645454,-0.0685645,12,32765
1.38374,-0.625594,-0.0655233,12,32765
1.3271,-0.605374,-0.0626266,13,32765
1.30696,-0.601423,-0.0612603,12,32765
1.28684,-0.597369,-0.0599307,12,32765
1.28484,-0.601693,-0.0594966,13,32765
1.22864,-0.580384,-0.0564853,13,32765
1.10044,-0.524326,-0.050232,13,32765
1.04464,-0.502064,-0.0474779,13,32765
0.899105,-0.435844,-0.040629,12,32765
0.933528,-0.456484,-0.0418152,13,32765
0.806512,-0.397814,-0.03581,13,32765
0.840935,-0.41839,-0.0371218,14,32765
0.750209,-0.376443,-0.0328147,13,32765
0.704364,-0.356421,-0.0305799,14,32765
0.74765,-0.381545,-0.0322908,14,32765
0.719713,-0.370356,-0.0308125,15,32765
0.709593,-0.368195,-0.0301658,15,32765
0.73493,-0.384472,-0.0309806,15,32765
0.707131,-0.372952,-0.0295434,15,32765
0.749982,-0.398823,-0.0310964,15,32765
0.731038,-0.391895,-0.0300219,15,32765
0.712151,-0.384839,-0.0289646,15,32765
0.745976,-0.40634,-0.0301228,14,32765
0.770909,-0.42326,-0.0308199,15,32765
0.760742,-0.42102,-0.0302216,14,32765
0.706966,-0.394367,-0.027809,14,32765
0.749205,-0.421236,-0.0291839,15,32765
0.704333,-0.399096,-0.0271438,15,32765
0.729063,-0.41629,-0.0277519,15,32765
0.718996,-0.413769,-0.0271973,15,32765
0.708972,-0.411159,-0.0265756,15,32765
0.724847,-0.423639,-0.0269437,16,32765
0.749271,-0.441287,-0.0275431,15,32765
0.747797,-0.443802,-0.0271919,16,32765
0.737727,-0.441191,-0.0266395,16,32765
0.727696,-0.438501,-0.0259897,16,32765
0.674983,-0.409786,-0.0239388,16,32765
0.639535,-0.391145,-0.0223637,17,32765
0.655279,-0.40372,-0.0227777,17,32765
0,-0,-0,11,32765
0,-0,-0,12,32765
0,-0,-0,0,32765
0,-0,-0,0,32765
0,-0,-0,0,32765
0,-0,-0,0,32765
0,-0,-0,0,32765
0,-0,-0,0,32765
0,-0,-0,0,32765
0,-0,-0,0,32765
0,-0,-0,0,32765
0,-0,-0,12,32765
0,-0,-0,0,32765
0,-0,-0,0,32765
0,-0,-0,0,32765
0,-0,-0,0,32765
0,-0,-0,11,32765
0,-0,-0,0,32765
0,-0,-0,11,32765
0,-0,-0,0,32765
0,-0,-0,0,32765
0,-0,-0,0,32765
0,-0,-0,0,32765
0,-0,-0,0,32765
1.27863,-0.393456,-0.0768527,12,32765
1.30592,-0.406524,-0.0787677,12,32765
1.3998,-0.440776,-0.0846922,13,32765
1.30322,-0.415027,-0.0791482,12,32765
1.39686,-0.449926,-0.0850976,13,32765
1.44284,-0.469971,-0.0879168,13,32765
0,-0,-0,0,32765
0,-0,-0,0,32765
1.334,-0.449303,-0.0816078,12,32765
1.36088,-0.463322,-0.0833182,12,32765
1.47265,-0.506737,-0.0901871,12,32765
1.43326,-0.498458,-0.0877037,13,32765
1.4598,-0.513294,-0.0894846,12,32765
1.47685,-0.524997,-0.0904879,12,32765
1.3999,-0.503025,-0.0856544,12,32765
1.36067,-0.494115,-0.0831772,13,32765
1.4059,-0.51582,-0.085873,13,32765
1.35738,-0.503144,-0.0829273,13,32765
1.41182,-0.528621,-0.0861232,13,32765
1.3914,-0.526234,-0.0847817,13,32765
1.33367,-0.509544,-0.0811574,13,32765
1.33198,-0.513988,-0.0809633,13,32765
1.33955,-0.522096,-0.0812936,13,32765
1.44,-0.566835,-0.0871009,13,32765
1.45665,-0.579085,-0.0879641,12,32765
1.40839,-0.565368,-0.0847948,13,32765
1.37873,-0.558857,-0.0828937,13,32765
1.42306,-0.58243,-0.0852556,14,32765
1.33803,-0.552971,-0.0800207,12,32765
1.37302,-0.572899,-0.0818269,13,32765
1.41709,-0.596962,-0.0842071,13,32765
1.3508,-0.574331,-0.0799107,13,32765
1.41308,-0.606497,-0.0835039,13,32765
1.37441,-0.595378,-0.0807461,13,32765
1.39983,-0.61208,-0.0820854,12,32765
1.35208,-0.5967,-0.0789178,13,32765
1.35007,-0.60129,-0.0784849,13,32765
1.36624,-0.614111,-0.0791159,12,32765
1.39147,-0.631082,-0.0802565,13,32765
1.38027,-0.631624,-0.0794075,13,32765
1.44166,-0.665514,-0.0825018,12,32765
1.32176,-0.615529,-0.0752628,12,32765
1.31971,-0.619983,-0.0748152,12,32765
1.30862,-0.62013,-0.0737713,12,32765
1.35162,-0.646056,-0.0757746,12,32765
1.38543,-0.667971,-0.0774172,13,32765
1.3293,-0.646439,-0.0739553,13,32765
1.35401,-0.664206,-0.0748158,13,32765
1.33384,-0.660018,-0.0732006,12,32765
1.34051,-0.669076,-0.073244,13,32765
1.29364,-0.651204,-0.0701835,13,32765
1.39833,-0.709846,-0.0754308,13,32765
1.35145,-0.691891,-0.0726206,13,32765
1.40238,-0.723965,-0.0748518,13,32765
1.33791,-0.69645,-0.0710315,13,32765
1.34444,-0.705592,-0.070921,13,32765
1.36857,-0.724131,-0.0717044,13,32765
1.3573,-0.724108,-0.0707087,13,32765
1.37249,-0.738137,-0.0709812,13,32765
1.35247,-0.73322,-0.069435,13,32765
1.30619,-0.713798,-0.0667021,12,32765
1.33883,-0.737451,-0.0678548,13,32765
1.249,-0.693482,-0.0630107,12,32765
1.30771,-0.73185,-0.0654856,12,32765
1.40098,-0.790254,-0.0696466,12,32765
1.32888,-0.755435,-0.065536,12,32765
1.26572,-0.725072,-0.0618458,12,32765
1.15944,-0.669415,-0.0563991,12,32765
1.20039,-0.698427,-0.0580036,12,32765
1.21528,-0.712598,-0.0583666,11,32765
0.868814,-0.513371,-0.0413864,13,32765
0.910024,-0.541854,-0.0430064,13,32765
0.848225,-0.508943,-0.039889,14,32765
0.820877,-0.496281,-0.0382953,14,32765
0.844837,-0.514599,-0.0392197,14,32765
0.613204,-0.376281,-0.0281743,15,32765
0.628974,-0.388798,-0.0287807,16,32765
0.593761,-0.369755,-0.0269961,15,32765
0,-0,-0,0,32765
0,-0,-0,0,32765
0,-0,-0,0,32765
0,-0,-0,0,32765
0,-0,-0,0,32765
0,-0,-0,0,32765
0,-0,-0,0,32765
0,-0,-0,0,32765
0,-0,-0,0,32765
0,-0,-0,0,32765
0,-0,-0,0,32765
0,-0,-0,0,32765
0,-0,-0,0,32765
0,-0,-0,0,32765
0,-0,-0,0,32765
0,-0,-0,0,32765
0,-0,-0,11,32765
0,-0,-0,0,32765
0,-0,-0,0,32765
0,-0,-0,0,32765
0,-0,-0,0,32765
0,-0,-0,0,32765
0,-0,-0,0,32765
1.41184,-0.431326,-0.10523,13,32765
1.40093,-0.433103,-0.103563,12,32765
1.46615,-0.458717,-0.1076,12,32765
1.39808,-0.442557,-0.102015,13,32765
1.44418,-0.462403,-0.104581,12,32765
1.47116,-0.476376,-0.106053,11,32765
1.41276,-0.462559,-0.10123,13,32765
1.42073,-0.470391,-0.101235,12,32765
0,-0,-0,0,32765
0,-0,-0,0,32765
1.40662,-0.481424,-0.0986842,12,32765
1.39564,-0.482774,-0.097531,12,32765
1.45058,-0.5072,-0.100803,12,32765
1.4301,-0.505374,-0.0990348,13,32765
1.513,-0.54044,-0.104199,12,32765
1.4361,-0.518475,-0.0985218,13,32765
1.44375,-0.526763,-0.098555,13,32765
1.43262,-0.528226,-0.0973894,12,32765
1.39346,-0.519105,-0.094291,13,32765
1.40108,-0.527318,-0.0944078,13,32765
1.43664,-0.546214,-0.096472,13,32765
1.40691,-0.540246,-0.0939467,13,32765
1.41443,-0.548573,-0.0940558,13,32765
1.39402,-0.546034,-0.0924505,12,32765
1.50358,-0.594813,-0.099266,12,32765
