x, y, z, intensity, ring
2.07208,0.309832,-0.250217,18,32765
2.10254,0.30698,-0.254342,17,32765
2.05439,0.292753,-0.248791,18,32765
2.12416,0.295247,-0.257665,17,32765
2.05624,0.27875,-0.249554,17,32765
2.09648,0.277032,-0.254785,18,32765
2.02843,0.261081,-0.246792,17,32765
2.0588,0.257964,-0.25078,18,32765
2.02022,0.246128,-0.246237,17,32765
2.021,0.239228,-0.246601,18,32765
2.00205,0.230094,-0.244449,18,32765
1.96332,0.218919,-0.239879,17,32765
1.99364,0.215519,-0.243642,18,32765
1.99431,0.208687,-0.244084,18,32765
1.96538,0.198872,-0.240511,18,32765
1.99563,0.195037,-0.244566,19,32765
1.96665,0.185382,-0.240913,18,32765
1.95735,0.177839,-0.239909,18,32765
1.95793,0.171177,-0.24001,19,32765
1.97826,0.166192,-0.242631,18,32765
1.97879,0.159512,-0.24279,18,32765
1.95951,0.151289,-0.240485,18,32765
1.95008,0.143967,-0.239499,18,32765
1.95055,0.137381,-0.239511,18,32765
1.9411,0.130129,-0.2383,18,32765
1.93163,0.122989,-0.237041,18,32765
1.95183,0.117669,-0.239588,18,32765
1.9522,0.111249,-0.239691,18,32765
1.91292,0.102614,-0.234746,18,32765
1.91324,0.0962616,-0.234847,18,32765
1.9334,0.0908003,-0.237108,18,32765
1.88411,0.0821615,-0.231071,18,32765
1.89431,0.0762334,-0.232094,18,32765
1.90447,0.0702268,-0.233342,18,32765
1.91464,0.0641605,-0.234394,18,32765
1.92479,0.057979,-0.235454,18,32765
1.87536,0.0501389,-0.229359,18,32765
1.8855,0.0441616,-0.230086,18,32765
1.87572,0.0376293,-0.228847,17,32765
1.86593,0.0312514,-0.227447,18,32765
1.89582,0.0255188,-0.230904,18,32765
1.87606,0.0190703,-0.228329,17,32765
1.86625,0.0128303,-0.226611,18,32765
1.85639,0.00651112,-0.225128,17,32765
1.87631,0.000360228,-0.227099,17,32765
1.83662,-0.00570184,-0.222039,17,32765
1.84659,-0.0119089,-0.22263,17,32765
1.85652,-0.0182147,-0.223414,17,32765
1.83668,-0.0242248,-0.220301,17,32765
6.09674,2.06172,-0.754665,37,32765
6.15075,2.05707,-0.759992,36,32765
6.13863,2.03032,-0.758319,34,32765
6.1264,2.00381,-0.756366,29,32765
6.14239,1.98647,-0.75824,24,32765
6.17741,1.97462,-0.762513,24,32765
6.14606,1.94176,-0.758667,24,32765
6.19038,1.93263,-0.764844,22,32765
6.18737,1.90864,-0.764192,24,32765
6.23161,1.8994,-0.769992,21,32765
6.66572,2.00717,-0.824336,13,32765
6.68174,1.98748,-0.827437,13,32765
6.71688,1.97313,-0.832305,13,32765
6.63749,1.92539,-0.823524,17,32765
6.65335,1.90568,-0.82595,24,32765
6.65964,1.88295,-0.827396,24,32765
6.72319,1.87632,-0.836063,24,32765
6.72921,1.85378,-0.83796,24,32765
6.75434,1.83616,-0.842572,24,32765
6.77948,1.8186,-0.846304,24,32765
6.77595,1.79269,-0.846388,23,32765
6.801,1.77444,-0.850974,23,32765
6.84524,1.76105,-0.857809,23,32765
6.85104,1.73754,-0.859458,24,32765
6.89523,1.72419,-0.865218,24,32765
6.92969,1.70772,-0.871302,25,32765
6.91585,1.67976,-0.870796,23,32765
6.94051,1.66101,-0.875471,22,32765
6.98466,1.64634,-0.881496,23,32765
7.06747,1.63989,-0.893119,18,32765
2.21574,0.505857,-0.280535,23,32765
2.19804,0.493807,-0.278729,21,32765
2.20934,0.488345,-0.280628,19,32765
2.21093,0.480765,-0.281144,18,32765
2.20278,0.471162,-0.280456,18,32765
2.17517,0.457473,-0.277376,19,32765
2.20582,0.456043,-0.281587,19,32765
2.16837,0.440567,-0.277449,19,32765
2.15035,0.429293,-0.275309,19,32765
2.11279,0.414266,-0.270935,19,32765
2.11414,0.406936,-0.271537,19,32765
2.12521,0.401523,-0.273258,19,32765
2.09721,0.388814,-0.270261,19,32765
2.12775,0.386982,-0.274472,20,32765
2.08017,0.37102,-0.26857,19,32765
2.08138,0.363794,-0.269113,19,32765
2.07277,0.354976,-0.268371,19,32765
2.01521,0.33799,-0.261317,18,32765
2.03588,0.334235,-0.264364,19,32765
1.97821,0.317818,-0.257061,19,32765
2.01842,0.317103,-0.262709,19,32765
2.03904,0.31324,-0.265714,19,32765
1.99103,0.298779,-0.259705,19,32765
1.98217,0.290446,-0.258962,19,32765
1.99292,0.28502,-0.260625,19,32765
2.00365,0.279508,-0.262421,20,32765
1.97507,0.268723,-0.258792,19,32765
1.95625,0.25945,-0.256643,19,32765
1.96691,0.254095,-0.258302,20,32765
1.94802,0.244988,-0.256092,20,32765
1.93898,0.237111,-0.255046,19,32765
1.92988,0.229299,-0.254099,19,32765
1.91092,0.22045,-0.25175,19,32765
1.92148,0.215068,-0.25329,20,32765
1.92218,0.208589,-0.253432,19,32765
1.9031,0.199911,-0.251256,19,32765
1.91364,0.194389,-0.252609,20,32765
1.90437,0.186848,-0.251717,21,32765
1.93462,0.183085,-0.255611,20,32765
1.88583,0.172026,-0.249289,19,32765
1.8864,0.165589,-0.249387,20,32765
1.90668,0.160833,-0.252188,20,32765
1.85779,0.150378,-0.245806,19,32765
1.89781,0.147139,-0.251155,20,32765
1.8686,0.138538,-0.24745,20,32765
1.87895,0.132908,-0.248772,20,32765
1.87939,0.126544,-0.248777,19,32765
1.85013,0.118325,-0.244808,19,32765
1.8505,0.112067,-0.244918,19,32765
1.86075,0.106531,-0.246326,20,32765
1.8314,0.0987081,-0.242322,20,32765
1.85151,0.0936102,-0.24504,19,32765
1.85184,0.087406,-0.244875,19,32765
1.8323,0.0803165,-0.242297,20,32765
1.83259,0.0741454,-0.242111,19,32765
1.84273,0.0683304,-0.243452,19,32765
1.81325,0.0611193,-0.239371,19,32765
1.78373,0.0540633,-0.235304,19,32765
1.81364,0.0488098,-0.239201,20,32765
1.81386,0.042787,-0.238733,19,32765
1.80408,0.0364765,-0.237401,19,32765
1.76456,0.0298148,-0.232005,19,32765
1.77459,0.0241327,-0.233147,19,32765
1.78459,0.0183707,-0.2343,19,32765
1.76488,0.0123439,-0.231216,19,32765
1.77486,0.00641965,-0.232249,19,32765
1.77492,0.000518133,-0.231836,19,32765
1.7452,-0.00526023,-0.22771,18,32765
1.74525,-0.0111146,-0.227134,19,32765
1.78491,-0.0173856,-0.231899,18,32765
1.75519,-0.023043,-0.227343,19,32765
6.05381,2.04144,-0.727197,23,32765
6.05036,2.01853,-0.731515,26,32765
6.14127,2.02687,-0.746144,31,32765
6.15679,2.00951,-0.752463,22,32765
6.10609,1.97091,-0.750195,20,32765
6.16884,1.96872,-0.761569,21,32765
6.23161,1.96631,-0.772718,20,32765
6.20915,1.93679,-0.77322,21,32765
6.25299,1.9278,-0.782194,19,32765
6.17344,1.88106,-0.774727,19,32765
6.436,1.93742,-0.810674,15,32765
6.73703,2.00331,-0.851827,12,32765
6.76247,1.98568,-0.857949,12,32765
6.63537,1.92353,-0.844719,13,32765
6.65102,1.90366,-0.849074,19,32765
6.66649,1.8836,-0.854614,20,32765
6.69157,1.86627,-0.860234,20,32765
6.70692,1.84636,-0.865072,20,32765
6.72235,1.82632,-0.868892,19,32765
6.79507,1.82185,-0.880924,20,32765
6.80087,1.79873,-0.883676,20,32765
6.82559,1.78098,-0.889714,21,32765
6.85993,1.76583,-0.896015,21,32765
6.87515,1.7451,-0.899675,20,32765
6.89017,1.72443,-0.904122,19,32765
6.82828,1.68384,-0.898556,19,32765
6.86261,1.66725,-0.905154,19,32765
6.88734,1.64825,-0.909625,19,32765
2.24928,0.530142,-0.29765,16,32765
2.26061,0.524746,-0.299809,19,32765
2.26231,0.516969,-0.300496,17,32765
2.19621,0.494008,-0.292397,16,32765
2.23654,0.495101,-0.298095,16,32765
2.20907,0.481047,-0.294935,17,32765
2.21061,0.47348,-0.295695,17,32765
2.18305,0.459583,-0.292563,17,32765
2.14572,0.443982,-0.287879,17,32765
2.17629,0.44252,-0.292502,17,32765
2.15828,0.43112,-0.290461,17,32765
2.14996,0.421805,-0.289604,17,32765
2.18051,0.420064,-0.294119,17,32765
2.14287,0.405269,-0.289558,17,32765
2.15393,0.399808,-0.291271,17,32765
2.16498,0.394203,-0.293041,17,32765
2.09794,0.374535,-0.284358,17,32765
2.0894,0.365583,-0.283463,17,32765
2.08082,0.356698,-0.282613,16,32765
2.06241,0.346382,-0.280352,16,32765
2.07332,0.340937,-0.281933,17,32765
2.05487,0.33067,-0.279607,17,32765
2.00702,0.315711,-0.273276,17,32765
2.05704,0.316201,-0.280345,17,32765
2.05808,0.309098,-0.280643,17,32765
2.01004,0.29492,-0.274343,17,32765
2.03061,0.290908,-0.277328,17,32765
2.01194,0.281177,-0.274857,17,32765
2.03249,0.276838,-0.277947,18,32765
2.00394,0.265843,-0.274142,17,32765
2.00479,0.258912,-0.274594,18,32765
2.00562,0.252086,-0.274842,18,32765
1.97692,0.241678,-0.271065,18,32765
1.96786,0.233786,-0.269924,18,32765
1.98827,0.229406,-0.273041,17,32765
1.97917,0.221479,-0.271895,17,32765
1.97002,0.213632,-0.270907,18,32765
1.92143,0.20166,-0.264474,19,32765
1.92209,0.195036,-0.264659,19,32765
1.9523,0.191386,-0.268845,18,32765
1.90357,0.18006,-0.262507,17,32765
1.93372,0.176351,-0.266861,17,32765
1.89477,0.16633,-0.261896,17,32765
1.93474,0.163237,-0.267798,18,32765
1.9254,0.155941,-0.266473,18,32765
1.94563,0.150924,-0.269563,18,32765
1.91644,0.142131,-0.265831,18,32765
1.907,0.134922,-0.264679,17,32765
1.93704,0.130433,-0.269203,17,32765
1.88801,0.120777,-0.262534,18,32765
1.88835,0.114457,-0.26296,18,32765
1.87879,0.107592,-0.261873,17,32765
1.86919,0.10077,-0.260935,17,32765
1.83978,0.0929358,-0.257251,17,32765
1.88951,0.0890649,-0.264426,18,32765
1.84027,0.0804904,-0.257908,17,32765
1.86026,0.0750866,-0.26114,17,32765
1.87033,0.0691917,-0.263014,17,32765
1.88037,0.0632221,-0.26495,18,32765
1.81123,0.0548771,-0.25564,17,32765
1.88064,0.0507034,-0.265769,17,32765
1.86094,0.0440108,-0.263357,17,32765
1.85108,0.0374782,-0.262673,17,32765
1.86104,0.0313774,-0.26444,16,32765
1.84128,0.0248491,-0.262066,16,32765
1.81156,0.0184105,-0.258513,17,32765
1.85111,0.0127627,-0.264793,16,32765
1.84118,0.00663712,-0.263875,16,32765
1.85098,0.000578826,-0.266043,15,32765
0,-0,-0,0,32765
0,-0,-0,0,32765
0,-0,-0,0,32765
0,-0,-0,0,32765
6.08258,2.05812,-0.791974,39,32765
6.09798,2.04135,-0.798698,33,32765
6.14171,2.03393,-0.808009,27,32765
6.12893,2.00724,-0.810687,24,32765
6.07828,1.96863,-0.807846,22,32765
6.15981,1.97256,-0.822288,23,32765
6.14684,1.9462,-0.823857,24,32765
6.15273,1.92576,-0.827852,25,32765
6.18699,1.91399,-0.835887,22,32765
6.24029,1.90795,-0.845544,23,32765
6.23674,1.88388,-0.847916,22,32765
6.44213,1.9222,-0.878881,15,32765
6.70504,1.97559,-0.917571,13,32765
6.69232,1.94672,-0.918694,13,32765
6.66038,1.91291,-0.916619,15,32765
6.67585,1.89275,-0.922266,23,32765
6.69137,1.87265,-0.926761,25,32765
6.71626,1.85532,-0.933026,24,32765
6.74127,1.83779,-0.93828,24,32765
6.73734,1.81264,-0.940296,22,32765
6.791,1.80235,-0.949728,23,32765
6.78693,1.77704,-0.95192,22,32765
6.80202,1.75701,-0.955796,23,32765
6.8268,1.73886,-0.960886,22,32765
6.84177,1.71829,-0.965411,21,32765
2.23113,0.552112,-0.315644,17,32765
2.16553,0.527949,-0.307004,18,32765
2.23468,0.536666,-0.317183,15,32765
2.27496,0.538075,-0.323475,13,32765
2.18983,0.510102,-0.311995,12,32765
2.17217,0.498118,-0.309907,11,32765
2.20272,0.497219,-0.314934,11,32765
2.25267,0.500433,-0.322392,11,32765
7.25629,1.58572,-1.04009,13,32765
0,0,-0,0,32765
7.60552,1.60683,-1.09389,14,32765
2.22992,0.463045,-0.321042,11,32765
0,0,-0,0,32765
0,0,-0,0,32765
0,0,-0,0,32765
0,0,-0,0,32765
0,0,-0,0,32765
0,0,-0,0,32765
0,0,-0,0,32765
0,0,-0,0,32765
0,0,-0,0,32765
1.99009,0.342391,-0.289695,11,32765
2.21568,0.373488,-0.322779,11,32765
2.08018,0.343322,-0.303127,11,32765
0,0,-0,63,32765
0,0,-0,0,32765
0,0,-0,0,32765
0,0,-0,0,32765
0,0,-0,0,32765
0,0,-0,0,32765
2.03854,0.285974,-0.298282,11,32765
0,0,-0,0,32765
0,0,-0,0,32765
1.96275,0.254459,-0.287868,11,32765
1.98321,0.250233,-0.290993,11,32765
2.08222,0.255543,-0.305678,11,32765
2.14201,0.255472,-0.314557,11,32765
1.91672,0.222023,-0.281774,11,32765
0,0,-0,49,32765
1.90828,0.207767,-0.280881,11,32765
0,0,-0,0,32765
0,0,-0,0,32765
0,0,-0,0,32765
1.99944,0.189915,-0.295052,11,32765
2.16752,0.198503,-0.320068,11,32765
1.91187,0.168545,-0.282728,11,32765
0,0,-0,0,32765
0,0,-0,0,32765
0,0,-0,0,32765
0,0,-0,0,32765
2.03266,0.144468,-0.301733,11,32765
0,0,-0,0,32765
1.92491,0.12372,-0.286232,11,32765
0,0,-0,0,32765
0,0,-0,0,32765
2.1234,0.115055,-0.316897,11,32765
1.98541,0.100816,-0.296756,11,32765
1.82764,0.0866119,-0.273385,11,32765
1.94643,0.0856076,-0.291547,11,32765
2.18378,0.0886558,-0.327604,11,32765
1.86775,0.069515,-0.280653,11,32765
1.85801,0.0628686,-0.279707,11,32765
1.89768,0.057885,-0.286131,12,32765
1.84838,0.0501943,-0.279024,11,32765
1.6409,0.039111,-0.24803,11,32765
0,0,-0,11,32765
0,0,-0,0,32765
1.80906,0.0246966,-0.274916,11,32765
1.86835,0.0192613,-0.284625,11,32765
2.03635,0.0143189,-0.310919,11,32765
0,0,-0,0,32765
0,0,-0,0,32765
0,-0,-0,0,32765
0,-0,-0,0,32765
0,-0,-0,0,32765
0,-0,-0,0,32765
6.05219,2.05334,-0.87019,23,32765
6.07724,2.03965,-0.876265,26,32765
6.0554,2.01048,-0.873888,21,32765
6.0711,1.99337,-0.877891,18,32765
6.21881,2.0189,-0.900217,21,32765
6.18753,1.98578,-0.897087,22,32765
6.16552,1.95588,-0.895416,20,32765
6.15289,1.92922,-0.894484,20,32765
6.22529,1.92915,-0.905867,20,32765
6.20305,1.89964,-0.903355,21,32765
6.25664,1.89289,-0.911817,20,32765
6.26285,1.87144,-0.913452,20,32765
6.72488,1.98455,-0.981842,13,32765
6.77896,1.97538,-0.990181,12,32765
6.73771,1.93883,-0.985209,13,32765
6.65837,1.89143,-0.974001,14,32765
6.67399,1.87141,-0.977593,21,32765
6.70874,1.85665,-0.983148,20,32765
6.71474,1.83386,-0.984933,20,32765
6.77802,1.8266,-0.995055,20,32765
6.79356,1.80567,-0.998562,19,32765
6.82816,1.78992,-1.00465,20,32765
6.82454,1.76381,-1.00449,19,32765
2.30237,0.586663,-0.339023,12,32765
2.26586,0.569214,-0.333898,14,32765
2.28692,0.566257,-0.337258,14,32765
0,0,-0,0,32765
0,0,-0,0,32765
0,0,-0,0,32765
7.18116,1.67445,-1.06284,11,32765
7.26393,1.66677,-1.07615,11,32765
7.26954,1.64088,-1.07809,12,32765
7.27506,1.61525,-1.07952,12,32765
7.36735,1.60893,-1.09446,12,32765
7.41131,1.59194,-1.10174,11,32765
7.4842,1.58081,-1.11385,11,32765
7.44087,1.54499,-1.10856,11,32765
7.67845,1.56699,-1.1456,11,32765
7.59627,1.52297,-1.13406,11,32765
7.74676,1.52545,-1.15806,11,32765
7.73229,1.49471,-1.15718,11,32765
7.78574,1.47692,-1.16664,11,32765
7.703,1.43355,-1.1555,11,32765
7.88279,1.4387,-1.18394,11,32765
0,0,-0,0,32765
7.89193,1.38426,-1.18797,11,32765
7.89628,1.35691,-1.19061,11,32765
8.06642,1.35784,-1.21737,11,32765
0,0,-0,0,32765
0,0,-0,0,32765
0,0,-0,0,32765
0,0,-0,0,32765
0,0,-0,0,32765
0,0,-0,11,32765
0,0,-0,0,32765
0,0,-0,0,32765
0,0,-0,0,32765
0,0,-0,11,32765
0,0,-0,11,32765
0,0,-0,0,32765
0,0,-0,0,32765
0,0,-0,0,32765
0,0,-0,0,32765
0,0,-0,0,32765
0,0,-0,11,32765
0,0,-0,11,32765
0,0,-0,0,32765
0,0,-0,0,32765
0,0,-0,0,32765
0,0,-0,11,32765
0,0,-0,0,32765
0,0,-0,0,32765
0,0,-0,0,32765
0,0,-0,0,32765
0,0,-0,0,32765
0,0,-0,0,32765
0,0,-0,0,32765
0,0,-0,0,32765
0,0,-0,0,32765
0,0,-0,0,32765
0,0,-0,0,32765
0,0,-0,0,32765
0,0,-0,0,32765
0,0,-0,0,32765
0,0,-0,0,32765
0,0,-0,0,32765
0,0,-0,0,32765
0,0,-0,0,32765
0,0,-0,0,32765
0,0,-0,0,32765
0,0,-0,0,32765
0,0,-0,0,32765
0,0,-0,0,32765
0,0,-0,0,32765
0,0,-0,0,32765
0,0,-0,0,32765
0,0,-0,0,32765
0,-0,-0,0,32765
0,-0,-0,0,32765
0,-0,-0,0,32765
0,-0,-0,0,32765
6.07944,2.06996,-0.935815,28,32765
6.03886,2.03401,-0.931968,25,32765
6.09215,2.02991,-0.940907,27,32765
6.08909,2.00642,-0.942119,23,32765
6.12373,1.99514,-0.948369,23,32765
6.16776,1.98651,-0.956523,24,32765
6.15523,1.9596,-0.956037,25,32765
6.18039,1.94478,-0.96079,24,32765
6.2055,1.9299,-0.965491,25,32765
6.17386,1.89747,-0.96123,25,32765
6.20844,1.88503,-0.967207,23,32765
6.23358,1.86937,-0.97179,26,32765
6.35347,1.88166,-0.991369,22,32765
6.68241,1.95423,-1.04307,23,32765
6.68867,1.93162,-1.04503,22,32765
6.67603,1.90325,-1.04339,32,32765
6.69167,1.88311,-1.04709,21,32765
6.69783,1.8603,-1.04846,23,32765
6.70385,1.83747,-1.05025,23,32765
6.73841,1.82246,-1.05644,22,32765
6.72526,1.79395,-1.05554,16,32765
6.82671,1.79599,-1.0724,12,32765
0,0,-0,0,32765
2.21247,0.565793,-0.347779,11,32765
0,0,-0,0,32765
0,0,-0,0,32765
7.2297,1.77066,-1.13894,11,32765
7.11055,1.71589,-1.12065,11,32765
7.24112,1.72115,-1.14221,11,32765
0,0,-0,0,32765
7.37763,1.69903,-1.16595,11,32765
7.25804,1.64426,-1.1481,11,32765
7.46615,1.66374,-1.1816,11,32765
0,0,-0,0,32765
0,0,-0,0,32765
7.48211,1.58618,-1.18727,11,32765
7.48724,1.56035,-1.18921,11,32765
7.63737,1.56436,-1.21465,11,32765
7.64251,1.53792,-1.21614,11,32765
7.62804,1.50765,-1.2153,11,32765
7.76872,1.50735,-1.23896,11,32765
7.59891,1.44686,-1.21326,11,32765
0,0,-0,26,32765
7.71506,1.41337,-1.23442,11,32765
7.91399,1.42167,-1.26776,11,32765
7.79212,1.37192,-1.2493,11,32765
8.08843,1.3952,-1.2988,11,32765
8.03444,1.35761,-1.29119,11,32765
0,0,-0,0,32765
0,0,-0,0,32765
0,0,-0,0,32765
0,0,-0,0,32765
0,0,-0,0,32765
0,0,-0,11,32765
0,0,-0,0,32765
0,0,-0,0,32765
0,0,-0,0,32765
0,0,-0,11,32765
0,0,-0,0,32765
0,0,-0,0,32765
0,0,-0,0,32765
0,0,-0,0,32765
0,0,-0,0,32765
0,0,-0,0,32765
0,0,-0,0,32765
0,0,-0,0,32765
0,0,-0,0,32765
0,0,-0,0,32765
0,0,-0,0,32765
0,0,-0,0,32765
0,0,-0,0,32765
0,0,-0,0,32765
0,0,-0,0,32765
0,0,-0,0,32765
0,0,-0,0,32765
0,0,-0,0,32765
0,0,-0,0,32765
0,0,-0,0,32765
0,0,-0,0,32765
0,0,-0,0,32765
0,0,-0,0,32765
0,0,-0,0,32765
0,0,-0,0,32765
0,0,-0,0,32765
0,0,-0,0,32765
0,0,-0,0,32765
0,0,-0,0,32765
0,0,-0,0,32765
0,0,-0,0,32765
0,0,-0,0,32765
0,0,-0,0,32765
0,0,-0,0,32765
0,0,-0,0,32765
0,0,-0,0,32765
0,0,-0,0,32765
0,0,-0,0,32765
0,0,-0,0,32765
0,-0,-0,0,32765
0,-0,-0,0,32765
0,-0,-0,0,32765
0,-0,-0,0,32765
4.98332,3.67631,1.10243,32,32765
4.92406,3.60789,1.08479,33,32765
4.94405,3.59787,1.08435,35,32765
5.08427,3.67361,1.10982,36,32765
5.32904,3.82332,1.15721,38,32765
5.35839,3.81702,1.15776,39,32765
5.33936,3.77654,1.14829,39,32765
5.39281,3.7871,1.15395,41,32765
5.41425,3.77465,1.15237,40,32765
5.45154,3.77365,1.15467,41,32765
5.43191,3.73375,1.14438,38,32765
5.46075,3.72745,1.14473,37,32765
5.50585,3.73196,1.14916,39,32765
5.47781,3.68644,1.13745,39,32765
5.53955,3.70152,1.14444,41,32765
5.53575,3.67248,1.13842,38,32765
5.58128,3.67606,1.14203,38,32765
5.59373,3.65818,1.13856,38,32765
5.58134,3.62374,1.13122,39,32765
5.635,3.63237,1.13692,37,32765
5.63095,3.60316,1.1305,37,32765
5.65984,3.5953,1.13138,37,32765
5.6887,3.58743,1.13202,38,32765
5.68415,3.55852,1.12578,37,32765
5.70459,3.54539,1.12426,39,32765
5.68306,3.50597,1.11533,20,32765
5.62776,3.44601,1.09973,12,32765
5.58884,3.39683,1.08781,12,32765
5.52475,3.33234,1.06968,12,32765
5.53599,3.31431,1.06761,12,32765
5.5728,3.31129,1.06962,12,32765
5.69458,3.35816,1.08832,14,32765
5.82508,3.40952,1.10872,38,32765
5.87923,3.41532,1.1146,43,32765
5.88218,3.3913,1.1106,40,32765
5.91935,3.38687,1.1129,39,32765
5.90523,3.35276,1.1053,40,32765
5.94231,3.34788,1.10849,43,32765
5.95378,3.32836,1.10572,41,32765
5.93041,3.28981,1.09739,40,32765
6.0368,3.32278,1.112,40,32765
6.01355,3.28376,1.10353,40,32765
6.05951,3.28239,1.10843,40,32765
6.09703,3.27607,1.11068,42,32765
6.0645,3.2329,1.10083,40,32765
6.08388,3.21796,1.10096,39,32765
6.10333,3.20294,1.10044,37,32765
6.12278,3.18778,1.09989,38,32765
6.15124,3.1765,1.10103,37,32765
6.16204,3.15605,1.09941,36,32765
6.16434,3.13074,1.09516,31,32765
6.21059,3.12763,1.09916,27,32765
6.20361,3.09793,1.09477,20,32765
6.19663,3.06818,1.09,16,32765
6.22478,3.05646,1.09113,13,32765
6.24408,3.04029,1.09044,12,32765
6.2277,3.00677,1.084,12,32765
6.28236,3.00764,1.09018,12,32765
6.24805,2.96568,1.08011,12,32765
6.32064,2.97464,1.08899,12,32765
6.31286,2.94541,1.08389,12,32765
6.30496,2.91616,1.07906,12,32765
6.35078,2.91191,1.08315,12,32765
6.34276,2.88264,1.07811,12,32765
6.37061,2.86978,1.07918,12,32765
6.38043,2.84872,1.07692,12,32765
6.46256,2.85941,1.08701,12,32765
6.4722,2.83819,1.08528,12,32765
6.44581,2.80091,1.07635,12,32765
6.49164,2.79505,1.08111,12,32765
6.50123,2.77356,1.07884,12,32765
6.51067,2.75205,1.07695,12,32765
6.52013,2.73057,1.07444,12,32765
6.52962,2.70894,1.07154,12,32765
6.67591,2.74382,1.09253,12,32765
6.54798,2.66599,1.06724,12,32765
6.59358,2.65947,1.07143,13,32765
6.59332,2.63447,1.06774,18,32765
6.57479,2.60199,1.06033,23,32765
6.55592,2.56993,1.05345,35,32765
6.537,2.53769,1.04686,37,32765
6.61027,2.54106,1.05498,14,32765
6.69283,2.54792,1.06382,12,32765
6.7756,2.55392,1.0729,12,32765
6.81193,2.54242,1.07526,12,32765
6.79272,2.51002,1.06824,12,32765
6.82924,2.49797,1.06963,12,32765
6.40029,2.31765,0.999588,14,32765
6.46419,2.31675,1.00526,12,32765
6.43454,2.28309,0.997067,13,32765
6.39561,2.24604,0.986896,14,32765
6.44996,2.24185,0.991033,13,32765
6.41069,2.20521,0.981092,13,32765
6.40884,2.18134,0.976775,16,32765
6.43477,2.16756,0.977225,14,32765
6.40458,2.13451,0.968301,16,32765
6.42103,2.11764,0.966901,16,32765
6.45626,2.1072,0.967488,18,32765
6.46335,2.08706,0.963785,17,32765
6.48913,2.07311,0.963208,18,32765
6.5245,2.062,0.962853,18,32765
4.94186,3.64987,1.0341,40,32765
5.00965,3.67476,1.04382,39,32765
4.99002,3.6354,1.03497,39,32765
4.99467,3.6129,1.0309,38,32765
5.15137,3.69998,1.05756,40,32765
5.38109,3.83745,1.09902,46,32765
5.40234,3.82531,1.0981,45,32765
5.40757,3.80165,1.09346,43,32765
5.42906,3.78913,1.09177,45,32765
5.47452,3.7937,1.0954,43,32765
5.46304,3.75924,1.08709,46,32765
5.48382,3.74727,1.08562,44,32765
5.50453,3.73509,1.08484,43,32765
5.54191,3.7336,1.08643,47,32765
5.52182,3.69363,1.07682,44,32765
5.55085,3.68643,1.07738,45,32765
5.57174,3.67368,1.07584,45,32765
5.61719,3.67743,1.07871,47,32765
5.61312,3.64822,1.07322,44,32765
5.60053,3.61395,1.06581,44,32765
5.67122,3.63272,1.07376,44,32765
5.70855,3.63003,1.076,45,32765
5.69579,3.59562,1.0686,45,32765
5.73308,3.59287,1.07036,45,32765
5.74524,3.57434,1.06715,46,32765
5.71536,3.52951,1.05702,42,32765
5.69374,3.48996,1.04836,23,32765
5.74775,3.49695,1.05399,13,32765
5.59931,3.38072,1.02118,13,32765
5.51748,3.30655,1.00214,13,32765
5.57127,3.31369,1.00696,13,32765
5.54001,3.27026,0.996878,13,32765
5.77267,3.3822,1.03437,25,32765
5.89513,3.42793,1.052,46,32765
5.92379,3.41863,1.05265,48,32765
5.94392,3.40424,1.05161,49,32765
5.96419,3.38951,1.05034,47,32765
5.98421,3.37473,1.0502,46,32765
5.9785,3.34539,1.0444,45,32765
5.98972,3.32588,1.04245,40,32765
6.00109,3.30625,1.0395,34,32765
6.02978,3.29573,1.0404,31,32765
6.01499,3.26132,1.03446,27,32765
6.00892,3.23173,1.02899,21,32765
6.01108,3.20737,1.02559,18,32765
6.08282,3.22035,1.03455,16,32765
6.04975,3.17771,1.02504,15,32765
6.07789,3.16728,1.02589,13,32765
6.1063,3.15613,1.02685,14,32765
6.13464,3.14482,1.0282,13,32765
6.13688,3.11956,1.02405,13,32765
6.14779,3.09873,1.02181,13,32765
6.18494,3.09129,1.02496,13,32765
6.21337,3.07912,1.02623,13,32765
6.2327,3.06297,1.0257,13,32765
6.22534,3.03375,1.02054,13,32765
6.25345,3.02175,1.02167,13,32765
6.26361,3.00117,1.0201,13,32765
6.36326,3.02288,1.03225,13,32765
6.33766,2.9851,1.02453,13,32765
6.34782,2.96414,1.02249,13,32765
6.35792,2.94303,1.02072,13,32765
6.40387,2.93861,1.02442,13,32765
6.37789,2.90092,1.01668,13,32765
6.42386,2.89606,1.02041,13,32765
6.43377,2.87479,1.01814,13,32765
6.44367,2.85327,1.01604,13,32765
6.48048,2.84401,1.0186,13,32765
6.54483,2.8461,1.02424,13,32765
6.55449,2.82425,1.02293,14,32765
6.56417,2.80251,1.02063,13,32765
6.61018,2.79619,1.02438,13,32765
6.60152,2.76668,1.01901,14,32765
6.61112,2.74474,1.01607,13,32765
6.60204,2.71541,1.01179,13,32765
6.64804,2.70867,1.01451,13,32765
6.69383,2.70181,1.01831,13,32765
6.71208,2.68379,1.01746,14,32765
6.69367,2.65087,1.01027,14,32765
6.73023,2.64007,1.01195,14,32765
6.75766,2.62513,1.01249,13,32765
6.76659,2.60289,1.01023,13,32765
6.79391,2.58812,1.00999,13,32765
6.78421,2.55885,1.00457,13,32765
6.81131,2.54384,1.00527,13,32765
6.85709,2.53543,1.00809,13,32765
6.80999,2.49251,0.996918,13,32765
6.49224,2.35241,0.947581,13,32765
6.39776,2.29436,0.929614,13,32765
6.33063,2.2476,0.916409,14,32765
6.34759,2.23052,0.914836,22,32765
6.35513,2.21021,0.911814,21,32765
6.35316,2.18672,0.907736,21,32765
6.37936,2.17258,0.907542,21,32765
6.41467,2.16204,0.909146,21,32765
6.45961,2.15408,0.911216,21,32765
6.4667,2.1339,0.908376,21,32765
6.49257,2.12023,0.907339,21,32765
6.50911,2.10299,0.904926,21,32765
6.50661,2.07983,0.900218,21,32765
6.5231,2.06268,0.896971,22,32765
4.97556,3.66942,0.98325,36,32765
5.02723,3.68254,0.990951,34,32765
4.93542,3.59073,0.969893,36,32765
5.05946,3.65558,0.990433,33,32765
4.98333,3.57551,0.972791,34,32765
5.32518,3.79394,1.03581,36,32765
5.35378,3.78803,1.038,40,32765
5.34998,3.75941,1.03388,40,32765
5.44322,3.7989,1.04788,39,32765
5.42337,3.75871,1.03998,38,32765
5.42775,3.73545,1.03674,38,32765
5.41576,3.70086,1.03091,39,32765
5.4609,3.70531,1.0352,36,32765
5.51441,3.71483,1.04125,41,32765
5.52701,3.69655,1.03952,41,32765
5.51485,3.66192,1.03283,39,32765
5.55166,3.66047,1.03584,41,32765
5.51433,3.60982,1.02484,41,32765
5.57607,3.62418,1.03233,41,32765
5.58843,3.60571,1.03015,38,32765
5.65897,3.62453,1.03868,41,32765
5.62094,3.57435,1.02789,41,32765
5.62465,3.55069,1.02407,39,32765
5.68681,3.56389,1.03101,40,32765
5.70724,3.55042,1.03051,41,32765
5.71938,3.53138,1.02859,40,32765
5.71451,3.50207,1.02385,27,32765
5.7096,3.47286,1.01846,12,32765
5.61134,3.38781,0.996234,12,32765
5.54648,3.32365,0.98054,12,32765
5.52352,3.28541,0.973074,12,32765
5.53458,3.26726,0.971322,12,32765
5.75065,3.36878,1.00447,17,32765
5.85611,3.40434,1.01928,36,32765
5.87651,3.38969,1.01793,36,32765
5.89654,3.3754,1.01702,33,32765
5.90769,3.35645,1.01506,31,32765
5.91039,3.33226,1.01143,25,32765
5.91304,3.30808,1.0075,19,32765
5.89868,3.27371,1.00042,15,32765
5.92728,3.26342,1.00155,12,32765
5.90361,3.225,0.993367,12,32765
6.00169,3.25241,1.00572,12,32765
5.87332,3.15784,0.979659,12,32765
6.05881,3.23135,1.00634,12,32765
6.03496,3.19269,0.998004,12,32765
6.08081,3.19138,1.00119,12,32765
6.14426,3.19884,1.00774,12,32765
6.09339,3.14721,0.995282,12,32765
6.1483,3.14964,0.999304,12,32765
6.1237,3.11132,0.991765,12,32765
6.13442,3.09072,0.989903,12,32765
6.18057,3.08765,0.993676,12,32765
6.20902,3.07572,0.994028,12,32765
6.13097,3.01106,0.977099,12,32765
6.21248,3.0253,0.986404,12,32765
6.18711,2.98772,0.97816,12,32765
6.31307,3.0232,0.995171,12,32765
6.26065,2.97294,0.982786,12,32765
6.27064,2.95239,0.98106,12,32765
6.28062,2.93182,0.978921,12,32765
6.35341,2.94029,0.986777,12,32765
6.36351,2.91933,0.983946,12,32765
6.37336,2.89836,0.982181,12,32765
6.36521,2.86915,0.977054,12,32765
6.37491,2.84814,0.975262,12,32765
6.40254,2.83522,0.976672,12,32765
6.53006,2.86574,0.992908,12,32765
6.45794,2.80882,0.978591,12,32765
6.46769,2.78727,0.97584,12,32765
6.51342,2.78148,0.980411,12,32765
6.52281,2.7602,0.978118,12,32765
6.61422,2.77316,0.989598,12,32765
6.58677,2.73664,0.982472,13,32765
6.59614,2.71493,0.979859,12,32765
6.55914,2.67491,0.972139,12,32765
6.70568,2.70938,0.991499,12,32765
6.60432,2.64332,0.973772,12,32765
6.63151,2.62917,0.974964,12,32765
6.71402,2.63651,0.984447,12,32765
6.74124,2.62169,0.986103,12,32765
6.69436,2.57849,0.977032,12,32765
6.77706,2.58477,0.986282,12,32765
6.76695,2.55587,0.982809,12,32765
6.84039,2.55793,0.991433,12,32765
6.84876,2.53585,0.99036,12,32765
6.57787,2.41151,0.949284,12,32765
6.40888,2.32579,0.922662,12,32765
6.37927,2.29156,0.916087,12,32765
6.32145,2.24741,0.906247,13,32765
6.33809,2.23019,0.907314,18,32765
6.31699,2.20053,0.903193,17,32765
6.32395,2.18056,0.902962,17,32765
6.34952,2.16708,0.905674,17,32765
6.3847,2.15614,0.90918,18,32765
6.41047,2.14161,0.912026,18,32765
6.41745,2.12091,0.911335,18,32765
6.46179,2.11263,0.917401,17,32765
6.45888,2.08925,0.916714,17,32765
6.4842,2.07487,0.920317,17,32765
6.49994,2.05757,0.922829,18,32765
5.2827,3.90128,0.981176,43,32765
5.00024,3.66775,0.926347,40,32765
5.02021,3.65736,0.927169,39,32765
4.99234,3.61194,0.918372,40,32765
5.06861,3.64155,0.929752,40,32765
5.01646,3.57875,0.91682,37,32765
5.35109,3.79112,0.974751,45,32765
5.41201,3.80799,0.982563,47,32765
5.43252,3.79639,0.982415,45,32765
5.46952,3.79562,0.985128,45,32765
5.48217,3.77778,0.983431,44,32765
5.50297,3.76527,0.983705,46,32765
5.5238,3.75278,0.98322,47,32765
5.54471,3.73999,0.982968,45,32765
5.56562,3.72708,0.982677,46,32765
5.56178,3.69773,0.977694,44,32765
5.59048,3.69067,0.978962,47,32765
5.59458,3.66691,0.975725,46,32765
5.62339,3.65946,0.976864,47,32765
5.6525,3.65153,0.977537,47,32765
5.6566,3.62746,0.973918,46,32765
5.67698,3.61439,0.973708,48,32765
5.72264,3.61694,0.977098,47,32765
5.70123,3.57724,0.969181,47,32765
5.72171,3.5637,0.968584,43,32765
5.71706,3.53417,0.963815,41,32765
5.7375,3.52034,0.963512,33,32765
5.69881,3.4704,0.952639,17,32765
5.6343,3.40568,0.937268,15,32765
5.52697,3.31584,0.915371,13,32765
5.5805,3.32317,0.920916,13,32765
5.57464,3.29473,0.916341,13,32765
5.58603,3.27613,0.9137,13,32765
5.66561,3.29738,0.923339,14,32765
5.84,3.37248,0.947017,13,32765
5.81701,3.33367,0.939099,13,32765
5.86245,3.33452,0.9427,13,32765
5.89957,3.3299,0.944697,13,32765
5.91948,3.3154,0.943622,13,32765
5.93974,3.30018,0.942308,13,32765
5.9511,3.28017,0.940493,13,32765
5.94482,3.2511,0.93541,13,32765
6.03438,3.27372,0.945448,14,32765
5.96698,3.21171,0.930384,13,32765
6.05671,3.23375,0.94024,14,32765
6.05033,3.20429,0.934978,14,32765
6.07871,3.19372,0.935087,14,32765
6.12464,3.19205,0.938385,13,32765
6.11768,3.16313,0.933296,13,32765
6.14623,3.15193,0.932821,13,32765
6.13926,3.12252,0.928326,14,32765
6.16772,3.11076,0.929124,13,32765
6.19625,3.09871,0.92985,13,32765
6.20698,3.0779,0.927354,14,32765
6.21779,3.05685,0.924585,13,32765
6.23716,3.04044,0.923874,14,32765
6.28319,3.03722,0.92652,13,32765
6.29323,3.01676,0.925211,14,32765
6.25862,2.97498,0.916107,13,32765
6.3852,3.00934,0.931386,13,32765
6.32351,2.95478,0.918766,14,32765
6.36946,2.95063,0.922047,13,32765
6.34353,2.91304,0.914013,13,32765
6.38946,2.90852,0.917435,14,32765
6.43555,2.90367,0.920243,14,32765
6.46347,2.89049,0.921009,14,32765
6.41873,2.84511,0.911908,13,32765
6.49194,2.85172,0.91921,13,32765
6.55607,2.85419,0.924987,14,32765
6.52954,2.81656,0.917077,14,32765
6.57542,2.81056,0.921264,13,32765
6.5849,2.78904,0.918947,13,32765
6.59418,2.76729,0.918117,13,32765
6.60331,2.746,0.916453,14,32765
6.64938,2.73931,0.918902,13,32765
6.62161,2.70278,0.912906,13,32765
6.68563,2.70366,0.919471,13,32765
6.67621,2.67443,0.915496,14,32765
6.70353,2.66002,0.916483,14,32765
6.74006,2.649,0.918909,13,32765
6.73961,2.62327,0.9166,13,32765
6.74821,2.60141,0.915626,13,32765
6.78474,2.58985,0.917845,13,32765
6.79318,2.56789,0.917062,14,32765
6.82029,2.55247,0.918768,13,32765
6.82864,2.53043,0.917698,13,32765
6.87412,2.52211,0.9219,13,32765
6.59338,2.39462,0.882032,13,32765
6.44258,2.31609,0.8596,12,32765
6.45021,2.29493,0.859124,12,32765
6.28921,2.21465,0.836442,15,32765
6.33362,2.20795,0.841313,21,32765
6.35937,2.19437,0.843569,21,32765
6.39441,2.18396,0.847338,21,32765
6.40148,2.16333,0.846828,21,32765
6.44613,2.15501,0.851974,21,32765
6.472,2.14039,0.853764,21,32765
6.45989,2.1134,0.851998,21,32765
6.47586,2.0961,0.853893,21,32765
6.52014,2.0877,0.859803,22,32765
6.5265,2.06725,0.860979,22,32765
4.91212,3.61434,0.936259,35,32765
4.98051,3.63933,0.942023,33,32765
4.94517,3.58825,0.928567,36,32765
5.0541,3.64116,0.942347,36,32765
4.90591,3.50956,0.908294,33,32765
5.35363,3.80264,0.983935,36,32765
5.35844,3.77959,0.979142,38,32765
5.41995,3.79632,0.984003,38,32765
5.39214,3.75068,0.973068,36,32765
5.41312,3.7386,0.971342,38,32765
5.47516,3.75424,0.975941,40,32765
5.45552,3.71373,0.966644,41,32765
5.542,3.74587,0.975853,41,32765
5.4811,3.67786,0.959073,38,32765
5.52652,3.68205,0.961349,41,32765
5.53912,3.66394,0.958032,38,32765
5.56817,3.65677,0.957317,42,32765
5.59716,3.64942,0.957073,39,32765
5.55971,3.59891,0.94528,37,32765
5.60523,3.60217,0.947981,40,32765
5.60921,3.57853,0.943015,38,32765
5.62991,3.56533,0.940997,36,32765
5.67554,3.5679,0.944081,32,32765
5.66253,3.53348,0.936957,27,32765
5.67437,3.515,0.934813,20,32765
5.66098,3.48097,0.927483,15,32765
5.69826,3.47792,0.928165,12,32765
5.65905,3.42863,0.917631,14,32765
5.59414,3.36432,0.902809,12,32765
5.52887,3.30054,0.887738,12,32765
5.57425,3.30246,0.890581,12,32765
5.58566,3.2838,0.88807,12,32765
5.59711,3.26501,0.885239,12,32765
5.71998,3.31058,0.900427,12,32765
5.80843,3.33638,0.910125,12,32765
5.85393,3.33734,0.913015,12,32765
5.86499,3.31844,0.910959,12,32765
5.87599,3.29951,0.908824,12,32765
5.93046,3.30433,0.912976,12,32765
5.94157,3.28484,0.911074,12,32765
5.94419,3.26029,0.907028,12,32765
5.96394,3.24548,0.905956,12,32765
5.99234,3.23529,0.906494,12,32765
6.01219,3.2199,0.905679,12,32765
5.99682,3.18631,0.898975,12,32765
6.03391,3.18033,0.900983,12,32765
6.00952,3.14214,0.893437,12,32765
6.06405,3.14529,0.898101,12,32765
6.06585,3.12087,0.89447,12,32765
6.12934,3.12788,0.900668,12,32765
6.14006,3.10744,0.8984,13,32765
6.20401,3.11346,0.903706,12,32765
6.19701,3.08381,0.898635,13,32765
6.17206,3.04536,0.89167,12,32765
6.18247,3.02475,0.889694,12,32765
6.15709,2.98691,0.882408,12,32765
6.25678,3.00931,0.892608,12,32765
6.29378,3.00124,0.895449,12,32765
6.2771,2.9677,0.889251,12,32765
6.23329,2.92183,0.879002,12,32765
6.34202,2.94741,0.89111,12,32765
6.30695,2.9057,0.882756,12,32765
6.41604,2.9302,0.894662,12,32765
6.32663,2.86389,0.878579,12,32765
6.38166,2.86318,0.882695,12,32765
6.39146,2.84206,0.879987,12,32765
6.45575,2.84455,0.885377,12,32765
6.46537,2.82316,0.883669,12,32765
6.43866,2.78578,0.876339,13,32765
6.44824,2.76426,0.874073,12,32765
6.53075,2.77405,0.881183,12,32765
6.54001,2.75263,0.879642,12,32765
6.63173,2.76566,0.888173,12,32765
6.67777,2.75912,0.890519,12,32765
6.61353,2.70734,0.878389,12,32765
6.69643,2.71508,0.885761,12,32765
6.70577,2.69282,0.883017,12,32765
6.67811,2.65595,0.875409,12,32765
6.72407,2.64851,0.877895,12,32765
6.7699,2.64123,0.880216,12,32765
6.76014,2.61219,0.8758,12,32765
6.75967,2.58691,0.871091,13,32765
6.75895,2.56167,0.867668,12,32765
6.814,2.55728,0.870973,12,32765
6.79463,2.52498,0.864539,12,32765
6.80312,2.5029,0.862004,12,32765
6.87699,2.50426,0.86747,12,32765
6.55844,2.36408,0.823655,12,32765
6.48226,2.31282,0.809976,11,32765
6.36829,2.24888,0.792058,12,32765
6.31959,2.20867,0.782373,12,32765
6.30829,2.18158,0.777531,17,32765
6.34376,2.17104,0.778306,17,32765
6.37925,2.16042,0.778519,18,32765
6.40521,2.14682,0.777501,18,32765
6.40274,2.12381,0.773615,17,32765
6.4287,2.10978,0.772524,17,32765
6.46402,2.09874,0.772896,18,32765
6.49,2.08441,0.771209,18,32765
6.51575,2.07041,0.76998,18,32765
6.52257,2.05075,0.76481,19,32765
5.26712,3.88112,0.941509,44,32765
4.98496,3.6478,0.883942,40,32765
5.0697,3.68389,0.892178,42,32765
4.99436,3.60327,0.872471,42,32765
5.04711,3.61573,0.875226,40,32765
5.02751,3.5761,0.865164,41,32765
5.37937,3.79976,0.920162,41,32765
5.40853,3.79371,0.918935,45,32765
5.43756,3.78764,0.918076,47,32765
5.46681,3.78102,0.917595,45,32765
5.49635,3.77409,0.916145,47,32765
5.50129,3.75016,0.911273,46,32765
5.5223,3.73781,0.908805,44,32765
5.53531,3.71945,0.904977,42,32765
5.50669,3.67397,0.894786,34,32765
5.49446,3.63947,0.887475,30,32765
5.46546,3.59432,0.877295,26,32765
5.46105,3.56562,0.871619,20,32765
5.54803,3.59631,0.88026,17,32765
0,0,0,0,32765
5.46383,3.49058,0.856762,14,32765
5.55957,3.52562,0.866481,13,32765
5.58831,3.51787,0.866618,13,32765
5.61714,3.50994,0.866301,13,32765
5.63733,3.49679,0.865465,13,32765
5.68295,3.49921,0.867455,13,32765
5.65261,3.45471,0.857571,13,32765
5.69806,3.45691,0.860417,14,32765
5.70114,3.43326,0.856628,16,32765
5.56791,3.32828,0.832162,13,32765
5.55369,3.29466,0.825732,13,32765
5.56507,3.27603,0.823227,13,32765
5.57649,3.25727,0.820405,13,32765
5.58784,3.23835,0.818048,13,32765
5.72771,3.29433,0.834478,13,32765
5.86788,3.34966,0.850769,13,32765
5.87898,3.33068,0.848705,13,32765
5.91596,3.32626,0.850292,13,32765
5.9099,3.29712,0.845281,14,32765
5.96439,3.30169,0.849567,13,32765
6.01055,3.3009,0.851764,14,32765
6.02172,3.28109,0.849341,14,32765
5.99787,3.24238,0.842313,13,32765
6.04399,3.24102,0.845069,13,32765
6.01113,3.19792,0.83619,13,32765
6.0834,3.21043,0.842775,14,32765
6.11184,3.19961,0.842859,13,32765
6.12255,3.17957,0.840971,13,32765
6.11563,3.15036,0.836202,14,32765
6.14391,3.13916,0.837007,14,32765
6.17237,3.12761,0.837134,14,32765
6.18321,3.10679,0.834678,14,32765
6.19394,3.08601,0.832189,14,32765
6.22237,3.07388,0.832744,14,32765
6.2418,3.05743,0.831938,14,32765
6.24328,3.03233,0.82856,14,32765
6.26268,3.01573,0.827152,14,32765
6.3087,3.0119,0.830889,14,32765
6.31895,2.99099,0.828494,14,32765
6.29314,2.95333,0.821133,13,32765
6.37506,2.9662,0.828682,13,32765
6.3851,2.9451,0.82662,14,32765
6.39506,2.92397,0.824659,13,32765
6.40503,2.9027,0.822388,13,32765
6.41493,2.88138,0.820215,14,32765
6.48831,2.88839,0.825574,14,32765
6.47101,2.85448,0.820004,13,32765
6.50796,2.84494,0.821737,13,32765
6.51775,2.82314,0.819349,14,32765
6.50006,2.78956,0.813624,13,32765
6.52786,2.77588,0.813129,13,32765
6.60122,2.78143,0.819544,14,32765
6.64726,2.77515,0.821541,14,32765
6.61991,2.73817,0.814468,14,32765
6.64746,2.72416,0.814369,14,32765
6.63841,2.69444,0.809748,13,32765
6.68454,2.68716,0.811504,14,32765
6.72144,2.67602,0.812085,14,32765
6.70278,2.64291,0.806394,13,32765
6.71159,2.62122,0.803911,14,32765
6.78516,2.62459,0.809653,14,32765
6.76614,2.59208,0.802821,14,32765
6.75613,2.56324,0.79839,14,32765
6.82052,2.56235,0.802321,14,32765
6.81976,2.5369,0.798345,14,32765
6.88425,2.53531,0.802322,14,32765
6.8929,2.51259,0.799514,14,32765
6.86394,2.47668,0.792439,13,32765
6.4978,2.32068,0.746125,12,32765
6.4306,2.27314,0.734773,12,32765
6.43822,2.25235,0.732026,12,32765
6.35186,2.1988,0.718815,15,32765
6.36859,2.18165,0.717171,21,32765
6.37587,2.16137,0.713925,21,32765
6.40182,2.14775,0.712721,22,32765
6.44652,2.14038,0.714156,22,32765
6.45363,2.11998,0.710772,21,32765
6.47954,2.10577,0.709815,22,32765
6.50553,2.09138,0.707929,22,32765
6.49337,2.06524,0.702402,21,32765
6.52861,2.05457,0.700303,18,32765
5.29435,3.89504,0.86916,41,32765
5.21149,3.80697,0.852939,38,32765
4.97533,3.60931,0.811772,31,32765
5.13172,3.69779,0.834384,31,32765
5.06286,3.62399,0.820084,25,32765
5.18803,3.68791,0.836746,25,32765
5.32181,3.75658,0.855176,31,32765
5.39126,3.77883,0.862774,35,32765
5.35505,3.72717,0.853286,33,32765
5.41629,3.74361,0.859545,25,32765
5.39602,3.70347,0.852834,20,32765
5.44923,3.71393,0.857428,15,32765
5.49455,3.71827,0.860516,12,32765
5.49065,3.68901,0.856084,12,32765
5.48659,3.65982,0.851804,12,32765
5.51572,3.65237,0.852012,12,32765
5.51143,3.62327,0.847702,12,32765
5.55664,3.62706,0.851037,12,32765
5.51872,3.57661,0.841692,12,32765
5.60555,3.60715,0.851247,12,32765
5.60929,3.58344,0.847886,12,32765
5.57105,3.53321,0.838064,12,32765
5.65845,3.56255,0.847237,12,32765
5.64516,3.52828,0.841144,12,32765
5.65689,3.50987,0.839332,12,32765
5.65198,3.48063,0.834523,12,32765
5.68934,3.47727,0.835713,12,32765
5.66735,3.43755,0.828713,13,32765
5.71306,3.4393,0.83098,13,32765
5.64789,3.37477,0.818036,12,32765
5.62495,3.33615,0.811289,12,32765
5.59332,3.29278,0.802448,12,32765
5.60445,3.27431,0.800373,12,32765
5.61573,3.25557,0.797776,12,32765
5.75601,3.31087,0.814007,12,32765
5.82769,3.32608,0.82024,12,32765
5.88218,3.33139,0.823338,12,32765
5.89334,3.31209,0.821372,12,32765
5.81773,3.24454,0.806892,12,32765
5.94172,3.28792,0.819239,12,32765
5.98762,3.28732,0.822395,12,32765
5.92913,3.22935,0.810428,12,32765
5.94013,3.20969,0.807941,12,32765
6.02106,3.22745,0.81539,13,32765
6.032,3.20762,0.812746,12,32765
6.0166,3.17376,0.806396,13,32765
6.05368,3.16785,0.8075,12,32765
6.03803,3.13399,0.801785,12,32765
6.07525,3.12741,0.803087,12,32765
6.13909,3.13415,0.807653,12,32765
6.18537,3.13148,0.809544,12,32765
6.16063,3.09304,0.802069,12,32765
6.13558,3.05501,0.794706,13,32765
6.14584,3.03479,0.792944,13,32765
6.20972,3.04057,0.797414,13,32765
6.23805,3.02852,0.796997,13,32765
6.23056,2.99892,0.792583,12,32765
6.27667,2.99535,0.794504,13,32765
6.26881,2.96631,0.789599,12,32765
6.29666,2.95433,0.789901,13,32765
6.32458,2.94212,0.789915,13,32765
6.29841,2.90465,0.78322,12,32765
6.32638,2.89205,0.782924,12,32765
6.35422,2.87935,0.783324,12,32765
6.40948,2.8783,0.786663,12,32765
6.41936,2.85674,0.784659,12,32765
6.50176,2.86751,0.7918,12,32765
6.393,2.79459,0.774705,12,32765
6.42963,2.78566,0.776179,13,32765
6.49382,2.78795,0.780886,12,32765
6.5033,2.76623,0.779168,12,32765
6.57688,2.77151,0.784719,12,32765
6.60462,2.75717,0.785527,12,32765
6.59542,2.72804,0.781452,13,32765
6.65967,2.72922,0.786022,12,32765
6.63175,2.69271,0.780497,12,32765
6.68684,2.68961,0.784004,13,32765
6.63107,2.64219,0.774687,12,32765
6.65822,2.62799,0.775723,12,32765
6.66694,2.6063,0.774028,12,32765
6.65698,2.57735,0.77092,12,32765
6.75825,2.59151,0.780112,13,32765
6.78544,2.57644,0.780854,12,32765
6.83107,2.56848,0.784242,12,32765
6.74638,2.51151,0.772185,12,32765
6.81068,2.50993,0.777741,12,32765
6.81891,2.48787,0.776455,12,32765
6.771,2.44542,0.76883,12,32765
6.53544,2.33653,0.740995,12,32765
6.43992,2.27876,0.729132,11,32765
6.41926,2.24796,0.724826,11,32765
6.295,2.18163,0.709565,14,32765
6.33963,2.17436,0.713334,18,32765
6.35595,2.15745,0.71399,17,32765
6.38163,2.14347,0.716436,17,32765
6.43569,2.13874,0.721162,18,32765
6.42361,2.11208,0.718555,18,32765
6.38278,2.07669,0.714153,18,32765
6.41755,2.06605,0.717554,18,32765
6.44291,2.05171,0.720706,18,32765
6.48745,2.04259,0.725561,18,32765
5.28155,3.89223,0.804908,24,32765
5.22268,3.82158,0.793454,24,32765
5.14702,3.74014,0.779495,16,32765
0,0,0,0,32765
4.83211,3.46457,0.726349,14,32765
0,0,0,0,32765
5.00101,3.53595,0.745558,14,32765
0,0,0,0,32765
5.32597,3.71297,0.787086,13,32765
5.35455,3.70694,0.787985,13,32765
5.39959,3.71192,0.791253,13,32765
5.41186,3.6944,0.789395,13,32765
5.42427,3.6766,0.787348,13,32765
5.48612,3.69185,0.792645,13,32765
5.46555,3.65158,0.786174,14,32765
5.52777,3.66614,0.790937,13,32765
5.50693,3.62601,0.784443,13,32765
5.53555,3.61897,0.785046,14,32765
5.56422,3.61173,0.785673,13,32765
5.58444,3.59916,0.784982,14,32765
5.57978,3.57012,0.780549,14,32765
5.60852,3.56247,0.780631,14,32765
5.60366,3.53348,0.776146,14,32765
5.59025,3.49932,0.770352,14,32765
5.65251,3.51251,0.7755,14,32765
5.68141,3.50408,0.775492,14,32765
5.71039,3.49543,0.775235,14,32765
5.68845,3.45555,0.768598,15,32765
5.7002,3.43672,0.765905,15,32765
5.71169,3.41801,0.764067,15,32765
5.60345,3.32836,0.746294,13,32765
5.57176,3.28497,0.737928,13,32765
5.62575,3.29162,0.741509,14,32765
5.59411,3.24783,0.733268,13,32765
5.63113,3.24381,0.734622,13,32765
5.82341,3.32851,0.755925,13,32765
5.89522,3.34366,0.760786,13,32765
5.87178,3.30478,0.754362,14,32765
5.9349,3.31469,0.758568,13,32765
5.9288,3.28552,0.753068,13,32765
5.97472,3.28497,0.755851,13,32765
5.9947,3.26974,0.754518,14,32765
5.96212,3.22618,0.746528,14,32765
6.06943,3.25801,0.756493,14,32765
6.05415,3.22396,0.750562,13,32765
6.09151,3.21783,0.750981,14,32765
6.10234,3.19781,0.748532,14,32765
6.11323,3.17748,0.746308,14,32765
6.10644,3.14786,0.741931,14,32765
6.15267,3.14546,0.743779,14,32765
6.16354,3.12476,0.741022,14,32765
6.17427,3.10418,0.738178,14,32765
6.20262,3.09265,0.737529,14,32765
6.213,3.07217,0.735746,14,32765
6.22348,3.05147,0.733313,14,32765
6.23396,3.03066,0.730604,14,32765
6.26229,3.01829,0.730556,14,32765
6.25465,2.98888,0.725839,14,32765
6.29168,2.98114,0.726316,14,32765
6.3196,2.96907,0.726421,14,32765
6.34757,2.95677,0.726237,13,32765
6.35754,2.93582,0.72402,14,32765
6.40371,2.93128,0.72556,14,32765
6.39547,2.90186,0.721659,14,32765
6.42361,2.88844,0.721456,14,32765
6.43353,2.86679,0.719445,14,32765
6.47962,2.86147,0.721776,14,32765
6.48922,2.84033,0.719034,14,32765
6.49863,2.81919,0.717177,13,32765
6.55383,2.81733,0.720294,14,32765
6.51765,2.77588,0.713547,14,32765
6.52713,2.75405,0.71144,14,32765
6.58237,2.75136,0.715061,13,32765
6.62829,2.74509,0.717146,14,32765
6.6374,2.7235,0.71519,14,32765
6.64632,2.70199,0.714003,14,32765
6.69224,2.69512,0.716048,14,32765
6.68265,2.66602,0.71231,14,32765
6.72841,2.65895,0.715115,14,32765
6.76503,2.64786,0.716344,13,32765
6.76448,2.62214,0.714388,14,32765
6.77306,2.60032,0.712837,14,32765
6.76309,2.57102,0.709484,14,32765
6.79942,2.55961,0.711522,14,32765
6.80789,2.53739,0.710135,14,32765
6.85365,2.52872,0.713177,14,32765
6.86195,2.50648,0.71188,14,32765
6.87021,2.48411,0.710617,14,32765
6.75641,2.4183,0.697797,13,32765
6.51097,2.30651,0.671477,12,32765
6.49978,2.27871,0.668405,12,32765
6.40372,2.22179,0.657344,12,32765
6.37321,2.1883,0.653013,18,32765
6.38017,2.16805,0.652608,22,32765
6.42478,2.1603,0.656794,22,32765
6.43172,2.13972,0.656228,22,32765
6.43855,2.11925,0.655734,21,32765
6.50182,2.11764,0.662407,21,32765
6.48939,2.09136,0.660708,22,32765
6.51487,2.07676,0.663682,22,32765
6.47411,2.04045,0.659465,14,32765
5.28528,3.88148,0.831905,38,32765
5.29116,3.85782,0.825162,29,32765
5.01556,3.63048,0.775502,13,32765
5.1489,3.70095,0.789883,13,32765
4.92713,3.51719,0.750209,12,32765
5.04437,3.57597,0.761389,12,32765
5.02415,3.53658,0.752765,12,32765
5.36164,3.74764,0.797559,12,32765
5.35799,3.71891,0.791557,12,32765
5.38707,3.7127,0.789573,12,32765
5.39963,3.69505,0.786598,12,32765
5.37121,3.64949,0.776454,12,32765
5.45782,3.68177,0.78333,12,32765
5.47052,3.6637,0.779487,13,32765
5.48315,3.64549,0.776166,13,32765
5.52886,3.64914,0.777433,12,32765
5.54132,3.6308,0.77462,12,32765
5.55361,3.61279,0.770758,12,32765
5.5657,3.5948,0.767674,12,32765
5.57772,3.57696,0.763728,12,32765
5.60635,3.56963,0.76334,12,32765
5.61834,3.55141,0.760131,12,32765
5.65558,3.54896,0.760087,12,32765
5.70123,3.55159,0.761423,12,32765
5.67103,3.50671,0.752666,12,32765
5.66597,3.47749,0.748331,12,32765
5.67784,3.4587,0.745449,12,32765
5.71514,3.4554,0.745542,12,32765
5.7097,3.42642,0.740892,13,32765
5.69573,3.39228,0.734824,12,32765
5.59609,3.30776,0.716987,12,32765
5.57305,3.26916,0.709763,12,32765
5.61857,3.27068,0.711268,12,32765
5.62945,3.25239,0.709109,12,32765
5.66635,3.24867,0.709617,12,32765
5.78097,3.28908,0.720007,12,32765
5.86139,3.30916,0.725587,13,32765
5.8987,3.30431,0.725864,12,32765
5.87497,3.26558,0.719929,12,32765
5.92961,3.27029,0.721811,12,32765
5.9405,3.25084,0.720154,13,32765
5.89891,3.20298,0.711564,12,32765
6.02355,3.2448,0.722873,13,32765
6.00823,3.21084,0.717065,12,32765
6.0543,3.20938,0.719349,12,32765
6.03002,3.17077,0.712425,12,32765
6.06724,3.16443,0.713713,13,32765
6.13116,3.17149,0.717012,12,32765
6.10661,3.13268,0.711094,12,32765
6.0996,3.1032,0.706679,12,32765
6.08358,3.06936,0.701084,13,32765
6.13867,3.07105,0.703852,13,32765
6.18464,3.06844,0.706042,13,32765
6.2307,3.06551,0.708172,13,32765
6.22319,3.03613,0.703842,13,32765
6.28719,3.04167,0.707048,12,32765
6.27972,3.01194,0.702409,12,32765
6.27187,2.98264,0.69851,12,32765
6.246,2.94477,0.692393,13,32765
6.256,2.92404,0.69,12,32765
6.34711,2.94096,0.697047,12,32765
6.32996,2.90759,0.69101,13,32765
6.35787,2.89487,0.691096,13,32765
6.34949,2.86572,0.686713,13,32765
6.40476,2.86486,0.688586,12,32765
6.469,2.86784,0.692497,12,32765
6.42418,2.8221,0.684227,12,32765
6.45199,2.80867,0.684176,12,32765
6.42499,2.77152,0.677569,13,32765
6.50764,2.78136,0.683185,13,32765
6.51718,2.75966,0.680292,13,32765
6.5266,2.73785,0.678106,12,32765
6.49925,2.70078,0.671135,12,32765
6.50826,2.67944,0.669316,12,32765
6.591,2.68826,0.674182,12,32765
6.62771,2.67796,0.674115,12,32765
6.65502,2.66384,0.674289,12,32765
6.70097,2.65673,0.675521,12,32765
6.70987,2.63483,0.672957,12,32765
6.66304,2.59136,0.664213,12,32765
6.69031,2.57673,0.663433,12,32765
6.79194,2.59044,0.670183,12,32765
6.78194,2.5614,0.665507,12,32765
6.81846,2.54984,0.665629,13,32765
6.83644,2.53084,0.663591,12,32765
6.84508,2.50819,0.660454,12,32765
6.84423,2.48226,0.656472,13,32765
6.85246,2.46025,0.653436,13,32765
6.83254,2.42793,0.648075,12,32765
6.45535,2.27056,0.608196,12,32765
6.43462,2.23998,0.603172,12,32765
6.36669,2.19339,0.593198,12,32765
6.32674,2.15721,0.585618,14,32765
6.39027,2.15678,0.587875,18,32765
6.38785,2.13349,0.584103,19,32765
6.39492,2.11297,0.5813,18,32765
6.42106,2.09835,0.579086,18,32765
6.42799,2.078,0.575578,19,32765
6.45352,2.06471,0.573595,19,32765
6.46006,2.0452,0.569947,19,32765
6.49525,2.03413,0.568239,19,32765
5.21608,3.83741,0.759764,14,32765
5.22176,3.81392,0.753181,13,32765
5.20317,3.7729,0.743725,13,32765
4.92588,3.54687,0.698262,14,32765
5.00246,3.57722,0.703516,13,32765
4.93361,3.50358,0.687444,14,32765
5.00243,3.52745,0.691622,13,32765
5.0063,3.50537,0.6869,14,32765
5.35267,3.72168,0.729112,13,32765
5.3981,3.72677,0.729151,14,32765
5.4271,3.72028,0.728366,13,32765
5.44803,3.70809,0.725226,14,32765
5.46073,3.6901,0.721411,14,32765
5.46518,3.66645,0.71648,14,32765
5.46126,3.63718,0.711004,13,32765
5.51524,3.6464,0.712979,14,32765
5.55262,3.64443,0.713372,13,32765
5.53995,3.61006,0.706313,14,32765
5.54367,3.58668,0.702175,13,32765
5.58075,3.58499,0.701395,14,32765
5.56749,3.5509,0.695578,14,32765
5.57941,3.53277,0.692387,14,32765
5.64184,3.54631,0.695196,14,32765
5.6453,3.52267,0.690997,14,32765
5.68261,3.51978,0.69096,14,32765
5.67759,3.49046,0.686804,14,32765
5.681,3.4664,0.682892,14,32765
5.70131,3.45278,0.680667,14,32765
5.72996,3.44429,0.680256,14,32765
5.72458,3.4151,0.675463,15,32765
5.72767,3.39113,0.670853,15,32765
5.58478,3.28144,0.649956,13,32765
5.59598,3.26288,0.647101,13,32765
5.60683,3.24463,0.644948,13,32765
5.61782,3.22611,0.642222,14,32765
5.70648,3.25199,0.64856,13,32765
