x, y, z, intensity, ring
8.24485,1.58668,0.859382,18,32765
8.30874,1.57047,0.865112,22,32765
8.2847,1.53781,0.860128,16,32765
8.24088,1.50184,0.853696,15,32765
8.28521,1.48137,0.855866,15,32765
8.21173,1.44021,0.847137,16,32765
8.24612,1.41789,0.848012,16,32765
8.21164,1.38357,0.843567,15,32765
8.21636,1.35618,0.842107,15,32765
8.18169,1.32211,0.83719,15,32765
8.22563,1.3007,0.839084,14,32765
8.30869,1.28525,0.846295,13,32765
8.36231,1.26472,0.849884,19,32765
8.31727,1.22973,0.844581,21,32765
8.38062,1.2103,0.848778,21,32765
8.40438,1.18524,0.850024,24,32765
8.39855,1.15624,0.847257,22,32765
8.40251,1.12821,0.845748,21,32765
8.3865,1.09789,0.843328,22,32765
8.34092,1.06351,0.836975,21,32765
14.9311,1.85368,1.49642,17,32765
14.908,1.80052,1.48969,45,32765
14.8647,1.74513,1.48205,107,32765
14.8309,1.69202,1.47705,109,32765
14.8366,1.64272,1.4754,109,32765
14.8817,1.59809,1.47703,107,32765
14.8872,1.54855,1.47514,21,32765
0,0,0,0,32765
0,0,0,0,32765
0,0,0,0,32765
0,0,0,0,32765
0,0,0,15,32765
14.8669,1.24692,1.45578,17,32765
14.8812,1.19835,1.45375,14,32765
14.9053,1.14996,1.45287,14,32765
14.8298,1.09496,1.44304,14,32765
14.9128,1.05235,1.44948,15,32765
14.9164,1.00372,1.44665,16,32765
14.8403,0.950469,1.43701,14,32765
14.9529,0.908464,1.44454,13,32765
16.0593,0.922999,1.5472,11,32765
8.18027,0.443314,0.787062,16,32765
8.18186,0.416453,0.785211,21,32765
8.19323,0.390546,0.784932,22,32765
8.17477,0.362809,0.780933,22,32765
8.16616,0.335502,0.778089,21,32765
7.99825,0.302142,0.760458,17,32765
7.90982,0.272506,0.750283,18,32765
7.94072,0.247501,0.751037,17,32765
7.92173,0.221086,0.747651,16,32765
7.89265,0.194457,0.743738,17,32765
7.91338,0.169259,0.743152,17,32765
7.89412,0.143165,0.739736,17,32765
7.91465,0.118212,0.739513,17,32765
7.8953,0.0925427,0.735209,18,32765
7.8759,0.0674183,0.730586,17,32765
7.8961,0.0425915,0.731262,17,32765
7.87657,0.0164572,0.726294,18,32765
7.85687,-0.00923728,0.722262,18,32765
7.85707,-0.0347193,0.719279,17,32765
7.85718,-0.059057,0.716414,18,32765
7.68796,-0.0816607,0.697825,17,32765
7.56848,-0.104732,0.683458,16,32765
7.66016,2.50211,0.819403,33,32765
7.69655,2.48662,0.822688,34,32765
7.72339,2.4679,0.825397,28,32765
7.76926,2.45492,0.829501,22,32765
7.83419,2.44731,0.835856,29,32765
7.88022,2.43346,0.8393,30,32765
7.93551,2.42279,0.844632,29,32765
7.98125,2.40912,0.848637,28,32765
8.01776,2.39193,0.849864,29,32765
8.08286,2.38252,0.85551,29,32765
8.13843,2.3696,0.860969,30,32765
8.19417,2.35677,0.863769,32,32765
8.34545,2.37067,0.878517,13,32765
8.47771,2.37844,0.890998,13,32765
8.41848,2.33214,0.88239,12,32765
8.51241,2.32839,0.891263,13,32765
8.46254,2.28511,0.883087,15,32765
8.47017,2.25695,0.882288,13,32765
8.51634,2.2387,0.884711,13,32765
8.4853,2.20026,0.880178,13,32765
8.44456,2.15957,0.873649,13,32765
8.4419,2.12992,0.871916,13,32765
8.42003,2.09524,0.866886,13,32765
8.3882,2.05856,0.861884,13,32765
8.39504,2.03127,0.860068,13,32765
8.36316,1.99416,0.854687,14,32765
8.3892,1.97092,0.85578,14,32765
8.34743,1.93164,0.849285,14,32765
8.36368,1.90609,0.848563,17,32765
8.41859,1.88926,0.852573,13,32765
8.50283,1.87842,0.857909,12,32765
8.59658,1.86958,0.865509,12,32765
8.51535,1.82225,0.854834,12,32765
8.37533,1.76341,0.839132,12,32765
8.27408,1.7136,0.826625,17,32765
8.28966,1.68784,0.826299,12,32765
8.23683,1.64836,0.81925,18,32765
8.19378,1.61069,0.812288,16,32765
8.23842,1.59076,0.81412,16,32765
8.31223,1.57646,0.819524,18,32765
8.30773,1.54697,0.817681,14,32765
8.24442,1.50744,0.808463,14,32765
8.28878,1.4871,0.810072,14,32765
8.25462,1.45289,0.804253,14,32765
8.25952,1.42554,0.802835,14,32765
8.22514,1.3912,0.79753,14,32765
8.24946,1.3672,0.798264,14,32765
8.2738,1.34284,0.798424,14,32765
8.20951,1.3042,0.790924,13,32765
8.31239,1.29193,0.798461,12,32765
8.31677,1.26405,0.797479,17,32765
8.33088,1.23759,0.797749,18,32765
8.37461,1.21553,0.799014,17,32765
8.38856,1.18955,0.798209,19,32765
8.39259,1.1616,0.797024,18,32765
8.38666,1.13227,0.794925,18,32765
8.37081,1.10157,0.791497,18,32765
8.36481,1.07213,0.788283,18,32765
8.34859,1.04215,0.78577,13,32765
14.8854,1.80878,1.39893,12,32765
14.9508,1.76714,1.40161,17,32765
14.9073,1.7127,1.39391,18,32765
14.9626,1.66877,1.39648,16,32765
14.9485,1.61717,1.39231,12,32765
0,0,0,0,32765
0,0,0,0,32765
40.3835,3.96266,3.7464,14,32765
40.9023,3.87625,3.78955,15,32765
0,0,0,0,32765
0,0,0,0,32765
14.9234,1.26576,1.37561,15,32765
14.858,1.21175,1.36784,13,32765
14.9912,1.17267,1.37792,14,32765
14.9552,1.12096,1.37435,13,32765
14.8298,1.06264,1.36114,14,32765
14.9625,1.02243,1.37131,14,32765
14.8565,0.966509,1.36149,13,32765
14.8596,0.917776,1.36097,12,32765
15.807,0.924702,1.44711,11,32765
8.16351,0.450666,0.747098,14,32765
8.16495,0.423743,0.747123,18,32765
8.18619,0.39809,0.748801,18,32765
8.15758,0.369814,0.746422,18,32765
8.17868,0.344057,0.747758,18,32765
8.00064,0.310359,0.731519,15,32765
7.95179,0.28269,0.727426,15,32765
7.93269,0.256373,0.726342,15,32765
7.92346,0.23015,0.726228,14,32765
7.90428,0.203598,0.724191,14,32765
7.9546,0.178764,0.729754,15,32765
7.91522,0.151851,0.727191,15,32765
7.91558,0.126109,0.728154,15,32765
7.91594,0.100301,0.728274,15,32765
7.87621,0.0742633,0.726577,15,32765
7.87636,0.0488418,0.727094,15,32765
7.86636,0.0231879,0.727866,15,32765
7.85622,-0.00201503,0.729366,15,32765
7.84612,-0.0275989,0.729396,15,32765
7.84578,-0.052713,0.731636,15,32765
7.68608,-0.0763115,0.718845,15,32765
7.60586,-0.100129,0.714429,14,32765
7.61854,2.49288,0.738872,39,32765
7.65494,2.4775,0.741872,39,32765
7.71023,2.46799,0.747145,37,32765
7.77514,2.46105,0.752708,36,32765
7.81164,2.44449,0.75574,36,32765
7.88624,2.43952,0.761564,36,32765
7.91303,2.42008,0.763668,36,32765
7.96834,2.40935,0.768214,35,32765
8.00488,2.39217,0.76916,34,32765
8.06048,2.37997,0.773326,35,32765
8.12566,2.3699,0.779229,36,32765
8.16229,2.35157,0.779732,41,32765
8.23705,2.34383,0.785763,20,32765
8.43645,2.37084,0.803421,14,32765
8.4731,2.35121,0.804587,13,32765
8.45191,2.3157,0.80168,15,32765
8.47885,2.29333,0.801348,18,32765
8.42879,2.24965,0.795099,14,32765
8.37865,2.20615,0.788094,14,32765
8.50171,2.20815,0.798425,14,32765
8.45131,2.16485,0.791457,14,32765
8.4197,2.12779,0.787108,14,32765
8.42678,2.10035,0.785063,15,32765
8.43363,2.07307,0.78403,14,32765
8.45019,2.04793,0.783099,15,32765
8.40864,2.00825,0.777186,16,32765
8.36689,1.96884,0.771824,15,32765
8.32507,1.92955,0.7658,16,32765
8.3219,1.8996,0.763206,24,32765
8.38655,1.88506,0.767638,13,32765
8.46109,1.87217,0.771345,13,32765
8.53543,1.85922,0.776333,13,32765
8.37617,1.79529,0.75945,13,32765
8.36265,1.7635,0.756636,13,32765
8.30032,1.72171,0.748682,17,32765
8.29641,1.69184,0.746499,15,32765
8.20448,1.64442,0.736504,21,32765
8.22001,1.61833,0.735263,22,32765
8.23536,1.59261,0.734096,20,32765
8.28965,1.57458,0.737102,25,32765
8.26555,1.54145,0.733615,18,32765
8.30014,1.51992,0.733728,16,32765
8.29554,1.49055,0.730627,15,32765
8.25154,1.45452,0.724319,16,32765
8.22699,1.42204,0.720321,16,32765
8.19256,1.38775,0.715396,16,32765
8.2267,1.36544,0.716803,15,32765
8.19204,1.33152,0.711652,15,32765
8.21621,1.30716,0.712497,14,32765
8.35856,1.30098,0.722495,13,32765
8.32357,1.2669,0.718108,20,32765
8.31799,1.23743,0.716583,22,32765
8.39131,1.21968,0.720014,20,32765
8.39541,1.19218,0.718267,25,32765
8.35009,1.15732,0.712866,23,32765
8.39351,1.13475,0.715072,22,32765
8.3974,1.10658,0.713509,22,32765
8.35186,1.07192,0.707034,21,32765
8.38507,1.04809,0.708888,14,32765
0,0,0,14,32765
0,0,0,0,32765
14.9789,1.72313,1.2573,12,32765
14.7767,1.65013,1.23782,12,32765
0,0,0,0,32765
0,0,0,0,32765
41.2457,4.19017,3.43388,15,32765
0,0,0,0,32765
0,0,0,0,32765
0,0,0,0,32765
15.0404,1.32699,1.24456,11,32765
14.9057,1.26562,1.23181,17,32765
14.8999,1.21643,1.22961,16,32765
14.904,1.16702,1.22783,15,32765
14.868,1.1155,1.22463,15,32765
14.9115,1.06947,1.22655,15,32765
14.8753,1.01736,1.22161,15,32765
14.8387,0.96615,1.21854,14,32765
15.0309,0.929065,1.23353,13,32765
15.9094,0.931347,1.30502,11,32765
8.16021,0.450768,0.669123,15,32765
8.20147,0.425872,0.672411,22,32765
8.17296,0.397628,0.669822,21,32765
8.19411,0.371601,0.671806,21,32765
8.15549,0.343161,0.668057,21,32765
8.02709,0.311414,0.657588,17,32765
7.92842,0.281838,0.649885,18,32765
7.91927,0.255869,0.649804,17,32765
7.92,0.229929,0.650601,16,32765
7.92073,0.203852,0.650389,16,32765
7.92127,0.177795,0.651387,17,32765
7.9018,0.151324,0.650837,17,32765
7.90217,0.125576,0.651798,18,32765
7.89256,0.0996373,0.651096,18,32765
7.90265,0.0740945,0.653892,17,32765
7.88287,0.0484166,0.652761,17,32765
7.86292,0.0226636,0.652801,17,32765
7.87271,-0.00258367,0.656055,19,32765
7.86262,-0.0282698,0.656182,17,32765
7.8623,-0.053486,0.658427,18,32765
7.67258,-0.0768716,0.644633,17,32765
7.61225,-0.100951,0.642646,16,32765
7.6566,2.496,0.771121,33,32765
7.68419,2.47711,0.767621,33,32765
7.70222,2.45539,0.762395,30,32765
7.7674,2.44874,0.763863,30,32765
7.83266,2.44162,0.765162,31,32765
7.86957,2.4248,0.763607,31,32765
7.93504,2.41654,0.764481,30,32765
7.98142,2.40228,0.76349,30,32765
8.01811,2.38505,0.762537,29,32765
8.08344,2.37593,0.764511,30,32765
8.1299,2.36032,0.763948,31,32765
8.1762,2.34468,0.764139,34,32765
8.28954,2.34785,0.770448,16,32765
8.42213,2.35585,0.77852,13,32765
8.40117,2.3207,0.772823,12,32765
8.50528,2.31934,0.776741,14,32765
8.48415,2.28385,0.771806,15,32765
8.5208,2.26365,0.7709,13,32765
8.47068,2.22027,0.762926,13,32765
8.44936,2.18488,0.756466,13,32765
8.45681,2.15684,0.75369,13,32765
8.42536,2.11959,0.747735,13,32765
8.47115,2.10186,0.747966,13,32765
8.40079,2.05524,0.73829,13,32765
8.40763,2.02794,0.735953,13,32765
8.41461,2.00006,0.732495,14,32765
8.42122,1.9726,0.730967,14,32765
8.35991,1.92908,0.722914,15,32765
8.35681,1.89916,0.718933,21,32765
8.47012,1.89555,0.726677,12,32765
8.41828,1.85445,0.71833,12,32765
8.52196,1.84769,0.724443,12,32765
8.40154,1.79239,0.711235,12,32765
8.43685,1.77036,0.712675,12,32765
8.26719,1.70621,0.695204,16,32765
8.31207,1.68631,0.697148,15,32765
8.22005,1.63926,0.686823,17,32765
8.23534,1.61406,0.685842,19,32765
8.21144,1.58093,0.681864,17,32765
8.29508,1.56857,0.687061,21,32765
8.30046,1.54079,0.685059,16,32765
8.31537,1.51528,0.684763,14,32765
8.26156,1.47702,0.679237,14,32765
8.26665,1.44956,0.676534,14,32765
8.23221,1.41547,0.671966,14,32765
8.27633,1.39454,0.673779,14,32765
8.22207,1.3576,0.666387,14,32765
8.27586,1.33823,0.6689,13,32765
8.17199,1.29364,0.659604,13,32765
8.28467,1.28331,0.667402,12,32765
8.36798,1.2671,0.671909,17,32765
8.36247,1.23717,0.670017,19,32765
8.35685,1.2075,0.66781,17,32765
8.42998,1.18892,0.67344,20,32765
8.38461,1.15418,0.668026,17,32765
8.39845,1.12748,0.666894,17,32765
8.36262,1.09456,0.663378,19,32765
8.38604,1.06962,0.663812,18,32765
8.3896,1.04195,0.66284,13,32765
0,0,0,0,32765
0,0,0,0,32765
0,0,0,0,32765
15.0126,1.66253,1.17518,12,32765
0,0,0,0,32765
0,0,0,0,32765
41.2575,4.15293,3.20976,14,32765
0,0,0,0,32765
0,0,0,0,32765
0,0,0,0,32765
0,0,0,0,32765
14.9238,1.25098,1.14687,15,32765
14.9281,1.20206,1.14299,14,32765
14.8624,1.1483,1.13669,14,32765
14.8961,1.10176,1.13691,13,32765
14.8699,1.05112,1.13238,13,32765
14.8936,1.00315,1.12898,14,32765
14.9468,0.957072,1.13015,13,32765
14.9302,0.906539,1.12628,12,32765
15.7197,0.901903,1.18332,14,32765
8.16515,0.441699,0.612616,14,32765
8.17662,0.415474,0.611872,18,32765
8.18801,0.389197,0.611044,18,32765
8.1694,0.361734,0.608328,18,32765
8.14075,0.334157,0.604527,18,32765
8.07216,0.305152,0.597594,15,32765
7.98352,0.275501,0.589612,16,32765
7.94471,0.24793,0.583971,15,32765
7.94559,0.221824,0.582457,15,32765
7.94645,0.195853,0.580052,15,32765
7.94712,0.170235,0.578957,15,32765
7.92784,0.144213,0.575382,15,32765
7.94835,0.118969,0.574871,15,32765
7.92894,0.093039,0.570774,16,32765
7.86943,0.0669487,0.565362,15,32765
7.86978,0.0416814,0.56302,16,32765
7.87008,0.0163809,0.560069,16,32765
7.86026,-0.00885093,0.557367,15,32765
7.88036,-0.033978,0.555679,15,32765
7.86045,-0.0590535,0.551635,15,32765
7.71083,-0.0829658,0.537644,15,32765
7.64091,-0.106812,0.529794,15,32765
7.65237,2.49911,0.694378,40,32765
7.67046,2.47713,0.689838,40,32765
7.73592,2.47057,0.688751,40,32765
7.76316,2.4518,0.686275,37,32765
7.80941,2.43874,0.685341,37,32765
7.88439,2.43372,0.686832,37,32765
7.93083,2.41959,0.685484,37,32765
7.97722,2.40532,0.684117,37,32765
8.01392,2.38806,0.682881,37,32765
8.0506,2.3705,0.681861,37,32765
8.10661,2.35775,0.681742,38,32765
8.18165,2.35042,0.683967,42,32765
8.22793,2.33455,0.68366,25,32765
8.42773,2.3616,0.696084,14,32765
8.37793,2.31838,0.688296,13,32765
8.47246,2.31447,0.690502,15,32765
8.48978,2.28941,0.688979,18,32765
8.45901,2.2512,0.682347,15,32765
8.48594,2.22819,0.681146,14,32765
8.47426,2.19517,0.675727,14,32765
8.48173,2.16699,0.67294,15,32765
8.46961,2.13445,0.668879,15,32765
8.43805,2.0973,0.662635,14,32765
8.42572,2.06493,0.658259,15,32765
8.42289,2.03515,0.655159,14,32765
8.38137,1.99562,0.647943,15,32765
8.39767,1.97048,0.647166,15,32765
8.3363,1.92695,0.639776,17,32765
8.34289,1.89927,0.636637,26,32765
8.38815,1.88044,0.638165,15,32765
8.36542,1.84597,0.632622,14,32765
8.37166,1.81821,0.630467,14,32765
8.37784,1.79038,0.628027,14,32765
8.38388,1.76224,0.626996,14,32765
8.3215,1.72033,0.619226,15,32765
8.29803,1.6863,0.615706,16,32765
8.25484,1.64897,0.609937,19,32765
8.24081,1.61784,0.606691,29,32765
8.24628,1.59029,0.605148,25,32765
8.2908,1.57038,0.606717,27,32765
8.35501,1.55349,0.609003,22,32765
8.27185,1.50984,0.601469,16,32765
8.31617,1.48923,0.603636,16,32765
8.23286,1.446,0.594529,16,32765
8.21804,1.41534,0.591756,16,32765
8.24251,1.39109,0.591782,16,32765
8.24723,1.36396,0.589181,16,32765
8.22229,1.33171,0.585607,15,32765
8.22671,1.30439,0.585055,15,32765
8.2015,1.27245,0.582018,13,32765
8.33412,1.26397,0.589276,20,32765
8.33846,1.23556,0.588177,25,32765
8.34269,1.20734,0.586761,20,32765
8.41588,1.18878,0.591731,26,32765
8.41989,1.16082,0.590253,22,32765
8.3942,1.12864,0.586256,21,32765
8.34846,1.09437,0.582425,22,32765
8.35209,1.0669,0.581294,22,32765
8.33584,1.03682,0.57895,15,32765
0,0,0,0,32765
0,0,0,0,32765
14.9972,1.71325,1.03303,11,32765
14.7946,1.64076,1.01699,12,32765
0,0,0,0,32765
0,0,0,0,32765
41.0668,4.13948,2.80358,15,32765
41.1606,4.00914,2.79875,14,32765
0,0,0,0,32765
0,0,0,0,32765
0,0,0,0,32765
14.9239,1.25259,1.00488,17,32765
14.8784,1.19956,0.997666,15,32765
14.9221,1.15432,0.999362,14,32765
14.8463,1.09939,0.991973,14,32765
14.8898,1.05374,0.992377,15,32765
14.8936,1.00427,0.987463,16,32765
14.9368,0.957465,0.987497,14,32765
14.9002,0.905656,0.982503,13,32765
16.0091,0.919405,1.05308,11,32765
8.19046,0.443479,0.536759,14,32765
8.20193,0.417119,0.535915,21,32765
8.18342,0.389285,0.533041,21,32765
8.17476,0.362226,0.531161,22,32765
8.18596,0.336217,0.530225,21,32765
8.06746,0.305125,0.520722,18,32765
7.93885,0.274058,0.51102,18,32765
7.91994,0.247206,0.507047,18,32765
7.91083,0.220853,0.504901,18,32765
7.92164,0.195192,0.503141,18,32765
7.89236,0.168963,0.500153,18,32765
7.90298,0.143613,0.49867,19,32765
7.92348,0.1184,0.497976,18,32765
7.90403,0.0925021,0.494075,18,32765
7.8844,0.0667825,0.491722,19,32765
7.90468,0.0415238,0.490615,20,32765
7.88499,0.0160225,0.486419,19,32765
7.88513,-0.0093169,0.484422,19,32765
7.87527,-0.0344408,0.480708,17,32765
7.85531,-0.0595462,0.476854,17,32765
7.68561,-0.0832612,0.463075,17,32765
7.59565,-0.106786,0.454699,17,32765
7.64052,2.50093,0.57568,32,32765
7.66733,2.48275,0.578215,32,32765
7.7227,2.47351,0.581911,32,32765
7.76859,2.46072,0.585527,31,32765
7.80515,2.44431,0.587389,31,32765
7.8513,2.43033,0.590056,30,32765
7.907,2.4192,0.592349,31,32765
7.97193,2.41138,0.596779,30,32765
8.01795,2.39708,0.598883,30,32765
8.05432,2.37976,0.600884,30,32765
8.10056,2.36431,0.60212,30,32765
8.18512,2.35953,0.606685,34,32765
8.20251,2.33538,0.606045,23,32765
8.44052,2.37356,0.622897,13,32765
8.45791,2.34847,0.623263,13,32765
8.44646,2.31519,0.620932,14,32765
8.49275,2.29758,0.621827,16,32765
8.49078,2.26683,0.619799,14,32765
8.45003,2.2263,0.614955,13,32765
8.54414,2.2214,0.620988,13,32765
8.42596,2.16105,0.609464,13,32765
8.43306,2.13355,0.60813,13,32765
8.47877,2.11576,0.609628,13,32765
8.44699,2.07846,0.605573,14,32765
8.4345,2.04591,0.602916,13,32765
8.42201,2.01298,0.600115,13,32765
8.4289,1.9846,0.597844,13,32765
8.35784,1.93836,0.590978,16,32765
8.35466,1.90803,0.589268,23,32765
8.38056,1.88461,0.588727,14,32765
8.38696,1.85642,0.587076,14,32765
8.41271,1.83265,0.587003,14,32765
8.3409,1.78772,0.579609,14,32765
8.34696,1.7598,0.577772,15,32765
8.22581,1.70573,0.568324,16,32765
8.28051,1.68805,0.569604,16,32765
8.24711,1.65245,0.565216,20,32765
8.26248,1.62692,0.563979,27,32765
8.25814,1.59767,0.561638,21,32765
8.27323,1.57239,0.561147,24,32765
8.33749,1.5555,0.562767,17,32765
8.3035,1.52056,0.558072,14,32765
8.23011,1.47843,0.55123,14,32765
8.23508,1.45099,0.550035,14,32765
8.24001,1.42348,0.548062,14,32765
8.24482,1.39574,0.547056,14,32765
8.28895,1.37468,0.547614,14,32765
8.19509,1.33107,0.539579,14,32765
8.19963,1.30344,0.53811,14,32765
8.33216,1.29631,0.545099,12,32765
8.36613,1.27297,0.545773,19,32765
8.36053,1.24399,0.543114,20,32765
8.36475,1.21602,0.541418,17,32765
8.41832,1.19501,0.542401,21,32765
8.39274,1.16248,0.53919,17,32765
8.40665,1.13543,0.537621,18,32765
8.38077,1.1036,0.534492,17,32765
8.38447,1.07588,0.532881,17,32765
8.36824,1.04612,0.529851,13,32765
0,0,0,0,32765
0,0,0,0,32765
14.6649,1.68447,0.921237,11,32765
15.1071,1.68412,0.945019,11,32765
0,0,0,0,32765
0,0,0,0,32765
0,0,0,0,32765
0,0,0,0,32765
0,0,0,0,32765
0,0,0,0,32765
0,0,0,0,32765
14.9182,1.26585,0.918417,14,32765
14.9423,1.21818,0.919314,14,32765
14.8965,1.16498,0.915473,13,32765
14.8806,1.1137,0.911331,13,32765
14.8841,1.06553,0.912131,14,32765
14.9076,1.01749,0.910519,14,32765
14.8709,0.966102,0.909212,13,32765
14.914,0.92,0.910002,13,32765
15.9034,0.928649,0.970297,12,32765
8.25217,0.454742,0.503226,13,32765
8.19382,0.424552,0.499477,18,32765
8.16524,0.396435,0.497824,18,32765
8.1665,0.369924,0.497531,18,32765
8.14773,0.342427,0.496142,18,32765
8.05898,0.31263,0.491513,16,32765
7.93031,0.281075,0.483444,16,32765
7.93124,0.25469,0.482806,16,32765
7.892,0.227569,0.482327,16,32765
7.93263,0.202907,0.484535,15,32765
7.89325,0.176363,0.483312,15,32765
7.89374,0.150591,0.483954,16,32765
7.89413,0.124675,0.484969,16,32765
7.86452,0.0983566,0.483756,16,32765
7.8747,0.0729501,0.485638,16,32765
7.86485,0.0478027,0.486035,16,32765
7.88483,0.0227642,0.488803,17,32765
7.8549,-0.00289262,0.487248,17,32765
7.87462,-0.0285373,0.491619,15,32765
7.84443,-0.053959,0.491561,15,32765
7.68435,-0.0778026,0.484546,15,32765
7.66396,-0.102539,0.485444,15,32765
7.60593,2.49454,0.497481,37,32765
7.66124,2.48568,0.501684,37,32765
7.70715,2.47339,0.504286,41,32765
7.76259,2.46365,0.508143,38,32765
7.78967,2.44424,0.509098,39,32765
7.84539,2.43324,0.512008,38,32765
7.92021,2.42797,0.515071,38,32765
7.95655,2.41141,0.517072,38,32765
8.00259,2.39713,0.518798,37,32765
8.04857,2.38266,0.521134,38,32765
8.114,2.37281,0.523227,39,32765
8.15068,2.35413,0.523954,41,32765
8.18726,2.33552,0.524451,37,32765
8.43499,2.37656,0.539659,15,32765
8.36587,2.32736,0.5344,14,32765
8.49873,2.33396,0.541462,15,32765
8.49693,2.30309,0.538911,19,32765
8.51426,2.27742,0.538193,15,32765
8.47352,2.23672,0.533812,14,32765
8.46146,2.20407,0.532311,15,32765
8.43017,2.16621,0.527474,14,32765
8.43729,2.13863,0.526137,15,32765
8.42493,2.10627,0.523644,15,32765
8.36403,2.0619,0.518169,14,32765
8.37087,2.03427,0.516908,15,32765
8.34862,1.99916,0.513706,15,32765
8.41375,1.98472,0.51502,16,32765
8.37183,1.94521,0.510685,18,32765
8.32974,1.90586,0.506698,22,32765
8.31668,1.8737,0.503613,23,32765
8.32305,1.84566,0.501972,23,32765
8.30976,1.81355,0.499375,23,32765
8.30616,1.78354,0.496842,24,32765
8.24383,1.74123,0.490938,23,32765
8.24962,1.71379,0.490271,23,32765
8.24568,1.68401,0.487602,22,32765
8.25139,1.65631,0.485901,21,32765
8.24718,1.62685,0.483419,20,32765
8.26243,1.60139,0.482317,17,32765
8.27754,1.57605,0.481729,18,32765
8.31239,1.5536,0.481077,17,32765
8.30782,1.52407,0.47846,15,32765
8.26388,1.48715,0.474059,16,32765
8.20005,1.44739,0.468921,16,32765
8.24431,1.42676,0.469194,16,32765
8.20976,1.39226,0.465951,16,32765
8.23419,1.368,0.465027,16,32765
8.19938,1.3341,0.461268,16,32765
8.19406,1.30484,0.459244,15,32765
8.24774,1.28541,0.460602,13,32765
8.32116,1.26833,0.463203,21,32765
8.35503,1.24532,0.462835,27,32765
8.34937,1.21588,0.460594,20,32765
8.38318,1.19206,0.460023,27,32765
8.4268,1.16919,0.460885,22,32765
8.36157,1.13126,0.454906,21,32765
8.40495,1.10866,0.455822,21,32765
8.34924,1.07317,0.450996,21,32765
8.35279,1.04594,0.449226,17,32765
8.2769,1.00873,0.444756,11,32765
0,0,0,0,32765
14.9106,1.71551,0.794664,12,32765
14.8867,1.66226,0.789504,13,32765
0,0,0,0,32765
0,0,0,0,32765
0,0,0,15,32765
0,0,0,0,32765
0,0,0,0,32765
0,0,0,0,32765
0,0,0,0,32765
14.9062,1.26673,0.776118,16,32765
14.8506,1.2125,0.772682,15,32765
14.8944,1.1665,0.773972,14,32765
14.8386,1.11214,0.767955,14,32765
14.862,1.06545,0.769784,15,32765
14.8656,1.01602,0.76696,15,32765
14.8887,0.968553,0.769114,15,32765
14.9816,0.925377,0.772093,15,32765
15.9018,0.929726,0.819466,12,32765
8.18671,0.451683,0.421647,13,32765
8.18816,0.424752,0.421544,21,32765
8.19947,0.398536,0.422228,22,32765
8.17081,0.370502,0.420393,21,32765
8.20192,0.345035,0.421757,22,32765
8.04328,0.312291,0.414383,20,32765
7.90456,0.280375,0.407025,19,32765
7.92545,0.254664,0.407415,19,32765
7.92614,0.228658,0.409373,19,32765
7.92686,0.202811,0.409143,19,32765
7.92741,0.177125,0.410362,18,32765
7.89796,0.150617,0.409454,18,32765
7.87839,0.124319,0.409432,17,32765
7.89869,0.0986233,0.411099,17,32765
7.86895,0.072684,0.410807,19,32765
7.86909,0.047564,0.41182,20,32765
7.86912,0.0224023,0.413352,19,32765
7.82919,-0.00324991,0.411555,20,32765
7.8789,-0.0289763,0.417314,18,32765
7.81876,-0.0542554,0.415946,18,32765
7.68857,-0.0783632,0.412033,17,32765
7.60828,-0.102358,0.409894,17,32765
7.62557,2.49275,0.527725,31,32765
7.67189,2.48055,0.52475,31,32765
7.70884,2.46453,0.521571,34,32765
7.74584,2.44809,0.518037,31,32765
7.79194,2.43534,0.516835,31,32765
7.85724,2.42806,0.515584,31,32765
7.91307,2.41723,0.514194,31,32765
7.95927,2.40327,0.513008,30,32765
8.02478,2.39421,0.512523,30,32765
8.07102,2.37949,0.511454,32,32765
8.07905,2.35284,0.507868,32,32765
8.15416,2.34556,0.507992,34,32765
8.21958,2.33524,0.508636,31,32765
8.44856,2.37002,0.518541,13,32765
8.42772,2.3342,0.512437,13,32765
8.46446,2.31429,0.510897,15,32765
8.48181,2.28922,0.508294,16,32765
8.47978,2.25888,0.504812,14,32765
8.50666,2.23616,0.502371,13,32765
8.51414,2.20812,0.499665,13,32765
8.4926,2.17247,0.494526,13,32765
8.44178,2.12996,0.487888,13,32765
8.41,2.09307,0.483044,13,32765
8.3685,2.05364,0.477191,13,32765
8.32683,2.0145,0.471203,13,32765
8.37253,1.99589,0.470701,13,32765
8.39872,1.97252,0.469293,15,32765
8.37618,1.93782,0.465342,14,32765
8.38271,1.91008,0.462457,13,32765
8.38906,1.88253,0.460317,13,32765
8.41489,1.859,0.45901,13,32765
8.38211,1.82255,0.454577,13,32765
8.33938,1.78426,0.450279,13,32765
8.37477,1.76228,0.449982,13,32765
8.36114,1.73041,0.446693,14,32765
8.36698,1.70251,0.444508,14,32765
8.41192,1.68235,0.44421,14,32765
8.3196,1.63502,0.437044,14,32765
8.28593,1.59939,0.433273,13,32765
8.29138,1.57134,0.431682,13,32765
8.2574,1.5363,0.428126,13,32765
8.27228,1.51102,0.427353,14,32765
8.31665,1.49082,0.426996,14,32765
8.26258,1.45294,0.422802,14,32765
8.26752,1.4252,0.420601,15,32765
8.27233,1.3974,0.419319,14,32765
8.22769,1.36157,0.416759,13,32765
8.2225,1.33236,0.413439,14,32765
8.20722,1.30192,0.411016,14,32765
8.22142,1.27626,0.410337,13,32765
8.35406,1.26813,0.41604,19,32765
8.36818,1.24177,0.41528,22,32765
8.33287,1.20759,0.412127,17,32765
8.40618,1.18946,0.413857,22,32765
8.42009,1.16256,0.413133,19,32765
8.39433,1.13034,0.409879,18,32765
8.3981,1.10244,0.408552,18,32765
8.36218,1.06918,0.405425,18,32765
8.38554,1.04384,0.405862,15,32765
0,0,0,0,32765
0,0,0,0,32765
0,0,0,0,32765
14.9908,1.66507,0.716622,12,32765
0,0,0,0,32765
0,0,0,0,32765
0,0,0,0,32765
0,0,0,15,32765
0,0,0,15,32765
0,0,0,0,32765
0,0,0,0,32765
15.011,1.26235,0.694471,15,32765
14.9356,1.20617,0.688611,14,32765
14.8499,1.1502,0.683003,14,32765
14.9235,1.10659,0.682404,15,32765
14.8972,1.05561,0.678721,15,32765
14.9007,1.00612,0.676713,14,32765
14.954,0.959873,0.67599,15,32765
14.9073,0.90785,0.67147,16,32765
8.268,0.476119,0.370993,11,32765
8.16981,0.443889,0.365132,12,32765
8.21123,0.418824,0.364919,19,32765
8.21264,0.391637,0.363488,19,32765
8.18401,0.363604,0.360231,19,32765
8.16527,0.335821,0.357737,19,32765
8.0965,0.3067,0.353081,17,32765
7.96775,0.275748,0.345508,17,32765
7.97865,0.25041,0.344248,15,32765
7.93954,0.22329,0.340983,16,32765
7.94036,0.196637,0.33844,16,32765
7.94105,0.17039,0.336523,16,32765
7.96162,0.144816,0.335449,15,32765
7.88221,0.118176,0.329925,16,32765
7.88263,0.0933548,0.327827,16,32765
7.88298,0.0677919,0.325815,16,32765
7.87326,0.0419388,0.323027,16,32765
7.90343,0.0160256,0.321832,16,32765
7.86358,-0.00894921,0.317602,17,32765
7.85364,-0.033499,0.314469,15,32765
7.8736,-0.0590125,0.312059,15,32765
7.75357,-0.0840698,0.304542,15,32765
7.59356,-0.106977,0.294071,15,32765
7.62846,2.49874,0.452173,36,32765
7.65578,2.48036,0.447705,37,32765
7.69271,2.46435,0.444251,40,32765
7.74872,2.45396,0.441528,38,32765
7.80437,2.44416,0.440483,38,32765
7.85061,2.43092,0.437592,38,32765
7.90644,2.42008,0.435732,37,32765
7.95264,2.40612,0.43417,37,32765
7.99902,2.39135,0.432088,37,32765
8.03566,2.37385,0.430137,38,32765
8.0916,2.36125,0.429105,40,32765
8.13794,2.34561,0.427051,40,32765
8.20338,2.33533,0.427133,41,32765
8.30742,2.33511,0.428431,16,32765
8.37305,2.32372,0.427098,15,32765
8.44828,2.3145,0.427242,16,32765
8.4849,2.29464,0.425514,17,32765
8.45392,2.2565,0.420682,15,32765
8.48078,2.23382,0.41806,15,32765
8.43024,2.19073,0.412521,15,32765
8.47634,2.17264,0.410979,14,32765
8.42548,2.13009,0.404909,14,32765
8.45184,2.10767,0.403218,14,32765
8.45885,2.07994,0.400111,14,32765
8.42695,2.04277,0.39501,15,32765
8.43388,2.0145,0.392289,15,32765
8.43096,1.98402,0.389324,15,32765
8.3987,1.94687,0.385197,15,32765
8.40525,1.919,0.382301,14,32765
8.37263,1.88256,0.378392,14,32765
8.33993,1.84607,0.374272,15,32765
8.36566,1.82255,0.372844,14,32765
8.39128,1.79889,0.372049,15,32765
8.36808,1.76432,0.368869,15,32765
8.34465,1.73038,0.36534,16,32765
8.33091,1.69848,0.362305,15,32765
8.28767,1.66073,0.357832,15,32765
8.31287,1.63688,0.356682,15,32765
8.33805,1.61258,0.355798,15,32765
8.3239,1.58056,0.353361,15,32765
8.32922,1.55266,0.351834,15,32765
8.23605,1.5073,0.346405,16,32765
8.23124,1.47835,0.343628,15,32765
8.24598,1.45281,0.342873,16,32765
8.20168,1.41657,0.338641,16,32765
8.23602,1.39392,0.338583,17,32765
8.22093,1.36305,0.337707,16,32765
8.23544,1.337,0.335284,16,32765
8.25964,1.31272,0.334645,15,32765
8.22451,1.27916,0.331871,15,32765
8.30782,1.26349,0.334359,19,32765
8.37134,1.24457,0.335491,28,32765
8.39536,1.21892,0.33508,21,32765
8.39947,1.19073,0.333388,28,32765
8.44307,1.16791,0.333743,24,32765
8.40741,1.13421,0.330376,20,32765
8.35175,1.09839,0.32672,21,32765
8.34553,1.06902,0.325133,21,32765
8.41848,1.04986,0.327309,19,32765
8.38232,1.01716,0.32351,13,32765
8.42538,0.994043,0.323857,12,32765
8.29962,0.951175,0.318071,12,32765
15.0164,1.67092,0.575099,17,32765
8.30586,0.895892,0.315694,12,32765
8.30885,0.868592,0.313231,12,32765
8.23217,0.83295,0.309847,12,32765
8.27469,0.809554,0.310736,12,32765
8.31719,0.785763,0.310794,13,32765
8.24026,0.750208,0.305968,13,32765
8.25273,0.723574,0.304825,14,32765
14.947,1.25912,0.549788,16,32765
8.21766,0.66477,0.300984,15,32765
8.2298,0.638514,0.30053,16,32765
8.25186,0.612904,0.299153,16,32765
8.22397,0.583708,0.296789,16,32765
8.21594,0.555652,0.295322,18,32765
8.2178,0.528333,0.29368,19,32765
8.21953,0.501357,0.29243,19,32765
8.22119,0.474157,0.29109,19,32765
8.21276,0.4469,0.289343,20,32765
8.20429,0.419091,0.286996,23,32765
8.20569,0.39187,0.285566,23,32765
8.18702,0.364247,0.282938,22,32765
8.14829,0.335574,0.279945,23,32765
8.08947,0.306828,0.276293,21,32765
7.94067,0.275144,0.269269,20,32765
7.9216,0.2489,0.266911,18,32765
7.93241,0.223317,0.265708,19,32765
7.9332,0.196634,0.263167,18,32765
7.91389,0.169927,0.260593,18,32765
7.90447,0.143843,0.258357,18,32765
7.90496,0.118532,0.256194,20,32765
7.91536,0.0937065,0.254411,19,32765
7.8957,0.067813,0.251753,19,32765
7.91594,0.0420249,0.250003,19,32765
7.89612,0.0158167,0.246949,19,32765
7.89622,-0.00923127,0.244336,18,32765
7.88624,-0.0339327,0.241286,18,32765
7.82621,-0.0590009,0.23626,18,32765
7.71611,-0.0840551,0.230191,18,32765
7.62597,-0.10787,0.223297,17,32765
7.58467,2.49024,0.333913,30,32765
7.65908,2.48751,0.338292,31,32765
7.6955,2.47221,0.339891,33,32765
7.74159,2.45933,0.341169,32,32765
7.78774,2.44589,0.343016,32,32765
7.83388,2.43234,0.343642,32,32765
7.87998,2.41855,0.344934,32,32765
7.91644,2.40181,0.345935,33,32765
8.00089,2.39864,0.34907,32,32765
8.02787,2.37818,0.349203,32,32765
8.08373,2.36557,0.349653,33,32765
8.14909,2.3557,0.350874,33,32765
8.20485,2.34261,0.352398,34,32765
8.32785,2.34848,0.356693,14,32765
8.50879,2.3695,0.362726,12,32765
8.5263,2.34403,0.360804,14,32765
8.54364,2.31851,0.361001,15,32765
8.50301,2.27746,0.357881,14,32765
8.54921,2.2595,0.358067,13,32765
8.46969,2.20849,0.352813,13,32765
8.47714,2.18004,0.350809,13,32765
8.48443,2.15166,0.349778,13,32765
8.45281,2.11382,0.346678,13,32765
8.49869,2.09524,0.346231,13,32765
8.46673,2.05785,0.343706,13,32765
8.47361,2.02969,0.341582,13,32765
8.36367,1.97403,0.335094,13,32765
8.40913,1.95541,0.335391,13,32765
8.41566,1.9273,0.334215,13,32765
8.39288,1.8926,0.33123,14,32765
8.39934,1.86419,0.328628,14,32765
8.38607,1.83175,0.326488,14,32765
8.39219,1.80381,0.324761,13,32765
8.37864,1.77187,0.322074,14,32765
8.32582,1.73184,0.318819,14,32765
8.3708,1.71213,0.317649,14,32765
8.37651,1.68431,0.31585,14,32765
8.3234,1.64442,0.31149,14,32765
8.38781,1.62767,0.312753,14,32765
8.30498,1.58262,0.307037,14,32765
8.27106,1.54699,0.304563,14,32765
8.2959,1.52305,0.303273,14,32765
8.32059,1.49911,0.303286,14,32765
8.30588,1.46833,0.300023,14,32765
8.21231,1.42357,0.29505,14,32765
8.25653,1.40254,0.295036,14,32765
8.26128,1.37457,0.293556,14,32765
8.24631,1.34324,0.289171,14,32765
8.25079,1.31562,0.288369,14,32765
8.26502,1.28992,0.287136,13,32765
8.31877,1.26969,0.286898,18,32765
8.33297,1.24286,0.286036,24,32765
8.38672,1.22171,0.28426,19,32765
8.40069,1.19499,0.283566,24,32765
8.4146,1.16823,0.282346,20,32765
8.39864,1.13775,0.28074,18,32765
8.36283,1.1044,0.277352,18,32765
8.36658,1.07619,0.275212,18,32765
8.35035,1.04584,0.272641,18,32765
8.3637,1.01908,0.273789,17,32765
8.32741,0.986607,0.270125,17,32765
8.3307,0.958856,0.268535,17,32765
8.35375,0.933517,0.267419,17,32765
8.32702,0.902676,0.265115,19,32765
8.31012,0.872967,0.263627,19,32765
8.31292,0.845791,0.263673,19,32765
8.3058,0.817045,0.261853,19,32765
8.3085,0.789642,0.260358,19,32765
8.30113,0.761351,0.25925,21,32765
8.29368,0.732909,0.257996,22,32765
8.27617,0.703423,0.257604,19,32765
8.27857,0.675248,0.255814,18,32765
8.28079,0.647695,0.255228,18,32765
8.28287,0.620227,0.255883,18,32765
8.26492,0.592028,0.254256,18,32765
8.24688,0.56377,0.25313,18,32765
8.20879,0.534129,0.251661,19,32765
8.2504,0.509873,0.252576,18,32765
8.21214,0.480386,0.250826,19,32765
8.1937,0.452489,0.250337,19,32765
8.21511,0.42652,0.250827,19,32765
8.1466,0.395829,0.248521,19,32765
8.14785,0.369135,0.248886,19,32765
8.19899,0.344078,0.249597,19,32765
8.10017,0.313364,0.247428,17,32765
7.97128,0.281936,0.244088,17,32765
7.98215,0.256188,0.244515,15,32765
7.94296,0.229153,0.243532,16,32765
7.96361,0.203815,0.245425,15,32765
7.96422,0.177742,0.245865,16,32765
7.90478,0.150434,0.244693,16,32765
7.96518,0.125002,0.247284,16,32765
7.91554,0.0984724,0.246956,17,32765
7.8758,0.072399,0.24671,17,32765
7.85597,0.0468837,0.247375,16,32765
7.85605,0.0210528,0.248214,16,32765
7.88601,-0.00474273,0.250879,16,32765
7.8559,-0.030117,0.251934,15,32765
7.85571,-0.055242,0.253767,16,32765
7.74548,-0.0792838,0.252554,15,32765
7.63515,-0.103141,0.2519,15,32765
7.60468,2.50233,0.25942,38,32765
7.63164,2.48406,0.261513,37,32765
7.6776,2.47188,0.263151,37,32765
7.73322,2.46206,0.264375,38,32765
7.77941,2.44862,0.265841,38,32765
7.82557,2.43507,0.266088,38,32765
7.89081,2.42715,0.267649,40,32765
7.92732,2.41034,0.268364,40,32765
7.97354,2.39563,0.269448,40,32765
8.01968,2.3809,0.270037,40,32765
8.07556,2.36829,0.270014,40,32765
8.12174,2.35287,0.27003,41,32765
8.18712,2.34259,0.2714,43,32765
8.2332,2.32679,0.27202,23,32765
8.39486,2.3428,0.275739,14,32765
8.48937,2.33889,0.276258,16,32765
8.50671,2.31343,0.276359,18,32765
8.50467,2.28278,0.274959,15,32765
8.48326,2.24686,0.272591,15,32765
8.4327,2.20353,0.269119,15,32765
8.42077,2.17015,0.266508,15,32765
8.43772,2.14437,0.265785,15,32765
8.45455,2.11874,0.264584,15,32765
8.44222,2.08573,0.26195,15,32765
8.43937,2.05554,0.260704,15,32765
8.38792,2.01341,0.256799,15,32765
8.46271,2.00162,0.25707,15,32765
8.37199,1.95088,0.252856,15,32765
8.39799,1.9273,0.252268,15,32765
8.42395,1.90359,0.251018,15,32765
8.36213,1.85983,0.246391,15,32765
8.34885,1.82744,0.244443,15,32765
8.34518,1.79745,0.242437,15,32765
8.35115,1.76975,0.240509,15,32765
8.33745,1.73788,0.238941,15,32765
8.35307,1.71207,0.236557,16,32765
8.35878,1.68424,0.234758,16,32765
8.32526,1.64821,0.231511,16,32765
8.26214,1.60661,0.228675,16,32765
8.3363,1.59188,0.228141,16,32765
8.32206,1.55975,0.226573,16,32765
8.32728,1.53197,0.224549,16,32765
8.26347,1.49189,0.22199,16,32765
8.25856,1.46297,0.219192,15,32765
8.23389,1.43025,0.216984,16,32765
8.23872,1.40239,0.215556,16,32765
8.24347,1.37442,0.214077,16,32765
8.2482,1.34631,0.210389,16,32765
8.20333,1.31073,0.208331,15,32765
8.20766,1.28359,0.206763,16,32765
8.32069,1.27257,0.207543,18,32765
8.35467,1.24864,0.207075,31,32765
8.33918,1.21726,0.20313,22,32765
8.39273,1.19628,0.203305,30,32765
8.42644,1.17224,0.202466,25,32765
8.38077,1.13762,0.200335,22,32765
8.41432,1.11345,0.198967,21,32765
8.36851,1.07861,0.195654,22,32765
8.36219,1.04942,0.193499,22,32765
8.34579,1.01894,0.19386,22,32765
8.35912,0.992345,0.191716,21,32765
8.36242,0.964428,0.190117,21,32765
8.306,0.930029,0.187016,21,32765
8.29913,0.901438,0.185445,22,32765
8.3021,0.87385,0.18459,23,32765
8.28502,0.844613,0.184192,22,32765
8.30774,0.818841,0.183127,22,32765
8.29052,0.789476,0.181197,23,32765
8.25328,0.758439,0.179533,24,32765
8.25578,0.730976,0.178594,25,32765
8.25818,0.703249,0.178819,22,32765
8.27054,0.675889,0.177245,21,32765
8.24286,0.64596,0.176021,21,32765
8.23497,0.61781,0.176459,21,32765
8.22698,0.59042,0.175237,21,32765
8.23885,0.564275,0.174937,22,32765
8.23069,0.536547,0.174479,21,32765
8.24238,0.510313,0.174382,21,32765
8.2041,0.480789,0.173009,23,32765
8.22559,0.455067,0.17355,23,32765
8.21707,0.427378,0.173219,23,32765
8.22844,0.400504,0.173254,23,32765
8.19974,0.372123,0.17299,24,32765
8.20095,0.344738,0.172176,23,32765
8.1221,0.314726,0.171371,20,32765
7.94324,0.281389,0.1682,20,32765
7.93412,0.255034,0.168109,19,32765
7.95489,0.229829,0.168774,19,32765
7.88561,0.202091,0.168557,18,32765
7.9362,0.177333,0.170063,18,32765
7.91673,0.150821,0.170316,19,32765
7.89718,0.124037,0.170613,19,32765
7.89752,0.0982931,0.171834,19,32765
7.89778,0.0725895,0.172838,20,32765
7.89794,0.0470666,0.174136,20,32765
7.87804,0.0209877,0.174537,20,32765
7.82804,-0.00488793,0.175135,18,32765
7.86793,-0.0304005,0.178041,18,32765
7.87774,-0.0556904,0.180105,18,32765
7.73752,-0.0795457,0.179242,18,32765
7.64718,-0.103698,0.180093,18,32765
7.59663,2.49169,0.287531,31,32765
7.66195,2.48543,0.284098,31,32765
7.68922,2.46659,0.279542,31,32765
7.73539,2.45404,0.275447,32,32765
7.77203,2.43812,0.271346,31,32765
7.81814,2.42496,0.268924,31,32765
7.88341,2.41729,0.266448,32,32765
7.92004,2.40045,0.262969,32,32765
7.98571,2.39097,0.259506,32,32765
8.04175,2.37823,0.257671,31,32765
8.07856,2.35978,0.254512,33,32765
8.13427,2.34753,0.252329,32,32765
8.18991,2.33529,0.249297,35,32765
8.25528,2.32499,0.24736,21,32765
8.38815,2.33274,0.247558,13,32765
8.53093,2.3418,0.248412,13,32765
8.58709,2.32633,0.245204,15,32765
8.45957,2.26195,0.238331,14,32765
8.51539,2.24681,0.236912,14,32765
8.52281,2.21894,0.232443,14,32765
8.44302,2.16838,0.2278,13,32765
8.489,2.15027,0.225454,14,32765
8.41846,2.10314,0.220853,14,32765
8.46424,2.08499,0.218715,14,32765
8.43226,2.04769,0.215216,14,32765
8.43906,2.01978,0.212571,14,32765
8.44582,1.99163,0.209762,13,32765
8.38426,1.94784,0.205299,14,32765
8.4493,1.93297,0.204505,13,32765
8.42653,1.89809,0.20101,13,32765
8.40361,1.8634,0.198176,14,32765
8.39023,1.83137,0.19564,13,32765
8.39627,1.80372,0.193015,14,32765
8.40231,1.77564,0.190628,14,32765
8.32998,1.73095,0.188168,14,32765
8.3358,1.7029,0.185971,14,32765
8.40036,1.68673,0.183679,14,32765
8.32753,1.64311,0.180557,14,32765
8.35268,1.61893,0.178704,14,32765
8.30891,1.58194,0.176192,14,32765
8.31423,1.55402,0.174008,14,32765
8.33904,1.52998,0.172976,14,32765
8.32451,1.4984,0.170134,14,32765
8.32951,1.47047,0.169222,14,32765
8.25562,1.4288,0.166166,14,32765
8.28009,1.40446,0.165902,14,32765
8.30448,1.38031,0.163682,14,32765
8.23023,1.33937,0.1583,14,32765
8.2446,1.31316,0.157222,14,32765
8.23915,1.28369,0.155101,15,32765
8.32253,1.26788,0.155923,15,32765
8.35648,1.2441,0.155034,24,32765
8.35077,1.21439,0.153475,19,32765
8.41414,1.19518,0.154344,23,32765
8.4181,1.16711,0.152938,23,32765
8.38239,1.13335,0.15072,19,32765
8.36633,1.10255,0.15015,18,32765
8.3899,1.07634,0.150597,18,32765
8.41331,1.05066,0.150714,18,32765
8.37712,1.01776,0.146946,18,32765
8.38047,0.989988,0.145773,18,32765
8.38375,0.961967,0.144913,18,32765
8.34716,0.929778,0.142736,18,32765
8.33034,0.899892,0.141585,18,32765
8.33331,0.872066,0.140807,18,32765
8.33619,0.844261,0.139549,18,32765
8.30918,0.813084,0.137303,19,32765
8.32181,0.78642,0.136214,19,32765
8.31444,0.757863,0.135022,18,32765
8.29701,0.728448,0.133876,18,32765
8.29942,0.700774,0.1321,19,32765
8.28181,0.671405,0.129906,19,32765
8.26406,0.642513,0.12902,19,32765
8.27615,0.615731,0.127264,18,32765
8.2682,0.587501,0.125706,19,32765
8.27013,0.560197,0.123703,19,32765
8.25202,0.531299,0.121942,19,32765
8.2737,0.505377,0.120905,19,32765
8.21544,0.474598,0.119157,19,32765
8.19703,0.446274,0.117006,19,32765
8.21845,0.420319,0.115492,19,32765
8.19985,0.392061,0.113268,19,32765
8.19111,0.364983,0.111523,19,32765
8.20225,0.339024,0.110463,18,32765
8.10342,0.308759,0.106778,18,32765
8.00446,0.27899,0.104139,16,32765
7.96539,0.251383,0.101266,15,32765
7.9462,0.224602,0.0998197,15,32765
7.94694,0.19795,0.097381,15,32765
7.94757,0.171602,0.0958059,16,32765
7.90812,0.144802,0.0935239,15,32765
7.90858,0.118995,0.0913996,15,32765
7.88896,0.0931577,0.088255,15,32765
7.85924,0.0673756,0.0862447,15,32765
7.88944,0.042021,0.0839638,15,32765
7.85956,0.0164081,0.0811007,15,32765
7.8496,-0.00919049,0.078764,14,32765
7.84956,-0.0345718,0.0761,15,32765
7.84943,-0.0596496,0.0735948,15,32765
7.76924,-0.0838359,0.0693974,15,32765
7.64898,-0.106954,0.0642376,16,32765
7.57821,2.49124,0.211758,37,32765
7.62448,2.47885,0.207253,37,32765
7.68025,2.46927,0.203285,39,32765
7.70734,2.45065,0.198326,39,32765
7.77255,2.44378,0.194673,38,32765
7.81867,2.43058,0.191871,37,32765
7.85526,2.41409,0.18814,37,32765
7.92056,2.40601,0.18506,37,32765
7.96706,2.39076,0.180593,38,32765
8.0135,2.37521,0.178079,38,32765
8.04069,2.354,0.174439,39,32765
8.11557,2.3474,0.172206,38,32765
8.19042,2.34069,0.169107,40,32765
8.23654,2.32493,0.166213,34,32765
8.3983,2.34082,0.165761,14,32765
8.46398,2.32864,0.163797,15,32765
8.51042,2.31074,0.159969,18,32765
8.48907,2.27493,0.156394,16,32765
8.51592,2.25199,0.153967,16,32765
8.50399,2.21901,0.149154,16,32765
8.42419,2.16839,0.145359,15,32765
8.48953,2.15522,0.142967,15,32765
8.43839,2.11284,0.139436,15,32765
8.51332,2.10177,0.13738,15,32765
8.38423,2.04058,0.132702,15,32765
8.45906,2.02909,0.131124,15,32765
8.41718,1.98931,0.127567,15,32765
8.38482,1.95231,0.124202,14,32765
8.41088,1.92847,0.122273,14,32765
8.41735,1.90024,0.119485,15,32765
8.36513,1.859,0.116524,15,32765
8.37127,1.83129,0.11445,15,32765
8.38708,1.80576,0.111959,16,32765
8.31486,1.76107,0.108549,15,32765
8.3991,1.74919,0.108877,16,32765
8.34621,1.70881,0.105914,15,32765
8.36175,1.6827,0.102448,16,32765
8.36737,1.65463,0.101032,16,32765
8.31403,1.61501,0.0980499,16,32765
8.32917,1.58931,0.096697,15,32765
8.32468,1.55941,0.0943936,16,32765
8.2905,1.52443,0.0925108,16,32765
8.27594,1.49294,0.0898687,16,32765
8.25138,1.45989,0.0886415,16,32765
8.21686,1.42523,0.0867674,16,32765
8.24133,1.40096,0.0863156,16,32765
8.22623,1.37032,0.0835163,16,32765
8.23087,1.34242,0.0796866,16,32765
8.19587,1.30827,0.0780416,16,32765
8.21017,1.28199,0.0762077,18,32765
8.3232,1.27076,0.0765487,14,32765
8.36704,1.2484,0.0754632,28,32765
8.36134,1.21859,0.0739953,25,32765
8.42474,1.1993,0.0742963,25,32765
8.40891,1.16838,0.0727145,28,32765
8.38309,1.13592,0.0709574,23,32765
8.38687,1.10767,0.0707412,23,32765
8.43031,1.08388,0.071165,21,32765
8.37438,1.04807,0.0704234,22,32765
8.36793,1.01885,0.0672844,21,32765
8.36135,0.989872,0.0660327,21,32765
8.35469,0.96071,0.0650949,22,32765
8.32803,0.929655,0.0633748,21,32765
8.32115,0.900842,0.0624878,22,32765
8.32412,0.872985,0.0617087,22,32765
8.327,0.845148,0.0604506,22,32765
8.29003,0.812956,0.0584184,23,32765
8.25288,0.781583,0.0568933,23,32765
8.27536,0.755921,0.056005,23,32765
8.25792,0.72657,0.0550497,23,32765
8.27027,0.699808,0.0533451,23,32765
8.26262,0.671282,0.0514077,23,32765
8.2648,0.643942,0.0508329,24,32765
8.25694,0.615612,0.0488633,22,32765
8.24898,0.587383,0.0474019,24,32765
8.23093,0.558727,0.045293,24,32765
8.21281,0.529896,0.043727,24,32765
8.19455,0.501602,0.0423007,24,32765
8.15624,0.472172,0.0412272,24,32765
8.15777,0.445071,0.0393735,24,32765
8.12924,0.41663,0.0374492,24,32765
8.11062,0.388606,0.0354338,25,32765
8.11185,0.362205,0.0338423,24,32765
8.05303,0.333548,0.032417,25,32765
7.99412,0.305225,0.0298672,24,32765
7.80519,0.272604,0.0278685,19,32765
7.74609,0.244962,0.025365,19,32765
7.75685,0.219694,0.0242339,21,32765
7.66758,0.191375,0.0215996,20,32765
7.5982,0.164383,0.0198964,20,32765
7.49872,0.137572,0.0179276,20,32765
7.44914,0.112294,0.015807,19,32765
7.37947,0.0872993,0.012933,20,32765
7.21973,0.0619964,0.011114,19,32765
7.10989,0.0379206,0.00859239,19,32765
6.97998,0.0145734,0.00617617,19,32765
6.89999,-0.0081262,0.00414202,19,32765
6.79993,-0.0300436,0.00177425,19,32765
6.68981,-0.0509769,-0.000389448,19,32765
6.59961,-0.0713978,-0.00331246,19,32765
6.50936,-0.0912441,-0.00674615,19,32765
7.57829,2.4982,0.0947061,33,32765
7.60543,2.47957,0.0956333,32,32765
7.67052,2.47334,0.0963509,31,32765
7.71664,2.4605,0.0968353,32,32765
7.77238,2.45012,0.0978201,32,32765
7.81846,2.43684,0.0977861,31,32765
7.88367,2.42914,0.0974418,32,32765
7.901,2.4067,0.09802,31,32765
7.94713,2.39241,0.0969551,32,32765
8.02215,2.38593,0.0970266,31,32765
8.06846,2.37037,0.0970955,31,32765
8.13398,2.36006,0.0971803,32,32765
8.17067,2.34118,0.0948886,31,32765
8.2361,2.33049,0.0953549,25,32765
8.46527,2.36518,0.0959521,13,32765
8.55005,2.35884,0.0968739,15,32765
8.50954,2.31758,0.0942574,15,32765
8.58467,2.308,0.0933362,14,32765
8.46655,2.24653,0.0905857,14,32765
8.43523,2.20846,0.0890067,14,32765
8.51029,2.19799,0.0885071,13,32765
8.41113,2.14196,0.0853737,13,32765
8.45717,2.12308,0.0852686,14,32765
8.36728,2.07032,0.0819947,13,32765
8.43246,2.05656,0.0808618,14,32765
8.43926,2.02854,0.0794723,14,32765
8.3974,1.98862,0.0773208,13,32765
8.40393,1.96093,0.0750768,13,32765
8.39094,1.92846,0.0728016,14,32765
8.42661,1.90699,0.0718385,13,32765
8.38419,1.86776,0.0697511,14,32765
8.39047,1.83947,0.0670813,14,32765
8.3575,1.80289,0.0658531,14,32765
8.38314,1.7787,0.0643773,14,32765
8.31074,1.73434,0.0618444,15,32765
8.37536,1.71824,0.0592184,14,32765
8.38111,1.69002,0.0581787,14,32765
8.32781,1.65063,0.0560189,14,32765
8.30381,1.61721,0.0540971,14,32765
8.26997,1.58153,0.0523892,14,32765
8.27533,1.55334,0.0499155,14,32765
8.24125,1.51789,0.0479318,14,32765
8.2463,1.49023,0.0458788,14,32765
8.23148,1.45955,0.044978,14,32765
8.23634,1.43198,0.0412473,14,32765
8.21147,1.39966,0.0394672,14,32765
8.22597,1.37385,0.0385834,14,32765
8.23061,1.34595,0.033681,14,32765
8.20544,1.3137,0.0313284,15,32765
8.21969,1.28765,0.0312828,17,32765
8.2437,1.26339,0.0285589,15,32765
8.34676,1.25079,0.0269878,23,32765
8.32126,1.21823,0.0254378,21,32765
8.33527,1.19125,0.0234263,22,32765
8.33931,1.16268,0.0214727,23,32765
8.31346,1.13048,0.0206623,20,32765
8.21808,1.08946,0.0192199,19,32765
8.2316,1.06322,0.0175543,21,32765
8.30469,1.04342,0.0182114,21,32765
8.21877,1.00494,0.0160963,21,32765
8.17246,0.971392,0.0150321,19,32765
8.17566,0.944057,0.0134174,20,32765
8.06948,0.90433,0.0118438,18,32765
8.11221,0.881831,0.0103423,19,32765
7.95597,0.838094,0.00884247,18,32765
0,0,0,0,32765
7.97131,0.786303,0.00618679,19,32765
8.08338,0.770288,0.00581603,19,32765
7.98632,0.734227,0.00477936,16,32765
8.02855,0.711263,0.00363971,19,32765
7.87148,0.67066,0.00236318,18,32765
0,0,0,0,32765
7.73621,0.60713,0.00117005,19,32765
0,0,0,0,32765
7.62037,0.547292,8.39168e-05,15,32765
7.52237,0.515267,-0.00047791,17,32765
7.75354,0.505487,-0.00105465,17,32765
0,0,-0,0,32765
0,0,-0,17,32765
0,0,-0,0,32765
0,0,-0,16,32765
0,0,-0,0,32765
7.40236,0.336315,-0.00156213,17,32765
7.29353,0.30737,-0.00138014,18,32765
7.21456,0.280293,-0.0011597,16,32765
0,0,-0,0,32765
7.21626,0.232474,-0.000247039,18,32765
7.177,0.207357,-0.000565441,17,32765
7.31761,0.187247,-5.97062e-05,18,32765
6.97826,0.155687,0.000489703,17,32765
7.27868,0.138855,0.00132483,16,32765
0,0,0,0,32765
7.30942,0.0918929,0.00276103,16,32765
7.12969,0.0664714,0.00404777,18,32765
6.99987,0.0422425,0.00536658,16,32765
0,0,0,0,32765
7.40999,-0.00404747,0.00816907,16,32765
0,-0,0,0,32765
7.26981,-0.0514663,0.0116557,18,32765
0,-0,0,0,32765
0,-0,0,17,32765
7.57698,2.50386,0.0196513,36,32765
7.62318,2.4914,0.0204365,33,32765
7.65026,2.47279,0.0204832,33,32765
7.70591,2.46304,0.0206121,33,32765
7.7426,2.44664,0.0210695,32,32765
7.79823,2.4364,0.0206819,33,32765
7.84433,2.42285,0.0197232,34,32765
7.87122,2.4034,0.0202251,35,32765
7.95564,2.40073,0.0188759,36,32765
8.0211,2.39135,0.0182615,37,32765
8.04825,2.3701,0.0179068,37,32765
8.10417,2.35705,0.0174032,39,32765
8.16007,2.34374,0.0148693,39,32765
8.19666,2.32487,0.0147148,34,32765
8.36801,2.34358,0.0130616,17,32765
8.49128,2.34821,0.0132858,19,32765
8.43145,2.30178,0.0111244,19,32765
8.36168,2.2534,0.00939237,17,32765
8.35937,2.22336,0.00800928,18,32765
8.32799,2.18556,0.00681749,18,32765
8.33521,2.15787,0.00562425,18,32765
8.33281,2.12705,0.00360661,20,32765
8.30122,2.08887,0.00309642,19,32765
8.26946,2.05095,0.00080873,19,32765
8.17914,1.9995,-0.000857101,19,32765
8.2052,1.97693,-0.00221383,18,32765
8.12425,1.92848,-0.00383265,19,32765
8.13058,1.90163,-0.00600728,19,32765
8.07841,1.86101,-0.0079906,19,32765
8.03584,1.82284,-0.00910623,19,32765
7.92483,1.76958,-0.0105571,18,32765
7.89169,1.7342,-0.0130196,17,32765
7.82906,1.69287,-0.013768,19,32765
7.78585,1.65586,-0.015199,18,32765
7.63474,1.59701,-0.0166714,18,32765
7.64991,1.5731,-0.0194935,18,32765
7.50815,1.51755,-0.0200535,19,32765
7.48371,1.4868,-0.0215518,17,32765
7.36102,1.43696,-0.0227155,18,32765
7.26765,1.39311,-0.0236914,18,32765
7.16425,1.34793,-0.0254834,18,32765
7.09014,1.30894,-0.026709,18,32765
6.93706,1.25657,-0.0278458,18,32765
6.8624,1.21965,-0.0281918,18,32765
6.77778,1.18116,-0.0309001,18,32765
6.68309,1.14181,-0.0317814,18,32765
6.57838,1.10125,-0.0320126,18,32765
6.58207,1.07889,-0.0359351,19,32765
6.47702,1.03941,-0.0371059,19,32765
6.3817,1.00207,-0.0366069,18,32765
6.3158,0.9702,-0.0383566,18,32765
6.17066,0.926865,-0.0388726,19,32765
6.0946,0.894341,-0.039441,18,32765
6.02833,0.863573,-0.0404711,19,32765
5.96192,0.833171,-0.0414043,18,32765
5.89535,0.80354,-0.0414448,19,32765
5.67002,0.753427,-0.0406695,18,32765
5.89068,0.762644,-0.0434437,19,32765
5.58573,0.703447,-0.0408354,18,32765
5.74684,0.704335,-0.0433393,19,32765
5.48108,0.653018,-0.0419681,18,32765
5.56269,0.643841,-0.0436763,19,32765
5.52507,0.620638,-0.0443201,19,32765
5.39787,0.58815,-0.0443229,19,32765
