x, y, z, intensity, ring
0,-0,0,0,32765
0,-0,0,0,32765
0,-0,0,0,32765
0,-0,0,0,32765
0,-0,0,0,32765
0,-0,0,0,32765
0,-0,0,0,32765
0,-0,0,0,32765
0,-0,0,0,32765
0,-0,0,0,32765
0.443029,-0.145023,0.0599464,11,32765
0.565047,-0.186836,0.0762542,12,32765
0,0,0,0,32765
1.36997,0.00935292,0.165831,12,32765
1.22103,0.00428437,0.148185,13,32765
1.2905,0.000392447,0.156907,13,32765
1.26068,-0.00359613,0.153494,12,32765
0,-0,0,0,32765
1.43925,-0.0135954,0.175716,12,32765
1.03223,-0.0131816,0.126182,13,32765
1.26044,-0.0202539,0.154224,12,32765
0,-0,0,0,32765
1.38924,-0.0314251,0.170389,12,32765
0,-0,0,0,32765
0,-0,0,0,32765
1.09122,-0.0354769,0.134105,13,32765
1.18035,-0.0423071,0.145208,14,32765
1.17028,-0.0458956,0.143994,13,32765
1.16019,-0.0493536,0.142892,13,32765
1.18976,-0.0544986,0.146669,13,32765
1.13999,-0.0559539,0.140675,13,32765
1.20917,-0.0632698,0.149329,13,32765
1.12968,-0.0628379,0.139585,13,32765
1.16909,-0.0688845,0.144499,13,32765
1.53536,-0.0955277,0.189856,12,32765
0,-0,0,0,32765
0,-0,0,0,32765
1.32644,-0.0957118,0.164272,12,32765
1.30633,-0.0986634,0.161785,12,32765
1.30598,-0.103071,0.161869,12,32765
1.32542,-0.109024,0.164247,12,32765
1.30526,-0.111686,0.16191,12,32765
1.26534,-0.112429,0.157109,13,32765
1.23533,-0.113801,0.153334,12,32765
1.24482,-0.118834,0.154612,13,32765
1.24442,-0.123004,0.154555,13,32765
0.513392,-0.0524986,0.0638149,14,32765
1.21394,-0.128245,0.150974,13,32765
1.30232,-0.141917,0.161895,13,32765
1.27225,-0.142875,0.158306,12,32765
1.32108,-0.152724,0.164424,12,32765
1.30088,-0.154726,0.161779,11,32765
1.32004,-0.161456,0.164408,11,32765
1.38842,-0.174532,0.173003,12,32765
1.34846,-0.174058,0.168079,12,32765
1.279,-0.169426,0.159575,12,32765
1.28827,-0.174978,0.160757,12,32765
1.28769,-0.179242,0.160677,12,32765
1.21832,-0.173663,0.152091,12,32765
1.28647,-0.187749,0.16073,12,32765
1.32509,-0.19792,0.165696,12,32765
0.902568,-0.137907,0.112928,13,32765
0.853077,-0.133276,0.106756,14,32765
0.823233,-0.131426,0.103029,14,32765
0.813004,-0.132544,0.101763,14,32765
0.851711,-0.141738,0.106763,14,32765
0.802313,-0.13626,0.100636,14,32765
0.840972,-0.145714,0.105518,15,32765
0.84047,-0.14854,0.105572,14,32765
0.820441,-0.147809,0.1031,15,32765
0.859001,-0.157658,0.107986,14,32765
0.829209,-0.154982,0.104371,13,32765
0.926188,-0.176242,0.116685,13,32765
0.984056,-0.190612,0.124101,12,32765
0,-0,0,0,32765
0,-0,0,0,32765
1.37103,-0.279787,0.173462,12,32765
1.2729,-0.264221,0.161275,12,32765
1.29142,-0.272538,0.163906,12,32765
1.40697,-0.301703,0.178643,12,32765
1.28961,-0.28092,0.163992,12,32765
1.38555,-0.30661,0.176463,12,32765
1.29736,-0.291646,0.165532,12,32765
1.248,-0.284927,0.159449,12,32765
1.37267,-0.318224,0.175781,11,32765
0,-0,0,0,32765
0,-0,0,0,32765
0,-0,0,11,32765
0,-0,0,0,32765
0,-0,0,0,32765
0,-0,0,0,32765
0,-0,0,0,32765
0,-0,0,0,32765
0,-0,0,0,32765
0,-0,0,0,32765
0,-0,0,0,32765
0,-0,0,0,32765
0,-0,0,0,32765
0,-0,0,0,32765
0,-0,0,0,32765
0,-0,0,0,32765
0,-0,0,0,32765
0,-0,0,0,32765
0,-0,0,0,32765
0,-0,0,0,32765
0,-0,0,0,32765
0,-0,0,0,32765
0,-0,0,0,32765
0,-0,0,0,32765
0,-0,0,0,32765
0,-0,0,0,32765
0,-0,0,0,32765
0,-0,0,0,32765
1.24228,0.0128355,0.138077,14,32765
0,0,0,0,32765
0,0,0,0,32765
1.27204,0.000496201,0.142501,12,32765
1.30183,-0.0036086,0.146055,13,32765
1.30179,-0.00788527,0.146201,12,32765
1.17255,-0.0109949,0.131941,14,32765
1.31159,-0.0166656,0.147787,12,32765
0,-0,0,0,32765
0,-0,0,0,32765
0,-0,0,0,32765
1.26153,-0.0325925,0.142763,13,32765
1.16208,-0.0338672,0.131577,13,32765
1.1123,-0.0361293,0.12605,14,32765
1.18167,-0.0423261,0.13406,14,32765
1.1418,-0.0447581,0.12956,13,32765
1.10192,-0.0468615,0.125165,13,32765
1.15138,-0.0527332,0.130913,12,32765
1.13134,-0.0555282,0.128772,13,32765
1.16091,-0.0607501,0.132248,13,32765
1.26983,-0.0706469,0.144737,13,32765
1.22991,-0.0724879,0.140231,13,32765
0,-0,0,0,32765
0,-0,0,0,32765
1.34807,-0.0927915,0.153968,12,32765
1.37748,-0.0994481,0.157381,12,32765
1.38705,-0.104823,0.158476,12,32765
1.33715,-0.105599,0.152902,12,32765
1.317,-0.108406,0.150563,12,32765
1.32652,-0.113588,0.151811,12,32765
1.34592,-0.119681,0.154189,12,32765
1.28617,-0.118581,0.14729,12,32765
1.31544,-0.125681,0.150743,13,32765
1.27547,-0.126183,0.146151,12,32765
0.563383,-0.0576626,0.0646117,14,32765
1.27458,-0.134775,0.146255,12,32765
1.37291,-0.149752,0.15746,12,32765
1.34278,-0.150943,0.154157,12,32765
1.31267,-0.151905,0.150739,12,32765
1.28259,-0.152707,0.147151,12,32765
1.38067,-0.169049,0.158656,12,32765
1.33081,-0.167468,0.152996,12,32765
1.37951,-0.178259,0.158646,13,32765
1.28041,-0.169801,0.147399,12,32765
1.31922,-0.179383,0.151888,12,32765
0.993894,-0.138504,0.114421,13,32765
0.816386,-0.116504,0.0940286,14,32765
0.865145,-0.126407,0.0997292,15,32765
0.845059,-0.12637,0.0974996,14,32765
0.844629,-0.129209,0.0975083,15,32765
0.873642,-0.136655,0.100875,14,32765
0.853564,-0.136435,0.0985601,15,32765
0.843307,-0.137655,0.0973871,15,32765
0.852638,-0.14207,0.0986155,15,32765
0.842364,-0.143243,0.0974912,15,32765
0.832094,-0.14436,0.0963311,15,32765
0.851164,-0.150623,0.098652,15,32765
0.850661,-0.153452,0.0986347,15,32765
0.840384,-0.154443,0.0974779,15,32765
0.869166,-0.162665,0.100948,15,32765
0.858865,-0.163648,0.0998467,14,32765
0.829056,-0.160803,0.0964816,15,32765
0.867508,-0.171247,0.101017,15,32765
0.857186,-0.172157,0.0999744,15,32765
0.856595,-0.175044,0.10002,14,32765
0.86572,-0.179947,0.101235,14,32765
0.894265,-0.188984,0.104765,14,32765
0.864508,-0.185638,0.101317,14,32765
0.893009,-0.194799,0.104824,13,32765
1.11544,-0.247183,0.131144,12,32765
1.20182,-0.270548,0.14157,12,32765
1.49143,-0.340989,0.175933,12,32765
1.45154,-0.336987,0.171643,12,32765
1.38273,-0.325768,0.163772,12,32765
1.36233,-0.325638,0.161607,12,32765
1.34193,-0.325359,0.159595,12,32765
1.36978,-0.33685,0.163178,12,32765
1.33975,-0.334071,0.159893,12,32765
1.35789,-0.343277,0.162492,12,32765
0,-0,0,0,32765
0,-0,0,0,32765
0,-0,0,0,32765
0,-0,0,0,32765
0,-0,0,0,32765
0,-0,0,0,32765
0,-0,0,0,32765
0,-0,0,0,32765
0,-0,0,0,32765
0,-0,0,0,32765
0,-0,0,0,32765
0,-0,0,0,32765
0,-0,0,0,32765
0,-0,0,0,32765
0,-0,0,0,32765
0,-0,0,0,32765
0,-0,0,0,32765
0,-0,0,0,32765
0,-0,0,0,32765
0,-0,0,0,32765
0,-0,0,0,32765
0,-0,0,0,32765
1.30144,0.0128251,0.148997,12,32765
0,0,0,0,32765
0,0,0,0,32765
1.22221,-0.00029281,0.138243,13,32765
1.19243,-0.0041447,0.134485,12,32765
1.38129,-0.00927056,0.155098,11,32765
1.1428,-0.0114396,0.127991,13,32765
1.28191,-0.0170464,0.143234,12,32765
0,-0,0,0,32765
0,-0,0,0,32765
1.15261,-0.0266729,0.128007,12,32765
1.1923,-0.0315123,0.132034,12,32765
1.13261,-0.0336886,0.125153,12,32765
1.12259,-0.0371289,0.123775,13,32765
1.11254,-0.0405241,0.122507,13,32765
1.11242,-0.0442407,0.12232,13,32765
1.152,-0.0496608,0.126614,13,32765
1.19158,-0.0552636,0.130677,12,32765
1.10206,-0.0547047,0.120743,13,32765
1.15154,-0.0608765,0.125867,13,32765
1.2506,-0.0701784,0.136655,13,32765
1.34962,-0.0801524,0.147315,12,32765
0,-0,0,0,32765
0,-0,0,0,32765
1.32899,-0.0920439,0.14459,12,32765
1.3485,-0.0979112,0.146835,11,32765
1.42748,-0.108421,0.15537,12,32765
1.3974,-0.110786,0.151945,12,32765
1.37722,-0.113746,0.149793,12,32765
1.31741,-0.113208,0.14326,11,32765
1.27744,-0.114025,0.138701,12,32765
1.30677,-0.121005,0.141824,12,32765
1.31627,-0.126299,0.142796,12,32765
0.435316,-0.0432037,0.0472571,12,32765
0.998922,-0.102473,0.108419,12,32765
1.43361,-0.151828,0.155621,12,32765
1.31451,-0.143597,0.142622,12,32765
1.29428,-0.145737,0.140385,12,32765
1.21476,-0.140843,0.13198,12,32765
1.28342,-0.153081,0.139289,12,32765
1.38157,-0.169397,0.150197,12,32765
1.32182,-0.166458,0.143809,12,32765
1.23252,-0.159357,0.13418,13,32765
0.887031,-0.117671,0.0965912,13,32765
0.788108,-0.107236,0.0859465,14,32765
0.78775,-0.109853,0.0859199,14,32765
0.777526,-0.111079,0.0849407,14,32765
0.806665,-0.118006,0.0881245,15,32765
0.825916,-0.123668,0.0903848,15,32765
0.805839,-0.123426,0.0882629,15,32765
0.834887,-0.130734,0.0914994,14,32765
0.765718,-0.122557,0.0839976,14,32765
0.784922,-0.128296,0.0862386,14,32765
0.833514,-0.139078,0.0917169,14,32765
0.793842,-0.135164,0.0874377,14,32765
0.793397,-0.137773,0.087403,14,32765
0.812509,-0.143904,0.0895632,15,32765
0.782669,-0.141289,0.0864144,14,32765
0.840851,-0.154685,0.0929614,14,32765
0.811017,-0.15198,0.0897442,14,32765
0.810499,-0.154664,0.0898372,15,32765
0.800233,-0.155435,0.0886945,15,32765
0.789952,-0.156154,0.0877049,15,32765
0.789431,-0.158755,0.0877281,15,32765
0.818122,-0.16736,0.090927,14,32765
0.807821,-0.168041,0.0899345,14,32765
0.826701,-0.174863,0.0921332,15,32765
0.816387,-0.175519,0.0911349,14,32765
0.825516,-0.180339,0.0922053,15,32765
0.815197,-0.180935,0.0911955,15,32765
0.824291,-0.185834,0.0922528,14,32765
0.804278,-0.184147,0.0901454,14,32765
0.81335,-0.189076,0.0911683,13,32765
0.967518,-0.228261,0.108657,12,32765
1.36315,-0.32629,0.153192,11,32765
1.37174,-0.333066,0.154225,12,32765
1.4189,-0.349392,0.159864,11,32765
1.45632,-0.363654,0.164251,11,32765
1.46476,-0.370837,0.165365,12,32765
1.52134,-0.390409,0.171769,11,32765
0,-0,0,0,32765
0,-0,0,0,32765
0,-0,0,0,32765
0,-0,0,0,32765
0,-0,0,0,32765
0,-0,0,0,32765
0,-0,0,11,32765
0,-0,0,12,32765
0,-0,0,12,32765
0,-0,0,12,32765
0,-0,0,12,32765
0,-0,0,0,32765
0,-0,0,0,32765
0,-0,0,0,32765
0,-0,0,0,32765
0,-0,0,0,32765
0,-0,0,0,32765
0,-0,0,0,32765
0,-0,0,0,32765
0,-0,0,11,32765
0,-0,0,12,32765
1.08399,0.0107882,0.113754,14,32765
0.994575,0.00651347,0.103818,13,32765
0.994637,0.00312092,0.103377,13,32765
0.964839,-0.000155214,0.099924,14,32765
0.964866,-0.0032836,0.0996114,14,32765
0.88532,-0.00588298,0.0909599,13,32765
0.964901,-0.00960057,0.0988598,14,32765
0.915154,-0.0121197,0.0935219,14,32765
0.925077,-0.0152783,0.0943344,13,32765
0.915109,-0.0181226,0.0929905,14,32765
0.994624,-0.0229812,0.100971,14,32765
0.974684,-0.0257318,0.0986345,14,32765
1.02434,-0.0304441,0.103414,13,32765
1.07398,-0.0355027,0.108166,13,32765
1.0341,-0.0376553,0.104,14,32765
1.04393,-0.0415116,0.104824,14,32765
1.01397,-0.0437117,0.101764,14,32765
1.02379,-0.0474889,0.102501,13,32765
1.02364,-0.0508257,0.102377,13,32765
1.08312,-0.0572803,0.108044,13,32765
1.08293,-0.0607971,0.107991,13,32765
0,-0,0,0,32765
0,-0,0,0,32765
1.08233,-0.071421,0.107512,12,32765
1.28065,-0.0887598,0.127091,11,32765
1.42922,-0.103852,0.141961,11,32765
1.54795,-0.117667,0.15368,11,32765
1.53765,-0.12201,0.152488,11,32765
1.49757,-0.123798,0.148557,11,32765
1.45749,-0.125364,0.144547,12,32765
1.39763,-0.124874,0.138374,12,32765
1.32785,-0.123081,0.1314,12,32765
1.31754,-0.126552,0.130316,12,32765
0.574379,-0.0570659,0.0568513,14,32765
1.31668,-0.135217,0.13029,12,32765
1.3954,-0.147946,0.138098,12,32765
1.4246,-0.1558,0.140906,12,32765
1.42408,-0.160539,0.140805,12,32765
1.39386,-0.161799,0.138065,11,32765
0.99807,-0.119189,0.0987401,12,32765
0.829736,-0.101859,0.082237,14,32765
0.819521,-0.10333,0.0812881,15,32765
0.809303,-0.104769,0.0803285,15,32765
0.808953,-0.10745,0.0803118,15,32765
0.81844,-0.111506,0.0813824,15,32765
0.788498,-0.1101,0.0784143,15,32765
0.827521,-0.118376,0.082436,15,32765
0.797583,-0.116832,0.0794507,15,32765
0.816856,-0.122475,0.0815222,15,32765
0.855784,-0.131252,0.0854831,15,32765
0.835675,-0.131035,0.0835255,15,32765
0.845049,-0.13544,0.0845451,15,32765
0.834766,-0.136632,0.0836549,15,32765
0.814668,-0.136123,0.0817731,15,32765
0.804398,-0.137154,0.0808254,15,32765
0.803946,-0.139802,0.0807904,15,32765
0.813269,-0.144243,0.0817778,14,32765
0.802985,-0.145164,0.0808834,14,32765
0.822063,-0.151447,0.0829207,15,32765
0.811772,-0.152342,0.0819594,15,32765
0.840576,-0.160637,0.0850184,15,32765
0.810744,-0.157708,0.0819916,15,32765
0.819969,-0.162326,0.0830752,15,32765
0.848691,-0.170925,0.0860672,14,32765
0.828625,-0.169761,0.084038,13,32765
0.857273,-0.178595,0.0870996,13,32765
0.905339,-0.191784,0.0920833,12,32765
1.03115,-0.222026,0.105063,11,32765
0,-0,0,0,32765
1.08792,-0.241836,0.111092,11,32765
1.02887,-0.232312,0.105105,12,32765
0.843805,-0.193495,0.0863322,12,32765
0.881927,-0.205335,0.0902332,12,32765
0.842501,-0.199075,0.0863744,13,32765
0.803142,-0.192545,0.0823948,14,32765
0.821852,-0.199863,0.0843486,14,32765
0.830848,-0.204911,0.0854628,14,32765
0.830171,-0.207627,0.0854846,14,32765
0.839132,-0.212782,0.0864939,15,32765
0.848081,-0.217983,0.0874193,14,32765
0.837735,-0.218242,0.0864311,14,32765
0.875502,-0.231123,0.0904362,13,32765
1.01894,-0.272517,0.105318,12,32765
0,-0,0,0,32765
0,-0,0,0,32765
0,-0,0,0,32765
0,-0,0,11,32765
0,-0,0,11,32765
0,-0,0,11,32765
0,-0,0,0,32765
0,-0,0,11,32765
0,-0,0,0,32765
0,-0,0,0,32765
0,-0,0,0,32765
0,-0,0,0,32765
0,-0,0,0,32765
0,-0,0,0,32765
0,-0,0,0,32765
0,-0,0,0,32765
0,-0,0,0,32765
0,-0,0,0,32765
1.01583,0.0120004,0.0913944,12,32765
0.995915,0.00840999,0.0899021,13,32765
1.05567,0.00542165,0.095508,12,32765
0,0,0,0,32765
0,-0,0,0,32765
0,-0,0,0,32765
0,-0,0,11,32765
0.906168,-0.0102916,0.0827859,15,32765
0.89616,-0.013124,0.0820024,14,32765
0.846319,-0.0151869,0.0775485,14,32765
0.88607,-0.0188754,0.0813879,13,32765
0.886004,-0.0218333,0.0813693,14,32765
0.885913,-0.0247556,0.0815137,14,32765
0.836056,-0.0261362,0.0769842,14,32765
0.915584,-0.0315928,0.0843125,13,32765
1.03486,-0.0391196,0.0955457,12,32765
1.20387,-0.0494861,0.111159,12,32765
1.15395,-0.0513086,0.106579,12,32765
1.24328,-0.0594842,0.114943,12,32765
0.944736,-0.0483791,0.0873722,13,32765
0.90479,-0.0493373,0.0837909,13,32765
0,-0,0,0,32765
0,-0,0,0,32765
1.01357,-0.0652007,0.0939431,13,32765
0.973618,-0.0657925,0.0902144,14,32765
1.00318,-0.0711778,0.0931219,14,32765
0.992991,-0.0738028,0.0923188,13,32765
1.01259,-0.0786405,0.0941725,12,32765
1.36961,-0.110982,0.12749,11,32765
0,-0,0,0,32765
1.36885,-0.120021,0.12746,11,32765
1.3982,-0.127298,0.130158,12,32765
1.36801,-0.129086,0.127602,12,32765
0.505412,-0.0493794,0.0471242,12,32765
1.13927,-0.115099,0.10639,12,32765
1.28743,-0.134423,0.120268,12,32765
1.29688,-0.139812,0.12111,12,32765
1.11827,-0.124376,0.104388,12,32765
0.781503,-0.0895757,0.0730001,13,32765
0.761419,-0.0898369,0.0712057,15,32765
0.751235,-0.0911478,0.0702693,15,32765
0.780581,-0.0973179,0.0729577,15,32765
0.790137,-0.101134,0.0738641,15,32765
0.760181,-0.0998584,0.0710894,15,32765
0.809183,-0.109026,0.0757344,15,32765
0.779221,-0.107636,0.0730053,15,32765
0.788718,-0.111621,0.0739286,15,32765
0.817898,-0.118545,0.0767494,15,32765
0.778102,-0.115447,0.0729981,15,32765
0.787549,-0.119529,0.0740256,14,32765
0.787138,-0.122189,0.0740503,15,32765
0.835887,-0.13263,0.0787512,15,32765
0.766644,-0.124261,0.0722234,15,32765
0.805521,-0.133316,0.0759128,15,32765
0.76581,-0.129306,0.0722186,15,32765
0.784991,-0.135277,0.074096,15,32765
0.794332,-0.139657,0.0750506,14,32765
0.774256,-0.138784,0.0732547,15,32765
0.803172,-0.146718,0.0760826,15,32765
0.763534,-0.142025,0.0724181,14,32765
0.763061,-0.144542,0.0724278,14,32765
0.860338,-0.165917,0.0817919,12,32765
1.01611,-0.199419,0.0966944,12,32765
1.0252,-0.204766,0.0976971,11,32765
1.01475,-0.206145,0.0968553,11,32765
0.945792,-0.195432,0.0904604,11,32765
1.03283,-0.217023,0.09884,12,32765
0.808146,-0.172606,0.0775098,13,32765
0.788105,-0.171045,0.0757265,13,32765
0.787535,-0.173611,0.0758133,14,32765
0.76752,-0.171868,0.0739858,14,32765
0.786357,-0.178822,0.0759334,14,32765
0.776055,-0.179132,0.0751648,15,32765
0.785149,-0.183952,0.0761753,14,32765
0.774848,-0.184193,0.0753867,14,32765
0.764553,-0.184414,0.0744999,15,32765
0.783271,-0.191661,0.076502,15,32765
0.772971,-0.191811,0.0756616,14,32765
0.801288,-0.20163,0.0786269,14,32765
0.810257,-0.206685,0.0797831,15,32765
0.799919,-0.206848,0.079018,14,32765
0.808853,-0.212001,0.0800748,15,32765
0.779271,-0.206978,0.0774436,15,32765
0.797804,-0.214681,0.0795043,13,32765
0.749083,-0.204139,0.0748461,12,32765
0,-0,0,0,32765
0,-0,0,0,32765
0,-0,0,12,32765
0,-0,0,12,32765
0,-0,0,12,32765
0,-0,0,11,32765
0,-0,0,0,32765
1.42003,-0.42687,0.146255,11,32765
1.46621,-0.445866,0.151768,11,32765
0,-0,0,0,32765
0,-0,0,0,32765
0,-0,0,11,32765
0,-0,0,11,32765
0,-0,0,0,32765
0,-0,0,0,32765
0,-0,0,0,32765
1.07644,0.0128073,0.0866196,13,32765
1.05652,0.00900437,0.0853335,13,32765
1.04656,0.00545027,0.0847383,13,32765
1.08642,0.0020281,0.0882002,13,32765
1.0266,-0.00148888,0.0836379,13,32765
0.966772,-0.0046451,0.0789323,15,32765
0.936846,-0.0075846,0.0765678,16,32765
0.906909,-0.0102623,0.0742335,15,32765
0.90686,-0.0132484,0.0743612,14,32765
0.936697,-0.0167812,0.0769254,14,32765
0.886798,-0.0188703,0.0730238,14,32765
0.866805,-0.0213455,0.0713645,14,32765
0.91653,-0.0256012,0.0756153,14,32765
0.886551,-0.0277105,0.0732026,15,32765
0.876497,-0.0302453,0.0723767,14,32765
0.896294,-0.0338881,0.0742259,14,32765
0.926049,-0.0380789,0.0766962,14,32765
1.02548,-0.0456166,0.0849549,13,32765
1.08504,-0.0519416,0.0899866,13,32765
0.995279,-0.0509999,0.0825733,13,32765
0.995096,-0.0543002,0.0826806,15,32765
0,-0,0,0,32765
0,-0,0,11,32765
0.944789,-0.0608304,0.0785687,14,32765
0.924705,-0.062546,0.0768722,14,32765
0.934418,-0.0663646,0.0778347,14,32765
0.973933,-0.0724605,0.0812635,14,32765
0.933944,-0.0726094,0.0779534,14,32765
1.02309,-0.0829934,0.0854767,14,32765
1.03274,-0.0872217,0.086315,13,32765
1.18135,-0.103702,0.0987293,12,32765
0,-0,0,0,32765
1.08142,-0.102167,0.0905449,11,32765
0.813288,-0.0795576,0.0680633,13,32765
0.882417,-0.0892617,0.073974,13,32765
0.802822,-0.0839315,0.0673254,15,32765
0.792631,-0.0855623,0.0664434,15,32765
0.822055,-0.0915509,0.0688754,15,32765
0.782139,-0.0897685,0.0655773,15,32765
0.791728,-0.0935394,0.0664634,15,32765
0.791416,-0.0961545,0.0664511,15,32765
0.781212,-0.0975317,0.0655351,15,32765
0.810544,-0.103891,0.0680063,15,32765
0.780554,-0.10268,0.0655135,15,32765
0.809835,-0.109269,0.0680303,15,32765
0.789718,-0.109243,0.0664133,15,32765
0.78935,-0.111873,0.0664126,15,32765
0.788967,-0.114519,0.0664595,15,32765
0.808296,-0.120104,0.0680665,15,32765
0.79803,-0.121299,0.0673414,15,32765
0.80746,-0.125531,0.0681982,15,32765
0.787344,-0.125116,0.0666035,15,32765
0.796762,-0.129339,0.0673921,15,32765
0.81599,-0.135255,0.0690417,15,32765
0.835195,-0.141239,0.0707152,13,32765
0.86417,-0.149152,0.0732394,12,32765
0,-0,0,0,32765
0,-0,0,0,32765
0,-0,0,0,32765
0.88169,-0.164262,0.0751061,12,32765
0.773446,-0.146741,0.0659364,14,32765
0.792519,-0.153081,0.0676782,15,32765
0.782231,-0.153764,0.0668668,16,32765
0.811021,-0.162249,0.0694322,16,32765
0.800712,-0.162926,0.0686658,16,32765
0.809911,-0.167626,0.0696097,15,32765
0.819097,-0.172393,0.0704378,16,32765
0.799022,-0.170937,0.0688758,16,32765
0.808183,-0.175691,0.0698025,16,32765
0.797868,-0.176178,0.0690496,15,32765
0.806998,-0.181007,0.0699386,15,32765
0.825818,-0.188107,0.0717023,15,32765
0.80577,-0.186301,0.0701907,15,32765
0.814847,-0.191229,0.0711102,15,32765
0.8239,-0.196181,0.0721184,15,32765
0.803872,-0.194223,0.0704802,15,32765
0.841926,-0.20636,0.0740017,15,32765
0.8219,-0.204297,0.0724114,15,32765
0.80189,-0.202124,0.0708359,15,32765
0.801212,-0.204725,0.0710427,15,32765
0.810163,-0.209854,0.072086,15,32765
0.809458,-0.212522,0.072191,15,32765
0.818365,-0.217733,0.0732908,14,32765
0.78878,-0.212617,0.0708511,15,32765
0.816916,-0.223008,0.0735865,15,32765
0.835366,-0.23097,0.0756011,15,32765
0.834603,-0.233675,0.075718,15,32765
0.805063,-0.228219,0.0734176,15,32765
0.775561,-0.222629,0.071,15,32765
0.84178,-0.244567,0.0774159,15,32765
0.821851,-0.241671,0.0758697,14,32765
0.95469,-0.284141,0.0884959,12,32765
1.15403,-0.347516,0.107421,12,32765
1.27674,-0.388928,0.119489,11,32765
1.33257,-0.41053,0.125384,11,32765
0,-0,0,0,32765
0,-0,0,11,32765
0,-0,0,12,32765
0,-0,0,11,32765
0,-0,0,0,32765
0,-0,0,11,32765
1.04627,0.0118641,0.0876198,12,32765
1.01645,0.00809439,0.084614,14,32765
1.01651,0.00470716,0.0841217,14,32765
1.03648,0.00140699,0.0854508,15,32765
1.03652,-0.00200765,0.0849315,14,32765
0.926901,-0.00489671,0.0757066,15,32765
0.956807,-0.00822733,0.0777965,16,32765
0.857129,-0.0102126,0.0694708,15,32765
0.867081,-0.0131472,0.0699866,14,32765
0.906914,-0.0167506,0.0729776,14,32765
0.857046,-0.0186672,0.0687331,14,32765
0.886885,-0.0222751,0.070985,14,32765
0.866894,-0.0246476,0.069185,14,32765
0.836935,-0.0265333,0.0666004,14,32765
0.856784,-0.0299707,0.0679879,14,32765
0.866657,-0.0331406,0.0686088,14,32765
0.946237,-0.0393224,0.0747615,14,32765
0.926199,-0.0415678,0.072989,14,32765
0.995767,-0.0479912,0.0783869,14,32765
0.965746,-0.0497925,0.0758661,14,32765
1.095,-0.0600538,0.085899,12,32765
0,-0,0,0,32765
0.955288,-0.0586932,0.0747024,12,32765
0.875507,-0.056638,0.0684085,14,32765
0.895219,-0.0608686,0.0698429,14,32765
0.865191,-0.0616656,0.0673894,15,32765
0.924634,-0.068987,0.0720637,14,32765
0.944281,-0.0736151,0.0735748,14,32765
0.904294,-0.0734847,0.0703668,14,32765
0.913985,-0.0773334,0.0710694,14,32765
0.953459,-0.0838401,0.0740782,14,32765
1.09218,-0.0996999,0.0848117,11,32765
0.516144,-0.0488639,0.0400939,13,32765
0.754127,-0.0739097,0.0585594,15,32765
0.743959,-0.0754277,0.0577577,15,32765
0.753622,-0.0789322,0.0585177,15,32765
0.73353,-0.0792892,0.0569871,15,32765
0.733257,-0.0817465,0.0570239,15,32765
0.732983,-0.0841607,0.0570301,15,32765
0.732702,-0.0865946,0.057006,15,32765
0.762099,-0.0926372,0.0593579,15,32765
0.732108,-0.0914409,0.0570711,15,32765
0.751576,-0.0964375,0.0585995,15,32765
0.761139,-0.100208,0.0593762,15,32765
0.750918,-0.101415,0.0586276,15,32765
0.760455,-0.10526,0.0594052,15,32765
0.740366,-0.104963,0.0578057,15,32765
0.740008,-0.107436,0.0578419,15,32765
0.759364,-0.112804,0.0595155,15,32765
0.739261,-0.112354,0.0580484,14,32765
0.758586,-0.1179,0.0595522,15,32765
0.797559,-0.12674,0.0627437,13,32765
0.905362,-0.147066,0.0713582,11,32765
0,-0,0,0,32765
0,-0,0,0,32765
0,-0,0,0,32765
0.756028,-0.133156,0.0599292,12,32765
0.706506,-0.126873,0.0561512,14,32765
0.725701,-0.132775,0.0576974,15,32765
0.764453,-0.142509,0.060855,16,32765
0.783555,-0.14876,0.0625486,16,32765
0.76348,-0.147573,0.0609956,16,32765
0.743414,-0.146285,0.0594634,16,32765
0.7527,-0.150681,0.0603133,15,32765
0.74242,-0.151218,0.059542,16,32765
0.761435,-0.157727,0.061145,16,32765
0.741386,-0.156174,0.0596401,16,32765
0.750598,-0.160774,0.0604488,16,32765
0.759796,-0.165388,0.0612895,16,32765
0.788435,-0.174399,0.0636843,16,32765
0.748955,-0.168224,0.0605522,16,32765
0.758114,-0.172884,0.061436,16,32765
0.747833,-0.17313,0.0605935,16,32765
0.766665,-0.180125,0.0622834,15,32765
0.785463,-0.187276,0.0638371,15,32765
0.775159,-0.187491,0.0630586,15,32765
0.764847,-0.187677,0.062336,14,32765
0.754546,-0.187811,0.0615433,15,32765
0.782916,-0.197611,0.0639665,14,32765
0.801585,-0.205117,0.0654841,15,32765
0.78161,-0.202735,0.0639064,15,32765
0.780951,-0.205251,0.0639349,15,32765
0.770644,-0.205237,0.0631288,15,32765
0.760356,-0.205096,0.0624056,15,32765
0.769303,-0.210202,0.0631543,15,32765
0.78783,-0.218018,0.0647426,15,32765
0.78712,-0.220579,0.0647086,14,32765
0.75763,-0.214994,0.0622455,15,32765
0.756931,-0.217421,0.0623204,15,32765
0.784946,-0.228215,0.0646332,15,32765
0.765094,-0.225065,0.0630605,14,32765
0.764383,-0.227488,0.0629869,15,32765
0.801842,-0.241428,0.0660496,15,32765
0.791543,-0.241059,0.0651997,15,32765
0.781243,-0.240644,0.0644139,15,32765
0.770975,-0.240142,0.0634785,14,32765
0.770228,-0.242546,0.0634065,14,32765
0.778975,-0.247988,0.0640277,15,32765
0.749746,-0.241232,0.0615472,14,32765
0.76795,-0.249781,0.0629475,14,32765
0.738782,-0.24279,0.0604447,13,32765
0.927387,0.0105894,0.0688605,15,32765
0.927451,0.00745273,0.0684021,15,32765
0.887611,0.00416847,0.0650302,15,32765
0.877667,0.00124325,0.0640282,14,32765
0.887672,-0.00167285,0.064311,14,32765
0.877704,-0.00459668,0.0633595,14,32765
0.867733,-0.00742752,0.0623199,14,32765
0.887668,-0.0105476,0.0635228,14,32765
0.867703,-0.0131341,0.0618031,15,32765
0.877643,-0.016193,0.062294,15,32765
0.867629,-0.0188867,0.0613484,15,32765
0.877543,-0.0220351,0.0619094,16,32765
0.87748,-0.0249491,0.0617021,15,32765
0.867437,-0.0275065,0.0607947,15,32765
0.897265,-0.031399,0.0626835,15,32765
0.89717,-0.0343255,0.0625079,15,32765
0.907029,-0.0377173,0.0630527,15,32765
0.896946,-0.040285,0.0621676,15,32765
0.906778,-0.0437387,0.062771,15,32765
0.896674,-0.0462732,0.0619242,15,32765
0,-0,0,0,32765
0,-0,0,0,32765
0.906156,-0.0557348,0.0622503,15,32765
0.876108,-0.0567408,0.0601295,15,32765
0.885878,-0.0603039,0.0606937,15,32765
0.905588,-0.0646228,0.0619264,15,32765
0.895417,-0.0668902,0.0612719,15,32765
0.865352,-0.0675479,0.059194,15,32765
0.914852,-0.0744397,0.0624847,15,32765
0.795308,-0.0673816,0.0542731,14,32765
0.775208,-0.0682587,0.0528503,15,32765
0.735237,-0.0672088,0.0500933,15,32765
0.635682,-0.0602651,0.0433253,13,32765
0.734775,-0.0721156,0.0500566,14,32765
0.744457,-0.0755871,0.0507019,15,32765
0.754125,-0.0791004,0.0513679,15,32765
0.753857,-0.0816069,0.0513776,15,32765
0.773407,-0.0863515,0.0527686,15,32765
0.743382,-0.0854835,0.0507454,15,32765
0.72328,-0.0856113,0.0493684,15,32765
0.732892,-0.0892238,0.0500841,15,32765
0.762291,-0.0953584,0.0521416,15,32765
0.752071,-0.0966518,0.0514504,15,32765
0.751749,-0.0991274,0.0514561,15,32765
0.761298,-0.10298,0.0521562,14,32765
0.721423,-0.100017,0.0494527,12,32765
0,-0,0,0,32765
0,-0,0,0,32765
0,-0,0,0,32765
0,-0,0,0,32765
0.768936,-0.119705,0.0529895,12,32765
0.768517,-0.122327,0.0530839,14,32765
0.768085,-0.124974,0.0531636,15,32765
0.787339,-0.130816,0.0546293,15,32765
0.786894,-0.133462,0.0546477,15,32765
0.756953,-0.130974,0.0526155,15,32765
0.766337,-0.135199,0.0533725,15,32765
0.756052,-0.136001,0.0528099,15,32765
0.74579,-0.136683,0.0521102,16,32765
0.715904,-0.133687,0.0500898,16,32765
0.774252,-0.147246,0.0543386,16,32765
0.763963,-0.147921,0.0536616,16,32765
0.763459,-0.150489,0.0536944,16,32765
0.782518,-0.156921,0.0551416,16,32765
0.781985,-0.159554,0.0551544,16,32765
0.791215,-0.164182,0.0558815,16,32765
0.771131,-0.162725,0.0545674,16,32765
0.760818,-0.163249,0.0539011,16,32765
0.760266,-0.165782,0.053957,16,32765
0.769441,-0.170499,0.0546856,16,32765
0.798078,-0.179576,0.0567761,16,32765
0.778029,-0.177742,0.0554915,15,32765
0.767724,-0.178053,0.0547418,16,32765
0.776841,-0.182843,0.0555525,16,32765
0.776235,-0.185408,0.0555299,16,32765
0.795015,-0.192641,0.0569282,15,32765
0.774993,-0.19051,0.0556065,15,32765
0.803392,-0.200332,0.0576881,15,32765
0.812395,-0.205424,0.0584417,15,32765
0.792394,-0.203135,0.0569893,15,32765
0.791723,-0.205734,0.0569898,15,32765
0.8007,-0.210828,0.0577142,15,32765
0.771091,-0.205734,0.0556117,15,32765
0.808946,-0.218606,0.0584626,15,32765
0.788987,-0.21598,0.0570286,15,32765
0.797892,-0.221213,0.0577339,15,32765
0.806774,-0.226507,0.0583949,15,32765
0.786842,-0.223701,0.0569055,15,32765
0.814874,-0.234503,0.0590683,15,32765
0.804536,-0.23435,0.0583186,15,32765
0.784653,-0.231254,0.0569341,15,32765
0.79348,-0.236594,0.0575523,15,32765
0.802275,-0.242017,0.0581593,15,32765
0.791967,-0.241647,0.0574036,15,32765
0.800724,-0.247115,0.0580952,15,32765
0.809474,-0.252615,0.0586298,15,32765
0.789658,-0.249141,0.0571767,15,32765
0.788882,-0.251625,0.0570134,15,32765
0.835586,-0.269371,0.0602944,15,32765
0.777822,-0.253483,0.0560239,15,32765
0.81496,-0.268346,0.0585679,15,32765
0.808517,0.0105743,0.0478395,16,32765
0.798551,0.00783105,0.0474872,15,32765
0.808544,0.00525665,0.0482636,16,32765
0.798566,0.00254558,0.0478127,16,32765
0.798556,-0.000140086,0.0480529,17,32765
0.788561,-0.00277238,0.0475782,16,32765
0.828467,-0.00565761,0.0501034,16,32765
0.828439,-0.00835234,0.0501856,16,32765
0.818416,-0.0109545,0.0497451,16,32765
0.808391,-0.0134481,0.0492217,16,32765
0.838273,-0.0167642,0.0511674,16,32765
0.818248,-0.0191025,0.050048,16,32765
0.828157,-0.022083,0.0506745,16,32765
0.808121,-0.0242142,0.0495355,16,32765
0.847937,-0.0282118,0.0520301,15,32765
0.847833,-0.0310315,0.0521171,15,32765
0.867669,-0.0346653,0.0533795,15,32765
0.877515,-0.0379824,0.0540795,15,32765
0.837498,-0.0390356,0.051696,15,32765
0.827394,-0.0412921,0.0511199,15,32765
0.906991,-0.0482379,0.0560378,13,32765
0,-0,0,0,32765
0,-0,0,0,32765
0.846698,-0.0533862,0.0524583,15,32765
0.876387,-0.0581881,0.0544126,15,32765
0.866233,-0.0604023,0.0537807,15,32765
0.866027,-0.0633195,0.053733,15,32765
0.855855,-0.0654543,0.0531803,15,32765
0.865578,-0.0691581,0.0537839,14,32765
0.895172,-0.0745383,0.0557733,14,32765
0.715938,-0.0620255,0.044567,14,32765
0.735608,-0.0662029,0.0458067,15,32765
0.715503,-0.066815,0.0446184,15,32765
0.655664,-0.0634516,0.0409773,14,32765
0.715032,-0.0715914,0.0447724,15,32765
0.734645,-0.0760387,0.0459903,15,32765
0.744313,-0.0795554,0.0465697,15,32765
0.734124,-0.0809419,0.0459412,16,32765
0.75368,-0.0856521,0.0472307,15,32765
0.713742,-0.0834724,0.0447799,15,32765
0.743185,-0.0894255,0.0466742,15,32765
0.723077,-0.0894499,0.0453764,14,32765
0.742578,-0.0944083,0.046536,13,32765
0,-0,0,11,32765
0,-0,0,0,32765
0,-0,0,0,32765
0,-0,0,0,32765
0.721128,-0.103956,0.045475,12,32765
0.701019,-0.103502,0.0442709,14,32765
0.70067,-0.105809,0.0443442,15,32765
0.749633,-0.115738,0.0474842,16,32765
0.71967,-0.113568,0.0455711,15,32765
0.739001,-0.119122,0.0467743,15,32765
0.738594,-0.121617,0.046785,15,32765
0.708649,-0.119126,0.045,15,32765
0.708244,-0.121527,0.0449675,15,32765
0.72749,-0.127336,0.0462986,15,32765
0.727066,-0.129728,0.0463185,15,32765
0.716816,-0.130345,0.0456606,15,32765
0.745818,-0.138153,0.0476416,16,32765
0.745346,-0.14065,0.0477139,16,32765
0.735064,-0.141295,0.0470882,16,32765
0.744386,-0.145631,0.047769,16,32765
0.734104,-0.146165,0.0471894,16,32765
0.714055,-0.144609,0.0459717,16,32765
0.733122,-0.150981,0.0473012,16,32765
0.761913,-0.159558,0.0493018,17,32765
0.751616,-0.159984,0.0487752,16,32765
0.721813,-0.156151,0.0469346,16,32765
0.760283,-0.167075,0.0495551,16,32765
0.740241,-0.165239,0.0483715,16,32765
0.749412,-0.169899,0.0491506,16,32765
0.748835,-0.17239,0.0492693,16,32765
0.74826,-0.174857,0.0493229,16,32765
0.747669,-0.177322,0.0494823,16,32765
0.737376,-0.177425,0.0489663,16,32765
0.756165,-0.184592,0.0504006,15,32765
0.736179,-0.182259,0.0492188,15,32765
0.745249,-0.187104,0.0499604,15,32765
0.744624,-0.189513,0.0502067,15,32765
0.724657,-0.18698,0.0490946,15,32765
0.753002,-0.196908,0.0511341,15,32765
0.771641,-0.204445,0.052658,15,32765
0.761329,-0.204365,0.0520802,15,32765
0.751021,-0.2042,0.0516649,15,32765
0.779188,-0.214626,0.0538729,15,32765
0.75924,-0.211842,0.0527012,15,32765
0.777733,-0.219723,0.0543445,15,32765
0.757814,-0.21677,0.0531891,15,32765
0.74752,-0.216404,0.0527493,15,32765
0.746813,-0.218784,0.05295,15,32765
0.774765,-0.229735,0.0553237,15,32765
0.764451,-0.229355,0.0548752,15,32765
0.763694,-0.2318,0.0551398,15,32765
0.782015,-0.240052,0.0568071,15,32765
0.762181,-0.236594,0.0557051,15,32765
0.789946,-0.247988,0.0581934,15,32765
0.770118,-0.244457,0.0570849,15,32765
0.759808,-0.243858,0.0567923,15,32765
0.777987,-0.252401,0.05856,15,32765
0.796111,-0.26104,0.060544,15,32765
0.848879,0.0111581,0.0421955,16,32765
0.848898,0.00837528,0.0424489,16,32765
0.848912,0.00556405,0.0426408,16,32765
0.858905,0.00277776,0.0432983,16,32765
0.888858,-0.000120546,0.045076,16,32765
0.858884,-0.00299112,0.0436937,16,32765
0.83889,-0.00570649,0.0427953,17,32765
0.868822,-0.00874203,0.0444099,16,32765
0.868779,-0.0116169,0.0445841,16,32765
0.868732,-0.0144458,0.0446735,16,32765
0.858687,-0.0171721,0.0442858,16,32765
0.888571,-0.0207498,0.0459379,16,32765
0.878514,-0.0234372,0.045439,15,32765
0.84848,-0.0254401,0.0439761,15,32765
0.868351,-0.0289137,0.0450604,15,32765
0.858265,-0.0314415,0.0446305,15,32765
0.87811,-0.0351172,0.045705,15,32765
0.848053,-0.0367464,0.0442304,15,32765
0.877849,-0.0409628,0.0458698,15,32765
0.877707,-0.0438552,0.0459116,15,32765
0.877559,-0.0467307,0.0459026,15,32765
0,-0,0,0,32765
0,-0,0,0,32765
0.867083,-0.0547462,0.0454992,15,32765
0.86689,-0.057638,0.045601,15,32765
0.886618,-0.0619121,0.0466354,16,32765
0.886407,-0.064904,0.0465867,16,32765
0.896138,-0.0686367,0.0471782,16,32765
0.885945,-0.0708921,0.0466389,15,32765
0.885696,-0.0738618,0.0467723,14,32765
0.746163,-0.0647441,0.0393611,15,32765
0.72605,-0.0654451,0.0383133,15,32765
0.755652,-0.0706759,0.0399404,15,32765
0.765344,-0.0741844,0.040556,15,32765
0.675664,-0.0677589,0.0358818,14,32765
0.774762,-0.0803216,0.0411314,15,32765
0.754632,-0.0807909,0.0400342,12,32765
0,-0,0,11,32765
0,-0,0,0,32765
0,-0,0,0,32765
0.713829,-0.0860382,0.0380279,11,32765
0.733361,-0.0908766,0.0390304,13,32765
0.772678,-0.0984035,0.0410534,15,32765
0.762436,-0.0997078,0.0406167,15,32765
0.752197,-0.100922,0.0401809,15,32765
0.741957,-0.102083,0.0397267,15,32765
0.741612,-0.10457,0.0396998,15,32765
0.780795,-0.112755,0.0417752,15,32765
0.711253,-0.105198,0.0381161,15,32765
0.730645,-0.110531,0.0392514,15,32765
0.740143,-0.114477,0.039799,15,32765
0.749622,-0.118506,0.0402894,15,32765
0.73937,-0.119396,0.0397142,15,32765
0.729108,-0.120271,0.0391954,15,32765
0.738543,-0.124376,0.0398152,15,32765
0.728276,-0.125192,0.039251,15,32765
0.678669,-0.119008,0.0366757,15,32765
0.756913,-0.1353,0.0409487,15,32765
0.677869,-0.123489,0.0366642,15,32765
0.775635,-0.143941,0.0420869,15,32765
0.765332,-0.144688,0.0416285,15,32765
0.774641,-0.149178,0.0421646,15,32765
0.754543,-0.147892,0.0411511,15,32765
0.773627,-0.154322,0.0422717,15,32765
0.763327,-0.154876,0.0417803,15,32765
0.762809,-0.157389,0.0418533,15,32765
0.742728,-0.155832,0.0408862,16,32765
0.771502,-0.164526,0.0426086,15,32765
0.780705,-0.16921,0.0432128,15,32765
0.760639,-0.16747,0.0422162,15,32765
0.740586,-0.165629,0.0412211,15,32765
0.749761,-0.170301,0.0419064,16,32765
0.749183,-0.172798,0.0420253,15,32765
0.768049,-0.179824,0.0431721,15,32765
0.777156,-0.184668,0.0438846,15,32765
0.737714,-0.177846,0.0418173,15,32765
0.785608,-0.192148,0.04472,15,32765
0.784969,-0.194712,0.0448381,15,32765
0.784319,-0.197292,0.0449373,15,32765
0.773986,-0.197366,0.0446388,15,32765
0.773318,-0.199921,0.0448439,15,32765
0.772658,-0.202439,0.0449219,15,32765
0.762338,-0.202373,0.0445708,15,32765
0.780953,-0.21004,0.045782,15,32765
0.799521,-0.21781,0.0471724,15,32765
0.750663,-0.207173,0.0445438,15,32765
0.769192,-0.215039,0.0458468,15,32765
0.768472,-0.217532,0.0461526,15,32765
0.796537,-0.228293,0.0480796,15,32765
0.79579,-0.23083,0.0483284,15,32765
0.795036,-0.233369,0.0485424,15,32765
0.775107,-0.230288,0.0477103,15,32765
0.774347,-0.232782,0.0479482,15,32765
0.78313,-0.238168,0.0488118,15,32765
0.801441,-0.246501,0.0502987,15,32765
0.772047,-0.24013,0.0487898,15,32765
0.809337,-0.254578,0.0516086,15,32765
0.808504,-0.257149,0.0519174,15,32765
0.79815,-0.256671,0.0517399,15,32765
0.787822,-0.256099,0.0514766,15,32765
0.824909,-0.27102,0.0545336,14,32765
0.798817,0.0101977,0.0422724,16,32765
0.798866,0.00756658,0.0418946,16,32765
0.798906,0.00484852,0.0415466,16,32765
0.818906,0.00219535,0.0422835,16,32765
0.818923,-0.000494102,0.0420069,17,32765
0.818933,-0.00315038,0.041692,17,32765
0.818931,-0.00583879,0.0414521,16,32765
0.81892,-0.00853935,0.0412014,17,32765
0.828884,-0.011412,0.0414936,17,32765
0.828855,-0.0141658,0.0412243,16,32765
0.828814,-0.0169001,0.0410161,16,32765
0.828756,-0.0196655,0.0409529,15,32765
0.818713,-0.0221639,0.040232,15,32765
0.81864,-0.0248964,0.0401007,14,32765
0.818561,-0.0276275,0.0399283,14,32765
0.808494,-0.0299628,0.0392396,15,32765
0.828357,-0.0334207,0.0400888,15,32765
0.818268,-0.0357351,0.0395053,15,32765
0.828131,-0.0388855,0.0398404,15,32765
0.80805,-0.0406499,0.0387658,15,32765
0.85779,-0.0459777,0.0410102,14,32765
0,-0,0,0,32765
0,-0,0,0,32765
0.817436,-0.0518667,0.0388408,16,32765
0.817262,-0.0545862,0.0387723,16,32765
0.837009,-0.0587002,0.039625,15,32765
0.816887,-0.0600373,0.0386063,15,32765
0.826647,-0.0635229,0.0389822,15,32765
0.856305,-0.0686542,0.0403533,15,32765
0.885938,-0.07398,0.0417245,13,32765
0.756321,-0.0656641,0.0355983,15,32765
0.756097,-0.0681797,0.0356103,14,32765
0.79565,-0.074439,0.03741,12,32765
0,-0,0,0,32765
0,-0,0,0,32765
0.64583,-0.066952,0.0303472,13,32765
0,-0,0,0,32765
0.595723,-0.0657765,0.0280551,12,32765
0.655048,-0.0745637,0.030858,14,32765
0.704399,-0.0826025,0.0331567,15,32765
0.714035,-0.0861397,0.0336672,15,32765
0.693924,-0.086016,0.0327202,15,32765
0.693631,-0.0883095,0.0328266,16,32765
0.673529,-0.0880202,0.0318058,16,32765
0.702928,-0.0942576,0.0332812,16,32765
0.653125,-0.0898289,0.0309519,15,32765
0.692378,-0.0975831,0.0330157,15,32765
0.692057,-0.0998735,0.0329012,15,32765
0.701599,-0.103648,0.0334009,15,32765
0.671614,-0.101508,0.032099,15,32765
0.681138,-0.105298,0.0326144,15,32765
0.71038,-0.112254,0.0340465,15,32765
0.660691,-0.106661,0.0317923,15,32765
0.680038,-0.112136,0.0327595,15,32765
0.679655,-0.114431,0.0327889,15,32765
0.68911,-0.118414,0.0332569,15,32765
0.669031,-0.117263,0.0323649,15,32765
0.717794,-0.128283,0.0348678,15,32765
0.697707,-0.127098,0.0339292,15,32765
0.697281,-0.129404,0.0339591,15,32765
0.706657,-0.133579,0.0345335,15,32765
0.696396,-0.134032,0.0341793,15,32765
0.715552,-0.140172,0.0351728,15,32765
0.73467,-0.146465,0.0361545,15,32765
0.695024,-0.140967,0.0342081,15,32765
0.684768,-0.141234,0.0338454,15,32765
0.694069,-0.145571,0.034313,15,32765
0.713113,-0.152043,0.0353959,15,32765
0.741878,-0.160802,0.0368787,15,32765
0.702311,-0.154713,0.0349659,15,32765
0.731022,-0.163621,0.0365302,15,32765
0.730477,-0.166045,0.0364937,15,32765
0.700725,-0.161719,0.0350989,15,32765
0.729362,-0.17085,0.0366279,15,32765
0.728794,-0.173256,0.0366316,15,32765
0.679672,-0.163942,0.0341978,15,32765
0.717934,-0.17567,0.0362103,15,32765
0.697958,-0.173236,0.035264,15,32765
0.726443,-0.182833,0.0367893,15,32765
0.764551,-0.195082,0.0387838,15,32765
0.715561,-0.185076,0.0363307,15,32765
0.695629,-0.182347,0.0353648,15,32765
0.733636,-0.19489,0.0373688,15,32765
0.733,-0.197279,0.0373182,15,32765
0.703448,-0.191772,0.0358457,14,32765
0.741337,-0.204665,0.0378471,15,32765
0.731056,-0.204356,0.0373549,15,32765
0.701557,-0.198567,0.0359039,15,32765
0.720106,-0.206382,0.0368032,15,32765
0.738605,-0.214329,0.037765,15,32765
0.699581,-0.205438,0.0358075,15,32765
0.746803,-0.221858,0.0382751,15,32765
0.746113,-0.224187,0.0381457,15,32765
0.735843,-0.22365,0.0376287,15,32765
0.696928,-0.214295,0.0356235,15,32765
0.705778,-0.219494,0.0360617,15,32765
0.743211,-0.233655,0.0379814,14,32765
0.790079,-0.251095,0.0403375,13,32765
0.950968,-0.305484,0.048361,11,32765
0.987984,-0.320922,0.0499714,12,32765
1.00596,-0.330227,0.0508498,12,32765
0.829149,0.0106355,0.0360371,16,32765
0.839187,0.00799379,0.0360743,16,32765
0.839225,0.0051324,0.0357087,16,32765
0.859233,0.00233736,0.0362423,15,32765
0.899213,-0.000513371,0.0376243,16,32765
0.849264,-0.00324543,0.0352074,15,32765
0.899216,-0.00639459,0.037015,15,32765
0.869228,-0.00905401,0.0355151,15,32765
0.859211,-0.0118259,0.0348889,15,32765
0.829206,-0.0141742,0.0334024,15,32765
0.849143,-0.017323,0.033994,15,32765
0.829105,-0.0196877,0.033131,15,32765
0.859009,-0.0232754,0.0340897,15,32765
0.838956,-0.0255403,0.0331625,15,32765
0.838873,-0.0283451,0.0329857,15,32765
0.838783,-0.0311233,0.0327764,16,32765
0.848665,-0.0342844,0.0330441,16,32765
0.84855,-0.037108,0.0329399,16,32765
0.838448,-0.0394256,0.0324039,16,32765
0.858276,-0.0432397,0.0330537,16,32765
0.878091,-0.0471366,0.0336704,16,32765
0,-0,0,0,32765
0,-0,0,0,32765
0.867623,-0.0551392,0.0330099,16,32765
0.847496,-0.0566977,0.0321801,15,32765
0.847306,-0.0595204,0.0320861,13,32765
0,-0,0,12,32765
0,-0,0,0,32765
0,-0,0,0,32765
0,-0,0,0,32765
0,-0,0,0,32765
0.746435,-0.0674268,0.0280739,13,32765
0.766106,-0.071802,0.0287508,15,32765
0.765859,-0.0743719,0.0287921,15,32765
0.765606,-0.0769377,0.0287744,15,32765
0.775288,-0.0805181,0.0290665,15,32765
0.765079,-0.0820138,0.0287744,15,32765
0.705204,-0.0780072,0.0265082,14,32765
0.784366,-0.089448,0.029492,14,32765
0.784059,-0.0921139,0.0294488,14,32765
0.773825,-0.0935259,0.0291232,15,32765
0.704097,-0.0874397,0.0264977,15,32765
0.723624,-0.0923005,0.0273553,15,32765
0.7035,-0.0921099,0.0265194,16,32765
0.732896,-0.0984616,0.0277153,15,32765
0.70286,-0.0968523,0.0266074,15,32765
0.771788,-0.108982,0.0294403,16,32765
0.712086,-0.10296,0.027058,15,32765
0.711736,-0.105346,0.0270883,16,32765
0.721256,-0.10922,0.0275821,15,32765
0.691256,-0.107068,0.0264928,16,32765
0.690892,-0.109385,0.0265066,15,32765
0.710248,-0.114883,0.0273825,15,32765
0.719714,-0.118909,0.0277822,15,32765
0.709453,-0.119681,0.0274325,15,32765
0.709045,-0.122077,0.0274253,15,32765
0.688947,-0.12099,0.0267235,15,32765
0.727878,-0.13034,0.0283757,15,32765
0.707777,-0.129186,0.0276258,15,32765
0.687695,-0.127877,0.0268882,15,32765
0.697079,-0.132029,0.0273673,15,32765
0.735879,-0.141912,0.0290418,15,32765
0.735404,-0.144347,0.0290736,15,32765
0.685922,-0.137019,0.0271524,15,32765
0.695254,-0.141294,0.0275223,15,32765
0.724137,-0.149652,0.0288114,15,32765
0.713854,-0.15002,0.0284059,15,32765
0.723117,-0.154485,0.0289132,15,32765
0.732353,-0.159056,0.029332,15,32765
0.712294,-0.157228,0.0285787,15,32765
0.721505,-0.161816,0.0290763,15,32765
0.711222,-0.161995,0.0286482,15,32765
0.74962,-0.173354,0.0302877,15,32765
0.7685,-0.180383,0.0311446,15,32765
0.699857,-0.166715,0.0283888,15,32765
0.738154,-0.178411,0.0299753,15,32765
0.747264,-0.183221,0.0304307,15,32765
0.766044,-0.190524,0.0312569,15,32765
0.755724,-0.190592,0.0309198,15,32765
0.726052,-0.18564,0.0297615,15,32765
0.72544,-0.188018,0.0297635,15,32765
0.734484,-0.19293,0.0301775,15,32765
0.714531,-0.190208,0.0294218,15,32765
0.752499,-0.202947,0.0309606,15,32765
0.742196,-0.202757,0.0305645,15,32765
0.751168,-0.207811,0.0309996,16,32765
0.750495,-0.210228,0.0309992,15,32765
0.769033,-0.21812,0.0318202,15,32765
0.720292,-0.206868,0.0297473,15,32765
0.757982,-0.220414,0.0313141,15,32765
0.718927,-0.211564,0.0297333,15,32765
0.76614,-0.228083,0.0317312,15,32765
0.746293,-0.224715,0.0308088,15,32765
0.755135,-0.23,0.0311755,15,32765
0.888073,-0.27365,0.0366363,12,32765
0.915811,-0.285421,0.037754,12,32765
0.962577,-0.303267,0.0396824,12,32765
0.980672,-0.312335,0.0403711,12,32765
0.970192,-0.312329,0.0397364,12,32765
1.02619,-0.334051,0.0417377,12,32765
1.12956,-0.371601,0.0458965,12,32765
0.819581,0.0117789,0.0234069,15,32765
0.779628,0.00864104,0.0224985,15,32765
0.809631,0.00629053,0.0236129,15,32765
0.779655,0.0034595,0.022952,15,32765
0.799651,0.000845248,0.0236153,15,32765
0.809637,-0.00183163,0.0241846,15,32765
0.789633,-0.00437465,0.0236878,15,32765
0.809602,-0.00716625,0.0243527,16,32765
0.809571,-0.0098627,0.024436,16,32765
0.809531,-0.012595,0.0245282,15,32765
0.839463,-0.0158376,0.0255255,15,32765
0.789436,-0.0175227,0.024156,15,32765
0.809356,-0.0206499,0.0248384,16,32765
0.769318,-0.0221674,0.0236433,16,32765
0.789216,-0.0253717,0.0243785,16,32765
0.809104,-0.0286984,0.0250456,15,32765
0.828978,-0.0321393,0.0257516,16,32765
0.798906,-0.0336225,0.0248843,16,32765
0.798788,-0.0362842,0.0249183,16,32765
0.828609,-0.0404433,0.0259068,15,32765
0.818488,-0.0426896,0.0255987,13,32765
1.02791,-0.0570672,0.0322296,12,32765
0,-0,0,0,32765
0,-0,0,0,32765
0,-0,0,0,32765
0,-0,0,0,32765
0,-0,0,0,32765
0,-0,0,0,32765
0,-0,0,11,32765
0.98617,-0.0811758,0.0312919,11,32765
0.746886,-0.0640102,0.0237344,15,32765
0.746667,-0.0665056,0.0237706,15,32765
0.776302,-0.0717387,0.0246798,15,32765
0.766106,-0.0733839,0.0244347,15,32765
0.745967,-0.0739492,0.0237771,16,32765
0.765603,-0.0784672,0.0243817,15,32765
0.775276,-0.0820613,0.0247617,14,32765
0.81474,-0.0890077,0.0260164,12,32765
0.794571,-0.0895095,0.0253957,12,32765
0.764476,-0.0887622,0.0244372,13,32765
0.734399,-0.0877741,0.0235379,14,32765
0.714259,-0.0877877,0.0229518,15,32765
0.753625,-0.0951808,0.0242827,14,32765
0.713661,-0.092508,0.0230243,15,32765
0.743071,-0.0988393,0.0240174,16,32765
0.703121,-0.0959336,0.0227488,16,32765
0.692897,-0.0969141,0.0223964,15,32765
0.722246,-0.103524,0.0233158,16,32765
0.692226,-0.101591,0.0224246,16,32765
0.721534,-0.108368,0.023344,16,32765
0.721162,-0.110791,0.0234615,16,32765
0.691164,-0.108568,0.0224726,16,32765
0.690792,-0.110918,0.0224288,16,32765
0.690413,-0.113237,0.0225255,16,32765
0.680173,-0.113899,0.0221833,16,32765
0.699488,-0.119545,0.0229275,16,32765
0.659703,-0.114993,0.0216405,16,32765
0.698675,-0.124213,0.0228879,15,32765
0.698252,-0.126549,0.0230061,15,32765
0.678162,-0.125274,0.0224284,15,32765
0.648272,-0.121993,0.0214697,15,32765
0.657682,-0.126013,0.0218058,15,32765
0.67688,-0.132009,0.0225077,15,32765
0.676433,-0.134267,0.0226097,15,32765
0.685778,-0.138485,0.0230238,15,32765
0.685316,-0.140744,0.0230887,15,32765
0.684844,-0.143011,0.0231474,15,32765
0.69414,-0.147359,0.0235455,15,32765
0.683877,-0.147543,0.0233157,15,32765
0.644327,-0.141262,0.022071,15,32765
0.702371,-0.156488,0.0242232,15,32765
0.672598,-0.152217,0.0232791,15,32765
0.701305,-0.161177,0.0243609,15,32765
0.729964,-0.170296,0.0255381,15,32765
0.690493,-0.16349,0.0242981,15,32765
0.719114,-0.172707,0.0254387,15,32765
0.679703,-0.165586,0.0242008,15,32765
0.698559,-0.172597,0.0250013,15,32765
0.707679,-0.177315,0.0255022,15,32765
0.716769,-0.182113,0.0260296,15,32765
0.725846,-0.186933,0.0265131,15,32765
0.696209,-0.181759,0.0256313,15,32765
0.724585,-0.191708,0.0269107,16,32765
0.704636,-0.188919,0.0264271,15,32765
0.704003,-0.191244,0.0265733,15,32765
0.693735,-0.190886,0.0263405,15,32765
0.731609,-0.203864,0.0280689,15,32765
0.711708,-0.200789,0.0275026,15,32765
0.691829,-0.197596,0.026999,15,32765
0.719975,-0.208163,0.0283534,15,32765
0.700106,-0.204891,0.0277713,15,32765
0.709001,-0.210017,0.0284614,15,32765
0.737028,-0.220892,0.0299504,15,32765
0.736306,-0.223256,0.0301738,15,32765
0.735576,-0.225614,0.0304296,14,32765
0.792098,-0.245729,0.0331306,12,32765
1.0201,-0.320043,0.0432088,12,32765
0.92383,-0.293049,0.0394918,12,32765
0.922888,-0.295927,0.0400604,12,32765
0.997964,-0.323492,0.043824,12,32765
0.97794,-0.320349,0.0437011,12,32765
0,0,0,0,32765
0,0,0,0,32765
1.01977,0.00795832,0.0201155,11,32765
0.879815,0.00392804,0.0175956,12,32765
0.83983,0.000904663,0.0168744,14,32765
0.859818,-0.00193375,0.0175673,15,32765
0.809817,-0.00448137,0.0166488,15,32765
0.839788,-0.0074341,0.017333,15,32765
0.809766,-0.00987146,0.0167974,14,32765
0.859709,-0.0133887,0.0179322,14,32765
0.819674,-0.0154824,0.0171848,13,32765
0.839605,-0.0186607,0.0177635,13,32765
0.989454,-0.0252808,0.0210221,12,32765
0,-0,0,0,32765
0,-0,0,0,32765
0,-0,0,0,32765
0,-0,0,0,32765
0,-0,0,0,32765
0,-0,0,0,32765
0,-0,0,0,32765
0,-0,0,0,32765
0,-0,0,0,32765
0,-0,0,0,32765
0,-0,0,0,32765
0,-0,0,11,32765
1.14699,-0.0791732,0.0253849,12,32765
0.917378,-0.0663581,0.0203379,14,32765
0.917149,-0.0694361,0.020386,16,32765
0.946812,-0.0748606,0.0210653,18,32765
0.896734,-0.0739563,0.0199614,13,32765
0.806831,-0.0692816,0.017996,15,32765
0.796636,-0.0710945,0.0178125,15,32765
0.786441,-0.0728179,0.0175478,16,32765
0.746384,-0.0716352,0.0167289,15,32765
0,-0,0,0,32765
0,-0,0,11,32765
0,-0,0,0,32765
0,-0,0,0,32765
0,-0,0,11,32765
1.01291,-0.117844,0.0227556,11,32765
0.784199,-0.0939148,0.0176809,14,32765
0.863259,-0.106315,0.0195321,13,32765
0.862897,-0.109202,0.0195962,15,32765
0.773306,-0.100443,0.0175904,16,32765
0.743236,-0.0990623,0.0169477,15,32765
0.723087,-0.0988589,0.0165087,15,32765
0.742551,-0.104072,0.0169268,15,32765
0.712506,-0.102338,0.01621,15,32765
0.712156,-0.104731,0.016279,15,32765
0.711801,-0.107127,0.0162381,15,32765
0.750957,-0.115607,0.0172628,15,32765
0.740687,-0.116588,0.0170093,14,32765
0.720546,-0.115936,0.0165102,14,32765
0.720149,-0.118359,0.0166113,14,32765
0.719748,-0.120778,0.0165899,14,32765
0.748898,-0.128257,0.0173802,15,32765
0.718924,-0.125578,0.0166995,15,32765
0.698812,-0.124498,0.0161975,16,32765
0.688551,-0.125053,0.0160862,15,32765
0.707783,-0.131021,0.0166195,16,32765
0.697517,-0.131536,0.0164065,16,32765
0.677441,-0.130073,0.0159557,15,32765
0.706441,-0.138065,0.0167028,16,32765
0.676557,-0.134576,0.0161091,16,32765
0.695702,-0.140786,0.0166639,16,32765
0.675648,-0.139053,0.0162588,15,32765
0.694752,-0.145388,0.0167898,15,32765
0.674706,-0.143538,0.0163826,15,32765
0.693768,-0.149996,0.016961,15,32765
0.712788,-0.156605,0.0175359,15,32765
0.692734,-0.154671,0.0171996,15,32765
0.692211,-0.15699,0.0172669,15,32765
0.662454,-0.152574,0.0166033,15,32765
0.72035,-0.168414,0.0182287,14,32765
0.719787,-0.170793,0.0183562,15,32765
