x, y, z, intensity, ring
0.955818,-0.665453,-0.111734,19,32765
0.953711,-0.668594,-0.110982,19,32765
0.959753,-0.677464,-0.110983,19,32765
0.949452,-0.674918,-0.109211,19,32765
0.947317,-0.678056,-0.108308,19,32765
0.96133,-0.692813,-0.109341,20,32765
0.959128,-0.696017,-0.108319,20,32765
0.956892,-0.69923,-0.107402,20,32765
0.954652,-0.702451,-0.106309,18,32765
1.31736,-0.402507,-0.186133,20,32765
1.31599,-0.406833,-0.186444,20,32765
1.33355,-0.417052,-0.189207,20,32765
1.32267,-0.418525,-0.188087,19,32765
1.31182,-0.419887,-0.186874,19,32765
1.28212,-0.415115,-0.182902,18,32765
1.29957,-0.42553,-0.185599,19,32765
1.28874,-0.426743,-0.184237,19,32765
1.2873,-0.431056,-0.184255,19,32765
1.24834,-0.422626,-0.178708,18,32765
1.27504,-0.436501,-0.182626,18,32765
1.29228,-0.447325,-0.185214,19,32765
1.24398,-0.43543,-0.178336,18,32765
1.27985,-0.452988,-0.18353,19,32765
1.269,-0.454024,-0.181935,20,32765
1.21152,-0.43816,-0.173867,18,32765
1.20075,-0.438892,-0.17229,14,32765
1.35732,-0.501325,-0.194817,15,32765
1.22567,-0.45741,-0.175791,18,32765
1.22416,-0.461516,-0.175587,19,32765
1.22263,-0.465694,-0.175259,19,32765
1.22108,-0.469799,-0.175081,19,32765
1.20109,-0.466669,-0.172089,18,32765
1.19032,-0.467115,-0.170387,20,32765
1.19799,-0.474773,-0.171464,19,32765
1.21477,-0.486321,-0.173844,19,32765
1.20394,-0.486815,-0.172192,20,32765
1.21149,-0.494716,-0.173022,20,32765
1.219,-0.502672,-0.173942,20,32765
1.19903,-0.499199,-0.170985,20,32765
1.2065,-0.507174,-0.171834,20,32765
1.18655,-0.503555,-0.168905,20,32765
1.19401,-0.511508,-0.16969,19,32765
1.17409,-0.507766,-0.166672,19,32765
1.15422,-0.503859,-0.163697,19,32765
1.17065,-0.51592,-0.165863,20,32765
1.16892,-0.519981,-0.165339,20,32765
1.13099,-0.507762,-0.159808,19,32765
1.14736,-0.519859,-0.161878,19,32765
1.16369,-0.532048,-0.163876,19,32765
1.16192,-0.536039,-0.163392,19,32765
1.16015,-0.539998,-0.162976,18,32765
1.13145,-0.531287,-0.158627,19,32765
1.13866,-0.539413,-0.159342,19,32765
1.13686,-0.543344,-0.158858,20,32765
1.15292,-0.555889,-0.160798,20,32765
1.1243,-0.546847,-0.156536,20,32765
1.13143,-0.555017,-0.157225,19,32765
1.12961,-0.558885,-0.156586,20,32765
1.10113,-0.549468,-0.152304,19,32765
1.10813,-0.557819,-0.152924,20,32765
1.09739,-0.557209,-0.151139,20,32765
1.11322,-0.570044,-0.152962,20,32765
1.09371,-0.564711,-0.149991,20,32765
1.07426,-0.559252,-0.146997,19,32765
1.10758,-0.581401,-0.151158,20,32765
1.10562,-0.585258,-0.150598,20,32765
1.06863,-0.570406,-0.145178,19,32765
1.09295,-0.588213,-0.148226,19,32765
1.06484,-0.577723,-0.144061,18,32765
1.06296,-0.581327,-0.143468,19,32765
1.06976,-0.58973,-0.144013,20,32765
1.05046,-0.583691,-0.141167,20,32765
1.06587,-0.596997,-0.142861,20,32765
1.0293,-0.581107,-0.137683,19,32765
1.07053,-0.609217,-0.142898,20,32765
1.0599,-0.607956,-0.141095,19,32765
1.06651,-0.61653,-0.141554,19,32765
1.06447,-0.62016,-0.141059,19,32765
1.01962,-0.598583,-0.134806,19,32765
1.0262,-0.607088,-0.135482,19,32765
1.0242,-0.610557,-0.135001,19,32765
1.05632,-0.634451,-0.138784,20,32765
1.02873,-0.622596,-0.134889,20,32765
1.0182,-0.620897,-0.133255,19,32765
1.0077,-0.619141,-0.131545,19,32765
1.02256,-0.633018,-0.133248,19,32765
1.01209,-0.631174,-0.131542,19,32765
1.01003,-0.634549,-0.131065,18,32765
0.99119,-0.627272,-0.128339,18,32765
1.0143,-0.646608,-0.131131,19,32765
0.987074,-0.633914,-0.127424,19,32765
1.02675,-0.664228,-0.132234,19,32765
1.0079,-0.656839,-0.129586,19,32765
1.01406,-0.665677,-0.130187,20,32765
0.987002,-0.652621,-0.126542,19,32765
0.968307,-0.644906,-0.124008,19,32765
0.982741,-0.659185,-0.125682,19,32765
0.980611,-0.662446,-0.125169,18,32765
0.986707,-0.671268,-0.12573,19,32765
0.968061,-0.663364,-0.123315,18,32765
0.965884,-0.666624,-0.122804,19,32765
0.947371,-0.658501,-0.120267,19,32765
0.945221,-0.66164,-0.119951,19,32765
0.951237,-0.670442,-0.120648,19,32765
0.965313,-0.685066,-0.12229,19,32765
0.9631,-0.688225,-0.122007,19,32765
0.977006,-0.70303,-0.123723,20,32765
0,-0,-0,0,32765
0,-0,-0,0,32765
0,-0,-0,0,32765
1.29623,-0.397745,-0.196153,18,32765
1.32322,-0.410818,-0.20076,20,32765
1.3313,-0.418124,-0.202272,20,32765
1.29213,-0.410604,-0.196748,19,32765
1.30958,-0.420956,-0.199749,20,32765
1.29874,-0.422287,-0.198373,19,32765
1.29733,-0.426604,-0.198378,20,32765
1.27711,-0.424692,-0.195484,19,32765
1.30382,-0.438442,-0.199813,20,32765
1.30238,-0.442791,-0.199635,20,32765
1.26344,-0.434365,-0.193777,20,32765
1.29001,-0.448429,-0.197984,20,32765
1.26046,-0.443063,-0.193508,19,32765
1.26825,-0.45078,-0.194772,19,32765
1.25742,-0.451783,-0.193085,19,32765
1.29307,-0.46963,-0.198759,20,32765
1.26362,-0.463825,-0.194216,17,32765
1.18783,-0.440574,-0.182633,14,32765
1.26979,-0.475872,-0.195115,13,32765
1.19416,-0.452102,-0.18352,16,32765
1.22039,-0.4668,-0.187459,19,32765
1.21884,-0.47091,-0.187279,20,32765
1.19887,-0.467768,-0.184101,19,32765
1.22497,-0.48273,-0.187959,19,32765
1.20497,-0.479544,-0.184885,19,32765
1.19414,-0.480068,-0.183218,20,32765
1.20169,-0.487944,-0.184291,19,32765
1.21838,-0.499615,-0.186615,20,32765
1.20756,-0.500041,-0.184822,20,32765
1.2059,-0.504163,-0.184477,20,32765
1.17685,-0.49678,-0.179837,19,32765
1.20251,-0.512466,-0.183688,20,32765
1.17354,-0.504841,-0.179005,20,32765
1.20818,-0.524694,-0.184113,21,32765
1.17014,-0.512947,-0.178178,20,32765
1.15933,-0.513069,-0.176386,20,32765
1.16666,-0.521145,-0.177239,20,32765
1.17394,-0.52925,-0.178191,20,32765
1.14512,-0.521014,-0.173591,19,32765
1.1344,-0.520826,-0.171684,18,32765
1.15065,-0.533057,-0.173928,19,32765
1.12196,-0.524405,-0.169447,20,32765
1.15609,-0.545129,-0.174296,20,32765
1.1364,-0.540592,-0.171049,19,32765
1.13459,-0.544528,-0.170563,20,32765
1.10602,-0.535504,-0.165992,19,32765
1.13095,-0.552381,-0.16948,20,32765
1.12915,-0.556216,-0.168926,20,32765
1.11846,-0.555678,-0.16696,20,32765
1.10776,-0.555089,-0.165047,20,32765
1.08818,-0.550069,-0.161806,19,32765
1.12165,-0.571908,-0.166492,20,32765
1.0933,-0.562189,-0.161952,20,32765
1.08266,-0.561345,-0.160107,20,32765
1.08962,-0.569622,-0.160822,20,32765
1.08774,-0.57338,-0.160173,19,32765
1.10332,-0.586489,-0.162195,18,32765
1.05766,-0.566917,-0.155124,19,32765
1.08194,-0.584728,-0.158451,20,32765
1.0626,-0.578928,-0.155287,20,32765
1.07811,-0.592087,-0.157228,19,32765
1.07617,-0.595759,-0.15659,20,32765
1.0569,-0.589733,-0.153555,20,32765
1.04631,-0.588503,-0.151666,20,32765
1.06162,-0.601877,-0.153621,19,32765
1.02516,-0.585853,-0.148078,19,32765
1.04042,-0.599296,-0.149925,20,32765
1.02988,-0.597862,-0.148019,19,32765
1.0279,-0.601378,-0.147538,19,32765
1.02595,-0.604841,-0.146967,19,32765
1.02395,-0.60832,-0.146509,20,32765
1.02195,-0.611793,-0.146026,20,32765
1.01999,-0.615225,-0.145331,19,32765
1.001,-0.608384,-0.142383,19,32765
1.00747,-0.616961,-0.143073,19,32765
1.00545,-0.620383,-0.142472,18,32765
1.01183,-0.629043,-0.143165,19,32765
1.00139,-0.627164,-0.14137,20,32765
0.990952,-0.625216,-0.139711,20,32765
0.972175,-0.617866,-0.13681,19,32765
1.00362,-0.642536,-0.141058,20,32765
0.984809,-0.635168,-0.13825,20,32765
0.991069,-0.643896,-0.13885,19,32765
0.980638,-0.641816,-0.137196,20,32765
0.978533,-0.645117,-0.13674,19,32765
0.959869,-0.637416,-0.133988,18,32765
0.982543,-0.657214,-0.137037,19,32765
0.97218,-0.654922,-0.135442,20,32765
0.970062,-0.658159,-0.134931,20,32765
0.967947,-0.661364,-0.134447,19,32765
0.957554,-0.659018,-0.132989,20,32765
0.963555,-0.667914,-0.133612,21,32765
0.96137,-0.671148,-0.133147,20,32765
0.951046,-0.66863,-0.131698,20,32765
0.948906,-0.671731,-0.131358,20,32765
0.954843,-0.680613,-0.132063,19,32765
0.879981,-0.631597,-0.121729,15,32765
0.942354,-0.681088,-0.130338,11,32765
0,-0,-0,0,32765
0,-0,-0,0,32765
0,-0,-0,0,32765
0,-0,-0,0,32765
1.29307,-0.399873,-0.212035,19,32765
1.29184,-0.404107,-0.211553,19,32765
1.29052,-0.408439,-0.211244,19,32765
1.29863,-0.415799,-0.212313,18,32765
1.27847,-0.414119,-0.208846,19,32765
1.24895,-0.409229,-0.20388,19,32765
1.28516,-0.425881,-0.209523,19,32765
1.27443,-0.427062,-0.207501,19,32765
1.26371,-0.428168,-0.205459,18,32765
1.25298,-0.42928,-0.203398,19,32765
1.25158,-0.433591,-0.202866,19,32765
1.27815,-0.447697,-0.206902,19,32765
1.24874,-0.442188,-0.201776,19,32765
1.25662,-0.449747,-0.202798,19,32765
1.20868,-0.437244,-0.194699,19,32765
1.23511,-0.451562,-0.198752,19,32765
1.24293,-0.459201,-0.199653,18,32765
1.24144,-0.463437,-0.199136,19,32765
1.19368,-0.450202,-0.191196,17,32765
1.21066,-0.461393,-0.19369,17,32765
1.22761,-0.472662,-0.196136,20,32765
1.21684,-0.473335,-0.194041,19,32765
1.16927,-0.459427,-0.186105,18,32765
1.23215,-0.488941,-0.195808,20,32765
1.20301,-0.482107,-0.190878,19,32765
1.19228,-0.482475,-0.18892,19,32765
1.19988,-0.490275,-0.189783,20,32765
1.18912,-0.490623,-0.187818,20,32765
1.16921,-0.487154,-0.184436,19,32765
1.19493,-0.502811,-0.188217,19,32765
1.1841,-0.503207,-0.186241,19,32765
1.17332,-0.503485,-0.184203,19,32765
1.15347,-0.499706,-0.180852,20,32765
1.20625,-0.52747,-0.188807,20,32765
1.15017,-0.507634,-0.179801,19,32765
1.14849,-0.511597,-0.179294,19,32765
1.17388,-0.527713,-0.183077,20,32765
1.15411,-0.523589,-0.179674,19,32765
1.13436,-0.519328,-0.176403,17,32765
1.13262,-0.523282,-0.175895,19,32765
1.13086,-0.527242,-0.175407,19,32765
1.10222,-0.51853,-0.170728,19,32765
1.10942,-0.526616,-0.171634,19,32765
1.13447,-0.543269,-0.175309,19,32765
1.12375,-0.542888,-0.173387,20,32765
1.12192,-0.546783,-0.172965,20,32765
1.10235,-0.541876,-0.169687,20,32765
1.10054,-0.545672,-0.169271,20,32765
1.10763,-0.553838,-0.17006,20,32765
1.09694,-0.553205,-0.168201,20,32765
1.08625,-0.552521,-0.166357,20,32765
1.07556,-0.551815,-0.16456,20,32765
1.06488,-0.551041,-0.162715,19,32765
1.08063,-0.563884,-0.164815,20,32765
1.05244,-0.553786,-0.160301,18,32765
1.07684,-0.57137,-0.163889,18,32765
1.07497,-0.575048,-0.163282,19,32765
1.05563,-0.569304,-0.160117,19,32765
1.05378,-0.572873,-0.159546,20,32765
1.04321,-0.571681,-0.157758,19,32765
1.05003,-0.580027,-0.158447,20,32765
1.03948,-0.578742,-0.156658,19,32765
1.04621,-0.58716,-0.157423,19,32765
1.04429,-0.590714,-0.156871,19,32765
1.04234,-0.594304,-0.15633,19,32765
1.05757,-0.607766,-0.158327,19,32765
1.02982,-0.596476,-0.153882,19,32765
1.04502,-0.609954,-0.155853,19,32765
1.02596,-0.603414,-0.152613,19,32765
1.03252,-0.611964,-0.153317,19,32765
1.01346,-0.605302,-0.150375,19,32765
1.00301,-0.603603,-0.14842,18,32765
1.00955,-0.612131,-0.14903,19,32765
1.03298,-0.631062,-0.152056,19,32765
1.03094,-0.634537,-0.151423,18,32765
1.00356,-0.622353,-0.147099,18,32765
0.984712,-0.615215,-0.144057,19,32765
0.98274,-0.618536,-0.143304,19,32765
0.980748,-0.621851,-0.142601,19,32765
1.00386,-0.641141,-0.145632,20,32765
1.01013,-0.649899,-0.146147,19,32765
0.983071,-0.63707,-0.141819,19,32765
0.989367,-0.645762,-0.142279,19,32765
0.995612,-0.654509,-0.142742,19,32765
0.976986,-0.646851,-0.139582,18,32765
0.941855,-0.628106,-0.134138,19,32765
0.948079,-0.636811,-0.134599,19,32765
0.946053,-0.639957,-0.133937,19,32765
0.968653,-0.65989,-0.136591,19,32765
0.991125,-0.679995,-0.139202,20,32765
0.964431,-0.666377,-0.134965,19,32765
0.937859,-0.652553,-0.130747,20,32765
0.927713,-0.649892,-0.128797,21,32765
0.958182,-0.675839,-0.1324,19,32765
0.931802,-0.661678,-0.128173,19,32765
0.945873,-0.67635,-0.129519,20,32765
0.967964,-0.696887,-0.131886,16,32765
0,-0,-0,0,32765
0,-0,-0,0,32765
0,-0,-0,0,32765
0,-0,-0,0,32765
1.30003,-0.403857,-0.226318,19,32765
1.3176,-0.414042,-0.229104,19,32765
1.29745,-0.412497,-0.225519,19,32765
1.28674,-0.41386,-0.223413,19,32765
1.29478,-0.421295,-0.224647,19,32765
1.2934,-0.425706,-0.224273,18,32765
0,-0,-0,0,32765
1.43095,-0.481668,-0.247548,11,32765
1.21454,-0.413354,-0.209837,13,32765
1.20387,-0.414302,-0.207704,16,32765
1.23049,-0.42819,-0.212009,19,32765
1.26634,-0.445536,-0.21793,20,32765
1.26489,-0.449901,-0.217325,20,32765
1.26344,-0.454196,-0.216836,20,32765
1.23414,-0.448432,-0.211451,20,32765
1.2234,-0.449262,-0.209422,19,32765
1.23121,-0.456882,-0.21042,19,32765
1.24822,-0.468026,-0.213062,20,32765
1.20977,-0.458283,-0.20623,18,32765
1.21747,-0.46603,-0.20733,15,32765
1.20673,-0.466665,-0.205254,19,32765
1.2052,-0.470866,-0.204637,20,32765
1.24043,-0.489523,-0.210262,20,32765
1.21131,-0.482779,-0.205042,20,32765
1.19142,-0.479549,-0.201392,19,32765
1.18986,-0.483602,-0.200891,18,32765
1.16088,-0.476411,-0.195681,19,32765
1.19583,-0.495543,-0.201323,20,32765
1.19417,-0.499723,-0.200818,20,32765
1.18338,-0.500119,-0.198746,20,32765
1.16349,-0.496599,-0.195156,20,32765
1.15274,-0.496809,-0.193034,19,32765
1.15108,-0.500841,-0.192538,20,32765
1.16754,-0.512763,-0.194997,20,32765
1.14777,-0.508777,-0.191484,19,32765
1.14609,-0.512745,-0.190976,18,32765
1.17142,-0.528894,-0.195033,18,32765
1.13369,-0.516556,-0.188454,20,32765
1.14096,-0.524612,-0.189481,19,32765
1.12126,-0.520278,-0.185992,19,32765
1.1195,-0.52421,-0.185506,19,32765
1.12669,-0.532345,-0.186474,19,32765
1.13383,-0.540538,-0.187459,19,32765
1.08747,-0.523019,-0.179618,19,32765
1.13023,-0.548387,-0.186432,21,32765
1.12838,-0.552317,-0.186005,20,32765
1.09996,-0.543047,-0.181078,19,32765
1.11586,-0.555667,-0.183574,20,32765
1.06984,-0.537266,-0.17573,20,32765
1.08571,-0.549918,-0.178139,20,32765
1.10149,-0.562703,-0.180538,20,32765
1.07318,-0.552988,-0.17576,20,32765
1.08887,-0.5659,-0.17813,18,32765
1.08699,-0.56967,-0.177535,19,32765
1.06759,-0.564202,-0.174168,19,32765
1.07442,-0.572569,-0.175174,20,32765
1.05511,-0.566882,-0.171727,20,32765
1.05324,-0.570492,-0.171216,20,32765
1.06877,-0.583554,-0.173464,20,32765
1.04084,-0.572868,-0.168763,20,32765
1.05629,-0.586031,-0.170943,20,32765
1.05438,-0.589601,-0.170454,21,32765
1.03518,-0.583506,-0.167122,20,32765
1.04188,-0.591926,-0.167962,19,32765
1.02273,-0.585677,-0.164652,19,32765
1.03795,-0.599104,-0.16684,20,32765
1.00173,-0.582748,-0.160755,20,32765
1.02548,-0.601172,-0.164291,21,32765
0.997959,-0.58952,-0.159515,19,32765
1.02156,-0.608132,-0.16304,20,32765
1.01955,-0.611617,-0.162627,20,32765
1.0515,-0.635568,-0.16732,19,32765
1.00713,-0.613357,-0.159925,19,32765
0.996711,-0.611591,-0.157872,19,32765
0.986306,-0.609744,-0.155925,20,32765
1.01796,-0.634071,-0.160645,20,32765
0.990718,-0.621704,-0.156086,20,32765
0.997105,-0.630354,-0.156641,19,32765
0.995075,-0.633729,-0.155925,20,32765
0.99305,-0.63705,-0.155304,20,32765
1.01598,-0.656557,-0.158514,19,32765
0.972332,-0.632909,-0.151317,19,32765
0.978621,-0.641588,-0.151874,19,32765
0.976583,-0.644856,-0.151152,20,32765
0.966289,-0.642617,-0.149096,20,32765
0.955978,-0.640366,-0.147096,20,32765
0.962143,-0.649142,-0.147634,20,32765
0.960077,-0.652346,-0.14696,21,32765
0.949825,-0.649957,-0.144876,20,32765
0.972268,-0.670043,-0.147775,20,32765
0.961973,-0.667657,-0.145746,19,32765
0.943596,-0.659489,-0.142481,20,32765
0.974035,-0.685406,-0.146538,19,32765
0.92332,-0.654176,-0.138325,15,32765
0.953643,-0.680233,-0.142294,12,32765
0,-0,-0,0,32765
0,-0,-0,0,32765
0,-0,-0,0,32765
0,-0,-0,0,32765
0,-0,-0,0,32765
0,0,0,0,32765
0,0,0,0,32765
0,0,0,0,32765
0,-0,0,0,32765
0,-0,0,0,32765
0,-0,0,0,32765
0,-0,0,0,32765
0,-0,0,0,32765
0,-0,0,0,32765
0,-0,0,0,32765
0,-0,0,0,32765
11.2283,-0.332788,1.94309,11,32765
11.1091,-0.365276,1.92187,14,32765
11.0885,-0.401056,1.91616,14,32765
11.0285,-0.434873,1.90369,14,32765
11.0469,-0.471982,1.90593,12,32765
11.0161,-0.506901,1.89875,16,32765
10.9755,-0.540389,1.88917,15,32765
11.0426,-0.580126,1.90053,25,32765
11.0704,-0.617665,1.90439,35,32765
11.0588,-0.653734,1.90077,34,32765
11.0666,-0.690657,1.9017,35,32765
11.0743,-0.727391,1.90219,34,32765
11.0722,-0.763396,1.90052,22,32765
11.0405,-0.797094,1.8933,12,32765
11.0576,-0.834893,1.89616,12,32765
11.0745,-0.873026,1.89883,12,32765
11.1306,-0.914257,1.90884,18,32765
11.1279,-0.951446,1.90622,18,32765
11.1149,-0.986976,1.90435,16,32765
11.1708,-1.0289,1.91271,15,32765
11.1479,-1.06376,1.90854,14,32765
11.1641,-1.10184,1.91137,13,32765
11.1801,-1.1403,1.91448,12,32765
11.1764,-1.17667,1.91392,12,32765
11.0845,-1.2035,1.89796,12,32765
11.2472,-1.2587,1.92527,12,32765
11.2624,-1.29798,1.92953,12,32765
11.1996,-1.32804,1.91825,12,32765
11.3028,-1.37769,1.937,12,32765
11.2691,-1.41103,1.93043,12,32765
11.3523,-1.45988,1.94563,12,32765
11.3471,-1.49801,1.94698,12,32765
11.2835,-1.52817,1.93634,12,32765
11.376,-1.57867,1.9535,12,32765
11.3316,-1.60982,1.94799,12,32765
11.2874,-1.64068,1.9413,12,32765
11.36,-1.68874,1.9547,12,32765
11.3153,-1.72057,1.9483,12,32765
11.4944,-1.78694,1.98124,12,32765
11.43,-1.81652,1.9703,12,32765
11.4238,-1.85523,1.97025,12,32765
11.4561,-1.90006,1.97874,12,32765
11.4106,-1.93221,1.97307,12,32765
11.4429,-1.9765,1.98013,12,32765
11.5626,-2.03638,2.00185,12,32765
11.4975,-2.0641,1.99249,12,32765
11.4904,-2.10182,1.99361,12,32765
11.5416,-2.15061,2.0034,13,32765
11.4957,-2.18108,1.99716,12,32765
11.4884,-2.21899,1.99746,11,32765
11.268,-2.21523,1.96124,11,32765
11.2607,-2.25221,1.96149,11,32765
11.1758,-2.27382,1.94844,11,32765
11.0813,-2.29273,1.93365,11,32765
11.0351,-2.32118,1.92682,12,32765
10.9887,-2.3497,1.92034,12,32765
11.0771,-2.40663,1.93804,13,32765
11.0692,-2.44339,1.93693,12,32765
10.9646,-2.45863,1.92174,12,32765
10.8122,-2.46202,1.89639,12,32765
10.8616,-2.51101,1.90709,12,32765
10.767,-2.52649,1.89144,12,32765
10.7204,-2.55297,1.88358,12,32765
10.7309,-2.59279,1.88826,12,32765
10.6651,-2.6138,1.87709,11,32765
10.5703,-2.62701,1.86265,11,32765
10.4853,-2.64183,1.84917,12,32765
10.4578,-2.67113,1.84458,12,32765
10.4015,-2.69242,1.83575,11,32765
10.3354,-2.71141,1.82573,11,32765
10.3836,-2.76044,1.83588,11,32765
10.156,-2.7348,1.79598,11,32765
10.1852,-2.77829,1.8021,12,32765
10.1381,-2.80054,1.79571,12,32765
10.205,-2.85457,1.80859,12,32765
10.2812,-2.91203,1.82265,12,32765
10.1485,-2.90967,1.80157,14,32765
10.1771,-2.9537,1.80685,13,32765
10.1395,-2.97737,1.80128,15,32765
10.1302,-3.00978,1.79988,14,32765
10.1114,-3.03915,1.79662,13,32765
10.017,-3.04538,1.78042,13,32765
10.0357,-3.08623,1.78418,20,32765
10.0826,-3.13511,1.79367,12,32765
12.1702,-3.82657,2.16487,12,32765
12.074,-3.83745,2.14828,11,32765
0,-0,0,0,32765
0,-0,0,0,32765
12.1802,-3.99479,2.16414,11,32765
0,-0,0,0,32765
0,0,0,0,32765
0,0,0,0,32765
0,0,0,0,32765
0,-0,0,0,32765
0,-0,0,0,32765
0,-0,0,0,32765
0,-0,0,0,32765
0,-0,0,0,32765
0,-0,0,0,32765
0,-0,0,0,32765
0,-0,0,0,32765
0,-0,0,0,32765
11.2155,-0.367946,1.83143,12,32765
11.1752,-0.403421,1.82266,18,32765
11.1347,-0.438354,1.81395,16,32765
11.0545,-0.471663,1.79994,16,32765
10.9645,-0.503944,1.78341,13,32765
11.0323,-0.542654,1.79183,20,32765
11.0009,-0.577463,1.78653,22,32765
11.0288,-0.614923,1.79011,33,32765
11.0762,-0.654404,1.79618,45,32765
11.1333,-0.694515,1.805,46,32765
11.141,-0.731523,1.8054,46,32765
11.1487,-0.76848,1.80531,46,32765
11.1169,-0.802479,1.79835,30,32765
11.0356,-0.833156,1.7851,14,32765
11.0427,-0.8705,1.78599,13,32765
11.0595,-0.908457,1.78908,13,32765
11.1453,-0.953036,1.80078,13,32765
11.1028,-0.986058,1.79423,13,32765
11.1391,-1.0262,1.79886,13,32765
11.1358,-1.06288,1.79805,13,32765
11.1324,-1.09904,1.79752,13,32765
11.1681,-1.13947,1.80362,13,32765
11.2135,-1.18102,1.81099,13,32765
11.2588,-1.22294,1.81806,13,32765
11.2647,-1.26123,1.81842,13,32765
11.2701,-1.2995,1.82092,13,32765
11.1973,-1.32847,1.80861,13,32765
11.3007,-1.3782,1.82634,13,32765
11.2768,-1.4128,1.82163,13,32765
11.3112,-1.45546,1.82807,13,32765
11.2668,-1.48834,1.82309,13,32765
11.301,-1.53154,1.82885,13,32765
11.3056,-1.56995,1.83082,13,32765
11.3198,-1.60926,1.83518,13,32765
11.3732,-1.65433,1.84471,13,32765
11.3678,-1.69114,1.84469,13,32765
11.4011,-1.73492,1.85134,13,32765
11.4146,-1.7759,1.85557,13,32765
11.3892,-1.81145,1.85153,13,32765
11.4122,-1.85484,1.85624,14,32765
11.3959,-1.89162,1.85642,12,32765
11.4184,-1.93515,1.86223,13,32765
11.4508,-1.97954,1.86892,14,32765
11.4637,-2.02071,1.87197,13,32765
11.5151,-2.0691,1.88222,13,32765
11.5081,-2.10694,1.88335,13,32765
11.5011,-2.14501,1.88304,14,32765
11.5521,-2.1938,1.89307,15,32765
11.4963,-2.22258,1.88542,13,32765
11.3337,-2.23025,1.86079,12,32765
11.3844,-2.27913,1.8706,12,32765
11.2122,-2.28344,1.84397,12,32765
11.2045,-2.3205,1.84434,12,32765
11.1099,-2.33923,1.82993,12,32765
11.0247,-2.35977,1.81745,13,32765
11.065,-2.40643,1.82627,14,32765
10.9993,-2.43043,1.81562,15,32765
11.0101,-2.47139,1.82046,14,32765
10.9057,-2.48587,1.80447,12,32765
10.8396,-2.50855,1.7955,14,32765
10.8505,-2.5488,1.7982,13,32765
10.7174,-2.55498,1.77639,12,32765
10.7663,-2.60415,1.78726,12,32765
10.614,-2.60412,1.76231,12,32765
10.5671,-2.62908,1.75667,12,32765
10.5202,-2.65355,1.75031,12,32765
10.55,-2.69768,1.75545,12,32765
10.4744,-2.71434,1.7439,12,32765
10.4177,-2.73608,1.73604,12,32765
10.3991,-2.7677,1.73449,12,32765
10.2569,-2.76514,1.71104,12,32765
10.2479,-2.79864,1.71042,12,32765
10.1627,-2.81059,1.69805,12,32765
10.1631,-2.84616,1.69907,13,32765
10.1824,-2.88744,1.70276,12,32765
10.1825,-2.92286,1.70513,14,32765
10.2205,-2.96983,1.71163,19,32765
10.2112,-3.00203,1.7111,17,32765
10.1639,-3.02346,1.70334,19,32765
10.1923,-3.0672,1.7081,19,32765
10.0882,-3.0708,1.69114,15,32765
10.0597,-3.09742,1.68671,18,32765
10.0877,-3.1406,1.69248,31,32765
10.0309,-3.15786,1.68269,15,32765
12.2325,-3.89271,2.05244,13,32765
12.1553,-3.90885,2.03812,12,32765
12.2188,-3.97105,2.04745,12,32765
12.1694,-3.99634,2.0385,11,32765
12.1954,-4.04625,2.03985,11,32765
0,0,0,0,32765
0,0,0,0,32765
0,0,0,0,32765
0,-0,0,0,32765
0,-0,0,0,32765
0,-0,0,0,32765
0,-0,0,0,32765
0,-0,0,0,32765
0,-0,0,0,32765
0,-0,0,0,32765
0,-0,0,0,32765
0,-0,0,0,32765
0,-0,0,0,32765
0,-0,0,0,32765
11.2191,-0.418098,1.73376,15,32765
11.1189,-0.451259,1.71868,14,32765
11.0086,-0.482478,1.70283,14,32765
10.9575,-0.516336,1.69589,12,32765
10.9655,-0.552642,1.69818,15,32765
10.9636,-0.589111,1.69816,17,32765
11.0208,-0.62889,1.70735,24,32765
11.0482,-0.666554,1.71289,34,32765
11.0657,-0.704068,1.71566,34,32765
11.0732,-0.74085,1.71711,36,32765
11.0805,-0.778046,1.71894,34,32765
11.0975,-0.816565,1.72255,21,32765
11.0551,-0.850466,1.71733,12,32765
11.0523,-0.887197,1.71697,12,32765
11.0987,-0.927465,1.7236,12,32765
11.1744,-0.970831,1.73569,12,32765
11.0726,-0.998363,1.72156,12,32765
11.0691,-1.03482,1.72221,12,32765
11.1248,-1.07749,1.7304,12,32765
11.121,-1.11451,1.73158,12,32765
11.2058,-1.16096,1.74424,12,32765
11.2413,-1.20184,1.75,12,32765
11.2373,-1.23803,1.75038,12,32765
11.1448,-1.26484,1.73668,12,32765
11.229,-1.31168,1.74996,12,32765
11.2835,-1.35674,1.75835,12,32765
11.2591,-1.3923,1.75614,12,32765
11.2741,-1.43176,1.75893,12,32765
11.2105,-1.46179,1.74976,12,32765
11.294,-1.51023,1.76241,12,32765
11.2791,-1.54662,1.76068,12,32765
11.3033,-1.58828,1.76473,12,32765
11.396,-1.63926,1.77931,12,32765
11.3905,-1.67669,1.77959,12,32765
11.346,-1.70758,1.77313,12,32765
11.3015,-1.73906,1.76538,12,32765
11.4225,-1.7965,1.78607,12,32765
11.3284,-1.82079,1.77314,12,32765
11.3903,-1.87034,1.78456,12,32765
11.3841,-1.9085,1.78422,12,32765
11.4945,-1.96702,1.80174,12,32765
11.4294,-1.9951,1.79308,12,32765
11.4424,-2.03598,1.79548,12,32765
11.4744,-2.0802,1.80335,12,32765
11.4871,-2.12105,1.80587,12,32765
11.441,-2.15142,1.80077,12,32765
11.4533,-2.1926,1.80406,13,32765
11.4265,-2.22641,1.80167,12,32765
11.4193,-2.26405,1.8007,12,32765
11.3729,-2.29381,1.79557,12,32765
11.3072,-2.31943,1.78632,11,32765
11.1445,-2.32438,1.76276,11,32765
11.0592,-2.34452,1.75218,12,32765
11.0512,-2.38111,1.75329,12,32765
11.1495,-2.44042,1.77085,12,32765
11.0353,-2.45394,1.75329,13,32765
11.0653,-2.49899,1.7619,12,32765
11.0764,-2.53946,1.765,11,32765
10.8462,-2.52437,1.7323,13,32765
10.7898,-2.54788,1.7257,12,32765
10.7429,-2.57413,1.71911,11,32765
10.7534,-2.61341,1.72452,11,32765
10.687,-2.63387,1.71743,12,32765
10.5919,-2.64706,1.70505,11,32765
10.5447,-2.67165,1.70019,11,32765
10.4783,-2.69117,1.69256,11,32765
10.4691,-2.7254,1.6947,11,32765
10.3548,-2.73145,1.67987,11,32765
10.3456,-2.7653,1.6812,11,32765
10.3744,-2.80891,1.6899,12,32765
10.1647,-2.788,1.65977,11,32765
10.2315,-2.84181,1.67422,12,32765
10.1839,-2.86387,1.67041,12,32765
10.1362,-2.88616,1.66603,12,32765
10.212,-2.94357,1.68175,15,32765
10.1639,-2.96583,1.67843,15,32765
10.1916,-3.00984,1.68792,15,32765
10.2006,-3.04729,1.69445,16,32765
10.162,-3.07081,1.69292,14,32765
10.0573,-3.07373,1.68076,13,32765
10.047,-3.10595,1.68352,22,32765
10.0644,-3.14736,1.6922,15,32765
12.1249,-3.83468,2.04376,12,32765
12.168,-3.89142,2.05906,12,32765
12.0703,-3.90214,2.05025,11,32765
0,-0,0,0,32765
12.2872,-4.05806,2.10455,11,32765
0,0,0,0,32765
0,0,0,0,32765
0,0,0,0,32765
0,-0,0,0,32765
0,-0,0,0,32765
0,-0,0,0,32765
0,-0,0,0,32765
0,-0,0,0,32765
0,-0,0,0,32765
0,-0,0,0,32765
0,-0,0,0,32765
0,-0,0,0,32765
0,-0,0,0,32765
0,-0,0,0,32765
0,-0,0,0,32765
11.1643,-0.4526,1.61792,17,32765
11.1429,-0.487918,1.61602,17,32765
11.0719,-0.521343,1.60668,16,32765
11.0502,-0.556588,1.60458,13,32765
10.9989,-0.590744,1.59738,19,32765
11.0364,-0.629575,1.60314,24,32765
11.0243,-0.664966,1.60266,32,32765
11.0616,-0.703718,1.60812,36,32765
11.0592,-0.739886,1.60803,31,32765
11.0863,-0.778482,1.61265,28,32765
11.0737,-0.814903,1.61175,22,32765
11.0609,-0.851058,1.61122,14,32765
11.0482,-0.887076,1.60943,13,32765
11.0848,-0.926571,1.61415,13,32765
11.0817,-0.963108,1.61401,13,32765
11.0784,-0.999271,1.61517,13,32765
11.0749,-1.0358,1.61582,13,32765
11.1011,-1.0757,1.61914,13,32765
11.1563,-1.11863,1.62895,13,32765
11.1527,-1.15609,1.62784,13,32765
11.1489,-1.19265,1.62748,13,32765
11.2138,-1.2362,1.63791,13,32765
11.2195,-1.27413,1.63942,13,32765
11.176,-1.30637,1.63319,13,32765
11.2109,-1.34896,1.63815,13,32765
11.216,-1.38797,1.64042,13,32765
11.2507,-1.42985,1.64591,13,32765
11.2655,-1.47009,1.64879,13,32765
11.2706,-1.5083,1.64911,13,32765
11.3243,-1.55409,1.65752,13,32765
11.3191,-1.59183,1.65698,13,32765
11.2846,-1.62463,1.65199,13,32765
11.3379,-1.6704,1.66087,13,32765
11.3325,-1.70707,1.66053,13,32765
11.3857,-1.75362,1.66748,13,32765
11.4188,-1.79759,1.67406,13,32765
11.3735,-1.82976,1.66913,13,32765
11.4061,-1.87473,1.6756,13,32765
11.3998,-1.91301,1.67526,14,32765
11.4812,-1.96668,1.68736,13,32765
11.4745,-2.00497,1.68787,13,32765
11.468,-2.04261,1.68722,14,32765
11.4999,-2.08698,1.69472,14,32765
11.5126,-2.12798,1.69705,13,32765
11.5249,-2.16947,1.70094,13,32765
11.5177,-2.20727,1.70118,14,32765
11.5491,-2.25271,1.70759,16,32765
11.5029,-2.28311,1.70088,13,32765
11.4079,-2.3034,1.68895,12,32765
11.3614,-2.33314,1.68313,12,32765
11.2663,-2.35242,1.67112,12,32765
11.2002,-2.37709,1.66419,12,32765
11.0954,-2.39333,1.65092,13,32765
11.0874,-2.42961,1.65162,14,32765
11.0793,-2.46658,1.65092,15,32765
11.0997,-2.50968,1.65773,16,32765
10.9661,-2.51712,1.63903,13,32765
10.8802,-2.53528,1.6301,12,32765
10.8141,-2.55665,1.62252,15,32765
10.796,-2.58994,1.62064,13,32765
10.768,-2.6201,1.62009,12,32765
10.6631,-2.63115,1.60778,12,32765
10.5871,-2.64907,1.59913,12,32765
10.6166,-2.69314,1.60626,13,32765
10.5692,-2.71785,1.6021,12,32765
10.5216,-2.74244,1.59844,12,32765
10.4358,-2.75623,1.58902,12,32765
10.3692,-2.77505,1.58161,12,32765
10.3025,-2.79294,1.57535,12,32765
10.2643,-2.81886,1.57348,12,32765
10.2167,-2.8413,1.56964,13,32765
10.2167,-2.87674,1.57354,13,32765
10.1214,-2.88561,1.56219,12,32765
10.1497,-2.92938,1.56973,13,32765
10.2061,-2.98197,1.58296,19,32765
10.158,-3.00377,1.58029,19,32765
10.148,-3.03552,1.58366,18,32765
10.1947,-3.08468,1.59574,22,32765
10.1182,-3.09636,1.58897,17,32765
10.07,-3.11714,1.5858,17,32765
10.1252,-3.17052,1.60018,36,32765
10.0674,-3.18817,1.5952,20,32765
12.1656,-3.89579,1.93556,13,32765
12.1243,-3.92477,1.9366,12,32765
11.9417,-3.9076,1.91557,11,32765
11.8065,-3.90447,1.90235,12,32765
0,0,0,0,32765
0,0,0,0,32765
0,0,0,0,32765
0,-0,0,0,32765
0,-0,0,0,32765
0,-0,0,0,32765
0,-0,0,0,32765
0,-0,0,0,32765
0,-0,0,0,32765
0,-0,0,0,32765
0,-0,0,0,32765
0,-0,0,0,32765
0,-0,0,0,32765
0,-0,0,0,32765
0,-0,0,0,32765
11.1898,-0.460533,1.57875,12,32765
11.1787,-0.496692,1.57474,15,32765
11.0882,-0.529059,1.56056,15,32765
10.9582,-0.558781,1.54042,14,32765
11.0553,-0.600064,1.55295,13,32765
11.0339,-0.635186,1.54765,19,32765
10.9332,-0.665686,1.53159,16,32765
10.9211,-0.70113,1.52975,13,32765
11.0079,-0.743217,1.54093,12,32765
10.9658,-0.776464,1.53558,12,32765
11.1314,-0.824709,1.55729,12,32765
11.0401,-0.854374,1.54255,12,32765
11.1063,-0.895875,1.5521,12,32765
11.0738,-0.929544,1.54743,12,32765
11.0709,-0.96543,1.54626,12,32765
11.0974,-1.00479,1.5496,12,32765
11.1137,-1.04389,1.55182,12,32765
11.1103,-1.08135,1.55069,12,32765
11.146,-1.12301,1.55601,12,32765
11.1424,-1.15936,1.55563,12,32765
11.178,-1.19947,1.56065,12,32765
11.1347,-1.23127,1.55552,12,32765
11.1699,-1.27175,1.56124,12,32765
11.1658,-1.30849,1.56082,12,32765
11.2891,-1.36064,1.57947,12,32765
11.2453,-1.39339,1.57325,12,32765
11.28,-1.43542,1.57859,12,32765
11.2359,-1.46741,1.57349,12,32765
11.2308,-1.50507,1.57392,12,32765
11.3339,-1.55661,1.5882,12,32765
11.3286,-1.59413,1.58897,12,32765
11.2742,-1.62429,1.5821,12,32765
11.3177,-1.66843,1.58982,12,32765
11.3122,-1.70554,1.58981,12,32765
11.3259,-1.74592,1.59397,12,32765
11.3983,-1.79602,1.6052,12,32765
11.353,-1.82808,1.59963,12,32765
11.386,-1.87259,1.605,12,32765
11.3794,-1.91096,1.60611,12,32765
11.4022,-1.95396,1.61101,12,32765
11.4541,-2.00201,1.61967,12,32765
11.4474,-2.04027,1.61935,12,32765
11.5181,-2.09261,1.63304,13,32765
11.4916,-2.12707,1.63031,12,32765
11.5139,-2.17026,1.63394,12,32765
11.4968,-2.20604,1.63359,12,32765
11.4116,-2.22877,1.62318,12,32765
11.4041,-2.26642,1.62402,13,32765
11.4741,-2.31991,1.63539,12,32765
11.3887,-2.34201,1.6248,11,32765
11.381,-2.37962,1.62426,11,32765
11.1888,-2.37873,1.59865,11,32765
11.2775,-2.43663,1.61379,11,32765
11.0274,-2.42116,1.57932,12,32765
11.0579,-2.46656,1.58518,12,32765
11.0498,-2.5029,1.5846,13,32765
11.0413,-2.53905,1.58615,12,32765
10.9462,-2.55474,1.57352,12,32765
10.8993,-2.58132,1.56782,11,32765
10.8331,-2.60275,1.55965,13,32765
10.8243,-2.63883,1.55988,12,32765
10.7675,-2.66281,1.55257,11,32765
10.6434,-2.66941,1.5355,11,32765
10.5674,-2.68726,1.52604,11,32765
10.5587,-2.72127,1.52597,12,32765
10.5114,-2.74527,1.52116,11,32765
10.3784,-2.74599,1.50143,11,32765
10.4269,-2.7946,1.51008,11,32765
10.3605,-2.81259,1.50148,12,32765
10.3898,-2.85628,1.50636,11,32765
10.2564,-2.85537,1.48827,11,32765
10.1708,-2.86753,1.4768,12,32765
10.1425,-2.89496,1.47365,12,32765
10.1904,-2.94412,1.48068,12,32765
10.181,-2.97689,1.47998,12,32765
10.2189,-3.02364,1.48619,15,32765
10.2281,-3.06247,1.48857,16,32765
10.1615,-3.07782,1.47957,15,32765
10.1804,-3.11867,1.48207,19,32765
10.1425,-3.14151,1.47613,15,32765
9.96273,-3.11956,1.45049,14,32765
10.0287,-3.17478,1.45968,31,32765
10.1038,-3.23336,1.4708,31,32765
0,-0,0,0,32765
11.3836,-3.72075,1.65495,15,32765
0,-0,0,0,32765
0,0,0,0,32765
0,0,0,0,32765
0,0,0,43,32765
0,-0,0,38,32765
0,-0,0,0,32765
0,-0,0,0,32765
0,-0,0,0,32765
0,-0,0,0,32765
0,-0,0,0,32765
0,-0,0,0,32765
0,-0,0,0,32765
0,-0,0,0,32765
0,-0,0,0,32765
0,-0,0,0,32765
0,-0,0,0,32765
0,-0,0,0,32765
11.1832,-0.496602,1.46782,13,32765
11.1817,-0.533293,1.46617,18,32765
11.1306,-0.567416,1.4576,16,32765
11.0596,-0.600197,1.44715,15,32765
11.048,-0.635963,1.44332,13,32765
11.0263,-0.671387,1.43852,24,32765
10.9647,-0.704021,1.43032,20,32765
10.9229,-0.737637,1.42388,16,32765
10.9798,-0.777667,1.4318,14,32765
10.9972,-0.815044,1.4326,14,32765
10.9947,-0.851209,1.43031,14,32765
11.071,-0.89343,1.44049,14,32765
11.078,-0.930359,1.44125,14,32765
11.1146,-0.969768,1.44522,14,32765
11.0818,-1.00397,1.44056,13,32765
11.0586,-1.03937,1.43747,13,32765
11.0947,-1.08055,1.44147,13,32765
11.091,-1.11826,1.44129,13,32765
11.1169,-1.15757,1.44476,13,32765
11.1132,-1.19343,1.44428,14,32765
11.1191,-1.23053,1.44593,14,32765
11.1248,-1.26766,1.44743,13,32765
11.1699,-1.31009,1.45342,13,32765
11.195,-1.35047,1.45803,13,32765
11.1905,-1.38784,1.45732,13,32765
11.3236,-1.4423,1.47511,13,32765
11.2696,-1.4732,1.4691,13,32765
11.235,-1.50707,1.46569,14,32765
11.2694,-1.54927,1.46996,14,32765
11.2838,-1.5894,1.4733,15,32765
11.357,-1.63787,1.48356,16,32765
11.3122,-1.66933,1.47928,18,32765
11.3263,-1.70945,1.48183,20,32765
11.3498,-1.75145,1.48709,21,32765
11.3536,-1.79091,1.48859,22,32765
11.3769,-1.83392,1.49238,24,32765
11.4001,-1.87698,1.49609,26,32765
11.4131,-1.91875,1.49977,22,32765
11.4163,-1.95858,1.50183,14,32765
11.3706,-1.98968,1.49707,14,32765
11.4322,-2.03992,1.50575,13,32765
11.4835,-2.08875,1.51612,13,32765
11.5155,-2.134,1.5213,15,32765
11.489,-2.16815,1.51821,14,32765
11.5499,-2.21888,1.52827,13,32765
11.4743,-2.24372,1.51991,13,32765
11.4862,-2.2855,1.52333,14,32765
11.5271,-2.33347,1.53008,16,32765
11.4512,-2.35777,1.52153,13,32765
11.4337,-2.39362,1.5197,12,32765
11.3188,-2.40939,1.50619,12,32765
11.233,-2.4301,1.49717,12,32765
11.1377,-2.44848,1.48571,12,32765
11.1197,-2.48353,1.48474,13,32765
11.1309,-2.52451,1.48674,14,32765
11.0933,-2.55432,1.48442,16,32765
11.0753,-2.58824,1.48298,15,32765
10.9703,-2.60156,1.4699,13,32765
10.8461,-2.60933,1.45453,13,32765
10.8373,-2.64551,1.45477,16,32765
10.8189,-2.67909,1.4531,12,32765
10.7331,-2.69552,1.44232,12,32765
10.7434,-2.7357,1.44515,12,32765
10.5521,-2.72326,1.42052,12,32765
10.5815,-2.76734,1.42643,12,32765
10.5153,-2.78604,1.41694,12,32765
10.4584,-2.8069,1.41083,12,32765
10.4493,-2.84062,1.41054,12,32765
10.3733,-2.85573,1.40084,12,32765
10.3926,-2.89735,1.40463,12,32765
10.3545,-2.92342,1.40035,12,32765
10.1829,-2.91061,1.37803,12,32765
10.1451,-2.9352,1.3729,13,32765
10.2023,-2.98739,1.38122,12,32765
10.1547,-3.00894,1.37537,13,32765
10.2019,-3.05903,1.38273,20,32765
10.1542,-3.08006,1.37687,17,32765
10.1636,-3.11806,1.3778,17,32765
10.1825,-3.15851,1.37985,17,32765
2.57394,-0.807146,0.348913,12,32765
2.59036,-0.821243,0.35101,12,32765
2.6917,-0.862664,0.36477,13,32765
2.53811,-0.822223,0.343605,13,32765
2.52621,-0.826938,0.341822,13,32765
2.46737,-0.81585,0.332977,13,32765
0,0,0,0,32765
0,0,0,0,32765
0,0,0,0,32765
0,0,0,0,32765
0,-0,0,0,32765
0,-0,0,0,32765
0,-0,0,0,32765
0,-0,0,0,32765
0,-0,0,0,32765
0,-0,0,0,32765
0,-0,0,0,32765
0,-0,0,0,32765
0,-0,0,0,32765
0,-0,0,0,32765
0,-0,0,0,32765
0,-0,0,0,32765
0,-0,0,0,32765
11.2828,-0.516829,1.39092,11,32765
11.2215,-0.550781,1.38473,15,32765
11.0907,-0.580319,1.36966,14,32765
11.0391,-0.614047,1.36402,14,32765
11.0568,-0.651484,1.36662,12,32765
10.9952,-0.684102,1.35962,21,32765
10.9532,-0.717564,1.35475,16,32765
10.9408,-0.752724,1.3545,14,32765
11.0471,-0.797122,1.36812,12,32765
11.084,-0.837144,1.37272,12,32765
11.0414,-0.871417,1.36853,12,32765
10.9792,-0.903107,1.36056,12,32765
11.0156,-0.942561,1.36642,12,32765
11.0519,-0.981998,1.37225,12,32765
11.0488,-1.01784,1.37142,12,32765
11.1342,-1.0629,1.38292,12,32765
11.1307,-1.1002,1.38241,12,32765
11.0577,-1.13074,1.37447,12,32765
11.0735,-1.16984,1.37717,12,32765
11.1586,-1.21597,1.38714,12,32765
11.1544,-1.25265,1.38794,12,32765
11.1503,-1.28903,1.38779,12,32765
11.1462,-1.32572,1.38615,13,32765
11.2105,-1.37117,1.39624,13,32765
11.1467,-1.4012,1.38893,14,32765
11.2109,-1.44709,1.39739,15,32765
11.265,-1.49226,1.40549,17,32765
11.2797,-1.53206,1.40755,17,32765
11.2845,-1.57076,1.40807,19,32765
11.2793,-1.60778,1.40806,19,32765
11.2738,-1.64531,1.40854,20,32765
11.3369,-1.69332,1.41762,19,32765
11.3017,-1.72683,1.41405,18,32765
11.3253,-1.76936,1.41728,18,32765
11.3391,-1.81023,1.4191,18,32765
11.3527,-1.85082,1.42101,20,32765
11.3659,-1.89148,1.42474,20,32765
11.3889,-1.93423,1.42854,17,32765
11.4216,-1.979,1.43309,12,32765
11.4343,-2.02083,1.43627,12,32765
11.5252,-2.07636,1.44831,12,32765
11.5184,-2.11405,1.44799,13,32765
11.4528,-2.14058,1.44155,13,32765
11.4652,-2.18169,1.44444,12,32765
11.4384,-2.21563,1.44252,12,32765
11.5966,-2.2861,1.46334,12,32765
11.5012,-2.30678,1.45352,13,32765
11.5225,-2.3514,1.45782,12,32765
11.4075,-2.3679,1.44532,11,32765
11.3994,-2.40571,1.44681,11,32765
11.2655,-2.4157,1.43038,11,32765
11.3253,-2.46703,1.44017,11,32765
11.1038,-2.45717,1.41417,12,32765
11.1147,-2.49858,1.41814,12,32765
11.1062,-2.53563,1.41897,13,32765
11.1167,-2.57717,1.42358,13,32765
11.0502,-2.59967,1.41727,12,32765
10.9161,-2.60554,1.40216,12,32765
10.8495,-2.62674,1.39699,12,32765
10.8215,-2.65731,1.3956,13,32765
10.7645,-2.68026,1.39069,12,32765
10.7747,-2.7199,1.39554,12,32765
10.5446,-2.69831,1.36828,11,32765
0,-0,0,0,32765
0,-0,0,0,32765
0,-0,0,0,32765
0,-0,0,0,32765
0,-0,0,0,32765
0,-0,0,0,32765
0,-0,0,0,32765
0,-0,0,0,32765
0,-0,0,0,32765
0,-0,0,0,32765
0,-0,0,0,32765
0,-0,0,0,32765
10.3034,-3.10475,1.38706,15,32765
10.1128,-3.08233,1.36598,15,32765
10.2066,-3.14661,1.38459,17,32765
0,-0,0,0,32765
0,-0,0,0,32765
0,-0,0,23,32765
0,-0,0,35,32765
2.64904,-0.862632,0.366799,11,32765
2.57071,-0.846438,0.357632,11,32765
0,0,0,0,32765
0,0,0,0,32765
0,0,0,0,32765
0,0,0,0,32765
0,-0,0,0,32765
0,-0,0,0,32765
0,-0,0,0,32765
0,-0,0,0,32765
0,-0,0,0,32765
0,-0,0,33,32765
0,-0,0,0,32765
0,-0,0,0,32765
0,-0,0,0,32765
0,-0,0,0,32765
0,-0,0,0,32765
0,-0,0,0,32765
0,-0,0,0,32765
0,-0,0,0,32765
11.1646,-0.547976,1.27078,12,32765
11.1825,-0.585174,1.27388,18,32765
11.1308,-0.619264,1.26871,18,32765
11.0394,-0.650637,1.25868,16,32765
10.9876,-0.683873,1.25337,14,32765
11.025,-0.722569,1.25793,25,32765
10.953,-0.753931,1.25099,22,32765
10.9108,-0.787715,1.24659,17,32765
11.0567,-0.835585,1.26328,13,32765
11.0538,-0.872955,1.26399,14,32765
10.9915,-0.904742,1.25658,14,32765
11.0576,-0.946848,1.26547,14,32765
11.0445,-0.982092,1.26526,14,32765
11.0611,-1.01979,1.2667,14,32765
11.0675,-1.05742,1.26828,14,32765
11.1035,-1.09847,1.27231,14,32765
11.1095,-1.13707,1.2741,22,32765
11.0957,-1.17328,1.27321,24,32765
11.1512,-1.21633,1.27894,24,32765
11.1569,-1.25416,1.28087,24,32765
11.1725,-1.2929,1.28298,24,32765
11.1486,-1.32737,1.27908,24,32765
11.1933,-1.37051,1.28625,25,32765
11.2182,-1.41169,1.2897,28,32765
11.2036,-1.44772,1.28843,26,32765
11.2479,-1.49163,1.29484,25,32765
11.2626,-1.53145,1.29671,24,32765
11.2871,-1.57291,1.29941,24,32765
11.2819,-1.61001,1.29941,25,32765
11.3354,-1.65623,1.30668,28,32765
11.3592,-1.69865,1.31058,27,32765
11.3632,-1.73831,1.31183,24,32765
11.3573,-1.77651,1.31138,24,32765
11.3809,-1.81914,1.31413,24,32765
11.3748,-1.85674,1.31359,24,32765
11.3881,-1.89754,1.31714,28,32765
11.4111,-1.94044,1.32067,26,32765
11.4242,-1.98197,1.32257,20,32765
11.388,-2.01523,1.3199,13,32765
11.4497,-2.06543,1.3276,13,32765
11.5015,-2.11371,1.33409,13,32765
11.3675,-2.12743,1.32027,14,32765
11.2433,-2.14231,1.30708,16,32765
11.0703,-2.14719,1.28831,17,32765
11.0047,-2.17233,1.28144,22,32765
11.007,-2.21065,1.28376,27,32765
11.0287,-2.25369,1.28776,33,32765
11.0501,-2.29685,1.29217,33,32765
11.1491,-2.35614,1.30614,14,32765
11.462,-2.46126,1.34331,12,32765
11.3276,-2.47098,1.32967,12,32765
11.1156,-2.46323,1.30688,12,32765
11.0683,-2.49166,1.30382,13,32765
11.0599,-2.52863,1.30465,13,32765
11.1382,-2.58581,1.31707,14,32765
11.0909,-2.61298,1.31361,14,32765
11.0146,-2.63282,1.30661,12,32765
10.8416,-2.62862,1.28939,11,32765
10.7653,-2.64736,1.28244,12,32765
10.8529,-2.70622,1.29525,11,32765
10.8631,-2.74622,1.29994,11,32765
10.6904,-2.73963,1.28176,11,32765
2.57653,-0.669267,0.30983,12,32765
2.57431,-0.677548,0.310225,13,32765
2.60082,-0.693641,0.314175,13,32765
2.55054,-0.689086,0.309035,13,32765
2.54823,-0.697386,0.309504,14,32765
2.49798,-0.692488,0.304363,13,32765
2.54348,-0.713977,0.310692,14,32765
2.52198,-0.716802,0.308869,13,32765
2.50046,-0.719426,0.30742,13,32765
2.56474,-0.746986,0.31657,13,32765
2.50509,-0.738454,0.310039,13,32765
2.47405,-0.738007,0.307296,14,32765
2.40504,-0.725827,0.299772,13,32765
2.45962,-0.750823,0.307664,13,32765
2.41913,-0.74694,0.303983,13,32765
2.52089,-0.787202,0.31784,13,32765
2.31001,-0.729414,0.292255,12,32765
2.50618,-0.799977,0.318721,12,32765
2.45633,-0.79247,0.313721,12,32765
2.31208,-0.754069,0.296905,12,32765
2.36602,-0.78025,0.305351,12,32765
0,0,0,0,32765
0,0,0,0,32765
0,0,0,0,32765
0,-0,0,0,32765
0,-0,0,0,32765
0,-0,0,0,32765
0,-0,0,0,32765
0,-0,0,0,32765
0,-0,0,0,32765
0,-0,0,0,32765
0,-0,0,0,32765
0,-0,0,0,32765
0,-0,0,0,32765
0,-0,0,0,32765
0,-0,0,0,32765
0,-0,0,0,32765
0,-0,0,0,32765
0,-0,0,0,32765
0,-0,0,0,32765
11.168,-0.590398,1.22069,13,32765
11.1561,-0.626036,1.21905,15,32765
11.1046,-0.659489,1.2121,15,32765
11.053,-0.69268,1.20474,13,32765
10.9913,-0.724815,1.19684,13,32765
11.0088,-0.762453,1.19772,21,32765
10.9169,-0.792649,1.18872,17,32765
10.9539,-0.831982,1.19225,13,32765
11.0405,-0.87529,1.20048,12,32765
11.0574,-0.913245,1.20266,13,32765
11.0543,-0.949926,1.20209,13,32765
11.0712,-0.988213,1.20208,12,32765
11.0877,-1.02671,1.20336,13,32765
11.0646,-1.06167,1.20035,12,32765
11.061,-1.09777,1.20076,12,32765
11.1068,-1.13938,1.20549,14,32765
11.103,-1.17588,1.20526,21,32765
11.1289,-1.21572,1.20746,21,32765
11.1545,-1.25601,1.20989,19,32765
11.1501,-1.29278,1.21143,20,32765
11.1263,-1.32709,1.20753,19,32765
11.1809,-1.37091,1.21552,19,32765
11.196,-1.40992,1.21808,19,32765
11.2011,-1.44824,1.21943,22,32765
11.1864,-1.48397,1.21812,20,32765
11.2305,-1.52811,1.22474,19,32765
11.2451,-1.56815,1.22651,19,32765
11.2397,-1.60572,1.22788,19,32765
11.2736,-1.64921,1.23159,19,32765
11.3072,-1.69308,1.23741,20,32765
11.2817,-1.72796,1.23568,20,32765
11.3446,-1.77644,1.24332,19,32765
11.3385,-1.81479,1.24381,19,32765
11.3323,-1.85228,1.24507,19,32765
11.326,-1.88983,1.24627,19,32765
11.3196,-1.92734,1.2468,22,32765
11.2741,-1.95774,1.24199,21,32765
10.8759,-1.92623,1.19885,21,32765
10.8791,-1.96391,1.20116,20,32765
10.9408,-2.01271,1.20958,24,32765
10.9634,-2.05448,1.21317,26,32765
10.9369,-2.08703,1.21226,27,32765
10.8617,-2.10975,1.20387,32,32765
10.9423,-2.16302,1.21488,32,32765
10.9156,-2.19512,1.21303,32,32765
10.9862,-2.2474,1.22102,33,32765
10.998,-2.28778,1.22441,28,32765
10.9319,-2.3123,1.21833,17,32765
2.6727,-0.574615,0.298358,11,32765
2.65136,-0.579208,0.296142,12,32765
2.69791,-0.598809,0.301814,13,32765
2.66682,-0.601227,0.298465,12,32765
2.59695,-0.594596,0.291072,12,32765
2.54656,-0.591988,0.285444,13,32765
2.50587,-0.591195,0.281422,13,32765
2.50393,-0.599355,0.281395,12,32765
2.54062,-0.616877,0.285642,13,32765
2.50961,-0.617972,0.282752,13,32765
2.42078,-0.604484,0.273027,13,32765
2.39952,-0.60749,0.270895,13,32765
2.43607,-0.625149,0.275048,13,32765
0,-0,0,0,32765
0,-0,0,0,32765
0,-0,0,0,32765
0,-0,0,0,32765
0,-0,0,0,32765
10.5844,-2.93786,1.20064,11,32765
10.2016,-2.86764,1.15773,11,32765
10.2402,-2.9139,1.1626,11,32765
10.3549,-2.98287,1.17675,11,32765
10.2596,-2.99082,1.16552,11,32765
10.1546,-2.99552,1.15491,11,32765
10.0307,-2.99381,1.14116,11,32765
10.0785,-3.04256,1.14637,11,32765
10.0122,-3.05613,1.13891,11,32765
10.0596,-3.10511,1.14462,11,32765
0,-0,0,0,32765
0,-0,0,0,32765
0,-0,0,0,32765
0,-0,0,0,32765
0,-0,0,0,32765
0,-0,0,0,32765
0,0,0,0,32765
0,0,0,0,32765
0,0,0,0,32765
0,-0,0,0,32765
0,-0,0,0,32765
0,-0,0,0,32765
0,-0,0,0,32765
0,-0,0,0,32765
0,-0,0,0,32765
0,-0,0,0,32765
0,-0,0,0,32765
0,-0,0,0,32765
0,-0,0,0,32765
0,-0,0,0,32765
0,-0,0,0,32765
0,-0,0,0,32765
0,-0,0,0,32765
0,-0,0,0,32765
0,-0,0,0,32765
0,-0,0,0,32765
11.1572,-0.626377,1.1126,15,32765
11.2049,-0.665798,1.11601,19,32765
11.1035,-0.696266,1.10416,17,32765
11.002,-0.726005,1.09288,15,32765
11.0196,-0.763747,1.09357,16,32765
11.0367,-0.801967,1.09626,30,32765
10.9249,-0.830457,1.08463,22,32765
10.9322,-0.867451,1.08414,15,32765
10.9788,-0.907578,1.08909,14,32765
10.9758,-0.944066,1.08853,14,32765
11.0819,-0.990133,1.09718,14,32765
11.0687,-1.02598,1.09532,14,32765
11.0653,-1.06285,1.09446,14,32765
11.0122,-1.09409,1.08998,14,32765
11.1175,-1.14172,1.10012,14,32765
11.1038,-1.17727,1.09891,18,32765
11.1297,-1.21719,1.10083,29,32765
11.1454,-1.25644,1.102,29,32765
11.1707,-1.29669,1.10648,25,32765
11.1764,-1.33468,1.10569,25,32765
11.1817,-1.37267,1.10824,24,32765
11.1771,-1.40928,1.10865,25,32765
11.1921,-1.44888,1.11088,25,32765
11.2267,-1.49119,1.11457,29,32765
11.2116,-1.52749,1.11484,26,32765
11.1671,-1.55928,1.11054,25,32765
11.073,-1.58398,1.10307,26,32765
10.9495,-1.60392,1.09073,28,32765
10.8553,-1.62759,1.08336,32,32765
10.8399,-1.66252,1.08279,36,32765
10.8245,-1.69729,1.0819,37,32765
10.8284,-1.73552,1.08336,39,32765
10.8225,-1.77139,1.08456,40,32765
10.8361,-1.81059,1.08768,39,32765
10.8398,-1.84823,1.08917,36,32765
10.8239,-1.88221,1.08771,34,32765
10.8273,-1.92035,1.08873,26,32765
10.8011,-1.95263,1.08798,22,32765
2.74021,-0.504822,0.276402,13,32765
2.69939,-0.506584,0.27254,12,32765
2.56082,-0.489383,0.25901,13,32765
2.62759,-0.511124,0.265732,13,32765
2.60633,-0.515966,0.26406,14,32765
2.50705,-0.504916,0.254245,13,32765
2.54437,-0.521266,0.258046,14,32765
2.4744,-0.515489,0.251401,14,32765
2.42397,-0.513487,0.246545,15,32765
2.45141,-0.527836,0.249773,15,32765
2.49825,-0.54659,0.254686,15,32765
2.39926,-0.533334,0.244997,15,32765
2.47512,-0.558865,0.252848,14,32765
2.43443,-0.558244,0.249073,14,32765
2.41319,-0.561851,0.246902,14,32765
2.36288,-0.558326,0.242246,14,32765
2.4191,-0.579954,0.248177,14,32765
2.3592,-0.573724,0.24213,13,32765
2.4539,-0.605203,0.252414,13,32765
2.47121,-0.618052,0.254466,12,32765
2.26662,-0.574755,0.233633,12,32765
2.47678,-0.636609,0.255304,11,32765
0,-0,0,0,32765
10.7658,-2.84205,1.11207,11,32765
10.7566,-2.87686,1.1118,11,32765
10.6223,-2.87789,1.09901,11,32765
10.6128,-2.91279,1.09867,11,32765
10.5649,-2.93722,1.09409,11,32765
10.4977,-2.95573,1.08759,11,32765
0,-0,0,0,32765
10.3733,-2.99312,1.07614,11,32765
0,-0,0,0,32765
0,-0,0,0,32765
10.3443,-3.09255,1.07416,11,32765
10.3347,-3.12511,1.07283,11,32765
10.1633,-3.10748,1.05504,11,32765
10.1536,-3.1394,1.05427,11,32765
10.0485,-3.1422,1.04387,11,32765
0,-0,0,0,32765
0,-0,0,11,32765
0,-0,0,0,32765
0,-0,0,0,32765
0,-0,0,0,32765
0,0,0,0,32765
0,0,0,0,32765
0,0,0,0,32765
0,0,0,0,32765
0,-0,0,0,32765
0,-0,0,0,32765
0,-0,0,0,32765
0,-0,0,0,32765
0,-0,0,0,32765
0,-0,0,0,32765
0,-0,0,0,32765
0,-0,0,0,32765
0,-0,0,0,32765
0,-0,0,0,32765
0,-0,0,0,32765
0,-0,0,0,32765
0,-0,0,0,32765
0,-0,0,0,32765
0,-0,0,0,32765
0,-0,0,0,32765
0,-0,0,0,32765
11.1835,-0.646677,1.03585,13,32765
11.1416,-0.680455,1.03201,15,32765
11.0996,-0.714011,1.02877,14,32765
10.978,-0.741845,1.01721,13,32765
11.025,-0.782252,1.02342,14,32765
11.0123,-0.818473,1.02382,24,32765
10.8904,-0.845771,1.01282,18,32765
11.0164,-0.89268,1.02546,13,32765
11.0928,-0.935807,1.03294,12,32765
11.05,-0.968869,1.02892,12,32765
11.0467,-1.00575,1.02834,13,32765
11.1027,-1.04766,1.03561,13,32765
11.0992,-1.08441,1.03488,13,32765
11.145,-1.12597,1.04077,12,32765
11.1115,-1.16017,1.03801,12,32765
11.0779,-1.19427,1.03452,16,32765
11.1135,-1.23606,1.03741,22,32765
11.129,-1.2756,1.03956,21,32765
11.1147,-1.31139,1.03942,20,32765
11.1203,-1.34923,1.04017,20,32765
10.9578,-1.36615,1.02418,20,32765
10.7952,-1.38174,1.00917,23,32765
10.7018,-1.4058,1.00079,26,32765
10.7562,-1.44924,1.00671,27,32765
10.7414,-1.48374,1.00636,29,32765
10.7561,-1.52223,1.0082,34,32765
10.6918,-1.54966,1.00329,34,32765
10.6964,-1.58703,1.00349,32,32765
10.7796,-1.63605,1.01323,30,32765
10.7936,-1.67551,1.01541,24,32765
2.55683,-0.405692,0.240886,12,32765
2.8012,-0.454031,0.263893,12,32765
2.61303,-0.432465,0.246254,12,32765
2.59197,-0.437652,0.244432,12,32765
2.48253,-0.427812,0.234328,12,32765
2.50067,-0.439661,0.23627,13,32765
2.57759,-0.462027,0.243873,13,32765
2.45849,-0.449101,0.232887,13,32765
2.49617,-0.464312,0.236752,13,32765
2.42614,-0.459568,0.230283,13,32765
2.42459,-0.467583,0.230505,13,32765
2.39372,-0.469786,0.22779,13,32765
2.47023,-0.493389,0.235403,14,32765
2.36125,-0.479684,0.225375,14,32765
2.33035,-0.481528,0.222887,14,32765
2.37745,-0.499563,0.227519,14,32765
2.33681,-0.499102,0.224125,14,32765
2.3254,-0.504689,0.22344,13,32765
0,-0,0,11,32765
0,-0,0,0,32765
0,-0,0,0,32765
0,-0,0,0,32765
0,-0,0,0,32765
0,-0,0,11,32765
0,-0,0,11,32765
0,-0,0,11,32765
0,-0,0,0,32765
0,-0,0,0,32765
0,-0,0,0,32765
0,-0,0,0,32765
0,-0,0,0,32765
0,-0,0,0,32765
0,-0,0,0,32765
0,-0,0,0,32765
0,-0,0,0,32765
0,-0,0,0,32765
0,-0,0,0,32765
0,-0,0,0,32765
0,-0,0,0,32765
0,-0,0,0,32765
10.3793,-3.08378,1.0649,11,32765
0,-0,0,0,32765
0,-0,0,0,32765
0,-0,0,0,32765
0,-0,0,0,32765
0,-0,0,0,32765
0,-0,0,0,32765
0,-0,0,0,32765
0,-0,0,0,32765
0,-0,0,0,32765
0,0,0,0,32765
0,0,0,0,32765
0,0,0,0,32765
