x, y, z, intensity, ring
6.97585,2.96638,0.868932,14,32765
7.00407,2.95117,0.869558,14,32765
7.01401,2.92826,0.866868,14,32765
7.00553,2.89768,0.861913,14,32765
7.04281,2.88618,0.862803,15,32765
7.06194,2.86634,0.86141,17,32765
7.00725,2.81688,0.85068,13,32765
6.94303,2.76424,0.838857,14,32765
6.9524,2.74134,0.836425,14,32765
6.91525,2.70076,0.828306,13,32765
6.97055,2.6963,0.831775,14,32765
7.10028,2.72008,0.842467,14,32765
7.21149,2.73601,0.852202,14,32765
7.23925,2.71965,0.851577,14,32765
7.30423,2.71712,0.855058,14,32765
7.31335,2.69334,0.852332,14,32765
7.3599,2.68282,0.853682,14,32765
7.31281,2.63864,0.84426,14,32765
7.34045,2.62163,0.842885,14,32765
7.38675,2.61112,0.844025,14,32765
7.37674,2.58068,0.838735,15,32765
7.2633,2.51431,0.821959,15,32765
7.18701,2.46201,0.809333,16,32765
7.14813,2.42316,0.800398,17,32765
7.09951,2.38182,0.790396,16,32765
7.02227,2.33154,0.777939,17,32765
6.99222,2.2969,0.77009,17,32765
6.96195,2.26255,0.762662,17,32765
6.95059,2.23445,0.756361,17,32765
6.89151,2.19187,0.745469,17,32765
6.89869,2.17104,0.74,17,32765
5.61377,4.13004,0.921598,14,32765
5.63577,4.1169,0.92238,14,32765
5.6815,4.1216,0.926992,14,32765
5.6465,4.06873,0.918085,13,32765
5.67557,4.06256,0.91933,13,32765
5.69713,4.0498,0.918857,13,32765
5.73492,4.04819,0.921559,13,32765
5.74039,4.02355,0.918646,13,32765
5.76197,4.01038,0.918125,14,32765
5.75889,3.9804,0.913913,14,32765
5.76393,3.95598,0.910982,13,32765
5.83436,3.97641,0.918028,13,32765
5.80665,3.92947,0.909394,13,32765
5.85285,3.93236,0.912558,13,32765
5.89911,3.93499,0.91585,13,32765
5.88785,3.89878,0.909494,13,32765
5.90925,3.88479,0.908889,17,32765
5.88888,3.84393,0.901921,23,32765
5.90995,3.83016,0.901359,27,32765
5.89751,3.79502,0.895582,25,32765
5.91023,3.7757,0.893376,21,32765
5.92291,3.75636,0.890994,17,32765
5.94389,3.74226,0.889976,14,32765
6.06581,3.79119,0.903822,13,32765
6.02784,3.74003,0.89437,12,32765
6.06595,3.73557,0.895646,13,32765
6.12959,3.74634,0.900382,12,32765
6.10004,3.69999,0.891983,13,32765
6.10414,3.67473,0.887862,13,32765
6.19308,3.70054,0.897001,13,32765
6.15415,3.65002,0.887617,13,32765
6.21765,3.66032,0.892018,13,32765
6.17004,3.60474,0.881144,13,32765
6.2168,3.60403,0.883165,13,32765
6.27224,3.60781,0.887012,13,32765
6.2846,3.58686,0.884548,13,32765
6.29678,3.56621,0.881371,13,32765
6.32604,3.55527,0.881678,13,32765
6.36395,3.54917,0.882651,13,32765
6.36737,3.52346,0.877927,13,32765
6.34444,3.48322,0.871404,13,32765
6.41741,3.49529,0.877169,13,32765
6.3769,3.44569,0.867349,12,32765
6.11732,3.27905,0.828426,11,32765
6.07584,3.23093,0.818652,11,32765
5.92876,3.12743,0.794623,18,32765
5.9481,3.11259,0.793416,20,32765
5.97632,3.10196,0.793591,18,32765
5.99578,3.0865,0.792581,20,32765
6.01525,3.07092,0.79136,19,32765
6.017,3.04624,0.787507,19,32765
6.02748,3.02619,0.784734,20,32765
6.04666,3.01073,0.783188,19,32765
6.08349,3.004,0.7849,20,32765
6.10266,2.98814,0.783665,19,32765
6.13974,2.98079,0.784437,20,32765
6.13209,2.95153,0.780057,20,32765
6.16011,2.93972,0.779749,20,32765
6.17002,2.91956,0.777156,19,32765
6.21571,2.91635,0.779745,20,32765
6.22548,2.89602,0.777537,20,32765
6.23525,2.87552,0.775365,19,32765
6.22697,2.8466,0.770621,20,32765
6.31802,2.86294,0.77886,20,32765
6.32789,2.84166,0.776649,20,32765
6.33765,2.82038,0.77467,20,32765
6.35627,2.80334,0.774082,19,32765
6.70264,2.92994,0.812226,13,32765
6.84915,2.96742,0.826824,13,32765
6.93222,2.97617,0.833604,13,32765
6.94235,2.95298,0.83177,12,32765
6.97076,2.93749,0.831714,13,32765
6.98071,2.91417,0.830259,13,32765
7.00878,2.89902,0.830429,13,32765
7.0184,2.87623,0.828363,13,32765
7.00939,2.84605,0.824941,13,32765
6.96354,2.80091,0.816446,12,32765
6.88966,2.74523,0.804898,12,32765
6.86167,2.70829,0.799425,12,32765
6.90769,2.70041,0.801979,12,32765
6.87949,2.6635,0.796689,13,32765
7.06459,2.70899,0.815474,12,32765
7.17584,2.72467,0.82578,13,32765
7.24987,2.72595,0.832322,12,32765
7.19366,2.67802,0.823379,13,32765
7.37979,2.71966,0.842731,13,32765
7.27662,2.65487,0.828573,12,32765
7.37889,2.66497,0.837855,13,32765
7.31257,2.61437,0.829108,13,32765
7.42418,2.62704,0.840571,13,32765
7.3859,2.58647,0.833974,13,32765
7.14999,2.47794,0.805938,13,32765
7.0733,2.42599,0.795886,14,32765
7.081,2.40356,0.795438,14,32765
6.99434,2.34927,0.785222,14,32765
6.99244,2.32376,0.78355,14,32765
6.96206,2.28912,0.778787,14,32765
6.92177,2.25205,0.774459,15,32765
6.86242,2.20928,0.767296,15,32765
6.87875,2.19051,0.76946,15,32765
6.87632,2.16502,0.769052,15,32765
5.66508,4.17487,0.863358,16,32765
5.6312,4.12051,0.855519,16,32765
5.67698,4.12524,0.859755,16,32765
5.70636,4.11874,0.86112,15,32765
5.71948,4.1008,0.859736,15,32765
5.7331,4.08211,0.857941,15,32765
5.74671,4.06319,0.856727,16,32765
5.7766,4.05557,0.857518,15,32765
5.78201,4.0309,0.854482,16,32765
5.78716,4.00644,0.851648,16,32765
5.8332,4.00999,0.854793,15,32765
5.84645,3.99107,0.852785,16,32765
5.85986,3.97184,0.850575,15,32765
5.87328,3.95239,0.848582,15,32765
5.88662,3.9329,0.84674,15,32765
5.92497,3.92958,0.847771,15,32765
5.9299,3.90452,0.844694,15,32765
5.95114,3.89066,0.843983,15,32765
5.93905,3.85504,0.8386,15,32765
5.99346,3.86277,0.842477,15,32765
6.03988,3.8645,0.844912,15,32765
6.01931,3.8234,0.837807,15,32765
6.03213,3.80366,0.835491,15,32765
6.0954,3.81552,0.839963,15,32765
6.09121,3.78512,0.835688,14,32765
6.13795,3.78566,0.837808,14,32765
6.15096,3.76511,0.835046,15,32765
6.12145,3.71858,0.827103,14,32765
6.15962,3.71371,0.827635,15,32765
6.18909,3.70369,0.827929,14,32765
6.1843,3.67338,0.823654,15,32765
6.23079,3.67351,0.825209,15,32765
6.24321,3.65289,0.822894,15,32765
6.25577,3.63198,0.819999,15,32765
6.28551,3.62077,0.81999,15,32765
6.29791,3.59972,0.817519,14,32765
6.33606,3.5937,0.817678,14,32765
6.33078,3.56312,0.813331,14,32765
6.36006,3.55215,0.81291,15,32765
6.38954,3.54084,0.811591,14,32765
6.35794,3.49566,0.804331,14,32765
6.37864,3.47916,0.802843,15,32765
6.42545,3.47689,0.804543,14,32765
6.31466,3.38965,0.787059,14,32765
6.12434,3.26134,0.759264,12,32765
5.95087,3.14354,0.733643,13,32765
5.96145,3.12398,0.73125,21,32765
6.00737,3.12246,0.733384,25,32765
6.00039,3.0932,0.729046,24,32765
6.04644,3.09115,0.730937,24,32765
6.05712,3.07081,0.728228,25,32765
6.0499,3.04165,0.723309,24,32765
6.09583,3.0394,0.724832,24,32765
6.12386,3.02809,0.72519,24,32765
6.11633,2.99894,0.720687,25,32765
6.14452,2.98718,0.720122,25,32765
6.1727,2.97511,0.720105,24,32765
6.17389,2.95029,0.716467,23,32765
6.19281,2.9343,0.714902,24,32765
6.22057,2.92255,0.715038,25,32765
6.25741,2.91477,0.715921,24,32765
6.26724,2.89412,0.713736,24,32765
6.27709,2.87332,0.711213,24,32765
6.323,2.86898,0.713482,24,32765
6.33288,2.84765,0.711266,25,32765
6.36083,2.8344,0.711316,25,32765
6.37041,2.81324,0.709612,25,32765
6.39808,2.80043,0.708935,22,32765
6.86372,2.97757,0.757467,14,32765
6.9286,2.97844,0.761482,14,32765
6.93873,2.95522,0.759647,14,32765
6.97633,2.94358,0.760402,14,32765
6.98631,2.9202,0.758942,14,32765
7.01441,2.905,0.758921,14,32765
7.04246,2.88971,0.758836,15,32765
7.0427,2.86313,0.756586,16,32765
7.10762,2.8624,0.760492,16,32765
7.0154,2.79877,0.747777,13,32765
6.895,2.72478,0.73282,14,32765
6.91331,2.7059,0.732044,14,32765
6.97789,2.70487,0.736926,14,32765
6.98675,2.68236,0.735327,14,32765
7.11659,2.70541,0.746568,14,32765
7.24651,2.72791,0.758308,14,32765
7.25553,2.70423,0.756829,14,32765
7.30185,2.69408,0.759815,14,32765
7.34808,2.68405,0.762313,14,32765
7.28205,2.63302,0.753215,14,32765
7.36551,2.63631,0.760705,14,32765
7.35533,2.60563,0.758556,14,32765
7.40148,2.59484,0.761131,14,32765
7.29705,2.53173,0.749044,14,32765
7.14515,2.45335,0.732108,16,32765
7.13411,2.42424,0.729725,17,32765
7.07575,2.37919,0.723342,17,32765
7.07395,2.35338,0.721755,16,32765
7.03419,2.3153,0.716396,17,32765
6.98449,2.27485,0.711582,17,32765
6.97254,2.24706,0.709899,17,32765
6.93212,2.20977,0.706189,17,32765
6.90128,2.17509,0.702978,17,32765
5.6211,4.12811,0.884764,14,32765
5.67597,4.13838,0.885174,14,32765
5.67465,4.10756,0.877411,14,32765
5.67265,4.07742,0.870231,14,32765
5.67831,4.05341,0.864585,13,32765
5.76499,4.08682,0.870159,13,32765
5.74652,4.04507,0.860997,13,32765
5.76031,4.02629,0.856861,14,32765
5.76575,4.00193,0.851798,13,32765
5.76311,3.97185,0.844688,13,32765
5.80112,3.96979,0.845086,13,32765
5.79828,3.93967,0.83819,14,32765
5.82003,3.92611,0.835315,13,32765
5.86657,3.92895,0.83592,13,32765
5.88839,3.91491,0.83353,13,32765
5.89358,3.88986,0.828718,13,32765
5.9484,3.89753,0.831526,13,32765
5.95327,3.87278,0.826225,13,32765
5.93285,3.83194,0.818315,13,32765
5.94567,3.81292,0.814109,13,32765
6.00022,3.82041,0.816968,13,32765
5.97946,3.77968,0.808989,13,32765
6.02589,3.78133,0.809855,13,32765
6.06389,3.7775,0.809857,13,32765
6.12741,3.78892,0.813238,13,32765
6.05556,3.7166,0.799786,13,32765
6.11916,3.72753,0.803391,13,32765
6.12336,3.70221,0.798795,13,32765
6.17841,3.7077,0.801712,13,32765
6.14832,3.66183,0.793213,13,32765
6.20362,3.66686,0.794825,13,32765
6.25039,3.66649,0.796027,13,32765
6.28009,3.65576,0.795011,13,32765
6.2406,3.60548,0.786092,13,32765
6.30457,3.61457,0.789543,13,32765
6.26488,3.5644,0.780277,13,32765
6.32891,3.57312,0.783463,13,32765
6.32375,3.54242,0.778169,13,32765
6.33558,3.52161,0.776373,13,32765
6.38238,3.52001,0.776928,13,32765
6.38538,3.49429,0.774086,12,32765
6.43199,3.49244,0.775868,13,32765
6.41753,3.45703,0.770154,13,32765
6.35031,3.39364,0.75789,12,32765
6.0543,3.20938,0.719349,11,32765
6.04763,3.18003,0.714505,12,32765
5.96141,3.10924,0.701265,18,32765
5.97214,3.08923,0.698415,20,32765
5.99156,3.07366,0.697697,20,32765
6.01981,3.06261,0.697434,20,32765
6.00365,3.02904,0.691872,20,32765
6.01411,3.00874,0.689571,20,32765
6.06879,3.01096,0.692816,20,32765
6.07894,2.99084,0.690925,20,32765
6.08907,2.9707,0.688673,20,32765
6.09911,2.95068,0.685897,20,32765
6.10927,2.93019,0.683343,20,32765
6.15506,2.92709,0.685501,21,32765
6.183,2.91507,0.68541,19,32765
6.1929,2.89454,0.68304,19,32765
6.22071,2.88239,0.683165,20,32765
6.23049,2.8619,0.680151,19,32765
6.25825,2.84951,0.680267,20,32765
6.26786,2.82887,0.677883,20,32765
6.30483,2.82016,0.677842,20,32765
6.28704,2.78717,0.673018,21,32765
6.36039,2.79408,0.677433,21,32765
6.39724,2.78483,0.67837,18,32765
6.8454,2.95287,0.721905,13,32765
6.94698,2.96913,0.729308,12,32765
6.99382,2.96149,0.730047,13,32765
6.98557,2.93039,0.725792,12,32765
7.04162,2.92616,0.727142,13,32765
6.98695,2.87651,0.718545,12,32765
7.04269,2.87249,0.720385,13,32765
7.04309,2.8458,0.716364,14,32765
7.03399,2.81553,0.712686,13,32765
6.97864,2.76682,0.703512,12,32765
6.87669,2.70034,0.689688,12,32765
6.92288,2.69241,0.690116,12,32765
6.93191,2.66978,0.687391,12,32765
6.98733,2.66496,0.689463,12,32765
7.11731,2.68806,0.698417,12,32765
7.26618,2.71727,0.709336,12,32765
7.27539,2.69334,0.706199,13,32765
7.28459,2.66923,0.70286,12,32765
7.36855,2.67242,0.706763,13,32765
7.2743,2.61171,0.693662,12,32765
7.28303,2.58801,0.690805,13,32765
7.31982,2.57462,0.689642,12,32765
7.38476,2.57074,0.692237,12,32765
7.3556,2.53408,0.685337,13,32765
7.18476,2.44977,0.665038,15,32765
7.07933,2.38934,0.651265,15,32765
7.08711,2.36703,0.648043,14,32765
7.06658,2.3349,0.642353,14,32765
7.03665,2.29951,0.634603,14,32765
6.97788,2.25576,0.624817,14,32765
6.96601,2.22867,0.619145,15,32765
6.95406,2.20159,0.613532,15,32765
6.9232,2.16815,0.605678,16,32765
5.63208,4.14346,0.820358,17,32765
5.64688,4.12442,0.8145,16,32765
5.70982,4.14028,0.816143,16,32765
5.68371,4.09254,0.805687,16,32765
5.7298,4.09734,0.805804,15,32765
5.75182,4.08463,0.801453,16,32765
5.74143,4.04855,0.793793,16,32765
5.78777,4.05255,0.794124,16,32765
5.8096,4.03939,0.791354,16,32765
5.83159,4.02604,0.787704,16,32765
5.8288,3.99565,0.782279,15,32765
5.85889,3.98774,0.779919,15,32765
5.87255,3.96839,0.775816,15,32765
5.88622,3.94891,0.771677,15,32765
5.91636,3.94028,0.770254,15,32765
5.91333,3.9096,0.764442,15,32765
5.92667,3.88994,0.761429,15,32765
5.96482,3.88693,0.760481,15,32765
6.02791,3.89997,0.763509,15,32765
6.04093,3.88061,0.759231,15,32765
6.02026,3.83968,0.752146,15,32765
6.00794,3.80411,0.745568,15,32765
6.04603,3.80038,0.745001,15,32765
6.05878,3.78068,0.741608,14,32765
6.05469,3.75025,0.736202,14,32765
6.13519,3.77178,0.742159,15,32765
6.13107,3.74102,0.736992,14,32765
6.16082,3.73107,0.735527,15,32765
6.19041,3.72107,0.734919,14,32765
6.20305,3.70055,0.731919,15,32765
6.24993,3.70034,0.732023,15,32765
6.24535,3.66957,0.726832,15,32765
6.24068,3.63879,0.721652,15,32765
6.25278,3.61844,0.71925,15,32765
6.28229,3.60769,0.718184,14,32765
6.29442,3.58704,0.715381,15,32765
6.3239,3.57609,0.714074,14,32765
6.34477,3.55995,0.711887,14,32765
6.35666,3.53903,0.710082,15,32765
6.36868,3.51811,0.706381,16,32765
6.41531,3.51631,0.708453,15,32765
6.42703,3.49533,0.706003,15,32765
6.42132,3.46459,0.701526,15,32765
6.46816,3.46212,0.702491,15,32765
6.39201,3.39377,0.690947,13,32765
6.13051,3.22871,0.658687,12,32765
5.98264,3.12522,0.639843,14,32765
5.99341,3.1051,0.63698,23,32765
6.01289,3.08943,0.636159,25,32765
6.05895,3.08732,0.637564,24,32765
6.05174,3.05804,0.633194,25,32765
6.0801,3.04646,0.632724,25,32765
6.10818,3.03518,0.632706,24,32765
6.10055,3.00609,0.628958,25,32765
6.16441,3.01206,0.6322,25,32765
6.15665,2.98306,0.62756,24,32765
6.18487,2.97096,0.626799,24,32765
6.19485,2.95048,0.624928,25,32765
6.22288,2.93831,0.624633,25,32765
6.24188,2.92183,0.623146,25,32765
6.25172,2.90111,0.621271,25,32765
6.2887,2.89296,0.620919,26,32765
6.28938,2.86795,0.618155,25,32765
6.33536,2.86358,0.619306,25,32765
6.34518,2.84241,0.6163,25,32765
6.35475,2.82135,0.614383,25,32765
6.38267,2.80799,0.61373,25,32765
6.41045,2.79467,0.613502,25,32765
6.45653,2.78919,0.614245,20,32765
6.96058,2.97928,0.658984,14,32765
6.97078,2.95601,0.655887,14,32765
6.99005,2.9365,0.654405,14,32765
7.07373,2.94374,0.657848,14,32765
7.04671,2.90528,0.652454,14,32765
7.05644,2.88222,0.649552,14,32765
7.0661,2.85917,0.646462,15,32765
7.08477,2.83988,0.645491,16,32765
7.09428,2.81665,0.642827,16,32765
7.03879,2.76789,0.634261,13,32765
6.98307,2.71964,0.62509,14,32765
6.92709,2.67167,0.616545,14,32765
7.01977,2.68108,0.621444,14,32765
7.02869,2.65829,0.618499,14,32765
7.21488,2.70183,0.631309,14,32765
7.30813,2.70921,0.635505,14,32765
7.37351,2.70555,0.636999,14,32765
7.32646,2.66081,0.62885,14,32765
7.33527,2.63721,0.625598,14,32765
7.38164,2.62664,0.625901,14,32765
7.40915,2.6096,0.623612,14,32765
7.41774,2.58573,0.62088,14,32765
7.42629,2.5619,0.617473,14,32765
7.32144,2.49976,0.604373,14,32765
7.21608,2.43879,0.591661,16,32765
7.17673,2.40019,0.584524,16,32765
7.15627,2.3677,0.579075,17,32765
7.07902,2.31646,0.567843,17,32765
7.05818,2.28477,0.561709,16,32765
7.03687,2.25435,0.555428,17,32765
7.01546,2.22399,0.549217,17,32765
6.99412,2.19328,0.542435,17,32765
5.61728,4.1279,0.739403,14,32765
5.65527,4.12669,0.74164,14,32765
5.70119,4.13144,0.744368,14,32765
5.67465,4.08351,0.737704,14,32765
5.71244,4.08218,0.739882,13,32765
5.70997,4.05166,0.736112,13,32765
5.75595,4.05594,0.738117,13,32765
5.74465,4.02045,0.733113,13,32765
5.75798,4.00168,0.7313,13,32765
5.82861,4.02234,0.736596,13,32765
5.80114,3.97477,0.729998,13,32765
5.84754,3.97789,0.731271,13,32765
5.81954,3.93087,0.724442,13,32765
5.87405,3.93938,0.727228,13,32765
5.88704,3.92044,0.724555,13,32765
5.90829,3.90665,0.724279,13,32765
5.94636,3.90363,0.724592,13,32765
5.96799,3.88923,0.722916,13,32765
5.97293,3.86378,0.719602,12,32765
5.98611,3.84382,0.716944,12,32765
5.96542,3.8027,0.710888,13,32765
6.01177,3.80446,0.712166,13,32765
6.05802,3.80625,0.713384,13,32765
6.079,3.79196,0.711933,13,32765
6.07459,3.7619,0.706992,13,32765
6.11279,3.75719,0.708065,13,32765
6.11704,3.73158,0.70505,12,32765
6.17222,3.73712,0.707215,13,32765
6.09961,3.66526,0.695062,13,32765
6.1205,3.65024,0.693351,14,32765
6.20987,3.67577,0.69912,13,32765
6.22241,3.6551,0.695993,13,32765
6.26894,3.65476,0.698058,13,32765
6.23823,3.60913,0.690085,13,32765
6.25027,3.58863,0.688048,13,32765
6.32307,3.60225,0.691874,13,32765
6.33545,3.58106,0.688621,13,32765
6.34782,3.55973,0.685297,13,32765
6.37738,3.54815,0.684496,13,32765
6.37192,3.51738,0.680268,13,32765
6.38376,3.49641,0.677372,13,32765
6.38684,3.47065,0.672951,12,32765
6.45102,3.47816,0.675547,13,32765
6.44521,3.44743,0.670848,13,32765
6.28971,3.3374,0.650952,12,32765
6.10716,3.21441,0.628563,11,32765
6.04744,3.15725,0.618651,12,32765
5.9786,3.09581,0.608244,19,32765
5.99812,3.08028,0.606091,20,32765
6.05288,3.08294,0.608718,21,32765
6.0546,3.05801,0.605333,20,32765
6.05612,3.03325,0.60231,21,32765
6.0754,3.01751,0.600217,19,32765
6.15717,3.0325,0.604482,21,32765
6.08669,2.9731,0.594071,19,32765
6.10591,2.95686,0.592452,20,32765
6.14306,2.94912,0.592574,21,32765
6.16203,2.93297,0.591227,21,32765
6.18096,2.91677,0.589778,21,32765
6.18152,2.8926,0.586707,21,32765
6.22742,2.88897,0.587551,20,32765
6.26429,2.88086,0.587993,20,32765
6.26488,2.85615,0.584675,20,32765
6.28369,2.83927,0.583247,20,32765
6.30226,2.82271,0.581964,18,32765
6.34827,2.81779,0.583406,19,32765
6.39442,2.81256,0.583918,15,32765
6.5683,2.86306,0.597043,14,32765
6.87066,2.96783,0.621426,13,32765
6.97211,2.98463,0.627537,13,32765
6.92715,2.93814,0.620039,13,32765
6.99218,2.93833,0.62265,13,32765
7.02022,2.92326,0.622859,13,32765
7.01158,2.89254,0.618899,13,32765
6.96572,2.84714,0.612462,13,32765
7.04921,2.85402,0.616485,13,32765
7.09576,2.84561,0.617761,14,32765
6.99401,2.77829,0.60611,13,32765
6.99398,2.75166,0.603475,12,32765
6.89153,2.6855,0.59275,12,32765
6.96553,2.68796,0.596995,12,32765
6.90934,2.64007,0.5894,13,32765
7.03924,2.66327,0.5988,12,32765
7.20672,2.69978,0.610613,12,32765
7.25285,2.69057,0.612074,12,32765
7.26161,2.66697,0.61146,12,32765
7.31724,2.66043,0.6134,13,32765
7.27893,2.61987,0.609201,12,32765
7.28764,2.59579,0.608017,13,32765
7.343,2.58897,0.611314,12,32765
7.38911,2.57826,0.613275,13,32765
7.36934,2.54425,0.609935,13,32765
7.34925,2.51087,0.606713,13,32765
7.17781,2.42668,0.591869,15,32765
7.14759,2.39142,0.588727,14,32765
7.07012,2.34028,0.580844,14,32765
7.10601,2.32688,0.583274,15,32765
7.04696,2.28281,0.577939,15,32765
7.01609,2.2485,0.575218,15,32765
6.95643,2.20565,0.570547,15,32765
6.92514,2.17189,0.568954,15,32765
5.64269,4.15494,0.676835,17,32765
5.64866,4.13014,0.674942,16,32765
5.66239,4.11153,0.67346,16,32765
5.70846,4.11601,0.675871,16,32765
5.68973,4.07401,0.671077,15,32765
5.70347,4.05503,0.669399,15,32765
5.7576,4.06508,0.671977,16,32765
5.78709,4.05808,0.67198,16,32765
5.79238,4.03344,0.669205,15,32765
5.8222,4.02572,0.669124,15,32765
5.81936,3.99497,0.665807,15,32765
5.86584,3.99804,0.666693,15,32765
5.87914,3.97875,0.664983,15,32765
5.90903,3.97043,0.664486,15,32765
5.90555,3.94028,0.659941,15,32765
5.90198,3.9099,0.656791,15,32765
5.93175,3.90142,0.655901,15,32765
5.97005,3.89792,0.655966,16,32765
5.97502,3.87241,0.65274,16,32765
6.01336,3.86856,0.652804,15,32765
6.00953,3.83798,0.648921,14,32765
6.03918,3.82894,0.647995,15,32765
6.08552,3.83065,0.648821,15,32765
6.09814,3.81095,0.646366,15,32765
6.12764,3.80177,0.645163,15,32765
6.08966,3.74987,0.637937,15,32765
6.17037,3.77103,0.64299,15,32765
6.18311,3.75057,0.64025,14,32765
6.16173,3.70934,0.634295,15,32765
6.20842,3.70942,0.635083,15,32765
6.22089,3.68898,0.632127,16,32765
6.23347,3.66823,0.62899,15,32765
6.26285,3.6578,0.628945,14,32765
6.27523,3.63707,0.625736,15,32765
6.30464,3.62634,0.625397,15,32765
6.31701,3.60524,0.622569,15,32765
6.32939,3.58403,0.619314,14,32765
6.34177,3.56266,0.615989,14,32765
6.38005,3.55593,0.61584,15,32765
6.3746,3.52509,0.611794,15,32765
6.42141,3.52324,0.612225,14,32765
6.43331,3.50207,0.608701,15,32765
6.42746,3.47155,0.604116,15,32765
6.43919,3.45025,0.601251,15,32765
6.46844,3.43824,0.600286,15,32765
6.3743,3.36086,0.588018,13,32765
6.12957,3.20569,0.561737,12,32765
5.99892,3.11171,0.546496,15,32765
6.00962,3.09153,0.543434,23,32765
6.09108,3.10775,0.547981,26,32765
6.07509,3.07363,0.543081,25,32765
6.10339,3.06216,0.542516,25,32765
6.11383,3.04179,0.539516,25,32765
6.08842,3.00375,0.533607,24,32765
6.15213,3.01018,0.535763,25,32765
6.18044,2.99803,0.534796,25,32765
6.1818,2.97274,0.531512,23,32765
6.19186,2.95214,0.529285,26,32765
6.27395,2.96564,0.53309,22,32765
6.30175,2.95381,0.532364,25,32765
6.41116,2.97919,0.538092,18,32765
6.53891,3.01217,0.545746,15,32765
6.34038,2.89538,0.52586,23,32765
6.35932,2.87822,0.524307,21,32765
6.39622,2.86954,0.524393,15,32765
6.40596,2.84808,0.522457,24,32765
6.47048,2.85069,0.524042,14,32765
6.94617,3.03273,0.559758,14,32765
6.91972,2.99391,0.554604,14,32765
6.9663,2.987,0.555374,14,32765
6.9764,2.96383,0.552802,14,32765
7.01396,2.95226,0.552658,14,32765
7.04206,2.93709,0.552671,14,32765
7.05189,2.91384,0.550327,14,32765
7.06145,2.89089,0.548746,14,32765
7.03421,2.85249,0.543412,15,32765
7.06225,2.83668,0.54289,15,32765
7.13652,2.83939,0.545842,16,32765
7.11812,2.80493,0.541848,14,32765
7.05296,2.75274,0.535046,13,32765
6.95974,2.68993,0.525944,14,32765
7.00601,2.68119,0.526709,14,32765
7.01485,2.65817,0.525784,14,32765
7.09833,2.66329,0.52973,14,32765
7.25658,2.6961,0.539175,14,32765
7.2841,2.67933,0.539946,14,32765
7.33041,2.6693,0.540716,14,32765
7.37658,2.65905,0.543203,14,32765
7.38544,2.63461,0.542001,14,32765
7.39392,2.61084,0.541374,13,32765
7.40245,2.58679,0.540199,14,32765
7.45813,2.57874,0.542625,14,32765
7.45703,2.55147,0.541041,15,32765
7.27618,2.46357,0.527295,16,32765
7.19878,2.41208,0.521102,17,32765
7.17815,2.3795,0.518158,17,32765
7.14784,2.34397,0.51552,17,32765
7.09831,2.30275,0.511525,17,32765
7.077,2.27126,0.509865,18,32765
7.0174,2.22813,0.505856,17,32765
6.98619,2.19411,0.50465,17,32765
5.60783,4.11364,0.700189,14,32765
5.65445,4.11829,0.698462,13,32765
5.67678,4.10541,0.693801,14,32765
5.68255,4.08116,0.688262,14,32765
5.67223,4.04523,0.67962,13,32765
5.73488,4.06089,0.681092,13,32765
5.76509,4.05345,0.678026,14,32765
5.77891,4.03445,0.673688,13,32765
5.82516,4.03849,0.672709,13,32765
5.78968,3.98547,0.662766,13,32765
5.81147,3.97204,0.659273,13,32765
5.83325,3.95837,0.656411,13,32765
5.87976,3.9614,0.655876,13,32765
5.85168,3.9146,0.647081,13,32765
5.86484,3.89554,0.642923,13,32765
5.87784,3.87654,0.638994,13,32765
5.92431,3.87899,0.638795,13,32765
5.97092,3.88115,0.638241,13,32765
5.95054,3.83988,0.631277,13,32765
6.00567,3.84687,0.631767,13,32765
5.9429,3.77917,0.620309,13,32765
5.98925,3.781,0.620555,13,32765
6.08642,3.81427,0.625203,13,32765
6.07364,3.77885,0.619335,13,32765
6.09482,3.76419,0.61653,13,32765
6.12439,3.75478,0.614518,13,32765
6.12851,3.72935,0.610988,13,32765
6.12409,3.69871,0.606171,13,32765
6.16214,3.69404,0.605102,13,32765
6.24319,3.71436,0.608415,13,32765
6.22136,3.67357,0.601669,14,32765
6.23382,3.65294,0.598371,13,32765
6.24628,3.63207,0.595462,13,32765
6.25851,3.61147,0.59225,13,32765
6.28812,3.60048,0.590692,13,32765
6.3176,3.58953,0.589325,13,32765
6.34706,3.57841,0.588105,13,32765
6.34183,3.54745,0.583878,13,32765
6.3537,3.52661,0.581042,13,32765
6.42676,3.53921,0.583463,13,32765
6.42118,3.50834,0.579286,14,32765
6.40663,3.47296,0.574242,13,32765
6.44485,3.46563,0.573503,13,32765
6.45643,3.44448,0.570641,13,32765
6.50337,3.4416,0.570971,13,32765
6.31188,3.31356,0.550377,12,32765
6.12847,3.19149,0.530218,12,32765
6.06843,3.13442,0.521625,12,32765
6.00785,3.07807,0.513872,19,32765
6.03609,3.06697,0.513276,20,32765
6.04661,3.04669,0.510164,20,32765
6.07495,3.03503,0.509602,20,32765
6.08552,3.01414,0.507391,21,32765
6.08677,2.98941,0.504678,18,32765
6.1687,3.00391,0.50796,18,32765
6.39439,3.08751,0.522957,14,32765
6.32372,3.02773,0.514144,14,32765
6.23485,2.95953,0.504281,22,32765
6.27181,2.95183,0.503588,15,32765
6.33608,2.95615,0.505406,19,32765
6.50892,3.01051,0.51658,14,32765
6.62789,3.03879,0.522347,13,32765
6.32951,2.87622,0.495474,19,32765
6.34819,2.85952,0.493958,17,32765
6.3853,2.85038,0.493317,14,32765
6.39494,2.82913,0.490779,18,32765
6.55991,2.87571,0.500287,12,32765
6.96329,3.02433,0.527323,13,32765
6.93686,2.98537,0.521979,13,32765
6.89201,2.93854,0.515083,13,32765
6.9569,2.93937,0.516308,13,32765
6.98503,2.92432,0.51552,13,32765
7.03176,2.91657,0.514669,12,32765
7.02293,2.88603,0.511321,12,32765
7.07886,2.88162,0.51139,13,32765
7.08845,2.85849,0.508421,13,32765
7.09806,2.835,0.505909,13,32765
7.13553,2.82234,0.504726,14,32765
7.1171,2.78788,0.500161,12,32765
7.07995,2.74645,0.493312,12,32765
6.97736,2.68025,0.482525,12,32765
7.00482,2.66481,0.481088,12,32765
7.08844,2.66998,0.483017,13,32765
7.0597,2.63335,0.478098,13,32765
7.22767,2.66902,0.485395,13,32765
7.27402,2.65915,0.484889,12,32765
7.36735,2.66598,0.487064,12,32765
7.29178,2.61144,0.477462,12,32765
7.34733,2.60465,0.478143,13,32765
7.43132,2.60724,0.479407,13,32765
7.41145,2.57386,0.474552,13,32765
7.4104,2.54704,0.470194,13,32765
7.34318,2.49751,0.461572,14,32765
0,0,0,0,32765
7.12258,2.3718,0.440258,16,32765
0,0,0,0,32765
2.77161,0.903526,0.167922,13,32765
2.74605,0.885586,0.16453,13,32765
2.7679,0.883129,0.164069,13,32765
0,0,0,0,32765
0,0,0,0,32765
5.64892,4.1524,0.639452,17,32765
5.67955,4.14517,0.635503,16,32765
5.69388,4.12633,0.629825,16,32765
5.72395,4.11942,0.627017,16,32765
5.71373,4.08327,0.618608,16,32765
5.72776,4.06423,0.614254,15,32765
5.77424,4.06827,0.612729,15,32765
5.7636,4.03206,0.605804,16,32765
5.80164,4.03047,0.603607,16,32765
5.81532,4.01136,0.599308,15,32765
5.82896,3.99218,0.594857,15,32765
5.82608,3.9616,0.589384,15,32765
5.88911,3.97581,0.59013,15,32765
5.90244,3.95662,0.5859,15,32765
5.91572,3.93735,0.5817,15,32765
5.92885,3.91815,0.577731,15,32765
5.94212,3.89856,0.573901,15,32765
5.97208,3.88977,0.571356,15,32765
5.99357,3.87547,0.568732,15,32765
6.00687,3.8554,0.564776,15,32765
6.03658,3.84648,0.562776,15,32765
6.0326,3.81603,0.557917,15,32765
6.09612,3.82802,0.5585,15,32765
6.07491,3.78721,0.552133,15,32765
6.12154,3.78826,0.55152,15,32765
6.13419,3.7683,0.547782,15,32765
6.1639,3.75835,0.546601,14,32765
6.17663,3.73785,0.54345,14,32765
6.18916,3.71759,0.539827,15,32765
6.20177,3.69702,0.536444,15,32765
6.23136,3.68674,0.534508,14,32765
6.24385,3.66603,0.531199,15,32765
6.25635,3.64508,0.52828,15,32765
6.30316,3.64437,0.527952,15,32765
6.31558,3.62328,0.524741,14,32765
6.31045,3.59247,0.520309,14,32765
6.33993,3.58135,0.518901,14,32765
6.3782,3.57473,0.518396,14,32765
6.39016,3.55372,0.515539,15,32765
6.40218,3.53249,0.512388,15,32765
6.39658,3.50163,0.508404,15,32765
6.44336,3.49959,0.508489,15,32765
6.43775,3.46846,0.504008,15,32765
6.44934,3.44729,0.501145,15,32765
6.47866,3.43507,0.499739,15,32765
6.49019,3.41366,0.496855,15,32765
6.45742,3.3692,0.490074,14,32765
6.35365,3.28798,0.478754,14,32765
6.17818,3.17133,0.46302,19,32765
6.23341,3.17321,0.464159,24,32765
6.39572,3.22867,0.47212,15,32765
6.55854,3.28278,0.481064,14,32765
6.23924,3.09607,0.454577,18,32765
6.19599,3.04873,0.448662,26,32765
6.2333,3.04103,0.44792,20,32765
6.30645,3.05072,0.449742,22,32765
6.64954,3.18964,0.471126,15,32765
6.34488,3.01733,0.446959,17,32765
6.27372,2.95818,0.438361,26,32765
6.36514,2.97518,0.441493,18,32765
6.38416,2.95822,0.440347,23,32765
6.47577,2.97449,0.443176,17,32765
6.48592,2.95268,0.440531,16,32765
6.38658,2.88206,0.430882,24,32765
6.39644,2.86054,0.42811,21,32765
6.41523,2.84326,0.42617,24,32765
6.47062,2.8417,0.426837,19,32765
6.80078,2.95908,0.445077,14,32765
6.96661,3.00358,0.452673,14,32765
6.95851,2.97223,0.448693,14,32765
6.98675,2.95728,0.446971,14,32765
7.02416,2.94597,0.446567,15,32765
7.03407,2.92275,0.442995,14,32765
7.04372,2.89974,0.440987,14,32765
7.07197,2.88394,0.438851,14,32765
7.08155,2.86079,0.435881,14,32765
7.12824,2.8521,0.435635,14,32765
7.13792,2.82828,0.432465,15,32765
7.1195,2.79374,0.428178,15,32765
7.15679,2.78115,0.42623,14,32765
7.05426,2.71456,0.416534,13,32765
7.01651,2.67394,0.411049,14,32765
7.04413,2.65794,0.408964,14,32765
7.10887,2.65633,0.409825,14,32765
7.099,2.62608,0.405336,14,32765
7.27649,2.6647,0.411937,14,32765
7.37924,2.67493,0.413788,14,32765
7.38824,2.65059,0.409714,14,32765
7.35924,2.61339,0.405226,14,32765
7.40557,2.60272,0.403676,14,32765
7.32907,2.54966,0.396052,15,32765
7.2146,2.48403,0.385768,16,32765
2.74162,0.934073,0.144999,12,32765
2.74465,0.925344,0.143652,15,32765
2.70029,0.90074,0.140047,16,32765
2.72218,0.898431,0.139405,16,32765
2.79153,0.911584,0.141417,17,32765
2.76596,0.893545,0.138294,16,32765
2.7022,0.863653,0.133404,13,32765
0,0,0,0,32765
0,0,0,0,32765
5.61643,4.1239,0.556135,14,32765
5.6621,4.12915,0.558257,14,32765
5.69998,4.12811,0.559112,14,32765
5.69751,4.09771,0.555731,14,32765
5.71126,4.07867,0.554611,13,32765
5.7412,4.07125,0.554233,14,32765
5.75475,4.05235,0.552187,14,32765
5.73534,4.01089,0.54683,13,32765
5.78137,4.01481,0.548277,13,32765
5.81092,4.00746,0.547609,13,32765
5.81623,3.98241,0.544785,13,32765
5.79665,3.94064,0.539523,13,32765
5.81813,3.92709,0.537518,13,32765
5.88914,3.94688,0.540585,13,32765
5.9106,3.93305,0.538784,13,32765
5.92378,3.91349,0.536483,13,32765
5.96202,3.91018,0.536037,13,32765
5.91663,3.85236,0.528476,13,32765
5.96302,3.85447,0.529085,13,32765
5.96743,3.82956,0.525737,13,32765
6.02216,3.83693,0.526468,13,32765
6.05167,3.82794,0.525908,13,32765
6.04743,3.79762,0.521815,13,32765
6.06009,3.77783,0.518581,13,32765
6.08972,3.76824,0.517798,13,32765
6.11089,3.75332,0.515458,13,32765
6.14075,3.7432,0.513529,13,32765
6.179,3.73822,0.513138,13,32765
6.1149,3.67108,0.503631,13,32765
6.15297,3.666,0.503704,13,32765
6.19119,3.66072,0.502354,13,32765
6.2724,3.68052,0.504917,13,32765
6.25039,3.63945,0.49956,13,32765
6.29728,3.63846,0.500018,13,32765
6.30945,3.61763,0.497635,13,32765
6.28705,3.57683,0.491658,13,32765
6.29051,3.55096,0.487602,13,32765
6.32863,3.54466,0.486536,13,32765
6.37551,3.54291,0.486569,14,32765
6.33477,3.49325,0.479939,13,32765
6.39907,3.50093,0.481119,13,32765
6.42847,3.48917,0.47891,13,32765
6.4229,3.45804,0.473792,13,32765
6.46102,3.4506,0.473417,13,32765
6.49025,3.43848,0.472436,13,32765
6.50187,3.41678,0.470008,13,32765
6.49579,3.38581,0.465419,13,32765
6.31222,3.26336,0.448158,13,32765
6.20804,3.18263,0.437354,18,32765
6.21862,3.1622,0.435119,18,32765
6.49656,3.2765,0.450922,13,32765
6.52552,3.26379,0.448754,13,32765
6.14305,3.04708,0.418519,17,32765
6.18931,3.04396,0.418114,21,32765
6.19961,3.02323,0.415956,15,32765
6.29091,3.04132,0.418104,16,32765
6.52623,3.12814,0.430716,14,32765
6.29323,2.99098,0.411957,16,32765
6.2491,2.94464,0.405262,21,32765
6.33123,2.95789,0.407925,15,32765
6.34125,2.93668,0.405577,17,32765
6.42396,2.94845,0.407202,14,32765
6.41562,2.91901,0.403569,14,32765
6.35268,2.86474,0.396472,20,32765
6.38042,2.85204,0.39507,16,32765
6.38991,2.83104,0.392761,20,32765
6.45428,2.83382,0.394059,14,32765
6.85738,2.98387,0.415889,13,32765
6.95911,3.00057,0.418815,13,32765
7.00576,2.9935,0.418621,12,32765
6.97899,2.95473,0.414054,12,32765
7.00729,2.93926,0.413249,12,32765
7.01716,2.91591,0.411128,13,32765
7.00844,2.88513,0.407368,13,32765
7.10124,2.89591,0.41046,13,32765
7.04597,2.84651,0.404749,13,32765
7.10181,2.84173,0.405526,13,32765
7.08332,2.80748,0.401815,13,32765
7.18561,2.82066,0.40474,14,32765
7.14822,2.77926,0.401252,12,32765
7.07357,2.72333,0.395182,12,32765
7.04522,2.68603,0.39067,13,32765
6.96985,2.6315,0.384809,12,32765
7.02529,2.62625,0.385004,13,32765
7.17428,2.65553,0.391795,12,32765
7.23936,2.65238,0.393596,12,32765
7.28579,2.64193,0.393829,13,32765
0,0,0,0,32765
0,0,0,0,32765
7.34894,2.58431,0.392976,14,32765
0,0,0,0,32765
7.30895,2.51711,0.388505,16,32765
0,0,0,0,32765
2.74455,0.925453,0.144906,12,32765
2.79483,0.932599,0.147208,14,32765
2.76932,0.914378,0.145522,14,32765
2.8197,0.921001,0.14816,15,32765
2.78461,0.899727,0.14599,16,32765
2.63525,0.842172,0.13825,13,32765
0,0,0,0,32765
0,0,0,0,32765
5.65595,4.16262,0.494348,16,32765
5.6615,4.13832,0.492579,16,32765
5.69135,4.13141,0.492449,16,32765
5.697,4.1068,0.489946,16,32765
5.71891,4.09352,0.489514,16,32765
5.73265,4.0745,0.487557,15,32765
5.76252,4.06708,0.486885,16,32765
5.79218,4.05986,0.486005,15,32765
5.82201,4.05221,0.485689,16,32765
5.80245,4.01066,0.480732,15,32765
5.83246,4.00251,0.48003,15,32765
5.87892,4.00554,0.480522,15,32765
5.85929,3.96373,0.475028,15,32765
5.90558,3.96673,0.475417,15,32765
5.91881,3.94728,0.472846,15,32765
5.93204,3.92765,0.470536,15,32765
5.97033,3.92429,0.469799,16,32765
5.97513,3.89903,0.466801,15,32765
6.0133,3.89553,0.466356,15,32765
6.00106,3.8596,0.461783,15,32765
6.03907,3.85613,0.460739,15,32765
6.02651,3.82035,0.456786,14,32765
6.09826,3.83788,0.458603,15,32765
6.11104,3.81788,0.455336,15,32765
6.08993,3.77653,0.450576,15,32765
6.15362,3.78774,0.451253,15,32765
6.18359,3.77744,0.449107,15,32765
6.16221,3.73609,0.444106,15,32765
6.17507,3.71516,0.440941,14,32765
6.22187,3.71499,0.441315,14,32765
6.23449,3.6942,0.437831,15,32765
6.24697,3.67341,0.434826,15,32765
6.24218,3.6424,0.43104,15,32765
6.2718,3.63142,0.429937,15,32765
6.28396,3.61063,0.427557,15,32765
6.31356,3.59949,0.42547,15,32765
6.35184,3.59313,0.423807,15,32765
6.35527,3.56707,0.420122,15,32765
6.37606,3.55065,0.418049,15,32765
6.37904,3.52502,0.414816,15,32765
6.41718,3.51817,0.413717,15,32765
6.44663,3.50632,0.411305,15,32765
6.45867,3.48454,0.407467,15,32765
6.45288,3.45341,0.404036,15,32765
6.48211,3.44128,0.402866,15,32765
6.52909,3.43817,0.402614,15,32765
6.50536,3.3978,0.397114,15,32765
6.55233,3.39447,0.395833,14,32765
6.29759,3.23517,0.3771,15,32765
6.24606,3.18266,0.371127,22,32765
6.23889,3.15298,0.367307,21,32765
6.32099,3.16795,0.368203,17,32765
6.29586,3.12924,0.362814,18,32765
6.19011,3.05055,0.353268,20,32765
6.2094,3.03415,0.351612,25,32765
6.27378,3.03919,0.351397,19,32765
6.30205,3.0268,0.350158,22,32765
6.54659,3.11768,0.360332,15,32765
6.34933,2.9979,0.345708,19,32765
6.28691,2.9431,0.339762,26,32765
6.3603,2.95141,0.340825,16,32765
6.50658,2.99236,0.345053,14,32765
6.85284,3.12417,0.360203,14,32765
6.48109,2.92848,0.33756,16,32765
6.42699,2.87858,0.33168,25,32765
6.41831,2.84928,0.328417,20,32765
6.43703,2.83185,0.326816,25,32765
6.4556,2.8146,0.325233,18,32765
6.89607,2.97927,0.344308,14,32765
6.98857,2.99204,0.34603,14,32765
7.01696,2.97665,0.344549,15,32765
7.02692,2.95328,0.342644,14,32765
7.05529,2.9375,0.341405,14,32765
7.0651,2.91414,0.3387,14,32765
7.09328,2.8983,0.337845,14,32765
7.12135,2.88256,0.336731,15,32765
7.09386,2.84406,0.333096,14,32765
7.1218,2.8282,0.331828,14,32765
7.18698,2.82665,0.332079,15,32765
7.20547,2.80692,0.331628,15,32765
7.16819,2.76506,0.328095,13,32765
7.04663,2.69172,0.319689,13,32765
7.02733,2.65827,0.317201,15,32765
7.03608,2.63531,0.31481,14,32765
7.05399,2.61597,0.314341,16,32765
7.09083,2.60288,0.314348,18,32765
7.11831,2.58608,0.313411,17,32765
7.17372,2.57981,0.315066,17,32765
2.56978,0.914632,0.112202,15,32765
2.6481,0.932968,0.115143,16,32765
2.60392,0.90803,0.112644,16,32765
2.62579,0.905971,0.113391,16,32765
2.70436,0.923307,0.116275,16,32765
2.69787,0.911395,0.115597,18,32765
2.76708,0.925039,0.11824,18,32765
2.75103,0.910005,0.117242,18,32765
2.64947,0.86698,0.112931,14,32765
2.61421,0.846206,0.111147,12,32765
2.65496,0.850009,0.112996,12,32765
0,0,0,0,32765
0,0,0,0,32765
5.65334,4.14589,0.521705,14,32765
5.65125,4.11567,0.514487,13,32765
5.70602,4.12581,0.512504,13,32765
5.6798,4.07753,0.503671,14,32765
5.69349,4.05901,0.498737,14,32765
5.72325,4.0522,0.494961,13,32765
5.77762,4.06223,0.493761,13,32765
5.75039,4.01475,0.485489,14,32765
5.78045,4.00703,0.482348,13,32765
5.7776,3.97663,0.47605,14,32765
5.83215,3.98584,0.474937,13,32765
5.8456,3.96649,0.471469,13,32765
5.89221,3.96938,0.469399,14,32765
5.89736,3.94427,0.464734,13,32765
5.8858,3.90814,0.458473,14,32765
5.87395,3.87232,0.452037,13,32765
5.94529,3.8914,0.452653,13,32765
5.99186,3.89351,0.451398,13,32765
5.92934,3.82527,0.441675,13,32765
5.98434,3.83246,0.440878,13,32765
5.99712,3.81289,0.436812,13,32765
6.00142,3.78789,0.432389,13,32765
6.08165,3.81065,0.434244,13,32765
6.06876,3.77523,0.428262,13,32765
6.10696,3.77085,0.426461,13,32765
6.13668,3.76106,0.423872,13,32765
6.13237,3.73022,0.419026,13,32765
6.11077,3.68923,0.412917,13,32765
6.17451,3.69986,0.413033,13,32765
6.16114,3.66419,0.408,13,32765
6.23352,3.6795,0.40864,13,32765
6.24587,3.65883,0.405636,13,32765
6.25831,3.63793,0.401904,13,32765
6.32248,3.64696,0.402421,13,32765
6.28281,3.59612,0.395844,13,32765
6.32965,3.59503,0.394226,13,32765
6.30678,3.5546,0.38965,13,32765
6.33634,3.54312,0.38734,13,32765
6.34841,3.52179,0.384146,13,32765
6.378,3.50993,0.38165,13,32765
6.38976,3.48877,0.378909,13,32765
6.41885,3.47743,0.376747,13,32765
6.43041,3.45624,0.374611,13,32765
6.4861,3.45845,0.373212,13,32765
6.45362,3.41341,0.368171,13,32765
6.44758,3.38233,0.364113,13,32765
6.53863,3.40234,0.367193,14,32765
6.51456,3.3624,0.360977,13,32765
6.35699,3.25416,0.348799,13,32765
6.19868,3.14706,0.337525,16,32765
6.21831,3.13067,0.335355,15,32765
6.21102,3.10094,0.331494,14,32765
6.37359,3.15559,0.337576,13,32765
6.23189,3.0593,0.326639,15,32765
6.17047,3.00329,0.320129,20,32765
6.27068,3.02589,0.321668,15,32765
6.28987,3.00928,0.31964,16,32765
6.64296,3.15095,0.334968,13,32765
6.38238,3.00124,0.318396,14,32765
6.23848,2.90836,0.308026,21,32765
6.24823,2.88759,0.305876,15,32765
6.52125,2.98754,0.316803,12,32765
6.78592,3.08164,0.326231,13,32765
6.523,2.93595,0.310152,13,32765
6.38691,2.84911,0.300018,20,32765
6.39634,2.82807,0.298101,17,32765
6.41505,2.81069,0.295324,18,32765
6.43363,2.7933,0.29372,17,32765
6.74606,2.90179,0.304527,12,32765
7.01335,2.98862,0.313029,13,32765
6.98666,2.94943,0.309043,13,32765
6.99658,2.9262,0.305407,13,32765
7.04326,2.91834,0.304348,13,32765
7.03444,2.88761,0.300903,12,32765
7.06259,2.87186,0.298426,13,32765
7.1185,2.86724,0.297152,13,32765
0,0,0,0,32765
0,0,0,0,32765
0,0,0,0,32765
0,0,0,0,32765
6.96936,2.6746,0.27459,16,32765
0,0,0,0,32765
2.52543,0.950149,0.0971048,12,32765
2.61285,0.973292,0.0989709,13,32765
2.6348,0.97171,0.0984813,15,32765
2.5347,0.925503,0.0936027,14,32765
2.45312,0.886752,0.089373,15,32765
2.43721,0.872028,0.0876559,15,32765
2.41186,0.853956,0.0852553,15,32765
2.43359,0.852556,0.0847304,16,32765
2.40803,0.834903,0.082677,15,32765
2.37287,0.814322,0.0803796,15,32765
2.32814,0.790813,0.0773767,16,32765
2.30226,0.773836,0.075326,15,32765
2.26687,0.753714,0.0728996,16,32765
2.29781,0.755782,0.0726298,16,32765
2.3572,0.767212,0.0733221,16,32765
2.22643,0.71694,0.0680027,17,32765
2.27632,0.72515,0.0679258,16,32765
2.27873,0.717703,0.0661823,16,32765
2.27146,0.707597,0.0647392,17,32765
5.64425,4.14915,0.455385,16,32765
5.6905,4.15419,0.452198,16,32765
5.68072,4.11735,0.444642,16,32765
5.72737,4.12152,0.441917,16,32765
5.72494,4.09118,0.435698,15,32765
5.72222,4.06114,0.429257,16,32765
5.76843,4.06544,0.426979,15,32765
5.76574,4.03504,0.420967,16,32765
5.79584,4.02725,0.41762,16,32765
5.82591,4.01941,0.413823,15,32765
5.8394,4.00025,0.409312,16,32765
5.88591,4.00329,0.408122,16,32765
5.89952,3.98369,0.403375,15,32765
5.89642,3.95294,0.398232,15,32765
5.92643,3.94439,0.395016,15,32765
5.93969,3.92486,0.390464,15,32765
5.96944,3.91638,0.387665,15,32765
5.98261,3.89661,0.383866,15,32765
5.97879,3.8662,0.378704,15,32765
6.03391,3.87323,0.377399,15,32765
6.02997,3.84271,0.372253,15,32765
6.05968,3.83357,0.36944,15,32765
6.07239,3.81369,0.366428,15,32765
6.13577,3.82577,0.365267,15,32765
6.13166,3.79488,0.360642,15,32765
6.17847,3.79544,0.358832,15,32765
6.17427,3.76438,0.354142,15,32765
6.18696,3.74384,0.350311,15,32765
6.18236,3.71309,0.345984,15,32765
6.2291,3.71312,0.344543,15,32765
6.22425,3.68246,0.340255,15,32765
6.25384,3.67188,0.338181,15,32765
6.26631,3.6509,0.334438,15,32765
6.29593,3.63993,0.332556,15,32765
6.32555,3.62882,0.330167,15,32765
6.34644,3.61275,0.326802,16,32765
6.35843,3.59183,0.324363,15,32765
6.37067,3.57038,0.320953,15,32765
6.38283,3.54889,0.317736,15,32765
6.38625,3.5224,0.313738,15,32765
6.42435,3.51555,0.312266,15,32765
6.43596,3.49454,0.30905,15,32765
6.46517,3.48272,0.30774,15,32765
6.46806,3.45655,0.303366,16,32765
6.52386,3.45827,0.302893,15,32765
6.50028,3.41759,0.298172,15,32765
6.52944,3.40512,0.297565,15,32765
6.55861,3.39266,0.294113,15,32765
6.57007,3.37069,0.291178,15,32765
6.44778,3.28078,0.283177,14,32765
6.27159,3.16447,0.27228,19,32765
6.29122,3.14792,0.269726,22,32765
6.54347,3.24683,0.277985,15,32765
6.62624,3.26003,0.277963,14,32765
6.25114,3.04923,0.258998,18,32765
6.23454,3.01505,0.254774,26,32765
6.29875,3.02012,0.254482,17,32765
6.60674,3.14061,0.264429,14,32765
6.76197,3.18666,0.267112,14,32765
6.39233,2.98657,0.249339,17,32765
6.33886,2.93584,0.24468,26,32765
6.36681,2.9231,0.243475,18,32765
6.84048,3.11313,0.258233,14,32765
6.86919,3.09845,0.255798,14,32765
6.48728,2.90013,0.237952,16,32765
6.44205,2.85442,0.234009,26,32765
6.43339,2.82479,0.230129,19,32765
6.49784,2.82724,0.230043,19,32765
6.4616,2.78539,0.225543,20,32765
6.54465,2.79486,0.225209,17,32765
6.83949,2.89347,0.232714,14,32765
7.03357,2.94796,0.235319,14,32765
7.04339,2.92462,0.232645,15,32765
7.02534,2.89001,0.229082,15,32765
6.90539,2.81391,0.221663,17,32765
6.84059,2.76116,0.216178,20,32765
6.84047,2.73486,0.213238,21,32765
6.8775,2.72312,0.211189,20,32765
2.51264,0.985317,0.0760797,16,32765
2.55316,0.991541,0.0761324,17,32765
2.4818,0.954445,0.0727695,15,32765
2.45693,0.935622,0.070871,15,32765
2.43197,0.916919,0.0690599,17,32765
2.41627,0.901962,0.0672598,17,32765
2.38171,0.880224,0.0651317,17,32765
2.33763,0.855347,0.0629045,17,32765
2.32161,0.840983,0.0613479,17,32765
2.3526,0.843527,0.0610952,18,32765
2.33657,0.829039,0.0592632,18,32765
2.30162,0.808017,0.0571797,17,32765
2.28535,0.794033,0.0556961,17,32765
2.29732,0.790052,0.0549565,19,32765
2.2809,0.776395,0.0531298,19,32765
2.29286,0.772297,0.0522466,18,32765
2.26695,0.755323,0.0504112,19,32765
2.2599,0.744877,0.0490339,18,32765
2.24322,0.731647,0.047566,18,32765
2.19795,0.709259,0.0453921,18,32765
2.22877,0.711495,0.0444826,17,32765
2.24065,0.707197,0.0429574,19,32765
2.17607,0.679313,0.0405595,19,32765
5.64173,4.1436,0.376232,14,32765
5.69563,4.1546,0.377644,14,32765
5.68508,4.11829,0.374802,14,32765
5.69876,4.09947,0.373348,14,32765
5.71264,4.08034,0.370764,14,32765
5.75055,4.07884,0.371294,13,32765
5.76393,4.06011,0.369001,13,32765
5.76923,4.03543,0.365876,13,32765
5.78269,4.01633,0.363391,13,32765
5.82093,4.01394,0.362468,13,32765
5.83423,3.99481,0.360013,14,32765
5.84753,3.9755,0.358053,13,32765
5.83591,3.93946,0.353973,13,32765
5.87384,3.93701,0.352636,13,32765
5.88697,3.91755,0.350453,13,32765
5.92501,3.91464,0.349193,13,32765
5.94629,3.9007,0.347228,13,32765
5.95925,3.88111,0.344595,13,32765
5.92191,3.82881,0.338833,13,32765
5.98532,3.84128,0.338929,13,32765
5.99822,3.82139,0.335806,13,32765
6.04484,3.82273,0.334965,13,32765
5.98146,3.75495,0.327784,12,32765
6.0619,3.77727,0.32883,13,32765
6.10008,3.77279,0.327845,13,32765
6.12115,3.75793,0.324982,13,32765
6.18474,3.7691,0.324738,13,32765
6.11193,3.69676,0.317405,13,32765
6.20997,3.7279,0.318732,13,32765
6.22263,3.70699,0.315508,13,32765
6.26957,3.70646,0.314229,13,32765
6.19584,3.63502,0.307027,13,32765
6.25115,3.63969,0.305627,13,32765
6.30664,3.64381,0.305084,13,32765
6.31879,3.62298,0.30167,13,32765
6.33092,3.60202,0.298192,13,32765
6.36034,3.59088,0.2963,13,32765
6.38992,3.57932,0.293705,13,32765
6.40203,3.55788,0.290527,13,32765
6.37925,3.51678,0.285568,13,32765
6.40866,3.50496,0.283532,13,32765
6.46434,3.50742,0.282644,13,32765
6.43211,3.4622,0.277941,13,32765
6.46995,3.4553,0.276049,13,32765
6.45504,3.41973,0.271955,13,32765
6.49316,3.41199,0.269882,13,32765
6.52245,3.39941,0.267001,13,32765
6.58737,3.40478,0.265428,13,32765
6.54547,3.35537,0.260606,13,32765
6.33411,3.22018,0.248188,13,32765
6.22895,3.14043,0.241517,17,32765
6.25749,3.12838,0.23882,17,32765
6.49208,3.21808,0.243629,13,32765
6.57468,3.23155,0.243926,13,32765
6.21723,3.03,0.22698,17,32765
6.20043,2.99612,0.22378,19,32765
6.3366,3.03607,0.225245,13,32765
6.69901,3.18196,0.233953,13,32765
6.74586,3.17658,0.232982,13,32765
6.34906,2.96356,0.216392,14,32765
6.27738,2.90457,0.210656,20,32765
6.38697,2.92967,0.21098,14,32765
6.81525,3.0989,0.221956,12,32765
6.88031,3.10078,0.221353,13,32765
6.44342,2.8782,0.204628,14,32765
6.40726,2.83671,0.200654,22,32765
6.48992,2.84761,0.200319,17,32765
6.53609,2.84198,0.198873,16,32765
6.47208,2.78871,0.194434,16,32765
6.48142,2.76708,0.192114,16,32765
6.59212,2.78788,0.193159,15,32765
0,0,0,0,32765
0,0,0,0,32765
2.68122,1.10245,0.0754102,13,32765
6.73067,2.74153,0.186955,18,32765
6.78586,2.73858,0.1861,19,32765
2.52485,1.00938,0.0684449,14,32765
2.44451,0.967997,0.0653863,14,32765
2.41046,0.945362,0.0637463,14,32765
2.44155,0.948232,0.063896,15,32765
2.37933,0.915154,0.0614817,15,32765
2.39171,0.91082,0.0611654,14,32765
2.3947,0.902954,0.0606986,15,32765
2.35085,0.877555,0.0591408,16,32765
2.38189,0.880165,0.0591851,17,32765
2.2815,0.834594,0.0559606,16,32765
2.32181,0.840782,0.0565994,16,32765
2.27746,0.816421,0.0549251,16,32765
2.33664,0.829097,0.0559731,16,32765
2.29216,0.804934,0.054473,17,32765
2.24757,0.781036,0.0528331,16,32765
2.26904,0.780156,0.0531549,16,32765
2.29993,0.78252,0.053758,16,32765
2.27402,0.765536,0.0527044,17,32765
2.21957,0.73926,0.0511012,17,32765
2.2979,0.757155,0.0527047,16,32765
2.21477,0.721895,0.050759,16,32765
2.1885,0.705666,0.0498405,16,32765
2.1907,0.69881,0.050143,16,32765
2.22151,0.700867,0.0507631,17,32765
2.25229,0.702908,0.0519749,16,32765
5.64712,4.15855,0.31122,17,32765
5.67688,4.15186,0.310831,16,32765
5.68252,4.12727,0.309145,16,32765
5.72865,4.13179,0.309434,16,32765
5.7589,4.12414,0.307697,15,32765
5.77254,4.1051,0.306633,15,32765
5.78602,4.08626,0.304323,15,32765
5.81595,4.07864,0.30255,15,32765
5.81316,4.04793,0.299193,15,32765
5.82685,4.02838,0.296713,15,32765
5.84021,4.00918,0.294248,14,32765
5.88659,4.01231,0.293927,15,32765
5.89993,3.99285,0.291329,15,32765
5.91315,3.97346,0.288459,15,32765
5.9264,3.95382,0.286254,15,32765
5.93957,3.93421,0.283495,15,32765
5.95257,3.91469,0.281028,15,32765
5.96558,3.89503,0.278385,15,32765
5.97861,3.8752,0.275493,15,32765
6.01696,3.87128,0.273846,15,32765
6.00469,3.83509,0.269564,16,32765
6.10199,3.86852,0.270585,16,32765
6.12336,3.85361,0.267911,15,32765
6.11936,3.82256,0.264475,15,32765
6.1322,3.80207,0.262091,15,32765
6.16188,3.7923,0.259468,15,32765
6.15734,3.76167,0.255801,15,32765
6.13581,3.72035,0.251512,15,32765
6.18251,3.72055,0.249807,15,32765
6.21231,3.70994,0.247274,15,32765
6.24205,3.69924,0.244943,15,32765
6.25447,3.6784,0.242018,15,32765
6.28401,3.66776,0.239124,15,32765
6.29633,3.64673,0.236468,15,32765
6.30849,3.62588,0.233052,15,32765
6.34667,3.61976,0.23052,15,32765
6.35005,3.59377,0.227492,15,32765
6.37091,3.57732,0.224401,15,32765
6.38301,3.55589,0.221226,15,32765
6.38647,3.52926,0.21754,15,32765
6.42469,3.52219,0.215601,15,32765
6.4365,3.50072,0.212779,15,32765
6.44824,3.47922,0.209983,15,32765
6.47732,3.46753,0.207513,15,32765
6.52425,3.46467,0.205639,15,32765
6.50059,3.42407,0.201327,15,32765
6.49447,3.39291,0.197172,15,32765
6.53272,3.38459,0.194254,16,32765
6.57079,3.37636,0.192354,15,32765
6.54658,3.33611,0.187621,15,32765
6.43291,3.25096,0.181838,14,32765
6.292,3.15309,0.174138,20,32765
6.3028,3.13165,0.17052,20,32765
6.57342,3.23857,0.175147,15,32765
6.58435,3.21649,0.171644,14,32765
6.27126,3.03749,0.160968,20,32765
6.29037,3.02102,0.158133,25,32765
6.43603,3.06424,0.157887,15,32765
6.79891,3.20908,0.164268,15,32765
6.77357,3.16912,0.160682,15,32765
6.34886,2.94453,0.147375,18,32765
6.34956,2.91933,0.144152,26,32765
6.42292,2.92733,0.142924,17,32765
6.85186,3.09516,0.14986,14,32765
6.8804,3.08056,0.147734,14,32765
6.47936,2.8753,0.136359,18,32765
6.47062,2.84573,0.133352,27,32765
6.5351,2.84814,0.131903,22,32765
6.6547,2.87404,0.131848,20,32765
6.73786,2.88322,0.130886,14,32765
6.64642,2.81734,0.126948,15,32765
6.61901,2.77955,0.123619,14,32765
2.48332,1.03305,0.0453366,16,32765
2.44051,1.00579,0.0438422,16,32765
2.44383,0.997706,0.0430813,17,32765
2.42851,0.982327,0.0419873,16,32765
2.34819,0.940908,0.0398858,17,32765
2.39774,0.951652,0.0398937,17,32765
2.39157,0.940094,0.039097,17,32765
2.31082,0.899508,0.0371692,17,32765
2.31376,0.89196,0.0364799,18,32765
2.29803,0.877137,0.0356487,17,32765
2.33833,0.883701,0.035771,18,32765
2.2757,0.851424,0.0344075,18,32765
2.23163,0.826506,0.0330774,18,32765
2.27189,0.832958,0.0329733,18,32765
2.19941,0.798254,0.0316144,18,32765
