x, y, z, intensity, ring
1.44287,0.280829,-0.0131127,13,32765
1.46345,0.279702,-0.0137529,12,32765
1.45455,0.272942,-0.013821,12,32765
1.4456,0.266314,-0.0142951,12,32765
1.40712,0.254366,-0.0141684,12,32765
1.42766,0.253126,-0.0147682,12,32765
1.47777,0.256846,-0.0154595,12,32765
1.46876,0.250203,-0.0157185,12,32765
1.4893,0.248641,-0.0162158,13,32765
1.48025,0.242038,-0.0168098,13,32765
1.48105,0.237075,-0.0169069,13,32765
1.49172,0.233589,-0.0175182,13,32765
1.49251,0.228483,-0.0178565,13,32765
1.51305,0.226368,-0.0181345,13,32765
1.46435,0.21395,-0.0176826,13,32765
1.47495,0.210433,-0.0182282,13,32765
1.48555,0.206849,-0.0187042,13,32765
1.66458,0.226081,-0.0214499,11,32765
1.71488,0.227127,-0.0223318,11,32765
0,0,-0,0,32765
1.52789,0.191714,-0.0197335,12,32765
1.6377,0.199984,-0.0212017,12,32765
1.55893,0.18499,-0.0203921,12,32765
1.53967,0.17748,-0.0203565,12,32765
1.53032,0.171206,-0.0204481,12,32765
1.63029,0.176841,-0.0220675,12,32765
1.59109,0.167209,-0.0218496,12,32765
1.5021,0.152809,-0.0208138,13,32765
1.56231,0.153611,-0.0219415,13,32765
1.56281,0.148404,-0.0222461,13,32765
1.58321,0.145022,-0.0227549,13,32765
1.52392,0.134446,-0.02227,13,32765
1.52436,0.129365,-0.0224692,13,32765
1.48491,0.121017,-0.0220528,13,32765
1.51521,0.118379,-0.0228612,13,32765
1.53554,0.114775,-0.0234209,13,32765
1.49602,0.106736,-0.0230729,13,32765
0,0,-0,0,32765
0,0,-0,0,32765
1.73651,0.106586,-0.027902,11,32765
1.55717,0.0904962,-0.0252238,13,32765
1.48757,0.0815077,-0.0243963,12,32765
0,0,-0,0,32765
1.538,0.0741128,-0.0259535,12,32765
1.48829,0.0667758,-0.0253526,13,32765
1.5784,0.0656166,-0.0272014,13,32765
1.50867,0.057693,-0.0263316,13,32765
1.54881,0.0541258,-0.0274627,13,32765
0,0,-0,0,32765
0,0,-0,0,32765
1.50927,0.0378143,-0.0278451,13,32765
1.59934,0.0348055,-0.0299722,13,32765
1.64942,0.0305219,-0.0311795,12,32765
1.39958,0.0213433,-0.0268289,14,32765
1.61957,0.0194426,-0.0316529,12,32765
1.63962,0.0143909,-0.0324661,12,32765
1.66964,0.00919444,-0.0336379,12,32765
1.60966,0.00362929,-0.0328354,12,32765
0,-0,-0,0,32765
0,-0,-0,0,32765
1.46962,-0.010862,-0.0315182,13,32765
1.39958,-0.0149782,-0.0307049,13,32765
0,-0,-0,0,32765
1.32943,0.438861,-0.00493356,12,32765
1.34034,0.437655,-0.00595489,13,32765
1.34175,0.433308,-0.00703007,13,32765
1.31456,0.419851,-0.00754125,14,32765
1.28731,0.406516,-0.00825664,14,32765
1.29818,0.405261,-0.00904725,13,32765
1.28039,0.395099,-0.00977948,14,32765
1.26256,0.384999,-0.0103944,13,32765
1.29253,0.389529,-0.0111346,13,32765
1.30338,0.388139,-0.0119871,14,32765
1.24706,0.366998,-0.0119607,13,32765
1.32506,0.385281,-0.0135084,13,32765
1.34554,0.386425,-0.0140016,13,32765
1.2891,0.365541,-0.0140566,13,32765
1.28069,0.35849,-0.0145714,14,32765
1.33971,0.370175,-0.0157736,13,32765
1.28303,0.34998,-0.0156354,13,32765
1.30348,0.35096,-0.0164134,13,32765
1.23697,0.328713,-0.0160567,13,32765
1.30576,0.342335,-0.0174812,13,32765
1.29721,0.335474,-0.0177928,13,32765
1.27894,0.326171,-0.0180987,13,32765
1.28002,0.321884,-0.0184283,13,32765
1.3296,0.32967,-0.0195817,13,32765
1.34039,0.327627,-0.0202429,13,32765
1.24426,0.299772,-0.0190398,13,32765
1.30361,0.309466,-0.0204892,13,32765
1.2949,0.302834,-0.0206924,13,32765
1.27641,0.294013,-0.0207582,13,32765
1.2579,0.285236,-0.0209346,12,32765
0,0,-0,0,32765
1.32815,0.291732,-0.0227778,12,32765
1.29979,0.280954,-0.0226364,14,32765
1.32027,0.280796,-0.0234224,13,32765
1.29183,0.270235,-0.0233038,14,32765
1.32211,0.271939,-0.0240038,13,32765
1.28382,0.259526,-0.0236703,13,32765
1.35333,0.2688,-0.0251455,13,32765
1.34442,0.262317,-0.0251276,13,32765
1.32565,0.253995,-0.0251796,13,32765
1.3658,0.256924,-0.0260769,13,32765
1.43546,0.265101,-0.0279542,13,32765
1.35763,0.246029,-0.026676,13,32765
1.37813,0.244952,-0.0274508,13,32765
1.3494,0.235119,-0.0270293,13,32765
1.3896,0.237307,-0.0281615,13,32765
1.44954,0.242605,-0.029639,13,32765
1.401,0.229651,-0.0292952,12,32765
1.38202,0.221774,-0.0289737,13,32765
1.41239,0.221718,-0.0300672,13,32765
1.35384,0.207772,-0.0291129,13,32765
1.3842,0.207607,-0.0297888,12,32765
1.52339,0.223133,-0.0329145,12,32765
1.6231,0.232148,-0.0355213,11,32765
1.61396,0.225291,-0.0356894,11,32765
1.40667,0.191531,-0.0315153,12,32765
1.51631,0.201332,-0.0341724,13,32765
1.47732,0.191065,-0.0335063,12,32765
1.40855,0.177183,-0.031582,12,32765
1.53813,0.188297,-0.0345289,13,32765
1.49905,0.178331,-0.0338482,13,32765
1.47977,0.171005,-0.0336156,13,32765
1.46046,0.163803,-0.0333776,13,32765
1.47094,0.159959,-0.0338681,13,32765
1.43169,0.150839,-0.0332413,13,32765
1.47197,0.150123,-0.0343543,13,32765
1.47246,0.145144,-0.034638,13,32765
1.47293,0.140225,-0.0349254,13,32765
1.48334,0.136221,-0.0353729,13,32765
1.40411,0.124194,-0.0338183,13,32765
1.4842,0.126281,-0.0359313,14,32765
1.47465,0.12049,-0.0358603,14,32765
1.43517,0.112416,-0.0352364,14,32765
1.45548,0.109074,-0.0359715,14,32765
1.37606,0.0984337,-0.0342402,13,32765
0,0,-0,0,32765
0,0,-0,0,32765
1.56653,0.0964076,-0.0399811,13,32765
1.48699,0.0866485,-0.0381429,13,32765
1.31757,0.0723875,-0.0340607,11,32765
0,0,-0,0,32765
1.52769,0.073818,-0.0402134,13,32765
1.45801,0.0655988,-0.0386105,12,32765
1.55809,0.064954,-0.0415686,12,32765
1.57827,0.0605264,-0.0424525,12,32765
1.60842,0.0563717,-0.0437089,12,32765
0,0,-0,0,32765
0,0,-0,0,32765
1.47896,0.0371705,-0.0412492,13,32765
1.51903,0.0331652,-0.0428081,13,32765
1.52912,0.0283921,-0.0433408,14,32765
1.45923,0.0223339,-0.0417474,13,32765
1.23939,0.0149381,-0.0359221,16,32765
1.38935,0.0122506,-0.0406254,14,32765
1.45934,0.00808447,-0.0431765,13,32765
1.47934,0.00337301,-0.0441412,13,32765
0,-0,-0,0,32765
0,-0,-0,0,32765
1.48925,-0.0110024,-0.0459981,14,32765
1.50917,-0.0161577,-0.0473569,13,32765
0,-0,-0,0,32765
1.14851,0.380202,-0.0217445,15,32765
1.27328,0.416856,-0.0240385,12,32765
1.4363,0.46519,-0.0271118,11,32765
1.39969,0.448424,-0.0263507,13,32765
1.39162,0.440815,-0.0262482,13,32765
1.37399,0.430197,-0.0260304,13,32765
1.42316,0.440437,-0.0269952,13,32765
1.41503,0.432855,-0.0270354,12,32765
1.42598,0.431189,-0.0273054,12,32765
1.40821,0.420825,-0.0272098,13,32765
1.35203,0.399275,-0.026268,13,32765
1.43972,0.420015,-0.0282206,12,32765
1.4123,0.406869,-0.0278954,12,32765
1.46175,0.415747,-0.0287921,13,32765
1.41502,0.397245,-0.0283105,12,32765
1.40671,0.389848,-0.0282345,12,32765
1.39835,0.382507,-0.0282331,12,32765
1.37065,0.370041,-0.0280826,12,32765
1.42016,0.378397,-0.0291561,13,32765
1.34406,0.353306,-0.0278153,12,32765
1.45169,0.376411,-0.030383,12,32765
1.44325,0.369057,-0.0304494,12,32765
1.42507,0.359377,-0.0303921,13,32765
1.42625,0.354645,-0.0306533,12,32765
1.43713,0.352276,-0.0311627,13,32765
1.45773,0.352142,-0.0318011,12,32765
1.3811,0.328682,-0.0303813,12,32765
1.45034,0.339981,-0.0321238,12,32765
1.39301,0.32162,-0.0312296,13,32765
1.43309,0.325741,-0.0324299,13,32765
0,0,-0,0,32765
0,0,-0,0,32765
1.42653,0.309061,-0.0331184,13,32765
1.39823,0.297985,-0.0327135,13,32765
1.41879,0.297327,-0.0334844,13,32765
1.3904,0.286506,-0.0330089,13,32765
1.42075,0.287787,-0.0340229,13,32765
1.43151,0.284948,-0.0346108,12,32765
1.45205,0.284016,-0.035678,12,32765
1.44318,0.277215,-0.0357047,12,32765
1.42446,0.268634,-0.0353605,12,32765
1.46467,0.27111,-0.0366355,12,32765
1.42623,0.258978,-0.0360009,12,32765
1.43694,0.255866,-0.0365994,13,32765
1.47718,0.257865,-0.0378571,12,32765
1.5076,0.25796,-0.0388592,12,32765
1.46901,0.246259,-0.0382564,12,32765
1.45997,0.239658,-0.0382574,12,32765
1.49037,0.239478,-0.0394575,13,32765
1.48129,0.232832,-0.0395015,13,32765
1.50182,0.230889,-0.0403661,13,32765
1.45316,0.218383,-0.039267,12,32765
1.70114,0.249755,-0.0463792,11,32765
1.74155,0.249659,-0.0478407,11,32765
1.51468,0.211888,-0.0419944,12,32765
1.51537,0.206841,-0.0421599,12,32765
1.52596,0.203053,-0.0425966,13,32765
1.49688,0.194104,-0.042197,13,32765
1.52726,0.192888,-0.0432894,13,32765
1.53781,0.188973,-0.0438479,12,32765
1.42925,0.17078,-0.0410243,12,32765
1.51918,0.176318,-0.0437232,13,32765
1.50983,0.170058,-0.0436653,13,32765
1.5402,0.168173,-0.0448962,13,32765
1.50099,0.158754,-0.0439025,13,32765
1.49156,0.152731,-0.0437358,13,32765
1.55174,0.153679,-0.045671,13,32765
1.50248,0.14374,-0.0444774,13,32765
1.54276,0.142417,-0.0458743,13,32765
1.54322,0.137223,-0.0461313,13,32765
1.58351,0.135496,-0.0473255,13,32765
1.56403,0.128545,-0.0468708,13,32765
1.58437,0.12495,-0.0476692,13,32765
1.58476,0.119763,-0.0477665,13,32765
1.5353,0.110939,-0.0463812,13,32765
1.52568,0.105207,-0.0461897,13,32765
1.51605,0.0994413,-0.0459723,12,32765
1.73584,0.108094,-0.0527519,12,32765
1.59649,0.0940995,-0.0485923,13,32765
1.54689,0.0860129,-0.0471871,12,32765
1.29763,0.0678656,-0.0395395,12,32765
1.76706,0.0865687,-0.0538969,12,32765
1.67747,0.0766771,-0.0510912,12,32765
1.69769,0.0719985,-0.0517319,12,32765
1.74785,0.0683565,-0.0532931,11,32765
1.77804,0.0636667,-0.054069,11,32765
1.64837,0.0535377,-0.0500586,12,32765
1.61857,0.0471883,-0.0490667,12,32765
1.27899,0.0330589,-0.0386795,14,32765
1.57888,0.0355407,-0.0476393,13,32765
1.51903,0.0292279,-0.0457465,13,32765
1.52912,0.0243673,-0.0458717,14,32765
1.54918,0.0195977,-0.0462936,13,32765
1.29937,0.0122246,-0.0386645,16,32765
1.51931,0.0092405,-0.0449648,13,32765
1.54932,0.00437718,-0.0457052,13,32765
1.54934,-0.000696122,-0.0453655,12,32765
1.74925,-0.00633445,-0.0508221,12,32765
1.55931,-0.0107444,-0.0449793,13,32765
1.55928,-0.0160485,-0.0444869,13,32765
1.39932,-0.0190273,-0.0393846,12,32765
1.08155,0.358991,-0.0311998,14,32765
1.10173,0.36165,-0.0317114,15,32765
1.15041,0.373584,-0.033098,14,32765
1.30387,0.418835,-0.0374355,13,32765
1.30524,0.414549,-0.0375084,13,32765
1.32569,0.416171,-0.0381938,12,32765
1.37479,0.426592,-0.0396275,13,32765
1.32839,0.407426,-0.0384602,13,32765
1.32013,0.400234,-0.0382652,13,32765
1.31185,0.393061,-0.0382412,14,32765
1.29394,0.383126,-0.0378453,13,32765
1.35276,0.395684,-0.0397875,13,32765
1.30606,0.377253,-0.0385986,12,32765
1.2785,0.364581,-0.0377024,13,32765
1.36632,0.38458,-0.0407041,13,32765
1.39649,0.388033,-0.0416807,13,32765
1.30138,0.356915,-0.0389857,13,32765
1.3122,0.355189,-0.0396904,13,32765
1.32302,0.353436,-0.0400619,14,32765
1.33386,0.351541,-0.0405991,13,32765
1.38339,0.35964,-0.0424201,12,32765
1.29744,0.332639,-0.0399929,13,32765
1.33729,0.338123,-0.0415173,13,32765
1.28991,0.321581,-0.04025,13,32765
1.30067,0.319661,-0.0408256,13,32765
1.32116,0.319985,-0.0416326,13,32765
1.34168,0.320134,-0.042514,13,32765
1.34275,0.315582,-0.0427414,13,32765
1.33405,0.308812,-0.0428147,13,32765
1.3156,0.299817,-0.0424904,12,32765
0,0,-0,0,32765
1.38589,0.306032,-0.0452593,12,32765
1.31856,0.286415,-0.0433327,13,32765
1.30974,0.279856,-0.0432706,13,32765
1.31067,0.275387,-0.0435606,13,32765
1.26265,0.26086,-0.0421331,13,32765
1.31248,0.266552,-0.0440593,13,32765
1.30356,0.260159,-0.0440528,13,32765
1.30441,0.255805,-0.0445861,13,32765
1.30526,0.251378,-0.0448289,13,32765
1.33556,0.252528,-0.0459734,12,32765
1.35605,0.251661,-0.0469274,12,32765
1.33722,0.243452,-0.046575,12,32765
1.28884,0.230097,-0.0451774,12,32765
1.28961,0.225712,-0.0454004,13,32765
1.2017,0.20616,-0.0424771,12,32765
1.14325,0.192154,-0.04071,12,32765
1.19319,0.196382,-0.0426759,12,32765
0.937313,0.151008,-0.0337732,13,32765
0.858844,0.135351,-0.0311065,12,32765
0.730889,0.112664,-0.0266231,12,32765
0.751026,0.113164,-0.0274611,12,32765
0.731625,0.107699,-0.0269254,13,32765
0.771548,0.110899,-0.0285507,13,32765
0.801603,0.112434,-0.0298638,13,32765
0.811871,0.111112,-0.0303214,13,32765
0.752806,0.10044,-0.0281825,13,32765
0.713492,0.0927673,-0.0269045,13,32765
0.753447,0.0954128,-0.0285247,14,32765
0.743841,0.0916518,-0.0282838,14,32765
0.734217,0.087967,-0.0280549,14,32765
0.724583,0.0843229,-0.0277403,14,32765
0.73479,0.0829863,-0.0282314,14,32765
0.754929,0.0826538,-0.0291755,14,32765
0.735328,0.0779843,-0.0284887,15,32765
0.695821,0.0714441,-0.0270069,15,32765
0.715939,0.0710981,-0.0278644,15,32765
0.716168,0.0687025,-0.0279933,15,32765
0.736289,0.0681562,-0.0288754,15,32765
0.746462,0.0665588,-0.0293901,15,32765
0.696902,0.0597973,-0.0274326,15,32765
0.697096,0.0574533,-0.0274954,16,32765
0.737124,0.0582959,-0.0291603,16,32765
0.747273,0.0566317,-0.0296004,16,32765
0.707589,0.0512746,-0.0280757,15,32765
0.727689,0.0503228,-0.028919,16,32765
0.697941,0.0459113,-0.0277695,15,32765
0.718032,0.0448427,-0.0286151,16,32765
0.718176,0.0424541,-0.0286533,16,32765
0.688382,0.0383896,-0.02751,15,32765
0.718441,0.0376864,-0.0286858,16,32765
0.67864,0.0333471,-0.0271162,16,32765
0.69871,0.0320356,-0.0278866,16,32765
0.678846,0.0288791,-0.027103,16,32765
0.718874,0.0282032,-0.0287136,16,32765
0.728951,0.0261859,-0.0290561,16,32765
0.689088,0.0224549,-0.0274383,16,32765
0.669185,0.0195759,-0.0266092,16,32765
0.709203,0.0183957,-0.0281484,16,32765
0.719252,0.0162499,-0.0284967,16,32765
0.709313,0.0137009,-0.0280619,16,32765
0.669394,0.0107116,-0.0264041,16,32765
0.699403,0.00888848,-0.0275061,15,32765
0.699432,0.00661554,-0.0274188,16,32765
0.699454,0.00428356,-0.0273069,15,32765
0.709459,0.00202857,-0.0276297,15,32765
0.669498,-0.00028343,-0.0259264,15,32765
0.6695,-0.00241232,-0.0257744,15,32765
0.699471,-0.0048127,-0.0267827,14,32765
0.669482,-0.00688948,-0.0254235,14,32765
0.729417,-0.00992326,-0.027419,14,32765
1.17692,0.38935,-0.0292698,14,32765
1.17815,0.385548,-0.0301071,14,32765
1.31253,0.424829,-0.0344088,13,32765
1.37099,0.438889,-0.0369029,13,32765
1.44863,0.458545,-0.039953,12,32765
1.38332,0.432926,-0.0388112,13,32765
1.39426,0.431339,-0.0398683,13,32765
1.38611,0.423755,-0.0404487,13,32765
1.38747,0.419211,-0.0412284,13,32765
1.41753,0.423282,-0.0428452,13,32765
1.39011,0.410209,-0.0426771,13,32765
1.42021,0.414067,-0.0441805,13,32765
1.46,0.420305,-0.0462796,12,32765
1.41333,0.401661,-0.0454367,12,32765
1.42429,0.399573,-0.046341,13,32765
1.49302,0.413474,-0.0491917,12,32765
1.41723,0.387468,-0.0472767,12,32765
1.35093,0.364558,-0.0457084,12,32765
1.13962,0.303542,-0.0389719,12,32765
0.927946,0.243897,-0.0320941,12,32765
0.841675,0.218214,-0.0294345,12,32765
0.939206,0.240187,-0.0332132,12,32765
1.33731,0.337238,-0.0477811,12,32765
1.25113,0.311057,-0.045028,12,32765
1.37833,0.337768,-0.0501126,12,32765
1.31143,0.31675,-0.0480448,12,32765
1.07914,0.256827,-0.0399448,12,32765
0.904854,0.212137,-0.0337195,12,32765
0.759499,0.17534,-0.0285804,12,32765
1.03293,0.234792,-0.039135,11,32765
0,0,-0,0,32765
0.91735,0.202064,-0.0352014,12,32765
0.791054,0.17144,-0.0306755,13,32765
0.781847,0.166704,-0.0304093,13,32765
0.831298,0.174294,-0.0326331,13,32765
0.743797,0.153312,-0.0293444,14,32765
0.822651,0.166669,-0.0326471,14,32765
0.823207,0.163857,-0.0328719,14,32765
0.764904,0.14959,-0.0307222,13,32765
0.785018,0.150787,-0.0317806,14,32765
0.805145,0.151889,-0.0327203,14,32765
0.795816,0.147386,-0.0324813,14,32765
0.786467,0.142926,-0.0322695,15,32765
0.806608,0.143804,-0.0332141,15,32765
0.787394,0.137664,-0.0325442,15,32765
0.768147,0.131637,-0.0319688,15,32765
0.798138,0.134015,-0.0333963,14,32765
0.78873,0.129657,-0.033081,15,32765
0.779302,0.125355,-0.0327684,15,32765
0.76985,0.121122,-0.0325564,15,32765
0.78013,0.120015,-0.0330637,16,32765
0.780526,0.117375,-0.0332105,16,32765
0.761144,0.111794,-0.0325947,16,32765
0.731844,0.104963,-0.0314259,16,32765
0.771767,0.108016,-0.0332919,16,32765
0.77212,0.105425,-0.0334123,16,32765
0.782368,0.104149,-0.0339492,16,32765
0.772805,0.100193,-0.0336788,16,32765
0.763221,0.0963445,-0.033339,16,32765
0.793284,0.0974398,-0.0347331,16,32765
0.783678,0.0935995,-0.0344733,16,32765
0.764135,0.0886742,-0.0336881,17,32765
0.764421,0.0860924,-0.0338926,17,32765
0.734909,0.0802601,-0.0326686,18,32765
0.735171,0.0777818,-0.0327716,17,32765
0.775176,0.0793978,-0.0346242,17,32765
0.775433,0.0768308,-0.0346585,17,32765
0.745845,0.071348,-0.0335393,18,32765
0.756022,0.0697639,-0.0341231,18,32765
0.756246,0.0672037,-0.0342856,18,32765
0.766417,0.0655092,-0.0348262,18,32765
0.746717,0.0612938,-0.0340203,18,32765
0.74691,0.0587692,-0.0342264,18,32765
0.767021,0.0577602,-0.0352427,18,32765
0.777163,0.0559291,-0.0359115,19,32765
0.75741,0.0519947,-0.0350132,19,32765
0.767534,0.0501615,-0.0357093,19,32765
0.767689,0.0476127,-0.0358727,19,32765
0.767841,0.0450652,-0.0359134,20,32765
0.767979,0.0424594,-0.036123,20,32765
0.758134,0.0393716,-0.0358045,19,32765
0.768232,0.037365,-0.0363805,20,32765
0.758364,0.0343526,-0.036115,20,32765
0.768445,0.032289,-0.0367377,20,32765
0.758559,0.0293531,-0.0364181,20,32765
0.768628,0.0271928,-0.0370368,20,32765
0.778687,0.0249487,-0.0377306,20,32765
0.778755,0.0223358,-0.0379628,21,32765
0.778818,0.0197631,-0.0381142,20,32765
0.768885,0.0169599,-0.037786,21,32765
0.768932,0.014454,-0.0378826,21,32765
0.768963,0.0119949,-0.0381102,20,32765
0.758999,0.00937043,-0.0378508,20,32765
0.759012,0.00688107,-0.0381303,20,32765
0.76901,0.00439114,-0.0387898,19,32765
0.769012,0.00182186,-0.0389502,19,32765
0.759013,-0.000663956,-0.038707,19,32765
0.758992,-0.00311784,-0.0390027,19,32765
0.768954,-0.00560557,-0.0397366,19,32765
0.768914,-0.00807275,-0.0400842,18,32765
0.768872,-0.0105526,-0.0403131,18,32765
1.05297,0.349288,-0.0366298,14,32765
0.997097,0.327182,-0.0353593,15,32765
0.988624,0.320856,-0.035703,14,32765
0.942049,0.302392,-0.0346731,13,32765
0.857282,0.272097,-0.0321134,12,32765
0.791404,0.248351,-0.0300157,13,32765
0.811289,0.251668,-0.0311989,13,32765
0.793,0.243091,-0.0309537,14,32765
0.77465,0.234689,-0.0306437,14,32765
0.756247,0.226433,-0.0302951,15,32765
0.747381,0.221144,-0.0302887,15,32765
0.757677,0.221504,-0.0310085,15,32765
0.758407,0.218924,-0.0314792,15,32765
0.749527,0.213591,-0.0314416,15,32765
0.750234,0.211045,-0.0317556,16,32765
0.722043,0.200505,-0.0308534,16,32765
0.770866,0.211328,-0.0332502,16,32765
0.752256,0.203555,-0.0327997,16,32765
0.772213,0.206241,-0.0339436,17,32765
0.753553,0.1986,-0.0334107,17,32765
0.734863,0.191041,-0.0328594,16,32765
0.725802,0.186118,-0.0327331,17,32765
0.736094,0.186133,-0.0334613,17,32765
0.746399,0.186077,-0.0341186,16,32765
0.747009,0.183558,-0.0344155,17,32765
0.747607,0.181062,-0.0346454,16,32765
0.73848,0.176233,-0.0344978,17,32765
0.73906,0.173741,-0.0347043,16,32765
0.729902,0.168968,-0.0345359,16,32765
0.730461,0.166493,-0.034745,14,32765
0,0,-0,0,32765
0.751052,0.165887,-0.036079,16,32765
0.732074,0.159093,-0.0354591,16,32765
0.742367,0.15872,-0.0360391,17,32765
0.742891,0.156185,-0.0363284,16,32765
0.723847,0.149609,-0.0355349,16,32765
0.743917,0.151132,-0.036689,16,32765
0.715036,0.142718,-0.0354363,16,32765
0.735105,0.144158,-0.0365981,16,32765
0.735574,0.141679,-0.0368521,16,32765
0.745848,0.141091,-0.0374783,17,32765
0.756127,0.140422,-0.0381238,16,32765
0.756586,0.137875,-0.0383062,16,32765
0.727543,0.130067,-0.0369383,16,32765
0.737805,0.129352,-0.0375692,16,32765
0.708697,0.121786,-0.0362866,16,32765
0.709095,0.119395,-0.0364627,16,32765
0.729205,0.120205,-0.0375656,16,32765
0.709891,0.114508,-0.0366424,16,32765
0.739866,0.11673,-0.0383644,16,32765
0.720517,0.111153,-0.0374247,16,32765
0.730758,0.110198,-0.0380751,16,32765
0.701481,0.10332,-0.0367391,16,32765
0.682052,0.0980966,-0.0357987,16,32765
0.712043,0.0999383,-0.0375097,16,32765
0.71237,0.0975411,-0.0376211,16,32765
0.722587,0.0964628,-0.0382441,17,32765
0.742711,0.0965642,-0.0394452,15,32765
0.713306,0.0902997,-0.0379536,16,32765
0.733423,0.090344,-0.0390961,15,32765
0.703968,0.0843199,-0.037668,15,32765
0.704243,0.0819586,-0.0377489,15,32765
0.714429,0.080694,-0.0384719,15,32765
0.714692,0.078278,-0.038566,15,32765
0.695088,0.0737545,-0.0375923,15,32765
0.73506,0.0755084,-0.0398175,15,32765
0.725368,0.0720807,-0.0393117,15,32765
0.695778,0.0667545,-0.0378958,15,32765
0.666164,0.061654,-0.0363923,15,32765
0.706144,0.0629382,-0.0387169,15,32765
0.716297,0.0614085,-0.0393459,15,32765
0.696592,0.0573517,-0.0383452,15,32765
0.686818,0.0542051,-0.0379871,15,32765
0.706904,0.053396,-0.0391838,15,32765
0.697109,0.0503229,-0.0388214,15,32765
0.687309,0.0473294,-0.0382873,15,32765
0.697412,0.0457223,-0.0390563,15,32765
0.697552,0.0434006,-0.0392049,15,32765
0.697691,0.0410799,-0.039242,15,32765
0.707785,0.0392593,-0.0399959,15,32765
0.707904,0.0368851,-0.0401366,15,32765
0.717989,0.0350391,-0.0408,15,32765
0.728064,0.0330936,-0.0415655,14,32765
0.728161,0.0307039,-0.0417053,14,32765
0.688346,0.0267322,-0.0395631,15,32765
0.718355,0.0255085,-0.0414138,15,32765
0.678513,0.0218227,-0.0392985,17,32765
0.678571,0.0195403,-0.0395009,18,32765
0.698583,0.0178017,-0.0407986,17,32765
0.768493,0.0170269,-0.0450389,14,32765
0.728615,0.0137619,-0.0427907,14,32765
0.758587,0.0118957,-0.0447739,14,32765
0.768589,0.00954612,-0.0456016,13,32765
0.758618,0.00692799,-0.0452887,12,32765
0.778591,0.0044912,-0.0466404,12,32765
0.81852,0.00198004,-0.0492029,13,32765
0.758614,-0.000631727,-0.0458653,12,32765
0.818479,-0.00333425,-0.0498051,12,32765
0.758564,-0.00550986,-0.0463785,13,32765
0.788463,-0.00826338,-0.0485657,12,32765
0.728537,-0.00999129,-0.0450941,12,32765
0.824518,0.274508,-0.0414087,14,32765
0.806457,0.265517,-0.0403561,14,32765
0.873839,0.28443,-0.0436459,15,32765
0.846253,0.272337,-0.0422843,15,32765
0.828113,0.263487,-0.0412761,14,32765
0.848021,0.26677,-0.0423617,15,32765
0.848882,0.264012,-0.0424011,14,32765
0.840198,0.258268,-0.0420015,15,32765
0.841046,0.25547,-0.0421467,15,32765
0.841894,0.252646,-0.0422538,15,32765
0.842723,0.249853,-0.0423265,15,32765
0.843525,0.247101,-0.0425062,15,32765
0.834743,0.241517,-0.0421079,15,32765
0.806716,0.23052,-0.0408603,15,32765
0.836325,0.235927,-0.0424191,15,32765
0.817865,0.227736,-0.04164,15,32765
0.79936,0.21968,-0.0407882,15,32765
0.809731,0.219582,-0.0414588,15,32765
0.820102,0.219452,-0.0421027,15,32765
0.791856,0.209048,-0.0407867,15,32765
0.802205,0.208913,-0.0414988,15,32765
0.84158,0.2162,-0.0435932,15,32765
0.803563,0.203575,-0.0417644,15,32765
0.813914,0.203309,-0.0425284,14,32765
0.785495,0.193399,-0.0411674,15,32765
0.766719,0.186043,-0.0403729,14,32765
0.786761,0.188104,-0.0415155,14,32765
0.797092,0.187771,-0.0422582,15,32765
0.797713,0.185082,-0.0424114,15,32765
0.798326,0.182367,-0.0426401,15,32765
0.857388,0.192815,-0.0459105,12,32765
0,0,-0,0,32765
0.761074,0.165757,-0.0411201,15,32765
0.771388,0.165281,-0.0417477,15,32765
0.762162,0.160594,-0.0414554,15,32765
0.752914,0.155967,-0.0411713,16,32765
0.763215,0.155395,-0.0418868,15,32765
0.763736,0.152755,-0.0421142,16,32765
0.734848,0.144382,-0.0406537,16,32765
0.764737,0.147546,-0.0425048,16,32765
0.7456,0.141254,-0.0415725,16,32765
0.74606,0.138761,-0.0417156,16,32765
0.746507,0.136251,-0.0419861,17,32765
0.746951,0.133746,-0.0421381,17,32765
0.757229,0.132895,-0.04294,17,32765
0.747829,0.128606,-0.042569,17,32765
0.728568,0.122718,-0.0415836,17,32765
0.758527,0.125099,-0.0434421,17,32765
0.749079,0.120951,-0.0430315,17,32765
0.739609,0.116848,-0.0427127,17,32765
0.749853,0.115881,-0.0434949,17,32765
0.760111,0.114802,-0.0441767,17,32765
0.750614,0.110725,-0.0437948,17,32765
0.760861,0.109584,-0.0445137,18,32765
0.731561,0.102829,-0.0429426,18,32765
0.751671,0.103102,-0.0442731,17,32765
0.7619,0.101907,-0.0449779,17,32765
0.841423,0.109631,-0.0498801,13,32765
0.861587,0.109294,-0.0512162,13,32765
0.832219,0.102729,-0.0495729,13,32765
0.892013,0.107094,-0.0533329,12,32765
0.9221,0.107649,-0.0551681,12,32765
0,0,-0,0,32765
0,0,-0,0,32765
0.863554,0.0920011,-0.0520604,12,32765
0,0,-0,0,32765
0,0,-0,0,32765
0,0,-0,0,32765
0,0,-0,0,32765
0.884831,0.0792065,-0.0538534,12,32765
0,0,-0,0,32765
0,0,-0,0,32765
0,0,-0,0,32765
0,0,-0,0,32765
0,0,-0,0,32765
0,0,-0,0,32765
0,0,-0,0,32765
0,0,-0,0,32765
0,0,-0,0,32765
0,0,-0,0,32765
0,0,-0,0,32765
0,0,-0,0,32765
0,0,-0,0,32765
0,0,-0,0,32765
0,0,-0,0,32765
0,0,-0,0,32765
0,0,-0,0,32765
0,0,-0,0,32765
0,0,-0,0,32765
0,0,-0,0,32765
0,0,-0,0,32765
0,0,-0,0,32765
0,0,-0,0,32765
0,0,-0,0,32765
0,0,-0,0,32765
0,0,-0,0,32765
0,-0,-0,0,32765
0,-0,-0,0,32765
0,-0,-0,0,32765
0,-0,-0,0,32765
0.818525,-0.010981,-0.047923,14,32765
0.748116,0.249792,-0.0450119,15,32765
0.72051,0.237905,-0.0432132,15,32765
0.749786,0.244755,-0.0448908,15,32765
0.750597,0.242249,-0.044946,16,32765
0.741885,0.23673,-0.0443258,15,32765
0.723609,0.228287,-0.0433064,15,32765
0.743409,0.231872,-0.0444812,15,32765
0.763251,0.235288,-0.0456921,15,32765
0.744923,0.226922,-0.044679,16,32765
0.745677,0.224413,-0.0447744,16,32765
0.736845,0.219088,-0.0442646,15,32765
0.737549,0.216675,-0.0444222,15,32765
0.728675,0.211432,-0.0439198,16,32765
0.738959,0.211762,-0.0446855,15,32765
0.730061,0.206539,-0.0441925,15,32765
0.749977,0.209429,-0.0455358,15,32765
0.74105,0.204237,-0.0450712,16,32765
0.712832,0.193858,-0.0434734,15,32765
0.742395,0.199226,-0.0453725,16,32765
0.714102,0.18906,-0.0437585,15,32765
0.695404,0.181616,-0.0427624,15,32765
0.724997,0.186782,-0.0446261,15,32765
0.70626,0.179435,-0.0435907,15,32765
0.735891,0.184345,-0.0456184,16,32765
0.71712,0.177069,-0.0445625,16,32765
0.727399,0.177007,-0.0453758,16,32765
0.737692,0.176877,-0.0460942,16,32765
0.738266,0.174411,-0.0463079,16,32765
0.738842,0.171913,-0.0464502,16,32765
0.74914,0.171622,-0.0472764,16,32765
0.759446,0.171278,-0.0480241,13,32765
0,0,-0,0,32765
0.731311,0.159732,-0.0465879,16,32765
0.731841,0.157257,-0.0466835,16,32765
0.742124,0.156821,-0.0475364,16,32765
0.723097,0.150221,-0.0465234,17,32765
0.704038,0.143759,-0.0454332,17,32765
0.714303,0.14328,-0.0462773,16,32765
0.714778,0.140844,-0.0464326,17,32765
0.715242,0.138396,-0.0466433,17,32765
0.676479,0.12853,-0.0442309,17,32765
0.706328,0.131751,-0.0462897,17,32765
0.716567,0.131166,-0.0471926,17,32765
0.707173,0.126992,-0.0466904,17,32765
0.71742,0.126275,-0.0475737,17,32765
0.708004,0.122112,-0.047099,17,32765
0.688734,0.116347,-0.0459186,17,32765
0.718652,0.11887,-0.0480504,18,32765
0.70919,0.114846,-0.0475379,18,32765
0.699706,0.110869,-0.0471121,18,32765
0.719783,0.111562,-0.0486436,18,32765
0.71029,0.107594,-0.0480799,18,32765
0.710645,0.105139,-0.0482618,18,32765
0.720867,0.104132,-0.0490675,18,32765
0.691568,0.0974971,-0.0472056,18,32765
0.721531,0.0992632,-0.049392,18,32765
0.711964,0.0955134,-0.04883,18,32765
0.781521,0.102132,-0.0537904,14,32765
0.880822,0.112071,-0.0607657,11,32765
0.702968,0.0870371,-0.04858,17,32765
0.762672,0.0918439,-0.0528729,13,32765
0.802601,0.0939836,-0.0556699,13,32765
0,0,-0,0,32765
0,0,-0,0,32765
0.82332,0.0879857,-0.0574757,11,32765
0,0,-0,0,32765
0,0,-0,0,32765
0,0,-0,0,32765
0,0,-0,0,32765
0.844521,0.0758387,-0.0594308,12,32765
0,0,-0,0,32765
0,0,-0,0,32765
0,0,-0,0,32765
0,0,-0,0,32765
0,0,-0,0,32765
0,0,-0,0,32765
0,0,-0,0,32765
0,0,-0,0,32765
0,0,-0,0,32765
0,0,-0,0,32765
0,0,-0,0,32765
0,0,-0,0,32765
0,0,-0,0,32765
0,0,-0,0,32765
0,0,-0,0,32765
0,0,-0,0,32765
0,0,-0,0,32765
0,0,-0,0,32765
0,0,-0,0,32765
0,0,-0,0,32765
0,0,-0,0,32765
0,0,-0,0,32765
0,0,-0,0,32765
0,0,-0,0,32765
0,0,-0,0,32765
0,0,-0,0,32765
0,-0,-0,0,32765
0,-0,-0,0,32765
0,-0,-0,0,32765
0,-0,-0,0,32765
0.957701,-0.0128329,-0.065143,12,32765
0.814825,0.27116,-0.0461882,15,32765
0.815654,0.268544,-0.0468264,15,32765
0.825983,0.268968,-0.0480459,15,32765
0.798315,0.257089,-0.0468961,15,32765
0.846687,0.269613,-0.0503042,15,32765
0.847554,0.266768,-0.0508639,15,32765
0.80073,0.249153,-0.0485218,15,32765
0.801524,0.24649,-0.0490057,15,32765
0.802302,0.243861,-0.0494306,15,32765
0.822187,0.246984,-0.0510638,16,32765
0.822971,0.244252,-0.0515782,15,32765
0.823749,0.241533,-0.0519553,15,32765
0.757421,0.219306,-0.0481406,15,32765
0.815702,0.233244,-0.052219,15,32765
0.835658,0.235966,-0.0538176,15,32765
0.817179,0.227826,-0.0530444,15,32765
0.827529,0.227778,-0.0539731,16,32765
0.818637,0.222361,-0.0537406,16,32765
0.800089,0.214423,-0.0527295,16,32765
0.820079,0.216833,-0.0543549,16,32765
0.78216,0.203984,-0.052113,16,32765
0.792483,0.203854,-0.0530532,16,32765
0.802809,0.203662,-0.0540369,17,32765
0.793794,0.198539,-0.0536028,17,32765
0.804116,0.198273,-0.0546284,17,32765
0.795064,0.193206,-0.0542638,17,32765
0.805387,0.192875,-0.0552418,17,32765
0.7866,0.185547,-0.05415,17,32765
0.787208,0.182866,-0.0544425,17,32765
0.778092,0.177928,-0.0539827,17,32765
0.788409,0.177482,-0.0548762,15,32765
0,0,-0,0,32765
0.779812,0.170019,-0.0546449,16,32765
0.780363,0.167397,-0.0548858,17,32765
0.810201,0.170915,-0.0571169,16,32765
0.781458,0.162084,-0.0552403,17,32765
0.772213,0.157458,-0.0547149,17,32765
0.772729,0.154824,-0.0549439,17,32765
0.783024,0.154115,-0.0558731,17,32765
0.783531,0.151481,-0.0559765,17,32765
0.784028,0.148827,-0.0561351,17,32765
0.7747,0.144372,-0.0556406,17,32765
0.794797,0.145325,-0.057259,17,32765
0.79528,0.142618,-0.0573544,17,32765
0.795748,0.139897,-0.0575695,17,32765
0.78638,0.135513,-0.0569514,17,32765
0.786823,0.132886,-0.0570209,17,32765
0.767571,0.126975,-0.0557873,18,32765
0.787678,0.12755,-0.0573948,18,32765
0.768402,0.121699,-0.0561054,18,32765
0.758958,0.117509,-0.0554417,18,32765
0.788935,0.119339,-0.0577854,17,32765
0.779466,0.115169,-0.0571746,17,32765
0.760104,0.109672,-0.0558082,18,32765
0.760458,0.107112,-0.0559548,18,32765
0.780569,0.107249,-0.0575268,18,32765
0.780919,0.104612,-0.0576374,18,32765
0.761478,0.0993867,-0.0563389,17,32765
0.89042,0.113149,-0.0659491,12,32765
0.772014,0.0954505,-0.0572965,14,32765
0.881249,0.105928,-0.0654136,14,32765
0.911308,0.106423,-0.0677682,13,32765
0.921559,0.104467,-0.0686708,12,32765
1.09041,0.119869,-0.0814041,12,32765
0.912309,0.09718,-0.0681783,12,32765
0.912619,0.0940838,-0.0683709,11,32765
0.922843,0.0920145,-0.069242,12,32765
0.893359,0.086019,-0.0671583,12,32765
1.00285,0.0931783,-0.0755116,12,32765
0.933617,0.0835904,-0.0705158,12,32765
0,0,-0,0,32765
0,0,-0,0,32765
0,0,-0,0,32765
0,0,-0,0,32765
0,0,-0,0,32765
0,0,-0,0,32765
0,0,-0,0,32765
0,0,-0,0,32765
0.935599,0.0553497,-0.072047,12,32765
0.885983,0.049475,-0.0684548,13,32765
0.846305,0.0444437,-0.0655178,12,32765
0.856401,0.0421444,-0.0663396,12,32765
0.896356,0.0410928,-0.0696989,12,32765
0.886505,0.0376888,-0.0691939,13,32765
0,0,-0,0,32765
0,0,-0,0,32765
0,0,-0,0,32765
0,0,-0,0,32765
0,0,-0,0,32765
0,0,-0,0,32765
0,0,-0,0,32765
0,0,-0,0,32765
0,0,-0,0,32765
0,0,-0,0,32765
0,0,-0,0,32765
0.857178,0.00240212,-0.0695759,12,32765
0.757483,-0.000349932,-0.061803,12,32765
0.807283,-0.00304777,-0.0662121,12,32765
0.966705,-0.00681487,-0.0795934,12,32765
0.936745,-0.00964641,-0.0775586,12,32765
0.85695,-0.0116011,-0.0714234,12,32765
0.757338,0.252769,-0.0504669,16,32765
0.758108,0.250331,-0.0510608,17,32765
0.749396,0.244747,-0.0510356,17,32765
0.759656,0.24536,-0.0521647,17,32765
0.779432,0.248928,-0.0540372,17,32765
0.7612,0.240295,-0.0532226,17,32765
0.761953,0.237787,-0.0537137,16,32765
0.772242,0.238186,-0.0548521,16,32765
0.744363,0.226918,-0.0532153,16,32765
0.754624,0.227358,-0.054317,16,32765
0.755343,0.224844,-0.0547897,16,32765
0.746488,0.219527,-0.0544385,16,32765
0.708882,0.20586,-0.052035,16,32765
0.757481,0.217238,-0.0559435,16,32765
0.748577,0.212003,-0.0555673,16,32765
0.739642,0.206821,-0.0552755,16,32765
0.749916,0.207027,-0.05627,16,32765
0.740963,0.201861,-0.0559068,16,32765
0.731995,0.196756,-0.055413,16,32765
0.75191,0.1994,-0.0571972,16,32765
0.74291,0.194324,-0.0567646,16,32765
0.753193,0.194324,-0.0577844,16,32765
0.773143,0.19672,-0.0595909,16,32765
0.744769,0.186832,-0.0575604,16,32765
0.764724,0.189123,-0.0594096,16,32765
0.745961,0.181815,-0.0581815,16,32765
0.736847,0.176988,-0.0577158,16,32765
0.73743,0.174469,-0.0579407,16,32765
0.738001,0.171948,-0.0582153,15,32765
0.748292,0.171626,-0.059186,16,32765
0.739129,0.166887,-0.0586229,15,32765
0,0,-0,0,32765
0.740211,0.16187,-0.0590474,14,32765
0.75048,0.161471,-0.0600564,16,32765
0.770521,0.163034,-0.0617812,15,32765
0.732016,0.152287,-0.0588294,16,32765
0.742281,0.151812,-0.059773,15,32765
0.742778,0.149273,-0.0599935,15,32765
0.753045,0.148663,-0.0610082,15,32765
0.733962,0.142327,-0.0595208,15,32765
0.754014,0.143564,-0.0612609,15,32765
0.744677,0.139199,-0.0606649,15,32765
0.745131,0.136658,-0.0608619,15,32765
0.725965,0.130584,-0.0593478,14,32765
0.765657,0.135018,-0.0627631,14,32765
0.736637,0.12733,-0.0604363,15,32765
0.746882,0.126527,-0.0613085,14,32765
0.737457,0.122368,-0.0606865,14,32765
0.728019,0.118252,-0.0600414,14,32765
0.708727,0.112594,-0.0585531,14,32765
0.728807,0.11319,-0.0602333,14,32765
0.758746,0.115128,-0.0628522,14,32765
0.74927,0.111052,-0.0621435,14,32765
0.720046,0.104217,-0.0597675,14,32765
0.730251,0.103179,-0.0607274,14,32765
0.720715,0.0993356,-0.0600165,14,32765
0.711162,0.0955675,-0.0592954,14,32765
0.750995,0.0983285,-0.0627483,14,32765
0.860062,0.109638,-0.0719257,12,32765
0.751628,0.093226,-0.0629689,12,32765
0.920133,0.110956,-0.0770927,12,32765
0.821514,0.096245,-0.0689384,12,32765
0.831724,0.094588,-0.0699191,12,32765
0.841934,0.0928543,-0.0708912,12,32765
0.911596,0.0974211,-0.0768244,12,32765
0.78305,0.0809914,-0.0661343,12,32765
0.86263,0.0862952,-0.0729513,12,32765
0.793477,0.076656,-0.067215,13,32765
0.892935,0.0832435,-0.0757464,12,32765
0.883266,0.0793496,-0.0751298,12,32765
0,0,-0,0,32765
0,0,-0,0,32765
0,0,-0,0,32765
0,0,-0,0,32765
0,0,-0,0,32765
0,0,-0,0,32765
0,0,-0,0,32765
0,0,-0,0,32765
0.855304,0.0507896,-0.0739991,11,32765
0.716189,0.0401464,-0.0621469,12,32765
0.756103,0.0398617,-0.0657244,12,32765
0.796028,0.0393295,-0.0692311,12,32765
0.796135,0.0366475,-0.0694744,12,32765
0.806184,0.0344181,-0.070588,12,32765
0,0,-0,0,32765
0,0,-0,0,32765
0,0,-0,0,32765
0,0,-0,0,32765
0,0,-0,0,32765
0,0,-0,0,32765
0,0,-0,0,32765
0,0,-0,0,32765
0,0,-0,0,32765
0,0,-0,0,32765
0,0,-0,0,32765
1.17517,0.003382,-0.106555,15,32765
1.48386,-0.000585874,-0.13517,13,32765
1.46387,-0.0054408,-0.133978,13,32765
1.42397,-0.00996707,-0.130777,13,32765
1.49357,-0.0153181,-0.13786,13,32765
1.49344,-0.0201676,-0.138671,13,32765
1.03043,0.345026,-0.0852244,14,32765
0.993711,0.329112,-0.0820016,14,32765
1.00424,0.328987,-0.082858,14,32765
0.948428,0.307231,-0.0780562,14,32765
0.977924,0.313195,-0.0804518,13,32765
0.969446,0.306922,-0.079838,13,32765
0.913364,0.285863,-0.0751618,12,32765
0.999997,0.309386,-0.0823795,13,32765
0.962868,0.294446,-0.0792849,13,32765
0.916113,0.276857,-0.0754123,13,32765
0.936139,0.279458,-0.0771193,12,32765
0.93706,0.276331,-0.0771948,13,32765
0.75612,0.220204,-0.062388,15,32765
0.919726,0.264459,-0.0759306,13,32765
0.90142,0.255923,-0.0744704,12,32765
0.844675,0.236725,-0.0698921,13,32765
0.78781,0.217936,-0.0652582,13,32765
0.913545,0.249403,-0.0757191,13,32765
0.875853,0.235985,-0.0727517,12,32765
0.895905,0.23815,-0.0744295,12,32765
0.896683,0.235118,-0.0746919,12,32765
0.945729,0.244524,-0.0787678,13,32765
1.06245,0.270817,-0.0886832,13,32765
0.957005,0.240475,-0.0800765,12,32765
0.996497,0.246841,-0.0834481,12,32765
0.95857,0.234038,-0.0804338,13,32765
0.910888,0.219148,-0.0765322,12,32765
1.01829,0.241337,-0.0856709,12,32765
0.93175,0.217446,-0.0784835,12,32765
1.03932,0.238776,-0.0877847,12,32765
1.1276,0.25497,-0.0954287,12,32765
1.36191,0.303129,-0.115445,11,32765
0,0,-0,0,32765
1.10085,0.237193,-0.093617,12,32765
1.2771,0.27063,-0.108925,12,32765
0.82924,0.172752,-0.0708422,14,32765
1.22032,0.249856,-0.104395,12,32765
1.33837,0.269204,-0.114829,13,32765
1.33928,0.264582,-0.115057,12,32765
1.30102,0.252427,-0.111947,13,32765
1.2529,0.23867,-0.108033,12,32765
1.36143,0.254581,-0.117516,12,32765
1.31324,0.240991,-0.113727,13,32765
1.41207,0.254196,-0.122609,13,32765
1.34422,0.237317,-0.116822,13,32765
0,0,-0,0,32765
0,0,-0,0,32765
1.4153,0.234833,-0.124009,12,32765
1.39641,0.226753,-0.122543,13,32765
1.50539,0.239148,-0.132379,13,32765
1.44708,0.224828,-0.12772,13,32765
1.42814,0.216894,-0.125985,12,32765
1.48796,0.220728,-0.131788,13,32765
1.51826,0.219885,-0.134662,12,32765
1.48937,0.210527,-0.132475,12,32765
1.51965,0.209598,-0.135439,12,32765
1.52031,0.204517,-0.135768,13,32765
1.48146,0.194199,-0.132496,12,32765
1.48209,0.189154,-0.1328,13,32765
1.4827,0.184052,-0.133101,13,32765
1.59206,0.192092,-0.143291,11,32765
0,0,-0,0,32765
0,0,-0,0,32765
0,0,-0,11,32765
0,0,-0,12,32765
0,0,-0,0,32765
1.3279,0.133105,-0.120695,11,32765
1.26884,0.122834,-0.115553,12,32765
1.40806,0.131515,-0.128378,12,32765
1.45807,0.131244,-0.133106,11,32765
1.6966,0.146954,-0.155135,11,32765
1.53828,0.128101,-0.140648,12,32765
1.52875,0.122138,-0.140059,11,32765
1.46956,0.112486,-0.134727,12,32765
1.58909,0.116271,-0.145909,12,32765
1.67886,0.117227,-0.154228,12,32765
1.62955,0.108331,-0.149776,11,32765
1.54044,0.0972064,-0.141717,12,32765
1.80914,0.108118,-0.166471,11,32765
0,0,-0,0,32765
0,0,-0,0,32765
0,0,-0,11,32765
0,0,-0,12,32765
0,0,-0,11,32765
0,0,-0,11,32765
0,0,-0,0,32765
0,0,-0,0,32765
0,0,-0,0,32765
0,0,-0,0,32765
0,0,-0,0,32765
0,0,-0,0,32765
0,0,-0,0,32765
0,0,-0,0,32765
0,0,-0,0,32765
0,0,-0,0,32765
0,0,-0,0,32765
1.45398,-6.49306e-05,-0.132487,14,32765
1.58346,-0.00537678,-0.143998,12,32765
1.51377,-0.0101,-0.137149,13,32765
1.49386,-0.0148866,-0.134776,12,32765
1.45402,-0.0192457,-0.130642,12,32765
1.26538,0.42502,-0.117306,13,32765
1.09662,0.364329,-0.101445,14,32765
1.10726,0.363866,-0.102403,15,32765
1.09899,0.357114,-0.1014,15,32765
1.14759,0.36868,-0.105835,15,32765
1.11083,0.352778,-0.102529,15,32765
1.09297,0.343141,-0.100801,14,32765
1.30338,0.404504,-0.120309,12,32765
1.22851,0.376847,-0.113341,13,32765
1.22974,0.372792,-0.113412,14,32765
1.34549,0.402907,-0.124159,13,32765
1.31817,0.389923,-0.121624,13,32765
0.650167,0.189935,-0.0600685,15,32765
1.3686,0.39475,-0.126496,13,32765
1.42739,0.406508,-0.131998,13,32765
1.35202,0.380086,-0.125192,13,32765
1.37247,0.380852,-0.127198,13,32765
1.33531,0.365678,-0.123809,13,32765
1.33649,0.361214,-0.124147,13,32765
1.31845,0.351558,-0.122478,13,32765
1.32923,0.349617,-0.123762,13,32765
1.32077,0.342554,-0.12295,13,32765
1.32191,0.338,-0.123288,13,32765
1.34234,0.33835,-0.125456,13,32765
1.35312,0.336222,-0.126544,13,32765
1.41226,0.345879,-0.132302,13,32765
1.35531,0.327085,-0.127105,13,32765
1.32733,0.315558,-0.124621,13,32765
1.2896,0.301896,-0.121199,13,32765
1.2906,0.297431,-0.121582,13,32765
1.34015,0.303977,-0.126464,14,32765
1.36058,0.303781,-0.12857,13,32765
0,0,-0,0,32765
1.46963,0.317642,-0.139256,11,32765
1.34405,0.285709,-0.127684,13,32765
1.29627,0.270893,-0.123318,13,32765
0.750994,0.154247,-0.0715271,14,32765
1.37613,0.27767,-0.131403,13,32765
1.35753,0.269033,-0.129772,13,32765
1.3291,0.258689,-0.127226,12,32765
1.26149,0.241065,-0.120975,14,32765
1.03722,0.194571,-0.0995581,15,32765
1.01826,0.187454,-0.0980201,16,32765
1.02866,0.185764,-0.0992503,16,32765
1.00966,0.17882,-0.0974907,16,32765
1.02005,0.177063,-0.098761,17,32765
1.03044,0.175217,-0.099958,17,32765
1.0212,0.169986,-0.0993175,17,32765
1.00211,0.163249,-0.0975918,16,32765
1.03213,0.164496,-0.100699,17,32765
1.00315,0.156361,-0.098191,17,32765
1.02336,0.155924,-0.100119,17,32765
1.0337,0.153842,-0.101492,17,32765
1.01451,0.147409,-0.0997296,17,32765
1.02483,0.145339,-0.100999,17,32765
1.00557,0.139152,-0.0992765,17,32765
1.01588,0.137112,-0.10047,17,32765
1.00645,0.13237,-0.0996678,17,32765
1.01675,0.130198,-0.100854,17,32765
0.99742,0.124228,-0.0990983,17,32765
1.02745,0.124387,-0.10232,16,32765
1.04762,0.123238,-0.104433,15,32765
1.14688,0.130995,-0.114482,12,32765
1.06816,0.118387,-0.106842,14,32765
1.02896,0.110546,-0.103045,15,32765
1.00951,0.105015,-0.101258,17,32765
1.01975,0.102575,-0.10244,17,32765
1.01017,0.098137,-0.101654,17,32765
1.01048,0.0947166,-0.101788,17,32765
1.01078,0.0913091,-0.101932,16,32765
1.02098,0.0887538,-0.103111,17,32765
1.01135,0.0845283,-0.102129,17,32765
0.981853,0.0787341,-0.0993296,16,32765
1.01186,0.0777416,-0.102426,17,32765
1.00218,0.0736056,-0.101585,16,32765
1.00241,0.0702618,-0.101652,16,32765
1.00263,0.0669134,-0.10172,17,32765
1.00284,0.0635322,-0.101825,17,32765
0.993115,0.059589,-0.100854,17,32765
0.98337,0.0556949,-0.0999039,17,32765
1.01334,0.0539963,-0.103081,17,32765
0.993651,0.0496333,-0.100971,17,32765
0.983862,0.0458375,-0.10007,17,32765
0.993955,0.0429841,-0.101024,17,32765
0.974208,0.0388707,-0.0990386,17,32765
1.02404,0.0374006,-0.104142,16,32765
0,0,-0,0,32765
0,0,-0,0,32765
0,0,-0,0,32765
0,0,-0,0,32765
0,0,-0,0,32765
0,0,-0,0,32765
0,0,-0,0,32765
0,0,-0,0,32765
0,0,-0,0,32765
0,0,-0,0,32765
1.31337,4.08337e-05,-0.132177,15,32765
1.45268,-0.00483609,-0.145935,13,32765
1.39301,-0.00921439,-0.139469,13,32765
1.38307,-0.0137159,-0.137946,13,32765
1.38307,-0.0182526,-0.137433,13,32765
1.20004,0.401883,-0.106234,14,32765
1.18237,0.39165,-0.105415,15,32765
1.17412,0.384621,-0.105429,15,32765
1.20374,0.389974,-0.108757,16,32765
1.21445,0.389011,-0.110348,15,32765
1.1777,0.372884,-0.107622,15,32765
1.2169,0.38085,-0.111784,13,32765
1.43698,0.444514,-0.132644,11,32765
1.22881,0.375693,-0.113962,13,32765
1.26811,0.383183,-0.118225,13,32765
1.44109,0.430306,-0.134937,13,32765
1.33737,0.394529,-0.125662,12,32765
0.736234,0.214533,-0.0695327,14,32765
1.45471,0.41861,-0.137779,12,32765
1.41771,0.402836,-0.134948,12,32765
1.40943,0.39527,-0.134804,13,32765
1.42991,0.395793,-0.137118,13,32765
1.46961,0.401431,-0.141435,12,32765
1.43243,0.386128,-0.138372,13,32765
1.44327,0.38393,-0.139895,13,32765
1.42523,0.374046,-0.138562,13,32765
1.42642,0.369267,-0.139151,13,32765
1.45655,0.37183,-0.142545,13,32765
1.48671,0.374141,-0.145936,12,32765
1.47825,0.366703,-0.145591,13,32765
1.42144,0.347409,-0.140368,13,32765
1.3645,0.3286,-0.135176,13,32765
1.42367,0.337739,-0.141406,13,32765
1.44414,0.337458,-0.143812,13,32765
1.38701,0.319256,-0.138524,13,32765
1.39773,0.316816,-0.139961,13,32765
1.41815,0.316496,-0.14242,13,32765
0,0,-0,0,32765
0,0,-0,0,32765
1.43096,0.30394,-0.14452,13,32765
1.40273,0.292916,-0.14192,13,32765
0.887038,0.182121,-0.0899756,14,32765
1.3363,0.269702,-0.135849,13,32765
1.40549,0.278694,-0.143252,13,32765
1.51383,0.294877,-0.154511,12,32765
1.09456,0.209319,-0.111917,14,32765
1.07568,0.201893,-0.110254,16,32765
1.07635,0.198199,-0.110428,16,32765
1.06719,0.192732,-0.109795,16,32765
1.06782,0.189126,-0.109977,16,32765
1.08803,0.188871,-0.112341,16,32765
1.08864,0.185213,-0.112511,16,32765
1.07942,0.179886,-0.111746,16,32765
1.07999,0.176215,-0.11209,16,32765
1.09039,0.174103,-0.113259,16,32765
1.09096,0.170337,-0.113547,16,32765
1.06201,0.162059,-0.110763,16,32765
1.06255,0.158381,-0.110938,16,32765
1.06306,0.154703,-0.111232,16,32765
1.08326,0.153886,-0.113475,16,32765
1.06405,0.147424,-0.111638,16,32765
1.06451,0.14382,-0.111934,16,32765
1.05513,0.138904,-0.110914,16,32765
1.05556,0.135289,-0.111276,16,32765
1.17442,0.146511,-0.123975,15,32765
1.18477,0.143701,-0.125207,14,32765
1.14571,0.135062,-0.121278,13,32765
1.08685,0.124429,-0.115248,14,32765
1.02793,0.11414,-0.109216,15,32765
1.04807,0.112777,-0.111469,16,32765
1.06821,0.111232,-0.113834,16,32765
1.02898,0.103638,-0.109851,17,32765
1.0293,0.100153,-0.110034,16,32765
1.04942,0.0985186,-0.112341,16,32765
1.05962,0.0959023,-0.113608,16,32765
1.05,0.0914099,-0.112902,16,32765
1.03047,0.0861857,-0.110927,16,32765
1.02082,0.0818852,-0.110095,16,32765
1.0409,0.0799318,-0.11244,17,32765
1.04114,0.0764068,-0.112606,17,32765
1.04138,0.0728674,-0.112799,17,32765
1.03167,0.0687149,-0.111926,17,32765
1.06163,0.067124,-0.115446,16,32765
1.04199,0.0623554,-0.11343,17,32765
1.02231,0.0577769,-0.111521,17,32765
1.03241,0.0548369,-0.11278,17,32765
1.0425,0.0518885,-0.114062,16,32765
1.04263,0.0484199,-0.114342,17,32765
1.0229,0.0440604,-0.112391,17,32765
1.03294,0.0410471,-0.113781,17,32765
1.04299,0.0379324,-0.115072,17,32765
1.30137,0.0429419,-0.143856,12,32765
1.4803,0.0439623,-0.163916,12,32765
1.6195,0.0426576,-0.179735,12,32765
1.50035,0.0345329,-0.166945,12,32765
1.45073,0.0285401,-0.161762,13,32765
1.52034,0.0248365,-0.169847,12,32765
1.47069,0.0191021,-0.16467,13,32765
1.47069,0.0141899,-0.165125,12,32765
0,0,-0,0,32765
0,0,-0,0,32765
1.37123,-0.000287418,-0.155291,12,32765
1.45069,-0.00505495,-0.164531,13,32765
1.54003,-0.010429,-0.175243,12,32765
1.52004,-0.0152482,-0.173631,12,32765
1.48019,-0.0197638,-0.169539,12,32765
1.37799,0.462938,-0.135776,13,32765
1.19046,0.395579,-0.118038,15,32765
1.13493,0.372965,-0.113247,15,32765
1.16448,0.378454,-0.116832,15,32765
1.09933,0.353254,-0.110849,16,32765
1.10994,0.352546,-0.112486,15,32765
1.10155,0.345845,-0.11215,15,32765
1.11214,0.345124,-0.113717,15,32765
1.35109,0.414394,-0.138725,12,32765
1.22855,0.372415,-0.126733,13,32765
1.20112,0.359795,-0.12438,14,32765
0.67746,0.200491,-0.0703687,15,32765
1.33707,0.390857,-0.139516,13,32765
1.35745,0.391871,-0.141996,13,32765
1.35868,0.387298,-0.142758,13,32765
1.41739,0.398776,-0.149563,13,32765
1.39952,0.388623,-0.148013,13,32765
1.33361,0.36545,-0.141496,13,32765
1.35398,0.366151,-0.144132,13,32765
1.42241,0.379594,-0.151875,13,32765
1.33704,0.352028,-0.14314,13,32765
1.33816,0.347533,-0.143693,14,32765
1.32,0.338058,-0.142146,14,32765
1.30181,0.328665,-0.140562,14,32765
1.32217,0.329042,-0.143184,14,32765
1.34257,0.329191,-0.145735,13,32765
1.31463,0.317613,-0.143108,13,32765
1.335,0.317729,-0.145663,13,32765
1.32634,0.310936,-0.145051,13,32765
1.28856,0.297559,-0.141284,14,32765
1.31859,0.29985,-0.144913,13,32765
1.28073,0.286756,-0.141117,14,32765
1.38847,0.30591,-0.153189,12,32765
0,0,-0,0,32765
1.35157,0.288016,-0.149666,13,32765
1.34279,0.281317,-0.148924,13,32765
1.295,0.266752,-0.143953,13,32765
0.808686,0.163751,-0.0900726,13,32765
1.35518,0.269603,-0.15129,13,32765
0.995092,0.194472,-0.111227,16,32765
0.995728,0.191048,-0.111474,17,32765
1.01588,0.191301,-0.113977,17,32765
0.996966,0.184191,-0.111947,17,32765
1.00734,0.182527,-0.113395,17,32765
0.988357,0.175636,-0.111362,17,32765
0.988919,0.17224,-0.111678,16,32765
0.999274,0.170578,-0.11294,17,32765
0.980217,0.163903,-0.110952,17,32765
0.990542,0.162165,-0.112378,17,32765
0.991075,0.158779,-0.112514,17,32765
0.991589,0.155347,-0.112776,17,32765
0.992092,0.151905,-0.113043,17,32765
0.982767,0.14699,-0.112087,17,32765
0.993072,0.145014,-0.113483,17,32765
0.983705,0.140225,-0.112525,17,32765
0.984159,0.136827,-0.112735,17,32765
1.00428,0.136154,-0.115269,14,32765
1.08354,0.143142,-0.124328,13,32765
1.02485,0.131814,-0.117898,15,32765
0.975979,0.122184,-0.112413,16,32765
0.96651,0.117644,-0.111433,17,32765
0.966878,0.114387,-0.11164,17,32765
0.986971,0.113401,-0.114139,17,32765
0.987325,0.110027,-0.114384,17,32765
0.967924,0.104531,-0.112238,17,32765
0.978131,0.102226,-0.113623,17,32765
0.988329,0.0999122,-0.114994,17,32765
0.958983,0.0936588,-0.111715,17,32765
0.979054,0.0922588,-0.114198,17,32765
0.979336,0.0889726,-0.114389,16,32765
0.969702,0.0847435,-0.113563,17,32765
0.950173,0.0797782,-0.111388,17,32765
0.940513,0.0757396,-0.110445,16,32765
0.980355,0.0755821,-0.11529,17,32765
0.960777,0.0707932,-0.113115,17,32765
0.970899,0.0682139,-0.114462,17,32765
0.98101,0.0656122,-0.115821,17,32765
0.961372,0.061042,-0.113745,17,32765
0.981383,0.0589819,-0.116225,17,32765
0.971631,0.0551544,-0.11529,17,32765
0.971793,0.0518499,-0.115456,17,32765
0.952103,0.0476085,-0.11328,17,32765
0.952226,0.0444319,-0.113537,17,32765
0.962266,0.0416524,-0.114933,17,32765
0.962366,0.0384375,-0.115212,17,32765
1.06169,0.0388179,-0.127289,14,32765
1.33964,0.0444511,-0.160898,12,32765
1.30005,0.0388364,-0.156389,13,32765
1.31006,0.0347238,-0.15792,13,32765
1.3002,0.0301296,-0.157107,14,32765
1.33995,0.0265581,-0.162223,13,32765
1.34,0.0220754,-0.162513,14,32765
1.34995,0.0177078,-0.16406,14,32765
1.31025,0.0127987,-0.15964,13,32765
0,0,-0,0,32765
0,0,-0,0,32765
1.47889,-0.000172925,-0.181628,12,32765
1.32997,-0.00452315,-0.16356,12,32765
1.34974,-0.00903971,-0.166502,13,32765
1.34963,-0.0134501,-0.167078,13,32765
1.40907,-0.0187344,-0.174875,13,32765
1.39441,0.46997,-0.158567,13,32765
1.42428,0.474749,-0.161665,13,32765
1.54859,0.510479,-0.175747,12,32765
1.25722,0.409838,-0.142602,13,32765
1.20178,0.387364,-0.136306,14,32765
1.18412,0.377246,-0.134307,15,32765
1.2233,0.385197,-0.138768,15,32765
1.21508,0.378082,-0.137985,14,32765
1.21634,0.37396,-0.138086,15,32765
1.30317,0.395887,-0.148026,13,32765
0.704603,0.211463,-0.0801162,14,32765
1.09606,0.324935,-0.12482,14,32765
1.22115,0.357527,-0.139171,14,32765
1.4515,0.419645,-0.165667,13,32765
1.47199,0.420209,-0.16812,13,32765
1.41597,0.399019,-0.161876,13,32765
1.43643,0.399545,-0.164393,13,32765
