x, y, z, intensity, ring
1.58724,0.628916,0.0961659,21,32765
1.57075,0.616374,0.0944676,22,32765
1.56351,0.607586,0.0931165,22,32765
1.56554,0.60244,0.0924408,21,32765
1.54886,0.590259,0.090737,20,32765
1.54149,0.581644,0.0894947,19,32765
1.58079,0.590683,0.0911322,18,32765
1.58276,0.585499,0.0903718,21,32765
1.55657,0.570025,0.0881206,21,32765
1.55846,0.564935,0.0873903,21,32765
1.56977,0.563166,0.0870513,22,32765
1.56219,0.554762,0.0860199,21,32765
1.57345,0.552994,0.0857682,22,32765
1.57523,0.547996,0.0851231,23,32765
1.58646,0.546226,0.0848285,23,32765
1.5788,0.537897,0.0834994,22,32765
1.57108,0.52968,0.0822283,23,32765
1.56332,0.521481,0.0810798,23,32765
1.55553,0.513389,0.0796598,22,32765
1.56667,0.511603,0.0793665,22,32765
1.55882,0.503579,0.0779388,22,32765
1.56994,0.50177,0.0775058,23,32765
1.56206,0.493735,0.076083,23,32765
1.56362,0.488925,0.0751148,23,32765
1.66323,1.22124,0.164692,16,32765
1.68333,1.22759,0.165968,16,32765
1.65509,1.19867,0.162348,16,32765
1.65098,1.1874,0.161036,15,32765
0,0,0,0,32765
1.68333,1.19369,0.162502,16,32765
1.65469,1.16519,0.158773,16,32765
1.66668,1.16556,0.158908,16,32765
0,0,0,0,32765
1.67433,1.15469,0.157786,17,32765
1.61242,1.10403,0.151029,16,32765
1.61614,1.09867,0.150422,17,32765
1.64461,1.11007,0.151941,17,32765
1.64001,1.09913,0.150543,18,32765
1.63538,1.08822,0.149074,18,32765
1.6307,1.07731,0.147684,17,32765
1.65936,1.08829,0.149191,18,32765
1.64629,1.07191,0.147048,17,32765
1.62475,1.05023,0.144161,17,32765
1.61146,1.03414,0.141971,17,32765
1.6317,1.03962,0.142646,17,32765
1.60985,1.0183,0.1399,18,32765
1.63855,1.02896,0.141386,18,32765
1.65891,1.03416,0.141958,19,32765
1.61997,1.00241,0.137743,19,32765
1.63184,1.00228,0.137647,20,32765
1.62675,0.99161,0.136039,18,32765
1.62156,0.981025,0.134663,19,32765
1.6506,0.990935,0.135945,20,32765
1.64536,0.980324,0.134695,20,32765
1.66587,0.984993,0.135169,19,32765
1.62618,0.954208,0.130904,19,32765
1.6639,0.968846,0.132986,19,32765
1.60671,0.928331,0.127577,17,32765
1.63578,0.937904,0.129016,19,32765
1.63897,0.932443,0.12817,19,32765
1.59869,0.902453,0.123921,18,32765
1.60174,0.897136,0.12314,17,32765
1.62222,0.90148,0.123806,18,32765
1.63393,0.901018,0.123791,19,32765
1.63697,0.895587,0.123077,20,32765
1.63124,0.885383,0.121524,19,32765
1.59035,0.856231,0.117314,17,32765
1.62846,0.869703,0.119322,18,32765
1.62256,0.859619,0.118109,19,32765
1.59897,0.840267,0.115586,18,32765
1.60182,0.834921,0.11477,19,32765
1.64011,0.847922,0.116446,20,32765
1.58975,0.815007,0.111998,19,32765
1.60136,0.814301,0.112048,20,32765
1.59518,0.804517,0.11072,20,32765
1.58005,0.790275,0.108659,19,32765
1.60059,0.793926,0.109046,20,32765
1.60331,0.788522,0.10831,20,32765
1.57906,0.770027,0.105945,19,32765
1.58171,0.764674,0.105123,19,32765
1.5663,0.750754,0.103372,19,32765
1.5688,0.745602,0.102694,19,32765
1.58937,0.748925,0.103072,20,32765
1.6009,0.747924,0.103147,20,32765
1.57625,0.729974,0.100815,20,32765
1.57877,0.724618,0.100075,20,32765
1.60845,0.731819,0.101178,21,32765
1.60182,0.72234,0.0999701,19,32765
1.60422,0.717084,0.0993318,20,32765
1.61573,0.715848,0.0993125,21,32765
1.59986,0.702434,0.0976775,19,32765
1.59304,0.693182,0.0966151,20,32765
1.5862,0.683925,0.0954612,21,32765
1.57928,0.674812,0.0943681,20,32765
1.60912,0.681261,0.095467,19,32765
1.56536,0.656601,0.0923158,19,32765
1.60445,0.666713,0.0940029,19,32765
1.59744,0.657612,0.092852,20,32765
1.61812,0.659874,0.0935293,20,32765
1.59252,0.643364,0.0914806,21,32765
1.57612,0.630671,0.0899993,20,32765
1.55035,0.614482,0.0879463,20,32765
1.57098,0.616677,0.0884878,21,32765
1.55437,0.604344,0.0872515,20,32765
1.60297,0.617144,0.0895538,22,32765
1.605,0.611918,0.0890003,20,32765
1.59765,0.603198,0.0882068,21,32765
1.59963,0.597988,0.0876641,18,32765
1.56411,0.578946,0.0854174,19,32765
1.56603,0.573765,0.0851432,19,32765
1.54917,0.56175,0.0837394,19,32765
1.56979,0.563466,0.0846648,20,32765
1.58105,0.56167,0.0848479,19,32765
1.58285,0.556621,0.0846411,20,32765
1.5752,0.548275,0.0838655,21,32765
1.58644,0.54635,0.0843266,22,32765
1.55984,0.531566,0.082603,20,32765
1.57102,0.529742,0.0829463,20,32765
1.57269,0.524784,0.0828355,21,32765
1.58382,0.522949,0.0832267,20,32765
1.5665,0.511667,0.0823114,20,32765
1.57763,0.509743,0.0827113,21,32765
1.56022,0.498615,0.081852,21,32765
1.59036,0.502714,0.0833548,21,32765
1.55377,0.485806,0.0817363,20,32765
1.68714,1.24169,0.147462,19,32765
1.65899,1.21265,0.14434,18,32765
1.663,1.20719,0.143893,19,32765
1.63465,1.17837,0.140581,18,32765
1.68728,1.20773,0.144424,19,32765
1.65881,1.179,0.14108,19,32765
1.66274,1.17353,0.140487,18,32765
1.69109,1.18532,0.141894,19,32765
1.67045,1.16266,0.139354,19,32765
1.66605,1.15158,0.138032,18,32765
1.66172,1.14035,0.136765,19,32765
1.60784,1.09548,0.131419,18,32765
1.61978,1.09576,0.131319,19,32765
1.63998,1.10156,0.132023,19,32765
1.61045,1.07401,0.128656,19,32765
1.60573,1.06316,0.127368,19,32765
1.61766,1.06329,0.127292,19,32765
1.60451,1.04701,0.125351,19,32765
1.61639,1.04713,0.125358,18,32765
1.63665,1.05262,0.125941,19,32765
1.6149,1.03117,0.123206,19,32765
1.63516,1.03657,0.123939,20,32765
1.59636,1.00465,0.12005,19,32765
1.63356,1.02057,0.121717,19,32765
1.62002,1.00462,0.119861,20,32765
1.6149,0.994019,0.118423,20,32765
1.60126,0.978181,0.116298,20,32765
1.6387,0.99353,0.1181,20,32765
1.60791,0.967383,0.114816,20,32765
1.61974,0.967125,0.114888,21,32765
1.61444,0.956624,0.113378,20,32765
1.63488,0.96136,0.113798,20,32765
1.61227,0.940784,0.111332,19,32765
1.61546,0.935366,0.110741,20,32765
1.63591,0.939957,0.111306,20,32765
1.62175,0.924595,0.10929,20,32765
1.6162,0.914257,0.107836,21,32765
1.62799,0.913756,0.10762,21,32765
1.61364,0.898592,0.105799,21,32765
1.61661,0.893328,0.105125,21,32765
1.61962,0.887942,0.104417,21,32765
1.63139,0.887314,0.104085,21,32765
1.59929,0.862838,0.100897,20,32765
1.62863,0.871597,0.101974,21,32765
1.61391,0.856809,0.100305,21,32765
1.61681,0.8514,0.0997002,21,32765
1.5843,0.827491,0.0967121,20,32765
1.62257,0.840578,0.0980209,21,32765
1.61659,0.830466,0.0968014,21,32765
1.60155,0.816068,0.0951608,22,32765
1.6132,0.815271,0.0949752,21,32765
1.5981,0.800937,0.0930908,21,32765
1.59185,0.791201,0.0917342,20,32765
1.59456,0.785815,0.091001,20,32765
1.58824,0.776077,0.0899356,21,32765
1.62687,0.788098,0.0911215,21,32765
1.57551,0.7567,0.0875396,20,32765
1.58705,0.7558,0.0873533,20,32765
1.58959,0.750541,0.0865499,20,32765
1.59208,0.745302,0.0860404,20,32765
1.59461,0.739955,0.0854489,19,32765
1.59715,0.734525,0.0846992,19,32765
1.59051,0.725107,0.0836016,19,32765
1.61117,0.728006,0.0839159,20,32765
1.55889,0.698209,0.0804501,20,32765
1.59773,0.709279,0.0817538,21,32765
1.57268,0.691873,0.0798472,21,32765
1.57498,0.686684,0.0793476,20,32765
1.56812,0.677466,0.0782936,21,32765
1.58873,0.680188,0.0786638,21,32765
1.56341,0.663212,0.0767673,22,32765
1.55642,0.654134,0.0758936,21,32765
1.58629,0.660457,0.0767604,21,32765
1.55155,0.639968,0.0743812,21,32765
1.56293,0.638608,0.0744405,21,32765
1.57429,0.637237,0.0744399,22,32765
1.55787,0.624577,0.0731504,21,32765
1.56921,0.623162,0.0731147,22,32765
1.56198,0.61433,0.0721724,22,32765
1.57329,0.612879,0.0724097,21,32765
1.55668,0.600474,0.0712509,17,32765
1.59599,0.609648,0.0724063,12,32765
1.53256,0.579729,0.0691767,17,32765
1.57189,0.588739,0.0703299,23,32765
1.5457,0.57322,0.0688795,22,32765
1.57574,0.578418,0.0698551,22,32765
1.5495,0.562933,0.0682227,23,32765
1.57953,0.568032,0.0693723,23,32765
1.57199,0.5595,0.0686365,24,32765
1.55493,0.547828,0.0676106,23,32765
1.57556,0.549424,0.0681576,23,32765
1.55847,0.537717,0.0673003,24,32765
1.56021,0.532677,0.0670818,23,32765
1.57139,0.530848,0.0673303,24,32765
1.57307,0.525878,0.0672188,23,32765
1.57473,0.520899,0.067111,23,32765
1.57639,0.515838,0.0671922,23,32765
1.56852,0.507723,0.0666884,24,32765
1.57965,0.50574,0.0672309,24,32765
1.58125,0.500736,0.0672357,24,32765
1.54466,0.483821,0.0659907,22,32765
1.68072,1.23256,0.155102,16,32765
1.71714,1.25055,0.156328,16,32765
1.64068,1.18632,0.147363,16,32765
1.6853,1.20988,0.149449,17,32765
1.64876,1.17543,0.144427,16,32765
1.64452,1.16436,0.142222,17,32765
1.61578,1.13605,0.138086,18,32765
1.6605,1.15931,0.140191,16,32765
1.68084,1.16517,0.140257,17,32765
1.61082,1.10871,0.132725,17,32765
1.62279,1.10905,0.132151,16,32765
1.63479,1.10927,0.131852,18,32765
1.63029,1.09827,0.129876,18,32765
1.6506,1.10395,0.130073,17,32765
1.62109,1.0764,0.126274,17,32765
1.63304,1.07656,0.125673,18,32765
1.62828,1.06576,0.123971,18,32765
1.66534,1.08213,0.125458,18,32765
1.63539,1.05506,0.12182,18,32765
1.60535,1.02809,0.118269,18,32765
1.58351,1.00677,0.115338,17,32765
1.63752,1.03355,0.117979,18,32765
1.63249,1.02289,0.116563,19,32765
1.63585,1.01762,0.115439,18,32765
1.6138,0.99647,0.112695,19,32765
1.64269,1.00678,0.113464,18,32765
1.65463,1.00649,0.113061,19,32765
1.62384,0.980355,0.109726,18,32765
1.65282,0.990393,0.110562,18,32765
1.65613,0.984943,0.109671,19,32765
1.62501,0.959208,0.106528,19,32765
1.611,0.943726,0.104626,19,32765
1.66601,0.968441,0.10699,18,32765
1.66063,0.957889,0.105697,20,32765
1.59453,0.91267,0.100462,19,32765
1.6497,0.936975,0.102748,20,32765
1.64411,0.926647,0.101578,19,32765
1.60369,0.896745,0.0980337,18,32765
1.62421,0.901037,0.0982823,18,32765
1.61856,0.890723,0.0968523,20,32765
1.63031,0.890139,0.0966763,19,32765
1.60691,0.870547,0.0943155,19,32765
1.601,0.860515,0.0932685,19,32765
1.65677,0.883408,0.0953314,20,32765
1.65093,0.873198,0.0941833,20,32765
1.62737,0.853703,0.0919023,20,32765
1.57707,0.820619,0.0885643,20,32765
1.57983,0.815406,0.0875394,20,32765
1.58258,0.810125,0.0868339,19,32765
1.5942,0.809374,0.086806,19,32765
1.57911,0.795019,0.0851618,19,32765
1.61755,0.807584,0.0863315,19,32765
1.57549,0.780034,0.0834457,18,32765
1.63195,0.801139,0.0855372,18,32765
1.61672,0.786888,0.0838766,18,32765
1.58341,0.76407,0.0812245,17,32765
1.63104,0.780344,0.0828866,17,32765
1.59756,0.75777,0.0805563,18,32765
1.54587,0.726929,0.0771187,18,32765
1.55736,0.726036,0.0768948,18,32765
1.6142,0.745997,0.0790216,19,32765
1.57128,0.719838,0.0763328,19,32765
1.61006,0.731166,0.0774033,20,32765
1.57609,0.709385,0.0749389,19,32765
1.57848,0.704136,0.0741473,19,32765
1.58995,0.702978,0.0740994,21,32765
1.58317,0.69365,0.0728831,19,32765
1.54884,0.672462,0.0707104,20,32765
1.57867,0.679059,0.0712636,20,32765
1.59018,0.67763,0.0709751,20,32765
1.59248,0.672268,0.0704407,21,32765
1.56709,0.655408,0.0684048,20,32765
1.56927,0.650219,0.0678102,20,32765
1.58067,0.648858,0.0676141,20,32765
1.59209,0.647392,0.067273,20,32765
1.59425,0.642142,0.0665497,20,32765
1.57782,0.629484,0.0651663,20,32765
1.60781,0.635258,0.0656354,20,32765
1.6006,0.626339,0.0646353,14,32765
1.58403,0.613873,0.0632181,12,32765
1.55808,0.597937,0.0613877,14,32765
1.56939,0.596381,0.0610677,20,32765
1.58073,0.594723,0.0607804,22,32765
1.57333,0.586068,0.0595954,22,32765
1.59401,0.587867,0.0595794,22,32765
1.58653,0.579297,0.0585884,21,32765
1.60721,0.580976,0.0585547,23,32765
1.5903,0.569007,0.0571963,22,32765
1.61105,0.570416,0.0569479,22,32765
1.57523,0.551848,0.0548449,21,32765
1.55814,0.540231,0.0534969,21,32765
1.57876,0.5418,0.0534797,21,32765
1.55209,0.527209,0.0515845,20,32765
1.59169,0.534998,0.0520772,22,32765
1.59345,0.529807,0.0512432,22,32765
1.60467,0.527798,0.0507208,23,32765
1.59682,0.519724,0.0496698,22,32765
1.57943,0.508598,0.0482413,21,32765
1.57152,0.500626,0.0468944,22,32765
1.56365,0.492482,0.0454138,21,32765
1.55566,0.484615,0.0443382,21,32765
1.64825,1.21165,0.132983,19,32765
1.6604,1.21213,0.131945,19,32765
1.66462,1.20651,0.130293,19,32765
1.62829,1.17175,0.125637,19,32765
1.68094,1.20124,0.127928,20,32765
1.6605,1.17848,0.124564,19,32765
1.68076,1.18455,0.12441,19,32765
1.66838,1.16759,0.121812,19,32765
1.63136,1.13355,0.117548,18,32765
1.61876,1.11682,0.114983,19,32765
1.63898,1.12278,0.114884,19,32765
1.64277,1.11733,0.113908,18,32765
1.63002,1.10068,0.111451,18,32765
1.64204,1.10082,0.1109,18,32765
1.62083,1.07876,0.108034,18,32765
1.64945,1.08993,0.108432,19,32765
1.62803,1.0681,0.105727,19,32765
1.62325,1.05726,0.104154,20,32765
1.62677,1.05195,0.103041,19,32765
1.62193,1.04113,0.101446,19,32765
1.63382,1.04118,0.100862,21,32765
1.62885,1.03047,0.0993062,21,32765
1.64073,1.03044,0.0990069,21,32765
1.60174,0.998717,0.0953528,19,32765
1.6051,0.993396,0.0944064,20,32765
1.62547,0.998524,0.0944036,20,32765
1.62032,0.98789,0.0929379,20,32765
1.61511,0.977329,0.0914485,20,32765
1.65263,0.992558,0.0924859,21,32765
1.61304,0.961524,0.0892206,21,32765
1.62484,0.961304,0.0888235,21,32765
1.61945,0.950845,0.087573,21,32765
1.61405,0.940383,0.0861431,20,32765
1.60858,0.929981,0.0849661,20,32765
1.63771,0.939517,0.0854815,21,32765
1.63219,0.929135,0.0840475,20,32765
1.62658,0.918841,0.0829765,21,32765
1.63842,0.918238,0.0825433,22,32765
1.62409,0.903001,0.0808468,21,32765
1.60969,0.887839,0.0790793,21,32765
1.59513,0.872893,0.0775339,20,32765
1.6068,0.872442,0.077157,21,32765
1.5921,0.85765,0.0757837,20,32765
1.6038,0.857075,0.0752214,20,32765
1.63317,0.865738,0.0758258,20,32765
1.63613,0.860209,0.0750502,20,32765
1.58585,0.827023,0.0722717,19,32765
1.58862,0.821769,0.0712397,19,32765
1.60029,0.821007,0.0709229,20,32765
1.60304,0.815663,0.070403,21,32765
1.60581,0.810249,0.069716,21,32765
1.59961,0.800393,0.0685809,20,32765
1.55754,0.772843,0.0661688,20,32765
1.56017,0.767585,0.0654473,20,32765
1.59871,0.779831,0.066238,21,32765
1.59237,0.770076,0.065072,20,32765
1.56793,0.75179,0.0633474,20,32765
1.54338,0.733668,0.0617724,20,32765
1.60913,0.758323,0.0635641,21,32765
1.5845,0.740297,0.0618049,20,32765
1.58698,0.735009,0.0612575,21,32765
1.56218,0.717224,0.0597399,21,32765
1.57367,0.716187,0.0594073,21,32765
1.55787,0.702698,0.0580125,21,32765
1.56023,0.697499,0.057229,20,32765
1.57168,0.696397,0.0570915,20,32765
1.56488,0.68711,0.0559772,20,32765
1.57634,0.685875,0.0558073,20,32765
1.54197,0.664696,0.0538227,20,32765
1.55343,0.663388,0.0534554,20,32765
1.55568,0.658138,0.0529323,22,32765
1.55789,0.652955,0.0521217,22,32765
1.5693,0.651618,0.0518345,22,32765
1.57146,0.64645,0.0512419,23,32765
1.56436,0.637468,0.0502158,23,32765
1.55721,0.628557,0.0492112,23,32765
1.55929,0.623414,0.0486079,24,32765
1.57997,0.625582,0.0485165,24,32765
1.57273,0.616735,0.0476203,24,32765
1.54681,0.600715,0.046124,23,32765
1.56745,0.602807,0.0459597,18,32765
1.5601,0.594103,0.0450017,20,32765
1.56207,0.588944,0.0443577,23,32765
1.56402,0.583828,0.0435364,24,32765
1.55655,0.575265,0.0425664,24,32765
1.56781,0.573666,0.0421889,24,32765
1.56027,0.565195,0.0412297,23,32765
1.58095,0.56685,0.041056,25,32765
1.57342,0.558264,0.0399071,24,32765
1.56585,0.549716,0.038901,24,32765
1.56763,0.544667,0.0382048,24,32765
1.56937,0.539706,0.0375423,24,32765
1.57107,0.534778,0.0365957,24,32765
1.60122,0.539331,0.0364863,25,32765
1.56505,0.521457,0.0348027,23,32765
1.57623,0.519536,0.0342001,24,32765
1.58736,0.517733,0.033659,25,32765
1.57948,0.509684,0.0326195,24,32765
1.58109,0.504736,0.031556,25,32765
1.55416,0.490524,0.029796,23,32765
1.54616,0.48267,0.0288186,22,32765
1.64986,1.21175,0.110025,17,32765
1.66997,1.21813,0.110726,17,32765
1.64972,1.19507,0.108762,17,32765
1.66991,1.20127,0.109402,17,32765
1.67397,1.19566,0.108645,18,32765
1.7105,1.21325,0.110442,17,32765
1.65733,1.16743,0.106101,17,32765
1.66121,1.16197,0.105351,17,32765
1.67329,1.16217,0.105152,18,32765
1.669,1.15089,0.103928,18,32765
1.63985,1.12284,0.10119,18,32765
1.65184,1.12302,0.101145,18,32765
1.67213,1.12875,0.101422,17,32765
1.62609,1.08991,0.0976225,17,32765
1.65467,1.10112,0.0985032,19,32765
1.68334,1.11218,0.0992082,19,32765
1.6202,1.06283,0.0946097,18,32765
1.65721,1.0793,0.0958283,18,32765
1.61049,1.04126,0.0921473,18,32765
1.61402,1.03585,0.0913967,18,32765
1.62592,1.03585,0.091026,19,32765
1.64629,1.04111,0.0912265,18,32765
1.64131,1.03035,0.0899436,18,32765
1.60238,0.998467,0.0869215,17,32765
1.63971,1.01414,0.0881256,19,32765
1.61755,0.993055,0.0858785,17,32765
1.62936,0.992962,0.0855516,19,32765
1.62415,0.982355,0.0843454,19,32765
1.63601,0.982108,0.0839693,19,32765
1.63934,0.976601,0.0831201,19,32765
1.62544,0.960935,0.0814667,19,32765
1.62005,0.950464,0.0802797,18,32765
1.63186,0.950139,0.0797838,20,32765
1.6091,0.929697,0.0778405,19,32765
1.62954,0.934321,0.0777968,19,32765
1.64135,0.933858,0.077309,19,32765
1.60966,0.908772,0.074987,19,32765
1.63017,0.913142,0.0749287,19,32765
1.61579,0.897964,0.0733254,18,32765
1.61888,0.892461,0.0724692,19,32765
1.64819,0.901412,0.0729193,18,32765
1.6073,0.87209,0.0702769,18,32765
1.63662,0.880943,0.0707211,19,32765
1.60427,0.856763,0.068448,18,32765
1.61597,0.856103,0.0680819,19,32765
1.60117,0.841377,0.0665513,19,32765
1.64834,0.85909,0.0674757,20,32765
1.5625,0.807604,0.0629586,18,32765
1.60079,0.820606,0.0637353,18,32765
1.57685,0.801647,0.0617853,18,32765
1.60632,0.809853,0.0622823,19,32765
1.56437,0.782096,0.0597051,19,32765
1.57601,0.781215,0.059143,18,32765
1.59658,0.784743,0.0592345,19,32765
1.57228,0.766257,0.057401,18,32765
1.56586,0.75664,0.0565134,19,32765
1.57739,0.755779,0.0560708,19,32765
1.5619,0.741886,0.054547,19,32765
1.5463,0.728145,0.0534048,19,32765
1.55783,0.72715,0.0530946,19,32765
1.56934,0.726143,0.0526641,19,32765
1.59901,0.73346,0.05282,19,32765
1.56505,0.71163,0.0509699,19,32765
1.5401,0.694081,0.049548,19,32765
1.56979,0.701205,0.0498527,20,32765
1.51727,0.671745,0.0475158,18,32765
1.55612,0.682783,0.0480314,20,32765
1.54923,0.673625,0.0471382,20,32765
1.579,0.680366,0.0474364,20,32765
1.59048,0.679014,0.0471429,21,32765
1.58358,0.669714,0.0464014,23,32765
1.55817,0.652823,0.044975,21,32765
1.59729,0.662939,0.045412,21,32765
1.59948,0.657669,0.0449861,22,32765
1.5924,0.648615,0.0442314,22,32765
1.58522,0.63975,0.0434742,21,32765
1.57803,0.630863,0.042778,22,32765
1.56151,0.61834,0.0417676,21,32765
1.58216,0.620508,0.0418412,21,32765
1.60285,0.622504,0.041947,22,32765
1.52091,0.584981,0.0393001,16,32765
1.55087,0.59061,0.039662,19,32765
1.61829,0.6102,0.041019,23,32765
1.61094,0.601352,0.0405267,23,32765
1.57542,0.582156,0.0391461,22,32765
1.58672,0.580437,0.0389191,23,32765
1.598,0.578676,0.038955,22,32765
1.59046,0.570145,0.0383568,23,32765
1.5923,0.56499,0.0381429,22,32765
1.55641,0.54656,0.0369878,21,32765
1.55819,0.541475,0.036628,21,32765
1.58833,0.546109,0.0372084,22,32765
1.59007,0.541002,0.037166,22,32765
1.62024,0.545444,0.0375519,22,32765
1.60302,0.53391,0.0369064,23,32765
1.57624,0.519371,0.0361528,21,32765
1.55889,0.508115,0.0357274,21,32765
1.58904,0.512375,0.0361885,21,32765
1.60016,0.510435,0.0366262,22,32765
1.57317,0.496322,0.0359481,22,32765
1.56515,0.488461,0.0361181,21,32765
1.65713,1.22032,0.0913265,19,32765
1.6692,1.22079,0.0913949,19,32765
1.64898,1.19767,0.0897091,18,32765
1.66107,1.19804,0.0897228,18,32765
1.68949,1.2099,0.0902693,19,32765
1.67721,1.19274,0.0890922,19,32765
1.624,1.14692,0.0854164,18,32765
1.64417,1.15303,0.0855309,19,32765
1.63162,1.13616,0.0839767,19,32765
1.63546,1.13067,0.0832805,19,32765
1.66392,1.14225,0.0838337,19,32765
1.60994,1.09734,0.0803867,19,32765
1.65496,1.12002,0.0817191,19,32765
1.63379,1.09786,0.0797005,19,32765
1.62914,1.08688,0.0786898,19,32765
1.6161,1.07046,0.077136,20,32765
1.61963,1.06515,0.0764648,20,32765
1.61481,1.05434,0.0753552,20,32765
1.64349,1.06527,0.0757315,20,32765
1.6387,1.05433,0.0745809,20,32765
1.63381,1.04349,0.0733457,21,32765
1.62889,1.03267,0.0722307,20,32765
1.5985,1.00598,0.069938,20,32765
1.61036,1.00594,0.0695986,21,32765
1.62223,1.00581,0.0693343,21,32765
1.61707,0.995218,0.0680924,19,32765
1.59477,0.974284,0.0662531,18,32765
1.59804,0.96895,0.0655052,20,32765
1.60985,0.968787,0.0650468,20,32765
1.61314,0.963354,0.0642093,19,32765
1.625,0.963026,0.0637662,20,32765
1.61962,0.952533,0.0626713,20,32765
1.5969,0.932055,0.0607664,20,32765
1.61733,0.936729,0.0607412,21,32765
1.60312,0.921412,0.0592235,20,32765
1.59752,0.911131,0.0580241,21,32765
1.62666,0.920595,0.0582753,22,32765
1.61234,0.905341,0.056791,21,32765
1.62413,0.904781,0.0562902,21,32765
1.60974,0.889567,0.0548319,20,32765
1.59522,0.874541,0.0535325,20,32765
1.59815,0.86921,0.0528318,20,32765
1.61866,0.873365,0.0527107,21,32765
1.61272,0.863343,0.0516665,21,32765
1.60678,0.853275,0.0506446,21,32765
1.60083,0.843206,0.0495785,21,32765
1.60368,0.837813,0.0486877,21,32765
1.61543,0.83695,0.0480356,21,32765
1.58268,0.813251,0.0463316,20,32765
1.59434,0.812467,0.0456928,19,32765
1.59707,0.807103,0.0451443,20,32765
1.58194,0.792752,0.0437818,21,32765
1.58465,0.78736,0.0428721,20,32765
1.57834,0.777611,0.0420545,20,32765
1.57198,0.767921,0.0409792,22,32765
1.59256,0.771357,0.040877,22,32765
1.5771,0.75742,0.0396465,22,32765
1.57064,0.747794,0.0385306,22,32765
1.56411,0.73826,0.0377904,22,32765
1.57567,0.737202,0.0373779,23,32765
1.56908,0.727719,0.0364227,22,32765
1.57149,0.722523,0.0356771,22,32765
1.55569,0.709028,0.0346176,22,32765
1.54896,0.699703,0.033878,22,32765
1.56953,0.702727,0.0337006,23,32765
1.57186,0.697535,0.03308,23,32765
1.56503,0.688289,0.0322535,22,32765
1.57649,0.68707,0.0318195,22,32765
1.56041,0.673913,0.0309161,22,32765
1.55348,0.664753,0.0301769,22,32765
1.57415,0.667264,0.0300667,23,32765
1.54874,0.650368,0.0289247,22,32765
1.56938,0.652855,0.0286514,23,32765
1.56229,0.643856,0.0280657,23,32765
1.5922,0.650021,0.0280681,23,32765
1.57575,0.637388,0.0272437,24,32765
1.55927,0.624792,0.0264854,23,32765
1.57061,0.623369,0.0261319,22,32765
1.59128,0.62551,0.0260139,22,32765
1.52813,0.594836,0.0245796,17,32765
1.57671,0.607828,0.0248593,12,32765
1.52268,0.581192,0.0236209,17,32765
1.58071,0.597382,0.0241812,23,32765
1.58269,0.592143,0.0239295,24,32765
1.58465,0.586889,0.0234877,24,32765
1.57718,0.578252,0.0228906,24,32765
1.56966,0.569694,0.0225624,23,32765
1.5715,0.564617,0.0221968,24,32765
1.54507,0.54946,0.0215896,22,32765
1.54685,0.544422,0.0213379,21,32765
1.51086,0.526201,0.0204677,19,32765
1.5504,0.534258,0.020895,20,32765
1.53318,0.522807,0.0205984,18,32765
1.53487,0.517852,0.0203343,18,32765
1.52705,0.509734,0.0200115,17,32765
1.50969,0.498543,0.0196678,16,32765
1.5303,0.499896,0.0199243,15,32765
1.53188,0.495031,0.019738,15,32765
1.57152,0.5024,0.0204446,15,32765
1.55405,0.491362,0.0201723,16,32765
1.50784,0.471603,0.0199264,14,32765
1.68302,1.23505,0.100991,17,32765
1.67111,1.21763,0.0982434,16,32765
1.70761,1.23552,0.098395,17,32765
1.67932,1.20656,0.0947994,17,32765
1.65894,1.18367,0.0918702,17,32765
1.671,1.18408,0.09074,17,32765
1.67494,1.1786,0.0893105,18,32765
1.63791,1.1445,0.0858346,18,32765
1.60085,1.11041,0.0823209,17,32765
1.68697,1.16164,0.0850397,17,32765
1.6579,1.13347,0.0819289,17,32765
1.64513,1.11681,0.0798952,18,32765
1.65704,1.11711,0.079159,19,32765
1.66903,1.11728,0.0782227,18,32765
1.61451,1.07304,0.0743135,18,32765
1.63481,1.07868,0.0738948,18,32765
1.65518,1.08415,0.0734689,19,32765
1.63366,1.06236,0.0711704,20,32765
1.66239,1.07322,0.0710423,20,32765
1.63229,1.0462,0.0685491,19,32765
1.63573,1.04088,0.067421,19,32765
1.65611,1.04612,0.0671712,19,32765
1.62571,1.01946,0.0645918,19,32765
1.63759,1.01937,0.0638781,18,32765
1.62398,1.00345,0.0622328,17,32765
1.61879,0.992882,0.0609759,17,32765
1.61357,0.982317,0.0595823,18,32765
1.61687,0.976932,0.0587113,18,32765
1.60302,0.96124,0.0570897,17,32765
1.632,0.971255,0.0570521,18,32765
1.63522,0.965862,0.0561691,19,32765
1.61259,0.945255,0.0543037,17,32765
1.56388,0.909783,0.0517553,18,32765
1.61886,0.93458,0.0525773,18,32765
1.62203,0.9291,0.0518058,18,32765
1.60778,0.913801,0.0502671,19,32765
1.58473,0.893687,0.0486138,18,32765
1.59644,0.893292,0.0479233,18,32765
1.61693,0.89764,0.0476977,19,32765
1.61115,0.88748,0.0466077,19,32765
1.60538,0.877248,0.0456706,19,32765
1.55556,0.843362,0.0432094,18,32765
1.62885,0.875985,0.0445366,20,32765
1.61414,0.861143,0.0433801,18,32765
1.64351,0.869822,0.0433818,17,32765
1.5845,0.831745,0.0408494,18,32765
1.61393,0.840237,0.0402882,18,32765
1.55452,0.802821,0.0379882,18,32765
1.54835,0.792987,0.0371786,19,32765
1.55104,0.787745,0.0363239,20,32765
1.58945,0.800448,0.036477,20,32765
1.53849,0.768272,0.0346247,20,32765
1.55897,0.772025,0.0344497,20,32765
1.57951,0.775624,0.0341587,20,32765
1.57311,0.765975,0.033339,21,32765
1.5757,0.760655,0.032566,20,32765
1.60533,0.768267,0.0327763,21,32765
1.56279,0.741346,0.0315791,21,32765
1.59243,0.748868,0.0311506,22,32765
1.55869,0.72663,0.0298145,21,32765
1.6065,0.7424,0.0298982,22,32765
1.5726,0.720412,0.02872,20,32765
1.57501,0.715173,0.0279452,21,32765
1.55917,0.701686,0.0269646,21,32765
1.58892,0.70867,0.0269034,22,32765
1.60044,0.707374,0.0264517,22,32765
1.57536,0.689936,0.0252271,20,32765
1.58684,0.688638,0.0247042,21,32765
1.57996,0.679379,0.0238589,20,32765
1.56382,0.666282,0.0229276,20,32765
1.58447,0.66883,0.0225622,20,32765
1.58668,0.663594,0.0218288,21,32765
1.62585,0.673597,0.0215451,19,32765
1.6096,0.66058,0.0205789,19,32765
1.62105,0.659012,0.0200659,17,32765
1.56757,0.631253,0.0186545,16,32765
1.60684,0.64081,0.0183655,15,32765
1.54383,0.60983,0.0167838,16,32765
1.49932,0.586434,0.0156128,16,32765
1.53854,0.595962,0.0154208,18,32765
1.55917,0.598045,0.0149148,18,32765
1.5892,0.60353,0.0144446,20,32765
1.54434,0.58081,0.0132359,15,32765
1.62119,0.603705,0.0131947,14,32765
1.51991,0.56047,0.0117506,12,32765
0,0,0,0,32765
1.49532,0.540375,0.0100728,13,32765
1.51592,0.542216,0.00944405,14,32765
1.49888,0.530467,0.00853851,15,32765
1.51005,0.528853,0.0079984,16,32765
1.50232,0.520672,0.00702603,18,32765
1.5513,0.532005,0.00659238,20,32765
1.57194,0.533464,0.00584708,21,32765
1.56416,0.525233,0.00497495,21,32765
1.59429,0.529733,0.00417722,22,32765
1.55799,0.512115,0.00324794,22,32765
1.58813,0.516457,0.00232963,23,32765
1.55169,0.499163,0.00136874,21,32765
1.58185,0.503354,0.000397418,22,32765
1.57386,0.495431,-0.000497062,22,32765
1.57539,0.490564,-0.00156131,22,32765
1.68211,1.23773,0.0814794,19,32765
1.646,1.20259,0.0777732,18,32765
1.63389,1.18538,0.0753366,18,32765
1.62166,1.16829,0.0729173,18,32765
1.67431,1.19787,0.0735325,18,32765
1.66196,1.18086,0.0712442,19,32765
1.67405,1.18116,0.0701621,19,32765
1.63705,1.14698,0.0671515,19,32765
1.67386,1.16418,0.0670616,19,32765
1.65319,1.14145,0.0646003,19,32765
1.65704,1.13593,0.0631471,19,32765
1.61949,1.10236,0.0603745,18,32765
1.6562,1.11954,0.0604672,19,32765
1.62669,1.09185,0.0579573,19,32765
1.62202,1.08091,0.0564687,19,32765
1.63399,1.08101,0.0555718,20,32765
1.65436,1.0865,0.0549572,19,32765
1.66634,1.0865,0.0540234,19,32765
1.6364,1.05925,0.0517314,20,32765
1.58945,1.02144,0.0491073,19,32765
1.60966,1.02701,0.0485148,20,32765
1.62999,1.03234,0.0480906,20,32765
1.59108,1.00039,0.0456599,20,32765
1.63682,1.02158,0.0458225,20,32765
1.60623,0.995093,0.0438981,20,32765
1.62655,1.00027,0.0434251,20,32765
1.58723,0.96882,0.0412311,20,32765
1.60758,0.97387,0.0408065,20,32765
1.58516,0.953021,0.0391641,20,32765
1.57975,0.942623,0.0380275,20,32765
1.60009,0.947578,0.037575,20,32765
1.60326,0.942239,0.0366001,20,32765
1.58911,0.926868,0.0353857,19,32765
1.60951,0.931598,0.0348799,20,32765
1.62134,0.931115,0.0342943,20,32765
1.61578,0.920733,0.0331195,21,32765
1.58406,0.895626,0.0315676,20,32765
1.58706,0.890338,0.0306138,21,32765
1.59006,0.885,0.0298751,21,32765
1.59299,0.879739,0.0290506,21,32765
1.62227,0.88876,0.0288366,22,32765
1.59008,0.864293,0.0272262,21,32765
1.59301,0.858905,0.0266124,22,32765
1.58706,0.848866,0.0258,22,32765
1.60755,0.852964,0.025391,22,32765
1.61044,0.847522,0.0244747,22,32765
1.60445,0.837436,0.0231001,22,32765
1.56281,0.809163,0.0217059,21,32765
1.58335,0.81298,0.021345,21,32765
1.56829,0.798531,0.0202393,21,32765
1.57994,0.797681,0.0196748,21,32765
1.59158,0.796801,0.0191401,21,32765
1.56737,0.77815,0.0182353,21,32765
1.59689,0.786144,0.0178517,21,32765
1.56357,0.763255,0.0168273,22,32765
1.56616,0.757954,0.0160574,22,32765
1.55971,0.748311,0.0156255,21,32765
1.58936,0.755843,0.0156137,21,32765
1.53763,0.724913,0.0141375,19,32765
1.56724,0.732446,0.0137539,18,32765
1.54246,0.714593,0.0127623,18,32765
1.58118,0.726155,0.0125558,18,32765
1.5745,0.716732,0.0117077,18,32765
1.57691,0.71144,0.0110413,19,32765
1.57016,0.702051,0.0104481,19,32765
1.55424,0.688662,0.00973639,20,32765
1.57487,0.691441,0.00907867,20,32765
1.56802,0.682162,0.00836298,22,32765
1.57948,0.680861,0.00770826,22,32765
1.57255,0.671664,0.00700458,22,32765
1.5748,0.666393,0.00637202,23,32765
1.577,0.661176,0.00564182,23,32765
1.5792,0.655891,0.00487189,24,32765
1.57214,0.646804,0.00413756,23,32765
1.57428,0.641582,0.00352334,24,32765
1.59494,0.643864,0.00282745,24,32765
1.58781,0.634788,0.00208795,23,32765
1.57129,0.622209,0.00120882,23,32765
1.58268,0.620572,0.000512247,23,32765
1.56607,0.608127,-8.5185e-05,21,32765
1.56807,0.602944,-0.000783175,14,32765
1.5981,0.608411,-0.00154057,13,32765
1.58134,0.596195,-0.00232633,17,32765
1.57391,0.587543,-0.00297671,24,32765
1.57578,0.582505,-0.00360519,24,32765
1.58704,0.58084,-0.00444129,24,32765
1.60774,0.582435,-0.00524172,25,32765
1.59082,0.57041,-0.00597426,25,32765
1.59272,0.565071,-0.00681292,25,32765
1.58513,0.556518,-0.007397,24,32765
1.58693,0.551357,-0.00837234,24,32765
1.5698,0.53968,-0.00893609,24,32765
1.57152,0.534641,-0.00976255,24,32765
1.57322,0.529584,-0.0106053,24,32765
1.57489,0.524583,-0.0114836,24,32765
1.57657,0.519507,-0.0123243,24,32765
1.60672,0.523799,-0.0135371,25,32765
1.57982,0.509477,-0.0142192,24,32765
1.57189,0.501432,-0.0151247,24,32765
1.57344,0.496531,-0.0160174,24,32765
1.57496,0.491654,-0.0170823,23,32765
1.69115,1.24365,0.0578381,18,32765
1.66298,1.21447,0.0563157,16,32765
1.63465,1.18547,0.0546739,18,32765
1.65479,1.19175,0.0547411,18,32765
1.64257,1.17451,0.053621,18,32765
1.65461,1.17488,0.0532801,18,32765
1.65026,1.16375,0.0522852,17,32765
1.66226,1.16408,0.0519255,16,32765
1.64969,1.14718,0.0508984,17,32765
1.66181,1.14728,0.0501483,17,32765
1.65742,1.13607,0.0491905,18,32765
1.58684,1.0799,0.0464169,17,32765
1.59874,1.08019,0.0459358,17,32765
1.65214,1.10831,0.0465466,18,32765
1.69748,1.13047,0.0469118,18,32765
1.6178,1.06976,0.043815,17,32765
1.60457,1.05352,0.0428453,18,32765
1.62476,1.05922,0.0425475,18,32765
1.61145,1.04304,0.0412146,17,32765
1.64859,1.05926,0.0414324,18,32765
1.61839,1.0323,0.0395749,18,32765
1.63877,1.03754,0.0394425,18,32765
1.63384,1.02664,0.0383066,19,32765
1.60337,0.999978,0.0365797,18,32765
1.61528,0.999798,0.0358641,18,32765
1.61007,0.989216,0.0349464,18,32765
1.6475,1.00471,0.0348879,18,32765
1.60806,0.97337,0.0331246,18,32765
1.62844,0.978328,0.0326358,17,32765
1.64892,0.983067,0.0321913,16,32765
1.63498,0.967401,0.0310779,16,32765
1.56926,0.9214,0.0289019,17,32765
1.56371,0.911105,0.0280091,17,32765
1.60138,0.925908,0.0276675,19,32765
1.60453,0.920471,0.0268781,20,32765
1.62504,0.9249,0.0264298,19,32765
1.61934,0.914705,0.0253201,20,32765
1.63986,0.919042,0.0246855,21,32765
1.59046,0.884475,0.0233687,20,32765
1.63721,0.903273,0.0229406,21,32765
1.59643,0.873703,0.0214,21,32765
1.57301,0.854008,0.0201937,21,32765
1.60232,0.862893,0.0197055,20,32765
1.62281,0.867012,0.0192484,19,32765
1.56383,0.828878,0.0174125,19,32765
1.61083,0.846942,0.0173449,21,32765
1.59593,0.832311,0.0161417,21,32765
1.60762,0.831535,0.0148881,20,32765
1.5837,0.812456,0.0140356,19,32765
1.55078,0.788993,0.0129608,20,32765
1.59804,0.80636,0.0122867,20,32765
1.58284,0.792083,0.0115552,20,32765
1.60343,0.795605,0.010829,20,32765
1.61509,0.794586,0.010123,19,32765
1.56387,0.762771,0.00900498,17,32765
1.59349,0.770471,0.00853795,16,32765
1.59605,0.765168,0.00763498,15,32765
1.62577,0.772545,0.00750595,16,32765
1.52884,0.720215,0.00630392,16,32765
1.53124,0.715095,0.00557687,17,32765
1.55181,0.718309,0.00501062,19,32765
1.55418,0.71317,0.00427439,19,32765
1.55661,0.70786,0.00355708,19,32765
1.60452,0.723265,0.00288958,22,32765
1.56129,0.697468,0.00207579,21,32765
1.60017,0.708494,0.00145011,22,32765
1.58418,0.695177,0.00081099,21,32765
1.58649,0.689885,0.000202929,22,32765
1.5704,0.676706,-0.000296972,21,32765
1.6095,0.68703,-0.00109824,22,32765
1.57496,0.666042,-0.00164534,21,32765
1.57715,0.660835,-0.00215425,21,32765
1.6163,0.670875,-0.00287039,22,32765
1.60001,0.657911,-0.0034012,21,32765
1.60219,0.652584,-0.00391091,20,32765
1.58577,0.639857,-0.00436768,21,32765
1.61572,0.645786,-0.00493009,23,32765
1.58064,0.625741,-0.00523375,22,32765
1.59199,0.624212,-0.00571351,21,32765
0,0,-0,0,32765
0,0,-0,0,32765
0,0,-0,0,32765
1.58132,0.596217,-0.00749393,16,32765
1.57388,0.587561,-0.0078662,21,32765
1.57583,0.582321,-0.00845589,21,32765
1.58713,0.580554,-0.00869607,22,32765
1.57962,0.571934,-0.00885965,22,32765
1.60032,0.573486,-0.00943739,23,32765
1.59277,0.564876,-0.00967802,23,32765
1.61348,0.566289,-0.0100463,24,32765
1.60584,0.557816,-0.0103036,23,32765
1.60761,0.552691,-0.010584,22,32765
1.59044,0.541091,-0.0104943,23,32765
1.58269,0.532796,-0.010646,22,32765
1.61289,0.537097,-0.0110806,23,32765
1.58612,0.522499,-0.0110536,22,32765
1.57829,0.514268,-0.0108966,22,32765
1.57993,0.509204,-0.011035,21,32765
1.60059,0.510283,-0.0110579,23,32765
1.60222,0.505143,-0.0111534,23,32765
1.61334,0.503118,-0.0109165,24,32765
1.65756,1.22257,0.0375285,18,32765
1.65355,1.21116,0.0369251,18,32765
1.66567,1.21153,0.0365436,18,32765
1.66158,1.20016,0.0358874,18,32765
1.66565,1.19451,0.035293,18,32765
1.66146,1.18319,0.0345092,19,32765
1.68164,1.18934,0.0340985,19,32765
1.64463,1.15508,0.0326562,19,32765
1.63205,1.1382,0.0318187,19,32765
1.61125,1.11559,0.0303635,18,32765
1.615,1.11018,0.0296696,18,32765
1.6022,1.09349,0.0287877,18,32765
1.63898,1.11055,0.0286376,18,32765
1.60118,1.07721,0.0271199,19,32765
1.61313,1.07736,0.0264936,19,32765
1.60834,1.06653,0.0255621,18,32765
1.58676,1.04479,0.0246501,17,32765
1.63201,1.06697,0.024549,17,32765
1.60197,1.03984,0.023154,16,32765
1.60545,1.03446,0.0225276,17,32765
1.60046,1.02375,0.0214066,17,32765
1.59548,1.01298,0.0207614,18,32765
1.58201,0.996867,0.0196363,19,32765
1.60233,1.00213,0.0189117,19,32765
1.58875,0.986133,0.017815,20,32765
1.60053,0.986103,0.0171835,20,32765
1.57821,0.965137,0.0161425,20,32765
1.6156,0.980659,0.0156259,20,32765
1.59317,0.959798,0.0145527,20,32765
1.60499,0.959533,0.0138617,21,32765
1.59959,0.94908,0.0130242,21,32765
1.59417,0.938611,0.0120709,21,32765
1.60595,0.938296,0.0113801,21,32765
1.63503,0.947972,0.0105808,22,32765
1.60358,0.922461,0.00956586,21,32765
1.62409,0.926901,0.00892875,22,32765
1.6097,0.911756,0.00786863,20,32765
1.58661,0.891636,0.0068616,21,32765
1.60702,0.89613,0.00640059,21,32765
1.60129,0.885866,0.00531726,21,32765
1.58676,0.870785,0.00433551,20,32765
1.5897,0.865421,0.003471,19,32765
1.60143,0.864764,0.00266203,19,32765
1.60429,0.859448,0.00199415,18,32765
1.61595,0.858835,0.000862875,18,32765
1.60996,0.84878,0.000297136,19,32765
1.60393,0.838752,-0.000724038,20,32765
1.61562,0.837945,-0.00207988,21,32765
1.57396,0.809647,-0.00262653,21,32765
1.63013,0.831607,-0.00351565,22,32765
1.61504,0.817143,-0.00453668,22,32765
1.60882,0.807261,-0.00511735,22,32765
1.57574,0.783974,-0.00584736,22,32765
1.58736,0.783045,-0.00663571,22,32765
1.56307,0.764434,-0.00730513,21,32765
1.59268,0.772151,-0.00805479,21,32765
1.5682,0.75384,-0.00880712,22,32765
1.58884,0.757026,-0.00916263,21,32765
1.58233,0.747413,-0.00988155,21,32765
1.58483,0.7421,-0.0106357,22,32765
1.60547,0.745138,-0.011413,22,32765
1.56251,0.718909,-0.0118323,22,32765
1.56495,0.713558,-0.012555,22,32765
1.58552,0.716611,-0.0134649,23,32765
1.5788,0.707171,-0.014129,22,32765
1.58113,0.701932,-0.0147967,23,32765
1.58344,0.696701,-0.0154205,22,32765
1.56742,0.683406,-0.0158444,23,32765
1.59722,0.69009,-0.0166299,23,32765
1.59957,0.684605,-0.0174209,23,32765
1.57424,0.667507,-0.0176939,22,32765
1.558,0.654543,-0.0179911,22,32765
1.55095,0.645458,-0.0185249,21,32765
1.54383,0.636492,-0.0189598,19,32765
1.52743,0.623779,-0.01922,19,32765
1.53873,0.622517,-0.0198249,18,32765
1.53148,0.613735,-0.0201672,17,32765
1.49631,0.593922,-0.0200743,16,32765
1.51686,0.596324,-0.0207527,14,32765
0,0,-0,0,32765
0,0,-0,0,32765
0,0,-0,0,32765
1.55261,0.58693,-0.0229534,20,32765
1.5826,0.592369,-0.0237884,22,32765
1.59394,0.59056,-0.0245269,24,32765
1.56772,0.574957,-0.0242828,24,32765
1.5884,0.576617,-0.0247911,24,32765
1.59969,0.574761,-0.0254111,24,32765
1.58273,0.562783,-0.0254076,24,32765
1.5657,0.550955,-0.0253525,21,32765
1.56746,0.545905,-0.0256621,22,32765
1.57865,0.544148,-0.0260931,20,32765
1.54253,0.526158,-0.0255031,19,32765
1.54421,0.521195,-0.0257131,19,32765
1.51746,0.506632,-0.0254698,18,32765
1.50959,0.498581,-0.0254721,17,32765
1.49219,0.487474,-0.0250668,16,32765
1.54132,0.498046,-0.0260013,15,32765
1.48575,0.474895,-0.024937,14,32765
1.4682,0.464085,-0.0247058,14,32765
1.50782,0.471424,-0.025065,14,32765
1.70799,1.25498,0.0469248,18,32765
1.72023,1.25525,0.0451206,17,32765
1.67581,1.2144,0.0421381,18,32765
1.6393,1.17963,0.0393905,18,32765
1.65949,1.18585,0.0383204,18,32765
1.68794,1.19766,0.0370957,18,32765
1.65925,1.169,0.035043,18,32765
1.63037,1.14057,0.032784,17,32765
1.6424,1.14085,0.0314555,18,32765
1.64612,1.1355,0.0302601,18,32765
1.69933,1.16405,0.029799,17,32765
1.63701,1.11348,0.0273047,18,32765
1.63238,1.10253,0.0257363,19,32765
1.59464,1.06909,0.0238744,19,32765
1.63985,1.09145,0.023199,18,32765
1.65188,1.09142,0.0221218,16,32765
1.63039,1.06953,0.0205461,16,32765
1.61711,1.05332,0.019211,15,32765
1.6038,1.03711,0.017914,16,32765
1.59878,1.02646,0.0167418,18,32765
1.6191,1.03183,0.0157553,19,32765
1.63945,1.03711,0.0147264,21,32765
1.64291,1.03163,0.0137095,21,32765
1.63785,1.02088,0.0125964,20,32765
1.63269,1.01024,0.0113867,20,32765
1.62751,0.999598,0.0102791,20,32765
1.61374,0.983796,0.00920509,20,32765
1.63412,0.988781,0.00826376,20,32765
1.62887,0.978129,0.00722066,21,32765
1.64073,0.977786,0.00619145,20,32765
1.58377,0.936623,0.00501872,20,32765
1.62142,0.951522,0.0042191,20,32765
1.62456,0.946148,0.00324375,20,32765
1.63634,0.945778,0.00225884,20,32765
1.63078,0.935385,0.00127464,20,32765
1.62522,0.924966,0.00045238,19,32765
1.60221,0.904729,-0.000521194,18,32765
1.64017,0.918819,-0.00125236,17,32765
1.66949,0.927839,-0.0022003,16,32765
1.62001,0.893342,-0.00295117,16,32765
1.61422,0.883105,-0.00378283,17,32765
1.53804,0.834814,-0.00435658,17,32765
1.55843,0.839156,-0.00522092,18,32765
1.62298,0.866886,-0.00633516,19,32765
1.59935,0.847422,-0.00682856,20,32765
1.60218,0.842057,-0.00768976,21,32765
1.60495,0.836759,-0.00897283,22,32765
1.60772,0.831411,-0.00964611,21,32765
1.59272,0.816854,-0.0103553,22,32765
1.61328,0.820543,-0.0114377,21,32765
1.5893,0.801488,-0.0120289,21,32765
1.62781,0.81392,-0.0130431,21,32765
1.61265,0.799492,-0.013556,20,32765
1.64226,0.807251,-0.0146568,21,32765
1.582,0.771129,-0.0150806,21,32765
1.60257,0.77453,-0.0162183,21,32765
1.60515,0.769161,-0.0168273,21,32765
1.59872,0.759397,-0.0173062,21,32765
1.58322,0.745412,-0.0168471,22,32765
1.57664,0.735872,-0.0176423,22,32765
1.57003,0.726338,-0.0181568,22,32765
1.59065,0.729361,-0.0190579,21,32765
1.61128,0.732299,-0.020034,22,32765
1.58639,0.714529,-0.0204822,22,32765
1.61615,0.721451,-0.0215928,22,32765
1.60025,0.707963,-0.0219714,22,32765
1.61179,0.706558,-0.0227607,21,32765
1.59578,0.693224,-0.0232703,19,32765
1.63483,0.703655,-0.024596,17,32765
1.61875,0.690365,-0.0251018,16,32765
0,0,-0,0,32765
0,0,-0,0,32765
0,0,-0,0,32765
0,0,-0,0,32765
0,0,-0,0,32765
0,0,-0,0,32765
0,0,-0,0,32765
0,0,-0,0,32765
0,0,-0,17,32765
0,0,-0,0,32765
0,0,-0,0,32765
0,0,-0,0,32765
1.60007,0.602251,-0.0341818,17,32765
1.61141,0.60044,-0.0351185,16,32765
0,0,-0,0,32765
0,0,-0,0,32765
0,0,-0,0,32765
0,0,-0,0,32765
0,0,-0,0,32765
0,0,-0,0,32765
0,0,-0,0,32765
0,0,-0,0,32765
0,0,-0,0,32765
0,0,-0,0,32765
0,0,-0,0,32765
0,0,-0,0,32765
0,0,-0,0,32765
0,0,-0,0,32765
0,0,-0,0,32765
0,0,-0,0,32765
0,0,-0,0,32765
1.65815,1.22206,0.0263962,18,32765
1.64607,1.20477,0.0241985,19,32765
1.66622,1.21111,0.022731,19,32765
1.64594,1.188,0.0206601,19,32765
1.61737,1.15925,0.0188269,19,32765
1.63756,1.16542,0.0172782,18,32765
1.67412,1.18304,0.0162712,17,32765
1.62075,1.13726,0.0141534,17,32765
1.60814,1.12042,0.0125456,17,32765
1.65291,1.14361,0.0116624,18,32765
1.59895,1.09858,0.00996545,19,32765
1.5943,1.08768,0.00860921,18,32765
1.60614,1.08805,0.00724363,19,32765
1.60987,1.08253,0.00602049,20,32765
1.62182,1.08267,0.00476597,19,32765
1.59213,1.05509,0.00351374,20,32765
1.62902,1.07182,0.00234522,21,32765
1.60738,1.0501,0.00118892,21,32765
1.60247,1.03933,8.31287e-05,21,32765
1.58064,1.01783,-0.000986773,20,32765
1.60934,1.02865,-0.00216086,21,32765
1.62121,1.02862,-0.0033545,21,32765
1.60772,1.01253,-0.00431719,21,32765
1.62805,1.01776,-0.00540136,22,32765
1.62288,1.00714,-0.00651326,21,32765
1.61769,0.996497,-0.00752356,21,32765
1.60392,0.980691,-0.00840729,20,32765
1.60718,0.97534,-0.00943131,20,32765
1.60189,0.964753,-0.0103668,20,32765
1.6137,0.964497,-0.0114743,21,32765
1.62554,0.964143,-0.0125085,20,32765
1.61154,0.948497,-0.0132817,21,32765
1.60604,0.938098,-0.0141771,21,32765
1.60048,0.927756,-0.0150834,21,32765
1.59487,0.917455,-0.0159549,21,32765
1.60662,0.917046,-0.01685,21,32765
1.61841,0.916536,-0.0179195,22,32765
1.58665,0.891415,-0.0182326,21,32765
1.62459,0.905501,-0.0195386,22,32765
1.61882,0.895273,-0.0202551,21,32765
1.63058,0.894635,-0.021223,22,32765
1.62475,0.884427,-0.0219126,22,32765
1.61889,0.874232,-0.0226424,22,32765
1.613,0.864043,-0.0234236,22,32765
1.60705,0.853951,-0.0238972,22,32765
1.61874,0.853209,-0.0249007,22,32765
1.60381,0.838575,-0.0259127,22,32765
1.63322,0.847027,-0.0270282,24,32765
1.59161,0.818629,-0.027111,21,32765
1.59435,0.813241,-0.0280683,22,32765
1.59713,0.807745,-0.0288549,21,32765
1.59094,0.797765,-0.0294227,21,32765
1.56679,0.778978,-0.0295663,20,32765
1.56941,0.773645,-0.0304042,19,32765
1.53602,0.750857,-0.0306669,17,32765
1.51153,0.732614,-0.0310421,16,32765
1.55902,0.74919,-0.0325593,16,32765
1.52546,0.72666,-0.0323554,14,32765
1.5189,0.717162,-0.0319129,13,32765
1.56656,0.733246,-0.0337502,13,32765
1.56902,0.727931,-0.0343674,12,32765
1.51697,0.697546,-0.0338363,11,32765
1.63755,0.746346,-0.0372427,11,32765
0,0,-0,0,32765
0,0,-0,0,32765
0,0,-0,0,32765
0,0,-0,0,32765
1.50313,0.654825,-0.0373084,11,32765
0,0,-0,0,32765
0,0,-0,0,32765
0,0,-0,18,32765
0,0,-0,0,32765
0,0,-0,0,32765
0,0,-0,0,32765
0,0,-0,0,32765
0,0,-0,0,32765
0,0,-0,0,32765
0,0,-0,0,32765
0,0,-0,0,32765
0,0,-0,0,32765
0,0,-0,0,32765
0,0,-0,0,32765
1.47757,0.557714,-0.0464107,12,32765
1.64793,0.615784,-0.0524529,13,32765
0,0,-0,0,32765
0,0,-0,0,32765
0,0,-0,0,32765
0,0,-0,0,32765
0,0,-0,0,32765
0,0,-0,0,32765
0,0,-0,0,32765
0,0,-0,0,32765
0,0,-0,0,32765
0,0,-0,0,32765
0,0,-0,0,32765
0,0,-0,0,32765
0,0,-0,0,32765
0,0,-0,0,32765
0,0,-0,0,32765
0,0,-0,0,32765
0,0,-0,0,32765
1.61817,1.19231,0.00289092,16,32765
1.59796,1.16916,0.00237667,17,32765
1.64224,1.19329,0.0018553,18,32765
1.60551,1.15876,0.00114,17,32765
1.62563,1.16505,0.000551298,18,32765
1.6377,1.16534,-0.000146574,19,32765
1.67424,1.18297,-0.000807756,19,32765
1.64541,1.15443,-0.00159133,18,32765
1.67376,1.16624,-0.00238496,18,32765
1.6447,1.13796,-0.00292035,19,32765
1.6649,1.1439,-0.00386346,18,32765
1.6191,1.10459,-0.00438629,19,32765
1.66421,1.12716,-0.00565248,20,32765
1.64312,1.10477,-0.00630585,19,32765
1.63027,1.08802,-0.0069295,19,32765
1.64228,1.08801,-0.00789107,20,32765
1.6375,1.0771,-0.00867546,18,32765
1.6243,1.06073,-0.00945799,20,32765
1.62781,1.05534,-0.0104143,20,32765
1.64814,1.06071,-0.0113931,19,32765
1.65167,1.0552,-0.01221,20,32765
1.64674,1.0443,-0.0129372,20,32765
1.66712,1.04948,-0.0140717,19,32765
1.67057,1.04397,-0.01468,19,32765
1.63155,1.01204,-0.0151994,18,32765
1.61789,0.996083,-0.0159507,18,32765
1.62122,0.990644,-0.0166914,20,32765
1.59889,0.969607,-0.0172815,19,32765
1.6107,0.969388,-0.018382,20,32765
1.65687,0.989595,-0.0198062,21,32765
1.60855,0.953445,-0.0200159,21,32765
1.62899,0.958149,-0.0210566,20,32765
1.66676,0.972786,-0.0223124,21,32765
1.57484,0.912029,-0.0218766,19,32765
1.60392,0.92163,-0.0231239,19,32765
1.65043,0.940991,-0.0247446,21,32765
1.58392,0.896106,-0.0244832,19,32765
1.61305,0.905486,-0.0257228,19,32765
1.6073,0.89525,-0.0264603,19,32765
1.61029,0.889844,-0.0274338,19,32765
1.6308,0.894026,-0.0284882,20,32765
1.6162,0.879008,-0.0291286,21,32765
1.61038,0.86873,-0.0297549,21,32765
1.61331,0.863256,-0.0305694,20,32765
1.59852,0.848445,-0.031074,20,32765
1.63675,0.861673,-0.0325852,21,32765
1.58644,0.828399,-0.0325931,18,32765
1.63359,0.846047,-0.0343287,19,32765
1.71648,0.88162,-0.0367792,19,32765
1.63034,0.830421,-0.0358226,17,32765
0,0,-0,0,32765
0,0,-0,0,32765
0,0,-0,0,32765
0,0,-0,0,32765
0,0,-0,0,32765
0,0,-0,0,32765
0,0,-0,0,32765
0,0,-0,0,32765
0,0,-0,0,32765
0,0,-0,0,32765
0,0,-0,0,32765
0,0,-0,0,32765
0,0,-0,0,32765
0,0,-0,0,32765
0,0,-0,0,32765
0,0,-0,0,32765
0,0,-0,0,32765
0,0,-0,14,32765
0,0,-0,0,32765
0,0,-0,0,32765
0,0,-0,0,32765
0,0,-0,0,32765
0,0,-0,0,32765
0,0,-0,0,32765
0,0,-0,0,32765
0,0,-0,0,32765
0,0,-0,0,32765
0,0,-0,0,32765
0,0,-0,0,32765
0,0,-0,0,32765
0,0,-0,0,32765
0,0,-0,0,32765
0,0,-0,0,32765
0,0,-0,0,32765
0,0,-0,0,32765
0,0,-0,0,32765
0,0,-0,0,32765
0,0,-0,0,32765
0,0,-0,0,32765
0,0,-0,0,32765
0,0,-0,0,32765
0,0,-0,0,32765
0,0,-0,0,32765
0,0,-0,0,32765
0,0,-0,0,32765
0,0,-0,0,32765
0,0,-0,0,32765
0,0,-0,0,32765
0,0,-0,0,32765
0,0,-0,0,32765
0,0,-0,0,32765
1.68862,1.24831,-0.0165143,20,32765
1.65251,1.21303,-0.0166117,18,32765
1.65649,1.20757,-0.0172014,19,32765
1.63606,1.18465,-0.0176352,19,32765
1.62377,1.1675,-0.0180633,19,32765
1.66026,1.18523,-0.0191382,19,32765
1.63157,1.15655,-0.0194076,19,32765
1.6354,1.15111,-0.0202052,19,32765
1.63913,1.14578,-0.0209622,20,32765
1.6429,1.14036,-0.0215468,19,32765
1.60545,1.10659,-0.0218924,19,32765
1.6256,1.11257,-0.0227601,19,32765
1.62934,1.10706,-0.0238933,19,32765
1.64137,1.10711,-0.0247546,20,32765
1.61193,1.0792,-0.0249371,20,32765
1.6239,1.07924,-0.0259845,20,32765
1.6191,1.06836,-0.0266693,20,32765
1.63935,1.07394,-0.0278263,21,32765
1.62613,1.05758,-0.0285006,21,32765
1.62966,1.05212,-0.0293651,22,32765
1.61632,1.03586,-0.0298645,21,32765
1.61135,1.02505,-0.0304844,22,32765
1.63164,1.03036,-0.0317868,22,32765
1.63503,1.02495,-0.0323849,22,32765
1.62994,1.0142,-0.0331108,22,32765
1.61631,0.998208,-0.0336775,22,32765
1.62817,0.997983,-0.0346012,22,32765
1.61444,0.982071,-0.0351035,22,32765
1.62627,0.981795,-0.0363097,22,32765
1.63813,0.981436,-0.0374282,22,32765
1.6414,0.975925,-0.0382731,22,32765
1.63607,0.965282,-0.0389055,22,32765
1.61343,0.944565,-0.039078,22,32765
1.60796,0.934074,-0.039725,20,32765
1.6111,0.928602,-0.0406182,20,32765
1.59684,0.913234,-0.0411473,19,32765
1.58247,0.898033,-0.0414821,18,32765
1.55061,0.8731,-0.0413764,16,32765
1.5884,0.887427,-0.0431748,15,32765
1.54763,0.857837,-0.0429266,14,32765
1.55926,0.857419,-0.0438944,13,32765
1.88681,1.02932,-0.0541265,11,32765
0,0,-0,0,32765
1.44454,0.775302,-0.0427232,11,32765
0,0,-0,0,32765
0,0,-0,0,32765
0,0,-0,0,32765
0,0,-0,0,32765
0,0,-0,0,32765
0,0,-0,0,32765
0,0,-0,0,32765
0,0,-0,0,32765
0,0,-0,0,32765
0,0,-0,0,32765
0,0,-0,0,32765
0,0,-0,0,32765
0,0,-0,0,32765
0,0,-0,0,32765
0,0,-0,0,32765
0,0,-0,0,32765
0,0,-0,0,32765
0,0,-0,0,32765
0,0,-0,0,32765
0,0,-0,0,32765
0,0,-0,0,32765
0,0,-0,0,32765
0,0,-0,0,32765
0,0,-0,0,32765
0,0,-0,0,32765
0,0,-0,0,32765
0,0,-0,0,32765
0,0,-0,0,32765
0,0,-0,0,32765
0,0,-0,0,32765
0,0,-0,0,32765
0,0,-0,0,32765
0,0,-0,0,32765
0,0,-0,0,32765
0,0,-0,0,32765
0,0,-0,0,32765
0,0,-0,0,32765
0,0,-0,0,32765
0,0,-0,0,32765
0,0,-0,0,32765
0,0,-0,0,32765
0,0,-0,0,32765
0,0,-0,0,32765
0,0,-0,0,32765
0,0,-0,0,32765
0,0,-0,0,32765
0,0,-0,0,32765
0,0,-0,0,32765
0,0,-0,0,32765
0,0,-0,0,32765
0,0,-0,0,32765
0,0,-0,0,32765
0,0,-0,0,32765
0,0,-0,0,32765
0,0,-0,0,32765
0,0,-0,0,32765
0,0,-0,0,32765
1.65067,1.21562,-0.00742603,17,32765
1.66279,1.216,-0.00949748,18,32765
1.63438,1.18704,-0.0110884,18,32765
1.63829,1.18162,-0.0127901,19,32765
1.65029,1.18205,-0.0143757,18,32765
1.67864,1.19395,-0.0163859,19,32765
1.6581,1.17103,-0.01769,19,32765
1.66199,1.16547,-0.0191469,19,32765
1.64941,1.14853,-0.0205412,19,32765
1.68602,1.16591,-0.0225409,18,32765
1.64858,1.13209,-0.0233224,19,32765
1.62751,1.10973,-0.0243555,19,32765
1.61466,1.09304,-0.0253188,18,32765
1.6184,1.08745,-0.026799,19,32765
1.64699,1.09863,-0.0286285,20,32765
