x, y, z, intensity, ring
0.592361,0.181586,-0.023122,19,32765
0.592942,0.179639,-0.0234557,19,32765
0.612656,0.183439,-0.0245429,19,32765
0.58449,0.172946,-0.0236873,19,32765
0.604223,0.176642,-0.0247283,19,32765
0.585606,0.169042,-0.0243067,19,32765
0.595778,0.169777,-0.024992,19,32765
0.605959,0.170459,-0.0256488,19,32765
0.587262,0.163077,-0.0250941,20,32765
0.587786,0.161137,-0.0253533,20,32765
0.597947,0.1618,-0.0260716,20,32765
0.598465,0.159837,-0.0263063,20,32765
0.589317,0.155315,-0.0261289,20,32765
0.580155,0.150822,-0.0259416,19,32765
0.590319,0.151376,-0.0266229,20,32765
0.581127,0.146947,-0.0264168,20,32765
0.58161,0.144995,-0.0265859,20,32765
0.591786,0.145416,-0.0272642,20,32765
0.563133,0.136385,-0.0260965,20,32765
0.58301,0.139131,-0.0272351,21,32765
0.583468,0.137164,-0.0273982,21,32765
0.583922,0.135175,-0.0276287,21,32765
0.584369,0.133194,-0.027796,21,32765
0.575062,0.129019,-0.0275187,20,32765
0.565728,0.124954,-0.0271764,20,32765
0.585659,0.127274,-0.0283673,20,32765
0.576311,0.123217,-0.0279777,20,32765
0.576718,0.121249,-0.0282023,20,32765
0.586903,0.121305,-0.028812,21,32765
0.577515,0.117326,-0.0284822,20,32765
0.5877,0.117302,-0.0291258,21,32765
0.568481,0.111482,-0.0283025,20,32765
0.578651,0.111454,-0.0289903,20,32765
0.579013,0.109531,-0.029095,20,32765
0.56955,0.105772,-0.0287167,21,32765
0.579722,0.105645,-0.0293515,21,32765
0.570236,0.101944,-0.0289517,21,32765
0.580407,0.101757,-0.0295545,20,32765
0.580738,0.0997969,-0.0297348,20,32765
0.571215,0.0961789,-0.0293727,21,32765
0.571539,0.0942147,-0.0294433,21,32765
0.561997,0.0906523,-0.0290086,21,32765
0.572163,0.090271,-0.0296685,20,32765
0.572465,0.0883136,-0.0297347,20,32765
0.572756,0.0863717,-0.0298427,21,32765
0.582921,0.0858577,-0.0305297,21,32765
0.583204,0.0838797,-0.0306105,21,32765
0.57359,0.0805059,-0.0302162,21,32765
0.563959,0.07722,-0.0297833,19,32765
0.57411,0.0766417,-0.0303857,17,32765
0.584266,0.0759638,-0.0310303,16,32765
0.554794,0.0702331,-0.0295195,19,32765
0.564934,0.0695893,-0.0301146,21,32765
0.565158,0.0676934,-0.0302405,21,32765
0.555459,0.0646434,-0.0297738,21,32765
0.565589,0.0638827,-0.0304569,21,32765
0.555872,0.0608829,-0.0299958,21,32765
0.55607,0.0590036,-0.0300738,21,32765
0.556262,0.0571415,-0.0301322,21,32765
0.556447,0.0552948,-0.0301569,21,32765
0.566562,0.0543572,-0.030858,21,32765
0.566736,0.0524519,-0.0309606,21,32765
0.547013,0.0487549,-0.0299919,21,32765
0.547171,0.0469093,-0.0300559,21,32765
0.567225,0.0467006,-0.031224,21,32765
0.557417,0.0439925,-0.0308301,20,32765
0.537645,0.0406111,-0.0298017,20,32765
0.557687,0.0402583,-0.0310571,21,32765
0.547855,0.0377263,-0.0305189,21,32765
0.547967,0.0359246,-0.0306871,21,32765
0.548077,0.0341005,-0.0308038,21,32765
0.538219,0.0316902,-0.0302724,21,32765
0.558253,0.0309651,-0.031546,21,32765
0.538406,0.0280534,-0.0305264,21,32765
0.538491,0.0262793,-0.0306,21,32765
0.548541,0.0249335,-0.0313165,21,32765
0.548614,0.0231331,-0.0314218,21,32765
0.538706,0.0209208,-0.0309625,21,32765
0.548744,0.0194857,-0.0316355,22,32765
0.548797,0.0176507,-0.0317856,22,32765
0.538865,0.0155173,-0.0313684,22,32765
0.538907,0.0137327,-0.0314732,23,32765
0.538943,0.011941,-0.0315857,23,32765
0.538975,0.0101801,-0.0316534,23,32765
0.519033,0.00813914,-0.0306348,23,32765
0.529029,0.0065707,-0.0313881,23,32765
0.539018,0.00492252,-0.0321788,22,32765
0.509079,0.00293655,-0.0304956,22,32765
0.529043,0.00127978,-0.0318019,22,32765
0.539016,-0.000448858,-0.0325885,22,32765
0.529017,-0.00215507,-0.0321911,22,32765
0.558942,-0.0040599,-0.0341737,22,32765
0.538949,-0.00564839,-0.0331968,22,32765
0.518958,-0.00711709,-0.0321218,22,32765
0.634974,0.211403,-0.0318895,20,32765
0.635678,0.20929,-0.0318101,20,32765
0.626885,0.204048,-0.0313112,20,32765
0.637067,0.205017,-0.031832,19,32765
0.647261,0.205944,-0.0322618,19,32765
0.619341,0.194832,-0.0309383,19,32765
0.639046,0.19875,-0.0319199,19,32765
0.620601,0.190766,-0.0310238,19,32765
0.630785,0.191603,-0.03161,19,32765
0.63142,0.189484,-0.0316903,19,32765
0.632042,0.18739,-0.0317449,19,32765
0.623058,0.182518,-0.0313966,19,32765
0.633253,0.18322,-0.0319439,19,32765
0.624245,0.178378,-0.0316181,19,32765
0.634453,0.178979,-0.03218,19,32765
0.635048,0.17683,-0.0323322,20,32765
0.635636,0.174685,-0.032434,20,32765
0.636217,0.172529,-0.0325747,20,32765
0.627137,0.167816,-0.0321962,20,32765
0.618034,0.16316,-0.0318336,20,32765
0.618568,0.161089,-0.0319991,20,32765
0.619094,0.159043,-0.0320686,20,32765
0.629296,0.159426,-0.032707,20,32765
0.620125,0.154902,-0.0324026,20,32765
0.630335,0.155196,-0.0330355,20,32765
0.611434,0.148363,-0.0321961,20,32765
0.602212,0.143981,-0.0317773,20,32765
0.622121,0.146553,-0.032982,21,32765
0.632334,0.146711,-0.0336188,21,32765
0.632819,0.14456,-0.0338,21,32765
0.613812,0.138038,-0.0328677,21,32765
0.614272,0.135945,-0.0330058,20,32765
0.614714,0.133881,-0.0332124,20,32765
0.615157,0.131806,-0.0332924,21,32765
0.615592,0.12971,-0.0334832,21,32765
0.61602,0.127609,-0.0336856,20,32765
0.606658,0.123519,-0.0332946,21,32765
0.59728,0.119463,-0.0329354,20,32765
0.607474,0.119356,-0.0336071,20,32765
0.607868,0.11728,-0.0337858,20,32765
0.608252,0.115234,-0.0339144,21,32765
0.618444,0.115025,-0.03458,21,32765
0.608993,0.111152,-0.0342518,21,32765
0.599527,0.107349,-0.0338213,21,32765
0.599882,0.105281,-0.0340174,21,32765
0.600231,0.103223,-0.0341672,21,32765
0.610422,0.102818,-0.0348403,21,32765
0.610762,0.100729,-0.0349794,21,32765
0.591378,0.0954877,-0.0339722,21,32765
0.61141,0.0965946,-0.0353092,21,32765
0.611722,0.0945344,-0.0354827,21,32765
0.602166,0.0909472,-0.0349971,21,32765
0.602467,0.0888712,-0.0351511,21,32765
0.592879,0.0853905,-0.034686,21,32765
0.603044,0.0847647,-0.0353987,21,32765
0.603315,0.0827528,-0.035535,21,32765
0.593688,0.0794084,-0.0350477,20,32765
0.584047,0.0760969,-0.0346227,18,32765
0.623908,0.0791439,-0.0370876,17,32765
0.594442,0.0733781,-0.0354092,18,32765
0.584764,0.0702062,-0.0349626,20,32765
0.594903,0.0694507,-0.0355924,21,32765
0.585206,0.0663552,-0.0350824,21,32765
0.59534,0.0654914,-0.0357962,21,32765
0.595554,0.0634491,-0.0359037,21,32765
0.595765,0.0614182,-0.0359501,21,32765
0.605898,0.0604108,-0.0365796,21,32765
0.576283,0.0554836,-0.0349166,21,32765
0.596339,0.055412,-0.0361847,21,32765
0.596515,0.0533976,-0.0363057,21,32765
0.606637,0.0522378,-0.0369204,21,32765
0.586911,0.0485382,-0.0357768,21,32765
0.587071,0.046549,-0.0357804,21,32765
0.587219,0.0445951,-0.035846,21,32765
0.597311,0.043376,-0.0365748,21,32765
0.567578,0.0393522,-0.0347364,21,32765
0.597584,0.0394436,-0.0365771,22,32765
0.597713,0.0374416,-0.0365664,21,32765
0.577902,0.0342696,-0.0354244,21,32765
0.587979,0.0328922,-0.0360415,21,32765
0.588084,0.030966,-0.0360309,22,32765
0.578212,0.0285389,-0.035438,22,32765
0.568337,0.0261596,-0.0347621,21,32765
0.568421,0.0242929,-0.0347444,21,32765
0.568496,0.0224048,-0.0347887,21,32765
0.578544,0.0208889,-0.0353653,22,32765
0.568638,0.018645,-0.0346888,22,32765
0.578676,0.0170331,-0.0352729,23,32765
0.568754,0.0148514,-0.0346183,23,32765
0.568801,0.0129601,-0.0346012,24,32765
0.578822,0.0112945,-0.0351854,24,32765
0.578864,0.00940165,-0.0350482,24,32765
0.558932,0.00721949,-0.0338122,23,32765
0.55896,0.00539795,-0.0336826,23,32765
0.56896,0.0036322,-0.0342238,23,32765
0.568974,0.00175344,-0.0341444,23,32765
0.568985,-0.000133122,-0.0339959,23,32765
0.549026,-0.00197737,-0.0326525,22,32765
0.568989,-0.00395392,-0.0337016,22,32765
0.568983,-0.00582607,-0.0335243,22,32765
0.558993,-0.00749919,-0.0327279,23,32765
0.587129,0.196039,-0.0353258,20,32765
0.578304,0.19095,-0.0346843,20,32765
0.578949,0.188988,-0.0346625,21,32765
0.570073,0.183986,-0.0341362,21,32765
0.580192,0.185135,-0.0346651,21,32765
0.580791,0.18323,-0.0347591,20,32765
0.590915,0.184309,-0.0353568,20,32765
0.581979,0.179407,-0.0348402,19,32765
0.592118,0.180374,-0.0355141,19,32765
0.592718,0.17838,-0.0355899,19,32765
0.583735,0.173563,-0.0350667,19,32765
0.574714,0.168838,-0.0346147,19,32765
0.584858,0.169702,-0.0352514,20,32765
0.585409,0.16776,-0.0354002,20,32765
0.58597,0.165775,-0.0354703,19,32765
0.586521,0.163784,-0.0356114,19,32765
0.577442,0.159146,-0.0351204,19,32765
0.568339,0.154562,-0.0346612,20,32765
0.57849,0.155241,-0.0353552,20,32765
0.579002,0.153292,-0.0354799,20,32765
0.569845,0.148825,-0.0350414,20,32765
0.570331,0.146935,-0.0351059,20,32765
0.570813,0.145023,-0.0352308,20,32765
0.571284,0.14311,-0.0354143,20,32765
0.562067,0.138783,-0.0349274,20,32765
0.562522,0.136885,-0.0350906,20,32765
0.572682,0.137312,-0.0357837,20,32765
0.563413,0.133103,-0.0353402,20,32765
0.573575,0.133459,-0.0360601,20,32765
0.564287,0.129274,-0.0356108,20,32765
0.574452,0.129556,-0.0363259,21,32765
0.555396,0.123267,-0.0352197,21,32765
0.565547,0.123526,-0.036028,21,32765
0.565957,0.121612,-0.0361019,21,32765
0.566358,0.119679,-0.0362778,20,32765
0.566752,0.117741,-0.0364643,20,32765
0.567142,0.115806,-0.0365989,21,32765
0.557744,0.111876,-0.0361343,20,32765
0.577697,0.113833,-0.0375277,21,32765
0.558477,0.108062,-0.0364201,20,32765
0.568634,0.10804,-0.0371796,21,32765
0.568986,0.106133,-0.0372889,20,32765
0.559511,0.102417,-0.0368491,21,32765
0.550023,0.0987712,-0.0363148,21,32765
0.560177,0.0985984,-0.0371466,20,32765
0.570337,0.0983684,-0.0379409,21,32765
0.560826,0.0947398,-0.0373909,21,32765
0.561139,0.0928163,-0.0375188,21,32765
0.551592,0.0893248,-0.0369739,20,32765
0.551881,0.087446,-0.0371588,20,32765
0.542302,0.0840533,-0.0366493,21,32765
0.552448,0.0836844,-0.0373955,21,32765
0.552724,0.0817749,-0.0375369,21,32765
0.562869,0.0813088,-0.038313,21,32765
0.553254,0.0779977,-0.0377645,20,32765
0.563387,0.0775069,-0.0385664,21,32765
0.543861,0.0729616,-0.0373007,21,32765
0.544097,0.0711047,-0.037449,21,32765
0.554225,0.0705165,-0.0382346,21,32765
0.534652,0.0661972,-0.0369481,21,32765
0.544766,0.0656028,-0.0377663,21,32765
0.564793,0.0661366,-0.0391751,19,32765
0.574916,0.065388,-0.0399444,16,32765
0.565208,0.0623679,-0.039369,16,32765
0.545573,0.0583038,-0.0380863,19,32765
0.545766,0.0564385,-0.0381289,21,32765
0.545951,0.0546038,-0.0381564,21,32765
0.556054,0.0537041,-0.0389816,21,32765
0.546293,0.0509222,-0.0383442,21,32765
0.546455,0.0490721,-0.0384552,21,32765
0.546618,0.0472203,-0.0384641,21,32765
0.54677,0.0453645,-0.0385265,21,32765
0.556865,0.0442976,-0.0392305,22,32765
0.547059,0.0416816,-0.0385912,22,32765
0.547186,0.0398678,-0.0387024,20,32765
0.537363,0.0373821,-0.0379898,22,32765
0.557391,0.0369152,-0.0394085,21,32765
0.547557,0.0344172,-0.0386951,21,32765
0.537706,0.0319967,-0.0380632,21,32765
0.53781,0.0301917,-0.0380691,21,32765
0.537907,0.0284254,-0.0380594,22,32765
0.537996,0.0266509,-0.0380761,21,32765
0.548051,0.0253198,-0.0387188,22,32765
0.538166,0.0230875,-0.0379981,21,32765
0.52827,0.0209009,-0.0373357,21,32765
0.538307,0.0195144,-0.0380088,22,32765
0.538373,0.0177263,-0.0379457,21,32765
0.548402,0.0162123,-0.0386252,22,32765
0.528513,0.0138637,-0.0371776,22,32765
0.528557,0.0121017,-0.0371618,22,32765
0.538569,0.0105641,-0.0378417,22,32765
0.528635,0.00863536,-0.0370157,22,32765
0.528663,0.00687346,-0.0369898,22,32765
0.518716,0.00504894,-0.0361716,23,32765
0.518733,0.00334678,-0.0361167,23,32765
0.518747,0.00162941,-0.0360444,23,32765
0.528735,-9.69777e-05,-0.0365995,23,32765
0.518765,-0.00184676,-0.0357667,23,32765
0.518765,-0.00358784,-0.0356406,22,32765
0.528737,-0.00540116,-0.0361613,22,32765
0.528731,-0.00708485,-0.0359644,22,32765
0.62533,0.208099,-0.0354468,20,32765
0.625967,0.206092,-0.0359365,20,32765
0.626608,0.204045,-0.0364486,20,32765
0.627247,0.201998,-0.0368469,21,32765
0.646907,0.205996,-0.0384347,20,32765
0.628523,0.197828,-0.0377193,19,32765
0.638677,0.198729,-0.0387019,19,32765
0.639311,0.196605,-0.0390879,19,32765
0.63038,0.191605,-0.0388384,19,32765
0.640541,0.192418,-0.0397823,19,32765
0.641151,0.19029,-0.040183,20,32765
0.613023,0.179745,-0.0386644,20,32765
0.632782,0.183218,-0.0402187,19,32765
0.623772,0.178363,-0.0399321,19,32765
0.614737,0.173584,-0.0395899,19,32765
0.624902,0.17422,-0.0405634,20,32765
0.625458,0.172158,-0.0407936,20,32765
0.626017,0.170041,-0.0410957,20,32765
0.607297,0.162755,-0.0400236,19,32765
0.607823,0.160712,-0.0402866,20,32765
0.618003,0.161173,-0.0411757,20,32765
0.618523,0.159105,-0.0414073,20,32765
0.619033,0.15704,-0.041667,20,32765
0.609866,0.152536,-0.0411827,20,32765
0.610354,0.150497,-0.0414649,21,32765
0.610842,0.148439,-0.0416905,21,32765
0.611318,0.146399,-0.0419306,20,32765
0.6118,0.144315,-0.0421167,20,32765
0.621991,0.144487,-0.0430163,21,32765
0.612748,0.140118,-0.0425114,20,32765
0.603473,0.13585,-0.042004,20,32765
0.623395,0.138126,-0.0435934,21,32765
0.604355,0.131765,-0.0423498,21,32765
0.614536,0.131825,-0.0432226,21,32765
0.595449,0.125612,-0.0419775,20,32765
0.615398,0.127642,-0.0435017,20,32765
0.586491,0.119589,-0.0415556,20,32765
0.606446,0.121508,-0.0431205,21,32765
0.606844,0.119439,-0.0433017,21,32765
0.597442,0.115504,-0.0426821,20,32765
0.607621,0.115341,-0.0435047,20,32765
0.58838,0.10965,-0.0422587,21,32765
0.588739,0.107648,-0.042414,21,32765
0.598915,0.107404,-0.0431928,20,32765
0.609091,0.107082,-0.0440655,21,32765
0.579955,0.0999409,-0.0420017,20,32765
0.599952,0.101326,-0.0434784,21,32765
0.60028,0.0993009,-0.0436285,21,32765
0.600605,0.0972571,-0.0437636,20,32765
0.571376,0.0904941,-0.0417194,21,32765
0.601253,0.0930919,-0.0439213,21,32765
0.58184,0.0880122,-0.0426167,20,32765
0.601866,0.0889282,-0.0441475,21,32765
0.582417,0.0840346,-0.0427621,21,32765
0.582688,0.0820728,-0.0428745,20,32765
0.592837,0.0814546,-0.0436912,21,32765
0.573333,0.0768038,-0.042316,21,32765
0.593359,0.0774442,-0.0439004,21,32765
0.58372,0.0741755,-0.0432333,21,32765
0.58396,0.0721997,-0.0433397,21,32765
0.584199,0.0702218,-0.0433641,21,32765
0.594331,0.0694062,-0.0441966,19,32765
0.594554,0.0673981,-0.0443037,16,32765
0.614597,0.0675627,-0.0458823,17,32765
0.594984,0.0633782,-0.0444641,20,32765
0.565427,0.0582911,-0.0423602,20,32765
0.585459,0.0583748,-0.0439277,21,32765
0.57572,0.0554345,-0.0432798,21,32765
0.585826,0.0544309,-0.0441108,21,32765
0.566129,0.0506878,-0.0427596,21,32765
0.57623,0.0496314,-0.0435375,21,32765
0.566444,0.046867,-0.0429454,21,32765
0.556654,0.0441507,-0.0422724,22,32765
0.586621,0.0445387,-0.0446395,21,32765
0.586756,0.0425499,-0.0447947,22,32765
0.566994,0.0391986,-0.0433721,22,32765
0.567115,0.0373129,-0.0434535,21,32765
0.567225,0.0354333,-0.043588,21,32765
0.547425,0.0323854,-0.0421552,21,32765
0.567427,0.0316862,-0.0438418,21,32765
0.567522,0.0298035,-0.0439355,22,32765
0.577573,0.028423,-0.0447406,21,32765
0.557732,0.0255689,-0.0433682,22,32765
0.557801,0.0237143,-0.0435377,22,32765
0.577793,0.0226471,-0.0451883,22,32765
0.56789,0.020346,-0.0445754,22,32765
0.557983,0.0181304,-0.0438953,22,32765
0.577956,0.0168249,-0.0456528,22,32765
0.568034,0.0146524,-0.0449715,23,32765
0.568065,0.0127537,-0.045159,22,32765
0.548163,0.0104827,-0.0436761,22,32765
0.558149,0.00883811,-0.0446288,23,32765
0.548191,0.00686896,-0.0440334,23,32765
0.56813,0.00528532,-0.0458283,23,32765
0.558166,0.00338776,-0.0451594,23,32765
0.568129,0.0015921,-0.0461142,23,32765
0.558145,-0.000257844,-0.045539,24,32765
0.558122,-0.0021071,-0.0457762,24,32765
0.548132,-0.0038641,-0.0451303,25,32765
0.548096,-0.00564417,-0.04538,25,32765
0.558014,-0.00755418,-0.0465082,24,32765
0.596404,0.199056,-0.0397427,19,32765
0.578057,0.190878,-0.0389338,19,32765
0.578648,0.188982,-0.0394072,20,32765
0.579238,0.187087,-0.0397756,20,32765
0.589327,0.188214,-0.0408574,21,32765
0.5709,0.180221,-0.0399169,21,32765
0.590514,0.184285,-0.0416281,21,32765
0.581565,0.179375,-0.0413083,21,32765
0.572587,0.174553,-0.0409349,21,32765
0.582685,0.175555,-0.0419409,21,32765
0.592801,0.17646,-0.0429995,20,32765
0.574222,0.168867,-0.0418758,19,32765
0.584349,0.169695,-0.0428937,20,32765
0.584891,0.167741,-0.0431969,20,32765
0.585425,0.165797,-0.0434565,20,32765
0.576344,0.161159,-0.0430718,20,32765
0.586472,0.161906,-0.044006,20,32765
0.577374,0.157294,-0.0435637,20,32765
0.568259,0.152745,-0.043018,20,32765
0.568752,0.150828,-0.0432645,20,32765
0.569243,0.148898,-0.043495,20,32765
0.569723,0.146988,-0.0437087,20,32765
0.579857,0.14754,-0.0446932,21,32765
0.560995,0.14073,-0.0433572,20,32765
0.561443,0.13885,-0.0436172,20,32765
0.561893,0.136951,-0.043825,20,32765
0.581722,0.139727,-0.0455651,21,32765
0.553073,0.130852,-0.0434555,21,32765
0.563211,0.131224,-0.0444275,21,32765
0.563649,0.129277,-0.0445817,21,32765
0.554347,0.125165,-0.0439672,20,32765
0.564484,0.125448,-0.0449512,20,32765
0.555158,0.121402,-0.0442855,20,32765
0.565297,0.121627,-0.0452373,20,32765
0.565699,0.119696,-0.0453583,20,32765
0.566093,0.117769,-0.0454948,21,32765
0.55671,0.113859,-0.0448298,21,32765
0.566857,0.113919,-0.0457845,20,32765
0.567229,0.11198,-0.0459542,20,32765
0.557811,0.108169,-0.0452358,21,32765
0.558166,0.106275,-0.045349,22,32765
0.558508,0.104399,-0.0454987,20,32765
0.549044,0.100695,-0.0448456,20,32765
0.559189,0.100585,-0.0457138,21,32765
0.549703,0.0969362,-0.0450607,20,32765
0.569666,0.0984682,-0.0467374,20,32765
0.550334,0.0932306,-0.0451746,21,32765
0.540802,0.0897366,-0.0445034,21,32765
0.560771,0.0910864,-0.0462481,20,32765
0.541389,0.0860094,-0.0447281,20,32765
0.55153,0.0856574,-0.045582,21,32765
0.551815,0.0837294,-0.0457107,20,32765
0.522517,0.0774442,-0.0433369,20,32765
0.532637,0.0770918,-0.0442116,20,32765
0.542754,0.0766872,-0.0451352,21,32765
0.552877,0.0762026,-0.04604,21,32765
0.543248,0.0730029,-0.0452951,21,32765
0.543484,0.0711588,-0.04541,21,32765
0.543717,0.0693115,-0.0454703,21,32765
0.553831,0.0686928,-0.0463981,21,32765
0.544165,0.0656189,-0.0455925,21,32765
0.534479,0.0626172,-0.0448515,21,32765
0.53468,0.0608066,-0.044948,21,32765
0.554686,0.0611746,-0.0467048,21,32765
0.544976,0.0582409,-0.0459276,21,32765
0.535249,0.0553612,-0.0452057,19,32765
0.575087,0.0575301,-0.0486342,16,32765
0.595108,0.057492,-0.0504113,16,32765
0.545683,0.050871,-0.0462894,17,32765
0.52599,0.0472531,-0.0447402,20,32765
0.526145,0.0454719,-0.0447657,22,32765
0.536213,0.0445182,-0.0457606,21,32765
0.536355,0.0426884,-0.0458382,21,32765
0.526553,0.0401184,-0.0450815,21,32765
0.536612,0.0390518,-0.0460742,21,32765
0.536733,0.03724,-0.046165,21,32765
0.536847,0.0354502,-0.0462422,21,32765
0.527008,0.0330428,-0.0455109,22,32765
0.51716,0.03071,-0.0447436,21,32765
0.537141,0.0301098,-0.0466102,22,32765
0.517333,0.0272738,-0.0449693,21,32765
0.527368,0.0260558,-0.0458656,22,32765
0.527439,0.0242789,-0.0460268,22,32765
0.51755,0.0220956,-0.0453157,21,32765
0.527567,0.0207681,-0.0462746,21,32765
0.527621,0.0189884,-0.0464291,22,32765
0.527673,0.0172261,-0.0465256,22,32765
0.527713,0.0154382,-0.0466989,21,32765
0.517795,0.0134264,-0.0459144,22,32765
0.537738,0.0121409,-0.0478579,22,32765
0.517849,0.00996398,-0.0461814,21,32765
0.507907,0.00809806,-0.0454377,22,32765
0.517874,0.00654126,-0.046519,22,32765
0.517876,0.00486569,-0.0466957,22,32765
0.49796,0.00306418,-0.0450202,22,32765
0.507914,0.00146171,-0.0460534,22,32765
0.507897,-0.000200534,-0.0462662,22,32765
0.497916,-0.00185061,-0.0455706,22,32765
0.50785,-0.00355469,-0.0466409,22,32765
0.507815,-0.00520816,-0.0468724,22,32765
0.50777,-0.00685697,-0.0471482,22,32765
0.623932,0.208915,-0.0516038,19,32765
0.615154,0.203736,-0.0507629,19,32765
0.615809,0.201737,-0.0508092,19,32765
0.606994,0.196628,-0.049956,20,32765
0.607642,0.194607,-0.0499895,20,32765
0.60828,0.192579,-0.0500944,21,32765
0.599395,0.187597,-0.0493249,21,32765
0.609522,0.188578,-0.0502123,21,32765
0.610134,0.186579,-0.05024,21,32765
0.620285,0.187455,-0.0510604,21,32765
0.601803,0.179652,-0.0495767,21,32765
0.592834,0.174822,-0.0488375,20,32765
0.612553,0.178393,-0.0505422,19,32765
0.613151,0.176306,-0.0506204,20,32765
0.604143,0.171523,-0.049911,20,32765
0.623908,0.174853,-0.0516248,20,32765
0.614876,0.170097,-0.0509333,20,32765
0.615441,0.168019,-0.0510108,20,32765
0.60636,0.163374,-0.0503665,20,32765
0.616536,0.163888,-0.0512203,20,32765
0.597789,0.156745,-0.0497946,21,32765
0.598318,0.154699,-0.0498327,20,32765
0.598834,0.152642,-0.0499851,20,32765
0.609003,0.15303,-0.0509578,21,32765
0.599833,0.148584,-0.0502309,21,32765
0.590634,0.144205,-0.0495602,20,32765
0.600798,0.144545,-0.0504787,21,32765
0.591579,0.140206,-0.0497707,21,32765
0.592049,0.138169,-0.0498697,21,32765
0.592508,0.136124,-0.0500455,21,32765
0.602683,0.136277,-0.051005,21,32765
0.603129,0.134243,-0.0511257,20,32765
0.584101,0.127939,-0.0495687,20,32765
0.604007,0.130141,-0.0513651,20,32765
0.594682,0.126019,-0.0507207,21,32765
0.585346,0.121942,-0.0500063,21,32765
0.585752,0.119931,-0.0501094,21,32765
0.595918,0.119865,-0.0511281,20,32765
0.576768,0.113944,-0.0495502,21,32765
0.586925,0.113877,-0.0505026,22,32765
0.587298,0.111876,-0.0506406,20,32765
0.59746,0.111723,-0.0515719,21,32765
0.578216,0.106108,-0.050074,21,32765
0.578558,0.10415,-0.0502355,20,32765
0.578899,0.102202,-0.0503102,20,32765
0.559594,0.0968264,-0.0487821,20,32765
0.579557,0.0982336,-0.0506326,21,32765
0.570052,0.0945856,-0.049948,21,32765
0.580199,0.0942143,-0.0509156,20,32765
0.590347,0.0937834,-0.0519135,20,32765
0.590645,0.0917663,-0.0521307,21,32765
0.561407,0.0852619,-0.0495252,20,32765
0.571532,0.0847829,-0.0506207,20,32765
0.571813,0.0828138,-0.0507168,21,32765
0.572077,0.0808648,-0.0508844,21,32765
0.562466,0.0775786,-0.05013,21,32765
0.582456,0.078354,-0.0520151,21,32765
0.572832,0.0750903,-0.0512317,21,32765
0.573074,0.0731394,-0.0513492,21,32765
0.563427,0.0699398,-0.0505782,21,32765
0.553761,0.0668146,-0.0498404,21,32765
0.553977,0.0649476,-0.0499174,21,32765
0.573976,0.0653357,-0.0517982,21,32765
0.574178,0.0634201,-0.0519353,21,32765
0.574379,0.0614958,-0.0520245,21,32765
0.574573,0.0595629,-0.0521352,21,32765
0.564853,0.0566192,-0.0513406,20,32765
0.565031,0.0546994,-0.0514573,18,32765
0.644533,0.0602007,-0.0587647,16,32765
0.595129,0.0535691,-0.054329,17,32765
0.565532,0.0489845,-0.0517117,20,32765
0.56569,0.0471082,-0.0517222,21,32765
0.565835,0.0452069,-0.0518399,21,32765
0.565978,0.0433223,-0.051888,21,32765
0.55618,0.040695,-0.0510681,21,32765
0.556309,0.0388444,-0.0511051,21,32765
0.556432,0.0369911,-0.0511429,22,32765
0.556547,0.0351197,-0.0512011,21,32765
0.5666,0.0338612,-0.0521366,22,32765
0.556764,0.0314048,-0.0512546,22,32765
0.556859,0.029549,-0.0513369,22,32765
0.566904,0.0281967,-0.0522024,22,32765
0.557042,0.0258389,-0.0513484,23,32765
0.547179,0.0235568,-0.0504003,21,32765
0.547253,0.0217341,-0.0504196,22,32765
0.557271,0.0202551,-0.0513635,22,32765
0.557341,0.0184035,-0.0513091,22,32765
0.557398,0.0165562,-0.0513166,22,32765
0.557455,0.0147354,-0.0512531,23,32765
0.557501,0.012892,-0.0512484,23,32765
0.557542,0.011025,-0.0512402,22,32765
0.547627,0.00898649,-0.0502428,22,32765
0.547654,0.00716508,-0.0502377,23,32765
0.537723,0.0052698,-0.0492554,22,32765
0.537743,0.00352124,-0.0491973,22,32765
0.547718,0.00178798,-0.0500172,23,32765
0.55769,-2.49049e-05,-0.0508168,23,32765
0.547737,-0.00185989,-0.0498108,23,32765
0.547744,-0.00365462,-0.0496264,23,32765
0.547748,-0.00545841,-0.0494179,23,32765
0.557705,-0.0073819,-0.0501093,24,32765
0.576033,0.193479,-0.0534006,20,32765
0.567217,0.188446,-0.0524713,19,32765
0.567823,0.186598,-0.0525145,19,32765
0.577919,0.187793,-0.0533222,20,32765
0.569055,0.182816,-0.05248,20,32765
0.569655,0.180912,-0.0525788,20,32765
0.560744,0.176046,-0.0517154,19,32765
0.56131,0.174202,-0.051812,20,32765
0.571401,0.175278,-0.0527166,21,32765
0.571973,0.173391,-0.0527498,21,32765
0.553465,0.165735,-0.0510723,21,32765
0.554013,0.163881,-0.0511174,21,32765
0.564115,0.164797,-0.0521183,21,32765
0.555097,0.160108,-0.0513062,21,32765
0.546047,0.15551,-0.0504958,20,32765
0.556151,0.156347,-0.0514975,20,32765
0.556666,0.154471,-0.0515909,20,32765
0.557179,0.152585,-0.0516615,20,32765
0.567288,0.153321,-0.0526956,20,32765
0.567799,0.151401,-0.0527461,20,32765
0.568294,0.149474,-0.0529128,20,32765
0.559159,0.145023,-0.052052,20,32765
0.559642,0.143095,-0.0521949,20,32765
0.569771,0.143616,-0.053251,20,32765
0.560579,0.139292,-0.0524255,20,32765
0.541687,0.132666,-0.050746,20,32765
0.551804,0.13317,-0.05175,21,32765
0.561933,0.133594,-0.0527591,21,32765
0.562382,0.131654,-0.0528536,21,32765
0.553115,0.12747,-0.0521068,21,32765
0.553541,0.125556,-0.0522349,20,32765
0.544233,0.121512,-0.0514279,21,32765
0.544634,0.119667,-0.0515141,21,32765
0.545028,0.117801,-0.0516445,21,32765
0.535672,0.11387,-0.0508885,20,32765
0.545797,0.11406,-0.0519232,20,32765
0.546177,0.112179,-0.0520197,20,32765
0.546548,0.11028,-0.0521884,20,32765
0.537151,0.106452,-0.0513485,21,32765
0.537502,0.104617,-0.0514519,21,32765
0.537844,0.10278,-0.0515786,21,32765
0.538181,0.100956,-0.0516575,21,32765
0.548294,0.100937,-0.0527801,21,32765
0.538822,0.0973052,-0.0519882,21,32765
0.529338,0.0937503,-0.0511116,20,32765
0.549256,0.0953414,-0.053179,21,32765
0.529941,0.0901115,-0.051407,21,32765
0.549875,0.0915309,-0.0534787,21,32765
0.530529,0.0864262,-0.0516663,21,32765
0.530812,0.0845979,-0.0517879,21,32765
0.521245,0.0812463,-0.0510208,20,32765
0.531359,0.0809607,-0.0519847,20,32765
0.541461,0.080584,-0.0531623,21,32765
0.531878,0.0772822,-0.0522854,21,32765
0.532123,0.0754643,-0.0524415,21,32765
0.532363,0.0736688,-0.0525582,21,32765
0.532596,0.0718839,-0.0526737,21,32765
0.532827,0.0700784,-0.0527653,21,32765
0.533053,0.0682589,-0.0528748,21,32765
0.533274,0.066419,-0.0529832,21,32765
0.533485,0.0645854,-0.0531275,21,32765
0.504043,0.059294,-0.0502462,21,32765
0.524006,0.059851,-0.0523063,21,32765
0.543971,0.0602898,-0.0544103,21,32765
0.524374,0.0563359,-0.0525133,21,32765
0.524551,0.0545665,-0.0526146,21,32765
0.514824,0.0517852,-0.0517171,21,32765
0.52489,0.0509927,-0.0528202,21,32765
0.515146,0.0482869,-0.051892,21,32765
0.515299,0.0465498,-0.0519654,21,32765
0.525356,0.0456694,-0.053057,21,32765
0.53542,0.0447503,-0.0540682,18,32765
0.595062,0.0477177,-0.0601998,16,32765
0.535692,0.0411573,-0.0542255,16,32765
0.515973,0.037896,-0.0523011,19,32765
0.535943,0.0375657,-0.0543485,21,32765
0.526135,0.035113,-0.0533779,21,32765
0.516316,0.0327096,-0.0524249,21,32765
0.526351,0.0315822,-0.0534528,22,32765
0.516518,0.0292539,-0.0524748,22,32765
0.516605,0.0275275,-0.0525512,22,32765
0.516698,0.0258093,-0.0525047,21,32765
0.506838,0.0236133,-0.0515513,21,32765
0.516857,0.0223518,-0.0525327,21,32765
0.497045,0.019832,-0.0505299,21,32765
0.516991,0.0188819,-0.0525764,21,32765
0.507112,0.0168294,-0.0515159,22,32765
0.517109,0.015441,-0.0525331,21,32765
0.507217,0.0134827,-0.0514651,21,32765
0.50726,0.0118009,-0.0514608,21,32765
0.49735,0.00989959,-0.0504446,21,32765
0.507336,0.00838672,-0.0513772,22,32765
0.51731,0.00682599,-0.0523798,22,32765
0.507388,0.00502472,-0.0513076,22,32765
0.487509,0.0032381,-0.0492429,22,32765
0.487525,0.00163288,-0.0491618,22,32765
0.487537,1.5158e-05,-0.0490658,22,32765
0.497493,-0.00165619,-0.0499777,22,32765
0.487552,-0.00322504,-0.048814,22,32765
0.497507,-0.00493378,-0.0496209,22,32765
0.507457,-0.006697,-0.0504249,22,32765
0.623645,0.208853,-0.055208,19,32765
0.614832,0.203658,-0.0548156,19,32765
0.624933,0.204718,-0.0561153,19,32765
0.616088,0.199593,-0.0556632,20,32765
0.616714,0.197544,-0.0560361,19,32765
0.607845,0.192456,-0.0555466,20,32765
0.598945,0.18745,-0.0550185,20,32765
0.599535,0.18546,-0.0553414,21,32765
0.609641,0.18639,-0.0565395,21,32765
0.600682,0.181508,-0.0560015,21,32765
0.610791,0.182381,-0.0571919,22,32765
0.592263,0.17472,-0.0556505,22,32765
0.583251,0.169955,-0.0550844,21,32765
0.602939,0.173503,-0.0571059,21,32765
0.593907,0.168756,-0.0565322,20,32765
0.604041,0.169402,-0.0577729,21,32765
0.604593,0.167349,-0.0579759,20,32765
0.595528,0.162671,-0.0573136,20,32765
0.605659,0.163262,-0.0585062,20,32765
0.606173,0.16125,-0.058756,20,32765
0.606687,0.159222,-0.0589827,20,32765
0.597555,0.154693,-0.0582928,20,32765
0.598052,0.152672,-0.0585283,20,32765
0.598548,0.150628,-0.0587533,20,32765
0.579707,0.143805,-0.0570944,20,32765
0.580181,0.1418,-0.0572931,21,32765
0.590314,0.14216,-0.0584802,21,32765
0.58109,0.137853,-0.0577169,21,32765
0.581533,0.135889,-0.0579109,21,32765
0.581961,0.133954,-0.058122,21,32765
0.562973,0.127606,-0.0563731,20,32765
0.592514,0.132235,-0.0595042,21,32765
0.583228,0.12808,-0.0586594,21,32765
0.583649,0.126073,-0.058818,21,32765
0.574329,0.121989,-0.0580046,20,32765
0.584472,0.122048,-0.0591332,21,32765
0.594608,0.122081,-0.0603133,21,32765
0.594996,0.120086,-0.0604875,21,32765
0.585622,0.116123,-0.0596883,21,32765
0.556698,0.108439,-0.0568202,20,32765
0.586371,0.112135,-0.0599558,21,32765
0.576955,0.108288,-0.0591361,21,32765
0.567528,0.104505,-0.0582254,21,32765
0.577655,0.104323,-0.0594303,21,32765
0.577994,0.102371,-0.0595287,21,32765
0.56852,0.0986891,-0.0587008,21,32765
0.568839,0.0967777,-0.0587893,22,32765
0.56915,0.0948492,-0.0589206,21,32765
0.569451,0.0929135,-0.0591022,21,32765
0.569756,0.0909725,-0.0591803,21,32765
0.570051,0.089005,-0.0593307,20,32765
0.57034,0.0870317,-0.0594837,21,32765
0.560789,0.0835899,-0.0585508,21,32765
0.551216,0.0802162,-0.057676,21,32765
0.561323,0.0797407,-0.0588006,21,32765
0.561582,0.0778071,-0.0589198,21,32765
0.561826,0.0759049,-0.0590761,21,32765
0.542358,0.0713993,-0.057012,21,32765
0.552445,0.0708053,-0.0582377,21,32765
0.562538,0.0701775,-0.0593831,22,32765
0.552891,0.0670604,-0.0584301,21,32765
0.553101,0.0652021,-0.0585482,21,32765
0.553304,0.0633459,-0.0586717,21,32765
0.553502,0.06146,-0.0588086,21,32765
0.563586,0.060644,-0.0599411,22,32765
0.563777,0.0587057,-0.0600791,22,32765
0.554064,0.0558052,-0.0591503,22,32765
0.554239,0.0539286,-0.0592488,21,32765
0.564309,0.052977,-0.0604099,22,32765
0.544665,0.0492956,-0.0583965,21,32765
0.564622,0.0491544,-0.0607113,22,32765
0.535051,0.0447503,-0.0575965,20,32765
0.555009,0.0445201,-0.0598577,17,32765
0.644365,0.0494816,-0.0696055,15,32765
0.59494,0.0436611,-0.0643464,17,32765
0.555401,0.0388626,-0.0601595,20,32765
0.545597,0.0363396,-0.0591918,21,32765
0.555622,0.0351303,-0.0604203,23,32765
0.555729,0.0332562,-0.0604961,22,32765
0.565746,0.0319736,-0.0617157,22,32765
0.555914,0.0295276,-0.0607279,22,32765
0.546069,0.0271797,-0.0597465,22,32765
0.546141,0.0253628,-0.0598936,22,32765
0.546209,0.0235274,-0.0600146,22,32765
0.546267,0.0217076,-0.0601728,23,32765
0.536393,0.0195081,-0.0591797,23,32765
0.546376,0.018029,-0.0603976,22,32765
0.546421,0.0162277,-0.060506,22,32765
0.546457,0.0143937,-0.0606468,22,32765
0.55642,0.0128069,-0.0619132,23,32765
0.556445,0.0109469,-0.0620458,23,32765
0.536591,0.00876583,-0.0599458,23,32765
0.546539,0.00709876,-0.0611949,23,32765
0.536604,0.0051774,-0.0602483,23,32765
0.536604,0.00343005,-0.060366,23,32765
0.536594,0.00165021,-0.0605283,23,32765
0.53657,-0.000112468,-0.0607661,24,32765
0.536557,-0.00186964,-0.0608538,23,32765
0.546461,-0.00370062,-0.0621832,23,32765
0.536484,-0.00538173,-0.0612816,24,32765
0.546379,-0.00729537,-0.0625817,24,32765
0.585173,0.19659,-0.0576583,19,32765
0.576332,0.19151,-0.0571453,20,32765
0.576924,0.18959,-0.0575672,20,32765
0.577508,0.187689,-0.057941,20,32765
0.578095,0.185763,-0.058291,20,32765
0.569198,0.180793,-0.057685,21,32765
0.560271,0.175904,-0.057042,20,32765
0.570329,0.176987,-0.0583165,20,32765
0.561367,0.172178,-0.0576394,20,32765
0.552373,0.167442,-0.0569806,20,32765
0.571959,0.171331,-0.0592284,21,32765
0.562959,0.166605,-0.0584754,21,32765
0.553931,0.161926,-0.0577996,21,32765
0.554452,0.16006,-0.0579983,21,32765
0.554955,0.158192,-0.0583097,22,32765
0.555466,0.156277,-0.0586127,21,32765
0.546389,0.151722,-0.057786,22,32765
0.546878,0.149861,-0.0580234,21,32765
0.556956,0.150615,-0.0592884,21,32765
0.55743,0.14876,-0.0595186,20,32765
0.557903,0.14689,-0.0597276,20,32765
0.539115,0.140013,-0.0578907,20,32765
0.549199,0.140652,-0.0591412,20,32765
0.559298,0.141204,-0.0603895,20,32765
0.550099,0.136901,-0.059573,20,32765
0.55055,0.134992,-0.059762,21,32765
0.550983,0.133117,-0.0599792,21,32765
0.54174,0.128934,-0.0591094,21,32765
0.542154,0.127098,-0.0592907,21,32765
0.542553,0.125288,-0.0594879,21,32765
0.533255,0.121263,-0.0586046,21,32765
0.533635,0.119482,-0.0587989,21,32765
0.524318,0.115519,-0.0578476,21,32765
0.534414,0.115815,-0.0590644,21,32765
0.544518,0.116035,-0.060297,21,32765
0.5449,0.114157,-0.060433,21,32765
0.545263,0.112317,-0.0606117,21,32765
0.535876,0.108509,-0.0596866,21,32765
0.536224,0.106677,-0.0598631,20,32765
0.526814,0.102956,-0.0588851,20,32765
0.536912,0.103016,-0.0601087,21,32765
0.537244,0.101169,-0.0602763,20,32765
0.53758,0.0993185,-0.0603634,21,32765
0.537898,0.0974659,-0.0605509,22,32765
0.518643,0.0921653,-0.0584376,21,32765
0.528729,0.0920888,-0.0597089,21,32765
0.538824,0.0919785,-0.0608988,21,32765
0.519515,0.0868685,-0.0588045,20,32765
0.519789,0.0850967,-0.0589705,21,32765
0.529882,0.084892,-0.0601561,21,32765
0.539974,0.0845951,-0.0614129,21,32765
0.520603,0.0797127,-0.0593195,21,32765
0.540522,0.0808443,-0.0616477,21,32765
0.521117,0.0760964,-0.0595503,21,32765
0.531201,0.0757215,-0.0607637,21,32765
0.521604,0.0725183,-0.0597494,21,32765
0.521831,0.0707465,-0.0598949,22,32765
0.512218,0.0676669,-0.0587732,21,32765
0.522281,0.0671743,-0.0600826,22,32765
0.532352,0.0666461,-0.0613162,21,32765
0.512842,0.0624235,-0.0591278,20,32765
0.532769,0.0630294,-0.061516,21,32765
0.523095,0.0601024,-0.0604937,21,32765
0.523282,0.0583145,-0.0606234,21,32765
0.513592,0.0554656,-0.0595548,21,32765
0.523646,0.0547269,-0.0608284,21,32765
0.504048,0.0509552,-0.0586471,21,32765
0.514094,0.0502089,-0.0598886,21,32765
0.514251,0.0484592,-0.0599827,21,32765
0.504506,0.0458344,-0.0589278,21,32765
0.494746,0.0432365,-0.0579402,21,32765
0.494882,0.0415511,-0.0580148,21,32765
0.514807,0.0414575,-0.0604543,22,32765
0.505031,0.0389362,-0.059392,22,32765
0.485341,0.0357615,-0.0571407,21,32765
0.505264,0.0354991,-0.0595667,21,32765
0.535096,0.0357884,-0.0631753,18,32765
0.594663,0.037758,-0.0703579,15,32765
0.5353,0.0321719,-0.0633952,16,32765
0.525474,0.0298284,-0.0623508,19,32765
0.515645,0.0275122,-0.0612626,21,32765
0.48597,0.0243002,-0.05782,21,32765
0.50587,0.0236045,-0.0603163,21,32765
0.505934,0.0218997,-0.0604286,21,32765
0.505986,0.0202094,-0.0605752,21,32765
0.486196,0.0177764,-0.0582913,22,32765
0.496163,0.0164634,-0.0595917,22,32765
0.506127,0.0151195,-0.0608841,21,32765
0.496235,0.013153,-0.0598183,21,32765
0.486333,0.0112698,-0.058765,22,32765
0.496279,0.00983634,-0.0600826,22,32765
0.486371,0.00801256,-0.0589862,22,32765
0.506232,0.00664044,-0.0615226,22,32765
0.48638,0.00475102,-0.0592605,22,32765
0.48638,0.00316283,-0.0593672,22,32765
0.496296,0.00157669,-0.0607289,22,32765
0.486346,-5.6868e-05,-0.0597299,23,32765
0.496258,-0.00168774,-0.06103,22,32765
0.496228,-0.00332342,-0.0612139,22,32765
0.486264,-0.00484598,-0.0601973,22,32765
0.49615,-0.00659661,-0.0615759,23,32765
0.593567,0.200055,-0.0674982,19,32765
0.603669,0.201218,-0.0685203,20,32765
0.594884,0.196099,-0.0675125,19,32765
0.61443,0.200297,-0.0696928,20,32765
0.586695,0.189107,-0.0665433,20,32765
0.606271,0.19315,-0.0687651,20,32765
0.587943,0.185134,-0.0666945,20,32765
0.588553,0.183133,-0.0668366,20,32765
0.598668,0.184059,-0.0679642,20,32765
0.608782,0.18494,-0.069151,20,32765
0.599864,0.180029,-0.0682071,20,32765
0.600448,0.178008,-0.0683795,21,32765
0.572414,0.167591,-0.0652363,21,32765
0.58251,0.16841,-0.0664848,22,32765
0.583062,0.166446,-0.0665931,22,32765
0.574043,0.161765,-0.0656256,22,32765
0.574573,0.159818,-0.065757,22,32765
0.575085,0.157897,-0.0659186,22,32765
0.585187,0.158552,-0.0672098,21,32765
0.5761,0.154023,-0.0662214,20,32765
0.595834,0.157111,-0.0685409,20,32765
0.586728,0.152571,-0.0676237,20,32765
0.596851,0.153036,-0.0689085,21,32765
0.578086,0.146121,-0.0668243,20,32765
0.578562,0.144187,-0.0669019,20,32765
0.579027,0.142213,-0.0671069,21,32765
0.569823,0.137937,-0.066146,21,32765
0.560597,0.133711,-0.0652059,20,32765
0.580386,0.136341,-0.0675498,21,32765
0.571159,0.132081,-0.0665746,21,32765
0.571601,0.130057,-0.066767,21,32765
0.572028,0.128077,-0.0669343,21,32765
0.562744,0.123966,-0.0659702,20,32765
0.563149,0.122041,-0.0661013,20,32765
0.563543,0.120129,-0.0662404,20,32765
0.563932,0.1182,-0.0664023,21,32765
0.554588,0.114268,-0.0653819,21,32765
0.545215,0.110398,-0.0644415,21,32765
0.555319,0.110484,-0.0656818,20,32765
0.565424,0.110486,-0.0669966,21,32765
0.565784,0.10853,-0.0671573,21,32765
0.556376,0.104756,-0.0661221,21,32765
0.556706,0.102854,-0.0663245,21,32765
0.537494,0.0974176,-0.0641079,21,32765
0.557367,0.099067,-0.0665441,21,32765
0.538121,0.093728,-0.0643494,21,32765
0.538422,0.0918866,-0.0644846,21,32765
0.548512,0.0916737,-0.065804,21,32765
0.529208,0.086576,-0.0635859,21,32765
0.539296,0.0863375,-0.0648513,21,32765
0.549384,0.0860052,-0.0661819,21,32765
0.549658,0.0841392,-0.0663041,21,32765
0.549935,0.0822303,-0.0664082,21,32765
0.550197,0.0803313,-0.0665569,21,32765
0.550457,0.078441,-0.0666617,22,32765
0.550707,0.0765455,-0.0668021,22,32765
0.550954,0.0746889,-0.0668662,22,32765
0.541345,0.0715342,-0.0657897,22,32765
0.561265,0.0722409,-0.0682872,22,32765
0.531939,0.066651,-0.0647947,22,32765
0.551865,0.0672351,-0.0672648,21,32765
0.542221,0.0641832,-0.0661611,22,32765
0.562152,0.0646077,-0.0686383,22,32765
0.542627,0.0605052,-0.0662982,22,32765
0.542822,0.0586809,-0.0663382,22,32765
0.552878,0.0578538,-0.0676668,22,32765
0.543195,0.0549645,-0.0664729,22,32765
0.543365,0.0531042,-0.0665898,22,32765
0.543545,0.0512363,-0.0665841,22,32765
0.533823,0.0485016,-0.0654297,22,32765
0.54387,0.0475492,-0.0666695,22,32765
0.544021,0.0457028,-0.0667234,22,32765
0.544167,0.0438659,-0.0667673,23,32765
0.544308,0.0420248,-0.0668013,22,32765
0.53454,0.039463,-0.0656495,22,32765
0.544571,0.038355,-0.0668686,23,32765
0.544697,0.0365158,-0.0668699,20,32765
0.544818,0.0346891,-0.0668577,17,32765
0.653914,0.039422,-0.0802681,15,32765
0.564849,0.0321889,-0.0693521,17,32765
0.545133,0.0292423,-0.0668967,20,32765
0.555137,0.0279308,-0.0681422,22,32765
0.535403,0.0251447,-0.0656607,22,32765
0.535483,0.0233512,-0.0656728,22,32765
0.545483,0.021952,-0.0668334,23,32765
0.545552,0.020117,-0.0668427,23,32765
0.545623,0.0182841,-0.0667962,23,32765
0.535765,0.0161385,-0.0655386,22,32765
0.535818,0.0143254,-0.0655313,23,32765
0.535879,0.0125512,-0.0653929,23,32765
0.525995,0.0105521,-0.0641739,23,32765
0.535958,0.00897646,-0.0653305,23,32765
0.535991,0.00721474,-0.0652817,23,32765
0.526091,0.00534776,-0.0640287,23,32765
0.53605,0.00368529,-0.0650905,24,32765
0.536069,0.00188022,-0.0650102,23,32765
0.536088,0.000102922,-0.0648855,24,32765
0.526166,-0.0016335,-0.0636112,23,32765
0.536107,-0.00345743,-0.0646346,23,32765
0.526179,-0.00516244,-0.0633204,23,32765
0.536111,-0.00707102,-0.064304,23,32765
0.555104,0.187719,-0.0687118,19,32765
0.565153,0.189011,-0.0698308,20,32765
0.556343,0.184008,-0.0687263,19,32765
0.547505,0.179077,-0.0675951,19,32765
0.56699,0.183367,-0.0699914,20,32765
0.558142,0.178411,-0.0688948,20,32765
0.558733,0.176524,-0.0689697,19,32765
0.559315,0.174617,-0.0691054,20,32765
0.55041,0.169787,-0.0679803,19,32765
0.550966,0.167935,-0.0680785,19,32765
0.542006,0.163208,-0.0670287,20,32765
0.542535,0.161376,-0.0671851,20,32765
0.552595,0.162329,-0.0684733,20,32765
0.553124,0.160449,-0.068627,20,32765
0.544105,0.155844,-0.0675454,20,32765
0.544619,0.153986,-0.0676637,21,32765
0.53556,0.149465,-0.0665996,21,32765
0.536039,0.147669,-0.0667507,22,32765
0.546095,0.148455,-0.0681229,22,32765
0.51781,0.138903,-0.0646399,21,32765
0.518274,0.137118,-0.0647379,21,32765
0.537932,0.140351,-0.0673087,22,32765
0.538389,0.13851,-0.0674681,21,32765
0.548468,0.139101,-0.0688049,20,32765
0.529661,0.132444,-0.0664622,21,32765
0.530088,0.130632,-0.0666503,21,32765
0.54015,0.131194,-0.068012,20,32765
0.521262,0.124749,-0.0657517,21,32765
0.540997,0.127517,-0.0682763,21,32765
0.522084,0.121141,-0.065976,21,32765
0.532165,0.121494,-0.0673773,21,32765
0.532564,0.119645,-0.0675335,21,32765
0.523264,0.115661,-0.0664645,21,32765
0.533339,0.115974,-0.0678199,21,32765
0.52401,0.112082,-0.0667165,21,32765
0.524372,0.110284,-0.0668674,20,32765
0.534449,0.110495,-0.068226,21,32765
0.505629,0.102733,-0.0646966,20,32765
0.515695,0.102953,-0.0660243,21,32765
0.525763,0.103089,-0.0674215,21,32765
0.516356,0.0993899,-0.06632,21,32765
0.516679,0.097618,-0.0664343,21,32765
0.516986,0.0958471,-0.0666226,21,32765
0.517296,0.0940827,-0.0667294,20,32765
0.517601,0.0923196,-0.0668272,21,32765
0.50813,0.0888135,-0.065699,21,32765
0.508415,0.0870697,-0.065827,21,32765
0.508694,0.0853178,-0.0659636,21,32765
0.489394,0.080345,-0.0635489,21,32765
0.519035,0.083388,-0.0674467,21,32765
0.509505,0.0800455,-0.066315,21,32765
0.490153,0.0752981,-0.0638736,21,32765
0.519825,0.0780063,-0.0678047,21,32765
0.500448,0.0733304,-0.0653815,21,32765
0.510502,0.0730101,-0.066761,21,32765
0.491091,0.0685069,-0.0643188,21,32765
0.510964,0.0695204,-0.0669512,21,32765
0.511181,0.0677959,-0.0670624,21,32765
0.511395,0.0660647,-0.0671585,21,32765
0.491925,0.0618657,-0.0646696,20,32765
0.511811,0.0625876,-0.0673219,21,32765
0.51201,0.0608344,-0.0674141,21,32765
0.512206,0.0590896,-0.0674793,21,32765
0.492687,0.0551455,-0.0649461,21,32765
0.502723,0.0545541,-0.0662823,22,32765
0.493032,0.0517905,-0.0650921,22,32765
0.503069,0.0511023,-0.0664075,21,32765
0.503227,0.0493745,-0.066516,21,32765
0.483654,0.0457713,-0.0639026,21,32765
0.493673,0.0450331,-0.0652589,21,32765
0.493821,0.0433479,-0.0652846,21,32765
0.48408,0.0408333,-0.0640271,21,32765
0.494092,0.039994,-0.0653738,22,32765
0.494221,0.0383175,-0.0654049,21,32765
0.484453,0.0359172,-0.0641538,21,32765
0.504349,0.0356754,-0.0667756,21,32765
0.494576,0.0333011,-0.0654676,21,32765
0.494686,0.0316377,-0.0654567,21,32765
0.514578,0.0311631,-0.0681056,21,32765
0.504777,0.0288992,-0.0668226,21,32765
0.504873,0.0272114,-0.0668023,20,32765
0.554463,0.028033,-0.0733808,18,32765
0.564463,0.0266425,-0.0746409,15,32765
0.534835,0.0234437,-0.0707247,16,32765
0.475483,0.0192377,-0.062818,20,32765
0.485451,0.018001,-0.0641351,22,32765
0.495423,0.0166993,-0.0654019,22,32765
0.475663,0.0144169,-0.0627477,22,32765
0.47571,0.0128026,-0.0627412,22,32765
0.495589,0.0116904,-0.0652275,23,32765
0.475802,0.00962017,-0.0626113,22,32765
0.475837,0.00803995,-0.0625632,22,32765
0.475867,0.00647133,-0.0625199,22,32765
0.475891,0.00489885,-0.0624801,23,32765
0.485837,0.00339805,-0.0636493,23,32765
0.475939,0.00172147,-0.062279,23,32765
0.475957,0.000138941,-0.0621684,23,32765
0.466048,-0.00140472,-0.0608089,22,32765
0.475976,-0.00303126,-0.0619457,22,32765
0.485893,-0.00473276,-0.063128,22,32765
0.485899,-0.00637913,-0.0629367,23,32765
0.602556,0.203192,-0.0723804,20,32765
0.612575,0.204368,-0.0740631,20,32765
0.594316,0.196149,-0.0722075,19,32765
0.594904,0.194171,-0.0727073,20,32765
0.595485,0.19221,-0.0731615,20,32765
0.596069,0.190229,-0.0735872,20,32765
0.596643,0.188264,-0.0739836,19,32765
0.587736,0.18333,-0.0731903,20,32765
0.588293,0.181371,-0.0735903,20,32765
0.598349,0.182318,-0.0750889,20,32765
0.598919,0.180291,-0.0754394,21,32765
0.599481,0.178261,-0.0757982,20,32765
0.590526,0.173397,-0.0749195,20,32765
0.600615,0.174112,-0.0764616,21,32765
0.572541,0.163873,-0.073091,21,32765
0.5635,0.159216,-0.0722381,21,32765
0.554444,0.154633,-0.0712765,21,32765
0.564491,0.1554,-0.0728092,22,32765
0.555408,0.150892,-0.0717888,21,32765
0.555873,0.149037,-0.0720643,22,32765
0.546755,0.144609,-0.071043,21,32765
0.566399,0.147789,-0.07383,22,32765
0.557249,0.143443,-0.0727855,21,32765
0.557705,0.141561,-0.0729806,20,32765
0.577389,0.144506,-0.0757644,21,32765
0.577852,0.142497,-0.0760414,21,32765
0.568671,0.138157,-0.0750057,21,32765
0.559476,0.133891,-0.0738911,21,32765
0.559906,0.131967,-0.0740932,21,32765
0.550661,0.127823,-0.0730304,21,32765
0.580079,0.132556,-0.0770503,21,32765
0.551472,0.124046,-0.0734213,20,32765
0.551874,0.122168,-0.0735558,20,32765
0.552268,0.120262,-0.0737338,21,32765
0.552652,0.11837,-0.0739237,21,32765
0.543336,0.114385,-0.0728158,21,32765
0.553421,0.114511,-0.0742492,21,32765
0.563502,0.114581,-0.0757371,21,32765
0.554153,0.110693,-0.0745778,21,32765
0.554513,0.108791,-0.0746942,21,32765
0.535394,0.103141,-0.0722167,21,32765
0.555199,0.105002,-0.0750219,22,32765
0.545792,0.101309,-0.0738063,21,32765
0.555873,0.101214,-0.0752401,21,32765
0.546441,0.0975533,-0.0740654,22,32765
0.536996,0.0939581,-0.0728527,21,32765
0.5373,0.0921051,-0.0729753,22,32765
0.537594,0.0902891,-0.0730775,22,32765
0.547671,0.0900589,-0.0744728,22,32765
0.547964,0.0881787,-0.0745618,22,32765
0.53847,0.0847029,-0.073318,22,32765
0.548545,0.0843202,-0.0747586,23,32765
0.548822,0.0824261,-0.0748382,23,32765
0.549084,0.0805636,-0.0749426,22,32765
0.549343,0.0786997,-0.0750259,22,32765
0.549602,0.0768094,-0.0750828,22,32765
0.540033,0.0735559,-0.0738506,22,32765
0.540278,0.0716733,-0.0739109,22,32765
0.540506,0.0698047,-0.0740326,21,32765
0.540731,0.0679642,-0.0740995,22,32765
0.540949,0.0661308,-0.0741719,22,32765
0.541162,0.0642912,-0.074229,22,32765
0.531518,0.0613264,-0.0729913,22,32765
0.541564,0.0606036,-0.0743992,23,32765
0.522055,0.0566125,-0.0717903,23,32765
0.541941,0.0568784,-0.0745952,23,32765
0.53227,0.0540101,-0.0732902,22,32765
0.532447,0.0521962,-0.0733214,22,32765
0.532604,0.0503794,-0.0734476,22,32765
0.53276,0.0485864,-0.0735229,22,32765
0.532903,0.0467803,-0.0736582,22,32765
0.542913,0.0458063,-0.0751475,23,32765
0.533188,0.0431838,-0.0737925,23,32765
0.533319,0.0413699,-0.0738905,22,32765
0.54332,0.0402948,-0.0753644,23,32765
0.533564,0.0377502,-0.0740552,23,32765
0.533674,0.0359356,-0.0741683,22,32765
0.533783,0.0341463,-0.0742243,22,32765
0.533878,0.0323595,-0.0743448,23,32765
0.524083,0.0300125,-0.0730488,22,32765
0.524163,0.0282582,-0.0731722,22,32765
0.514347,0.025982,-0.0719196,19,32765
0.5441,0.025647,-0.0761435,16,32765
0.653,0.0285611,-0.0915157,15,32765
0.53433,0.0215674,-0.0750082,18,32765
0.53438,0.0197691,-0.0751468,22,32765
0.534422,0.0179684,-0.0753017,23,32765
0.524562,0.0158934,-0.0740377,23,32765
0.544395,0.0146773,-0.0769331,24,32765
0.534526,0.0126414,-0.0756451,24,32765
0.544435,0.011023,-0.0772567,24,32765
0.534555,0.00901265,-0.0759562,24,32765
0.524665,0.00708066,-0.0746747,24,32765
0.524658,0.00533201,-0.0748699,24,32765
0.534546,0.00368547,-0.0764643,24,32765
0.534535,0.00192691,-0.0766089,24,32765
0.534507,0.000167148,-0.0768253,24,32765
0.524579,-0.00158182,-0.0755957,24,32765
0.524539,-0.00334528,-0.0758098,23,32765
0.52449,-0.00509936,-0.0760539,23,32765
0.524438,-0.00682998,-0.0762744,24,32765
0.564073,0.190861,-0.0734443,19,32765
0.564628,0.189013,-0.0739535,19,32765
0.555769,0.184052,-0.0731174,19,32765
0.556318,0.182196,-0.0735855,19,32765
0.566299,0.183413,-0.0752652,20,32765
0.566854,0.181524,-0.0756707,21,32765
0.576857,0.182643,-0.0773158,20,32765
0.567944,0.177763,-0.0764171,20,32765
0.549533,0.170002,-0.0742442,20,32765
0.559539,0.171077,-0.0758163,20,32765
0.55058,0.166309,-0.074854,20,32765
0.532094,0.158766,-0.0725919,20,32765
0.561131,0.165333,-0.0767897,20,32765
0.542621,0.157842,-0.0744887,20,32765
0.533593,0.153252,-0.0734344,19,32765
0.543605,0.154124,-0.0750988,20,32765
0.534546,0.149599,-0.0740351,20,32765
0.544562,0.150432,-0.0756508,20,32765
0.525914,0.143374,-0.0731992,21,32765
0.526355,0.141612,-0.0734606,21,32765
0.526805,0.139816,-0.0736742,22,32765
0.527233,0.138047,-0.0739486,22,32765
0.518066,0.13382,-0.0727969,22,32765
0.528093,0.134511,-0.0743302,22,32765
0.518899,0.13032,-0.0732194,22,32765
0.528932,0.130889,-0.0748293,22,32765
0.519727,0.126708,-0.073681,21,32765
0.52014,0.124914,-0.0738271,21,32765
0.520542,0.123119,-0.0740154,21,32765
0.520929,0.121346,-0.074219,21,32765
0.521322,0.119548,-0.0743778,21,32765
0.521698,0.117762,-0.0745896,20,32765
0.531747,0.118128,-0.076101,20,32765
0.522453,0.114172,-0.0748861,21,32765
0.522816,0.112377,-0.0750662,21,32765
0.503805,0.10644,-0.0724616,21,32765
0.504155,0.104689,-0.0725833,21,32765
0.523893,0.106907,-0.0755476,21,32765
0.504823,0.1012,-0.0728834,21,32765
0.514868,0.101375,-0.0743935,21,32765
0.505472,0.0977262,-0.0731255,21,32765
0.505779,0.0959996,-0.0732891,21,32765
0.506089,0.0942784,-0.0733827,21,32765
0.516133,0.0943187,-0.0749018,22,32765
