x, y, z, intensity, ring
0,-0,0,0,32765
4.52359,-3.23856,0.271649,16,32765
0,-0,0,0,32765
4.38121,-3.17927,0.27141,14,32765
0,-0,0,0,32765
3.44842,-1.06777,0.0191984,14,32765
3.60716,-1.12972,0.0224037,15,32765
3.69883,-1.17152,0.0248378,19,32765
3.79972,-1.21717,0.0271142,14,32765
3.9764,-1.2883,0.0303516,15,32765
3.99114,-1.30758,0.0318445,11,32765
4.05326,-1.34269,0.0340752,12,32765
4.1342,-1.38444,0.036576,12,32765
4.15797,-1.4078,0.0386877,13,32765
5.8184,-1.99135,0.0564319,14,32765
5.7928,-2.00425,0.0578806,21,32765
5.79557,-2.02667,0.0598349,21,32765
5.73223,-2.02586,0.0615917,22,32765
5.71613,-2.04125,0.0637243,21,32765
5.68114,-2.04987,0.0651904,21,32765
5.61791,-2.04821,0.0657318,21,32765
5.74241,-2.11524,0.0698624,22,32765
5.57603,-2.07497,0.0698791,20,32765
5.53162,-2.07947,0.0711512,20,32765
5.66486,-2.15114,0.0746213,21,32765
5.60152,-2.14879,0.0753176,20,32765
5.54761,-2.14957,0.076721,21,32765
5.559,-2.17536,0.0786887,20,32765
5.52377,-2.18294,0.0796707,21,32765
5.51649,-2.20119,0.0817038,20,32765
5.42561,-2.186,0.0817608,18,32765
5.41827,-2.20408,0.0832449,21,32765
5.42938,-2.22968,0.0853485,18,32765
5.39411,-2.23642,0.0868025,21,32765
5.38655,-2.25452,0.0882805,21,32765
5.36042,-2.26504,0.0890012,23,32765
5.28834,-2.25563,0.0896733,22,32765
5.40013,-2.32472,0.0932442,21,32765
5.27312,-2.29088,0.0925485,20,32765
5.27457,-2.31247,0.0946573,21,32765
5.24851,-2.322,0.0952484,19,32765
5.22244,-2.33135,0.0963652,22,32765
5.21449,-2.34903,0.0976325,19,32765
5.22464,-2.37502,0.100007,19,32765
5.14387,-2.35929,0.0996847,19,32765
5.17203,-2.39365,0.102363,18,32765
5.1368,-2.39824,0.103124,16,32765
5.17398,-2.4366,0.106141,19,32765
5.21107,-2.47507,0.108023,18,32765
5.07649,-2.432,0.107048,18,32765
4.97817,-2.40568,0.106794,18,32765
5.05981,-2.46639,0.11038,17,32765
5.02444,-2.47041,0.110106,17,32765
5.03398,-2.49615,0.112536,17,32765
4.93623,-2.46809,0.112036,17,32765
4.99035,-2.51621,0.114802,17,32765
4.94605,-2.51508,0.115797,18,32765
4.88406,-2.50456,0.115019,18,32765
4.90221,-2.53474,0.117527,17,32765
4.92024,-2.56504,0.119745,18,32765
4.92052,-2.58596,0.121868,18,32765
4.89413,-2.59308,0.122697,19,32765
4.8324,-2.58134,0.122598,17,32765
4.82372,-2.59745,0.123925,17,32765
4.8237,-2.61838,0.127099,16,32765
4.86756,-2.66319,0.129555,19,32765
4.75356,-2.62148,0.128258,18,32765
4.77976,-2.65663,0.130607,18,32765
4.7273,-2.648,0.131033,19,32765
4.70102,-2.65385,0.132458,18,32765
0,-0,0,0,32765
4.61387,-2.6451,0.134379,13,32765
4.69163,-2.71032,0.138436,13,32765
4.68261,-2.72577,0.140368,13,32765
4.70797,-2.76154,0.143282,17,32765
4.69001,-2.77221,0.145598,20,32765
4.62897,-2.75746,0.145421,17,32765
4.60256,-2.76256,0.146938,17,32765
4.55907,-2.75711,0.148581,19,32765
4.60985,-2.80823,0.152283,20,32765
4.5069,-2.76569,0.151193,18,32765
4.52325,-2.79621,0.154243,17,32765
4.46315,-2.77921,0.154619,17,32765
4.48779,-2.81511,0.157825,18,32765
4.57146,-2.88845,0.163528,20,32765
4.44379,-2.82834,0.161548,18,32765
4.60259,-2.95097,0.170002,18,32765
4.42488,-2.85756,0.166297,18,32765
4.39015,-2.85592,0.167224,17,32765
4.41412,-2.89216,0.171302,18,32765
4.40443,-2.90674,0.173995,16,32765
4.3865,-2.91556,0.176031,17,32765
4.37695,-2.92974,0.178445,17,32765
0,-0,0,0,32765
4.39889,-2.98624,0.185758,16,32765
4.38072,-2.995,0.188125,17,32765
4.34592,-2.99255,0.189825,17,32765
4.30321,-2.98385,0.191353,17,32765
4.32617,-3.02065,0.195671,18,32765
4.29996,-3.02304,0.197927,19,32765
4.28174,-3.03134,0.200324,18,32765
0,-0,0,0,32765
4.20484,-3.01828,0.204237,17,32765
4.31653,-3.11944,0.213477,17,32765
4.25789,-3.09793,0.214675,18,32765
4.27175,-3.1295,0.219936,18,32765
3.5252,-1.08992,0.0338835,13,32765
3.6075,-1.12834,0.0339107,14,32765
3.51799,-1.11301,0.0324729,15,32765
0,-0,0,0,32765
4.0911,-1.32346,0.0363303,12,32765
4.06779,-1.33047,0.036203,14,32765
0,-0,0,0,32765
4.2108,-1.40763,0.0369992,12,32765
4.22496,-1.42829,0.0365276,12,32765
4.22955,-1.44582,0.0369874,13,32765
5.82192,-2.01201,0.051001,16,32765
5.85312,-2.0441,0.0515557,21,32765
5.82768,-2.05619,0.0510287,19,32765
5.6985,-2.03151,0.0502225,18,32765
0,-0,0,0,32765
5.73185,-2.08643,0.051868,19,32765
5.59342,-2.05735,0.0505431,20,32765
5.62409,-2.08973,0.0516803,17,32765
0,-0,0,0,32765
5.65692,-2.1445,0.0529628,17,32765
0,-0,0,0,32765
5.46534,-2.11349,0.0531332,18,32765
0,-0,0,0,32765
5.4792,-2.16043,0.0551695,16,32765
0,-0,0,0,32765
5.44619,-2.18921,0.0571234,17,32765
0,-0,0,0,32765
5.41295,-2.21788,0.0588147,18,32765
5.36846,-2.22086,0.0597452,20,32765
5.41632,-2.26199,0.0613345,17,32765
0,-0,0,0,32765
5.34588,-2.27456,0.0634357,20,32765
0,-0,0,0,32765
5.37648,-2.32996,0.0662211,19,32765
0,-0,0,0,32765
5.25078,-2.31781,0.0684471,18,32765
0,-0,0,0,32765
5.28066,-2.37353,0.0713056,18,32765
0,-0,0,0,32765
5.201,-2.37963,0.0734194,17,32765
0,-0,0,0,32765
4.95829,-2.30887,0.0731339,15,32765
5.13148,-2.41057,0.0769579,19,32765
5.05104,-2.39354,0.0779198,16,32765
0,-0,0,0,32765
5.03477,-2.42744,0.0818341,16,32765
0,-0,0,0,32765
5.07224,-2.48753,0.0839953,16,32765
0,-0,0,0,32765
4.99261,-2.49054,0.086237,15,32765
0,-0,0,0,32765
4.95773,-2.51523,0.0898784,16,32765
0,-0,0,0,32765
4.94071,-2.54835,0.0940766,17,32765
0,-0,0,0,32765
4.91459,-2.57678,0.0973409,15,32765
0,-0,0,0,32765
4.88804,-2.60541,0.102298,17,32765
0,-0,0,0,32765
4.87045,-2.63804,0.105477,16,32765
0,-0,0,0,32765
4.82643,-2.6559,0.108781,15,32765
0,-0,0,0,32765
4.80865,-2.68782,0.112474,17,32765
0,-0,0,0,32765
4.78184,-2.71487,0.116143,17,32765
0,-0,0,0,32765
0,-0,0,0,32765
0,-0,0,0,32765
0,-0,0,0,32765
0,-0,0,0,32765
4.60604,-2.7384,0.123136,18,32765
0,-0,0,0,32765
4.57918,-2.76363,0.126378,16,32765
0,-0,0,0,32765
4.60336,-2.81994,0.13053,15,32765
0,-0,0,0,32765
4.46568,-2.77639,0.130385,16,32765
0,-0,0,0,32765
4.56555,-2.88045,0.137198,17,32765
0,-0,0,0,32765
4.45378,-2.85117,0.137109,16,32765
0,-0,0,0,32765
4.45199,-2.89068,0.14077,16,32765
0,-0,0,0,32765
4.42485,-2.9138,0.143129,18,32765
0,-0,0,0,32765
4.36401,-2.91496,0.144502,15,32765
0,-0,0,0,32765
4.34449,-2.94386,0.147022,16,32765
0,-0,0,0,32765
4.39929,-3.02303,0.15206,18,32765
0,-0,0,0,32765
4.24845,-2.95986,0.149514,17,32765
0,-0,0,0,32765
4.31902,-3.05062,0.154429,17,32765
0,-0,0,0,32765
4.30731,-3.08425,0.156619,16,32765
0,-0,0,0,32765
4.18243,-3.0352,0.153943,16,32765
4.02751,-2.94231,0.148492,15,32765
3.50553,-1.08636,-0.000836693,15,32765
3.49239,-1.09489,-0.00160616,15,32765
3.68896,-1.16983,-0.00235717,18,32765
0,-0,-0,0,32765
3.96667,-1.28623,-0.00400002,11,32765
4.0385,-1.32401,-0.00403305,11,32765
4.00569,-1.32771,-0.004275,11,32765
4.09615,-1.37255,-0.00463653,11,32765
4.082,-1.38324,-0.00523972,12,32765
4.13404,-1.41654,-0.00494061,12,32765
4.28988,-1.48609,-0.00510826,13,32765
5.49314,-1.92297,-0.00633514,20,32765
5.50579,-1.94727,-0.00669415,20,32765
5.48998,-1.96188,-0.0064216,19,32765
5.42704,-1.95961,-0.00594191,22,32765
5.31709,-1.94013,-0.00508564,18,32765
5.4325,-2.00299,-0.0053292,19,32765
5.42585,-2.02096,-0.00455558,20,32765
5.34424,-2.01078,-0.0035655,18,32765
5.38432,-2.04613,-0.00371349,20,32765
5.26545,-2.02103,-0.0024167,20,32765
5.21208,-2.02047,-0.00184757,17,32765
5.25197,-2.05582,-0.00084423,18,32765
5.23584,-2.06952,-0.000167055,17,32765
0,-0,0,0,32765
5.20343,-2.09677,0.00188731,15,32765
5.21489,-2.12174,0.00281022,17,32765
5.12455,-2.10489,0.00365734,17,32765
5.18206,-2.14904,0.00499415,19,32765
5.09177,-2.13171,0.00583216,17,32765
5.06615,-2.14104,0.0071054,19,32765
5.03142,-2.14608,0.0083553,18,32765
5.02429,-2.16272,0.00931516,18,32765
5.06285,-2.19951,0.010549,21,32765
5.03703,-2.20867,0.0126863,17,32765
5.02952,-2.22569,0.0139507,17,32765
5.04025,-2.25079,0.0144399,19,32765
4.92325,-2.21842,0.0158149,18,32765
4.91573,-2.23502,0.017007,17,32765
5.03552,-2.30971,0.0191152,17,32765
4.9551,-2.29308,0.0200952,18,32765
4.89304,-2.28423,0.021526,18,32765
4.83102,-2.27516,0.0223741,18,32765
4.85945,-2.30857,0.0245163,18,32765
0,-0,0,0,32765
4.80775,-2.32386,0.0280811,18,32765
4.75505,-2.31791,0.0287525,18,32765
4.81895,-2.36933,0.0294671,19,32765
4.80193,-2.38119,0.0311827,16,32765
4.79381,-2.39748,0.0325736,17,32765
4.741,-2.3912,0.0343787,17,32765
4.78631,-2.43449,0.0364581,17,32765
4.74243,-2.43245,0.0378998,20,32765
4.73431,-2.44817,0.0402193,19,32765
4.67289,-2.43625,0.0414146,19,32765
4.69117,-2.46599,0.0432803,18,32765
4.6563,-2.46773,0.0453686,19,32765
4.67421,-2.49788,0.048199,19,32765
4.69218,-2.52781,0.0508114,17,32765
4.62218,-2.51007,0.0508618,20,32765
4.64889,-2.5446,0.0530182,18,32765
4.56152,-2.51668,0.0540509,17,32765
4.5444,-2.52692,0.0555025,18,32765
4.54467,-2.54691,0.057552,17,32765
0,-0,0,0,32765
4.47536,-2.54754,0.0605241,15,32765
4.48402,-2.57266,0.062217,17,32765
4.44945,-2.57253,0.0635289,16,32765
4.38902,-2.5571,0.0645621,17,32765
4.42357,-2.59701,0.0671047,19,32765
4.40625,-2.60666,0.0683634,18,32765
4.39749,-2.62137,0.0697028,18,32765
4.39736,-2.64102,0.0718633,19,32765
4.34574,-2.62976,0.0724637,18,32765
4.35403,-2.6546,0.074327,19,32765
4.3367,-2.66373,0.0754164,20,32765
4.4468,-2.75184,0.0790863,19,32765
4.31891,-2.69239,0.0785603,17,32765
4.31844,-2.71194,0.0805636,18,32765
4.38546,-2.77433,0.083326,19,32765
4.23294,-2.69738,0.0819141,17,32765
4.24077,-2.72222,0.0835053,19,32765
4.29067,-2.77395,0.0860796,19,32765
4.15602,-2.7059,0.0851252,16,32765
4.15562,-2.72475,0.0862568,17,32765
4.18012,-2.76023,0.0884733,19,32765
4.22929,-2.8127,0.0907095,19,32765
4.12862,-2.76537,0.0903556,18,32765
4.12761,-2.78476,0.0915147,16,32765
4.11007,-2.79278,0.0927513,16,32765
4.17515,-2.85703,0.095724,17,32765
4.13287,-2.84791,0.0960612,19,32765
4.04149,-2.80424,0.0947741,17,32765
4.08157,-2.85162,0.0972392,17,32765
4.02324,-2.8303,0.0968686,16,32765
4.03854,-2.86061,0.0982927,16,32765
4.04548,-2.88532,0.0997104,17,32765
4.0199,-2.88668,0.100076,17,32765
3.99446,-2.88774,0.100498,16,32765
3.99334,-2.90631,0.100999,16,32765
3.94375,-2.88945,0.0998938,16,32765
3.21136,-0.9872,-0.0470624,13,32765
3.31314,-1.03044,-0.0466718,13,32765
3.39563,-1.06824,-0.0462133,13,32765
3.61129,-1.14909,-0.0474117,13,32765
3.62653,-1.16717,-0.0456774,16,32765
3.61322,-1.17589,-0.0440067,15,32765
3.78985,-1.24705,-0.0448261,13,32765
0,-0,-0,0,32765
0,-0,-0,0,32765
4.19398,-1.42599,-0.0444239,12,32765
4.24592,-1.45959,-0.043063,12,32765
4.21267,-1.46402,-0.0409282,12,32765
4.387,-1.54111,-0.0417996,13,32765
5.3996,-1.91699,-0.048911,18,32765
5.47793,-1.96529,-0.0481413,18,32765
5.37748,-1.94914,-0.0446052,14,32765
5.36163,-1.96346,-0.0430894,18,32765
5.47711,-2.02611,-0.042365,16,32765
5.46106,-2.04062,-0.0404155,17,32765
5.29524,-1.99866,-0.0372665,18,32765
5.17644,-1.97353,-0.0345574,16,32765
5.23502,-2.01631,-0.0334885,16,32765
5.27472,-2.05231,-0.0313294,17,32765
5.23978,-2.05931,-0.0298207,16,32765
5.28862,-2.09901,-0.0284547,16,32765
5.24447,-2.10175,-0.026408,16,32765
5.32078,-2.15319,-0.0251121,16,32765
5.10998,-2.08758,-0.0228779,16,32765
5.14921,-2.1237,-0.0216915,16,32765
5.13282,-2.13713,-0.0197152,17,32765
5.00575,-2.10406,-0.0176196,17,32765
5.04463,-2.14051,-0.0167134,16,32765
5.04661,-2.1614,-0.0146544,17,32765
5.11267,-2.21028,-0.0131465,17,32765
0,-0,-0,0,32765
5.06105,-2.22859,-0.0107192,17,32765
0,-0,-0,0,32765
5.10078,-2.28694,-0.0071886,16,32765
5.01114,-2.26682,-0.00549095,17,32765
5.0307,-2.29628,-0.00371809,15,32765
0,-0,-0,0,32765
4.96957,-2.3095,-0.000872105,16,32765
0,-0,0,0,32765
4.99024,-2.35964,0.00264816,16,32765
4.87399,-2.3247,0.00297237,17,32765
4.96538,-2.38852,0.00465316,18,32765
4.90338,-2.37893,0.00664848,18,32765
4.85037,-2.37358,0.00631274,17,32765
4.83344,-2.38536,0.00755708,16,32765
4.74481,-2.3615,0.00992605,16,32765
0,-0,0,0,32765
4.85392,-2.4562,0.0125733,17,32765
4.77433,-2.43623,0.0141345,17,32765
4.69485,-2.41589,0.0153356,18,32765
4.65991,-2.41815,0.0167154,17,32765
4.64286,-2.42922,0.0187931,16,32765
4.67891,-2.4681,0.0208138,19,32765
4.67061,-2.48374,0.0223695,16,32765
4.61791,-2.47627,0.0250325,17,32765
4.76801,-2.57715,0.0273253,17,32765
4.54857,-2.47833,0.0280506,17,32765
4.53149,-2.48869,0.0295495,16,32765
4.61059,-2.55232,0.0318324,18,32765
4.56716,-2.54812,0.0331713,16,32765
0,-0,0,0,32765
4.59373,-2.60282,0.0370379,15,32765
4.28974,-2.44958,0.0361498,13,32765
4.36826,-2.51364,0.0390091,16,32765
4.29931,-2.49303,0.0402882,14,32765
4.4119,-2.57787,0.0431781,16,32765
4.51522,-2.65862,0.0460749,17,32765
4.25689,-2.52573,0.0457249,15,32765
4.27421,-2.55523,0.0478615,16,32765
4.27426,-2.57456,0.0499477,16,32765
4.2572,-2.5834,0.0519313,15,32765
4.36808,-2.67043,0.0554586,17,32765
4.23156,-2.60608,0.0558377,14,32765
4.44389,-2.757,0.0610842,18,32765
4.19745,-2.62303,0.0603364,18,32765
4.33269,-2.72728,0.0646464,17,32765
4.18864,-2.65569,0.0648864,14,32765
4.28931,-2.73957,0.0684066,16,32765
4.33076,-2.786,0.0719094,18,32765
4.14537,-2.68597,0.0713696,15,32765
4.28724,-2.79789,0.0764801,17,32765
4.21948,-2.77352,0.0779613,16,32765
4.27692,-2.83163,0.082007,18,32765
4.28414,-2.85684,0.0845447,18,32765
4.20827,-2.8263,0.0859091,19,32765
4.08303,-2.76158,0.0861553,15,32765
4.08234,-2.78032,0.0890654,16,32765
4.09798,-2.8105,0.0923525,16,32765
4.09706,-2.82939,0.0952033,15,32765
4.19454,-2.91681,0.100871,16,32765
4.05387,-2.83875,0.100859,15,32765
4.19978,-2.96139,0.107564,17,32765
4.12472,-2.92887,0.109257,17,32765
4.13951,-2.95968,0.113353,17,32765
0,-0,0,0,32765
4.15253,-3.00975,0.121484,16,32765
3.94896,-2.88158,0.119515,16,32765
3.20051,-0.986459,-0.0784214,14,32765
3.18773,-0.99405,-0.0763272,14,32765
3.36566,-1.0616,-0.0790127,15,32765
3.61936,-1.15469,-0.0832625,15,32765
3.55847,-1.14827,-0.0799982,15,32765
3.53572,-1.15368,-0.0780506,17,32765
3.67438,-1.21222,-0.0798564,13,32765
4.00243,-1.33483,-0.0848972,13,32765
4.03593,-1.36078,-0.084442,12,32765
4.08816,-1.39365,-0.0839231,12,32765
4.05513,-1.39765,-0.081463,12,32765
4.10707,-1.43106,-0.0807986,14,32765
4.24371,-1.49467,-0.0827378,15,32765
5.06766,-1.80386,-0.0964767,16,32765
5.24042,-1.885,-0.0984087,21,32765
5.20606,-1.89195,-0.0952522,21,32765
5.09655,-1.87127,-0.0919904,20,32765
5.15603,-1.91233,-0.0915668,21,32765
5.131,-1.92231,-0.0894663,19,32765
5.04981,-1.91102,-0.0862771,20,32765
5.00607,-1.91358,-0.0837782,16,32765
5.02752,-1.94147,-0.0827971,19,32765
5.01157,-1.95504,-0.0803043,18,32765
4.98627,-1.96483,-0.0787239,18,32765
4.95179,-1.97049,-0.0767025,17,32765
4.96376,-1.99448,-0.0752383,20,32765
4.99407,-2.0263,-0.0741853,19,32765
4.94107,-2.0239,-0.0722632,18,32765
4.94353,-2.04425,-0.0710562,19,32765
4.92742,-2.05703,-0.0690592,20,32765
4.93889,-2.08145,-0.0677005,20,32765
4.8214,-2.0512,-0.0651593,19,32765
4.91555,-2.11085,-0.0644873,19,32765
4.86248,-2.10769,-0.0622429,18,32765
4.81875,-2.10798,-0.0603603,19,32765
4.75668,-2.10013,-0.0588669,19,32765
4.82264,-2.14878,-0.0578177,19,32765
4.82461,-2.16889,-0.0564269,21,32765
4.75361,-2.15607,-0.054175,18,32765
4.70989,-2.15559,-0.0520673,19,32765
4.71158,-2.17589,-0.0510348,19,32765
4.69506,-2.18777,-0.0494007,18,32765
4.75103,-2.23335,-0.0487258,20,32765
4.70749,-2.23192,-0.0463504,19,32765
4.6729,-2.23479,-0.0457126,18,32765
4.59341,-2.21555,-0.0435029,19,32765
4.70287,-2.28781,-0.0426445,20,32765
4.58733,-2.25094,-0.0419209,19,32765
4.63355,-2.29291,-0.041204,18,32765
4.62581,-2.30852,-0.0387663,18,32765
4.49305,-2.26098,-0.0368604,18,32765
4.59251,-2.33025,-0.0363496,17,32765
4.52228,-2.31391,-0.0341964,17,32765
4.55879,-2.35229,-0.0331566,19,32765
4.40876,-2.29408,-0.0307294,17,32765
4.46297,-2.34151,-0.0291291,19,32765
4.41973,-2.33779,-0.0271534,19,32765
4.43834,-2.36672,-0.0258327,20,32765
4.49177,-2.41526,-0.0233907,20,32765
4.43976,-2.40635,-0.0218218,19,32765
4.35266,-2.37814,-0.0195755,19,32765
4.34468,-2.3927,-0.0180812,17,32765
4.31913,-2.3976,-0.0163997,17,32765
4.35476,-2.43637,-0.0150533,18,32765
4.26824,-2.40665,-0.013168,18,32765
4.32988,-2.46017,-0.0116666,19,32765
4.25218,-2.43492,-0.00998984,17,32765
4.31337,-2.48901,-0.00804653,17,32765
4.25319,-2.4732,-0.00614261,16,32765
4.28811,-2.51257,-0.00449359,18,32765
4.1763,-2.46598,-0.00271611,16,32765
4.24535,-2.52598,-0.000566706,18,32765
4.11685,-2.4681,0.00124592,16,32765
4.21133,-2.54383,0.00324376,17,32765
4.21147,-2.56289,0.00531745,18,32765
4.12625,-2.52975,0.00717905,17,32765
4.16045,-2.56957,0.00922917,18,32765
4.05857,-2.52512,0.0111512,17,32765
4.15202,-2.60203,0.0139321,17,32765
4.07582,-2.57291,0.0158157,17,32765
4.10115,-2.60765,0.0181659,17,32765
4.13452,-2.64829,0.0201128,17,32765
4.08381,-2.63469,0.0224567,17,32765
4.10029,-2.66441,0.0249679,17,32765
4.03294,-2.63952,0.0269777,18,32765
3.99081,-2.63078,0.0291498,16,32765
3.95704,-2.62742,0.0315735,18,32765
3.98986,-2.66831,0.0339777,18,32765
3.91468,-2.63675,0.0359085,17,32765
3.95566,-2.68321,0.0389079,16,32765
4.00477,-2.73543,0.0421674,16,32765
4.03702,-2.77676,0.045314,17,32765
3.88002,-2.68733,0.0461793,17,32765
3.89586,-2.71704,0.0494349,17,32765
3.93599,-2.76428,0.0531209,18,32765
3.93508,-2.78288,0.0558933,17,32765
3.92584,-2.79584,0.0591045,17,32765
3.97356,-2.84938,0.0632794,17,32765
3.92367,-2.83304,0.0658946,17,32765
3.96303,-2.88087,0.0703329,17,32765
3.91337,-2.86403,0.0733027,16,32765
3.21071,-0.988231,-0.0660922,14,32765
3.43656,-1.07001,-0.0715037,13,32765
3.35675,-1.05716,-0.0707977,13,32765
3.44858,-1.09837,-0.0727452,13,32765
3.62576,-1.16793,-0.0770931,13,32765
3.57435,-1.1644,-0.0761815,15,32765
0,-0,-0,0,32765
4.09771,-1.36505,-0.0883358,11,32765
4.12165,-1.38805,-0.0883983,11,32765
4.10759,-1.39839,-0.0884251,11,32765
4.15033,-1.42792,-0.088967,11,32765
4.19286,-1.45785,-0.0903244,12,32765
4.19748,-1.47504,-0.0892593,13,32765
4.17365,-1.48246,-0.0887121,13,32765
5.23194,-1.87832,-0.111017,21,32765
5.15982,-1.87202,-0.108936,18,32765
0,-0,-0,0,32765
5.1474,-1.90598,-0.107801,18,32765
0,-0,-0,0,32765
5.05051,-1.90823,-0.104782,18,32765
0,-0,-0,0,32765
5.06562,-1.95285,-0.103882,18,32765
0,-0,-0,0,32765
5.00599,-1.96834,-0.10057,16,32765
0,-0,-0,0,32765
4.94646,-1.98291,-0.0973245,16,32765
0,-0,-0,0,32765
5.07195,-2.07269,-0.0981553,16,32765
0,-0,-0,0,32765
4.8825,-2.03388,-0.0927831,17,32765
0,-0,-0,0,32765
4.88707,-2.07471,-0.0904036,19,32765
0,-0,-0,0,32765
4.89154,-2.11517,-0.0884833,16,32765
0,-0,-0,0,32765
4.77665,-2.10358,-0.0835847,17,32765
0,-0,-0,0,32765
4.76231,-2.13596,-0.0804924,16,32765
0,-0,-0,0,32765
4.66595,-2.13073,-0.0760325,17,32765
0,-0,-0,0,32765
4.74234,-2.20398,-0.0747527,18,32765
0,-0,-0,0,32765
4.65517,-2.20157,-0.0706991,18,32765
0,-0,-0,0,32765
4.65826,-2.24164,-0.0675621,16,32765
0,-0,-0,0,32765
4.6253,-2.26382,-0.0653441,18,32765
0,-0,-0,0,32765
4.52939,-2.25489,-0.0609978,18,32765
4.45911,-2.23898,-0.0586581,16,32765
4.64776,-2.3535,-0.0587708,18,32765
4.42596,-2.26028,-0.0539884,16,32765
4.43612,-2.28432,-0.0530302,16,32765
0,-0,-0,0,32765
4.3764,-2.29089,-0.0500039,15,32765
4.32459,-2.28205,-0.047739,15,32765
4.51992,-2.40466,-0.0481469,17,32765
4.30891,-2.31162,-0.042405,14,32765
4.37163,-2.36392,-0.0408441,17,32765
4.31969,-2.35482,-0.0385967,15,32765
4.41697,-2.42704,-0.0377194,18,32765
4.30387,-2.38367,-0.0350432,15,32765
4.26092,-2.37862,-0.0331309,14,32765
4.2704,-2.40264,-0.0317443,16,32765
4.11453,-2.33295,-0.0288802,15,32765
4.32372,-2.47083,-0.0287975,15,32765
4.20283,-2.42033,-0.0265184,15,32765
4.16018,-2.41421,-0.0245617,15,32765
4.23842,-2.47858,-0.0237319,16,32765
4.14401,-2.44189,-0.0214579,15,32765
4.12725,-2.4506,-0.019553,16,32765
4.2306,-2.53112,-0.0187144,17,32765
4.18784,-2.52464,-0.0168856,16,32765
4.16222,-2.52836,-0.0151553,16,32765
4.07712,-2.49505,-0.0135141,16,32765
4.04335,-2.49273,-0.0116541,15,32765
4.14551,-2.57469,-0.0109176,16,32765
3.99303,-2.49795,-0.00885072,14,32765
4.12859,-2.60175,-0.0076826,16,32765
4.05252,-2.57237,-0.00594644,15,32765
4.1367,-2.64495,-0.00506761,15,32765
4.0691,-2.62069,-0.00333835,16,32765
3.96821,-2.57414,-0.00181905,16,32765
3.95129,-2.5818,-0.000437023,15,32765
4.00129,-2.63321,0.000690396,16,32765
3.94258,-2.61323,0.0021565,16,32765
3.90907,-2.60944,0.00329532,16,32765
4.04158,-2.71708,0.00467381,16,32765
3.91673,-2.65181,0.00561395,16,32765
3.98248,-2.71518,0.00733024,16,32765
3.99015,-2.73938,0.00854378,16,32765
3.99774,-2.76361,0.00930416,16,32765
3.89036,-2.70788,0.0102562,17,32765
3.81602,-2.6746,0.0109182,16,32765
3.79918,-2.68116,0.0120956,15,32765
3.79859,-2.69929,0.0127712,16,32765
3.80624,-2.723,0.013737,16,32765
3.87878,-2.79343,0.0148737,16,32765
3.8048,-2.75921,0.0149182,15,32765
3.76351,-2.74798,0.0154525,15,32765
3.17101,-0.978662,-0.0965127,14,32765
3.2632,-1.01879,-0.100073,15,32765
3.39327,-1.07157,-0.10506,15,32765
3.47547,-1.10995,-0.107649,14,32765
3.5669,-1.15211,-0.111117,15,32765
3.60108,-1.17632,-0.1124,19,32765
3.59715,-1.18821,-0.112891,16,32765
3.79224,-1.26676,-0.11937,11,32765
3.97748,-1.34317,-0.124804,11,32765
4.02031,-1.37244,-0.126512,11,32765
4.05365,-1.3985,-0.127234,12,32765
4.10568,-1.43148,-0.129347,12,32765
4.0821,-1.43845,-0.127516,12,32765
4.14314,-1.47569,-0.129429,14,32765
4.81526,-1.73352,-0.150306,18,32765
4.95032,-1.80098,-0.15405,19,32765
4.93497,-1.81388,-0.153225,19,32765
4.80715,-1.78494,-0.148889,19,32765
4.87615,-1.82882,-0.150583,18,32765
4.95414,-1.87703,-0.152586,20,32765
4.87317,-1.86503,-0.149324,20,32765
4.91348,-1.89948,-0.150277,20,32765
4.78606,-1.86874,-0.14523,20,32765
4.75194,-1.87366,-0.143469,19,32765
4.76426,-1.89689,-0.143315,19,32765
4.81363,-1.93506,-0.143458,19,32765
4.68672,-1.90233,-0.139326,19,32765
4.7451,-1.94456,-0.140005,20,32765
4.65545,-1.92608,-0.136412,19,32765
4.68575,-1.95741,-0.136742,18,32765
4.72516,-1.99274,-0.136815,21,32765
4.59885,-1.95785,-0.13201,19,32765
4.69333,-2.01666,-0.133681,21,32765
4.60407,-1.99648,-0.130401,17,32765
4.5699,-1.99989,-0.128563,18,32765
4.61806,-2.0395,-0.1282,19,32765
4.40112,-1.96159,-0.121231,16,32765
4.50387,-2.02577,-0.122473,17,32765
4.49705,-2.04098,-0.120565,17,32765
4.53556,-2.07706,-0.120717,18,32765
4.42876,-2.04622,-0.116126,17,32765
4.45819,-2.07782,-0.116417,17,32765
4.51457,-2.12255,-0.116454,20,32765
4.38998,-2.08208,-0.112243,18,32765
4.49114,-2.14878,-0.11308,17,32765
4.36686,-2.10742,-0.108804,17,32765
4.36887,-2.12626,-0.107503,17,32765
4.39761,-2.15855,-0.108055,18,32765
4.34558,-2.15115,-0.104845,18,32765
4.39192,-2.19274,-0.105158,17,32765
4.35761,-2.19432,-0.103048,17,32765
4.34124,-2.20463,-0.100521,17,32765
4.32479,-2.21499,-0.0982817,18,32765
4.20183,-2.16993,-0.0945341,16,32765
4.27433,-2.22564,-0.0949739,18,32765
4.27569,-2.24467,-0.0940843,19,32765
4.24174,-2.24483,-0.0917695,18,32765
4.23415,-2.25918,-0.0900426,18,32765
4.28796,-2.30707,-0.0877882,18,32765
4.26275,-2.31176,-0.0852237,19,32765
4.17593,-2.28309,-0.0818612,19,32765
4.17704,-2.3019,-0.0803077,17,32765
4.16058,-2.31106,-0.0784147,17,32765
4.14408,-2.32017,-0.0766615,19,32765
4.21469,-2.37826,-0.0766057,18,32765
4.14594,-2.35767,-0.0737158,18,32765
4.16401,-2.38658,-0.0726239,18,32765
4.09545,-2.36544,-0.0700707,17,32765
4.10485,-2.38914,-0.0686463,18,32765
4.11409,-2.413,-0.0676282,19,32765
4.08023,-2.41144,-0.0654339,17,32765
4.06357,-2.41997,-0.0634583,19,32765
4.09834,-2.45929,-0.0627976,19,32765
4.07296,-2.46271,-0.0608977,18,32765
4.04755,-2.46606,-0.0590202,19,32765
4.07351,-2.50031,-0.0581522,18,32765
3.95469,-2.44539,-0.0548284,17,32765
3.97203,-2.47436,-0.0541647,17,32765
3.92164,-2.46069,-0.0519236,18,32765
3.89658,-2.46297,-0.0502893,17,32765
3.89694,-2.48111,-0.0488438,18,32765
3.98133,-2.55334,-0.0490235,18,32765
3.94768,-2.55022,-0.0470986,18,32765
3.93091,-2.55772,-0.0455622,18,32765
3.85551,-2.52691,-0.0434339,17,32765
3.88892,-2.56711,-0.0427966,17,32765
3.94705,-2.62423,-0.0420483,18,32765
3.82212,-2.55926,-0.0396731,16,32765
3.92149,-2.64448,-0.0395658,19,32765
3.79698,-2.57869,-0.0373466,19,32765
3.83812,-2.62488,-0.0362771,18,32765
3.79665,-2.61464,-0.0348328,19,32765
3.69778,-2.56423,-0.0333247,18,32765
3.78791,-2.64482,-0.0330561,18,32765
3.77927,-2.65716,-0.0322225,18,32765
3.74616,-2.65207,-0.0308225,18,32765
3.77821,-2.69329,-0.0305053,18,32765
3.68836,-2.64703,-0.0289587,19,32765
3.65566,-2.64111,-0.0279662,17,32765
3.62267,-2.63551,-0.0274941,17,32765
3.63827,-2.66503,-0.0270322,17,32765
3.04726,-0.933717,-0.136014,15,32765
3.13965,-0.973408,-0.138516,14,32765
3.12706,-0.98043,-0.13655,14,32765
3.21923,-1.02061,-0.138975,13,32765
3.30154,-1.05868,-0.141108,14,32765
3.4501,-1.11908,-0.146102,14,32765
3.52239,-1.15545,-0.147593,17,32765
3.60399,-1.19534,-0.149813,15,32765
3.69491,-1.23877,-0.152053,15,32765
3.85177,-1.30537,-0.15737,12,32765
0,-0,-0,0,32765
0,-0,-0,0,32765
0,-0,-0,0,32765
4.20166,-1.48672,-0.16523,11,32765
4.17776,-1.49439,-0.163504,12,32765
4.32317,-1.56275,-0.167403,13,32765
4.89056,-1.78642,-0.187601,18,32765
4.91274,-1.81312,-0.187533,19,32765
4.84126,-1.80491,-0.182718,15,32765
4.83523,-1.82118,-0.180943,16,32765
4.80112,-1.82676,-0.178454,17,32765
4.86962,-1.87162,-0.179448,17,32765
4.84478,-1.88059,-0.177301,17,32765
4.77342,-1.8712,-0.173178,18,32765
4.81366,-1.90552,-0.173229,17,32765
4.67736,-1.8698,-0.166657,16,32765
4.75444,-1.91938,-0.167923,18,32765
4.8035,-1.95814,-0.168017,18,32765
4.84314,-1.99331,-0.168328,19,32765
4.50409,-1.87175,-0.155251,15,32765
4.69139,-1.96809,-0.160031,16,32765
4.55591,-1.92936,-0.154257,16,32765
4.67797,-2.00002,-0.157034,17,32765
4.54274,-1.96042,-0.151061,16,32765
4.5544,-1.98388,-0.150101,15,32765
4.4654,-1.96301,-0.145589,14,32765
4.60501,-2.04289,-0.148812,15,32765
4.52514,-2.02576,-0.145023,15,32765
4.45461,-2.01205,-0.142311,16,32765
4.60244,-2.09761,-0.145513,18,32765
4.46824,-2.0547,-0.139414,16,32765
4.63362,-2.1497,-0.143134,17,32765
4.3547,-2.03835,-0.133313,15,32765
4.45623,-2.10444,-0.135178,18,32765
4.37691,-2.08517,-0.13125,17,32765
4.3429,-2.08688,-0.128695,16,32765
4.44381,-2.15386,-0.130627,15,32765
4.35569,-2.12942,-0.126532,16,32765
4.30367,-2.12204,-0.124003,16,32765
4.40385,-2.19015,-0.125473,18,32765
4.2714,-2.14221,-0.12044,15,32765
4.25526,-2.15213,-0.118426,16,32765
4.25688,-2.17109,-0.117319,16,32765
4.24064,-2.18094,-0.11557,15,32765
4.28649,-2.22295,-0.115703,16,32765
4.29683,-2.24648,-0.114218,16,32765
4.2097,-2.21898,-0.110128,17,32765
4.29059,-2.27992,-0.111242,15,32765
4.08916,-2.1903,-0.10457,16,32765
4.06423,-2.19452,-0.102521,16,32765
4.1535,-2.26067,-0.103425,16,32765
4.08454,-2.24102,-0.0998873,16,32765
4.14697,-2.29352,-0.0998216,17,32765
4.11299,-2.293,-0.0977776,19,32765
4.12269,-2.31668,-0.0962424,16,32765
4.09761,-2.32054,-0.0938183,16,32765
4.14202,-2.36387,-0.0931305,17,32765
4.11683,-2.36769,-0.0911108,16,32765
4.10898,-2.38134,-0.0893287,18,32765
3.98013,-2.32453,-0.08504,16,32765
4.03275,-2.37323,-0.0839978,17,32765
3.87863,-2.30002,-0.0790291,15,32765
4.0599,-2.4256,-0.0810653,18,32765
3.9749,-2.39244,-0.0774905,16,32765
4.0098,-2.43141,-0.0763176,16,32765
3.96773,-2.42368,-0.0736658,17,32765
4.0448,-2.48932,-0.0730928,16,32765
3.93463,-2.43942,-0.0692414,16,32765
3.98595,-2.4895,-0.0681663,16,32765
3.89307,-2.44945,-0.0647146,16,32765
3.94417,-2.49968,-0.0632749,17,32765
3.92754,-2.50726,-0.060976,17,32765
3.85209,-2.47679,-0.0575256,16,32765
3.84398,-2.48941,-0.0553413,16,32765
3.82745,-2.49655,-0.0530546,15,32765
3.86941,-2.54204,-0.0511516,16,32765
3.82765,-2.53276,-0.0482758,16,32765
3.86089,-2.57313,-0.0462908,15,32765
3.84414,-2.58023,-0.0436215,16,32765
3.81073,-2.57618,-0.0407765,16,32765
3.82716,-2.60543,-0.0385599,17,32765
3.76911,-2.58407,-0.035348,17,32765
3.77714,-2.60773,-0.0327948,17,32765
3.79336,-2.63702,-0.0302738,17,32765
3.65358,-2.55779,-0.0263955,16,32765
3.87415,-2.73092,-0.0253626,17,32765
3.68586,-2.61618,-0.0211239,15,32765
3.75897,-2.68592,-0.0185043,15,32765
3.73401,-2.68644,-0.01536,17,32765
3.71682,-2.69317,-0.0117569,16,32765
3.72413,-2.71715,-0.00801522,16,32765
3.01647,-0.927079,-0.164391,14,32765
3.03254,-0.943037,-0.163727,15,32765
3.18202,-1.00067,-0.170391,14,32765
3.17889,-1.01085,-0.168672,13,32765
3.35626,-1.07946,-0.176672,16,32765
3.45716,-1.12473,-0.180659,21,32765
3.58631,-1.17994,-0.185844,18,32765
3.48769,-1.16023,-0.179607,15,32765
3.66387,-1.23204,-0.18719,17,32765
3.58422,-1.21832,-0.182098,12,32765
3.95817,-1.35982,-0.199719,12,32765
4.01031,-1.39263,-0.201177,11,32765
4.03392,-1.41614,-0.201057,12,32765
4.10448,-1.45666,-0.202416,11,32765
4.07129,-1.46064,-0.20006,12,32765
4.15097,-1.50497,-0.202301,13,32765
4.61496,-1.69076,-0.223293,18,32765
4.70301,-1.74088,-0.226728,21,32765
4.60375,-1.72147,-0.220011,18,32765
4.68211,-1.76876,-0.222312,20,32765
4.64819,-1.77383,-0.219583,18,32765
4.64225,-1.78954,-0.217879,21,32765
4.58976,-1.78691,-0.214303,17,32765
4.58385,-1.80223,-0.212632,18,32765
4.53143,-1.79914,-0.20893,18,32765
4.60887,-1.84791,-0.210916,19,32765
4.51927,-1.82987,-0.205467,18,32765
4.4761,-1.83011,-0.202035,19,32765
4.48843,-1.85282,-0.201654,18,32765
4.52824,-1.8874,-0.202202,17,32765
4.47588,-1.88329,-0.198325,17,32765
4.48793,-1.90624,-0.197784,18,32765
4.40793,-1.8902,-0.193043,18,32765
4.43824,-1.92104,-0.193031,18,32765
4.46833,-1.95221,-0.19308,18,32765
4.48922,-1.97938,-0.192458,18,32765
4.38215,-1.94984,-0.186667,19,32765
4.44851,-1.99742,-0.18837,17,32765
4.35081,-1.97106,-0.183855,18,32765
4.29871,-1.96507,-0.180296,18,32765
4.27395,-1.97126,-0.177546,16,32765
4.24014,-1.97307,-0.174887,17,32765
4.29675,-2.01728,-0.176099,18,32765
4.29891,-2.03626,-0.175055,17,32765
4.19283,-2.00349,-0.169342,17,32765
4.25814,-2.05233,-0.170542,19,32765
4.16133,-2.02305,-0.16574,17,32765
4.17244,-2.046,-0.164807,18,32765
4.21031,-2.08229,-0.165376,19,32765
4.23898,-2.11455,-0.165209,18,32765
4.22296,-2.12435,-0.163409,19,32765
4.18906,-2.12509,-0.160632,17,32765
4.19965,-2.14843,-0.159973,19,32765
4.13909,-2.1352,-0.156466,19,32765
4.07864,-2.12162,-0.15319,17,32765
4.17781,-2.19093,-0.15527,18,32765
4.16163,-2.20035,-0.152987,18,32765
4.07491,-2.17195,-0.148919,18,32765
4.11174,-2.20915,-0.14888,19,32765
3.99008,-2.1611,-0.14316,17,32765
4.07937,-2.22715,-0.145113,18,32765
4.12441,-2.26987,-0.144953,19,32765
3.94195,-2.18686,-0.1371,17,32765
3.98686,-2.22955,-0.137549,17,32765
3.90098,-2.19888,-0.132989,15,32765
3.92845,-2.23164,-0.132236,18,32765
4.02515,-2.3043,-0.133911,17,32765
3.92224,-2.26279,-0.129178,17,32765
4.00981,-2.33109,-0.13057,18,32765
3.95024,-2.31427,-0.127232,19,32765
3.90815,-2.30708,-0.123853,17,32765
3.86608,-2.29974,-0.120844,18,32765
3.86709,-2.31764,-0.119374,17,32765
3.91089,-2.36129,-0.118956,18,32765
3.87752,-2.35858,-0.116228,18,32765
3.80162,-2.32952,-0.112256,18,32765
3.82789,-2.36324,-0.111215,18,32765
3.86255,-2.40229,-0.110476,18,32765
3.79532,-2.37793,-0.10675,16,32765
3.77054,-2.37986,-0.104328,18,32765
3.86399,-2.45663,-0.104754,18,32765
3.80541,-2.43701,-0.101279,18,32765
3.79748,-2.44943,-0.0989024,17,32765
3.75593,-2.44013,-0.0958864,18,32765
3.78976,-2.47985,-0.0948053,17,32765
3.76494,-2.48131,-0.0918505,18,32765
3.78173,-2.51038,-0.0900499,17,32765
3.69864,-2.47289,-0.0858527,18,32765
3.74028,-2.51858,-0.0845032,18,32765
3.70711,-2.51418,-0.0814415,16,32765
3.69069,-2.52061,-0.0788589,18,32765
3.69065,-2.53843,-0.0763725,19,32765
3.70703,-2.56759,-0.0742193,18,32765
3.69876,-2.57956,-0.0715451,18,32765
3.77207,-2.64928,-0.0702024,19,32765
3.62471,-2.56337,-0.0650898,18,32765
3.69782,-2.63319,-0.063477,18,32765
3.61639,-2.59243,-0.0592418,16,32765
3.61608,-2.61006,-0.0564003,18,32765
3.583,-2.60466,-0.052572,17,32765
3.59866,-2.63416,-0.0492554,17,32765
3.04621,-0.934482,-0.153031,15,32765
3.0336,-0.941419,-0.153006,14,32765
3.1925,-1.00216,-0.161587,13,32765
3.27489,-1.0397,-0.166477,14,32765
3.28095,-1.05351,-0.167369,14,32765
3.36298,-1.09202,-0.171562,17,32765
3.50171,-1.14985,-0.178843,16,32765
3.55469,-1.18051,-0.181894,14,32765
3.65494,-1.22719,-0.187227,15,32765
0,-0,-0,0,32765
4.01534,-1.37738,-0.205872,11,32765
4.14295,-1.43635,-0.212164,11,32765
0,-0,-0,0,32765
4.13304,-1.46465,-0.21189,11,32765
4.16568,-1.49218,-0.213162,11,32765
4.18883,-1.51639,-0.214063,12,32765
4.25887,-1.55769,-0.217385,13,32765
4.60972,-1.70338,-0.235302,18,32765
4.61349,-1.72202,-0.235015,16,32765
4.6265,-1.7443,-0.235305,17,32765
4.50863,-1.71719,-0.228895,17,32765
4.57751,-1.76087,-0.232024,17,32765
4.61817,-1.79432,-0.233579,17,32765
4.54708,-1.78429,-0.229016,16,32765
4.50393,-1.78491,-0.226341,16,32765
4.49799,-1.79996,-0.225171,16,32765
4.46417,-1.80384,-0.223047,16,32765
4.54137,-1.85286,-0.225877,17,32765
4.37804,-1.80365,-0.217236,16,32765
4.47342,-1.86069,-0.220975,16,32765
4.51317,-1.89524,-0.222094,18,32765
4.34137,-1.84006,-0.212434,15,32765
4.56474,-1.95303,-0.223006,18,32765
4.4115,-1.905,-0.213942,17,32765
4.26764,-1.86017,-0.206435,15,32765
4.38938,-1.93102,-0.211068,17,32765
4.35548,-1.93372,-0.208357,16,32765
4.35802,-1.9527,-0.207429,15,32765
4.37881,-1.97968,-0.207347,17,32765
4.30854,-1.96539,-0.203322,14,32765
4.22038,-1.9421,-0.19782,16,32765
4.21395,-1.95617,-0.196252,17,32765
4.21646,-1.97457,-0.195249,16,32765
4.14667,-1.9588,-0.190638,15,32765
4.22134,-2.01135,-0.192693,17,32765
4.2236,-2.02989,-0.191958,18,32765
4.16285,-2.01796,-0.188112,17,32765
4.23678,-2.07174,-0.189777,17,32765
4.22971,-2.08631,-0.187803,17,32765
4.08838,-2.03409,-0.180475,15,32765
4.18867,-2.10181,-0.183216,16,32765
4.07461,-2.06183,-0.176899,17,32765
4.11208,-2.0985,-0.177599,16,32765
4.06949,-2.09411,-0.174224,16,32765
4.15112,-2.15394,-0.17647,17,32765
4.11738,-2.15397,-0.173566,18,32765
4.03949,-2.13049,-0.168767,16,32765
4.06755,-2.16303,-0.168652,16,32765
4.03392,-2.16251,-0.165663,16,32765
4.05311,-2.19026,-0.164848,16,32765
4.01072,-2.18468,-0.161954,16,32765
4.01223,-2.20288,-0.160403,17,32765
3.91739,-2.16801,-0.155624,16,32765
4.04105,-2.25422,-0.158958,17,32765
4.04222,-2.27271,-0.157457,16,32765
4.01731,-2.27633,-0.15482,16,32765
3.88834,-2.22021,-0.14801,15,32765
3.8462,-2.21341,-0.145489,16,32765
3.87341,-2.24633,-0.145193,16,32765
3.98666,-2.33002,-0.14819,18,32765
3.89276,-2.29267,-0.143097,17,32765
3.88511,-2.30573,-0.141273,16,32765
3.91167,-2.33934,-0.141251,16,32765
3.86107,-2.32663,-0.137898,16,32765
3.81921,-2.31866,-0.135451,16,32765
3.79458,-2.32079,-0.132691,17,32765
3.82955,-2.35941,-0.133116,17,32765
3.84725,-2.38788,-0.132527,16,32765
3.74618,-2.3423,-0.127249,17,32765
3.72982,-2.34963,-0.125706,15,32765
3.84018,-2.43703,-0.128138,15,32765
3.75643,-2.40114,-0.123873,17,32765
3.72327,-2.39736,-0.121818,15,32765
3.72386,-2.41493,-0.120593,16,32765
3.64059,-2.37802,-0.116709,16,32765
3.71629,-2.44496,-0.11782,16,32765
3.63319,-2.40759,-0.11423,16,32765
3.73325,-2.49186,-0.116476,16,32765
3.66701,-2.46508,-0.113152,17,32765
3.63406,-2.46036,-0.110931,17,32765
3.58482,-2.44397,-0.107956,17,32765
3.70893,-2.54589,-0.110869,16,32765
3.69248,-2.55219,-0.109575,16,32765
3.64313,-2.53567,-0.10752,17,32765
3.5692,-2.50191,-0.104096,17,32765
3.58542,-2.53105,-0.103336,17,32765
3.60986,-2.56577,-0.10338,17,32765
3.52844,-2.52499,-0.100568,17,32765
3.56103,-2.56536,-0.100652,17,32765
3.44763,-2.5004,-0.0972138,15,32765
3.53652,-2.58218,-0.0988864,17,32765
3.06298,-0.942534,-0.184102,15,32765
2.99314,-0.931741,-0.180533,15,32765
3.13289,-0.986499,-0.189549,14,32765
3.24379,-1.03302,-0.197004,14,32765
3.28785,-1.05901,-0.200298,16,32765
3.41726,-1.11309,-0.208224,20,32765
3.50838,-1.15563,-0.214015,21,32765
3.61811,-1.20531,-0.221099,18,32765
3.64249,-1.22682,-0.22283,15,32765
3.66681,-1.2484,-0.224496,13,32765
3.82321,-1.31557,-0.23414,12,32765
3.91319,-1.36092,-0.239454,12,32765
3.96501,-1.39417,-0.243052,12,32765
4.00725,-1.42451,-0.245528,11,32765
4.03999,-1.45168,-0.24719,13,32765
4.05387,-1.47212,-0.247811,13,32765
4.27394,-1.56809,-0.261054,14,32765
4.50274,-1.66905,-0.27509,19,32765
4.45986,-1.66988,-0.272058,18,32765
4.51037,-1.70584,-0.274829,19,32765
4.49531,-1.71748,-0.273552,19,32765
4.47097,-1.72528,-0.271765,20,32765
4.50239,-1.75482,-0.273237,20,32765
4.35717,-1.71513,-0.263551,18,32765
4.35139,-1.72988,-0.262772,18,32765
4.30857,-1.72958,-0.259405,17,32765
4.36753,-1.77034,-0.262589,20,32765
4.32463,-1.76998,-0.259088,17,32765
4.18018,-1.72756,-0.249996,17,32765
4.29415,-1.79175,-0.255915,17,32765
4.21446,-1.77538,-0.250434,17,32765
4.2178,-1.79332,-0.249517,16,32765
4.30346,-1.84706,-0.254307,18,32765
4.19653,-1.81789,-0.246545,17,32765
4.28183,-1.87224,-0.251085,18,32765
4.20241,-1.85461,-0.245285,17,32765
4.17792,-1.86075,-0.242879,19,32765
4.17158,-1.87508,-0.241567,18,32765
4.18351,-1.89737,-0.241294,19,32765
4.1953,-1.9198,-0.241357,19,32765
4.18897,-1.93376,-0.239722,18,32765
4.21878,-1.96463,-0.240222,18,32765
4.11278,-1.93214,-0.233157,17,32765
4.08832,-1.93737,-0.230472,17,32765
4.0909,-1.9554,-0.229344,18,32765
4.06633,-1.96054,-0.227224,18,32765
4.14958,-2.01794,-0.23086,18,32765
4.05305,-1.98822,-0.223952,19,32765
4.10893,-2.03321,-0.225497,20,32765
4.00366,-1.99831,-0.218756,18,32765
4.04151,-2.03445,-0.219263,18,32765
4.06139,-2.06172,-0.219086,20,32765
4.01878,-2.05746,-0.215951,20,32765
3.94087,-2.03443,-0.210343,18,32765
3.98716,-2.07551,-0.211683,19,32765
3.9714,-2.08428,-0.209497,19,32765
3.96445,-2.09764,-0.207711,19,32765
3.98377,-2.1253,-0.207535,18,32765
3.95029,-2.12451,-0.204298,20,32765
3.92567,-2.12824,-0.201542,19,32765
3.88352,-2.12223,-0.198316,18,32765
3.90273,-2.1497,-0.197799,20,32765
3.84309,-2.13379,-0.193879,18,32765
3.85339,-2.15652,-0.192964,19,32765
3.85487,-2.17443,-0.191636,19,32765
3.81293,-2.16755,-0.188041,18,32765
3.84917,-2.20501,-0.188079,18,32765
3.79847,-2.19308,-0.18477,17,32765
3.76525,-2.19075,-0.18194,19,32765
3.80097,-2.22876,-0.182551,18,32765
3.85375,-2.27713,-0.183575,18,32765
3.76887,-2.24409,-0.178111,18,32765
3.76132,-2.25683,-0.176882,19,32765
3.76235,-2.27462,-0.17552,19,32765
3.7719,-2.2975,-0.175102,19,32765
3.69626,-2.26814,-0.169828,17,32765
3.68885,-2.28025,-0.168795,18,32765
3.64739,-2.27135,-0.165833,18,32765
3.69918,-2.32061,-0.166492,17,32765
3.64911,-2.30645,-0.163352,18,32765
3.68359,-2.34547,-0.163741,18,32765
3.59183,-2.30361,-0.158333,17,32765
3.58419,-2.31555,-0.15715,19,32765
3.57666,-2.32726,-0.155702,18,32765
3.6275,-2.37745,-0.156813,19,32765
3.6864,-2.43348,-0.158137,20,32765
3.6284,-2.41255,-0.154778,18,32765
3.48749,-2.33571,-0.148007,18,32765
3.52954,-2.38073,-0.148664,18,32765
3.52996,-2.39802,-0.147595,18,32765
3.61295,-2.47156,-0.149665,19,32765
3.5557,-2.44906,-0.146585,18,32765
3.52314,-2.4435,-0.14456,18,32765
3.58071,-2.50079,-0.146428,20,32765
3.51516,-2.47251,-0.14261,17,32765
3.4254,-2.42644,-0.137876,17,32765
3.50708,-2.50135,-0.140608,19,32765
3.49902,-2.51264,-0.139895,17,32765
3.49918,-2.52958,-0.139156,18,32765
3.38603,-2.46431,-0.134513,17,32765
3.45069,-2.52834,-0.136355,18,32765
2.79506,-0.853908,-0.208327,14,32765
2.85904,-0.883883,-0.211353,13,32765
2.99895,-0.938286,-0.220091,13,32765
3.16709,-1.00253,-0.231096,13,32765
3.15439,-1.00999,-0.228426,14,32765
3.17961,-1.02959,-0.229212,14,32765
3.34701,-1.09586,-0.239827,15,32765
3.3624,-1.11326,-0.23959,17,32765
3.37768,-1.13084,-0.239585,15,32765
3.54406,-1.19983,-0.250072,15,32765
3.53072,-1.20841,-0.247704,13,32765
3.52682,-1.21998,-0.246463,12,32765
4.05974,-1.4195,-0.282119,12,32765
3.80106,-1.34323,-0.263224,13,32765
4.08792,-1.46019,-0.281531,11,32765
4.12057,-1.48765,-0.282687,11,32765
4.16249,-1.51872,-0.284146,12,32765
4.07313,-1.50182,-0.276892,13,32765
4.28326,-1.59564,-0.289834,15,32765
4.42741,-1.66633,-0.298329,16,32765
4.39389,-1.67056,-0.295054,16,32765
4.43504,-1.70303,-0.29615,15,32765
4.35497,-1.68903,-0.289593,16,32765
4.34006,-1.69999,-0.287829,17,32765
4.44576,-1.75874,-0.293509,17,32765
4.31938,-1.72561,-0.284252,16,32765
4.33216,-1.74767,-0.283599,15,32765
4.24318,-1.72826,-0.276897,17,32765
4.2928,-1.76539,-0.278816,16,32765
4.3145,-1.79151,-0.279281,16,32765
4.24407,-1.77911,-0.273344,15,32765
4.15533,-1.75859,-0.266463,16,32765
4.23207,-1.80787,-0.270693,15,32765
4.05188,-1.74707,-0.257674,15,32765
4.08258,-1.77683,-0.258827,16,32765
4.19537,-1.84298,-0.265231,16,32765
4.14352,-1.83706,-0.260843,16,32765
4.201,-1.87995,-0.263558,16,32765
4.07639,-1.84083,-0.254569,16,32765
4.0974,-1.86719,-0.25501,16,32765
4.12746,-1.89768,-0.255694,18,32765
4.08495,-1.89469,-0.251819,16,32765
4.02435,-1.88304,-0.247532,17,32765
3.98198,-1.87951,-0.243755,17,32765
4.02962,-1.919,-0.245925,18,32765
4.0411,-1.94147,-0.245577,17,32765
3.98059,-1.92924,-0.240604,17,32765
4.02787,-1.96916,-0.242333,16,32765
4.04817,-1.99598,-0.242355,17,32765
4.08614,-2.03196,-0.243933,16,32765
3.89189,-1.95172,-0.231492,15,32765
4.01004,-2.02814,-0.237049,19,32765
3.90526,-1.99204,-0.229849,17,32765
3.99622,-2.05561,-0.233916,17,32765
3.91838,-2.03239,-0.228247,17,32765
3.93821,-2.05933,-0.228332,16,32765
3.86072,-2.03525,-0.222524,16,32765
3.89794,-2.07181,-0.223748,17,32765
3.92621,-2.10386,-0.22412,17,32765
3.89287,-2.10279,-0.220827,16,32765
3.87715,-2.11097,-0.218951,16,32765
3.94915,-2.16687,-0.221314,18,32765
3.9071,-2.16059,-0.217563,19,32765
3.84761,-2.14444,-0.213085,17,32765
3.83163,-2.15271,-0.210909,18,32765
3.79831,-2.15098,-0.207406,18,32765
3.71313,-2.11912,-0.201045,17,32765
3.78393,-2.17652,-0.203831,17,32765
3.80271,-2.2041,-0.203323,18,32765
3.8471,-2.24714,-0.204505,17,32765
3.71048,-2.18409,-0.195376,17,32765
3.686,-2.18642,-0.192597,16,32765
3.73016,-2.22962,-0.192976,17,32765
3.67148,-2.21106,-0.188474,17,32765
3.73258,-2.26462,-0.190479,18,32765
3.75087,-2.2924,-0.189442,17,32765
3.63279,-2.23668,-0.181682,17,32765
3.53202,-2.19087,-0.17473,17,32765
3.67733,-2.29788,-0.18051,18,32765
3.67821,-2.31546,-0.178662,16,32765
3.62855,-2.3007,-0.174311,17,32765
3.60425,-2.30183,-0.171389,15,32765
3.70599,-2.38402,-0.17384,17,32765
3.62281,-2.34723,-0.167932,17,32765
3.59001,-2.34282,-0.164808,17,32765
3.62415,-2.38204,-0.164246,18,32765
3.47474,-2.30021,-0.155205,16,32765
3.55862,-2.37277,-0.15688,17,32765
3.56746,-2.39566,-0.155056,17,32765
3.63412,-2.45784,-0.155886,17,32765
3.51056,-2.39089,-0.14858,17,32765
3.49465,-2.39665,-0.145174,17,32765
3.47036,-2.39683,-0.142102,16,32765
3.54475,-2.46513,-0.142388,17,32765
3.52044,-2.46519,-0.139122,16,32765
3.47976,-2.45369,-0.135104,17,32765
3.45548,-2.45358,-0.131306,16,32765
3.43924,-2.45931,-0.127761,17,32765
3.44737,-2.48242,-0.125245,15,32765
3.53647,-2.56409,-0.125356,17,32765
3.52849,-2.57523,-0.121784,17,32765
2.82084,-0.864724,-0.238162,15,32765
2.85617,-0.885998,-0.239428,14,32765
2.98642,-0.937538,-0.248776,14,32765
2.97388,-0.944554,-0.246506,15,32765
3.10376,-0.997132,-0.255585,14,32765
3.26174,-1.05974,-0.267557,16,32765
3.25838,-1.07043,-0.265898,16,32765
3.33062,-1.10644,-0.270498,18,32765
3.35535,-1.12714,-0.271454,17,32765
3.43661,-1.16735,-0.276788,14,32765
3.60258,-1.23713,-0.288736,16,32765
3.53265,-1.22608,-0.282199,14,32765
3.80153,-1.33365,-0.302232,14,32765
3.79715,-1.34633,-0.301008,12,32765
4.03677,-1.44673,-0.318508,12,32765
3.97566,-1.44012,-0.312677,12,32765
4.06453,-1.48791,-0.318327,13,32765
4.18114,-1.54677,-0.326324,14,32765
4.23208,-1.58181,-0.329022,19,32765
4.26415,-1.61021,-0.330352,18,32765
4.26812,-1.62814,-0.329723,19,32765
4.23491,-1.63158,-0.325614,19,32765
4.22951,-1.64582,-0.324075,19,32765
4.19619,-1.64909,-0.320826,18,32765
4.20923,-1.67069,-0.320616,18,32765
4.18512,-1.67752,-0.317948,19,32765
4.20729,-1.70292,-0.318234,19,32765
4.16471,-1.70193,-0.314205,21,32765
4.13137,-1.70464,-0.310474,18,32765
4.18086,-1.74178,-0.313334,19,32765
4.12907,-1.73664,-0.308166,18,32765
4.09566,-1.73909,-0.304579,18,32765
4.03482,-1.72933,-0.299451,18,32765
4.06569,-1.75885,-0.3003,18,32765
4.04145,-1.76478,-0.297775,18,32765
4.05371,-1.78668,-0.298014,19,32765
4.08415,-1.81676,-0.299217,19,32765
4.0597,-1.82276,-0.296612,18,32765
4.01721,-1.82015,-0.292412,18,32765
3.96565,-1.81318,-0.287875,19,32765
4.01398,-1.85166,-0.290288,20,32765
3.9988,-1.86092,-0.288035,18,32765
4.0016,-1.87865,-0.287749,19,32765
3.95026,-1.87076,-0.282955,19,32765
3.98886,-1.90595,-0.285045,19,32765
3.89249,-1.87633,-0.27721,20,32765
3.9579,-1.92467,-0.280644,20,32765
3.9693,-1.94703,-0.280403,19,32765
3.91808,-1.93832,-0.275687,19,32765
3.93831,-1.96503,-0.276506,19,32765
3.89607,-1.96038,-0.272758,18,32765
3.87164,-1.96473,-0.269693,18,32765
3.76719,-1.92808,-0.261511,18,32765
3.81389,-1.96844,-0.26359,20,32765
3.79841,-1.97682,-0.261507,18,32765
3.75652,-1.97096,-0.257666,20,32765
3.85588,-2.03957,-0.263234,19,32765
3.88421,-2.07151,-0.26432,20,32765
3.8421,-2.06577,-0.260298,20,32765
3.72115,-2.01686,-0.250842,19,32765
3.75829,-2.05321,-0.252459,20,32765
3.71669,-2.04625,-0.248127,18,32765
3.71872,-2.06342,-0.247002,19,32765
3.76418,-2.10509,-0.248951,19,32765
3.67876,-2.07388,-0.242133,20,32765
3.69783,-2.10123,-0.241832,19,32765
3.69956,-2.11859,-0.240312,19,32765
3.76161,-2.17108,-0.243374,19,32765
3.70269,-2.15349,-0.238154,21,32765
3.69548,-2.16599,-0.236619,18,32765
3.66249,-2.16324,-0.232735,18,32765
3.68958,-2.19607,-0.23304,18,32765
3.62231,-2.17261,-0.226992,18,32765
3.64081,-2.20015,-0.226769,19,32765
3.62507,-2.20699,-0.224764,19,32765
3.5669,-2.18751,-0.219355,18,32765
3.57676,-2.20981,-0.218265,19,32765
3.59491,-2.23761,-0.217501,17,32765
3.57909,-2.24426,-0.215248,19,32765
3.57169,-2.25622,-0.213043,19,32765
3.52228,-2.2411,-0.208289,19,32765
3.46456,-2.22033,-0.203262,18,32765
3.51607,-2.26974,-0.204094,18,32765
3.55898,-2.31393,-0.204692,19,32765
3.53468,-2.31478,-0.201793,19,32765
3.48548,-2.29892,-0.197013,18,32765
3.53624,-2.34913,-0.197652,19,32765
3.5202,-2.35539,-0.194785,18,32765
3.47109,-2.33914,-0.189993,19,32765
3.45516,-2.34504,-0.187236,18,32765
3.42287,-2.33939,-0.183608,18,32765
3.42361,-2.35621,-0.181049,18,32765
3.35842,-2.32772,-0.175685,18,32765
3.36737,-2.35006,-0.173609,17,32765
3.43338,-2.41274,-0.174861,18,32765
3.41739,-2.41827,-0.171762,18,32765
3.43395,-2.44695,-0.16984,20,32765
3.40152,-2.44099,-0.165424,19,32765
3.4097,-2.46403,-0.163119,19,32765
3.39368,-2.46932,-0.159438,18,32765
3.44244,-2.52138,-0.158602,20,32765
2.927,-0.895446,-0.23605,14,32765
2.89548,-0.896054,-0.234299,14,32765
2.93052,-0.917493,-0.238011,14,32765
3.07956,-0.975277,-0.250505,15,32765
3.0573,-0.979366,-0.249348,14,32765
3.08241,-0.998911,-0.251825,14,32765
3.25909,-1.06808,-0.266699,16,32765
3.26496,-1.08211,-0.267479,17,32765
3.32757,-1.11505,-0.2727,16,32765
3.40888,-1.15476,-0.279552,14,32765
3.48989,-1.19521,-0.286598,13,32765
3.50479,-1.21331,-0.287673,14,32765
3.68886,-1.29112,-0.302897,12,32765
3.99471,-1.41321,-0.328061,11,32765
3.99942,-1.42986,-0.328223,12,32765
4.11654,-1.48725,-0.338099,11,32765
4.08356,-1.49063,-0.33488,12,32765
3.97562,-1.46654,-0.325926,12,32765
4.19493,-1.56363,-0.343123,15,32765
4.283,-1.61293,-0.350028,17,32765
4.23097,-1.60974,-0.345352,17,32765
4.15115,-1.59532,-0.338329,16,32765
4.21092,-1.63448,-0.342875,17,32765
4.2519,-1.66689,-0.345264,16,32765
4.13508,-1.6371,-0.335634,17,32765
4.1296,-1.65107,-0.334655,16,32765
4.11486,-1.66117,-0.333046,17,32765
4.13697,-1.68652,-0.334017,20,32765
4.00215,-1.64751,-0.322608,15,32765
4.0518,-1.6843,-0.325664,17,32765
4.01857,-1.68648,-0.322111,16,32765
4.1782,-1.77013,-0.334398,17,32765
4.09894,-1.75292,-0.326831,17,32765
4.10227,-1.77068,-0.32634,18,32765
4.03232,-1.75679,-0.319627,17,32765
3.99904,-1.75847,-0.315964,17,32765
3.98409,-1.76791,-0.313674,16,32765
3.81427,-1.70814,-0.299531,16,32765
4.01757,-1.81564,-0.314693,18,32765
4.01157,-1.82916,-0.312784,17,32765
3.9511,-1.81774,-0.306916,17,32765
3.94508,-1.83099,-0.305573,17,32765
3.93893,-1.84442,-0.304181,18,32765
3.86061,-1.82375,-0.296678,17,32765
3.85445,-1.83696,-0.295323,16,32765
3.9023,-1.87593,-0.297524,17,32765
3.85128,-1.8672,-0.292095,17,32765
3.93469,-1.92402,-0.297467,18,32765
3.88349,-1.91535,-0.292541,18,32765
3.84122,-1.91103,-0.288139,18,32765
3.83473,-1.92433,-0.285989,17,32765
3.91714,-1.98275,-0.291053,19,32765
3.85712,-1.96898,-0.285206,17,32765
3.85055,-1.98208,-0.283215,17,32765
3.88826,-2.01802,-0.284823,18,32765
3.8108,-1.99417,-0.277835,18,32765
3.76887,-1.9884,-0.273446,17,32765
3.74461,-1.99176,-0.27062,19,32765
3.72039,-1.99501,-0.267427,18,32765
3.74008,-2.02181,-0.267667,17,32765
3.71585,-2.02491,-0.26423,17,32765
3.75286,-2.06145,-0.265615,18,32765
3.71107,-2.05477,-0.261482,16,32765
3.73908,-2.08677,-0.262209,16,32765
3.72347,-2.09445,-0.259646,17,32765
