x, y, z, intensity, ring
2.29512,0.757806,0.120604,18,32765
2.23108,0.728738,0.117231,15,32765
2.34744,0.758473,0.12307,13,32765
6.48823,2.07351,0.340385,14,32765
0,0,0,0,32765
2.39262,0.748082,0.125864,18,32765
1.9362,1.42499,0.16923,24,32765
1.9328,1.4128,0.168164,24,32765
1.9617,1.42402,0.169738,25,32765
1.95025,1.40588,0.167723,25,32765
1.93875,1.38773,0.165949,24,32765
1.95154,1.38706,0.165977,25,32765
1.93171,1.36336,0.163213,24,32765
1.95251,1.36856,0.16383,23,32765
1.94067,1.35074,0.161896,23,32765
1.96151,1.3558,0.162511,24,32765
1.99077,1.36616,0.163847,24,32765
1.97888,1.34829,0.161746,24,32765
2.01646,1.36411,0.163479,24,32765
2.03755,1.36861,0.164029,25,32765
2.06702,1.3785,0.165131,27,32765
2.055,1.36063,0.163005,26,32765
2.07627,1.36473,0.16338,25,32765
2.08085,1.35784,0.162564,26,32765
2.06864,1.3401,0.160432,25,32765
2.08149,1.33871,0.160171,26,32765
2.08592,1.33192,0.159141,27,32765
2.08188,1.31976,0.157799,24,32765
2.06091,1.29701,0.154985,26,32765
2.09062,1.30612,0.155773,26,32765
2.07804,1.28865,0.153748,26,32765
2.09087,1.28699,0.153326,27,32765
2.12082,1.29557,0.154033,27,32765
2.09959,1.27296,0.151316,27,32765
2.09542,1.26069,0.149627,26,32765
2.10824,1.2588,0.149537,26,32765
2.09534,1.24158,0.14715,26,32765
2.07372,1.21941,0.144343,23,32765
2.00026,1.16718,0.138123,21,32765
1.96102,1.13544,0.134429,22,32765
1.99944,1.14884,0.136041,23,32765
1.986,1.13226,0.133836,24,32765
1.98115,1.1207,0.132186,24,32765
1.98494,1.1141,0.131216,24,32765
1.97998,1.1026,0.129818,24,32765
1.99236,1.10097,0.129559,25,32765
2.00482,1.09913,0.129251,24,32765
2.00854,1.09245,0.128148,23,32765
1.96836,1.06195,0.12418,23,32765
1.97196,1.05534,0.123471,21,32765
2.13425,1.13305,0.132644,22,32765
2.20876,1.16311,0.136202,27,32765
2.21271,1.15571,0.135073,26,32765
2.23435,1.15752,0.13498,28,32765
2.23835,1.14988,0.134033,29,32765
2.24218,1.1425,0.133225,28,32765
2.26383,1.14408,0.13328,29,32765
2.25877,1.13205,0.131575,29,32765
2.26257,1.12457,0.130386,29,32765
2.26642,1.11692,0.129344,28,32765
2.28815,1.11808,0.129568,28,32765
2.30098,1.11466,0.128879,28,32765
2.32276,1.11559,0.129058,30,32765
2.31746,1.10364,0.127556,28,32765
2.31213,1.0917,0.125891,25,32765
2.27957,1.06714,0.123194,17,32765
7.88242,3.65773,0.422389,16,32765
7.84965,3.61002,0.416277,16,32765
7.78897,3.55095,0.409409,16,32765
7.70084,3.47962,0.40109,16,32765
7.69416,3.44613,0.397075,16,32765
7.58693,3.36806,0.388214,17,32765
7.52511,3.31053,0.38206,17,32765
7.50864,3.27372,0.378285,17,32765
7.46463,3.2249,0.372696,16,32765
7.411,3.1729,0.366946,17,32765
7.32964,3.10929,0.359903,17,32765
7.32163,3.07714,0.357014,17,32765
7.23052,3.01045,0.349885,18,32765
7.20363,2.97128,0.345341,18,32765
7.16726,2.92853,0.341369,18,32765
7.13987,2.89006,0.337607,17,32765
7.07532,2.83662,0.332225,18,32765
7.10323,2.82082,0.330963,18,32765
7.01033,2.75717,0.323916,18,32765
6.9355,2.70175,0.319203,18,32765
2.46086,0.949252,0.112636,23,32765
6.83196,2.60972,0.30995,19,32765
6.71895,2.54162,0.303281,21,32765
6.78346,2.54069,0.303507,20,32765
6.67928,2.47701,0.297643,21,32765
6.76255,2.48238,0.299795,23,32765
6.70511,2.43597,0.295218,20,32765
6.6378,2.38709,0.291529,20,32765
6.61741,2.35526,0.288931,20,32765
6.6061,2.32744,0.287243,20,32765
6.57584,2.2931,0.284466,21,32765
6.56447,2.26493,0.283477,20,32765
6.4205,2.19205,0.276052,22,32765
6.43702,2.17456,0.275811,19,32765
6.41545,2.1447,0.274139,19,32765
6.42222,2.12439,0.2737,22,32765
6.37202,2.0851,0.271602,21,32765
6.32163,2.04628,0.268775,21,32765
6.37571,2.04124,0.271354,18,32765
6.27736,1.98786,0.266918,18,32765
2.32652,0.728719,0.0993934,14,32765
1.92198,1.40949,0.177365,23,32765
1.99124,1.45017,0.181282,25,32765
1.93972,1.40254,0.174222,24,32765
1.92838,1.38438,0.171004,22,32765
1.95739,1.39547,0.171463,23,32765
1.94574,1.37763,0.168273,23,32765
1.95852,1.37703,0.167377,23,32765
1.96315,1.37061,0.165743,24,32765
1.94321,1.34704,0.162151,24,32765
1.98066,1.36326,0.163198,24,32765
1.96876,1.3455,0.160325,23,32765
1.98156,1.34457,0.15982,22,32765
2.01924,1.36029,0.160861,22,32765
2.08191,1.39242,0.164062,26,32765
2.07001,1.37447,0.161243,24,32765
2.05797,1.35668,0.158373,24,32765
2.04578,1.33904,0.155758,24,32765
2.09213,1.35947,0.157611,25,32765
2.08827,1.34723,0.155555,25,32765
2.06762,1.32414,0.152326,25,32765
2.06362,1.31202,0.150308,23,32765
2.068,1.30525,0.148995,24,32765
2.06387,1.29318,0.147365,23,32765
2.08508,1.29708,0.14714,24,32765
2.06396,1.27443,0.144131,25,32765
2.11081,1.29368,0.145798,25,32765
2.07255,1.2607,0.141618,24,32765
2.08536,1.25898,0.140912,26,32765
2.11526,1.2675,0.141497,25,32765
2.1195,1.26052,0.140357,26,32765
2.08071,1.22819,0.136401,22,32765
1.96422,1.15064,0.127565,21,32765
1.9854,1.1541,0.127501,23,32765
1.98064,1.14248,0.126066,24,32765
1.97584,1.13092,0.124486,22,32765
1.97096,1.11944,0.122756,23,32765
1.95728,1.10315,0.120926,23,32765
1.95232,1.09169,0.119345,21,32765
1.99971,1.10934,0.121003,23,32765
1.96852,1.08331,0.117793,21,32765
1.99844,1.09114,0.118506,21,32765
1.99327,1.07986,0.116992,21,32765
1.97926,1.06382,0.115304,20,32765
2.09741,1.11836,0.120686,21,32765
2.19829,1.16271,0.12541,26,32765
2.19342,1.15064,0.123868,26,32765
2.24156,1.16639,0.125881,25,32765
2.22773,1.14981,0.12344,27,32765
2.23161,1.14237,0.122445,28,32765
2.24435,1.13945,0.122207,27,32765
2.25715,1.13638,0.121728,27,32765
2.26099,1.12883,0.120673,27,32765
2.28268,1.13016,0.120901,28,32765
2.25962,1.10927,0.118436,27,32765
2.2634,1.10164,0.117427,26,32765
2.29415,1.10703,0.117683,27,32765
2.32491,1.11231,0.118148,28,32765
2.29254,1.08742,0.115601,27,32765
2.26909,1.06701,0.113198,23,32765
2.20022,1.02574,0.108636,16,32765
0,0,0,0,32765
7.52032,3.44524,0.365338,16,32765
0,0,0,0,32765
7.4887,3.3706,0.356068,14,32765
7.48181,3.33752,0.35145,14,32765
7.40148,3.27248,0.344945,14,32765
7.38509,3.2357,0.339981,15,32765
7.30428,3.17132,0.333468,14,32765
7.26923,3.12683,0.328144,15,32765
7.23395,3.08263,0.322875,16,32765
7.15235,3.01938,0.316373,15,32765
7.08876,2.96476,0.309431,15,32765
7.0525,2.92216,0.304747,15,32765
7.02519,2.88381,0.300507,15,32765
6.93301,2.81917,0.29295,15,32765
6.92385,2.78884,0.289027,15,32765
6.85886,2.7364,0.283282,15,32765
6.83085,2.69893,0.278856,15,32765
6.77463,2.65102,0.273573,15,32765
2.42264,0.938864,0.0966865,21,32765
0,0,0,0,32765
6.66059,2.53107,0.259174,17,32765
6.63159,2.49502,0.25499,17,32765
6.60237,2.45939,0.250088,17,32765
6.54481,2.41371,0.244626,17,32765
6.54327,2.38917,0.241634,17,32765
6.46645,2.33749,0.235589,18,32765
6.38944,2.28613,0.229801,17,32765
6.41594,2.27166,0.226792,17,32765
6.37639,2.23383,0.222007,18,32765
6.2892,2.18057,0.215933,17,32765
6.23942,2.14124,0.211357,19,32765
0,0,0,0,32765
6.17726,2.0763,0.202109,19,32765
6.20307,2.06246,0.199483,18,32765
6.18129,2.03312,0.19538,20,32765
6.14964,2.00156,0.191288,18,32765
6.13694,1.97618,0.187443,18,32765
5.99082,1.90845,0.178767,20,32765
6.08298,1.91588,0.176671,20,32765
5.9077,1.84035,0.168376,18,32765
1.92966,1.41851,0.155687,25,32765
1.95863,1.42984,0.155643,26,32765
1.93936,1.40564,0.151798,25,32765
1.92802,1.38744,0.148764,25,32765
1.96516,1.40435,0.149559,26,32765
1.96981,1.398,0.147767,26,32765
1.94185,1.36856,0.143736,25,32765
1.97916,1.38508,0.144502,25,32765
1.95107,1.35571,0.140585,24,32765
1.98032,1.36626,0.140665,26,32765
1.9849,1.35975,0.139131,26,32765
1.99774,1.35876,0.138521,26,32765
2.02719,1.36887,0.138607,25,32765
2.0484,1.37324,0.138345,24,32765
2.06968,1.37749,0.137951,25,32765
2.07431,1.37067,0.136361,26,32765
2.07887,1.36389,0.135005,25,32765
2.10019,1.3679,0.134756,27,32765
2.10474,1.36103,0.133316,27,32765
2.08414,1.33783,0.130355,26,32765
2.10544,1.34173,0.129977,25,32765
2.05928,1.30277,0.125548,25,32765
2.07206,1.30133,0.125034,26,32765
2.0848,1.29992,0.12411,26,32765
2.10617,1.3035,0.123877,27,32765
2.09353,1.28606,0.121588,27,32765
2.11494,1.28946,0.121308,25,32765
2.04238,1.23588,0.115641,23,32765
1.98658,1.19313,0.111175,23,32765
1.9734,1.17633,0.109153,25,32765
1.98592,1.17493,0.108562,25,32765
1.98124,1.16327,0.107137,25,32765
1.99383,1.16165,0.106412,25,32765
1.98045,1.14498,0.104609,24,32765
2.00165,1.1483,0.104477,23,32765
2.00551,1.14165,0.103271,24,32765
1.9832,1.1203,0.101169,23,32765
2.01317,1.12826,0.101423,22,32765
2.05194,1.14089,0.102145,21,32765
2.0471,1.1291,0.100568,22,32765
2.10347,1.15107,0.102242,24,32765
2.15995,1.17279,0.103719,26,32765
2.15506,1.16091,0.10258,27,32765
2.20302,1.1773,0.103326,28,32765
2.16285,1.14652,0.100418,28,32765
2.20214,1.15779,0.101013,28,32765
2.22373,1.15968,0.101342,28,32765
2.2365,1.1569,0.100293,27,32765
2.2404,1.14941,0.0992921,28,32765
2.24426,1.14193,0.0985642,28,32765
2.25706,1.13885,0.0979897,28,32765
2.25197,1.12681,0.0965497,29,32765
2.2826,1.13261,0.0969715,30,32765
2.26852,1.11609,0.0951619,30,32765
2.26334,1.10403,0.0937752,29,32765
2.2851,1.10508,0.0933802,28,32765
2.27079,1.0888,0.0917445,29,32765
2.31055,1.09836,0.0924779,30,32765
2.30522,1.08636,0.0910609,29,32765
2.33601,1.09141,0.0911181,30,32765
2.33966,1.08361,0.0903111,27,32765
2.31603,1.06333,0.0885679,24,32765
2.265,1.03081,0.0855054,14,32765
7.22449,3.25871,0.269029,17,32765
7.18984,3.2142,0.263722,18,32765
7.16393,3.17428,0.260231,18,32765
7.09229,3.1141,0.253698,18,32765
7.06605,3.07447,0.250159,18,32765
6.99395,3.01487,0.244124,18,32765
6.94909,2.96758,0.239126,18,32765
6.88551,2.91294,0.23428,18,32765
6.8492,2.87069,0.22915,18,32765
6.80338,2.82496,0.224718,18,32765
6.77575,2.78734,0.220943,19,32765
6.74802,2.74979,0.216612,19,32765
6.73863,2.72,0.212956,20,32765
6.6734,2.66807,0.20803,19,32765
6.61727,2.62008,0.203198,20,32765
6.57009,2.57642,0.198934,20,32765
2.44135,0.948116,0.0727981,18,32765
2.47247,0.950856,0.072496,21,32765
6.4833,2.4689,0.187013,19,32765
6.41667,2.41926,0.182212,20,32765
6.36845,2.37726,0.177274,20,32765
6.32936,2.33918,0.173086,19,32765
6.31818,2.31184,0.170019,19,32765
6.25989,2.26759,0.165416,19,32765
6.21087,2.22691,0.161291,19,32765
6.22773,2.20966,0.157955,20,32765
6.15965,2.16244,0.153026,21,32765
6.13833,2.13273,0.149597,23,32765
6.08838,2.0938,0.145646,24,32765
6.09501,2.07468,0.141973,22,32765
6.03535,2.03286,0.137525,23,32765
5.90924,1.9689,0.131407,22,32765
5.94411,1.95921,0.128972,25,32765
5.87419,1.91592,0.124559,23,32765
5.97538,1.9282,0.123404,25,32765
5.85765,1.86995,0.116909,22,32765
5.83523,1.84172,0.111872,24,32765
5.76468,1.79958,0.107447,24,32765
1.96374,1.44228,0.130957,23,32765
1.90392,1.38879,0.126238,23,32765
1.94085,1.40596,0.127955,25,32765
1.93742,1.3937,0.126928,22,32765
1.95026,1.39301,0.126577,23,32765
1.94672,1.3808,0.125693,24,32765
1.93492,1.36296,0.123871,25,32765
1.93944,1.35659,0.122996,25,32765
1.97678,1.37296,0.124223,24,32765
1.96498,1.35499,0.122358,24,32765
2.01067,1.37674,0.124072,24,32765
1.98221,1.34763,0.121374,24,32765
1.97014,1.32992,0.119497,24,32765
2.00773,1.3457,0.120534,22,32765
2.05379,1.36672,0.122263,22,32765
2.06667,1.36545,0.1218,23,32765
2.07953,1.36415,0.121432,24,32765
2.1008,1.3682,0.121479,25,32765
2.10538,1.36124,0.120463,26,32765
2.07637,1.33258,0.117578,24,32765
2.07242,1.32031,0.116023,22,32765
2.0853,1.31874,0.115554,23,32765
2.07278,1.30122,0.113589,25,32765
2.08563,1.29959,0.113136,25,32765
2.10699,1.30314,0.113239,26,32765
2.14538,1.3171,0.113902,25,32765
2.00471,1.22171,0.10526,19,32765
1.91479,1.15815,0.0994388,20,32765
1.97006,1.18264,0.101115,23,32765
1.99124,1.18624,0.100963,23,32765
1.96085,1.15922,0.0982773,23,32765
1.97336,1.15775,0.0977875,22,32765
1.98586,1.15625,0.0970914,24,32765
1.97245,1.13963,0.0954174,24,32765
1.95891,1.12317,0.0935217,22,32765
1.9453,1.10679,0.0916255,21,32765
2.0186,1.13965,0.0940377,20,32765
2.05733,1.15241,0.0945625,19,32765
2.00009,1.11153,0.090765,19,32765
2.08266,1.14814,0.0932307,23,32765
2.14791,1.17471,0.0950279,25,32765
2.16064,1.17232,0.0944706,26,32765
2.15577,1.16038,0.0931541,26,32765
2.1684,1.15804,0.0925176,27,32765
2.18112,1.15551,0.0918919,27,32765
2.19387,1.15283,0.0911863,27,32765
2.20664,1.15007,0.0903304,26,32765
2.20171,1.13799,0.0887144,26,32765
2.25001,1.15341,0.0895835,27,32765
2.245,1.14133,0.0879655,27,32765
2.26669,1.14279,0.0878873,27,32765
2.2527,1.12622,0.0859754,27,32765
2.25656,1.11856,0.084682,27,32765
2.2693,1.11539,0.0841928,28,32765
2.28205,1.11217,0.0833134,29,32765
2.27679,1.10017,0.0821718,27,32765
2.29848,1.10128,0.0817032,28,32765
2.28417,1.08495,0.079771,27,32765
2.30589,1.08583,0.0796388,28,32765
2.29146,1.06959,0.0780985,27,32765
2.32227,1.07452,0.0779307,27,32765
2.33492,1.07102,0.0771292,26,32765
2.29298,1.04262,0.0746768,18,32765
0,0,0,0,32765
7.10054,3.17173,0.225497,17,32765
0,0,0,0,32765
6.97507,3.06047,0.215294,18,32765
6.84777,2.9775,0.208357,16,32765
6.78421,2.9232,0.203811,16,32765
6.72965,2.87305,0.199472,15,32765
6.76705,2.86186,0.198285,15,32765
6.69368,2.80444,0.193206,16,32765
6.62,2.74756,0.188211,16,32765
6.59209,2.71051,0.185405,15,32765
6.56403,2.67365,0.182326,16,32765
6.50775,2.62634,0.178473,16,32765
6.47921,2.59025,0.175642,17,32765
6.46911,2.5617,0.173037,17,32765
6.42169,2.51853,0.169826,17,32765
6.52323,2.53345,0.170715,17,32765
2.46331,0.947453,0.0636516,21,32765
6.34363,2.41581,0.162232,16,32765
0,0,0,0,32765
6.25645,2.33549,0.157395,16,32765
6.28294,2.32169,0.156118,17,32765
6.16849,2.25649,0.151301,16,32765
0,0,0,0,32765
6.04187,2.16588,0.14571,18,32765
0,0,0,0,32765
6.15017,2.15974,0.146158,19,32765
6.0439,2.10027,0.142072,20,32765
6.0224,2.07066,0.141082,19,32765
6.12368,2.0835,0.143133,20,32765
5.97878,2.01272,0.138569,19,32765
5.99473,1.99663,0.138017,21,32765
5.89667,1.94295,0.135246,21,32765
5.95991,1.94261,0.136592,18,32765
6.02314,1.94212,0.13717,20,32765
5.87678,1.87463,0.134514,19,32765
5.89225,1.85895,0.134642,19,32765
5.86932,1.83173,0.135443,19,32765
1.94673,1.43357,0.107287,24,32765
1.94336,1.42131,0.106407,24,32765
1.92381,1.39728,0.104661,23,32765
1.93656,1.39674,0.104604,24,32765
1.95754,1.40186,0.104591,24,32765
1.9866,1.41276,0.105527,25,32765
1.96676,1.38898,0.103444,24,32765
1.97137,1.38249,0.102552,25,32765
1.99238,1.38737,0.102544,25,32765
1.99707,1.38067,0.101694,25,32765
2.02636,1.39105,0.102094,24,32765
2.031,1.38433,0.101411,24,32765
2.05215,1.38882,0.101332,25,32765
2.04016,1.37093,0.0995245,22,32765
2.06967,1.38079,0.0999681,23,32765
2.0826,1.37946,0.099402,26,32765
2.10385,1.38359,0.0993254,27,32765
2.10008,1.37118,0.0980008,27,32765
2.11306,1.36964,0.0973691,26,32765
2.1093,1.35711,0.0959991,26,32765
2.10543,1.3447,0.0945176,24,32765
2.05932,1.30556,0.0913176,21,32765
2.06367,1.29873,0.0902903,21,32765
2.00023,1.24948,0.0864488,19,32765
2.02142,1.25332,0.0863956,22,32765
1.96601,1.20998,0.082786,23,32765
1.97001,1.20353,0.0818421,23,32765
1.96551,1.19176,0.0805679,24,32765
1.97806,1.19037,0.0799245,24,32765
1.9821,1.1837,0.0788955,24,32765
1.96891,1.16684,0.0772617,24,32765
1.97283,1.16027,0.076339,23,32765
1.95944,1.14366,0.074562,23,32765
2.00652,1.16215,0.075358,22,32765
2.10572,1.21029,0.0777909,25,32765
2.10977,1.20329,0.0766296,27,32765
2.13988,1.21105,0.0766617,28,32765
2.15269,1.20875,0.0758237,28,32765
2.12185,1.18205,0.0735404,27,32765
2.1609,1.19415,0.0736059,27,32765
2.12988,1.16766,0.0714748,27,32765
2.14257,1.16531,0.0708295,27,32765
2.17287,1.1724,0.0707584,28,32765
2.19436,1.17471,0.0703003,28,32765
2.18946,1.1627,0.0690102,27,32765
2.21109,1.16465,0.0684786,29,32765
2.18845,1.14331,0.0664412,27,32765
2.21012,1.14506,0.065719,29,32765
2.23176,1.14678,0.0653327,28,32765
2.22673,1.13473,0.0638167,28,32765
2.2484,1.13626,0.0635551,29,32765
2.24331,1.12419,0.0620861,29,32765
2.28297,1.13433,0.0617649,28,32765
2.26886,1.11782,0.0604533,29,32765
2.27263,1.11019,0.0592442,30,32765
2.27637,1.10256,0.0584287,29,32765
2.30707,1.108,0.0579972,30,32765
2.28375,1.08731,0.0560244,29,32765
2.31452,1.09245,0.0559211,30,32765
2.31823,1.08462,0.0549928,30,32765
2.33094,1.08106,0.0541077,30,32765
2.32545,1.06917,0.0527939,30,32765
2.32899,1.06147,0.0518252,30,32765
2.35077,1.0619,0.0514148,29,32765
2.3543,1.05409,0.0505509,29,32765
2.3121,1.02603,0.0486584,20,32765
6.72688,2.95843,0.138633,18,32765
6.64509,2.89608,0.134123,20,32765
6.57209,2.83836,0.130211,20,32765
6.54483,2.80062,0.127136,20,32765
6.49913,2.7549,0.124135,20,32765
6.47151,2.71761,0.120864,19,32765
6.43447,2.67671,0.117471,20,32765
6.38784,2.63257,0.114754,20,32765
6.36878,2.60008,0.112273,20,32765
6.32155,2.55705,0.109295,20,32765
6.2835,2.51776,0.10673,19,32765
6.2267,2.47134,0.1036,19,32765
6.24413,2.45449,0.102078,20,32765
6.14045,2.39022,0.0987681,20,32765
6.17624,2.38096,0.0973779,22,32765
2.45684,0.937752,0.0381122,21,32765
2.46928,0.933188,0.0377742,19,32765
6.04979,2.26346,0.0914702,21,32765
6.04792,2.2399,0.0896425,21,32765
6.05525,2.22007,0.0878834,23,32765
5.97788,2.16961,0.0859264,22,32765
5.98488,2.15028,0.0845339,22,32765
5.90705,2.10068,0.0825408,22,32765
5.88558,2.07146,0.0811881,23,32765
5.88291,2.0489,0.0796961,24,32765
5.90853,2.03605,0.0796302,25,32765
5.84881,1.99441,0.078579,23,32765
5.80786,1.95953,0.0769442,25,32765
5.83313,1.94712,0.0764416,25,32765
5.81089,1.91892,0.0757023,25,32765
5.80752,1.89712,0.0756132,26,32765
5.68032,1.83561,0.07319,21,32765
5.65747,1.80864,0.0736005,23,32765
5.68228,1.79664,0.0737587,23,32765
5.67827,1.77597,0.0750392,24,32765
1.94876,1.43006,0.116937,22,32765
1.92945,1.40587,0.113431,23,32765
1.9423,1.40533,0.111918,23,32765
1.91459,1.3756,0.10808,22,32765
1.97609,1.40996,0.109434,24,32765
1.97259,1.39779,0.107118,24,32765
1.97724,1.39133,0.10543,24,32765
1.97369,1.37912,0.103431,24,32765
1.9949,1.38374,0.102584,24,32765
1.99967,1.37697,0.100803,23,32765
1.98783,1.35904,0.0982331,22,32765
2.02541,1.37497,0.0983634,22,32765
2.01331,1.35729,0.0961782,21,32765
2.08421,1.39521,0.0976811,22,32765
2.08056,1.38279,0.0957648,24,32765
2.11858,1.39788,0.0957616,26,32765
2.12331,1.39078,0.094248,26,32765
2.10281,1.36744,0.0916091,26,32765
2.09898,1.35508,0.0896998,24,32765
2.12029,1.35898,0.0890431,22,32765
2.03202,1.29306,0.083755,17,32765
1.9941,1.25962,0.0808796,17,32765
1.9644,1.23185,0.0780484,19,32765
1.95153,1.21479,0.0761242,20,32765
1.97259,1.21885,0.0755916,22,32765
1.97662,1.21236,0.0744548,22,32765
1.98921,1.211,0.0734533,22,32765
1.95051,1.17852,0.0708264,22,32765
1.96305,1.17713,0.0699119,22,32765
1.96698,1.17062,0.0687628,22,32765
1.98809,1.17428,0.0682899,22,32765
2.02652,1.18789,0.0682426,20,32765
2.09093,1.21639,0.0691977,21,32765
2.1123,1.21945,0.0686035,25,32765
2.10777,1.20733,0.0673198,25,32765
2.12922,1.21017,0.0665699,26,32765
2.12458,1.19813,0.0651745,26,32765
2.13732,1.19594,0.0641596,27,32765
2.14134,1.18877,0.0631672,27,32765
2.16279,1.19135,0.0625658,27,32765
2.16683,1.18404,0.0616428,28,32765
2.17076,1.17689,0.0602979,27,32765
2.19235,1.17903,0.0599439,27,32765
2.18747,1.16701,0.0587884,26,32765
2.17368,1.15041,0.0573759,26,32765
2.20413,1.15701,0.056824,27,32765
2.20807,1.14956,0.0551196,28,32765
2.22074,1.14689,0.0542689,28,32765
2.22464,1.13935,0.0534176,28,32765
2.22851,1.13182,0.0521895,26,32765
2.2413,1.12872,0.0514367,26,32765
2.23618,1.11668,0.0503266,26,32765
2.2399,1.10923,0.0494968,27,32765
2.27054,1.11496,0.0491031,27,32765
2.26528,1.103,0.0480082,27,32765
2.26901,1.09534,0.046895,27,32765
2.29977,1.10061,0.0469548,29,32765
2.33063,1.10559,0.0470948,29,32765
2.32531,1.09352,0.0454869,29,32765
2.31085,1.07727,0.0442017,28,32765
2.28722,1.05698,0.042567,27,32765
2.30891,1.05772,0.042167,28,32765
2.33065,1.05829,0.0413524,28,32765
2.3342,1.05048,0.0403681,28,32765
2.30119,1.02635,0.0389635,24,32765
2.26806,1.00245,0.0374858,19,32765
6.53041,2.86003,0.104575,16,32765
0,0,0,0,32765
6.45763,2.77676,0.0975164,17,32765
6.44847,2.74743,0.0945426,17,32765
6.37474,2.69087,0.0907734,17,32765
6.35596,2.65823,0.087442,16,32765
6.29095,2.60636,0.0833647,16,32765
6.25339,2.56639,0.0799501,18,32765
6.24336,2.53814,0.0772825,17,32765
6.19607,2.49513,0.0737349,17,32765
6.11155,2.4373,0.0698528,19,32765
6.23114,2.46136,0.0677419,16,32765
6.0252,2.35667,0.062742,18,32765
6.21009,2.40552,0.0622439,18,32765
0,0,0,0,32765
2.44923,0.930147,0.0222618,21,32765
2.47094,0.929296,0.0211775,15,32765
5.92251,2.20544,0.0482026,22,32765
5.79819,2.13809,0.0448263,19,32765
5.9178,2.16051,0.042663,22,32765
5.84963,2.11392,0.0394042,19,32765
5.79063,2.0712,0.0360751,18,32765
5.75983,2.03846,0.0328115,19,32765
5.7665,2.01956,0.0305439,19,32765
5.69746,1.97463,0.0266459,20,32765
5.71332,1.95934,0.0242792,21,32765
5.53018,1.87677,0.0205704,18,32765
5.59307,1.87811,0.0177892,19,32765
5.58951,1.85722,0.0146451,18,32765
5.54796,1.82363,0.0115658,19,32765
5.38253,1.75039,0.00789564,20,32765
5.43567,1.7486,0.00479479,20,32765
5.36493,1.70716,0.00134787,21,32765
5.42745,1.70849,-0.00171411,21,32765
5.33722,1.66197,-0.00528952,25,32765
1.9638,1.445,0.0951243,22,32765
1.97682,1.44429,0.0934041,22,32765
1.98978,1.44359,0.0917466,23,32765
2.00275,1.44284,0.0900529,23,32765
1.97503,1.41302,0.0867398,23,32765
1.99598,1.41818,0.0855628,24,32765
1.95986,1.38282,0.0821409,23,32765
1.98902,1.39358,0.0815891,25,32765
2.01027,1.39815,0.0805397,26,32765
1.96573,1.35724,0.0768133,24,32765
2.00328,1.37329,0.076342,23,32765
2.03263,1.38357,0.0757761,23,32765
2.03712,1.37703,0.0743747,21,32765
2.05826,1.38152,0.0733337,21,32765
2.0296,1.35252,0.0706583,22,32765
2.01748,1.33472,0.0686141,21,32765
2.00528,1.31697,0.0666148,22,32765
1.99291,1.29943,0.064611,21,32765
1.98886,1.28739,0.0628735,21,32765
1.9763,1.27005,0.0610593,21,32765
2.00575,1.27973,0.0604529,22,32765
1.9847,1.257,0.0585559,23,32765
1.955,1.2292,0.0561033,23,32765
1.98454,1.2386,0.0555568,24,32765
1.98866,1.23202,0.0543501,24,32765
1.98422,1.22023,0.0529741,24,32765
1.99683,1.21884,0.0518714,23,32765
1.98382,1.2018,0.050357,22,32765
2.01358,1.21059,0.049749,23,32765
2.0262,1.20902,0.0487744,22,32765
2.05603,1.21759,0.0482818,22,32765
2.11182,1.24112,0.0482099,26,32765
2.12457,1.23918,0.0473091,28,32765
2.12005,1.2271,0.0459439,27,32765
2.11555,1.21493,0.0447476,27,32765
2.12832,1.21279,0.0436251,28,32765
2.1498,1.21549,0.0428417,27,32765
2.15387,1.20832,0.0415473,28,32765
2.1492,1.19621,0.0403806,28,32765
2.17067,1.19877,0.0395854,28,32765
2.18349,1.19622,0.0388125,28,32765
2.15232,1.1699,0.0368531,28,32765
2.17388,1.1721,0.0363164,28,32765
2.1778,1.16483,0.0354033,28,32765
2.19934,1.16697,0.0347382,29,32765
2.22099,1.16883,0.0337536,29,32765
2.20723,1.15205,0.0317786,28,32765
2.21102,1.14478,0.0307089,28,32765
2.20602,1.13269,0.0297391,28,32765
2.22769,1.13428,0.028749,29,32765
2.23156,1.12667,0.0277893,29,32765
2.24431,1.12358,0.0269897,29,32765
2.24806,1.11609,0.0261546,29,32765
2.28768,1.12622,0.0255741,29,32765
2.26448,1.1054,0.0243705,28,32765
2.28623,1.10644,0.0234401,29,32765
2.29899,1.103,0.0230318,30,32765
2.31179,1.09941,0.0227108,30,32765
2.2974,1.08311,0.021123,29,32765
2.31009,1.07962,0.0202731,30,32765
2.30462,1.06769,0.0190683,30,32765
2.32634,1.06837,0.018473,30,32765
2.339,1.06474,0.0173923,30,32765
2.35169,1.06099,0.0164662,31,32765
2.32786,1.04083,0.0154899,30,32765
2.3405,1.03704,0.0146619,30,32765
2.344,1.02912,0.0135124,29,32765
2.35661,1.02524,0.0125689,27,32765
2.34168,1.00942,0.0114279,17,32765
6.21664,2.65523,0.0276906,20,32765
6.19788,2.6227,0.0250782,20,32765
6.1512,2.57897,0.0220064,21,32765
6.14135,2.55069,0.0189463,20,32765
6.05737,2.4921,0.0159418,19,32765
6.03783,2.46066,0.013513,20,32765
5.9903,2.41823,0.0106194,21,32765
5.97054,2.38695,0.00785118,23,32765
5.97834,2.36734,0.00459923,23,32765
5.96765,2.33992,0.00193147,23,32765
5.95667,2.31306,-0.000324007,23,32765
5.88961,2.26463,-0.00294157,23,32765
5.82233,2.21661,-0.00561274,22,32765
2.40476,0.90664,-0.00353767,16,32765
2.50139,0.933774,-0.00473084,22,32765
5.74033,2.12198,-0.0131332,22,32765
5.7096,2.08965,-0.0159781,24,32765
5.71642,2.07088,-0.0186372,22,32765
5.64787,2.02512,-0.0212104,22,32765
5.56037,1.97273,-0.0237847,23,32765
5.57626,1.95775,-0.0260216,22,32765
5.55424,1.92975,-0.0293032,22,32765
5.46592,1.87913,-0.0311148,24,32765
5.44351,1.85192,-0.0338161,21,32765
5.42098,1.82483,-0.0365435,24,32765
5.36032,1.78548,-0.0390858,24,32765
5.442,1.79324,-0.042541,26,32765
5.4001,1.76046,-0.0454975,25,32765
5.35806,1.72792,-0.0482255,24,32765
5.29679,1.68967,-0.0509657,24,32765
5.302,1.67316,-0.0539739,23,32765
5.24031,1.63587,-0.0568373,23,32765
2.00522,1.47461,0.0685795,14,32765
1.99396,1.45618,0.0675242,18,32765
1.9988,1.44956,0.0668537,21,32765
1.98737,1.43127,0.065743,22,32765
1.96783,1.40709,0.064239,21,32765
1.98879,1.41217,0.0640411,23,32765
1.9607,1.38267,0.062121,22,32765
1.96524,1.37625,0.0613897,23,32765
1.97799,1.37547,0.0610275,22,32765
2.03202,1.40287,0.06132,24,32765
2.01199,1.3791,0.0597139,20,32765
1.90917,1.29926,0.0558453,18,32765
1.97979,1.33764,0.0568842,21,32765
1.99253,1.33666,0.0561366,21,32765
1.98872,1.32442,0.0549604,21,32765
1.97639,1.30687,0.0535266,21,32765
1.97229,1.29496,0.052664,20,32765
1.98489,1.294,0.0519781,20,32765
1.98913,1.2875,0.0508742,21,32765
1.95139,1.25382,0.0490424,20,32765
1.96399,1.25274,0.0480258,22,32765
1.95131,1.23542,0.0469651,22,32765
1.964,1.2341,0.0460473,22,32765
1.9512,1.2169,0.044515,23,32765
1.99784,1.23659,0.0443582,21,32765
1.99342,1.22474,0.043267,21,32765
1.97188,1.20252,0.041757,20,32765
2.02718,1.22707,0.0417581,20,32765
2.03983,1.22548,0.0408806,21,32765
2.04398,1.21859,0.0399038,20,32765
2.09966,1.24235,0.0399105,23,32765
2.12109,1.24541,0.0390652,26,32765
2.13391,1.24333,0.0382223,25,32765
2.09478,1.21119,0.0361921,24,32765
2.13359,1.22398,0.0357406,26,32765
2.12907,1.21177,0.0346273,27,32765
2.08948,1.18026,0.0326711,26,32765
2.14578,1.20258,0.0323012,27,32765
2.10605,1.1712,0.0309443,26,32765
2.10999,1.16411,0.0295652,25,32765
2.16658,1.18574,0.0290428,27,32765
2.153,1.16889,0.0276394,27,32765
2.13936,1.1521,0.0263101,25,32765
2.20491,1.17801,0.0261527,28,32765
2.19113,1.16137,0.0243972,27,32765
2.20383,1.15873,0.0237302,27,32765
2.18111,1.13749,0.0220604,27,32765
2.18494,1.13015,0.0202347,25,32765
2.17982,1.11827,0.0193187,26,32765
2.21922,1.12908,0.0185474,27,32765
2.22297,1.1217,0.0170916,26,32765
2.23564,1.11876,0.016321,27,32765
2.25735,1.12007,0.0152453,27,32765
2.26113,1.11242,0.0141722,27,32765
2.26492,1.1047,0.0130417,26,32765
2.24169,1.08388,0.012011,26,32765
2.31742,1.11101,0.0110858,29,32765
2.29414,1.09015,0.0105917,28,32765
2.31588,1.09098,0.00954914,29,32765
2.3014,1.07476,0.00838181,28,32765
2.29595,1.06276,0.00741338,27,32765
2.3449,1.07601,0.00644908,28,32765
2.33946,1.06386,0.00534602,30,32765
2.32473,1.04791,0.00418661,28,32765
2.3465,1.04824,0.00311976,30,32765
2.3591,1.04452,0.00213787,29,32765
2.34422,1.0287,0.00120008,28,32765
2.38432,1.03682,0.00030498,24,32765
6.06121,2.61185,-0.00114621,17,32765
6.05172,2.58323,-0.00412939,18,32765
5.97746,2.52784,-0.00624458,17,32765
5.96733,2.50035,-0.00815087,18,32765
5.9295,2.46115,-0.0105302,17,32765
0,0,-0,0,32765
5.80679,2.36515,-0.0141742,18,32765
5.83303,2.35362,-0.0160659,18,32765
5.80358,2.31963,-0.0177086,18,32765
5.95994,2.35941,-0.0197343,20,32765
5.70695,2.23767,-0.0204818,20,32765
5.74227,2.22967,-0.0230858,21,32765
5.74021,2.20722,-0.0247002,17,32765
5.74736,2.18853,-0.0257882,19,32765
5.72643,2.15908,-0.0271378,18,32765
2.40767,0.898828,-0.0120334,20,32765
5.62795,2.07972,-0.0301996,19,32765
5.616,2.05427,-0.0307707,19,32765
5.50048,1.99156,-0.0308506,20,32765
5.62936,2.01732,-0.0331974,19,32765
5.44747,1.93194,-0.0331,19,32765
5.46318,1.91743,-0.0340165,20,32765
5.51655,1.91626,-0.0353959,22,32765
5.55099,1.90841,-0.0365458,21,32765
5.41508,1.84229,-0.0357307,18,32765
5.43991,1.83129,-0.0365917,22,32765
5.37945,1.79138,-0.036957,22,32765
5.28073,1.73958,-0.0368014,21,32765
5.38141,1.75347,-0.0371534,22,32765
5.33941,1.72087,-0.0372931,22,32765
5.31625,1.69487,-0.036728,18,32765
5.27397,1.66276,-0.0367134,21,32765
5.30778,1.65523,-0.0359146,22,32765
8.77866,6.47486,0.198755,17,32765
0,0,0,0,32765
0,0,0,14,32765
1.98579,1.43433,0.0428899,19,32765
1.99066,1.42758,0.0421794,21,32765
2.00353,1.42679,0.041614,22,32765
1.98368,1.40296,0.0402229,23,32765
1.98011,1.39069,0.0393174,24,32765
2.00931,1.4013,0.0391737,24,32765
2.01406,1.39449,0.0379544,23,32765
1.96931,1.35374,0.0361787,22,32765
1.99036,1.35841,0.035762,23,32765
1.97009,1.33491,0.0344229,22,32765
1.99941,1.34511,0.0338648,23,32765
2.01226,1.34393,0.0330487,24,32765
1.97501,1.30968,0.0313897,22,32765
1.97927,1.30324,0.0307478,23,32765
1.99189,1.30225,0.0299623,23,32765
2.00455,1.30116,0.0289728,23,32765
2.00892,1.29443,0.028189,23,32765
1.95425,1.25005,0.0261386,22,32765
2.01756,1.28096,0.0262539,23,32765
1.98809,1.25275,0.0246767,22,32765
2.01775,1.26194,0.0238147,21,32765
2.00505,1.24453,0.0224832,20,32765
2.05175,1.2641,0.0220278,21,32765
2.02182,1.23642,0.0206799,20,32765
2.10284,1.27641,0.0203385,23,32765
2.12422,1.27973,0.0194036,28,32765
2.11996,1.2674,0.0183094,28,32765
2.13278,1.26544,0.0173656,28,32765
2.12843,1.25317,0.0161162,28,32765
2.1499,1.25611,0.0152347,28,32765
2.13679,1.23888,0.0138278,28,32765
2.12366,1.22164,0.0126683,27,32765
2.14519,1.2243,0.0117936,28,32765
2.11437,1.1976,0.0103356,27,32765
2.12711,1.19538,0.00919906,27,32765
2.13978,1.19322,0.00852253,28,32765
2.1613,1.19568,0.00717685,28,32765
2.17413,1.19312,0.00594036,29,32765
2.16936,1.18099,0.00473667,29,32765
2.16457,1.16886,0.00359812,27,32765
2.18606,1.17112,0.00271731,29,32765
2.18109,1.15919,0.00116465,28,32765
2.20264,1.16124,0.000406521,29,32765
2.19765,1.14923,-0.000992052,29,32765
2.21039,1.14642,-0.00284556,29,32765
2.20533,1.13442,-0.00368011,28,32765
2.21804,1.13153,-0.00478358,29,32765
2.24856,1.13768,-0.00631626,29,32765
2.24341,1.12568,-0.00713586,29,32765
2.25617,1.12251,-0.00837236,29,32765
2.251,1.11042,-0.00940996,29,32765
2.27274,1.1115,-0.0106218,29,32765
2.26754,1.09933,-0.0114678,29,32765
2.28921,1.10043,-0.0128564,30,32765
2.28396,1.08822,-0.0131713,29,32765
2.30568,1.08909,-0.0143988,29,32765
2.30026,1.07711,-0.0154369,29,32765
2.31297,1.0735,-0.0164424,30,32765
2.31651,1.06582,-0.0175421,30,32765
2.34743,1.07034,-0.0188326,30,32765
2.34184,1.05844,-0.0198879,31,32765
2.33626,1.04645,-0.0209076,30,32765
2.37627,1.05493,-0.0222379,30,32765
2.43465,1.07123,-0.0237101,29,32765
2.42904,1.05908,-0.0245542,25,32765
2.41418,1.04307,-0.0251361,18,32765
5.88346,2.51809,-0.0640768,19,32765
5.89188,2.49827,-0.0662228,22,32765
5.76182,2.42065,-0.0665351,22,32765
5.84375,2.43199,-0.069799,24,32765
5.76857,2.37827,-0.0708438,22,32765
5.75793,2.35146,-0.0724535,22,32765
5.80267,2.34756,-0.0747613,20,32765
5.7268,2.295,-0.0754131,24,32765
5.72502,2.2724,-0.0768061,24,32765
5.65798,2.22433,-0.077409,24,32765
5.68392,2.21283,-0.0801466,24,32765
5.54187,2.13657,-0.0796438,23,32765
5.56748,2.12561,-0.0809704,23,32765
5.55571,2.10022,-0.0821345,23,32765
5.52507,2.06803,-0.0830482,21,32765
2.46591,0.913632,-0.0379445,23,32765
5.43538,1.99342,-0.0841901,21,32765
5.4325,1.9721,-0.0847884,24,32765
5.38248,1.9339,-0.0855007,22,32765
5.36055,1.90609,-0.086053,22,32765
5.33846,1.87856,-0.0864429,21,32765
5.33503,1.85805,-0.0873439,24,32765
5.35983,1.8475,-0.0885916,26,32765
5.31843,1.81412,-0.0879309,23,32765
5.2958,1.78741,-0.0881817,23,32765
5.25419,1.75421,-0.0881892,24,32765
5.20287,1.71838,-0.0877908,22,32765
5.21792,1.70461,-0.0876541,25,32765
5.21385,1.68475,-0.0879549,24,32765
5.1525,1.64691,-0.0864804,24,32765
5.12917,1.62128,-0.08631,25,32765
5.18195,1.62015,-0.0861412,26,32765
8.81386,6.47617,0.24215,13,32765
2.03521,1.48509,0.0533821,15,32765
1.98345,1.43734,0.0498736,18,32765
2.03695,1.46578,0.0489456,21,32765
2.01741,1.44162,0.0465855,21,32765
1.97334,1.40016,0.0433679,22,32765
2.01071,1.41662,0.0424659,23,32765
1.9499,1.3641,0.039209,22,32765
1.97909,1.37473,0.0379039,21,32765
1.95066,1.34557,0.0358582,21,32765
2.01279,1.37877,0.0352959,23,32765
1.97599,1.34405,0.0329587,22,32765
2.00526,1.35437,0.0316152,22,32765
1.9933,1.33636,0.029843,22,32765
1.99779,1.32968,0.0282628,24,32765
1.99393,1.31743,0.0267026,24,32765
1.99827,1.31086,0.0251822,22,32765
1.98578,1.29345,0.0235907,21,32765
2.01525,1.30317,0.0225097,23,32765
1.97744,1.26957,0.020707,21,32765
1.99857,1.27366,0.019448,22,32765
2.00283,1.26699,0.0179905,21,32765
2.0494,1.28688,0.0171016,21,32765
2.03671,1.26948,0.0156639,19,32765
1.99834,1.2365,0.0139369,19,32765
2.06208,1.26651,0.0130238,20,32765
2.05773,1.25447,0.0117377,22,32765
2.11323,1.27869,0.0106866,25,32765
2.1261,1.27672,0.00942486,27,32765
2.13896,1.27471,0.00807158,27,32765
2.12603,1.25731,0.00673709,26,32765
2.14751,1.26026,0.00558807,26,32765
2.13439,1.24308,0.00426174,27,32765
2.15581,1.24603,0.00297593,27,32765
2.14257,1.22894,0.00167465,27,32765
2.12061,1.20691,0.000590271,26,32765
2.11596,1.19483,-0.000688315,26,32765
2.15491,1.20717,-0.00164538,27,32765
2.1415,1.19016,-0.00282238,27,32765
2.15417,1.1879,-0.00392426,26,32765
2.17569,1.19027,-0.00509859,27,32765
2.16205,1.17351,-0.00612411,27,32765
2.16595,1.16629,-0.00725619,26,32765
2.16103,1.15428,-0.0084354,27,32765
2.20021,1.16579,-0.00939398,27,32765
2.1687,1.1398,-0.0104088,26,32765
2.19904,1.1465,-0.0122943,28,32765
2.22061,1.14836,-0.0133234,28,32765
2.22446,1.14086,-0.0144628,28,32765
2.21046,1.12428,-0.0156716,26,32765
2.23216,1.12568,-0.0168946,26,32765
2.22706,1.11355,-0.0178447,27,32765
2.26666,1.12373,-0.0190537,29,32765
2.26148,1.11162,-0.0201831,28,32765
2.24716,1.09535,-0.0214214,27,32765
2.27781,1.10088,-0.0230519,28,32765
2.27246,1.08892,-0.023823,28,32765
2.25808,1.07259,-0.0244438,27,32765
2.33412,1.09895,-0.0248375,28,32765
2.2834,1.06575,-0.025551,28,32765
2.34144,1.08321,-0.0270778,30,32765
2.33598,1.07112,-0.027988,30,32765
2.31224,1.05087,-0.0287494,29,32765
2.34311,1.05537,-0.0302524,30,32765
2.37401,1.05976,-0.0317182,29,32765
2.40495,1.06397,-0.0330199,27,32765
2.42684,1.06385,-0.0342703,27,32765
2.41201,1.0478,-0.0351729,25,32765
2.37877,1.02386,-0.0357885,20,32765
2.41893,1.03162,-0.0375101,13,32765
0,0,-0,0,32765
5.67245,2.37427,-0.0927941,20,32765
5.68033,2.35525,-0.0955837,20,32765
5.69744,2.33988,-0.0985264,20,32765
5.56628,2.26428,-0.0986367,19,32765
5.72209,2.3056,-0.103689,18,32765
5.54395,2.21244,-0.103385,21,32765
5.50459,2.176,-0.104723,20,32765
5.53037,2.16492,-0.108088,19,32765
5.46276,2.11801,-0.109142,22,32765
5.4136,2.0786,-0.111013,19,32765
5.3363,2.02869,-0.11159,18,32765
5.36164,2.01807,-0.114539,20,32765
5.46193,2.03521,-0.119035,16,32765
2.43878,0.899663,-0.0544632,20,32765
5.19333,1.89638,-0.118226,18,32765
5.28413,1.90978,-0.122971,20,32765
5.19608,1.85902,-0.123181,22,32765
5.09845,1.80517,-0.123414,20,32765
5.06646,1.77545,-0.125009,22,32765
5.06268,1.75575,-0.127482,18,32765
5.20063,1.78483,-0.133613,20,32765
5.13047,1.74259,-0.134365,19,32765
5.0128,1.68462,-0.134272,20,32765
4.98013,1.656,-0.135748,19,32765
5.04235,1.65865,-0.140305,17,32765
5.02854,1.63629,-0.142867,19,32765
4.98594,1.60531,-0.144708,19,32765
4.95276,1.57754,-0.146788,20,32765
4.8814,1.53768,-0.147819,19,32765
4.94349,1.53975,-0.153177,22,32765
8.80592,6.48997,0.140182,15,32765
8.94847,6.54948,0.13155,18,32765
0,0,0,0,32765
1.88919,1.36357,0.0237133,14,32765
1.97498,1.41557,0.0229896,18,32765
2.02047,1.43793,0.0213184,22,32765
1.99261,1.4081,0.0193667,21,32765
1.95636,1.37275,0.0170842,21,32765
2.00197,1.39481,0.0156179,22,32765
1.99007,1.37689,0.0140412,23,32765
1.98632,1.36473,0.0123798,23,32765
1.94124,1.32438,0.0104827,21,32765
1.96214,1.32922,0.00884918,22,32765
2.01649,1.35595,0.00754113,23,32765
2.01272,1.34363,0.0059147,22,32765
2.03393,1.34786,0.00448875,23,32765
2.0133,1.32466,0.00289845,22,32765
2.00923,1.31263,0.00148616,22,32765
2.00518,1.30052,0.00010402,22,32765
2.03465,1.31019,-0.00127021,22,32765
2.03906,1.30332,-0.00273785,21,32765
2.03496,1.29113,-0.00421059,20,32765
2.07311,1.30563,-0.0055669,22,32765
2.11137,1.31991,-0.00700489,25,32765
2.13268,1.32352,-0.00855931,28,32765
2.1626,1.33216,-0.0100578,29,32765
2.14141,1.30933,-0.0112246,28,32765
2.14575,1.30218,-0.0125918,27,32765
2.13299,1.28462,-0.0138039,28,32765
2.14587,1.28258,-0.0152584,28,32765
2.14158,1.27022,-0.0164794,28,32765
2.14585,1.26297,-0.0176852,28,32765
2.15002,1.25584,-0.0189791,28,32765
2.17146,1.25874,-0.0204645,29,32765
2.14961,1.23657,-0.0215045,28,32765
2.14506,1.22438,-0.0224971,27,32765
2.14047,1.21219,-0.0236999,27,32765
2.14459,1.20488,-0.0246441,27,32765
2.17485,1.2122,-0.0261565,28,32765
2.16134,1.19531,-0.0270433,28,32765
2.15657,1.18323,-0.0280691,28,32765
2.19561,1.19517,-0.0296116,29,32765
2.16439,1.16881,-0.0302719,28,32765
2.19474,1.17566,-0.0318715,29,32765
2.17216,1.15424,-0.0323006,28,32765
2.20255,1.16092,-0.0338813,29,32765
2.17977,1.13972,-0.0352184,28,32765
2.21018,1.14625,-0.0365762,29,32765
2.20513,1.13419,-0.0375616,29,32765
2.20893,1.12672,-0.0388879,29,32765
2.23062,1.12813,-0.0403002,29,32765
2.24341,1.12494,-0.0414894,29,32765
2.25617,1.12173,-0.0425754,29,32765
2.26892,1.11847,-0.0439558,29,32765
2.26362,1.10653,-0.0451934,29,32765
2.28528,1.10764,-0.0469327,30,32765
2.28897,1.09997,-0.0478038,29,32765
2.30172,1.09644,-0.0488202,30,32765
2.31452,1.09282,-0.0486291,30,32765
2.30004,1.07656,-0.0495523,30,32765
2.32179,1.07717,-0.0508558,31,32765
2.34358,1.07765,-0.0522741,31,32765
2.37445,1.0822,-0.054002,31,32765
2.36897,1.07003,-0.0549739,31,32765
2.37251,1.06209,-0.0560884,31,32765
2.39431,1.06226,-0.0574539,31,32765
2.40703,1.05815,-0.0586669,31,32765
2.41968,1.05411,-0.0600574,29,32765
2.4232,1.04593,-0.0612319,28,32765
2.43584,1.04177,-0.0626433,27,32765
2.44849,1.03748,-0.0641371,23,32765
5.53074,2.32149,-0.146798,22,32765
5.51998,2.29522,-0.149025,23,32765
5.46293,2.2499,-0.149959,22,32765
5.43335,2.21645,-0.151399,22,32765
5.42209,2.19089,-0.153188,23,32765
5.43856,2.17651,-0.156453,23,32765
5.39911,2.14032,-0.157284,22,32765
5.3224,2.0894,-0.157751,24,32765
5.30116,2.06116,-0.159363,22,32765
5.23319,2.015,-0.160016,22,32765
5.21176,1.98694,-0.161412,23,32765
5.23694,1.97671,-0.164493,26,32765
5.21531,1.94882,-0.166002,25,32765
5.13721,1.90048,-0.166224,20,32765
2.43091,0.890177,-0.0796816,23,32765
5.14012,1.863,-0.171033,23,32765
5.15546,1.84972,-0.17373,24,32765
5.11436,1.81595,-0.174845,26,32765
5.07299,1.78278,-0.17575,23,32765
5.03146,1.74988,-0.17681,23,32765
4.98029,1.71408,-0.177506,24,32765
4.97617,1.695,-0.179787,24,32765
4.94363,1.66612,-0.18151,22,32765
4.94884,1.6503,-0.183989,23,32765
4.87813,1.60922,-0.184081,24,32765
4.90216,1.59974,-0.187814,22,32765
4.82142,1.5568,-0.187627,22,32765
4.8452,1.54772,-0.191486,23,32765
4.72613,1.49307,-0.189784,22,32765
4.69265,1.46585,-0.191698,22,32765
8.81543,6.49542,0.015749,14,32765
8.82104,6.45399,0.0131197,14,32765
8.85032,6.43081,0.00999852,13,32765
8.91952,6.43755,0.00633334,14,32765
8.8678,6.35533,0.00300733,15,32765
1.97176,1.40305,-0.000176472,17,32765
1.98459,1.40225,-0.000957487,18,32765
1.95649,1.37268,-0.00189217,18,32765
1.97734,1.37776,-0.00281753,20,32765
1.99831,1.38262,-0.00354823,21,32765
1.99458,1.37041,-0.0046285,20,32765
2.01561,1.3751,-0.00546048,21,32765
1.99539,1.35147,-0.00677735,20,32765
2.02486,1.36143,-0.00777084,21,32765
2.00456,1.33782,-0.00852045,20,32765
2.00074,1.32549,-0.00961348,20,32765
1.98839,1.3079,-0.0105345,19,32765
1.9927,1.30131,-0.0116031,20,32765
2.03056,1.31645,-0.0129911,21,32765
2.02654,1.30424,-0.0140089,19,32765
2.06458,1.319,-0.0152624,19,32765
2.08588,1.32278,-0.0163872,23,32765
2.09871,1.32118,-0.0177146,25,32765
2.14545,1.34073,-0.018853,27,32765
2.12441,1.31776,-0.0197908,26,32765
2.14583,1.32112,-0.0211557,27,32765
2.12465,1.29826,-0.0218745,26,32765
2.16321,1.31182,-0.0233809,26,32765
2.12475,1.27877,-0.0242485,26,32765
2.12045,1.26648,-0.0253478,26,32765
2.15907,1.27976,-0.0268662,28,32765
2.12889,1.25218,-0.0275184,26,32765
2.14174,1.25,-0.0286709,25,32765
2.13728,1.23775,-0.0296897,26,32765
2.14145,1.2305,-0.0308735,27,32765
2.17162,1.23815,-0.0325587,28,32765
2.1409,1.21122,-0.0330926,26,32765
2.15364,1.20895,-0.0343434,26,32765
2.16637,1.20664,-0.0356639,27,32765
2.14413,1.18485,-0.0365287,26,32765
2.15686,1.18242,-0.0376779,27,32765
2.18714,1.18953,-0.0394186,27,32765
2.18237,1.1773,-0.0403235,27,32765
2.15989,1.15573,-0.0409262,27,32765
2.15491,1.14376,-0.0418898,27,32765
2.19413,1.15511,-0.0436818,28,32765
2.20684,1.15235,-0.045339,28,32765
2.2018,1.14032,-0.0462691,27,32765
2.23231,1.14656,-0.047832,28,32765
2.20052,1.12084,-0.0483507,28,32765
2.21323,1.11784,-0.0495305,27,32765
2.24378,1.12378,-0.0514657,28,32765
2.24753,1.11622,-0.0526595,28,32765
2.22436,1.09536,-0.0530266,27,32765
2.22802,1.08783,-0.0542541,27,32765
2.29463,1.11081,-0.0570051,28,32765
2.28029,1.09447,-0.0575442,27,32765
2.26585,1.07825,-0.0581282,27,32765
2.32365,1.0963,-0.0605357,30,32765
2.33633,1.09277,-0.0619586,30,32765
2.31277,1.07223,-0.0627226,29,32765
2.35271,1.08108,-0.0642962,30,32765
2.36547,1.07715,-0.0656182,29,32765
2.36903,1.06921,-0.0669438,30,32765
2.3544,1.05294,-0.0673514,28,32765
2.38533,1.05713,-0.0691583,30,32765
2.37963,1.04521,-0.0700579,29,32765
2.38308,1.03726,-0.0710562,28,32765
2.39564,1.03334,-0.0722844,26,32765
2.42667,1.037,-0.0740985,24,32765
2.44852,1.03664,-0.0756033,23,32765
0,0,-0,0,32765
5.41826,2.25169,-0.171076,21,32765
5.34234,2.19973,-0.170267,18,32765
5.33102,2.17447,-0.171776,19,32765
5.40294,2.18317,-0.175626,20,32765
5.22452,2.09093,-0.171198,18,32765
5.27788,2.0919,-0.174273,19,32765
5.32191,2.08909,-0.177083,18,32765
5.31018,2.06401,-0.178385,20,32765
5.11164,1.96762,-0.173301,22,32765
5.11802,1.95084,-0.174634,21,32765
5.13372,1.93751,-0.176391,23,32765
5.168,1.9314,-0.178617,21,32765
5.13681,1.90042,-0.178812,21,32765
2.42134,0.886724,-0.0849588,23,32765
5.0928,1.84597,-0.179499,19,32765
5.07999,1.82245,-0.179973,21,32765
5.07651,1.80236,-0.18059,20,32765
5.00696,1.75907,-0.179335,19,32765
4.94656,1.71973,-0.178031,19,32765
4.9521,1.70363,-0.178802,20,32765
4.90081,1.66824,-0.177254,19,32765
4.97241,1.67485,-0.180265,20,32765
4.8925,1.6301,-0.178361,20,32765
4.92617,1.62377,-0.179878,23,32765
4.85529,1.5833,-0.177372,21,32765
4.82222,1.55565,-0.176211,20,32765
4.86523,1.55247,-0.177439,21,32765
4.82267,1.52132,-0.176108,18,32765
4.81798,1.50291,-0.175565,22,32765
8.78085,6.49121,-0.0858746,18,32765
8.77037,6.43795,-0.0881635,19,32765
8.67033,6.32061,-0.0900347,18,32765
8.59336,6.22236,-0.0926284,17,32765
8.49231,6.10601,-0.0944712,17,32765
0,0,-0,0,32765
8.46785,6.00248,-0.100725,17,32765
1.94613,1.36982,-0.0240442,14,32765
1.99974,1.39785,-0.0255739,17,32765
2.02076,1.40265,-0.0265026,22,32765
2.03357,1.40168,-0.0277304,23,32765
2.03819,1.39495,-0.0285368,23,32765
2.04288,1.38804,-0.0299576,23,32765
2.04757,1.38109,-0.0308808,23,32765
2.03568,1.3629,-0.0314928,22,32765
2.04861,1.36151,-0.0327805,20,32765
1.98632,1.31067,-0.032718,17,32765
1.95718,1.28216,-0.0332212,14,32765
1.94466,1.26473,-0.0340831,12,32765
2.06647,1.33413,-0.0372361,14,32765
2.13826,1.37036,-0.0395083,23,32765
2.18502,1.39,-0.0413374,26,32765
2.15579,1.36136,-0.0419981,27,32765
2.13486,1.33828,-0.0422849,29,32765
2.17325,1.35227,-0.0441478,29,32765
2.16075,1.33445,-0.0450214,29,32765
2.16521,1.32716,-0.0460142,29,32765
2.16967,1.31982,-0.0471762,28,32765
2.12271,1.2815,-0.0473937,28,32765
2.15273,1.28974,-0.0491858,28,32765
2.16562,1.28761,-0.0504964,29,32765
2.17855,1.28535,-0.0518058,29,32765
2.16563,1.26784,-0.0524523,29,32765
2.16123,1.25548,-0.0533939,28,32765
2.16546,1.24812,-0.0545943,28,32765
2.15227,1.23088,-0.0554594,28,32765
2.16503,1.22863,-0.056753,28,32765
2.16911,1.22136,-0.0578805,29,32765
2.16441,1.20924,-0.0588316,28,32765
2.16844,1.20194,-0.0601458,29,32765
2.18122,1.19942,-0.0614028,29,32765
2.17642,1.18731,-0.0624343,29,32765
2.18924,1.1846,-0.0637558,28,32765
2.17561,1.16768,-0.0643453,28,32765
2.17951,1.16033,-0.0654918,28,32765
2.19223,1.15761,-0.0668643,29,32765
2.19607,1.15022,-0.0683412,29,32765
2.22652,1.15662,-0.0702957,30,32765
2.21263,1.1399,-0.0707329,29,32765
2.22535,1.13692,-0.0723154,30,32765
2.22919,1.12931,-0.0733095,29,32765
2.22403,1.11726,-0.0743435,29,32765
2.24564,1.11866,-0.0761364,29,32765
2.27627,1.12432,-0.0780691,30,32765
2.27106,1.11219,-0.0790159,30,32765
2.27476,1.10451,-0.0802279,30,32765
2.27842,1.09687,-0.0812161,30,32765
2.29106,1.09353,-0.0825904,30,32765
2.31273,1.09443,-0.0842568,31,32765
2.30729,1.08244,-0.085103,30,32765
2.32902,1.08302,-0.0872682,31,32765
2.32359,1.07091,-0.0875139,31,32765
2.32722,1.06292,-0.0885732,31,32765
2.33073,1.05509,-0.08988,30,32765
2.35254,1.05526,-0.0915068,29,32765
2.36519,1.05136,-0.0928793,31,32765
2.35033,1.03544,-0.0933151,30,32765
2.38122,1.03956,-0.0954045,31,32765
2.37544,1.0277,-0.0959871,31,32765
2.39725,1.0275,-0.0977023,31,32765
2.40066,1.01942,-0.09863,30,32765
2.404,1.01143,-0.0995336,28,32765
2.42576,1.0111,-0.101288,24,32765
2.41979,0.99934,-0.101727,17,32765
5.20679,2.13016,-0.220651,22,32765
5.1674,2.09424,-0.220382,23,32765
5.14646,2.06584,-0.220776,22,32765
5.13471,2.04123,-0.221498,25,32765
5.15996,2.03156,-0.223839,25,32765
5.16667,2.01422,-0.225714,25,32765
5.14521,1.98645,-0.226311,26,32765
5.06766,1.93741,-0.223946,23,32765
5.06462,1.91713,-0.224958,24,32765
4.9772,1.86564,-0.222027,21,32765
5.03013,1.8665,-0.225577,24,32765
4.98932,1.8326,-0.225075,23,32765
2.41316,0.877297,-0.109216,22,32765
2.40661,0.865945,-0.109331,17,32765
4.93182,1.75621,-0.224715,24,32765
4.9187,1.73321,-0.225261,24,32765
4.84884,1.69078,-0.222853,24,32765
4.85429,1.67496,-0.223613,26,32765
4.86914,1.66239,-0.224548,24,32765
4.6662,1.57639,-0.215537,21,32765
4.81344,1.60853,-0.223266,23,32765
4.65732,1.53972,-0.216253,21,32765
4.70017,1.53727,-0.218276,21,32765
4.72403,1.5285,-0.219384,22,32765
4.71937,1.5104,-0.21879,22,32765
4.64814,1.47061,-0.215655,21,32765
4.62424,1.44675,-0.214146,21,32765
8.80893,6.48728,-0.0396297,13,32765
8.82245,6.45188,-0.050392,15,32765
8.77874,6.37595,-0.0595592,17,32765
8.69431,6.27078,-0.0678762,16,32765
8.56848,6.13736,-0.0746401,14,32765
8.44207,6.00452,-0.082407,15,32765
1.99298,1.40754,-0.0212629,15,32765
2.0386,1.42957,-0.0234856,19,32765
2.00227,1.39424,-0.0249355,20,32765
2.02322,1.39909,-0.027049,22,32765
2.01127,1.38115,-0.0284533,22,32765
1.99928,1.36323,-0.029919,21,32765
2.02867,1.37331,-0.0318108,21,32765
2.01678,1.35513,-0.0333957,20,32765
1.99636,1.33167,-0.0347012,19,32765
2.05914,1.36362,-0.0373936,14,32765
7.40236,4.86673,-0.140174,14,32765
7.37628,4.81516,-0.144414,15,32765
7.24934,4.69841,-0.14717,15,32765
2.13569,1.3742,-0.0448309,18,32765
2.14858,1.37257,-0.0465988,23,32765
2.15314,1.36534,-0.0482837,26,32765
2.13223,1.34223,-0.0490756,26,32765
2.17063,1.35621,-0.0515419,28,32765
2.1496,1.3332,-0.0520815,27,32765
2.17104,1.33647,-0.0542795,27,32765
2.14987,1.31356,-0.0549823,27,32765
2.15421,1.30636,-0.0567229,27,32765
2.12433,1.27842,-0.0572397,26,32765
2.14574,1.28154,-0.0588312,26,32765
2.15001,1.2743,-0.0602365,27,32765
2.14562,1.262,-0.0614042,27,32765
2.15842,1.25986,-0.0629249,27,32765
2.15395,1.24759,-0.0639816,26,32765
2.14941,1.23539,-0.0649635,26,32765
2.1796,1.24295,-0.0671297,27,32765
2.17504,1.23066,-0.0682444,27,32765
2.17042,1.21844,-0.0691692,27,32765
2.17445,1.21114,-0.0705646,26,32765
2.12594,1.17489,-0.0700059,25,32765
2.14735,1.17738,-0.0716852,26,32765
2.15122,1.17023,-0.0729742,27,32765
2.15504,1.16311,-0.0741049,26,32765
2.19413,1.17475,-0.0763836,27,32765
2.18032,1.1581,-0.0768465,28,32765
2.19299,1.15545,-0.0783508,28,32765
2.18799,1.14338,-0.0792762,26,32765
2.20071,1.14051,-0.0805764,26,32765
2.22236,1.14207,-0.0823817,29,32765
2.2084,1.12541,-0.0827762,27,32765
2.19437,1.10879,-0.0832063,27,32765
2.24277,1.12369,-0.0861128,27,32765
2.24652,1.11607,-0.0873576,28,32765
2.27714,1.12171,-0.0894941,29,32765
2.27186,1.10968,-0.0902811,29,32765
2.26658,1.09761,-0.0910122,29,32765
2.28825,1.09858,-0.0928539,29,32765
2.32801,1.10803,-0.0950084,30,32765
2.31362,1.09163,-0.0954521,29,32765
2.30815,1.07965,-0.0963643,30,32765
2.31173,1.07186,-0.0975926,30,32765
2.31531,1.06403,-0.0985214,29,32765
2.32788,1.06044,-0.100147,29,32765
2.33142,1.05253,-0.101173,29,32765
2.34403,1.04877,-0.102649,29,32765
2.3475,1.04085,-0.103799,29,32765
2.34181,1.02891,-0.104308,30,32765
2.35437,1.02501,-0.105809,30,32765
2.35776,1.01706,-0.107023,30,32765
2.36111,1.00916,-0.108004,28,32765
2.38286,1.00892,-0.11037,28,32765
2.39541,1.00476,-0.111685,27,32765
