x, y, z, intensity, ring
1.31953,0.052703,-0.157971,19,32765
1.33952,0.0489759,-0.160598,19,32765
1.32972,0.0441219,-0.159706,20,32765
1.33975,0.0400223,-0.161164,20,32765
1.30013,0.0344608,-0.156724,19,32765
1.32005,0.0305896,-0.159505,20,32765
1.3201,0.0261647,-0.15982,19,32765
1.3003,0.0214213,-0.157698,19,32765
1.2904,0.0169266,-0.156822,20,32765
1.32017,0.0128956,-0.16085,19,32765
1.31025,0.00852029,-0.159928,19,32765
1.29037,0.00409938,-0.157895,19,32765
1.27045,-0.000148553,-0.156029,19,32765
1.31012,-0.00445564,-0.161119,19,32765
1.30012,-0.00870737,-0.16038,19,32765
1.30001,-0.0129556,-0.160936,19,32765
1.28999,-0.0171512,-0.160097,19,32765
4.00422,1.34958,-0.455345,18,32765
3.97101,1.32364,-0.450735,18,32765
3.98478,1.31355,-0.452226,17,32765
3.99852,1.30347,-0.45354,18,32765
3.98385,1.28409,-0.45185,18,32765
4.03549,1.28565,-0.457718,17,32765
3.91646,1.23323,-0.444271,16,32765
3.96799,1.23467,-0.450608,17,32765
3.96261,1.21829,-0.449858,17,32765
3.95708,1.20211,-0.449481,18,32765
3.98957,1.19734,-0.453631,18,32765
3.87908,1.14999,-0.441753,17,32765
3.9592,1.15917,-0.451218,17,32765
1.69023,0.488665,-0.192915,19,32765
1.70139,0.485696,-0.194321,20,32765
1.72213,0.485294,-0.196877,20,32765
1.72372,0.479454,-0.197271,18,32765
1.70609,0.468429,-0.195558,17,32765
1.66922,0.452262,-0.191713,16,32765
1.67069,0.446668,-0.192042,18,32765
1.64335,0.433322,-0.18904,18,32765
1.67362,0.435201,-0.192894,17,32765
1.63653,0.419615,-0.188943,17,32765
1.63791,0.41401,-0.189335,18,32765
1.65854,0.413337,-0.191786,18,32765
1.63093,0.400568,-0.189018,18,32765
1.58391,0.383417,-0.183864,17,32765
1.5948,0.380386,-0.185499,18,32765
1.57672,0.370393,-0.18351,17,32765
1.60699,0.371618,-0.187312,18,32765
1.56948,0.357105,-0.183326,18,32765
1.55126,0.347326,-0.181517,18,32765
1.5524,0.341975,-0.181987,17,32765
1.5438,0.334561,-0.181209,18,32765
1.5546,0.331391,-0.182732,18,32765
1.53623,0.321994,-0.180889,18,32765
1.51782,0.312733,-0.17894,18,32765
1.52855,0.309508,-0.180666,19,32765
1.49059,0.296562,-0.176304,18,32765
1.5208,0.297168,-0.180198,18,32765
1.50225,0.288165,-0.178314,18,32765
1.51295,0.284862,-0.179806,18,32765
1.50408,0.277888,-0.179192,18,32765
1.47567,0.267456,-0.176005,19,32765
1.49609,0.265917,-0.178618,18,32765
1.49695,0.260734,-0.179008,18,32765
1.47821,0.25227,-0.17704,18,32765
1.46923,0.245555,-0.176261,18,32765
1.47002,0.240489,-0.176628,19,32765
1.461,0.233896,-0.175688,18,32765
1.45194,0.227299,-0.174909,18,32765
1.4723,0.225373,-0.1776,19,32765
1.47304,0.22026,-0.177879,20,32765
1.44427,0.21087,-0.174712,18,32765
1.48427,0.211511,-0.179749,19,32765
1.45544,0.202299,-0.176548,18,32765
1.44625,0.196058,-0.175524,18,32765
1.43703,0.189891,-0.174642,18,32765
1.44747,0.186305,-0.176109,19,32765
1.43821,0.180204,-0.175186,19,32765
1.4585,0.177693,-0.177771,19,32765
1.44921,0.171544,-0.176831,18,32765
1.44976,0.16662,-0.177015,19,32765
1.4207,0.158414,-0.173581,19,32765
1.43108,0.154704,-0.174891,19,32765
1.41181,0.147734,-0.172792,19,32765
1.42218,0.143907,-0.174038,19,32765
1.41275,0.138071,-0.173133,19,32765
1.41322,0.133214,-0.173119,19,32765
1.41364,0.128439,-0.173267,19,32765
1.44373,0.126221,-0.176977,19,32765
1.39467,0.117165,-0.171055,18,32765
1.40494,0.113254,-0.172381,18,32765
1.40531,0.1085,-0.172469,19,32765
1.38584,0.102311,-0.170202,18,32765
1.39608,0.0983283,-0.171427,18,32765
1.3865,0.0929494,-0.170214,19,32765
1.39672,0.0889302,-0.171399,18,32765
1.36727,0.0824279,-0.167833,18,32765
1.41708,0.0807547,-0.173989,19,32765
1.36779,0.0733716,-0.16785,19,32765
1.38784,0.0698271,-0.170355,19,32765
1.398,0.0656556,-0.171447,19,32765
1.39821,0.0609725,-0.171479,19,32765
1.35875,0.0546805,-0.166476,19,32765
1.349,0.049744,-0.165284,19,32765
1.37894,0.0462088,-0.168812,19,32765
1.36918,0.0412428,-0.167488,18,32765
1.36931,0.0366093,-0.167469,19,32765
1.36947,0.0320753,-0.167115,19,32765
1.34972,0.0270772,-0.164673,18,32765
1.34982,0.0226074,-0.164536,19,32765
1.33998,0.0180368,-0.163204,18,32765
1.33012,0.0135208,-0.161884,18,32765
1.35005,0.00928147,-0.163932,18,32765
1.33025,0.00466572,-0.161321,18,32765
1.37,0.000263024,-0.165819,18,32765
1.34023,-0.0041608,-0.162029,17,32765
1.32041,-0.00851552,-0.159193,18,32765
1.31048,-0.0128574,-0.157704,18,32765
1.35021,-0.0178085,-0.161951,18,32765
3.87632,1.31085,-0.479818,20,32765
3.81479,1.27583,-0.471358,19,32765
3.76239,1.24439,-0.464776,18,32765
3.84198,1.25663,-0.474331,20,32765
3.84608,1.24384,-0.474775,20,32765
3.8124,1.21864,-0.470586,20,32765
3.85431,1.21771,-0.475774,20,32765
3.82041,1.19272,-0.472025,20,32765
3.79593,1.17095,-0.46883,19,32765
3.79026,1.15528,-0.468333,21,32765
3.82257,1.15105,-0.472729,20,32765
3.79774,1.12963,-0.470295,20,32765
3.80147,1.11671,-0.471049,21,32765
3.70975,1.07611,-0.460274,18,32765
1.63231,0.467533,-0.202636,20,32765
1.73896,0.491675,-0.216049,19,32765
1.63537,0.456402,-0.203367,18,32765
1.63683,0.450919,-0.203828,19,32765
1.66703,0.45318,-0.207954,18,32765
1.59179,0.426998,-0.198708,20,32765
1.62201,0.429127,-0.202606,20,32765
1.60419,0.418547,-0.200724,20,32765
1.59594,0.410582,-0.199995,20,32765
1.59729,0.4051,-0.200379,20,32765
1.58898,0.397333,-0.199387,20,32765
1.58063,0.389521,-0.198739,19,32765
1.56258,0.379526,-0.196749,20,32765
1.57344,0.376557,-0.198473,19,32765
1.54571,0.364334,-0.195075,19,32765
1.52758,0.354449,-0.193041,19,32765
1.51909,0.34681,-0.192332,19,32765
1.53959,0.345883,-0.195233,20,32765
1.51165,0.334131,-0.192008,19,32765
1.48365,0.322619,-0.188663,19,32765
1.48469,0.317567,-0.18903,19,32765
1.49543,0.314513,-0.190696,19,32765
1.47702,0.305368,-0.188552,19,32765
1.46827,0.298321,-0.187869,19,32765
1.45951,0.291375,-0.186861,19,32765
1.48966,0.292086,-0.191028,19,32765
1.4419,0.277541,-0.185196,19,32765
1.4623,0.276277,-0.188022,19,32765
1.44366,0.267649,-0.18604,19,32765
1.42501,0.259171,-0.183821,20,32765
1.42585,0.254314,-0.18409,20,32765
1.42667,0.249361,-0.184462,20,32765
1.42747,0.244465,-0.184822,19,32765
1.42826,0.239546,-0.185205,19,32765
1.42903,0.234607,-0.185563,19,32765
1.42979,0.22971,-0.185797,19,32765
1.42073,0.223204,-0.184917,19,32765
1.40184,0.215352,-0.182678,20,32765
1.40255,0.21047,-0.182945,20,32765
1.42284,0.208488,-0.185889,20,32765
1.39406,0.199374,-0.182309,20,32765
1.38488,0.193189,-0.181379,20,32765
1.39533,0.189844,-0.182828,21,32765
1.38609,0.183831,-0.181842,20,32765
1.37683,0.177866,-0.180811,20,32765
1.37739,0.173224,-0.181075,20,32765
1.37795,0.168505,-0.181251,20,32765
1.36864,0.162615,-0.180203,20,32765
1.35932,0.156815,-0.17908,21,32765
1.37952,0.154407,-0.181849,20,32765
1.37017,0.148687,-0.180652,20,32765
1.37063,0.143978,-0.180956,20,32765
1.36125,0.138277,-0.179691,20,32765
1.37154,0.13457,-0.181289,20,32765
1.372,0.129841,-0.181275,20,32765
1.36254,0.124291,-0.180115,20,32765
1.35307,0.118773,-0.17888,20,32765
1.33369,0.1125,-0.176401,19,32765
1.35381,0.109584,-0.179124,20,32765
1.35416,0.10499,-0.179209,20,32765
1.3446,0.0996886,-0.17806,20,32765
1.32515,0.0937353,-0.17545,19,32765
1.33535,0.089913,-0.176762,20,32765
1.34555,0.0860544,-0.178042,19,32765
1.34582,0.0815036,-0.178122,20,32765
1.34607,0.0770647,-0.178194,21,32765
1.33643,0.0720302,-0.17683,20,32765
1.31685,0.0665784,-0.174279,20,32765
1.33689,0.0631006,-0.176781,19,32765
1.33709,0.0586094,-0.176812,19,32765
1.32739,0.0537053,-0.175367,20,32765
1.29784,0.0481252,-0.171463,20,32765
1.30792,0.044086,-0.172661,19,32765
1.28825,0.0390457,-0.169942,20,32765
1.3082,0.0352071,-0.172538,19,32765
1.28853,0.0303951,-0.169592,19,32765
1.29854,0.026255,-0.170877,19,32765
1.30855,0.0221099,-0.172049,20,32765
1.29872,0.0176614,-0.170627,20,32765
1.27896,0.0131657,-0.167915,19,32765
1.27904,0.0089459,-0.167566,19,32765
1.29892,0.00469818,-0.16997,19,32765
1.27913,0.000373403,-0.167078,19,32765
1.25932,-0.00379573,-0.164313,19,32765
1.24944,-0.00795707,-0.162607,20,32765
1.26927,-0.0123631,-0.164906,20,32765
1.2792,-0.016794,-0.16569,20,32765
3.96369,1.33662,-0.476127,17,32765
3.90163,1.30167,-0.471725,17,32765
3.94324,1.30143,-0.479091,18,32765
3.85271,1.25749,-0.470867,17,32765
3.88483,1.25394,-0.477291,18,32765
3.80348,1.21384,-0.469557,18,32765
3.82609,1.20728,-0.474435,17,32765
3.78236,1.17981,-0.471015,19,32765
3.88084,1.19647,-0.485459,18,32765
3.79904,1.15758,-0.476755,18,32765
3.82167,1.15043,-0.481375,19,32765
3.7872,1.12616,-0.478852,19,32765
3.74317,1.09911,-0.474893,18,32765
3.8325,1.111,-0.487898,19,32765
1.70808,0.488889,-0.218055,18,32765
1.80511,0.51003,-0.231407,16,32765
1.66333,0.4639,-0.21383,19,32765
1.69347,0.466199,-0.218428,17,32765
1.60877,0.437067,-0.20794,19,32765
1.6197,0.434264,-0.209981,20,32765
1.64027,0.433827,-0.213129,19,32765
1.6416,0.428336,-0.213982,19,32765
1.62371,0.417962,-0.212082,19,32765
1.63465,0.414919,-0.213909,18,32765
1.61669,0.404616,-0.21214,17,32765
1.61798,0.398991,-0.212916,18,32765
1.59035,0.386371,-0.209762,18,32765
1.60126,0.383206,-0.211482,17,32765
1.60249,0.377698,-0.21206,18,32765
1.52639,0.354316,-0.202435,18,32765
1.55655,0.355692,-0.206752,17,32765
1.58669,0.356905,-0.211247,18,32765
1.52007,0.336498,-0.202601,18,32765
1.54054,0.335467,-0.205679,18,32765
1.52222,0.326037,-0.203614,18,32765
1.53298,0.322729,-0.205444,18,32765
1.50492,0.31139,-0.201906,18,32765
1.4962,0.304232,-0.201095,17,32765
1.49718,0.299065,-0.201491,18,32765
1.4787,0.29011,-0.199185,18,32765
1.48937,0.286919,-0.200894,18,32765
1.47079,0.278162,-0.198742,19,32765
1.48144,0.274981,-0.200331,18,32765
1.49208,0.27168,-0.20196,19,32765
1.4832,0.264788,-0.201035,19,32765
1.4743,0.257958,-0.200014,19,32765
1.4849,0.254545,-0.201677,18,32765
1.45639,0.244601,-0.197974,18,32765
1.43764,0.236405,-0.195491,18,32765
1.46776,0.236193,-0.199719,19,32765
1.46855,0.231008,-0.199958,19,32765
1.45952,0.224352,-0.198911,19,32765
1.45046,0.217841,-0.197787,19,32765
1.46096,0.214357,-0.199401,19,32765
1.44202,0.206587,-0.196943,19,32765
1.42308,0.198882,-0.194411,19,32765
1.43354,0.195257,-0.19604,19,32765
1.41455,0.187654,-0.193512,19,32765
1.41514,0.182761,-0.193831,19,32765
1.42556,0.179178,-0.195353,20,32765
1.4163,0.173142,-0.194196,19,32765
1.40702,0.167157,-0.192995,18,32765
1.41738,0.163537,-0.194643,19,32765
1.43761,0.160875,-0.197496,19,32765
1.41841,0.153815,-0.195053,19,32765
1.39919,0.14685,-0.192591,18,32765
1.42924,0.145027,-0.196798,19,32765
1.39028,0.13629,-0.19145,18,32765
1.39069,0.131546,-0.19178,19,32765
1.41083,0.128664,-0.194699,19,32765
1.40134,0.123015,-0.193694,19,32765
1.39183,0.117431,-0.192651,18,32765
1.39221,0.112758,-0.19268,18,32765
1.39255,0.108022,-0.192936,19,32765
1.383,0.102569,-0.191837,19,32765
1.36355,0.0964728,-0.189252,18,32765
1.34407,0.0905044,-0.186794,18,32765
1.39377,0.0891598,-0.193808,19,32765
1.36435,0.0826964,-0.189992,18,32765
1.38437,0.0792782,-0.192959,18,32765
1.39447,0.0751774,-0.194666,19,32765
1.35511,0.0684527,-0.18948,19,32765
1.34541,0.063418,-0.188282,18,32765
1.35547,0.059286,-0.189964,18,32765
1.36551,0.0551167,-0.191688,19,32765
1.30626,0.0483244,-0.183692,19,32765
1.31626,0.0442555,-0.185465,19,32765
1.31635,0.0398834,-0.185793,19,32765
1.32634,0.0357592,-0.187437,19,32765
1.31652,0.0311353,-0.186311,19,32765
1.31654,0.0266556,-0.186821,19,32765
1.31659,0.0221978,-0.187077,19,32765
1.30671,0.0176349,-0.185982,19,32765
1.33639,0.0135815,-0.190706,18,32765
1.29677,0.00894069,-0.185497,19,32765
1.29674,0.00467453,-0.185847,19,32765
1.30657,0.000408583,-0.187795,19,32765
1.2966,-0.00390979,-0.18685,19,32765
1.28661,-0.0082054,-0.185949,20,32765
1.27659,-0.0124116,-0.185112,19,32765
1.28636,-0.0167528,-0.187088,20,32765
3.80749,1.28831,-0.495749,20,32765
3.74537,1.25379,-0.490558,19,32765
3.77734,1.25093,-0.49695,19,32765
3.74336,1.22596,-0.495143,19,32765
3.75645,1.21664,-0.499259,21,32765
3.73179,1.19503,-0.498165,20,32765
3.76375,1.19167,-0.504454,21,32765
3.7011,1.15842,-0.497985,20,32765
3.67619,1.13726,-0.496668,20,32765
3.6702,1.12215,-0.497303,20,32765
3.68319,1.11255,-0.500748,20,32765
3.69615,1.10286,-0.504255,20,32765
3.6426,1.07326,-0.498482,21,32765
3.67459,1.06889,-0.504432,20,32765
3.61128,1.03719,-0.496994,17,32765
0,0,-0,0,32765
1.65136,0.462153,-0.228716,12,32765
1.6719,0.461851,-0.232261,13,32765
1.56818,0.427515,-0.218267,21,32765
1.57906,0.424837,-0.220382,22,32765
1.59957,0.424532,-0.223702,20,32765
1.59129,0.416651,-0.22319,20,32765
1.58298,0.408895,-0.222435,20,32765
1.58428,0.403533,-0.222991,19,32765
1.5567,0.390959,-0.219658,20,32765
1.54833,0.383147,-0.219046,19,32765
1.56881,0.38247,-0.222407,19,32765
1.54116,0.370115,-0.218747,20,32765
1.52307,0.360237,-0.216564,19,32765
1.50491,0.350555,-0.21441,20,32765
1.51569,0.347575,-0.216247,19,32765
1.51679,0.342383,-0.216862,19,32765
1.47922,0.32861,-0.211699,18,32765
1.49963,0.327715,-0.214951,19,32765
1.48131,0.3184,-0.212688,19,32765
1.47266,0.311132,-0.211811,19,32765
1.4446,0.299973,-0.207979,19,32765
1.46496,0.298943,-0.211253,19,32765
1.46593,0.293869,-0.211642,20,32765
1.44746,0.284998,-0.209144,20,32765
1.43865,0.278144,-0.208127,20,32765
1.44925,0.275076,-0.210001,20,32765
1.43068,0.266518,-0.207447,19,32765
1.44128,0.26338,-0.20916,19,32765
1.42264,0.254898,-0.206713,20,32765
1.40397,0.246547,-0.204169,20,32765
1.41452,0.243366,-0.205911,20,32765
1.39578,0.235281,-0.203337,19,32765
1.40632,0.232105,-0.204931,20,32765
1.3973,0.225685,-0.203735,20,32765
1.38828,0.21919,-0.202537,19,32765
1.39879,0.215816,-0.204239,20,32765
1.38971,0.209497,-0.203013,21,32765
1.38059,0.203324,-0.201847,21,32765
1.37144,0.197215,-0.200624,20,32765
1.37209,0.192482,-0.200767,20,32765
1.38252,0.189025,-0.202479,20,32765
1.38315,0.184191,-0.202634,20,32765
1.3543,0.175576,-0.198629,20,32765
1.3745,0.173429,-0.201678,20,32765
1.37505,0.168755,-0.201863,19,32765
1.3363,0.159377,-0.196237,19,32765
1.36628,0.158263,-0.200854,19,32765
1.36679,0.153558,-0.200997,20,32765
1.36727,0.148864,-0.20125,20,32765
1.34807,0.142055,-0.198594,20,32765
1.35837,0.138398,-0.200175,20,32765
1.34898,0.132786,-0.198804,20,32765
1.33953,0.127234,-0.19767,20,32765
1.34978,0.123613,-0.199315,20,32765
1.34028,0.118155,-0.198201,20,32765
1.34063,0.113597,-0.198511,20,32765
1.341,0.109083,-0.19854,20,32765
1.35119,0.105276,-0.200249,20,32765
1.31204,0.097743,-0.194657,20,32765
1.34195,0.0953772,-0.199202,20,32765
1.31261,0.088797,-0.195086,20,32765
1.29314,0.0831142,-0.192289,20,32765
1.32299,0.0805767,-0.196992,20,32765
1.2936,0.0744462,-0.192781,20,32765
1.29379,0.0701034,-0.193086,21,32765
1.29398,0.0657057,-0.193408,20,32765
1.29416,0.0613306,-0.193586,20,32765
1.28444,0.0564923,-0.192391,20,32765
1.28458,0.0521505,-0.192708,20,32765
1.2847,0.0478145,-0.193042,20,32765
1.2848,0.043473,-0.193414,20,32765
1.26512,0.03859,-0.190754,20,32765
1.25532,0.0340892,-0.189498,20,32765
1.27516,0.0303935,-0.192746,20,32765
1.25541,0.0256383,-0.190244,21,32765
1.25545,0.0213751,-0.190489,21,32765
1.24558,0.0170042,-0.189286,21,32765
1.23568,0.012739,-0.188244,21,32765
1.25542,0.00882768,-0.191683,20,32765
1.24551,0.0046487,-0.190511,20,32765
1.23555,0.00053233,-0.189499,20,32765
1.25525,-0.00364881,-0.192994,18,32765
1.23538,-0.00775649,-0.190459,19,32765
1.25502,-0.0120898,-0.19409,19,32765
1.24501,-0.0161149,-0.193085,19,32765
3.68762,1.25111,-0.530209,19,32765
3.729,1.25153,-0.537677,18,32765
3.65769,1.21441,-0.527861,18,32765
3.68972,1.21147,-0.53354,18,32765
3.67475,1.19299,-0.531946,17,32765
3.6597,1.17451,-0.530594,17,32765
3.62567,1.15016,-0.526554,17,32765
3.64826,1.1439,-0.53037,17,32765
3.63299,1.12582,-0.528652,18,32765
3.59872,1.10208,-0.524084,17,32765
3.59283,1.08698,-0.523604,17,32765
3.65333,1.09168,-0.532847,18,32765
3.65689,1.07917,-0.533911,18,32765
3.64143,1.06111,-0.531892,17,32765
3.58773,1.0324,-0.52461,14,32765
0,0,-0,0,32765
0,0,-0,0,32765
1.63186,0.451619,-0.239144,14,32765
1.58556,0.433032,-0.232573,20,32765
1.60607,0.432819,-0.235782,20,32765
1.6362,0.434886,-0.240499,19,32765
1.61846,0.424258,-0.238128,19,32765
1.61987,0.418658,-0.238426,18,32765
1.62125,0.413109,-0.238729,18,32765
1.58418,0.397967,-0.233446,18,32765
1.59508,0.394952,-0.235231,18,32765
1.58673,0.387209,-0.234231,18,32765
1.57836,0.379508,-0.233114,18,32765
1.5507,0.367254,-0.22925,19,32765
1.53262,0.357366,-0.226834,18,32765
1.53382,0.351947,-0.227236,17,32765
1.54466,0.348659,-0.229075,18,32765
1.48786,0.330343,-0.220778,18,32765
1.54695,0.337833,-0.229808,18,32765
1.48033,0.317971,-0.22006,17,32765
1.49103,0.314934,-0.221905,18,32765
1.49205,0.309803,-0.22229,19,32765
1.50273,0.30667,-0.224202,18,32765
1.47463,0.295647,-0.220149,19,32765
1.48528,0.292474,-0.222034,19,32765
1.49595,0.289178,-0.223877,18,32765
1.458,0.276577,-0.218472,18,32765
1.4589,0.271505,-0.218844,19,32765
1.46951,0.268202,-0.220711,19,32765
1.46062,0.261401,-0.219663,19,32765
1.44198,0.252927,-0.217062,19,32765
1.46227,0.25128,-0.220484,19,32765
1.45332,0.244641,-0.219333,19,32765
1.44432,0.238028,-0.218337,19,32765
1.43532,0.231549,-0.217117,19,32765
1.41652,0.223503,-0.214529,19,32765
1.45632,0.224613,-0.220836,19,32765
1.39836,0.210653,-0.212381,19,32765
1.39904,0.205735,-0.212745,19,32765
1.40949,0.202307,-0.214473,19,32765
1.41993,0.198786,-0.216317,19,32765
1.41074,0.192522,-0.215289,19,32765
1.41136,0.187697,-0.215496,19,32765
1.41194,0.182878,-0.215817,18,32765
1.44194,0.181806,-0.220549,18,32765
1.41306,0.173301,-0.216413,19,32765
1.39398,0.16614,-0.21357,18,32765
1.39448,0.161436,-0.213911,19,32765
1.40481,0.157745,-0.215702,19,32765
1.39547,0.151893,-0.214453,19,32765
1.40577,0.148122,-0.21625,19,32765
1.38657,0.141278,-0.213461,18,32765
1.37718,0.13555,-0.212164,19,32765
1.3776,0.130886,-0.212366,19,32765
1.35833,0.124433,-0.209399,19,32765
1.32918,0.117192,-0.205075,18,32765
1.35905,0.115162,-0.210062,18,32765
1.32002,0.107362,-0.204016,18,32765
1.34007,0.10443,-0.20717,19,32765
1.3207,0.0984147,-0.204147,20,32765
1.33086,0.0946581,-0.205813,19,32765
1.31142,0.0887815,-0.202937,19,32765
1.31169,0.0843499,-0.203127,19,32765
1.31197,0.0799093,-0.203082,19,32765
1.33197,0.0766008,-0.206155,19,32765
1.32233,0.0716191,-0.204756,19,32765
1.32255,0.0671383,-0.204813,19,32765
1.3129,0.0622416,-0.203297,19,32765
1.30323,0.0574255,-0.20174,19,32765
1.31329,0.0534711,-0.20326,19,32765
1.31347,0.0490901,-0.203171,20,32765
1.30376,0.0443047,-0.201625,20,32765
1.31378,0.0401992,-0.203135,20,32765
1.30402,0.0355481,-0.201649,20,32765
1.29428,0.0309392,-0.199961,20,32765
1.30428,0.0267805,-0.20133,20,32765
1.2945,0.0222138,-0.199719,20,32765
1.2847,0.0177586,-0.198071,19,32765
1.30455,0.013778,-0.200929,20,32765
1.29474,0.00941065,-0.19913,20,32765
1.27504,0.0051161,-0.195847,19,32765
1.24543,0.000813977,-0.191074,19,32765
1.25535,-0.00334036,-0.1923,19,32765
1.26527,-0.0075962,-0.193505,19,32765
1.28508,-0.0119772,-0.19605,19,32765
1.28511,-0.0162115,-0.195549,19,32765
3.59708,1.22475,-0.553703,21,32765
3.57268,1.20335,-0.551366,20,32765
3.6046,1.20106,-0.556716,21,32765
3.58016,1.1797,-0.553931,19,32765
3.54631,1.1554,-0.549209,19,32765
3.55941,1.14642,-0.552008,20,32765
3.47822,1.10734,-0.540241,20,32765
3.51008,1.10452,-0.54567,19,32765
3.56084,1.10742,-0.554018,20,32765
3.52657,1.08386,-0.549064,20,32765
3.48278,1.05746,-0.542579,20,32765
3.47678,1.04264,-0.542017,20,32765
3.42329,1.01385,-0.534155,20,32765
3.49308,1.02153,-0.545241,21,32765
3.47735,1.00423,-0.543299,21,32765
0,0,-0,0,32765
0,0,-0,0,32765
0,0,-0,0,32765
1.64974,0.45218,-0.258454,11,32765
1.58439,0.42851,-0.248399,18,32765
1.54757,0.412813,-0.242894,20,32765
1.54892,0.407493,-0.243319,20,32765
1.56942,0.407082,-0.246614,19,32765
1.52287,0.389442,-0.239381,21,32765
1.57206,0.39635,-0.247274,20,32765
1.54456,0.383828,-0.243111,20,32765
1.52659,0.373883,-0.240494,20,32765
1.49898,0.361728,-0.236245,19,32765
1.50977,0.358859,-0.23815,20,32765
1.46283,0.342332,-0.23098,21,32765
1.48323,0.34158,-0.234409,20,32765
1.47474,0.334093,-0.23328,20,32765
1.44693,0.32243,-0.228991,20,32765
1.48659,0.325842,-0.235511,19,32765
1.43936,0.310306,-0.228164,20,32765
1.46936,0.311498,-0.23316,20,32765
1.45101,0.302393,-0.230467,19,32765
1.44229,0.295425,-0.229382,19,32765
1.45295,0.292379,-0.231205,19,32765
1.4248,0.281607,-0.227,20,32765
1.43542,0.278511,-0.228921,20,32765
1.42662,0.271633,-0.227777,19,32765
1.41779,0.264841,-0.22659,20,32765
1.40892,0.25811,-0.22543,20,32765
1.40002,0.251499,-0.224273,20,32765
1.3911,0.244925,-0.223033,20,32765
1.41134,0.243447,-0.226625,21,32765
1.39264,0.235318,-0.223806,20,32765
1.39337,0.230508,-0.224265,20,32765
1.3941,0.225763,-0.224515,20,32765
1.38507,0.219382,-0.223304,20,32765
1.376,0.213046,-0.222099,20,32765
1.37668,0.208193,-0.222531,20,32765
1.37734,0.203336,-0.222891,21,32765
1.378,0.198564,-0.223126,21,32765
1.36885,0.192392,-0.221886,20,32765
1.35966,0.186288,-0.220749,20,32765
1.34068,0.17901,-0.21777,20,32765
1.36082,0.176965,-0.22126,20,32765
1.36138,0.172342,-0.221483,19,32765
1.3619,0.167706,-0.221835,20,32765
1.34283,0.1607,-0.218802,20,32765
1.33351,0.155015,-0.217531,19,32765
1.3438,0.151523,-0.219403,19,32765
1.32465,0.14479,-0.216447,20,32765
1.32509,0.140212,-0.216719,20,32765
1.32553,0.135637,-0.216944,20,32765
1.33578,0.132043,-0.218762,21,32765
1.31654,0.12563,-0.215739,20,32765
1.31695,0.121174,-0.215803,21,32765
1.30748,0.115794,-0.214418,21,32765
1.28814,0.109648,-0.211602,20,32765
1.29833,0.106082,-0.21326,20,32765
1.28883,0.100904,-0.211749,20,32765
1.28916,0.0965186,-0.211773,20,32765
1.2993,0.0928576,-0.213529,21,32765
1.27989,0.0870707,-0.210463,20,32765
1.28015,0.0827327,-0.210649,20,32765
1.27058,0.0777828,-0.208986,20,32765
1.28069,0.0740361,-0.210625,20,32765
1.2612,0.0686742,-0.207507,20,32765
1.27127,0.0648906,-0.209182,20,32765
1.25177,0.0596809,-0.205952,21,32765
1.26182,0.0559281,-0.207546,20,32765
1.23243,0.0504856,-0.202675,20,32765
1.24246,0.0467328,-0.204212,21,32765
1.26234,0.0431856,-0.207436,20,32765
1.25262,0.0386011,-0.205799,21,32765
1.2626,0.0346816,-0.20746,20,32765
1.26273,0.0304349,-0.207304,20,32765
1.26286,0.0261667,-0.207152,19,32765
1.26295,0.0218963,-0.207068,20,32765
1.2433,0.0173941,-0.203713,19,32765
1.25325,0.0134331,-0.205148,19,32765
1.24346,0.0092207,-0.203267,19,32765
1.27313,0.00528291,-0.207865,19,32765
1.2337,0.000962717,-0.201204,19,32765
1.24361,-0.00316409,-0.202525,19,32765
1.2239,-0.00721766,-0.199011,18,32765
1.23382,-0.0113808,-0.200158,19,32765
0,-0,-0,0,32765
6.02118,4.44197,1.33203,11,32765
6.02006,4.41094,1.32625,11,32765
6.17807,4.49588,1.355,11,32765
6.1139,4.41755,1.33457,12,32765
6.08119,4.36295,1.32054,11,32765
6.22472,4.43414,1.34494,11,32765
6.17564,4.36805,1.32815,11,32765
6.17472,4.3362,1.32127,12,32765
6.23851,4.3493,1.32781,11,32765
6.32637,4.37922,1.33996,11,32765
6.34128,4.35883,1.33596,12,32765
6.38851,4.36073,1.33921,12,32765
6.45205,4.3733,1.34664,12,32765
6.30357,4.24216,1.30891,11,32765
5.99845,4.00815,1.23924,12,32765
5.97927,3.96671,1.22963,11,32765
5.95996,3.92547,1.21952,11,32765
6.00624,3.92796,1.22252,11,32765
5.95343,3.86532,1.20663,12,32765
5.93333,3.82468,1.19711,14,32765
5.96316,3.81573,1.1972,15,32765
6.00109,3.81208,1.19959,15,32765
6.01401,3.79257,1.19676,14,32765
6.08538,3.80971,1.20525,15,32765
6.07317,3.77447,1.19689,15,32765
6.16154,3.80115,1.20923,15,32765
6.16614,3.77567,1.20494,22,32765
6.2042,3.77083,1.20758,24,32765
6.2428,3.76544,1.20871,25,32765
6.29782,3.77041,1.21453,18,32765
6.29379,3.73969,1.20801,14,32765
6.34904,3.7441,1.2134,14,32765
6.38714,3.73851,1.2157,15,32765
6.45094,3.74743,1.22299,15,32765
6.48921,3.74127,1.22522,14,32765
7.13577,4.08287,1.3416,12,32765
7.31287,4.15196,1.36878,13,32765
7.35264,4.14245,1.37158,13,32765
7.34098,4.10386,1.36335,12,32765
7.33748,4.07037,1.35776,12,32765
7.35141,4.04636,1.35415,12,32765
0,0,0,0,32765
0,0,0,0,32765
0,0,0,0,32765
0,0,0,0,32765
6.94801,3.67503,1.25733,12,32765
6.94275,3.64346,1.25179,14,32765
6.94615,3.61647,1.24781,21,32765
6.94976,3.58885,1.24396,23,32765
6.96196,3.56576,1.24213,22,32765
6.99212,3.55116,1.24222,22,32765
6.97809,3.51414,1.23499,22,32765
7.01661,3.50392,1.23825,22,32765
7.04645,3.48896,1.23949,22,32765
7.0317,3.45267,1.23257,21,32765
7.07011,3.44249,1.23469,22,32765
7.07289,3.41483,1.23112,21,32765
7.09328,3.39586,1.23089,22,32765
7.096,3.36817,1.22669,22,32765
7.11631,3.3491,1.22608,22,32765
7.14562,3.33395,1.22687,22,32765
7.14802,3.30608,1.22334,21,32765
7.19516,3.29907,1.22716,22,32765
7.18846,3.26699,1.22186,22,32765
7.21762,3.25134,1.22266,22,32765
7.21973,3.22345,1.21858,21,32765
7.24891,3.20734,1.21927,20,32765
7.25972,3.18354,1.21734,21,32765
7.26174,3.15545,1.2126,18,32765
7.31785,3.15079,1.21871,11,32765
7.69236,3.28172,1.2765,12,32765
7.66712,3.24088,1.26824,12,32765
7.78768,3.2614,1.28331,12,32765
7.79902,3.23557,1.27985,12,32765
7.77332,3.19486,1.27213,12,32765
7.71104,3.13953,1.2568,13,32765
7.8316,3.15882,1.2726,12,32765
7.82383,3.12614,1.26702,12,32765
7.7794,3.07872,1.25459,12,32765
7.78976,3.0536,1.25171,12,32765
7.80014,3.02805,1.24914,12,32765
7.69044,2.95628,1.22738,12,32765
7.82063,2.97727,1.24308,12,32765
7.74751,2.92026,1.2268,12,32765
7.75726,2.89525,1.22448,12,32765
7.76709,2.87006,1.22147,12,32765
7.80485,2.85482,1.22244,12,32765
7.74919,2.8061,1.21026,13,32765
7.75889,2.78077,1.2066,12,32765
7.42304,2.63383,1.15024,11,32765
0,0,0,0,32765
0,0,0,0,32765
6.97221,2.39837,1.06703,11,32765
7.01787,2.38864,1.0696,12,32765
7.0351,2.36979,1.0684,16,32765
7.0056,2.33481,1.05917,13,32765
7.05091,2.32537,1.06175,11,32765
0,0,0,0,32765
0,0,0,0,32765
0,0,0,0,32765
7.74254,2.44695,1.1426,13,32765
6.02066,4.44663,1.25984,12,32765
6.03544,4.42721,1.25755,12,32765
6.07411,4.4252,1.25983,12,32765
6.13744,4.43953,1.26677,12,32765
6.12076,4.39624,1.25657,12,32765
6.16818,4.39875,1.25977,12,32765
6.1833,4.3783,1.25684,12,32765
6.19852,4.35771,1.2534,12,32765
6.2867,4.38771,1.26425,12,32765
6.30179,4.36697,1.26093,12,32765
6.36541,4.38018,1.26666,12,32765
6.36384,4.34861,1.25984,12,32765
6.42739,4.3613,1.26672,12,32765
6.49149,4.37333,1.27258,13,32765
6.49819,4.34674,1.26722,12,32765
6.14294,4.07965,1.1923,12,32765
5.96736,3.93453,1.15223,12,32765
6.00544,3.93161,1.15327,13,32765
6.03534,3.92264,1.15395,13,32765
6.01538,3.88165,1.14476,13,32765
6.00384,3.84579,1.13674,14,32765
6.00023,3.81551,1.13098,18,32765
6.04655,3.81706,1.13441,18,32765
6.09296,3.8184,1.13755,18,32765
6.10589,3.79871,1.13414,17,32765
6.15241,3.79941,1.13785,16,32765
6.16541,3.77907,1.1352,18,32765
6.18663,3.76397,1.13447,17,32765
6.23367,3.76374,1.13687,18,32765
6.23789,3.73828,1.13299,17,32765
6.32713,3.76327,1.14357,17,32765
6.36548,3.75754,1.14541,17,32765
6.37808,3.7369,1.14285,17,32765
6.44193,3.74588,1.14958,17,32765
6.42029,3.70517,1.14088,19,32765
6.50143,3.72354,1.15025,18,32765
6.86655,3.90234,1.20925,14,32765
7.37048,4.1565,1.29349,14,32765
7.3847,4.13226,1.29005,15,32765
7.39856,4.10816,1.28764,13,32765
7.43858,4.09822,1.2885,13,32765
7.38323,4.03549,1.27393,13,32765
7.57958,4.10963,1.30353,11,32765
0,0,0,0,32765
0,0,0,0,32765
0,0,0,0,32765
6.87273,3.60999,1.16448,12,32765
6.93739,3.61517,1.17097,15,32765
6.98491,3.61024,1.1746,26,32765
6.98838,3.58248,1.17129,29,32765
7.01861,3.56777,1.17118,30,32765
7.0311,3.54395,1.16862,29,32765
7.06092,3.52912,1.17012,29,32765
7.07314,3.50519,1.16823,29,32765
7.06728,3.47312,1.16305,29,32765
7.09689,3.45847,1.16342,29,32765
7.11753,3.43928,1.16284,28,32765
7.12017,3.41159,1.1596,29,32765
7.14079,3.39225,1.15838,29,32765
7.15224,3.36878,1.15622,29,32765
7.18164,3.3535,1.1568,28,32765
7.21103,3.33793,1.15768,28,32765
7.22234,3.31419,1.15536,28,32765
7.23368,3.29016,1.1531,28,32765
7.24489,3.2662,1.15083,28,32765
7.27414,3.25028,1.15113,29,32765
7.30343,3.23397,1.15161,28,32765
7.33245,3.21791,1.15251,25,32765
7.35272,3.19742,1.15067,28,32765
7.35448,3.16895,1.14778,25,32765
7.33803,3.1329,1.14096,13,32765
7.62222,3.22429,1.18121,12,32765
7.78851,3.26415,1.20223,13,32765
7.73583,3.21169,1.18893,13,32765
7.80158,3.20878,1.19563,14,32765
7.80342,3.17941,1.19083,14,32765
7.76815,3.13543,1.18174,13,32765
7.77866,3.11026,1.17914,13,32765
7.83536,3.10301,1.18259,13,32765
7.78125,3.05236,1.16998,14,32765
7.81931,3.03755,1.17156,14,32765
7.79268,2.99759,1.16342,14,32765
7.75653,2.95482,1.1531,14,32765
7.8037,2.94337,1.15552,14,32765
7.78568,2.90774,1.14907,14,32765
7.8327,2.89616,1.15152,14,32765
7.78683,2.85004,1.13992,14,32765
7.79627,2.82492,1.13791,14,32765
7.77803,2.78936,1.13017,14,32765
7.81525,2.77469,1.13132,14,32765
7.67507,2.69699,1.10616,12,32765
7.14133,2.48364,1.02462,11,32765
7.08406,2.43829,1.01217,11,32765
7.10173,2.41859,1.01031,12,32765
7.05332,2.37729,0.999662,13,32765
7.03317,2.34534,0.992124,18,32765
7.04089,2.32337,0.989032,17,32765
7.07681,2.31102,0.988986,13,32765
7.07512,2.28586,0.983616,11,32765
7.13933,2.28207,0.987757,11,32765
7.19432,2.27492,0.989268,11,32765
5.96113,4.39627,1.17802,12,32765
5.93548,4.34784,1.16998,12,32765
6.07743,4.4216,1.19432,12,32765
6.03613,4.36125,1.18162,11,32765
6.19505,4.44491,1.20933,11,32765
6.1135,4.35558,1.18914,11,32765
6.19233,4.38133,1.20058,12,32765
6.23895,4.38409,1.20567,11,32765
6.21273,4.33595,1.19602,11,32765
6.3002,4.36641,1.20812,11,32765
6.35543,4.3739,1.21394,11,32765
6.35373,4.34182,1.20946,11,32765
6.46642,4.38758,1.22582,11,32765
6.43211,4.33305,1.21454,12,32765
6.47966,4.33369,1.2187,12,32765
6.38735,4.24127,1.19623,11,32765
6.03836,3.98137,1.12665,12,32765
6.01863,3.93995,1.11857,12,32765
5.99862,3.89882,1.11056,11,32765
6.01192,3.87895,1.10821,12,32765
5.99185,3.83774,1.09978,12,32765
6.04627,3.84482,1.10567,14,32765
6.02582,3.80394,1.09711,15,32765
6.08045,3.81058,1.10237,15,32765
6.12689,3.81148,1.10628,15,32765
6.13993,3.79104,1.10422,15,32765
6.13593,3.76034,1.09936,15,32765
6.1657,3.75028,1.09981,15,32765
6.18687,3.73528,1.09841,14,32765
6.25888,3.75054,1.10648,14,32765
6.26282,3.72514,1.10332,14,32765
6.32645,3.73473,1.1103,15,32765
6.37349,3.73365,1.11326,15,32765
6.38615,3.71248,1.11153,14,32765
6.39906,3.69111,1.10844,15,32765
6.43727,3.68494,1.11029,16,32765
6.56123,3.72776,1.12736,13,32765
7.35783,4.14832,1.25912,12,32765
7.44957,4.1677,1.26931,13,32765
7.42957,4.12333,1.26006,12,32765
7.36577,4.05541,1.24461,12,32765
7.34478,4.01228,1.23587,12,32765
0,0,0,0,32765
0,0,0,0,32765
0,0,0,0,32765
0,0,0,0,32765
0,0,0,0,32765
6.94301,3.61469,1.13875,12,32765
6.94629,3.58773,1.13459,19,32765
6.95867,3.56478,1.13102,22,32765
6.98843,3.55067,1.13181,23,32765
7.00067,3.52716,1.12969,22,32765
7.03062,3.51231,1.13034,23,32765
7.06054,3.49753,1.13035,23,32765
7.05506,3.4649,1.12437,23,32765
7.08472,3.45006,1.1249,23,32765
7.09645,3.42684,1.12192,22,32765
7.10778,3.40377,1.12045,23,32765
7.13714,3.38916,1.12038,23,32765
7.14853,3.36572,1.11841,22,32765
7.15093,3.33809,1.11457,21,32765
7.17118,3.31875,1.11379,22,32765
7.19157,3.29922,1.11198,22,32765
7.20271,3.27551,1.10999,22,32765
7.2139,3.2517,1.10733,23,32765
7.24298,3.23597,1.10806,22,32765
7.27191,3.2202,1.10929,22,32765
7.25562,3.18415,1.10323,20,32765
7.29357,3.17227,1.10522,22,32765
7.33186,3.15969,1.10623,21,32765
7.31507,3.12381,1.10108,14,32765
7.50808,3.17713,1.12586,11,32765
7.72877,3.24047,1.15635,12,32765
7.81264,3.24596,1.16532,12,32765
7.80543,3.21267,1.1595,12,32765
7.76089,3.16499,1.15025,12,32765
7.77124,3.13991,1.14905,13,32765
7.69891,3.08142,1.13516,12,32765
7.70913,3.05641,1.1334,12,32765
7.83917,3.07834,1.14942,12,32765
7.81245,3.03828,1.1428,12,32765
7.78543,2.99874,1.13627,12,32765
7.79548,2.97319,1.13449,12,32765
7.75882,2.9305,1.12686,12,32765
7.73141,2.89111,1.12057,13,32765
7.74087,2.86617,1.11936,12,32765
7.78738,2.85492,1.12383,13,32765
7.79685,2.82949,1.12248,12,32765
7.71295,2.77065,1.10761,12,32765
7.84346,2.78852,1.12444,12,32765
7.67489,2.70057,1.09868,11,32765
0,0,0,0,32765
0,0,0,0,32765
0,0,0,0,32765
7.0044,2.36542,0.997424,12,32765
7.00264,2.33945,0.996275,16,32765
6.98203,2.3075,0.991511,13,32765
0,0,0,0,32765
0,0,0,0,32765
0,0,0,0,32765
7.45415,2.35962,1.0583,11,32765
5.97486,4.41244,1.10973,12,32765
5.95722,4.36971,1.10364,12,32765
6.03544,4.39699,1.11467,12,32765
6.08215,4.40042,1.11885,12,32765
6.13695,4.40911,1.12572,12,32765
6.07934,4.337,1.11107,12,32765
6.15012,4.35721,1.1203,12,32765
6.24525,4.39427,1.13384,12,32765
6.1947,4.32901,1.12025,12,32765
6.2741,4.35397,1.13004,12,32765
6.31305,4.35034,1.13248,12,32765
6.32759,4.32951,1.13111,12,32765
6.39125,4.34211,1.13762,12,32765
6.40595,4.3209,1.13565,12,32765
6.46993,4.33266,1.14234,13,32765
6.50935,4.32771,1.14426,13,32765
6.49883,4.29034,1.13802,12,32765
6.16562,4.0412,1.07532,13,32765
6.07127,3.95092,1.05467,13,32765
6.02656,3.89318,1.04223,13,32765
6.03982,3.87321,1.0399,13,32765
6.05266,3.85357,1.03814,13,32765
6.0071,3.79673,1.02567,14,32765
6.0366,3.78766,1.02619,18,32765
6.08299,3.78872,1.02974,18,32765
6.11279,3.7788,1.03053,18,32765
6.1425,3.76883,1.03152,18,32765
6.16384,3.75359,1.03038,17,32765
6.21044,3.75393,1.03311,18,32765
6.22315,3.73351,1.03067,17,32765
6.26956,3.73351,1.03463,18,32765
6.28213,3.71287,1.03264,18,32765
6.36329,3.73198,1.04084,17,32765
6.37595,3.7108,1.0391,18,32765
6.41457,3.70429,1.04019,17,32765
6.47862,3.71283,1.04591,18,32765
6.49949,3.69687,1.04514,19,32765
6.54645,3.69502,1.04828,16,32765
7.16386,4.01236,1.14199,13,32765
7.41168,4.118,1.17582,14,32765
7.47791,4.12173,1.18179,15,32765
7.47449,4.08765,1.1761,14,32765
7.44502,4.03901,1.16646,13,32765
7.45873,4.01464,1.16298,13,32765
0,0,0,0,32765
0,0,0,0,32765
0,0,0,0,32765
7.09122,3.69581,1.08648,11,32765
6.96271,3.60006,1.06221,13,32765
6.97513,3.57701,1.05862,19,32765
7.03144,3.5763,1.06323,30,32765
7.04377,3.5526,1.06109,29,32765
7.06496,3.53315,1.06022,30,32765
7.0772,3.50942,1.05737,30,32765
7.10732,3.49417,1.05686,30,32765
7.11036,3.4661,1.05322,29,32765
7.13106,3.44707,1.05155,29,32765
7.1514,3.42813,1.05138,30,32765
7.15399,3.40058,1.04717,29,32765
7.16542,3.37705,1.04519,29,32765
7.20377,3.3661,1.04666,30,32765
7.20612,3.33822,1.04316,29,32765
7.21757,3.31441,1.03995,28,32765
7.24681,3.29879,1.04054,29,32765
7.25807,3.27479,1.03786,29,32765
7.28724,3.25889,1.03839,29,32765
7.28,3.22687,1.03427,29,32765
7.30911,3.21067,1.03491,28,32765
7.34717,3.1986,1.0366,26,32765
7.37646,3.18189,1.03603,28,32765
7.37797,3.1536,1.03371,28,32765
7.37947,3.12558,1.02983,19,32765
7.52706,3.15878,1.048,12,32765
7.78476,3.23731,1.08042,13,32765
7.805,3.21538,1.0786,13,32765
7.84307,3.20136,1.08131,14,32765
7.79837,3.15365,1.07251,13,32765
7.82728,3.13554,1.07334,13,32765
7.83768,3.11006,1.07154,13,32765
7.80185,3.06631,1.06367,14,32765
7.83052,3.04789,1.06497,14,32765
7.87754,3.03676,1.06886,14,32765
7.76723,2.96488,1.05076,13,32765
7.81402,2.95377,1.05487,14,32765
7.82382,2.92804,1.05396,13,32765
7.84271,2.9062,1.05398,14,32765
7.80557,2.86385,1.04682,13,32765
7.80575,2.83493,1.04422,14,32765
7.87115,2.82966,1.05021,14,32765
7.79634,2.77387,1.03842,14,32765
7.80535,2.74853,1.03808,14,32765
7.80459,2.72075,1.03671,12,32765
7.15663,2.46947,0.949326,11,32765
7.11742,2.4309,0.943146,11,32765
7.15349,2.41746,0.946309,11,32765
7.08604,2.36894,0.93655,13,32765
7.0655,2.33667,0.932057,19,32765
7.10116,2.3232,0.936576,15,32765
7.12723,2.30694,0.93978,12,32765
7.20051,2.30554,0.949522,12,32765
7.16969,2.27098,0.94583,11,32765
6.03466,4.44031,1.15022,11,32765
6.01812,4.39752,1.13828,11,32765
6.03342,4.37789,1.13291,12,32765
6.11305,4.40407,1.13979,11,32765
6.06403,4.33804,1.12271,11,32765
6.0309,4.2837,1.10841,12,32765
6.20706,4.37816,1.13421,11,32765
6.2058,4.34675,1.12668,11,32765
6.21232,4.32119,1.12108,11,32765
0,0,0,0,32765
6.33192,4.34171,1.12866,12,32765
6.34705,4.32062,1.12461,11,32765
6.4356,4.34987,1.1332,11,32765
6.45077,4.32852,1.12874,11,32765
6.39133,4.25823,1.11178,12,32765
6.48019,4.28643,1.1208,12,32765
6.42035,4.21643,1.10383,12,32765
6.25224,4.07654,1.06909,11,32765
6.05003,3.9163,1.02865,12,32765
6.12161,3.93402,1.03531,12,32765
6.07664,3.87674,1.0216,12,32765
6.05654,3.83551,1.01231,12,32765
6.07794,3.82087,1.01102,13,32765
6.01538,3.75367,0.995343,15,32765
6.06164,3.7549,0.998613,15,32765
6.09125,3.74554,0.997977,16,32765
6.13789,3.74625,0.999774,15,32765
6.16735,3.7366,1.00005,15,32765
6.17987,3.71657,0.997337,15,32765
6.20934,3.70676,0.996998,15,32765
6.26463,3.71148,1.00088,15,32765
6.27746,3.6905,0.99806,15,32765
6.32457,3.68936,1.00029,15,32765
6.37173,3.6878,1.00302,15,32765
6.41848,3.6868,1.00571,14,32765
6.43072,3.66617,1.00297,15,32765
6.48599,3.66981,1.00741,15,32765
6.49815,3.64887,1.00505,15,32765
6.71831,3.7433,1.03426,12,32765
7.43347,4.10965,1.13984,12,32765
7.40417,4.06107,1.12981,13,32765
7.40051,4.02724,1.12418,12,32765
7.4141,4.0029,1.12157,12,32765
7.4628,3.9968,1.1242,12,32765
0,0,0,0,32765
0,0,0,0,32765
0,0,0,0,32765
0,0,0,0,32765
6.97396,3.5881,1.02838,11,32765
6.99486,3.56957,1.02785,13,32765
6.98055,3.53281,1.02138,22,32765
7.01939,3.52266,1.02248,23,32765
7.04933,3.50794,1.02223,22,32765
7.06141,3.48417,1.02015,22,32765
7.07332,3.46059,1.01789,23,32765
7.10296,3.44577,1.01797,23,32765
7.11485,3.42202,1.01502,23,32765
7.12638,3.39827,1.01391,22,32765
7.1559,3.38317,1.01375,23,32765
7.14942,3.35126,1.00819,22,32765
7.16064,3.32785,1.00613,23,32765
7.18992,3.3125,1.00634,23,32765
7.20113,3.28875,1.00413,22,32765
7.21235,3.26484,1.00158,23,32765
7.22349,3.24088,0.999136,23,32765
7.24366,3.22101,0.997319,22,32765
7.25478,3.19662,0.99496,23,32765
7.28377,3.18052,0.995525,23,32765
7.29472,3.15617,0.992854,22,32765
7.31469,3.13569,0.991522,21,32765
7.3528,3.12323,0.992101,22,32765
7.37238,3.10296,0.991597,20,32765
7.4378,3.10181,0.996128,13,32765
7.70512,3.1836,1.02752,12,32765
7.80764,3.19616,1.03699,12,32765
7.81863,3.17008,1.0342,12,32765
7.86639,3.15889,1.03585,12,32765
7.92334,3.1512,1.03864,12,32765
7.86938,3.09964,1.02743,12,32765
7.78723,3.03814,1.01249,12,32765
7.83435,3.02727,1.01497,12,32765
7.84456,3.0021,1.0109,12,32765
7.87306,2.98393,1.01069,12,32765
7.82727,2.93755,1.00049,13,32765
7.79056,2.89508,0.991259,13,32765
7.88416,2.90062,0.99898,13,32765
7.8101,2.84406,0.985173,12,32765
7.84771,2.82881,0.98557,13,32765
7.82922,2.79341,0.978282,12,32765
7.92291,2.79788,0.985413,13,32765
7.84792,2.74282,0.971582,13,32765
7.81965,2.70425,0.963814,13,32765
7.77229,2.65992,0.953569,12,32765
0,0,0,0,32765
0,0,0,0,32765
7.0251,2.33025,0.848811,11,32765
7.03286,2.30805,0.845125,12,32765
7.08774,2.30125,0.847474,14,32765
7.1144,2.28495,0.845407,14,32765
7.1408,2.26902,0.843845,12,32765
6.96815,2.19084,0.817058,11,32765
6.01615,4.43305,1.0754,12,32765
6.04745,4.4253,1.07235,12,32765
6.03079,4.38225,1.06131,12,32765
6.03017,4.35058,1.05342,12,32765
6.13381,4.39424,1.06367,12,32765
6.10887,4.34528,1.05125,12,32765
6.18021,4.36544,1.05715,12,32765
6.17886,4.33404,1.04982,12,32765
6.15281,4.28587,1.03884,12,32765
6.33042,4.37832,1.06255,13,32765
6.32937,4.34609,1.055,12,32765
6.28719,4.2859,1.04145,12,32765
6.40849,4.33763,1.05465,12,32765
6.42359,4.31632,1.0502,12,32765
6.36402,4.24597,1.03409,12,32765
6.48594,4.29622,1.04762,12,32765
6.56683,4.31862,1.05408,13,32765
6.57318,4.29175,1.04912,13,32765
6.38813,4.14088,1.01355,12,32765
6.15208,3.95905,0.970719,13,32765
6.07371,3.8802,0.952395,13,32765
6.07031,3.84951,0.946082,13,32765
6.09176,3.83479,0.944692,14,32765
6.09645,3.80944,0.940221,14,32765
6.09236,3.77905,0.935323,16,32765
6.07983,3.74358,0.928035,18,32765
6.12648,3.74433,0.929464,18,32765
6.15594,3.7347,0.929557,18,32765
6.20244,3.73514,0.93195,18,32765
6.23198,3.72523,0.93141,17,32765
6.25323,3.70965,0.929741,17,32765
6.2917,3.70377,0.930715,17,32765
6.3303,3.69758,0.931304,17,32765
6.39469,3.70595,0.936169,17,32765
6.40712,3.6851,0.933462,18,32765
6.41934,3.66446,0.930723,18,32765
6.45738,3.65837,0.932205,17,32765
6.5214,3.66666,0.93731,18,32765
6.56848,3.66454,0.939477,18,32765
6.6763,3.69577,0.950971,14,32765
7.44577,4.08911,1.05515,14,32765
7.49448,4.08356,1.05707,14,32765
7.49079,4.04943,1.05197,14,32765
7.50469,4.0243,1.0493,13,32765
7.492,3.98575,1.04219,13,32765
7.57573,3.99798,1.04952,12,32765
0,0,0,0,32765
0,0,0,0,32765
0,0,0,0,32765
6.9572,3.55471,0.947805,11,32765
6.99594,3.54492,0.948832,14,32765
7.03484,3.5347,0.949641,23,32765
7.0826,3.52876,0.951584,31,32765
7.11255,3.51363,0.951877,31,32765
7.11565,3.48547,0.948409,29,32765
7.13645,3.46614,0.947095,30,32765
7.14841,3.44224,0.944135,29,32765
7.16001,3.41834,0.943012,29,32765
7.17165,3.3946,0.940294,29,32765
7.19216,3.37523,0.938438,30,32765
7.21246,3.35583,0.937535,30,32765
7.22382,3.33196,0.935202,29,32765
7.25315,3.31631,0.935312,29,32765
7.24637,3.28399,0.930414,29,32765
7.26663,3.26394,0.929114,30,32765
7.30502,3.25197,0.929492,28,32765
7.31624,3.22733,0.927111,30,32765
7.32715,3.20304,0.925173,29,32765
7.33817,3.1785,0.922484,29,32765
7.36734,3.16176,0.922184,29,32765
7.40555,3.14911,0.922457,27,32765
7.42523,3.12863,0.921845,29,32765
7.43577,3.10434,0.918993,28,32765
7.43706,3.07617,0.915006,16,32765
7.62205,3.12355,0.933765,12,32765
7.82614,3.17652,0.954626,13,32765
7.87393,3.16529,0.955895,14,32765
7.90324,3.14653,0.95487,13,32765
7.89541,3.11317,0.949876,14,32765
7.90579,3.08762,0.946952,14,32765
7.87894,3.04767,0.940171,13,32765
7.92632,3.03654,0.940479,14,32765
7.86201,2.98281,0.929076,13,32765
7.87198,2.95736,0.926008,13,32765
7.87254,2.92853,0.921587,14,32765
7.88237,2.9029,0.918648,14,32765
7.8736,2.87007,0.913266,14,32765
7.83649,2.8276,0.904719,14,32765
7.89286,2.81892,0.906317,14,32765
7.84608,2.77349,0.896509,14,32765
7.87415,2.75469,0.895291,14,32765
7.92104,2.74199,0.896392,15,32765
7.87372,2.69726,0.886665,15,32765
7.81679,2.64983,0.87527,14,32765
7.42008,2.48937,0.826084,11,32765
7.0789,2.35034,0.784213,11,32765
7.04892,2.31553,0.776334,11,32765
7.14168,2.32096,0.782351,12,32765
7.09263,2.28012,0.771818,15,32765
7.14745,2.27327,0.773155,17,32765
7.17388,2.25764,0.769519,14,32765
5.94915,4.37678,0.976658,12,32765
5.96399,4.35667,0.976098,11,32765
6.00249,4.35446,0.979364,12,32765
5.99237,4.31796,0.97432,11,32765
6.07866,4.35109,0.984624,12,32765
6.0931,4.33128,0.982721,11,32765
6.13993,4.33408,0.986641,12,32765
6.21943,4.35932,0.995308,11,32765
6.1933,4.3106,0.986855,12,32765
6.26463,4.32995,0.994172,11,32765
6.26265,4.29827,0.989804,11,32765
6.29324,4.28917,0.990232,12,32765
6.24194,4.22404,0.977567,12,32765
6.38792,4.29186,0.995984,11,32765
6.47665,4.32024,1.00551,11,32765
6.49152,4.29851,1.00274,12,32765
6.43138,4.22805,0.989198,12,32765
6.52012,4.25597,0.998601,12,32765
6.56753,4.25633,1.00165,11,32765
6.28957,4.04731,0.955119,11,32765
6.10251,3.89853,0.92244,12,32765
6.09883,3.86793,0.91746,12,32765
6.09501,3.8374,0.912603,12,32765
6.04057,3.77542,0.900062,12,32765
6.02784,3.74003,0.89437,13,32765
6.01526,3.70435,0.888162,15,32765
6.11265,3.73599,0.897894,15,32765
6.10853,3.70514,0.893224,15,32765
6.13814,3.6952,0.892809,15,32765
6.2016,3.70563,0.898235,15,32765
6.23097,3.69558,0.898697,15,32765
6.23476,3.67039,0.894472,15,32765
6.29859,3.67984,0.899502,15,32765
6.31125,3.65879,0.896584,15,32765
6.34107,3.64741,0.896746,15,32765
6.40529,3.65574,0.901536,15,32765
6.45226,3.65426,0.903133,14,32765
6.42989,3.61363,0.896152,15,32765
6.52002,3.63621,0.904297,15,32765
6.56716,3.63402,0.905475,14,32765
7.24084,3.97537,0.994524,11,32765
7.42885,4.04618,1.01542,13,32765
7.53872,4.07347,1.02537,13,32765
7.48256,4.01085,1.01331,13,32765
7.5137,3.99553,1.01239,12,32765
7.50098,3.95678,1.00535,12,32765
0,0,0,0,32765
0,0,0,0,32765
0,0,0,0,32765
0,0,0,0,32765
7.10698,3.59807,0.930164,12,32765
7.05721,3.54318,0.918797,15,32765
7.04258,3.50662,0.912184,23,32765
7.05435,3.48341,0.910162,23,32765
7.08408,3.46869,0.909693,24,32765
7.09601,3.44505,0.906613,23,32765
7.10785,3.42119,0.904183,23,32765
7.13748,3.40614,0.903465,23,32765
7.13099,3.37428,0.898197,23,32765
7.16021,3.3595,0.89823,24,32765
7.18948,3.34447,0.897937,23,32765
7.18271,3.31247,0.893185,24,32765
7.22111,3.30106,0.893652,23,32765
7.23223,3.27721,0.891561,23,32765
7.24353,3.25285,0.889029,24,32765
7.27286,3.23656,0.888984,23,32765
7.28379,3.21241,0.887038,24,32765
7.3128,3.19666,0.886165,23,32765
7.34164,3.18079,0.886276,23,32765
7.31582,3.14086,0.879732,22,32765
7.33565,3.12028,0.878893,21,32765
7.3738,3.10734,0.879803,22,32765
7.40267,3.09033,0.880445,22,32765
7.3854,3.0548,0.875052,16,32765
7.41394,3.03833,0.875047,11,32765
7.91205,3.21256,0.931176,12,32765
7.80285,3.1385,0.914852,12,32765
7.88709,3.14266,0.921425,12,32765
7.90664,3.12074,0.921171,13,32765
7.88921,3.08412,0.915933,12,32765
7.84373,3.03683,0.908354,12,32765
7.92794,3.04005,0.915131,12,32765
7.8265,2.97173,0.900657,12,32765
7.91064,2.97439,0.908182,12,32765
7.79934,2.9035,0.892705,12,32765
7.93025,2.92252,0.905589,13,32765
7.86511,2.86957,0.895582,13,32765
7.87456,2.84398,0.894136,12,32765
7.92117,2.83196,0.898112,13,32765
7.93038,2.80616,0.897883,13,32765
7.81761,2.73764,0.88272,13,32765
7.78889,2.69936,0.877954,13,32765
7.83518,2.68731,0.881614,13,32765
7.88138,2.67524,0.885348,12,32765
0,0,0,0,32765
0,0,0,0,32765
0,0,0,0,32765
7.0447,2.29205,0.788213,12,32765
7.0328,2.26413,0.786346,14,32765
7.09667,2.2599,0.793837,13,32765
7.09446,2.23371,0.79345,12,32765
5.84886,4.3103,0.891365,13,32765
5.90355,4.31979,0.896896,12,32765
5.99817,4.35863,0.908397,12,32765
6.0122,4.33949,0.907273,12,32765
6.09056,4.36686,0.915516,12,32765
6.08889,4.33545,0.911184,12,32765
6.11955,4.32681,0.912312,12,32765
6.16659,4.32936,0.91541,12,32765
6.18105,4.30909,0.913453,12,32765
6.21977,4.30593,0.915312,12,32765
6.28316,4.31932,0.92073,12,32765
6.29744,4.29894,0.918568,13,32765
6.31188,4.27822,0.916187,12,32765
6.32634,4.25727,0.914041,12,32765
6.41501,4.28592,0.922745,12,32765
6.42976,4.26436,0.919997,12,32765
6.47728,4.26494,0.922666,12,32765
6.52464,4.2656,0.925316,12,32765
6.56378,4.26055,0.926812,13,32765
6.61952,4.26627,0.93048,13,32765
6.42469,4.11072,0.898743,12,32765
6.1283,3.89262,0.852976,12,32765
6.10774,3.85133,0.845964,13,32765
6.12065,3.83133,0.843443,13,32765
6.15027,3.82182,0.84379,13,32765
6.11259,3.77002,0.834346,13,32765
6.09165,3.7288,0.826994,17,32765
6.11296,3.71343,0.825956,19,32765
6.17664,3.72397,0.829921,19,32765
6.20614,3.7139,0.83021,18,32765
6.23555,3.70382,0.83048,18,32765
6.26502,3.6937,0.829744,18,32765
6.27751,3.67296,0.827416,18,32765
6.33311,3.67688,0.830136,18,32765
6.363,3.66541,0.8301,17,32765
6.42732,3.67369,0.834317,17,32765
6.45708,3.66233,0.833295,17,32765
6.47801,3.64598,0.832246,17,32765
6.50756,3.63453,0.831763,18,32765
6.5721,3.64201,0.834779,18,32765
6.60181,3.62974,0.835182,18,32765
6.82366,3.72189,0.858855,13,32765
7.50947,4.06347,0.940276,13,32765
7.53205,4.04313,0.938794,14,32765
7.5633,4.02762,0.937658,14,32765
7.52429,3.97469,0.927619,14,32765
7.52886,3.94535,0.923514,13,32765
7.57758,3.93861,0.925077,11,32765
0,0,0,0,32765
0,0,0,0,32765
0,0,0,0,32765
7.08931,3.56422,0.847577,12,32765
7.02133,3.50086,0.834879,16,32765
7.08656,3.50412,0.839194,27,32765
7.11637,3.48927,0.838522,31,32765
7.14624,3.47417,0.837521,31,32765
7.15819,3.45009,0.835071,31,32765
7.17894,3.43056,0.833101,31,32765
7.19049,3.40702,0.830075,30,32765
7.20182,3.38356,0.82783,30,32765
7.20414,3.35577,0.824238,29,32765
7.24254,3.3445,0.824807,30,32765
7.25392,3.32046,0.821892,30,32765
7.2651,3.29645,0.819789,30,32765
7.29461,3.2801,0.81928,30,32765
7.32405,3.26361,0.81903,30,32765
7.33507,3.23924,0.817067,30,32765
7.33683,3.21132,0.812953,29,32765
7.3566,3.19139,0.81186,31,32765
7.37649,3.17097,0.810707,29,32765
7.41474,3.15795,0.81176,31,32765
7.4072,3.12538,0.807365,28,32765
7.45451,3.1159,0.809805,28,32765
7.45568,3.08775,0.806665,30,32765
7.48434,3.07102,0.806449,24,32765
7.52205,3.05801,0.808081,13,32765
7.89223,3.17838,0.844443,13,32765
7.88423,3.14539,0.840388,13,32765
7.92231,3.13075,0.842006,13,32765
7.91416,3.09764,0.838024,14,32765
7.90581,3.06456,0.834922,14,32765
7.91584,3.03905,0.83311,14,32765
7.94454,3.02015,0.833423,14,32765
7.92645,2.98387,0.82946,13,32765
7.89902,2.94407,0.823951,14,32765
7.92745,2.92491,0.824914,15,32765
7.89966,2.88553,0.819535,15,32765
7.90917,2.85978,0.818081,15,32765
7.89965,2.82749,0.815871,15,32765
7.87133,2.78842,0.811771,15,32765
7.91808,2.77595,0.814256,15,32765
7.88946,2.73727,0.809856,15,32765
7.85119,2.69578,0.80445,14,32765
7.88804,2.68043,0.806843,15,32765
7.82106,2.6298,0.799534,13,32765
7.41395,2.46649,0.756445,11,32765
7.14764,2.35264,0.727951,11,32765
7.21163,2.34883,0.734723,12,32765
