x, y, z, intensity, ring
2.31491,1.16156,-0.0073633,27,32765
2.30094,1.14478,-0.00853848,27,32765
2.3048,1.13696,-0.0096349,27,32765
2.31766,1.13347,-0.0108317,26,32765
2.31253,1.12115,-0.0116954,26,32765
2.28921,1.10043,-0.0128564,27,32765
2.29299,1.09253,-0.0132233,26,32765
2.30568,1.08909,-0.0143988,27,32765
2.30026,1.07711,-0.0154369,27,32765
2.32204,1.07771,-0.0165069,27,32765
2.31651,1.06582,-0.0175421,26,32765
2.31104,1.05374,-0.0185406,25,32765
2.33273,1.05432,-0.0198105,25,32765
2.29975,1.0301,-0.020581,26,32765
2.32143,1.03058,-0.0217247,27,32765
2.31566,1.01888,-0.0225513,27,32765
2.33738,1.01911,-0.0236277,26,32765
2.32239,1.00341,-0.0241803,28,32765
2.35338,1.00723,-0.0256307,28,32765
2.31993,0.983694,-0.0260752,26,32765
2.35082,0.987624,-0.0271463,26,32765
2.33565,0.972029,-0.0278976,21,32765
2.30188,0.94902,-0.0282694,24,32765
2.32354,0.9489,-0.0292377,20,32765
2.3359,0.945026,-0.0300956,25,32765
2.34827,0.94106,-0.0309231,28,32765
2.36064,0.936996,-0.03167,28,32765
2.3637,0.929241,-0.0323386,28,32765
2.35743,0.917782,-0.0332411,27,32765
2.36043,0.91002,-0.0339224,28,32765
2.33535,0.891615,-0.0339641,27,32765
2.35697,0.891003,-0.0348449,28,32765
2.37859,0.890305,-0.035753,28,32765
2.37215,0.878893,-0.0365018,28,32765
2.37504,0.871043,-0.0367877,28,32765
2.3497,0.852983,-0.0366732,28,32765
2.34307,0.841855,-0.0372197,27,32765
2.36467,0.840824,-0.0379601,28,32765
2.36741,0.83307,-0.0383342,27,32765
2.36063,0.822146,-0.0386478,27,32765
2.36324,0.814592,-0.0390616,27,32765
2.38477,0.813447,-0.0394281,27,32765
2.3779,0.802576,-0.039595,29,32765
2.38051,0.79478,-0.0399558,29,32765
2.38307,0.787067,-0.0402107,29,32765
2.3666,0.773128,-0.0397557,28,32765
2.37858,0.76859,-0.0401254,28,32765
2.40006,0.767137,-0.0402829,29,32765
2.38344,0.753385,-0.0401069,28,32765
2.37625,0.742941,-0.0395012,27,32765
2.26389,1.66344,0.0621975,19,32765
2.27749,1.66188,0.0597371,20,32765
2.28299,1.6544,0.0574056,22,32765
2.2723,1.63514,0.0546007,21,32765
2.28586,1.63345,0.0527844,20,32765
2.27505,1.61424,0.0499985,18,32765
2.23958,1.57787,0.0472994,19,32765
2.2858,1.59909,0.0459635,20,32765
2.28293,1.58579,0.0437232,19,32765
2.28811,1.57835,0.0420615,20,32765
2.25202,1.54264,0.0394909,18,32765
2.23229,1.51838,0.0372337,19,32765
2.27871,1.53906,0.0359264,22,32765
2.27569,1.52568,0.0340707,22,32765
2.23918,1.49035,0.0316779,19,32765
2.26925,1.49933,0.0303895,21,32765
2.25747,1.48089,0.0284485,22,32765
2.23714,1.45718,0.0265769,21,32765
2.30914,1.49322,0.0257924,23,32765
2.25512,1.44785,0.0236148,23,32765
2.29372,1.46176,0.02232,22,32765
2.23945,1.41667,0.020116,20,32765
2.21877,1.39324,0.0185149,21,32765
2.28281,1.42288,0.0175567,21,32765
2.28747,1.41539,0.0159533,23,32765
2.30919,1.41828,0.0145845,24,32765
2.30534,1.40542,0.0131501,21,32765
2.24157,1.35634,0.0113356,22,32765
2.2547,1.35394,0.00999491,21,32765
2.23345,1.33102,0.00842815,21,32765
2.24654,1.32858,0.00711895,22,32765
2.26826,1.33112,0.00590225,23,32765
2.2813,1.32863,0.00455506,25,32765
2.28568,1.32109,0.00315521,24,32765
2.27269,1.30357,0.00177635,22,32765
2.25966,1.28605,0.000628978,22,32765
2.27269,1.28334,-0.000739302,22,32765
2.27705,1.27559,-0.00173864,24,32765
2.27261,1.26303,-0.00299517,24,32765
2.27677,1.25551,-0.00414759,23,32765
2.31606,1.26706,-0.00542753,25,32765
2.29388,1.24506,-0.00649753,23,32765
2.28041,1.22792,-0.00763965,21,32765
2.25806,1.2061,-0.00881414,22,32765
2.27974,1.20793,-0.00973352,22,32765
2.29262,1.20493,-0.0110036,24,32765
2.28771,1.19273,-0.01279,23,32765
2.25614,1.16673,-0.0135365,24,32765
2.28675,1.1728,-0.0148677,24,32765
2.30851,1.17415,-0.0163667,24,32765
2.32145,1.17071,-0.0175704,24,32765
2.29861,1.14933,-0.018418,23,32765
2.28458,1.13261,-0.0192043,24,32765
2.30635,1.13368,-0.0205836,23,32765
2.29211,1.11726,-0.0218498,24,32765
2.32283,1.12263,-0.0235075,23,32765
2.32657,1.11485,-0.0243902,25,32765
2.30325,1.09405,-0.0249327,23,32765
2.33412,1.09895,-0.0248375,23,32765
2.31059,1.07843,-0.0258551,23,32765
2.32329,1.07481,-0.0268679,23,32765
2.32689,1.06695,-0.0278791,24,32765
2.36686,1.07569,-0.0294285,26,32765
2.28841,1.03073,-0.0295461,23,32765
2.31009,1.03123,-0.0308642,24,32765
2.32265,1.02756,-0.0318899,24,32765
2.34442,1.02772,-0.0331064,24,32765
2.32946,1.01195,-0.0339693,24,32765
2.28692,0.984326,-0.0344067,22,32765
2.33616,0.996322,-0.0362264,24,32765
2.33025,0.984596,-0.0372782,24,32765
2.33355,0.976731,-0.0381738,23,32765
2.33679,0.968907,-0.0393214,24,32765
2.32152,0.953424,-0.0401463,24,32765
2.30616,0.938112,-0.0408661,16,32765
2.36488,0.952882,-0.0428538,21,32765
2.34944,0.937598,-0.0438132,21,32765
2.34317,0.926268,-0.0445778,24,32765
2.39277,0.936676,-0.0467652,25,32765
2.33053,0.903588,-0.0465621,24,32765
2.35212,0.903114,-0.048233,25,32765
2.35507,0.895322,-0.0492483,25,32765
2.36736,0.89105,-0.050573,25,32765
2.37964,0.886697,-0.051861,23,32765
2.3825,0.878901,-0.0532064,23,32765
2.35719,0.860743,-0.0536613,23,32765
2.35059,0.849546,-0.0547022,24,32765
2.40036,0.858788,-0.0569042,25,32765
2.33718,0.82751,-0.0565744,24,32765
2.36812,0.829864,-0.0584308,24,32765
2.37077,0.822188,-0.059698,25,32765
2.39229,0.821022,-0.061462,25,32765
2.40432,0.816638,-0.0629683,24,32765
2.35952,0.792948,-0.0632018,23,32765
2.35252,0.782265,-0.0641248,23,32765
2.39298,0.787154,-0.0665854,25,32765
2.39545,0.779481,-0.0680577,25,32765
2.37879,0.765893,-0.0690401,25,32765
2.40018,0.7645,-0.0711356,25,32765
2.42163,0.762835,-0.0733323,25,32765
2.40494,0.74907,-0.0745186,24,32765
2.286,1.68478,0.0363908,20,32765
2.26737,1.65952,0.0333323,18,32765
2.28094,1.65793,0.0311172,18,32765
2.27027,1.63862,0.0284966,20,32765
2.28382,1.63693,0.0265847,22,32765
2.29747,1.63507,0.0242411,21,32765
2.22943,1.57546,0.0216685,21,32765
2.26742,1.59101,0.0198005,22,32765
2.26452,1.57773,0.0176662,22,32765
2.26145,1.56464,0.015956,24,32765
2.28303,1.56859,0.014229,23,32765
2.25514,1.53853,0.0121778,22,32765
2.27674,1.54235,0.010268,24,32765
2.28204,1.53451,0.0085342,25,32765
2.26223,1.51019,0.00664792,24,32765
2.24232,1.48596,0.00494867,24,32765
2.25556,1.48406,0.00324722,24,32765
2.25201,1.47124,0.00166573,23,32765
2.26527,1.46921,0.000117512,24,32765
2.27007,1.46178,-0.00141717,25,32765
2.27498,1.45412,-0.00305462,24,32765
2.26295,1.43578,-0.00468232,24,32765
2.29312,1.44418,-0.00615767,24,32765
2.28096,1.42593,-0.00756753,24,32765
2.31111,1.43425,-0.00927542,26,32765
2.26477,1.3951,-0.010533,25,32765
2.29498,1.40322,-0.0120296,25,32765
2.27399,1.38,-0.0133443,24,32765
2.27862,1.37232,-0.0147464,25,32765
2.28321,1.36466,-0.0162349,25,32765
2.27919,1.35184,-0.0175383,24,32765
2.28374,1.34413,-0.0188216,24,32765
2.30545,1.34662,-0.0203511,24,32765
2.27528,1.31892,-0.0214429,25,32765
2.2883,1.31635,-0.0228919,25,32765
2.24927,1.28386,-0.02359,25,32765
2.28839,1.29596,-0.0253377,25,32765
2.30151,1.29304,-0.0264474,24,32765
2.2884,1.27549,-0.0275221,23,32765
2.30135,1.27274,-0.0287951,24,32765
2.3056,1.26499,-0.0300088,24,32765
2.29221,1.24776,-0.0309145,25,32765
2.27876,1.23058,-0.0318716,25,32765
2.28289,1.22288,-0.0331514,26,32765
2.27812,1.21055,-0.0338763,26,32765
2.29985,1.21221,-0.035378,26,32765
2.31268,1.20922,-0.0373659,25,32765
2.29006,1.18768,-0.0378983,25,32765
2.32072,1.19364,-0.0395305,26,32765
2.30691,1.1767,-0.0406128,26,32765
2.30201,1.16424,-0.0415898,27,32765
2.29704,1.15183,-0.0424811,26,32765
2.30094,1.14399,-0.0434202,26,32765
2.30479,1.13615,-0.0446508,26,32765
2.29056,1.1197,-0.0457314,24,32765
2.33027,1.12945,-0.0478566,25,32765
2.29798,1.1043,-0.047992,26,32765
2.30172,1.09644,-0.0488202,27,32765
2.31452,1.09282,-0.0486291,26,32765
2.3272,1.08927,-0.0501375,27,32765
2.30365,1.06875,-0.0504585,27,32765
2.32541,1.06929,-0.0518689,27,32765
2.32896,1.06147,-0.0529675,26,32765
2.34163,1.05769,-0.0543396,26,32765
2.32689,1.04167,-0.0550097,26,32765
2.33034,1.03388,-0.0559189,26,32765
2.33381,1.02596,-0.0568824,27,32765
2.34636,1.02217,-0.0582375,28,32765
2.34977,1.01423,-0.0593764,27,32765
2.35311,1.00639,-0.0605158,28,32765
2.34724,0.994576,-0.0614849,27,32765
2.34135,0.982764,-0.0621447,27,32765
2.38153,0.990247,-0.0642952,27,32765
2.3571,0.970768,-0.064703,27,32765
2.35106,0.959076,-0.0655115,27,32765
2.39128,0.966237,-0.0675597,27,32765
2.38517,0.954543,-0.0686152,17,32765
2.33249,0.92465,-0.0679489,17,32765
2.34483,0.920503,-0.0694986,18,32765
2.32916,0.905608,-0.0700191,23,32765
2.37872,0.915911,-0.0727347,25,32765
2.37238,0.90445,-0.0734743,26,32765
2.37533,0.896578,-0.0746095,27,32765
2.37826,0.888689,-0.0756991,27,32765
2.39987,0.887814,-0.0776523,28,32765
2.39337,0.876429,-0.078451,28,32765
2.38682,0.865086,-0.0794194,28,32765
2.38957,0.857353,-0.0805243,27,32765
2.38293,0.846103,-0.0814656,26,32765
2.39505,0.841686,-0.0829749,28,32765
2.37885,0.827337,-0.0835949,28,32765
2.39092,0.822888,-0.0852162,29,32765
2.39348,0.815275,-0.0864756,28,32765
2.38658,0.804332,-0.0876256,28,32765
2.39858,0.79986,-0.0891749,28,32765
2.4011,0.792087,-0.0906079,28,32765
2.38458,0.778169,-0.091359,28,32765
2.40595,0.776865,-0.0936286,28,32765
2.3988,0.766261,-0.0948024,28,32765
2.42024,0.764596,-0.0971877,29,32765
2.40355,0.750803,-0.0981869,28,32765
2.26222,1.66686,0.00404153,19,32765
2.24359,1.64155,0.00333694,18,32765
2.21662,1.61064,0.0025042,18,32765
2.25421,1.62694,0.00160061,20,32765
2.23524,1.60194,0.000758035,20,32765
2.28138,1.62336,-0.000204183,20,32765
2.26227,1.59845,-0.00109146,19,32765
2.27574,1.59668,-0.00220094,20,32765
2.2563,1.57214,-0.00321502,22,32765
2.26146,1.5647,-0.00401548,22,32765
2.29129,1.57428,-0.00531704,23,32765
2.26343,1.54417,-0.00613185,22,32765
2.1941,1.48605,-0.00745227,20,32765
2.27381,1.52882,-0.00872627,21,32765
2.27073,1.51545,-0.0096518,21,32765
2.25917,1.4967,-0.0108552,20,32765
2.27244,1.49474,-0.0120394,22,32765
2.22713,1.45441,-0.0129682,21,32765
2.27389,1.47421,-0.0145478,22,32765
2.24517,1.44495,-0.0155202,21,32765
2.24997,1.43744,-0.0166329,20,32765
2.24633,1.42453,-0.0176477,21,32765
2.2595,1.4224,-0.0190718,21,32765
2.2557,1.40963,-0.0198218,22,32765
2.30286,1.42845,-0.0214533,24,32765
2.25653,1.38927,-0.0222471,22,32765
2.24411,1.37126,-0.0231044,22,32765
2.26581,1.37404,-0.0244899,22,32765
2.28753,1.37674,-0.0261063,21,32765
2.2578,1.34852,-0.0269898,23,32765
2.25369,1.33584,-0.0280436,22,32765
2.2668,1.3333,-0.029301,22,32765
2.26265,1.32057,-0.0302894,22,32765
2.26708,1.31292,-0.0314927,22,32765
2.28884,1.31519,-0.0329984,24,32765
2.26717,1.29262,-0.0339913,20,32765
2.26274,1.28015,-0.0349759,21,32765
2.25827,1.26768,-0.0360119,22,32765
2.31487,1.28935,-0.0381086,25,32765
2.31916,1.28157,-0.0395107,23,32765
2.30592,1.26413,-0.0402817,24,32765
2.30133,1.25163,-0.0414766,24,32765
2.32317,1.25325,-0.0429251,24,32765
2.31858,1.24064,-0.0439331,23,32765
2.29622,1.21876,-0.0446366,22,32765
2.29145,1.20634,-0.0456193,24,32765
2.2866,1.194,-0.0469777,23,32765
2.29058,1.1863,-0.0481348,24,32765
2.30346,1.18311,-0.0493565,24,32765
2.32524,1.18437,-0.0510912,23,32765
2.3114,1.16742,-0.0517274,24,32765
2.28848,1.14617,-0.0524909,21,32765
2.31916,1.1518,-0.0543379,22,32765
2.30508,1.13512,-0.054951,23,32765
2.33583,1.14046,-0.0568793,25,32765
2.33963,1.13259,-0.0581228,25,32765
2.31634,1.11177,-0.058454,24,32765
2.32002,1.10403,-0.0595177,24,32765
2.3327,1.10056,-0.0607713,23,32765
2.33633,1.09277,-0.0619586,24,32765
2.33997,1.08485,-0.0634605,22,32765
2.2982,1.05603,-0.0628067,23,32765
2.31998,1.05644,-0.0643563,24,32765
2.32347,1.04865,-0.0656564,24,32765
2.32702,1.04069,-0.0665682,23,32765
2.35791,1.04498,-0.0683634,25,32765
2.33386,1.02511,-0.0687107,24,32765
2.35558,1.02529,-0.0702363,24,32765
2.32221,1.00167,-0.0700688,24,32765
2.33475,0.997721,-0.0712918,25,32765
2.36568,1.00156,-0.0730453,23,32765
2.3874,1.00145,-0.0745086,25,32765
2.36299,0.981999,-0.0746088,26,32765
2.35691,0.97047,-0.0751178,25,32765
2.38785,0.973983,-0.0769414,25,32765
2.36321,0.954905,-0.0768174,25,32765
2.31995,0.928476,-0.0760204,17,32765
2.31372,0.917048,-0.076398,19,32765
2.40975,0.945934,-0.0801826,15,32765
2.3104,0.898025,-0.0776133,19,32765
2.33195,0.897636,-0.0790606,23,32765
2.40024,0.914902,-0.0818993,26,32765
2.38451,0.899935,-0.0819303,25,32765
2.38739,0.892224,-0.0825133,25,32765
2.36218,0.873914,-0.0822273,24,32765
2.40257,0.879851,-0.0843002,26,32765
2.36787,0.858274,-0.0834573,23,32765
2.38007,0.85385,-0.0843209,24,32765
2.37343,0.842662,-0.0844318,23,32765
2.37618,0.834811,-0.0851081,25,32765
2.39776,0.83361,-0.0862976,26,32765
2.38154,0.819304,-0.085989,26,32765
2.39364,0.814795,-0.0865736,26,32765
2.38676,0.803929,-0.0865271,27,32765
2.38936,0.796094,-0.0871063,26,32765
2.40139,0.791548,-0.0876863,25,32765
2.42289,0.7901,-0.0885124,25,32765
2.42538,0.782429,-0.0886266,24,32765
2.38977,0.762564,-0.0871571,25,32765
2.4304,0.766674,-0.0887499,27,32765
2.40422,0.749965,-0.0876088,25,32765
2.2515,1.66441,-0.0220191,22,32765
2.25708,1.65682,-0.0226891,23,32765
2.27061,1.65526,-0.0235785,22,32765
2.2678,1.64209,-0.0244448,23,32765
2.24892,1.61698,-0.0250177,23,32765
2.26252,1.61516,-0.0260805,24,32765
2.27604,1.61338,-0.0270736,26,32765
2.25685,1.58853,-0.0278832,25,32765
2.28658,1.59837,-0.0292423,25,32765
2.25077,1.5623,-0.0295191,23,32765
2.29703,1.58327,-0.031323,24,32765
2.26924,1.55308,-0.0317717,24,32765
2.27446,1.54539,-0.0333536,25,32765
2.28797,1.54324,-0.0345064,25,32765
2.26833,1.51866,-0.035092,24,32765
2.29012,1.52201,-0.0366449,24,32765
2.27008,1.49791,-0.0373921,24,32765
2.26665,1.48489,-0.0384741,24,32765
2.30509,1.49915,-0.0404003,25,32765
2.26808,1.46429,-0.0408689,25,32765
2.26453,1.45129,-0.0418414,24,32765
2.26938,1.44366,-0.0429335,24,32765
2.29951,1.45212,-0.044798,26,32765
2.27888,1.42856,-0.0451375,25,32765
2.2921,1.42622,-0.0465621,25,32765
2.26283,1.39749,-0.0471484,24,32765
2.27603,1.39509,-0.0483692,25,32765
2.28925,1.39257,-0.0497765,25,32765
2.31958,1.40035,-0.0517891,26,32765
2.29853,1.37709,-0.0525171,25,32765
2.26875,1.34892,-0.052901,23,32765
2.29049,1.3514,-0.0544677,23,32765
2.28642,1.33855,-0.0553779,24,32765
2.29955,1.33583,-0.0568111,25,32765
2.31271,1.33299,-0.0583067,25,32765
2.27377,1.30037,-0.0585902,24,32765
2.26937,1.28784,-0.0594881,25,32765
2.29978,1.29494,-0.0613672,24,32765
2.2866,1.2775,-0.0621527,24,32765
2.29959,1.27464,-0.0637836,23,32765
2.3389,1.28613,-0.0658416,25,32765
2.29928,1.25433,-0.0659588,26,32765
2.29474,1.24169,-0.0668284,25,32765
2.31654,1.24332,-0.0685134,25,32765
2.32069,1.23549,-0.0697342,26,32765
2.28946,1.20896,-0.0698301,26,32765
2.28462,1.19659,-0.0710969,24,32765
2.32409,1.20731,-0.0733764,25,32765
2.31926,1.19483,-0.0741417,26,32765
2.32326,1.18695,-0.0754973,27,32765
2.32728,1.179,-0.0765351,26,32765
2.34907,1.18008,-0.0785235,27,32765
2.31722,1.15431,-0.078563,27,32765
2.30316,1.1376,-0.0789912,26,32765
2.35185,1.15175,-0.0818268,25,32765
2.31971,1.12634,-0.0818134,25,32765
2.34146,1.12721,-0.0834632,26,32765
2.33616,1.11506,-0.0842162,26,32765
2.3308,1.10298,-0.084915,27,32765
2.34348,1.09942,-0.086438,27,32765
2.35621,1.09566,-0.0882869,27,32765
2.33267,1.07509,-0.0878557,27,32765
2.33631,1.06707,-0.0889192,26,32765
2.36715,1.07157,-0.0912844,27,32765
2.35254,1.05526,-0.0915068,26,32765
2.35606,1.0473,-0.0925207,28,32765
2.38691,1.05156,-0.0947674,28,32765
2.36291,1.03156,-0.0946706,27,32765
2.3571,1.01977,-0.0952459,27,32765
2.35132,1.00781,-0.0958306,28,32765
2.37306,1.0077,-0.0974963,27,32765
2.37637,0.999803,-0.0983895,27,32765
2.37964,0.991881,-0.0993621,28,32765
2.38284,0.984083,-0.100174,27,32765
2.37681,0.97238,-0.100724,28,32765
2.38923,0.968305,-0.101897,29,32765
2.38314,0.956616,-0.102233,28,32765
2.34915,0.933874,-0.101336,27,32765
2.3429,0.92244,-0.101635,23,32765
2.36456,0.921825,-0.1033,15,32765
2.38618,0.921254,-0.104956,26,32765
2.40784,0.920539,-0.106405,28,32765
2.3828,0.901973,-0.105838,28,32765
2.39504,0.897754,-0.10684,28,32765
2.40734,0.893278,-0.107958,28,32765
2.42901,0.892186,-0.109576,29,32765
2.39438,0.87047,-0.108366,28,32765
2.39721,0.862563,-0.108904,29,32765
2.40003,0.854642,-0.109356,28,32765
2.41224,0.850003,-0.110473,28,32765
2.41498,0.8421,-0.110993,28,32765
2.39881,0.827702,-0.110501,28,32765
2.42039,0.826352,-0.11162,29,32765
2.42302,0.81857,-0.111922,29,32765
2.39724,0.801097,-0.111194,29,32765
2.40928,0.796513,-0.11187,29,32765
2.41181,0.788823,-0.112004,29,32765
2.40479,0.778091,-0.111679,28,32765
2.4358,0.77956,-0.112924,29,32765
2.43837,0.77147,-0.113131,28,32765
2.4313,0.76066,-0.112592,28,32765
2.24652,1.65444,-0.0101067,19,32765
2.24395,1.64101,-0.012817,20,32765
2.24121,1.62778,-0.0152054,20,32765
2.24657,1.62034,-0.0175389,20,32765
2.29252,1.64206,-0.0199701,22,32765
2.24905,1.59966,-0.021954,22,32765
2.22985,1.57483,-0.0237901,21,32765
2.27603,1.59606,-0.0262209,22,32765
2.25665,1.57138,-0.0281036,23,32765
2.28641,1.58108,-0.0305676,22,32765
2.28329,1.56795,-0.0323015,23,32765
2.29669,1.56602,-0.0343697,23,32765
2.2688,1.53587,-0.0355762,21,32765
2.25747,1.51685,-0.0373812,22,32765
2.29581,1.53143,-0.0399064,22,32765
2.25921,1.49612,-0.041027,22,32765
2.26415,1.48858,-0.0428749,22,32765
2.2941,1.49756,-0.0449142,22,32765
2.27381,1.47369,-0.0461611,21,32765
2.34589,1.50946,-0.0492434,23,32765
2.27497,1.45331,-0.0493399,23,32765
2.29668,1.45637,-0.0515026,22,32765
2.30146,1.44875,-0.0529705,22,32765
2.28086,1.42508,-0.0541593,21,32765
2.28554,1.41751,-0.0553752,21,32765
2.28172,1.4046,-0.0570467,23,32765
2.31197,1.41259,-0.0591277,24,32765
2.25679,1.36857,-0.059424,21,32765
2.32134,1.39698,-0.0625483,22,32765
2.30023,1.37381,-0.063067,21,32765
2.26181,1.34056,-0.0633688,22,32765
2.27487,1.33803,-0.0651032,23,32765
2.3052,1.34553,-0.0672038,22,32765
2.30101,1.33277,-0.0683498,21,32765
2.31409,1.33004,-0.0699405,21,32765
2.29249,1.30733,-0.0706066,22,32765
2.35775,1.33404,-0.0739769,21,32765
2.27502,1.27716,-0.0725027,23,32765
2.29671,1.27924,-0.0745321,24,32765
2.27467,1.25708,-0.0749034,23,32765
2.30512,1.26388,-0.0769518,24,32765
2.31805,1.26098,-0.0786335,24,32765
2.31337,1.24856,-0.0795494,23,32765
2.30869,1.23609,-0.0803715,22,32765
2.33921,1.2425,-0.0824467,22,32765
2.29026,1.2067,-0.081826,22,32765
2.32086,1.21282,-0.0840905,23,32765
2.3072,1.1957,-0.0844753,23,32765
2.30237,1.18318,-0.0853474,24,32765
2.37759,1.21163,-0.089118,24,32765
2.34602,1.18541,-0.0889563,24,32765
2.34105,1.17294,-0.0898867,22,32765
2.35393,1.16942,-0.0915341,23,32765
2.30403,1.13496,-0.0905511,23,32765
2.30778,1.12722,-0.0917085,24,32765
2.32954,1.1281,-0.0935403,25,32765
2.30627,1.10723,-0.093585,24,32765
2.34606,1.11662,-0.0957449,25,32765
2.34073,1.10442,-0.0965707,23,32765
2.37152,1.10928,-0.0990096,24,32765
2.33893,1.08447,-0.0987407,24,32765
2.31531,1.06403,-0.0985214,23,32765
2.35516,1.07287,-0.10132,25,32765
2.35875,1.06487,-0.102359,24,32765
2.34403,1.04877,-0.102649,25,32765
2.35664,1.0449,-0.104203,23,32765
2.39669,1.05303,-0.106753,24,32765
2.39101,1.04096,-0.107455,25,32765
2.34859,1.01311,-0.106607,25,32765
2.35192,1.00524,-0.107583,25,32765
2.39206,1.01282,-0.110797,25,32765
2.39541,1.00476,-0.111685,27,32765
2.38028,0.988994,-0.112048,26,32765
2.40201,0.98861,-0.114107,26,32765
2.39597,0.976865,-0.114794,25,32765
2.38062,0.961436,-0.114936,24,32765
2.39296,0.957359,-0.11669,23,32765
2.34963,0.931027,-0.115429,24,32765
2.38989,0.937724,-0.118394,25,32765
2.36501,0.918888,-0.118214,25,32765
2.40533,0.925255,-0.121285,25,32765
2.39898,0.913741,-0.121912,14,32765
2.36453,0.891735,-0.121356,18,32765
2.42352,0.904959,-0.125226,26,32765
2.38895,0.883132,-0.124563,26,32765
2.40116,0.878661,-0.126408,24,32765
2.41342,0.874054,-0.127838,25,32765
2.43503,0.872809,-0.130161,26,32765
2.40019,0.851348,-0.129556,25,32765
2.41228,0.846883,-0.131488,25,32765
2.41496,0.839022,-0.132708,24,32765
2.45534,0.844277,-0.136081,24,32765
2.42015,0.823557,-0.135084,25,32765
2.43219,0.818889,-0.137085,24,32765
2.37794,0.791954,-0.135381,24,32765
2.43735,0.802847,-0.140231,26,32765
2.42086,0.788796,-0.140433,25,32765
2.43276,0.784236,-0.142316,26,32765
2.42559,0.773622,-0.143302,25,32765
2.4279,0.766046,-0.144912,24,32765
2.43973,0.761365,-0.147142,24,32765
2.23566,1.65195,-0.0359166,23,32765
2.24921,1.65035,-0.0388039,23,32765
2.24649,1.63707,-0.04111,25,32765
2.25187,1.62959,-0.0434539,23,32765
2.26531,1.62799,-0.0457046,24,32765
2.27068,1.62043,-0.0481414,23,32765
2.26789,1.60703,-0.0500838,24,32765
2.25688,1.5879,-0.0517065,24,32765
2.26209,1.5804,-0.0538821,26,32765
2.28362,1.5844,-0.056432,25,32765
2.31344,1.59393,-0.0589138,26,32765
2.29391,1.56931,-0.0602387,25,32765
2.2578,1.53348,-0.0608526,24,32765
2.27963,1.53681,-0.0633881,25,32765
2.30137,1.54021,-0.065834,24,32765
2.28983,1.5214,-0.0672317,26,32765
2.26981,1.49722,-0.0683552,24,32765
2.30812,1.51168,-0.070939,26,32765
2.2879,1.4877,-0.0719216,25,32765
2.29276,1.48012,-0.0736066,25,32765
2.31439,1.48335,-0.0758643,26,32765
2.27715,1.44872,-0.0762712,25,32765
2.2819,1.44114,-0.0777308,26,32765
2.30364,1.44403,-0.0801015,26,32765
2.29141,1.4258,-0.0807356,25,32765
2.31314,1.42859,-0.0832411,25,32765
2.36047,1.44694,-0.0862482,26,32765
2.32255,1.41304,-0.0865722,25,32765
2.31017,1.39479,-0.0874809,26,32765
2.30624,1.38187,-0.0883752,26,32765
2.31084,1.37407,-0.0898897,25,32765
2.30678,1.3612,-0.0910739,24,32765
2.3199,1.35851,-0.0927871,24,32765
2.34169,1.36073,-0.0949033,25,32765
2.31156,1.33289,-0.0948387,25,32765
2.32469,1.32998,-0.09667,25,32765
2.32043,1.31716,-0.0977876,26,32765
2.3074,1.29952,-0.0983323,26,32765
2.32914,1.30149,-0.100573,26,32765
2.32468,1.28886,-0.101448,24,32765
2.35521,1.2955,-0.103806,25,32765
2.34191,1.27806,-0.104441,25,32765
2.31972,1.25601,-0.104488,26,32765
2.32388,1.24821,-0.105624,26,32765
2.31032,1.23109,-0.105968,27,32765
2.32322,1.22799,-0.10764,27,32765
2.30077,1.20617,-0.107721,26,32765
2.33143,1.21212,-0.110004,25,32765
2.31778,1.19491,-0.110376,25,32765
2.3129,1.18243,-0.11106,26,32765
2.33474,1.18348,-0.113086,27,32765
2.34763,1.17998,-0.114793,26,32765
2.34263,1.16752,-0.115658,28,32765
2.36443,1.16842,-0.117679,26,32765
2.33241,1.14288,-0.117069,25,32765
2.32724,1.13058,-0.117739,25,32765
2.367,1.14001,-0.120718,26,32765
2.3618,1.12768,-0.120965,26,32765
2.33846,1.10686,-0.120775,28,32765
2.34209,1.099,-0.122083,27,32765
2.33667,1.08687,-0.122856,27,32765
2.33123,1.07474,-0.123318,26,32765
2.36199,1.0794,-0.126018,27,32765
2.3565,1.06723,-0.126574,26,32765
2.38737,1.07154,-0.129143,27,32765
2.37266,1.05534,-0.129323,28,32765
2.35789,1.03926,-0.12925,28,32765
2.37047,1.03529,-0.130854,28,32765
2.38306,1.03123,-0.13259,28,32765
2.3681,1.01536,-0.132556,27,32765
2.35307,0.99947,-0.133039,25,32765
2.37479,0.999275,-0.134962,26,32765
2.40575,1.00275,-0.137769,27,32765
2.39058,0.987027,-0.137901,28,32765
2.39378,0.97907,-0.139029,29,32765
2.38771,0.96736,-0.139526,28,32765
2.39079,0.959528,-0.140835,28,32765
2.40318,0.95527,-0.142406,28,32765
2.37844,0.936199,-0.141894,24,32765
2.4001,0.935485,-0.144224,25,32765
2.41249,0.930963,-0.145999,27,32765
2.40617,0.919395,-0.146539,26,32765
2.40911,0.911443,-0.147908,28,32765
2.43072,0.91054,-0.150051,18,32765
2.38683,0.885166,-0.148439,23,32765
2.40841,0.884128,-0.150965,28,32765
2.43944,0.886302,-0.153676,28,32765
2.4047,0.864698,-0.152626,26,32765
2.4451,0.870058,-0.156445,29,32765
2.41958,0.852171,-0.156071,29,32765
2.42227,0.844265,-0.157297,28,32765
2.41544,0.833233,-0.157965,28,32765
2.43692,0.831937,-0.160305,30,32765
2.43006,0.820815,-0.161159,29,32765
2.43265,0.812798,-0.162692,27,32765
2.44469,0.807878,-0.164946,27,32765
2.46617,0.806171,-0.167544,28,32765
2.45912,0.795313,-0.168249,29,32765
2.43297,0.778508,-0.167848,30,32765
2.4448,0.773901,-0.170128,29,32765
2.45664,0.769155,-0.172464,30,32765
2.24286,1.65802,-0.0680339,20,32765
2.2485,1.65033,-0.068796,20,32765
2.27843,1.66019,-0.0702892,21,32765
2.27589,1.64663,-0.0709491,21,32765
2.24076,1.60985,-0.0705874,21,32765
2.26236,1.61398,-0.0719631,22,32765
2.24317,1.58916,-0.0725063,22,32765
2.27294,1.59894,-0.0743321,22,32765
2.29467,1.60273,-0.0757734,23,32765
2.23427,1.54947,-0.0746884,21,32765
2.26409,1.559,-0.0769005,22,32765
2.3022,1.57408,-0.0790534,21,32765
2.26604,1.53832,-0.0788569,21,32765
2.28768,1.54195,-0.0805691,22,32765
2.30942,1.54538,-0.0824142,21,32765
2.32297,1.543,-0.0840541,21,32765
2.29475,1.51312,-0.0840878,22,32765
2.32493,1.52172,-0.0864307,23,32765
2.32994,1.51398,-0.0875516,25,32765
2.28455,1.47366,-0.087005,23,32765
2.3315,1.49296,-0.0898278,23,32765
2.30269,1.46372,-0.0897367,22,32765
2.3075,1.45604,-0.0910636,22,32765
2.27836,1.42717,-0.0912607,21,32765
2.30856,1.43535,-0.0935276,22,32765
2.34733,1.44859,-0.0961908,24,32765
2.34363,1.43544,-0.0971429,24,32765
2.32274,1.41201,-0.0974452,22,32765
2.27605,1.37327,-0.0965115,21,32765
2.3492,1.40665,-0.100892,23,32765
2.30236,1.36805,-0.0998294,22,32765
2.2983,1.35518,-0.100957,22,32765
2.27692,1.3323,-0.101138,24,32765
2.32452,1.34975,-0.10442,24,32765
2.31169,1.33189,-0.105112,24,32765
2.2901,1.30919,-0.105225,22,32765
2.32923,1.32111,-0.108373,22,32765
2.30756,1.29843,-0.108509,20,32765
2.27701,1.27107,-0.108162,22,32765
2.2987,1.27308,-0.110314,24,32765
2.32915,1.2798,-0.112994,23,32765
2.29828,1.25284,-0.112736,23,32765
2.34635,1.26888,-0.116171,24,32765
2.33294,1.25153,-0.116571,23,32765
2.35471,1.25303,-0.11897,24,32765
2.30594,1.21692,-0.117654,23,32765
2.3543,1.23214,-0.121196,23,32765
2.34071,1.21486,-0.121628,23,32765
2.35359,1.21155,-0.123531,24,32765
2.33981,1.19452,-0.123769,23,32765
2.36158,1.19562,-0.126168,23,32765
2.32989,1.1696,-0.125578,24,32765
2.37855,1.18382,-0.129173,25,32765
2.34667,1.15803,-0.128405,25,32765
2.35048,1.15013,-0.129711,23,32765
2.36326,1.14657,-0.131407,24,32765
2.35804,1.13425,-0.132305,25,32765
2.3798,1.13489,-0.134759,25,32765
2.35649,1.114,-0.134289,23,32765
2.35112,1.10184,-0.134767,23,32765
2.38189,1.10662,-0.137527,23,32765
2.36732,1.0904,-0.137652,25,32765
2.36176,1.07843,-0.138141,25,32765
2.35621,1.06637,-0.138739,24,32765
2.36889,1.0624,-0.140249,25,32765
2.39982,1.06642,-0.143159,26,32765
2.39422,1.05426,-0.14373,26,32765
2.37941,1.03816,-0.143646,23,32765
2.40112,1.03815,-0.145783,24,32765
2.38617,1.02224,-0.145596,22,32765
2.36201,1.00239,-0.144959,24,32765
2.38374,1.00209,-0.147231,25,32765
2.38708,0.994038,-0.147755,24,32765
2.39954,0.989882,-0.149494,25,32765
2.37499,0.970673,-0.148698,24,32765
2.3874,0.966544,-0.150091,23,32765
2.4276,0.973487,-0.153309,23,32765
2.38438,0.946984,-0.151166,23,32765
2.39677,0.942663,-0.152594,23,32765
2.40916,0.938297,-0.153767,26,32765
2.35633,0.908751,-0.150937,23,32765
2.4152,0.922405,-0.155212,25,32765
2.43684,0.921528,-0.157147,25,32765
2.40243,0.899513,-0.155293,18,32765
2.41469,0.895056,-0.156648,17,32765
2.40822,0.883661,-0.15662,23,32765
2.40171,0.872252,-0.156732,23,32765
2.41396,0.867627,-0.157872,24,32765
2.40733,0.856427,-0.157793,24,32765
2.42893,0.855149,-0.159465,25,32765
2.43171,0.847145,-0.159733,25,32765
2.42497,0.836009,-0.15977,25,32765
2.44654,0.834551,-0.161385,26,32765
2.43028,0.820303,-0.160506,25,32765
2.42345,0.809267,-0.159877,24,32765
2.41657,0.798271,-0.159534,23,32765
2.43815,0.796502,-0.161025,23,32765
2.45025,0.791522,-0.161811,26,32765
2.47183,0.789609,-0.163086,26,32765
2.43626,0.769691,-0.160618,27,32765
2.45772,0.768055,-0.161519,26,32765
2.26349,1.67929,-0.0949113,24,32765
2.27725,1.67744,-0.0960252,23,32765
2.27497,1.66361,-0.0964437,24,32765
2.26438,1.64415,-0.0966696,25,32765
2.28605,1.64824,-0.0982842,24,32765
2.27526,1.62896,-0.0984615,24,32765
2.2643,1.60982,-0.0990955,25,32765
2.27778,1.60801,-0.100494,25,32765
2.28315,1.60032,-0.101401,26,32765
2.30487,1.60406,-0.103247,26,32765
2.26906,1.56792,-0.102807,24,32765
2.29068,1.5717,-0.104586,24,32765
2.27935,1.55277,-0.105065,24,32765
2.29274,1.55076,-0.10659,26,32765
2.29789,1.54304,-0.10785,26,32765
2.28649,1.52405,-0.108399,26,32765
2.28325,1.51077,-0.109242,25,32765
2.29668,1.50845,-0.111054,26,32765
2.28491,1.48987,-0.11135,24,32765
2.33177,1.50933,-0.114765,25,32765
2.31995,1.4907,-0.115161,26,32765
2.2996,1.4668,-0.115118,26,32765
2.30442,1.45911,-0.116448,25,32765
2.31763,1.45676,-0.118437,25,32765
2.32246,1.44895,-0.119698,25,32765
2.36123,1.46217,-0.122745,24,32765
2.29801,1.41232,-0.120493,25,32765
2.32825,1.4202,-0.123202,26,32765
2.34147,1.41757,-0.124908,26,32765
2.32905,1.39935,-0.125466,26,32765
2.3509,1.40165,-0.127564,27,32765
2.36415,1.39875,-0.129577,26,32765
2.35156,1.38065,-0.129997,25,32765
2.33884,1.36268,-0.130423,25,32765
2.32608,1.34473,-0.130943,25,32765
2.35654,1.35174,-0.133739,26,32765
2.30897,1.31406,-0.132334,25,32765
2.33079,1.31594,-0.134696,25,32765
2.3352,1.30795,-0.136024,25,32765
2.33952,1.30006,-0.137374,26,32765
2.36128,1.30184,-0.139844,26,32765
2.32176,1.26991,-0.138714,26,32765
2.36105,1.28114,-0.142104,26,32765
2.34771,1.26369,-0.142329,26,32765
2.30784,1.23222,-0.141157,26,32765
2.35613,1.24759,-0.145241,26,32765
2.36033,1.23946,-0.146537,26,32765
2.34679,1.22211,-0.14679,25,32765
2.3508,1.21419,-0.148234,25,32765
2.35482,1.20623,-0.149416,26,32765
2.38552,1.21179,-0.152583,27,32765
2.34499,1.18114,-0.151063,26,32765
2.36685,1.18195,-0.153399,26,32765
2.34396,1.16056,-0.152839,26,32765
2.33881,1.14826,-0.153559,25,32765
2.39645,1.16656,-0.158311,25,32765
2.35534,1.13675,-0.156745,25,32765
2.35908,1.12877,-0.158181,27,32765
2.37185,1.12502,-0.159856,26,32765
2.36653,1.11277,-0.16025,27,32765
2.39729,1.1175,-0.163301,27,32765
2.36466,1.09282,-0.162009,28,32765
2.38634,1.0933,-0.164281,26,32765
2.38993,1.08525,-0.16543,25,32765
2.40267,1.08115,-0.167051,26,32765
2.38806,1.06474,-0.167074,26,32765
2.41897,1.06872,-0.170117,27,32765
2.38594,1.04449,-0.168569,27,32765
2.3985,1.04049,-0.170248,27,32765
2.39275,1.02848,-0.17053,28,32765
2.39618,1.02029,-0.171592,25,32765
2.40875,1.01599,-0.173408,25,32765
2.41214,1.00783,-0.173941,25,32765
2.42463,1.00358,-0.175788,26,32765
2.41862,0.991808,-0.176068,27,32765
2.42184,0.983766,-0.176898,27,32765
2.42503,0.97571,-0.17779,28,32765
2.42821,0.967617,-0.178591,28,32765
2.43138,0.959474,-0.179446,28,32765
2.40665,0.940453,-0.177975,27,32765
2.42832,0.939645,-0.180106,28,32765
2.4127,0.924534,-0.179424,27,32765
2.40636,0.913043,-0.179461,28,32765
2.44666,0.91914,-0.182811,29,32765
2.44028,0.907567,-0.182874,28,32765
2.4245,0.892612,-0.182059,22,32765
2.44615,0.891364,-0.184202,17,32765
2.41154,0.869658,-0.181909,28,32765
2.43311,0.868496,-0.183869,27,32765
2.46413,0.870449,-0.186446,27,32765
2.46697,0.862307,-0.186721,27,32765
2.43201,0.841245,-0.184531,27,32765
2.44415,0.836527,-0.18562,29,32765
2.45625,0.831849,-0.18671,29,32765
2.44002,0.81753,-0.185272,29,32765
2.47105,0.819003,-0.187717,29,32765
2.44529,0.801513,-0.185802,30,32765
2.44792,0.79342,-0.185963,30,32765
2.45999,0.788462,-0.186707,29,32765
2.44348,0.77456,-0.185309,28,32765
2.48399,0.778862,-0.187838,28,32765
2.26686,1.67529,-0.0846473,21,32765
2.27235,1.66771,-0.0871928,22,32765
2.26159,1.6484,-0.0894866,22,32765
2.26695,1.64089,-0.0917161,22,32765
2.27237,1.63325,-0.0940152,23,32765
2.26146,1.61399,-0.0961174,21,32765
2.27496,1.61212,-0.098626,22,32765
2.27205,1.59878,-0.100405,22,32765
2.30177,1.60848,-0.103753,23,32765
2.29056,1.58945,-0.105358,22,32765
2.27105,1.56482,-0.106095,21,32765
2.30917,1.57978,-0.109762,23,32765
2.33094,1.58317,-0.112595,23,32765
2.30298,1.55303,-0.113009,22,32765
2.29144,1.53424,-0.114019,23,32765
2.26317,1.50448,-0.113986,23,32765
2.28474,1.50793,-0.117096,22,32765
2.2897,1.50027,-0.118571,22,32765
2.29465,1.49253,-0.120516,23,32765
2.34996,1.51726,-0.124837,24,32765
2.32977,1.4931,-0.125397,22,32765
2.34309,1.49065,-0.12763,23,32765
2.35638,1.48818,-0.130001,23,32765
2.27662,1.42725,-0.126816,20,32765
2.27275,1.41441,-0.128228,21,32765
2.28591,1.412,-0.130331,23,32765
2.33313,1.4304,-0.134336,22,32765
2.29523,1.39652,-0.133152,22,32765
2.29132,1.38355,-0.134328,23,32765
2.31304,1.38604,-0.136836,21,32765
2.31767,1.37815,-0.138334,22,32765
2.29641,1.35509,-0.13835,22,32765
2.30088,1.34735,-0.139712,22,32765
2.32254,1.3497,-0.142117,23,32765
2.35295,1.35681,-0.145163,23,32765
2.29677,1.31414,-0.142783,23,32765
2.35319,1.33597,-0.147542,23,32765
2.32284,1.30836,-0.146725,23,32765
2.31844,1.29566,-0.147379,23,32765
2.29651,1.27331,-0.147081,22,32765
2.39691,1.31853,-0.154533,25,32765
2.33113,1.27224,-0.151175,24,32765
2.34412,1.26907,-0.153095,24,32765
2.34836,1.26106,-0.154397,24,32765
2.3261,1.23902,-0.153798,22,32765
2.33018,1.23116,-0.155172,22,32765
2.34307,1.22798,-0.156827,24,32765
2.3648,1.22933,-0.159352,23,32765
2.35113,1.21215,-0.159352,23,32765
2.37302,1.21308,-0.161582,24,32765
2.38604,1.20933,-0.163554,24,32765
2.39016,1.20101,-0.164668,24,32765
2.43889,1.21499,-0.168921,22,32765
2.32653,1.14934,-0.162044,21,32765
2.34828,1.15021,-0.164343,23,32765
2.40593,1.16843,-0.169387,24,32765
2.3738,1.14298,-0.168136,24,32765
2.36862,1.13057,-0.16841,24,32765
2.37234,1.12258,-0.169483,23,32765
2.36702,1.11027,-0.170009,23,32765
2.39782,1.11489,-0.173205,23,32765
2.34712,1.0817,-0.170487,22,32765
2.36885,1.08203,-0.172823,25,32765
2.39061,1.08224,-0.17508,24,32765
2.36684,1.06189,-0.174491,24,32765
2.37945,1.05795,-0.176293,24,32765
2.4286,1.06994,-0.18101,24,32765
2.40467,1.04978,-0.180135,22,32765
2.40808,1.04173,-0.181258,22,32765
2.39316,1.02572,-0.181069,23,32765
2.39651,1.01767,-0.182184,24,32765
2.39066,1.0057,-0.182513,24,32765
2.42161,1.00901,-0.186018,26,32765
2.44332,1.00852,-0.188629,26,32765
2.40048,0.981304,-0.186372,25,32765
2.38516,0.965776,-0.186187,25,32765
2.44382,0.98012,-0.19161,26,32765
2.44697,0.971974,-0.19292,25,32765
2.43148,0.956682,-0.192576,26,32765
2.43452,0.948648,-0.193876,25,32765
2.42824,0.93699,-0.194374,26,32765
2.44055,0.932493,-0.196362,26,32765
2.41557,0.913766,-0.195291,25,32765
2.43715,0.912765,-0.198155,26,32765
2.45877,0.911539,-0.201097,25,32765
2.42424,0.889631,-0.199284,25,32765
2.42708,0.881526,-0.200765,24,32765
2.41112,0.866732,-0.200396,21,32765
2.42324,0.862118,-0.202572,14,32765
2.44481,0.860625,-0.205477,26,32765
2.43809,0.849297,-0.2062,26,32765
2.44076,0.841289,-0.20742,25,32765
2.42447,0.826983,-0.207262,23,32765
2.4364,0.822448,-0.209549,25,32765
2.43891,0.814625,-0.211017,26,32765
2.46032,0.813003,-0.21413,26,32765
2.42491,0.792664,-0.212412,24,32765
2.45576,0.793985,-0.216614,26,32765
2.44861,0.783175,-0.217564,24,32765
2.47942,0.78443,-0.221888,26,32765
2.45317,0.767698,-0.221306,24,32765
2.25517,1.67276,-0.110379,25,32765
2.28477,1.68297,-0.114123,24,32765
2.26601,1.65768,-0.115841,24,32765
2.28756,1.66187,-0.118921,24,32765
2.27683,1.64245,-0.12039,25,32765
2.29033,1.64058,-0.123633,24,32765
2.29576,1.6328,-0.125822,24,32765
2.29293,1.61936,-0.127534,25,32765
2.28995,1.60606,-0.129338,25,32765
2.27875,1.58702,-0.13075,25,32765
2.30856,1.59646,-0.134068,25,32765
2.32202,1.59435,-0.136692,24,32765
2.28604,1.55832,-0.136284,24,32765
2.27459,1.53945,-0.137291,25,32765
2.31276,1.55413,-0.141133,25,32765
2.31783,1.5464,-0.142796,26,32765
2.31453,1.53312,-0.144592,26,32765
2.33626,1.53631,-0.147142,26,32765
2.31623,1.51202,-0.147534,25,32765
2.32963,1.50957,-0.149739,25,32765
2.30105,1.48001,-0.149464,25,32765
2.33114,1.48839,-0.152877,26,32765
2.32754,1.47526,-0.154218,26,32765
2.35772,1.48341,-0.157427,27,32765
2.35404,1.47027,-0.158818,27,32765
2.33342,1.44652,-0.158768,25,32765
2.31267,1.42295,-0.158609,25,32765
2.36002,1.44108,-0.162833,26,32765
2.33918,1.4175,-0.16278,26,32765
2.35244,1.41469,-0.16491,26,32765
2.3743,1.41686,-0.167649,27,32765
2.36179,1.39864,-0.16804,27,32765
2.34059,1.37549,-0.167597,26,32765
2.37094,1.38274,-0.170836,27,32765
2.36687,1.36969,-0.17169,26,32765
2.34543,1.34675,-0.171199,27,32765
2.34985,1.33882,-0.172728,26,32765
2.34562,1.32588,-0.173469,26,32765
2.37611,1.3326,-0.176635,26,32765
2.33689,1.3003,-0.174792,25,32765
2.3761,1.31172,-0.178694,26,32765
2.3279,1.27497,-0.175909,25,32765
2.35842,1.28133,-0.179256,26,32765
2.37148,1.27798,-0.181242,27,32765
2.33172,1.2464,-0.179028,25,32765
2.35345,1.24785,-0.181772,25,32765
2.41053,1.26779,-0.186958,27,32765
2.37929,1.24122,-0.185572,24,32765
2.36569,1.22395,-0.185398,24,32765
2.37872,1.22027,-0.187126,25,32765
2.37396,1.20745,-0.187792,25,32765
2.38699,1.20363,-0.189613,26,32765
2.39998,1.19981,-0.191486,26,32765
2.36816,1.17401,-0.189831,26,32765
2.40786,1.18354,-0.193779,26,32765
2.36692,1.15353,-0.19144,25,32765
2.36173,1.14116,-0.191989,26,32765
2.40153,1.1503,-0.195837,25,32765
2.36027,1.12079,-0.193241,26,32765
2.38203,1.12123,-0.195898,26,32765
2.38571,1.11315,-0.197144,27,32765
2.38033,1.10085,-0.197622,26,32765
2.41117,1.10522,-0.200918,25,32765
2.40575,1.09291,-0.201104,25,32765
2.45478,1.1052,-0.206363,27,32765
2.40378,1.07251,-0.202923,27,32765
2.40732,1.06428,-0.204254,27,32765
2.4108,1.05614,-0.205427,27,32765
2.41423,1.04805,-0.206556,27,32765
2.39935,1.03199,-0.206188,27,32765
2.43941,1.03952,-0.210474,28,32765
2.42445,1.0235,-0.209936,28,32765
2.44623,1.02284,-0.212944,27,32765
2.44033,1.01083,-0.213341,27,32765
2.416,0.991119,-0.21224,28,32765
2.45613,0.998011,-0.216769,28,32765
2.44086,0.982378,-0.216234,29,32765
2.46252,0.981599,-0.219193,28,32765
2.44708,0.966217,-0.218673,29,32765
2.43159,0.950851,-0.218318,28,32765
2.4625,0.953565,-0.222077,28,32765
2.43763,0.934669,-0.220807,28,32765
2.422,0.91944,-0.220305,26,32765
2.43424,0.914907,-0.22251,28,32765
2.43717,0.906736,-0.223924,27,32765
2.44941,0.90206,-0.226044,27,32765
2.44292,0.890436,-0.226675,29,32765
2.45512,0.885693,-0.228749,29,32765
2.4579,0.877571,-0.230167,27,32765
2.44192,0.862682,-0.229747,24,32765
2.44461,0.854621,-0.231267,28,32765
2.4473,0.84657,-0.232493,29,32765
2.43104,0.832205,-0.232155,29,32765
2.46184,0.834027,-0.236353,29,32765
2.44548,0.81977,-0.236016,27,32765
2.44798,0.811852,-0.237488,27,32765
2.4599,0.80702,-0.240007,28,32765
2.46235,0.79901,-0.241727,28,32765
2.46469,0.791193,-0.243527,29,32765
2.45753,0.780347,-0.244371,27,32765
2.46928,0.775574,-0.247299,28,32765
2.30186,1.70786,-0.146808,22,32765
2.25931,1.66455,-0.144509,20,32765
2.28092,1.6688,-0.14627,22,32765
2.28648,1.66108,-0.147354,22,32765
2.31628,1.67094,-0.149784,23,32765
2.30553,1.65156,-0.150015,22,32765
2.29475,1.6322,-0.149795,23,32765
2.30823,1.63034,-0.151542,22,32765
2.28901,1.6055,-0.151011,21,32765
2.29422,1.59795,-0.151914,21,32765
2.30776,1.59585,-0.153621,22,32765
2.28837,1.57107,-0.1533,22,32765
2.31836,1.58017,-0.156147,23,32765
2.2823,1.54429,-0.154576,22,32765
2.3537,1.58113,-0.160323,22,32765
2.33403,1.55654,-0.160005,22,32765
2.28925,1.51556,-0.157838,21,32765
2.32763,1.52978,-0.161307,23,32765
2.34101,1.52741,-0.163346,24,32765
2.34604,1.51957,-0.164323,23,32765
2.35943,1.51707,-0.166427,24,32765
2.3225,1.48204,-0.164746,23,32765
2.33589,1.47945,-0.166564,23,32765
2.34082,1.47147,-0.168051,22,32765
2.35411,1.46893,-0.169761,23,32765
2.32495,1.44005,-0.168728,23,32765
2.37226,1.45824,-0.173204,23,32765
2.37704,1.45028,-0.174556,25,32765
2.3734,1.43689,-0.175231,24,32765
2.37819,1.42877,-0.176654,25,32765
2.35724,1.40533,-0.176051,23,32765
2.35333,1.39218,-0.176785,23,32765
2.34068,1.37417,-0.176863,24,32765
2.36243,1.37631,-0.179703,24,32765
2.367,1.3683,-0.180707,24,32765
2.33693,1.34034,-0.179584,23,32765
2.33274,1.32736,-0.180371,22,32765
2.3893,1.34878,-0.185757,22,32765
2.36774,1.32587,-0.185161,23,32765
2.32848,1.29368,-0.182946,23,32765
2.35896,1.3002,-0.18647,23,32765
2.3545,1.2874,-0.18713,24,32765
2.38499,1.29377,-0.190741,24,32765
2.35407,1.26683,-0.189413,23,32765
2.37579,1.26836,-0.192141,22,32765
2.37118,1.25553,-0.192984,21,32765
2.34004,1.22886,-0.191421,22,32765
2.35302,1.22534,-0.193548,24,32765
2.39257,1.2355,-0.19779,25,32765
2.34338,1.20009,-0.194829,23,32765
2.38297,1.21007,-0.19894,23,32765
2.36026,1.18844,-0.198217,22,32765
2.38206,1.18924,-0.201049,23,32765
2.39498,1.1854,-0.203193,23,32765
2.37198,1.16416,-0.202366,24,32765
2.40272,1.16917,-0.205863,23,32765
2.37063,1.14375,-0.203884,24,32765
2.41028,1.15301,-0.208581,24,32765
2.38706,1.13196,-0.207604,23,32765
2.4359,1.14505,-0.212737,24,32765
2.40357,1.11979,-0.210993,23,32765
2.39823,1.10739,-0.211361,23,32765
2.4199,1.1077,-0.214394,24,32765
2.39627,1.08721,-0.213272,25,32765
2.42706,1.09144,-0.216823,25,32765
2.41245,1.07509,-0.216249,24,32765
2.43421,1.07491,-0.219251,25,32765
2.36471,1.03465,-0.213913,24,32765
2.41381,1.04647,-0.219076,23,32765
2.44465,1.05024,-0.222725,27,32765
2.4114,1.02634,-0.220574,24,32765
2.42392,1.02211,-0.22253,25,32765
2.44562,1.02164,-0.225331,24,32765
2.41209,0.998215,-0.22308,24,32765
2.38767,0.978871,-0.221223,24,32765
2.42775,0.985896,-0.225647,24,32765
2.43096,0.977693,-0.226803,24,32765
2.46188,0.980647,-0.230374,26,32765
2.45578,0.96881,-0.230371,27,32765
2.44034,0.95342,-0.229434,25,32765
2.43413,0.941644,-0.229573,26,32765
2.41858,0.926384,-0.228604,25,32765
2.4495,0.928973,-0.23204,25,32765
2.4618,0.924316,-0.234099,24,32765
2.44613,0.909206,-0.232829,25,32765
2.46776,0.907899,-0.235559,25,32765
2.43329,0.886014,-0.232553,24,32765
2.44546,0.881469,-0.234167,26,32765
2.49518,0.890192,-0.239271,21,32765
2.46984,0.87213,-0.23699,18,32765
2.46322,0.860711,-0.236928,26,32765
2.45663,0.849152,-0.236654,27,32765
2.48763,0.850748,-0.239842,26,32765
2.4526,0.829897,-0.236686,26,32765
2.43629,0.81583,-0.23521,25,32765
2.45779,0.814156,-0.237574,26,32765
2.44149,0.799895,-0.236016,24,32765
2.46303,0.798055,-0.237901,24,32765
2.49404,0.799224,-0.2406,26,32765
2.50607,0.794311,-0.241422,27,32765
2.46107,0.771459,-0.236867,25,32765
2.28145,1.69938,-0.172093,23,32765
2.29515,1.69758,-0.173485,24,32765
2.31685,1.70171,-0.175448,24,32765
2.3064,1.68208,-0.17533,24,32765
2.32005,1.68017,-0.176819,23,32765
2.30937,1.66073,-0.176873,24,32765
2.29054,1.63551,-0.175852,25,32765
2.29588,1.62788,-0.177067,25,32765
2.30934,1.62601,-0.178786,25,32765
2.3228,1.62409,-0.180338,25,32765
2.32002,1.6105,-0.180879,25,32765
2.30073,1.58561,-0.180294,25,32765
2.32249,1.58904,-0.182782,23,32765
2.32781,1.58109,-0.18402,26,32765
2.34958,1.58438,-0.186595,26,32765
2.35483,1.57639,-0.187989,26,32765
2.33514,1.55182,-0.187283,26,32765
2.32361,1.53294,-0.187127,26,32765
2.36203,1.54696,-0.191289,25,32765
2.32531,1.51184,-0.188883,24,32765
2.34704,1.51481,-0.191757,26,32765
2.32698,1.49049,-0.19099,26,32765
2.37406,1.50929,-0.195685,27,32765
2.36222,1.4905,-0.195803,27,32765
2.35019,1.472,-0.195511,26,32765
2.32957,1.44832,-0.194819,26,32765
2.35987,1.45605,-0.198339,26,32765
2.34762,1.43769,-0.198252,26,32765
2.36953,1.4399,-0.200993,27,32765
2.36579,1.42662,-0.201691,27,32765
2.37054,1.41853,-0.203007,27,32765
2.35812,1.40021,-0.202923,27,32765
2.40566,1.41757,-0.208024,27,32765
2.36727,1.38425,-0.205856,27,32765
2.3805,1.3812,-0.20762,27,32765
2.39372,1.37801,-0.209929,27,32765
2.38102,1.35985,-0.209901,26,32765
2.36821,1.34183,-0.209729,27,32765
2.39011,1.34336,-0.212715,27,32765
2.3771,1.32558,-0.212387,26,32765
2.38148,1.31746,-0.213873,26,32765
2.38583,1.30935,-0.215246,26,32765
2.39884,1.30608,-0.217573,26,32765
2.35047,1.26956,-0.214287,25,32765
2.39852,1.28521,-0.219616,26,32765
2.40278,1.27696,-0.221197,26,32765
2.41585,1.27334,-0.223361,27,32765
2.40246,1.2557,-0.223169,26,32765
2.38898,1.23819,-0.222862,26,32765
2.38418,1.22549,-0.2235,25,32765
2.40605,1.22629,-0.226337,27,32765
2.39232,1.20902,-0.226195,26,32765
2.42307,1.21416,-0.230081,27,32765
2.42714,1.20574,-0.231495,28,32765
2.42212,1.19313,-0.232127,26,32765
2.4171,1.18049,-0.232487,26,32765
2.42097,1.17233,-0.233608,26,32765
2.41576,1.15987,-0.234359,25,32765
2.42857,1.15588,-0.236615,27,32765
2.43237,1.1476,-0.237834,27,32765
2.4362,1.13916,-0.239265,27,32765
2.44901,1.13499,-0.24134,27,32765
2.41644,1.11018,-0.239218,26,32765
2.4291,1.10616,-0.241422,27,32765
2.48715,1.12258,-0.247987,28,32765
2.4363,1.08972,-0.243621,26,32765
2.43077,1.07734,-0.244084,27,32765
2.43431,1.06903,-0.245355,26,32765
2.41956,1.05283,-0.244557,26,32765
2.44122,1.05263,-0.247564,28,32765
2.45382,1.04824,-0.249701,26,32765
2.43889,1.03221,-0.248966,27,32765
2.45142,1.02784,-0.251024,27,32765
2.43634,1.01197,-0.250296,27,32765
2.44883,1.00765,-0.251959,27,32765
2.45208,0.999451,-0.25298,28,32765
2.42764,0.979963,-0.251284,27,32765
2.44928,0.979235,-0.254178,26,32765
2.4617,0.974736,-0.256006,27,32765
2.45557,0.962919,-0.255853,27,32765
2.44941,0.95106,-0.255908,28,32765
2.43392,0.935709,-0.254761,28,32765
2.45553,0.934708,-0.25751,29,32765
2.43988,0.919488,-0.256728,28,32765
2.44288,0.911367,-0.257234,28,32765
2.45515,0.906616,-0.259167,28,32765
2.43943,0.891548,-0.257764,26,32765
2.47032,0.893739,-0.261457,26,32765
2.45444,0.878915,-0.260087,24,32765
2.46662,0.874235,-0.2615,25,32765
2.49757,0.875968,-0.265336,23,32765
2.46285,0.854476,-0.261982,26,32765
2.45619,0.84313,-0.261447,28,32765
2.46829,0.838326,-0.262933,28,32765
2.48976,0.836851,-0.265294,28,32765
2.48298,0.825578,-0.264838,28,32765
2.4762,0.814303,-0.264108,27,32765
2.45992,0.800033,-0.26215,25,32765
2.44356,0.78598,-0.260091,22,32765
2.39866,0.763114,-0.254964,20,32765
2.49598,0.785334,-0.265063,21,32765
2.30913,1.71353,-0.161683,21,32765
2.29868,1.69382,-0.16324,22,32765
2.28809,1.67424,-0.164776,22,32765
2.27741,1.65479,-0.165727,22,32765
2.3152,1.67043,-0.170631,22,32765
2.27199,1.62771,-0.169246,22,32765
2.28542,1.62579,-0.17247,22,32765
2.32331,1.64116,-0.177073,23,32765
2.27139,1.59333,-0.174676,21,32765
2.33385,1.62567,-0.181246,23,32765
2.33908,1.61789,-0.183383,22,32765
2.32786,1.59879,-0.183904,23,32765
2.27528,1.55169,-0.181558,22,32765
2.34642,1.58879,-0.188879,24,32765
2.33512,1.56962,-0.18952,23,32765
2.34033,1.56161,-0.191308,22,32765
2.36211,1.56465,-0.194703,24,32765
2.3339,1.53471,-0.193816,22,32765
2.33884,1.52694,-0.195631,22,32765
2.34385,1.51901,-0.19749,23,32765
2.34031,1.50585,-0.198634,24,32765
2.3536,1.50338,-0.201024,24,32765
2.33323,1.47939,-0.200848,23,32765
2.36339,1.48747,-0.204519,23,32765
2.36832,1.47932,-0.206505,24,32765
2.31386,1.43449,-0.202931,23,32765
2.34405,1.44228,-0.207002,23,32765
2.39136,1.46029,-0.212308,25,32765
2.35342,1.42647,-0.210232,23,32765
2.36657,1.42374,-0.212605,24,32765
2.36255,1.4108,-0.21355,23,32765
2.34996,1.39274,-0.213457,22,32765
2.34592,1.37971,-0.214391,22,32765
2.37631,1.38678,-0.218111,24,32765
2.38956,1.38353,-0.220793,23,32765
2.38544,1.37048,-0.221481,24,32765
2.36393,1.34762,-0.220547,23,32765
2.36833,1.33962,-0.222122,22,32765
2.38135,1.3366,-0.224252,23,32765
2.3683,1.3188,-0.224266,24,32765
2.39881,1.3252,-0.228165,24,32765
2.34201,1.28348,-0.223708,22,32765
2.3988,1.30395,-0.230381,24,32765
2.35048,1.26741,-0.22659,23,32765
2.38099,1.2735,-0.230602,23,32765
2.35871,1.25148,-0.229485,22,32765
2.38043,1.25279,-0.232593,23,32765
2.35799,1.2309,-0.231631,23,32765
2.37975,1.23206,-0.23435,23,32765
2.4015,1.233,-0.237887,23,32765
2.40561,1.22472,-0.239189,24,32765
2.42745,1.22543,-0.242263,24,32765
2.38703,1.19467,-0.239226,21,32765
2.33745,1.15993,-0.235158,22,32765
2.3681,1.16504,-0.239297,24,32765
2.4256,1.18321,-0.24616,24,32765
2.43847,1.17926,-0.248177,25,32765
2.42439,1.16227,-0.247912,23,32765
2.43718,1.15833,-0.250042,24,32765
2.42298,1.14148,-0.24964,25,32765
2.43567,1.13756,-0.251892,24,32765
2.40322,1.1126,-0.24948,22,32765
2.44305,1.12103,-0.254606,24,32765
2.43761,1.10867,-0.255012,24,32765
2.45943,1.10846,-0.258086,24,32765
2.44487,1.09195,-0.2576,25,32765
2.44841,1.08367,-0.259004,25,32765
2.44283,1.07133,-0.259312,24,32765
2.43718,1.0591,-0.259569,24,32765
2.43148,1.04688,-0.259889,25,32765
2.42572,1.03473,-0.260225,25,32765
2.43824,1.03034,-0.262661,25,32765
2.42325,1.0143,-0.262048,24,32765
2.48167,1.02897,-0.269314,24,32765
2.44822,1.00533,-0.266672,23,32765
2.45146,0.997071,-0.267988,24,32765
2.50078,1.00744,-0.274362,25,32765
2.4486,0.976817,-0.269595,25,32765
2.43317,0.961358,-0.269015,24,32765
2.48258,0.971235,-0.275515,25,32765
2.42073,0.937836,-0.269505,23,32765
2.44228,0.936857,-0.272905,23,32765
2.41736,0.918069,-0.271145,23,32765
2.46678,0.927569,-0.277663,24,32765
2.43245,0.905394,-0.27483,24,32765
2.47262,0.911084,-0.280292,24,32765
2.48483,0.90621,-0.28287,26,32765
2.45961,0.887823,-0.281041,23,32765
2.4624,0.879674,-0.282272,21,32765
2.48386,0.87818,-0.285926,20,32765
2.43028,0.850274,-0.280883,20,32765
2.48928,0.861749,-0.288781,23,32765
2.47316,0.846993,-0.288026,21,32765
2.48517,0.842111,-0.290445,14,32765
