x, y, z, intensity, ring
6.34231,2.98613,0.992272,14,32765
6.42417,2.99884,1.0013,14,32765
6.3624,2.94445,0.988173,13,32765
6.37251,2.92346,0.985337,14,32765
6.38238,2.90246,0.98357,13,32765
6.42841,2.89763,0.986756,13,32765
6.47437,2.89258,0.990478,14,32765
6.4116,2.83923,0.978054,14,32765
6.4575,2.8339,0.981875,13,32765
6.43069,2.79697,0.974462,13,32765
6.47678,2.79119,0.977212,14,32765
6.44966,2.75425,0.970813,14,32765
6.49544,2.74862,0.974014,14,32765
6.46805,2.71188,0.967729,14,32765
6.47699,2.69103,0.966098,14,32765
6.46788,2.66214,0.960806,15,32765
6.54079,2.66742,0.96942,15,32765
6.53115,2.63886,0.965693,16,32765
6.51234,2.60651,0.96021,18,32765
6.51177,2.5817,0.95736,20,32765
6.51112,2.55684,0.954697,20,32765
6.50114,2.52831,0.950981,19,32765
6.41697,2.47164,0.936548,19,32765
6.38822,2.43646,0.929692,19,32765
6.30346,2.38081,0.915493,18,32765
6.27423,2.34621,0.909374,18,32765
6.26332,2.31908,0.905703,17,32765
0,0,0,0,32765
6.16669,2.2379,0.887794,18,32765
6.17409,2.21786,0.886623,17,32765
6.09735,2.16774,0.87412,17,32765
6.11374,2.15124,0.875197,19,32765
6.02688,2.09947,0.861713,18,32765
0,0,0,0,32765
5.92747,2.02304,0.845475,18,32765
5.9528,2.01029,0.847677,21,32765
5.8935,1.9689,0.838476,18,32765
0,0,0,0,32765
5.90604,1.93093,0.838499,17,32765
0,0,0,0,32765
5.85182,1.87252,0.830562,14,32765
2.23908,0.708783,0.317893,14,32765
5.71232,4.21855,1.06097,15,32765
5.71798,4.19422,1.05932,16,32765
5.77164,4.2048,1.06595,15,32765
5.78566,4.1859,1.06431,15,32765
5.76745,4.14364,1.05794,15,32765
5.76531,4.11297,1.05368,15,32765
5.77886,4.09418,1.05267,16,32765
5.80032,4.08121,1.05306,16,32765
5.8055,4.05703,1.04986,16,32765
5.81899,4.03814,1.04807,15,32765
5.82429,4.01354,1.0448,15,32765
5.87037,4.01666,1.04938,16,32765
5.85114,3.97517,1.04149,16,32765
5.88101,3.96682,1.04259,16,32765
5.8698,3.93077,1.03638,16,32765
5.88313,3.91137,1.03418,17,32765
5.91253,3.90328,1.03536,16,32765
5.9339,3.88931,1.0349,16,32765
5.93856,3.86456,1.03161,16,32765
5.93512,3.83411,1.02641,17,32765
5.94818,3.81444,1.02412,16,32765
5.97753,3.80574,1.02526,17,32765
5.99037,3.78615,1.02281,16,32765
5.98629,3.7561,1.01764,16,32765
6.01578,3.74686,1.01836,17,32765
6.01176,3.71634,1.0135,17,32765
6.02437,3.69636,1.01169,17,32765
6.03702,3.67636,1.00918,17,32765
6.01557,3.63614,1.00069,16,32765
6.04486,3.62654,1.00114,17,32765
6.05689,3.60686,0.99953,16,32765
6.06903,3.58693,0.997607,16,32765
6.11559,3.58671,1.00032,16,32765
6.11064,3.55639,0.995867,16,32765
6.123,3.53591,0.992908,16,32765
6.11775,3.50602,0.987649,16,32765
6.14654,3.49611,0.988382,17,32765
6.17557,3.48569,0.988894,17,32765
6.16144,3.45092,0.982194,16,32765
6.18218,3.43488,0.980769,17,32765
6.194,3.41405,0.978881,16,32765
6.20556,3.3937,0.976437,17,32765
6.21724,3.37293,0.974098,16,32765
6.23742,3.35727,0.972551,16,32765
6.24025,3.33174,0.968732,16,32765
6.25171,3.31095,0.966099,17,32765
6.26291,3.2905,0.963423,16,32765
6.29159,3.27906,0.963965,16,32765
6.28493,3.24961,0.95881,16,32765
6.31377,3.23785,0.95825,16,32765
6.35127,3.23035,0.960384,16,32765
6.33585,3.19556,0.954451,16,32765
6.34694,3.17407,0.952464,16,32765
6.34018,3.14395,0.947255,16,32765
6.36901,3.1312,0.947072,16,32765
6.353,3.0969,0.941032,16,32765
6.37244,3.08036,0.939681,16,32765
6.37369,3.05532,0.937039,16,32765
6.38397,3.03456,0.934456,15,32765
6.40314,3.01779,0.934003,16,32765
6.41333,2.99675,0.931816,16,32765
6.39645,2.96314,0.925954,15,32765
6.45166,2.96269,0.929593,16,32765
6.43459,2.92906,0.923914,16,32765
6.4717,2.91998,0.925413,16,32765
6.44536,2.8824,0.918429,16,32765
6.43687,2.85315,0.914484,16,32765
6.48286,2.84773,0.917924,17,32765
6.49242,2.82648,0.916007,17,32765
6.52043,2.81263,0.915797,16,32765
6.53894,2.79497,0.916153,17,32765
6.49357,2.75036,0.906202,19,32765
6.53931,2.74426,0.910477,21,32765
6.50257,2.7041,0.902471,23,32765
6.4843,2.6713,0.896088,24,32765
6.47466,2.64281,0.892648,23,32765
6.41894,2.59581,0.882793,22,32765
6.37233,2.5527,0.873825,21,32765
6.33469,2.51366,0.866057,21,32765
6.29688,2.47482,0.858487,20,32765
6.23114,2.42536,0.847447,20,32765
6.21132,2.39444,0.842778,20,32765
6.16373,2.3528,0.833834,21,32765
6.125,2.31531,0.826859,22,32765
6.07693,2.27428,0.81863,20,32765
6.04716,2.24084,0.812675,20,32765
5.99855,2.20086,0.804476,21,32765
5.97788,2.17108,0.799693,20,32765
5.94771,2.13819,0.793573,20,32765
5.93606,2.112,0.790643,21,32765
5.8587,2.06305,0.779185,20,32765
5.84642,2.03811,0.776597,23,32765
5.85287,2.01959,0.776382,23,32765
5.77468,1.9723,0.765217,21,32765
5.77168,1.95049,0.763514,22,32765
5.75917,1.92535,0.76118,22,32765
5.7466,1.90049,0.758073,22,32765
5.74317,1.87892,0.75747,15,32765
2.20897,0.714997,0.29127,14,32765
2.18283,0.698925,0.287847,14,32765
2.21333,0.701068,0.291984,16,32765
5.70028,4.19427,1.08649,13,32765
5.68289,4.15256,1.07487,14,32765
5.72935,4.15726,1.07582,13,32765
5.76809,4.15555,1.07547,14,32765
5.78255,4.13668,1.0706,13,32765
5.7729,4.10044,1.06099,13,32765
5.78679,4.08173,1.05741,14,32765
5.76831,4.04032,1.04725,14,32765
5.83065,4.05571,1.0522,13,32765
5.755,3.97472,1.03269,13,32765
5.84234,4.00601,1.04139,14,32765
5.82358,3.96428,1.03186,14,32765
5.86993,3.96752,1.0336,13,32765
5.88376,3.94805,1.02953,14,32765
5.86421,3.90703,1.02009,13,32765
5.87757,3.88782,1.01657,14,32765
5.89084,3.86868,1.01279,13,32765
5.93714,3.87109,1.01521,14,32765
5.91706,3.83023,1.00604,14,32765
5.93005,3.81091,1.00292,14,32765
5.9097,3.77024,0.993533,14,32765
5.95616,3.77194,0.995527,13,32765
5.96895,3.75235,0.992889,14,32765
5.98178,3.7327,0.989782,14,32765
5.99429,3.71318,0.987517,14,32765
6.00689,3.69367,0.984155,14,32765
6.01953,3.67401,0.980495,13,32765
5.99791,3.63394,0.972579,14,32765
6.04405,3.63489,0.975417,14,32765
6.02221,3.59504,0.966952,14,32765
6.0345,3.57514,0.964115,14,32765
6.08103,3.57502,0.966828,13,32765
6.0507,3.5296,0.956979,13,32765
6.10589,3.53393,0.961175,14,32765
6.11775,3.51406,0.958593,14,32765
6.07776,3.46495,0.947924,14,32765
6.14099,3.4746,0.953828,14,32765
6.15251,3.45478,0.951593,14,32765
6.12959,3.41528,0.94363,13,32765
6.14107,3.39513,0.941665,14,32765
6.15276,3.37469,0.938853,15,32765
6.16419,3.35445,0.936375,14,32765
6.2104,3.35302,0.939482,14,32765
6.25687,3.35095,0.942538,14,32765
6.19817,3.29329,0.929159,14,32765
6.20932,3.27278,0.927174,13,32765
6.22038,3.25239,0.924786,14,32765
6.21367,3.22289,0.92026,14,32765
6.27744,3.22974,0.925672,14,32765
6.28831,3.20901,0.924028,14,32765
6.3347,3.20595,0.92688,14,32765
6.23946,3.13125,0.90887,14,32765
6.2858,3.12799,0.91151,14,32765
6.29657,3.10679,0.909657,14,32765
6.28937,3.07705,0.905078,14,32765
6.31771,3.06483,0.905428,14,32765
6.36404,3.0609,0.90791,13,32765
6.37435,3.03966,0.906912,13,32765
6.34884,3.00161,0.899413,14,32765
6.377,2.98919,0.899267,14,32765
6.39599,2.97249,0.898694,13,32765
6.41507,2.95551,0.897889,14,32765
6.38897,2.91783,0.890887,14,32765
6.38086,2.88844,0.88611,14,32765
6.44502,2.89161,0.891459,14,32765
6.49119,2.88641,0.893718,14,32765
6.46483,2.84855,0.886623,14,32765
6.43809,2.81125,0.87994,14,32765
6.45688,2.79366,0.878819,16,32765
6.45736,2.76817,0.875309,18,32765
6.45767,2.74301,0.871324,20,32765
6.48513,2.72953,0.872261,21,32765
6.43022,2.68162,0.861184,20,32765
6.42093,2.653,0.856269,19,32765
6.31959,2.58701,0.839349,18,32765
6.2917,2.55098,0.832226,18,32765
6.20837,2.49308,0.817519,17,32765
6.18002,2.45786,0.810116,17,32765
6.11447,2.4084,0.798305,17,32765
6.07626,2.37061,0.79003,16,32765
6.08412,2.35097,0.78822,17,32765
5.98078,2.28883,0.770718,18,32765
5.97907,2.26609,0.767553,17,32765
0,0,0,0,32765
5.97555,2.2206,0.76032,18,32765
0,0,0,0,32765
5.89723,2.14748,0.743882,18,32765
0,0,0,0,32765
5.70589,2.03582,0.712965,18,32765
5.71273,2.01738,0.710522,19,32765
5.57887,1.94979,0.690671,18,32765
5.6324,1.94784,0.694224,19,32765
5.51673,1.888,0.676838,19,32765
0,0,0,0,32765
2.26066,0.757701,0.274412,13,32765
2.14053,0.710021,0.258631,13,32765
2.17122,0.712553,0.260911,14,32765
2.00347,0.650487,0.239553,14,32765
2.07188,0.665432,0.246202,14,32765
2.10246,0.668068,0.248453,15,32765
2.10467,0.661723,0.246785,15,32765
5.69742,4.19818,1.01842,16,32765
5.73589,4.19731,1.0171,15,32765
5.79051,4.20766,1.01903,16,32765
5.74913,4.14782,1.00432,15,32765
5.81183,4.16357,1.00784,15,32765
5.77801,4.10993,0.994313,15,32765
5.84046,4.12545,0.999033,16,32765
5.82208,4.08378,0.989198,15,32765
5.83582,4.06506,0.985319,15,32765
5.85788,4.0515,0.983235,16,32765
5.89653,4.04887,0.982848,15,32765
5.87787,4.00687,0.973652,15,32765
5.89155,3.98773,0.969572,15,32765
5.88898,3.95709,0.962799,15,32765
5.90239,3.93797,0.959082,16,32765
5.91584,3.91859,0.955537,16,32765
5.95404,3.91563,0.95572,16,32765
5.96732,3.89617,0.952423,16,32765
5.9556,3.86051,0.944926,16,32765
5.96868,3.84103,0.941781,16,32765
5.99016,3.82682,0.939294,16,32765
6.0117,3.81234,0.936948,16,32765
6.02463,3.79253,0.934282,16,32765
6.02077,3.76215,0.92855,16,32765
6.0081,3.72678,0.922386,16,32765
6.03761,3.71758,0.921591,15,32765
6.06724,3.70813,0.920477,16,32765
6.04571,3.66782,0.912912,16,32765
6.08348,3.66351,0.914077,16,32765
6.10427,3.64889,0.912324,16,32765
6.08261,3.60844,0.904373,16,32765
6.12073,3.60313,0.905423,16,32765
6.14185,3.5875,0.903579,16,32765
6.1286,3.55174,0.897214,16,32765
6.15772,3.54165,0.897126,16,32765
6.17808,3.52674,0.895743,16,32765
6.18113,3.50186,0.892324,16,32765
6.16679,3.46728,0.886343,16,32765
6.1872,3.45182,0.884943,16,32765
6.19012,3.42664,0.881719,16,32765
6.21931,3.41555,0.881348,16,32765
6.23959,3.3998,0.88007,15,32765
6.22486,3.36509,0.874191,15,32765
6.28015,3.36765,0.878089,16,32765
6.27401,3.33777,0.872758,16,32765
6.28531,3.31698,0.870746,16,32765
6.29651,3.29629,0.868327,16,32765
6.30755,3.27564,0.866382,16,32765
6.3186,3.25492,0.863955,16,32765
6.33839,3.23853,0.863502,16,32765
6.34063,3.21287,0.859954,16,32765
6.36063,3.19594,0.858629,16,32765
6.33613,3.15685,0.851292,16,32765
6.347,3.13544,0.849422,15,32765
6.37555,3.12294,0.849765,16,32765
6.36833,3.09306,0.845155,16,32765
6.39688,3.08035,0.844876,16,32765
6.41623,3.06324,0.845052,17,32765
6.40871,3.03347,0.840263,16,32765
6.43698,3.02083,0.839902,16,32765
6.43809,2.99553,0.836876,15,32765
6.46626,2.98254,0.837128,16,32765
6.44925,2.94875,0.831648,16,32765
6.4774,2.9355,0.831681,17,32765
6.48741,2.91394,0.829483,20,32765
6.47923,2.88435,0.824419,23,32765
6.45283,2.84646,0.817701,24,32765
6.43515,2.81311,0.812543,24,32765
6.41748,2.7797,0.806743,24,32765
6.36312,2.73079,0.796483,23,32765
6.281,2.67091,0.78238,22,32765
6.23499,2.62712,0.774077,21,32765
6.18883,2.58376,0.764883,21,32765
6.16083,2.54829,0.757986,20,32765
6.12338,2.50939,0.750166,19,32765
6.05835,2.459,0.738993,19,32765
6.0207,2.4203,0.730913,19,32765
5.93666,2.36358,0.717268,19,32765
5.93543,2.34034,0.714076,19,32765
5.88768,2.29945,0.705224,19,32765
5.81188,2.24811,0.693515,21,32765
5.76375,2.20807,0.683885,19,32765
5.73388,2.17541,0.677589,20,32765
5.71324,2.14636,0.672067,21,32765
5.69245,2.11755,0.666378,20,32765
5.6809,2.09215,0.662079,21,32765
5.62266,2.04956,0.652178,22,32765
5.6015,2.02116,0.64669,20,32765
5.49598,1.96288,0.631089,22,32765
5.51194,1.9484,0.629806,22,32765
5.47155,1.91417,0.622115,23,32765
5.43103,1.88004,0.614608,22,32765
5.40907,1.85296,0.609119,19,32765
2.22261,0.753447,0.248872,14,32765
2.17794,0.730679,0.242472,14,32765
2.0576,0.683167,0.227944,15,32765
2.04097,0.670447,0.224783,16,32765
2.0621,0.670159,0.225897,15,32765
2.02647,0.651462,0.220519,16,32765
2.01911,0.642185,0.218411,17,32765
2.00223,0.630109,0.214773,17,32765
5.64571,4.15354,0.926841,13,32765
5.80388,4.23971,0.949894,13,32765
5.76977,4.18564,0.941394,13,32765
5.75911,4.14988,0.936394,13,32765
5.81262,4.16066,0.94153,13,32765
5.77794,4.10725,0.93189,13,32765
5.82402,4.11108,0.935877,13,32765
5.78098,4.052,0.925143,13,32765
5.79452,4.03304,0.923313,13,32765
5.86493,4.05369,0.930742,13,32765
5.84568,4.01209,0.923904,13,32765
5.89172,4.01551,0.927054,13,32765
5.84771,3.95726,0.915826,13,32765
5.89401,3.96001,0.918975,13,32765
5.90736,3.9405,0.917131,13,32765
5.92092,3.92068,0.914604,14,32765
5.93411,3.90114,0.912714,14,32765
5.91379,3.86019,0.905737,13,32765
5.92659,3.84095,0.903898,13,32765
5.97258,3.84333,0.906983,13,32765
5.95203,3.8024,0.899694,13,32765
5.9983,3.80417,0.902337,13,32765
5.97747,3.7634,0.895004,13,32765
6.02375,3.7649,0.897555,13,32765
6.03627,3.74526,0.895621,13,32765
5.98147,3.68354,0.883172,13,32765
6.06186,3.70495,0.890433,13,32765
6.07459,3.68456,0.888261,14,32765
6.05313,3.64402,0.880443,13,32765
6.01419,3.59365,0.871091,13,32765
6.07733,3.60446,0.876537,13,32765
6.08937,3.5848,0.873613,14,32765
6.13576,3.58471,0.876249,13,32765
6.17387,3.57914,0.877066,14,32765
6.16039,3.54348,0.871194,13,32765
6.13804,3.50321,0.863921,14,32765
6.14994,3.48304,0.860817,13,32765
6.16162,3.46286,0.858762,14,32765
6.17321,3.44279,0.856196,14,32765
6.21969,3.44174,0.857566,14,32765
6.19649,3.402,0.851083,13,32765
6.20814,3.38131,0.848565,14,32765
6.21967,3.36073,0.845962,14,32765
6.23109,3.34003,0.843834,13,32765
6.24242,3.31951,0.841097,13,32765
6.25375,3.29886,0.838181,13,32765
6.26486,3.27835,0.835669,13,32765
6.27602,3.25752,0.833388,14,32765
6.28718,3.23651,0.831102,14,32765
6.26293,3.19737,0.823945,13,32765
6.30944,3.19429,0.825781,13,32765
6.35593,3.19109,0.827495,13,32765
6.36678,3.17012,0.824651,13,32765
6.37742,3.14914,0.822823,14,32765
6.35248,3.11047,0.815745,14,32765
6.32742,3.07191,0.808416,14,32765
6.37379,3.06787,0.810804,14,32765
6.38427,3.0467,0.808125,14,32765
6.39454,3.0258,0.805436,14,32765
6.35064,2.97965,0.796671,14,32765
6.39666,2.97565,0.798917,15,32765
6.39767,2.95043,0.795563,16,32765
6.44387,2.94576,0.797464,19,32765
6.42664,2.91216,0.792251,21,32765
6.38228,2.86609,0.783325,21,32765
6.34673,2.82442,0.77578,19,32765
6.3108,2.78329,0.768545,20,32765
6.22908,2.72293,0.75484,18,32765
6.21987,2.69478,0.750857,18,32765
6.16501,2.64679,0.741347,18,32765
6.11,2.59893,0.732046,17,32765
6.11888,2.57851,0.730073,17,32765
6.04506,2.52358,0.718976,16,32765
0,0,0,0,32765
6.00658,2.46157,0.70894,17,32765
0,0,0,0,32765
5.88442,2.36686,0.689924,18,32765
0,0,0,0,32765
5.92767,2.33964,0.690609,17,32765
0,0,0,0,32765
5.73909,2.22198,0.664623,17,32765
0,0,0,0,32765
5.68862,2.15997,0.654634,21,32765
5.70497,2.14506,0.65496,19,32765
5.69342,2.11952,0.651664,19,32765
0,0,0,0,32765
5.56722,2.0312,0.633927,17,32765
5.50845,1.98944,0.625471,19,32765
5.47741,1.95827,0.621035,19,32765
5.4744,1.93711,0.619815,18,32765
5.32123,1.86344,0.600843,17,32765
0,0,0,0,32765
5.43666,1.86466,0.611732,16,32765
2.24106,0.760701,0.251748,12,32765
2.18691,0.734541,0.245514,13,32765
2.14208,0.711868,0.240035,14,32765
2.12546,0.69885,0.237757,14,32765
2.0614,0.670693,0.230645,15,32765
2.0256,0.652118,0.226485,16,32765
2.0371,0.648703,0.22787,16,32765
2.01073,0.633083,0.224881,16,32765
5.59317,4.12187,0.852398,14,32765
5.64722,4.13223,0.857953,15,32765
5.76531,4.18942,0.873131,15,32765
5.81099,4.19426,0.876909,15,32765
5.84048,4.18756,0.877925,15,32765
5.85439,4.16848,0.876092,16,32765
5.81965,4.11476,0.867603,15,32765
5.86597,4.11831,0.870785,15,32765
5.90417,4.11606,0.872534,16,32765
5.86062,4.0573,0.862459,15,32765
5.92319,4.07186,0.86798,15,32765
5.87105,4.00786,0.856374,15,32765
5.93382,4.02197,0.861311,15,32765
5.95566,4.00782,0.860484,17,32765
5.91138,3.94945,0.850303,16,32765
5.94152,3.94055,0.850139,16,32765
5.93819,3.90998,0.845876,15,32765
5.95114,3.89066,0.843983,15,32765
5.96404,3.87126,0.842129,15,32765
6.02685,3.88429,0.847171,15,32765
6.00642,3.84309,0.840231,15,32765
6.01931,3.8234,0.837807,15,32765
6.04053,3.80895,0.836655,16,32765
6.04488,3.7839,0.833001,16,32765
6.04059,3.75367,0.828743,16,32765
6.05341,3.73352,0.826268,16,32765
6.09165,3.7288,0.826994,16,32765
6.05353,3.67732,0.817926,16,32765
6.10858,3.68294,0.820776,16,32765
6.12089,3.66288,0.818806,15,32765
6.11596,3.63279,0.814553,16,32765
6.12808,3.61296,0.811607,16,32765
6.16602,3.60773,0.812721,16,32765
6.15266,3.57212,0.806482,15,32765
6.18219,3.56125,0.806511,16,32765
6.17713,3.53069,0.80184,15,32765
6.18911,3.51035,0.798714,16,32765
6.2182,3.49975,0.798867,15,32765
6.22991,3.47945,0.796275,15,32765
6.22437,3.44931,0.790611,15,32765
6.25343,3.4382,0.791109,16,32765
6.24775,3.40777,0.786368,16,32765
6.25935,3.38701,0.783745,15,32765
6.27087,3.36614,0.7816,15,32765
6.28228,3.34544,0.778844,15,32765
6.31126,3.33391,0.778073,15,32765
6.30487,3.30395,0.773375,15,32765
6.33376,3.29211,0.773231,15,32765
6.32737,3.26175,0.768773,15,32765
6.34743,3.24503,0.767323,16,32765
6.37638,3.23267,0.766612,16,32765
6.36084,3.19798,0.760483,17,32765
6.3539,3.16808,0.755518,17,32765
6.38236,3.15592,0.755802,16,32765
6.3842,3.13028,0.75225,15,32765
6.41284,3.11762,0.751568,16,32765
6.40563,3.08738,0.747279,18,32765
6.4431,3.07893,0.747708,19,32765
6.39954,3.03225,0.738767,20,32765
6.40062,3.00714,0.735734,24,32765
6.35659,2.96097,0.727269,23,32765
6.32142,2.91914,0.719906,22,32765
6.24995,2.8609,0.708139,20,32765
6.20523,2.81555,0.700193,19,32765
6.14235,2.76197,0.689867,19,32765
6.12457,2.72912,0.684896,20,32765
6.08829,2.68865,0.678186,20,32765
6.0244,2.63688,0.66753,21,32765
6.01489,2.60933,0.663791,20,32765
5.96883,2.56586,0.656,19,32765
5.90433,2.51466,0.646402,19,32765
5.86709,2.47555,0.639497,19,32765
5.83876,2.44054,0.63428,19,32765
5.8101,2.40624,0.628622,22,32765
5.88253,2.41376,0.633851,22,32765
5.79825,2.35721,0.622896,20,32765
5.74148,2.31223,0.61432,20,32765
5.72139,2.28253,0.609847,21,32765
5.65483,2.23468,0.601011,23,32765
5.54177,2.16907,0.586813,21,32765
5.52107,2.14016,0.583073,20,32765
5.56524,2.13661,0.585719,21,32765
5.4421,2.06884,0.570905,20,32765
5.50474,2.07223,0.576041,20,32765
5.52092,2.05772,0.57589,20,32765
5.42503,2.00162,0.564517,21,32765
5.40355,1.97377,0.560581,20,32765
5.4007,1.95277,0.558619,20,32765
5.3414,1.91183,0.551656,22,32765
5.28195,1.87113,0.544728,22,32765
5.33508,1.87039,0.548633,21,32765
5.30352,1.84007,0.544409,16,32765
2.20285,0.756369,0.225709,15,32765
2.11102,0.717344,0.215929,15,32765
2.03782,0.685206,0.208322,15,32765
2.13446,0.710098,0.217779,16,32765
2.02327,0.66596,0.20606,17,32765
2.00639,0.65348,0.204411,16,32765
2.01787,0.650305,0.205446,17,32765
2.01989,0.643886,0.205771,17,32765
1.99349,0.628292,0.203061,17,32765
5.6291,4.13398,0.886023,13,32765
5.74011,4.18515,0.895176,13,32765
5.77915,4.18319,0.893568,13,32765
5.80963,4.17588,0.891245,13,32765
5.78332,4.12837,0.880573,13,32765
5.79738,4.10978,0.875047,13,32765
5.8845,4.14219,0.881671,13,32765
5.89862,4.12297,0.877435,13,32765
5.83915,4.05287,0.862641,13,32765
5.8939,4.06199,0.863858,14,32765
5.86667,4.01465,0.854635,14,32765
5.92147,4.02337,0.855999,13,32765
5.86119,3.95388,0.841223,14,32765
5.84182,3.91237,0.832393,13,32765
5.88839,3.91491,0.83353,13,32765
5.92674,3.91175,0.83338,13,32765
5.91517,3.87575,0.826881,13,32765
5.92829,3.85653,0.822758,13,32765
5.93285,3.83194,0.818315,13,32765
5.94567,3.81292,0.814109,13,32765
6.04212,3.84709,0.822673,13,32765
6.01306,3.80091,0.813534,14,32765
5.9838,3.75492,0.8042,13,32765
6.00485,3.74073,0.801972,13,32765
5.98374,3.70008,0.794169,14,32765
6.06403,3.72179,0.800904,13,32765
6.04278,3.681,0.793363,13,32765
6.05532,3.66107,0.789919,14,32765
6.10171,3.66167,0.79176,13,32765
6.15686,3.66691,0.794315,13,32765
6.12661,3.62134,0.784958,13,32765
6.10463,3.58099,0.777464,13,32765
6.08249,3.54073,0.769997,14,32765
6.1287,3.54083,0.771997,13,32765
6.1407,3.52062,0.769022,13,32765
6.18711,3.52015,0.770591,13,32765
6.15576,3.47536,0.762027,13,32765
6.21098,3.47925,0.764292,14,32765
6.17915,3.43465,0.757204,13,32765
6.23436,3.43837,0.758909,13,32765
6.21092,3.39882,0.752936,13,32765
6.1873,3.35957,0.746351,13,32765
6.23367,3.35799,0.748089,13,32765
6.28014,3.35615,0.749516,13,32765
6.2564,3.31651,0.743363,13,32765
6.2677,3.29575,0.740506,13,32765
6.34062,3.30702,0.745872,13,32765
6.29018,3.25375,0.735609,14,32765
6.30131,3.23256,0.733767,14,32765
6.31238,3.21145,0.73133,14,32765
6.28785,3.17242,0.724624,14,32765
6.2988,3.15117,0.722214,14,32765
6.34505,3.14802,0.724354,14,32765
6.35567,3.12699,0.722376,14,32765
6.36625,3.10593,0.720022,15,32765
6.39466,3.09366,0.719134,17,32765
6.40531,3.07218,0.716457,18,32765
6.3168,3.004,0.703514,18,32765
6.336,2.98721,0.70237,20,32765
6.28304,2.93668,0.692982,18,32765
6.22071,2.88239,0.683165,17,32765
6.17623,2.83698,0.674228,17,32765
6.11334,2.78353,0.664515,16,32765
6.09552,2.75109,0.659244,16,32765
6.05045,2.70638,0.650494,17,32765
6.01408,2.66617,0.643799,19,32765
5.923,2.60194,0.630847,18,32765
0,0,0,0,32765
5.92232,2.55468,0.624559,16,32765
0,0,0,0,32765
5.71055,2.41809,0.596093,17,32765
0,0,0,0,32765
5.83738,2.42574,0.602787,16,32765
0,0,0,0,32765
5.60465,2.28596,0.57329,19,32765
5.55693,2.24531,0.565205,18,32765
5.54585,2.21986,0.561907,18,32765
5.49776,2.17969,0.554226,19,32765
5.42165,2.12897,0.543757,19,32765
0,0,0,0,32765
5.38942,2.0757,0.534432,16,32765
0,0,0,0,32765
5.35662,2.02308,0.525641,17,32765
5.33537,1.99522,0.520848,18,32765
5.23006,1.93616,0.507665,20,32765
5.26473,1.92911,0.507972,19,32765
5.10275,1.85066,0.489435,17,32765
5.18388,1.86118,0.494323,18,32765
5.30272,1.88431,0.50297,16,32765
2.09541,0.737023,0.19742,14,32765
2.22013,0.772858,0.208112,15,32765
2.10967,0.726803,0.196563,14,32765
2.01777,0.687994,0.186769,16,32765
2.04829,0.691317,0.188433,15,32765
1.96549,0.656457,0.179724,15,32765
1.97713,0.653271,0.179721,16,32765
1.91306,0.625171,0.17253,16,32765
1.98149,0.640562,0.177428,16,32765
1.8981,0.607267,0.168704,15,32765
1.90952,0.604536,0.16847,16,32765
1.87345,0.586711,0.163899,15,32765
5.60008,4.11992,0.815697,14,32765
5.6148,4.10099,0.809873,14,32765
5.70178,4.13445,0.814993,15,32765
5.77239,4.15639,0.818258,15,32765
5.83486,4.17247,0.820579,15,32765
5.84904,4.15366,0.814999,15,32765
5.86324,4.13445,0.810635,15,32765
5.82847,4.08105,0.799708,15,32765
5.8912,4.09612,0.802468,15,32765
5.92156,4.08815,0.799857,16,32765
5.93537,4.06871,0.796582,15,32765
5.94928,4.04926,0.791952,15,32765
5.94668,4.01848,0.785609,15,32765
5.92749,3.9766,0.777088,15,32765
5.94119,3.95682,0.773486,15,32765
6.00456,3.96992,0.776236,15,32765
6.01811,3.94996,0.773176,15,32765
6.0148,3.9195,0.766854,15,32765
5.99451,3.87837,0.759279,16,32765
6.04093,3.88061,0.759231,15,32765
6.02026,3.83968,0.752146,15,32765
6.03315,3.82007,0.748696,15,32765
6.09655,3.83214,0.751226,15,32765
6.10941,3.81228,0.747805,16,32765
6.08006,3.76596,0.739286,16,32765
6.08434,3.74052,0.736008,15,32765
6.10559,3.72548,0.73393,16,32765
6.08424,3.68469,0.726383,16,32765
6.10514,3.66981,0.724796,15,32765
6.16888,3.68016,0.727887,16,32765
6.18144,3.65979,0.724,15,32765
6.19387,3.63933,0.720842,16,32765
6.20629,3.61874,0.717676,16,32765
6.18387,3.57856,0.711325,16,32765
6.17874,3.54822,0.706346,15,32765
6.20796,3.53777,0.705554,15,32765
6.22861,3.5222,0.703314,16,32765
6.23193,3.49664,0.699227,15,32765
6.22623,3.46641,0.695512,16,32765
6.29027,3.47479,0.697684,16,32765
6.26693,3.43498,0.692067,16,32765
6.3221,3.43826,0.694477,16,32765
6.28116,3.38896,0.686213,16,32765
6.31019,3.37757,0.685334,16,32765
6.30409,3.34708,0.681443,16,32765
6.31549,3.32612,0.678561,17,32765
6.32678,3.30499,0.676648,16,32765
6.32933,3.27914,0.672681,16,32765
6.3494,3.26232,0.671761,16,32765
6.37831,3.25005,0.671169,17,32765
6.345,3.20623,0.663877,20,32765
6.36497,3.1892,0.662369,22,32765
6.31327,3.13709,0.653951,22,32765
6.29706,3.10292,0.649217,23,32765
6.27177,3.06452,0.643211,23,32765
6.25523,3.03083,0.637608,21,32765
6.17589,2.96665,0.625889,20,32765
6.14091,2.92479,0.619486,21,32765
6.06979,2.86602,0.609266,20,32765
6.06147,2.83738,0.605136,19,32765
6.00779,2.78791,0.59703,20,32765
5.95391,2.73894,0.587863,19,32765
5.90876,2.69439,0.580745,18,32765
5.88153,2.65846,0.574943,18,32765
5.82702,2.6103,0.565972,18,32765
5.79029,2.57074,0.55981,19,32765
5.81735,2.55928,0.559371,19,32765
5.68904,2.48017,0.544461,21,32765
5.65175,2.44153,0.537682,20,32765
5.64173,2.41478,0.534124,20,32765
5.66835,2.40371,0.53334,18,32765
5.52039,2.3191,0.516817,21,32765
5.50997,2.29298,0.51242,20,32765
5.47156,2.25587,0.506611,20,32765
5.46989,2.23419,0.503509,19,32765
5.39425,2.18269,0.493508,21,32765
5.42919,2.17626,0.494652,19,32765
5.35313,2.12536,0.485058,19,32765
5.37879,2.11512,0.484679,20,32765
5.27444,2.0542,0.472142,21,32765
5.25343,2.02617,0.467581,21,32765
5.20432,1.9877,0.460726,20,32765
5.18296,1.96023,0.456081,21,32765
5.16148,1.93288,0.451635,20,32765
5.10261,1.89159,0.443716,20,32765
5.11841,1.87809,0.442181,21,32765
5.11541,1.8578,0.439069,22,32765
5.07465,1.82446,0.432799,21,32765
5.06196,1.80122,0.429212,14,32765
2.12496,0.748438,0.178853,15,32765
2.08977,0.728468,0.174918,16,32765
2.01678,0.695745,0.167689,16,32765
2.04736,0.69903,0.169006,17,32765
1.99292,0.673539,0.163404,17,32765
2.01402,0.673572,0.164036,18,32765
1.96892,0.651432,0.159322,18,32765
1.95218,0.638809,0.156594,18,32765
1.95428,0.632611,0.155527,18,32765
1.90879,0.611503,0.150663,17,32765
1.84417,0.584627,0.144374,19,32765
1.84607,0.578907,0.143173,18,32765
5.62529,4.13379,0.740458,13,32765
5.60707,4.09152,0.735319,13,32765
5.65287,4.09643,0.738059,13,32765
5.77152,4.15321,0.750296,13,32765
5.85808,4.18626,0.758746,13,32765
5.84785,4.1495,0.753888,13,32765
5.84538,4.11896,0.749585,13,32765
5.85873,4.10029,0.747672,13,32765
5.86415,4.07547,0.744785,13,32765
5.90228,4.07318,0.745907,13,32765
5.90781,4.04786,0.743421,13,32765
5.88044,4.00027,0.735385,13,32765
5.91846,3.99768,0.736755,13,32765
5.91536,3.96708,0.732343,13,32765
5.95328,3.96455,0.732708,13,32765
5.94149,3.9286,0.728348,13,32765
5.99626,3.93639,0.730672,13,32765
5.96799,3.88923,0.722916,13,32765
6.00634,3.88539,0.723628,13,32765
6.03635,3.87607,0.72296,13,32765
6.00737,3.82944,0.715887,13,32765
6.0454,3.82575,0.71615,13,32765
6.05802,3.80625,0.713384,13,32765
6.04522,3.77089,0.707978,13,32765
6.13382,3.79857,0.713885,13,32765
6.11279,3.75719,0.708065,14,32765
6.10855,3.7264,0.704071,14,32765
6.0956,3.69073,0.698436,13,32765
6.10814,3.67038,0.696034,13,32765
6.08631,3.62985,0.689477,13,32765
6.13278,3.63014,0.690441,13,32765
6.14516,3.60973,0.687353,13,32765
6.15714,3.58959,0.685609,13,32765
6.1693,3.56925,0.682459,13,32765
6.14668,3.52915,0.676644,13,32765
6.15872,3.50862,0.673891,13,32765
6.20544,3.50758,0.67449,13,32765
6.21756,3.48668,0.671234,13,32765
6.22948,3.46586,0.668621,13,32765
6.28475,3.46927,0.670962,14,32765
6.25277,3.42466,0.663473,13,32765
6.22935,3.38508,0.656358,14,32765
6.27572,3.38364,0.65719,14,32765
6.25203,3.3441,0.650741,15,32765
6.26332,3.3234,0.648221,14,32765
6.2746,3.30254,0.645796,14,32765
6.28581,3.2817,0.643036,14,32765
6.3412,3.28357,0.645134,15,32765
6.29935,3.23498,0.63653,17,32765
6.31026,3.21404,0.634602,19,32765
6.27687,3.17027,0.627555,20,32765
6.26987,3.1403,0.623568,19,32765
6.21814,3.08841,0.614319,19,32765
6.14823,3.02809,0.603605,17,32765
6.09564,2.97747,0.594945,17,32765
6.05211,2.93081,0.587233,17,32765
6.03528,2.89738,0.582178,17,32765
6.00911,2.86018,0.576554,17,32765
5.92867,2.79772,0.565706,16,32765
6.01908,2.81659,0.57129,18,32765
0,0,0,0,32765
5.86598,2.69769,0.550606,15,32765
0,0,0,0,32765
5.80242,2.62182,0.538576,15,32765
0,0,0,0,32765
5.62874,2.49841,0.517281,16,32765
5.60082,2.46349,0.511449,18,32765
5.59082,2.43698,0.508192,18,32765
0,0,0,0,32765
5.47874,2.34535,0.493124,17,32765
0,0,0,0,32765
5.47614,2.30124,0.487647,17,32765
0,0,0,0,32765
5.41762,2.23497,0.478203,16,32765
5.39728,2.20606,0.474557,18,32765
5.32156,2.15454,0.465394,18,32765
0,0,0,0,32765
5.12277,2.03496,0.443946,16,32765
5.25012,2.06557,0.453007,17,32765
5.0897,1.98336,0.437772,16,32765
0,0,0,0,32765
5.17735,1.97828,0.441653,17,32765
5.08131,1.92249,0.432247,18,32765
5.18099,1.9409,0.438977,17,32765
5.12186,1.90004,0.432238,19,32765
4.97832,1.82838,0.419197,18,32765
4.99371,1.81563,0.41862,19,32765
5.03709,1.81298,0.421573,19,32765
2.06608,0.735921,0.172376,12,32765
2.13426,0.752491,0.17768,14,32765
2.02377,0.706149,0.167967,14,32765
2.06379,0.71252,0.170813,15,32765
2.03779,0.69621,0.168228,17,32765
2.01167,0.68011,0.165879,16,32765
1.97599,0.661121,0.162756,17,32765
2.02544,0.67044,0.1664,17,32765
1.90441,0.623604,0.156318,16,32765
1.91586,0.62063,0.157125,15,32765
1.9083,0.611568,0.156453,16,32765
1.87216,0.593597,0.153549,17,32765
1.86446,0.58474,0.15318,16,32765
5.64269,4.15494,0.676835,14,32765
5.65669,4.13601,0.675902,14,32765
5.65434,4.10568,0.672502,14,32765
5.68424,4.09855,0.673003,14,32765
5.70592,4.0856,0.672986,15,32765
5.85761,4.16463,0.687491,15,32765
5.90398,4.16843,0.689061,14,32765
5.8849,4.12667,0.683338,15,32765
5.93126,4.13015,0.685251,14,32765
5.91227,4.088,0.679477,15,32765
5.92606,4.06822,0.678015,15,32765
5.95634,4.05972,0.676978,15,32765
5.95335,4.02897,0.673377,15,32765
5.99994,4.03151,0.674709,15,32765
5.99666,4.00107,0.670122,15,32765
6.0099,3.98139,0.6688,15,32765
6.02326,3.96161,0.666021,15,32765
6.03676,3.94147,0.663295,15,32765
6.03352,3.91032,0.659131,15,32765
6.06361,3.90089,0.658259,15,32765
6.08507,3.88622,0.657077,16,32765
6.07283,3.85027,0.651605,15,32765
6.08552,3.83065,0.648821,15,32765
6.06435,3.78984,0.642785,15,32765
6.12764,3.80177,0.645163,15,32765
6.08966,3.74987,0.637937,15,32765
6.15337,3.76064,0.641219,15,32765
6.14905,3.72991,0.636722,15,32765
6.12759,3.68879,0.630781,15,32765
6.20842,3.70942,0.635083,16,32765
6.15234,3.64833,0.625162,15,32765
6.16478,3.6278,0.622059,15,32765
6.21124,3.62765,0.623761,15,32765
6.22351,3.6071,0.620579,15,32765
6.23555,3.5866,0.618543,15,32765
6.21317,3.54597,0.612335,15,32765
6.23402,3.53002,0.609982,16,32765
6.2462,3.50898,0.606707,16,32765
6.25819,3.48802,0.604078,16,32765
6.25251,3.45758,0.600077,16,32765
6.26415,3.43695,0.597232,16,32765
6.27576,3.4163,0.593794,16,32765
6.29593,3.40051,0.591754,16,32765
6.30742,3.37964,0.588947,18,32765
6.31003,3.35404,0.585585,21,32765
6.29495,3.31903,0.580698,22,32765
6.25322,3.27036,0.573069,23,32765
6.22011,3.22645,0.566647,22,32765
6.17803,3.17816,0.558663,20,32765
6.13547,3.1304,0.551975,21,32765
6.00393,3.03763,0.53672,24,32765
5.96083,2.99063,0.529844,35,32765
5.98888,2.97963,0.528489,26,32765
5.94537,2.93318,0.52107,20,32765
5.89243,2.88311,0.513147,20,32765
5.84855,2.83704,0.506077,20,32765
5.81341,2.79559,0.499838,19,32765
5.78687,2.75905,0.494667,20,32765
5.76013,2.72276,0.489432,18,32765
5.66074,2.65335,0.478213,18,32765
5.59733,2.60101,0.469787,19,32765
5.61513,2.58663,0.468646,18,32765
5.5603,2.53915,0.461162,20,32765
5.55986,2.51638,0.458394,19,32765
5.54097,2.48584,0.454275,21,32765
5.53118,2.45916,0.451111,20,32765
5.45747,2.40439,0.441999,19,32765
5.46554,2.38628,0.440441,23,32765
5.40031,2.33651,0.432826,20,32765
5.36222,2.29921,0.427492,19,32765
5.33327,2.26577,0.422603,20,32765
5.30414,2.23257,0.417934,21,32765
5.23782,2.18458,0.411071,18,32765
5.1806,2.14063,0.404293,21,32765
5.14148,2.10487,0.399544,20,32765
5.13007,2.08033,0.396312,20,32765
5.18331,2.08197,0.398452,21,32765
5.09751,2.02814,0.389887,20,32765
5.11354,2.01501,0.389254,21,32765
5.09226,1.98748,0.386304,19,32765
5.08024,1.96351,0.383911,22,32765
4.97501,1.90393,0.37402,21,32765
4.91599,1.86284,0.368468,22,32765
4.94081,1.85379,0.36872,22,32765
4.95617,1.84141,0.368251,23,32765
4.88727,1.7977,0.362277,22,32765
4.91194,1.78863,0.362321,23,32765
4.88018,1.75917,0.359371,22,32765
4.68872,1.67261,0.344095,17,32765
2.07895,0.734092,0.152218,15,32765
2.06252,0.720746,0.150514,17,32765
1.99889,0.691142,0.145432,16,32765
1.99169,0.681468,0.144506,17,32765
1.98441,0.671882,0.143808,17,32765
1.92976,0.646601,0.139691,17,32765
1.96973,0.652949,0.142186,19,32765
1.92442,0.631068,0.138794,18,32765
1.90743,0.618788,0.137455,18,32765
1.84287,0.591442,0.13277,20,32765
1.84468,0.585715,0.132976,19,32765
1.86552,0.585894,0.134757,19,32765
5.59981,4.10776,0.699188,13,32765
5.61423,4.089,0.693495,12,32765
5.64452,4.08209,0.689859,13,32765
5.68255,4.08116,0.688262,13,32765
5.8343,4.16081,0.699038,13,32765
5.84861,4.14142,0.694598,13,32765
5.90352,4.15078,0.694306,14,32765
5.88502,4.10853,0.686058,13,32765
5.87425,4.07252,0.678377,13,32765
5.97829,4.11531,0.684357,13,32765
5.87723,4.01698,0.666733,13,32765
5.92388,4.01987,0.666609,13,32765
5.93757,4.00034,0.662324,13,32765
5.96755,3.99212,0.659895,14,32765
6.01416,3.99472,0.659292,13,32765
5.94435,3.92041,0.646225,13,32765
6.00763,3.93355,0.64778,13,32765
5.97092,3.88115,0.638241,13,32765
6.00912,3.87768,0.637492,13,32765
6.03084,3.86298,0.634414,13,32765
6.04377,3.84331,0.630838,13,32765
6.02294,3.80227,0.624047,13,32765
6.03577,3.78253,0.620001,13,32765
6.04826,3.76306,0.616747,13,32765
6.06939,3.74849,0.613957,13,32765
6.12439,3.75478,0.614518,14,32765
6.06042,3.68791,0.604199,13,32765
6.10703,3.6884,0.604483,13,32765
6.11086,3.6633,0.600066,13,32765
6.13186,3.64813,0.597566,13,32765
6.16988,3.64317,0.59669,13,32765
6.15643,3.60759,0.590943,13,32765
6.16874,3.58698,0.58807,13,32765
6.20672,3.58159,0.587349,13,32765
6.19298,3.546,0.581755,14,32765
6.23094,3.54029,0.581241,14,32765
6.21682,3.50498,0.576037,14,32765
6.15914,3.44526,0.567059,14,32765
6.2404,3.46372,0.570681,14,32765
6.21719,3.4238,0.564437,14,32765
6.30746,3.4462,0.569026,14,32765
6.24888,3.38744,0.560102,15,32765
6.23412,3.35231,0.554751,18,32765
6.23653,3.32716,0.551205,19,32765
6.20375,3.28304,0.544666,20,32765
6.1883,3.24868,0.5396,19,32765
6.12847,3.19149,0.530218,18,32765
6.08614,3.14358,0.523148,17,32765
6.00785,3.07807,0.513872,16,32765
5.9383,3.01728,0.504961,20,32765
5.92194,2.98387,0.499646,31,32765
5.95006,2.97263,0.499125,25,32765
5.87999,2.91234,0.490255,18,32765
5.78243,2.83994,0.479445,19,32765
5.78316,2.81617,0.476213,19,32765
5.74776,2.77529,0.470074,17,32765
0,0,0,0,32765
5.57712,2.64732,0.451083,18,32765
0,0,0,0,32765
5.54972,2.58926,0.442681,17,32765
0,0,0,0,32765
5.53987,2.53995,0.436599,17,32765
5.40324,2.45531,0.422965,19,32765
5.43871,2.44985,0.42319,19,32765
5.43798,2.4275,0.420128,19,32765
5.35496,2.36905,0.410966,18,32765
5.40873,2.37106,0.412493,17,32765
5.37116,2.33283,0.406752,19,32765
0,0,0,0,32765
5.32272,2.26944,0.397801,18,32765
5.17402,2.18608,0.383992,18,32765
5.14444,2.15375,0.379678,18,32765
5.07798,2.1062,0.371668,17,32765
5.06647,2.08204,0.368877,17,32765
5.07349,2.06529,0.366518,18,32765
4.92305,1.98527,0.353107,19,32765
5.05945,2.02077,0.360609,19,32765
5.00136,1.97821,0.353767,19,32765
4.97082,1.94715,0.349329,19,32765
4.90294,1.90195,0.341624,19,32765
4.88135,1.8751,0.337575,19,32765
4.85953,1.84869,0.333751,19,32765
4.8377,1.8222,0.329648,20,32765
4.85296,1.81021,0.328653,19,32765
4.75603,1.7563,0.319405,20,32765
4.77123,1.74421,0.318052,20,32765
4.63627,1.6777,0.306509,16,32765
2.18002,0.78074,0.142746,13,32765
2.07908,0.737038,0.1353,14,32765
2.01559,0.707161,0.130029,15,32765
1.98016,0.687673,0.126789,15,32765
1.94464,0.668395,0.123388,16,32765
1.90904,0.649289,0.119997,17,32765
1.93007,0.649592,0.120238,17,32765
1.86589,0.621337,0.115334,16,32765
1.84895,0.609179,0.11306,17,32765
1.87938,0.612665,0.113865,18,32765
1.80536,0.582219,0.108169,18,32765
1.79771,0.573579,0.10656,18,32765
1.82816,0.576849,0.107137,19,32765
1.75374,0.54743,0.101587,18,32765
5.73718,4.21728,0.649444,14,32765
5.67151,4.1393,0.634603,15,32765
5.66969,4.1088,0.627149,15,32765
5.69162,4.09614,0.623474,14,32765
5.73805,4.10065,0.62124,14,32765
5.7765,4.09882,0.619482,15,32765
5.84754,4.11991,0.620507,15,32765
5.91054,4.13486,0.62125,15,32765
5.94075,4.12711,0.61808,15,32765
5.95476,4.10754,0.613678,15,32765
5.96872,4.0879,0.609121,15,32765
5.96617,4.05686,0.603556,15,32765
5.96344,4.026,0.597579,15,32765
6.01006,4.02876,0.596582,15,32765
6.02358,4.00914,0.592306,15,32765
6.03695,3.98959,0.588265,15,32765
6.05046,3.96964,0.584364,15,32765
6.04725,3.93874,0.578548,15,32765
6.06053,3.91878,0.575086,15,32765
6.05721,3.88771,0.569508,15,32765
6.07021,3.86791,0.565911,15,32765
6.08315,3.848,0.562592,15,32765
6.1299,3.84923,0.561594,15,32765
6.12568,3.81886,0.556747,15,32765
6.15546,3.80925,0.554576,15,32765
6.16817,3.78917,0.550817,15,32765
6.14687,3.74797,0.545091,15,32765
6.15957,3.72752,0.541949,15,32765
6.18916,3.71759,0.539827,15,32765
6.20177,3.69702,0.536444,16,32765
6.22278,3.68166,0.533772,16,32765
6.21805,3.65088,0.529004,16,32765
6.18741,3.60491,0.522459,16,32765
6.20818,3.58946,0.519996,16,32765
6.22041,3.56868,0.516834,16,32765
6.26711,3.5678,0.516736,16,32765
6.2444,3.52738,0.511082,17,32765
6.25638,3.50646,0.508495,20,32765
6.24196,3.4713,0.503582,23,32765
6.20129,3.42165,0.49631,23,32765
6.17782,3.38188,0.491016,23,32765
6.119,3.32342,0.482892,22,32765
6.07766,3.27445,0.475817,22,32765
6.03581,3.22625,0.469011,17,32765
6.01149,3.18737,0.463703,14,32765
5.91623,3.11177,0.452916,15,32765
5.83822,3.04613,0.44308,19,32765
5.83083,3.01742,0.439359,21,32765
5.81423,2.98451,0.435744,21,32765
5.75323,2.92877,0.428404,22,32765
5.72764,2.89141,0.422803,23,32765
5.68407,2.84508,0.416922,20,32765
5.6761,2.81662,0.413548,20,32765
5.56923,2.74034,0.403277,21,32765
5.5158,2.69098,0.396361,20,32765
5.57878,2.69871,0.397849,19,32765
5.51579,2.6458,0.390799,20,32765
5.50671,2.61873,0.387914,20,32765
5.52448,2.6049,0.38601,18,32765
5.31634,2.48495,0.368747,20,32765
5.39711,2.50085,0.372265,20,32765
5.3602,2.46207,0.36683,19,32765
5.3141,2.41922,0.360939,20,32765
5.27667,2.38119,0.356,20,32765
5.17547,2.31451,0.346391,20,32765
5.14678,2.28108,0.341906,18,32765
5.15456,2.26373,0.340023,21,32765
5.17152,2.25018,0.33845,19,32765
5.16995,2.22897,0.335931,20,32765
5.08577,2.17232,0.327936,22,32765
5.10217,2.15959,0.326406,21,32765
5.10011,2.13901,0.324244,21,32765
5.08887,2.11449,0.320489,19,32765
4.93891,2.03324,0.309211,21,32765
4.92727,2.00933,0.305762,21,32765
4.93395,1.9932,0.303693,22,32765
4.85722,1.94343,0.296843,21,32765
4.83596,1.91617,0.292997,21,32765
4.82379,1.89289,0.29011,21,32765
4.84875,1.88424,0.288772,22,32765
4.60344,1.77146,0.27182,18,32765
4.6559,1.77433,0.272758,21,32765
4.62446,1.74493,0.268484,18,32765
4.62076,1.72661,0.266386,20,32765
4.59843,1.70106,0.26256,21,32765
4.56656,1.6723,0.258522,21,32765
4.58151,1.66077,0.256906,20,32765
4.5495,1.63217,0.252292,19,32765
2.28682,0.812091,0.125921,19,32765
2.00685,0.705316,0.109393,12,32765
1.92423,0.669408,0.103983,14,32765
1.92641,0.663274,0.103006,16,32765
1.87186,0.637747,0.0989993,17,32765
1.8834,0.634978,0.0985749,17,32765
1.87599,0.625777,0.0972958,18,32765
1.87802,0.619823,0.0961746,20,32765
1.84203,0.601521,0.0933158,18,32765
1.86299,0.601838,0.0931464,19,32765
1.80781,0.577796,0.0892492,19,32765
1.80971,0.57201,0.088145,20,32765
1.79244,0.560475,0.0861072,21,32765
5.77712,4.2419,0.572048,13,32765
5.6621,4.12915,0.558257,13,32765
5.67576,4.11056,0.556736,13,32765
5.64895,4.06278,0.550995,13,32765
5.70315,4.07288,0.553823,12,32765
5.74933,4.07701,0.555018,13,32765
5.86887,4.13271,0.563137,13,32765
5.92325,4.1423,0.564746,13,32765
5.88783,4.08874,0.558373,13,32765
5.99969,4.13764,0.565398,13,32765
5.96431,4.0838,0.558655,13,32765
5.94507,4.04153,0.553338,13,32765
5.95036,4.01634,0.549735,13,32765
5.92227,3.96908,0.543626,13,32765
5.98532,3.98276,0.545594,13,32765
6.02362,3.97945,0.545525,13,32765
5.96202,3.91018,0.536037,13,32765
6.00855,3.91221,0.536687,13,32765
6.02164,3.89236,0.534286,13,32765
6.08493,3.90497,0.536089,13,32765
6.02216,3.83693,0.526468,13,32765
6.11067,3.86526,0.531035,13,32765
6.08966,3.82414,0.525459,13,32765
6.13626,3.82532,0.5251,13,32765
6.0982,3.77348,0.518519,13,32765
6.16189,3.78464,0.51976,13,32765
6.14075,3.7432,0.513529,13,32765
6.18753,3.74339,0.513847,14,32765
6.14911,3.69162,0.506449,14,32765
6.16154,3.67111,0.504405,14,32765
6.14826,3.63533,0.49887,14,32765
6.18636,3.63003,0.497991,14,32765
6.2159,3.61937,0.496804,14,32765
6.18498,3.57357,0.491102,14,32765
6.19694,3.55312,0.488761,14,32765
6.18299,3.51763,0.48352,16,32765
6.20363,3.50191,0.480867,18,32765
6.17194,3.4569,0.474489,20,32765
6.12258,3.40236,0.467266,19,32765
6.09012,3.35834,0.461403,18,32765
6.04892,3.30936,0.454793,18,32765
5.98997,3.25116,0.446242,20,32765
5.91328,3.18367,0.4362,14,32765
5.80084,3.09802,0.425043,12,32765
5.82888,3.08809,0.424294,15,32765
5.80398,3.05003,0.419558,17,32765
5.7347,2.98911,0.410888,19,32765
5.70936,2.95169,0.405356,17,32765
5.71956,2.9322,0.402941,20,32765
5.65815,2.8772,0.395902,18,32765
0,0,0,0,32765
5.52571,2.76373,0.379998,18,32765
0,0,0,0,32765
5.49962,2.70476,0.371523,18,32765
0,0,0,0,32765
5.41018,2.61553,0.35957,18,32765
0,0,0,0,32765
5.40965,2.57104,0.354118,18,32765
0,0,0,0,32765
5.27301,2.4635,0.339743,18,32765
5.227,2.42066,0.334312,20,32765
5.20813,2.39041,0.330132,16,32765
0,0,0,0,32765
5.16041,2.32709,0.322063,18,32765
0,0,0,0,32765
5.09367,2.25674,0.313087,17,32765
5.10126,2.23976,0.311452,18,32765
5.05377,2.19906,0.306503,19,32765
5.04284,2.17433,0.303489,19,32765
4.93984,2.11075,0.295175,20,32765
0,0,0,0,32765
4.93549,2.07023,0.291066,18,32765
4.83179,2.0078,0.283089,18,32765
4.99547,2.05646,0.290364,18,32765
4.94683,2.01733,0.285933,19,32765
4.80533,1.94131,0.276037,18,32765
4.71909,1.8883,0.269468,20,32765
4.72531,1.87288,0.268052,20,32765
4.73153,1.85733,0.266511,19,32765
4.84925,1.88541,0.272204,20,32765
4.74367,1.82632,0.265017,19,32765
4.71236,1.79662,0.261309,18,32765
4.66214,1.76021,0.257399,19,32765
4.66793,1.74501,0.255815,20,32765
4.57993,1.69524,0.250114,16,32765
4.63244,1.69725,0.251861,18,32765
4.5724,1.65801,0.247158,17,32765
4.44617,1.59592,0.239799,15,32765
2.26806,0.805729,0.121716,17,32765
2.20468,0.775293,0.117893,11,32765
0,0,0,0,32765
1.96416,0.676434,0.104404,15,32765
1.87181,0.63788,0.0991236,15,32765
1.82654,0.615905,0.0964375,17,32765
1.88533,0.629109,0.0993028,18,32765
1.81144,0.598103,0.0951875,17,32765
1.81334,0.592294,0.0952816,17,32765
1.82473,0.589582,0.0956661,19,32765
1.79806,0.574623,0.0943295,19,32765
1.78082,0.562919,0.0933374,19,32765
1.80161,0.563296,0.0947739,20,32765
5.84877,4.30453,0.511201,14,32765
5.84673,4.27371,0.508695,14,32765
5.7963,4.20759,0.501529,14,32765
5.71318,4.11846,0.491338,14,32765
5.7108,4.08772,0.48882,14,32765
5.75704,4.09184,0.489632,14,32765
5.77882,4.07859,0.488263,15,32765
5.82486,4.08277,0.488747,15,32765
5.91209,4.1149,0.493203,15,32765
5.95838,4.11844,0.493652,15,32765
5.98876,4.10977,0.492894,15,32765
6.0026,4.0898,0.490631,15,32765
6.01631,4.06995,0.487758,15,32765
6.01326,4.03906,0.484085,14,32765
6.02673,4.01925,0.481467,15,32765
6.05683,4.01028,0.480435,15,32765
6.08707,4.00103,0.478985,15,32765
6.10884,3.98628,0.477247,15,32765
6.0803,3.93893,0.471552,15,32765
6.09339,3.91898,0.468887,15,32765
6.08954,3.88836,0.46459,15,32765
6.11922,3.87912,0.463814,15,32765
6.13205,3.85914,0.461143,15,32765
6.1449,3.83903,0.457859,16,32765
6.1493,3.81335,0.454969,16,32765
6.13662,3.77727,0.450006,16,32765
6.12397,3.74102,0.444777,16,32765
6.17074,3.74126,0.444721,16,32765
6.17507,3.71516,0.440941,15,32765
6.19616,3.69964,0.439492,16,32765
6.18296,3.66366,0.434213,18,32765
6.20394,3.64811,0.431832,21,32765
6.18182,3.60718,0.426873,22,32765
6.13358,3.55139,0.420461,23,32765
6.11085,3.51116,0.415779,23,32765
6.06206,3.45611,0.408521,23,32765
6.00427,3.39652,0.400617,24,32765
5.9548,3.3423,0.393648,23,32765
5.90506,3.28836,0.387167,22,32765
5.88969,3.25461,0.382995,22,32765
5.86564,3.21579,0.378158,21,32765
5.80635,3.15807,0.370454,21,32765
5.7469,3.10053,0.362562,21,32765
5.68698,3.04352,0.356081,20,32765
5.67075,3.01054,0.352439,20,32765
5.64559,2.97292,0.348134,23,32765
5.66454,2.95863,0.345786,22,32765
5.55042,2.87542,0.335306,20,32765
5.46265,2.80624,0.327103,22,32765
5.48977,2.7973,0.32619,22,32765
5.42784,2.74309,0.319557,20,32765
5.35677,2.68471,0.312036,19,32765
5.3479,2.65808,0.308186,21,32765
5.28533,2.60467,0.301633,19,32765
5.28517,2.58254,0.299277,19,32765
5.37495,2.60377,0.301053,20,32765
5.27572,2.53386,0.293132,21,32765
5.21202,2.48212,0.286876,20,32765
5.21133,2.46058,0.283746,20,32765
5.14713,2.40953,0.278165,21,32765
5.16435,2.39644,0.276738,20,32765
5.09093,2.3413,0.269979,20,32765
5.0442,2.29962,0.265136,20,32765
4.95184,2.23749,0.257911,19,32765
5.02308,2.24979,0.259228,21,32765
4.92101,2.18458,0.251802,20,32765
5.01064,2.20434,0.254397,22,32765
4.81652,2.09997,0.242656,21,32765
4.96114,2.14333,0.247701,24,32765
4.82128,2.06415,0.23872,20,32765
4.83738,2.05206,0.237527,20,32765
4.82583,2.0282,0.235315,22,32765
4.79575,1.99673,0.232066,20,32765
4.59,1.89324,0.220044,18,32765
4.72577,1.93094,0.225083,23,32765
4.61174,1.86673,0.218065,18,32765
4.60869,1.84771,0.216403,17,32765
4.59621,1.82524,0.214152,18,32765
4.57438,1.79911,0.211362,20,32765
4.5616,1.77699,0.209945,21,32765
4.5209,1.74389,0.206926,20,32765
4.61064,1.76121,0.209174,21,32765
4.47619,1.69323,0.202047,18,32765
4.4724,1.6751,0.200105,20,32765
4.44036,1.64671,0.197872,18,32765
4.46459,1.63885,0.197923,21,32765
4.37617,1.58986,0.192678,19,32765
4.40013,1.58238,0.193251,20,32765
2.23091,0.794021,0.0974064,14,32765
2.28057,0.803482,0.0991622,14,32765
0,0,0,0,32765
2.08741,0.720215,0.0901417,14,32765
1.88171,0.642441,0.0809047,14,32765
1.86484,0.629982,0.079904,18,32765
1.84788,0.617748,0.0789618,17,32765
1.83086,0.605624,0.0780266,18,32765
1.81379,0.593524,0.0773115,19,32765
1.8442,0.59696,0.0784094,20,32765
1.77949,0.56972,0.075736,19,32765
1.77176,0.561066,0.0753364,19,32765
1.78303,0.558485,0.0761745,21,32765
5.83026,4.27564,0.538032,13,32765
5.65931,4.12155,0.515221,13,32765
5.65752,4.09075,0.508149,13,32765
5.69601,4.08917,0.505108,13,32765
5.68536,4.05322,0.498026,12,32765
5.73953,4.06373,0.496369,13,32765
5.73682,4.03354,0.490274,13,32765
5.84855,4.08328,0.493777,13,32765
5.90343,4.09229,0.492611,13,32765
5.90088,4.06148,0.486208,13,32765
5.931,4.0534,0.482987,13,32765
5.98596,4.06173,0.48279,13,32765
5.99979,4.04185,0.47797,13,32765
6.02178,4.02748,0.474538,13,32765
6.02712,4.00198,0.469482,13,32765
5.9656,3.93274,0.45909,13,32765
6.00374,3.92966,0.457103,13,32765
6.0337,3.9207,0.45455,13,32765
6.11385,3.9443,0.455419,13,32765
6.04317,3.87014,0.445212,13,32765
6.05608,3.85037,0.441107,13,32765
6.06894,3.83051,0.437254,13,32765
6.08165,3.81065,0.434244,14,32765
6.17895,3.84377,0.436037,13,32765
6.12394,3.78134,0.427648,13,32765
6.11966,3.75063,0.422696,13,32765
6.14943,3.7406,0.420192,14,32765
6.14496,3.70987,0.415227,13,32765
6.15738,3.6896,0.411887,14,32765
6.16114,3.66419,0.408,17,32765
6.11315,3.60845,0.400749,20,32765
6.12526,3.58818,0.397803,19,32765
6.04251,3.51248,0.388045,20,32765
6.00247,3.46237,0.382052,20,32765
5.92751,3.39275,0.373458,19,32765
5.89552,3.34845,0.367188,20,32765
5.88053,3.31436,0.363315,19,32765
5.84826,3.2702,0.357503,19,32765
5.78954,3.21176,0.350329,19,32765
0,0,0,0,32765
5.66225,3.09156,0.335768,20,32765
0,0,0,0,32765
5.60352,3.0118,0.32644,20,32765
5.58721,2.97915,0.32149,20,32765
5.50014,2.9091,0.313777,18,32765
5.57199,2.923,0.314665,20,32765
5.47544,2.84912,0.307487,19,32765
5.45839,2.81727,0.302453,19,32765
5.36121,2.74441,0.294162,20,32765
5.34369,2.71298,0.29097,19,32765
5.24586,2.64108,0.28291,17,32765
5.43352,2.71277,0.289998,19,32765
5.14721,2.54841,0.272621,17,32765
0,0,0,0,32765
5.30822,2.58361,0.275395,18,32765
0,0,0,0,32765
5.10038,2.44019,0.259192,17,32765
5.05442,2.39747,0.254867,18,32765
5.03539,2.36783,0.251199,16,32765
0,0,0,0,32765
5.07838,2.34696,0.248607,18,32765
0,0,0,0,32765
4.94844,2.2472,0.237895,17,32765
4.90136,2.20606,0.233047,19,32765
4.89055,2.1816,0.229728,18,32765
4.76984,2.10893,0.222298,17,32765
4.79528,2.101,0.220756,19,32765
4.75649,2.06514,0.217152,18,32765
4.71766,2.02928,0.212962,18,32765
0,0,0,0,32765
4.7038,1.98572,0.208065,19,32765
4.75657,1.98936,0.207629,19,32765
4.61551,1.91241,0.199442,18,32765
4.66806,1.91622,0.199679,17,32765
4.65594,1.89325,0.196734,19,32765
4.53248,1.82563,0.189202,16,32765
4.60351,1.83661,0.190132,16,32765
4.60037,1.81764,0.187801,17,32765
4.54124,1.77705,0.183384,16,32765
4.61233,1.78745,0.184076,19,32765
4.37568,1.67924,0.1724,16,32765
4.44662,1.68975,0.173025,18,32765
4.48965,1.68915,0.172631,17,32765
4.40158,1.6396,0.166725,16,32765
4.46322,1.64603,0.166822,15,32765
4.31837,1.57678,0.159471,16,32765
4.37989,1.58324,0.15957,17,32765
4.32863,1.54878,0.155682,16,32765
2.29881,0.813927,0.0812589,12,32765
0,0,0,0,32765
2.0303,0.703938,0.069708,13,32765
0,0,0,0,32765
1.83601,0.62365,0.0610207,16,32765
1.80012,0.605057,0.0588969,15,32765
1.83057,0.608647,0.0588687,16,32765
1.79457,0.590259,0.0567233,17,32765
