x, y, z, intensity, ring
0,-0,0,0,32765
0,-0,0,0,32765
0,-0,0,0,32765
0,-0,0,0,32765
0,-0,0,0,32765
0,-0,0,0,32765
0,-0,0,0,32765
0,-0,0,0,32765
0,-0,0,0,32765
0,-0,0,0,32765
0,-0,0,0,32765
0,-0,0,36,32765
0,-0,0,0,32765
0,-0,0,0,32765
1.86636,0.0190918,0.225284,16,32765
1.84648,0.0126061,0.223512,16,32765
1.82659,0.00640913,0.221675,17,32765
1.82655,0.000555464,0.222084,16,32765
1.81658,-0.00518183,0.221177,17,32765
1.77682,-0.0108958,0.216542,16,32765
1.79658,-0.0169709,0.219343,16,32765
1.81633,-0.0231945,0.222031,17,32765
1.81622,-0.0291847,0.222228,17,32765
1.77639,-0.0343466,0.217614,17,32765
1.78616,-0.0404037,0.219071,16,32765
1.77608,-0.0459593,0.217987,16,32765
1.75607,-0.05124,0.215635,17,32765
1.76579,-0.0574081,0.217006,17,32765
1.71597,-0.0615053,0.211101,16,32765
1.76534,-0.0692323,0.217211,17,32765
1.73533,-0.0738195,0.213727,16,32765
1.6954,-0.0776605,0.209004,16,32765
1.67529,-0.0822279,0.206731,16,32765
1.70473,-0.0892001,0.210529,16,32765
1.69451,-0.0942568,0.209378,16,32765
1.69419,-0.0998241,0.209401,17,32765
1.71366,-0.106621,0.211904,17,32765
1.69349,-0.110944,0.209459,17,32765
1.6634,-0.114441,0.205934,17,32765
1.6729,-0.120711,0.207179,17,32765
1.64281,-0.124077,0.203457,17,32765
1.66215,-0.131181,0.206015,17,32765
1.64194,-0.135059,0.203471,17,32765
1.64147,-0.140453,0.203614,17,32765
1.67064,-0.148442,0.207433,17,32765
1.62075,-0.149307,0.201175,17,32765
1.63012,-0.155616,0.202468,17,32765
1.6296,-0.161076,0.202394,17,32765
1.62903,-0.166582,0.202489,17,32765
1.59885,-0.168908,0.198843,17,32765
1.60817,-0.175246,0.199916,17,32765
1.59771,-0.179424,0.198803,17,32765
1.63656,-0.189195,0.20369,17,32765
1.59653,-0.18989,0.198547,17,32765
1.58602,-0.193989,0.197535,17,32765
1.57551,-0.19805,0.196315,17,32765
1.58469,-0.20455,0.197523,17,32765
1.60366,-0.212435,0.200083,17,32765
1.60296,-0.217721,0.200026,18,32765
1.57276,-0.218921,0.196247,18,32765
1.59168,-0.226882,0.198699,17,32765
1.57127,-0.229311,0.196312,17,32765
1.55085,-0.23164,0.193925,17,32765
1.57949,-0.241336,0.197624,18,32765
1.58849,-0.24817,0.198788,18,32765
1.55826,-0.24877,0.195018,18,32765
1.53785,-0.250716,0.192492,17,32765
1.51742,-0.252523,0.190211,17,32765
1.53614,-0.260888,0.192682,17,32765
1.55482,-0.269401,0.195086,18,32765
1.5148,-0.267717,0.190275,18,32765
1.56274,-0.281541,0.196381,18,32765
1.51301,-0.277693,0.190202,17,32765
1.52184,-0.284438,0.191552,18,32765
1.5209,-0.289408,0.191609,18,32765
1.4907,-0.288748,0.187994,17,32765
1.51895,-0.299438,0.191672,17,32765
1.48874,-0.298594,0.188146,18,32765
1.49744,-0.305583,0.189455,18,32765
1.5061,-0.312628,0.190821,18,32765
1.48562,-0.313521,0.188553,18,32765
1.4943,-0.320429,0.189731,18,32765
1.49323,-0.325276,0.189885,19,32765
1.48244,-0.328052,0.188803,18,32765
1.47163,-0.330822,0.187768,18,32765
1.47051,-0.335728,0.187878,18,32765
1.45001,-0.336152,0.185685,17,32765
1.44889,-0.340866,0.18583,17,32765
1.44776,-0.345562,0.185963,17,32765
1.43695,-0.347896,0.185023,17,32765
1.42616,-0.350206,0.183926,16,32765
1.38648,-0.345222,0.179123,15,32765
1.3757,-0.347273,0.178181,15,32765
1.40338,-0.359119,0.182104,15,32765
1.36374,-0.35372,0.177452,14,32765
1.35298,-0.355573,0.17641,14,32765
1.36136,-0.36254,0.177911,13,32765
1.35056,-0.364344,0.177005,12,32765
1.40676,-0.384421,0.184796,12,32765
1.3672,-0.378447,0.180138,12,32765
1.27041,-0.356082,0.167789,11,32765
1.31693,-0.373738,0.174365,11,32765
0,-0,0,0,32765
1.23817,-0.360075,0.16515,11,32765
0,-0,0,11,32765
0,-0,0,0,32765
1.32946,-0.400613,0.178975,11,32765
1.27122,-0.387459,0.171709,11,32765
1.27938,-0.394422,0.173556,12,32765
1.30647,-0.407346,0.177798,11,32765
1.30512,-0.411474,0.178195,12,32765
1.28485,-0.409494,0.176285,12,32765
1.32126,-0.425612,0.182015,12,32765
1.33866,-0.435921,0.185358,12,32765
1.29948,-0.42787,0.180781,13,32765
1.84852,0.0190993,0.205459,17,32765
1.8485,0.0127993,0.206084,16,32765
1.8286,0.00658336,0.204435,16,32765
1.8385,0.000717166,0.205958,16,32765
1.81858,-0.00504102,0.204031,16,32765
1.81853,-0.0110153,0.204235,16,32765
1.79857,-0.016865,0.202385,17,32765
1.82828,-0.0232308,0.206006,17,32765
1.76856,-0.0283164,0.19948,16,32765
1.77837,-0.0342917,0.200844,16,32765
1.76828,-0.0399167,0.199961,16,32765
1.78799,-0.0461941,0.202342,17,32765
1.79775,-0.0523928,0.203551,17,32765
1.75783,-0.0570972,0.199205,17,32765
1.76754,-0.0633113,0.200526,17,32765
1.73752,-0.0681102,0.197156,16,32765
1.72734,-0.0734585,0.196205,16,32765
1.71715,-0.0786453,0.195242,16,32765
1.75656,-0.0862149,0.199936,17,32765
1.71656,-0.089827,0.195547,17,32765
1.68649,-0.0938279,0.192228,17,32765
1.72584,-0.101717,0.196775,18,32765
1.67591,-0.104309,0.191173,18,32765
1.68547,-0.110465,0.192309,17,32765
1.68508,-0.115989,0.19246,17,32765
1.68468,-0.121627,0.19248,17,32765
1.68427,-0.127284,0.192435,17,32765
1.68382,-0.132977,0.192543,17,32765
1.64377,-0.135304,0.187921,18,32765
1.6334,-0.139866,0.186931,17,32765
1.64281,-0.146082,0.188201,18,32765
1.64235,-0.151418,0.188078,18,32765
1.66161,-0.158755,0.190412,18,32765
1.6413,-0.162375,0.188071,18,32765
1.63085,-0.166918,0.187034,19,32765
1.65991,-0.175522,0.190471,19,32765
1.61984,-0.176686,0.18578,18,32765
1.63898,-0.184239,0.188163,18,32765
1.6285,-0.188453,0.187007,19,32765
1.61803,-0.192645,0.185637,19,32765
1.61736,-0.198029,0.185854,19,32765
1.61668,-0.203443,0.185862,19,32765
1.59629,-0.206271,0.183576,19,32765
1.58573,-0.210292,0.182548,18,32765
1.59488,-0.216867,0.183626,18,32765
1.58433,-0.220783,0.182394,18,32765
1.57376,-0.224587,0.18126,18,32765
1.56316,-0.228395,0.180193,19,32765
1.59185,-0.238047,0.183662,19,32765
1.59104,-0.243393,0.183678,19,32765
1.57059,-0.245672,0.181349,18,32765
1.56977,-0.250915,0.18126,18,32765
1.55914,-0.254501,0.180053,18,32765
1.55827,-0.259646,0.180228,18,32765
1.5378,-0.261502,0.177978,18,32765
1.53693,-0.266641,0.177929,18,32765
1.55558,-0.275277,0.180295,19,32765
1.55466,-0.280447,0.180263,19,32765
1.53419,-0.281948,0.177954,18,32765
1.54301,-0.288775,0.179212,18,32765
1.51277,-0.288244,0.175866,18,32765
1.53131,-0.297012,0.178207,19,32765
1.49133,-0.29439,0.173659,18,32765
1.51956,-0.305187,0.177227,18,32765
1.47957,-0.302349,0.172762,18,32765
1.48826,-0.309348,0.174033,18,32765
1.4872,-0.314288,0.174228,18,32765
1.48618,-0.31913,0.174174,18,32765
1.49482,-0.326076,0.175467,19,32765
1.46462,-0.324562,0.172198,18,32765
1.50227,-0.338185,0.176963,19,32765
1.44301,-0.329918,0.170221,18,32765
1.46122,-0.339233,0.172787,18,32765
1.46009,-0.343992,0.172934,18,32765
1.42996,-0.341805,0.16963,18,32765
1.45778,-0.353447,0.173373,18,32765
1.46625,-0.360572,0.17467,18,32765
1.41686,-0.353298,0.169096,19,32765
1.4253,-0.360319,0.170559,18,32765
1.43372,-0.367421,0.171901,19,32765
1.42286,-0.369595,0.1711,18,32765
1.42164,-0.374168,0.171318,19,32765
1.42037,-0.378815,0.171579,18,32765
1.40951,-0.380811,0.170782,19,32765
1.39865,-0.382776,0.169878,19,32765
1.39734,-0.387369,0.170257,19,32765
1.41517,-0.397251,0.172866,19,32765
1.39473,-0.396413,0.170814,19,32765
1.41248,-0.406393,0.173657,18,32765
1.41108,-0.410981,0.174172,19,32765
1.38113,-0.407132,0.170934,19,32765
1.38927,-0.414419,0.172559,18,32765
1.37838,-0.415988,0.171806,19,32765
1.40549,-0.429042,0.175808,18,32765
1.41353,-0.436447,0.177621,18,32765
1.36469,-0.426154,0.172064,17,32765
1.36328,-0.430474,0.172478,16,32765
1.35239,-0.431686,0.171989,15,32765
1.34154,-0.432811,0.17134,15,32765
1.35894,-0.443208,0.174508,13,32765
1.28199,-0.422765,0.165449,12,32765
1.86771,0.0184055,0.213828,16,32765
1.85794,0.0119981,0.211675,16,32765
1.80839,0.0055208,0.205213,16,32765
1.82834,-0.000438025,0.206803,16,32765
1.75884,-0.00611343,0.198365,15,32765
1.79866,-0.0120717,0.201962,16,32765
1.8086,-0.0181044,0.20256,16,32765
1.77877,-0.0236535,0.198751,16,32765
1.78867,-0.0296274,0.199467,17,32765
1.79857,-0.035694,0.199927,16,32765
1.76866,-0.0409291,0.196425,16,32765
1.77851,-0.0470059,0.196951,16,32765
1.76846,-0.0526015,0.195415,16,32765
1.75839,-0.0581576,0.193878,17,32765
1.76815,-0.0644044,0.194699,17,32765
1.77789,-0.0707061,0.195493,17,32765
1.75779,-0.0757756,0.193196,16,32765
1.77744,-0.0824348,0.194926,17,32765
1.69776,-0.0842747,0.18601,17,32765
1.66775,-0.088166,0.18229,16,32765
1.74687,-0.098027,0.190884,17,32765
1.7168,-0.101959,0.187393,17,32765
1.71649,-0.107571,0.187091,17,32765
1.69631,-0.111862,0.184711,17,32765
1.70587,-0.118146,0.185593,17,32765
1.66579,-0.120949,0.181385,16,32765
1.67531,-0.127244,0.182344,16,32765
1.65508,-0.131215,0.179964,16,32765
1.69427,-0.139933,0.184278,17,32765
1.674,-0.143851,0.182037,17,32765
1.63394,-0.145845,0.177409,17,32765
1.63346,-0.151256,0.17728,17,32765
1.63296,-0.156687,0.177153,17,32765
1.65222,-0.163978,0.179362,17,32765
1.65168,-0.169436,0.179267,17,32765
1.5918,-0.168581,0.172793,16,32765
1.66043,-0.181386,0.180154,18,32765
1.6302,-0.183562,0.176821,18,32765
1.61968,-0.18779,0.175974,18,32765
1.61908,-0.193117,0.175718,18,32765
1.60855,-0.197227,0.174872,18,32765
1.61775,-0.203725,0.176005,17,32765
1.59734,-0.206527,0.173897,18,32765
1.64593,-0.218346,0.17923,16,32765
1.54666,-0.210451,0.16867,17,32765
1.59519,-0.222452,0.173988,18,32765
1.58458,-0.226376,0.173107,19,32765
1.57398,-0.230256,0.17195,18,32765
1.56334,-0.234087,0.171085,18,32765
1.56254,-0.239325,0.171144,19,32765
1.54209,-0.241473,0.169005,18,32765
1.54125,-0.246686,0.169072,17,32765
1.55022,-0.253385,0.170321,19,32765
1.53955,-0.256885,0.169407,18,32765
1.54848,-0.263654,0.170557,18,32765
1.5672,-0.272144,0.172648,18,32765
1.52712,-0.27047,0.168336,18,32765
1.5262,-0.275513,0.168508,18,32765
1.5546,-0.285988,0.17187,18,32765
1.53409,-0.287481,0.169757,18,32765
1.51358,-0.288831,0.167768,17,32765
1.51264,-0.29381,0.167654,18,32765
1.51164,-0.298813,0.16783,18,32765
1.51064,-0.30379,0.167875,18,32765
1.48041,-0.302842,0.164535,18,32765
1.49885,-0.311786,0.166866,18,32765
1.50751,-0.318867,0.168008,19,32765
1.49671,-0.321784,0.167081,18,32765
1.50535,-0.328854,0.168139,18,32765
1.47512,-0.327406,0.16502,18,32765
1.46433,-0.330128,0.163884,18,32765
1.46321,-0.335015,0.163999,18,32765
1.47178,-0.342138,0.164971,18,32765
1.46095,-0.344673,0.164072,18,32765
1.47916,-0.354059,0.166229,18,32765
1.46835,-0.356522,0.165086,18,32765
1.40924,-0.347015,0.158776,17,32765
1.45632,-0.363654,0.164251,18,32765
1.41658,-0.358639,0.159926,17,32765
1.44431,-0.370642,0.163072,18,32765
1.44309,-0.375346,0.163081,18,32765
1.43225,-0.377492,0.162044,18,32765
1.44063,-0.384679,0.163096,18,32765
1.42978,-0.386743,0.162025,18,32765
1.4381,-0.39406,0.163066,18,32765
1.41764,-0.393488,0.16081,18,32765
1.39721,-0.392754,0.158564,18,32765
1.37683,-0.391785,0.156316,18,32765
1.40421,-0.404504,0.159577,18,32765
1.41248,-0.41176,0.160462,18,32765
1.38255,-0.407841,0.157242,17,32765
1.3622,-0.406567,0.154973,18,32765
1.37997,-0.416592,0.156963,17,32765
1.35968,-0.41503,0.154666,17,32765
1.37738,-0.425157,0.156724,18,32765
1.36653,-0.426595,0.155571,18,32765
1.3557,-0.428026,0.154178,18,32765
1.33543,-0.426253,0.151792,18,32765
1.3531,-0.436357,0.15365,18,32765
1.33291,-0.434265,0.151221,18,32765
1.34105,-0.441478,0.151901,18,32765
1.81992,0.0181123,0.190981,16,32765
1.83996,0.0120499,0.192063,17,32765
1.85003,0.00580492,0.192281,16,32765
1.84016,-0.000296027,0.190577,17,32765
1.81037,-0.00616098,0.1869,16,32765
1.82038,-0.0120965,0.18703,17,32765
1.84028,-0.0183104,0.188547,17,32765
1.82036,-0.0241077,0.186027,17,32765
1.79047,-0.029571,0.182583,16,32765
1.82027,-0.0360482,0.18497,17,32765
1.79032,-0.0413661,0.181747,17,32765
1.77034,-0.0467373,0.179152,16,32765
1.73044,-0.0514299,0.1747,16,32765
1.78997,-0.0591711,0.180277,17,32765
1.75996,-0.0640865,0.176999,17,32765
1.73988,-0.069186,0.174706,16,32765
1.72971,-0.074567,0.173597,17,32765
1.75932,-0.0816072,0.176142,17,32765
1.73919,-0.0863544,0.173942,17,32765
1.68927,-0.0893363,0.16851,17,32765
1.71878,-0.0964944,0.171398,17,32765
1.68868,-0.100342,0.168193,18,32765
1.67844,-0.105249,0.166908,17,32765
1.68804,-0.111391,0.16768,18,32765
1.70754,-0.118346,0.169454,18,32765
1.68727,-0.122603,0.167593,18,32765
1.68686,-0.128227,0.167472,18,32765
1.66661,-0.132243,0.165278,18,32765
1.65625,-0.136916,0.164298,18,32765
1.65579,-0.14242,0.164213,18,32765
1.67517,-0.149671,0.165852,18,32765
1.65486,-0.153392,0.163759,19,32765
1.65435,-0.158904,0.16363,19,32765
1.63401,-0.162343,0.161732,18,32765
1.65327,-0.169784,0.163598,19,32765
1.63291,-0.173128,0.161604,19,32765
1.63235,-0.178521,0.161455,19,32765
1.66143,-0.187295,0.164273,19,32765
1.63112,-0.189339,0.161565,19,32765
1.62063,-0.193534,0.16033,19,32765
1.61008,-0.197655,0.159579,20,32765
1.59955,-0.201681,0.158659,19,32765
1.60874,-0.20826,0.159677,20,32765
1.59817,-0.212279,0.158665,19,32765
1.6073,-0.218981,0.159823,19,32765
1.59671,-0.222952,0.158789,18,32765
1.58608,-0.226887,0.158002,18,32765
1.58532,-0.232222,0.15792,18,32765
1.5845,-0.237572,0.158133,18,32765
1.56402,-0.239874,0.156228,18,32765
1.57304,-0.246655,0.157224,19,32765
1.56236,-0.250406,0.15631,18,32765
1.57132,-0.257189,0.157468,19,32765
1.58026,-0.264045,0.15862,19,32765
1.54013,-0.262599,0.154751,18,32765
1.55887,-0.271079,0.156655,18,32765
1.50896,-0.267632,0.151732,18,32765
1.54722,-0.279705,0.155848,18,32765
1.5169,-0.279455,0.153008,18,32765
1.51596,-0.284495,0.153057,18,32765
1.51499,-0.289521,0.153231,18,32765
1.50427,-0.292614,0.152129,18,32765
1.53256,-0.303396,0.155272,18,32765
1.50228,-0.302556,0.152349,18,32765
1.50127,-0.307567,0.152257,18,32765
1.49049,-0.310511,0.151434,18,32765
1.48943,-0.315516,0.151492,18,32765
1.47863,-0.318377,0.150657,18,32765
1.48729,-0.325402,0.151622,18,32765
1.48618,-0.330365,0.151759,18,32765
1.48507,-0.335319,0.151709,18,32765
1.45484,-0.333612,0.148849,18,32765
1.46342,-0.340721,0.149728,18,32765
1.43322,-0.338657,0.146936,18,32765
1.44179,-0.345652,0.147914,17,32765
1.47933,-0.359753,0.151827,18,32765
1.43949,-0.355021,0.148069,17,32765
1.43832,-0.359725,0.148107,17,32765
1.44678,-0.366865,0.149127,17,32765
1.40704,-0.361654,0.145037,17,32765
1.46363,-0.381296,0.151006,18,32765
1.42389,-0.375892,0.147083,18,32765
1.42267,-0.380496,0.147048,17,32765
1.40222,-0.379902,0.145077,17,32765
1.42016,-0.389777,0.147019,17,32765
1.41887,-0.394472,0.146938,17,32765
1.39842,-0.393738,0.144879,18,32765
1.39716,-0.398222,0.144803,18,32765
1.37673,-0.397243,0.142824,18,32765
1.38503,-0.404426,0.14362,18,32765
1.39327,-0.411686,0.144643,19,32765
1.38242,-0.41329,0.143551,19,32765
1.39065,-0.420521,0.144363,19,32765
1.38937,-0.424805,0.144229,19,32765
1.36902,-0.42329,0.142148,19,32765
1.37716,-0.430641,0.143064,19,32765
1.35682,-0.429107,0.140778,19,32765
1.36496,-0.436422,0.141528,19,32765
1.36367,-0.440518,0.141231,19,32765
1.37183,-0.447714,0.141924,19,32765
1.36103,-0.448828,0.140547,19,32765
1.83247,0.0216478,0.164868,16,32765
1.8524,0.0156426,0.167218,16,32765
1.85241,0.00951347,0.167589,16,32765
1.81256,0.00326412,0.164375,16,32765
1.83243,-0.00276735,0.166705,16,32765
1.78259,-0.00866066,0.162482,16,32765
1.85225,-0.0150837,0.168987,17,32765
1.79242,-0.0203571,0.163752,16,32765
1.81224,-0.0265396,0.165827,17,32765
1.7922,-0.0321606,0.16422,17,32765
1.80201,-0.0383871,0.165519,17,32765
1.78196,-0.0439119,0.163653,16,32765
1.75192,-0.048955,0.161196,16,32765
1.8015,-0.0563172,0.165883,17,32765
1.77146,-0.0611251,0.163126,17,32765
1.76126,-0.0665785,0.162611,16,32765
1.76103,-0.0723888,0.162604,16,32765
1.72098,-0.0765205,0.158949,16,32765
1.74059,-0.0832779,0.160919,17,32765
1.76019,-0.090138,0.162788,16,32765
1.73998,-0.0948794,0.161136,17,32765
1.6999,-0.0982949,0.157449,16,32765
1.71945,-0.105012,0.159267,17,32765
1.66941,-0.107389,0.15473,17,32765
1.71873,-0.116144,0.159256,17,32765
1.69845,-0.120509,0.157662,17,32765
1.67815,-0.124727,0.156019,17,32765
1.6678,-0.129526,0.155108,17,32765
1.66735,-0.135108,0.155205,17,32765
1.64705,-0.138948,0.15337,17,32765
1.64659,-0.144374,0.153322,17,32765
1.6461,-0.149869,0.153236,17,32765
1.64558,-0.155278,0.153492,17,32765
1.63516,-0.159757,0.152461,17,32765
1.65442,-0.167144,0.154497,18,32765
1.61423,-0.168546,0.150798,17,32765
1.59387,-0.17183,0.148845,18,32765
1.61308,-0.17941,0.150577,18,32765
1.5729,-0.180285,0.146924,18,32765
1.63161,-0.192508,0.152584,18,32765
1.64086,-0.199086,0.153483,19,32765
1.60068,-0.199563,0.149609,18,32765
1.61978,-0.207324,0.151421,19,32765
1.59934,-0.210092,0.149565,19,32765
1.59863,-0.215392,0.149622,19,32765
1.5979,-0.220721,0.149707,19,32765
1.57744,-0.223242,0.147857,18,32765
1.58652,-0.229949,0.148875,17,32765
1.5759,-0.233816,0.147844,17,32765
1.56525,-0.237563,0.147126,18,32765
1.54476,-0.239795,0.145324,18,32765
1.58327,-0.251217,0.149164,18,32765
1.53329,-0.248522,0.144447,18,32765
1.5521,-0.256877,0.146271,19,32765
1.55126,-0.261928,0.146289,17,32765
1.55036,-0.267171,0.14634,18,32765
1.51021,-0.265521,0.142689,18,32765
1.53871,-0.275811,0.145582,18,32765
1.54758,-0.282701,0.146598,18,32765
1.51728,-0.282229,0.143908,18,32765
1.50656,-0.285377,0.142998,18,32765
1.52514,-0.294125,0.144995,18,32765
1.49486,-0.293376,0.142252,18,32765
1.49386,-0.298374,0.142359,18,32765
1.52213,-0.309218,0.145283,18,32765
1.50157,-0.310273,0.143618,18,32765
1.50052,-0.315298,0.143598,18,32765
1.47024,-0.314018,0.141012,18,32765
1.46918,-0.318862,0.141169,18,32765
1.46812,-0.323645,0.141331,18,32765
1.48646,-0.332858,0.143289,18,32765
1.4368,-0.326736,0.138742,17,32765
1.47451,-0.340351,0.142813,18,32765
1.44429,-0.338382,0.140125,18,32765
1.45284,-0.345362,0.14135,18,32765
1.46136,-0.352487,0.142399,18,32765
1.42149,-0.347828,0.138837,18,32765
1.46864,-0.364441,0.143757,18,32765
1.41915,-0.357104,0.139255,17,32765
1.43724,-0.36662,0.14152,17,32765
1.39745,-0.361362,0.138044,17,32765
1.40586,-0.368478,0.139178,17,32765
1.43347,-0.380737,0.142458,17,32765
1.4322,-0.385391,0.142725,17,32765
1.39253,-0.37949,0.139137,17,32765
1.40084,-0.38665,0.140571,17,32765
1.40915,-0.393856,0.141731,17,32765
1.42697,-0.403817,0.144209,18,32765
1.43516,-0.411256,0.145555,18,32765
1.36688,-0.396437,0.139216,18,32765
1.38465,-0.406459,0.141522,17,32765
1.38328,-0.410982,0.141921,18,32765
1.38191,-0.41541,0.142329,18,32765
1.35196,-0.411123,0.139942,18,32765
1.3411,-0.412433,0.139504,17,32765
1.34923,-0.419672,0.140884,18,32765
1.35731,-0.426965,0.142467,18,32765
1.37486,-0.437282,0.145053,18,32765
1.345,-0.43244,0.142684,19,32765
1.35305,-0.43966,0.144398,18,32765
1.36103,-0.446982,0.146283,18,32765
1.88378,0.0224128,0.151584,16,32765
1.84393,0.0157152,0.148931,16,32765
1.86388,0.00970668,0.150915,17,32765
1.84393,0.00344219,0.149697,16,32765
1.81399,-0.00263084,0.147787,16,32765
1.82391,-0.00876344,0.148914,16,32765
1.80393,-0.0146044,0.147434,17,32765
1.82378,-0.0206373,0.149283,17,32765
1.80375,-0.0263513,0.147905,17,32765
1.79367,-0.0321342,0.147304,17,32765
1.78356,-0.0379526,0.146868,16,32765
1.81332,-0.0446538,0.149291,17,32765
1.7434,-0.0486979,0.143834,16,32765
1.7731,-0.0554211,0.146405,17,32765
1.75299,-0.0604906,0.144753,16,32765
1.74279,-0.0658935,0.144328,17,32765
1.72265,-0.0708349,0.142671,17,32765
1.74231,-0.0775039,0.144341,17,32765
1.72212,-0.0824394,0.142823,17,32765
1.70193,-0.0872099,0.1412,17,32765
1.69166,-0.0923104,0.140557,18,32765
1.7013,-0.0984527,0.141379,18,32765
1.69103,-0.103363,0.14053,18,32765
1.69068,-0.108854,0.140597,18,32765
1.68038,-0.113659,0.139693,18,32765
1.69985,-0.120727,0.141593,19,32765
1.69941,-0.126436,0.141797,19,32765
1.67911,-0.130542,0.14015,19,32765
1.67866,-0.136174,0.140248,19,32765
1.66826,-0.140897,0.139432,19,32765
1.65787,-0.145531,0.138553,19,32765
1.62761,-0.148361,0.135979,18,32765
1.65685,-0.156531,0.138725,19,32765
1.66625,-0.162996,0.139447,19,32765
1.65577,-0.167491,0.138805,20,32765
1.64529,-0.172008,0.137976,19,32765
1.6348,-0.176472,0.137039,19,32765
1.64411,-0.183102,0.137751,19,32765
1.62368,-0.186355,0.136135,19,32765
1.60325,-0.189417,0.134588,19,32765
1.6224,-0.197117,0.136225,19,32765
1.62176,-0.202471,0.136048,19,32765
1.60132,-0.205248,0.134354,19,32765
1.61051,-0.211858,0.135173,19,32765
1.59992,-0.215874,0.134401,19,32765
1.59918,-0.221217,0.134487,18,32765
1.58857,-0.225144,0.133655,18,32765
1.60752,-0.233333,0.135411,19,32765
1.57716,-0.234349,0.132813,18,32765
1.57636,-0.239604,0.13302,19,32765
1.58538,-0.246469,0.133901,17,32765
1.58453,-0.251796,0.13404,19,32765
1.55418,-0.252291,0.131456,19,32765
1.55333,-0.257474,0.131429,18,32765
1.55248,-0.262538,0.131447,18,32765
1.53194,-0.264405,0.129833,18,32765
1.55066,-0.273055,0.131554,18,32765
1.5203,-0.272937,0.129169,19,32765
1.56839,-0.286954,0.133425,19,32765
1.51847,-0.282896,0.129349,18,32765
1.5371,-0.291625,0.131038,19,32765
1.51655,-0.292933,0.129508,18,32765
1.55468,-0.305607,0.132898,19,32765
1.47547,-0.295175,0.126316,18,32765
1.50378,-0.305983,0.128958,18,32765
1.50273,-0.311016,0.129155,19,32765
1.50168,-0.316054,0.129136,19,32765
1.52984,-0.327281,0.131872,19,32765
1.48978,-0.323864,0.128672,19,32765
1.49844,-0.330871,0.129679,19,32765
1.47788,-0.331482,0.12808,18,32765
1.49619,-0.340805,0.129908,19,32765
1.47563,-0.341177,0.128542,19,32765
1.48418,-0.34831,0.129522,19,32765
1.45394,-0.346202,0.127268,18,32765
1.4431,-0.348666,0.126525,18,32765
1.4516,-0.355793,0.127589,18,32765
1.43107,-0.355718,0.126081,18,32765
1.4492,-0.365284,0.128017,19,32765
1.40936,-0.360119,0.124967,18,32765
1.42743,-0.369743,0.127009,18,32765
1.40692,-0.369383,0.125475,18,32765
1.43455,-0.381674,0.128474,18,32765
1.41403,-0.381155,0.127014,18,32765
1.41278,-0.385673,0.127261,19,32765
1.42108,-0.392915,0.128609,19,32765
1.4006,-0.392144,0.127067,18,32765
1.39928,-0.396666,0.127607,19,32765
1.39793,-0.401281,0.127975,19,32765
1.41572,-0.411316,0.130199,18,32765
1.39523,-0.410279,0.128802,18,32765
1.3843,-0.412004,0.128319,19,32765
1.40201,-0.422188,0.130503,19,32765
1.4006,-0.42666,0.131082,19,32765
1.38968,-0.428124,0.130758,18,32765
1.36925,-0.426646,0.129364,19,32765
1.36782,-0.431026,0.129959,19,32765
1.38537,-0.4414,0.132363,19,32765
1.36496,-0.43963,0.131192,19,32765
1.38246,-0.45001,0.133739,19,32765
1.37151,-0.451217,0.133706,19,32765
1.89325,0.0214683,0.15855,16,32765
1.8635,0.0148397,0.155126,16,32765
1.82375,0.0084452,0.150924,16,32765
1.81384,0.00246223,0.149539,16,32765
1.78402,-0.00345547,0.14618,15,32765
1.81393,-0.00958281,0.148157,16,32765
1.80398,-0.015512,0.146679,17,32765
1.80396,-0.0214939,0.146212,16,32765
1.78399,-0.0270499,0.143995,17,32765
1.80386,-0.0333171,0.145153,17,32765
1.80378,-0.0392879,0.144659,16,32765
1.78373,-0.0448005,0.142768,17,32765
1.76368,-0.0501452,0.140756,16,32765
1.79343,-0.0568572,0.142715,17,32765
1.75342,-0.0613354,0.139138,17,32765
1.74328,-0.0666621,0.138006,16,32765
1.76299,-0.0732638,0.139292,17,32765
1.74285,-0.078219,0.137345,17,32765
1.71272,-0.0825449,0.134825,16,32765
1.72241,-0.0888053,0.135308,17,32765
1.69227,-0.0928104,0.132753,16,32765
1.71187,-0.0995269,0.134183,17,32765
1.74141,-0.106993,0.136176,17,32765
1.71122,-0.110701,0.133708,17,32765
1.70092,-0.11565,0.132701,17,32765
1.66077,-0.11837,0.129357,17,32765
1.68025,-0.125363,0.130954,17,32765
1.65995,-0.129408,0.129337,17,32765
1.65953,-0.134857,0.129135,18,32765
1.70875,-0.14458,0.132869,17,32765
1.66855,-0.14672,0.129637,17,32765
1.63828,-0.14955,0.127218,17,32765
1.62784,-0.154109,0.12645,17,32765
1.63725,-0.160462,0.127135,18,32765
1.64663,-0.166947,0.127837,18,32765
1.65598,-0.173443,0.128585,19,32765
1.60584,-0.173579,0.124755,17,32765
1.59533,-0.177854,0.124066,18,32765
1.62445,-0.186518,0.126391,18,32765
1.62383,-0.191912,0.126338,18,32765
1.59348,-0.193696,0.124112,19,32765
1.62251,-0.202653,0.126482,19,32765
1.61193,-0.206833,0.12568,19,32765
1.59147,-0.209526,0.12415,18,32765
1.59076,-0.21484,0.124198,19,32765
1.58017,-0.218723,0.123439,18,32765
1.59919,-0.22672,0.12486,19,32765
1.55895,-0.226333,0.121854,17,32765
1.58776,-0.235862,0.124441,18,32765
1.55738,-0.236692,0.122289,18,32765
1.57628,-0.244987,0.123745,16,32765
1.55573,-0.247222,0.122389,18,32765
1.55486,-0.25257,0.12255,18,32765
1.53432,-0.254502,0.121198,17,32765
1.54329,-0.261312,0.122011,18,32765
1.52276,-0.263038,0.120491,18,32765
1.61024,-0.283604,0.127641,16,32765
1.55039,-0.278416,0.123221,18,32765
1.52986,-0.279904,0.121632,18,32765
1.5191,-0.283192,0.12093,19,32765
1.51814,-0.288222,0.121188,19,32765
1.50738,-0.291362,0.120427,18,32765
1.51617,-0.298344,0.121274,17,32765
1.5054,-0.301361,0.120627,19,32765
1.49461,-0.304425,0.119867,19,32765
1.51311,-0.313432,0.121506,19,32765
1.49253,-0.314403,0.120065,18,32765
1.52069,-0.325723,0.122468,19,32765
1.49037,-0.324414,0.120222,19,32765
1.48927,-0.32942,0.120292,19,32765
1.49791,-0.336449,0.121104,19,32765
1.48707,-0.339119,0.120509,19,32765
1.49567,-0.34626,0.121187,19,32765
1.49451,-0.351129,0.121413,20,32765
1.44486,-0.344495,0.117429,19,32765
1.45342,-0.351546,0.118235,19,32765
1.46192,-0.358725,0.119149,19,32765
1.42203,-0.353952,0.115985,18,32765
1.44018,-0.363506,0.117667,18,32765
1.45831,-0.373165,0.119134,19,32765
1.45708,-0.377938,0.119134,19,32765
1.42692,-0.375027,0.116819,18,32765
1.42569,-0.379688,0.116788,18,32765
1.40521,-0.379039,0.115332,18,32765
1.40398,-0.383619,0.115257,17,32765
1.42194,-0.393496,0.116852,18,32765
1.40146,-0.392737,0.115213,18,32765
1.40018,-0.397331,0.115036,18,32765
1.3893,-0.399065,0.114386,18,32765
1.37844,-0.400768,0.113502,18,32765
1.37717,-0.405117,0.113509,18,32765
1.38544,-0.412321,0.114164,18,32765
1.36504,-0.411003,0.112442,18,32765
1.38282,-0.421127,0.113903,18,32765
1.38147,-0.42553,0.113903,18,32765
1.3611,-0.423954,0.112067,19,32765
1.33126,-0.419215,0.109591,19,32765
1.36796,-0.435491,0.112439,18,32765
1.34764,-0.433608,0.110629,18,32765
1.35576,-0.440972,0.11113,17,32765
1.35443,-0.445115,0.110815,18,32765
1.86475,0.0212927,0.138461,17,32765
1.83496,0.0147452,0.135333,16,32765
1.82509,0.00857113,0.133714,15,32765
1.85507,0.00262778,0.135332,16,32765
1.81524,-0.00342088,0.131512,16,32765
1.81525,-0.00950676,0.131039,17,32765
1.81526,-0.015538,0.13037,17,32765
1.76536,-0.0209768,0.126332,16,32765
1.79525,-0.027174,0.127869,16,32765
1.77523,-0.0327541,0.126004,16,32765
1.73526,-0.0377734,0.122697,17,32765
1.74511,-0.0438199,0.123115,17,32765
1.74499,-0.0496146,0.122703,16,32765
1.75482,-0.0556453,0.122987,17,32765
1.79453,-0.062798,0.125367,18,32765
1.72456,-0.0659813,0.120154,17,32765
1.73432,-0.0721188,0.120562,18,32765
1.7341,-0.0778843,0.120191,17,32765
1.70395,-0.0821902,0.117954,18,32765
1.70368,-0.0879191,0.117656,17,32765
1.72332,-0.0946054,0.11882,18,32765
1.72301,-0.100278,0.118687,17,32765
1.70278,-0.104732,0.116976,18,32765
1.70244,-0.110258,0.116843,17,32765
1.70208,-0.115865,0.116614,18,32765
1.67185,-0.119304,0.114326,18,32765
1.69134,-0.126348,0.115736,18,32765
1.68097,-0.131214,0.114986,18,32765
1.69049,-0.137552,0.115461,19,32765
1.65026,-0.139817,0.112617,19,32765
1.65974,-0.146144,0.113154,19,32765
1.67912,-0.15349,0.114402,18,32765
1.66866,-0.158196,0.113729,18,32765
1.64828,-0.161773,0.112289,19,32765
1.64773,-0.1673,0.11222,19,32765
1.63725,-0.171731,0.111523,18,32765
1.64658,-0.178247,0.112219,19,32765
1.64597,-0.183774,0.112302,19,32765
1.62553,-0.186924,0.110963,18,32765
1.63481,-0.193505,0.111586,19,32765
1.61434,-0.196534,0.11032,18,32765
1.63348,-0.204339,0.111732,19,32765
1.58331,-0.203477,0.108317,18,32765
1.59252,-0.209994,0.109006,18,32765
1.61158,-0.217996,0.110408,19,32765
1.61085,-0.223325,0.110422,20,32765
1.59036,-0.22583,0.108946,18,32765
1.59946,-0.232589,0.109701,19,32765
1.57893,-0.234931,0.108619,19,32765
1.59784,-0.243238,0.110148,19,32765
1.58716,-0.247083,0.109376,16,32765
1.56659,-0.249358,0.10821,19,32765
1.6051,-0.261163,0.111098,19,32765
1.57468,-0.261631,0.109259,19,32765
1.56395,-0.265255,0.108612,19,32765
1.57289,-0.272154,0.109331,19,32765
1.55232,-0.273865,0.108114,17,32765
1.5612,-0.280832,0.109049,19,32765
1.53083,-0.28056,0.106963,19,32765
1.53968,-0.287519,0.107727,19,32765
1.5387,-0.292628,0.107989,19,32765
1.54752,-0.299634,0.108699,19,32765
1.52692,-0.300978,0.107389,17,32765
1.51613,-0.304035,0.106837,18,32765
1.52487,-0.311129,0.107551,18,32765
1.50429,-0.312149,0.106244,19,32765
1.49346,-0.315151,0.105681,18,32765
1.49237,-0.32022,0.105729,18,32765
1.4718,-0.320937,0.104455,18,32765
1.49018,-0.330207,0.10591,19,32765
1.49883,-0.337253,0.106628,19,32765
1.49771,-0.342153,0.106821,19,32765
1.46742,-0.340328,0.104633,19,32765
1.45658,-0.34283,0.104161,19,32765
1.44574,-0.345323,0.103424,19,32765
1.46399,-0.354741,0.104831,19,32765
1.44342,-0.354826,0.103567,19,32765
1.47127,-0.366873,0.105646,18,32765
1.45071,-0.366829,0.10436,19,32765
1.42051,-0.364157,0.102164,18,32765
1.40965,-0.366307,0.10147,18,32765
1.44705,-0.381015,0.104303,19,32765
1.42652,-0.380608,0.102882,19,32765
1.44455,-0.390368,0.104398,18,32765
1.40478,-0.38455,0.101539,19,32765
1.43236,-0.397117,0.103643,19,32765
1.43106,-0.401781,0.103582,18,32765
1.39137,-0.395568,0.100626,18,32765
1.39967,-0.402794,0.101459,19,32765
1.39836,-0.407323,0.101363,19,32765
1.37793,-0.406104,0.0999819,20,32765
1.39576,-0.416177,0.101236,20,32765
1.38488,-0.417767,0.100394,20,32765
1.38356,-0.422154,0.100283,20,32765
1.39173,-0.42951,0.100975,20,32765
1.37134,-0.42796,0.0993258,20,32765
1.37001,-0.432245,0.0991981,20,32765
1.36866,-0.436554,0.0989148,20,32765
1.34833,-0.434667,0.0972933,20,32765
1.36593,-0.445141,0.0983834,20,32765
1.39301,-0.458684,0.10011,20,32765
1.82665,0.0238901,0.108082,16,32765
1.83667,0.0180114,0.109221,16,32765
1.84667,0.0120059,0.110232,16,32765
1.85667,0.00591848,0.111165,16,32765
1.8267,-0.000320446,0.109921,16,32765
1.78674,-0.00628171,0.107804,16,32765
1.82662,-0.012474,0.110469,16,32765
1.78663,-0.0180129,0.108232,16,32765
1.83645,-0.0245809,0.111623,16,32765
1.81639,-0.0302168,0.110597,17,32765
1.76636,-0.0353246,0.107817,17,32765
1.78618,-0.0416993,0.109251,17,32765
1.78603,-0.0476248,0.109286,17,32765
1.74594,-0.0523146,0.107021,16,32765
1.78566,-0.0594107,0.109569,17,32765
1.72559,-0.0631582,0.106074,17,32765
1.72536,-0.0689321,0.106145,17,32765
1.71514,-0.0742384,0.105701,17,32765
1.74479,-0.0813242,0.1077,17,32765
1.73454,-0.0865641,0.107167,17,32765
1.72428,-0.0917051,0.106533,17,32765
1.71399,-0.0967937,0.106161,17,32765
1.7037,-0.101804,0.10562,17,32765
1.70336,-0.1074,0.105534,17,32765
1.71294,-0.113731,0.106352,17,32765
1.69264,-0.118027,0.105089,18,32765
1.68228,-0.123,0.104378,17,32765
1.6719,-0.127864,0.103887,17,32765
1.67146,-0.133547,0.103859,18,32765
1.66104,-0.13831,0.10349,17,32765
1.66058,-0.143865,0.103371,17,32765
1.65015,-0.148509,0.102756,18,32765
1.61982,-0.151262,0.101011,18,32765
1.63916,-0.158629,0.102443,18,32765
1.65848,-0.166052,0.103847,18,32765
1.6182,-0.167491,0.101303,18,32765
1.63749,-0.175022,0.102453,19,32765
1.64682,-0.181572,0.103057,19,32765
1.61644,-0.183701,0.101297,19,32765
1.63566,-0.191291,0.102621,19,32765
1.60528,-0.193159,0.100816,18,32765
1.59473,-0.19728,0.100077,18,32765
1.60397,-0.203922,0.100518,19,32765
1.60326,-0.209307,0.100706,18,32765
1.59265,-0.213315,0.100278,19,32765
1.59192,-0.218645,0.100438,19,32765
1.59118,-0.223971,0.10038,19,32765
1.58055,-0.227848,0.0996712,18,32765
1.58963,-0.234702,0.100389,18,32765
1.55924,-0.235463,0.0986814,19,32765
1.56831,-0.242137,0.099342,18,32765
1.53793,-0.242693,0.0973848,17,32765
1.54697,-0.249362,0.0979143,19,32765
1.55597,-0.256205,0.0985605,18,32765
1.54525,-0.259761,0.098125,19,32765
1.53453,-0.263309,0.0974295,19,32765
1.54346,-0.27016,0.0982282,18,32765
1.51308,-0.269975,0.0963925,18,32765
1.53183,-0.278544,0.097576,18,32765
1.5407,-0.285395,0.0984176,19,32765
1.54954,-0.292403,0.0991947,19,32765
1.53873,-0.295778,0.0985713,19,32765
1.54754,-0.302758,0.0993093,18,32765
1.50736,-0.300126,0.0968956,18,32765
1.4868,-0.301103,0.095722,18,32765
1.51512,-0.312028,0.0977558,18,32765
1.53359,-0.321161,0.0992357,19,32765
1.49347,-0.31789,0.096917,18,32765
1.51191,-0.327073,0.098309,18,32765
1.49132,-0.327725,0.0972041,19,32765
1.49996,-0.334826,0.098016,18,32765
1.46963,-0.333179,0.0963863,18,32765
1.44904,-0.333585,0.0953392,18,32765
1.44793,-0.338359,0.0954429,18,32765
1.50505,-0.356948,0.0996072,19,32765
1.47475,-0.354849,0.0979327,18,32765
1.47355,-0.359718,0.0982165,19,32765
1.47236,-0.364518,0.0984376,18,32765
1.45178,-0.364487,0.0973254,18,32765
1.43122,-0.364258,0.0965011,18,32765
1.45898,-0.376453,0.0988437,18,32765
1.41912,-0.371095,0.096368,18,32765
1.41789,-0.375668,0.096759,18,32765
1.43593,-0.385448,0.0982272,18,32765
1.43464,-0.390074,0.0986932,18,32765
1.40446,-0.386858,0.0971042,18,32765
1.41276,-0.394188,0.0980642,18,32765
1.44025,-0.406895,0.100638,16,32765
1.41011,-0.403356,0.0989721,18,32765
1.40879,-0.407839,0.0994121,18,32765
1.38831,-0.406714,0.0984328,19,32765
1.39649,-0.414089,0.0997192,19,32765
1.41423,-0.424307,0.101519,18,32765
1.37465,-0.41724,0.0992517,19,32765
1.38283,-0.424483,0.100452,19,32765
1.38145,-0.428827,0.100966,19,32765
1.36099,-0.427256,0.100261,20,32765
1.3691,-0.434589,0.101484,19,32765
1.35816,-0.435896,0.101516,18,32765
1.37571,-0.446319,0.103551,18,32765
1.35528,-0.44439,0.103069,19,32765
1.84756,0.0242854,0.0918373,17,32765
1.86758,0.0184256,0.0933875,16,32765
1.85762,0.0121755,0.093308,17,32765
1.83766,0.00594312,0.0926382,16,32765
1.83764,-0.00024922,0.0931908,17,32765
1.82763,-0.00636483,0.0929762,16,32765
1.80761,-0.0122961,0.0922136,17,32765
1.82752,-0.0183884,0.0934138,17,32765
1.83742,-0.024569,0.0942929,17,32765
1.76742,-0.0293897,0.0908874,16,32765
1.77728,-0.0355423,0.0916612,17,32765
1.80709,-0.0421989,0.0934243,17,32765
1.80694,-0.048206,0.0934597,18,32765
1.77682,-0.0532745,0.092091,17,32765
1.75666,-0.0584921,0.0911566,17,32765
1.77641,-0.0650765,0.0923748,17,32765
1.73626,-0.0694362,0.0903712,17,32765
1.73601,-0.075222,0.0905422,17,32765
1.69584,-0.0791326,0.0886122,17,32765
1.74544,-0.087212,0.0913015,17,32765
1.71523,-0.0913372,0.0897187,18,32765
1.71491,-0.0969702,0.0899626,18,32765
1.73451,-0.103783,0.0910859,18,32765
1.6943,-0.106975,0.0889065,18,32765
1.66403,-0.110639,0.0875329,18,32765
1.67362,-0.116868,0.0880308,18,32765
1.69314,-0.123974,0.0889858,19,32765
1.6927,-0.129647,0.0891144,19,32765
1.67235,-0.133819,0.0880375,19,32765
1.65197,-0.137765,0.0872382,18,32765
1.66146,-0.144164,0.0876441,18,32765
1.64107,-0.147924,0.0865985,18,32765
1.66045,-0.155301,0.0877638,19,32765
1.66984,-0.161857,0.0884858,18,32765
1.64941,-0.165411,0.0875939,19,32765
1.64885,-0.170941,0.0875361,19,32765
1.65821,-0.177527,0.0879698,18,32765
1.63775,-0.180872,0.0868998,18,32765
1.63713,-0.186363,0.0870038,19,32765
1.63651,-0.191712,0.0870843,19,32765
1.62594,-0.195976,0.0866191,19,32765
1.62529,-0.201402,0.0864999,19,32765
1.62461,-0.2069,0.0863173,18,32765
1.60409,-0.209775,0.0854534,19,32765
1.61326,-0.21645,0.0861775,19,32765
1.60263,-0.220499,0.0858097,20,32765
1.61177,-0.227266,0.0862809,20,32765
1.60112,-0.231219,0.0856655,19,32765
1.6102,-0.238157,0.0862905,19,32765
1.57977,-0.238987,0.084868,19,32765
1.60858,-0.248796,0.0864965,17,32765
1.56829,-0.247927,0.0842897,18,32765
1.58718,-0.256302,0.0852531,19,32765
1.57645,-0.260046,0.0847467,19,32765
1.59525,-0.268652,0.0860009,19,32765
1.56481,-0.268993,0.0843366,18,32765
1.57373,-0.27596,0.085045,17,32765
1.55315,-0.277629,0.0840247,18,32765
1.52275,-0.277402,0.0823617,18,32765
1.52182,-0.282415,0.0825755,18,32765
1.53066,-0.289375,0.083257,18,32765
1.51986,-0.292692,0.082728,19,32765
1.54828,-0.303466,0.0844398,18,32765
1.52767,-0.304736,0.0834732,19,32765
1.53644,-0.311737,0.0840963,19,32765
1.51584,-0.312761,0.08317,18,32765
1.53432,-0.321916,0.0844622,19,32765
1.50394,-0.320721,0.0830598,19,32765
1.53213,-0.332074,0.0848051,18,32765
1.49202,-0.328498,0.0828086,18,32765
1.48117,-0.331258,0.0824421,19,32765
1.46057,-0.331756,0.0816358,18,32765
1.46918,-0.338863,0.0824132,19,32765
1.46804,-0.343714,0.0825189,19,32765
1.48631,-0.353178,0.0839293,18,32765
1.45601,-0.351012,0.0825341,19,32765
1.45483,-0.355829,0.0828149,19,32765
1.45365,-0.360578,0.0830336,19,32765
1.45244,-0.365356,0.0832172,19,32765
1.45122,-0.370061,0.0836977,19,32765
1.4403,-0.372354,0.0835218,18,32765
1.41976,-0.371981,0.082544,18,32765
1.44748,-0.384252,0.0846282,19,32765
1.42693,-0.383777,0.0836511,19,32765
1.43528,-0.391009,0.084683,19,32765
1.41471,-0.390441,0.0839479,19,32765
1.44224,-0.403197,0.0859627,19,32765
1.39286,-0.394276,0.0836516,15,32765
1.40114,-0.401575,0.0845737,19,32765
1.40941,-0.408819,0.0855936,19,32765
1.3985,-0.410504,0.0853879,19,32765
1.38754,-0.412244,0.0854073,19,32765
1.39574,-0.419582,0.0864251,20,32765
1.39435,-0.424056,0.0869089,19,32765
1.40252,-0.431377,0.0880227,17,32765
1.38206,-0.429863,0.0873398,19,32765
1.38063,-0.43428,0.0880383,19,32765
1.36019,-0.432616,0.0873434,19,32765
1.36826,-0.440007,0.088697,19,32765
1.36682,-0.444316,0.0893089,19,32765
1.36537,-0.448584,0.0902626,19,32765
1.86724,0.0238371,0.0988118,16,32765
1.82741,0.0173086,0.0958338,16,32765
1.83748,0.0111516,0.0955571,16,32765
1.82756,0.00489937,0.0943645,16,32765
1.78765,-0.00107859,0.091698,16,32765
1.80765,-0.00695389,0.0920274,17,32765
1.80764,-0.0128881,0.0914978,17,32765
1.74769,-0.0182242,0.0879298,16,32765
1.76762,-0.0243365,0.0884863,17,32765
1.8075,-0.0308917,0.0898988,17,32765
1.77746,-0.0362436,0.0879623,17,32765
1.78732,-0.0424111,0.0883202,17,32765
1.73727,-0.0470307,0.0853703,16,32765
1.76707,-0.0537398,0.0865589,18,32765
1.77688,-0.0599718,0.0866735,18,32765
1.75673,-0.0651044,0.0852613,18,32765
1.73656,-0.0700626,0.0840417,17,32765
1.72635,-0.0753924,0.0833466,17,32765
1.69617,-0.079645,0.0816008,17,32765
1.74579,-0.0878239,0.0837532,17,32765
1.72555,-0.09249,0.0824973,17,32765
1.71528,-0.0976061,0.0817956,17,32765
1.68504,-0.101443,0.0803736,17,32765
1.70465,-0.108161,0.0809972,17,32765
1.66442,-0.11117,0.0789631,17,32765
1.66405,-0.116702,0.0787782,17,32765
1.70351,-0.1252,0.0805082,17,32765
1.67321,-0.128576,0.0789037,17,32765
1.72257,-0.138107,0.0811758,18,32765
1.66238,-0.138817,0.0782921,17,32765
1.65196,-0.143424,0.0777542,18,32765
1.65148,-0.148919,0.0777804,18,32765
1.67087,-0.156322,0.0785609,18,32765
1.6405,-0.159024,0.0772462,17,32765
1.6499,-0.165505,0.077676,17,32765
1.64935,-0.170985,0.0775021,18,32765
1.61897,-0.173233,0.0762717,18,32765
1.60845,-0.177597,0.0757489,18,32765
1.60785,-0.18302,0.0757424,18,32765
1.61714,-0.189637,0.0761204,18,32765
1.57683,-0.190225,0.0743484,18,32765
1.62577,-0.201523,0.0766587,18,32765
1.60526,-0.204373,0.0759702,18,32765
1.60458,-0.209695,0.0757727,19,32765
1.59396,-0.213739,0.0754686,19,32765
1.59323,-0.219128,0.075504,19,32765
1.60236,-0.225835,0.0764078,20,32765
1.60162,-0.231136,0.0761427,18,32765
1.57119,-0.232113,0.0747993,19,32765
1.57039,-0.23735,0.0750549,18,32765
1.57945,-0.244169,0.0756277,18,32765
1.53916,-0.243217,0.0737673,18,32765
1.55805,-0.25153,0.0749729,19,32765
1.54733,-0.255151,0.0745397,18,32765
1.56616,-0.263689,0.075557,19,32765
1.54557,-0.265586,0.0745906,19,32765
1.57419,-0.275913,0.0761526,17,32765
1.56341,-0.279411,0.075945,19,32765
1.55264,-0.282839,0.0755044,19,32765
1.54188,-0.286148,0.0750927,18,32765
1.55072,-0.293132,0.0757819,19,32765
1.5203,-0.292606,0.0746168,18,32765
1.55853,-0.305307,0.0766093,17,32765
1.50852,-0.300742,0.0742373,18,32765
1.51731,-0.307744,0.0746797,18,32765
1.51627,-0.312733,0.0749435,18,32765
1.49567,-0.313695,0.0739421,18,32765
1.50438,-0.320749,0.0746708,18,32765
1.47399,-0.319488,0.0732722,17,32765
1.50217,-0.330915,0.0747883,18,32765
1.49129,-0.333786,0.0745215,18,32765
1.48043,-0.336518,0.0739606,18,32765
1.47931,-0.341407,0.0740978,18,32765
1.4879,-0.348533,0.0747208,19,32765
1.46731,-0.348822,0.0737515,18,32765
1.47586,-0.355988,0.0742582,19,32765
1.45527,-0.356088,0.0733993,18,32765
1.43469,-0.356096,0.0724871,18,32765
1.46257,-0.368103,0.0740692,19,32765
1.43232,-0.365471,0.0726582,18,32765
1.4698,-0.380156,0.0746253,18,32765
1.42024,-0.372291,0.0722032,18,32765
1.43831,-0.382088,0.0732624,18,32765
1.42742,-0.384175,0.0726722,18,32765
1.4358,-0.391426,0.0731644,18,32765
1.41528,-0.390723,0.0722536,18,32765
1.45249,-0.406024,0.0742183,18,32765
1.45117,-0.410734,0.074267,15,32765
1.3922,-0.399005,0.0711529,18,32765
1.41006,-0.409174,0.0720969,18,32765
1.37999,-0.405247,0.070634,18,32765
1.40744,-0.418117,0.0721339,18,32765
1.36787,-0.411009,0.0699337,18,32765
1.36657,-0.415349,0.0698819,19,32765
1.39386,-0.42859,0.0712469,16,32765
1.34479,-0.418225,0.0687122,18,32765
1.35303,-0.425372,0.0691457,18,32765
1.3517,-0.429585,0.0690111,18,32765
1.36939,-0.439897,0.0696398,18,32765
1.34898,-0.438181,0.0682301,19,32765
1.33812,-0.439264,0.0676398,19,32765
1.85809,0.0238339,0.0807578,16,32765
1.82823,0.017415,0.0785905,16,32765
1.85828,0.0113646,0.0790693,17,32765
1.82837,0.00497367,0.0771203,17,32765
1.80842,-0.00103245,0.0756666,17,32765
1.81842,-0.00694904,0.0753852,17,32765
1.82841,-0.0130023,0.0752638,17,32765
1.80839,-0.0188365,0.0738877,17,32765
1.80834,-0.0248893,0.073429,17,32765
1.76831,-0.0302268,0.0712317,16,32765
1.76822,-0.0360726,0.0707876,17,32765
1.78807,-0.042459,0.0714511,17,32765
1.77795,-0.0481746,0.0705578,17,32765
1.74783,-0.053209,0.0690885,17,32765
1.72768,-0.0583774,0.0679349,17,32765
1.74746,-0.0648403,0.0682843,17,32765
1.69733,-0.0685687,0.0660883,17,32765
1.70708,-0.0746525,0.0662674,17,32765
1.71682,-0.0807286,0.0663509,18,32765
1.70657,-0.0859766,0.0657231,17,32765
1.68633,-0.0905237,0.0646626,18,32765
1.70599,-0.0972269,0.0652043,17,32765
1.67573,-0.101041,0.0640651,18,32765
1.7153,-0.109011,0.065261,18,32765
1.71493,-0.11473,0.0651175,18,32765
1.67468,-0.11764,0.0634172,18,32765
1.65435,-0.12179,0.06251,18,32765
1.67386,-0.128844,0.0630712,18,32765
1.68339,-0.135197,0.0633722,18,32765
1.65306,-0.138277,0.0621794,18,32765
1.64264,-0.142864,0.0617363,18,32765
1.64216,-0.148339,0.0617626,18,32765
1.66155,-0.155726,0.0623557,18,32765
1.65107,-0.160334,0.0620713,18,32765
1.67041,-0.167864,0.0627805,18,32765
1.65991,-0.172391,0.0622321,18,32765
1.62952,-0.174679,0.0612857,18,32765
1.63885,-0.181284,0.0616037,19,32765
1.63823,-0.186822,0.0615973,19,32765
1.63759,-0.19239,0.0615069,19,32765
1.63694,-0.197843,0.0616068,19,32765
1.63628,-0.203205,0.0615792,18,32765
1.60585,-0.204831,0.0607062,18,32765
1.60517,-0.210166,0.060509,19,32765
1.62426,-0.218212,0.0614231,19,32765
1.58391,-0.218259,0.0599604,20,32765
1.61284,-0.227743,0.0615227,20,32765
1.62197,-0.23452,0.061632,19,32765
1.60141,-0.237029,0.0609486,19,32765
1.6006,-0.242379,0.0612095,19,32765
1.58989,-0.246255,0.0609334,16,32765
1.59892,-0.253148,0.0613437,19,32765
1.57833,-0.255296,0.06085,19,32765
1.57746,-0.260623,0.0608925,19,32765
1.58642,-0.267619,0.061342,19,32765
1.5855,-0.272978,0.061326,19,32765
1.56489,-0.27482,0.0607006,16,32765
1.55412,-0.278294,0.0605859,18,32765
1.57284,-0.28708,0.0613908,19,32765
1.5424,-0.286809,0.0603063,19,32765
1.55125,-0.29381,0.0609019,19,32765
1.53063,-0.295176,0.060407,19,32765
1.51983,-0.298317,0.0600855,17,32765
1.51883,-0.303398,0.0601232,19,32765
1.51781,-0.308459,0.060084,19,32765
1.53634,-0.317505,0.061127,19,32765
1.50594,-0.31648,0.0599248,19,32765
1.49509,-0.319409,0.0597801,18,32765
1.50376,-0.326595,0.0602285,17,32765
1.50265,-0.331687,0.0602893,19,32765
1.49176,-0.334566,0.0601173,18,32765
1.49064,-0.339524,0.0600434,19,32765
1.47003,-0.339955,0.0593953,18,32765
1.45918,-0.342499,0.0591354,19,32765
1.50664,-0.358901,0.0611148,18,32765
1.46659,-0.354475,0.0595562,19,32765
1.45571,-0.356924,0.0592806,19,32765
1.46421,-0.364167,0.0597441,19,32765
1.44363,-0.36408,0.0590647,19,32765
1.42306,-0.363854,0.0583326,18,32765
1.43154,-0.371022,0.0587332,19,32765
1.4593,-0.383321,0.0599579,19,32765
1.46769,-0.390698,0.060434,19,32765
1.41817,-0.382477,0.0583487,19,32765
1.42656,-0.389714,0.0587474,19,32765
1.43492,-0.396972,0.0592172,19,32765
1.42402,-0.398894,0.0588189,18,32765
1.38426,-0.392617,0.0572763,17,32765
1.40217,-0.402703,0.0579082,19,32765
1.39123,-0.404558,0.0574752,19,32765
1.39951,-0.411844,0.0578807,19,32765
1.39821,-0.416252,0.0579095,19,32765
1.38734,-0.41774,0.0572728,19,32765
1.38601,-0.422152,0.0572208,18,32765
1.36553,-0.420773,0.0563332,17,32765
1.37372,-0.428131,0.056631,20,32765
1.39145,-0.438386,0.0573627,20,32765
1.37104,-0.436663,0.0564411,19,32765
1.36017,-0.437873,0.0557088,19,32765
1.37776,-0.448494,0.0560367,19,32765
1.36686,-0.449668,0.0555387,19,32765
1.82907,0.026287,0.0522375,16,32765
1.85911,0.0206056,0.0536503,16,32765
1.82917,0.0142119,0.0533476,16,32765
1.81919,0.00807216,0.0535546,17,32765
1.8392,0.00194407,0.0543152,16,32765
1.79919,-0.00407028,0.0537436,16,32765
1.82915,-0.0101337,0.0548716,16,32765
1.79912,-0.015925,0.054117,16,32765
1.79905,-0.0219171,0.0543023,17,32765
1.78896,-0.0278334,0.0542043,16,32765
1.82883,-0.0345034,0.0556091,17,32765
1.75874,-0.0390379,0.0538159,17,32765
1.77858,-0.0453787,0.0545832,17,32765
1.76843,-0.0509562,0.0543488,16,32765
1.74826,-0.0562031,0.054003,17,32765
1.77803,-0.0630657,0.0550384,17,32765
1.73786,-0.0673763,0.0539853,17,32765
1.74761,-0.0735493,0.0544344,17,32765
1.74735,-0.0793716,0.0545087,18,32765
1.69715,-0.0828357,0.0530622,17,32765
1.72681,-0.0900647,0.054007,17,32765
1.70653,-0.0947426,0.0535074,17,32765
1.70621,-0.100409,0.0535475,17,32765
1.69588,-0.1055,0.0533742,17,32765
1.68554,-0.110531,0.0532836,17,32765
1.66522,-0.11473,0.05261,17,32765
1.67481,-0.120917,0.0529796,17,32765
1.65445,-0.125018,0.0524355,17,32765
1.69388,-0.133672,0.0537249,18,32765
1.6735,-0.137753,0.0531015,18,32765
1.68298,-0.144236,0.0534815,18,32765
1.66258,-0.148086,0.0529291,17,32765
1.63222,-0.150835,0.0518908,18,32765
1.64165,-0.157251,0.05236,17,32765
1.67097,-0.165646,0.0532606,18,32765
1.62069,-0.166106,0.0516132,18,32765
1.62013,-0.171487,0.0517457,18,32765
1.67916,-0.183443,0.0536192,18,32765
1.62887,-0.183494,0.0520612,18,32765
1.62824,-0.189052,0.052048,18,32765
1.60774,-0.192154,0.0515288,18,32765
1.60708,-0.197522,0.0516416,18,32765
1.61633,-0.204138,0.05208,18,32765
1.60574,-0.208143,0.0518048,18,32765
1.59512,-0.212175,0.0515573,18,32765
1.6043,-0.218891,0.0519058,19,32765
1.58376,-0.221518,0.0511918,19,32765
1.57311,-0.225484,0.0507837,20,32765
1.60201,-0.235111,0.0518968,19,32765
1.6111,-0.241973,0.0521242,18,32765
1.59051,-0.244347,0.0517438,18,32765
1.54031,-0.241952,0.0500818,17,32765
1.58882,-0.255112,0.0515862,19,32765
1.58795,-0.260445,0.0518087,19,32765
1.57721,-0.264115,0.0514395,19,32765
1.56646,-0.267715,0.0513446,19,32765
1.55572,-0.271178,0.0510328,18,32765
1.52528,-0.27117,0.0499665,17,32765
1.55386,-0.281616,0.0511966,18,32765
1.53324,-0.283229,0.0507077,18,32765
1.53228,-0.288346,0.0507465,19,32765
1.53132,-0.293403,0.0507716,18,32765
1.53034,-0.298455,0.0508869,18,32765
1.54893,-0.307451,0.0517729,19,32765
1.49892,-0.302688,0.0503234,18,32765
1.51749,-0.311648,0.051125,19,32765
1.52622,-0.318711,0.0515856,19,32765
1.52515,-0.323774,0.0517338,18,32765
1.5143,-0.326703,0.0516275,18,32765
1.47414,-0.323191,0.0504957,18,32765
1.50229,-0.334711,0.0518108,18,32765
1.49141,-0.337524,0.0516189,18,32765
1.47079,-0.338024,0.0510902,18,32765
1.48913,-0.347405,0.0520978,19,32765
1.48796,-0.35231,0.0523607,19,32765
1.48682,-0.357084,0.0525963,19,32765
1.45651,-0.354828,0.0518589,18,32765
1.42623,-0.352386,0.0510444,18,32765
1.44444,-0.361917,0.0520524,18,32765
1.44322,-0.366687,0.0524109,18,32765
1.45169,-0.373867,0.0530263,19,32765
1.42143,-0.371091,0.0523305,18,32765
1.44917,-0.383417,0.0538213,19,32765
1.45753,-0.390778,0.0546642,19,32765
1.42729,-0.387727,0.0538747,18,32765
1.40674,-0.387074,0.0534126,18,32765
1.40546,-0.391634,0.0539218,18,32765
1.50036,-0.423284,0.0579784,16,32765
1.42209,-0.40617,0.0554978,18,32765
1.37275,-0.396898,0.0540605,18,32765
1.40021,-0.409782,0.0555425,18,32765
1.418,-0.420035,0.0569227,19,32765
1.38791,-0.415965,0.0564001,19,32765
1.40567,-0.426216,0.0576046,18,32765
1.44249,-0.442438,0.0596736,16,32765
1.3647,-0.423365,0.0570804,19,32765
1.38238,-0.433703,0.058554,19,32765
1.40003,-0.444106,0.0598485,18,32765
1.37006,-0.439314,0.0594711,19,32765
1.36864,-0.443646,0.0601015,19,32765
1.37671,-0.450977,0.061521,19,32765
1.84947,0.0266695,0.0353616,17,32765
1.85953,0.0206871,0.0361093,17,32765
1.85958,0.0145122,0.0366813,17,32765
1.87961,0.00839172,0.0375907,17,32765
1.87962,0.00202472,0.0377665,17,32765
